0	0	0	0	0	0	0	0	0	0	0	0	1657	1657	1665	1665	1665	1665	1673	1673	1673	1681	1690	1690	1698	1698	1698	1698	1698	1706	1706	1698	1706	1706	1706	1706	1715	1723	1723	1723	1759	1759	1759	1741	1741	1741	1741	1732	1732	1732	1732	1883	1883	1894	1904	1904	1904	1894	1904	1894	1894	1915	1915	2003	2003	2496	2496	2514	2496	2496	2496	2514	2496	2496	2514	2496	2514	2514	2514	2496	2514	2514	2496	2496	2514	2514	2514	2514	2514	2514	2532	2514	2514	2514	2514	2496	2496	2496	2496	2496	2496	2496	2532	2532	2514	2514	2532	2514	2496	2496	2496	2496	2514	2514	2514	2532	2532	2532	2532	2532	2532	2532	2514	2514	2514	2514	3406	3406	3406	3406	3373	3440	3440	3406	3341	3341	3341	3341	3341	3373	3373	3373	3373	3373	3341	3341	3341	3341	3309	3309	3309	3309	3341	3341	3341	3341	3341	3341	3341	3341	3309	3309	3309	3341	3341	3373	3406	3406	3440	3475	3475	3510	3510	3546	3546	3583	3583	3583	3583	3583	3583	3583	3621	3621	3621	3621	3621	3621	3621	3583	3621	3583	3621	3583	3583	3583	3583	3583	3583	3583	3583	3583	3583	3583	3583	3583	3583	3583	3583	3583	3621	2799	2799	2777	2777	2777	2754	2754	2754	2754	2754	2754	2754	2777	2777	2777	2777	2777	2777	2754	2733	2733	2733	2711	2711	2711	2711	2711	2711	2711	2711	2711	2711	2711	2711	2711	2711	2711	2711	2711	2711	2733	2711	2711	2711	2711	2711	2711	2711	2733	2711	2711	2711	2711	2711	2711	2711	2733	2733	2733	2754	2754	2754	2754	2754	2754	2754	2754	2754	2777	2777	2777	2777	2777	2777	2777	2777	2777	2777	2777	2799	2799	2822	2822	2822	2822	2845	2822	2822	2822	2822	2822	2822	2822	2845	3659	3659	3659	3659	3659	3621	3621	3621	3621	3621	3621	3583	3546	3546	3546	3546	3583	3583	3583	3583	3583	3583	3583	3583	3583	3583	3583	3583	3583	3583	3583	3583	3583	3583	3583	3583	3583	3583	3583	3583	3583	3583	3583	3583	3583	3583	3583	3583	3583	3583	3583	3583	3583	3583	3583	3583	3583	3583	3583	3583	3583	3583	3583	3583	3583	3583	3583	3583	3583	3583	3583	3583	3583	3583	3583	3583	3583	3583	3583	3583	3583	3583	3583	3583	3583	3621	3621	3583	3583	3583	3583	3583	3583	3583	3583	3583	3583	3583	3583	3583	3621	3621	3621	3621	3621	3621	3621	3583	3583	3583	3583	3583	3583	3583	3583	3583	3583	3583	3583	3583	3583	3583	3583	3583	3583	3583	3583	3583	3583	3583	3583	3583	3583	3583	3583	3583	3583	3583	3583	3546	3546	3583	3583	3583	3583	3583	3583	3583	3583	3583	3583	3583	3583	3583	3621	3621	3621	0	2223	2208	2208	2208	2208	2208	2194	2194	2181	2181	2153	2153	2140	2127	2101	2088	2076	2063	2039	2027	2015	2003	2003	1992	1980	1969	1958	1947	1936	1925	1915	1904	1904	1894	1873	1873	1853	1843	1843	1843	1833	1824	1824	0	0	0	0	0	0	0	0	0	0	0	0	0	0	0	0	0	0	0	0	0	0	0	0	0	0	0	0	0	0	0	0	0	0	0	0	0	0	0	0	0	0	0	0	0	0	0	0	0	0	0	0	0	0	0	0	0	0	0	0	0	0	0	0	0	0	0	0	0	0	0	0	0	0	0	0	0	0	0	0	0	0	0	0	0	0	0	0	0	0	0	0	0	0	0	0	0	0	0	0	0	0	0	0	0	0	0	0	0	0	0	0	0	0	0	0	0	0	0	0	0	0	0	0	0	0	0	0	0	0	0	0	0	0
0	0	0	0	0	0	0	0	0	0	0	0	1657	1665	1665	1673	1665	1673	1673	1673	1673	1681	1690	1698	1698	1698	1698	1698	1706	1706	1706	1706	1706	1706	1706	1715	1706	1706	1732	1732	1759	1759	1759	1741	1741	1741	1741	1732	1732	1732	1741	1741	1894	1904	1904	1904	1904	1894	1894	1883	1883	1883	1904	2003	2003	2003	2478	2496	2478	2496	2496	2496	2496	2496	2496	2496	2514	2514	2514	2496	2514	2514	2514	2514	2514	2514	2514	2514	2514	2514	2532	2514	2514	2514	2514	2514	2496	2496	2496	2496	2514	2514	2532	2532	2514	2532	2532	2514	2496	2496	2496	2496	2514	2514	2514	2514	2514	2532	2532	2532	2532	2532	2514	2514	2532	2532	3406	3406	3406	3406	3406	3440	3440	3406	3406	3406	3406	3406	3373	3373	3373	3406	3406	3406	3373	3373	3373	3373	3373	3341	3341	3341	3373	3373	3373	3373	3341	3373	3373	3373	3341	3341	3341	3373	3373	3373	3406	3406	3406	3406	3440	3475	3546	3546	3583	3583	3583	3583	3583	3583	3583	3583	3621	3621	3621	3621	3621	3621	3583	3583	3583	3583	3583	3583	3583	3583	3583	3583	3583	3583	3583	3583	3583	3583	3583	3621	3621	3583	3583	3583	3621	2777	2777	2777	2754	2777	2754	2754	2754	2754	2754	2754	2754	2754	2754	2777	2777	2754	2754	2754	2733	2733	2711	2711	2711	2711	2711	2733	2711	2711	2711	2711	2711	2711	2711	2711	2711	2711	2711	2711	2733	2733	2733	2711	2711	2711	2711	2711	2711	2711	2711	2711	2711	2711	2711	2711	2711	2711	2733	2733	2733	2754	2754	2754	2754	2754	2754	2777	2777	2777	2777	2777	2777	2777	2777	2777	2777	2777	2777	2777	2799	2799	2822	2822	2822	2822	2822	2822	2822	2822	2822	2822	2822	2822	2822	3659	3621	3621	3621	3621	3621	3621	3621	3621	3621	3621	3583	3546	3546	3546	3546	3583	3583	3583	3583	3583	3583	3583	3583	3583	3583	3583	3583	3583	3583	3583	3583	3583	3583	3583	3583	3583	3583	3583	3583	3583	3583	3583	3583	3583	3583	3583	3583	3583	3583	3583	3583	3583	3583	3583	3583	3583	3583	3583	3583	3583	3583	3583	3583	3583	3583	3583	3583	3583	3583	3583	3583	3583	3583	3583	3583	3583	3583	3583	3583	3583	3583	3583	3583	3583	3621	3621	3621	3583	3583	3583	3583	3583	3583	3583	3583	3583	3583	3583	3583	3621	3621	3621	3621	3621	3621	3621	3621	3583	3583	3583	3583	3583	3583	3583	3583	3583	3583	3583	3583	3583	3583	3583	3583	3583	3583	3583	3583	3583	3583	3583	3583	3583	3583	3583	3583	3583	3583	3583	3583	3583	3583	3583	3583	3583	3583	3583	3583	3583	3583	3583	3583	3583	3583	3621	3621	3621	3659	3621	3621	2208	2208	2208	2208	2208	2194	2181	2181	2153	2153	2140	2127	2101	2088	2076	2063	2039	2039	2015	2003	2003	1992	1980	1969	1969	1947	1936	1925	1915	1904	1904	1894	1883	1873	1853	1843	1843	1843	1833	1824	1824	0	0	0	0	0	0	0	0	0	0	0	0	0	0	0	0	0	0	0	0	0	0	0	0	0	0	0	0	0	0	0	0	0	0	0	0	0	0	0	0	0	0	0	0	0	0	0	0	0	0	0	0	0	0	0	0	0	0	0	0	0	0	0	0	0	0	0	0	0	0	0	0	0	0	0	0	0	0	0	0	0	0	0	0	0	0	0	0	0	0	0	0	0	0	0	0	0	0	0	0	0	0	0	0	0	0	0	0	0	0	0	0	0	0	0	0	0	0	0	0	0	0	0	0	0	0	0	0	0	0	0	0	0	0
0	0	0	0	0	0	0	0	0	0	0	0	0	1665	1665	1673	1673	1673	1681	1681	1690	1698	1706	1706	1715	1715	1715	1706	1715	1715	1715	1715	1715	1715	1715	1723	1723	1723	1732	1732	1759	1759	1732	1732	1741	1741	1741	1732	1732	1732	1741	1741	1741	1915	1915	1915	1915	1904	1904	1894	1894	1904	1904	2015	2003	2003	2003	2496	2478	2478	2478	2496	2496	2478	2496	2496	2514	2496	2514	2514	2514	2514	2514	2514	2514	2514	2514	2514	2514	2532	2532	2532	2532	2532	2532	2514	2514	2496	2496	2496	2496	2514	2514	2514	2514	2514	2514	2514	2496	2496	2496	2496	2514	2496	2514	2514	2496	2514	2532	2532	2532	2532	2532	2532	2532	2532	3440	3440	3406	3440	3440	3440	3440	3406	3406	3406	3406	3406	3406	3406	3406	3406	3406	3440	3406	3406	3373	3406	3373	3373	3373	3341	3373	3373	3373	3341	3341	3373	3373	3406	3373	3373	3406	3406	3406	3440	3440	3406	3406	3440	3440	3475	3510	3510	3546	3583	3546	3546	3583	3583	3583	3583	3621	3621	3621	3621	3621	3621	3583	3583	3583	3583	3583	3583	3583	3583	3583	3583	3583	3583	3583	3583	3583	3583	3583	3583	3583	3583	3583	3583	3583	2777	2777	2754	2754	2754	2754	2754	2754	2733	2733	2754	2754	2754	2754	2754	2777	2754	2754	2754	2733	2733	2711	2711	2711	2711	2711	2733	2711	2711	2733	2733	2711	2711	2711	2711	2711	2711	2711	2711	2733	2733	2733	2711	2711	2733	2711	2711	2711	2711	2711	2711	2711	2711	2711	2711	2711	2733	2733	2733	2754	2754	2754	2754	2754	2754	2754	2777	2777	2777	2777	2777	2777	2777	2777	2777	2777	2777	2777	2799	2799	2799	2799	2822	2799	2822	2822	2822	2799	2822	2822	2799	2822	2822	2822	3621	3621	3621	3621	3621	3621	3621	3621	3621	3621	3621	3583	3583	3546	3546	3546	3583	3583	3583	3583	3583	3621	3583	3583	3583	3583	3583	3583	3583	3583	3583	3583	3583	3583	3583	3583	3583	3583	3583	3583	3583	3583	3583	3583	3583	3583	3583	3583	3583	3583	3583	3583	3583	3583	3583	3583	3583	3583	3583	3583	3583	3583	3583	3583	3583	3583	3583	3583	3583	3583	3583	3583	3583	3583	3583	3583	3583	3583	3583	3583	3583	3583	3583	3583	3583	3583	3583	3583	3583	3583	3583	3583	3583	3583	3583	3583	3583	3583	3583	3583	3583	3621	3621	3621	3621	3621	3621	3621	3583	3583	3583	3583	3583	3583	3583	3583	3583	3583	3583	3583	3583	3583	3583	3583	3583	3583	3583	3583	3583	3583	3583	3583	3583	3583	3583	3583	3583	3583	3583	3583	3583	3583	3583	3583	3583	3583	3583	3583	3583	3583	3583	3583	3583	3583	3583	3583	3583	3621	3621	3621	2208	2208	2208	2208	2208	2194	2181	2181	2153	2153	2140	2127	2101	2088	2076	2063	2039	2039	2027	2003	2003	1992	1980	1969	1969	1947	1936	1925	1915	1904	1904	1894	1873	1873	1863	1853	1853	1843	1833	1804	1795	1786	1786	0	0	0	0	0	0	0	0	0	0	0	0	0	0	0	0	0	0	0	0	0	0	0	0	0	0	0	0	0	0	0	0	0	0	0	0	0	0	0	0	0	0	0	0	0	0	0	0	0	0	0	0	0	0	0	0	0	0	0	0	0	0	0	0	0	0	0	0	0	0	0	0	0	0	0	0	0	0	0	0	0	0	0	0	0	0	0	0	0	0	0	0	0	0	0	0	0	0	0	0	0	0	0	0	0	0	0	0	0	0	0	0	0	0	0	0	0	0	0	0	0	0	0	0	0	0	0	0	0	0	0	0
0	0	0	0	0	0	0	0	0	0	0	0	0	1665	1665	1673	1673	1681	1681	1690	1690	1698	1715	1715	1715	1715	1715	1715	1715	1723	1723	1715	1723	1723	1723	1732	1732	1732	1732	1732	1750	1750	1715	1715	1732	1732	1732	1732	1732	1732	1741	1741	1741	1741	1925	1915	1915	1904	1904	1894	1904	1904	1904	2003	2003	2003	2478	2496	2478	2478	2478	2496	2496	2478	2496	2496	2514	2496	2496	2496	2496	2496	2496	2514	2514	2514	2514	2514	2532	2532	2532	2532	2532	2532	2532	2532	2514	2514	2514	2496	2496	2514	2514	2514	2514	2514	2514	2514	2514	2514	2496	2496	2514	2496	2496	2496	2496	2514	2514	2532	2532	2532	2532	2532	2532	2532	3475	3440	3440	3440	3440	3440	3440	3406	3440	3440	3440	3406	3440	3440	3440	3440	3440	3440	3440	3440	3440	3440	3440	3406	3406	3406	3406	3406	3406	3373	3406	3406	3440	3440	3440	3440	3440	3440	3440	3440	3440	3440	3440	3440	3475	3475	3510	3510	3546	3546	3546	3546	3546	3583	3583	3583	3583	3621	3621	3621	3621	3621	3583	3583	3583	3583	3583	3583	3583	3583	3583	3583	3583	3583	3583	3583	3583	3583	3583	3583	3583	3583	3583	3583	3583	3546	2754	2754	2754	2754	2754	2754	2754	2733	2733	2754	2754	2754	2777	2777	2777	2754	2754	2754	2733	2733	2711	2711	2711	2711	2711	2711	2711	2711	2733	2733	2733	2711	2711	2733	2711	2711	2711	2711	2711	2733	2733	2711	2711	2711	2711	2711	2711	2711	2711	2711	2711	2711	2711	2711	2711	2733	2733	2733	2733	2754	2754	2754	2754	2754	2754	2754	2754	2754	2754	2777	2777	2777	2777	2777	2777	2777	2777	2799	2799	2799	2799	2822	2799	2822	2822	2799	2799	2822	2822	2799	2822	2822	2822	3659	3659	3659	3621	3621	3621	3621	3621	3621	3621	3621	3583	3583	3583	3546	3546	3583	3583	3583	3583	3583	3621	3621	3583	3583	3583	3583	3583	3583	3583	3583	3583	3583	3583	3583	3583	3583	3583	3583	3583	3583	3583	3583	3583	3583	3583	3583	3583	3583	3583	3583	3583	3583	3583	3583	3583	3583	3583	3583	3583	3583	3583	3583	3583	3583	3583	3583	3583	3583	3583	3583	3583	3583	3583	3583	3583	3583	3583	3583	3583	3583	3583	3583	3583	3583	3583	3583	3583	3583	3583	3583	3583	3583	3583	3583	3583	3583	3583	3583	3583	3583	3621	3621	3621	3621	3621	3621	3621	3583	3583	3583	3583	3583	3583	3583	3583	3583	3583	3583	3583	3583	3583	3583	3583	3583	3583	3583	3583	3583	3583	3583	3583	3583	3583	3583	3583	3583	3583	3583	3583	3583	3583	3583	3583	3583	3583	3583	3583	3583	3583	3583	3583	3583	3583	3583	3583	3583	3583	3583	3583	3583	2223	2208	2208	2208	2194	2194	2181	2167	2140	2140	2114	2101	2088	2076	2051	2051	2039	2015	2003	2003	1992	1980	1969	1969	1947	1936	1925	1915	1904	1894	1883	1873	1873	1863	1853	1853	1843	1833	1804	1795	1786	1777	1777	0	0	0	0	0	0	0	0	0	0	0	0	0	0	0	0	0	0	0	0	0	0	0	0	0	0	0	0	0	0	0	0	0	0	0	0	0	0	0	0	0	0	0	0	0	0	0	0	0	0	0	0	0	0	0	0	0	0	0	0	0	0	0	0	0	0	0	0	0	0	0	0	0	0	0	0	0	0	0	0	0	0	0	0	0	0	0	0	0	0	0	0	0	0	0	0	0	0	0	0	0	0	0	0	0	0	0	0	0	0	0	0	0	0	0	0	0	0	0	0	0	0	0	0	0	0	0	0	0	0	0
0	0	0	0	0	0	0	0	0	0	0	0	0	1665	1665	1673	1673	1681	1681	1681	1681	1690	1706	1715	1715	1715	1723	1723	1723	1723	1732	1723	1732	1732	1732	1741	1741	1750	1741	1741	1741	1750	1698	1698	1715	1732	1732	1732	1732	1741	1741	1741	1741	1741	1741	1925	1915	1894	1904	1894	1904	1915	1925	1958	1980	1992	2027	2027	2478	2478	2478	2478	2478	2478	2496	2496	2496	2496	2514	2496	2496	2496	2496	2514	2514	2514	2514	2514	2532	2532	2514	2514	2514	2514	2514	2514	2496	2496	2496	2496	2496	2514	2514	2514	2514	2514	2514	2514	2514	2514	2496	2496	2514	2496	2496	2496	2496	2514	2514	2514	2514	2532	2532	2532	2532	2532	3510	3475	3475	3475	3475	3475	3440	3440	3406	3440	3440	3440	3440	3440	3440	3475	3440	3475	3475	3475	3440	3440	3440	3440	3406	3406	3440	3440	3475	3440	3440	3440	3475	3440	3440	3440	3440	3440	3440	3440	3475	3440	3440	3440	3475	3475	3510	3510	3546	3546	3546	3546	3583	3583	3583	3583	3583	3583	3621	3621	3621	3621	3583	3583	3583	3583	3583	3583	3583	3583	3583	3583	3583	3583	3583	3583	3583	3583	3583	3583	3583	3583	3583	3546	3583	3546	2733	2733	2733	2733	2754	2733	2733	2733	2754	2754	2754	2777	2777	2777	2777	2754	2754	2754	2733	2733	2711	2711	2711	2711	2711	2711	2711	2711	2711	2733	2733	2711	2711	2733	2733	2711	2711	2711	2711	2733	2733	2711	2711	2711	2711	2711	2711	2711	2711	2711	2711	2711	2711	2711	2711	2711	2733	2733	2754	2754	2754	2754	2754	2754	2754	2754	2754	2754	2777	2777	2777	2777	2777	2777	2777	2777	2777	2799	2799	2799	2799	2822	2799	2822	2799	2799	2799	2799	2799	2799	2822	2822	2822	3621	3659	3659	3621	3621	3621	3621	3621	3621	3621	3583	3583	3583	3583	3583	3583	3583	3583	3621	3621	3621	3659	3621	3583	3583	3583	3583	3583	3583	3583	3583	3583	3583	3583	3583	3583	3583	3583	3583	3583	3583	3583	3583	3583	3583	3583	3583	3583	3583	3583	3583	3583	3583	3583	3583	3583	3583	3583	3583	3583	3583	3583	3583	3583	3583	3583	3583	3583	3583	3583	3583	3583	3583	3583	3583	3583	3583	3583	3583	3583	3583	3583	3583	3583	3583	3583	3583	3583	3583	3583	3583	3583	3583	3583	3583	3583	3583	3583	3583	3583	3583	3621	3621	3621	3621	3621	3621	3621	3583	3583	3583	3583	3583	3583	3583	3583	3583	3583	3583	3583	3583	3583	3583	3583	3583	3583	3583	3583	3583	3583	3583	3583	3583	3583	3583	3583	3583	3583	3583	3583	3583	3583	3583	3583	3583	3583	3583	3583	3583	3583	3583	3583	3583	3583	3583	3583	3583	3583	3583	3583	3583	2223	2208	2208	2208	2194	2194	2181	2167	2153	2140	2114	2101	2088	2063	2051	2051	2039	2015	2003	2003	1992	1980	1969	1969	1958	1936	1925	1915	1904	1894	1883	1873	1873	1863	1853	1853	1843	1833	1804	1795	1786	1759	1759	0	0	0	0	0	0	0	0	0	0	0	0	0	0	0	0	0	0	0	0	0	0	0	0	0	0	0	0	0	0	0	0	0	0	0	0	0	0	0	0	0	0	0	0	0	0	0	0	0	0	0	0	0	0	0	0	0	0	0	0	0	0	0	0	0	0	0	0	0	0	0	0	0	0	0	0	0	0	0	0	0	0	0	0	0	0	0	0	0	0	0	0	0	0	0	0	0	0	0	0	0	0	0	0	0	0	0	0	0	0	0	0	0	0	0	0	0	0	0	0	0	0	0	0	0	0	0	0	0	0	0
0	0	0	0	0	0	0	0	0	0	0	0	0	1657	1665	1673	1673	1681	1690	1690	1690	1698	1706	1715	1715	1715	1715	1723	1732	1732	1741	1732	1741	1732	1741	1741	1741	1750	1741	1741	1741	1698	1698	1690	1698	1723	1732	1732	1732	1741	1741	1741	1741	1741	1732	1915	1915	1915	1904	1904	1915	1915	1925	1936	1958	1969	1992	1992	2460	2460	2478	2496	2496	2496	2496	2496	2514	2496	2514	2496	2514	2496	2496	2514	2514	2514	2514	2514	2532	2532	2532	2514	2532	2532	2532	2514	2496	2496	2496	2496	2496	2496	2514	2514	2514	2514	2514	2514	2514	2514	2496	2496	2496	2496	2496	2496	2478	2496	2514	2514	2514	2532	2532	2532	2551	2551	3546	3510	3510	3510	3510	3510	3475	3475	3475	3440	3440	3440	3440	3475	3475	3475	3475	3475	3475	3475	3475	3475	3475	3475	3440	3440	3440	3475	3475	3440	3440	3440	3475	3475	3475	3475	3475	3475	3475	3475	3510	3510	3475	3475	3510	3510	3510	3510	3546	3546	3546	3546	3583	3583	3583	3583	3583	3621	3621	3621	3621	3621	3583	3583	3621	3621	3583	3621	3583	3583	3621	3621	3583	3621	3583	3583	3583	3583	3583	3583	3583	3583	3546	3546	3546	2711	2733	2733	2733	2733	2733	2733	2733	2711	2733	2754	2754	2777	2777	2777	2754	2754	2754	2733	2733	2711	2711	2711	2711	2711	2711	2711	2711	2711	2711	2711	2711	2711	2711	2733	2711	2711	2711	2711	2711	2711	2711	2711	2711	2711	2711	2711	2711	2711	2711	2711	2711	2711	2711	2711	2711	2711	2711	2733	2733	2754	2754	2754	2754	2754	2754	2754	2754	2754	2754	2777	2777	2777	2777	2777	2777	2777	2777	2799	2799	2799	2799	2799	2799	2799	2799	2799	2799	2822	2799	2799	2799	2799	2799	3621	3621	3621	3621	3621	3621	3621	3621	3583	3621	3583	3583	3583	3583	3583	3583	3621	3659	3698	3659	3621	3621	3621	3583	3583	3583	3583	3583	3583	3583	3583	3583	3583	3583	3583	3583	3583	3583	3583	3583	3583	3583	3583	3583	3583	3583	3583	3583	3583	3583	3583	3583	3583	3583	3583	3583	3583	3583	3583	3583	3583	3583	3583	3583	3583	3583	3583	3583	3583	3583	3583	3583	3583	3583	3583	3583	3583	3583	3583	3583	3583	3583	3583	3583	3583	3583	3583	3583	3583	3583	3583	3583	3583	3583	3583	3583	3583	3583	3583	3583	3583	3621	3621	3621	3621	3621	3621	3621	3583	3583	3583	3583	3583	3583	3583	3583	3583	3583	3583	3583	3583	3583	3583	3583	3583	3583	3583	3583	3583	3583	3583	3583	3583	3583	3583	3583	3583	3583	3583	3583	3583	3583	3583	3583	3583	3583	3583	3583	3583	3583	3583	3583	3583	3583	3583	3583	3583	3583	3583	3546	3546	0	2208	2208	2208	2194	2194	2181	2167	2140	2140	2114	2101	2088	2076	2063	2051	2027	2015	2003	2003	1992	1992	1980	1969	1958	1936	1925	1915	1904	1894	1883	1873	1873	1863	1853	1853	1843	1833	1795	1795	1777	1768	1768	0	0	0	0	0	0	0	0	0	0	0	0	0	0	0	0	0	0	0	0	0	0	0	0	0	0	0	0	0	0	0	0	0	0	0	0	0	0	0	0	0	0	0	0	0	0	0	0	0	0	0	0	0	0	0	0	0	0	0	0	0	0	0	0	0	0	0	0	0	0	0	0	0	0	0	0	0	0	0	0	0	0	0	0	0	0	0	0	0	0	0	0	0	0	0	0	0	0	0	0	0	0	0	0	0	0	0	0	0	0	0	0	0	0	0	0	0	0	0	0	0	0	0	0	0	0	0	0	0	0	0
0	0	0	0	0	0	0	0	0	0	0	0	0	1657	1657	1665	1665	1681	1681	1690	1681	1690	1706	1715	1715	1715	1715	1723	1732	1732	1741	1732	1741	1741	1741	1741	1741	1750	1750	1750	1750	1698	1698	1690	1698	1715	1723	1723	1723	1732	1741	1741	1741	1732	1732	1904	1904	1904	1904	1904	1904	1915	1925	1936	1958	1958	1992	1992	2460	2478	2496	2496	2496	2496	2514	2514	2514	2514	2496	2496	2496	2496	2496	2514	2514	2514	2514	2514	2532	2532	2514	2514	2532	2532	2532	2514	2514	2514	2514	2514	2514	2514	2532	2514	2514	2514	2514	2514	2514	2514	2496	2496	2496	2496	2496	2496	2496	2496	2514	2514	2514	2532	2532	2532	2532	3546	3546	3546	3546	3546	3546	3510	3510	3475	3475	3475	3475	3475	3475	3475	3475	3510	3510	3546	3546	3546	3546	3546	3510	3510	3475	3475	3475	3475	3475	3440	3440	3475	3475	3475	3475	3510	3510	3510	3510	3510	3546	3546	3510	3510	3510	3510	3510	3510	3510	3510	3546	3546	3583	3583	3583	3583	3583	3621	3621	3621	3621	3621	3583	3621	3621	3621	3583	3621	3583	3583	3621	3621	3621	3621	3621	3583	3621	3583	3583	3583	3583	3583	3546	3546	3583	2711	2711	2711	2711	2733	2733	2711	2711	2711	2733	2754	2754	2754	2777	2777	2754	2754	2733	2733	2733	2733	2711	2711	2711	2711	2711	2711	2711	2711	2711	2711	2711	2711	2711	2711	2711	2711	2711	2711	2711	2711	2711	2711	2711	2711	2711	2711	2711	2711	2711	2711	2711	2711	2711	2711	2711	2733	2733	2733	2733	2754	2754	2754	2754	2754	2754	2754	2754	2754	2754	2777	2777	2777	2777	2777	2777	2777	2777	2799	2799	2799	2799	2799	2799	2799	2799	2799	2799	2822	2799	2799	2822	2822	2822	2822	3621	3659	3621	3621	3621	3621	3621	3583	3621	3583	3583	3583	3583	3583	3621	3621	3621	3621	3621	3621	3621	3621	3583	3583	3583	3583	3583	3583	3583	3583	3583	3583	3583	3583	3583	3583	3583	3583	3583	3583	3583	3583	3583	3583	3583	3583	3583	3583	3583	3583	3583	3583	3583	3583	3583	3583	3583	3583	3583	3583	3583	3583	3583	3583	3583	3583	3583	3583	3583	3583	3583	3583	3583	3583	3583	3583	3583	3583	3583	3583	3583	3583	3583	3583	3583	3583	3583	3583	3583	3583	3583	3583	3583	3583	3583	3583	3583	3583	3583	3583	3621	3621	3621	3621	3621	3621	3621	3583	3583	3583	3583	3583	3583	3583	3583	3583	3583	3583	3583	3583	3583	3583	3583	3583	3583	3583	3583	3583	3583	3583	3583	3583	3583	3583	3583	3583	3583	3583	3583	3583	3583	3583	3583	3583	3583	3583	3583	3583	3583	3583	3583	3583	3583	3583	3583	3583	3583	3583	3583	3583	0	2208	2208	2208	2194	2194	2181	2167	2140	2140	2127	2101	2088	2076	2063	2051	2027	2015	2003	2003	1992	1992	1980	1969	1969	1936	1925	1915	1904	1894	1894	1883	1873	1873	1863	1853	1843	1833	1804	1795	1786	1786	1768	0	0	0	0	0	0	0	0	0	0	0	0	0	0	0	0	0	0	0	0	0	0	0	0	0	0	0	0	0	0	0	0	0	0	0	0	0	0	0	0	0	0	0	0	0	0	0	0	0	0	0	0	0	0	0	0	0	0	0	0	0	0	0	0	0	0	0	0	0	0	0	0	0	0	0	0	0	0	0	0	0	0	0	0	0	0	0	0	0	0	0	0	0	0	0	0	0	0	0	0	0	0	0	0	0	0	0	0	0	0	0	0	0	0	0	0	0	0	0	0	0	0	0	0	0	0	0	0	0	0	0
0	0	0	0	0	0	0	0	0	0	0	0	0	1649	1649	1665	1665	1673	1681	1690	1681	1690	1698	1706	1706	1715	1715	1715	1723	1732	1732	1741	1741	1741	1750	1768	1768	1777	1768	1759	1759	1690	1690	1690	1690	1698	1706	1706	1690	1698	1715	1723	1723	1706	1706	1904	1904	1904	1904	1904	1915	1915	1925	1936	1947	1958	1969	1969	2478	2478	2496	2514	2514	2514	2514	2514	2514	2514	2514	2496	2496	2496	2496	2514	2496	2514	2514	2514	2532	2532	2514	2514	2532	2532	2532	2532	2514	2514	2514	2514	2514	2496	2514	2514	2514	2496	2514	2514	2514	2514	2496	2496	2496	2496	2496	2496	2478	2496	2496	2496	2514	2532	2532	2532	2532	3583	3583	3583	3546	3546	3546	3546	3510	3510	3475	3475	3475	3475	3510	3510	3510	3510	3510	3546	3546	3546	3546	3546	3510	3510	3475	3475	3475	3475	3475	3475	3475	3475	3475	3475	3475	3510	3510	3510	3510	3510	3546	3546	3510	3510	3510	3546	3546	3546	3546	3546	3546	3546	3546	3583	3583	3583	3583	3621	3621	3621	3621	3621	3621	3583	3621	3583	3583	3583	3583	3583	3621	3621	3621	3621	3621	3621	3621	3621	3583	3583	3583	3583	3583	3583	2711	2711	2711	2711	2711	2711	2733	2733	2711	2711	2733	2754	2754	2754	2777	2777	2754	2754	2754	2754	2754	2733	2733	2733	2711	2711	2711	2711	2711	2711	2711	2711	2711	2733	2711	2711	2711	2711	2711	2711	2711	2711	2711	2711	2711	2711	2711	2711	2711	2711	2711	2711	2711	2711	2711	2733	2733	2733	2754	2733	2754	2754	2754	2754	2754	2733	2733	2754	2754	2754	2754	2754	2777	2777	2777	2777	2777	2777	2777	2777	2777	2799	2777	2799	2799	2822	2799	2799	2822	2822	2822	2822	2822	2822	2822	2822	3621	3659	3621	3621	3621	3621	3621	3583	3621	3583	3583	3583	3583	3583	3583	3583	3583	3621	3621	3583	3621	3621	3621	3621	3583	3583	3583	3583	3583	3583	3583	3583	3583	3583	3583	3583	3583	3583	3583	3583	3583	3583	3583	3583	3583	3583	3583	3583	3583	3583	3583	3583	3583	3583	3583	3583	3583	3583	3583	3583	3583	3583	3583	3583	3583	3583	3583	3583	3583	3583	3583	3583	3583	3583	3583	3583	3583	3583	3583	3583	3583	3583	3583	3583	3583	3583	3583	3583	3583	3583	3583	3583	3583	3583	3583	3583	3583	3583	3583	3583	3621	3621	3621	3621	3621	3621	3621	3621	3583	3583	3583	3583	3583	3583	3583	3583	3583	3583	3583	3583	3583	3583	3583	3583	3583	3583	3583	3583	3583	3583	3583	3583	3583	3583	3583	3583	3583	3583	3583	3583	3583	3583	3583	3583	3583	3583	3583	3583	3583	3583	3583	3583	3583	3583	3583	3546	3546	3546	3546	3546	0	2208	2208	2208	2194	2194	2167	2167	2140	2127	2114	2114	2101	2088	2063	2051	2027	2015	2003	2003	1992	1992	1992	1980	1969	1936	1925	1915	1904	1894	1894	1883	1873	1873	1863	1853	1843	1833	1824	1795	1777	1777	1777	0	0	0	0	0	0	0	0	0	0	0	0	0	0	0	0	0	0	0	0	0	0	0	0	0	0	0	0	0	0	0	0	0	0	0	0	0	0	0	0	0	0	0	0	0	0	0	0	0	0	0	0	0	0	0	0	0	0	0	0	0	0	0	0	0	0	0	0	0	0	0	0	0	0	0	0	0	0	0	0	0	0	0	0	0	0	0	0	0	0	0	0	0	0	0	0	0	0	0	0	0	0	0	0	0	0	0	0	0	0	0	0	0	0	0	0	0	0	0	0	0	0	0	0	0	0	0	0	0	0	0
0	0	0	0	0	0	0	0	0	0	0	0	0	1641	1649	1657	1657	1665	1673	1681	1681	1690	1698	1706	1706	1706	1706	1706	1732	1732	1741	1750	1759	1759	1768	1786	1786	1786	1786	1777	1768	1698	1698	1690	1690	1690	1698	1690	1690	1698	1706	1723	1715	1706	1706	1706	1915	1915	1915	1915	1915	1925	1925	1925	1936	1947	1947	1947	2496	2514	2514	2514	2514	2514	2514	2514	2514	2496	2496	2496	2496	2496	2496	2496	2496	2496	2496	2514	2532	2532	2532	2532	2532	2532	2532	2514	2514	2514	2514	2514	2514	2496	2514	2514	2514	2496	2514	2514	2514	2514	2496	2496	2514	2496	2496	2496	2478	2496	2514	2514	2532	2532	2532	2532	2532	3583	3583	3583	3583	3583	3583	3583	3546	3546	3510	3510	3510	3510	3546	3546	3546	3546	3546	3546	3546	3546	3546	3546	3546	3510	3510	3510	3510	3475	3475	3475	3510	3510	3510	3510	3510	3510	3510	3510	3510	3546	3546	3546	3546	3546	3546	3546	3546	3546	3510	3510	3510	3546	3546	3583	3583	3583	3583	3583	3621	3621	3621	3583	3583	3583	3583	3583	3583	3583	3583	3583	3583	3621	3621	3621	3621	3621	3621	3583	3583	3583	3583	3583	3583	3583	2690	2711	2711	2711	2711	2711	2711	2711	2711	2711	2733	2733	2733	2754	2754	2777	2754	2754	2754	2754	2754	2733	2733	2733	2711	2711	2711	2711	2711	2711	2711	2711	2711	2733	2711	2711	2711	2711	2711	2711	2711	2711	2711	2711	2711	2711	2733	2733	2733	2733	2733	2711	2733	2733	2733	2733	2754	2754	2754	2754	2754	2754	2754	2754	2754	2733	2733	2754	2754	2754	2754	2754	2777	2777	2777	2777	2777	2777	2777	2777	2777	2799	2799	2799	2799	2799	2822	2799	2822	2822	2822	2822	2822	2822	2822	2822	3583	3621	3621	3621	3621	3621	3621	3621	3621	3583	3583	3583	3583	3583	3621	3583	3621	3621	3583	3583	3583	3583	3583	3583	3583	3583	3583	3583	3583	3583	3583	3583	3583	3583	3583	3583	3583	3583	3583	3583	3583	3583	3583	3583	3583	3583	3583	3583	3583	3583	3583	3583	3583	3583	3583	3583	3583	3583	3583	3583	3583	3583	3583	3583	3583	3583	3583	3583	3583	3583	3583	3583	3583	3583	3583	3583	3583	3583	3583	3583	3583	3583	3583	3583	3583	3583	3583	3583	3583	3583	3583	3583	3583	3583	3583	3583	3583	3583	3583	3583	3583	3621	3621	3621	3621	3621	3621	3621	3583	3583	3583	3583	3583	3583	3583	3583	3583	3583	3583	3583	3583	3583	3583	3583	3583	3583	3583	3583	3583	3583	3583	3583	3583	3583	3583	3583	3583	3583	3621	3583	3583	3583	3583	3583	3583	3583	3583	3583	3583	3583	3583	3583	3546	3546	3583	3546	3546	3546	3546	3546	0	2208	2208	2194	2194	2194	2167	2167	2140	2127	2114	2114	2101	2088	2063	2051	2039	2015	2003	2003	2003	1992	1992	1969	1958	1936	1925	1915	1904	1904	1894	1883	1873	1873	1853	1853	1843	1824	1814	1814	1814	1777	1777	0	0	0	0	0	0	0	0	0	0	0	0	0	0	0	0	0	0	0	0	0	0	0	0	0	0	0	0	0	0	0	0	0	0	0	0	0	0	0	0	0	0	0	0	0	0	0	0	0	0	0	0	0	0	0	0	0	0	0	0	0	0	0	0	0	0	0	0	0	0	0	0	0	0	0	0	0	0	0	0	0	0	0	0	0	0	0	0	0	0	0	0	0	0	0	0	0	0	0	0	0	0	0	0	0	0	0	0	0	0	0	0	0	0	0	0	0	0	0	0	0	0	0	0	0	0	0	0	0	0	0
0	0	0	0	0	0	0	0	0	0	0	0	0	1641	1641	1649	1657	1665	1673	1681	1673	1681	1690	1698	1706	1698	1706	1706	1741	1759	1759	1777	1786	1786	1786	1786	1786	1795	1795	1786	1786	1698	1698	1690	1698	1706	1698	1698	1698	1698	1698	1715	1706	1698	1698	1698	1915	1915	1925	1925	1925	1925	1936	1936	1936	1947	1947	1947	2496	2514	2514	2514	2514	2514	2514	2496	2514	2496	2496	2496	2496	2496	2496	2496	2496	2496	2496	2514	2514	2514	2514	2514	2514	2514	2532	2514	2514	2514	2514	2514	2514	2496	2514	2514	2496	2496	2496	2496	2496	2514	2496	2496	2514	2496	2496	2496	2478	2496	2496	2496	2514	2514	2532	2532	2532	3621	3621	3621	3583	3583	3583	3583	3583	3583	3546	3546	3546	3546	3546	3546	3546	3546	3546	3583	3546	3546	3583	3546	3546	3546	3510	3510	3546	3510	3510	3510	3510	3510	3510	3510	3510	3546	3546	3510	3546	3510	3546	3546	3510	3510	3546	3546	3546	3546	3546	3546	3546	3546	3546	3583	3583	3583	3583	3583	3583	3583	3583	3583	3583	3583	3583	3583	3583	3583	3583	3583	3621	3621	3621	3621	3621	3583	3621	3583	3583	3583	3583	3583	3583	3583	2690	2711	2711	2711	2711	2711	2711	2711	2711	2711	2733	2733	2733	2754	2754	2777	2754	2754	2754	2754	2754	2733	2733	2733	2711	2711	2711	2711	2711	2711	2711	2711	2711	2711	2711	2711	2711	2711	2711	2711	2711	2711	2711	2711	2711	2711	2733	2733	2733	2733	2733	2733	2754	2754	2733	2754	2754	2754	2754	2733	2733	2733	2733	2733	2733	2733	2733	2754	2754	2754	2754	2754	2754	2754	2754	2754	2777	2777	2777	2777	2777	2777	2799	2799	2799	2799	2799	2799	2822	2822	2822	2822	2822	2799	2799	2799	3621	3621	3621	3621	3621	3621	3621	3621	3621	3621	3583	3583	3583	3583	3621	3583	3621	3621	3583	3583	3583	3583	3583	3583	3583	3583	3583	3583	3583	3583	3583	3583	3583	3583	3583	3583	3583	3583	3583	3583	3583	3583	3583	3583	3583	3546	3546	3546	3546	3546	3583	3583	3546	3546	3583	3583	3583	3583	3583	3583	3583	3583	3583	3583	3583	3583	3583	3583	3583	3583	3583	3583	3583	3583	3583	3583	3583	3583	3583	3583	3583	3583	3583	3583	3583	3583	3583	3583	3583	3583	3583	3583	3583	3583	3583	3583	3583	3583	3583	3583	3583	3583	3621	3621	3621	3621	3621	3621	3583	3583	3583	3583	3583	3583	3583	3583	3583	3583	3583	3583	3583	3583	3583	3583	3583	3583	3583	3583	3583	3583	3583	3583	3583	3583	3583	3583	3583	3583	3583	3583	3583	3583	3583	3583	3583	3583	3583	3583	3583	3583	3583	3583	3546	3583	3583	3546	3546	3546	3546	3546	0	0	2208	2194	2194	2194	2181	2167	2140	2140	2127	2114	2101	2088	2076	2051	2039	2015	2003	2003	2003	1992	1992	1969	1958	1947	1915	1915	1904	1894	1883	1873	1873	1863	1853	1843	1833	1824	1814	1795	1795	0	0	0	0	0	0	0	0	0	0	0	0	0	0	0	0	0	0	0	0	0	0	0	0	0	0	0	0	0	0	0	0	0	0	0	0	0	0	0	0	0	0	0	0	0	0	0	0	0	0	0	0	0	0	0	0	0	0	0	0	0	0	0	0	0	0	0	0	0	0	0	0	0	0	0	0	0	0	0	0	0	0	0	0	0	0	0	0	0	0	0	0	0	0	0	0	0	0	0	0	0	0	0	0	0	0	0	0	0	0	0	0	0	0	0	0	0	0	0	0	0	0	0	0	0	0	0	0	0	0	0	0	0
0	0	0	0	0	0	0	0	0	0	0	0	0	1649	1649	1657	1657	1665	1665	1673	1673	1673	1681	1681	1690	1690	1698	1698	1741	1750	1759	1786	1786	1795	1795	1795	1795	1804	1804	1804	1804	1814	1814	1698	1698	1706	1706	1698	1698	1698	1698	1706	1698	1690	1690	1698	1915	1925	1925	1925	1936	1936	1936	1947	1947	1947	1958	1958	1958	2514	2514	2514	2514	2514	2496	2496	2496	2478	2496	2478	2496	2478	2496	2496	2496	2496	2496	2514	2514	2514	2514	2514	2514	2514	2532	2514	2514	2514	2514	2514	2514	2496	2514	2514	2496	2496	2496	2496	2496	2514	2496	2496	2496	2496	2496	2496	2496	2496	2514	2496	2514	2532	2532	2532	2532	3621	3621	3621	3583	3583	3583	3583	3546	3546	3546	3546	3510	3546	3546	3546	3546	3546	3583	3583	3546	3546	3583	3583	3583	3546	3546	3546	3546	3546	3546	3510	3546	3510	3510	3510	3510	3510	3510	3510	3510	3510	3546	3546	3546	3510	3546	3546	3546	3546	3546	3546	3546	3546	3583	3583	3583	3583	3583	3583	3583	3583	3583	3583	3583	3583	3583	3583	3583	3583	3583	3583	3621	3621	3621	3583	3583	3583	3621	3583	3583	3583	3583	3583	3583	3583	2690	2711	2711	2711	2711	2711	2711	2711	2711	2711	2711	2733	2733	2754	2754	2754	2754	2754	2754	2754	2754	2733	2733	2733	2711	2711	2711	2711	2711	2711	2711	2711	2711	2711	2711	2711	2711	2711	2711	2711	2711	2711	2711	2711	2733	2733	2733	2733	2754	2754	2754	2754	2754	2754	2754	2754	2754	2754	2754	2733	2733	2733	2733	2733	2733	2733	2733	2733	2754	2733	2754	2754	2754	2754	2754	2754	2777	2777	2777	2777	2777	2777	2777	2799	2799	2799	2799	2799	2799	2799	2799	2799	2799	2799	2799	2799	3621	3621	3621	3621	3621	3621	3621	3621	3621	3621	3583	3583	3583	3583	3583	3583	3583	3583	3583	3583	3583	3583	3583	3583	3583	3583	3583	3583	3583	3583	3583	3583	3583	3583	3583	3583	3583	3583	3583	3583	3583	3583	3583	3583	3583	3546	3546	3546	3546	3546	3546	3546	3546	3583	3583	3583	3583	3583	3583	3583	3583	3583	3583	3583	3583	3583	3583	3583	3583	3583	3583	3583	3583	3583	3583	3583	3583	3583	3583	3583	3583	3583	3583	3583	3583	3583	3583	3583	3583	3583	3583	3583	3583	3583	3583	3583	3583	3583	3583	3583	3583	3621	3621	3621	3621	3621	3621	3621	3583	3583	3583	3583	3583	3583	3583	3583	3583	3583	3583	3583	3583	3583	3583	3583	3583	3583	3583	3583	3583	3583	3583	3583	3583	3583	3583	3583	3583	3583	3583	3583	3583	3583	3583	3583	3583	3583	3583	3583	3583	3583	3583	3583	3546	3583	3583	3546	3546	3546	3546	3546	0	0	2208	2208	2194	2194	2181	2167	2140	2140	2127	2127	2114	2088	2076	2051	2039	2015	2015	2003	2003	1992	1992	1969	1958	1947	1925	1925	1904	1894	1883	1883	1873	1863	1853	1843	1843	1833	1824	1824	1795	0	0	0	0	0	0	0	0	0	0	0	0	0	0	0	0	0	0	0	0	0	0	0	0	0	0	0	0	0	0	0	0	0	0	0	0	0	0	0	0	0	0	0	0	0	0	0	0	0	0	0	0	0	0	0	0	0	0	0	0	0	0	0	0	0	0	0	0	0	0	0	0	0	0	0	0	0	0	0	0	0	0	0	0	0	0	0	0	0	0	0	0	0	0	0	0	0	0	0	0	0	0	0	0	0	0	0	0	0	0	0	0	0	0	0	0	0	0	0	0	0	0	0	0	0	0	0	0	0	0	0	0	0
0	0	0	0	0	0	0	0	0	0	0	0	0	1657	1649	1657	1657	1665	1665	1673	1673	1681	1681	1681	1690	1690	1698	1715	1732	1741	1759	1777	1795	1795	1795	1804	1804	1804	1814	1804	1814	1824	1824	1824	1715	1715	1706	1698	1698	1698	1698	1698	1698	1690	1690	0	0	1925	1925	1925	1936	1936	1947	1947	1958	1958	1958	1958	1958	2496	2496	2514	2514	2514	2496	2496	2496	2496	2496	2496	2496	2496	2496	2496	2496	2496	2496	2496	2514	2514	2514	2514	2514	2514	2514	2514	2496	2496	2496	2496	2514	2496	2514	2496	2496	2496	2496	2496	2496	2496	2496	2496	2496	2496	2496	2514	2496	2514	2514	2514	2532	2532	2532	2532	2532	3621	3621	3621	3583	3583	3583	3583	3546	3546	3546	3546	3546	3546	3583	3546	3546	3546	3583	3583	3583	3583	3583	3583	3583	3583	3546	3546	3546	3546	3546	3510	3510	3510	3510	3510	3510	3510	3510	3546	3510	3510	3546	3546	3546	3510	3510	3546	3546	3546	3510	3510	3510	3546	3546	3583	3583	3583	3583	3583	3583	3583	3583	3583	3583	3583	3583	3583	3583	3583	3583	3583	3583	3621	3583	3583	3583	3621	3583	3583	3583	3583	3583	3583	3583	3583	2711	2711	2690	2711	2711	2711	2711	2711	2711	2711	2711	2711	2733	2754	2754	2754	2754	2754	2733	2754	2733	2733	2733	2711	2711	2711	2711	2711	2711	2711	2711	2711	2711	2711	2711	2711	2711	2711	2711	2711	2711	2711	2711	2711	2733	2733	2733	2754	2754	2754	2754	2754	2754	2754	2754	2754	2754	2754	2754	2733	2733	2733	2733	2733	2733	2711	2733	2733	2733	2733	2733	2754	2754	2754	2754	2754	2777	2754	2754	2777	2777	2777	2777	2777	2777	2799	2799	2799	2799	2799	2799	2799	2799	2777	2777	2777	3621	3621	3621	3621	3621	3621	3621	3621	3621	3621	3621	3583	3583	3583	3583	3583	3583	3583	3583	3583	3583	3583	3583	3583	3583	3583	3583	3583	3583	3583	3583	3583	3583	3583	3583	3583	3583	3583	3583	3583	3583	3583	3583	3583	3583	3546	3546	3546	3546	3546	3546	3546	3546	3583	3583	3583	3583	3583	3583	3583	3583	3583	3583	3583	3583	3583	3583	3583	3583	3583	3583	3583	3583	3583	3583	3583	3583	3583	3583	3583	3583	3583	3583	3583	3583	3583	3583	3583	3583	3583	3583	3583	3583	3583	3583	3583	3583	3583	3583	3583	3583	3583	3583	3621	3621	3621	3621	3621	3583	3583	3583	3583	3583	3583	3583	3583	3583	3583	3583	3583	3583	3583	3583	3583	3583	3583	3583	3583	3583	3583	3583	3583	3583	3583	3583	3583	3583	3583	3583	3583	3583	3583	3583	3583	3583	3583	3583	3583	3583	3583	3583	3583	3583	3583	3583	3546	3546	3546	3546	3546	0	0	2208	2208	2194	2194	2181	2167	2140	2140	2127	2114	2101	2088	2076	2063	2051	2015	2015	2003	2003	1992	1980	1969	1958	1947	1925	1915	1904	1894	1894	1873	1873	1863	1853	1843	1843	1833	1824	1824	0	0	0	0	0	0	0	0	0	0	0	0	0	0	0	0	0	0	0	0	0	0	0	0	0	0	0	0	0	0	0	0	0	0	0	0	0	0	0	0	0	0	0	0	0	0	0	0	0	0	0	0	0	0	0	0	0	0	0	0	0	0	0	0	0	0	0	0	0	0	0	0	0	0	0	0	0	0	0	0	0	0	0	0	0	0	0	0	0	0	0	0	0	0	0	0	0	0	0	0	0	0	0	0	0	0	0	0	0	0	0	0	0	0	0	0	0	0	0	0	0	0	0	0	0	0	0	0	0	0	0	0	0	0
0	0	0	0	0	0	0	0	0	0	0	0	0	1649	1649	1649	1657	1657	1665	1673	1673	1681	1690	1690	1698	1698	1706	1715	1732	1741	1759	1777	1795	1795	1804	1804	1804	1804	1814	1814	1814	1824	1833	1833	1833	1863	1698	1698	1698	1698	1698	1706	1698	1698	1698	0	1698	1698	1958	1958	1958	1958	1958	1958	1969	1958	1958	1958	1958	1958	2514	2532	2514	2514	2496	2496	2496	2496	2496	2496	2496	2496	2496	2496	2496	2496	2496	2496	2514	2514	2514	2514	2514	2514	2514	2514	2496	2496	2496	2496	2496	2496	2496	2496	2496	2496	2496	2496	2496	2496	2478	2496	2496	2496	2496	2514	2514	2514	2514	2514	2532	2532	2532	2532	2551	2551	3621	3583	3583	3546	3546	3546	3546	3546	3546	3546	3546	3546	3546	3546	3546	3546	3583	3583	3583	3583	3583	3583	3583	3583	3546	3546	3546	3546	3546	3510	3546	3510	3510	3510	3510	3510	3510	3510	3510	3510	3546	3546	3546	3510	3510	3510	3510	3510	3510	3510	3510	3510	3546	3546	3583	3583	3583	3583	3583	3583	3583	3583	3583	3583	3583	3583	3583	3583	3583	3583	3583	3621	3621	3583	3583	3583	3583	3583	3583	3583	3583	3583	3583	3583	2777	2690	2690	2690	2711	2711	2711	2711	2711	2711	2711	2711	2711	2733	2733	2754	2733	2754	2733	2733	2733	2733	2733	2711	2711	2711	2711	2711	2711	2711	2711	2711	2711	2711	2711	2711	2711	2711	2711	2711	2711	2711	2711	2733	2733	2733	2733	2754	2754	2754	2754	2754	2754	2754	2754	2754	2754	2754	2754	2733	2733	2733	2733	2733	2733	2711	2733	2733	2733	2733	2733	2733	2754	2754	2754	2754	2754	2754	2754	2754	2777	2777	2777	2777	2799	2799	2799	2799	2799	2799	2799	2799	2799	2777	2777	2777	0	3659	3621	3621	3621	3621	3621	3621	3621	3621	3621	3583	3583	3583	3583	3583	3583	3583	3583	3583	3583	3583	3583	3583	3583	3583	3583	3583	3583	3583	3583	3583	3583	3583	3583	3583	3583	3583	3583	3583	3583	3583	3583	3583	3583	3583	3583	3583	3583	3583	3583	3583	3546	3583	3583	3583	3583	3583	3583	3583	3583	3583	3583	3583	3583	3583	3583	3583	3583	3583	3583	3583	3583	3583	3583	3583	3583	3583	3583	3583	3583	3583	3583	3583	3583	3583	3583	3583	3583	3583	3583	3583	3583	3583	3583	3583	3583	3583	3583	3583	3583	3583	3583	3583	3621	3621	3621	3621	3583	3583	3583	3583	3583	3583	3583	3583	3583	3583	3583	3583	3583	3583	3583	3583	3583	3583	3583	3583	3583	3583	3583	3583	3583	3583	3583	3583	3583	3583	3583	3583	3583	3583	3583	3583	3583	3583	3583	3583	3583	3583	3583	3583	3583	3583	3583	3546	3546	3546	3546	3546	0	0	2208	2208	2194	2194	2181	2167	2140	2140	2114	2114	2101	2088	2076	2063	2051	2027	2015	2003	2003	1992	1980	1969	1958	1947	1936	1915	1904	1904	1894	1883	1873	1863	1863	1843	1843	1833	1824	1824	0	0	0	0	0	0	0	0	0	0	0	0	0	0	0	0	0	0	0	0	0	0	0	0	0	0	0	0	0	0	0	0	0	0	0	0	0	0	0	0	0	0	0	0	0	0	0	0	0	0	0	0	0	0	0	0	0	0	0	0	0	0	0	0	0	0	0	0	0	0	0	0	0	0	0	0	0	0	0	0	0	0	0	0	0	0	0	0	0	0	0	0	0	0	0	0	0	0	0	0	0	0	0	0	0	0	0	0	0	0	0	0	0	0	0	0	0	0	0	0	0	0	0	0	0	0	0	0	0	0	0	0	0	0
0	0	0	0	0	0	0	0	0	0	0	0	0	1657	1649	1649	1657	1665	1665	1673	1690	1690	1690	1690	1698	1698	1706	1715	1732	1741	1759	1768	1786	1795	1795	1795	1804	1804	1814	1814	1824	1824	1843	1843	1853	1873	1883	1706	1706	1706	1706	1715	1706	1706	1706	0	1698	1698	1958	1958	1969	1969	1969	1969	1969	1958	1969	1958	1958	1958	2514	2532	2514	2514	2496	2496	2496	2496	2496	2496	2496	2496	2496	2496	2496	2496	2496	2496	2514	2514	2514	2514	2496	2496	2496	2514	2496	2496	2496	2496	2496	2496	2496	2496	2496	2496	2496	2496	2496	2496	2478	2496	2496	2496	2496	2514	2496	2514	2514	2514	2514	2532	2532	2532	2532	2551	3621	3583	3546	3546	3546	3546	3546	3510	3510	3546	3546	3546	3546	3546	3546	3546	3583	3583	3583	3583	3583	3583	3583	3583	3546	3546	3546	3546	3546	3546	3546	3546	3546	3510	3510	3510	3510	3546	3510	3510	3510	3510	3510	3510	3510	3510	3510	3510	3510	3510	3510	3510	3546	3546	3546	3583	3583	3583	3583	3583	3583	3583	3583	3583	3583	3583	3583	3583	3583	3621	3621	3621	3621	3621	3583	3583	3583	3583	3583	3583	3583	3583	3546	3546	2711	2711	2690	2711	2711	2690	2690	2711	2711	2711	2711	2711	2711	2733	2733	2733	2733	2733	2733	2733	2733	2733	2711	2711	2711	2711	2711	2711	2711	2711	2711	2711	2711	2711	2711	2711	2711	2711	2711	2711	2711	2711	2711	2733	2733	2733	2754	2754	2754	2754	2754	2754	2754	2754	2754	2754	2754	2754	2754	2754	2754	2733	2733	2733	2733	2733	2733	2733	2733	2733	2733	2733	2754	2754	2754	2754	2754	2754	2754	2754	2754	2777	2777	2777	2799	2799	2799	2799	2799	2799	2777	2777	2777	2777	2777	2777	3621	3621	3621	3621	3621	3621	3621	3621	3621	3621	3621	3583	3546	3546	3583	3546	3546	3583	3583	3583	3583	3583	3583	3583	3583	3583	3583	3583	3583	3583	3583	3583	3546	3546	3546	3583	3583	3583	3583	3583	3583	3583	3583	3583	3583	3583	3583	3583	3583	3583	3583	3546	3546	3583	3583	3583	3546	3583	3583	3583	3583	3583	3583	3583	3583	3583	3583	3583	3583	3583	3583	3583	3583	3583	3583	3583	3583	3583	3583	3583	3583	3583	3583	3583	3583	3583	3583	3583	3583	3583	3583	3583	3583	3583	3583	3583	3583	3583	3583	3583	3583	3583	3583	3583	3621	3621	3621	3621	3621	3583	3583	3583	3583	3583	3583	3583	3583	3583	3583	3583	3583	3583	3583	3583	3583	3583	3583	3583	3583	3583	3583	3583	3583	3583	3583	3583	3583	3583	3583	3583	3583	3583	3583	3583	3583	3583	3583	3583	3583	3583	3583	3583	3583	3546	3546	3546	3546	3546	3546	3546	0	0	2208	2208	2194	2194	2181	2167	2153	2140	2114	2114	2101	2088	2076	2063	2051	2027	2015	2003	2003	1992	1980	1969	1958	1947	1936	1915	1904	1904	1894	1883	1873	1863	1853	1843	1843	1833	1824	1824	0	0	0	0	0	0	0	0	0	0	0	0	0	0	0	0	0	0	0	0	0	0	0	0	0	0	0	0	0	0	0	0	0	0	0	0	0	0	0	0	0	0	0	0	0	0	0	0	0	0	0	0	0	0	0	0	0	0	0	0	0	0	0	0	0	0	0	0	0	0	0	0	0	0	0	0	0	0	0	0	0	0	0	0	0	0	0	0	0	0	0	0	0	0	0	0	0	0	0	0	0	0	0	0	0	0	0	0	0	0	0	0	0	0	0	0	0	0	0	0	0	0	0	0	0	0	0	0	0	0	0	0	0	0
0	0	0	0	0	0	0	0	0	0	0	0	0	1665	1657	1657	1657	1665	1673	1673	1673	1690	1698	1698	1698	1698	1706	1715	1732	1750	1759	1759	1777	1786	1786	1786	1795	1795	1804	1804	1824	1824	1843	1843	1853	1863	1883	1883	1706	1706	1715	1715	1715	1715	1715	0	0	0	0	1969	1969	1969	1969	1969	1969	1969	1969	1969	1969	1969	1969	2514	2496	2496	2496	2478	2496	2478	2496	2496	2496	2496	2496	2496	2478	2478	2478	2478	2496	2496	2514	2496	2496	2496	2514	2496	2496	2496	2496	2496	2496	2496	2496	2496	2496	2496	2496	2496	2496	2496	2478	2496	2496	2496	2496	2496	2496	2514	2514	2514	2514	2532	2532	2532	2551	2551	3583	3583	3546	3546	3546	3546	3510	3510	3510	3546	3546	3546	3546	3546	3546	3546	3546	3583	3583	3583	3583	3583	3583	3583	3546	3546	3546	3546	3546	3546	3546	3546	3546	3546	3510	3510	3510	3510	3510	3510	3510	3546	3510	3510	3510	3510	3510	3510	3510	3475	3510	3510	3510	3546	3546	3583	3583	3583	3583	3583	3583	3583	3583	3583	3583	3583	3583	3583	3583	3583	3583	3583	3583	3583	3583	3583	3583	3583	3583	3583	3583	3546	3546	3546	3546	2711	2690	2711	2690	2690	2690	2690	2711	2690	2690	2690	2711	2711	2733	2733	2733	2733	2733	2733	2711	2711	2711	2711	2711	2711	2711	2711	2711	2711	2711	2711	2711	2711	2711	2711	2711	2711	2711	2711	2711	2711	2711	2711	2733	2733	2754	2754	2754	2754	2754	2754	2754	2754	2754	2754	2754	2754	2754	2754	2754	2754	2754	2754	2754	2733	2733	2733	2733	2733	2733	2733	2754	2754	2754	2754	2754	2754	2754	2754	2777	2777	2777	2777	2799	2777	2799	2777	2777	2777	2777	2777	2777	2777	2777	2777	3621	3659	3621	3621	3621	3621	3621	3621	3621	3621	3621	3583	3546	3546	3546	3546	3546	3546	3546	3583	3583	3583	3583	3583	3583	3583	3583	3583	3583	3583	3583	3546	3546	3546	3583	3583	3583	3583	3583	3583	3583	3583	3583	3583	3583	3583	3583	3583	3583	3583	3583	3546	3546	3583	3546	3583	3583	3583	3583	3583	3583	3583	3583	3583	3583	3583	3583	3583	3583	3583	3583	3583	3583	3583	3583	3583	3583	3583	3583	3583	3583	3583	3583	3583	3583	3583	3583	3583	3583	3583	3583	3583	3583	3583	3583	3583	3583	3583	3583	3583	3583	3583	3583	3583	3583	3583	3583	3583	3583	3583	3583	3583	3583	3583	3583	3583	3583	3583	3583	3583	3583	3583	3583	3583	3583	3583	3583	3583	3583	3583	3583	3583	3583	3583	3583	3583	3583	3583	3583	3583	3546	3583	3583	3583	3583	3583	3583	3583	3583	3583	3583	3583	3583	3546	3546	3546	3546	3546	3510	3510	0	0	2208	2194	2194	2194	2181	2167	2153	2140	2114	2114	2101	2088	2076	2063	2051	2039	2027	2015	2003	1992	1980	1969	1958	1947	1947	1915	1904	1894	1894	1883	1873	1863	1853	1833	1833	1824	1824	1814	1814	0	0	0	0	0	0	0	0	0	0	0	0	0	0	0	0	0	0	0	0	0	0	0	0	0	0	0	0	0	0	0	0	0	0	0	0	0	0	0	0	0	0	0	0	0	0	0	0	0	0	0	0	0	0	0	0	0	0	0	0	0	0	0	0	0	0	0	0	0	0	0	0	0	0	0	0	0	0	0	0	0	0	0	0	0	0	0	0	0	0	0	0	0	0	0	0	0	0	0	0	0	0	0	0	0	0	0	0	0	0	0	0	0	0	0	0	0	0	0	0	0	0	0	0	0	0	0	0	0	0	0	0	0
0	0	0	0	0	0	0	0	0	0	0	0	0	1665	1657	1657	1657	1665	1673	1673	1681	1690	1698	1698	1698	1706	1715	1715	1732	1741	1750	1750	1759	1777	1786	1786	1786	1795	1814	1814	1824	1833	1843	1843	1843	1863	1883	1883	1883	1863	1723	1723	1715	1723	1723	1732	1732	1732	1732	1969	1969	1958	1958	1958	1969	1980	1980	1980	1980	1980	1980	2496	2496	2496	2478	2478	2478	2478	2478	2478	2478	2478	2478	2478	2478	2478	2478	2478	2478	2496	2496	2496	2496	2496	2514	2496	2496	2496	2496	2496	2496	2496	2496	2496	2496	2496	2496	2496	2496	2496	2478	2478	2496	2496	2496	2496	2514	2514	2514	2514	2514	2514	2514	2514	2514	2551	3583	3583	3546	3510	3546	3546	3546	3510	3546	3546	3546	3546	3546	3583	3583	3583	3583	3583	3583	3583	3583	3583	3583	3583	3583	3546	3546	3546	3546	3546	3546	3546	3546	3510	3510	3510	3510	3546	3510	3510	3546	3546	3546	3510	3510	3510	3510	3510	3510	3475	3510	3510	3510	3546	3546	3546	3583	3546	3583	3583	3583	3583	3583	3583	3583	3583	3583	3583	3583	3583	3583	3583	3583	3583	3583	3583	3583	3583	3583	3583	3583	3546	3546	3546	2711	2711	2711	2711	2690	2690	2690	2690	2690	2690	2690	2690	2711	2733	2733	2733	2733	2733	2733	2733	2711	2711	2711	2711	2711	2711	2711	2711	2711	2711	2711	2711	2711	2711	2711	2711	2711	2711	2711	2711	2711	2711	2733	2733	2733	2733	2754	2754	2754	2754	2754	2754	2754	2754	2754	2754	2754	2754	2754	2754	2754	2754	2754	2754	2754	2733	2733	2733	2733	2733	2733	2733	2754	2754	2754	2754	2754	2754	2777	2777	2777	2777	2777	2777	2777	2777	2777	2777	2777	2777	2777	2777	2777	2777	2754	2754	0	3659	3621	3621	3621	3621	3621	3621	3621	3621	3621	3583	3546	3546	3546	3546	3546	3546	3583	3583	3583	3583	3583	3583	3583	3583	3583	3583	3583	3583	3546	3546	3546	3546	3546	3546	3546	3583	3583	3583	3583	3583	3583	3583	3583	3583	3583	3583	3583	3583	3583	3546	3546	3583	3546	3583	3583	3583	3583	3583	3583	3583	3583	3583	3583	3583	3583	3583	3583	3583	3583	3583	3583	3583	3583	3583	3583	3583	3583	3583	3583	3583	3583	3583	3583	3583	3583	3583	3583	3583	3583	3583	3583	3583	3583	3583	3583	3583	3583	3583	3583	3583	3583	3583	3583	3583	3583	3583	3583	3583	3583	3583	3583	3583	3583	3583	3583	3583	3583	3583	3583	3583	3583	3583	3583	3583	3583	3583	3583	3583	3583	3583	3583	3583	3583	3583	3583	3583	3583	3583	3546	3583	3583	3583	3583	3583	3583	3583	3583	3583	3583	3583	3583	3546	3546	3546	3546	3546	3546	3510	0	0	2208	2194	2194	2194	2181	2167	2153	2127	2114	2114	2101	2088	2076	2063	2051	2051	2015	2015	2003	1992	1980	1969	1958	1947	1925	1915	1904	1904	1894	1883	1873	1863	1853	1833	1833	1824	1824	1824	1824	0	0	0	0	0	0	0	0	0	0	0	0	0	0	0	0	0	0	0	0	0	0	0	0	0	0	0	0	0	0	0	0	0	0	0	0	0	0	0	0	0	0	0	0	0	0	0	0	0	0	0	0	0	0	0	0	0	0	0	0	0	0	0	0	0	0	0	0	0	0	0	0	0	0	0	0	0	0	0	0	0	0	0	0	0	0	0	0	0	0	0	0	0	0	0	0	0	0	0	0	0	0	0	0	0	0	0	0	0	0	0	0	0	0	0	0	0	0	0	0	0	0	0	0	0	0	0	0	0	0	0	0	0
0	0	0	0	0	0	0	0	0	0	0	0	0	1665	1657	1657	1665	1665	1673	1681	1681	1690	1698	1698	1698	1706	1715	1723	1732	1741	1750	1750	1750	1768	1777	1777	1777	1795	1814	1804	1824	1824	1833	1843	1843	1853	1863	1873	1873	1863	1863	1715	1715	1723	1723	1732	1732	1732	1732	1723	1732	1732	1732	1732	1980	1980	1992	1980	1980	1992	2003	2003	2015	2015	2496	2478	2478	2478	2478	2478	2496	2496	2478	2478	2478	2478	2478	2478	2478	2496	2496	2496	2496	2496	2514	2496	2496	2496	2496	2496	2496	2496	2496	2496	2496	2496	2514	2496	2496	2496	2478	2496	2496	2496	2496	2496	2514	2514	2532	2514	2514	2532	2532	2532	2532	0	3583	3546	3546	3546	3546	3546	3546	3510	3546	3583	3583	3546	3546	3583	3583	3583	3583	3583	3583	3583	3583	3583	3583	3583	3546	3546	3546	3546	3546	3546	3546	3546	3510	3510	3510	3510	3510	3546	3510	3546	3546	3546	3546	3546	3510	3510	3510	3510	3510	3475	3510	3510	3510	3510	3546	3546	3546	3546	3546	3583	3583	3583	3583	3583	3583	3583	3583	3583	3583	3583	3583	3583	3583	3583	3583	3583	3583	3583	3583	3583	3546	3546	3546	3510	3510	2711	2711	2711	2690	2690	2690	2690	2690	2690	2690	2690	2690	2711	2733	2733	2733	2733	2733	2733	2711	2711	2711	2711	2711	2711	2711	2690	2690	2711	2711	2711	2711	2711	2711	2711	2711	2711	2711	2711	2711	2733	2733	2733	2733	2754	2754	2754	2754	2754	2754	2754	2754	2754	2754	2754	2754	2754	2754	2754	2754	2754	2754	2777	2754	2754	2754	2754	2754	2754	2754	2733	2754	2754	2777	2777	2754	2754	2777	2777	2777	2777	2777	2777	2777	2777	2777	2777	2777	2777	2777	2777	2777	2777	2777	2777	2777	3659	3621	3621	3621	3621	3621	3621	3621	3621	3621	3583	3546	3546	3546	3546	3546	3546	3546	3583	3583	3583	3583	3583	3583	3583	3583	3583	3583	3583	3546	3546	3546	3546	3546	3546	3546	3583	3583	3583	3583	3583	3583	3583	3583	3583	3583	3583	3583	3546	3583	3546	3546	3583	3546	3583	3583	3583	3583	3583	3583	3583	3583	3583	3583	3583	3583	3583	3583	3583	3583	3583	3583	3583	3583	3583	3583	3583	3583	3583	3583	3583	3583	3583	3583	3583	3583	3583	3583	3583	3583	3583	3583	3583	3583	3583	3583	3583	3583	3583	3583	3583	3583	3583	3583	3583	3583	3583	3583	3583	3583	3583	3583	3583	3583	3583	3583	3583	3583	3583	3583	3583	3583	3583	3583	3583	3583	3583	3583	3583	3583	3583	3583	3583	3583	3583	3583	3583	3583	3583	3546	3583	3583	3583	3583	3583	3583	3583	3583	3583	3583	3583	3583	3546	3546	3546	3546	3546	3546	0	0	0	2208	2194	2194	2194	2181	2167	2153	2127	2114	2114	2101	2088	2076	2076	2051	2051	2015	2003	1992	1980	1969	1958	1958	1947	1925	1915	1904	1904	1894	1883	1873	1863	1853	1833	1833	1824	1824	1824	1824	0	0	0	0	0	0	0	0	0	0	0	0	0	0	0	0	0	0	0	0	0	0	0	0	0	0	0	0	0	0	0	0	0	0	0	0	0	0	0	0	0	0	0	0	0	0	0	0	0	0	0	0	0	0	0	0	0	0	0	0	0	0	0	0	0	0	0	0	0	0	0	0	0	0	0	0	0	0	0	0	0	0	0	0	0	0	0	0	0	0	0	0	0	0	0	0	0	0	0	0	0	0	0	0	0	0	0	0	0	0	0	0	0	0	0	0	0	0	0	0	0	0	0	0	0	0	0	0	0	0	0	0	0
0	0	0	0	0	0	0	0	0	0	0	0	0	1665	1657	1657	1657	1665	1673	1681	1690	1690	1698	1698	1698	1706	1715	1723	1732	1741	1750	1750	1741	1759	1768	1768	1768	1786	1804	1804	1814	1814	1833	1843	1833	1843	1853	1863	1863	1863	1863	1715	1715	1715	1723	1732	1732	1732	1732	1732	1732	1732	1732	1732	1723	1723	1992	1992	1992	1992	2003	2015	2015	2027	2039	2039	2496	2496	2514	2496	2496	2496	2478	2478	2478	2478	2478	2478	2478	2478	2478	2478	2496	2496	2514	2496	2496	2496	2496	2496	2496	2496	2514	2514	2496	2496	2514	2496	2496	2496	2478	2478	2496	2496	2496	2496	2514	2514	2532	2532	2514	2532	2532	2532	2532	2532	3583	3546	3546	3546	3546	3546	3546	3546	3583	3583	3583	3546	3546	3546	3583	3583	3583	3583	3583	3583	3583	3546	3546	3546	3546	3546	3510	3546	3546	3546	3546	3546	3546	3546	3510	3510	3510	3546	3546	3546	3546	3546	3546	3546	3510	3510	3510	3510	3510	3475	3475	3510	3510	3510	3546	3546	3546	3546	3546	3583	3583	3583	3583	3583	3583	3583	3583	3583	3583	3583	3583	3583	3583	3583	3583	3583	3583	3583	3583	3546	3546	3546	3510	3510	2711	2711	2690	2690	2690	2690	2690	2690	2690	2690	2690	2690	2690	2711	2711	2733	2733	2733	2733	2733	2711	2711	2711	2711	2711	2711	2711	2690	2690	2711	2711	2711	2711	2711	2711	2711	2711	2711	2711	2711	2711	2733	2733	2733	2754	2754	2754	2754	2754	2754	2754	2754	2754	2754	2754	2754	2754	2754	2754	2754	2777	2777	2754	2777	2754	2754	2754	2754	2754	2754	2754	2754	2754	2754	2777	2754	2754	2754	2777	2777	2777	2777	2777	2777	2799	2777	2777	2777	2777	2777	2777	2777	2777	2777	2777	2777	3583	3659	3621	3621	3621	3621	3621	3621	3621	3621	3621	3583	3546	3546	3546	3546	3546	3546	3583	3583	3583	3583	3583	3583	3583	3583	3583	3583	3583	3583	3546	3546	3546	3546	3546	3546	3546	3583	3583	3583	3583	3583	3583	3583	3583	3583	3583	3583	3583	3546	3583	3546	3546	3583	3546	3583	3546	3583	3583	3583	3583	3583	3583	3583	3583	3583	3583	3583	3583	3583	3583	3583	3583	3583	3583	3583	3583	3583	3583	3583	3583	3583	3583	3583	3583	3583	3583	3583	3583	3583	3583	3583	3583	3583	3583	3583	3583	3583	3583	3583	3583	3583	3583	3583	3583	3583	3583	3583	3583	3583	3583	3583	3583	3583	3583	3583	3583	3583	3583	3583	3583	3583	3583	3583	3583	3583	3583	3583	3546	3583	3583	3583	3583	3583	3583	3583	3583	3583	3583	3583	3583	3583	3583	3583	3583	3583	3583	3583	3583	3583	3583	3583	3546	3546	3546	3546	3546	3510	3510	0	0	0	2208	2194	2194	2194	2181	2167	2153	2140	2114	2101	2101	2088	2088	2076	2063	2051	2015	2003	1992	1980	1969	1958	1958	1947	1925	1915	1904	1894	1883	1883	1873	1863	1853	1833	1833	1824	1824	1824	1824	0	0	0	0	0	0	0	0	0	0	0	0	0	0	0	0	0	0	0	0	0	0	0	0	0	0	0	0	0	0	0	0	0	0	0	0	0	0	0	0	0	0	0	0	0	0	0	0	0	0	0	0	0	0	0	0	0	0	0	0	0	0	0	0	0	0	0	0	0	0	0	0	0	0	0	0	0	0	0	0	0	0	0	0	0	0	0	0	0	0	0	0	0	0	0	0	0	0	0	0	0	0	0	0	0	0	0	0	0	0	0	0	0	0	0	0	0	0	0	0	0	0	0	0	0	0	0	0	0	0	0	0	0
0	0	0	0	0	0	0	0	0	0	0	0	0	1665	1657	1657	1665	1665	1673	1681	1690	1690	1690	1698	1698	1698	1715	1715	1723	1732	1750	1741	1741	1759	1768	1768	1768	1777	1795	1795	1804	1804	1824	1824	1824	1833	1843	1853	1853	1853	1863	1863	1732	1732	1732	1732	1732	1741	1741	1732	1732	1732	1732	1723	1723	1723	2003	2003	2015	2015	2015	2015	2015	2027	2039	2051	2051	2051	2496	2496	2496	2496	2478	2478	2478	2460	2478	2478	2478	2478	2478	2496	2496	2496	2514	2496	2496	2496	2496	2496	2514	2496	2514	2514	2514	2514	2514	2514	2496	2496	2496	2496	2496	2496	2496	2496	2514	2514	2532	2532	2514	2514	2532	2532	2532	2532	3546	3546	3546	3546	3546	3546	3583	3583	3583	3583	3583	3583	3546	3546	3583	3546	3546	3583	3583	3583	3546	3546	3546	3546	3546	3510	3510	3546	3546	3583	3546	3546	3546	3546	3510	3510	3510	3546	3510	3546	3546	3583	3546	3510	3546	3546	3510	3546	3510	3510	3510	3510	3510	3510	3510	3546	3546	3546	3546	3583	3583	3583	3583	3583	3583	3583	3583	3583	3583	3583	3583	3583	3583	3583	3583	3583	3583	3583	3583	3583	3583	3546	3546	2799	2711	2711	2711	2690	2690	2690	2690	2690	2669	2669	2669	2669	2690	2690	2711	2711	2733	2733	2733	2711	2711	2711	2711	2711	2711	2690	2711	2711	2711	2711	2711	2711	2711	2711	2711	2711	2711	2711	2711	2711	2711	2733	2733	2733	2754	2754	2754	2754	2754	2754	2754	2754	2754	2754	2754	2754	2754	2754	2754	2754	2777	2777	2777	2777	2754	2754	2754	2754	2754	2754	2754	2754	2754	2754	2777	2754	2754	2777	2777	2777	2777	2777	2777	2777	2799	2777	2777	2777	2777	2777	2777	2777	2777	2777	2777	2777	2777	3621	3621	3621	3621	3621	3621	3621	3621	3621	3621	3583	3546	3546	3546	3546	3546	3546	3583	3583	3583	3583	3583	3583	3583	3583	3583	3583	3583	3583	3546	3546	3546	3546	3546	3546	3546	3583	3583	3583	3583	3583	3583	3583	3583	3583	3583	3583	3583	3546	3583	3546	3583	3583	3546	3583	3546	3546	3546	3583	3546	3546	3583	3583	3583	3583	3583	3583	3583	3583	3583	3583	3583	3583	3583	3583	3583	3583	3583	3583	3583	3583	3583	3583	3583	3583	3583	3583	3583	3583	3583	3583	3583	3583	3583	3583	3583	3583	3583	3583	3583	3583	3583	3583	3583	3583	3583	3583	3583	3583	3583	3583	3583	3583	3583	3583	3583	3583	3583	3583	3583	3583	3583	3583	3583	3583	3583	3583	3546	3583	3583	3583	3583	3583	3583	3583	3583	3583	3583	3583	3546	3583	3583	3583	3583	3583	3583	3583	3583	3583	3583	3583	3546	3546	3546	3546	3546	3510	3510	0	0	0	2208	2194	2194	2194	2181	2167	2153	2140	2114	2101	2101	2088	2076	2076	2063	2051	2039	2015	2003	1992	1980	1969	1958	1947	1936	1915	1904	1894	1883	1873	1863	1863	1853	1833	1824	1824	1824	1814	1814	1814	0	0	0	0	0	0	0	0	0	0	0	0	0	0	0	0	0	0	0	0	0	0	0	0	0	0	0	0	0	0	0	0	0	0	0	0	0	0	0	0	0	0	0	0	0	0	0	0	0	0	0	0	0	0	0	0	0	0	0	0	0	0	0	0	0	0	0	0	0	0	0	0	0	0	0	0	0	0	0	0	0	0	0	0	0	0	0	0	0	0	0	0	0	0	0	0	0	0	0	0	0	0	0	0	0	0	0	0	0	0	0	0	0	0	0	0	0	0	0	0	0	0	0	0	0	0	0	0	0	0	0	0
0	0	0	0	0	0	0	0	0	0	0	0	0	1665	1657	1657	1665	1665	1673	1681	1690	1690	1690	1698	1698	1698	1715	1706	1715	1732	1750	1741	1741	1759	1768	1768	1768	1768	1777	1786	1795	1804	1814	1814	1824	1833	1843	1853	1853	1863	1863	1863	1863	1732	1732	1732	1732	1732	1732	1732	1732	1732	1732	1723	1715	1715	1715	2015	2015	2015	2027	2015	2027	2027	2039	2051	2051	2051	2051	2496	2496	2496	2478	2478	2478	2478	2478	2478	2478	2478	2478	2478	2496	2496	2514	2514	2514	2514	2514	2514	2514	2514	2514	2514	2514	2496	2514	2496	2496	2496	2496	2496	2496	2496	2496	2496	2496	2514	2514	2514	2496	2514	2514	2514	2514	2532	3546	3546	3546	3546	3546	3583	3583	3583	3583	3583	3583	3583	3546	3583	3583	3583	3583	3583	3583	3583	3583	3546	3546	3546	3546	3546	3510	3546	3546	3583	3546	3546	3546	3546	3546	3546	3546	3546	3510	3546	3546	3546	3546	3510	3546	3546	3510	3546	3510	3510	3510	3510	3510	3510	3510	3546	3546	3583	3583	3583	3583	3583	3583	3583	3583	3583	3583	3583	3583	3583	3583	3583	3583	3583	3583	3583	3583	3583	3583	3583	3583	3583	3546	2799	2799	2711	2711	2690	2690	2690	2690	2690	2690	2669	2669	2690	2690	2690	2711	2711	2733	2733	2733	2711	2711	2711	2711	2711	2711	2711	2711	2711	2711	2711	2711	2711	2711	2711	2711	2711	2711	2711	2711	2711	2711	2733	2733	2733	2754	2754	2754	2777	2777	2777	2777	2777	2754	2754	2754	2754	2754	2754	2754	2754	2777	2777	2754	2777	2754	2754	2754	2754	2754	2754	2754	2733	2754	2777	2777	2777	2777	2777	2777	2777	2777	2777	2777	2777	2799	2777	2777	2777	2777	2777	2777	2777	2777	2777	2777	2777	3621	3621	3621	3621	3621	3621	3621	3621	3621	3621	3621	3546	3546	3546	3546	3546	3546	3546	3546	3583	3583	3583	3583	3583	3583	3583	3583	3583	3583	3583	3546	3546	3546	3546	3546	3546	3546	3546	3546	3546	3583	3583	3583	3546	3583	3546	3546	3546	3546	3546	3546	3546	3546	3583	3546	3546	3546	3546	3546	3546	3546	3583	3583	3583	3583	3583	3583	3583	3583	3583	3583	3583	3583	3583	3583	3583	3583	3583	3583	3583	3583	3583	3583	3583	3583	3583	3583	3583	3583	3583	3583	3583	3583	3583	3583	3583	3583	3583	3583	3583	3583	3583	3583	3583	3583	3583	3583	3583	3583	3583	3583	3583	3583	3583	3583	3583	3583	3583	3583	3583	3583	3583	3583	3583	3583	3583	3546	3546	3546	3583	3583	3583	3583	3583	3583	3583	3583	3583	3546	3546	3546	3546	3583	3546	3546	3583	3583	3583	3583	3583	3546	3583	3546	3546	3546	3546	3546	3546	3546	0	0	0	2208	2208	2194	2194	2181	2167	2153	2140	2114	2101	2101	2088	2076	2076	2063	2051	2015	2015	2003	1992	1980	1969	1958	1947	1936	1915	1904	1894	1883	1873	1863	1863	1853	1833	1824	1824	1824	1814	1804	1804	0	0	0	0	0	0	0	0	0	0	0	0	0	0	0	0	0	0	0	0	0	0	0	0	0	0	0	0	0	0	0	0	0	0	0	0	0	0	0	0	0	0	0	0	0	0	0	0	0	0	0	0	0	0	0	0	0	0	0	0	0	0	0	0	0	0	0	0	0	0	0	0	0	0	0	0	0	0	0	0	0	0	0	0	0	0	0	0	0	0	0	0	0	0	0	0	0	0	0	0	0	0	0	0	0	0	0	0	0	0	0	0	0	0	0	0	0	0	0	0	0	0	0	0	0	0	0	0	0	0	0	0
0	0	0	0	0	0	0	0	0	0	0	0	0	1657	1657	1657	1665	1665	1673	1681	1681	1681	1690	1690	1698	1706	1715	1706	1715	1723	1741	1741	1741	1759	1768	1768	1768	1768	1777	1786	1795	1804	1804	1814	1814	1833	1843	1843	1853	1863	1863	1873	1873	1883	1883	1883	1741	1741	1741	1741	1741	1732	1732	1732	1723	1723	1723	1723	2027	2027	2039	2027	2039	2039	2051	2051	2051	2051	2063	2063	2478	2496	2478	2478	2478	2478	2478	2478	2478	2478	2478	2478	2496	2496	2514	2496	2514	2496	2514	2514	2514	2496	2514	2514	2514	2496	2514	2496	2496	2496	2496	2496	2496	2496	2496	2496	2496	2514	2514	2514	2496	2496	2496	2514	2514	0	3546	3546	3583	3583	3583	3583	3583	3583	3583	3583	3583	3583	3583	3583	3583	3583	3583	3583	3583	3583	3546	3546	3546	3546	3546	3546	3546	3546	3546	3546	3546	3546	3546	3546	3546	3546	3546	3546	3546	3546	3510	3546	3546	3510	3546	3546	3510	3546	3510	3510	3510	3475	3510	3510	3510	3546	3546	3583	3583	3583	3583	3583	3583	3583	3583	3583	3583	3583	3583	3583	3583	3583	3583	3583	3583	3583	3583	3583	3583	3583	3583	3583	3583	3583	2754	2733	2711	2690	2690	2690	2690	2690	2690	2669	2669	2669	2690	2690	2711	2711	2733	2733	2733	2711	2711	2711	2711	2711	2711	2711	2711	2711	2711	2711	2711	2711	2711	2711	2711	2711	2711	2711	2711	2711	2711	2711	2733	2754	2754	2777	2777	2777	2777	2777	2777	2777	2777	2777	2777	2777	2777	2777	2777	2777	2777	2777	2777	2777	2754	2777	2754	2754	2754	2754	2754	2754	2754	2777	2777	2777	2777	2777	2777	2777	2777	2777	2777	2777	2777	2777	2777	2777	2777	2777	2777	2777	2777	2777	2777	2777	3583	3621	3621	3621	3621	3621	3621	3621	3621	3621	3621	3546	3546	3583	3546	3546	3546	3546	3546	3583	3583	3546	3583	3583	3583	3583	3583	3583	3583	3583	3583	3546	3546	3546	3546	3546	3546	3546	3546	3583	3583	3583	3546	3546	3546	3546	3546	3546	3546	3546	3546	3546	3546	3546	3546	3546	3546	3546	3546	3546	3546	3583	3583	3583	3583	3583	3583	3583	3583	3583	3583	3583	3583	3583	3583	3583	3583	3583	3583	3583	3583	3583	3583	3583	3583	3583	3583	3583	3583	3583	3583	3583	3583	3583	3583	3583	3583	3583	3583	3583	3583	3583	3583	3583	3583	3583	3583	3583	3583	3583	3583	3583	3583	3583	3583	3583	3583	3583	3583	3583	3583	3583	3583	3583	3583	3583	3583	3583	3546	3583	3583	3583	3583	3583	3583	3583	3583	3583	3546	3546	3546	3546	3546	3546	3546	3546	3546	3583	3546	3583	3546	3546	3546	3546	3546	3546	3546	3546	3546	0	0	2208	2208	2208	2194	2194	2194	2181	2153	2140	2114	2101	2101	2088	2088	2076	2063	2051	2039	2015	2003	1992	1980	1969	1958	1936	1915	1904	1904	1894	1883	1873	1863	1853	1843	1833	1833	1824	1824	1814	1804	1804	0	0	0	0	0	0	0	0	0	0	0	0	0	0	0	0	0	0	0	0	0	0	0	0	0	0	0	0	0	0	0	0	0	0	0	0	0	0	0	0	0	0	0	0	0	0	0	0	0	0	0	0	0	0	0	0	0	0	0	0	0	0	0	0	0	0	0	0	0	0	0	0	0	0	0	0	0	0	0	0	0	0	0	0	0	0	0	0	0	0	0	0	0	0	0	0	0	0	0	0	0	0	0	0	0	0	0	0	0	0	0	0	0	0	0	0	0	0	0	0	0	0	0	0	0	0	0	0	0	0	0	0
0	0	0	0	0	0	0	0	0	0	0	0	0	1657	1657	1657	1665	1665	1673	1681	1681	1681	1690	1690	1698	1706	1715	1715	1715	1723	1741	1741	1741	1759	1768	1768	1768	1777	1777	1786	1786	1795	1795	1804	1814	1824	1824	1843	1853	1863	1873	1873	1883	1883	1883	1894	1894	1894	1741	1741	1741	1741	1732	1732	1723	1723	1732	1732	1732	2039	2039	2039	2039	2051	2051	2063	2063	2063	2063	2063	2076	2076	2101	2101	2478	2478	2460	2478	2478	2478	2478	2496	2496	2496	2514	2496	2496	2496	2514	2514	2514	2514	2496	2514	2514	2496	2514	2496	2496	2496	2496	2496	2496	2496	2478	2478	2478	2496	2496	2514	2514	2532	2532	2532	2514	3546	3546	3583	3583	3583	3583	3583	3583	3583	3583	3583	3583	3583	3583	3583	3583	3583	3583	3583	3546	3583	3546	3546	3546	3546	3546	3546	3546	3546	3546	3583	3546	3546	3510	3546	3546	3546	3546	3546	3510	3510	3510	3510	3510	3510	3510	3510	3510	3546	3510	3510	3510	3510	3510	3510	3546	3546	3546	3546	3546	3546	3583	3583	3583	3583	3583	3583	3583	3583	3583	3583	3583	3583	3583	3583	3583	3583	3583	3583	3583	3583	3583	3583	3583	3583	2733	2733	2711	2711	2690	2690	2690	2690	2690	2669	2669	2669	2690	2690	2711	2733	2733	2733	2733	2733	2711	2711	2711	2711	2711	2711	2711	2711	2711	2711	2711	2711	2711	2711	2711	2711	2711	2711	2711	2711	2711	2733	2733	2754	2754	2777	2777	2777	2777	2777	2777	2777	2777	2777	2777	2777	2777	2777	2777	2777	2777	2777	2777	2777	2777	2777	2754	2754	2754	2754	2754	2754	2754	2777	2777	2777	2777	2777	2777	2777	2777	2777	2777	2777	2777	2777	2777	2777	2777	2777	2777	2777	2777	2777	2777	2777	3621	3621	3621	3621	3621	3621	3621	3621	3621	3621	3621	3546	3546	3583	3583	3546	3546	3583	3583	3583	3583	3546	3583	3583	3583	3583	3583	3583	3583	3583	3546	3546	3546	3546	3546	3546	3546	3546	3546	3583	3583	3583	3583	3546	3546	3546	3546	3546	3546	3546	3546	3546	3583	3583	3546	3546	3546	3546	3546	3546	3546	3583	3583	3583	3583	3583	3583	3583	3583	3583	3583	3583	3583	3583	3583	3583	3583	3583	3583	3583	3583	3583	3583	3583	3583	3583	3583	3583	3583	3583	3583	3583	3583	3583	3583	3583	3583	3583	3583	3583	3583	3583	3583	3583	3583	3583	3583	3583	3583	3583	3583	3583	3583	3583	3583	3583	3583	3546	3583	3583	3583	3583	3583	3583	3583	3583	3546	3546	3546	3546	3583	3583	3583	3583	3583	3583	3583	3583	3583	3583	3546	3546	3546	3546	3546	3546	3546	3546	3546	3546	3546	3546	3546	3546	3546	3546	3546	3546	3546	0	0	2208	2208	2208	2208	2194	2194	2181	2153	2140	2114	2101	2101	2088	2076	2076	2051	2039	2015	2015	2003	1992	1980	1969	1958	1947	1915	1915	1904	1894	1883	1873	1863	1863	1853	1843	1833	1833	1824	1814	1804	1804	0	0	0	0	0	0	0	0	0	0	0	0	0	0	0	0	0	0	0	0	0	0	0	0	0	0	0	0	0	0	0	0	0	0	0	0	0	0	0	0	0	0	0	0	0	0	0	0	0	0	0	0	0	0	0	0	0	0	0	0	0	0	0	0	0	0	0	0	0	0	0	0	0	0	0	0	0	0	0	0	0	0	0	0	0	0	0	0	0	0	0	0	0	0	0	0	0	0	0	0	0	0	0	0	0	0	0	0	0	0	0	0	0	0	0	0	0	0	0	0	0	0	0	0	0	0	0	0	0	0	0	0
0	0	0	0	0	0	0	0	0	0	0	0	0	1649	1649	1657	1665	1665	1673	1681	1681	1681	1681	1690	1690	1698	1715	1706	1715	1723	1732	1732	1741	1759	1759	1759	1768	1768	1777	1777	1786	1795	1795	1804	1804	1824	1833	1843	1853	1863	1873	1873	1883	1883	1883	1894	1894	1894	1741	1741	1741	1741	1732	1732	1723	1723	1723	1723	1723	1723	2039	2039	2051	2051	2063	2063	2063	2063	2063	2076	2076	2088	2114	2127	2127	2478	2478	2478	2478	2478	2478	2478	2496	2496	2496	2496	2496	2496	2514	2514	2514	2514	2514	2514	2514	2496	2496	2496	2496	2496	2496	2496	2496	2496	2478	2478	2496	2496	2514	2514	2514	2532	2532	2532	0	3546	3546	3583	3583	3583	3583	3583	3583	3583	3583	3583	3583	3583	3583	3546	3546	3583	3546	3583	3546	3546	3546	3546	3546	3546	3546	3546	3546	3546	3546	3546	3546	3546	3546	3546	3510	3546	3546	3510	3510	3510	3510	3510	3510	3510	3510	3510	3510	3546	3510	3510	3510	3510	3510	3510	3546	3546	3546	3583	3583	3583	3583	3583	3583	3583	3583	3583	3583	3583	3583	3583	3583	3583	3583	3583	3583	3583	3583	3583	3583	3583	3583	3583	3583	3583	2733	2733	2711	2690	2690	2690	2690	2690	2690	2669	2669	2669	2690	2690	2690	2711	2733	2733	2733	2733	2711	2711	2711	2711	2711	2711	2711	2711	2711	2711	2711	2711	2711	2711	2711	2711	2711	2711	2711	2711	2711	2733	2733	2754	2754	2777	2777	2777	2777	2777	2777	2777	2777	2777	2777	2777	2777	2777	2777	2777	2777	2777	2777	2777	2777	2754	2754	2754	2754	2754	2754	2754	2754	2777	2777	2777	2777	2777	2777	2777	2777	2777	2777	2777	2777	2777	2777	2777	2777	2777	2777	2777	2777	2777	2777	2777	3583	3621	3621	3621	3621	3621	3621	3621	3621	3621	3621	3546	3546	3583	3583	3546	3546	3546	3583	3583	3583	3546	3583	3546	3583	3583	3583	3583	3583	3546	3546	3546	3546	3546	3546	3546	3546	3546	3583	3583	3583	3583	3583	3546	3546	3546	3546	3546	3546	3546	3546	3546	3546	3583	3546	3546	3546	3546	3546	3546	3546	3583	3583	3583	3583	3583	3583	3583	3583	3583	3583	3583	3583	3583	3583	3583	3583	3583	3583	3583	3583	3583	3583	3583	3583	3583	3583	3583	3583	3583	3583	3583	3583	3583	3583	3583	3583	3583	3583	3583	3583	3583	3583	3583	3583	3583	3583	3583	3583	3583	3583	3546	3583	3583	3583	3583	3583	3583	3583	3583	3583	3583	3583	3583	3583	3583	3583	3546	3546	3546	3546	3583	3583	3583	3583	3583	3583	3583	3583	3583	3583	3583	3546	3546	3546	3546	3546	3546	3546	3546	3546	3546	3546	3546	3546	3546	3546	3546	3546	0	0	2208	2208	2208	2194	2194	2194	2181	2153	2140	2114	2101	2101	2088	2076	2076	2051	2039	2039	2015	2003	1992	1980	1969	1958	1947	1936	1915	1904	1894	1883	1873	1863	1863	1853	1843	1833	1833	1824	1814	1795	1795	0	0	0	0	0	0	0	0	0	0	0	0	0	0	0	0	0	0	0	0	0	0	0	0	0	0	0	0	0	0	0	0	0	0	0	0	0	0	0	0	0	0	0	0	0	0	0	0	0	0	0	0	0	0	0	0	0	0	0	0	0	0	0	0	0	0	0	0	0	0	0	0	0	0	0	0	0	0	0	0	0	0	0	0	0	0	0	0	0	0	0	0	0	0	0	0	0	0	0	0	0	0	0	0	0	0	0	0	0	0	0	0	0	0	0	0	0	0	0	0	0	0	0	0	0	0	0	0	0	0	0	0
0	0	0	0	0	0	0	0	0	0	0	0	0	1649	1649	1649	1657	1657	1665	1681	1681	1681	1681	1690	1690	1698	1715	1706	1715	1715	1715	1732	1741	1750	1759	1759	1768	1768	1777	1786	1786	1795	1804	1804	1804	1824	1833	1843	1853	1863	1873	1873	1883	1894	1894	1894	1894	1904	1904	0	0	0	0	1732	1732	1723	1723	1723	1723	1723	1723	2051	2051	2063	2063	2063	2063	2063	2076	2076	2088	2088	2101	2114	2114	2140	2153	2153	2167	2478	2478	2478	2496	2496	2496	2496	2496	2496	2514	2514	2514	2514	2496	2514	2514	2496	2496	2496	2496	2514	2514	2496	2496	2496	2478	2478	2496	2496	2514	2496	2514	2514	2532	2532	0	3546	3546	3583	3583	3583	3583	3583	3583	3583	3583	3583	3583	3583	3546	3546	3546	3546	3546	3583	3546	3546	3546	3546	3546	3546	3546	3546	3510	3546	3546	3546	3546	3510	3546	3546	3546	3546	3546	3510	3510	3510	3510	3510	3510	3475	3510	3475	3475	3510	3510	3510	3510	3546	3510	3546	3546	3583	3583	3583	3583	3583	3583	3583	3583	3583	3583	3583	3583	3583	3583	3583	3583	3583	3583	3583	3583	3583	3583	3583	3583	3583	3583	3583	3583	2822	2799	2799	2690	2690	2690	2690	2690	2669	2669	2669	2669	2669	2669	2690	2690	2711	2711	2711	2711	2733	2711	2711	2711	2711	2711	2711	2711	2711	2711	2711	2711	2711	2711	2711	2711	2711	2711	2711	2711	2711	2733	2733	2733	2754	2754	2777	2777	2777	2777	2799	2799	2777	2777	2777	2777	2777	2777	2777	2777	2777	2777	2777	2754	2777	2754	2754	2754	2754	2754	2754	2754	2754	2754	2754	2754	2754	2754	2777	2777	2777	2777	2777	2777	2777	2777	2777	2777	2754	2754	2777	2777	2777	2777	2777	2777	3621	3621	3621	3621	3621	3621	3621	3621	3621	3621	3621	3621	3546	3546	3583	3583	3583	3546	3546	3583	3583	3583	3546	3546	3546	3583	3583	3583	3583	3583	3546	3546	3546	3546	3546	3546	3546	3546	3583	3583	3583	3583	3583	3583	3583	3546	3546	3546	3546	3546	3546	3546	3546	3583	3583	3546	3546	3546	3546	3546	3546	3546	3546	3583	3546	3546	3583	3583	3583	3583	3583	3583	3583	3583	3583	3583	3583	3583	3583	3583	3583	3583	3583	3583	3583	3583	3583	3583	3583	3583	3583	3583	3583	3583	3583	3583	3583	3583	3583	3583	3583	3583	3583	3583	3583	3583	3583	3583	3583	3583	3583	3583	3583	3583	3583	3583	3583	3583	3546	3583	3583	3583	3583	3583	3583	3583	3583	3583	3546	3546	3546	3546	3583	3583	3583	3583	3583	3583	3583	3583	3583	3546	3546	3546	3546	3546	3546	3546	3546	3546	3546	3546	3546	3583	3546	3546	3546	3546	3546	3583	3583	0	2208	2208	2208	2194	2194	2194	2181	2153	2140	2114	2101	2101	2088	2076	2063	2051	2039	2027	2015	2003	1992	1980	1969	1958	1936	1925	1915	1904	1894	1883	1883	1873	1863	1853	1843	1833	1833	1824	1814	1795	1795	0	0	0	0	0	0	0	0	0	0	0	0	0	0	0	0	0	0	0	0	0	0	0	0	0	0	0	0	0	0	0	0	0	0	0	0	0	0	0	0	0	0	0	0	0	0	0	0	0	0	0	0	0	0	0	0	0	0	0	0	0	0	0	0	0	0	0	0	0	0	0	0	0	0	0	0	0	0	0	0	0	0	0	0	0	0	0	0	0	0	0	0	0	0	0	0	0	0	0	0	0	0	0	0	0	0	0	0	0	0	0	0	0	0	0	0	0	0	0	0	0	0	0	0	0	0	0	0	0	0	0	0
0	0	0	0	0	0	0	0	0	0	0	0	0	1649	1649	1649	1657	1657	1665	1681	1681	1681	1690	1690	1690	1698	1698	1706	1715	1723	1732	1732	1741	1750	1759	1759	1768	1768	1777	1786	1786	1795	1804	1804	1814	1824	1833	1833	1843	1863	1873	1873	1883	1894	1894	1904	1904	1904	1904	0	0	0	0	1732	1732	1732	1732	1732	1732	1732	1732	1732	1732	2063	2063	2063	2063	2063	2076	2076	2088	2088	2101	2114	2114	2140	2140	2153	2153	2153	2101	2101	2496	2496	2496	2514	2496	2496	2514	2514	2514	2514	2496	2496	2514	2496	2514	2496	2496	2514	2514	2496	2496	2496	2478	2478	2496	2496	2496	2496	2496	2514	2514	2514	0	3583	3583	3583	3583	3583	3583	3583	3583	3583	3546	3546	3583	3546	3546	3546	3546	3546	3546	3546	3546	3546	3546	3546	3546	3546	3583	3546	3546	3546	3546	3546	3546	3510	3510	3546	3510	3510	3510	3510	3510	3475	3475	3475	3475	3475	3475	3475	3510	3510	3510	3510	3510	3546	3546	3546	3583	3583	3583	3583	3583	3546	3546	3546	3583	3583	3583	3583	3583	3583	3583	3583	3583	3583	3583	3583	3583	3583	3583	3583	3583	3583	3583	3583	3583	2822	2799	2733	2690	2690	2690	2690	2690	2669	2669	2669	2669	2690	2690	2690	2690	2711	2711	2711	2711	2711	2711	2711	2711	2711	2711	2711	2711	2711	2711	2711	2711	2711	2711	2711	2711	2711	2711	2711	2711	2711	2711	2733	2733	2754	2754	2777	2777	2777	2777	2799	2799	2777	2777	2777	2777	2777	2777	2777	2777	2777	2777	2777	2754	2754	2754	2754	2754	2754	2754	2754	2754	2754	2754	2754	2754	2754	2754	2754	2777	2777	2777	2777	2777	2777	2777	2777	2777	2754	2754	2777	2777	2777	2777	2777	2777	3621	3621	3621	3621	3621	3621	3621	3621	3621	3621	3621	3583	3546	3546	3546	3546	3583	3546	3546	3546	3546	3546	3546	3546	3546	3546	3546	3583	3546	3583	3546	3546	3546	3546	3546	3546	3546	3546	3583	3583	3583	3583	3583	3583	3583	3546	3583	3583	3546	3546	3546	3546	3546	3546	3546	3546	3546	3546	3546	3546	3546	3546	3546	3546	3583	3583	3583	3583	3583	3546	3546	3546	3583	3583	3583	3583	3583	3583	3583	3583	3583	3583	3583	3583	3583	3583	3583	3583	3583	3583	3583	3583	3583	3583	3583	3583	3583	3583	3583	3583	3583	3583	3583	3546	3583	3583	3583	3583	3583	3583	3583	3583	3583	3583	3583	3583	3583	3583	3583	3583	3583	3583	3583	3583	3583	3583	3583	3583	3583	3583	3583	3583	3583	3583	3583	3583	3583	3583	3583	3546	3583	3546	3546	3546	3546	3546	3546	3546	3546	3546	3546	3546	3546	3583	3583	3583	3546	3546	3546	3583	3583	0	2208	2208	2208	2194	2194	2194	2181	2153	2140	2114	2101	2101	2088	2076	2063	2051	2039	2027	2015	2003	1992	1980	1969	1958	1936	1925	1915	1904	1904	1894	1883	1873	1863	1853	1843	1843	1833	1824	1814	1804	1804	0	0	0	0	0	0	0	0	0	0	0	0	0	0	0	0	0	0	0	0	0	0	0	0	0	0	0	0	0	0	0	0	0	0	0	0	0	0	0	0	0	0	0	0	0	0	0	0	0	0	0	0	0	0	0	0	0	0	0	0	0	0	0	0	0	0	0	0	0	0	0	0	0	0	0	0	0	0	0	0	0	0	0	0	0	0	0	0	0	0	0	0	0	0	0	0	0	0	0	0	0	0	0	0	0	0	0	0	0	0	0	0	0	0	0	0	0	0	0	0	0	0	0	0	0	0	0	0	0	0	0	0
0	0	0	0	0	0	0	0	0	0	0	0	0	1641	1641	1649	1649	1649	1665	1673	1673	1681	1690	1690	1698	1698	1706	1715	1723	1723	1732	1732	1741	1750	1759	1759	1759	1768	1777	1777	1786	1795	1804	1804	1814	1833	1833	1843	1853	1863	1873	1873	1883	1894	1894	1904	1904	1904	1915	1925	1925	0	0	1732	1741	1741	1741	1741	1741	1741	1741	1741	1741	1741	2076	2076	2076	2076	2088	2088	2088	2101	2101	2114	2127	2140	2140	2153	2167	2167	2167	2167	2114	2114	2496	2514	2496	2496	2532	2532	2514	2514	2496	2496	2496	2496	2496	2496	2496	2496	2496	2496	2496	2496	2478	2478	2496	2496	2496	2496	2496	2514	2532	2532	0	3583	3583	3583	3583	3583	3583	3583	3583	3546	3546	3546	3546	3546	3546	3510	3546	3546	3546	3546	3546	3546	3546	3546	3546	3583	3583	3546	3546	3546	3546	3546	3510	3510	3546	3546	3510	3510	3510	3510	3510	3510	3475	3475	3475	3475	3475	3475	3475	3510	3510	3510	3510	3546	3546	3546	3546	3583	3583	3583	3583	3546	3546	3510	3546	3546	3546	3583	3583	3583	3583	3583	3583	3583	3583	3583	3583	3583	3583	3583	3583	3583	3583	3583	3583	2799	2777	2733	2711	2690	2690	2690	2690	2690	2690	2669	2690	2690	2690	2690	2690	2690	2711	2711	2711	2711	2711	2711	2711	2711	2711	2711	2711	2711	2711	2711	2711	2711	2711	2711	2711	2711	2711	2711	2711	2711	2711	2733	2733	2754	2754	2777	2777	2777	2777	2799	2799	2777	2777	2777	2777	2777	2777	2777	2777	2777	2777	2777	2754	2754	2754	2754	2754	2754	2754	2754	2754	2754	2754	2754	2754	2754	2754	2777	2777	2777	2777	2777	2777	2777	2777	2777	2777	2754	2754	2777	2777	2777	2777	2777	2777	3621	3621	3621	3621	3621	3621	3621	3583	3583	3583	3583	3583	3546	3546	3583	3583	3583	3546	3546	3546	3546	3546	3546	3546	3546	3546	3546	3583	3546	3546	3546	3546	3546	3546	3546	3546	3546	3546	3546	3583	3583	3583	3583	3546	3583	3546	3583	3583	3546	3546	3546	3546	3546	3546	3546	3546	3546	3546	3546	3546	3546	3546	3546	3546	3546	3583	3583	3583	3583	3546	3546	3546	3546	3583	3583	3583	3583	3583	3583	3583	3583	3583	3583	3583	3583	3583	3583	3583	3583	3583	3583	3583	3583	3583	3583	3583	3583	3583	3583	3583	3546	3583	3583	3546	3583	3583	3583	3583	3583	3583	3583	3583	3583	3583	3583	3583	3583	3583	3546	3583	3583	3583	3583	3583	3583	3583	3583	3583	3583	3583	3583	3583	3583	3583	3583	3583	3583	3583	3583	3546	3583	3546	3546	3546	3546	3546	3546	3546	3546	3546	3546	3546	3583	3583	3583	3583	3546	3546	3583	3583	3546	3546	2208	2208	2194	2194	2194	2181	2167	2153	2140	2114	2101	2101	2088	2076	2063	2051	2039	2027	2015	2003	1992	1980	1969	1958	1947	1936	1915	1915	1904	1894	1883	1873	1863	1863	1853	1843	1843	1833	1824	1804	1804	0	0	0	0	0	0	0	0	0	0	0	0	0	0	0	0	0	0	0	0	0	0	0	0	0	0	0	0	0	0	0	0	0	0	0	0	0	0	0	0	0	0	0	0	0	0	0	0	0	0	0	0	0	0	0	0	0	0	0	0	0	0	0	0	0	0	0	0	0	0	0	0	0	0	0	0	0	0	0	0	0	0	0	0	0	0	0	0	0	0	0	0	0	0	0	0	0	0	0	0	0	0	0	0	0	0	0	0	0	0	0	0	0	0	0	0	0	0	0	0	0	0	0	0	0	0	0	0	0	0	0	0
0	0	0	0	0	0	0	0	0	0	0	0	0	1641	1634	1634	1641	1649	1665	1673	1681	1681	1690	1690	1698	1698	1715	1715	1715	1723	1732	1732	1732	1750	1759	1759	1768	1768	1777	1786	1786	1795	1804	1804	1814	1833	1833	1843	1843	1853	1863	1873	1883	1894	1894	1894	1894	1904	1904	1915	1915	0	0	1732	1741	1750	1750	1750	1741	1750	1741	1741	1741	1750	1750	2076	2076	2076	2088	2088	2088	2101	2114	2127	2127	2140	2153	2153	2167	2167	2167	2181	2194	2194	2194	2514	2514	2514	2532	2514	2496	2496	2496	2496	2496	2496	2496	2496	2496	2496	2496	2496	2496	2496	2496	2496	2496	2496	2496	2514	2514	2532	2532	2532	0	3583	3583	3583	3583	3583	3583	3583	3583	3546	3510	3510	3546	3546	3546	3546	3546	3546	3546	3546	3546	3546	3546	3546	3583	3583	3583	3546	3546	3546	3546	3546	3510	3510	3510	3510	3510	3546	3510	3510	3510	3510	3475	3475	3475	3475	3475	3475	3475	3510	3510	3510	3510	3546	3546	3546	3546	3583	3583	3583	3546	3546	3510	3510	3546	3546	3546	3546	3546	3583	3583	3583	3583	3583	3583	3583	3583	3583	3583	3583	3583	3583	3583	3583	3583	3583	2733	2733	2711	2690	2690	2690	2690	2690	2690	2690	2690	2690	2690	2690	2690	2711	2711	2711	2711	2711	2711	2711	2711	2711	2711	2711	2711	2711	2711	2711	2711	2711	2711	2711	2733	2733	2733	2733	2733	2733	2733	2733	2754	2754	2754	2777	2777	2777	2777	2777	2777	2777	2777	2777	2777	2777	2777	2777	2777	2777	2777	2777	2754	2754	2754	2754	2754	2733	2733	2733	2754	2754	2754	2754	2754	2754	2754	2754	2777	2777	2777	2777	2777	2777	2777	2754	2754	2754	2754	2754	2754	2754	2754	2754	2754	3583	3621	3583	3583	3583	3583	3583	3583	3583	3583	3583	3583	3546	3546	3583	3583	3583	3546	3546	3546	3546	3546	3546	3546	3546	3546	3546	3546	3546	3546	3546	3546	3546	3546	3546	3546	3546	3546	3546	3583	3583	3546	3546	3546	3583	3546	3583	3583	3546	3546	3583	3546	3546	3546	3546	3546	3546	3546	3546	3546	3546	3546	3546	3546	3546	3546	3546	3546	3546	3546	3546	3546	3546	3583	3583	3583	3583	3583	3583	3583	3583	3583	3583	3583	3583	3583	3583	3583	3583	3583	3583	3583	3583	3583	3583	3583	3583	3546	3583	3583	3546	3546	3583	3546	3583	3583	3583	3583	3583	3583	3583	3583	3583	3583	3583	3583	3583	3583	3583	3583	3583	3583	3583	3583	3583	3583	3583	3583	3546	3546	3583	3583	3583	3583	3583	3583	3583	3583	3583	3546	3583	3546	3546	3546	3546	3546	3546	3546	3546	3546	3546	3583	3583	3583	3583	3583	3546	3546	3546	3546	3510	3510	0	2208	2208	2194	2194	2194	2181	2153	2140	2114	2114	2101	2088	2076	2063	2051	2039	2027	2003	2003	1980	1969	1958	1958	1947	1936	1925	1915	1904	1894	1894	1883	1873	1863	1853	1843	1843	1833	1824	1804	1804	0	0	0	0	0	0	0	0	0	0	0	0	0	0	0	0	0	0	0	0	0	0	0	0	0	0	0	0	0	0	0	0	0	0	0	0	0	0	0	0	0	0	0	0	0	0	0	0	0	0	0	0	0	0	0	0	0	0	0	0	0	0	0	0	0	0	0	0	0	0	0	0	0	0	0	0	0	0	0	0	0	0	0	0	0	0	0	0	0	0	0	0	0	0	0	0	0	0	0	0	0	0	0	0	0	0	0	0	0	0	0	0	0	0	0	0	0	0	0	0	0	0	0	0	0	0	0	0	0	0	0	0
0	0	0	0	0	0	0	0	0	0	0	0	0	1641	1634	1641	1641	1649	1657	1665	1681	1681	1690	1690	1698	1698	1715	1715	1715	1723	1732	1732	1732	1750	1750	1759	1759	1768	1777	1786	1786	1795	1804	1804	1814	1824	1833	1833	1843	1853	1863	1863	1883	1883	1894	1894	1894	1904	1904	1915	1915	1915	0	0	0	1750	1750	1750	1750	1750	1750	1750	1750	1750	1759	1759	2101	2101	2101	2101	2101	2114	2127	2127	2140	2153	2153	2167	2181	2181	2181	2194	2194	2194	2208	2208	2208	2208	2551	2532	2496	2496	2478	2478	2496	2478	2496	2496	2496	2496	2496	2496	2496	2496	2496	2496	2496	2496	2496	2514	2514	2532	2532	2532	0	3583	3583	3583	3583	3583	3583	3583	3546	3546	3510	3510	3546	3546	3546	3510	3546	3546	3546	3546	3546	3546	3546	3546	3546	3546	3546	3546	3546	3546	3510	3510	3510	3510	3510	3510	3510	3510	3510	3475	3475	3475	3475	3475	3475	3475	3475	3475	3475	3475	3475	3475	3510	3546	3546	3546	3583	3583	3583	3583	3546	3546	3510	3510	3546	3546	3546	3546	3546	3583	3583	3583	3583	3583	3583	3583	3583	3583	3583	3583	3583	3583	3546	3546	3546	3546	2733	2733	2733	2711	2690	2690	2690	2690	2690	2690	2690	2690	2690	2690	2690	2690	2711	2711	2711	2711	2711	2711	2711	2711	2711	2711	2711	2711	2711	2711	2711	2711	2711	2711	2733	2733	2733	2733	2733	2733	2733	2733	2754	2754	2777	2777	2777	2777	2777	2799	2799	2799	2799	2777	2777	2777	2777	2777	2777	2777	2777	2777	2754	2754	2754	2733	2754	2733	2733	2733	2754	2754	2754	2754	2733	2754	2754	2754	2754	2754	2754	2777	2777	2777	2777	2754	2754	2754	2754	2754	2754	2754	2754	2754	2754	2754	3621	3621	3621	3583	3583	3583	3583	3583	3583	3583	3621	3546	3583	3583	3583	3583	3583	3546	3546	3546	3546	3546	3546	3546	3546	3546	3546	3546	3546	3546	3546	3546	3546	3546	3546	3546	3546	3546	3546	3583	3546	3546	3546	3583	3546	3583	3583	3546	3546	3583	3546	3546	3546	3546	3546	3546	3546	3546	3546	3546	3546	3546	3546	3546	3546	3546	3546	3546	3546	3546	3546	3546	3546	3583	3583	3583	3583	3583	3583	3583	3583	3583	3583	3583	3583	3583	3583	3583	3583	3583	3583	3583	3583	3583	3583	3583	3546	3546	3546	3546	3546	3583	3546	3583	3583	3583	3583	3583	3583	3583	3583	3583	3583	3583	3583	3583	3583	3583	3583	3583	3583	3583	3583	3583	3583	3583	3583	3546	3583	3583	3583	3583	3583	3583	3583	3583	3583	3546	3546	3546	3546	3546	3583	3546	3583	3583	3583	3583	3583	3583	3583	3583	3583	3583	3546	3546	3546	3546	3546	3510	3510	0	2208	2208	2194	2194	2181	2167	2153	2140	2127	2114	2088	2088	2076	2063	2051	2039	2039	2003	1992	1980	1969	1969	1958	1947	1936	1936	1915	1904	1894	1894	1883	1863	1863	1853	1843	1833	1824	1824	1804	1804	1804	0	0	0	0	0	0	0	0	0	0	0	0	0	0	0	0	0	0	0	0	0	0	0	0	0	0	0	0	0	0	0	0	0	0	0	0	0	0	0	0	0	0	0	0	0	0	0	0	0	0	0	0	0	0	0	0	0	0	0	0	0	0	0	0	0	0	0	0	0	0	0	0	0	0	0	0	0	0	0	0	0	0	0	0	0	0	0	0	0	0	0	0	0	0	0	0	0	0	0	0	0	0	0	0	0	0	0	0	0	0	0	0	0	0	0	0	0	0	0	0	0	0	0	0	0	0	0	0	0	0	0
0	0	0	0	0	0	0	0	0	0	0	0	0	1641	1634	1641	1649	1649	1657	1665	1681	1681	1690	1698	1698	1706	1715	1723	1723	1723	1732	1732	1732	1741	1750	1750	1759	1768	1786	1786	1786	1795	1804	1804	1824	1833	1833	1833	1843	1853	1853	1863	1873	1883	1894	1894	1894	1904	1915	1915	1925	1936	1936	0	0	1750	1759	1759	1759	1759	1759	1759	1759	1759	1759	1759	1768	2101	2101	2101	2101	2127	2140	2140	2140	2153	2167	2167	2181	2181	2181	2194	2194	2208	2208	2223	2237	2252	2266	2266	2266	2478	2478	2478	2478	2478	2496	2478	2478	2496	2514	2496	2496	2496	2496	2496	2496	2496	2496	2514	2514	2532	2532	2532	3583	3583	3583	3583	3583	3583	3546	3583	3546	3546	3510	3510	3546	3546	3546	3510	3546	3546	3546	3546	3546	3546	3546	3546	3546	3546	3546	3546	3510	3510	3510	3510	3510	3510	3510	3510	3510	3510	3510	3475	3510	3475	3475	3475	3475	3475	3475	3475	3475	3475	3475	3475	3510	3510	3546	3546	3546	3583	3583	3583	3583	3546	3546	3510	3546	3546	3546	3546	3546	3583	3583	3583	3583	3583	3583	3583	3583	3583	3583	3583	3583	3583	3546	3546	3546	3546	2711	2711	2711	2690	2690	2690	2690	2690	2690	2690	2690	2690	2690	2690	2690	2690	2711	2690	2690	2711	2711	2711	2711	2711	2711	2711	2711	2711	2711	2711	2711	2711	2711	2711	2733	2733	2733	2754	2754	2754	2754	2754	2754	2754	2777	2777	2777	2777	2799	2799	2799	2799	2799	2777	2777	2777	2777	2777	2777	2777	2777	2777	2754	2754	2754	2733	2754	2733	2733	2733	2754	2754	2733	2754	2733	2754	2754	2754	2754	2754	2754	2777	2777	2777	2777	2754	2754	2733	2733	2754	2754	2754	2754	2754	2754	2754	3583	3621	3621	3583	3583	3583	3583	3583	3583	3583	3583	3546	3546	3546	3546	3546	3546	3546	3546	3546	3546	3546	3546	3546	3546	3546	3546	3546	3546	3546	3546	3546	3546	3546	3546	3546	3546	3546	3546	3583	3546	3546	3546	3546	3546	3583	3583	3546	3546	3583	3546	3546	3546	3546	3546	3546	3546	3546	3546	3546	3546	3546	3546	3546	3546	3546	3546	3546	3546	3546	3546	3546	3583	3583	3583	3583	3583	3583	3583	3583	3546	3583	3583	3583	3583	3583	3583	3583	3583	3583	3583	3583	3583	3583	3583	3546	3546	3546	3546	3546	3546	3546	3546	3546	3583	3583	3583	3583	3583	3583	3583	3583	3583	3583	3583	3583	3583	3583	3583	3583	3583	3583	3583	3583	3583	3583	3583	3546	3546	3583	3583	3583	3583	3583	3583	3583	3546	3546	3546	3546	3546	3546	3546	3546	3583	3583	3583	3546	3583	3583	3583	3583	3583	3583	3583	3546	3546	3546	3546	3510	3510	0	2208	2194	2181	2181	2181	2167	2153	2140	2127	2114	2088	2088	2076	2063	2051	2039	2039	2003	1992	1969	1969	1958	1958	1947	1936	1936	1915	1904	1894	1894	1883	1873	1863	1853	1843	1833	1824	1824	1814	1804	1804	0	0	0	0	0	0	0	0	0	0	0	0	0	0	0	0	0	0	0	0	0	0	0	0	0	0	0	0	0	0	0	0	0	0	0	0	0	0	0	0	0	0	0	0	0	0	0	0	0	0	0	0	0	0	0	0	0	0	0	0	0	0	0	0	0	0	0	0	0	0	0	0	0	0	0	0	0	0	0	0	0	0	0	0	0	0	0	0	0	0	0	0	0	0	0	0	0	0	0	0	0	0	0	0	0	0	0	0	0	0	0	0	0	0	0	0	0	0	0	0	0	0	0	0	0	0	0	0	0	0	0
0	0	0	0	0	0	0	0	0	0	0	0	0	1649	1641	1641	1649	1657	1657	1665	1681	1681	1690	1698	1698	1706	1723	1723	1723	1723	1732	1732	1732	1750	1750	1750	1759	1768	1777	1786	1786	1795	1804	1814	1824	1824	1833	1833	1833	1843	1843	1853	1873	1883	1894	1894	1904	1915	1915	1925	1925	1936	1936	1947	1947	0	1759	1759	1759	1759	1759	1759	1759	1759	1759	1768	1768	0	0	0	0	2127	2140	2140	2140	2153	2167	2167	2181	2181	2181	2194	2194	2208	2208	2223	2237	2252	2266	2266	2281	2297	2297	2297	2297	2478	2478	2478	2478	2496	2496	2496	2496	2496	2496	2496	2496	2496	2496	2496	2496	2514	2514	0	3583	3583	3583	3583	3583	3583	3546	3583	3546	3546	3510	3510	3546	3546	3546	3510	3510	3510	3510	3510	3510	3546	3546	3546	3546	3546	3546	3546	3546	3510	3510	3510	3510	3510	3475	3475	3475	3475	3475	3475	3510	3475	3475	3475	3475	3475	3475	3475	3475	3475	3475	3475	3475	3510	3510	3546	3546	3583	3583	3583	3583	3546	3546	3546	3546	3546	3546	3546	3546	3546	3583	3583	3583	3583	3583	3583	3583	3583	3583	3583	3583	3583	3546	3583	3546	3546	3546	2690	2690	2690	2690	2690	2690	2690	2690	2690	2690	2690	2690	2690	2690	2690	2690	2690	2690	2711	2711	2711	2711	2711	2711	2711	2711	2711	2711	2711	2711	2711	2711	2711	2733	2733	2733	2733	2754	2754	2754	2754	2754	2777	2777	2777	2777	2777	2777	2799	2799	2799	2799	2799	2777	2777	2777	2777	2777	2777	2777	2754	2754	2754	2754	2754	2754	2733	2754	2754	2754	2754	2754	2754	2754	2754	2754	2754	2777	2777	2777	2777	2777	2777	2754	2754	2754	2733	2754	2754	2754	2754	2754	2777	2777	2777	2777	3621	3621	3583	3583	3583	3583	3583	3583	3583	3583	3546	3546	3546	3546	3583	3546	3546	3583	3546	3546	3546	3546	3546	3546	3546	3546	3546	3546	3546	3546	3546	3546	3546	3546	3546	3546	3546	3546	3546	3546	3546	3546	3546	3546	3583	3583	3546	3546	3546	3546	3546	3546	3546	3546	3546	3546	3546	3546	3546	3546	3546	3546	3546	3546	3546	3546	3546	3546	3546	3546	3546	3546	3546	3583	3583	3583	3583	3583	3546	3546	3546	3583	3583	3583	3583	3583	3583	3583	3583	3583	3583	3583	3583	3583	3546	3546	3546	3546	3546	3546	3583	3546	3583	3583	3583	3583	3583	3583	3583	3583	3583	3583	3583	3583	3583	3583	3583	3583	3583	3583	3583	3583	3583	3583	3583	3583	3583	3583	3583	3583	3583	3583	3546	3583	3583	3546	3546	3546	3546	3546	3546	3546	3546	3546	3546	3546	3546	3583	3583	3583	3583	3583	3583	3583	3546	3546	3546	3546	3510	3475	3475	2208	2194	2181	2181	2181	2167	2153	2140	2127	2101	2088	2088	2076	2063	2051	2039	2027	2003	1992	1980	1969	1958	1958	1947	1936	1925	1915	1904	1894	1894	1883	1863	1863	1843	1833	1824	1824	1824	1814	1814	1814	0	0	0	0	0	0	0	0	0	0	0	0	0	0	0	0	0	0	0	0	0	0	0	0	0	0	0	0	0	0	0	0	0	0	0	0	0	0	0	0	0	0	0	0	0	0	0	0	0	0	0	0	0	0	0	0	0	0	0	0	0	0	0	0	0	0	0	0	0	0	0	0	0	0	0	0	0	0	0	0	0	0	0	0	0	0	0	0	0	0	0	0	0	0	0	0	0	0	0	0	0	0	0	0	0	0	0	0	0	0	0	0	0	0	0	0	0	0	0	0	0	0	0	0	0	0	0	0	0	0	0
0	0	0	0	0	0	0	0	0	0	0	0	0	1649	1641	1649	1657	1657	1665	1673	1690	1690	1690	1698	1698	1706	1723	1723	1723	1723	1732	1732	1732	1750	1750	1750	1759	1768	1777	1786	1786	1795	1804	1814	1824	1824	1833	1833	1833	1843	1843	1853	1863	1883	1894	1894	1904	1915	1915	1925	1925	1936	1936	1947	1958	1969	1980	1980	1992	1768	1768	1768	1768	1768	1768	1768	1768	0	0	0	0	2127	2140	2153	2153	2153	2153	2167	2167	2181	2181	2181	2194	2194	2208	2223	2252	2266	2266	2266	2281	2281	2297	2297	2297	2312	2392	2460	2460	2460	2478	2478	2496	2496	2496	2496	2496	2496	2496	2496	2496	2514	2514	0	3583	3583	3583	3583	3583	3546	3546	3583	3546	3546	3546	3546	3546	3546	3546	3510	3510	3510	3510	3510	3510	3546	3546	3546	3546	3546	3546	3546	3546	3546	3510	3510	3510	3510	3510	3475	3475	3475	3475	3475	3475	3475	3475	3475	3475	3475	3475	3475	3475	3475	3475	3475	3475	3510	3510	3510	3546	3546	3583	3583	3583	3546	3546	3546	3546	3546	3546	3546	3546	3546	3583	3583	3583	3583	3583	3583	3583	3583	3583	3583	3583	3583	3583	3583	3583	3546	3546	3510	2711	2690	2690	2690	2690	2690	2690	2690	2690	2690	2690	2690	2690	2690	2690	2690	2690	2711	2711	2711	2711	2711	2711	2711	2711	2711	2711	2711	2711	2711	2711	2733	2733	2733	2733	2754	2754	2754	2754	2754	2777	2777	2777	2777	2777	2777	2799	2799	2799	2799	2799	2799	2799	2777	2777	2777	2777	2777	2777	2754	2754	2754	2754	2754	2754	2754	2754	2754	2754	2754	2754	2754	2754	2754	2754	2777	2777	2777	2777	2777	2777	2777	2754	2754	2754	2733	2754	2754	2754	2754	2777	2777	2777	2777	2777	3621	3621	3583	3583	3583	3583	3583	3583	3583	3583	3546	3546	3546	3583	3583	3546	3583	3583	3546	3546	3546	3546	3546	3546	3546	3546	3546	3546	3546	3546	3546	3546	3546	3546	3546	3546	3546	3546	3546	3546	3546	3546	3546	3546	3583	3546	3546	3546	3546	3546	3546	3546	3546	3546	3546	3546	3546	3546	3546	3546	3546	3546	3583	3583	3546	3546	3546	3546	3546	3546	3546	3546	3546	3546	3546	3546	3546	3546	3546	3546	3546	3546	3546	3546	3583	3583	3583	3583	3583	3583	3583	3583	3583	3583	3583	3546	3583	3546	3546	3546	3583	3546	3546	3583	3583	3583	3583	3583	3583	3583	3583	3583	3583	3583	3583	3583	3583	3583	3583	3583	3583	3583	3583	3583	3583	3583	3583	3583	3583	3583	3583	3583	3546	3583	3583	3546	3546	3546	3546	3546	3546	3546	3546	3546	3546	3546	3546	3583	3583	3583	3583	3583	3583	3583	3546	3546	3546	3546	3510	3510	3475	3475	2194	2181	2181	2181	2167	2153	2140	2127	2101	2088	2088	2076	2063	2051	2039	2039	2003	1992	1980	1969	1969	1958	1947	1936	1925	1915	1904	1904	1894	1883	1863	1863	1843	1833	1824	1824	1824	1814	1814	1814	0	0	0	0	0	0	0	0	0	0	0	0	0	0	0	0	0	0	0	0	0	0	0	0	0	0	0	0	0	0	0	0	0	0	0	0	0	0	0	0	0	0	0	0	0	0	0	0	0	0	0	0	0	0	0	0	0	0	0	0	0	0	0	0	0	0	0	0	0	0	0	0	0	0	0	0	0	0	0	0	0	0	0	0	0	0	0	0	0	0	0	0	0	0	0	0	0	0	0	0	0	0	0	0	0	0	0	0	0	0	0	0	0	0	0	0	0	0	0	0	0	0	0	0	0	0	0	0	0	0	0
0	0	0	0	0	0	0	0	0	0	0	0	0	1641	1641	1649	1649	1657	1665	1665	1681	1681	1690	1698	1698	1706	1723	1723	1723	1723	1732	1732	1741	1750	1759	1759	1768	1777	1786	1786	1786	1795	1814	1814	1824	1833	1833	1833	1843	1843	1843	1853	1863	1873	1894	1894	1904	1904	1915	1915	1925	1936	1947	1947	1958	1969	1980	1992	1992	2015	2027	2027	2039	2051	2088	2088	2088	2101	2101	0	0	0	0	2153	2153	2153	2167	2167	2167	2181	2181	2181	2194	2194	2208	2223	2252	2266	2266	2266	2281	2281	2297	2297	2312	2312	2392	2392	2426	2443	2460	2478	2478	2496	2496	2496	2496	2514	2514	2514	2496	2514	2514	0	3583	3583	3546	3583	3546	3510	3510	3546	3546	3546	3546	3546	3546	3546	3510	3510	3510	3510	3510	3510	3510	3510	3546	3546	3546	3546	3546	3546	3546	3546	3510	3510	3510	3510	3510	3475	3475	3510	3510	3475	3475	3475	3475	3510	3475	3475	3475	3475	3475	3475	3475	3475	3475	3475	3510	3510	3510	3546	3546	3546	3546	3546	3546	3546	3546	3546	3546	3546	3510	3546	3546	3583	3583	3583	3583	3583	3583	3583	3583	3583	3583	3583	3583	3583	3546	3546	3546	3510	2690	2690	2690	2690	2690	2690	2690	2690	2690	2690	2690	2690	2690	2690	2690	2690	2690	2711	2711	2711	2711	2711	2711	2711	2711	2711	2711	2711	2711	2711	2711	2733	2733	2733	2733	2733	2733	2754	2754	2754	2777	2777	2777	2777	2777	2799	2799	2799	2799	2799	2799	2799	2799	2777	2777	2777	2777	2777	2777	2754	2754	2754	2754	2754	2754	2754	2754	2754	2754	2754	2754	2754	2754	2777	2777	2777	2777	2777	2777	2777	2777	2777	2777	2754	2754	2754	2754	2754	2754	2754	2754	2777	2777	2777	2777	2777	3621	3583	3621	3621	3621	3583	3583	3583	3583	3546	3546	3583	3583	3583	3583	3583	3546	3546	3546	3546	3546	3546	3546	3546	3546	3546	3546	3546	3546	3546	3546	3546	3546	3546	3546	3546	3546	3546	3546	3546	3546	3546	3546	3583	3546	3546	3546	3546	3546	3546	3546	3546	3546	3546	3546	3546	3546	3546	3546	3546	3546	3546	3583	3546	3546	3546	3546	3546	3546	3546	3546	3546	3546	3546	3546	3546	3583	3546	3546	3546	3546	3546	3583	3583	3583	3583	3583	3583	3583	3583	3583	3546	3546	3546	3546	3583	3546	3583	3583	3583	3583	3583	3583	3583	3583	3583	3583	3583	3583	3583	3583	3583	3583	3583	3583	3583	3583	3583	3583	3583	3583	3583	3583	3583	3583	3583	3583	3583	3583	3583	3546	3546	3583	3583	3546	3546	3546	3546	3583	3583	3546	3546	3546	3546	3546	3546	3583	3546	3583	3583	3583	3583	3583	3546	3546	3546	3546	3510	3510	3510	3475	2194	2181	2181	2167	2167	2153	2140	2127	2114	2088	2088	2076	2063	2051	2039	2027	2015	1992	1980	1969	1969	1958	1947	1936	1936	1925	1904	1894	1894	1883	1863	1853	1843	1833	1833	1824	1824	1814	1814	0	0	0	0	0	0	0	0	0	0	0	0	0	0	0	0	0	0	0	0	0	0	0	0	0	0	0	0	0	0	0	0	0	0	0	0	0	0	0	0	0	0	0	0	0	0	0	0	0	0	0	0	0	0	0	0	0	0	0	0	0	0	0	0	0	0	0	0	0	0	0	0	0	0	0	0	0	0	0	0	0	0	0	0	0	0	0	0	0	0	0	0	0	0	0	0	0	0	0	0	0	0	0	0	0	0	0	0	0	0	0	0	0	0	0	0	0	0	0	0	0	0	0	0	0	0	0	0	0	0	0	0
0	0	0	0	0	0	0	0	0	0	0	0	0	1649	1641	1649	1657	1657	1665	1665	1673	1681	1690	1690	1698	1706	1723	1723	1723	1723	1732	1732	1741	1750	1759	1759	1768	1777	1786	1786	1795	1804	1814	1824	1824	1824	1833	1833	1833	1843	1843	1853	1863	1873	1883	1883	1894	1904	1915	1925	1936	1947	1947	1947	1958	1958	1969	1992	1992	2015	2027	2027	2039	2051	2051	2076	2101	2101	2101	0	0	0	0	0	0	0	2167	2167	2167	2181	2181	2194	2208	2194	2208	2237	2252	2266	2281	2281	2281	2281	2297	2297	2327	2359	2376	2392	2392	2409	2426	2443	2460	2478	2496	2478	2496	2514	2514	2514	2514	2514	2514	3546	3546	3546	3546	3546	3546	3510	3510	3546	3546	3546	3546	3510	3546	3546	3510	3510	3510	3510	3510	3510	3510	3510	3546	3546	3546	3546	3546	3546	3546	3546	3510	3475	3510	3510	3510	3475	3475	3510	3510	3475	3475	3475	3475	3510	3475	3475	3475	3475	3475	3475	3475	3475	3475	3475	3510	3510	3510	3546	3546	3546	3546	3546	3546	3546	3546	3546	3546	3546	3510	3546	3546	3583	3583	3583	3583	3583	3583	3583	3583	3583	3583	3583	3583	3583	3546	3546	3510	3510	3475	3475	2690	2690	2690	2690	2690	2690	2690	2690	2690	2690	2690	2690	2690	2690	2690	2711	2711	2711	2711	2711	2711	2711	2711	2711	2711	2711	2711	2711	2711	2711	2733	2733	2733	2733	2754	2754	2754	2777	2777	2777	2777	2777	2777	2799	2799	2799	2799	2799	2799	2799	2799	2777	2777	2777	2777	2777	2777	2754	2754	2754	2754	2754	2754	2754	2754	2754	2754	2754	2733	2754	2754	2754	2777	2777	2777	2777	2777	2777	2777	2777	2754	2754	2754	2754	2754	2754	2754	2754	2754	2777	2777	2777	2777	2777	3621	3621	3621	3621	3621	3583	3583	3583	3583	3546	3546	3546	3583	3583	3546	3546	3546	3546	3546	3546	3546	3546	3546	3546	3546	3546	3546	3546	3546	3546	3546	3546	3546	3546	3546	3546	3546	3546	3546	3546	3546	3546	3546	3546	3546	3546	3546	3546	3546	3546	3546	3546	3546	3546	3546	3546	3546	3583	3583	3546	3546	3546	3583	3546	3546	3546	3546	3546	3546	3546	3546	3546	3546	3546	3546	3546	3546	3546	3546	3546	3583	3583	3583	3583	3583	3583	3583	3583	3583	3583	3583	3583	3546	3583	3583	3583	3583	3583	3583	3583	3583	3583	3583	3583	3583	3583	3583	3583	3546	3583	3583	3583	3583	3583	3583	3583	3583	3583	3583	3583	3583	3583	3583	3583	3583	3546	3546	3546	3546	3546	3546	3546	3583	3583	3546	3546	3546	3546	3546	3546	3546	3546	3546	3546	3546	3546	3546	3546	3546	3546	3546	3546	3546	3546	3546	3546	3546	3510	3510	3510	0	2167	2181	2167	2167	2167	2153	2140	2127	2114	2101	2088	2076	2063	2063	2051	2039	2027	1992	1980	1969	1969	1958	1947	1947	1936	1925	1904	1894	1894	1883	1863	1853	1843	1833	1833	1824	1824	1824	1814	0	0	0	0	0	0	0	0	0	0	0	0	0	0	0	0	0	0	0	0	0	0	0	0	0	0	0	0	0	0	0	0	0	0	0	0	0	0	0	0	0	0	0	0	0	0	0	0	0	0	0	0	0	0	0	0	0	0	0	0	0	0	0	0	0	0	0	0	0	0	0	0	0	0	0	0	0	0	0	0	0	0	0	0	0	0	0	0	0	0	0	0	0	0	0	0	0	0	0	0	0	0	0	0	0	0	0	0	0	0	0	0	0	0	0	0	0	0	0	0	0	0	0	0	0	0	0	0	0	0	0	0
0	0	0	0	0	0	0	0	0	0	0	0	0	1649	1649	1657	1657	1657	1665	1665	1673	1673	1681	1690	1698	1706	1723	1715	1723	1723	1723	1732	1741	1759	1759	1768	1768	1786	1786	1795	1795	1804	1814	1814	1824	1824	1824	1833	1833	1843	1843	1853	1863	1873	1883	1894	1904	1904	1915	1925	1936	1947	1947	1947	1958	1958	1969	1969	1992	2015	2027	2027	2039	2051	2051	2076	2076	2088	2076	2076	0	0	0	0	0	0	0	0	0	2181	2181	2194	2208	2194	2208	2266	2281	2281	2281	2281	2281	2281	2297	2312	2327	2343	2376	2376	2392	2409	2409	2426	2443	2460	2460	2460	2460	2478	2478	2496	2514	2514	0	3546	3546	3546	3546	3546	3546	3510	3510	3546	3546	3546	3546	3546	3546	3546	3510	3510	3510	3510	3510	3510	3510	3510	3546	3546	3546	3546	3546	3546	3546	3546	3510	3475	3510	3510	3475	3475	3475	3475	3510	3475	3475	3475	3475	3510	3475	3475	3475	3475	3475	3475	3475	3475	3475	3475	3475	3510	3510	3510	3510	3546	3546	3546	3546	3546	3546	3546	3546	3546	3546	3546	3546	3583	3583	3583	3583	3583	3583	3583	3583	3583	3583	3583	3583	3583	3546	3546	3510	3510	3475	3475	2669	2690	2690	2690	2690	2690	2690	2690	2690	2690	2690	2690	2690	2690	2690	2711	2711	2711	2711	2711	2711	2711	2711	2711	2711	2711	2711	2711	2711	2733	2733	2733	2733	2733	2754	2754	2754	2777	2777	2777	2777	2777	2799	2799	2799	2799	2799	2799	2799	2799	2799	2777	2777	2777	2777	2777	2777	2777	2777	2754	2754	2754	2754	2754	2754	2754	2754	2733	2754	2754	2754	2754	2777	2777	2777	2777	2777	2777	2777	2777	2754	2754	2733	2754	2754	2754	2777	2777	2777	2777	2777	2777	2777	3621	3621	3621	3621	3621	3621	3621	3583	3583	3583	3583	3546	3583	3583	3583	3546	3546	3546	3546	3546	3546	3546	3546	3546	3546	3546	3546	3546	3546	3546	3546	3546	3546	3546	3546	3546	3546	3546	3546	3546	3546	3546	3546	3546	3546	3546	3546	3546	3546	3546	3546	3546	3546	3546	3546	3546	3546	3546	3583	3583	3546	3546	3546	3583	3546	3546	3546	3546	3546	3546	3546	3546	3546	3546	3546	3546	3546	3583	3546	3546	3546	3583	3583	3546	3583	3583	3583	3583	3583	3583	3583	3546	3546	3546	3546	3583	3583	3583	3583	3583	3583	3583	3583	3583	3583	3583	3583	3546	3546	3546	3546	3583	3583	3583	3583	3583	3583	3583	3583	3546	3546	3583	3583	3583	3583	3583	3583	3546	3583	3546	3546	3546	3546	3583	3583	3546	3546	3546	3546	3546	3546	3546	3546	3546	3546	3546	3546	3546	3546	3546	3546	3546	3583	3546	3546	3546	3546	3546	3546	3510	3510	0	2153	2167	2167	2167	2153	2153	2140	2127	2114	2101	2088	2076	2063	2063	2051	2027	2015	1992	1992	1980	1969	1969	1958	1947	1925	1925	1904	1894	1894	1883	1863	1853	1843	1833	1833	1824	1824	1824	0	0	0	0	0	0	0	0	0	0	0	0	0	0	0	0	0	0	0	0	0	0	0	0	0	0	0	0	0	0	0	0	0	0	0	0	0	0	0	0	0	0	0	0	0	0	0	0	0	0	0	0	0	0	0	0	0	0	0	0	0	0	0	0	0	0	0	0	0	0	0	0	0	0	0	0	0	0	0	0	0	0	0	0	0	0	0	0	0	0	0	0	0	0	0	0	0	0	0	0	0	0	0	0	0	0	0	0	0	0	0	0	0	0	0	0	0	0	0	0	0	0	0	0	0	0	0	0	0	0	0	0	0
