0	0	0	0	0	0	0	0	0	0	0	0	0	2003	2003	2015	2015	2015	2027	2051	2051	2063	2063	2063	2063	2359	2376	2359	2359	2376	2376	2359	2359	2392	2392	2409	2426	2426	2460	2460	2460	2460	2478	2460	2460	2460	2460	2460	2460	2460	2460	2460	2460	2460	2460	2460	2460	2460	2460	2460	2460	2460	2478	2460	2478	2478	2478	2478	2478	2478	2478	2478	2478	2478	2478	2478	2478	2478	2478	2478	2478	2478	2478	2460	2478	2478	2478	2478	2478	2496	2496	2478	2478	2496	2496	2496	2478	2478	2478	2478	2478	2478	2478	2478	2496	2496	2496	2496	2496	2496	2496	2496	2496	2496	2496	2496	2496	2478	2478	2478	2478	2478	2478	2478	2496	2496	2496	2496	2496	2496	2496	2496	2496	2496	0	3659	3659	3621	3621	3621	3621	3583	3546	3546	3583	3583	3583	3583	3583	3583	3583	3583	3583	3546	3546	3546	3546	3546	3546	3546	3546	3546	3546	3583	3546	3546	3546	3546	3546	3546	3546	3583	3583	3583	3583	3583	3583	3546	3546	3546	3546	3546	3546	3583	3621	3659	3621	3621	3621	3621	3659	3659	3659	3659	3659	3659	3659	3659	3621	3621	3621	3621	3621	3621	3621	3621	3621	3659	3659	3659	3621	3659	3659	3659	3659	3621	3621	3621	3621	3583	3583	3583	3583	3583	3583	3583	3621	3621	3621	3621	3621	3621	3621	3621	3621	3621	3621	3621	3621	3621	3621	3621	3621	3621	3621	3621	3621	3621	3621	3621	3046	3073	3073	3073	3073	3046	3019	3046	3019	3019	3019	3019	3019	3019	3046	3019	3046	3046	3046	3046	3019	3019	3019	2993	2967	2967	2967	2942	2917	2917	2893	2893	2893	2893	2869	2869	2869	2869	2869	2869	2869	2869	2869	2869	2869	2869	2869	2869	2869	2869	2869	2869	2869	2869	2869	2869	2869	2869	2869	2869	2869	2869	2869	2869	2893	2893	2917	2917	2917	2942	2917	2917	2917	2942	2942	2967	2967	2967	2993	2993	3019	3046	3073	3073	3101	3073	3073	3073	3073	3046	3046	3046	3073	3046	3046	3073	3073	3073	3073	3659	3659	3659	3659	3659	3659	3659	3659	3659	3621	3659	3659	3621	3621	3621	3659	3621	3621	3621	3621	3621	3621	3621	3621	3621	3621	3621	3621	3621	3621	3621	3621	3621	3621	3621	3621	3621	3621	3621	3621	3621	3621	3621	3621	3621	3659	3659	3659	3698	3659	3659	3659	3659	3659	3659	3659	3659	3659	3659	3659	3659	3659	3659	3659	3621	3659	3659	3621	3659	3659	3659	3659	3659	3659	3659	3659	3659	3621	3621	3621	3621	3659	3659	3659	3659	3659	3659	3659	3621	3621	3621	3621	3621	3659	3659	3659	3659	3621	3621	3621	3621	3621	3621	3621	3621	3621	3621	3621	3621	3621	3621	3621	3621	3621	3621	3621	3621	3621	3621	3621	3621	3621	3621	3621	3621	3621	3621	3621	3621	3621	3621	3659	3659	3659	3659	3659	3659	3621	3621	3621	3621	3659	3659	3659	3621	3621	2153	2153	2140	2140	2140	2140	2140	2127	2127	2127	2127	2127	2114	2101	2101	2101	3698	3698	3698	3698	3659	3698	3698	0	0	0	1768	1768	1759	1741	1732	1732	1723	1715	1706	1706	1698	1698	1690	1690	1681	1681	1681	1673	1673	1665	1657	1649	1641	1641	1634	1618	1618	1618	1611	1603	1603	1596	1596	1589	1574	1567	1560	1560	1553	1539	1539	1532	1532	1525	1519	1506	1506	1499	1486	1480	1480	1473	1467	1461	1461	1461	1461	1461	1461	1461	1461	1461	1461	1467	1473	1480	1486	1486	1486	1486	1486	1486	1486	1486	1486	1486	1486	1486	1486	0	0	0	0	0	0	0	0	0	0	0	0	0	0	0	0	0	0	0	0	0	0	0	0	0	0	0	0	0	0	0	0	0	0	0	0	0	0	0	0
0	0	0	0	0	0	0	0	0	0	0	0	0	2003	2003	2015	2015	2027	2039	2051	2063	2063	2076	2063	2063	2376	2376	2376	2359	2376	2376	2359	2359	2376	2392	2392	2409	2443	2460	2460	2460	2478	2478	2460	2460	2460	2460	2460	2460	2460	2478	2478	2478	2460	2460	2460	2460	2460	2460	2460	2460	2478	2478	2478	2478	2478	2478	2478	2496	2496	2496	2496	2478	2496	2496	2496	2496	2496	2478	2478	2478	2496	2496	2496	2496	2514	2514	2514	2496	2496	2496	2496	2496	2496	2496	2496	2496	2496	2496	2496	2496	2478	2478	2478	2496	2496	2496	2496	2496	2496	2496	2496	2496	2496	2496	2496	2496	2496	2478	2478	2478	2478	2478	2496	2496	2496	2496	2496	2496	2496	2496	2496	2496	2496	0	3659	3659	3621	3621	3621	3621	3583	3546	3546	3583	3583	3583	3583	3583	3583	3583	3583	3583	3546	3546	3546	3546	3546	3546	3546	3583	3546	3546	3583	3583	3546	3583	3583	3583	3583	3583	3583	3583	3583	3583	3583	3583	3546	3546	3546	3546	3546	3583	3583	3621	3659	3659	3659	3621	3621	3659	3659	3659	3659	3659	3659	3659	3659	3621	3621	3621	3621	3621	3621	3621	3621	3621	3659	3659	3621	3621	3621	3659	3621	3621	3621	3621	3621	3621	3621	3621	3583	3583	3583	3583	3583	3621	3621	3621	3621	3621	3621	3621	3621	3621	3621	3621	3621	3621	3621	3621	3583	3583	3621	3583	3621	3621	3621	3621	3621	3073	3073	3073	3073	3073	3046	3046	3046	3046	3019	3019	3019	3019	3046	3046	3046	3046	3046	3046	3046	3019	3019	2993	2993	2967	2967	2942	2942	2917	2917	2893	2893	2893	2893	2869	2869	2869	2869	2869	2869	2869	2869	2869	2869	2869	2869	2869	2869	2869	2869	2869	2869	2869	2869	2869	2869	2869	2869	2869	2869	2869	2869	2869	2869	2893	2893	2917	2917	2917	2917	2917	2917	2917	2917	2942	2942	2967	2967	2993	2993	3019	3046	3073	3101	3101	3073	3073	3073	3073	3046	3073	3046	3073	3046	3046	3046	3073	3073	3738	3698	3698	3659	3659	3659	3659	3659	3659	3659	3659	3659	3659	3621	3621	3621	3621	3621	3621	3621	3621	3621	3621	3621	3621	3621	3621	3621	3621	3621	3621	3621	3621	3621	3621	3621	3621	3621	3621	3621	3621	3621	3621	3621	3621	3621	3659	3698	3659	3659	3659	3659	3659	3659	3659	3659	3659	3659	3659	3659	3659	3659	3659	3659	3621	3621	3621	3621	3621	3621	3659	3659	3659	3659	3659	3659	3659	3659	3659	3659	3621	3621	3621	3621	3659	3621	3659	3621	3659	3621	3621	3621	3621	3621	3621	3621	3621	3621	3621	3621	3621	3621	3621	3621	3621	3621	3621	3621	3621	3621	3583	3583	3583	3583	3621	3621	3621	3621	3621	3621	3621	3621	3621	3621	3621	3621	3621	3621	3621	3621	3621	3659	3659	3621	3621	3621	3659	3659	3621	3621	3621	3621	3621	3621	3659	0	0	2153	2140	2140	2140	2140	2140	2127	2127	2127	2127	2127	2114	2114	2101	2114	2101	2101	0	3698	3698	0	0	0	0	0	1777	1777	1768	1759	1750	1741	1732	1732	1715	1715	1706	1706	1706	1698	1698	1690	1690	1681	1673	1673	1665	1657	1649	1641	1641	1634	1618	1618	1618	1611	1603	1603	1596	1589	1589	1574	1567	1560	1560	1553	1539	1539	1532	1532	1519	1512	1506	1499	1499	1486	1480	1480	1473	1461	1461	1461	1461	1461	1461	1461	1461	1461	1461	1461	1467	1473	1480	1486	1486	1486	1486	1486	1486	1486	1486	1486	1480	1480	1486	1486	0	0	0	0	0	0	0	0	0	0	0	0	0	0	0	0	0	0	0	0	0	0	0	0	0	0	0	0	0	0	0	0	0	0	0	0	0	0	0	0
0	0	0	0	0	0	0	0	0	0	0	0	0	1992	2003	2015	2015	2027	2039	2051	2063	2063	2063	2063	2051	2051	2376	2376	2376	2376	2376	2376	2376	2392	2392	2409	2409	2426	2460	2460	2478	2478	2478	2460	2460	2460	2460	2460	2460	2460	2478	2478	2478	2478	2460	2460	2460	2460	2460	2478	2460	2478	2478	2478	2478	2478	2478	2478	2496	2496	2496	2496	2496	2496	2514	2496	2496	2496	2496	2496	2496	2496	2496	2496	2496	2514	2514	2514	2496	2496	2496	2496	2496	2496	2496	2496	2496	2496	2496	2496	2496	2478	2496	2478	2496	2496	2496	2496	2496	2478	2496	2496	2496	2496	2496	2496	2496	2496	2496	2478	2478	2478	2478	2496	2496	2478	2496	2496	2496	2496	2496	2496	2496	2514	2514	3659	3659	3621	3659	3621	3621	3621	3583	3583	3583	3583	3546	3546	3583	3546	3583	3583	3546	3546	3546	3546	3546	3546	3546	3546	3583	3583	3583	3583	3583	3583	3583	3583	3583	3583	3583	3583	3621	3583	3583	3583	3583	3546	3546	3546	3546	3583	3583	3621	3621	3621	3621	3621	3621	3621	3659	3659	3659	3659	3659	3659	3621	3621	3621	3621	3621	3621	3621	3621	3621	3621	3621	3659	3659	3621	3621	3659	3659	3621	3621	3621	3621	3621	3621	3583	3583	3583	3583	3583	3583	3583	3583	3621	3621	3621	3621	3621	3621	3621	3621	3659	3621	3621	3621	3621	3621	3621	3621	3621	3583	3621	3621	3621	3621	3621	3621	3046	3073	3073	3073	3046	3046	3046	3046	3019	3019	3019	3046	3046	3046	3046	3046	3046	3046	3046	3019	3019	2993	2993	2967	2967	2942	2942	2917	2917	2893	2893	2869	2869	2869	2869	2869	2869	2869	2869	2869	2869	2869	2869	2869	2869	2869	2869	2869	2869	2869	2869	2869	2869	2869	2869	2869	2869	2869	2869	2869	2869	2869	2869	2893	2893	2893	2893	2917	2917	2893	2917	2917	2917	2942	2942	2967	2967	2993	2993	3019	3046	3073	3073	3101	3073	3073	3073	3073	3073	3073	3073	3046	3046	3046	3046	3073	3073	3738	3659	3659	3659	3659	3659	3621	3659	3659	3659	3659	3659	3659	3659	3659	3659	3659	3659	3621	3621	3621	3621	3621	3621	3621	3621	3621	3621	3621	3621	3621	3621	3621	3621	3621	3621	3621	3621	3621	3621	3621	3621	3621	3621	3621	3621	3659	3659	3659	3659	3659	3659	3659	3659	3659	3659	3659	3659	3659	3659	3659	3659	3659	3659	3621	3621	3621	3621	3621	3621	3659	3659	3659	3659	3659	3659	3659	3659	3659	3659	3659	3621	3659	3659	3659	3659	3659	3659	3659	3621	3659	3659	3659	3621	3621	3621	3621	3621	3621	3621	3621	3621	3621	3621	3621	3621	3621	3621	3621	3621	3583	3583	3583	3583	3621	3621	3621	3621	3621	3621	3621	3621	3621	3621	3621	3621	3583	3621	3621	3621	3583	3583	3621	3621	3621	3621	3621	3621	3621	3621	3583	3583	3583	3621	0	0	0	2140	2140	2127	2127	2127	2127	2127	2127	2114	2114	2114	2114	2114	2101	2101	2101	2101	0	0	0	0	0	0	0	1786	1777	1777	1777	1768	1750	1741	1741	1732	1723	1715	1706	1706	1706	1698	1698	1698	1690	1690	1681	1681	1665	1657	1649	1641	1641	1634	1618	1618	1618	1611	1603	1603	1596	1589	1589	1581	1567	1560	1560	1553	1539	1539	1532	1532	1519	1512	1512	1506	1499	1492	1486	1480	1467	1461	1461	1455	1455	1461	1461	1455	1455	1461	1461	1461	1467	1467	1480	1486	1486	1486	1486	1486	1486	1486	1480	1480	1480	1480	1480	1480	0	0	0	0	0	0	0	0	0	0	0	0	0	0	0	0	0	0	0	0	0	0	0	0	0	0	0	0	0	0	0	0	0	0	0	0	0	0	0	0
0	0	0	0	0	0	0	0	0	0	0	0	0	1980	1992	2003	2015	2015	2039	2039	2051	2063	2063	2063	2063	2063	2063	2376	2376	2376	2376	2376	2376	2392	2409	2409	2409	2426	2460	2460	2478	2478	2478	2478	2478	2478	2478	2478	2478	2478	2478	2478	2478	2478	2478	2460	2460	2460	2460	2460	2460	2478	2478	2478	2478	2478	2478	2478	2496	2496	2496	2496	2496	2496	2496	2496	2496	2496	2496	2496	2496	2496	2496	2496	2496	2514	2514	2514	2496	2496	2496	2496	2496	2496	2514	2496	2496	2496	2496	2496	2496	2496	2496	2496	2496	2496	2496	2496	2496	2496	2496	2496	2496	2496	2496	2496	2496	2496	2496	2478	2478	2478	2478	2478	2496	2478	2478	2496	2496	2496	2514	2514	2514	2532	2532	3659	3659	3621	3621	3621	3621	3583	3583	3583	3583	3583	3546	3546	3546	3546	3546	3583	3546	3546	3546	3546	3583	3546	3546	3583	3583	3583	3583	3583	3583	3583	3583	3583	3583	3583	3583	3583	3583	3583	3583	3583	3583	3546	3546	3546	3546	3583	3583	3583	3621	3621	3621	3621	3621	3621	3659	3621	3621	3621	3621	3621	3621	3621	3621	3583	3583	3583	3583	3621	3621	3621	3621	3659	3659	3621	3621	3659	3659	3621	3621	3621	3621	3621	3621	3583	3583	3583	3583	3621	3583	3621	3583	3621	3583	3583	3583	3621	3621	3621	3621	3659	3621	3621	3621	3621	3621	3621	3621	3621	3621	3621	3621	3621	3621	3621	3621	3621	3073	3073	3073	3073	3046	3046	3046	3046	3046	3046	3046	3046	3046	3046	3046	3046	3046	3046	3019	3019	2993	2993	2967	2967	2942	2942	2917	2917	2893	2893	2869	2869	2869	2869	2869	2869	2869	2869	2869	2869	2869	2869	2869	2869	2845	2845	2845	2845	2845	2869	2869	2869	2869	2869	2869	2869	2869	2869	2869	2845	2869	2845	2893	2893	2893	2893	2917	2917	2893	2893	2917	2917	2942	2942	2967	2967	2993	2993	3019	3046	3073	3073	3101	3101	3101	3101	3073	3073	3073	3073	3046	3046	3046	3046	3046	3101	3101	3659	3659	3659	3659	3659	3659	3659	3659	3659	3621	3659	3659	3659	3659	3659	3659	3659	3659	3621	3621	3621	3621	3621	3621	3621	3621	3621	3621	3659	3621	3621	3621	3621	3621	3621	3621	3621	3621	3621	3621	3621	3621	3621	3621	3621	3659	3659	3659	3659	3659	3659	3659	3659	3659	3659	3659	3659	3659	3659	3659	3659	3621	3659	3621	3621	3621	3621	3621	3621	3659	3659	3659	3659	3659	3659	3659	3659	3659	3659	3659	3659	3659	3659	3659	3659	3659	3659	3621	3621	3621	3659	3659	3621	3621	3621	3621	3621	3621	3621	3621	3621	3621	3621	3621	3621	3621	3621	3621	3621	3583	3583	3621	3621	3621	3621	3621	3621	3621	3583	3583	3583	3621	3583	3621	3583	3583	3583	3583	3583	3583	3621	3621	3621	3621	3621	3621	3621	3621	3621	3583	3583	3583	0	0	0	2140	2140	2140	2127	2127	2127	2127	2127	2114	2114	2114	2114	2114	2101	2101	2101	2101	2101	0	0	0	0	0	0	0	1786	1777	1777	1768	1768	1750	1741	1741	1732	1732	1715	1715	1715	1706	1706	1698	1698	1690	1690	1681	1681	1665	1657	1649	1641	1641	1634	1626	1618	1618	1611	1603	1596	1596	1589	1589	1581	1567	1560	1560	1553	1546	1539	1532	1532	1519	1512	1506	1506	1499	1486	1486	1473	1467	1461	1461	1455	1455	1461	1461	1455	1455	1455	1461	1461	1461	1467	1473	1480	1486	1486	1486	1486	1486	1480	1480	1480	1480	1480	1480	1480	0	0	0	0	0	0	0	0	0	0	0	0	0	0	0	0	0	0	0	0	0	0	0	0	0	0	0	0	0	0	0	0	0	0	0	0	0	0	0	0
0	0	0	0	0	0	0	0	0	0	0	0	0	1980	1992	2003	2015	2027	2039	2039	2051	2063	2063	2063	2063	2063	2063	2063	2392	2392	2392	2392	2392	2409	2409	2426	2426	2443	2460	2460	2478	2478	2478	2478	2478	2478	2478	2478	2478	2478	2478	2478	2478	2478	2478	2460	2478	2478	2478	2478	2478	2478	2478	2478	2478	2478	2478	2478	2478	2496	2496	2478	2478	2496	2496	2496	2496	2496	2496	2496	2496	2496	2496	2514	2496	2514	2514	2514	2514	2496	2496	2496	2496	2496	2496	2496	2496	2496	2496	2496	2496	2496	2496	2496	2496	2496	2496	2496	2496	2496	2496	2496	2514	2514	2496	2514	2496	2496	2496	2496	2478	2478	2478	2478	2478	2478	2496	2496	2496	2496	2496	2496	2496	2496	2496	3659	3659	3659	3659	3621	3621	3583	3583	3546	3546	3546	3546	3546	3546	3510	3546	3546	3546	3546	3546	3546	3583	3583	3583	3583	3583	3583	3583	3621	3583	3583	3621	3583	3621	3583	3583	3583	3583	3583	3583	3583	3546	3546	3546	3546	3546	3546	3583	3583	3583	3621	3621	3621	3621	3621	3621	3621	3621	3621	3621	3583	3583	3583	3583	3583	3583	3583	3583	3621	3621	3621	3659	3659	3621	3621	3621	3621	3621	3621	3621	3583	3583	3583	3621	3583	3621	3583	3583	3621	3583	3621	3583	3621	3583	3583	3583	3621	3621	3621	3621	3659	3621	3621	3621	3621	3621	3621	3621	3621	3621	3621	3621	3621	3621	3621	3621	3659	3659	3046	3073	3046	3046	3046	3046	3046	3046	3019	3046	3046	3046	3046	3046	3046	3046	3046	3019	3019	2993	2967	2967	2942	2942	2917	2917	2893	2893	2869	2869	2869	2869	2869	2869	2869	2869	2869	2869	2869	2869	2869	2869	2869	2869	2845	2845	2845	2845	2845	2845	2869	2869	2869	2869	2869	2869	2869	2869	2869	2869	2845	2893	2893	2893	2893	2893	2893	2893	2893	2917	2917	2917	2942	2967	2967	2967	2993	2993	2993	3046	3073	3101	3101	3101	3101	3073	3073	3073	3073	3046	3046	3046	3046	3046	3073	3073	3621	3659	3659	3659	3621	3621	3659	3621	3621	3621	3621	3621	3621	3659	3659	3659	3659	3659	3621	3621	3621	3621	3621	3621	3621	3621	3621	3621	3659	3621	3621	3621	3621	3621	3621	3621	3621	3621	3621	3621	3621	3621	3621	3621	3621	3659	3659	3659	3659	3659	3659	3659	3659	3659	3659	3659	3659	3659	3659	3659	3659	3659	3659	3621	3621	3659	3659	3621	3659	3659	3659	3659	3659	3659	3659	3659	3659	3659	3659	3659	3659	3659	3659	3659	3659	3659	3621	3621	3621	3621	3659	3659	3621	3621	3621	3621	3621	3621	3621	3621	3621	3621	3621	3621	3621	3621	3621	3621	3621	3621	3621	3621	3621	3621	3621	3621	3621	3583	3583	3583	3583	3621	3583	3621	3583	3583	3621	3583	3583	3583	3583	3621	3621	3621	3621	3621	3621	3621	3621	3583	3583	0	0	0	0	2140	2140	2140	2140	2127	2127	2127	2114	2114	2114	2114	2114	2114	2114	2101	2101	2101	2101	2101	0	0	0	0	1804	1795	1786	1777	1777	1768	1759	1750	1750	1741	1741	1732	1723	1715	1715	1715	1706	1706	1698	1690	1690	1681	1681	1665	1657	1649	1641	1641	1634	1626	1618	1618	1611	1611	1603	1596	1596	1589	1581	1574	1567	1560	1560	1553	1539	1532	1525	1519	1512	1512	1506	1499	1492	1486	1480	1467	1461	1461	1455	1455	1461	1461	1455	1455	1455	1461	1461	1461	1467	1473	1473	1486	1486	1486	1486	1486	1480	1480	1480	1480	1480	1480	1480	0	0	0	0	0	0	0	0	0	0	0	0	0	0	0	0	0	0	0	0	0	0	0	0	0	0	0	0	0	0	0	0	0	0	0	0	0	0	0	0
0	0	0	0	0	0	0	0	0	0	0	0	0	1980	1992	2003	2015	2027	2027	2039	2039	2051	2051	2063	2051	2051	2063	2063	2088	2088	2088	2409	2409	2409	2409	2409	2426	2443	2460	2460	2460	2478	2460	2478	2478	2478	2478	2478	2478	2478	2478	2478	2478	2478	2460	2460	2460	2460	2478	2478	2478	2478	2478	2478	2478	2478	2478	2478	2478	2478	2478	2478	2478	2496	2496	2496	2496	2496	2496	2496	2496	2496	2496	2514	2496	2514	2514	2514	2514	2496	2496	2496	2496	2496	2496	2496	2496	2496	2496	2496	2496	2496	2496	2496	2496	2496	2496	2496	2496	2496	2496	2496	2496	2496	2496	2496	2496	2496	2496	2496	2478	2496	2496	2496	2496	2496	2496	2496	2496	2496	2496	2496	2514	2514	2532	2532	3659	3659	3659	3659	3621	3621	3621	3583	3546	3546	3546	3546	3546	3510	3546	3546	3546	3546	3546	3546	3583	3583	3546	3583	3583	3583	3583	3583	3583	3583	3621	3583	3583	3583	3583	3583	3583	3583	3583	3546	3546	3546	3546	3546	3546	3546	3546	3583	3583	3621	3621	3621	3621	3621	3621	3621	3621	3621	3621	3583	3583	3583	3583	3583	3583	3583	3583	3621	3621	3659	3621	3659	3621	3621	3621	3621	3621	3621	3621	3583	3583	3621	3621	3583	3621	3583	3621	3621	3621	3621	3583	3583	3583	3583	3583	3583	3583	3583	3583	3659	3621	3621	3621	3621	3621	3621	3621	3621	3621	3621	3621	3621	3621	3621	3621	3659	3659	3046	3073	3046	3046	3046	3046	3046	3046	3046	3046	3046	3046	3046	3046	3046	3046	3019	3019	2993	2967	2967	2942	2942	2942	2917	2917	2893	2893	2893	2869	2869	2869	2869	2869	2869	2869	2869	2869	2869	2869	2869	2869	2869	2869	2869	2845	2845	2845	2845	2845	2869	2845	2869	2869	2869	2869	2869	2869	2869	2869	2869	2893	2893	2893	2893	2893	2893	2893	2893	2917	2917	2917	2942	2942	2967	2967	2993	2993	3019	3046	3073	3101	3101	3101	3073	3073	3073	3073	3073	3046	3046	3046	3046	3046	3073	3073	3621	3621	3621	3659	3621	3621	3659	3621	3621	3621	3621	3621	3659	3659	3659	3659	3659	3621	3621	3621	3621	3621	3621	3621	3621	3621	3621	3621	3621	3621	3621	3621	3621	3621	3621	3621	3621	3621	3621	3621	3621	3621	3621	3621	3621	3698	3698	3659	3659	3659	3659	3659	3659	3659	3659	3659	3659	3659	3659	3659	3659	3621	3659	3621	3621	3621	3621	3621	3621	3659	3621	3659	3659	3659	3659	3659	3659	3659	3659	3659	3659	3659	3659	3659	3659	3659	3621	3621	3621	3659	3659	3659	3621	3621	3621	3621	3621	3621	3621	3621	3659	3659	3621	3621	3621	3621	3621	3621	3621	3621	3621	3621	3621	3621	3621	3621	3621	3583	3583	3583	3583	3621	3621	3621	3583	3583	3583	3583	3583	3583	3583	3583	3621	3621	3621	3621	3621	3621	3621	3621	3583	0	0	0	0	2140	2140	2140	2140	2127	2127	2127	2114	2114	2114	2101	2114	2114	2114	2101	2101	2114	2114	2114	0	0	1814	1804	1795	1786	1786	1777	1777	1768	1768	1759	1750	1741	1741	1732	1723	1723	1723	1715	1715	1706	1706	1698	1698	1690	1681	1665	1657	1649	1641	1641	1641	1634	1626	1618	1611	1611	1603	1596	1589	1581	1574	1567	1567	1560	1560	1553	1539	1532	1519	1512	1512	1512	1506	1506	1492	1486	1473	1467	1461	1461	1455	1455	1455	1455	1455	1455	1455	1461	1461	1461	1461	1473	1480	1486	1486	1486	1486	1486	1480	1480	1480	1480	1480	1480	1480	0	0	0	0	0	0	0	0	0	0	0	0	0	0	0	0	0	0	0	0	0	0	0	0	0	0	0	0	0	0	0	0	0	0	0	0	0	0	0	0
0	0	0	0	0	0	0	0	0	0	0	0	0	1980	1992	2003	2015	2015	2027	2027	2027	2039	2051	2051	2063	2063	2076	2088	2088	2076	2076	2101	2101	2426	2426	2426	2426	2426	2443	2443	2460	2460	2460	2460	2478	2478	2478	2478	2478	2478	2478	2478	2478	2478	2478	2460	2460	2478	2460	2478	2478	2478	2478	2478	2478	2478	2478	2478	2478	2478	2478	2478	2478	2496	2496	2496	2496	2496	2496	2496	2496	2496	2496	2514	2514	2514	2514	2514	2514	2496	2496	2496	2496	2496	2496	2496	2496	2496	2496	2496	2496	2496	2496	2496	2496	2496	2496	2496	2496	2496	2496	2496	2496	2496	2496	2496	2496	2496	2496	2478	2478	2478	2496	2496	2496	2496	2496	2496	2496	2496	2496	2514	2514	2514	2514	2514	3659	3698	3698	3659	3659	3621	3621	3583	3546	3546	3546	3546	3510	3510	3546	3546	3546	3510	3546	3546	3583	3583	3583	3583	3583	3621	3621	3621	3583	3583	3621	3583	3583	3583	3583	3583	3583	3583	3546	3546	3546	3546	3546	3546	3546	3546	3546	3546	3583	3583	3621	3621	3621	3621	3621	3621	3621	3621	3583	3583	3583	3583	3583	3583	3583	3583	3583	3583	3621	3621	3621	3659	3621	3621	3621	3621	3583	3583	3583	3583	3583	3621	3621	3621	3621	3621	3621	3621	3621	3621	3583	3583	3583	3583	3583	3583	3583	3621	3621	3659	3621	3621	3621	3621	3621	3621	3621	3583	3621	3621	3621	3621	3621	3621	3621	3621	3659	2942	3046	3046	3046	3046	3046	3046	3046	3019	3019	3046	3046	3046	3019	3019	3046	3046	3019	2993	2967	2967	2942	2942	2942	2917	2893	2893	2893	2893	2869	2869	2869	2869	2869	2869	2869	2869	2869	2869	2869	2869	2869	2869	2845	2845	2845	2845	2845	2845	2845	2869	2845	2869	2869	2869	2869	2869	2869	2845	2845	2845	2893	2893	2893	2893	2893	2893	2893	2893	2893	2893	2917	2942	2942	2967	2967	2993	2993	3019	3046	3073	3101	3101	3101	3073	3073	3073	3073	3073	3046	3046	3046	3046	3073	3073	3073	3621	3621	3621	3621	3621	3621	3659	3621	3621	3621	3621	3621	3621	3621	3659	3659	3659	3621	3621	3621	3621	3621	3621	3621	3621	3621	3621	3621	3621	3621	3621	3621	3621	3621	3621	3621	3621	3621	3621	3621	3621	3621	3621	3621	3659	3621	3698	3659	3659	3659	3621	3659	3659	3621	3621	3621	3659	3659	3621	3621	3621	3621	3621	3621	3621	3621	3621	3621	3621	3621	3621	3621	3621	3621	3621	3659	3659	3659	3659	3659	3659	3659	3659	3659	3621	3659	3621	3621	3621	3621	3621	3621	3621	3621	3621	3621	3621	3621	3621	3621	3659	3659	3659	3659	3621	3621	3621	3621	3621	3621	3621	3621	3621	3621	3621	3621	3621	3621	3583	3583	3583	3621	3621	3583	3583	3583	3583	3583	3583	3583	3583	3583	3621	3621	3621	3621	3621	3583	3583	3583	0	0	0	0	2153	2140	2140	2140	2140	2127	2127	2114	2114	2114	2101	2101	2101	2114	2114	2114	2101	2114	2114	2114	1814	1814	1814	1814	1804	1795	1786	1777	1777	1768	1768	1759	1750	1750	1741	1741	1723	1723	1723	1715	1715	1706	1706	1698	1698	1681	1681	1665	1657	1649	1641	1641	1641	1634	1626	1618	1611	1611	1611	1596	1596	1589	1567	1567	1567	1560	1560	1560	1539	1532	1519	1512	1512	1512	1506	1506	1492	1486	1473	1467	1461	1455	1455	1455	1455	1455	1455	1455	1455	1455	1461	1461	1467	1467	1480	1486	1486	1486	1486	1486	1480	1480	1480	1480	1480	1480	1480	0	0	0	0	0	0	0	0	0	0	0	0	0	0	0	0	0	0	0	0	0	0	0	0	0	0	0	0	0	0	0	0	0	0	0	0	0	0	0	0
0	0	0	0	0	0	0	0	0	0	0	0	0	1980	1992	2003	2015	2015	2027	2027	2027	2039	2051	2051	2051	2063	2076	2088	2076	2076	2101	2101	2101	2101	2114	2114	2443	2443	2460	2460	2460	2460	2460	2478	2478	2478	2478	2478	2478	2478	2478	2478	2478	2478	2478	2478	2460	2478	2478	2478	2478	2478	2478	2478	2478	2478	2478	2478	2478	2478	2478	2478	2478	2496	2496	2496	2496	2496	2496	2496	2496	2496	2496	2514	2514	2514	2514	2514	2514	2496	2514	2496	2496	2496	2496	2496	2496	2496	2496	2496	2496	2496	2496	2496	2496	2496	2496	2496	2496	2496	2496	2496	2496	2496	2496	2496	2496	2496	2496	2496	2478	2478	2478	2478	2496	2496	2496	2496	2496	2496	2496	2496	2514	2514	2514	2514	0	3698	3738	3659	3659	3659	3621	3621	3546	3546	3546	3546	3510	3510	3510	3510	3510	3510	3510	3510	3583	3583	3546	3583	3583	3583	3621	3583	3583	3583	3621	3583	3583	3583	3583	3583	3583	3583	3546	3546	3546	3546	3546	3546	3546	3546	3546	3583	3583	3583	3621	3621	3621	3621	3621	3621	3621	3621	3583	3583	3583	3583	3583	3621	3621	3621	3583	3621	3621	3659	3621	3621	3583	3621	3621	3621	3583	3583	3583	3583	3621	3621	3621	3621	3621	3621	3621	3621	3621	3621	3583	3583	3583	3583	3583	3583	3583	3621	3621	3659	3659	3621	3621	3621	3621	3621	3621	3583	3621	3621	3621	3621	3621	3621	3621	3659	3659	2942	3046	3046	3046	3046	3046	3046	3046	3019	3019	3019	3046	3046	3046	3046	3046	3046	3019	2993	2967	2967	2942	2942	2917	2917	2893	2893	2893	2893	2869	2869	2869	2869	2869	2869	2869	2869	2869	2869	2869	2869	2869	2869	2845	2845	2845	2845	2845	2845	2845	2869	2869	2869	2869	2869	2869	2869	2869	2845	2845	2845	2845	2893	2893	2893	2893	2893	2893	2893	2893	2893	2893	2942	2942	2967	2967	2993	2993	3019	3046	3073	3101	3101	3073	3073	3073	3073	3073	3046	3046	3046	3046	3046	3046	3073	3073	3621	3621	3621	3659	3621	3621	3621	3621	3621	3621	3621	3621	3621	3621	3621	3659	3659	3621	3621	3621	3621	3621	3621	3621	3621	3621	3621	3621	3621	3621	3621	3621	3621	3621	3621	3621	3621	3621	3621	3621	3621	3621	3659	3659	3659	3659	3659	3659	3659	3659	3621	3621	3659	3621	3659	3659	3659	3659	3621	3659	3659	3621	3621	3621	3621	3659	3659	3621	3621	3621	3621	3621	3621	3621	3621	3621	3621	3621	3659	3659	3659	3659	3659	3621	3621	3621	3621	3621	3621	3659	3659	3659	3659	3621	3621	3621	3621	3621	3621	3621	3659	3659	3659	3659	3659	3659	3621	3621	3621	3621	3621	3621	3621	3621	3583	3583	3621	3621	3583	3583	3583	3621	3583	3583	3583	3583	3583	3583	3583	3546	3583	3583	3621	3621	3621	3621	3621	3583	3583	3583	0	0	0	0	2153	2140	2140	2140	2140	2127	2127	2127	2114	2114	2114	2114	2101	2114	2114	2114	2101	2114	2127	1814	1814	1804	1814	1804	1795	1786	1777	1777	1768	1768	1768	1768	1759	1750	1750	1741	1732	1723	1723	1723	1715	1706	1706	1698	1698	1681	1681	1673	1657	1649	1641	1641	1641	1634	1626	1618	1611	1611	1611	1596	1596	1589	1574	1567	1567	1560	1567	1560	1539	1532	1519	1512	1512	1512	1506	1506	1492	1486	1486	1467	1461	1455	1455	1455	1455	1455	1455	1455	1455	1461	1461	1461	1467	1473	1480	1486	1486	1486	1486	1486	1480	1480	1480	1480	1480	1480	1480	0	0	0	0	0	0	0	0	0	0	0	0	0	0	0	0	0	0	0	0	0	0	0	0	0	0	0	0	0	0	0	0	0	0	0	0	0	0	0	0
0	0	0	0	0	0	0	0	0	0	0	0	0	1980	1980	1992	2003	2015	2027	2015	2015	2015	2027	2027	2039	2051	2051	2076	2088	2101	2101	2101	2101	2114	2114	2114	2114	2478	2478	2460	2460	2460	2478	2478	2478	2478	2478	2478	2478	2478	2478	2478	2478	2478	2478	2478	2478	2478	2478	2478	2478	2478	2496	2496	2478	2478	2478	2478	2478	2478	2478	2478	2478	2496	2496	2496	2496	2496	2496	2496	2496	2496	2496	2514	2514	2514	2514	2496	2514	2496	2496	2496	2496	2496	2496	2496	2496	2478	2496	2496	2496	2496	2496	2496	2496	2496	2496	2496	2496	2496	2496	2496	2496	2496	2496	2496	2496	2496	2496	2496	2478	2496	2478	2496	2496	2496	2496	2496	2496	2496	2496	2496	2496	2496	0	0	0	0	3738	3698	3659	3659	3621	3621	3546	3546	3546	3510	3510	3510	3510	3510	3510	3510	3510	3510	3583	3583	3546	3583	3583	3583	3583	3583	3583	3546	3583	3583	3583	3583	3583	3583	3583	3583	3546	3546	3546	3546	3546	3546	3546	3546	3546	3583	3583	3583	3621	3621	3621	3621	3621	3583	3583	3583	3583	3583	3583	3583	3621	3621	3621	3583	3583	3583	3621	3659	3621	3621	3583	3583	3621	3583	3583	3583	3583	3583	3621	3621	3621	3621	3621	3621	3621	3621	3621	3621	3583	3621	3583	3583	3583	3583	3583	3621	3621	3659	3659	3659	3621	3621	3621	3621	3621	3583	3621	3621	3621	3621	3621	3621	3621	3621	3659	3659	3019	3046	3046	3046	3046	3046	3046	3019	3019	3019	3046	3019	3019	3019	3046	3046	3019	2993	2967	2967	2942	2942	2917	2917	2893	2893	2893	2893	2869	2869	2869	2869	2869	2869	2869	2869	2869	2869	2869	2869	2869	2869	2845	2845	2845	2845	2845	2845	2845	2869	2869	2869	2869	2869	2869	2869	2869	2845	2845	2845	2893	2893	2893	2893	2893	2893	2893	2893	2893	2893	2917	2917	2942	2942	2967	2967	2993	2993	3019	3073	3073	3101	3073	3073	3073	3073	3073	3046	3046	3046	3046	3046	3046	3046	3073	3621	3621	3621	3621	3621	3621	3621	3621	3621	3621	3621	3621	3621	3659	3659	3621	3621	3621	3621	3621	3621	3621	3621	3621	3621	3621	3621	3621	3621	3621	3621	3621	3621	3621	3621	3621	3621	3621	3621	3621	3621	3621	3621	3621	3659	3621	3659	3659	3659	3621	3621	3621	3621	3621	3621	3659	3659	3659	3621	3659	3659	3621	3621	3621	3621	3659	3659	3621	3621	3621	3621	3621	3621	3621	3621	3621	3621	3621	3659	3659	3659	3659	3621	3621	3621	3621	3621	3621	3621	3621	3621	3621	3621	3621	3621	3621	3621	3621	3621	3621	3621	3659	3659	3659	3659	3621	3621	3621	3621	3621	3621	3621	3621	3621	3621	3621	3621	3583	3583	3583	3583	3621	3583	3583	3546	3546	3583	3583	3583	3546	3583	3583	3621	3621	3621	3621	3621	3621	3583	3583	0	0	0	0	2140	2140	2140	2140	2140	2127	2127	2114	2114	2114	2114	2114	2101	2114	2114	2114	2101	2114	1814	1814	1814	1814	1814	1804	1795	1786	1777	1777	1768	1768	1768	1768	1759	1759	1750	1750	1741	1723	1723	1723	1715	1706	1706	1698	1690	1681	1673	1673	1657	1649	1649	1641	1641	1634	1626	1618	1611	1603	1611	1596	1589	1589	1574	1567	1567	1560	1560	1553	1539	1532	1519	1512	1512	1512	1506	1506	1499	1492	1486	1473	1461	1455	1455	1455	1455	1455	1455	1455	1455	1455	1455	1461	1461	1467	1480	1486	1486	1486	1486	1486	1480	1480	1480	1480	1480	1480	1480	0	0	0	0	0	0	0	0	0	0	0	0	0	0	0	0	0	0	0	0	0	0	0	0	0	0	0	0	0	0	0	0	0	0	0	0	0	0	0	0
0	0	0	0	0	0	0	0	0	0	0	0	0	1969	1980	1992	2003	2003	2003	2015	2015	2015	2015	2015	2039	2051	2063	2088	2088	2101	2101	2101	2101	2114	2127	2127	2127	2167	2181	2181	2460	2460	2478	2478	2478	2478	2478	2478	2478	2478	2478	2478	2478	2478	2478	2478	2478	2478	2478	2478	2478	2496	2496	2496	2478	2478	2478	2478	2478	2478	2478	2478	2478	2496	2496	2496	2496	2496	2496	2478	2478	2496	2496	2496	2496	2514	2514	2496	2514	2496	2496	2496	2496	2496	2496	2496	2478	2478	2496	2496	2496	2496	2496	2496	2496	2496	2496	2496	2496	2496	2496	2496	2496	2514	2514	2496	2496	2496	2496	2496	2478	2496	2496	2496	2496	2496	2496	2496	2496	2496	2496	2496	2496	2496	0	0	0	0	0	3698	3659	3659	3621	3621	3546	3546	3546	3546	3510	3510	3510	3510	3510	3510	3510	3510	3546	3583	3546	3546	3583	3583	3583	3583	3546	3546	3583	3583	3583	3583	3583	3583	3583	3546	3546	3546	3546	3546	3546	3546	3546	3546	3546	3583	3583	3583	3583	3621	3621	3621	3621	3583	3583	3583	3583	3583	3583	3583	3621	3621	3621	3583	3583	3583	3621	3621	3583	3583	3583	3583	3583	3583	3583	3583	3583	3583	3621	3621	3621	3621	3621	3621	3659	3621	3621	3621	3621	3621	3621	3621	3621	3621	3621	3621	3621	3659	3659	3659	3621	3621	3621	3621	3621	3583	3583	3583	3621	3621	3621	3621	3583	3583	3621	3659	3698	3046	3046	3046	3046	3046	3046	3019	3019	3019	3046	3019	3019	3019	3046	3046	3019	2993	2967	2967	2942	2942	2917	2917	2893	2893	2893	2893	2893	2869	2869	2869	2869	2869	2869	2869	2869	2869	2869	2869	2869	2869	2845	2845	2845	2845	2845	2845	2845	2869	2869	2869	2869	2869	2869	2869	2869	2845	2845	2845	2893	2893	2893	2893	2893	2893	2893	2893	2893	2893	2893	2917	2942	2942	2967	2967	2993	3019	3046	3073	3073	3101	3073	3073	3073	3073	3073	3046	3046	3046	3046	3046	3073	3073	3073	3621	3621	3621	3621	3621	3621	3621	3621	3621	3621	3621	3621	3621	3659	3621	3621	3659	3621	3621	3621	3621	3621	3621	3621	3621	3621	3621	3621	3621	3621	3621	3621	3621	3621	3621	3621	3621	3621	3621	3621	3621	3621	3621	3621	3621	3621	3659	3659	3621	3621	3621	3621	3621	3621	3621	3621	3659	3659	3621	3621	3621	3621	3659	3621	3621	3659	3659	3621	3621	3621	3621	3621	3621	3621	3621	3621	3621	3621	3621	3659	3659	3621	3621	3621	3621	3621	3621	3621	3621	3621	3621	3621	3621	3621	3621	3621	3621	3621	3621	3621	3621	3659	3621	3621	3621	3621	3621	3621	3621	3621	3621	3621	3621	3621	3621	3621	3621	3621	3583	3621	3621	3621	3621	3621	3621	3583	3583	3583	3583	3546	3546	3583	3621	3621	3621	3621	3621	3583	3583	3583	0	0	0	0	2140	2140	2140	2140	2140	2127	2127	2114	2127	2114	2114	2114	2114	2114	2114	2114	2101	2127	1833	1824	1824	1824	1824	1814	1804	1786	1777	1777	1777	1768	1768	1768	1768	1759	1750	1750	1741	1723	1723	1723	1715	1706	1698	1690	1690	1681	1673	1673	1657	1649	1649	1641	1641	1626	1626	1618	1611	1603	1603	1596	1589	1574	1567	1567	1567	1560	1560	1553	1546	1532	1519	1512	1512	1512	1506	1499	1492	1486	1480	1473	1461	1455	1461	1461	1461	1455	1455	1455	1455	1461	1455	1461	1461	1467	1473	1486	1486	1486	1486	1486	1480	1480	1480	1480	1480	1480	1480	0	0	0	0	0	0	0	0	0	0	0	0	0	0	0	0	0	0	0	0	0	0	0	0	0	0	0	0	0	0	0	0	0	0	0	0	0	0	0	0
0	0	0	0	0	0	0	0	0	0	0	0	0	1958	1980	1980	1992	2003	2015	2015	2015	2015	2015	2015	2039	2051	2063	2088	2088	2101	2101	2101	2114	2127	2127	2127	2140	2167	2181	2181	2181	2181	2478	2478	2478	2478	2478	2478	2478	2478	2478	2478	2478	2478	2478	2478	2478	2478	2478	2478	2478	2496	2496	2496	2478	2478	2478	2478	2478	2478	2478	2478	2478	2496	2496	2496	2496	2496	2496	2478	2478	2496	2496	2514	2496	2514	2514	2514	2514	2514	2496	2496	2496	2496	2496	2496	2496	2496	2496	2496	2496	2496	2496	2496	2496	2496	2496	2496	2496	2496	2496	2496	2496	2496	2496	2496	2496	2478	2478	2478	2478	2478	2478	2496	2496	2496	2496	2496	2496	2496	2496	2496	2496	2496	0	0	0	0	0	0	3659	3659	3621	3621	3546	3546	3546	3510	3510	3510	3510	3510	3510	3510	3510	3510	3546	3546	3546	3546	3583	3583	3583	3583	3546	3546	3583	3583	3583	3583	3583	3583	3583	3546	3546	3546	3546	3546	3546	3546	3546	3546	3546	3546	3583	3583	3621	3621	3621	3621	3583	3621	3621	3621	3621	3583	3583	3583	3621	3621	3583	3621	3621	3583	3621	3621	3583	3583	3583	3583	3583	3583	3583	3583	3583	3583	3621	3621	3621	3621	3621	3621	3659	3659	3621	3621	3621	3621	3621	3621	3621	3621	3621	3621	3621	3659	3659	3621	3621	3583	3583	3583	3583	3583	3583	3583	3583	3621	3621	3621	3621	3621	3659	3659	3698	3046	3046	3046	3046	3046	3019	3019	3019	3019	3019	3019	3019	3019	3019	3046	2993	2993	2967	2967	2942	2942	2917	2917	2893	2893	2893	2893	2893	2869	2869	2869	2869	2869	2869	2869	2869	2869	2869	2869	2869	2869	2869	2869	2845	2845	2845	2845	2845	2845	2869	2869	2869	2869	2869	2869	2845	2845	2845	2845	2893	2893	2893	2893	2893	2893	2893	2893	2893	2893	2893	2917	2917	2942	2942	2967	2993	2993	3019	3073	3073	3073	3073	3073	3073	3073	3046	3046	3046	3046	3046	3046	3073	3073	3073	3073	3621	3621	3621	3621	3621	3621	3621	3621	3621	3621	3621	3621	3621	3621	3621	3621	3621	3621	3621	3621	3621	3621	3583	3621	3621	3621	3621	3621	3621	3621	3621	3621	3621	3621	3621	3621	3621	3621	3621	3621	3621	3621	3621	3621	3621	3659	3659	3659	3621	3621	3621	3621	3621	3621	3621	3659	3659	3621	3621	3659	3621	3621	3621	3621	3621	3621	3621	3621	3621	3621	3621	3621	3621	3621	3621	3621	3621	3621	3621	3659	3621	3621	3621	3621	3621	3621	3621	3621	3621	3621	3621	3621	3621	3621	3621	3621	3621	3621	3621	3621	3621	3621	3621	3621	3621	3621	3621	3621	3621	3621	3621	3621	3621	3621	3621	3621	3621	3621	3621	3621	3621	3621	3621	3621	3583	3583	3583	3583	3546	3546	3583	3621	3621	3621	3621	3621	3621	3583	3583	0	0	0	0	2153	2140	2127	2127	2127	2114	2114	2114	2114	2114	2114	2114	2114	2114	2127	2127	2114	1843	1843	1833	1833	1824	1824	1814	1814	1804	1795	1777	1777	1768	1768	1777	1768	1768	1750	1750	1741	1741	1723	1723	1715	1706	1706	1698	1690	1690	1681	1673	1657	1649	1649	1641	1641	1634	1618	1618	1611	1603	1603	1596	1589	1581	1574	1567	1567	1560	1560	1553	1553	1525	1519	1512	1512	1506	1506	1499	1492	1486	1480	1473	1467	1461	1461	1461	1455	1455	1455	1455	1455	1461	1455	1461	1461	1467	1480	1486	1486	1486	1486	1486	1480	1480	1480	1480	1480	1480	1480	0	0	0	0	0	0	0	0	0	0	0	0	0	0	0	0	0	0	0	0	0	0	0	0	0	0	0	0	0	0	0	0	0	0	0	0	0	0	0	0
0	0	0	0	0	0	0	0	0	0	0	0	0	1958	1980	1980	1992	2003	2015	2015	2015	2015	2015	2015	2039	2051	2063	2076	2088	2101	2101	2101	2114	2127	2140	2140	2153	2167	2167	2167	2167	2181	2181	2496	2478	2478	2478	2478	2496	2478	2478	2478	2478	2478	2478	2478	2460	2478	2478	2478	2478	2496	2496	2496	2478	2478	2478	2478	2478	2478	2478	2478	2478	2496	2496	2496	2496	2496	2496	2478	2478	2496	2496	2496	2496	2514	2496	2514	2514	2514	2514	2514	2496	2496	2496	2496	2496	2496	2496	2496	2496	2496	2496	2514	2496	2496	2496	2496	2514	2496	2496	2496	2496	2496	2496	2496	2496	2478	2496	2496	2478	2478	2478	2496	2496	2496	2496	2496	2496	2496	2496	2496	2496	2496	0	0	0	0	0	0	3659	3659	3621	3621	3583	3583	3546	3546	3546	3510	3510	3510	3510	3510	3510	3510	3546	3546	3546	3546	3583	3583	3583	3546	3546	3546	3546	3583	3546	3583	3583	3583	3583	3546	3546	3546	3546	3546	3546	3546	3546	3546	3546	3583	3583	3583	3621	3621	3621	3621	3621	3621	3621	3621	3621	3621	3621	3621	3621	3621	3621	3621	3621	3621	3621	3621	3583	3583	3583	3583	3583	3583	3583	3583	3583	3583	3583	3621	3621	3621	3621	3621	3659	3659	3621	3621	3621	3621	3621	3659	3621	3621	3621	3621	3621	3659	3659	3621	3583	3583	3583	3583	3583	3583	3583	3583	3621	3621	3621	3621	3621	3621	3621	3659	3046	3046	3046	3046	3046	3046	3019	3019	3019	3019	3019	3019	3019	3019	3019	3019	2993	2993	2967	2967	2942	2942	2917	2893	2893	2893	2893	2893	2893	2869	2869	2869	2869	2869	2869	2869	2869	2869	2869	2869	2869	2869	2869	2845	2845	2869	2869	2845	2845	2869	2869	2869	2869	2845	2845	2845	2869	2845	2845	2845	2893	2893	2893	2893	2893	2893	2893	2893	2917	2893	2893	2893	2893	2917	2942	2967	2967	3019	3019	3046	3073	3073	3073	3073	3073	3046	3046	3046	3046	3046	3046	3046	3073	3073	3073	3621	3583	3583	3621	3621	3621	3621	3621	3621	3621	3621	3621	3621	3621	3621	3621	3621	3621	3621	3621	3621	3621	3621	3621	3621	3621	3621	3621	3621	3621	3621	3621	3621	3621	3621	3621	3621	3621	3621	3621	3621	3621	3621	3621	3621	3621	3659	3621	3621	3621	3621	3621	3621	3621	3621	3621	3659	3621	3621	3621	3659	3621	3659	3621	3621	3621	3621	3621	3621	3621	3621	3621	3621	3621	3621	3621	3621	3621	3621	3621	3621	3621	3621	3621	3621	3621	3621	3621	3621	3621	3621	3621	3621	3621	3621	3621	3621	3621	3621	3621	3621	3621	3621	3621	3621	3583	3583	3583	3583	3583	3583	3621	3621	3583	3583	3621	3621	3621	3621	3621	3621	3621	3621	3621	3583	3583	3583	3583	3583	3583	3583	3583	3621	3659	3659	3621	3621	3621	3621	3583	3546	3546	0	0	2153	2140	2140	2127	2127	2127	2114	2114	2114	2114	2114	2114	2114	2114	2127	2127	2114	1853	1843	1833	1833	1824	1824	1824	1814	1814	1804	1786	1786	1777	1777	1768	1768	1759	1750	1750	1741	1723	1723	1723	1715	1706	1706	1698	1690	1690	1681	1673	1649	1649	1649	1641	1641	1626	1618	1618	1611	1603	1603	1596	1589	1581	1574	1567	1567	1560	1560	1553	1546	1525	1512	1512	1512	1506	1506	1499	1499	1486	1480	1480	1467	1455	1455	1455	1455	1455	1455	1455	1455	1455	1455	1461	1461	1467	1480	1486	1480	1486	1480	1480	1480	1480	1480	1480	1480	1480	1480	0	0	0	0	0	0	0	0	0	0	0	0	0	0	0	0	0	0	0	0	0	0	0	0	0	0	0	0	0	0	0	0	0	0	0	0	0	0	0	0
0	0	0	0	0	0	0	0	0	0	0	0	0	1925	1958	1980	1980	1992	2003	2015	2015	2015	2015	2015	2027	2039	2063	2076	2076	2088	2101	2101	2114	2127	2140	2153	2153	2167	2181	2167	2167	2181	2181	2181	2496	2478	2478	2496	2496	2496	2478	2478	2478	2478	2478	2478	2460	2478	2478	2478	2478	2496	2496	2496	2478	2478	2478	2478	2478	2478	2478	2478	2478	2496	2496	2496	2496	2496	2496	2478	2496	2496	2496	2496	2496	2514	2496	2496	2496	2496	2496	2496	2496	2496	2496	2496	2496	2496	2496	2496	2496	2514	2496	2496	2496	2496	2496	2496	2496	2496	2496	2496	2514	2514	2496	2496	2496	2496	2496	2496	2478	2496	2478	2496	2496	2496	2496	2496	2496	2496	2496	2478	2478	0	0	0	0	2711	2711	2711	2711	2711	3583	3621	3583	3583	3546	3546	3546	3510	3510	3510	3510	3510	3510	3510	3546	3546	3546	3546	3583	3583	3583	3546	3546	3546	3546	3546	3546	3546	3583	3583	3583	3546	3546	3546	3546	3510	3546	3510	3546	3546	3546	3583	3583	3583	3621	3621	3621	3583	3583	3621	3621	3621	3621	3621	3621	3621	3621	3621	3583	3621	3621	3621	3583	3621	3583	3583	3583	3583	3583	3583	3583	3583	3583	3583	3583	3621	3621	3621	3621	3621	3621	3659	3659	3659	3659	3621	3621	3621	3621	3583	3583	3583	3583	3621	3621	3621	3583	3583	3583	3583	3583	3583	3583	3583	3621	3621	3659	3621	3621	3621	3659	3659	3698	3046	3046	3046	3046	3019	3019	3019	3019	3019	3019	3019	3019	2993	3019	3019	2993	2993	2993	2967	2967	2942	2917	2893	2893	2893	2893	2893	2893	2869	2869	2869	2869	2869	2869	2869	2869	2845	2845	2845	2845	2869	2845	2845	2845	2845	2845	2845	2845	2869	2869	2869	2869	2845	2845	2845	2845	2845	2845	2845	2893	2893	2893	2893	2893	2893	2893	2893	2893	2893	2893	2893	2893	2917	2917	2917	2917	3019	3019	3046	3046	3073	3073	3073	3046	3046	3046	3046	3073	3046	3046	3046	3046	3046	3046	3621	3621	3621	3621	3621	3621	3621	3621	3621	3621	3621	3621	3621	3621	3621	3621	3621	3621	3583	3621	3621	3583	3621	3621	3621	3621	3621	3621	3621	3621	3621	3621	3621	3621	3621	3621	3621	3621	3621	3621	3621	3621	3621	3621	3621	3621	3659	3621	3621	3621	3659	3659	3659	3659	3659	3621	3659	3621	3659	3659	3659	3621	3621	3621	3659	3621	3621	3621	3621	3621	3621	3621	3621	3621	3621	3621	3621	3621	3621	3621	3621	3621	3621	3621	3621	3621	3621	3621	3621	3621	3621	3621	3621	3621	3583	3621	3621	3621	3621	3621	3621	3621	3621	3621	3621	3583	3583	3583	3583	3583	3583	3621	3621	3583	3621	3621	3621	3621	3621	3621	3621	3621	3621	3621	3583	3583	3621	3583	3583	3583	3583	3621	3621	3659	3659	3621	3583	3583	3583	3583	3583	3546	0	0	0	2153	2140	2140	2127	2127	2114	2114	2114	2114	2114	2127	2114	2114	2127	2127	1863	1853	1853	1843	1833	1833	1833	1824	1824	1814	1814	1804	1786	1786	1777	1777	1768	1768	1750	1750	1741	1741	1723	1723	1715	1706	1706	1698	1698	1690	1681	1673	1649	1649	1649	1641	1634	1626	1618	1611	1611	1603	1603	1596	1589	1581	1574	1567	1567	1560	1560	1553	1546	1532	1525	1512	1512	1512	1506	1499	1492	1486	1480	1473	1467	1461	1461	1455	1455	1455	1455	1455	1455	1455	1455	1461	1461	1461	1461	1480	1480	1480	1480	1480	1480	1480	1473	1480	1480	1480	1480	0	0	0	0	0	0	0	0	0	0	0	0	0	0	0	0	0	0	0	0	0	0	0	0	0	0	0	0	0	0	0	0	0	0	0	0	0	0	0	0
0	0	0	0	0	0	0	0	0	0	0	0	0	1925	1936	1958	1980	1992	2003	2003	2015	2015	2015	2015	2027	2027	2051	2063	2063	2088	2101	2101	2114	2127	2140	2140	2153	2167	2167	2167	2167	2181	2181	2181	2167	2478	2478	2496	2496	2496	2478	2478	2478	2478	2478	2478	2460	2478	2478	2478	2478	2478	2478	2478	2478	2478	2478	2478	2478	2478	2478	2478	2478	2496	2496	2496	2496	2496	2496	2496	2496	2496	2496	2496	2496	2496	2496	2496	2514	2496	2496	2496	2496	2496	2496	2496	2496	2496	2496	2496	2496	2496	2496	2496	2496	2496	2496	2496	2496	2496	2496	2496	2496	2514	2514	2496	2496	2496	2496	2496	2478	2478	2478	2496	2496	2496	2496	2496	2496	2496	2496	2496	2496	0	0	0	0	2711	2711	2711	2690	2690	3621	3621	3510	3546	3546	3546	3546	3510	3510	3510	3510	3510	3510	3510	3546	3546	3546	3546	3546	3546	3546	3546	3546	3546	3546	3546	3583	3583	3583	3583	3583	3546	3546	3546	3546	3510	3546	3510	3546	3546	3546	3583	3583	3583	3621	3621	3621	3583	3583	3583	3583	3621	3621	3621	3583	3621	3621	3621	3583	3621	3621	3621	3546	3621	3546	3583	3583	3583	3583	3583	3583	3583	3621	3583	3583	3621	3583	3583	3621	3621	3621	3659	3659	3659	3621	3621	3546	3546	3583	3583	3583	3583	3583	3621	3621	3621	3583	3583	3583	3583	3583	3583	3583	3583	3621	3621	3659	3621	3621	3621	3621	3621	3019	3019	3019	3019	3019	3019	3019	3019	3019	3019	3019	3019	3019	3046	3019	3019	3019	2967	2993	2967	2942	2942	2893	2893	2893	2869	2869	2893	2869	2893	2869	2869	2869	2869	2869	2869	2869	2845	2845	2845	2869	2869	2869	2845	2845	2869	2869	2845	2869	2845	2869	2845	2869	2845	2845	2845	2845	2845	2845	2845	2893	2893	2893	2893	2893	2893	2893	2893	2893	2893	2893	2893	2893	2917	2917	2917	2942	2967	2993	3046	3046	3046	3073	3046	3046	3046	3073	3046	3046	3019	3019	3046	3046	3046	3046	3621	3621	3621	3621	3621	3621	3621	3621	3621	3659	3621	3621	3621	3621	3621	3621	3621	3621	3621	3621	3621	3621	3621	3583	3621	3621	3621	3621	3621	3621	3621	3621	3621	3621	3621	3621	3621	3621	3621	3621	3621	3621	3621	3621	3621	3621	3659	3659	3659	3659	3659	3659	3659	3659	3659	3621	3659	3659	3659	3659	3659	3621	3659	3659	3659	3621	3621	3621	3621	3659	3621	3621	3621	3621	3621	3621	3621	3621	3621	3621	3621	3621	3621	3621	3621	3621	3621	3621	3621	3621	3621	3621	3621	3621	3583	3583	3583	3621	3583	3583	3583	3621	3621	3621	3583	3583	3583	3583	3583	3583	3621	3621	3621	3621	3621	3583	3583	3621	3621	3621	3621	3621	3621	3621	3583	3583	3621	3583	3583	3583	3583	3621	3621	3621	3621	3583	3583	3621	3583	3583	3583	0	0	0	0	2153	2140	2140	2127	2127	2127	2114	2127	2101	2114	2127	2127	2127	1894	1883	1883	1873	1853	1853	1843	1843	1833	1833	1824	1824	1814	1814	1804	1786	1786	1777	1768	1768	1750	1750	1741	1741	1723	1723	1715	1706	1706	1706	1698	1690	1681	1673	1649	1649	1649	1641	1634	1618	1618	1611	1603	1596	1603	1596	1589	1581	1574	1567	1567	1560	1553	1546	1532	1532	1525	1519	1512	1512	1506	1506	1499	1492	1486	1480	1467	1461	1461	1455	1455	1455	1455	1455	1455	1455	1455	1461	1461	1461	1480	1480	1486	1480	1480	1480	1480	1480	1480	1480	1480	1480	1480	0	0	0	0	0	0	0	0	0	0	0	0	0	0	0	0	0	0	0	0	0	0	0	0	0	0	0	0	0	0	0	0	0	0	0	0	0	0	0	0
0	0	0	0	0	0	0	0	0	0	0	0	0	1925	1936	1958	1969	1980	1992	2003	2003	2003	2015	2015	2027	2027	2051	2063	2076	2088	2101	2101	2114	2127	2140	2140	2153	2167	2167	2167	2167	2181	2167	2181	2181	2181	2181	2496	2496	2496	2478	2478	2478	2478	2478	2478	2460	2478	2478	2478	2478	2478	2478	2478	2478	2478	2478	2478	2460	2478	2478	2478	2478	2496	2496	2496	2496	2496	2496	2496	2496	2496	2496	2496	2496	2496	2496	2496	2496	2496	2496	2496	2478	2478	2496	2496	2496	2496	2496	2496	2496	2496	2496	2496	2496	2496	2496	2496	2496	2496	2496	2496	2496	2496	2514	2496	2496	2496	2496	2496	2478	2478	2478	2478	2478	2496	2496	2496	2496	2496	2496	2496	2496	0	0	2733	2733	2711	2733	2711	2711	2711	2733	2733	2733	3510	3546	3546	3546	3510	3510	3510	3510	3510	3510	3510	3510	3546	3546	3546	3546	3546	3546	3546	3546	3546	3546	3546	3546	3583	3546	3546	3583	3546	3546	3546	3546	3546	3546	3510	3510	3546	3583	3583	3583	3583	3621	3621	3621	3621	3621	3621	3621	3659	3621	3621	3583	3583	3621	3621	3583	3621	3621	3621	3583	3621	3546	3546	3583	3583	3583	3621	3583	3621	3621	3583	3583	3621	3583	3583	3621	3583	3621	3583	3583	3583	3583	3546	3546	3546	3546	3583	3583	3583	3583	3583	3583	3583	3583	3583	3583	3583	3621	3621	3583	3583	3621	3621	3621	3621	3583	3621	3583	3583	3019	3019	3019	3019	3019	3019	3019	3019	3019	3019	3019	3019	3019	3019	3019	3019	2967	2967	2942	2967	2942	2917	2893	2893	2893	2893	2893	2869	2869	2869	2869	2869	2869	2869	2869	2869	2869	2869	2845	2845	2869	2845	2869	2845	2845	2845	2869	2845	2869	2845	2869	2845	2869	2869	2845	2845	2845	2845	2845	2869	2893	2893	2893	2893	2893	2893	2893	2893	2893	2893	2893	2893	2893	2893	2893	2917	2942	2967	2993	2993	3019	3019	3019	3046	3046	3046	3046	3046	3046	3046	3019	3046	3046	3019	2993	3621	3621	3621	3621	3621	3621	3621	3621	3621	3659	3621	3621	3621	3621	3621	3621	3621	3621	3621	3621	3621	3621	3621	3621	3621	3621	3621	3621	3621	3621	3621	3621	3621	3621	3621	3621	3621	3621	3621	3621	3583	3583	3583	3583	3583	3583	3659	3659	3659	3659	3659	3659	3659	3659	3659	3659	3659	3659	3659	3659	3659	3621	3621	3621	3621	3621	3621	3621	3621	3621	3621	3621	3621	3621	3621	3621	3621	3621	3621	3621	3621	3621	3621	3621	3621	3621	3621	3621	3621	3621	3621	3621	3621	3621	3621	3621	3621	3621	3621	3621	3621	3583	3621	3583	3583	3583	3583	3583	3583	3583	3621	3621	3621	3621	3583	3621	3621	3621	3621	3621	3621	3621	3621	3621	3583	3583	3621	3621	3621	3621	3583	3583	3583	3621	3659	3583	3583	3583	3621	3583	3583	3583	0	0	0	2153	2140	2140	2114	2114	2088	2101	2088	2088	2088	1925	1915	1894	1894	1883	1873	1873	1863	1853	1843	1843	1833	1833	1824	1824	1814	1814	1814	1804	1795	1777	1768	1768	1750	1750	1741	1732	1715	1715	1715	1706	1706	1698	1698	1690	1681	1673	1649	1649	1649	1641	1634	1618	1618	1611	1611	1603	1611	1603	1596	1581	1574	1567	1560	1560	1553	1546	1539	1525	1519	1519	1512	1512	1506	1506	1499	1486	1486	1480	1467	1461	1461	1455	1455	1455	1455	1455	1455	1455	1455	1461	1461	1467	1480	1480	1480	1480	1480	1480	1480	1480	1473	1480	1480	1473	1473	0	0	0	0	0	0	0	0	0	0	0	0	0	0	0	0	0	0	0	0	0	0	0	0	0	0	0	0	0	0	0	0	0	0	0	0	0	0	0	0
0	0	0	0	0	0	0	0	0	0	0	0	0	0	1936	1958	1958	1969	1980	1992	2003	2003	2003	2015	2027	2027	2039	2051	2063	2088	2101	2101	2114	2127	2140	2140	2153	2167	2167	2167	2167	2167	2167	2181	2181	2181	2181	2181	2496	2496	2478	2460	2460	2478	2460	2460	2460	2460	2478	2478	2478	2478	2478	2478	2460	2460	2478	2478	2478	2460	2460	2460	2478	2496	2496	2496	2496	2496	2496	2496	2496	2496	2496	2496	2496	2496	2496	2496	2496	2496	2496	2496	2496	2478	2496	2496	2496	2496	2496	2496	2496	2496	2496	2496	2496	2496	2496	2514	2496	2496	2496	2496	2496	2496	2496	2496	2496	2496	2496	2496	2478	2478	2478	2478	2478	2496	2478	2496	2496	2496	2496	2496	2496	0	0	2733	2711	2733	2733	2733	2711	2733	2733	2733	2733	2733	2777	2777	3546	3510	3510	3510	3510	3510	3510	3510	3546	3583	3583	3546	3546	3546	3546	3546	3546	3546	3546	3546	3546	3546	3546	3546	3583	3546	3546	3546	3546	3510	3546	3510	3510	3546	3546	3583	3583	3583	3621	3621	3621	3583	3621	3621	3583	3621	3621	3621	3583	3583	3621	3621	3583	3583	3583	3583	3583	3583	3583	3583	3583	3583	3583	3583	3583	3621	3621	3583	3583	3583	3583	3583	3583	3583	3583	3583	3583	3583	3583	3546	3546	3583	3546	3546	3546	3546	3583	3583	3583	3583	3583	3583	3583	3583	3583	3621	3621	3621	3621	3621	3621	3621	3621	3621	3621	3621	3019	3019	3046	3046	3019	3019	3019	3019	3019	3019	3019	3019	3019	3019	3019	3019	2967	2967	2942	2942	2942	2917	2917	2893	2893	2869	2869	2869	2869	2869	2869	2869	2869	2869	2869	2869	2869	2869	2869	2845	2869	2845	2845	2845	2845	2845	2845	2845	2845	2845	2869	2845	2845	2845	2845	2845	2845	2845	2845	2845	2893	2893	2893	2893	2893	2893	2893	2893	2893	2893	2893	2893	2893	2893	2893	2917	2942	2967	2967	2993	2993	3019	3046	3046	3046	3073	3046	3046	3046	3046	3019	3019	3019	3019	2993	3659	3621	3621	3621	3621	3621	3621	3621	3621	3621	3621	3621	3621	3621	3621	3621	3621	3621	3621	3621	3621	3621	3621	3621	3621	3621	3621	3621	3621	3621	3621	3621	3621	3621	3621	3621	3621	3621	3621	3583	3583	3621	3621	3621	3621	3621	3659	3659	3659	3659	3659	3659	3659	3659	3659	3659	3659	3659	3659	3659	3659	3621	3659	3621	3621	3621	3621	3621	3621	3621	3621	3621	3621	3621	3621	3621	3621	3621	3621	3621	3621	3621	3621	3621	3621	3621	3621	3621	3621	3621	3621	3621	3621	3621	3621	3621	3621	3621	3621	3583	3621	3583	3621	3583	3583	3583	3583	3583	3583	3583	3583	3621	3621	3583	3621	3621	3621	3621	3621	3621	3621	3621	3621	3621	3583	3546	3583	3583	3583	3621	3621	3583	3621	3621	3659	3583	3583	3583	3583	3583	3583	3583	0	2167	2153	2140	2140	2127	2114	2127	2088	2114	2076	1904	1904	1925	1915	1904	1894	1894	1883	1883	1863	1853	1853	1843	1833	1833	1833	1833	1824	1824	1814	1804	1795	1777	1768	1768	1750	1750	1741	1732	1715	1715	1715	1706	1706	1706	1698	1681	1681	1673	1649	1649	1649	1641	1634	1626	1618	1611	1611	1603	1611	1596	1589	1581	1574	1567	1560	1560	1560	1553	1539	1532	1525	1519	1519	1512	1506	1506	1499	1486	1486	1480	1467	1461	1455	1455	1455	1455	1455	1455	1455	1455	1455	1461	1461	1461	1461	1473	1473	1480	1480	1480	1480	1480	1480	1480	1480	1480	1480	0	0	0	0	0	0	0	0	0	0	0	0	0	0	0	0	0	0	0	0	0	0	0	0	0	0	0	0	0	0	0	0	0	0	0	0	0	0	0	0
0	0	0	0	0	0	0	0	0	0	0	0	0	0	1936	1992	1969	1969	1969	1992	1992	1992	2003	2003	2015	2027	2051	2063	2063	2076	2088	2101	2114	2114	2127	2140	2140	2153	2167	2167	2167	2181	2181	2181	2194	2181	2194	2194	2194	2496	2478	2460	2460	2460	2460	2460	2460	2460	2460	2478	2478	2478	2478	2478	2478	2478	2478	2478	2478	2460	2460	2478	2460	2496	2496	2496	2496	2496	2496	2496	2496	2496	2496	2496	2496	2496	2496	2496	2496	2496	2496	2496	2496	2496	2496	2496	2496	2496	2496	2496	2496	2496	2478	2478	2496	2514	2514	2514	2514	2496	2496	2496	2496	2496	2496	2496	2496	2496	2496	2496	2478	2496	2478	2496	2478	2496	2478	2496	2496	2496	2496	2496	2496	2754	2733	2733	2733	2733	2733	2733	2733	2733	2733	2754	2754	2777	2777	2799	2799	3510	3510	3510	3510	3510	3510	3546	3546	3546	3546	3546	3546	3546	3546	3546	3546	3546	3546	3546	3546	3546	3546	3546	3583	3546	3546	3546	3546	3546	3546	3510	3510	3546	3546	3546	3583	3583	3621	3621	3621	3583	3621	3621	3583	3621	3621	3621	3621	3621	3583	3621	3583	3621	3583	3583	3583	3583	3583	3583	3583	3583	3583	3583	3621	3621	3621	3621	3621	3621	3621	3583	3583	3583	3583	3583	3583	3583	3583	3583	3546	3546	3546	3546	3546	3546	3546	3583	3583	3583	3583	3583	3583	3621	3583	3621	3621	3621	3621	3621	3621	3621	3583	3583	3583	3583	3046	3046	3046	3046	3019	3019	3019	3019	3019	3019	3019	3019	3019	3019	3019	2993	2967	2942	2942	2942	2942	2917	2917	2893	2893	2893	2869	2869	2869	2869	2869	2869	2869	2845	2845	2845	2845	2845	2845	2845	2845	2845	2845	2845	2845	2845	2845	2845	2845	2845	2845	2845	2845	2845	2845	2845	2845	2845	2845	2845	2893	2893	2893	2893	2893	2893	2893	2893	2893	2893	2893	2893	2917	2893	2893	2893	2942	2967	2967	2993	2993	2993	3019	3046	3046	3046	3046	3046	3046	3019	3019	3019	3019	3019	2993	3659	3659	3659	3621	3621	3621	3621	3621	3621	3659	3621	3621	3621	3621	3621	3621	3621	3621	3583	3621	3583	3583	3621	3583	3621	3621	3621	3621	3621	3621	3621	3583	3583	3583	3621	3621	3621	3621	3621	3621	3621	3621	3621	3621	3621	3621	3659	3659	3659	3659	3659	3659	3659	3659	3659	3659	3659	3659	3659	3659	3659	3621	3621	3621	3621	3621	3621	3621	3621	3621	3621	3621	3621	3621	3621	3621	3621	3621	3621	3621	3621	3621	3621	3621	3621	3621	3621	3621	3621	3621	3621	3621	3621	3621	3621	3621	3621	3621	3621	3583	3583	3583	3583	3621	3583	3583	3583	3583	3583	3583	3621	3621	3621	3583	3621	3621	3621	3621	3621	3621	3621	3583	3583	3583	3583	3583	3621	3583	3583	3583	3621	3621	3621	3583	3583	3583	3583	3583	3621	3583	3583	0	0	2153	2140	2140	2140	2140	2127	2127	2114	2114	2114	1947	1936	1925	1915	1904	1894	1894	1883	1883	1873	1863	1853	1853	1853	1843	1843	1833	1824	1824	1814	1804	1786	1777	1768	1759	1750	1750	1741	1741	1723	1715	1715	1715	1706	1706	1698	1681	1681	1673	1665	1649	1649	1641	1634	1626	1618	1611	1611	1603	1611	1596	1589	1574	1567	1567	1567	1560	1560	1553	1546	1532	1519	1519	1519	1512	1506	1506	1499	1486	1486	1480	1467	1461	1461	1455	1455	1455	1449	1455	1455	1455	1455	1461	1461	1467	1467	1473	1473	1480	1473	1473	1480	1473	1480	1473	1480	1473	1473	0	0	0	0	0	0	0	0	0	0	0	0	0	0	0	0	0	0	0	0	0	0	0	0	0	0	0	0	0	0	0	0	0	0	0	0	0	0	0	0
0	0	0	0	0	0	0	0	0	0	0	0	0	0	2003	2003	1992	1980	1980	1980	1992	1992	2003	2003	2015	2027	2039	2051	2063	2063	2076	2101	2101	2114	2127	2140	2140	2153	2153	2167	2167	2181	2181	2194	2194	2194	2208	2208	2208	2194	2478	2460	2443	2443	2443	2460	2460	2460	2478	2478	2478	2478	2478	2478	2460	2460	2460	2478	2478	2460	2460	2460	2460	2496	2478	2478	2496	2496	2496	2496	2496	2496	2496	2496	2496	2496	2496	2496	2496	2496	2496	2496	2496	2496	2496	2496	2496	2496	2496	2496	2496	2496	2496	2496	2496	2496	2496	2514	2496	2496	2496	2496	2496	2496	2496	2496	2496	2496	2496	2496	2496	2496	2478	2496	2496	2496	2478	2496	2496	2496	2514	2514	2514	2754	2754	2754	2754	2754	2754	2733	2733	2777	2777	2777	2799	2799	2799	2799	2799	2777	2777	3510	3546	3510	3510	3510	3546	3546	3546	3546	3546	3546	3546	3546	3546	3546	3546	3546	3546	3546	3546	3546	3546	3546	3546	3546	3546	3546	3546	3510	3510	3546	3546	3546	3621	3621	3621	3621	3621	3583	3621	3621	3583	3621	3621	3621	3621	3621	3583	3621	3583	3621	3583	3583	3583	3621	3583	3583	3621	3583	3583	3621	3621	3621	3621	3583	3621	3583	3583	3583	3583	3583	3583	3583	3583	3583	3583	3583	3546	3546	3546	3546	3546	3546	3546	3583	3583	3583	3583	3583	3583	3621	3621	3621	3621	3621	3621	3621	3621	3621	3621	3621	3621	3659	3046	3046	3046	3046	3019	3019	3019	3019	3019	3019	3019	3019	2993	2993	2993	2993	2967	2942	2942	2942	2942	2917	2917	2893	2893	2869	2869	2869	2869	2869	2869	2869	2869	2845	2845	2845	2845	2845	2845	2845	2845	2845	2845	2845	2845	2845	2845	2845	2845	2845	2845	2845	2845	2845	2845	2845	2845	2845	2845	2845	2869	2893	2893	2893	2893	2893	2893	2893	2893	2893	2893	2893	2893	2893	2893	2917	2942	2967	2967	2993	2993	2993	3019	3046	3046	3046	3046	3046	3046	3019	3019	3019	3019	3019	2993	3659	3659	3659	3621	3621	3621	3621	3621	3621	3621	3621	3621	3621	3621	3621	3621	3621	3583	3583	3583	3583	3621	3621	3621	3621	3621	3621	3621	3583	3583	3583	3583	3583	3583	3583	3621	3621	3621	3621	3621	3621	3621	3621	3621	3621	3621	3659	3659	3659	3659	3659	3659	3659	3659	3659	3659	3659	3659	3659	3659	3659	3621	3621	3621	3621	3621	3621	3621	3621	3621	3621	3621	3621	3621	3621	3621	3621	3621	3621	3621	3621	3621	3621	3621	3621	3621	3621	3621	3621	3621	3621	3621	3621	3621	3621	3621	3621	3621	3621	3621	3621	3621	3583	3583	3583	3583	3583	3583	3583	3583	3621	3621	3621	3583	3621	3621	3621	3621	3621	3621	3621	3583	3583	3583	3583	3583	3621	3583	3583	3583	3621	3621	3621	3621	3621	3546	3546	3583	3583	3546	3546	0	0	2153	2140	2140	2140	2140	2140	2127	2127	1958	1958	1936	1925	1925	1915	1915	1904	1894	1894	1894	1883	1873	1863	1863	1853	1853	1843	1833	1824	1824	1814	1804	1786	1777	1768	1759	1750	1750	1750	1741	1732	1715	1715	1715	1706	1706	1698	1690	1681	1673	1665	1649	1649	1641	1634	1626	1618	1618	1611	1603	1611	1603	1589	1574	1567	1567	1567	1560	1560	1553	1546	1525	1519	1519	1512	1512	1506	1499	1486	1486	1480	1473	1467	1461	1461	1455	1455	1449	1455	1449	1455	1455	1461	1461	1461	1467	1461	1461	1473	1473	1473	1473	1480	1480	1480	1480	1480	1473	1473	0	0	0	0	0	0	0	0	0	0	0	0	0	0	0	0	0	0	0	0	0	0	0	0	0	0	0	0	0	0	0	0	0	0	0	0	0	0	0	0
0	0	0	0	0	0	0	0	0	0	0	0	0	0	2003	2003	1992	1992	1980	1980	1980	1980	1992	2003	2003	2015	2027	2039	2051	2063	2076	2088	2088	2088	2101	2127	2127	2140	2153	2167	2167	2167	2181	2194	2194	2194	2208	2208	2223	2194	2194	2208	2237	2443	2443	2443	2460	2460	2460	2478	2460	2460	2478	2460	2460	2460	2478	2478	2478	2460	2460	2460	2460	2478	2478	2478	2496	2496	2496	2496	2496	2496	2478	2496	2496	2496	2496	2496	2496	2496	2496	2496	2496	2478	2496	2496	2496	2496	2496	2496	2496	2496	2496	2496	2496	2496	2496	2496	2496	2496	2496	2496	2496	2496	2496	2496	2496	2496	2496	2496	2496	2496	2496	2496	2478	2496	2478	2496	2496	2496	2514	2514	2551	2551	2777	2777	2777	2799	2799	2777	2777	2799	2799	2799	2799	2799	2799	2799	2799	2777	2777	3621	3546	3510	3510	3510	3546	3546	3546	3546	3546	3546	3546	3546	3546	3546	3546	3546	3546	3546	3546	3546	3546	3546	3546	3546	3546	3510	3546	3510	3510	3546	3546	3546	3583	3583	3583	3621	3621	3621	3621	3621	3583	3621	3621	3621	3621	3621	3583	3621	3583	3583	3583	3583	3583	3583	3583	3621	3621	3583	3621	3621	3621	3621	3621	3621	3621	3583	3621	3583	3583	3583	3583	3583	3583	3583	3583	3546	3546	3546	3546	3546	3546	3546	3546	3583	3583	3583	3583	3583	3621	3621	3621	3621	3621	3621	3621	3621	3621	3621	3621	3659	3659	3698	3046	3019	3046	3019	3019	3019	3019	2993	2993	3019	3019	3019	2993	2993	2993	2967	2967	2942	2942	2942	2942	2917	2917	2893	2893	2869	2869	2869	2869	2869	2869	2869	2869	2845	2845	2845	2845	2845	2845	2845	2845	2845	2869	2845	2845	2845	2845	2845	2845	2845	2845	2845	2845	2845	2845	2845	2845	2845	2845	2845	2869	2869	2869	2869	2869	2869	2869	2893	2893	2893	2893	2893	2893	2893	2917	2942	2942	2967	2967	2993	2993	2993	3019	3046	3046	3046	3046	3046	3019	3019	3019	3019	3019	2993	2993	3659	3659	3659	3621	3621	3621	3621	3621	3621	3621	3621	3621	3621	3621	3621	3621	3621	3583	3583	3583	3583	3583	3583	3583	3621	3621	3621	3621	3583	3583	3583	3583	3583	3583	3583	3621	3621	3621	3621	3621	3621	3621	3621	3621	3621	3621	3659	3659	3659	3659	3659	3659	3659	3659	3659	3659	3659	3659	3659	3659	3659	3621	3621	3621	3621	3621	3621	3621	3621	3621	3621	3621	3621	3621	3621	3621	3621	3621	3621	3621	3621	3621	3621	3621	3621	3621	3621	3621	3621	3621	3621	3621	3621	3621	3621	3621	3621	3621	3621	3621	3621	3621	3583	3583	3583	3583	3583	3583	3583	3583	3583	3621	3583	3621	3621	3621	3621	3621	3621	3621	3621	3583	3583	3583	3583	3583	3621	3583	3583	3583	3583	3583	3621	3621	3621	3546	3546	3659	3659	3621	3621	0	0	0	0	2140	2140	2140	2140	2127	1958	1958	1958	1958	1936	1925	1925	1915	1915	1904	1904	1894	1894	1883	1863	1863	1853	1853	1843	1833	1824	1824	1814	1814	1795	1786	1777	1768	1759	1759	1750	1741	1723	1715	1715	1715	1706	1706	1698	1690	1681	1673	1657	1649	1649	1641	1634	1626	1618	1611	1611	1603	1611	1603	1589	1574	1567	1567	1560	1560	1560	1553	1539	1532	1519	1512	1512	1512	1506	1499	1492	1486	1480	1473	1467	1467	1461	1461	1455	1449	1449	1455	1455	1455	1461	1461	1461	1461	1461	1467	1473	1473	1473	1473	1480	1473	1473	1480	1473	1473	1473	0	0	0	0	0	0	0	0	0	0	0	0	0	0	0	0	0	0	0	0	0	0	0	0	0	0	0	0	0	0	0	0	0	0	0	0	0	0	0	0
0	0	0	0	0	0	0	0	0	0	0	0	0	0	2003	1992	1992	1980	1980	1980	1980	1980	1980	1992	2003	2003	2015	2027	2051	2063	2063	2076	2076	2076	2088	2114	2127	2140	2140	2153	2153	2153	2167	2167	2194	2194	2208	2208	2223	2223	2223	2237	2237	2266	2409	2409	2409	2443	2460	2460	2460	2460	2460	2460	2460	2478	2478	2478	2478	2460	2478	2478	2460	2478	2478	2478	2496	2496	2496	2496	2496	2478	2478	2478	2478	2496	2496	2496	2496	2478	2496	2496	2496	2478	2496	2496	2496	2496	2496	2496	2496	2496	2496	2496	2496	2496	2496	2496	2496	2496	2496	2496	2496	2496	2496	2496	2496	2496	2496	2496	2496	2496	2496	2496	2496	2496	2496	2496	2514	2514	2514	2532	2532	2777	2777	2799	2799	2799	2799	2799	2799	2822	2822	2822	2822	2799	2799	2799	2799	2777	2777	2777	2777	3510	3510	3510	3546	3546	3546	3546	3546	3546	3546	3546	3546	3546	3546	3546	3546	3546	3546	3546	3546	3546	3546	3546	3546	3510	3510	3510	3510	3510	3546	3546	3583	3583	3583	3621	3621	3621	3621	3621	3583	3621	3621	3621	3621	3621	3583	3583	3583	3583	3583	3583	3583	3621	3621	3621	3621	3583	3621	3621	3621	3621	3621	3621	3621	3583	3621	3583	3583	3583	3583	3583	3583	3583	3583	3583	3546	3546	3546	3546	3546	3546	3546	3621	3621	3583	3583	3583	3583	3621	3621	3583	3583	3621	3621	3583	3621	3621	3621	3621	3659	3698	3019	3019	3019	3019	3019	3019	3019	2993	3019	3019	3019	3019	2993	2993	2993	2967	2967	2942	2942	2942	2917	2917	2893	2893	2893	2893	2869	2869	2869	2869	2869	2869	2845	2845	2845	2845	2845	2845	2845	2845	2845	2845	2845	2845	2845	2845	2845	2845	2845	2845	2845	2845	2845	2845	2845	2845	2845	2845	2845	2845	2845	2869	2869	2869	2869	2869	2869	2893	2893	2893	2893	2893	2893	2917	2917	2942	2942	2967	2967	2967	2993	2993	3019	3046	3046	3046	3046	3046	3019	3019	3019	3019	3019	2993	2993	2993	3659	3659	3621	3621	3621	3621	3621	3621	3621	3621	3621	3621	3621	3621	3583	3583	3583	3583	3583	3583	3583	3583	3583	3621	3621	3621	3621	3583	3583	3583	3583	3583	3583	3583	3583	3621	3621	3621	3621	3621	3621	3621	3621	3621	3621	3659	3659	3659	3659	3659	3659	3659	3659	3659	3659	3659	3659	3659	3659	3659	3659	3621	3621	3621	3621	3621	3621	3621	3621	3621	3621	3621	3621	3621	3621	3621	3621	3621	3621	3621	3621	3621	3621	3621	3621	3621	3621	3621	3621	3621	3621	3621	3621	3621	3621	3621	3621	3621	3621	3583	3583	3583	3621	3583	3583	3621	3621	3621	3621	3621	3583	3621	3621	3621	3621	3621	3621	3621	3621	3621	3621	3621	3621	3583	3583	3621	3583	3583	3583	3583	3583	3621	3621	3621	3546	3621	3659	3659	3659	3659	0	0	0	0	2140	2140	2140	2140	1969	1969	1958	1958	1958	1947	1936	1936	1936	1925	1904	1904	1894	1894	1883	1873	1863	1863	1853	1853	1833	1824	1824	1814	1814	1786	1777	1768	1750	1750	1750	1741	1741	1732	1723	1715	1715	1706	1706	1698	1690	1681	1673	1665	1649	1649	1641	1634	1626	1618	1611	1611	1611	1611	1603	1589	1574	1567	1567	1560	1560	1560	1553	1539	1532	1519	1512	1512	1506	1506	1499	1492	1486	1480	1480	1467	1467	1461	1461	1455	1455	1449	1455	1455	1455	1455	1455	1461	1461	1461	1467	1473	1473	1473	1473	1473	1473	1480	1480	1480	1480	1480	0	0	0	0	0	0	0	0	0	0	0	0	0	0	0	0	0	0	0	0	0	0	0	0	0	0	0	0	0	0	0	0	0	0	0	0	0	0	0	0
0	0	0	0	0	0	0	0	0	0	0	0	0	0	2003	2003	1992	1980	1980	1980	1980	1980	1980	1992	2003	2003	2015	2027	2039	2051	2051	2051	2063	2063	2076	2114	2114	2140	2153	2167	2167	2153	2167	2167	2194	2194	2208	2223	2223	2223	2237	2252	2252	2266	2281	2312	2392	2392	2443	2460	2460	2460	2460	2460	2460	2478	2478	2478	2478	2460	2460	2460	2460	2478	2478	2478	2496	2496	2496	2496	2496	2478	2478	2478	2478	2478	2478	2478	2478	2478	2496	2496	2496	2496	2496	2496	2496	2496	2496	2478	2496	2496	2496	2496	2496	2496	2496	2496	2496	2496	2496	2496	2496	2496	2496	2496	2496	2496	2496	2496	2496	2496	2496	2496	2496	2496	2496	2496	2514	2514	2532	2551	2551	2799	2799	2799	2799	2799	2822	2822	2822	2822	2822	2822	2822	2822	2822	2822	2799	2799	2799	2777	2777	2777	3510	3510	3546	3546	3546	3546	3546	3546	3546	3546	3546	3546	3546	3546	3546	3546	3546	3546	3546	3546	3546	3546	3546	3510	3510	3510	3510	3510	3546	3546	3583	3583	3583	3583	3583	3583	3583	3583	3583	3659	3621	3621	3621	3659	3583	3583	3583	3583	3621	3583	3621	3621	3621	3621	3621	3621	3621	3621	3621	3621	3583	3621	3621	3583	3621	3583	3583	3583	3583	3546	3546	3583	3583	3583	3583	3546	3546	3546	3546	3546	3546	3583	3583	3583	3583	3583	3583	3583	3583	3583	3583	3583	3583	3583	3621	3621	3621	3621	3659	3659	3019	3019	3019	3019	3019	3019	3019	2993	2993	2993	3019	3019	2993	2993	2993	2967	2967	2967	2942	2942	2942	2917	2893	2893	2893	2893	2893	2869	2869	2869	2869	2869	2869	2845	2845	2845	2845	2845	2845	2845	2845	2845	2845	2845	2845	2845	2845	2845	2845	2845	2845	2845	2845	2845	2845	2845	2845	2845	2845	2845	2845	2869	2869	2869	2869	2869	2869	2869	2893	2893	2893	2893	2893	2917	2917	2942	2942	2967	2967	2967	2993	2993	3019	3046	3046	3046	3046	3019	3019	3019	2993	3019	3019	2993	2993	2993	3621	3659	3621	3621	3621	3621	3621	3621	3621	3621	3621	3621	3621	3583	3583	3583	3583	3583	3583	3583	3583	3583	3583	3621	3621	3621	3621	3583	3583	3583	3583	3583	3583	3583	3583	3621	3621	3621	3621	3621	3621	3621	3621	3621	3621	3659	3659	3621	3621	3621	3621	3621	3621	3659	3621	3621	3659	3659	3659	3659	3659	3659	3659	3659	3621	3621	3621	3621	3583	3621	3583	3583	3621	3621	3621	3621	3621	3621	3621	3621	3621	3621	3621	3621	3621	3621	3621	3621	3621	3621	3621	3621	3621	3621	3621	3621	3621	3621	3621	3621	3621	3621	3621	3583	3583	3621	3621	3621	3621	3621	3621	3621	3621	3621	3621	3621	3621	3621	3621	3621	3621	3621	3621	3583	3583	3621	3583	3583	3583	3583	3583	3621	3621	3621	3546	3621	3621	3621	3621	3621	0	0	0	0	0	2140	2140	2140	1980	1969	1969	1958	1958	1947	1936	1936	1936	1915	1904	1894	1894	1894	1883	1873	1863	1863	1863	1853	1843	1833	1824	1814	1814	1786	1777	1768	1759	1750	1750	1741	1741	1732	1715	1715	1715	1706	1706	1698	1690	1681	1673	1665	1657	1649	1641	1634	1626	1618	1611	1611	1603	1611	1603	1589	1574	1567	1567	1567	1560	1560	1553	1546	1539	1519	1512	1512	1506	1506	1499	1492	1486	1486	1480	1467	1461	1461	1461	1455	1449	1449	1455	1455	1455	1455	1455	1461	1461	1461	1467	1467	1473	1473	1473	1473	1473	1480	1480	1480	1473	1473	0	0	0	0	0	0	0	0	0	0	0	0	0	0	0	0	0	0	0	0	0	0	0	0	0	0	0	0	0	0	0	0	0	0	0	0	0	0	0	0
0	0	0	0	0	0	0	0	0	0	0	0	0	0	2003	2003	2003	1992	1992	1992	1992	1980	1992	1992	1992	2003	2015	2027	2027	2027	2051	2063	2063	2063	2076	2114	2127	2140	2153	2167	2167	2153	2167	2167	2181	2194	2208	2208	2223	2223	2237	2252	2252	2266	2266	2297	2327	2359	2392	2426	2443	2460	2460	2460	2460	2478	2478	2478	2478	2460	2460	2460	2460	2478	2478	2478	2478	2496	2496	2496	2496	2478	2478	2478	2478	2478	2478	2478	2478	2478	2496	2496	2496	2496	2496	2496	2496	2496	2496	2478	2496	2496	2496	2496	2496	2496	2496	2496	2496	2496	2496	2478	2478	2478	2478	2496	2496	2496	2496	2496	2496	2496	2496	2496	2496	2496	2496	2496	2514	2532	2551	2589	2629	2649	2822	2799	2822	2822	2822	2822	2845	2845	2845	2869	2869	2845	2822	2822	2799	2799	2799	2799	2799	2799	3546	3546	3546	3546	3546	3546	3546	3546	3546	3546	3546	3546	3546	3546	3510	3546	3546	3546	3546	3546	3546	3546	3510	3510	3510	3510	3510	3510	3510	3510	3546	3546	3546	3583	3583	3583	3583	3583	3583	3583	3583	3583	3621	3621	3583	3583	3583	3583	3583	3583	3583	3583	3621	3621	3621	3621	3621	3621	3621	3621	3621	3621	3621	3583	3583	3583	3583	3583	3583	3583	3583	3621	3583	3583	3583	3583	3546	3546	3546	3546	3546	3583	3621	3583	3621	3621	3621	3621	3583	3583	3583	3583	3583	3583	3583	3621	3659	3659	3659	3698	3019	3019	3019	3019	3019	3019	2993	2993	2993	2993	2993	2993	2993	2993	2967	2967	2967	2942	2942	2942	2942	2917	2917	2893	2893	2893	2869	2869	2869	2869	2869	2869	2845	2845	2845	2845	2845	2845	2845	2845	2845	2845	2845	2845	2845	2845	2845	2845	2845	2845	2845	2845	2845	2845	2845	2845	2845	2845	2845	2845	2845	2869	2869	2869	2869	2869	2869	2869	2869	2893	2893	2893	2893	2917	2917	2942	2942	2967	2967	2967	2993	2993	3019	3019	3046	3046	3046	3019	3019	3019	2993	2993	3019	2993	2993	3659	3621	3621	3621	3621	3621	3621	3621	3621	3621	3621	3621	3621	3583	3583	3583	3583	3583	3583	3583	3583	3583	3583	3583	3621	3621	3621	3583	3583	3583	3583	3583	3583	3583	3583	3583	3621	3621	3621	3583	3583	3621	3621	3621	3621	3621	3659	3659	3659	3621	3621	3621	3621	3621	3621	3621	3621	3621	3621	3621	3659	3659	3659	3659	3659	3659	3621	3621	3621	3621	3621	3583	3583	3621	3621	3621	3621	3621	3621	3659	3621	3621	3621	3621	3621	3621	3621	3621	3621	3621	3621	3621	3621	3621	3621	3621	3621	3621	3621	3621	3621	3621	3621	3621	3621	3621	3621	3621	3621	3621	3621	3621	3621	3621	3621	3621	3621	3621	3621	3621	3621	3621	3621	3621	3583	3583	3583	3583	3546	3621	3583	3583	3583	3583	3621	3621	3621	3621	3621	3583	3583	0	0	0	0	0	0	1980	1980	1980	1969	1969	1969	1958	1947	1947	1936	1936	1925	1904	1904	1894	1894	1894	1883	1863	1863	1863	1853	1843	1833	1833	1824	1814	1786	1777	1768	1768	1759	1750	1741	1741	1732	1723	1715	1715	1706	1698	1698	1681	1681	1673	1665	1657	1649	1641	1634	1626	1618	1611	1611	1603	1603	1603	1589	1574	1567	1567	1567	1567	1560	1553	1546	1539	1519	1512	1512	1506	1506	1499	1492	1492	1486	1480	1473	1461	1461	1455	1455	1449	1455	1455	1455	1455	1455	1455	1461	1461	1461	1467	1467	1473	1473	1467	1473	1473	1473	1480	1480	1473	1473	0	0	0	0	0	0	0	0	0	0	0	0	0	0	0	0	0	0	0	0	0	0	0	0	0	0	0	0	0	0	0	0	0	0	0	0	0	0	0	0
0	0	0	0	0	0	0	0	0	0	0	0	0	0	2003	2003	2003	2003	2003	1992	1992	1992	2003	1992	2003	2003	2015	2027	2027	2027	2039	2051	2051	2051	2063	2088	2101	2127	2153	2153	2153	2153	2167	2167	2194	2194	2208	2208	2208	2223	2223	2237	2237	2252	2266	2281	2312	2343	2359	2376	2426	2443	2443	2460	2460	2478	2478	2478	2478	2460	2460	2460	2460	2478	2478	2496	2496	2496	2496	2496	2496	2496	2478	2478	2478	2478	2478	2478	2478	2478	2496	2496	2496	2496	2496	2496	2496	2496	2496	2496	2496	2496	2496	2496	2496	2496	2496	2496	2496	2496	2478	2478	2478	2478	2478	2496	2496	2496	2496	2496	2496	2496	2496	2496	2496	2496	2496	2514	2514	2532	2551	2570	2629	2629	2822	2822	2822	2822	2845	2845	2869	2869	2893	2893	2893	2893	2869	2869	2869	2869	2869	2942	2942	2799	3546	3546	3546	3546	3546	3546	3546	3546	3546	3546	3546	3546	3546	3546	3546	3546	3546	3546	3546	3546	3546	3546	3510	3510	3510	3510	3510	3510	3510	3546	3546	3546	3583	3583	3583	3583	3583	3583	3583	3583	3583	3583	3583	3583	3583	3583	3583	3546	3546	3546	3583	3583	3583	3621	3621	3621	3621	3659	3621	3621	3583	3583	3583	3583	3583	3583	3583	3583	3546	3583	3621	3621	3621	3583	3583	3583	3546	3546	3546	3546	3546	3583	3621	3621	3621	3621	3621	3621	3583	3583	3583	3583	3583	3583	3621	3621	3621	3659	3659	3698	3019	3019	3019	3019	3019	3019	2993	2993	2993	2993	2993	3019	3019	2993	2993	2967	2967	2942	2942	2942	2942	2917	2893	2893	2893	2893	2869	2869	2869	2869	2869	2869	2869	2845	2845	2845	2845	2845	2845	2845	2845	2845	2845	2845	2845	2845	2845	2845	2845	2845	2845	2845	2845	2845	2845	2845	2845	2845	2845	2845	2845	2869	2869	2869	2869	2869	2869	2869	2869	2869	2893	2893	2893	2917	2917	2942	2942	2967	2967	2967	2993	3019	3019	3046	3046	3046	3046	3019	3019	3019	3019	2993	3019	3019	3019	3659	3621	3621	3621	3621	3621	3621	3621	3621	3621	3621	3621	3621	3621	3583	3583	3583	3583	3621	3583	3621	3621	3621	3583	3621	3621	3621	3583	3583	3583	3583	3583	3583	3583	3583	3583	3583	3621	3583	3583	3583	3621	3621	3621	3621	3621	3659	3659	3621	3621	3621	3621	3621	3621	3621	3621	3621	3621	3621	3621	3659	3659	3659	3659	3621	3621	3621	3621	3621	3621	3621	3583	3621	3621	3621	3621	3621	3621	3621	3621	3621	3621	3621	3621	3621	3621	3621	3621	3621	3621	3621	3621	3621	3621	3621	3621	3621	3621	3621	3621	3583	3583	3583	3621	3621	3621	3621	3621	3621	3621	3621	3621	3621	3621	3621	3621	3583	3621	3621	3621	3621	3621	3621	3583	3583	3583	3583	3583	3621	3621	3583	3583	3583	3583	3583	3583	3583	3621	3583	3583	3583	0	0	0	0	0	0	1980	1980	1980	1980	1980	1969	1969	1958	1947	1936	1936	1925	1915	1904	1894	1894	1894	1883	1863	1863	1863	1853	1843	1833	1833	1824	1814	1786	1786	1768	1768	1759	1750	1750	1741	1741	1723	1715	1706	1706	1698	1690	1681	1673	1673	1665	1657	1641	1641	1634	1626	1618	1611	1611	1603	1611	1596	1589	1574	1567	1567	1567	1567	1560	1553	1539	1532	1519	1512	1512	1506	1506	1499	1492	1492	1486	1480	1473	1467	1461	1461	1455	1455	1455	1455	1455	1455	1455	1455	1461	1461	1461	1467	1473	1473	1473	1473	1473	1473	1473	1473	1473	1473	1473	0	0	0	0	0	0	0	0	0	0	0	0	0	0	0	0	0	0	0	0	0	0	0	0	0	0	0	0	0	0	0	0	0	0	0	0	0	0	0	0
0	0	0	0	0	0	0	0	0	0	0	0	1525	1532	1532	2003	2003	2003	2003	2003	2003	1992	2003	2003	2003	2003	2015	2027	2027	2027	2039	2051	2051	2051	2063	2076	2076	2114	2140	2153	2153	2153	2167	2167	2181	2194	2208	2208	2208	2223	2223	2237	2237	2252	2266	2297	2312	2343	2359	2376	2409	2426	2426	2443	2426	2460	2460	2460	2460	2460	2460	2460	2460	2478	2478	2496	2496	2496	2496	2496	2496	2496	2478	2478	2478	2478	2478	2478	2478	2496	2496	2496	2496	2496	2496	2496	2496	2496	2496	2478	2496	2496	2496	2496	2496	2496	2496	2496	2478	2478	2478	2478	2478	2478	2478	2496	2496	2496	2496	2496	2496	2496	2496	2496	2496	2496	2496	2514	2514	2514	2532	2551	2551	2551	2893	2845	2869	2869	2893	2893	2893	2893	2893	2917	2917	2893	2893	2893	2893	2893	2917	2942	2917	2917	2917	3546	3546	3546	3546	3546	3546	3546	3546	3546	3546	3546	3546	3546	3546	3546	3546	3546	3546	3546	3546	3546	3510	3510	3510	3510	3510	3510	3546	3546	3583	3546	3583	3583	3583	3583	3583	3583	3583	3583	3583	3583	3659	3583	3583	3583	3583	3546	3546	3546	3583	3583	3583	3583	3583	3621	3621	3621	3621	3621	3583	3583	3583	3583	3583	3546	3546	3583	3546	3546	3546	3583	3583	3583	3583	3546	3546	3546	3546	3546	3546	3583	3621	3621	3621	3621	3621	3621	3621	3621	3621	3621	3621	3621	3621	3621	3659	3659	3698	3698	2993	3019	3019	3019	3019	3019	2993	2993	2993	2993	3019	3019	3019	2993	2993	2993	2993	2967	2942	2942	2917	2917	2893	2893	2893	2869	2869	2869	2869	2869	2869	2869	2869	2845	2845	2845	2845	2845	2845	2845	2845	2845	2845	2845	2845	2845	2845	2845	2845	2845	2845	2845	2845	2845	2845	2845	2845	2845	2845	2845	2845	2869	2869	2869	2869	2869	2869	2869	2869	2869	2893	2893	2893	2893	2917	2942	2942	2967	2967	2993	2993	3019	3019	3046	3046	3046	3046	3019	3019	3019	2993	2993	2993	2993	2993	3659	3621	3621	3621	3621	3621	3621	3621	3621	3621	3621	3621	3621	3621	3621	3621	3621	3621	3621	3621	3621	3621	3621	3583	3621	3621	3621	3583	3583	3583	3583	3583	3583	3583	3583	3583	3583	3583	3583	3583	3583	3621	3621	3621	3621	3621	3659	3659	3621	3621	3621	3621	3621	3621	3621	3621	3621	3621	3621	3621	3659	3659	3659	3659	3659	3659	3621	3621	3621	3621	3621	3621	3621	3621	3621	3621	3621	3621	3621	3621	3621	3621	3621	3621	3621	3621	3621	3621	3621	3621	3621	3621	3621	3621	3621	3583	3583	3583	3621	3583	3583	3583	3583	3621	3621	3621	3621	3621	3621	3621	3621	3621	3621	3621	3621	3621	3583	3583	3621	3621	3621	3621	3621	3583	3583	3583	3621	3621	3621	3621	3583	3583	3583	3621	3621	3546	3583	3583	3583	3583	0	0	0	0	0	0	1992	1992	1992	1980	1980	1980	1980	1969	1969	1947	1947	1936	1936	1925	1904	1894	1894	1894	1883	1863	1863	1863	1853	1843	1833	1824	1824	1814	1786	1786	1777	1768	1759	1759	1750	1750	1741	1732	1715	1706	1706	1690	1690	1681	1673	1673	1665	1657	1641	1634	1634	1626	1618	1611	1611	1603	1611	1596	1589	1574	1567	1567	1567	1560	1560	1553	1539	1532	1519	1512	1512	1506	1506	1499	1492	1492	1486	1480	1473	1467	1461	1461	1455	1455	1455	1455	1455	1449	1449	1455	1455	1455	1461	1461	1461	1473	1473	1473	1473	1473	1473	1473	1473	1467	1467	0	0	0	0	0	0	0	0	0	0	0	0	0	0	0	0	0	0	0	0	0	0	0	0	0	0	0	0	0	0	0	0	0	0	0	0	0	0	0	0
0	0	0	0	0	0	0	0	0	0	0	0	1525	1532	1546	1546	1546	1546	1553	1553	1553	1992	2003	2003	2003	2015	2015	2015	2027	2027	2039	2039	2051	2051	2063	2076	2076	2101	2140	2140	2153	2153	2167	2167	2181	2194	2194	2208	2208	2223	2223	2237	2237	2252	2266	2281	2281	2327	2359	2359	2392	2409	2409	2409	2409	2443	2460	2460	2460	2460	2460	2460	2460	2478	2478	2496	2496	2496	2496	2496	2496	2496	2478	2478	2478	2478	2478	2478	2496	2496	2496	2496	2496	2496	2496	2496	2496	2478	2478	2478	2478	2478	2496	2496	2496	2496	2496	2496	2478	2496	2478	2478	2478	2478	2478	2496	2496	2496	2496	2496	2496	2496	2496	2496	2496	2496	2496	2514	2514	2514	2514	2532	2532	2532	2942	2893	2893	2893	2917	2893	2893	2917	2917	2917	2917	2917	2917	2917	2917	2917	2917	2942	2917	2917	2917	2917	3546	3546	3546	3546	3546	3546	3546	3546	3546	3546	3546	3546	3510	3510	3546	3546	3546	3546	3546	3546	3510	3510	3510	3510	3510	3510	3510	3546	3546	3546	3583	3583	3583	3546	3583	3546	3583	3583	3583	3583	3583	3583	3583	3583	3546	3546	3546	3546	3583	3583	3583	3583	3621	3621	3621	3621	3621	3621	3583	3583	3583	3583	3583	3546	3546	3546	3546	3546	3546	3583	3583	3583	3583	3583	3546	3546	3546	3546	3546	3583	3621	3621	3621	3621	3621	3621	3621	3659	3621	3621	3621	3621	3621	3659	3659	3659	3659	3659	3019	3019	3019	3019	3019	3019	2993	2993	2993	3019	3019	3019	3019	3019	3019	2993	2993	2967	2942	2942	2942	2917	2893	2893	2893	2869	2869	2869	2869	2869	2869	2845	2845	2845	2845	2845	2845	2845	2845	2845	2845	2845	2845	2845	2845	2845	2845	2845	2845	2845	2845	2845	2845	2845	2845	2845	2845	2845	2845	2845	2845	2869	2869	2869	2869	2869	2869	2869	2869	2869	2893	2893	2893	2917	2917	2942	2942	2967	2967	2993	2993	2993	2993	3046	3046	3046	3046	3019	3019	3019	2993	2993	2993	2993	2993	3659	3621	3621	3621	3621	3621	3621	3621	3621	3621	3621	3621	3621	3583	3621	3583	3583	3621	3621	3583	3583	3583	3583	3583	3583	3583	3621	3621	3621	3621	3621	3583	3583	3583	3583	3583	3583	3583	3583	3583	3621	3621	3621	3621	3621	3621	3621	3659	3621	3621	3621	3621	3621	3621	3621	3621	3621	3621	3621	3621	3659	3659	3659	3659	3659	3659	3621	3621	3621	3621	3621	3621	3621	3621	3621	3659	3659	3659	3659	3659	3621	3621	3621	3621	3621	3621	3621	3621	3621	3621	3621	3583	3583	3621	3621	3621	3621	3583	3621	3583	3583	3621	3621	3621	3621	3621	3621	3621	3621	3621	3621	3621	3621	3621	3621	3621	3583	3583	3583	3583	3621	3621	3621	3583	3583	3583	3583	3621	3621	3621	3546	3546	3583	3583	3583	3583	3583	3583	3546	3546	0	0	0	0	0	2003	1992	1992	1992	1992	1980	1980	1980	1969	1969	1947	1947	1947	1936	1925	1915	1904	1894	1894	1883	1863	1863	1863	1853	1843	1833	1824	1824	1814	1804	1786	1786	1777	1768	1768	1759	1750	1741	1732	1715	1706	1706	1690	1690	1681	1673	1673	1665	1657	1641	1634	1626	1626	1618	1611	1611	1611	1603	1596	1589	1581	1567	1567	1567	1560	1553	1546	1539	1532	1519	1519	1512	1506	1506	1506	1499	1499	1492	1480	1473	1461	1461	1455	1455	1449	1455	1455	1449	1449	1449	1449	1455	1455	1455	1461	1461	1480	1473	1473	1473	1473	1473	1473	1467	1467	1467	0	0	0	0	0	0	0	0	0	0	0	0	0	0	0	0	0	0	0	0	0	0	0	0	0	0	0	0	0	0	0	0	0	0	0	0	0	0	0	0
0	0	0	0	0	0	0	0	0	0	0	0	1525	1539	1546	1546	1546	1546	1553	1560	1567	1574	1574	1574	2015	2015	2015	2027	2027	2027	2027	2039	2039	2051	2063	2063	2076	2076	2127	2127	2140	2140	2153	2153	2167	2194	2208	2208	2208	2223	2223	2223	2223	2237	2252	2266	2281	2281	2343	2359	2376	2392	2409	2409	2409	2426	2443	2460	2460	2460	2460	2460	2460	2478	2478	2496	2496	2496	2496	2496	2496	2496	2478	2478	2496	2478	2496	2496	2496	2496	2514	2514	2514	2496	2496	2496	2478	2478	2478	2478	2478	2478	2496	2496	2496	2496	2496	2496	2478	2496	2478	2478	2478	2478	2478	2496	2496	2496	2496	2496	2496	2496	2496	2496	2496	2496	2496	2514	2514	2514	2514	2514	2514	2967	2942	2942	2917	2917	2917	2917	2917	2917	2917	2917	2917	2917	2917	2942	2942	2917	2917	2942	2942	2917	2917	2917	2917	3546	3546	3546	3546	3546	3546	3546	3546	3546	3546	3546	3510	3546	3546	3546	3546	3546	3546	3546	3546	3510	3510	3510	3510	3510	3510	3546	3546	3546	3546	3583	3546	3546	3546	3546	3546	3583	3583	3583	3583	3583	3583	3583	3583	3546	3546	3546	3583	3583	3583	3583	3621	3621	3621	3621	3621	3621	3583	3583	3583	3583	3583	3583	3583	3583	3546	3546	3583	3583	3583	3583	3583	3583	3583	3546	3546	3546	3546	3583	3583	3621	3621	3621	3621	3621	3621	3659	3621	3621	3621	3621	3621	3621	3621	3621	3621	3019	3019	3019	3019	3019	3019	2993	2993	2993	2993	3019	3019	3019	3019	3019	3019	2993	2993	2993	2942	2942	2942	2917	2893	2893	2893	2869	2869	2869	2869	2869	2869	2869	2869	2845	2845	2845	2845	2845	2845	2845	2845	2845	2845	2845	2845	2845	2845	2845	2845	2845	2845	2845	2845	2845	2845	2845	2845	2845	2845	2845	2845	2869	2869	2869	2869	2869	2869	2869	2869	2869	2893	2893	2893	2917	2917	2942	2942	2967	2967	2993	2993	3019	3019	3019	3019	3046	3019	3019	3019	2993	2993	2993	2993	2993	2967	2967	3659	3659	3659	3621	3621	3621	3621	3621	3621	3621	3621	3621	3583	3583	3583	3583	3583	3583	3583	3583	3583	3583	3583	3583	3583	3621	3621	3621	3621	3621	3583	3583	3583	3583	3583	3583	3583	3583	3583	3583	3621	3621	3621	3583	3621	3659	3659	3621	3621	3621	3621	3621	3621	3621	3621	3621	3621	3621	3621	3659	3659	3659	3659	3659	3659	3659	3621	3621	3621	3621	3621	3621	3621	3621	3621	3621	3659	3659	3621	3621	3621	3621	3621	3621	3621	3621	3621	3583	3583	3621	3621	3621	3621	3621	3621	3621	3621	3621	3583	3583	3621	3621	3621	3621	3621	3621	3621	3621	3621	3621	3621	3621	3621	3621	3583	3583	3583	3583	3583	3621	3621	3621	3621	3583	3583	3621	3621	3621	3621	3546	3583	3583	3583	3583	3583	3583	3583	3583	3546	0	0	0	0	0	2003	2003	2003	1992	1992	1992	1992	1980	1980	1969	1969	1947	1947	1936	1925	1925	1904	1904	1894	1883	1863	1863	1863	1853	1843	1833	1824	1824	1814	1786	1786	1777	1768	1768	1759	1759	1750	1741	1732	1715	1706	1706	1690	1690	1681	1673	1665	1657	1641	1641	1634	1626	1618	1618	1611	1611	1603	1611	1596	1589	1581	1567	1567	1560	1560	1553	1546	1539	1532	1532	1519	1512	1512	1506	1506	1506	1499	1492	1480	1480	1461	1461	1455	1455	1449	1449	1449	1449	1449	1443	1449	1455	1455	1461	1467	1467	1480	1473	1473	1467	1473	1473	1473	1467	1467	1467	0	0	0	0	0	0	0	0	0	0	0	0	0	0	0	0	0	0	0	0	0	0	0	0	0	0	0	0	0	0	0	0	0	0	0	0	0	0	0	0
0	0	0	0	0	0	0	0	0	0	0	0	1525	1532	1539	1546	1546	1546	1553	1560	1567	1574	1574	1581	1589	1589	2015	2027	2027	2027	2027	2027	2039	2039	2051	2063	2063	2076	2127	2127	2140	2140	2153	2167	2181	2194	2208	2208	2208	2208	2208	2223	2223	2223	2237	2237	2266	2266	2327	2343	2376	2392	2392	2392	2392	2409	2443	2443	2443	2460	2460	2460	2460	2478	2496	2496	2496	2496	2496	2496	2496	2496	2496	2496	2496	2496	2496	2496	2514	2514	2514	2514	2514	2514	2496	2496	2496	2496	2496	2496	2496	2496	2496	2478	2496	2496	2496	2496	2478	2478	2478	2478	2478	2478	2478	2496	2496	2496	2496	2496	2496	2496	2496	2496	2496	2496	2496	2496	2496	2496	2496	2496	2496	2993	2967	2967	2942	2942	2942	2942	2942	2942	2942	2942	2942	2942	2942	2942	2967	2942	2942	2942	2967	2967	2967	2993	2993	2993	3546	3546	3546	3546	3546	3546	3546	3546	3546	3546	3546	3546	3546	3546	3546	3546	3546	3546	3546	3510	3510	3510	3510	3510	3546	3546	3546	3546	3583	3583	3546	3546	3546	3546	3546	3583	3583	3583	3583	3583	3583	3583	3583	3546	3546	3546	3583	3583	3583	3583	3621	3621	3621	3621	3621	3583	3583	3583	3583	3583	3583	3583	3583	3583	3583	3583	3583	3583	3621	3583	3583	3583	3583	3583	3546	3546	3546	3583	3583	3621	3621	3659	3621	3621	3621	3659	3659	3621	3621	3621	3621	3621	3621	3621	3583	3019	3019	3019	3019	2993	2993	2993	2993	2993	2993	3019	3019	3019	3046	3046	3019	2993	2993	2993	2942	2942	2942	2917	2893	2893	2893	2869	2869	2869	2869	2869	2869	2869	2869	2869	2845	2845	2845	2845	2845	2845	2845	2845	2845	2845	2845	2845	2845	2845	2845	2845	2845	2845	2845	2845	2845	2845	2845	2845	2845	2845	2845	2869	2869	2869	2869	2869	2869	2869	2869	2893	2893	2893	2917	2917	2967	2942	2967	2993	2993	2993	2993	2993	3019	3046	3046	3046	3046	3019	3019	3019	2993	2993	2993	2993	2967	2967	3659	3659	3659	3621	3621	3621	3621	3621	3621	3621	3621	3621	3583	3583	3583	3583	3621	3621	3583	3583	3583	3583	3583	3583	3583	3621	3621	3621	3621	3621	3583	3583	3583	3583	3583	3583	3583	3583	3583	3621	3621	3621	3621	3621	3621	3659	3659	3621	3621	3621	3621	3621	3621	3621	3621	3621	3621	3621	3621	3621	3659	3659	3659	3659	3659	3659	3621	3621	3621	3621	3621	3621	3621	3621	3621	3621	3659	3621	3621	3621	3621	3621	3621	3621	3583	3583	3583	3583	3621	3621	3621	3621	3621	3621	3621	3621	3621	3621	3621	3583	3621	3583	3621	3621	3621	3621	3621	3621	3621	3621	3621	3621	3621	3583	3583	3583	3583	3583	3583	3621	3621	3621	3621	3621	3583	3621	3621	3621	3546	3546	3546	3546	3546	3621	3546	3546	3546	3583	0	0	2076	2076	2063	2039	2015	2003	2003	2003	1992	1992	1992	1992	1980	1969	1958	1947	1947	1936	1925	1925	1904	1904	1894	1883	1873	1863	1853	1853	1843	1833	1824	1814	1814	1804	1786	1777	1777	1768	1768	1759	1741	1741	1741	1715	1706	1698	1690	1681	1673	1673	1673	1657	1649	1641	1641	1626	1618	1618	1611	1611	1603	1603	1596	1596	1581	1574	1567	1560	1560	1553	1546	1539	1532	1532	1519	1512	1512	1506	1506	1499	1492	1486	1480	1480	1473	1461	1455	1455	1449	1449	1449	1449	1443	1443	1443	1455	1461	1461	1467	1473	1480	1473	1473	1467	1473	1467	1467	1467	1461	1461	0	0	0	0	0	0	0	0	0	0	0	0	0	0	0	0	0	0	0	0	0	0	0	0	0	0	0	0	0	0	0	0	0	0	0	0	0	0	0	0
0	0	0	0	0	0	0	0	0	0	0	0	1532	1532	1539	1539	1546	1546	1553	1560	1567	1567	1574	1581	1581	1589	1589	2027	2027	2027	2027	2039	2039	2039	2039	2063	2063	0	0	0	0	2140	2153	2167	2167	2181	2194	2208	2208	2208	2208	2223	2223	2237	2237	2252	2266	2266	2312	2327	2359	2392	2392	2392	2376	2409	2426	2443	2443	2443	2443	2443	2460	2478	2478	2478	2478	2496	2496	2496	2496	2496	2496	2496	2496	2496	2496	2496	2496	2496	2514	2514	2514	2496	2496	2496	2496	2478	2478	2478	2478	2496	2496	2478	2496	2496	2496	2496	2496	2496	2478	2478	2478	2478	2478	2478	2496	2496	2496	2496	2496	2496	2496	2496	2496	2496	2496	2496	2496	2496	2496	2496	2496	2993	2967	2967	2967	2967	2967	2967	2967	2967	2967	2967	2967	2967	2967	2967	2993	2967	2967	2967	2993	2993	2993	3019	3019	3019	3019	3546	3546	3546	3546	3546	3546	3546	3546	3546	3546	3546	3546	3546	3546	3546	3546	3546	3546	3510	3510	3510	3510	3546	3546	3546	3546	3583	3583	3583	3546	3546	3546	3546	3546	3583	3583	3583	3583	3583	3583	3583	3546	3546	3546	3546	3583	3583	3583	3583	3621	3621	3621	3621	3583	3583	3583	3583	3583	3583	3583	3583	3583	3583	3583	3583	3583	3583	3621	3583	3583	3583	3583	3583	3546	3546	3546	3583	3583	3621	3621	3621	3621	3621	3621	3659	3659	3621	3621	3621	3621	3621	3621	3621	3583	3621	3019	3019	3019	2993	2993	2993	2993	2993	2993	2993	3019	3019	3019	3046	3019	2993	2993	2993	2942	2942	2942	2917	2893	2893	2893	2869	2869	2869	2869	2869	2869	2869	2869	2845	2845	2845	2845	2845	2845	2845	2845	2845	2845	2845	2845	2845	2845	2845	2845	2845	2845	2845	2845	2845	2822	2822	2845	2845	2845	2845	2845	2869	2869	2869	2869	2869	2869	2869	2869	2869	2869	2893	2917	2917	2942	2967	2967	2993	2993	3019	3019	3019	3019	3046	3019	3046	3019	3019	3019	2993	2993	2993	2993	2993	2967	2967	3659	3621	3621	3621	3621	3621	3621	3621	3621	3621	3621	3621	3583	3583	3583	3583	3583	3583	3583	3583	3583	3583	3583	3583	3583	3583	3583	3583	3583	3583	3583	3583	3583	3583	3583	3583	3583	3583	3583	3621	3621	3621	3621	3621	3621	3659	3659	3659	3621	3621	3621	3621	3621	3621	3621	3621	3621	3621	3621	3659	3659	3659	3659	3659	3659	3659	3621	3621	3621	3621	3621	3621	3621	3621	3621	3621	3621	3621	3621	3621	3621	3621	3621	3583	3621	3583	3583	3583	3621	3621	3621	3621	3621	3621	3621	3621	3621	3621	3621	3583	3621	3583	3583	3621	3621	3583	3583	3583	3583	3583	3583	3583	3583	3583	3583	3546	3583	3583	3621	3621	3621	3621	3621	3583	3583	3583	3621	3621	3546	3546	3546	3546	3546	3621	3583	3583	3546	0	0	2076	2076	2076	2063	2051	2039	2015	2015	2003	2003	2003	1992	1992	1980	1980	1958	1947	1947	1936	1925	1925	1915	1904	1894	1883	1883	1863	1853	1853	1833	1833	1824	1824	1814	1814	1786	1777	1777	1768	1759	1759	1741	1741	1741	1723	1706	1706	1690	1690	1673	1673	1673	1657	1649	1649	1641	1641	1618	1618	1611	1611	1603	1603	1596	1596	1581	1574	1567	1560	1560	1553	1546	1539	1532	1532	1519	1519	1512	1506	1506	1506	1492	1486	1473	1473	1461	1461	1455	1455	1449	1449	1449	1449	1449	1443	1449	1455	1461	1461	1467	1473	1480	1473	1473	1467	1473	1467	1467	1461	1461	1461	0	0	0	0	0	0	0	0	0	0	0	0	0	0	0	0	0	0	0	0	0	0	0	0	0	0	0	0	0	0	0	0	0	0	0	0	0	0	0	0
0	0	0	0	0	0	0	0	0	0	0	0	1532	1532	1539	1546	1546	1546	1553	1560	1567	1567	1574	1581	1581	1581	1581	2027	2027	2027	2027	2027	2039	2027	2027	0	0	0	0	0	0	2140	2153	2167	2181	2194	2194	2208	2208	2208	2208	2223	2223	2223	2237	2237	2266	2266	2312	2327	2343	2343	2359	2376	2359	2376	2392	2409	2409	2426	2443	2460	2478	2478	2478	2478	2496	2496	2496	2496	2496	2496	2496	2496	2496	2496	2496	2496	2496	2514	2514	2514	2514	2496	2496	2496	2496	2478	2478	2478	2478	2478	2478	2478	2478	2496	2496	2496	2496	2496	2478	2478	2478	2478	2478	2478	2478	2496	2496	2496	2496	2496	2496	2496	2496	2478	2496	2496	2496	2496	2496	2496	2496	2993	2967	2967	2967	2993	2993	2993	2993	2993	2993	2993	2993	2993	2993	2993	2993	2993	2993	2993	2993	2993	2993	3019	3046	3046	3046	3046	3546	3546	3546	3510	3510	3546	3546	3546	3546	3510	3546	3546	3546	3546	3546	3546	3546	3510	3510	3546	3546	3546	3546	3546	3583	3546	3583	3583	3546	3546	3546	3546	3546	3546	3546	3546	3583	3583	3583	3546	3546	3546	3546	3546	3546	3583	3583	3583	3621	3621	3621	3583	3583	3583	3583	3583	3583	3583	3583	3583	3583	3583	3583	3583	3583	3583	3583	3583	3583	3583	3583	3583	3583	3546	3546	3546	3583	3621	3621	3621	3621	3621	3621	3659	3659	3621	3621	3621	3621	3621	3583	3583	3583	3621	3046	3046	3019	2993	2993	2993	2967	2993	2967	2993	2993	3019	3019	3046	3019	2993	2993	2993	2967	2942	2942	2917	2893	2893	2893	2869	2869	2869	2869	2869	2845	2845	2869	2845	2845	2845	2845	2845	2845	2845	2845	2845	2845	2845	2845	2845	2845	2845	2845	2845	2845	2845	2845	2822	2822	2822	2845	2845	2845	2845	2845	2869	2869	2869	2869	2869	2869	2869	2869	2869	2869	2893	2893	2917	2917	2942	2967	2967	2993	2993	2993	2993	3019	3019	3019	3019	3019	3019	3019	2993	2993	2993	2993	2993	2967	2967	3659	3621	3621	3621	3621	3621	3621	3621	3621	3583	3621	3621	3583	3583	3583	3583	3583	3583	3583	3583	3583	3583	3583	3583	3583	3583	3583	3583	3583	3621	3583	3621	3583	3583	3583	3583	3583	3583	3583	3621	3621	3621	3621	3621	3621	3659	3659	3659	3621	3621	3621	3621	3621	3621	3621	3621	3621	3621	3621	3659	3659	3659	3659	3659	3659	3621	3621	3621	3659	3621	3621	3621	3621	3621	3621	3621	3621	3621	3621	3621	3621	3621	3621	3621	3621	3621	3621	3583	3621	3621	3621	3621	3621	3621	3621	3621	3621	3621	3621	3583	3621	3583	3583	3621	3621	3583	3583	3583	3583	3583	3583	3583	3583	3583	3583	3546	3583	3583	3583	3583	3583	3583	3621	3621	3583	3621	3621	3621	3546	3546	3546	3546	3546	3621	3583	3583	0	2114	2101	2088	2076	2076	2063	2051	2039	2027	2027	2015	2003	2003	2003	2003	1992	1980	1969	1947	1947	1936	1936	1925	1925	1904	1904	1883	1873	1863	1853	1843	1833	1824	1824	1824	1814	1814	1786	1786	1777	1768	1759	1759	1741	1741	1732	1723	1706	1706	1690	1690	1673	1665	1665	1657	1657	1649	1641	1641	1618	1618	1611	1611	1603	1611	1603	1596	1581	1574	1567	1567	1560	1553	1546	1539	1532	1532	1525	1519	1512	1506	1506	1499	1492	1486	1473	1473	1461	1455	1455	1455	1449	1449	1449	1449	1449	1449	1449	1455	1455	1461	1461	1467	1473	1473	1473	1467	1467	1467	1467	1467	1467	1467	0	0	0	0	0	0	0	0	0	0	0	0	0	0	0	0	0	0	0	0	0	0	0	0	0	0	0	0	0	0	0	0	0	0	0	0	0	0	0	0
0	0	0	0	0	0	0	0	0	0	0	0	1539	1539	1539	1539	1546	1546	1553	1560	1567	1567	1574	1574	1574	1581	1581	0	2015	2027	2027	2027	2027	2027	2027	0	0	0	0	0	0	2140	2153	2153	2167	2181	2208	2208	2208	2208	2223	2223	2223	2237	2237	2252	2266	2266	2281	2312	2327	2343	2343	2359	2359	2359	2376	2392	2409	2426	2443	2460	2478	2478	2478	2478	2496	2478	2496	2478	2478	2478	2496	2496	2496	2496	2496	2496	2496	2496	2496	2496	2496	2496	2496	2496	2496	2478	2478	2478	2478	2478	2478	2478	2478	2496	2496	2496	2496	2496	2496	2496	2496	2478	2478	2478	2478	2496	2496	2496	2496	2496	2496	2496	2496	2478	2478	2496	2496	2496	2478	2478	2478	2478	2993	2993	2993	2993	2993	2993	2993	2993	2993	2993	2993	3019	3019	3019	3019	3019	3019	3019	3019	3019	3019	3046	3046	3046	3046	3101	3101	3101	3510	3510	3510	3546	3546	3546	3546	3510	3546	3546	3546	3546	3546	3546	3546	3546	3546	3546	3546	3546	3546	3583	3621	3621	3583	3583	3583	3583	3583	3546	3546	3546	3546	3546	3583	3583	3583	3546	3546	3546	3546	3546	3546	3546	3546	3583	3621	3583	3583	3583	3583	3583	3583	3583	3583	3583	3583	3583	3621	3583	3583	3583	3583	3583	3583	3583	3546	3546	3583	3583	3546	3546	3546	3546	3583	3583	3583	3621	3621	3621	3621	3621	3659	3621	3621	3621	3621	3621	3583	3583	3583	3659	3621	3019	3019	2993	2993	2993	2967	2993	2993	2993	2993	3019	3019	3019	3019	2993	2993	2993	2967	2942	2917	2917	2893	2893	2893	2869	2869	2869	2869	2869	2845	2845	2869	2845	2845	2845	2845	2845	2845	2845	2845	2845	2845	2845	2845	2845	2845	2845	2845	2845	2845	2845	2845	2822	2845	2845	2845	2845	2845	2845	2845	2869	2869	2869	2869	2869	2869	2869	2869	2893	2893	2893	2893	2917	2917	2942	2967	2967	2967	2993	2993	2993	2993	3019	2993	3019	3019	2993	2993	2993	2993	2993	2993	2993	2967	2967	3659	3659	3621	3621	3621	3621	3621	3621	3621	3583	3583	3621	3583	3583	3583	3583	3621	3583	3583	3583	3583	3583	3583	3583	3583	3583	3583	3583	3583	3583	3583	3583	3583	3583	3583	3583	3621	3621	3621	3621	3621	3621	3621	3621	3621	3659	3659	3659	3621	3621	3621	3621	3621	3621	3621	3621	3621	3621	3621	3659	3659	3659	3659	3659	3659	3659	3621	3621	3659	3621	3621	3621	3621	3621	3621	3621	3621	3621	3621	3621	3621	3621	3621	3621	3621	3621	3621	3621	3621	3621	3621	3621	3621	3621	3621	3621	3621	3621	3621	3621	3621	3583	3583	3621	3583	3583	3583	3621	3583	3583	3583	3583	3583	3583	3546	3583	3583	3583	3583	3583	3583	3583	3621	3583	3546	3546	3583	3583	3583	3546	3546	3546	3546	0	0	0	2127	2114	2101	2088	2076	2076	2063	2063	2051	2039	2027	2027	2015	2015	2003	2003	1992	1980	1969	1947	1947	1936	1936	1925	1915	1904	1894	1894	1863	1863	1853	1843	1833	1824	1824	1824	1814	1814	1786	1786	1777	1768	1759	1759	1741	1732	1723	1723	1706	1706	1698	1690	1673	1673	1665	1657	1657	1649	1641	1641	1618	1618	1611	1611	1611	1611	1603	1596	1589	1581	1567	1567	1560	1553	1546	1539	1532	1532	1519	1519	1512	1506	1506	1506	1492	1486	1473	1473	1461	1455	1455	1455	1449	1449	1449	1449	1449	1449	1449	1449	1455	1455	1461	1467	1473	1467	1467	1467	1467	1467	1467	1467	1467	1467	0	0	0	0	0	0	0	0	0	0	0	0	0	0	0	0	0	0	0	0	0	0	0	0	0	0	0	0	0	0	0	0	0	0	0	0	0	0	0	0
0	0	0	0	0	0	0	0	0	0	0	0	1539	1539	1539	1539	1546	1546	1553	1560	1567	1567	1567	1574	1574	1574	1581	1581	1581	2027	2039	2039	2039	2039	2027	0	0	0	0	0	0	0	0	2153	2167	2181	2208	2208	2208	2223	2223	2223	2223	2223	2223	2237	2237	2266	2281	2312	2327	2327	2343	2343	2343	2359	2376	2392	2409	2409	2443	2460	2478	2478	2478	2478	2496	2478	2496	2478	2478	2478	2496	2496	2496	2496	2496	2496	2496	2496	2496	2496	2496	2496	2496	2496	2496	2478	2478	2478	2478	2478	2478	2478	2478	2478	2496	2496	2496	2496	2496	2496	2496	2478	2478	2478	2478	2496	2496	2496	2496	2496	2496	2496	2496	2478	2478	2478	2478	2478	2478	2460	2460	2460	3019	3019	3019	3019	3019	3019	3019	3019	3019	3019	3046	3046	3046	3046	3046	3019	3019	3019	3019	3019	3019	3046	3073	3073	3073	3101	3101	3101	3129	3129	3510	3510	3510	3510	3546	3510	3546	3546	3546	3546	3546	3546	3546	3546	3510	3510	3546	3546	3546	3583	3621	3621	3621	3621	3583	3583	3583	3583	3546	3546	3546	3546	3583	3583	3583	3546	3546	3546	3546	3546	3546	3546	3583	3583	3583	3583	3583	3583	3583	3583	3621	3621	3583	3621	3621	3621	3621	3583	3583	3583	3583	3583	3621	3583	3583	3546	3583	3583	3546	3546	3546	3546	3583	3583	3583	3621	3621	3621	3621	3621	3659	3621	3621	3621	3621	3621	3583	3583	3583	3698	3659	3019	3019	2993	2993	2993	2967	2967	2993	2993	3019	3019	3019	3019	3019	2993	2993	2993	2967	2942	2942	2917	2893	2893	2869	2869	2869	2869	2869	2869	2869	2845	2869	2845	2845	2845	2845	2845	2845	2845	2845	2845	2845	2845	2845	2845	2845	2845	2845	2822	2845	2845	2845	2845	2845	2845	2845	2845	2845	2822	2845	2845	2869	2869	2869	2869	2869	2869	2869	2893	2893	2893	2893	2917	2917	2942	2942	2967	2967	2967	2993	2993	2993	2993	2993	2993	2993	2993	2993	2993	2993	2993	2993	2967	2967	3659	3659	3621	3621	3583	3583	3621	3621	3621	3583	3583	3583	3583	3583	3583	3583	3583	3583	3583	3583	3583	3583	3583	3583	3583	3583	3583	3583	3583	3583	3583	3583	3583	3583	3583	3583	3583	3621	3621	3621	3621	3621	3621	3621	3621	3621	3659	3659	3659	3621	3621	3621	3621	3621	3621	3621	3621	3621	3659	3621	3621	3659	3659	3659	3659	3659	3659	3659	3621	3621	3621	3621	3621	3621	3621	3621	3621	3621	3621	3621	3621	3621	3621	3621	3621	3621	3621	3621	3621	3621	3621	3621	3621	3621	3621	3621	3621	3621	3621	3621	3621	3621	3621	3621	3621	3621	3583	3583	3621	3583	3583	3583	3583	3583	3583	3583	3583	3583	3583	3583	3583	3583	3583	3621	3583	3546	3583	3583	3546	3546	3546	3546	3546	0	0	0	2140	2127	2114	2101	2088	2076	2076	2063	2063	2051	2039	2027	2027	2015	2015	2015	2003	1992	1980	1958	1947	1947	1936	1925	1925	1915	1904	1894	1883	1873	1863	1853	1843	1833	1824	1824	1824	1804	1814	1786	1786	1777	1777	1759	1750	1741	1741	1723	1723	1706	1706	1698	1690	1681	1681	1673	1657	1649	1649	1641	1634	1618	1618	1611	1618	1611	1611	1603	1596	1589	1581	1574	1560	1560	1553	1546	1539	1532	1532	1519	1519	1512	1506	1506	1506	1492	1486	1473	1473	1467	1455	1455	1455	1449	1449	1449	1449	1443	1443	1437	1449	1449	1455	1461	1467	1467	1467	1467	1467	1467	1467	1467	1467	1467	1467	0	0	0	0	0	0	0	0	0	0	0	0	0	0	0	0	0	0	0	0	0	0	0	0	0	0	0	0	0	0	0	0	0	0	0	0	0	0	0	0
