0	0	0	0	0	0	0	0	0	0	0	0	0	0	0	0	0	0	0	0	0	0	0	0	0	0	0	0	0	0	0	0	0	0	0	0	0	0	0	0	0	0	0	0	0	0	0	0	0	0	0	0	0	0	0	0	0	0	0	0	0	0	0	0	0	0	0	0	0	0	0	0	0	0	0	0	0	0	0	0	0	0	0	0	0	0	0	0	0	0	0	0	0	0	0	0	0	0	0	0	0	0	0	0	0	0	0	0	0	0	0	0	0	0	0	0	0	0	0	0	0	0	0	0	0	0	0	0	0	0	0	0	0	0	0	0	0	0	0	0	0	0	0	0	0	0	0	0	0	0	0	0	0	0	0	0	0	0	0	0	0	0	0	0	0	0	0	0	0	0	0	0	0	0	0	0	0	0	0	0	0	0	0	0	0	0	0	0	0	0	0	0	0	0	0	0	0	0	0	0	0	0	0	0	0	0	0	0	0	0	0	0	0	0	0	0	0	0	0	0	0	0	0	0	0	0	0	0	0	0	0	0	0	0	0	0	0	0	0	0	0	0	0	0	0	0	0	0	0	0	0	0	0	0	0	0	0	0	0	0	0	0	0	0	0	0	0	0	0	0	0	0	0	0	0	0	0	0	0	0	0	0	0	0	0	0	0	0	0	0	0	0	0	0	0	0	0	0	0	0	0	0	0	0	0	0	0	0	0	0	0	0	0	0	0	0	0	0	0	0	0	0	0	0	0	0	0	0	0	0	0	0	0	0	0	0	0	0	0	0	0	0	0	0	0	0	0	0	0	0	0	0	0	0	0	0	0	0	0	0	0	0	0	0	0	0	0	0	0	0	0	0	0	0	0	0	0	0	0	0	0	0	0	0	0	0	0	0	0	0	0	0	0	0	5535	5535	5535	5535	5535	5535	5535	5448	5535	5535	5535	5535	5535	5535	5626	5719	5719	5719	5719	5719	5626	5626	5626	5626	5626	5626	5626	5719	5719	5626	5626	5535	5535	5535	5535	5535	5535	5626	5626	5626	5626	5626	5626	5626	5626	5626	5535	5626	5626	5626	5626	5626	5626	5719	5719	5719	0	0	0	0	0	0	5626	5626	5626	5626	5626	5626	5719	5626	5626	5719	5719	5626	5626	5626	5626	5626	5626	5626	5626	5626	5626	5626	5535	5535	5535	5535	5535	5535	5448	5448	5448	5448	5364	5448	5626	5719	5719	5719	5719	5719	5719	5626	5626	5535	5626	5626	5626	5626	5626	5626	5626	5626	5626	5719	5626	5626	5626	5626	5535	5535	5535	5448	5448	5364	5364	5364	5282	5282	5202	5125	5125	5125	5050	5050	5050	5050	4906	4906	4838	4977	4771	4706	4706	4706	4643	4643	4643	4643	4643	4643	4643	4643	4706	4643	4643	4581	4521	4521	4463	4521	4463	4463	4406	4350	4296	4243	4243	4243	4243	4243	4243	4243	0	0	0	0	0	0	0	0	3998	3998	3998	4093	4093	0	1437	1437	0	1437	1413	1413	1413	1425	1425	1419	1419	1419	1419	1413	1419	1413	1413	0	0	0	0	0	0	0	0	0	0	0	0	0	0	0	0	0	0	0	0	0	0	0	0	0	0	0	0	0	0	0	0	0	0	0	0	0	0	0	0	0
0	0	0	0	0	0	0	0	0	0	0	0	0	0	0	0	0	0	0	0	0	0	0	0	0	0	0	0	0	0	0	0	0	0	0	0	0	0	0	0	0	0	0	0	0	0	0	0	0	0	0	0	0	0	0	0	0	0	0	0	0	0	0	0	0	0	0	0	0	0	0	0	0	0	0	0	0	0	0	0	0	0	0	0	0	0	0	0	0	0	0	0	0	0	0	0	0	0	0	0	0	0	0	0	0	0	0	0	0	0	0	0	0	0	0	0	0	0	0	0	0	0	0	0	0	0	0	0	0	0	0	0	0	0	0	0	0	0	0	0	0	0	0	0	0	0	0	0	0	0	0	0	0	0	0	0	0	0	0	0	0	0	0	0	0	0	0	0	0	0	0	0	0	0	0	0	0	0	0	0	0	0	0	0	0	0	0	0	0	0	0	0	0	0	0	0	0	0	0	0	0	0	0	0	0	0	0	0	0	0	0	0	0	0	0	0	0	0	0	0	0	0	0	0	0	0	0	0	0	0	0	0	0	0	0	0	0	0	0	0	0	0	0	0	0	0	0	0	0	0	0	0	0	0	0	0	0	0	0	0	0	0	0	0	0	0	0	0	0	0	0	0	0	0	0	0	0	0	0	0	0	0	0	0	0	0	0	0	0	0	0	0	0	0	0	0	0	0	0	0	0	0	0	0	0	0	0	0	0	0	0	0	0	0	0	0	0	0	0	0	0	0	0	0	0	0	0	0	0	0	0	0	0	0	0	0	0	0	0	0	0	0	0	0	0	0	0	0	0	5535	5535	5535	5535	5535	5535	5535	5535	5535	5535	5535	5535	5535	5535	5535	5535	5535	5535	5448	5448	5448	5448	5448	5448	5535	5535	5535	5535	5535	5535	5535	5535	5535	5535	5535	5535	5535	5626	5626	5719	5626	5626	5626	5626	5535	5535	5535	5535	5535	5535	5535	5535	5535	5535	5535	5535	5535	5535	5626	5626	5815	5719	5719	5719	5719	5626	5626	5626	5626	5626	5626	5626	5719	5719	5626	5626	5535	5535	5535	5535	5535	5535	5626	5626	5626	5626	5626	5626	5626	5626	5626	5626	5626	5626	5626	5626	5626	5626	5719	5719	5719	0	0	0	0	0	0	5626	5626	5626	5626	5626	5626	5719	5719	5719	5719	5719	5719	5719	5626	5719	5626	5626	5626	5626	5626	5626	5626	5535	5535	5535	5535	5535	5535	5535	5535	5535	5535	5448	5535	5719	5719	5719	5719	5719	5719	5719	5626	5626	5626	5626	5626	5626	5626	5626	5626	5535	5535	5535	5719	5626	5626	5626	5626	5535	5448	5448	5448	5364	5364	5364	5364	5282	5282	5202	5125	5125	5050	4977	4977	4977	4977	4906	4838	4838	4771	4771	4706	4706	4706	4643	4643	4706	4643	4643	4643	4643	4643	4706	4643	4581	4581	4521	4521	4521	4521	4463	4406	4406	4350	4243	4192	4192	4243	4243	4243	4243	0	0	0	0	0	0	0	0	0	0	0	0	0	0	1443	1437	1437	1419	1419	1413	1413	1413	1413	1413	1407	1419	1419	1419	1413	1419	1413	1413	0	0	0	0	0	0	0	0	0	0	0	0	0	0	0	0	0	0	0	0	0	0	0	0	0	0	0	0	0	0	0	0	0	0	0	0	0	0	0	0	0
0	0	0	0	0	0	0	0	0	0	0	0	0	0	0	0	0	0	0	0	0	0	0	0	0	0	0	0	0	0	0	0	0	0	0	0	0	0	0	0	0	0	0	0	0	0	0	0	0	0	0	0	0	0	0	0	0	0	0	0	0	0	0	0	0	0	0	0	0	0	0	0	0	0	0	0	0	0	0	0	0	0	0	0	0	0	0	0	0	0	0	0	0	0	0	0	0	0	0	0	0	0	0	0	0	0	0	0	0	0	0	0	0	0	0	0	0	0	0	0	0	0	0	0	0	0	0	0	0	0	0	0	0	0	0	0	0	0	0	0	0	0	0	0	0	0	0	0	0	0	0	0	0	0	0	0	0	0	0	0	0	0	0	0	0	0	0	0	0	0	0	0	0	0	0	0	0	0	0	0	0	0	0	0	0	0	0	0	0	0	0	0	0	0	0	0	0	0	0	0	0	0	0	0	0	0	0	0	0	0	0	0	0	0	0	0	0	0	0	0	0	0	0	0	0	0	0	0	0	0	0	0	0	0	0	0	0	0	0	0	0	0	0	0	0	0	0	0	0	0	0	0	0	0	0	0	0	0	0	0	0	0	0	0	0	0	0	0	0	0	0	0	0	0	0	0	0	0	0	0	0	0	0	0	0	0	0	0	0	0	0	0	0	5535	5535	5535	5535	5535	5535	5535	5448	5448	5448	5535	5535	5535	5535	5535	5535	5535	5535	5535	5535	5535	5626	5626	5626	5626	5626	0	0	0	0	0	0	0	5448	5448	5448	5448	5448	5535	5535	5535	5626	5626	5535	5535	5535	5448	5535	5535	5535	5448	5448	5448	5535	5535	5448	5535	5535	5535	5448	5535	5535	5535	5535	5535	5535	5535	5535	5535	5535	5535	5535	5535	5535	5535	5535	5535	5448	5535	5448	5535	5535	5535	5535	5535	5535	5535	5535	5535	5626	5535	5626	5626	5626	5626	5719	5626	5626	5626	5626	5535	5535	5535	5535	5535	5535	5535	5535	5535	5535	5535	5535	5535	5535	5626	5626	5815	5815	5815	5719	5719	5719	5719	5626	5626	5626	5719	5626	5719	5719	5626	5626	5535	5535	5535	5535	5535	5535	5626	5626	5626	5626	5626	5626	5626	5626	5626	5626	5626	5626	5626	5626	5719	5626	5626	5626	5626	0	0	0	0	0	5719	5719	5719	5719	5719	5719	5719	5719	5719	5719	5719	5815	5719	5626	5719	5719	5719	5719	5626	5626	5626	5626	5626	5535	5535	5535	5626	5626	5626	5626	5626	5626	5535	5535	5535	5626	5719	5719	5719	5719	5719	5719	5719	5719	5719	5719	5719	5626	5626	5626	5626	5626	5626	5719	5719	5626	5626	5719	5626	5626	5626	5448	5448	5448	5364	5364	5282	5282	5282	5202	5125	5125	5050	4977	4977	4977	4977	4977	4906	4838	4771	4771	4706	4706	4706	4643	4643	4706	4643	4643	4643	4643	4643	4771	4643	4643	4581	4581	4581	4521	4521	4463	4406	4406	4350	4350	4192	4192	0	0	0	0	0	0	0	0	0	0	0	0	0	0	0	0	0	0	1443	1437	1431	1419	1419	1413	1413	1413	1407	1407	1407	1419	1413	1413	1413	1413	1413	1413	0	0	0	0	0	0	0	0	0	0	0	0	0	0	0	0	0	0	0	0	0	0	0	0	0	0	0	0	0	0	0	0	0	0	0	0	0	0	0	0	0
0	0	0	0	0	0	0	0	0	0	0	0	0	0	0	0	0	0	0	0	0	0	0	0	0	0	0	0	0	0	0	0	0	0	0	0	0	0	0	0	0	0	0	0	0	0	0	0	0	0	0	0	0	0	0	0	0	0	0	0	0	0	0	0	0	0	0	0	0	0	0	0	0	0	0	0	0	0	0	0	0	0	0	0	0	0	0	0	0	0	0	0	0	0	0	0	0	0	0	0	0	0	0	0	0	0	0	0	0	0	0	0	0	0	0	0	0	0	0	0	0	0	0	0	0	0	0	0	0	0	0	0	0	0	0	0	0	0	0	0	0	0	0	0	0	0	0	0	0	0	0	0	0	0	0	0	0	0	0	0	0	0	0	0	0	0	0	0	0	0	0	0	0	0	0	0	0	0	0	0	0	0	0	0	0	0	0	0	0	0	0	0	0	0	0	0	0	0	0	0	0	0	0	0	0	0	0	0	0	0	0	0	0	0	0	0	0	0	0	5535	5535	5448	5448	0	0	5448	5448	5535	5535	5626	5626	5535	5626	5626	5535	5535	5535	5535	5535	5448	5448	5448	5448	5448	5448	5364	5448	5448	5448	5448	5364	5364	5282	5282	5282	5282	5448	5448	5448	5448	5535	5626	5626	5535	5535	5626	5626	5626	5535	5535	5535	5535	5535	5535	5448	5448	5448	5535	5626	5535	5535	5626	5535	5535	5535	5535	5535	5535	5448	5448	5364	5448	5448	5535	5535	5535	5535	5535	5535	5535	5535	5535	5448	5535	5535	5626	5535	5535	5535	5535	5535	5535	5535	5535	5719	5719	5626	5626	5626	0	0	0	0	0	0	0	5448	5448	5448	5448	5535	5535	5535	5626	5626	5626	5535	5535	5535	5535	5535	5535	5535	5448	5448	5535	5535	5535	5535	5535	5535	5535	5448	5535	5535	5535	5535	5535	5535	5535	5535	5535	5535	5535	5535	5535	5535	5535	5535	5535	5535	5535	5535	5535	5535	5535	5535	5535	5535	5535	5626	5626	5626	5626	5626	5626	5626	5626	5719	5626	5719	5719	5719	5626	5626	5535	5535	5535	5535	5535	5535	5535	5535	5535	5535	5535	5626	5719	5815	5915	5815	5815	5815	5719	5719	5719	5719	5719	5719	5719	5719	5719	5719	5626	5626	5626	5626	5535	5535	5535	5535	5626	5626	5626	5626	5626	5626	5626	5626	5626	5626	5626	5626	5626	5626	5719	5626	5626	5626	5626	0	0	0	0	5719	5719	5719	5719	5719	5719	5719	5719	5719	5719	5719	5719	5815	5719	5815	5719	5719	5719	5719	5719	5719	5626	5626	5626	5626	5626	5626	5626	5626	5626	5626	5626	5626	5626	5535	5535	5626	5626	5719	5719	5719	5719	5719	5719	5719	5719	5626	5626	5626	5626	5626	5626	5626	5626	5719	5719	5626	5626	5626	5626	5626	5626	5448	5448	5364	5364	5364	5282	5282	5282	5202	5125	5050	4977	4977	5050	4977	4977	4977	4977	4906	4977	4771	4706	4706	4643	4643	4643	4643	4643	4643	4643	4643	4771	4706	4706	4643	4643	4581	4581	4521	4521	4521	4521	4406	4350	4350	0	0	0	0	0	0	0	0	0	0	0	0	0	0	0	0	0	0	0	1437	1443	1437	1431	1419	1419	1413	1413	1413	1407	1407	1407	1419	1419	1419	1419	1419	1419	1419	0	0	0	0	0	0	0	0	0	0	0	0	0	0	0	0	0	0	0	0	0	0	0	0	0	0	0	0	0	0	0	0	0	0	0	0	0	0	0	0	0
0	0	0	0	0	0	0	1374	1390	1402	1407	1413	1419	1425	1431	1431	1437	1437	1443	1443	1443	1486	1492	1486	1473	1473	1480	1480	1480	1525	1506	1512	1519	1525	1539	1546	1560	1560	1560	1560	1560	0	0	0	0	0	0	0	0	0	0	0	0	0	0	0	0	0	0	0	0	0	0	0	0	0	0	0	0	0	0	0	0	0	1455	1449	1449	0	1461	1461	1461	1461	1461	1455	1449	1455	1455	1455	0	0	0	0	1499	1492	1492	1492	1499	1506	1512	1519	1519	1525	1525	1525	1525	1532	1525	1525	1525	1532	1546	1560	1567	1574	1574	1581	1589	1596	1603	1611	1611	1611	1626	1626	0	0	0	0	0	0	0	0	0	0	0	0	0	0	0	0	0	0	0	0	0	0	5535	5535	5535	5535	5448	5448	5448	5448	5448	0	0	5448	5448	0	5535	5448	5448	5448	5448	5448	5448	5448	5448	5448	5448	5535	5448	5535	5448	5448	5448	5448	5448	5448	5448	5448	5364	5364	5448	5448	5448	5448	0	0	0	0	0	0	0	0	0	5364	5448	5448	5535	5535	5535	5535	5535	5535	5535	5535	5535	5535	5535	5626	5535	5535	5535	5535	5535	5535	5535	5535	5535	5448	5448	5448	5448	5535	5535	5535	5626	5626	5626	5535	5626	5626	5535	5535	5535	5535	5535	5535	5448	5448	5448	5448	5448	5364	5364	5448	5448	5448	5448	5364	5364	5364	5364	5364	5448	5448	5448	5535	5626	5626	5626	5626	5626	5626	5626	5626	5626	5626	5535	5535	5535	5535	5535	5535	5535	5535	5626	5535	5626	5626	5626	5535	5535	5535	5535	5535	5448	5448	5448	5448	5448	5535	5535	5626	5626	5626	5626	5626	5535	5535	5535	5535	5626	5626	5535	5535	5535	5535	5535	5535	5535	5626	5719	5719	5719	5626	5626	5535	5535	0	0	0	0	5448	5448	5448	5448	5535	5535	5626	5626	5626	5626	5626	5626	5626	5535	5535	5535	5535	5535	5448	5448	5535	5535	5535	5535	5535	5535	5535	5448	5535	5535	5535	5535	5535	5626	5626	5626	5626	5535	5535	5535	5535	5535	5535	5535	5535	5535	5535	5535	5626	5626	5626	5626	5626	5626	5626	5719	5719	5626	5626	5626	5626	5626	5626	5719	5719	5719	5719	5719	5626	5626	5535	5535	5535	5535	5535	5535	5535	5535	5535	5535	5535	5815	5815	5915	6018	5915	5915	5815	5815	5815	5815	5719	5815	5719	5719	5719	5719	5719	5719	5626	5626	5535	5626	5626	5626	5626	5626	5626	5626	5626	5626	5626	5535	5626	5626	5626	5626	5626	5626	5719	5719	5719	5719	5626	5626	5626	0	0	5719	5719	5719	5719	5719	5719	5719	5719	5719	5719	5719	5815	5719	5815	5719	5815	5815	5815	5719	5815	5719	5719	5719	5719	5719	5626	5626	5626	5626	5626	5626	5626	5626	5626	5626	5626	5535	5719	5626	5719	5719	5719	5719	5719	5719	5719	5719	5719	5719	5719	5626	5626	5719	5719	5719	5719	5719	5719	5719	5626	5626	5626	5626	5535	5364	5364	5364	5364	5282	5282	5282	5202	5125	5050	4977	4977	5050	4977	4977	4977	4977	4906	4906	4771	4706	4706	4706	4706	4643	4706	4643	4643	4643	4643	4706	4706	4643	4581	4581	4521	4521	4581	4521	4521	4521	0	0	0	0	0	0	0	0	0	0	0	0	0	0	0	0	0	0	0	0	0	1443	1437	1437	1437	1431	1419	1413	1413	1413	1413	1413	1407	1407	1419	1419	1419	1419	1419	1419	1419	0	0	0	0	0	0	0	0	0	0	0	0	0	0	0	0	0	0	0	0	0	0	0	0	0	0	0	0	0	0	0	0	0	0	0	0	0	0	0	0	0
0	0	0	0	0	0	0	1379	1396	1402	1407	1407	1413	1419	1431	1431	1437	1437	1443	1443	1492	1492	1499	1492	1480	1480	1480	1480	1480	1525	1506	1512	1519	1525	1539	1546	1560	1560	1560	1560	1560	1560	0	0	0	0	0	0	0	0	0	0	0	0	0	0	0	0	0	0	0	0	0	0	0	0	0	0	0	0	0	0	1437	1443	1449	1443	1443	1443	1461	1461	1461	1461	1461	1455	1455	1455	1461	1461	1461	1480	1480	0	1492	1492	1492	1499	1506	1506	1512	1512	1519	1525	1525	1525	1525	1532	1525	1525	1525	1539	1553	1560	1567	1574	1574	1574	1589	1596	1596	1603	1611	1611	1626	1626	1641	1649	1649	0	0	0	0	0	0	0	0	0	0	0	0	0	0	0	0	0	0	0	5535	5535	5448	5448	5448	5448	5448	5535	5535	5535	5626	5535	5535	5535	5535	5448	5448	5448	5535	5535	5535	5448	5535	5535	5535	5535	5448	5535	5448	5448	5448	5448	5448	5448	5448	5448	5364	5364	5448	5448	5448	5448	0	0	0	0	0	0	0	0	5282	5282	5448	5448	5535	5535	5535	5535	5626	5626	5626	5535	5535	5535	5626	5626	5535	5535	5535	5535	5535	5535	5535	5535	5535	5535	5448	5535	5535	5535	5535	5535	5626	5626	5626	5535	5626	5626	5626	5535	5535	5535	5535	5535	5535	5535	5448	5448	5448	5364	5448	5448	5448	5448	5448	5448	5448	5364	5364	5364	5535	5535	5535	5535	5626	5626	5626	5626	5626	5626	5626	5626	5626	5626	5626	5535	5535	5535	5535	5535	5535	5535	5626	5626	5626	5626	5626	5626	5626	5535	5535	5535	5535	5535	5535	5535	5535	5535	5535	5626	5626	5626	5626	5626	5626	5626	5535	5535	5626	5626	5626	5535	5535	5535	5535	5535	5535	5626	5719	5719	5719	5719	5626	5626	5626	0	0	0	5448	5448	5448	5535	5535	5535	5626	5626	5626	5626	5719	5626	5719	5626	5535	5535	5535	5535	5535	5535	5535	5535	5535	5626	5626	5535	5535	5535	5535	5535	5535	5535	5535	5535	5626	5626	5626	5626	5626	5626	5535	5535	5535	5535	5535	5535	5535	5626	5535	5719	5719	5719	5719	5719	5626	5626	5626	5626	5626	5626	5626	5626	5626	5626	5719	5719	5719	5626	5626	5626	5626	5535	5535	5535	5535	0	0	0	0	0	0	0	5815	5915	5915	5915	5915	5915	5815	5815	5815	5815	5719	5719	5719	5719	5719	5719	5719	5719	5719	5719	5719	5719	5719	5626	5719	5719	5719	5719	5626	5626	5626	5626	5626	5626	5626	5626	5626	5626	5626	5719	5719	5626	5626	5626	5626	0	0	5815	5815	5915	5815	5815	5815	5719	5719	5815	5815	5719	5815	5815	5815	5815	5915	5815	5815	5719	5815	5815	5815	5815	5719	5719	5719	5626	5626	5626	5626	5626	5626	5626	5626	5626	5626	5626	5719	5719	5719	5719	5719	5815	5815	5719	5719	5719	5719	5719	5719	5719	5719	5719	5719	5719	5719	5719	5719	5626	5626	5626	5626	5535	5535	5364	5364	5448	5282	5282	5202	5202	5125	5050	5050	4977	4977	5050	4977	4977	4977	4977	4977	4977	4906	4771	4771	4706	4706	4706	4706	4643	4581	4771	4581	4581	4643	4581	4581	4643	4521	4581	4581	4521	4521	0	0	0	0	0	0	0	0	0	0	0	0	0	0	0	0	1419	1419	0	0	0	1437	1437	1431	1437	1437	1431	1419	1419	1419	1419	1413	1413	1413	1407	1419	1419	1413	1413	1413	1413	1413	0	0	0	0	0	0	0	0	0	0	0	0	0	0	0	0	0	0	0	0	0	0	0	0	0	0	0	0	0	0	0	0	0	0	0	0	0	0	0	0	0
0	0	0	0	0	0	0	1379	1390	1402	1407	1407	1407	1419	1425	1431	1437	1461	1443	1473	1492	1499	1499	1499	1480	1480	1480	1486	1499	1499	1525	1512	1532	1519	1532	1546	1560	1560	1560	1560	1560	1567	1567	0	0	0	0	0	0	0	0	0	0	0	0	0	0	0	0	0	0	0	0	0	0	0	0	0	1455	1437	1437	1443	1437	1443	1443	1443	1443	1443	1461	1461	1455	1461	1461	1461	1455	1461	1467	1455	1455	1461	1499	1499	1486	1486	1492	1492	1499	1506	1512	1512	1519	1519	1525	1525	1525	1532	1532	1539	1539	1546	1553	1553	1567	1574	1574	1574	1581	1596	1596	1603	1611	1611	1626	1626	1641	1649	1657	1657	1657	0	0	0	0	0	0	0	0	0	0	0	0	0	0	0	0	0	5535	5535	5448	5448	5448	5448	5448	5535	5626	5626	5626	5626	5626	5535	5535	5535	5448	5448	5535	5535	5535	5535	5535	5535	5535	5448	5535	5535	5535	5535	5448	5448	5448	5448	5448	5448	5364	5364	5448	5448	5448	5448	5448	0	0	0	0	0	0	0	5282	5282	5448	5448	5535	5535	5626	5626	5626	5626	5626	5626	5626	5626	5626	5626	5626	5626	5535	5535	5535	5535	5535	5535	5535	5535	5535	5535	5535	5535	5535	5535	5626	5626	5626	5535	5626	5626	5626	5626	5535	5535	5535	5535	5535	5535	5535	5535	5535	5448	5448	5535	5535	5448	5448	5448	5448	5448	5448	5448	5535	5535	5535	5626	5626	5719	5719	5626	5626	5626	5626	5719	5719	5626	5626	5626	5535	5535	5535	5448	5448	5535	5626	5535	5626	5626	5626	5626	5626	5626	5626	5626	5535	5535	5626	5535	5535	5535	5626	5626	5626	5626	5626	5626	5626	5626	5535	5626	5626	5626	5626	5626	5535	5535	5535	5535	5535	5626	5719	5719	5719	5626	5719	5626	5626	0	5448	5448	5448	5448	5448	5535	5535	5626	5626	5626	5626	5626	5719	5719	5719	5626	5626	5626	5626	5535	5535	5535	5535	5535	5626	5626	5626	5535	5535	5626	5535	5535	5535	0	0	0	5626	5626	5626	5535	5535	5535	5535	5535	5535	5535	5626	5535	5626	5626	5626	5719	5719	5719	5719	5719	5719	5719	5626	5626	5626	5626	5626	5626	5626	0	0	0	5719	5626	5626	5626	5626	0	0	0	0	0	0	0	0	0	0	0	0	5915	5915	5815	5815	5815	5815	5719	5719	5719	5719	5719	5719	5719	5719	5719	5719	5626	5719	5719	5719	5719	5719	5719	5719	5815	5815	5915	5719	5719	5915	5719	5719	5719	5719	5626	5626	5626	5719	5719	5719	5626	5626	5626	0	0	0	5815	5915	5915	5915	5815	5815	5815	5815	5719	5719	5719	5719	5719	5815	5815	5915	5915	5915	5815	5815	5815	5815	5815	5719	5815	5719	5719	5626	5626	5626	5719	5719	5719	5719	5719	5626	5626	5719	5719	5719	5719	5719	5815	5815	5815	5815	5719	5719	5815	5719	5719	5815	5815	5815	5815	5815	5719	5719	5626	5626	5626	5626	5535	5535	5364	5364	5448	5282	5202	5202	5202	5202	5202	5125	5050	5050	5050	5050	5050	4977	4977	4977	4977	4838	4838	4771	4771	4706	4706	4706	4706	4643	4643	4581	4581	4643	4581	4581	4581	4521	4581	4581	0	0	0	0	0	0	0	0	0	0	0	0	0	0	0	0	0	0	1413	1413	0	1419	1419	1419	1437	1419	1437	1437	1431	1425	1419	1419	1425	1419	1413	1413	1413	1407	1419	1413	1413	1413	1413	1413	0	0	0	0	0	0	0	0	0	0	0	0	0	0	0	0	0	0	0	0	0	0	0	0	0	0	0	0	0	0	0	0	0	0	0	0	0	0	0	0	0
0	0	0	0	0	0	0	0	1379	1402	1407	1425	1425	1419	1425	1431	1437	1473	1480	1480	1486	1492	1499	1499	1480	1486	1480	1486	1492	1519	1506	1532	1532	1532	1539	1546	1546	1560	1567	1567	1567	1567	1567	1567	0	0	0	0	0	0	0	0	0	0	0	0	0	0	0	0	0	0	0	0	0	0	0	0	1455	1437	1443	1443	1431	1443	1443	1443	1443	1443	1461	1455	1455	1455	1455	1455	1455	1455	1443	1443	1449	1455	1455	1473	1473	1480	1480	1480	1492	1499	1506	1512	1512	1519	1525	1525	1532	1539	1539	1539	1539	1546	1553	1560	1567	1574	1574	1581	1589	1596	1603	1603	1611	1611	1618	1626	1641	1657	1657	1657	1657	1657	0	0	0	0	0	0	0	0	0	0	0	0	0	0	0	0	0	5535	5448	5448	5448	5448	5448	5448	5535	5535	5626	5626	5626	5535	5626	5626	5535	5448	5535	5535	5535	5535	5535	5535	5535	5448	5535	5535	5535	5535	5448	5448	5448	5448	5448	5448	5364	5364	5448	5448	5448	5448	5535	5535	0	0	0	0	0	0	0	5282	5282	5448	5535	5535	5535	5626	5626	5626	5626	5626	5626	5626	5626	5626	5626	5626	5626	5626	5626	5626	5535	5626	5626	5535	5535	5535	5535	5535	5535	5626	5626	5626	5626	5626	5626	5626	5626	5626	5535	5535	5626	5535	5535	5535	5535	5535	5535	5448	5448	5535	5535	5535	5535	5535	5535	5535	5535	5535	5626	5626	5626	5626	5626	5719	5719	5626	5626	5719	5626	5719	5719	5719	5719	5626	5626	5626	5535	5535	5535	5535	5626	5626	5626	5626	5626	5626	5626	5626	5626	5626	5626	5535	5535	5535	5626	5626	5626	5626	5626	5626	5626	5626	5626	5626	5626	5626	5626	5626	5626	5626	5535	5535	5626	5626	5626	5626	5719	5719	5719	5719	5719	5626	5535	5535	5448	5448	5448	5535	5535	5626	5626	5626	5719	5719	5719	5719	5719	5719	5719	5719	5626	5626	5626	5535	5626	5535	5535	5535	5626	5626	5626	5626	5626	5626	5626	5535	5535	0	0	0	0	5626	5626	5535	5535	5535	5535	5535	5535	5535	5535	5535	5535	5626	5535	5719	5719	5719	5815	5815	5815	5815	0	0	0	0	0	0	0	0	0	0	0	0	0	0	0	0	0	0	0	0	0	0	0	0	0	0	0	0	0	5815	5815	5815	5815	5719	5719	5719	5719	5719	5719	5719	5719	5719	5719	5626	5719	5626	5626	5719	5719	5719	5719	5815	5815	5815	5815	5815	5815	5719	5719	5719	5719	5719	5626	5719	5719	5719	5719	0	0	0	0	0	0	5815	5915	5915	5915	5815	5815	5815	5815	5719	5719	5719	5719	5815	5815	5815	5815	5815	5815	5815	5815	5915	5915	5915	5815	5815	5815	5719	5719	5626	5626	5719	5719	5626	5719	5719	5626	5626	5719	5719	5719	5719	5719	5719	5815	5719	5719	5719	5719	5815	5719	5719	5815	5815	5815	5815	5815	5719	5719	5626	5626	5626	5626	5535	5535	5364	5364	5364	5282	5202	5202	5202	5202	5125	5125	5050	5050	5050	4977	4977	4977	4977	4977	4977	4906	4838	4838	4771	4771	4706	4706	4706	4643	4643	4581	4521	4581	4581	4581	4581	0	0	0	0	0	0	0	0	0	0	0	0	0	0	0	0	0	0	0	1419	1419	1413	1413	1419	1419	1419	1419	1419	1419	1419	1431	1431	1425	1425	1425	1419	1419	1413	1413	1407	1419	1419	1413	1413	1413	1419	1419	0	0	0	0	0	0	0	0	0	0	0	0	0	0	0	0	0	0	0	0	0	0	0	0	0	0	0	0	0	0	0	0	0	0	0	0	0	0	0	0	0
0	0	0	0	0	0	0	0	1379	1363	1431	1431	1431	1437	1443	1431	1455	1473	1480	1480	1486	1486	1492	1480	1480	1486	1486	1486	1492	1499	1506	1512	1519	1532	1532	1539	1553	1560	1560	1560	1560	1567	1567	1567	1567	0	0	0	0	0	0	0	0	0	0	0	0	0	0	0	0	0	0	0	0	0	0	0	0	0	1443	1443	1431	1443	1443	1443	1443	1449	1443	1449	1443	1455	1449	1455	1443	1443	1437	1437	1443	1449	1449	1467	1473	1473	1480	1473	1486	1499	1506	1512	1519	1519	1525	1525	1532	1539	1539	1546	1553	1553	1560	1560	1574	1581	1589	1581	1596	1596	1596	1603	1611	1611	1618	1618	1657	1657	1665	1657	1665	1665	1665	0	0	0	0	0	0	0	0	0	0	0	0	0	0	0	0	0	5448	5448	5535	5535	5448	5448	5448	5626	5626	5719	5719	5719	5626	5626	5535	5535	5535	5535	5535	5535	5535	5535	5535	5535	5626	5626	5535	5535	5448	5448	5448	5448	5448	5448	5535	5535	5626	5535	5535	5535	5535	5535	5535	0	0	0	0	0	0	0	5282	5448	5535	5626	5626	5719	5626	5626	5626	5626	5626	5626	5626	5626	5626	5626	5626	5626	5626	5626	5626	5626	5626	5535	5535	5535	5535	5535	5535	5626	5626	5626	5626	5626	5719	5719	5626	5626	5626	5626	5626	5535	5535	5535	5535	5535	5535	5448	5535	5535	5535	5535	5535	5535	5535	5535	5535	5535	5626	5626	5626	5626	5626	5719	5626	5626	5626	5719	5719	5719	5719	5719	5719	5626	5626	5626	5626	5535	5535	5535	5626	5626	5626	5626	5719	5626	5626	5626	5626	5626	5626	5626	5626	5626	5626	5626	5626	5626	5626	5626	5626	5626	5626	5626	5626	5626	5626	5626	5626	5626	5626	5626	5626	5626	5626	5626	5719	5719	5719	5719	5719	5626	5626	5535	5535	5448	5535	5535	5535	5626	5626	5626	5626	5626	5626	5626	5719	5719	5719	5719	5626	5719	5626	5626	5626	5626	5626	5626	5626	5626	5626	5719	5626	5719	5626	5626	0	0	0	0	0	0	0	0	0	5535	5535	0	0	5535	5535	5535	5535	5626	5535	5719	5719	5719	5815	5815	5815	5815	0	0	0	0	0	0	0	0	0	0	0	0	0	0	0	0	0	0	0	0	0	0	0	0	0	0	0	0	0	0	5815	5815	5815	5719	5719	5719	5719	5719	5719	5719	5719	5719	5719	5626	5719	5626	5719	5719	5719	5719	5719	5815	5815	5815	5815	5815	5815	5719	5719	5719	5815	5719	5719	5719	5719	0	0	0	0	0	0	0	0	5915	5915	5915	5915	5915	5915	5815	5815	5815	5719	5719	5719	5815	5815	5815	5815	5915	5915	5915	5915	5915	5915	5915	5915	5815	5815	5815	5719	5719	5719	5719	5719	5719	5719	5719	5719	5719	5815	5815	5815	5815	5815	5815	5815	5815	5719	5719	5719	5719	5719	5815	5815	5815	5815	5815	5815	5719	5719	5626	5626	5626	5626	5535	5535	5448	5448	5364	5282	5125	5202	5202	5202	5050	5125	5050	5050	5050	4977	4977	4977	4977	4977	4977	4906	4838	4838	4771	4771	4706	4706	4706	4643	4706	4706	4521	4643	4643	4581	0	0	0	0	0	0	0	0	0	0	0	0	0	0	0	0	0	0	0	1419	1419	1419	1419	1413	1419	1419	1419	1419	1419	1413	1413	1431	1431	1419	1419	1419	1419	1419	1413	1413	1407	1407	1402	1402	1413	1413	1419	1419	0	0	0	0	0	0	0	0	0	0	0	0	0	0	0	0	0	0	0	0	0	0	0	0	0	0	0	0	0	0	0	0	0	0	0	0	0	0	0	0	0
0	0	0	0	0	0	0	0	1363	1363	1413	1425	1431	1437	1443	1437	1461	1473	1480	1480	1486	1486	1492	1480	1480	1480	1486	1512	1519	1499	1506	1532	1532	1532	1532	1539	1553	1560	1560	1567	1567	1567	1567	1574	1581	1581	0	0	0	0	0	0	0	0	0	0	0	0	0	0	0	0	0	0	0	0	0	0	0	1437	1431	1443	1443	1455	1443	1437	1443	1443	1443	1443	1443	1449	1449	1449	1443	1443	1443	1443	1443	1443	1443	1467	1467	1473	1473	1473	1480	1492	1506	1512	1512	1519	1525	1525	1539	1546	1546	1553	1553	1560	1560	1567	1581	1589	1589	1589	1589	1596	1596	1596	1596	1596	1596	1665	1665	1665	1665	1665	1665	1665	1665	0	0	0	0	0	0	0	0	0	0	0	0	0	0	0	0	0	0	0	5535	5535	5535	5535	5719	5719	5719	5719	5719	5719	5719	5626	5535	5535	5535	5535	5535	5535	5535	5535	5626	5626	5626	5626	5626	5535	5535	5535	5535	5535	5535	5535	5626	5626	5719	5535	5535	5535	5535	5535	5626	5626	0	0	0	0	0	0	0	5448	5448	5535	5626	5719	5719	5719	5626	5626	5626	5626	5626	5626	5626	5626	5626	5626	5626	5626	5626	5626	5626	5626	5535	5535	5626	5626	5535	5626	5626	5626	5626	5626	5719	5719	5719	5626	5626	5626	5626	5626	5626	5535	5535	5535	5535	5535	5535	5535	5535	5535	5535	5626	5626	5535	5535	5535	5626	5626	5626	5626	5719	5719	5626	5626	5626	5719	5719	5719	5719	5719	5719	5626	5626	5626	5626	5626	5626	5626	5626	5626	5719	5719	5719	5719	5719	5626	5626	5626	5626	5626	5535	5626	5626	5626	5626	5626	5626	5626	5626	5626	5626	5626	5626	5626	5626	5626	5626	5626	5626	5626	5626	5626	5719	5626	5719	5719	5719	5719	5719	5626	5626	5535	5535	5535	5535	5535	5626	5626	5719	5719	5719	5719	5719	5719	5719	5719	5719	5719	5719	5719	5626	5626	5626	5626	5626	5626	5719	5626	5719	5719	5719	5719	5719	5626	0	0	0	0	0	0	0	0	0	0	0	0	0	0	5535	5535	5535	5535	5535	5719	5719	5719	5815	5815	0	0	0	0	0	0	0	0	0	0	0	0	0	0	0	0	0	0	0	0	0	0	0	0	0	0	0	0	0	0	5719	5815	5815	5815	5815	5719	5815	5815	5719	5815	5815	5815	5815	5719	5815	5719	5815	5719	5719	5815	5815	5815	5815	5815	5815	5915	5815	5815	5815	5815	5815	5815	5815	5815	5719	5719	5719	0	0	0	0	0	0	0	0	5915	5915	5915	5915	5915	5815	5815	5815	5815	5815	5719	5815	5815	5815	5815	5915	5915	5915	5915	5915	5915	5915	5915	5915	5815	5815	5815	5815	5815	5815	5815	5815	5815	5815	5815	5815	5815	5815	5915	5915	5915	5815	5719	5719	5815	5719	5719	5719	5719	5815	5815	5815	5815	5815	5815	5815	5719	5719	5626	5626	5626	5626	5535	5535	5282	5282	5282	5202	5202	5202	5202	5202	5125	5125	5050	5050	5050	4977	4977	4977	4977	4977	4977	4906	4906	4838	4771	4771	4706	4706	4706	4643	4706	4706	4581	4581	4643	0	0	0	0	0	0	0	0	0	0	0	0	0	0	0	0	0	0	1413	1419	1413	1419	1413	1413	1413	1413	1413	1413	1413	1413	1413	1413	1431	1431	1431	1431	1425	1419	1419	1413	1413	1407	1407	1402	1402	1396	1396	1413	1413	0	0	0	0	0	0	0	0	0	0	0	0	0	0	0	0	0	0	0	0	0	0	0	0	0	0	0	0	0	0	0	0	0	0	0	0	0	0	0	0	0
0	0	0	0	0	0	0	0	1374	1402	1407	1419	1425	1431	1437	1443	1455	1467	1461	1480	1480	1486	1473	1480	1480	1480	1486	1512	1499	1506	1506	1512	1532	1532	1532	1539	1539	1553	1560	1560	1567	1567	1574	1581	1581	1581	1581	0	0	0	0	0	0	0	0	0	0	0	0	0	0	0	0	0	0	0	0	0	0	1437	1431	1437	1437	1443	1443	1437	1443	1443	1443	1443	1443	1443	1443	1443	1443	1443	1437	1443	1443	1443	1443	1473	1473	1473	1480	1473	1480	1492	1499	1506	1512	1519	1519	1525	1539	1546	1546	1553	1553	1560	1567	1567	1589	1589	1596	1589	1596	1596	1596	1596	1596	1596	1603	1603	1665	1665	1665	1665	1665	1665	1665	0	0	0	0	0	0	0	0	0	0	0	0	0	0	0	0	0	0	0	0	5535	5719	5815	5815	5815	5815	5815	5719	5815	5815	5719	5535	5535	5535	5535	5535	5535	5535	0	5626	5626	5626	5719	5626	5535	5535	5535	5535	5535	5535	5535	5626	5626	5626	5535	5535	5626	5626	5626	5535	5535	5535	0	0	0	0	0	0	0	5448	5626	5626	5719	5719	5719	5719	5626	5719	5626	5626	5626	5626	5626	5626	5626	5719	5719	5626	5626	5626	5626	5626	5626	5626	5626	5535	5626	5626	5626	5626	5626	5626	5626	5626	5626	5626	5626	5626	5626	5626	5626	5626	5535	5535	5535	5535	5626	5626	5626	5626	5626	5626	5626	5626	5626	5719	5626	5626	5626	5719	5719	5719	5626	5719	5719	5719	5719	5719	5719	5719	5719	5719	5719	5626	5626	5626	5626	5719	5719	5719	5719	5719	5719	5719	5719	5719	5626	5626	5626	5626	5626	5626	5626	5626	5626	5626	5626	5626	5719	5626	5626	5626	5626	5626	5626	5626	5626	5626	5626	5626	5626	5719	5626	5719	5719	5719	5719	5719	5719	5626	5626	5626	5626	5626	5626	5626	5719	5719	5719	5719	5719	5719	5719	5719	5719	5719	5719	5719	5719	5719	5626	5719	5719	5719	5719	5719	5719	5719	5719	5719	5719	5815	5815	0	0	0	0	0	0	0	0	0	0	0	0	0	0	0	5535	5535	5535	5448	5535	5535	5535	5815	5815	0	0	0	0	0	0	0	0	0	0	0	0	0	0	0	0	0	0	0	0	0	0	0	0	0	0	0	0	0	5815	5815	5815	5815	5815	5815	5815	5815	5815	5815	5815	5815	5815	5815	5815	5815	5815	5815	5815	5719	5815	5815	5815	5815	5915	5915	5915	5915	5915	5915	5915	5915	5915	5915	5815	5815	5815	0	0	0	0	0	0	0	0	0	5915	5915	5915	5915	5915	5915	5815	5815	5815	5815	5719	5815	5815	5815	5815	5815	5915	5915	5915	5915	5815	5915	5915	5915	5815	5815	5815	5815	5815	5815	5815	5815	5815	5915	5915	5815	5815	5915	6018	5915	5915	5915	5815	5815	5815	5719	5719	5719	5719	5815	5815	5815	5815	5815	5815	5815	5719	5719	5626	5626	5626	5626	5535	5448	5364	5282	5202	5202	5202	5202	5202	5202	5202	5125	5050	5050	5050	5050	4977	4977	4977	5050	4977	4977	4906	4838	4771	4771	4706	4706	4706	4643	4706	4643	4581	4581	0	0	0	0	0	0	0	0	0	0	0	0	0	0	0	0	0	0	1413	1419	1413	1413	1413	1413	1419	1419	1413	1419	1419	1419	1413	1413	1413	1413	1431	1425	1425	1425	1425	1419	1413	1413	1407	1419	1402	1396	1396	1396	1413	1413	0	0	0	0	0	0	0	0	0	0	0	0	0	0	0	0	0	0	0	0	0	0	0	0	0	0	0	0	0	0	0	0	0	0	0	0	0	0	0	0	0
0	0	0	0	0	0	0	1363	1368	1402	1407	1413	1413	1425	1443	1449	1455	1461	1461	1461	1461	1480	1473	1480	1473	1480	1480	1512	1512	1506	1512	1532	1532	1532	1532	1539	1539	1546	1553	1560	1567	1567	1574	1581	1589	1589	1589	1589	0	0	0	0	0	0	0	0	0	0	0	0	0	0	0	0	0	0	0	0	0	0	1425	1437	1437	1443	1443	1437	1443	1443	1443	1443	1443	1443	1449	1443	1443	1437	1437	1443	1443	1443	1443	1449	1461	1467	1473	1473	1480	1486	1492	1506	1512	1519	1519	1519	1525	1539	1546	1553	1553	1560	1560	1567	1574	1589	1589	1589	1589	1596	1603	1603	1603	1603	1603	1603	1657	1657	1657	1657	1665	1665	1665	0	0	0	0	0	0	0	0	0	0	0	0	0	0	0	0	0	0	0	0	5535	5535	5815	5815	5815	5815	5815	0	5815	5815	5719	5535	5535	5535	5535	5535	5535	0	0	0	0	0	5719	5626	5626	5535	5626	5626	5626	5535	5626	5626	5626	5719	5626	5626	5626	5626	5626	5626	5535	5535	0	0	0	0	0	0	0	5448	5535	5626	5719	5719	5815	5719	5719	5719	5626	5626	5719	5626	5719	5719	5719	5719	5815	5815	5719	5719	5626	5626	5626	5626	5626	5626	5626	5626	5626	5626	5626	5626	5626	5626	5626	5626	5626	5626	5626	5626	5626	5626	5535	5626	5535	5626	5626	5626	5626	5626	5626	5626	5626	5626	5626	5719	5719	5626	5626	5626	5719	5719	5719	5719	5719	5719	5815	5815	5815	5815	5719	5815	5719	5719	5626	5626	5626	5719	5719	5719	5719	5719	5719	5719	5719	5719	5719	5626	5626	5626	5626	5626	5626	5626	5626	5626	5626	5626	5719	5626	5626	5626	5626	5626	5626	5626	5626	5719	5719	5719	5719	5719	5719	5719	5719	5719	5719	5719	5719	5626	5626	5626	5626	5626	5626	5719	5719	5719	5719	5719	5719	5719	5719	5719	5719	5719	5719	5719	5719	5719	5626	5719	5719	5719	5719	5719	5719	5719	5815	5815	5815	5815	5815	0	0	0	0	0	0	0	0	0	0	0	0	0	0	0	5535	5448	5448	5448	5535	5535	5535	0	0	0	0	0	0	0	0	0	0	0	0	0	0	0	0	0	0	0	0	0	0	0	0	0	0	0	0	0	0	5815	5815	5815	5815	5815	5815	5815	5719	5719	5815	5815	5815	5815	5815	5815	5815	5815	5815	5815	5815	5815	5815	5815	5815	5815	5915	5915	5915	5915	5915	5915	5915	5915	5915	5915	5915	5815	5815	0	0	0	0	0	0	0	0	5915	5915	6018	5915	5915	5915	5915	5915	5915	5915	5815	5815	5815	5815	5915	5815	5815	5915	5915	5915	5915	5815	5915	5915	5915	5815	5915	5815	5915	5915	5915	5915	5915	5915	5915	5915	5915	5915	6018	6018	5915	5915	5915	5915	5815	5815	5815	5719	5719	5815	5815	5815	5815	5815	5719	5815	5719	5719	5719	5626	5626	5626	5626	5535	5535	5364	5282	5202	5202	5202	5202	5202	5202	5202	5202	5125	5125	5050	5050	4977	4977	4977	5050	4977	4906	4838	4838	4771	4771	4706	4706	4706	4643	4643	4643	4581	4581	0	0	0	0	0	0	0	0	0	0	0	0	0	0	0	0	0	1419	1419	1419	1419	1413	1413	1413	1413	1413	1413	1413	1413	1413	1413	1413	1407	1407	1431	1431	1431	1425	1425	1419	1419	1407	1402	1402	1396	1396	1396	1413	1413	1413	0	0	0	0	0	0	0	0	0	0	0	0	0	0	0	0	0	0	0	0	0	0	0	0	0	0	0	0	0	0	0	0	0	0	0	0	0	0	0	0	0
0	0	0	0	0	0	0	1363	1363	1402	1413	1413	1419	1431	1431	1449	1455	1461	1455	1461	1461	1480	1467	1473	1480	1480	1486	1486	1492	1499	1512	1532	1539	1532	1539	1539	1539	1546	1553	1560	1560	1567	1574	1581	1589	1589	1596	1596	1596	0	0	0	0	0	0	0	0	0	0	0	0	0	0	0	0	0	0	0	0	0	1419	1431	1437	1443	1437	1443	1443	1443	1443	1443	1443	1443	1449	1443	1443	1443	1443	1443	1443	1449	1443	1443	1455	1461	1467	1467	1473	1486	1492	1506	1512	1512	1512	1519	1525	1525	1546	1553	1560	1567	1567	1567	1581	1589	1596	1589	1596	1596	1603	1603	1603	1611	1611	1611	1657	1657	1657	1657	1665	1665	1665	0	0	0	0	0	0	0	0	0	0	0	0	0	0	0	0	0	0	0	0	5535	5535	0	0	5915	5915	5815	0	0	5815	5719	5535	5535	5535	5535	5535	5535	0	0	0	0	0	5719	5719	5626	5535	5535	5626	5719	5626	5719	5719	5719	5815	5719	5626	5719	5626	5626	5626	5535	5626	5535	5535	0	0	0	0	0	5448	5626	5719	5815	5815	5815	5719	5915	5719	5719	5626	5719	5815	5719	5719	5719	5719	5815	5815	5719	5719	5626	5626	5626	5626	5626	5535	5626	5626	5626	5626	5626	5719	5719	5719	5719	5626	5626	5626	5535	5535	5626	5626	5535	5626	5626	5626	5626	5626	5626	5626	5626	5719	5626	5626	5626	5719	5719	5626	5719	5626	5719	5626	5626	5626	5719	5719	5815	5815	5815	5815	5815	5815	5719	5719	5626	5626	5626	5719	5719	5719	5719	5815	5815	5815	5719	5719	5719	5626	5626	5626	5626	5626	5626	5626	5626	5719	5626	5626	5626	5719	5719	5626	5626	5626	5626	5626	5626	5719	5719	5719	5719	5719	5719	5719	5719	5719	5719	5719	5626	5626	5626	5626	5719	5719	5719	5719	5719	5719	5719	5719	5719	5719	5719	5719	5719	5719	5719	5719	5719	5719	5719	5719	5719	5719	5719	5815	5719	5815	5815	5815	5815	5815	5815	0	0	0	0	0	0	0	0	0	0	0	0	0	0	0	5535	5448	5448	5448	5535	5535	5535	0	0	0	0	0	0	0	0	0	0	0	0	0	0	0	0	0	0	0	0	0	0	0	0	0	0	0	0	5448	5719	5719	5815	5815	5815	5815	5815	5815	5815	5815	5815	5815	5815	5815	5815	5815	5815	5815	5815	5815	5815	5719	5815	5815	5815	5815	5915	5915	5915	5915	5915	5915	5915	5915	6018	6018	5915	5915	5915	0	0	0	0	0	0	0	6018	6018	6018	6018	5915	5915	5915	5915	5915	5915	5915	5815	5815	5815	5915	5915	5815	5815	5915	5915	5915	5915	5815	5915	5915	5915	5815	5915	5915	5915	5915	5915	6018	6018	6018	6018	6018	5915	5915	6018	6018	5915	5915	5815	5815	5815	5915	5915	5815	5915	5915	5815	5815	5815	5719	5719	5719	5719	5626	5626	5626	5626	5626	5626	5535	5535	5364	5364	5282	5282	5282	5282	5282	5202	5202	5202	5125	5125	5050	5050	5050	5050	5050	4977	4977	4906	4906	4838	4838	4771	4771	4706	4706	4643	4643	4643	4581	4581	0	0	0	0	0	0	0	0	0	0	0	0	0	0	1437	1431	1425	1419	1419	1419	1413	1413	1413	1407	1413	1413	1413	1413	1413	1413	1413	1413	1407	1425	1425	1431	1425	1425	1425	1419	1402	1402	1396	1396	1396	1396	1396	1413	1419	1419	0	0	0	0	0	0	0	0	0	0	0	0	0	0	0	0	0	0	0	0	0	0	0	0	0	0	0	0	0	0	0	0	0	0	0	0	0	0	0	0	0
0	0	0	0	0	0	0	1363	1368	1402	1413	1419	1419	1431	1431	1455	1461	1461	1455	1461	1461	1461	1467	1480	1480	1480	1486	1486	1492	1499	1512	1539	1539	1539	1539	1539	1539	1546	1560	1567	1567	1567	1581	1581	1589	1596	1603	1603	1611	1611	0	0	0	0	0	0	0	0	0	0	0	0	0	0	0	0	0	0	0	1425	1419	1437	1443	1455	1455	1443	1461	1455	1443	1443	1443	1443	1449	1449	1443	1443	1443	1443	1449	1455	1443	1449	1461	1467	1467	1467	1473	1480	1486	1499	1506	1512	1512	1519	1525	1539	1546	1553	1560	1567	1567	1567	1581	1589	1596	1589	1589	1589	1603	1603	1603	1611	1611	1611	1657	1657	1657	1657	1657	1681	1681	1681	0	0	0	0	0	0	0	0	0	0	0	0	0	0	0	0	0	0	0	0	0	0	0	5915	5915	0	0	0	5815	5719	5626	5535	5535	5535	5535	5535	0	0	0	0	0	5719	5719	5626	5535	5626	5626	5719	5719	5719	5719	5719	5815	5719	5719	5719	5719	5626	5626	5626	5626	5626	5535	5535	0	0	5535	5535	5535	5626	5719	5815	5815	5815	5915	5915	5915	5815	5719	5719	5815	5719	5815	5815	5815	5815	5815	5815	5719	5626	5626	5626	5626	5626	5626	5626	5626	5626	5626	5626	5719	5719	5719	5719	5719	5626	5626	5626	5626	5626	5626	5535	5626	5626	5626	5626	5626	5719	5719	5719	5719	5719	5719	5626	5719	5719	5719	5719	5719	5719	5719	5719	5719	5719	5815	5915	5915	5915	5915	5915	5815	5719	5719	5719	5719	5719	5719	5719	5719	5719	5719	5815	5719	5719	5719	5719	5719	5626	5626	5626	5626	5719	5719	5719	5719	5719	5719	5719	5719	5719	5719	5719	5719	5719	5719	5719	5719	5719	5719	5719	5719	5719	5719	5719	5719	5719	5719	5719	5626	5626	5719	5719	5719	5719	5719	5719	5815	5719	5719	5719	5719	5719	5719	5719	5719	5719	5719	5719	5719	5719	5719	5719	5719	5719	5815	5815	5815	5815	5815	5815	5815	5815	0	0	0	0	0	0	0	0	0	0	0	0	0	0	0	0	5448	5448	5448	5535	5535	5535	0	0	0	0	0	0	0	0	0	0	0	0	0	0	0	0	0	0	0	0	0	0	0	0	0	0	0	5626	5626	5815	5815	5815	5815	5815	5915	5915	5815	5815	5815	5815	5815	5915	5815	5915	5915	5815	5815	5815	5815	5815	5815	5815	5815	5815	5915	6018	5915	5915	6018	6018	6018	6018	5915	6018	6018	5915	5915	5915	0	0	0	0	0	0	6018	6018	6018	6018	6018	6018	6018	5915	5915	5915	5915	5915	5915	5815	5915	5915	5915	5915	5915	5915	5915	5915	5915	5815	5915	5915	5915	5815	5915	5915	5915	5915	6018	6018	6018	6018	6018	6018	6018	6018	6018	6124	6018	6018	5915	5915	6018	6018	5915	5915	6018	6018	6018	5915	5815	5815	5719	5719	5719	5626	5719	5626	5626	5626	5626	5535	5364	5364	5282	5282	5202	5202	5282	5282	5282	5202	5202	5125	5202	5050	5050	5125	5050	5050	4977	4906	4838	4838	4838	4771	4771	4706	4706	4706	4706	4706	4643	0	0	0	0	0	0	0	0	0	0	0	0	0	0	0	1431	1431	1425	1425	1425	1419	1419	1419	1413	1413	1407	1413	1413	1413	1413	1413	1413	1413	1407	1407	1407	1431	1431	1413	1431	1413	1407	1402	1396	1396	1396	1396	1396	1396	1396	1413	1413	0	0	0	0	0	0	0	0	0	0	0	0	0	0	0	0	0	0	0	0	0	0	0	0	0	0	0	0	0	0	0	0	0	0	0	0	0	0	0	0	0
0	0	0	0	0	0	0	1363	1368	1407	1413	1419	1425	1431	1431	1437	1455	1461	1455	1455	1455	1461	1461	1467	1473	1473	1480	1486	1492	1499	1512	1532	1532	1525	1539	1532	1539	1546	1553	1567	1567	1574	1574	1589	1589	1596	1603	1603	1618	1618	0	0	0	0	0	0	0	0	0	0	0	0	0	0	0	0	0	0	0	1425	1437	1437	1437	1455	1455	1455	1461	1461	1443	1443	1443	1443	1449	1443	1455	1455	1455	1443	1467	1473	1473	1473	1473	1473	1473	1473	1480	1486	1492	1506	1512	1512	1512	1519	1519	1532	1546	1560	1560	1567	1567	1567	1574	1574	1589	1589	1589	1589	1603	1603	1603	1618	1618	1618	0	1657	1657	1649	1649	1657	1649	1634	1634	0	0	0	0	0	0	0	0	0	0	0	0	0	0	0	0	0	0	0	0	0	0	0	0	0	0	0	0	5719	5626	5535	5535	5535	5535	5535	0	0	0	0	0	0	0	0	5535	5626	5719	5719	5719	5719	5815	5815	5815	5719	5719	5815	5719	5719	5719	5626	5719	5626	5535	5535	5535	0	5535	5535	5535	5626	5626	5719	5719	5815	5815	5915	5915	5915	5815	5815	5815	5815	5815	5815	5815	5815	5815	5815	5719	5719	5626	5626	5626	5626	5626	5626	5626	5626	5626	5719	5719	5719	5815	5719	5719	5719	5719	5626	5626	5626	5626	5626	5626	5626	5719	5719	5719	5719	5719	5815	5815	5815	5719	5719	5719	5815	5719	5719	5719	5719	5719	5719	5719	5719	5915	5915	5915	5915	5915	5915	5815	5719	5719	5719	5719	5719	5719	5719	5815	5815	5815	5815	5815	5719	5719	5719	5719	5719	5719	5626	5719	5719	5719	5719	5719	5719	5719	5815	5815	5719	5719	5719	5719	5719	5719	5719	5719	5719	5719	5719	5719	5719	5719	5719	5815	5815	5719	5719	5626	5626	5626	5719	5719	5815	5815	5815	5815	5815	5815	5815	5719	5719	5719	5815	5719	5719	5719	5719	5719	5719	5719	5719	5815	5815	5815	5815	5815	5815	5915	5915	5915	5815	0	0	0	0	0	0	0	0	0	0	0	0	0	0	0	0	0	5448	5448	5535	5535	0	0	0	0	0	0	0	0	0	0	0	0	0	0	0	0	0	0	0	0	0	0	0	0	0	0	0	0	5719	5815	5815	5815	5815	5915	5915	5915	5915	5915	5815	5815	5815	5915	5915	5815	5915	5915	5815	5815	5815	5815	5815	5815	5815	5815	5815	5815	5915	5915	5915	6018	6018	6018	6018	6018	6018	6018	6018	5915	5915	0	0	0	0	6018	6018	6018	6018	6018	6018	6018	6018	6018	5915	5915	5915	5915	5915	5915	5915	6018	6018	5915	5915	5915	5915	5915	5915	5915	5815	5815	5815	5815	5815	5915	5915	5915	5915	6018	6018	6018	6018	6018	6018	6018	6018	6124	6124	6124	6018	6018	6018	6018	6018	6018	6018	6018	6018	5915	5915	5815	5719	5719	5719	5719	5626	5626	5626	5626	5626	5535	5535	5364	5364	5282	5282	5282	5202	5282	5282	5282	5202	5202	5125	5125	5050	5125	5125	5050	5050	4977	4977	4977	4977	4906	4771	4771	4771	4771	4706	4706	4706	0	0	0	0	0	0	0	0	0	0	0	0	0	0	0	1437	1437	1437	1431	1425	1425	1425	1419	1419	1413	1413	1413	1413	1413	1413	1413	1413	1413	1413	1407	1407	1407	1431	1413	1407	1413	1413	1407	1402	1396	1396	1396	1396	1396	1396	1396	1413	1413	0	0	0	0	0	0	0	0	0	0	0	0	0	0	0	0	0	0	0	0	0	0	0	0	0	0	0	0	0	0	0	0	0	0	0	0	0	0	0	0	0
0	0	0	0	0	0	0	1368	1407	1407	1407	1413	1419	1431	1431	1437	1455	1455	1449	1455	1455	1461	1461	1467	1467	1473	1480	1486	1492	1499	1506	1519	1539	1525	1532	1532	1539	1546	1553	1560	1567	1574	1581	1589	1596	1596	1603	1611	1611	1611	1611	0	0	0	0	0	0	0	0	0	0	0	0	0	0	0	0	0	0	1407	1419	1425	1431	1449	1455	1455	1461	1461	1461	1443	1449	1443	1455	1461	1461	1461	1461	0	1467	1473	1473	1473	1480	1480	1480	1480	1486	1492	1492	1506	1512	1512	1512	1512	1519	1532	1539	1560	1560	1567	1567	1567	1574	1574	1581	1574	1581	1581	1596	1603	1603	1618	1618	1618	1618	1618	1618	1626	1618	1618	1626	1626	1634	0	0	0	0	0	0	0	0	0	0	0	0	0	0	0	0	0	0	0	0	0	0	0	0	0	0	0	0	0	0	0	0	0	0	0	0	0	0	0	0	0	0	0	0	0	5719	5719	5719	5719	5719	5719	5815	5719	5719	5815	5719	5719	5719	5719	5719	5626	5626	5535	5535	5535	5535	5535	5535	5535	5626	5719	5719	5815	5719	5815	5815	5815	5815	5719	5815	5815	5815	5815	5815	5815	5915	5815	5719	5719	5719	5719	5626	5626	5626	5626	5626	5626	5626	5719	5719	5719	5815	5719	5815	5719	5719	5626	5719	5626	5626	5626	5626	5626	5719	5719	5719	5719	5719	5719	5815	5815	5815	5719	5815	5815	5815	5815	5719	5719	5719	5719	5815	5815	5915	5915	5915	5915	5915	5915	5815	5815	5815	5719	5719	5719	5719	5719	5815	5719	5719	5815	5815	5815	5719	5719	5719	5719	5719	5719	5719	5719	5719	5719	5719	5719	5719	5815	5815	5719	5719	5719	5719	5719	5719	5719	5719	5719	5719	5719	5719	5719	5719	5815	5815	5815	5719	5719	5719	5719	5719	5815	5719	5815	5815	5815	5815	5815	5815	5815	5719	5719	5815	5719	5719	5719	5719	5719	5719	5719	5815	5815	5815	5815	5815	5815	5815	5815	5915	5915	5915	0	0	0	0	0	0	0	0	0	0	0	0	0	0	0	0	0	0	0	0	0	0	0	0	0	0	0	0	0	0	0	0	0	0	0	0	0	0	0	0	0	0	0	0	0	0	0	0	0	0	5815	5815	5915	5915	5915	5915	5915	5915	5915	5915	5815	5915	5915	5915	5915	5915	5915	5915	5815	5815	5815	5815	5815	5815	5815	5815	5915	5915	6018	6018	6018	6018	6018	6018	6018	6018	6018	6018	5915	5915	6018	6018	0	0	0	6018	6018	6018	6018	6018	6018	6018	6018	6018	5915	5915	5915	5915	5915	6018	5915	6018	6018	6018	6018	5915	5915	5915	5915	5915	5915	5815	5815	5815	5815	5815	5915	5915	5915	6018	6018	6018	6018	6018	6018	6018	6018	6124	6124	6018	6018	6018	6018	6124	6018	6018	6018	6018	6018	6018	5915	5815	5815	5719	5719	5719	5719	5626	5626	5626	5626	5535	5535	5364	5364	5282	5282	5282	5282	5282	5282	5282	5202	5202	5125	5202	5050	5125	5050	5050	5050	4977	4977	4906	4906	4838	4771	4906	4906	4906	0	0	0	0	0	0	0	0	0	0	0	0	0	0	0	0	0	0	1437	1431	1437	1431	1425	1425	1425	1419	1419	1413	1413	1413	1413	1413	1407	1413	1413	1413	1413	1407	1407	1407	1413	1413	1413	1413	1413	1407	1402	1402	1396	1396	1396	1396	1396	1396	1402	1402	0	0	0	0	0	0	0	0	0	0	0	0	0	0	0	0	0	0	0	0	0	0	0	0	0	0	0	0	0	0	0	0	0	0	0	0	0	0	0	0	0
0	0	0	0	0	0	0	1374	1402	1407	1407	1413	1419	1431	1425	1431	1437	1443	1449	1455	1455	1461	1467	1473	1467	1473	1480	1480	1486	1492	1506	1532	1539	1539	1539	1539	1539	1539	1553	1560	1567	1574	1581	1589	1596	1596	1603	1611	1611	1611	1618	1618	0	0	0	0	0	0	0	0	0	0	0	0	0	0	0	0	0	1407	1413	1419	1425	1443	1449	1449	1455	1455	1449	1443	1443	1443	1443	1455	1461	1467	1467	1467	0	0	0	0	1480	1486	1480	1480	1486	1486	1492	1499	1506	1506	1512	1512	1519	1525	1539	1553	1560	1560	1560	1567	1567	1567	1574	1574	1574	1574	1596	1603	1603	1618	1618	1618	1618	1618	1611	1626	1626	1618	1626	1626	1626	1626	0	0	0	0	0	0	0	0	0	0	0	0	0	0	0	0	0	0	0	0	0	0	0	0	0	0	0	0	0	0	0	0	0	0	0	0	0	0	0	0	0	0	0	0	0	5815	5815	5719	5719	5815	5815	5815	5815	5815	5815	5815	5815	5815	5719	5719	5626	5626	5626	5626	5626	5626	5535	5626	5626	5719	5719	5815	5815	5815	5815	5815	5815	5815	5815	5815	5815	5915	5815	5815	5915	5815	5815	5719	5719	5719	5719	5626	5626	5626	5719	5719	5719	5719	5719	5719	5815	5815	5815	5815	5815	5719	5719	5626	5626	5626	5626	5626	5626	5719	5719	5815	5719	5815	5815	5815	5915	5815	5815	5915	5815	5815	5815	5719	5719	5719	5815	5815	5815	5815	5915	5915	5915	5915	5815	5815	5815	5719	5719	5719	5719	5719	5915	5815	5719	5915	5815	5815	5719	5719	5719	5719	5719	5626	5719	5719	5719	5719	5719	5719	5815	5815	5815	5719	5719	5719	5719	5719	5815	5719	5719	5815	5719	5719	5719	5719	5719	5815	5815	5815	5815	5815	5815	5815	5815	5815	5719	5815	5815	5815	5815	5815	5719	5815	5719	5719	5815	5815	5815	5719	5719	5719	5815	5719	5815	5815	5815	5815	5815	5815	5815	5915	5915	6018	6018	0	0	0	0	0	0	0	0	0	0	0	0	0	0	0	0	0	0	0	0	0	0	0	0	0	0	0	0	0	0	0	0	0	0	0	0	0	0	0	0	0	0	0	0	0	0	0	0	0	0	5915	5915	6018	6018	5915	5915	5915	5915	5915	5915	5915	5915	5915	5915	5915	5915	5915	5915	5915	5915	5915	5815	5815	5815	5815	5915	5915	5915	6018	6018	6018	6018	6018	6018	6018	6018	6018	6018	5915	5915	6018	6018	6018	6018	6018	6018	6018	6018	6018	6018	6018	5915	5915	5915	5915	5915	5915	5915	6018	6018	6018	6018	6018	6018	6018	5915	6018	6018	5915	5915	5915	5815	5815	5815	5915	5915	6018	5915	5915	6018	6018	6018	6018	6018	6018	6018	6018	6124	6124	6018	6018	6018	6018	6124	6124	6124	6018	6018	6018	6018	6018	5815	5815	5719	5719	5719	5626	5626	5626	5626	5535	5535	5448	5448	5364	5364	5282	5282	5282	5282	5282	5282	5282	5202	5202	5202	5050	5125	5050	5050	4977	4977	4906	4906	4906	4771	4771	4771	4771	4906	0	0	0	0	0	0	0	0	0	0	0	0	0	0	0	0	0	1437	1437	1431	1437	1431	1425	1425	1425	1419	1419	1419	1413	1413	1413	1413	1407	1413	1413	1413	1413	1413	1413	1419	1419	1413	1413	1413	1413	1407	1413	1402	1396	1396	1396	1402	1402	1413	1413	1413	0	0	0	0	0	0	0	0	0	0	0	0	0	0	0	0	0	0	0	0	0	0	0	0	0	0	0	0	0	0	0	0	0	0	0	0	0	0	0	0	0
0	0	0	0	0	0	0	1374	1379	1407	1407	1407	1419	1425	1419	1425	1431	1437	1449	1455	1455	1461	1467	1473	1473	1480	1480	1486	1486	1492	1506	1519	1525	1525	1532	1532	1539	1539	1553	1560	1567	1574	1581	1589	1596	1596	1603	1611	1611	1611	1618	1618	0	0	0	0	0	0	0	0	0	0	0	0	0	0	0	0	0	1407	1419	1425	1425	1437	1449	1455	1455	1455	1443	1443	1443	1443	1443	1455	1461	1467	1467	1467	0	0	0	0	1480	1486	1480	1480	1486	1492	1492	1499	1512	1512	1512	1512	1519	1525	1539	1553	1553	1560	1560	1560	1567	1567	1574	1574	1574	1574	1574	1618	1611	1618	1618	1618	1618	1618	1611	1626	1626	1626	1626	1626	1634	1634	0	0	0	0	0	0	0	0	0	0	0	0	0	0	0	0	0	0	0	0	0	0	0	0	0	0	0	0	0	0	0	0	0	0	0	0	0	0	0	0	0	0	0	0	0	5815	5815	5719	5719	5815	5815	5815	5815	5815	5815	5815	5815	5815	5815	5719	5719	5719	5626	5626	5626	5626	5626	5626	5626	5719	5719	5719	5815	5815	5815	5815	5815	5815	5815	5815	5815	5915	5915	5915	5915	5815	5815	5719	5719	5719	5719	5719	5719	5719	5719	5719	5719	5815	5815	5815	5815	5815	5815	5815	5815	5719	5719	5719	5719	5626	5626	5719	5719	5719	5719	5815	5719	5815	5815	5815	5915	5915	5915	6018	5915	5915	5915	5815	5815	5815	5815	5815	5915	5915	5915	5915	5915	5915	5915	5815	5815	5815	5815	5815	5719	5719	5815	5815	5815	5815	5815	5815	5815	5815	5815	5719	5719	5719	5719	5719	5719	5719	5719	5719	5815	5815	5815	5815	5815	5815	5815	5815	5815	5815	5815	5815	5815	5815	5815	5719	5719	5815	5815	5915	5915	5815	5815	5815	5815	5815	5815	5815	5815	5719	5815	5815	5719	5815	5815	5815	5815	5815	5815	5719	5815	5815	5815	5815	5815	5815	5915	5815	5915	5915	5915	5915	6018	6018	6018	0	0	0	0	0	0	0	0	0	0	0	0	0	0	0	0	0	0	0	0	0	0	0	0	0	0	0	0	0	0	0	0	0	0	0	0	0	0	0	0	0	0	0	0	0	0	0	0	0	0	5915	6018	6018	6018	6018	5915	5915	5915	5915	5915	5915	5915	5915	5915	5915	5915	5915	5915	5915	5915	5915	5815	5815	5815	5815	5915	5915	5915	6018	6018	6018	6018	6018	6018	6018	6018	6018	6018	5915	5915	6018	5915	6018	6124	6018	6018	6018	6018	6018	6018	6018	6018	6018	6018	6018	6018	6018	6018	6018	6018	6018	6018	6018	6018	6018	6018	6018	6018	6018	6018	6018	5915	6018	6018	6018	5915	6018	6018	6018	6018	6018	6124	6018	6018	6018	6018	6018	6124	6124	6018	6018	6018	6124	6124	6124	6124	6124	6124	6018	6018	6018	5815	5815	5719	5719	5719	5626	5626	5626	5626	5626	5535	5535	5535	5448	5364	5364	5282	5282	5282	5282	5282	5282	5202	5125	5125	5050	5050	5050	5050	4977	4977	4906	4838	4838	4771	4771	4771	4771	0	0	0	0	0	0	0	0	0	0	0	0	0	0	0	0	0	0	1437	1437	1431	1437	1431	1425	1425	1425	1425	1425	1419	1419	1419	1419	1413	1413	1413	1413	1413	1413	1419	1413	1413	1419	1413	1413	1413	1413	1407	1413	1413	1402	1396	1396	1402	1402	1413	1413	1413	0	0	0	0	0	0	0	0	0	0	0	0	0	0	0	0	0	0	0	0	0	0	0	0	0	0	0	0	0	0	0	0	0	0	0	0	0	0	0	0	0
0	0	0	0	0	0	0	1379	1402	1407	1407	1413	1419	1425	1425	1431	1431	1437	1449	1455	1455	1461	1467	1473	1473	1480	1480	1486	1486	1492	1499	1512	1539	1532	1546	1546	1546	1546	1560	1560	1567	1581	1581	1589	1596	1596	1611	1618	1611	1611	1618	1618	1618	0	0	0	0	0	0	0	0	0	0	0	0	0	0	0	0	1425	1425	1425	1425	1437	1443	1455	1455	1449	1449	1443	1443	1443	1449	1455	1461	1467	1467	1467	1467	0	0	0	1486	1486	1480	1486	1486	1492	1499	1506	1512	1512	1512	1519	1519	1525	1532	1553	1553	1560	1560	1560	1560	1560	1567	1574	1567	1567	1626	1618	1611	1611	1618	1618	1618	1618	1618	1618	1626	1634	1634	1634	1634	1634	0	0	0	0	0	0	0	0	0	0	0	0	0	0	0	0	0	0	0	0	0	0	0	0	0	0	0	0	0	0	0	0	0	0	0	0	0	0	0	0	0	0	0	0	0	0	5815	5719	5815	5815	5815	5815	5815	5815	5815	5915	5815	5815	5815	5815	5719	5719	5626	5626	5626	5626	5626	5626	5626	5719	5719	5719	5815	5815	5815	5915	5915	5815	5815	5915	5915	5915	5915	5915	5915	5815	5815	5719	5719	5719	5719	5719	5815	5815	5815	5815	5815	5815	5815	5815	5815	5815	5815	5815	5815	5815	5815	5815	5719	5815	5815	5719	5815	5815	5815	5815	5815	5815	5815	5815	5915	5915	5915	6018	5915	5915	5915	5915	5915	6018	5915	5915	5915	5915	5915	5915	5915	5915	5815	5815	5815	5815	5815	5815	5815	5719	5719	5815	5815	5915	5915	5815	5815	5815	5815	5719	5719	5719	5719	5719	5719	5719	5719	5719	5815	5815	5815	5815	5815	5815	5815	5815	5915	5815	5815	5815	5815	5815	5815	5719	5719	5815	5815	5815	5915	5815	5719	5719	0	5815	5815	5815	5815	5719	5815	5815	5815	5815	5815	5815	5815	5815	5815	5815	5815	5815	5815	5815	5815	5815	5915	5815	5915	5815	5815	5915	6018	6124	6124	0	0	0	0	0	0	0	0	0	0	0	0	0	0	0	0	0	0	0	0	0	0	0	0	0	0	0	0	0	0	0	0	0	0	0	0	0	0	0	0	0	0	0	0	0	0	0	0	0	0	0	6124	6124	6018	6018	6018	5915	5915	5915	5915	5915	5915	5915	5915	5915	5915	5915	5915	5915	5915	5915	5815	5915	5915	5915	5915	5915	5915	6018	6018	6018	6018	6018	6018	6018	6018	6018	6018	5915	5915	5915	5915	6018	6124	6018	6018	6124	6018	6018	6018	6018	6018	6018	6018	6018	6018	6018	6018	6018	6018	6018	6018	6018	6018	6018	6018	6018	6018	6018	6018	6018	6018	6018	6018	6018	6018	6018	6018	6018	6018	6124	6124	6124	6018	6018	6018	6018	6124	6124	6124	6124	6124	6124	6124	6124	6124	6018	6018	6018	6018	5915	5815	5719	5815	5719	5719	5719	5719	5626	5626	5626	5535	5535	5448	5448	5364	5282	5282	5282	5282	5364	5364	5364	5202	5125	5125	5050	5050	5050	5050	4977	4838	4838	4838	4838	4771	4706	4706	4771	0	0	0	0	0	0	0	0	0	0	0	0	0	0	0	0	1443	1443	1437	1437	1431	1431	1431	1419	1419	1419	1419	1425	1425	1419	1419	1419	1413	1413	1413	1413	1413	1413	1419	1413	1419	1419	1419	1413	1413	1413	1413	1413	1407	1402	1402	1402	1407	1402	1413	1413	1413	0	0	0	0	0	0	0	0	0	0	0	0	0	0	0	0	0	0	0	0	0	0	0	0	0	0	0	0	0	0	0	0	0	0	0	0	0	0	0	0	0
0	0	0	0	0	0	0	1385	1396	1407	1407	1413	1419	1425	1425	1425	1431	1461	1461	1455	1455	1461	1461	1467	1473	1480	1480	1486	1486	1492	1499	1512	1519	1525	1546	1546	1553	1553	1560	1567	1567	1574	1581	1581	1589	1596	1603	1611	1611	1611	1618	1618	1618	1618	0	0	0	0	0	0	0	0	0	0	0	0	0	0	0	1425	1425	1425	1425	1437	1443	1449	1449	1449	1449	1449	1449	1449	1449	1455	1461	1467	1467	1467	1467	0	0	0	1486	1486	1486	1486	1486	1506	1506	1512	1512	1512	1512	1519	1519	1525	1532	1546	1553	1553	1553	1560	1560	1567	1567	1567	1574	1574	1574	1618	1618	1634	1634	1634	1634	1634	1626	1634	1641	1634	1649	1641	1641	1641	0	0	0	0	0	0	0	0	0	0	0	0	0	0	0	0	0	0	0	0	0	0	0	0	0	0	0	0	0	0	0	0	0	0	0	0	0	0	0	0	0	0	0	0	0	0	5815	5719	5815	5815	5815	5815	5915	5915	5915	5915	5915	5915	5815	5815	5815	5719	5719	5626	5719	5626	5626	5626	5626	5719	5719	5719	5815	5915	5915	5915	5915	5915	5915	5915	5915	5915	5915	5915	5915	5815	5815	5719	5719	5815	5815	5815	5815	5815	5815	5815	5815	5815	5815	5815	5815	5815	5815	5815	5815	5815	5815	5815	5815	5815	5815	5719	5719	5719	5719	5815	5815	5815	5815	5915	5915	5915	5915	6018	5915	5915	5915	5915	5915	5915	5815	5815	5915	5815	5915	5815	5815	5815	5815	5815	5815	5815	5815	5815	5815	5815	5815	5815	5815	5815	5815	5815	5815	5815	5815	5815	5719	5815	5719	5815	5719	5815	5719	5815	5815	5815	5815	5815	5815	5915	5915	5915	5915	5915	5915	5915	5815	5815	5815	5815	5719	5815	5915	5915	6018	5915	5915	5719	0	0	0	0	5815	5815	5815	5815	5815	5815	5815	5815	5915	5815	5815	5815	5915	5815	5915	5915	5915	5915	5915	5915	5915	5815	5815	5915	6018	6124	6124	0	0	0	0	0	0	0	0	0	0	0	0	0	0	0	0	0	0	0	0	0	0	0	0	0	0	0	0	0	0	0	0	0	0	0	0	0	0	0	0	0	0	0	0	0	0	0	0	0	0	0	6124	6124	6018	6018	6018	5915	5915	5915	5915	5915	5915	6018	6018	6018	6018	6018	5915	5915	5915	5915	5815	5915	5915	5915	5915	5915	5915	6018	6018	6018	6018	6018	6018	6018	6018	6018	6018	5915	5915	6018	6018	6124	6235	6124	6124	6124	6124	6124	6124	6124	6124	6124	6124	6235	6124	6018	6018	6018	6018	6018	6018	6124	6124	6124	6018	6018	6018	6124	6018	6018	6124	6018	6018	6124	6018	6018	6018	6018	6124	6124	6124	6124	6018	6018	6018	6018	6124	6124	6124	6124	6124	6124	6124	6124	6124	6124	6124	6018	6018	5915	5815	5719	5815	5719	5719	5719	5719	5626	5626	5535	5535	5535	5448	5448	5364	5364	5364	5364	5364	5364	5364	5364	5282	5202	5125	5050	5050	5050	4977	4977	4838	4838	4771	4771	4771	4706	4706	0	0	0	0	0	0	0	0	0	0	0	0	0	0	0	0	1443	1443	1443	1437	1437	1431	1431	1431	1419	1419	1419	1419	1425	1431	1425	1425	1425	1419	1413	1419	1419	1419	1413	1413	1413	1419	1419	1413	1413	1413	1413	1413	1413	1413	1407	1407	1413	1413	1407	1407	1407	1407	0	0	0	0	0	0	0	0	0	0	0	0	0	0	0	0	0	0	0	0	0	0	0	0	0	0	0	0	0	0	0	0	0	0	0	0	0	0	0	0	0
0	0	0	0	0	0	0	1390	1402	1407	1407	1413	1449	1455	1455	1455	1461	1461	1461	1455	1461	1461	1461	1467	1467	1473	1473	1486	1486	1492	1499	1506	1512	1519	1546	1553	1553	1560	1560	1567	1567	1574	1581	1589	1589	1596	1596	1603	1611	1611	1611	1618	1618	1618	0	0	0	0	0	0	0	0	0	0	0	0	0	0	1431	1431	1431	1431	1431	1437	1443	1449	1461	1461	1461	1455	1455	1455	1449	1467	1473	1467	1467	1467	0	0	0	0	1486	1492	1486	1492	1492	1499	1506	1506	1512	1512	1512	1512	1519	1525	1539	1546	1546	1560	1560	1560	1560	1567	1567	1574	1574	1574	1626	1626	1626	1634	1634	1634	1634	1634	1634	1634	1634	1634	1634	1641	1641	1641	0	0	0	0	0	0	0	0	0	0	0	0	0	0	0	0	0	0	0	0	0	0	0	0	0	0	0	0	0	0	0	0	0	0	0	0	0	0	0	0	0	0	0	0	0	0	0	0	5815	5815	5815	5915	5915	5915	5915	5915	5915	5915	5815	5815	5815	5719	5719	5626	5719	5626	5626	5626	5626	5719	5719	5719	5815	5915	5915	5915	5915	5915	5915	5915	5915	5915	5915	5915	5915	5815	5815	5815	5815	5815	5815	5815	5815	5915	5915	5915	5915	5915	5815	5815	5815	5815	5815	5815	5815	5815	5815	5815	5815	5915	5815	5719	5815	5719	5719	5815	5815	5815	5915	5915	5915	5915	5915	6018	5915	5915	5915	5915	5915	5915	5815	5915	5915	5915	5915	5915	5815	5815	5815	5815	5815	5815	5815	5815	5815	5815	5815	5815	5815	5815	5815	5815	5915	5915	5915	5915	5815	5815	5815	5815	5719	5815	5815	5815	5815	5815	5915	5915	5915	5815	5915	5915	5915	5915	5915	5915	5915	5815	5915	5815	5815	5915	5915	6018	6018	6018	6018	0	0	0	0	0	5815	5815	5815	5815	5815	5915	5915	5915	5915	5915	5915	5815	5915	5915	5915	5915	5915	5915	6018	5915	5915	5815	5815	5915	5915	5915	6124	0	0	0	0	0	0	0	0	0	0	0	0	0	0	0	0	0	0	0	0	0	0	0	0	0	0	0	0	0	0	0	0	0	0	0	0	0	0	0	0	0	0	0	0	0	0	0	0	0	6235	6124	6124	6124	6018	6018	6018	6018	6018	6018	6018	6018	6018	6018	6124	6124	6124	6018	6018	5915	5915	5915	5915	5915	5915	5915	5915	5915	5915	6018	6018	6018	6018	6018	6018	6018	6018	6018	6018	6018	6018	6018	6018	6124	6235	6124	6124	6124	6124	6124	6124	6124	6124	6124	6124	6235	6124	6124	6124	6124	6124	6124	6124	6124	6124	6124	6124	6018	6124	6124	6124	6124	6235	6124	6124	6124	6124	6124	6018	6124	6124	6124	6124	6124	6124	6124	6124	6124	6235	6235	6124	6124	6124	6124	6124	6124	6124	6124	6124	6018	6018	5915	5815	5719	5815	5815	5719	5719	5626	5626	5535	5535	5535	5448	5448	5448	5448	5364	5364	5364	5364	5364	5364	5364	5282	5202	5050	5050	5050	4977	4977	4906	4838	4838	4838	4771	4771	4706	4706	0	0	0	0	0	0	0	0	0	0	0	0	0	0	0	1443	1443	1443	1443	1437	1437	1431	1431	1431	1419	1419	1419	1419	1431	1431	1431	1425	1419	1419	1413	1419	1419	1419	1413	1413	1413	1419	1419	1413	1413	1413	1413	1413	1413	1407	1407	1407	1413	1413	1407	1407	1407	1407	0	0	0	0	0	0	0	0	0	0	0	0	0	0	0	0	0	0	0	0	0	0	0	0	0	0	0	0	0	0	0	0	0	0	0	0	0	0	0	0	0
0	0	0	0	0	0	0	1390	1396	1402	1407	1407	1455	1461	1461	1455	1461	1461	1467	1461	1461	1461	1461	1467	1467	1467	1467	1480	1486	1492	1499	1506	1512	1539	1546	1553	1560	1560	1560	1560	1567	1574	1581	1581	1589	1596	1596	1603	1603	1603	1611	1618	1618	1618	0	0	0	0	0	0	0	0	0	0	0	0	0	1437	1431	1431	1431	1431	1425	1431	1443	1449	1461	1473	1480	1480	1486	1486	1473	1473	1480	1480	1480	0	0	0	0	0	1492	1492	1492	1499	1506	1506	1506	1512	1512	1512	1519	1525	1539	1546	1546	1546	1553	1553	1553	1560	1560	1567	1567	1574	1574	1574	1634	1634	1634	1634	1634	1641	1641	1634	1634	1634	1641	1641	1657	1641	1641	1641	0	0	0	0	0	0	0	0	0	0	0	0	0	0	0	0	0	0	0	0	0	0	0	0	0	0	0	0	0	0	0	0	0	0	0	0	0	0	0	0	0	0	0	0	0	0	0	0	0	0	0	5915	5915	5915	5915	5915	5915	5915	5815	5815	5815	5815	5815	5719	5719	5719	5626	5626	5626	5719	5719	5719	5815	5915	5915	5915	5915	6018	6018	5915	5915	5915	5915	5915	5915	5815	5815	5815	5815	5815	5815	5915	5915	5915	5915	5915	5915	5915	5915	5915	5815	5815	5815	5915	5815	5815	5815	5815	5815	5815	5719	5719	5719	5719	5719	5815	5815	5815	5815	5915	5915	5915	5915	5915	5915	5915	5915	5815	5815	5815	5815	5815	5815	5719	5815	5815	5815	5815	5815	5815	5815	5815	5815	5815	5815	5815	5815	5815	5815	5915	5915	5915	5915	5915	5915	5915	5915	5815	5815	5815	5815	5815	5815	5915	5915	5915	5915	5915	5915	5915	5915	5915	6018	6018	5915	5915	5915	5915	5915	5815	5815	5915	6018	6018	6124	6124	6124	0	0	0	0	0	5815	5815	5815	5815	5915	6018	5915	6018	6018	5915	5915	5915	5915	5915	5915	5915	6018	6018	6018	5915	5915	5815	5815	5915	5915	5915	0	0	0	0	0	0	0	0	0	0	0	0	0	0	0	0	0	0	0	0	0	0	0	0	0	0	0	0	0	0	0	0	0	0	0	0	0	0	0	0	0	0	0	0	0	0	0	0	0	0	6235	6235	6235	6124	6018	6018	6018	6018	6018	6018	6018	6018	6018	6124	6124	6124	6124	6018	6018	6018	5915	5915	5915	5915	5915	5915	6018	6018	6018	6018	6018	6018	6018	6018	6018	6018	6018	6018	6018	5915	6018	6018	6018	6124	6235	6235	6235	6124	6124	6124	6124	6124	6124	6124	6124	6349	6124	6235	6235	6124	6124	6124	6124	6124	6124	6124	6124	6124	6124	6235	6124	6124	6235	6235	6124	6124	6124	6124	6124	6124	6124	6124	6124	6124	6124	6124	6124	6124	6235	6235	6235	6124	6124	6124	6124	6124	6124	6018	6018	6018	6018	5915	5915	5815	5815	5815	5815	5719	5626	5626	5535	5448	5448	5448	5448	5448	5448	5448	5448	5448	5448	5448	5364	5364	5282	5202	5050	5050	4977	4977	4977	4906	4838	4838	4771	4771	4771	4771	4706	0	0	0	0	0	0	0	0	0	0	0	0	1443	1443	1443	1443	1443	1443	1437	1437	1431	1431	1431	1419	1419	1419	1419	1419	1425	1431	1425	1425	1419	1419	1419	1419	1419	1419	1419	1419	1419	1419	1419	1413	1413	1413	1413	1413	1413	1407	1407	1407	1413	1413	1407	1407	1407	1407	0	0	0	0	0	0	0	0	0	0	0	0	0	0	0	0	0	0	0	0	0	0	0	0	0	0	0	0	0	0	0	0	0	0	0	0	0	0	0	0	0
0	0	0	0	0	0	0	1390	1223	1223	1223	1402	1455	1455	1461	1461	1461	1461	1461	1461	1461	1461	1461	1461	1467	1467	1473	1473	1486	1486	1499	1506	1512	1539	1539	1539	1553	1553	1560	1560	1567	1567	1574	1581	1589	1589	1589	1596	1596	1603	1603	1618	1618	1626	0	0	0	0	0	0	0	0	0	0	0	0	1437	1431	1437	1437	1431	1431	1425	1425	1425	1455	1467	1467	1480	1486	1486	1480	1473	1467	1467	1480	1480	0	0	0	0	0	1492	1492	1499	1506	1506	1506	1499	1506	1506	1512	1519	1539	1546	1546	1546	1553	1553	1560	1560	1567	1560	1567	1567	1574	1574	1574	1634	1634	1634	1641	1634	1641	1641	1634	1641	1641	1641	1641	1649	1649	1641	1641	0	0	0	0	0	0	0	0	0	0	0	0	0	0	0	0	0	0	0	0	0	0	0	0	0	0	0	0	0	0	0	0	0	0	0	0	0	0	0	0	0	0	0	0	0	0	0	0	0	0	0	5915	5915	5915	5915	5915	5915	5815	5815	5815	5815	5719	5719	5719	5815	5815	5719	5719	5719	5719	5815	5815	5815	5915	5915	6018	6018	6018	6018	5915	5915	5915	5915	5915	5815	5815	5815	5815	5815	5915	5915	5915	5915	5915	5915	5915	5915	5915	5915	5915	5915	5915	5815	5915	5815	5815	5815	5815	5815	5915	5815	5815	5815	5815	5815	5815	5815	5815	5915	5915	5915	5915	5915	6018	6018	5915	5915	5815	5815	5815	5815	5815	5815	5815	5815	5815	5815	5815	5815	5815	5815	5815	5815	5815	5815	5815	5815	5815	5915	5915	5915	5915	6018	6018	6018	6018	5915	5915	5915	6018	5915	5915	5915	6018	5915	6018	6018	6018	6018	6018	6018	6018	6018	6018	6018	5915	5915	5915	5915	5915	5915	6018	6018	6124	6124	6124	6124	0	0	0	0	0	0	0	0	5815	6124	5915	5915	6018	6018	6018	5915	6018	6018	6018	6018	6018	6124	6124	6018	6018	6018	5915	5915	5815	5915	5915	0	0	0	0	0	0	0	0	0	0	0	0	0	0	0	0	0	0	0	0	0	0	0	0	0	0	0	0	0	0	0	0	0	0	0	0	0	0	0	0	0	0	0	0	0	0	0	0	0	0	6235	6235	6235	6124	6124	6124	6018	6018	6018	6018	6018	6018	6018	6124	6124	6124	6124	6124	6018	6018	6018	5915	5915	5915	5915	5915	6018	6018	6018	6124	6124	6124	6018	6018	6018	6018	6018	6018	6018	6018	6018	6018	6018	6124	6124	6124	6124	6124	6124	6124	6124	6124	6124	6124	6124	6235	6235	6235	6235	6124	6124	6124	6124	6124	6124	6124	6124	6124	6124	6235	6235	6235	6235	6235	6124	6124	6124	6124	6124	6124	6124	6124	6124	6124	6124	6124	6124	6124	6235	6235	6124	6124	6124	6124	6124	6124	6124	6018	6018	6018	6018	5915	5915	5815	5815	5815	5719	5719	5626	5626	5535	5448	5448	5448	5448	5448	5448	5448	5448	5448	5448	5448	5364	5364	5282	5282	5125	5050	5050	4977	4906	4906	4838	4771	4771	4771	4771	4771	0	0	0	0	0	0	0	0	0	0	0	0	1443	1443	1443	1443	1443	1443	1443	1443	1437	1437	1431	1431	1419	1419	1419	1419	1419	1425	1425	1425	1425	1419	1419	1419	1419	1419	1419	1419	1419	1419	1419	1419	1419	1413	1413	1413	1413	1413	1413	1407	1413	1413	1413	1407	1407	1407	1407	0	0	0	0	0	0	0	0	0	0	0	0	0	0	0	0	0	0	0	0	0	0	0	0	0	0	0	0	0	0	0	0	0	0	0	0	0	0	0	0	0
0	0	0	0	0	0	1227	1227	1223	1223	1223	1402	1449	1455	1461	1461	1461	1461	1461	1461	1461	1461	1461	1461	1467	1467	1473	1480	1486	1499	1506	1506	1512	1539	1546	1539	1553	1560	1560	1560	1567	1567	1581	1589	1589	1589	1589	1596	1596	1596	1596	1618	1618	1626	0	0	0	0	0	0	0	0	0	0	0	1425	1431	1437	1437	1437	1437	1437	1443	1455	1461	1455	1467	1473	1473	1480	1480	1473	1473	1467	1467	0	0	0	0	0	0	0	0	0	1499	1512	1512	1512	1512	1512	1512	1512	1519	1532	1546	1546	1546	1553	1560	1560	1567	1567	1567	1567	1574	1574	1581	1581	1626	1634	1634	1641	1634	1641	1641	1641	1641	1641	1649	1634	1634	1634	1641	1641	0	0	0	0	0	0	0	0	0	0	0	0	0	0	0	0	0	0	0	0	0	0	0	0	0	0	0	0	0	0	0	0	0	0	0	0	0	0	0	0	0	0	0	0	0	0	0	0	0	0	0	5915	6018	6018	5915	5915	5915	5815	5815	5815	5815	5815	5815	5719	5815	5815	5815	5719	5719	5815	5915	5815	5915	5915	6018	6018	6018	6018	6018	6018	5915	5915	5915	5915	5915	5815	5915	5915	5915	5915	5915	5915	5915	5915	5915	5915	5915	5915	5915	5915	5915	5915	5915	5915	5815	5815	5915	5815	5915	5915	5915	5815	5815	5815	5915	5815	5815	5915	5915	5915	5915	5915	5915	6018	6018	6018	5915	5915	5915	5915	5915	5915	5915	5815	5815	5815	5815	5815	5815	5815	5815	5915	5915	5915	5915	5915	5915	5915	5915	6018	6018	6018	6018	6018	6018	6018	6018	6018	6018	6018	6018	5915	6018	6018	6018	6018	6018	6018	6018	6018	6018	6018	6018	6018	6018	6018	6018	5915	5915	5915	5915	6018	6018	6124	5915	5915	6124	0	0	0	0	0	0	0	0	0	6124	6124	6018	6124	6124	6018	6018	6018	6018	6018	6018	6018	6018	6018	6124	6018	6018	5915	5915	5815	5915	5915	0	0	0	0	0	0	0	0	0	0	0	0	0	0	0	0	0	0	0	0	0	0	0	0	0	0	0	0	0	0	0	0	0	0	0	0	0	0	0	0	0	0	0	0	0	0	0	0	0	0	0	6235	6235	6235	6124	6124	6124	6018	6018	6018	6018	6018	6018	6124	6124	6124	6124	6124	6124	6124	6018	6018	6018	6018	6018	6018	6018	6018	6018	6124	6124	6124	6124	6018	6124	6018	6018	6018	6018	6018	6018	6018	6018	6124	6124	6124	6235	6235	6124	6235	6235	6124	6124	6235	6235	6235	6235	6235	6235	6235	6124	6124	6124	6235	6124	6124	6124	6124	6018	6124	6124	6235	6235	6235	6124	6124	6124	6124	6124	6124	6124	6124	6124	6124	6124	6124	6124	6124	6349	6235	6235	6235	6124	6124	6124	6124	6124	6018	6018	6018	6018	5915	5915	5815	5815	5815	5815	5719	5626	5626	5535	5448	5448	5448	5448	5448	5448	5448	5448	5448	5448	5448	5364	5364	5282	5282	5125	5050	4977	4977	4906	4838	4838	4771	4771	4771	4771	4771	0	0	0	0	0	0	0	0	0	0	0	1449	1443	1443	1443	1443	1443	1443	1443	1437	1437	1431	1431	1425	1419	1419	1419	1419	1419	1425	1425	1425	1425	1419	1419	1419	1419	1419	1419	1419	1419	1419	1419	1419	1419	1413	1413	1413	1419	1413	1407	1407	1413	1413	1413	1413	1413	1413	1413	0	0	0	0	0	0	0	0	0	0	0	0	0	0	0	0	0	0	0	0	0	0	0	0	0	0	0	0	0	0	0	0	0	0	0	0	0	0	0	0	0
0	0	0	0	0	0	1223	1223	1223	1425	1425	1437	1443	1443	1455	1461	1461	1455	1455	1461	1461	1461	1461	1461	1461	1467	1467	1480	1486	1499	1506	1506	1512	1539	1539	1539	1546	1553	1560	1560	1567	1567	1581	1589	1589	1589	1589	1596	1596	1596	1596	1596	0	0	0	0	0	0	0	0	0	0	0	0	1425	1425	1431	1431	1431	1437	1431	1437	1437	1449	1449	1449	1449	1473	1473	1486	1486	1480	1473	1467	1467	0	0	0	0	0	0	0	0	1512	1512	1519	1519	1512	1512	1519	1512	1519	1525	1539	1546	1546	1546	1553	1553	1560	1560	1567	1574	1567	1574	1574	1581	1574	1626	1634	1641	1641	1641	1641	1641	1641	1641	1641	1641	1634	1634	1634	0	0	0	0	0	0	0	0	0	0	0	0	0	0	0	0	0	0	0	0	0	0	0	0	0	0	0	0	0	0	0	0	0	0	0	0	0	0	0	0	0	0	0	0	0	0	0	0	0	0	0	0	0	0	5915	5915	5915	5915	5915	5815	5815	5815	5815	5815	5815	5815	5915	5815	5719	5719	5719	5815	5915	5915	5915	5915	5915	6018	6018	6018	6018	5915	5915	5915	5915	5915	5915	5915	5915	5915	5915	6018	6018	6018	5915	5915	5915	5915	5915	5915	5915	5915	5915	5915	5915	5915	5915	5815	5915	5815	5915	5915	5915	5815	5815	5815	5915	5915	5915	5915	5915	5915	5915	5915	5915	6018	6018	6018	6018	5915	5915	5915	5915	5915	5915	5915	5815	5815	5815	5815	5815	5815	5915	6018	6018	5915	6018	5915	5915	5915	5915	6018	6018	6018	6018	6124	6124	6124	6018	6018	6018	6018	6018	5915	6018	6018	6018	6018	6018	6018	6018	6018	6124	6124	6124	6124	6018	6124	6018	6018	6018	6018	6018	6018	6124	6124	6124	6018	6018	0	0	0	0	0	0	0	0	0	6018	6018	6018	6124	6124	6018	6018	6018	6018	6018	6018	6124	6018	6018	6124	6018	6018	0	0	0	0	0	0	0	0	0	0	0	0	0	0	0	0	0	0	0	0	0	0	0	0	0	0	0	0	0	0	0	0	0	0	0	0	0	0	0	0	0	0	0	0	0	0	0	0	0	0	0	0	0	0	0	6235	6235	6235	6235	6124	6124	6124	6124	6124	6124	6018	6124	6124	6124	6124	6235	6124	6124	6124	6124	6124	6018	6018	6018	6018	6124	6124	6124	6124	6124	6235	6235	6124	6124	6124	6124	6018	6124	6124	6018	6018	6018	6124	6235	6235	6124	6235	6235	6235	6235	6235	6124	6235	6235	6235	6235	6235	6235	6235	6235	6235	6235	6235	6235	6124	6124	6018	6124	6018	6124	6124	6235	6235	6235	6124	6124	6235	6124	6124	6124	6124	6124	6124	6124	6124	6124	6124	6235	6349	6235	6349	6349	6235	6235	6235	6124	6124	6018	6018	6018	6018	5915	5915	5915	5815	5815	5815	5719	5719	5626	5535	5535	5535	5535	5535	5535	5448	5448	5448	5448	5448	5364	5364	5282	5202	5202	5125	5050	4977	4977	4906	4906	4771	4771	4771	4771	4771	0	0	0	0	0	0	0	0	0	0	0	1449	1449	1443	1443	1443	1443	1443	1443	1437	1437	1437	1431	1431	1431	1419	1419	1419	1419	1419	1419	1425	1419	1419	1419	1419	1419	1419	1419	1419	1419	1419	1419	1419	1419	1419	1413	1413	1419	1419	1413	1413	1413	1413	1413	1413	1413	1413	1413	1413	0	0	0	0	0	0	0	0	0	0	0	0	0	0	0	0	0	0	0	0	0	0	0	0	0	0	0	0	0	0	0	0	0	0	0	0	0	0	0	0	0
0	0	0	0	0	0	1219	1223	1223	1223	1407	1407	1443	1449	1455	1461	1461	1467	1467	1461	1461	1461	1461	1461	1467	1461	1467	1486	1499	1506	1512	1512	1539	1539	1539	1539	1546	1553	1560	1560	1560	1567	1574	1581	1581	1589	1589	1596	1596	1596	1596	1596	0	0	0	0	0	0	0	0	0	0	0	0	1425	1425	1425	1431	1437	1437	1437	1437	1443	1449	1449	1449	1449	0	0	1486	1486	1480	1473	1467	1467	0	0	0	0	0	0	0	0	1512	1512	1512	1512	1519	1519	1519	1512	1519	1525	1539	1539	1546	1546	1546	1553	1560	1560	1567	1574	1567	1574	1574	1574	1581	1618	1634	1634	1641	1634	1641	1641	1641	1641	1641	1649	1634	1634	0	0	0	0	0	0	0	0	0	0	0	0	0	0	0	0	0	0	0	0	0	0	0	0	0	0	0	0	0	0	0	0	0	0	0	0	0	0	0	0	0	0	0	0	0	0	0	0	0	0	0	0	0	0	0	5915	5915	5915	5915	5915	5815	5815	5815	5815	5815	5815	5815	5915	5915	5815	5815	5815	5815	5815	5815	5815	5915	5915	6018	6018	6018	6018	6018	6018	5915	5915	5915	5915	5915	5915	6018	6018	6018	6018	6018	6018	5915	5915	5915	5915	5915	5915	5915	5915	5915	5915	5915	5915	5915	5915	5915	5915	6018	5915	5915	5915	5915	5915	5915	5915	5915	5915	5915	5915	5915	5915	6018	6018	6018	6018	5915	5915	5915	6018	6018	6018	5915	5915	5915	5815	5815	5915	5915	5915	6018	6018	6018	6018	6018	6018	6018	6018	6018	6018	6018	6018	6018	6124	6124	6018	6018	6018	6018	6018	6018	6018	6018	6018	6018	6018	6018	6018	6124	6124	6124	6124	6124	6124	6124	6018	6018	6018	5915	6018	6018	6018	6018	5915	5915	6018	0	0	0	0	0	0	0	0	0	6018	6018	6018	6018	6018	6124	6124	6124	6018	6124	6124	6124	6018	6018	6124	6124	6018	0	0	0	0	0	0	0	0	0	0	0	0	0	0	0	0	0	0	0	0	0	0	0	0	0	0	0	0	0	0	0	0	0	0	0	0	0	0	0	0	0	0	0	0	0	0	0	0	0	0	0	0	0	0	6124	6235	6235	6235	6235	6124	6124	6124	6124	6124	6124	6018	6124	6124	6124	6124	6235	6235	6235	6124	6124	6124	6124	6124	6018	6124	6124	6124	6124	6124	6124	6235	6235	6124	6124	6018	6018	6018	6018	6018	6018	6018	6018	6124	6235	6235	6235	6235	6235	6235	6235	6235	6235	6235	6235	6235	6235	6235	6235	6235	6235	6235	6235	6235	6349	6235	6235	6124	6124	6018	6124	6235	6235	6235	6235	6235	6235	6235	6235	6124	6124	6124	6124	6235	6124	6235	6124	6124	6235	6349	6349	6349	6349	6235	6235	6235	6124	6124	6124	6018	6018	6018	5915	6018	5915	5815	5815	5815	5719	5719	5626	5535	5535	5535	5535	5535	5535	5448	5448	5448	5448	5448	5364	5282	5202	5125	5125	5050	5050	4977	4977	4906	4906	4838	4771	4706	4706	0	0	0	0	0	0	0	0	0	0	0	1449	1449	1443	1443	1443	1443	1443	1443	1443	1437	1437	1437	1431	1431	1425	1419	1425	1419	1419	1419	1419	1419	1419	1419	1419	1419	1419	1419	1419	1419	1419	1419	1419	1419	1419	1419	1413	1413	1419	1419	1413	1413	1413	1413	1413	1413	1413	1413	1413	1413	0	0	0	0	0	0	0	0	0	0	0	0	0	0	0	0	0	0	0	0	0	0	0	0	0	0	0	0	0	0	0	0	0	0	0	0	0	0	0	0	0
0	0	0	0	0	0	1219	1219	1214	1214	1407	1425	1425	1443	1455	1455	1455	1455	1455	1461	1461	1461	1461	1461	1467	1461	1467	1499	1525	1525	1525	1532	1539	1539	1539	1539	1539	1553	1560	1560	1567	1567	1581	1581	1589	1589	1589	1596	1596	1596	1596	0	0	0	0	0	0	0	0	0	0	1419	1419	1431	1425	1431	1425	1425	1431	1437	1437	1437	1443	1449	1455	1455	1455	1455	0	0	0	0	0	0	0	0	0	0	0	0	0	0	0	0	1512	1512	1512	1519	1519	1519	1519	1532	1539	1539	1539	1546	1546	1553	1553	1567	1567	1574	1574	1567	1567	1574	1574	1581	1618	1626	1634	1634	1634	1634	1641	1641	1641	1649	1657	1657	1657	1657	1657	0	0	0	0	0	0	0	0	0	0	0	0	0	0	0	0	0	0	0	0	0	0	0	0	0	0	0	0	0	0	0	0	0	0	0	0	0	0	0	0	0	0	0	0	0	0	0	0	0	0	0	0	5915	5915	5915	5915	5915	5915	5815	5815	5815	5815	5815	5815	5815	6018	5915	5815	5815	5815	5815	5915	5815	5915	5915	5915	6018	6018	6018	6018	6018	6018	5915	5915	5915	5915	5915	5915	6018	6018	6018	6018	6018	6018	6018	6018	6018	6018	6018	6018	6018	6018	6018	5915	6018	5915	5915	6018	6018	6018	6018	5915	5915	5915	5915	5915	5915	5915	6018	6018	6018	6018	6018	6018	6124	6018	6018	5915	5915	6018	5915	6018	6018	6018	5915	5915	5915	5915	5815	5915	5915	6018	6018	6018	6018	6018	6018	6018	6018	6018	6018	6018	6018	6018	6018	6124	6124	6018	6018	6018	6018	6018	6018	6018	6018	6018	6018	6018	6018	6018	6018	6124	6124	6124	6124	6124	6124	6018	6018	6018	5915	6018	6018	6124	6124	6018	6018	6018	0	0	0	0	0	0	0	6124	6018	6124	6124	6018	6124	6124	6124	6124	6124	6124	6124	6124	6124	6124	6124	6124	6124	0	0	0	0	0	0	0	0	0	0	0	0	0	0	0	0	0	0	0	0	0	0	0	0	0	0	0	0	0	0	0	0	0	0	0	0	0	0	0	0	0	0	0	0	0	0	0	0	0	0	0	0	0	0	0	6124	6235	6235	6235	6235	6235	6235	6235	6124	6124	6124	6124	6124	6124	6235	6124	6235	6235	6235	6235	6124	6124	6124	6124	6124	6124	6124	6124	6124	6124	6124	6235	6235	6124	6018	6018	6018	6018	6018	6124	6124	6124	6124	6124	6235	6235	6235	6235	6235	6235	6235	6235	6235	6235	6235	6235	6235	6235	6235	6235	6235	6349	6349	6235	6349	6235	6124	6018	6018	6018	6124	6235	6349	6235	6235	6235	6235	6235	6235	6124	6124	6124	6124	6124	6124	6235	6124	6124	6235	6349	6235	6349	6349	6235	6235	6235	6124	6124	6124	6018	6018	6018	6018	6018	5915	5915	5815	5815	5719	5719	5626	5535	5535	5535	5535	5535	5535	5448	5448	5448	5364	5364	5282	5282	5282	5202	5125	5125	5050	5050	4977	4977	4906	4906	4906	4706	4706	0	0	0	0	0	0	0	0	0	0	0	1455	1455	1449	1449	1443	1443	1443	1443	1437	1437	1431	1437	1431	1431	1431	1425	1425	1425	1419	1419	1419	1419	1419	1419	1419	1419	1413	1419	1419	1419	1419	1419	1413	1413	1425	1425	1419	1419	1425	1419	1419	1413	1413	1413	1413	1413	1413	1413	1413	1413	0	0	0	0	0	0	0	0	0	0	0	0	0	0	0	0	0	0	0	0	0	0	0	0	0	0	0	0	0	0	0	0	0	0	0	0	0	0	0	0	0
0	0	0	0	0	0	1219	1223	1223	1223	1223	1425	1431	1431	1437	1449	1449	1449	1455	1461	1461	1461	1461	1461	1486	1486	1492	1525	1525	1519	1525	1532	1532	1539	1539	1539	1539	1546	1553	1560	1560	1567	1574	1581	1581	1589	1589	1589	1589	1596	1596	0	0	0	0	0	0	0	0	0	0	1419	1419	1425	1431	1431	1425	1425	1431	1437	1437	1437	1443	1449	1455	1455	1455	1455	0	0	0	0	0	0	0	0	0	0	0	0	0	0	0	0	1512	1519	1512	1519	1519	1519	1525	1532	1539	1539	1546	1546	1546	1553	1553	1574	1574	1574	1574	1567	1567	1567	1574	1581	1618	1626	1634	1634	1634	1634	1641	1641	1649	1649	1657	1665	1657	1657	1657	0	0	0	0	0	0	0	0	0	0	0	0	0	0	0	0	0	0	0	0	0	0	0	0	0	0	0	0	0	0	0	0	0	0	0	0	0	0	0	0	0	0	0	0	0	0	0	0	0	0	0	0	5915	5915	5915	5915	5915	5915	5815	5815	5815	5815	5815	5915	6124	6124	6124	6124	6124	6124	6018	6018	5915	5915	5915	6018	6018	6018	6018	6018	6018	6018	5915	5915	5915	5915	5915	6018	6018	6018	6018	6018	6018	6018	6018	6018	6018	6018	6018	6018	6018	6018	6018	6018	6018	6018	5915	6018	5915	5915	6018	5915	5915	5915	5915	5915	5915	6018	6018	6018	6018	6018	6018	6018	6124	6124	6018	6018	6018	6018	6018	6018	6018	6018	6018	6018	6018	6018	5915	5915	6018	6018	6124	6124	6018	6124	6124	6124	6124	6124	6124	6018	6018	6018	6018	6124	6124	6018	6018	6018	6018	6018	6018	6018	6018	6018	6018	6018	6018	6018	6018	6018	6124	6124	6124	6124	6124	6018	6018	6018	6018	6018	6018	6018	6018	6018	6018	6124	6124	0	0	0	0	0	6124	6124	6124	6124	6124	6124	6124	6124	6124	6124	6124	6124	6124	6124	6124	6124	6018	6018	6124	0	0	0	0	0	0	0	0	0	0	0	0	0	0	0	0	0	0	0	0	0	0	0	0	0	0	0	0	0	0	0	0	0	0	0	0	0	0	0	0	0	0	0	0	0	0	0	0	0	0	0	0	0	0	0	0	6349	6235	6235	6235	6235	6235	6235	6235	6235	6124	6124	6124	6124	6124	6124	6124	6235	6235	6235	6235	6235	6235	6235	6124	6124	6235	6235	6235	6235	6235	6235	6235	6124	6018	6018	6018	6018	6018	6018	6018	6124	6124	6124	6235	6235	6235	6235	6235	6235	6235	6235	6235	6235	6235	6235	6124	6235	6235	6235	6235	6235	6349	6349	6349	6235	6235	6235	6235	6124	6124	6235	6235	6235	6235	6235	6235	6235	6235	6235	6124	6124	6124	6124	6124	6124	6124	6124	6235	6235	6349	6349	6349	6349	6235	6235	6124	6124	6018	6018	6018	6018	5915	6018	5915	5915	5815	5815	5815	5719	5626	5626	5626	5535	5535	5535	5535	5448	5448	5448	5364	5364	5282	5282	5282	5202	5202	5050	5050	5050	4977	4977	4977	4906	4906	0	0	0	0	0	0	0	0	0	0	0	0	0	1455	1449	1449	1443	1443	1443	1443	1443	1437	1437	1437	1437	1437	1431	1431	1431	1425	1425	1425	1419	1419	1419	1419	1419	1413	1419	1419	1419	1425	1425	1419	1419	1419	1419	1419	1425	1419	1419	1425	1419	1419	1413	1413	1413	1413	1413	1413	1413	1413	1413	0	0	0	0	0	0	0	0	0	0	0	0	0	0	0	0	0	0	0	0	0	0	0	0	0	0	0	0	0	0	0	0	0	0	0	0	0	0	0	0	0
0	0	0	0	0	0	1223	1223	1227	1227	1227	1425	1425	1431	1437	1437	1449	1449	1455	1461	1461	1461	1467	1480	1486	1486	1486	1506	1512	1512	1519	1525	1532	1532	1539	1539	1539	1546	1553	1560	1560	1567	1574	1574	1581	1589	1589	1589	1596	1596	1596	0	0	0	0	0	0	0	0	0	0	1413	1419	1425	1431	1431	1431	1425	1431	1437	1437	1437	1443	1443	1461	1461	1461	0	0	0	0	0	0	0	0	0	0	0	0	0	0	0	0	0	1519	1519	1519	1519	1525	1525	1525	1532	1532	1539	1546	1546	1546	0	0	1574	1574	1574	1574	1567	1567	1567	1574	1581	1581	1618	1626	1634	1634	1634	1641	1641	1657	1657	1665	1673	1665	1673	1673	0	0	0	0	0	0	0	0	0	0	0	0	0	0	0	0	0	0	0	0	0	0	0	0	0	0	0	0	0	0	0	0	0	0	0	0	0	0	0	0	0	0	0	0	0	0	0	0	0	0	0	0	5915	5915	5915	5915	5915	5915	5915	5915	5915	6124	6018	5915	6018	6124	6018	6018	6018	6235	6235	6018	5915	5915	5915	6018	6124	6018	6018	6018	6018	6018	5915	5915	5915	5915	6018	6018	6018	6018	6124	6018	6018	6018	6018	6018	6018	6018	6018	6018	6018	6018	6018	6018	6018	6018	6018	6018	6018	6018	6018	6018	6018	6018	5915	6018	6018	6018	6018	6018	6018	6018	6018	6018	6124	6124	6124	6124	6124	6018	6124	6124	6124	6124	6124	6124	6124	6124	6018	6018	6124	6124	6124	6124	6124	6124	6124	6124	6124	6124	6124	6018	6018	6018	6018	6018	6018	6018	6018	6018	6018	6018	6018	6018	6018	6018	6018	6018	6018	6018	6124	6124	6124	6124	6124	6124	6124	6124	6018	6018	6018	6018	6018	6018	6018	6124	6018	6124	6124	6124	0	0	6124	6235	6124	6235	6124	6235	6124	6124	6124	6124	6124	6124	6124	6124	6124	6124	6124	6124	6124	6124	0	0	0	0	0	0	0	0	0	0	0	0	0	0	0	0	0	0	0	0	0	0	0	0	0	0	0	0	0	0	6349	6349	6468	6468	6468	0	0	0	0	0	0	0	0	0	0	0	0	0	0	0	0	0	0	0	0	6349	6349	6349	6235	6235	6349	6235	6235	6235	6235	6235	6235	6124	6124	6124	6124	6124	6124	6235	6235	6235	6235	6235	6235	6235	6235	6235	6235	6235	6235	6235	6124	6235	6124	6018	6018	5815	5915	6018	6018	6018	6018	6124	6124	6235	6235	6235	6235	6235	6235	6235	6235	6235	6235	6235	6235	6235	6235	6235	6235	6235	6349	6349	6349	6349	6349	6235	6349	6349	6235	6124	6124	6235	6235	6235	6235	6235	6235	6349	6235	6235	6124	6124	6124	6124	6124	6124	6124	6235	6349	6468	6468	6468	6468	6349	6349	6235	6124	6124	6124	6018	6018	5915	5915	5915	5915	5815	5815	5815	5815	5815	5626	5626	5626	5535	5535	5535	5535	5448	5448	5448	5364	5364	5364	5282	5282	5202	5202	5202	5125	5050	4977	4977	4977	4977	4906	0	0	0	0	0	0	0	0	0	0	0	0	0	1449	1449	1443	1443	1437	1437	1443	1443	1437	1437	1437	1437	1437	1437	1431	1431	1425	1425	1425	1419	1419	1419	1419	1419	1419	1419	1419	1419	1419	1419	1419	1419	1419	1425	1425	1425	1419	1419	1425	1419	1419	1413	1413	1413	1407	1407	1413	1413	1413	1413	0	0	0	0	0	0	0	0	0	0	0	0	0	0	0	0	0	0	0	0	0	0	0	0	0	0	0	0	0	0	0	0	0	0	0	0	0	0	0	0	0
0	0	0	0	0	0	1227	1227	1236	1240	1245	1245	1249	1249	1437	1437	1461	1455	1455	1461	1461	1461	1480	1480	1486	1486	1492	1506	1512	1512	1512	1512	1519	1532	1532	1532	1539	1546	1546	1560	1560	1560	1567	1574	1574	1581	1589	1589	1596	1596	1596	0	0	0	0	0	0	0	0	0	0	1413	1413	1425	1431	1431	1431	1425	1431	1437	1437	1443	1443	1449	1455	1455	1449	1455	1455	0	0	0	0	0	0	0	0	0	0	0	0	0	0	0	1519	1519	1512	1519	1519	1519	1525	1532	1532	1539	1539	1546	0	0	0	0	1574	1574	1574	1574	1574	1567	1574	1581	1603	1618	1626	1634	1634	1634	1641	1641	1649	1657	1665	1681	1681	1681	1673	0	0	0	0	0	0	0	0	0	0	0	0	0	0	0	0	0	0	0	0	0	0	0	0	0	0	0	0	0	0	0	0	0	0	0	0	0	0	0	0	0	0	0	0	0	0	0	0	0	0	0	0	5915	5915	5915	6018	6018	6018	6124	6235	6018	6235	6018	6018	6018	6124	6018	6018	6018	6018	6235	0	0	0	5915	6018	6124	6018	6124	6018	6018	6018	6018	5915	6018	6018	6018	6018	6124	6018	6018	6018	6018	6018	6018	6018	6018	6124	6018	6124	6018	6018	6018	6018	6018	6018	6018	6018	6018	6018	6018	6018	6018	6018	6018	6018	6018	6018	6018	6018	6018	6018	6018	6018	6124	6124	6124	6124	6124	6124	6124	6124	6124	6124	6124	6235	6235	6235	6124	6124	6124	6124	6124	6124	6124	6124	6124	6124	6124	6124	6124	6124	6018	6018	6018	6018	6018	6018	6018	6018	6018	6018	6124	6018	6124	6018	6018	6018	6018	6018	6124	6124	6124	6124	6124	6124	6124	6124	6124	6018	6018	5915	6018	6124	6018	6124	6124	6124	6235	6235	6235	0	6124	6235	6235	6235	6235	6235	6124	6124	6124	6124	6124	6124	6124	6124	6124	6124	6124	6124	6124	6018	6018	0	0	0	0	0	0	0	0	0	0	0	0	0	0	0	0	0	0	0	0	0	0	0	0	0	6235	6349	6468	6349	6349	6349	6349	6468	6468	6349	6349	0	0	0	0	0	0	0	0	0	0	0	0	0	0	6592	6468	6468	6349	6349	6349	6349	6235	6235	6349	6349	6349	6349	6235	6235	6235	6124	6124	6124	6124	6124	6124	6235	6235	6235	6235	6235	6235	6235	6235	6235	6235	6235	6235	6235	6235	6235	6235	6235	6018	5815	5915	6018	5915	6018	6018	6124	6124	6235	6235	6349	6235	6349	6349	6235	6235	6235	6349	6349	6349	6349	6349	6349	6349	6349	6349	6349	6349	6349	6349	6349	6349	6235	6235	6235	6124	6349	6349	6235	6349	6349	6235	6349	6235	6124	6124	6124	6124	6124	6124	6235	6349	6349	6349	6468	6468	6468	6468	6349	6349	6349	6235	6235	6124	6018	6018	5915	5915	5915	5915	5815	5815	5815	5719	5815	5719	5626	5626	5626	5626	5626	5626	5535	5535	5448	5364	5364	5282	5282	5202	5125	5125	5125	5050	5050	4977	4977	4977	4977	0	0	0	0	0	0	0	0	0	0	0	1467	1461	1461	1449	1449	1443	1443	1437	1437	1437	1437	1437	1437	1431	1437	1437	1437	1431	1431	1431	1431	1425	1425	1419	1419	1419	1419	1419	1419	1419	1419	1419	1419	1419	1419	1419	1425	1425	1425	1425	1425	1425	1419	1419	1413	1413	1413	1407	1407	1407	1413	1413	1413	0	0	0	0	0	0	0	0	0	0	0	0	0	0	0	0	0	0	0	0	0	0	0	0	0	0	0	0	0	0	0	0	0	0	0	0	0	0	0	0	0
0	0	0	0	0	0	1227	1227	1236	1240	1240	1245	1249	1249	1437	1455	1461	1455	1455	1455	1461	1461	1480	1480	1486	1486	1486	1499	1506	1512	1512	1519	1525	1532	1532	1539	1539	1546	1553	1560	1560	1560	1567	1574	1574	1581	1589	1589	1596	1596	1596	0	0	0	0	0	0	0	0	0	0	1413	1413	0	0	0	0	0	0	0	1437	1443	1443	1443	1443	1455	1449	1455	1455	0	0	0	0	0	0	0	0	0	0	0	0	0	0	0	0	1519	1512	1519	1519	1519	1525	1532	1532	1539	1539	0	0	0	0	0	1574	1581	1574	1574	1574	1567	1574	1581	1581	1581	1626	1634	1634	1634	1641	1641	1649	1657	1665	1681	1681	1690	1690	0	0	0	0	0	0	0	0	0	0	0	0	0	0	0	0	0	0	0	0	0	0	0	0	0	0	0	0	0	0	0	0	0	0	0	0	0	0	0	0	0	0	0	0	0	0	0	0	0	0	0	0	0	5915	6018	6018	6124	6235	6235	6235	6235	6235	6235	6124	6018	6124	6124	6124	6124	6018	0	0	0	0	0	0	0	0	6124	6018	6018	6018	6018	6018	6018	6018	6018	6124	6124	6018	6018	6018	6018	6018	6018	6018	6124	6018	6018	6018	6018	6018	6018	6018	6018	6018	6018	6018	6018	6018	6018	6018	6018	6018	6018	6018	6018	6018	6018	6018	6018	6018	6124	6018	6124	6124	6124	6124	6124	6124	6124	6124	6124	6124	6124	6235	6235	6235	6124	6124	6124	6124	6124	6124	6124	6124	6235	6235	6124	6124	6124	6124	6124	6124	6018	6124	6124	6018	6018	6018	6018	6124	6124	6018	6124	6124	6018	6018	6018	6124	6124	6124	6124	6235	6235	6235	6124	6124	6124	6124	5915	5915	6018	6124	6124	6124	6124	6124	6235	6349	6349	0	0	6349	6235	6235	6235	6235	6235	6235	6124	6124	6124	6124	6124	6124	6124	6124	6124	6124	6124	6124	6124	0	0	0	0	0	0	0	0	0	0	0	0	0	0	0	0	0	0	0	0	0	0	6124	6235	6235	6235	6349	6468	6468	6349	6349	6349	6349	6349	6349	6349	6468	6468	0	0	0	0	0	0	0	0	0	0	0	6349	6468	6349	6349	6349	6349	6349	6349	6235	6235	6349	6349	6235	6235	6235	6235	6235	6124	6124	6235	6235	6235	6235	6235	6235	6235	6235	6235	6235	6235	6235	6235	6235	6235	6235	6235	6235	6235	6235	6235	0	0	5915	5915	5915	6018	6018	6124	6124	6235	6349	6349	6349	6349	6349	6349	6349	6349	6349	6349	6349	6349	6349	6349	6349	6349	6349	6349	6349	6349	6349	6349	6349	6235	6235	6349	6235	6349	6349	6349	6349	6349	6349	6349	6235	6235	6124	6124	6124	6124	6124	6349	6349	6349	6349	6468	6468	6468	6468	6349	6349	6349	6235	6235	6124	6018	6018	5915	5915	5915	5915	5815	5815	5815	5815	5719	5719	5626	5626	5626	5626	5626	5626	5535	5535	5448	5448	5364	5364	5282	5202	5125	5050	5050	4977	4906	4977	4977	4977	0	0	0	0	0	0	0	0	0	0	0	1461	1467	1461	1461	1449	1449	1443	1443	1437	1437	1437	1437	1437	1431	1431	1437	1437	1431	1431	1431	1431	1431	1425	1419	1419	1425	1419	1419	1419	1419	1419	1419	1419	1419	1419	1419	1419	1425	1425	1425	1419	1419	1419	1419	1413	1413	1413	1413	1413	1407	1413	1413	1413	1413	0	0	0	0	0	0	0	0	0	0	0	0	0	0	0	0	0	0	0	0	0	0	0	0	0	0	0	0	0	0	0	0	0	0	0	0	0	0	0	0	0
0	0	0	0	0	0	1227	1227	1236	1240	1245	1249	1254	1245	1245	1455	1461	1449	1455	1455	1461	1461	1480	1480	1486	1486	1486	1499	1506	1512	1512	1512	1525	1532	1532	1539	1539	1546	1553	1560	1560	1560	1567	1567	1574	1581	1589	1589	1589	1589	1589	0	0	0	0	0	0	0	0	0	0	0	0	0	0	0	0	0	0	0	0	1437	1437	1443	1443	0	0	0	0	0	0	0	0	0	0	0	0	0	0	0	0	0	0	0	0	0	0	0	0	0	0	0	0	0	0	0	0	0	0	0	1574	1581	1567	1567	1567	1567	1567	1581	1581	1581	1626	1626	1634	1634	1641	1649	1657	1665	1673	1690	1690	1690	1690	1690	1690	0	0	0	0	0	0	0	0	0	0	0	0	0	0	0	0	0	0	0	0	0	0	0	0	0	0	0	0	0	0	0	0	0	0	0	0	0	0	0	0	0	0	0	0	0	0	0	0	0	0	0	0	6018	6235	6235	6235	6235	6235	6235	6235	6235	6235	6235	6235	6235	6235	6235	6235	0	0	0	0	0	0	0	0	6124	6124	6018	6124	6018	6018	6018	6018	6018	6018	6018	6018	6018	6018	6018	6018	6018	6018	6124	6124	6235	6018	6018	6124	6018	6018	6018	6018	6018	6018	6018	6018	6018	6018	6018	6018	6018	6018	6124	6124	6124	6124	6124	6124	6124	6124	6235	6235	6235	6124	6124	6124	6235	6235	6235	6235	6235	6235	6235	6235	6235	6124	6124	6124	6124	6124	6124	6124	6235	6235	6124	6124	6124	6124	6124	6124	6124	6124	6124	6018	6018	6018	6018	6124	6124	6018	6124	6124	6018	6018	6018	6124	6124	6124	6235	6235	6235	6235	6235	6124	6124	6124	5915	5915	6124	6124	6124	6124	6235	6235	6349	6349	6349	0	0	6235	6235	6235	6235	6235	6235	6235	6235	6124	6124	6124	6124	6124	6124	6124	6124	6124	6124	6124	6124	0	0	0	0	0	0	0	0	0	0	0	0	0	0	0	0	0	0	0	0	6018	6018	6124	6235	6235	6235	6349	6468	6468	6349	6349	6349	6349	6349	6349	6468	6468	6468	0	6349	6349	0	0	0	0	0	0	0	0	6349	6468	6349	6349	6349	6349	6349	6349	6349	6235	6349	6349	6349	6235	6235	6235	6235	6235	6235	6235	6235	6235	6235	6235	6235	6349	6235	6235	6235	6235	6235	6235	6235	6235	6235	6235	6235	6235	6235	6235	0	0	5915	5915	5915	6018	6018	6124	6235	6349	6349	6349	6349	6349	6349	6349	6349	6349	6468	6468	6349	6349	6349	6349	6349	6349	6349	6468	6349	6349	6349	6349	6349	6349	6349	6349	6349	6349	6349	6349	6349	6349	6349	6349	6349	6235	6235	6235	6235	6349	6349	6349	6468	6468	6468	6468	6468	6468	6468	6349	6349	6349	6235	6235	6124	6124	6018	6018	5915	5915	5915	5815	5815	5815	5719	5719	5719	5626	5626	5626	5626	5626	5626	5535	5535	5535	5448	5364	5364	5282	5282	5202	5125	5125	5050	4906	4906	4906	0	0	0	0	0	0	0	0	0	0	0	1455	1455	1461	1461	1455	1449	1449	1443	1443	1437	1437	1437	1437	1437	1437	1437	1437	1437	1437	1437	1437	1431	1431	1425	1425	1425	1425	1425	1419	1419	1419	1419	1419	1419	1419	1419	1413	1419	1419	1419	1419	1419	1419	1419	1419	1413	1413	1413	1413	1413	1413	1413	1413	1413	1413	0	0	0	0	0	0	0	0	0	0	0	0	0	0	0	0	0	0	0	0	0	0	0	0	0	0	0	0	0	0	0	0	0	0	0	0	0	0	0	0	0
0	0	0	0	0	0	1227	1227	1245	1249	1249	1254	1259	1259	1245	1461	1461	1461	1455	1455	1461	1461	1480	1480	1486	1486	1486	1499	1506	1512	1512	1512	1512	1532	1532	1539	1539	1546	1553	1553	1560	1560	1567	1567	1574	1574	1581	1589	1589	1589	1589	0	0	0	0	0	0	0	0	0	0	0	0	0	0	0	0	0	0	0	0	1437	1443	1443	1461	1461	1461	1467	1467	1467	0	0	0	0	0	0	0	0	0	0	0	0	0	0	0	0	0	0	0	0	0	0	0	0	0	0	0	0	0	0	1560	1581	1567	1574	1574	1574	1574	1574	1596	1634	1626	1626	1634	1634	1641	1649	1665	1673	1681	1690	1690	1690	1690	1690	1698	1698	0	0	0	0	1732	1732	1732	1732	0	0	0	0	0	0	0	0	0	0	0	0	0	0	0	0	0	0	0	0	0	0	0	0	0	0	0	0	0	0	0	0	0	0	0	0	0	0	0	0	0	0	0	0	6235	6235	6349	6235	6235	6235	6235	6235	6235	6235	6124	6235	6349	6349	6235	6235	0	0	0	0	0	0	0	0	6235	6235	6235	6124	6018	6018	6018	6018	6124	6018	6018	6018	6018	6018	6018	6124	6124	6235	6349	6349	6349	6349	6349	6235	6018	6018	6124	6124	6124	6124	6018	6018	6018	6018	6124	6124	6018	6124	6124	6124	6235	6235	6235	6235	6235	6349	6349	6349	6235	6235	6124	6124	6235	6235	6235	6235	6235	6235	6235	6235	6235	6235	6235	6235	6235	6235	6235	6235	6235	6235	6235	6235	6124	6124	6124	6124	6124	6124	6018	6018	6124	6124	6124	6124	6124	6124	6124	6124	6124	6124	6124	6235	6124	6235	6235	6235	6235	6235	6124	6124	6124	6018	6018	6018	6124	6235	6235	6235	6235	6235	6349	0	0	6349	6235	6235	6235	6235	6235	6235	6235	6235	6124	6124	6124	6124	6124	6124	6124	6124	6124	6124	6124	6124	6124	0	0	0	0	0	0	0	0	0	0	0	0	0	0	0	0	0	0	5915	6124	6124	6124	6235	6235	6235	6235	6349	6349	6349	6349	6349	6349	6349	6349	6349	6349	6349	6349	6349	6349	6349	6349	0	0	0	0	0	6349	6349	6468	6349	6349	6349	6349	6349	6349	6349	6349	6349	6349	6349	6349	6349	6349	6235	6235	6235	6235	6235	6235	6235	6235	6235	6349	6235	6235	6235	6235	6235	6235	6235	6235	6235	6235	6235	6235	6235	6235	0	0	5915	5915	5915	6018	6018	6124	6235	6349	6349	6349	6468	6468	6468	6468	6468	6468	6468	6468	6349	6468	6468	6468	6349	6349	6349	6468	6468	6349	6349	6349	6468	6349	6349	6468	6349	6468	6468	6468	6468	6349	6349	6468	6349	6349	6349	6468	6468	6468	6349	6468	6468	6468	6468	6592	6468	6468	6468	6468	6349	6349	6349	6235	6235	6124	6018	6018	6018	5915	5915	5815	5815	5815	5719	5719	5626	5626	5626	5626	5626	5626	5626	5535	5535	5535	5448	5364	5364	5282	5282	5282	5282	5202	5125	5050	5125	5125	0	0	0	0	0	0	0	0	0	0	0	1455	1455	1461	1461	1455	1449	1455	1449	1443	1443	1443	1443	1443	1443	1437	1437	1443	1443	1443	1437	1437	1437	1431	1431	1431	1425	1425	1425	1419	1419	1419	1419	1419	1419	1419	1419	1419	1419	1419	1419	1419	1413	1419	1419	1419	1413	1413	1413	1413	1413	1413	1413	1419	1419	1419	0	0	0	0	0	0	0	0	0	0	0	0	0	0	0	0	0	0	0	0	0	0	0	0	0	0	0	0	0	0	0	0	0	0	0	0	0	0	0	0	0
0	0	0	0	0	0	1227	1232	1245	1249	1254	1254	1259	1263	1268	1268	1461	1461	1449	1455	1461	1467	1480	1486	1486	1486	1492	1492	1506	1512	1512	1512	1512	1519	1525	1532	1539	1546	1546	1553	1553	1560	1560	1567	1574	1581	1581	1589	1589	1589	1589	0	0	0	0	0	0	0	0	0	0	0	0	0	0	0	0	0	0	0	0	1437	1431	1431	1461	1467	1467	1467	1467	1480	1480	0	0	0	0	0	0	0	0	0	0	0	0	0	0	0	0	0	0	0	0	0	0	0	0	0	0	0	0	1567	1567	1567	1567	1581	1574	1581	1581	1581	1618	1618	1626	1634	1634	1634	1641	1649	1665	1673	1681	1690	1690	1690	1690	1690	1698	1706	1706	0	0	0	1723	1732	1732	1732	0	0	0	0	0	0	0	0	0	0	0	0	0	0	5626	5626	5626	0	0	0	0	0	0	0	0	0	0	0	0	0	0	0	0	0	0	0	0	0	6235	6235	6235	0	6235	6235	6235	6235	6235	6235	6235	6235	6124	6235	6235	6235	6235	6349	6349	6349	6349	6349	6349	0	0	0	0	0	0	0	6235	6349	6235	6349	6349	6349	6235	6235	6124	6018	6018	6018	6018	6124	6124	6235	6235	6235	6349	6349	6349	6235	6235	6235	6235	6124	6124	6235	6235	6235	6124	6124	6124	6124	6124	6124	6124	6124	6124	6235	6235	6235	6235	6235	6235	6349	6349	6235	6235	6235	6235	6235	6235	6235	6235	6235	6235	6235	6235	6235	6235	6235	6235	6235	6235	6235	6235	6349	6349	6349	6349	6235	6235	6124	6124	6124	6124	6124	6124	6124	6124	6124	6124	6124	6124	6124	6124	6124	6124	6124	6124	6235	6235	6235	6235	6235	6235	6235	6124	6124	6124	6018	6124	6235	6235	6235	6235	6235	6235	6235	0	0	0	6349	6235	6235	6235	6235	6235	6235	6235	6235	6124	6124	6124	6124	6124	6124	6124	6124	6124	6124	6124	6124	6124	0	0	0	0	0	0	0	0	0	0	0	0	0	0	6124	6124	6235	6124	6124	6124	6235	6235	6235	6235	6235	6235	6468	6468	6349	6349	6349	6349	6349	6349	6349	6349	6349	6235	6235	6349	6349	6349	6349	6349	6349	6468	6468	6468	6349	6468	6349	6468	6349	6349	6349	6349	6349	6349	6349	6349	6349	6349	6349	6349	6235	6235	6235	6235	6235	6235	6235	6235	6235	6235	6235	6235	6235	6235	6235	6235	6235	6235	6235	6235	6235	6235	6235	0	0	0	0	0	5915	6124	6235	6235	6235	6235	6349	6349	6468	6468	6468	6468	6468	6468	6468	6468	6349	6349	6349	6468	6349	6468	6468	6468	6468	6349	6468	6468	6468	6468	6468	6468	6468	6468	6468	6349	6468	6349	6468	6468	6468	6468	6468	6468	6468	6468	6468	6468	6468	6468	6468	6592	6468	6468	6468	6468	6349	6349	6349	6235	6235	6124	6018	6018	6018	5915	5915	5815	5915	5815	5719	5719	5626	5626	5626	5626	5626	5626	5626	5626	5626	5535	5535	5448	5364	5282	5282	5282	5282	5282	5202	5125	5125	5125	0	0	0	0	0	0	0	0	0	0	1461	1461	1461	1461	1461	1461	1455	1455	1455	1443	1443	1443	1443	1443	1443	1443	1443	1443	1443	1443	1443	1437	1437	1431	1431	1431	1431	1431	1425	1425	1419	1419	1419	1419	1419	1419	1419	1419	1419	1419	1419	1419	1413	1419	1419	1419	1413	1419	1413	1413	1419	1413	1419	1419	1419	1419	0	0	0	0	0	0	0	0	0	0	0	0	0	0	0	0	0	0	0	0	0	0	0	0	0	0	0	0	0	0	0	0	0	0	0	0	0	0	0	0	0
0	0	0	0	0	0	1232	1236	1236	1240	1254	1245	1263	1254	1268	1268	1272	1272	1449	1455	1455	1467	1480	1480	1486	1486	1492	1492	1506	1506	1512	1512	1512	1519	1519	1525	1539	1539	1546	1553	1553	1560	1560	1567	1574	1574	1581	1581	1589	1589	1589	0	0	0	0	0	0	0	0	0	0	0	0	0	0	0	0	0	0	0	0	0	1431	1431	1461	1461	1455	1461	1467	1467	1480	0	0	0	0	0	0	0	0	0	0	0	0	0	0	0	0	0	0	0	0	0	0	0	0	0	0	0	0	1567	1567	1567	1567	1581	1574	1574	1574	1581	1618	1626	1634	1634	1641	1641	1649	1657	1665	1673	1681	1690	1690	1690	1690	1690	1706	1706	1715	1715	1723	1723	1732	1732	1723	1723	0	0	0	0	0	0	0	0	0	0	0	0	0	0	5626	5626	5626	0	0	0	0	0	0	0	0	0	0	0	0	0	0	0	0	0	0	0	0	6235	6349	6349	6349	6349	6235	6235	6124	6235	6235	6235	6235	6124	6124	6235	6235	6124	6235	6235	6349	6349	6349	6349	6349	0	0	0	0	0	0	0	0	6349	6468	6468	6349	6349	6235	6349	6124	6124	6124	6124	6124	6124	6235	6235	6235	6235	6349	6235	6235	6235	6235	6235	6235	6124	6124	6235	6235	6235	6235	6235	6124	6124	6124	6124	6124	6124	6235	6349	6349	6349	6235	6235	6235	6349	6235	6235	6235	6235	6124	6235	6235	6235	6235	6235	6235	6349	6349	6349	6349	6349	6235	6235	6349	6349	6349	6349	6349	6349	6349	6349	6235	6235	6235	6235	6124	6124	6124	6124	6124	6124	6124	6124	6124	6124	6124	6124	6235	6235	6235	6349	6349	6349	6349	6349	6349	6124	6124	6124	6124	6124	6124	6235	6235	6235	6235	6235	6235	6235	0	0	0	0	6235	6349	6349	6235	6235	6235	6235	6235	6235	6235	6235	6235	6124	6124	6124	6124	6124	6124	6124	6124	6124	0	0	0	0	0	0	0	0	0	0	0	6235	6124	6235	6124	6235	6235	6124	6124	6124	6124	6235	6235	6235	6235	6235	6468	6468	6349	6349	6349	6349	6349	6349	6349	6349	6349	6235	6235	6235	6235	6349	6349	6349	6349	6468	6349	6349	6349	6468	6349	6468	6349	6349	6349	6349	6349	6235	6235	6235	6235	6349	6349	6349	6235	6235	6235	6235	6235	6235	6235	6235	6235	6235	6235	6235	6235	6235	6235	6235	6124	6124	6124	6124	6018	6018	6235	0	0	0	0	0	6124	6235	6235	6235	6349	6349	6349	6349	6468	6468	6468	6468	6468	6468	6468	6468	6349	6468	6468	6468	6468	6468	6468	6468	6468	6468	6468	6468	6468	6468	6468	6468	6468	6468	6468	6468	6468	6349	6468	6468	6468	6468	6468	6468	6468	6592	6468	6468	6468	6468	6468	6592	6468	6468	6468	6468	6349	6349	6349	6235	6235	6124	6018	6018	6018	5915	5915	5815	5815	5719	5719	5719	5626	5626	5626	5626	5626	5626	5626	5626	5535	5535	5535	5448	5364	5282	5282	5282	5282	5282	5202	5202	5125	0	0	0	0	0	0	0	0	0	0	0	1461	1461	1461	1461	1461	1461	1455	1455	1455	1449	1443	1443	1443	1449	1443	1443	1443	1443	1443	1443	1443	1437	1443	1437	1437	1437	1431	1431	1425	1425	1419	1419	1419	1419	1419	1419	1419	1419	1419	1419	1419	1419	1419	1419	1419	1419	1413	1419	1413	1413	1413	1413	1419	1431	1419	1419	0	0	0	0	0	0	0	0	0	0	0	0	0	0	0	0	0	0	0	0	0	0	0	0	0	0	0	0	0	0	0	0	0	0	0	0	0	0	0	0	0
0	0	0	0	0	0	1232	1232	1245	1240	1254	1245	1263	1254	1263	1268	1272	1277	1277	1277	1461	1461	1473	1480	1486	1486	1492	1499	1506	1506	1512	1512	1512	1519	1519	1532	1539	1539	1546	1553	1560	1567	1567	1567	1574	1581	1581	1581	1581	1589	1574	1567	1567	0	0	0	0	0	0	0	0	0	0	0	0	0	0	0	0	0	0	0	0	0	0	1449	1449	1449	1449	1467	0	0	0	0	0	0	0	0	0	0	0	0	0	0	0	0	0	0	0	0	0	0	0	0	0	0	0	0	0	1567	1567	1567	1574	1581	1581	1581	1581	1581	1618	1626	1634	1634	1641	1641	1641	1657	1673	1681	1681	1690	1690	1690	1698	1698	1706	1715	1715	1723	1723	1723	1723	1723	1723	1723	0	0	0	0	0	0	0	0	0	0	0	0	0	0	5815	5915	5719	5719	0	0	0	0	0	0	0	0	0	0	0	0	6468	6349	6235	6235	6235	6349	6349	6349	6349	6349	6349	6349	6349	6235	6235	6235	6235	6235	6124	6124	6124	6124	6235	6124	6235	6235	6349	6349	6349	6349	6349	0	0	0	0	0	0	0	0	6592	6468	6468	6349	6349	6235	6235	6235	6124	6124	6124	6124	6124	6235	6235	6124	6235	6235	6235	6124	6124	6124	6124	6124	6124	6235	6235	6235	6349	6235	6235	6235	6235	6235	6235	6235	6235	6235	6349	6349	6349	6349	6349	6235	6349	6349	6235	6235	6235	6124	6235	6235	6235	6235	6235	6349	6349	6349	6349	6468	6468	6235	6235	6349	6235	6349	6349	6349	6349	6468	6349	6349	6349	6235	6235	6235	6124	6124	6124	6235	6235	6235	6124	6124	6124	6124	6124	6235	6235	6235	6349	6349	6349	6349	6124	6124	6124	6124	6124	6124	6124	6124	6349	6235	6235	6235	6235	6349	6349	0	0	0	6592	6235	6235	6349	6349	6235	6235	6235	6235	6235	6235	6235	6235	6124	6124	6124	6124	6124	6124	6124	6124	6235	6235	0	0	0	0	0	0	0	0	0	6124	6124	6235	6235	6235	6235	6235	6235	6235	6124	6235	6235	6235	6235	6235	6235	6468	6468	6349	6349	6349	6349	6349	6349	6349	6235	6235	6235	6235	6235	6235	6235	6349	6349	6349	6468	6349	6349	6235	6235	6349	6349	6235	6235	6235	6235	6235	6235	6235	6235	6235	6235	6235	6235	6235	6235	6235	6235	6235	6235	6124	6124	6235	6235	6235	6235	6235	6235	6235	6235	6124	6124	6018	5815	5915	6018	6018	6018	0	0	6592	6592	6468	6468	6468	6468	6468	6468	6349	6349	6468	6468	6468	6468	6468	6468	6468	6468	6468	6468	6468	6468	6468	6468	6468	6468	6468	6468	6468	6468	6468	6468	6468	6468	6468	6468	6468	6468	6468	6468	6592	6592	6468	6468	6468	6468	6468	6468	6468	6468	6468	6468	6468	6592	6468	6468	6468	6468	6349	6349	6349	6235	6235	6124	6018	6018	6018	5915	5915	5815	5815	5719	5719	5719	5626	5626	5626	5626	5626	5626	5626	5626	5535	5535	5535	5448	5364	5282	5282	5282	5202	5282	5202	5202	0	0	0	0	0	0	0	0	0	0	0	0	1461	1467	1467	1467	1461	1461	1455	1455	1455	1449	1449	1449	1449	1449	1449	1449	1443	1443	1443	1443	1443	1443	1443	1437	1437	1437	1431	1431	1425	1425	1419	1419	1419	1419	1419	1419	1419	1419	1419	1425	1425	1419	1419	1425	1419	1419	1419	1419	1413	1413	1419	1413	1431	1431	1425	1425	0	0	0	0	0	0	0	0	0	0	0	0	0	0	0	0	0	0	0	0	0	0	0	0	0	0	0	0	0	0	0	0	0	0	0	0	0	0	0	0	0
