0	0	0	0	0	0	0	0	0	0	0	0	0	0	0	0	0	0	0	0	0	0	0	0	0	0	0	0	0	0	0	0	0	0	2051	2051	2051	2039	2027	2027	2051	2027	2015	2027	2039	2039	2051	2039	2051	2051	2051	2051	2063	2076	2063	2063	2063	2063	2063	2063	2051	2051	2039	2039	2039	2039	2039	2039	2039	2039	2039	2051	2051	2063	2063	2063	2063	2063	2063	2063	2051	2051	2063	2051	2051	2051	2051	2051	2063	2063	2063	2063	2063	2063	2063	2063	2063	2063	2063	2063	2063	2063	2063	2063	2063	2063	2063	2063	2076	2076	2076	2076	2076	2076	2076	2076	2076	2063	2063	2063	2076	2076	2076	2076	2076	2063	2063	2063	2063	2063	2063	2063	2063	2063	2063	2063	2063	2076	2076	2063	2076	2076	2076	2063	2076	2076	2076	2076	2076	2076	2076	2076	2076	2076	2076	2076	2076	2076	2076	2088	2088	2101	2101	2088	2088	2088	2088	2088	2088	2088	2088	2088	2088	2088	2088	2088	2088	2088	2088	2088	2101	2101	2101	2088	2088	2088	2088	2088	2088	2088	2088	2088	2088	2088	2088	2088	2088	2101	2101	2101	2114	2101	2101	2114	2114	2127	2127	2140	2140	2140	2140	2140	2153	2194	2266	2281	2281	2297	2297	2297	2297	2297	2297	2297	2297	2297	2297	2297	0	5282	5282	5364	5364	5282	5282	5282	5282	5282	5202	5282	5202	5202	5202	5202	5202	5202	5202	5202	5202	5282	5364	5364	5364	5364	5364	5364	5364	5364	5282	5282	5282	5282	5282	5282	5282	5282	5282	5282	5282	5282	5282	5282	5282	5364	5282	5282	5364	5282	5282	5282	5364	5364	5364	5364	5364	5364	5364	5364	5364	5364	5364	5364	5364	5364	5364	5364	5364	5364	5364	5282	5282	5282	5282	3821	3821	3864	3864	3864	3864	3864	3864	3864	3864	3864	3864	3864	3821	3821	3821	3821	3779	3779	3779	3779	3779	3779	3779	3779	3779	3779	3779	3779	3779	3738	3821	3779	3779	3779	3779	3779	3821	3779	3821	3821	3821	3821	3779	3779	3779	3779	3821	3821	3821	3821	3821	3821	3821	3821	3779	3779	3779	3779	3779	3779	3779	5535	5535	5535	5535	5535	5448	5448	5448	5448	5448	5448	5448	5448	5448	5448	5448	5535	5448	5535	5535	5448	5448	5448	5364	5364	5448	5448	5448	5364	5448	5448	5448	5448	5364	5364	5364	5364	5364	5364	5364	5448	5448	5448	5448	5448	5448	5448	5448	5448	5364	5364	5364	5364	0	3216	3216	3216	3157	3129	3129	3046	3019	2993	2967	2942	2942	2942	2942	2917	2917	2917	2917	2893	2893	2869	2869	2869	2869	2845	2869	2869	2869	2869	2869	2869	2869	2869	2845	2869	2869	2869	2869	2869	2893	2893	2893	2893	2893	2893	2893	2893	2893	2893	2893	2893	2893	2893	2893	2893	2893	2893	2893	2869	2869	2869	2869	2869	2869	2869	2869	2869	2893	2893	2893	2893	2917	2917	2917	2942	3046	3046	3157	3186	3157	3129	3129	0	0	0	2312	2297	2297	2297	2297	2297	2297	2297	2297	2312	2312	2327	2327	2869	2845	2845	2845	2822	2822	2799	2754	2754	2733	2711	2711	2690	2669	2669	2669	2669	2649	2629	2609	2589	2570	2570	2570	2570	2570	2551	2532	2496	2496	2478	2478	2478	2460	2460	2443	2426	2426	2409	2392	2376	2376	2359	2343	2327	2312	2312	2297	2297	2281	2281	2266	2252	2237	2223	2208	1681	1673	1665	1665	1665	1665	1665	1673	1673	1681	1681	1681	1681	1681	1681	1681	1690	1690	0	0	2063	2063	2051	2039	2039	2015	2003	2003	1992	1992	1992	1980	1969	1958	1958	1936	1915	1925	1915	1915	1915	1904	1915	1904	1904	1894	1873	1873	0	0	0	0	0	0	0	0	0	0	0	0	0	0	0	0	0	0	0
0	0	0	0	0	0	0	0	0	0	0	0	0	0	0	0	0	0	0	0	0	0	0	0	0	0	0	0	0	0	0	0	0	0	2039	2051	2039	2039	2027	2027	2039	2015	2015	2015	2027	2039	2051	2039	2051	2051	2051	2051	2063	2063	2051	2051	2051	2039	2051	2051	2051	2039	2039	2039	2039	2039	2039	2039	2039	2039	2039	2063	2063	2063	2063	2063	2063	2063	2063	2051	2051	2051	2051	2051	2051	2039	2051	2051	2063	2063	2063	2063	2063	2063	2063	2076	2063	2063	2063	2063	2063	2063	2063	2063	2063	2063	2063	2063	2076	2076	2076	2076	2063	2076	2076	2076	2076	2063	2063	2063	2076	2076	2076	2063	2063	2063	2063	2063	2063	2063	2063	2063	2063	2063	2063	2076	2063	2076	2076	2076	2076	2076	2076	2076	2076	2063	2076	2076	2076	2076	2076	2076	2076	2076	2076	2076	2076	2076	2076	2076	2101	2101	2088	2088	2088	2101	2088	2088	2088	2088	2101	2101	2088	2088	2088	2088	2088	2088	2088	2088	2088	2088	2088	2088	2088	2088	2088	2088	2088	2088	2088	2088	2088	2088	2088	2088	2088	2088	2101	2101	2101	2101	2101	2101	2101	2114	2114	2127	2140	2140	2140	2153	2153	2167	2237	2281	2281	2281	2297	2297	2297	2297	2297	2297	2297	2297	2297	2297	0	5364	5364	5364	5364	5282	5282	5282	5202	5202	5202	5202	5202	5202	5202	5202	5202	5202	5202	5282	5282	5282	5364	5364	5364	5364	5364	5364	5364	5364	5282	5282	5282	5282	5282	5282	5282	5282	5282	5364	5282	5364	5364	5364	5364	5364	5282	5282	5282	5282	5282	5282	5364	5364	5364	5364	5364	5364	5364	5364	5364	5364	5364	5364	5364	5364	5364	5364	5364	5364	5364	5282	5282	5282	3864	3821	3821	3864	3864	3864	3864	3864	3864	3864	3864	3864	3821	3821	3779	3821	3821	3779	3779	3779	3779	3779	3779	3779	3821	3821	3821	3779	3779	3779	3779	3738	3779	3779	3779	3779	3779	3779	3779	3779	3821	3821	3779	3779	3779	3779	3779	3779	3821	3821	3821	3821	3821	3821	3821	3821	3821	3821	3779	3779	3779	3779	3779	5535	5535	5535	5535	5448	5448	5448	5448	5448	5448	5448	5535	5535	5535	5535	5535	5535	5535	5535	5448	5448	5448	5364	5364	5364	5448	5448	5448	5448	5448	5448	5448	5448	5448	5448	5448	5448	5448	5364	5364	5364	5448	5448	5364	5364	5448	5448	5364	5364	5364	5364	5364	5364	5364	3216	3216	3157	3157	3129	3101	3046	3019	2993	2993	2967	2967	2942	2942	2942	2917	2917	2917	2917	2893	2893	2893	2917	2893	2893	2893	2893	2869	2869	2893	2893	2869	2869	2869	2869	2869	2869	2869	2869	2893	2893	2893	2893	2893	2893	2917	2917	2917	2917	2893	2893	2893	2893	2893	2893	2869	2893	2893	2893	2893	2893	2869	2893	2869	2893	2869	2869	2893	2893	2893	2917	2917	2917	2942	2942	3129	3186	3186	3186	3186	3186	3186	0	0	0	2312	2297	2297	2297	2281	2297	2281	2297	2297	2312	2312	2312	2327	2869	2845	2845	2845	2822	2822	2799	2754	2754	2733	2711	2711	2690	2669	2669	2649	2649	2649	2629	2609	2589	2589	2589	2570	2570	2570	2551	2532	2496	2496	2478	2478	2460	2460	2443	2443	2426	2426	2409	2392	2376	2359	2359	2343	2327	2312	2312	2297	2297	2281	2266	2266	2252	2237	2223	2194	1681	1681	1673	1665	1673	1673	1665	1681	1681	1681	1681	1681	1681	1681	1681	1690	1690	1690	0	2051	2051	2051	2039	2039	2027	2015	2003	1992	1992	1992	1992	1980	1969	1958	1958	1936	1925	1915	1915	1915	1915	1904	1904	1904	1904	1894	1873	1873	0	0	0	0	0	0	0	0	0	0	0	0	0	0	0	0	0	0	0
0	0	0	0	0	0	0	0	0	0	0	0	0	0	0	0	0	0	0	0	0	0	0	0	0	0	0	0	0	0	0	0	0	0	2039	2051	2051	2039	2027	2027	2039	2027	2015	2015	2039	2039	2051	2051	2051	2051	2051	2039	2039	2039	2027	2027	2039	2039	2027	2051	2051	2039	2039	2039	2039	2051	2039	2039	2039	2039	2039	2063	2063	2063	2063	2063	2063	2063	2063	2051	2051	2051	2051	2051	2039	2039	2039	2051	2063	2063	2051	2063	2063	2063	2063	2076	2063	2063	2063	2063	2063	2063	2063	2063	2076	2076	2076	2076	2076	2076	2076	2063	2063	2063	2076	2076	2076	2063	2063	2063	2076	2076	2076	2063	2063	2063	2063	2063	2051	2051	2051	2063	2063	2063	2063	2076	2063	2076	2076	2076	2076	2076	2076	2076	2076	2076	2076	2076	2076	2076	2076	2076	2076	2076	2076	2076	2076	2076	2076	2076	2101	2101	2088	2088	2088	2088	2088	2088	2088	2088	2088	2088	2088	2076	2076	2076	2076	2076	2076	2076	2076	2088	2088	2088	2088	2088	2088	2088	2088	2088	2088	2088	2088	2088	2088	2088	2088	2088	2101	2114	2114	2101	2101	2114	2127	2114	2114	2127	2127	2140	2140	2140	2140	2140	2153	2281	2281	2281	2281	2297	2297	2297	2297	2297	2297	2297	2297	2297	0	5364	5364	5364	5364	5282	5282	5282	5202	5202	5202	5202	5202	5202	5202	5202	5202	5202	5202	5202	5282	5282	5282	5364	5364	5364	5364	5364	5364	5364	5282	5282	5282	5282	5282	5282	5282	5282	5282	5364	5364	5364	5364	5364	5364	5364	5282	5364	5364	5282	5282	5282	5364	5364	5364	5364	5364	5364	5364	5364	5364	5448	5448	5448	5364	5364	5364	5364	5364	5364	5364	5282	5282	5282	3864	3864	3864	3864	3864	3864	3864	3864	3864	3864	3864	3864	3821	3821	3779	3779	3779	3779	3779	3821	3779	3821	3821	3821	3821	3821	3821	3779	3779	3779	3779	3738	3821	3779	3779	3779	3779	3779	3821	3821	3821	3821	3779	3779	3779	3779	3779	3779	3821	3821	3821	3821	3821	3864	3821	3821	3821	3821	3779	3821	3779	3779	3779	5535	5535	5535	5448	5448	5448	5448	5448	5448	5448	5448	5448	5448	5535	5535	5535	5535	5535	5535	5535	5448	5448	5364	5364	5364	5364	5364	5448	5364	5364	5448	5448	5448	5448	5448	5448	5448	5448	5448	5448	5448	5448	5448	5448	5448	5448	5448	5448	5448	5364	5448	5448	5448	5364	0	0	3186	3157	3129	3129	3101	3046	3019	2993	2993	2967	2967	2967	2942	2942	2942	2917	2917	2917	2917	2917	2917	2917	2893	2917	2893	2893	2893	2893	2893	2893	2893	2893	2893	2893	2869	2893	2893	2893	2893	2893	2893	2893	2893	2917	2917	2917	2917	2917	2917	2893	2917	2917	2917	2893	2893	2893	2893	2893	2893	2893	2893	2893	2893	2893	2893	2893	2917	2917	2917	2917	2917	2917	3186	3186	3216	3186	3186	3186	3186	3157	3157	0	0	0	2297	2297	2297	2281	2281	2281	2297	2297	2297	2297	2297	0	2845	2845	2845	2845	2822	2822	2799	2777	2754	2733	2711	2711	2690	2690	2690	2669	2669	2649	2629	2629	2609	2589	2589	2570	2570	2570	2551	2532	2514	2496	2478	2460	2460	2443	2443	2443	2426	2409	2392	2376	2376	2359	2359	2343	2327	2312	2297	2297	2297	2281	2266	2252	2252	2223	2208	2194	2181	2181	2181	1665	1673	1673	0	1690	1681	1681	1681	1690	1681	1681	1681	1681	1681	1690	0	2051	2051	2051	2039	2039	2027	2015	2003	1992	1992	1992	1980	1969	1969	1958	1958	1936	1915	1915	1915	1915	1915	1904	1904	1915	1904	1883	1873	1873	0	0	0	0	0	0	0	0	0	0	0	0	0	0	0	0	0	0	0
0	0	0	0	0	0	0	0	0	0	0	0	0	0	0	0	0	0	0	0	0	0	0	0	0	0	0	0	0	0	0	0	0	0	2027	2027	2039	2027	2027	2027	2039	2027	2015	2039	2039	2039	2051	2039	2051	2051	2051	2039	2039	2027	2027	2027	2039	2027	2027	2039	2039	2039	2051	2051	2051	2051	2039	2039	2039	2039	2039	2063	2063	2063	2063	2063	2063	2063	2063	2051	2051	2039	2051	2051	2051	2039	2051	2051	2063	2063	2063	2063	2063	2063	2076	2076	2076	2063	2063	2063	2063	2063	2063	2063	2076	2076	2076	2076	2076	2076	2063	2063	2063	2063	2063	2063	2063	2063	2063	2063	2076	2063	2076	2063	2063	2063	2063	2051	2051	2051	2051	2051	2063	2063	2063	2063	2063	2076	2076	2076	2076	2076	2076	2076	2076	2076	2076	2088	2076	2076	2076	2076	2088	2076	2076	2076	2076	2076	2076	2076	2101	2101	2088	2088	2088	2101	2088	2088	2088	2088	2088	2088	2076	2076	2076	2076	2076	2076	2076	2076	2088	2088	2088	2088	2088	2088	2088	2088	2088	2088	2088	2088	2088	2088	2088	2088	2088	2101	2114	2114	2114	2114	2114	2114	2114	2127	2127	2127	2140	2140	2140	2140	2140	2140	2153	2237	2281	2297	2281	2297	2297	2297	2297	2297	2297	2281	2281	2281	0	0	5448	5448	5364	5282	5282	5202	5202	5282	5202	5202	5202	5202	5202	5202	5202	5202	5282	5282	5282	5282	5282	5364	5364	5364	5364	5364	5364	5364	5282	5282	5282	5282	5282	5282	5282	5282	5282	5364	5364	5364	5364	5364	5364	5364	5282	5364	5364	5364	5364	5364	5364	5364	5364	5364	5364	5364	5364	5364	5364	5364	5448	5448	5448	5448	5448	5364	5364	5364	5364	5282	5282	5364	3864	3864	3864	3864	3864	3864	3864	3864	3864	3864	3864	3821	3821	3821	3821	3779	3779	3779	3779	3779	3821	3821	3821	3821	3821	3821	3821	3779	3779	3738	3738	3738	3738	3821	3779	3779	3779	3779	3779	3779	3779	3779	3779	3779	3779	3779	3779	3779	3779	3821	3821	3821	3821	3821	3864	3821	3821	3821	3779	3821	3779	3779	5535	5535	5535	5535	5535	5535	5535	5535	5535	5448	5535	5448	5448	5535	5535	5535	5535	5535	5535	5535	5535	5535	5448	5364	5364	5364	5364	5364	5364	5364	5448	5448	5448	5448	5448	5448	5448	5448	5448	5448	5364	5448	5448	5448	5448	5448	5448	5448	5448	5448	5364	5364	5448	5448	0	0	0	3186	3157	3129	3101	3073	3019	3019	2993	2993	2967	2967	2993	2942	2942	2942	2917	2917	2917	2893	2893	2917	2917	2917	2917	2917	2917	2917	2917	2917	2917	2917	2917	2942	2942	2893	2917	2893	2893	2893	2893	2893	2893	2893	2917	2917	2917	2942	2917	2917	2917	2917	2917	2893	2893	2893	2893	2917	2917	2917	2917	2917	2917	2917	2917	2917	2917	2917	2917	2917	2917	2917	2917	3216	3216	3216	3216	3186	3157	3157	3157	3157	0	0	0	0	2297	2297	2281	2281	2281	2297	2297	2297	2297	2297	0	2845	2845	2822	2822	2822	2822	2799	2777	2754	2754	2711	2711	2690	2690	2690	2669	2649	2629	2629	2629	2609	2589	2589	2570	2570	2570	2551	2532	2514	2496	2478	2460	2460	2443	2443	2443	2426	2409	2376	2376	2359	2359	2343	2343	2312	2297	2297	2281	2266	2266	2252	2252	2223	2208	2194	2181	2181	2153	2153	0	0	0	0	1681	1681	1681	1681	1690	1690	1681	1681	1690	1690	1690	0	2039	2039	2051	2039	2039	2027	2015	2003	1992	1992	1992	1992	1969	1969	1958	1958	1936	1925	1915	1915	1915	1904	1904	1904	1904	1904	1883	1873	1873	0	0	0	0	0	0	0	0	0	0	0	0	0	0	0	0	0	0	0
0	0	0	0	0	0	0	0	0	0	0	0	0	0	0	0	0	0	0	0	0	0	0	0	0	0	0	0	0	0	0	0	0	0	2039	2039	2039	2039	2039	2039	2039	2039	2015	2015	2039	2039	2039	2039	2027	2039	2039	2039	2039	2039	2039	2039	2039	2027	2039	2039	2039	2039	2051	2051	2051	2051	2051	2051	2039	2051	2051	2063	2063	2063	2063	2051	2063	2063	2063	2051	2051	2051	2051	2051	2051	2039	2039	2051	2063	2063	2063	2063	2063	2063	2076	2076	2076	2063	2063	2063	2051	2063	2063	2063	2076	2076	2076	2076	2076	2076	2076	2076	2063	2063	2063	2063	2063	2051	2063	2063	2076	2063	2063	2063	2063	2063	2051	2051	2039	2039	2051	2051	2051	2063	2063	2063	2076	2076	2076	2076	2063	2076	2076	2076	2076	2076	2088	2088	2088	2088	2088	2088	2088	2076	2076	2076	2076	2076	2076	2076	2101	2101	2088	2088	2088	2101	2088	2088	2101	2088	2101	2101	2088	2076	2076	2076	2076	2076	2076	2076	2088	2088	2088	2088	2088	2088	2088	2088	2088	2088	2088	2076	2076	2088	2088	2088	2088	2101	2114	2114	2114	2114	2114	2114	2114	2127	2127	2127	2140	2140	2140	2140	2140	2127	2140	2281	2281	2281	2297	2297	2297	2297	2297	2281	2297	2297	2281	2281	0	0	5364	5364	5364	5282	5202	5202	5202	5282	5202	5202	5282	5202	5202	5202	5202	5202	5202	5282	5282	5282	5364	5364	5364	5364	5364	5364	5364	5364	5364	5364	5364	5364	5364	5364	5364	5364	5364	5364	5364	5364	5364	5364	5364	5364	5364	5364	5364	5364	5364	5364	5364	5364	5364	5364	5364	5364	5364	5364	5448	5448	5448	5448	5448	5448	5364	5364	5364	5364	5364	5282	5364	5364	3864	3864	3864	3864	3864	3864	3864	3864	3864	3821	3821	3821	3821	3821	3779	3779	3779	3779	3779	3821	3821	3821	3821	3821	3821	3821	3821	3779	3779	3779	3779	3738	3821	3821	3821	3821	3779	3779	3821	3779	3779	3821	3779	3779	3779	3779	3779	3779	3821	3821	3821	3864	3864	3864	3864	3821	3821	3821	3821	3821	3821	3821	5448	5535	5535	5535	5535	5535	5535	5535	5535	5535	5535	5448	5448	5448	5535	5448	5535	5535	5535	5535	5535	5448	5448	5364	5364	5364	5364	5364	5364	5282	5364	5364	5448	5448	5364	5448	5364	5448	5448	5448	5364	5448	5448	5535	5448	5448	5448	5448	5448	5448	5448	5364	5448	5448	5448	0	0	3186	3186	3129	3129	3073	3046	3019	3019	2993	2993	2967	2967	2993	2967	2967	2942	2942	2917	2917	2917	2967	2942	2942	2942	2942	2942	2942	2942	2917	2917	2917	2942	2942	2942	2967	2917	2917	2893	2893	2893	2893	2893	2893	2942	2942	2942	2942	2917	2917	2917	2942	2942	2917	2893	2893	2893	2917	2917	2917	2942	2942	2917	2942	2942	2942	2942	2917	2942	2917	2917	2917	3246	3216	3216	3216	3216	3186	3157	3129	3129	0	0	0	0	0	2297	2297	2281	2281	2281	2297	2297	2297	2281	2281	0	2869	2845	2845	2822	2822	2822	2799	2799	2754	2754	2711	2711	2690	2690	2669	2649	2649	2629	2649	2629	2609	2589	2589	2589	2570	2551	2532	2532	2514	2496	2478	2460	2443	2443	2426	2426	2409	2392	2376	2359	2359	2359	2343	2327	2312	2297	2297	2281	2266	2252	2252	2252	2223	2223	2208	2194	2181	2153	2153	0	0	0	0	1690	1681	1681	1681	1690	1690	1681	1681	1681	1681	1690	2039	2039	2027	2039	2039	2027	2027	2027	2003	1992	1992	1992	1980	1969	1969	1958	1958	1925	1915	1915	1915	1915	1904	1904	1904	1894	1894	1883	1873	1873	0	0	0	0	0	0	0	0	0	0	0	0	0	0	0	0	0	0	0
0	0	0	0	0	0	0	0	0	0	0	0	0	0	0	0	0	0	0	0	0	0	0	0	0	0	0	0	0	0	0	0	0	0	2027	2027	2027	2027	2027	2027	2027	2027	2027	2039	2039	2039	2039	2027	2027	2027	2039	2027	2027	2027	2027	2027	2027	2027	2027	2027	2027	2027	2039	2039	2051	2051	2051	2051	2039	2039	2051	2063	2063	2063	2039	2051	2051	2063	2051	2051	2051	2051	2063	2063	2051	2051	2051	2051	2063	2063	2063	2063	2063	2063	2076	2076	2076	2076	2076	2088	2076	2063	2063	2063	2076	2076	2063	2063	2063	2076	2076	2063	2063	2063	2063	2063	2063	2051	2063	2063	2076	2063	2063	2063	2063	2063	2063	2063	2051	2051	2051	2051	2051	2051	2063	2063	2063	2076	2063	2063	2063	2063	2076	2076	2088	2076	2088	2088	2088	2088	2088	2088	2088	2076	2076	2076	2076	2076	2076	2076	2101	2101	2088	2088	2088	2101	2101	2101	2101	2101	2088	2101	2088	2088	2076	2088	2076	2076	2076	2076	2076	2088	2088	2088	2088	2088	2088	2088	2088	2076	2076	2076	2076	2076	2076	2076	2088	2101	2114	2114	2114	2114	2114	2114	2101	2114	2127	2127	2127	2140	2140	2153	2140	2140	2140	2281	2281	2297	2297	2297	2297	2297	2297	2297	2297	2281	2281	2281	0	0	5364	5364	5282	5282	5202	5282	5282	5282	5282	5282	5282	5282	5282	5202	5202	5202	5202	5282	5282	5282	5364	5364	5364	5364	5364	5364	5364	5364	5364	5364	5364	5364	5364	5364	5364	5364	5364	5364	5364	5364	5364	5364	5364	5364	5364	5364	5364	5364	5364	5364	5364	5364	5364	5364	5364	5364	5364	5364	5364	5448	5448	5448	5448	5364	5364	5364	5364	5364	5364	5282	5282	5364	3864	3821	3864	3864	3864	3821	3864	3864	3864	3821	3821	3821	3779	3821	3779	3779	3738	3738	3779	3779	3779	3779	3821	3821	3821	3779	3779	3738	3738	3738	3779	3779	3821	3779	3821	3779	3779	3779	3779	3779	3779	3779	3779	3779	3779	3779	3779	3779	3779	3821	3821	3821	3864	3864	3864	3821	3821	3864	3821	3821	3779	3779	5535	5535	5535	5535	5535	5535	5535	5535	5535	5535	5448	5448	5448	5448	5448	5448	5448	5535	5448	5448	5448	5448	5448	5448	5448	5448	5364	5364	5364	5282	5364	5364	5364	5364	5364	5364	5364	5448	5448	5448	5448	5448	5448	5535	5448	5448	5448	5448	5448	5448	5448	5364	5448	5448	5448	5448	5448	5448	3157	3129	3129	3073	3046	3019	3019	2993	2993	2993	2993	2993	2967	2967	2967	2942	2917	2917	2917	2993	2993	2967	2993	2993	2993	2993	2967	2967	2993	2967	2942	2942	2967	2967	2917	2917	2893	2893	2893	2893	2893	2893	2967	2967	2967	2967	2942	2942	2942	2967	2967	2967	2967	2893	2893	2993	2993	2967	2967	2967	2967	2967	2967	2942	2967	2942	2942	3341	3341	3277	3246	3246	3246	3216	3216	3186	3157	3129	3129	3129	0	0	0	0	2297	2297	2297	2297	2297	2297	2297	2281	2281	2281	0	2869	2845	2845	2822	2822	2822	2799	2799	2777	2754	2733	2711	2711	2669	2669	2649	2649	2649	2649	2629	2609	2589	2589	2570	2570	2551	2532	2514	2514	2496	2478	2460	2443	2443	2426	2426	2409	2392	2376	2359	2359	2343	2343	2327	2312	2297	2297	2281	2266	2266	2252	2252	2237	2223	2208	2194	2181	2181	2153	0	0	0	0	1690	1681	1681	1681	1690	1681	1681	1681	1681	1681	0	2015	2015	2015	2027	2027	2027	2027	2015	2003	2003	1992	1980	1969	1969	1958	1958	1958	1925	1925	1915	1915	1915	1915	1904	1904	1894	1894	1883	1873	1873	0	0	0	0	0	0	0	0	0	0	0	0	0	0	0	0	0	0	0
0	0	0	0	0	0	0	0	0	0	0	0	0	0	0	0	0	0	0	0	0	0	0	0	0	0	0	0	0	0	0	0	0	0	2027	2027	2027	2027	2027	2027	2027	2027	2027	2039	2039	2039	2039	2051	2027	2039	2039	2039	2027	2027	2027	2027	2027	2027	2027	2027	2027	2027	2027	2039	2039	2051	2051	2039	2051	2051	2051	2051	2063	2051	2039	2039	2051	2051	2051	2051	2051	2051	2063	2063	2051	2051	2051	2063	2063	2063	2063	2063	2063	2076	2076	2076	2076	2076	2076	2076	2076	2063	2063	2063	2063	2063	2063	2063	2063	2063	2076	2063	2063	2063	2063	2063	2063	2063	2063	2063	2076	2063	2063	2063	2063	2063	2063	2063	2051	2051	2051	2063	2063	2063	2063	2063	2063	2076	2063	2063	2063	2076	2076	2076	2088	2088	2088	2088	2088	2088	2088	2088	2076	2076	2076	2076	2076	2076	2076	2076	2088	2088	2088	2088	2088	2101	2101	2101	2101	2101	2101	2101	2088	2088	2076	2076	2076	2076	2076	2076	2088	2088	2088	2076	2088	2076	2076	2076	2076	2076	2076	2076	2076	2076	2076	2076	2088	2101	2114	2114	2101	2114	2114	2114	2114	2114	2127	2127	2127	2140	2140	2140	2140	2140	2140	2140	2281	2297	2297	2297	2297	2297	2297	2297	2297	2297	2297	2281	0	5364	5282	5282	5282	5282	5282	5282	5282	5282	5282	5282	5282	5282	5282	5202	5202	5202	5202	5202	5202	5202	5364	5364	5364	5364	5364	5364	5282	5282	5282	5282	5282	5364	5364	5364	5364	5364	5364	5364	5364	5364	5364	5364	5364	5364	5364	5364	5364	5364	5364	5364	5364	5364	5364	5364	5364	5364	5364	5364	5448	5448	5448	5448	5448	5448	5448	5364	5364	5364	5364	5282	5282	3864	3821	3821	3864	3821	3821	3821	3821	3821	3821	3821	3821	3779	3779	3779	3738	3738	3738	3738	3738	3779	3779	3779	3779	3821	3779	3779	3779	3738	3738	3738	3779	3779	3821	3821	3821	3779	3779	3779	3779	3779	3779	3779	3779	3779	3779	3779	3779	3779	3779	3779	3821	3821	3821	3864	3864	3864	3821	3864	3864	3821	3821	3821	5535	5535	5535	5535	5535	5535	5535	5626	5626	5535	5448	5448	5448	5448	5448	5448	5448	5448	5448	5448	5448	5448	5448	5448	5448	5448	5448	5448	5448	5364	5364	5364	5364	5448	5448	5448	5448	5448	5448	5448	5448	5448	5448	5448	5448	5448	5448	5448	5448	5448	5448	5364	5448	5448	5448	5448	5448	5448	3157	3129	3129	3101	3073	3046	3019	3019	3019	2993	2993	2993	2993	2993	2967	2993	2993	2993	2993	3019	2993	2993	3019	3019	3019	3019	3019	3019	3019	3019	2993	2967	2993	2993	2967	2917	2917	2917	2917	2917	2893	2893	2993	2993	2993	3019	3019	3019	3019	3019	2993	3019	2993	2993	2993	2993	2993	2993	2993	2993	2993	2993	2993	2967	2967	2967	3341	3341	3341	3277	3277	3246	3246	3216	3216	3157	3129	3129	3101	3101	0	0	0	0	2297	2297	2297	2297	2281	2281	2281	2252	2252	2252	2252	2845	2845	2845	2845	2822	2799	2799	2777	2754	2754	2733	2733	2711	2690	2669	2669	2649	2649	2649	2629	2629	2589	2589	2589	2570	2551	2532	2532	2514	2496	2478	2460	2443	2426	2426	2426	2426	2409	2376	2359	2359	2343	2343	2327	2312	2297	2297	2281	2266	2266	2252	2252	2237	2237	2223	2208	2194	2194	0	0	0	0	0	1681	1681	1681	1690	1690	1690	1681	1681	1681	1681	0	2027	2027	2015	2027	2027	2027	2027	2015	2003	2003	1992	1980	1969	1969	1958	1958	1947	1936	1925	1915	1915	1915	1915	1915	1904	1894	1883	1873	1873	1873	0	0	0	0	0	0	0	0	0	0	0	0	0	0	0	0	0	0	0
0	0	0	0	0	0	0	0	0	0	0	0	0	0	0	0	0	0	0	0	0	0	0	0	0	0	0	0	0	0	0	0	0	0	2015	2015	2027	2027	2027	2027	2027	2027	2027	2039	2039	2039	2051	2051	2051	2051	2051	2051	2039	2027	2039	2039	2027	2027	2027	2027	2027	2039	2039	2039	2051	2051	2051	2051	2051	2051	2051	2063	2063	2063	2051	2051	2051	2051	2051	2051	2051	2051	2051	2051	2051	2051	2051	2051	2051	2063	2063	2063	2063	2076	2076	2076	2076	2076	2076	2088	2076	2063	2063	2063	2063	2063	2063	2063	2063	2063	2063	2063	2063	2051	2051	2063	2063	2063	2063	2063	2063	2063	2063	2063	2051	2063	2063	2051	2051	2051	2051	2063	2063	2063	2063	2063	2063	2063	2063	2076	2076	2076	2076	2076	2088	2088	2088	2088	2076	2088	2088	2076	2076	2076	2076	2076	2076	2076	2076	2076	2088	2088	2088	2088	2101	2101	2101	2101	2101	2088	2088	2088	2088	2088	2088	2088	2088	2088	2088	2076	2088	2088	2088	2076	2076	2076	2076	2076	2076	2076	2076	2076	2076	2076	2076	2076	2088	2088	2101	2101	2101	2101	2101	2101	2114	2114	2127	2127	2127	2140	2140	2140	2140	2140	2140	2297	2297	2297	2297	2297	2297	2297	2297	2297	2312	2312	2312	0	0	5364	5364	5282	5282	5282	5282	5202	5282	5282	5282	5282	5282	5282	5282	5202	5202	5202	5202	5202	5202	5202	5282	5282	5282	5364	5364	5448	5364	5282	5364	5282	5282	5364	5364	5364	5364	5364	5282	5364	5364	5364	5282	5364	5364	5364	5364	5364	5364	5364	5364	5364	5364	5364	5364	5364	5364	5364	5364	5364	5364	5448	5448	5448	5535	5448	5448	5448	5448	5364	5364	5364	5364	3864	3821	3821	3821	3821	3821	3821	3821	3821	3821	3779	3821	3779	3779	3779	3779	3738	3738	3738	3738	3779	3779	3779	3779	3821	3779	3779	3779	3779	3779	3779	3779	3779	3821	3821	3779	3779	3779	3779	3779	3779	3779	3779	3779	3779	3779	3779	3779	3779	3779	3779	3779	3821	3821	3821	3864	3821	3821	3821	3821	3821	3821	3821	5448	5448	5448	5448	5448	5535	5535	5535	5535	5535	5448	5448	5448	5448	5448	5448	5448	5448	5448	5448	5448	5448	5448	5448	5535	5448	5535	5535	5448	5364	5364	5364	5364	5364	5364	5448	5448	5448	5448	5448	5364	5448	5448	5448	5448	5448	5448	5448	5448	5364	5448	5364	5448	5448	5448	5448	5448	3129	3129	3129	3129	3101	3073	3046	3019	3019	3019	3019	3019	3019	3019	3019	3019	3019	3019	3019	3019	3019	3019	3019	3046	3046	3046	3073	3046	3046	3046	3046	3046	3019	3019	3019	2993	2967	2993	2993	2967	2967	2967	3046	3046	3046	3046	3073	3073	3073	3046	3046	3019	3046	3019	3019	3019	3019	3019	3019	3019	2993	2993	2993	2993	2993	3019	3019	3341	3309	3309	3277	3277	3246	3246	3216	3186	3157	3129	3129	3101	3101	0	0	0	0	2297	2297	2281	2281	2266	2266	2266	2252	2252	2252	2845	2845	2845	2845	2822	2822	2799	2799	2799	2777	2754	2754	2733	2733	2711	2690	2669	2669	2669	2649	2649	2629	2589	2589	2570	2570	2551	2532	2514	2514	2496	2478	2460	2443	2426	2426	2426	2426	2409	2376	2359	2359	2343	2343	2327	2312	2297	2297	2297	2266	2252	2252	2252	2237	2237	2223	2208	2208	2194	0	0	0	0	0	1681	1681	1690	1681	1681	1681	1681	1681	1681	1681	0	2027	2027	2027	2039	2027	2027	2015	2015	2003	1992	1992	1980	1980	1969	1958	1958	1947	1936	1925	1915	1925	1915	1915	1915	1883	1894	1883	1873	1873	1873	0	0	0	0	0	0	0	0	0	0	0	0	0	0	0	0	0	0	0
0	0	0	0	0	0	0	0	0	0	0	0	0	0	0	0	0	0	0	0	0	0	0	0	0	0	0	0	0	0	0	0	0	0	2015	2027	2027	2027	2027	2027	2027	2027	2027	2027	2027	2039	2051	2051	2051	2051	2051	2051	2039	2039	2039	2039	2039	2039	2039	2027	2039	2039	2039	2039	2051	2039	2051	2039	2039	2039	2039	2051	2063	2063	2051	2051	2051	2051	2051	2051	2051	2051	2039	2039	2039	2051	2051	2051	2063	2063	2063	2063	2063	2076	2076	2076	2076	2076	2076	2076	2076	2063	2063	2063	2063	2063	2063	2063	2063	2063	2063	2063	2063	2051	2063	2063	2063	2063	2063	2063	2076	2063	2063	2063	2063	2063	2063	2063	2063	2051	2051	2063	2063	2051	2051	2063	2063	2063	2063	2063	2063	2076	2076	2076	2076	2076	2076	2076	2076	2088	2076	2076	2076	2076	2076	2076	2063	2063	2063	2076	2088	2088	2088	2088	2088	2101	2101	2088	2088	2076	2076	2088	2088	2088	2088	2088	2088	2088	2088	2076	2076	2088	2088	2088	2076	2076	2076	2076	2076	2076	2076	2076	2076	2076	2076	2076	2088	2088	2101	2101	2101	2101	2101	2101	2114	2127	2127	2127	2127	2140	2140	2140	2140	2140	2140	2297	2297	2312	2312	2297	2312	2297	2312	2312	2312	2297	2297	2297	0	5364	5282	5282	5282	5282	5282	5202	5282	5282	5282	5282	5282	5202	5202	5202	5202	5202	5202	5202	5202	5202	5282	5282	5364	5364	5364	5364	5364	5364	5364	5364	5282	5364	5364	5364	5282	5364	5282	5282	5282	5282	5282	5364	5364	5364	5364	5364	5364	5364	5364	5364	5364	5364	5364	5364	5364	5364	5364	5364	5364	5448	5448	5448	5448	5448	5448	5448	5448	5364	5364	5282	3821	3821	3821	3821	3821	3821	3779	3779	3779	3779	3779	3779	3779	3779	3779	3779	3738	3738	3738	3738	3738	3738	3779	3779	3779	3779	3779	3779	3779	3779	3779	3779	3779	3779	3821	3779	3779	3779	3779	3779	3779	3779	3779	3779	3779	3779	3779	3779	3779	3779	3779	3779	3779	3821	3821	3821	3864	3821	3821	3821	3821	3821	3821	3779	3779	5448	5448	5448	5448	5535	5535	5535	5535	5448	5448	5448	5448	5448	5448	5448	5448	5448	5448	5448	5448	5448	5448	5448	5535	5535	5535	5535	5448	5364	5364	5364	5364	5364	5364	5364	5448	5448	5448	5448	5364	5448	5448	5448	5448	5448	5448	5448	5448	5448	5448	5364	5448	5448	5448	5448	5448	5448	3129	3129	3129	3101	3073	3073	3046	3046	3046	3046	3046	3073	3101	3101	3101	3046	3046	3046	3046	3046	3046	3046	3046	3046	3073	3073	3073	3073	3046	3046	3073	3046	3019	3019	3019	2993	2993	2993	2967	2967	3101	3101	3129	3129	3073	3101	3101	3073	3073	3073	3073	3073	3073	3073	3073	3073	3046	3046	3046	3046	3019	3019	3019	3019	3019	3019	3341	3341	3309	3277	3277	3246	3246	3216	3186	3157	3129	3129	3129	3129	0	0	0	0	2297	2297	2281	2281	2252	2252	2266	2252	2252	2252	2845	2845	2845	2845	2822	2822	2799	2799	2777	2777	2754	2754	2754	2733	2711	2690	2690	2669	2669	2649	2649	2589	2570	2589	2570	2570	2551	2532	2514	2496	2496	2478	2460	2443	2443	2426	2426	2426	2409	2392	2376	2359	2359	2343	2327	2327	2312	2312	2281	2266	2252	2252	2252	2237	2237	2223	2223	2208	2208	0	0	0	0	0	1681	1681	1681	1681	1681	1681	1681	1673	1673	1673	1673	2027	2039	2039	2039	2039	2027	2015	2003	1992	1992	1992	1992	1980	1969	1969	1958	1958	1947	1936	1925	1915	1904	1894	1894	1894	1894	1883	1873	1873	1873	0	0	0	0	0	0	0	0	0	0	0	0	0	0	0	0	0	0	0
0	0	0	0	0	0	0	0	0	0	0	0	0	0	0	0	0	0	0	0	0	0	0	0	0	0	0	0	0	0	0	0	0	0	2015	2027	2015	2015	2015	2027	2027	2015	2015	2027	2027	2027	2027	2039	2039	2039	2051	2051	2039	2027	2039	2039	2027	2039	2039	2027	2039	2039	2039	2039	2039	2039	2039	2039	2039	2039	2039	2051	2063	2063	2063	2063	2051	2051	2051	2051	2051	2051	2051	2039	2039	2051	2051	2063	2063	2063	2063	2063	2076	2076	2076	2076	2063	2076	2076	2076	2063	2063	2063	2063	2063	2063	2063	2063	2063	2063	2051	2051	2063	2063	2063	2063	2063	2063	2063	2063	2063	2063	2063	2063	2063	2063	2063	2063	2063	2063	2063	2063	2063	2063	2063	2063	2063	2063	2063	2063	2063	2076	2076	2076	2076	2076	2076	2076	2076	2076	2076	2076	2076	2076	2076	2076	2076	2063	2076	2076	2088	2088	2088	2101	2101	2088	2088	2088	2088	2076	2076	2088	2088	2088	2088	2088	2088	2088	2088	2088	2088	2076	2088	2076	2076	2076	2076	2076	2076	2076	2076	2076	2076	2076	2076	2076	2088	2088	2101	2101	2101	2101	2101	2101	2114	2114	2127	2127	2127	2127	2140	2140	2140	2140	2140	2281	2281	2297	2312	2297	2312	2312	2312	2312	2312	2312	2312	2312	0	0	5364	5282	5282	5282	5282	5202	5282	5282	5282	5282	5282	5282	5282	5282	5202	5202	5202	5202	5202	5202	5282	5282	5364	5364	5364	5364	5364	5282	5364	5364	5282	5364	5364	5364	5282	5364	5282	5282	5282	5282	5282	5364	5282	5364	5364	5364	5364	5364	5364	5364	5364	5364	5364	5364	5364	5364	5364	5364	5364	5364	5448	5364	5448	5448	5364	5364	5448	5364	5364	5364	3821	3821	3821	3821	3821	3779	3779	3779	3779	3821	3821	3779	3821	3779	3779	3779	3738	3738	3738	3738	3738	3738	3779	3779	3779	3779	3779	3779	3779	3738	3738	3738	3779	3779	3821	3779	3779	3779	3779	3779	3779	3779	3779	3779	3779	3779	3779	3779	3779	3779	3779	3779	3779	3779	3821	3821	3821	3821	3821	3821	3821	3821	3821	3821	3821	5448	5448	5448	5448	5535	5535	5535	5535	5448	5448	5448	5448	5448	5448	5448	5448	5448	5448	5448	5448	5448	5448	5448	5535	5535	5448	5448	5448	5364	5364	5364	5364	5364	5364	5364	5364	5448	5364	5448	5364	5448	5448	5448	5448	5448	5448	5364	5448	5364	5364	5364	5364	5448	5448	5448	5448	5448	3157	3129	3129	3129	3101	3101	3073	3101	3129	3101	3101	3129	3129	3129	3101	3101	3101	3101	3073	3046	3046	3073	3073	3101	3101	3129	3129	3129	3129	3101	3129	3101	3073	3046	3046	3019	3019	2993	2993	2993	3101	3101	3101	3129	3101	3101	3101	3101	3073	3073	3046	3073	3101	3073	3073	3073	3073	3073	3073	3046	3046	3019	3046	3046	3046	3373	3341	3341	3309	3277	3277	3246	3246	3216	3216	3186	3157	3129	3129	3129	0	0	0	0	2297	2281	2281	2252	2252	2237	2252	2252	2252	2252	0	2869	2845	2845	2822	2822	2799	2799	2777	2777	2754	2754	2754	2754	2711	2690	2690	2690	2669	2649	2649	2589	2589	2570	2570	2570	2551	2514	2514	2496	2496	2496	2478	2460	2443	2443	2426	2409	2409	2376	2376	2359	2359	2343	2327	2312	2312	2312	2281	2266	2252	2252	2252	2252	2237	2237	2237	2223	2223	0	0	0	0	1681	1673	1681	1681	1681	1681	1681	1673	1673	1673	1673	1673	0	2051	2051	2039	2039	2027	2027	2003	1992	1992	1992	1992	1980	1969	1969	1958	1958	1947	1936	1925	1915	1904	1894	1883	1883	1883	1883	1873	1873	1873	0	0	0	0	0	0	0	0	0	0	0	0	0	0	0	0	0	0	0
0	0	0	0	0	0	0	0	0	0	0	0	0	0	0	0	0	0	0	0	0	0	0	0	0	0	0	0	0	0	0	0	0	0	2015	2027	2027	2027	2027	2015	2015	2015	2015	2015	2015	2027	2027	2027	2027	2027	2027	2039	2015	2015	2027	2027	2027	2027	2027	2027	2027	2027	2027	2027	2027	2027	2027	2051	2039	2051	2039	2063	2063	2063	2063	2063	2063	2051	2063	2063	2051	2051	2051	2051	2051	2051	2051	2051	2063	2063	2063	2063	2063	2063	2063	2063	2063	2063	2063	2063	2063	2063	2063	2063	2063	2063	2051	2051	2051	2051	2051	2063	2063	2063	2063	2063	2063	2063	2063	2063	2063	2076	2063	2076	2063	2076	2076	2076	2076	2063	2063	2063	2063	2063	2063	2063	2063	2063	2063	2063	2063	2063	2076	2076	2076	2076	2076	2076	2076	2076	2076	2076	2076	2076	2076	2076	2076	2076	2076	2076	2088	2088	2088	2101	2088	2101	2088	2088	2088	2088	2076	2088	2088	2088	2088	2088	2088	2088	2088	2076	2076	2076	2088	2076	2076	2076	2076	2076	2063	2063	2076	2076	2076	2076	2076	2076	2088	2088	2088	2101	2101	2101	2101	2101	2114	2114	2127	2127	2127	2127	2140	2153	2153	2181	2208	2266	2281	2297	2312	2297	2312	2312	2312	2327	2327	2312	2327	2327	0	0	5364	5282	5282	5282	5282	5282	5282	5282	5282	5282	5282	5282	5282	5282	5202	5202	5202	5202	5202	5202	5282	5282	5364	5364	5364	5364	5364	5282	5364	5364	5282	5364	5364	5364	5364	5364	5364	5364	5282	5364	5282	5364	5364	5364	5364	5364	5364	5364	5364	5364	5364	5282	5364	5364	5364	5364	5364	5364	5364	5364	5448	5448	5448	5448	5364	5364	5364	5364	5364	5364	3864	3864	3821	3821	3821	3821	3779	3779	3779	3821	3821	3779	3821	3779	3779	3779	3738	3738	3738	3738	3738	3738	3738	3738	3738	3738	3779	3779	3738	3738	3738	3738	3738	3779	3821	3779	3779	3779	3779	3779	3779	3779	3779	3779	3779	3779	3779	3779	3779	3779	3779	3779	3779	3779	3821	3821	3821	3821	3821	3821	3821	3864	3864	3864	3952	3952	5448	5448	5448	5448	5535	5535	5535	5448	5448	5448	5448	5448	5448	5448	5448	5448	5448	5448	5448	5448	5535	5535	5535	5535	5535	5448	5448	5448	5364	5364	5364	5364	5364	5364	5364	5364	5448	5448	5364	5448	5364	5448	5364	5364	5448	5364	5364	5364	5364	5364	5364	5364	5448	5448	5448	5535	3157	3157	3157	3129	3129	3129	3101	3129	3157	3157	3157	3157	3129	3157	3129	3129	3129	3129	3101	3073	3073	3101	3101	3101	3129	3129	3157	3157	3186	3157	3157	3129	3101	3073	3073	3046	3019	3019	3019	3046	3073	3073	3101	3101	3129	3129	3129	3129	3129	3101	3101	3101	3101	3101	3101	3101	3129	3129	3101	3101	3046	3019	3019	3019	3406	3373	3373	3341	3309	3277	3277	3246	3246	3216	3216	3186	3216	3157	3129	3216	3277	3309	3309	2266	2281	2266	2266	2266	2252	2252	2252	2252	2252	2252	2893	2869	2845	2845	2822	2822	2799	2777	2777	2754	2754	2754	2754	2733	2733	2690	2669	2669	2649	2649	2629	2609	2589	2570	2570	2570	2551	2514	2496	2496	2496	2478	2478	2460	2443	2443	2426	2392	2392	2392	2376	2359	2343	2343	2327	2312	2312	2312	2312	2297	2266	2252	2252	2252	2237	2237	2237	2223	2223	2223	0	0	0	1673	1673	1673	1673	1681	1681	1681	1673	1673	1673	1681	1681	1681	2051	2039	2039	2039	2039	2027	2015	2003	1992	1992	1992	1980	1980	1969	1969	1958	1947	1936	1915	1915	1904	1894	1883	1883	1883	1873	1873	1873	1873	0	0	0	0	0	0	0	0	0	0	0	0	0	0	0	0	0	0	0
0	0	0	0	0	0	0	0	0	0	0	0	0	0	0	0	0	0	0	0	0	0	0	0	0	0	0	0	0	0	0	0	0	0	2015	2027	2015	2015	2015	2015	2003	2003	2015	2015	2015	2015	2027	2027	2027	2015	2015	2015	2015	2015	2015	2027	2027	2027	2027	2027	2027	2027	2027	2027	2027	2027	2027	2039	2051	2051	2051	2063	2063	2063	2063	2063	2063	2063	2063	2063	2051	2051	2051	2063	2051	2051	2051	2063	2063	2063	2063	2063	2076	2063	2063	2063	2063	2063	2063	2063	2063	2063	2063	2063	2063	2063	2051	2051	2051	2039	2051	2063	2063	2063	2063	2063	2076	2063	2063	2063	2063	2076	2063	2076	2063	2076	2076	2076	2076	2063	2063	2063	2063	2063	2063	2063	2063	2063	2063	2063	2063	2076	2076	2076	2076	2076	2076	2076	2076	2076	2076	2076	2076	2076	2076	2076	2063	2063	2063	2063	2063	2088	2088	2088	2088	2076	2076	2088	2088	2076	2076	2076	2088	2088	2088	2088	2088	2088	2088	2076	2088	2088	2088	2088	2088	2076	2076	2076	2076	2076	2076	2076	2076	2076	2076	2088	2088	2088	2088	2088	2088	2088	2088	2101	2101	2114	2114	2127	2127	2127	2140	2153	2153	2181	2223	2252	2281	2297	2312	2312	2312	2312	2327	2327	2327	2327	2327	2359	2359	0	5364	5282	5364	5364	5282	5282	5282	5282	5282	5282	5282	5282	5282	5282	5202	5202	5202	5202	5202	5202	5282	5282	5282	5282	5282	5282	5364	5282	5364	5364	5364	5364	5364	5364	5364	5364	5364	5364	5282	5364	5282	5364	5364	5364	5364	5364	5364	5364	5364	5364	5364	5282	5364	5364	5364	5364	5364	5364	5364	5364	5364	5364	5364	5364	5364	5364	5364	5364	5364	5282	3864	3821	3821	3821	3821	3779	3779	3779	3779	3821	3821	3821	3821	3779	3779	3738	3738	3738	3738	3738	3738	3738	3738	3738	3738	3738	3738	3738	3738	3738	3738	3738	3738	3738	3779	3779	3779	3779	3779	3779	3779	3779	3779	3779	3779	3779	3779	3779	3779	3779	3779	3779	3779	3821	3821	3864	3864	3864	3821	3821	3821	3864	3821	3821	3907	3907	5364	5448	5448	5448	5448	5535	5535	5448	5448	5448	5448	5448	5448	5448	5448	5448	5448	5448	5448	5448	5535	5535	5535	5535	5535	5535	5448	5448	5364	5364	5364	5364	5364	5364	5364	5364	5364	5364	5364	5448	5364	5364	5364	5364	5364	5364	5364	5364	5364	5364	5364	5364	5448	5448	5364	5364	3157	3157	3157	3129	3129	3129	3129	3157	3186	3186	3157	3157	3157	3157	3157	3129	3129	3129	3129	3101	3101	3129	3157	3186	3186	3216	3186	3216	3216	3216	3216	3216	3216	3073	3073	3046	3046	3019	3019	3046	3073	3101	3101	3129	3129	3129	3129	3129	3129	3101	3129	3101	3101	3101	3101	3101	3129	3129	3129	3546	3475	3475	3406	3406	3406	3373	3341	3341	3341	3277	3277	3246	3246	3246	3216	3186	3216	3216	3157	3157	3157	3157	3309	2266	2281	2266	2266	2266	2266	2266	2252	2252	2252	0	2893	2869	2845	2822	2822	2799	2799	2777	2777	2754	2754	2754	2754	2733	2690	2669	2669	2669	2649	2649	2629	2589	2570	2570	2570	2551	2532	2514	2496	2496	2478	2478	2478	2478	2426	2409	2392	2376	2376	2376	2376	2359	2343	2343	2327	2312	2312	2312	2312	2297	2266	2266	2252	2252	2252	2237	2237	2237	2223	2223	0	0	0	1681	1681	1681	1681	1681	1681	1681	1673	1681	1673	1673	1681	2039	2039	2039	2039	2039	2039	2027	2015	2003	1992	1992	1980	1980	1969	1958	1958	1947	1947	1936	1925	1915	1915	1904	1894	1894	1883	1883	1873	1873	1873	0	0	0	0	0	0	0	0	0	0	0	0	0	0	0	0	0	0	0
0	0	0	0	0	0	0	0	0	0	0	0	0	0	0	0	0	0	0	0	0	0	0	0	0	0	0	0	0	0	0	0	0	0	2015	2015	2015	2015	2015	2015	2003	2003	2015	2015	2015	2015	2027	2027	2027	2027	2015	2015	2015	2015	2015	2027	2027	2027	2027	2027	2027	2027	2027	2027	2027	2027	2027	2051	2051	2051	2039	2063	2051	2051	2051	2063	2063	2063	2063	2063	2051	2051	2051	2051	2051	2051	2051	2051	2063	2063	2063	2063	2076	2063	2063	2063	2063	2063	2051	2063	2051	2051	2063	2063	2063	2063	2063	2051	2051	2051	2051	2063	2063	2063	2063	2063	2076	2063	2063	2063	2063	2063	2063	2063	2063	2063	2063	2063	2076	2063	2063	2063	2063	2063	2063	2063	2063	2063	2076	2076	2076	2076	2076	2076	2076	2076	2076	2076	2076	2076	2076	2076	2076	2063	2063	2076	2063	2063	2063	2063	2088	2088	2088	2088	2088	2076	2076	2076	2076	2076	2076	2076	2088	2088	2088	2088	2088	2088	2088	2088	2088	2088	2101	2088	2088	2076	2076	2076	2076	2076	2076	2076	2076	2076	2076	2076	2076	2076	2088	2088	2088	2088	2088	2088	2101	2101	2101	2114	2114	2127	2127	2140	2153	2194	2223	2223	2266	2297	2312	2312	2327	2312	2327	2327	2327	2327	2359	2376	2376	0	0	5282	5282	5282	5282	5282	5282	5282	5282	5282	5282	5282	5282	5282	5202	5202	5202	5202	5202	5202	5282	5282	5282	5364	5282	5364	5364	5282	5364	5364	5364	5364	5364	5364	5364	5364	5364	5364	5282	5282	5282	5364	5282	5282	5364	5364	5364	5364	5364	5364	5364	5282	5364	5364	5364	5364	5364	5364	5364	5364	5364	5364	5364	5364	5364	5364	5364	5364	5364	5282	3864	3821	3821	3821	3821	3779	3779	3779	3779	3821	3821	3821	3821	3821	3779	3738	3738	3738	3738	3738	3738	3738	3738	3738	3738	3738	3738	3738	3738	3738	3738	3738	3779	3779	3779	3779	3779	3779	3779	3779	3738	3738	3779	3779	3779	3779	3779	3779	3779	3779	3779	3779	3779	3821	3821	3864	3864	3864	3821	3821	3779	3821	3821	3821	3864	3864	3864	5364	5448	5448	5448	5448	5448	5448	5448	5448	5448	5448	5364	5448	5448	5448	5448	5448	5448	5448	5535	5535	5535	5535	5535	5535	5448	5448	5364	5364	5364	5364	5364	5448	5364	5364	5364	5364	5364	5364	5364	5364	5364	5364	5364	5364	5364	5364	5364	5364	5364	5364	5364	5364	5364	5448	5535	5535	5535	5535	3186	3186	3186	3216	3216	3216	3216	3216	3186	3186	3157	3157	3129	3129	3129	3129	3129	3157	3157	3186	3186	3216	3216	3216	3216	3246	3216	3216	3216	0	0	0	3046	3019	3019	3046	3073	3073	3073	3101	3129	3129	3129	3129	3129	3101	3101	3101	3101	3101	3101	3101	3101	3101	3583	3546	3475	3475	3440	3406	3406	3373	3341	3341	3309	3277	3246	3246	3246	3216	3216	3186	3216	3216	3216	3186	3157	3129	3129	0	2281	2266	2266	2266	2281	2281	2281	2281	2252	2869	2869	2869	2845	2822	2822	2799	2799	2777	2754	2754	2733	2754	2754	2733	2690	2669	2669	2649	2649	2629	2609	2589	2570	2570	2551	2551	2532	2514	2496	2496	2496	2496	2478	2478	2443	2392	2376	2376	2376	2392	2376	2359	2343	2343	2327	2312	2312	2312	2312	2297	2297	2266	2252	2252	2252	2237	2237	2237	2223	2223	2223	0	0	1673	1681	1681	1681	1681	1681	1681	1681	1681	1665	1665	0	2039	2039	2039	2039	2027	2027	2015	2015	2003	1992	1992	1992	1958	1958	1958	1947	1947	1947	1936	1936	1915	1915	1904	1894	1894	1883	1873	1873	1873	1873	0	0	0	0	0	0	0	0	0	0	0	0	0	0	0	0	0	0	0
0	0	0	0	0	0	0	0	0	0	0	0	0	0	0	0	0	0	0	0	0	0	0	0	0	0	0	0	0	0	0	0	0	0	2015	2015	2015	2015	2015	2015	2003	2003	2015	2015	2015	2015	2039	2027	2027	2015	2015	2015	2015	2015	2015	2027	2015	2027	2027	2027	2027	2027	2027	2027	2027	2027	2027	2051	2051	2051	2051	2063	2063	2063	2051	2063	2063	2063	2063	2063	2051	2051	2063	2063	2051	2051	2051	2051	2051	2063	2051	2063	2063	2063	2063	2063	2063	2063	2051	2051	2051	2051	2063	2063	2063	2063	2051	2051	2063	2063	2063	2063	2063	2063	2063	2076	2076	2076	2063	2063	2063	2063	2063	2063	2063	2063	2063	2063	2063	2063	2076	2063	2076	2076	2076	2076	2076	2076	2076	2076	2076	2076	2076	2076	2076	2076	2076	2076	2076	2076	2076	2076	2076	2063	2063	2076	2063	2063	2076	2076	2088	2088	2088	2088	2088	2076	2076	2076	2076	2076	2076	2076	2088	2088	2088	2076	2076	2088	2088	2088	2088	2088	2088	2088	2088	2088	2088	2088	2088	2076	2076	2088	2076	2076	2076	2076	2076	2088	2088	2088	2088	2088	2088	2088	2088	2101	2101	2114	2114	2114	2127	2140	2153	2208	2208	2237	2266	2297	2297	2312	2312	2327	2327	2343	2343	2359	2359	2376	2376	0	0	5364	5282	5282	5282	5282	5282	5282	5282	5282	5202	5202	5282	5282	5202	5202	5202	5202	5202	5202	5202	5282	5282	5364	5364	5364	5364	5364	5364	5364	5364	5364	5364	5364	5364	5364	5364	5282	5282	5282	5282	5282	5364	5282	5282	5364	5364	5364	5364	5364	5364	5364	5364	5364	5364	5364	5364	5364	5364	5364	5364	5364	5364	5364	5282	5282	5282	5282	5282	3864	3864	3864	3821	3821	3821	3779	3779	3779	3779	3779	3821	3779	3779	3821	3779	3779	3779	3738	3738	3738	3738	3738	3738	3738	3738	3738	3738	3738	3738	3738	3738	3779	3779	3779	3779	3779	3779	3779	3779	3779	3738	3738	3779	3779	3779	3779	3779	3779	3779	3779	3779	3779	3821	3821	3821	3821	3821	3821	3821	3821	3779	3779	3821	3821	3864	3864	3864	5364	5364	5364	5364	5448	5448	5448	5448	5448	5448	5448	5364	5448	5448	5448	5448	5448	5448	5448	5535	5535	5448	5448	5448	5448	5448	5448	5364	5448	5448	5448	5448	5448	5364	5364	5364	5364	5364	5364	5364	5364	5364	5364	5448	5364	5364	5364	5364	5364	5364	5364	5364	5364	5364	5448	5535	5535	5535	5448	5448	5535	3246	3246	3246	3246	3216	3216	3216	3186	3186	3157	3157	3157	3129	5448	5448	5448	5448	5448	5535	3216	3216	3216	3216	3277	3246	3246	3216	0	0	0	3046	3019	3046	3046	3073	3073	3101	3129	3157	3157	3129	3129	3129	3129	3129	3101	3101	3101	3101	3101	3659	3659	3583	3546	3510	3475	3475	3440	3406	3406	3341	3341	3309	3277	3246	3246	3246	3216	3216	3186	3216	3216	3186	3186	3157	3129	3129	0	2281	2266	2266	2266	2281	2297	2297	2297	0	2869	2845	2845	2845	2822	2799	2799	2799	2777	2754	2754	2733	2711	2711	2711	2690	2669	2669	2649	2649	2629	2609	2589	2570	2570	2551	2551	2532	2514	2496	2496	2496	2496	2478	2460	2443	2443	2392	2376	2392	2392	2376	2359	2343	2343	2327	2312	2312	2312	2312	2297	2281	2266	2266	2252	2237	2223	2223	2223	2208	2208	2208	0	0	1673	1681	1681	1681	1681	1681	1681	1673	1673	1673	1673	1673	2039	2039	2039	2027	2027	2027	2015	2003	2003	2003	1992	1992	1958	1958	1958	1947	1947	1936	1936	1925	1915	1915	1904	1894	1894	1883	1873	1873	1873	1873	0	0	0	0	0	0	0	0	0	0	0	0	0	0	0	0	0	0	0
0	0	0	0	0	0	0	0	0	0	0	0	0	0	0	0	0	0	0	0	0	0	0	0	0	0	0	0	0	0	0	0	0	0	2015	2015	2015	2015	2015	2015	2015	2015	2027	2027	2027	2027	2039	2027	2027	2015	2015	2015	2015	2015	2015	2015	2015	2027	2027	2027	2027	2015	2027	2027	2015	2039	2027	2051	2051	2051	2051	2063	2051	2051	2051	2063	2063	2063	2063	2063	2051	2051	2063	2063	2051	2051	2051	2039	2051	2051	2063	2063	2063	2063	2063	2063	2063	2063	2063	2063	2051	2051	2063	2063	2063	2063	2051	2051	2063	2063	2063	2063	2063	2063	2063	2076	2076	2076	2063	2063	2063	2063	2063	2063	2063	2063	2063	2063	2063	2076	2076	2063	2063	2076	2076	2076	2076	2076	2076	2076	2076	2076	2076	2076	2076	2076	2076	2076	2076	2076	2076	2076	2076	2076	2076	2076	2076	2076	2076	2076	2088	2088	2088	2088	2076	2076	2076	2076	2076	2076	2076	2076	2088	2088	2076	2076	2076	2076	2076	2076	2076	2088	2088	2088	2088	2088	2088	2088	2088	2076	2076	2088	2076	2088	2088	2088	2088	2088	2088	2088	2088	2088	2076	2088	2076	2101	2101	2101	2101	2114	2127	2153	2167	2208	2223	2237	2252	2281	2312	2312	2343	2343	2343	2359	2359	2376	2392	2376	2376	0	0	5364	5282	5282	5202	5282	5282	5282	5282	5282	5282	5282	5282	5282	5282	5202	5202	5202	5202	5202	5282	5282	5364	5364	5364	5364	5364	5364	5364	5364	5364	5364	5364	5364	5364	5364	5282	5282	5282	5282	5282	5282	5282	5282	5364	5364	5364	5364	5364	5364	5364	5364	5364	5364	5364	5364	5364	5364	5364	5364	5282	5364	5282	5282	5282	5282	5282	5282	5282	3864	3864	3864	3821	3821	3821	3779	3779	3779	3779	3821	3864	3779	3779	3821	3779	3779	3779	3738	3738	3738	3738	3738	3738	3738	3738	3738	3738	3738	3738	3738	3738	3738	3779	3779	3821	3821	3821	3779	3779	3779	3779	3779	3779	3779	3779	3779	3779	3779	3779	3779	3779	3821	3821	3821	3821	3821	3821	3821	3821	3779	3779	3864	3864	3864	3864	3864	3864	5364	5364	5448	5448	5448	5448	5448	5448	5448	5448	5448	5364	5448	5448	5448	5448	5448	5448	5535	5535	5535	5448	5448	5448	5448	5448	5448	5364	5448	5448	5448	5448	5448	5448	5448	5448	5364	5364	5364	5364	5364	5364	5364	5364	5448	5364	5364	5364	5364	5364	5364	5364	5364	5364	5448	5448	5448	5448	5448	5535	5535	5535	5626	5535	5535	3216	3216	3216	3186	5448	5448	5448	5448	5448	5448	5448	5448	5448	5448	5448	5364	3216	3216	3216	3277	3246	3246	0	0	0	0	0	3019	3046	3046	3101	3101	3101	3129	3157	3129	3129	3129	3129	3129	3101	3101	3101	3738	3659	3659	3659	3583	3546	3546	3510	3475	3475	3440	3406	3406	3341	3341	3309	3277	3246	3246	3246	3246	3216	3216	3216	3216	3216	3216	3186	3157	3157	0	2281	2266	2281	2281	2297	2297	2297	2297	0	0	2845	2845	2822	2822	2822	2799	2799	2777	2754	2754	2733	2711	2711	2690	2669	2669	2649	2649	2649	2629	2609	2589	2570	2570	2551	2551	2532	2514	2496	2496	2496	2496	2478	2460	2426	2426	2409	2392	2392	2392	2376	2376	2343	2343	2327	2312	2312	2312	2297	2297	2281	2266	2266	2252	2237	2223	2223	2208	2208	2194	2194	0	0	0	0	1706	1706	1681	1681	1681	1673	1673	1673	1673	1673	0	2039	2039	2027	2027	2027	2015	2015	2003	1992	1992	1992	1958	1958	1958	1958	1947	1936	1936	1925	1915	1915	1904	1894	1894	1894	1883	1883	1873	1873	0	0	0	0	0	0	0	0	0	0	0	0	0	0	0	0	0	0	0
0	0	0	0	0	0	0	0	0	0	0	0	0	0	0	0	0	0	0	0	0	0	0	0	0	0	0	0	0	0	0	0	0	0	2015	2015	2015	2015	2015	2015	2015	2015	2027	2027	2027	2039	2039	2027	2027	2015	2015	2015	2003	2015	2015	2015	2015	2015	2027	2015	2015	2015	2015	2015	2015	2027	2027	2051	2051	2051	2051	2063	2051	2051	2051	2051	2051	2063	2063	2063	2051	2063	2051	2063	2051	2051	2051	2051	2051	2051	2063	2063	2063	2063	2063	2063	2063	2063	2063	2063	2063	2063	2063	2063	2063	2063	2051	2051	2051	2063	2063	2063	2063	2063	2063	2063	2063	2063	2063	2063	2063	2063	2063	2063	2063	2063	2063	2063	2076	2076	2076	2063	2063	2076	2076	2076	2076	2076	2076	2076	2076	2076	2076	2076	2076	2076	2076	2076	2076	2076	2076	2076	2076	2076	2076	2076	2076	2076	2076	2076	2088	2088	2088	2088	2076	2076	2076	2076	2076	2088	2088	2088	2088	2088	2088	2076	2076	2076	2076	2063	2076	2076	2088	2088	2088	2088	2088	2088	2088	2088	2088	2088	2088	2088	2088	2088	2088	2088	2088	2088	2088	2088	2088	2076	2076	2076	2101	2101	2101	2114	2127	2153	2167	2181	2223	2237	2252	2297	2312	2327	2343	2343	2343	2343	2359	2359	2376	2376	2376	0	0	5364	5282	5282	5202	5282	5282	5282	5282	5282	5282	5282	5282	5282	5202	5202	5202	5202	5202	5202	5282	5282	5364	5364	5364	5364	5364	5282	5364	5364	5364	5364	5364	5364	5364	5364	5282	5282	5282	5282	5282	5282	5282	5282	5364	5364	5364	5364	5364	5364	5364	5364	5364	5364	5364	5364	5364	5364	5364	5364	5282	5282	5282	5282	5282	5282	5282	5282	5282	3864	3864	3864	3821	3821	3821	3821	3779	3779	3779	3779	3821	3779	3821	3821	3821	3821	3779	3779	3738	3738	3738	3738	3698	3698	3738	3698	3738	3738	3738	3738	3779	3779	3779	3779	3821	3821	3821	3779	3779	3779	3779	3779	3779	3779	3779	3779	3779	3779	3779	3779	3821	3821	3821	3821	3821	3821	3821	3821	3821	3779	3779	3864	3864	3864	3864	3907	3907	5364	5364	5364	5364	5448	5448	5448	5448	5448	5448	5448	5448	5448	5448	5448	5448	5448	5448	5448	5535	5535	5448	5448	5448	5448	5448	5448	5448	5448	5448	5448	5448	5448	5448	5448	5448	5364	5364	5364	5364	5364	5364	5364	5364	5364	5364	5364	5364	5364	5364	5364	5364	5364	5364	5448	5448	5448	5535	5535	5535	5535	5626	5626	5626	5535	5535	5364	5364	5448	5448	5448	5448	5448	5448	5448	5448	5448	5448	5448	5448	5364	5448	5448	5448	5448	5535	5535	0	0	0	0	0	3019	3046	3046	3101	3101	3101	3129	3998	3952	3129	3129	3129	3779	3779	3779	3779	3738	3738	3659	3659	3583	3546	3546	3510	3475	3475	3440	3440	3406	3341	3341	3309	3277	3246	3246	3246	3246	3216	3216	3186	3186	3186	3157	3157	3129	3129	0	2281	2266	2281	2281	2297	2297	2281	2281	0	0	2822	2822	2822	2822	2822	2822	2799	2777	2754	2754	2733	2711	2711	2690	2669	2669	2649	2629	2629	2609	2589	2589	2570	2551	2551	2551	2532	2514	2496	2496	2496	2496	2478	2460	2443	2443	2426	2392	2392	2392	2376	2376	2343	2327	2327	2312	2312	2312	2297	2281	2281	2266	2266	2237	2237	2223	2223	2208	2194	2194	2194	0	0	0	0	1706	1706	1698	1698	1681	1681	1673	1673	1681	1681	0	2051	2039	2039	2027	2015	2015	2003	2003	1992	1992	1980	1969	1958	1958	1958	1936	1936	1925	1915	1915	1904	1904	1894	1894	1883	1873	1873	1873	1873	0	0	0	0	0	0	0	0	0	0	0	0	0	0	0	0	0	0	0
0	0	0	0	0	0	0	0	0	0	0	0	0	0	0	0	0	0	0	0	0	0	0	0	0	0	0	0	0	0	0	0	0	0	2015	2015	2015	2015	2015	2015	2027	2015	2027	2039	2039	2027	2051	2039	2039	2015	2015	2003	2003	2015	2015	2015	2015	2015	2027	2015	2015	2015	2015	2015	2015	2027	2027	2027	2051	2051	2051	2051	2051	2039	2039	2039	2039	2039	2063	2063	2051	2051	2051	2063	2051	2051	2051	2051	2051	2051	2051	2063	2063	2063	2063	2063	2063	2063	2063	2063	2063	2063	2063	2063	2063	2063	2051	2051	2063	2063	2063	2063	2063	2063	2076	2076	2063	2063	2063	2063	2063	2063	2063	2063	2063	2063	2063	2063	2063	2076	2076	2063	2063	2076	2076	2076	2076	2076	2076	2076	2076	2076	2088	2088	2088	2076	2076	2088	2076	2076	2076	2076	2076	2076	2076	2076	2076	2076	2076	2076	2088	2088	2088	2088	2076	2076	2076	2076	2076	2088	2088	2088	2088	2088	2088	2076	2076	2076	2076	2063	2076	2076	2076	2076	2088	2088	2088	2088	2088	2088	2088	2088	2088	2088	2088	2088	2088	2088	2088	2088	2088	2088	2088	2088	2088	2088	2088	2101	2114	2114	2127	2140	2181	2194	2208	2223	2252	2297	2327	2343	2359	2343	2343	2343	2359	2343	2359	2359	2359	0	0	5364	5282	5282	5202	5282	5282	5282	5282	5282	5282	5282	5282	5282	5202	5202	5202	5202	5202	5202	5282	5282	5364	5364	5282	5364	5364	5282	5364	5364	5282	5364	5282	5282	5282	5364	5282	5282	5282	5282	5282	5364	5282	5282	5364	5364	5364	5364	5364	5364	5364	5364	5364	5364	5364	5364	5364	5364	5364	5364	5282	5282	5282	5282	5282	5282	5282	5282	5282	3821	3864	3864	3821	3821	3821	3779	3779	3779	3738	3779	3779	3779	3779	3821	3821	3821	3779	3779	3738	3738	3738	3738	3698	3698	3738	3738	3738	3738	3738	3738	3779	3779	3779	3779	3821	3821	3821	3779	3779	3779	3779	3779	3779	3779	3779	3779	3779	3779	3821	3779	3821	3821	3821	3821	3821	3821	3821	3821	3779	3779	3779	3864	3864	3821	3864	3907	3907	5364	5364	5364	5364	5448	5448	5448	5448	5448	5448	5448	5448	5448	5448	5448	5448	5448	5448	5448	5535	5535	5448	5448	5448	5448	5448	5448	5448	5448	5448	5448	5448	5448	5448	5448	5448	5364	5364	5364	5364	5364	5364	5364	5364	5364	5364	5364	5448	5364	5364	5364	5364	5364	5364	5448	5448	5448	5535	5535	5535	5535	5535	5626	5535	5448	5448	5364	5364	5364	5364	5448	5448	5448	5448	5448	5448	5448	5448	5448	5448	5448	5448	5448	5535	5535	5535	5535	0	0	0	0	0	0	0	0	0	0	0	3998	3998	3998	3952	3952	3864	3779	3779	3779	3738	3738	3698	3659	3621	3583	3546	3510	3510	3475	3475	3440	3440	3406	3341	3309	3277	3277	3246	3246	3246	3216	3216	3186	3157	3157	3157	3129	3129	3129	3129	0	0	0	2281	2281	2297	2297	2297	2281	0	0	2822	2822	2822	2822	2822	2822	2799	2777	2754	2754	2733	2711	2711	2690	2669	2669	2649	2629	2629	2609	2589	2589	2570	2551	2551	2551	2532	2514	2514	2496	2496	2496	2478	2460	2443	2443	2409	2409	2392	2392	2376	2376	2343	2327	2327	2312	2312	2312	2297	2281	2281	2266	2266	2237	2237	2223	2208	2208	2194	2194	2194	0	0	0	0	0	1706	1706	1698	1690	1690	1681	1681	1690	1690	0	2051	2039	2039	2027	2015	2003	2003	2003	1992	1980	1980	1969	1958	1958	1958	1936	1925	1925	1915	1904	1904	1904	1894	1894	1883	1883	1873	1873	1873	0	0	0	0	0	0	0	0	0	0	0	0	0	0	0	0	0	0	0
0	0	0	0	0	0	0	0	0	0	0	0	0	0	0	0	0	0	0	0	0	0	0	0	0	0	0	0	0	0	0	0	0	0	2015	2015	2015	2015	2015	2027	2027	2015	2015	2015	2015	2015	2039	2027	2027	2027	2015	2015	2015	2015	2015	2015	2027	2015	2027	2015	2015	2015	2015	2015	2015	2027	2027	2027	2027	2051	2027	2051	2027	2039	2039	2027	2027	2027	2063	2051	2051	2051	2051	2051	2051	2051	2051	2051	2051	2051	2051	2063	2063	2063	2063	2063	2076	2076	2076	2076	2076	2063	2063	2063	2063	2063	2063	2051	2063	2076	2076	2063	2076	2076	2076	2076	2063	2063	2063	2063	2063	2063	2063	2063	2063	2063	2063	2063	2063	2063	2076	2063	2076	2076	2076	2076	2076	2088	2088	2076	2076	2088	2088	2088	2088	2076	2088	2088	2088	2076	2076	2076	2076	2076	2076	2076	2076	2063	2076	2076	2088	2088	2088	2088	2088	2076	2088	2088	2088	2088	2088	2088	2088	2088	2088	2076	2076	2076	2076	2063	2076	2076	2076	2076	2076	2088	2088	2088	2088	2088	2088	2088	2088	2088	2088	2088	2088	2088	2088	2088	2088	2088	2088	2088	2088	2088	2088	2114	2114	2114	2127	2140	2167	2167	2194	2208	2252	2312	2312	2343	2359	2343	2327	2343	2343	2343	2359	2359	2359	0	0	5282	5282	5282	5202	5202	5202	5282	5282	5282	5202	5202	5202	5202	5202	5202	5202	5202	5202	5202	5282	5282	5364	5364	5364	5364	5364	5282	5364	5282	5282	5364	5282	5282	5282	5282	5282	5282	5282	5282	5282	5282	5282	5282	5364	5364	5364	5364	5364	5364	5364	5364	5364	5364	5364	5364	5364	5364	5364	5364	5282	5282	5282	5282	5282	5282	5282	5282	5282	5202	3864	3864	3821	3821	3821	3821	3779	3779	3779	3779	3779	3738	3779	3779	3779	3779	3779	3779	3738	3738	3738	3738	3698	3698	3738	3738	3738	3738	3738	3738	3779	3779	3779	3779	3821	3821	3779	3779	3779	3779	3779	3779	3779	3779	3779	3779	3779	3779	3779	3779	3779	3821	3821	3821	3821	3821	3821	3821	3821	3779	3779	3821	3821	3821	3864	3864	3864	5364	5364	5364	5364	5448	5448	5448	5448	5448	5448	5448	5448	5448	5448	5448	5448	5448	5448	5448	5448	5448	5448	5364	5448	5448	5448	5448	5448	5448	5448	5448	5448	5448	5448	5448	5448	5364	5364	5364	5364	5364	5364	5364	5364	5364	5364	5364	5364	5364	5364	5364	5364	5364	5364	5448	5448	5448	5448	5535	5535	5535	5448	5626	5535	5448	5448	5448	5448	5364	5448	5364	5448	5448	5448	5448	5448	5448	5448	5448	5448	5448	5448	5448	5535	5535	5448	5448	5448	0	0	0	0	0	0	0	0	0	0	3952	3952	3952	3952	3907	3907	3907	3779	3779	3738	3738	3698	3659	3621	3583	3546	3510	3510	3475	3475	3475	3440	3406	3341	3309	3309	3277	3246	3246	3246	3216	3216	3186	3157	3157	3157	3129	3129	3129	3129	0	0	0	2297	2297	2297	2297	2297	0	0	0	2822	2822	2822	2822	2822	2799	2799	2777	2777	2754	2754	2711	2711	2690	2669	2669	2649	2649	2649	2629	2589	2589	2570	2570	2551	2532	2532	2514	2496	2496	2496	2496	2478	2460	2443	2443	2426	2426	2409	2392	2376	2376	2343	2327	2327	2312	2312	2312	2297	2281	2266	2266	2252	2237	2223	2208	2208	2194	2194	2194	2194	0	0	0	0	0	1706	1706	1698	1681	1681	1681	1681	1681	1681	0	2063	2063	2039	2027	2015	2003	2003	2003	1992	1980	1980	1969	1958	1958	1947	1936	1925	1915	1915	1904	1904	1904	1894	1894	1883	1883	1873	1873	1873	0	0	0	0	0	0	0	0	0	0	0	0	0	0	0	0	0	0	0
0	0	0	0	0	0	0	0	0	0	0	0	0	0	0	0	0	0	0	0	0	0	0	0	0	0	0	0	0	0	0	0	0	0	2015	2015	2027	2015	2027	2027	2015	2015	2015	2015	2015	2027	2027	2039	2039	2027	2027	2027	2015	2027	2027	2027	2027	2027	2027	2027	2027	2015	2015	2015	2015	2015	2039	2039	2027	2027	2027	2027	2027	2027	2027	2027	2027	2027	2063	2051	2051	2051	2051	2063	2063	2051	2063	2063	2051	2051	2051	2063	2063	2063	2076	2076	2076	2076	2076	2076	2076	2076	2076	2063	2063	2063	2063	2063	2063	2076	2076	2076	2076	2076	2076	2076	2063	2063	2063	2063	2063	2063	2063	2063	2063	2063	2063	2063	2063	2076	2076	2076	2076	2076	2088	2088	2088	2088	2088	2076	2076	2076	2076	2076	2076	2063	2076	2088	2088	2076	2076	2076	2076	2063	2076	2063	2063	2063	2063	2063	2076	2076	2076	2076	2076	2088	2076	2088	2088	2088	2088	2088	2088	2088	2088	2076	2076	2076	2076	2063	2076	2076	2076	2076	2076	2076	2088	2088	2088	2076	2088	2076	2088	2088	2088	2088	2088	2088	2088	2088	2088	2088	2088	2088	2088	2088	2088	2114	2114	2114	2127	2153	2167	2181	2194	2208	2208	2312	2327	2343	2359	2343	2343	2343	2343	2343	2359	2343	2343	0	0	5282	5282	5282	5202	5202	5202	5202	5202	5202	5202	5202	5202	5202	5202	5125	5125	5202	5202	5202	5282	5282	5364	5364	5364	5364	5364	5282	5282	5282	5282	5282	5282	5282	5282	5282	5282	5282	5282	5282	5282	5282	5282	5282	5364	5364	5364	5364	5364	5364	5364	5364	5364	5364	5364	5364	5364	5364	5364	5364	5364	5282	5282	5282	5282	5282	5282	5282	3864	3864	3864	3864	3864	3864	3821	3821	3779	3821	3779	3779	3779	3738	3779	3779	3821	3779	3779	3779	3779	3779	3738	3738	3698	3698	3738	3738	3738	3738	3738	3738	3779	3779	3779	3779	3779	3779	3779	3779	3779	3779	3779	3779	3779	3779	3779	3779	3779	3779	3779	3779	3779	3821	3821	3779	3779	3779	3821	3821	3779	3779	3779	3821	3821	3821	3821	3821	5282	5364	5364	5364	5364	5448	5448	5448	5448	5448	5448	5448	5448	5448	5448	5448	5448	5448	5448	5448	5448	5448	5448	5364	5448	5448	5448	5448	5448	5448	5448	5448	5448	5448	5448	5448	5448	5364	5448	5448	5364	5364	5364	5364	5364	5364	5364	5364	5364	5364	5364	5364	5364	5364	5364	5448	5448	5448	5535	5535	5535	5535	5448	5448	5535	5448	5448	5448	5448	5448	5448	5364	5448	5448	5448	5448	5448	5448	5448	5448	5448	5448	5448	5448	5448	5448	5448	5448	5448	0	0	0	0	0	0	0	0	0	0	3952	3952	3907	3907	3907	3907	3821	3821	3779	3738	3698	3698	3659	3621	3546	3546	3510	3510	3475	3475	3440	3406	3373	3341	3309	3309	3277	3246	3246	3246	3216	3216	3186	3157	3157	3157	3129	3129	3129	0	0	0	0	2297	2297	2297	2297	2297	0	0	0	2822	2822	2845	2822	2822	2799	2799	2777	2754	2754	2754	2733	2711	2711	2711	2669	2669	2649	2649	2629	2589	2589	2589	2570	2570	2551	2532	2514	2514	2496	2496	2496	2478	2460	2443	2443	2426	2409	2409	2392	2376	2376	2343	2327	2327	2327	2312	2297	2297	2281	2266	2266	2252	2237	2237	2223	2208	2194	2194	2194	0	0	0	0	0	0	1706	1698	1681	1681	1681	1673	1673	1681	1681	0	2063	2063	2039	2027	2015	2015	2003	2003	1992	1992	1980	1969	1958	1958	1958	1936	1925	1915	1915	1904	1904	1904	1904	1894	1894	1883	1873	1873	1873	0	0	0	0	0	0	0	0	0	0	0	0	0	0	0	0	0	0	0
0	0	0	0	0	0	0	0	0	0	0	0	0	0	0	0	0	0	0	0	0	0	0	0	0	0	0	0	0	0	0	0	0	0	2027	2027	2027	2015	2027	2027	2015	2015	2015	2015	2015	2015	2015	2027	2027	2027	2027	2027	2027	2027	2027	2027	2027	2027	2027	2027	2027	2015	2003	2027	2027	2039	2039	2039	2027	2027	2027	2039	2039	2027	2027	2027	2027	2027	2051	2051	2051	2051	2051	2051	2051	2051	2051	2051	2063	2051	2051	2063	2063	2063	2063	2076	2076	2076	2076	2076	2076	2076	2076	2063	2076	2063	2063	2063	2076	2076	2076	2063	2076	2076	2063	2063	2063	2063	2063	2063	2063	2063	2063	2063	2076	2076	2063	2063	2063	2076	2076	2076	2076	2076	2088	2088	2088	2088	2088	2076	2076	2076	2076	2076	2063	2063	2076	2076	2076	2076	2076	2063	2076	2076	2063	2063	2063	2063	2063	2063	2076	2076	2076	2076	2076	2076	2076	2088	2088	2088	2088	2088	2076	2076	2076	2076	2076	2076	2076	2076	2076	2076	2076	2076	2076	2076	2076	2076	2076	2076	2076	2076	2088	2088	2088	2088	2088	2088	2088	2088	2088	2088	2088	2088	2101	2114	2101	2114	2114	2114	2127	2153	2167	2181	2194	2194	2194	2343	2327	2343	2359	2343	2343	2359	2359	2343	2359	2343	2343	0	0	5282	5282	5202	5202	5202	5202	5202	5202	5202	5202	5202	5202	5202	5202	5125	5125	5202	5202	5202	5282	5282	5282	5282	5282	5282	5282	5282	5282	5282	5282	5282	5282	5282	5282	5282	5282	5282	5282	5282	5282	5364	5364	5364	5364	5364	5364	5364	5364	5364	5364	5364	5364	5364	5364	5364	5364	5364	5364	5364	5364	5282	5282	5282	5282	5282	5282	5282	5282	3864	3864	3864	3864	3864	3821	3821	3821	3821	3779	3779	3779	3738	3779	3779	3779	3779	3779	3779	3779	3779	3738	3738	3738	3738	3738	3738	3738	3738	3738	3738	3779	3779	3779	3779	3821	3821	3779	3779	3779	3779	3779	3779	3779	3779	3779	3779	3779	3779	3779	3779	3779	3779	3779	3779	3779	3779	3779	3821	3821	3779	3821	3864	3864	3864	3864	3864	3864	5364	5364	5364	5364	5448	5448	5448	5448	5448	5448	5448	5448	5448	5448	5448	5448	5448	5448	5448	5448	5448	5448	5448	5448	5448	5448	5448	5448	5448	5448	5448	5448	5448	5448	5448	5448	5364	5448	5364	5364	5448	5364	5364	5364	5364	5364	5364	5364	5364	5364	5364	5364	5364	5364	5535	5448	5448	5448	5535	5535	5448	5448	5535	5535	5448	5448	5448	5448	5448	5448	5364	5448	5448	5448	5448	5448	5448	5448	5448	5448	5448	5448	5448	5448	5448	5448	5448	0	0	0	0	0	0	0	0	0	0	0	3952	3907	3907	3907	3907	3821	3821	3779	3779	3738	3698	3659	3659	3621	3546	3546	3510	3510	3475	3475	3440	3406	3373	3341	3341	3309	3277	3277	3246	3246	3216	3216	3157	3157	3129	3129	3129	3129	0	0	0	0	0	2297	2297	2297	2297	0	0	0	0	0	0	2845	2822	2822	2799	2799	2777	2754	2754	2733	2733	2711	2711	2690	2669	2669	2649	2649	2629	2589	2589	2589	2570	2551	2532	2514	2514	2496	2496	2496	2460	2460	2443	2443	2443	2426	2426	2409	2392	2392	2376	2359	2343	2327	2312	2312	2297	2297	2281	2266	2266	2252	2252	2237	2223	2223	2194	2194	2194	0	0	0	0	0	0	0	1681	1681	1681	1681	1681	1681	1690	1690	0	2076	2063	2027	2027	2027	2015	2003	1992	1980	1980	1980	1969	1969	1958	1958	1947	1925	1915	1915	1904	1904	1904	1904	1904	1894	1883	1873	1873	1873	0	0	0	0	0	0	0	0	0	0	0	0	0	0	0	0	0	0	0
0	0	0	0	0	0	0	0	0	0	0	0	0	0	0	0	0	0	0	0	0	0	0	0	0	0	0	0	0	0	0	0	0	0	2039	2027	2039	2027	2039	2039	2027	2015	2015	2015	2015	2015	2015	2027	2027	2027	2027	2027	2015	2027	2027	2015	2039	2027	2027	2027	2027	2039	2027	2039	2039	2039	2039	2039	2027	2027	2027	2039	2039	2027	2039	2039	2039	2039	2015	2015	2027	2051	2051	2039	2039	2039	2051	2051	2051	2051	2063	2063	2063	2063	2076	2076	2076	2076	2076	2076	2076	2076	2076	2063	2063	2063	2063	2063	2063	2076	2076	2063	2063	2076	2076	2063	2063	2051	2051	2063	2063	2063	2063	2076	2076	2076	2076	2063	2076	2076	2076	2076	2076	2076	2076	2076	2076	2088	2076	2076	2063	2063	2076	2063	2063	2063	2076	2076	2076	2076	2076	2063	2063	2076	2076	2063	2063	2063	2063	2063	2076	2076	2076	2076	2076	2088	2076	2088	2088	2088	2088	2088	2076	2076	2076	2076	2076	2076	2076	2076	2076	2076	2076	2076	2076	2076	2076	2076	2076	2076	2076	2088	2088	2088	2088	2088	2088	2088	2088	2088	2088	2088	2088	2088	2088	2114	2114	2114	2114	2114	2127	2153	2181	2181	2181	2194	2194	2343	2343	2343	2343	2343	2343	2343	2343	2343	2343	2343	2343	0	0	5282	5282	5202	5202	5202	5202	5202	5282	5202	5202	5202	5202	5202	5202	5125	5125	5125	5125	5202	5282	5282	5282	5282	5282	5282	5282	5282	5282	5282	5282	5282	5282	5282	5282	5282	5282	5282	5282	5282	5282	5364	5364	5364	5364	5364	5364	5364	5364	5364	5364	5364	5364	5364	5364	5364	5364	5364	5364	5282	5364	5282	5364	5364	5282	5282	5364	5364	5282	5364	3864	3864	3864	3864	3821	3821	3779	3821	3779	3779	3779	3738	3779	3779	3779	3779	3779	3821	3779	3779	3779	3738	3738	3738	3738	3738	3738	3738	3738	3738	3779	3779	3779	3779	3821	3821	3779	3779	3779	3779	3779	3779	3738	3779	3779	3779	3779	3779	3779	3779	3779	3779	3779	3779	3779	3779	3779	3821	3779	3779	3821	3864	3864	3864	3864	3907	3907	5364	5364	5364	5364	5448	5448	5448	5448	5448	5448	5448	5448	5448	5448	5448	5448	5448	5448	5448	5448	5448	5448	5448	5448	5448	5448	5448	5448	5448	5448	5448	5448	5448	5448	5448	5364	5364	5448	5364	5364	5448	5364	5448	5364	5364	5364	5448	5364	5364	5364	5364	5364	5364	5364	5448	5448	5448	5448	5535	5448	5448	5448	5535	5535	5448	5448	5448	5448	5364	5364	5282	5364	5364	5364	5364	5448	5448	5448	5448	5448	5448	5448	5448	5448	5448	5448	5448	0	0	0	0	0	0	0	0	0	0	0	3952	3907	3907	3864	3864	3821	3821	3779	3779	3738	3738	3698	3659	3621	3583	3546	3510	3510	3475	3475	3440	3373	3341	3309	3309	3309	3277	3277	3246	3246	3216	3216	3157	3129	3129	3129	3129	3129	0	0	0	0	0	0	0	0	0	0	0	0	0	0	0	2845	2822	2822	2799	2799	2777	2754	2754	2733	2733	2711	2711	2690	2669	2669	2649	2649	2629	2589	2589	2589	2570	2551	2532	2532	2514	2496	2496	2496	2460	2460	2443	2443	2426	2426	2409	2409	2392	2392	2376	2359	2327	2327	2312	2312	2297	2297	2281	2281	2266	2266	2252	2237	2223	2208	2194	2194	2194	0	0	0	0	0	0	0	1681	1681	1681	1681	1681	1681	1690	1690	0	2088	2076	2039	2027	2027	2015	2003	1992	1980	1980	1980	1969	1969	1958	1958	1936	1936	1925	1915	1904	1904	1904	1904	1904	1894	1883	1873	1873	1873	0	0	0	0	0	0	0	0	0	0	0	0	0	0	0	0	0	0	0
0	0	0	0	0	0	0	0	0	0	0	0	0	0	0	0	0	0	0	0	0	0	0	0	0	0	0	0	0	0	0	0	0	0	2039	2039	2039	2027	2039	2039	2027	2015	2015	2003	2015	2015	2015	2015	2015	2027	2027	2015	2015	2003	2003	2003	2015	2003	2003	2015	2039	2039	2039	2039	2039	2039	2039	2039	2027	2027	2027	2039	2039	2039	2039	2039	2051	2039	2039	2039	2039	2039	2039	2051	2039	2039	2039	2063	2051	2051	2063	2063	2063	2076	2076	2076	2076	2088	2076	2076	2076	2076	2063	2063	2063	2063	2063	2063	2076	2076	2076	2076	2076	2076	2076	2063	2063	2051	2051	2063	2063	2063	2063	2063	2076	2076	2063	2063	2063	2063	2076	2063	2063	2063	2063	2063	2076	2076	2076	2076	2063	2063	2063	2076	2076	2063	2076	2076	2076	2076	2076	2076	2076	2076	2076	2076	2063	2063	2063	2063	2076	2076	2076	2076	2076	2076	2076	2088	2076	2076	2076	2076	2076	2076	2076	2076	2076	2076	2076	2076	2076	2076	2076	2076	2076	2076	2076	2076	2076	2076	2076	2076	2088	2088	2088	2088	2088	2088	2088	2088	2088	2088	2101	2101	2088	2114	2114	2127	2127	2127	2140	2167	2167	2181	2194	2194	2208	2343	2343	2343	2343	2343	2343	2343	2343	2327	2343	2343	2343	0	0	5282	5282	5202	5202	5202	5202	5282	5282	5202	5202	5202	5202	5202	5202	5125	5125	5125	5125	5202	5282	5282	5282	5364	5364	5282	5282	5282	5282	5282	5282	5282	5282	5282	5282	5282	5282	5282	5282	5282	5282	5364	5364	5364	5364	5364	5364	5364	5364	5364	5364	5364	5364	5364	5364	5364	5364	5364	5364	5364	5364	5364	5364	5364	5364	5364	5364	5364	5364	5364	5448	3864	3864	3864	3821	3821	3821	3821	3779	3779	3779	3779	3779	3779	3779	3779	3779	3779	3779	3779	3779	3779	3738	3738	3738	3738	3738	3738	3738	3779	3821	3779	3779	3779	3821	3821	3779	3779	3779	3779	3738	3779	3738	3779	3779	3779	3779	3779	3779	3779	3821	3779	3779	3779	3779	3779	3779	3821	3779	3779	3821	3864	3864	3821	3864	3864	3864	5364	5364	5364	5364	5448	5448	5448	5448	5448	5448	5448	5448	5448	5448	5448	5448	5448	5364	5448	5448	5448	5448	5448	5448	5448	5448	5448	5448	5448	5364	5364	5364	5448	5364	5364	5364	5364	5364	5364	5364	5364	5364	5364	5364	5364	5364	5448	5364	5364	5364	5364	5364	5364	5364	5448	5448	5448	5535	5535	5535	5535	5535	5535	5535	5448	5448	5448	5448	5364	5282	5202	5282	5282	5282	5282	5282	5364	5364	5364	5364	5364	5364	5448	5364	5364	5364	5364	0	0	0	0	0	0	0	0	0	0	0	3952	3952	3907	3907	3907	3821	3821	3779	3779	3779	3738	3659	3659	3621	3583	3546	3546	3510	3475	3440	3406	3341	3309	3309	3309	3277	3277	3277	3277	3246	3216	3186	3157	3129	3129	3129	3101	3101	0	0	0	0	0	0	0	0	0	0	0	0	0	0	0	2845	2822	2822	2799	2799	2777	2754	2754	2733	2733	2711	2711	2690	2669	2669	2649	2649	2629	2609	2589	2589	2570	2551	2532	2532	2514	2496	2496	2478	2460	2460	2443	2426	2426	2426	2409	2409	2392	2392	2376	2343	2327	2327	2312	2312	2312	2297	2281	2281	2266	2266	2252	2237	2237	2223	2194	2181	2181	0	0	0	0	0	0	1681	1681	1681	1681	1681	1681	1681	1690	1690	0	2088	2039	2027	2027	2027	2015	2003	1992	1980	1992	1980	1969	1958	1958	1947	1947	1936	1925	1915	1904	1904	1904	1904	1904	1894	1883	1873	1843	1843	0	0	0	0	0	0	0	0	0	0	0	0	0	0	0	0	0	0	0
0	0	0	0	0	0	0	0	0	0	0	0	0	0	0	0	0	0	0	0	0	0	0	0	0	0	0	0	0	0	0	0	0	0	2039	2027	2027	2027	2027	2039	2027	2027	2015	2015	2015	2015	2015	2015	2015	2027	2027	2027	2015	2003	2003	2003	2015	2003	2027	2015	2039	2039	2039	2039	2039	2039	2027	2027	2027	2027	2027	2039	2039	2039	2039	2039	2051	2039	2039	2039	2027	2039	2039	2039	2039	2039	2039	2063	2051	2051	2051	2063	2063	2063	2076	2076	2076	2076	2076	2076	2076	2076	2063	2063	2063	2063	2063	2063	2076	2063	2076	2076	2076	2076	2076	2063	2063	2063	2063	2076	2076	2076	2063	2076	2076	2076	2076	2076	2076	2076	2076	2076	2076	2063	2076	2076	2076	2076	2076	2063	2063	2063	2063	2063	2076	2076	2076	2076	2076	2076	2076	2063	2063	2063	2063	2063	2063	2063	2063	2063	2063	2076	2076	2088	2076	2076	2088	2088	2076	2076	2088	2088	2076	2076	2076	2076	2076	2076	2076	2076	2076	2076	2076	2076	2076	2076	2076	2076	2076	2076	2076	2076	2076	2076	2076	2088	2076	2088	2088	2088	2088	2088	2088	2101	2101	2101	2101	2127	2114	2127	2140	2167	2167	2181	2194	2194	2194	2327	2327	2343	2343	2343	2343	2343	2343	2343	2343	2343	2343	0	0	5282	5282	5202	5202	5125	5202	5282	5282	5202	5202	5202	5202	5202	5202	5125	5125	5202	5202	5202	5282	5282	5282	5364	5364	5364	5364	5282	5282	5282	5282	5282	5282	5282	5282	5282	5364	5282	5282	5282	5282	5364	5364	5364	5364	5364	5364	5364	5364	5364	5364	5364	5364	5364	5364	5364	5364	5364	5364	5364	5364	5364	5364	5364	5364	5282	5282	5364	5364	5364	3907	3907	3864	3864	3864	3821	3821	3821	3821	3779	3779	3821	3779	3779	3779	3821	3779	3821	3779	3779	3779	3779	3738	3738	3738	3738	3738	3779	3738	3779	3821	3779	3779	3779	3779	3779	3779	3779	3779	3779	3738	3738	3738	3779	3779	3779	3779	3779	3779	3779	3779	3779	3779	3779	3779	3779	3779	3821	3821	3779	3779	3864	3864	3821	3821	3864	3864	5448	5364	5364	5364	5364	5448	5448	5448	5448	5448	5448	5448	5448	5448	5448	5448	5448	5364	5448	5364	5364	5448	5448	5448	5448	5448	5448	5448	5448	5364	5364	5364	5364	5364	5364	5364	5364	5364	5364	5364	5364	5364	5364	5364	5364	5364	5364	5364	5364	5364	5364	5364	5364	5364	5364	5448	5448	5448	5448	5448	5448	5448	5448	5448	5448	5448	5448	5448	5364	5282	5202	5282	5282	5282	5282	5364	5364	5364	5364	5364	5364	5364	5364	5364	5364	5364	5364	0	0	0	0	0	0	0	0	0	0	0	3952	3907	3907	3864	3864	3821	3779	3779	3738	3738	3698	3659	3659	3621	3583	3546	3510	3510	3475	3475	3406	3373	3309	3309	3309	3277	3277	3277	3277	3246	3246	3216	3157	3129	3101	3101	3101	3101	3101	0	0	0	0	0	0	0	0	0	0	0	0	0	0	0	0	2822	2777	2799	2777	2754	2754	2733	2711	2711	2711	2690	2669	2669	2649	2649	2629	2629	2609	2589	2570	2570	2532	2514	2514	2496	2496	2478	2460	2460	2443	2443	2426	2426	2409	2409	2392	2376	2376	2343	2327	2327	2312	2312	2312	2297	2281	2281	2266	2266	2252	2237	2237	2237	2237	2181	2181	0	0	0	0	0	0	1681	1681	1681	1681	1681	1681	1690	1690	1690	0	2088	2039	2039	2039	2039	2027	2003	1992	1980	1992	1980	1969	1958	1947	1947	1936	1925	1925	1915	1904	1904	1904	1894	1894	1883	1873	1863	1853	1853	0	0	0	0	0	0	0	0	0	0	0	0	0	0	0	0	0	0	0
0	0	0	0	0	0	0	0	0	0	0	0	0	0	0	0	0	0	0	0	0	0	0	0	0	0	0	0	0	0	0	0	0	0	2027	2027	2027	2027	2027	2027	2027	2015	2015	2003	2015	2015	2015	2015	2015	2015	2027	2015	2015	2003	2015	2003	2015	2015	2015	2027	2039	2039	2039	2051	2039	2039	2039	2039	2027	2027	2027	2051	2051	2051	2051	2051	2051	2051	2051	2051	2051	2051	2051	2051	2039	2039	2051	2063	2051	2051	2063	2063	2063	2063	2063	2063	2076	2076	2076	2076	2076	2076	2063	2063	2063	2063	2076	2063	2063	2063	2063	2063	2063	2063	2063	2063	2063	2063	2063	2076	2076	2076	2076	2088	2076	2076	2076	2076	2076	2076	2076	2076	2076	2063	2076	2076	2076	2076	2076	2063	2063	2063	2063	2051	2063	2063	2063	2076	2076	2076	2076	2076	2076	2076	2076	2063	2063	2063	2076	2076	2088	2088	2088	2088	2088	2088	2088	2088	2076	2076	2088	2076	2076	2076	2076	2076	2076	2076	2076	2076	2076	2076	2076	2076	2063	2063	2063	2076	2063	2063	2063	2063	2063	2063	2063	2063	2063	2076	2076	2076	2076	2088	2088	2088	2101	2101	2088	2101	2101	2114	2127	2127	2167	2167	2167	2181	2181	2312	2312	2327	2327	2327	2327	2343	2343	2343	2359	2359	2359	2359	0	5282	5202	5202	5202	5202	5202	5202	5282	5202	5202	5202	5202	5202	5202	5202	5125	5202	5202	5202	5202	5282	5282	5282	5364	5282	5282	5282	5282	5282	5282	5364	5364	5282	5282	5364	5364	5364	5282	5364	5364	5364	5364	5364	5364	5364	5364	5364	5364	5364	5364	5364	5364	5364	5364	5364	5364	5364	5364	5364	5364	5364	5364	5364	5364	5282	5282	5364	5282	3907	3907	3907	3907	3864	3864	3821	3864	3821	3821	3821	3821	3821	3779	3779	3779	3779	3779	3779	3779	3779	3779	3779	3738	3738	3738	3738	3738	3779	3779	3779	3821	3779	3779	3779	3821	3779	3779	3779	3779	3738	3738	3738	3738	3738	3779	3779	3738	3738	3738	3779	3779	3779	3779	3779	3779	3779	3821	3821	3821	3821	3821	3864	3864	3821	3779	3779	3821	5448	5448	5448	5448	5448	5448	5448	5448	5448	5448	5448	5448	5448	5448	5448	5448	5448	5364	5364	5364	5364	5448	5448	5448	5448	5448	5448	5448	5448	5364	5364	5448	5364	5364	5364	5364	5364	5364	5364	5364	5364	5364	5364	5364	5364	5364	5364	5364	5364	5364	5364	5364	5364	5364	5448	5448	5448	5448	5535	5448	5448	5448	5448	5448	5448	5448	5448	5448	5448	5364	5282	5364	5364	5364	5364	5448	5364	5364	5364	5364	5364	5364	5364	5364	5364	5364	5364	0	0	0	0	0	0	0	0	0	0	0	3907	3907	3907	3864	3864	3821	3779	3779	3738	3738	3738	3698	3659	3583	3583	3546	3510	3510	3475	3475	3440	3373	3341	3309	3309	3309	3277	3277	3277	3246	3246	3216	3157	3129	3129	3129	3129	3101	3101	0	0	0	0	0	0	0	0	0	0	0	0	0	0	0	0	2822	2799	2799	2777	2777	2754	2754	2711	2711	2711	2690	2669	2669	2649	2649	2629	2589	2609	2589	2570	2551	2551	2532	2514	2496	2478	2478	2460	2460	2443	2443	2443	2426	2426	2392	2376	2392	2376	2359	2343	2327	2327	2312	2312	2297	2281	2266	2266	2266	2252	2252	2237	2237	2237	0	0	0	0	0	0	0	0	1681	1681	1681	1681	1681	1681	1681	1681	1690	0	0	0	2039	2027	2027	2039	2027	1992	1980	1980	1980	1969	1958	1947	1947	1936	1936	1925	1915	1904	1904	1904	1904	1904	1894	1873	1863	1843	1843	0	0	0	0	0	0	0	0	0	0	0	0	0	0	0	0	0	0	0
0	0	0	0	0	0	0	0	0	0	0	0	0	0	0	0	0	0	0	0	0	0	0	0	0	0	0	0	0	0	0	0	0	0	2027	2027	2027	2027	2027	2027	2015	2015	2015	2003	2015	2015	2027	2015	2015	2027	2027	2027	2015	2015	2015	2003	2015	2015	2015	2015	2027	2027	2039	2039	2039	2039	2039	2039	2027	2039	2027	2051	2063	2063	2063	2063	2063	2063	2051	2051	2051	2051	2051	2063	2051	2051	2051	2063	2051	2051	2051	2063	2063	2063	2063	2063	2063	2063	2076	2063	2063	2063	2051	2063	2063	2051	2063	2063	2063	2063	2063	2051	2051	2063	2051	2051	2063	2063	2063	2076	2076	2076	2076	2088	2088	2076	2076	2076	2076	2076	2076	2063	2076	2063	2076	2076	2076	2076	2063	2063	2063	2063	2063	2051	2063	2063	2063	2063	2063	2076	2063	2063	2063	2076	2076	2076	2063	2063	2076	2076	2088	2088	2088	2088	2088	2088	2088	2088	2076	2088	2088	2076	2076	2076	2076	2076	2076	2076	2076	2076	2076	2076	2088	2076	2076	2076	2076	2076	2076	2063	2076	2076	2063	2063	2063	2063	2063	2076	2076	2088	2076	2088	2088	2101	2101	2101	2101	2101	2101	2114	2101	2167	2167	2167	2181	2181	2181	2181	2327	2327	2343	2343	2343	2359	2359	2376	2376	2376	2392	2392	0	0	5202	5202	5202	5202	5202	5282	5282	5202	5202	5202	5202	5202	5202	5202	5202	5202	5202	5202	5282	5282	5282	5282	5282	5282	5282	5282	5282	5282	5282	5282	5364	5364	5364	5364	5364	5364	5282	5282	5282	5282	5364	5364	5364	5364	5364	5364	5364	5364	5364	5364	5364	5364	5364	5364	5364	5282	5282	5282	5282	5282	5282	5282	5364	5364	5364	5364	3952	3907	3907	3907	3907	3864	3864	3821	3821	3821	3821	3821	3821	3821	3821	3779	3779	3779	3779	3779	3779	3779	3779	3779	3738	3738	3738	3738	3779	3779	3779	3779	3779	3779	3779	3779	3779	3821	3779	3779	3779	3738	3738	3738	3738	3779	3779	3779	3738	3738	3779	3779	3779	3779	3779	3779	3779	3821	3821	3821	3821	3864	3864	3907	3864	3864	3821	3821	5448	5448	5364	5364	5448	5448	5448	5448	5448	5448	5448	5448	5448	5448	5448	5448	5448	5448	5364	5448	5364	5448	5448	5448	5448	5448	5448	5448	5448	5448	5364	5364	5364	5364	5364	5364	5364	5364	5364	5364	5364	5448	5364	5364	5364	5364	5364	5364	5282	5364	5364	5364	5282	5364	5364	5448	5448	5448	5448	5535	5448	5448	5448	5535	5448	5448	5448	5448	5448	5448	5364	5364	5364	5364	5364	5364	5364	5364	5364	5364	5364	5364	5364	5364	5364	5364	5364	5364	0	0	0	0	0	0	0	0	0	0	0	3907	3864	3864	3864	3821	3779	3779	3779	3738	3738	3698	3698	3659	3583	3583	3546	3546	3510	3475	3475	3440	3373	3341	3309	3309	3309	3277	3277	3277	3246	3246	3216	3157	3129	3101	3129	3101	3101	3101	0	0	0	0	0	0	0	0	0	0	0	0	0	0	2869	2869	2822	2799	2799	2777	2754	2754	2754	2733	2711	2711	2690	2669	2669	2649	2649	2649	2589	2609	2609	2589	2589	2551	2532	2514	2496	2496	2496	2460	2443	2443	2443	2426	2426	2409	2409	2392	2376	2376	2359	2327	2327	2312	2312	2297	2297	2281	2281	2266	2266	2266	2266	2266	2237	2237	0	0	0	0	0	0	0	0	0	1681	1681	1681	1681	1681	1681	1681	0	0	0	0	0	2027	2039	2027	2027	1992	1980	1992	1980	1958	1958	1947	1947	1936	1936	1925	1915	1904	1904	1894	1894	1904	1894	1863	1853	1843	1843	0	0	0	0	0	0	0	0	0	0	0	0	0	0	0	0	0	0	0
0	0	0	0	0	0	0	0	0	0	0	0	0	0	0	0	0	0	0	0	0	0	0	0	0	0	0	0	0	0	0	0	0	0	2027	2027	2027	2027	2027	2027	2015	2015	2015	2003	2015	2015	2027	2027	2027	2027	2039	2027	2027	2015	2015	2003	2015	2015	2015	2015	2027	2027	2027	2039	2039	2039	2039	2027	2027	2039	2039	2051	2063	2063	2063	2063	2063	2051	2051	2051	2039	2051	2063	2063	2063	2063	2063	2063	2051	2051	2051	2063	2063	2063	2063	2063	2063	2063	2063	2063	2051	2063	2051	2051	2063	2039	2051	2051	2063	2051	2051	2051	2051	2063	2051	2051	2051	2063	2063	2076	2076	2063	2076	2076	2076	2076	2076	2076	2076	2076	2076	2063	2076	2063	2063	2076	2063	2063	2063	2063	2063	2063	2063	2063	2076	2076	2076	2063	2063	2063	2063	2063	2076	2076	2076	2076	2063	2063	2076	2076	2088	2088	2088	2088	2088	2088	2088	2088	2088	2088	2088	2076	2076	2076	2076	2076	2076	2076	2076	2076	2076	2076	2088	2076	2076	2076	2076	2076	2076	2076	2076	2076	2076	2076	2076	2076	2076	2076	2076	2076	2076	2088	2088	2101	2101	2101	2101	2088	2101	2101	2101	2153	2167	2167	2181	2181	2194	2208	2312	2327	2343	2343	2359	2359	2376	2376	2376	2392	2392	2392	0	0	5202	5202	5202	5202	5202	5282	5282	5202	5202	5202	5282	5282	5282	5202	5202	5202	5202	5202	5282	5282	5282	5282	5282	5282	5282	5282	5282	5282	5282	5364	5364	5364	5364	5364	5364	5364	5282	5364	5364	5364	5364	5364	5364	5364	5364	5364	5448	5364	5364	5364	5364	5364	5364	5364	5364	5282	5364	5282	5282	5282	5364	5364	5364	5364	5364	3952	3952	3907	3907	3907	3907	3864	3864	3864	3864	3821	3821	3821	3821	3821	3821	3821	3821	3821	3779	3821	3779	3779	3779	3738	3738	3779	3738	3779	3779	3779	3779	3779	3821	3779	3779	3779	3821	3821	3779	3779	3779	3738	3738	3738	3738	3738	3779	3779	3738	3738	3738	3779	3779	3779	3779	3779	3779	3821	3821	3864	3864	3864	3864	3907	3864	3864	3821	3821	5448	5448	5364	5364	5448	5448	5448	5448	5448	5448	5448	5448	5448	5448	5448	5448	5448	5448	5448	5448	5448	5448	5448	5448	5448	5448	5448	5448	5448	5364	5364	5364	5364	5364	5364	5364	5364	5364	5364	5364	5364	5364	5364	5364	5364	5364	5364	5364	5282	5282	5282	5282	5282	5364	5364	5448	5448	5448	5448	5448	5448	5448	5535	5535	5535	5535	5535	5535	5535	5448	5448	5364	5364	5364	5364	5364	5364	5364	5364	5364	5364	5364	5364	5364	5364	5364	5364	5202	5202	5202	0	0	0	0	0	0	0	0	0	3864	3864	3864	3864	3821	3779	3779	3738	3738	3738	3738	3698	3659	3583	3583	3546	3510	3510	3475	3440	3440	3373	3341	3309	3277	3277	3277	3277	3246	3246	3246	3216	3157	3129	3101	3129	3101	3101	3101	3101	0	0	0	0	0	0	0	0	0	0	0	0	0	2845	2845	2822	2799	2799	2799	2754	2754	2733	2733	2711	2690	2690	2669	2669	2649	2649	2629	2629	2609	2609	2589	2589	2570	2532	2514	2514	2496	2496	2460	2443	2443	2426	2426	2409	2426	2409	2392	2392	2376	2359	2327	2327	2312	2312	2297	2312	2297	2281	2281	2297	2297	2266	2266	0	0	0	0	0	0	0	0	0	0	0	0	1681	1681	1681	1681	0	0	0	0	0	0	0	0	2039	2027	2027	0	0	1992	1980	1958	1947	1947	1936	1936	1936	1925	1925	1925	1925	1894	1894	0	0	1833	1833	1833	1843	0	0	0	0	0	0	0	0	0	0	0	0	0	0	0	0	0	0	0
0	0	0	0	0	0	0	0	0	0	0	0	0	0	0	0	0	0	0	0	0	0	0	0	0	0	0	0	0	0	0	0	0	0	2027	2027	2027	2027	2027	2027	2027	2027	2015	2015	2015	2015	2027	2027	2027	2027	2039	2027	2027	2015	2015	2015	2015	2015	2015	2027	2027	2027	2027	2027	2039	2027	2027	2027	2027	2027	2039	2051	2051	2051	2063	2063	2063	2063	2051	2051	2051	2051	2063	2063	2063	2063	2063	2063	2051	2051	2051	2063	2063	2063	2063	2063	2063	2063	2063	2051	2051	2051	2051	2051	2051	2039	2051	2051	2051	2051	2051	2051	2051	2051	2051	2051	2051	2063	2063	2063	2063	2063	2063	2076	2063	2076	2076	2076	2076	2076	2076	2076	2076	2063	2063	2063	2063	2063	2063	2063	2063	2063	2063	2063	2076	2076	2076	2063	2063	2063	2063	2063	2076	2076	2076	2076	2063	2076	2076	2076	2076	2088	2076	2088	2088	2088	2088	2088	2088	2088	2088	2088	2076	2076	2063	2063	2063	2063	2076	2076	2076	2076	2088	2076	2076	2076	2076	2076	2076	2063	2076	2076	2076	2076	2076	2076	2076	2076	2088	2088	2088	2076	2088	2101	2088	2088	2088	2088	2101	2088	2127	2140	2167	2181	2181	2194	2208	2208	2297	2312	2343	2343	2343	2359	2376	2376	2376	2392	2392	2392	0	0	5202	5202	5202	5202	5202	5282	5282	5282	5202	5202	5282	5282	5282	5202	5202	5202	5202	5202	5282	5282	5282	5282	5282	5282	5282	5282	5282	5282	5282	5364	5364	5364	5364	5364	5364	5364	5282	5364	5364	5364	5364	5364	5364	5364	5364	5364	5364	5364	5364	5364	5364	5364	5364	5364	5364	5282	5364	5282	5282	5282	5282	5364	5364	5364	5364	3907	3907	3907	3907	3907	3864	3864	3864	3864	3864	3821	3821	3821	3821	3864	3821	3821	3821	3821	3779	3779	3779	3779	3779	3738	3738	3779	3738	3779	3779	3779	3779	3821	3821	3779	3779	3779	3821	3821	3779	3779	3779	3738	3738	3738	3738	3738	3779	3738	3738	3738	3738	3738	3779	3779	3779	3779	3821	3821	3864	3864	3864	3864	3907	3864	3864	3821	3779	3779	5448	5448	5364	5364	5448	5448	5448	5448	5448	5448	5448	5448	5448	5448	5448	5448	5448	5448	5448	5448	5448	5448	5448	5448	5448	5448	5448	5448	5448	5364	5364	5448	5448	5364	5364	5364	5364	5364	5364	5364	5364	5364	5364	5364	5364	5364	5364	5364	5282	5448	5448	5448	5364	5364	5364	5448	5448	5448	5448	5448	5448	5448	5535	5448	5448	5448	5535	5535	5535	5448	5448	5448	5364	5364	5364	5364	5364	5364	5364	5364	5448	5448	5448	5364	5364	5364	5364	5364	5202	5202	0	0	0	0	0	0	0	0	0	3864	3864	3864	3864	3821	3779	3779	3738	3738	3738	3698	3659	3659	3583	3583	3546	3510	3510	3475	3475	3440	3373	3341	3309	3277	3277	3277	3277	3246	3246	3216	3216	3157	3129	3129	3129	3129	3129	3101	3101	0	0	0	0	0	0	0	0	0	0	0	0	0	2845	2845	2822	2822	2822	2799	2777	2754	2754	2711	2711	2690	2690	2669	2669	2649	2649	2649	2629	2609	2609	2589	2589	2570	2551	2514	2514	2496	2496	2460	2443	2443	2443	2426	2426	2426	2409	2409	2392	2376	2359	2327	2327	2312	2312	2312	2312	2281	2281	2297	2297	2297	0	0	0	0	0	0	0	0	0	0	0	0	0	0	0	0	0	0	0	0	0	0	0	0	0	0	0	0	0	0	0	0	0	0	1947	1947	1947	1925	1925	1925	1925	1925	1925	0	0	0	0	1833	1833	1833	0	0	0	0	0	0	0	0	0	0	0	0	0	0	0	0	0	0	0	0
0	0	0	0	0	0	0	0	0	0	0	0	0	0	0	0	0	0	0	0	0	0	0	0	0	0	0	0	0	0	0	0	0	0	2027	2027	2027	2027	2027	2027	2027	2027	2039	2015	2015	2015	2027	2027	2027	2027	2039	2027	2015	2015	2015	2015	2027	2027	2027	2027	2027	2027	2027	2039	2039	2027	2027	2027	2039	2039	2039	2051	2051	2051	2063	2063	2063	2063	2051	2051	2015	2051	2063	2063	2063	2063	2063	2063	2063	2063	2051	2063	2063	2051	2051	2051	2063	2051	2063	2051	2051	2051	2051	2063	2051	2051	2051	2063	2063	2051	2051	2051	2051	2051	2051	2051	2051	2063	2063	2063	2063	2051	2063	2063	2063	2063	2063	2063	2076	2076	2076	2063	2076	2063	2063	2063	2063	2063	2063	2063	2076	2063	2063	2063	2076	2076	2076	2076	2063	2063	2076	2076	2076	2076	2076	2063	2063	2063	2076	2076	2076	2088	2088	2088	2088	2088	2088	2088	2088	2088	2088	2076	2076	2063	2063	2063	2051	2051	2063	2051	2076	2076	2088	2076	2076	2076	2076	2076	2076	2063	2076	2076	2076	2076	2076	2076	2076	2076	2088	2088	2088	2076	2088	2088	2101	2088	2088	2101	2088	2114	2101	2140	2140	2167	2181	2181	2208	2237	2312	2312	2343	2343	2343	2359	2376	2376	2376	2409	2409	2409	0	0	5202	5202	5202	5202	5202	5202	5202	5202	5202	5202	5282	5282	5202	5202	5202	5202	5202	5202	5282	5282	5282	5282	5282	5282	5282	5282	5282	5282	5364	5364	5364	5364	5364	5364	5364	5364	5282	5364	5364	5364	5364	5364	5364	5364	5364	5364	5364	5364	5364	5364	5364	5364	5364	5364	5364	5282	5282	5282	5282	5282	5282	5364	5364	5364	5364	3907	3907	3907	3907	3907	3864	3864	3864	3864	3864	3864	3864	3864	3864	3864	3821	3821	3821	3821	3779	3779	3779	3779	3738	3738	3738	3738	3738	3779	3779	3779	3779	3821	3821	3821	3779	3779	3821	3779	3779	3779	3738	3738	3738	3738	3779	3779	3779	3779	3779	3779	3738	3738	3779	3779	3779	3779	3821	3821	3864	3864	3864	3864	3907	3864	3864	3864	3821	3821	5448	5448	5448	5364	5448	5448	5448	5364	5364	5448	5448	5448	5448	5448	5448	5448	5448	5448	5448	5448	5448	5448	5448	5448	5448	5448	5448	5364	5364	5364	5364	5364	5448	5364	5364	5364	5364	5364	5364	5364	5364	5364	5364	5364	5364	5364	5364	5364	5364	5364	5364	5364	5364	5364	5364	5448	5448	5448	5448	5448	5448	5535	5535	5448	5448	5448	5535	5535	5535	5535	5535	5448	5448	5448	5364	5364	5364	5364	5448	5448	5448	5448	5448	5364	5448	5448	5364	5282	5282	0	0	0	0	0	0	0	0	0	0	3907	3907	3907	3864	3821	3779	3779	3738	3698	3698	3698	3659	3621	3583	3546	3510	3510	3475	3475	3475	3440	3406	3373	3341	3309	3309	3277	3277	3246	3246	3246	3216	3157	3157	3129	3129	3129	3129	3101	3101	0	0	0	0	0	0	0	0	0	0	0	0	0	2845	2822	2822	2799	2799	2799	2777	2754	2754	2733	2711	2711	2690	2669	2669	2649	2649	2649	2649	2609	2609	2589	2589	2570	2551	2514	2514	2514	2496	2460	2443	2443	2443	2426	2426	2426	2426	2426	2426	2409	2392	2343	2343	2327	2327	2343	2343	2297	2297	2297	0	0	0	0	0	0	0	0	0	0	0	0	0	0	0	0	0	0	0	0	0	0	0	0	0	0	0	0	0	0	0	0	0	1969	1969	1969	1947	1947	1947	1936	1904	1894	1894	1894	1894	0	0	0	0	1833	1833	1843	1843	0	0	0	0	0	0	0	0	0	0	0	0	0	0	0	0	0	0	0
0	0	0	0	0	0	0	0	0	0	0	0	0	0	0	0	0	0	0	0	0	0	0	0	0	0	0	0	0	0	0	0	0	0	2015	2027	2027	2027	2027	2039	2039	2039	2039	2027	2027	2027	2027	2027	2027	2027	2039	2027	2027	2015	2027	2015	2027	2027	2027	2039	2027	2039	2039	2039	2039	2027	2027	2027	2039	2039	2039	2051	2051	2039	2039	2039	2039	2027	2027	2027	2027	2063	2063	2063	2063	2063	2063	2063	2063	2063	2063	2063	2063	2051	2051	2051	2063	2051	2063	2051	2051	2051	2063	2063	2051	2051	2051	2051	2051	2051	2051	2051	2051	2063	2063	2051	2051	2063	2063	2063	2063	2051	2063	2063	2063	2063	2063	2076	2076	2076	2076	2076	2076	2063	2076	2076	2076	2076	2063	2063	2063	2063	2063	2051	2076	2063	2076	2076	2063	2063	2076	2063	2063	2063	2063	2063	2063	2063	2063	2076	2088	2088	2088	2088	2088	2088	2088	2088	2088	2088	2088	2076	2076	2063	2063	2063	2063	2051	2063	2051	2076	2076	2076	2076	2076	2076	2076	2076	2076	2063	2076	2088	2076	2076	2076	2076	2076	2076	2076	2088	2088	2088	2088	2101	2101	2088	2088	2101	2101	2114	2101	2127	2140	2153	2167	2181	2208	2208	2327	2327	2343	2359	2359	2376	2409	2409	2409	2426	2443	2443	2443	0	5202	5125	5125	5202	5202	5202	5202	5202	5202	5202	5282	5282	5282	5202	5202	5202	5202	5202	5282	5282	5282	5282	5282	5282	5282	5282	5282	5282	5282	5364	5364	5364	5364	5364	5364	5364	5282	5282	5282	5282	5364	5364	5364	5364	5364	5364	5364	5364	5364	5364	5364	5364	5364	5364	5364	5282	5282	5282	5282	5282	5282	5364	5364	5364	5364	3907	3907	3864	3907	3864	3864	3864	3864	3864	3864	3864	3864	3864	3864	3864	3864	3821	3821	3821	3821	3821	3779	3779	3738	3738	3738	3779	3738	3779	3779	3779	3821	3821	3821	3821	3779	3779	3779	3779	3779	3779	3738	3738	3738	3738	3738	3779	3779	3779	3779	3779	3738	3779	3779	3779	3779	3779	3821	3821	3864	3864	3864	3864	3864	3864	3864	3864	3821	3821	5448	5448	5448	5448	5448	5448	5448	5448	5364	5448	5448	5448	5448	5448	5448	5448	5448	5448	5448	5448	5448	5448	5448	5448	5448	5448	5448	5448	5364	5364	5364	5364	5448	5448	5364	5364	5364	5364	5364	5364	5364	5364	5364	5364	5364	5364	5364	5364	5364	5364	5364	5364	5364	5282	5364	5448	5448	5448	5448	5448	5448	5535	5535	5535	5535	5448	5535	5535	5535	5535	5535	5448	5448	5448	5448	5364	5364	5364	5364	5448	5448	5448	5448	5448	5448	5448	5448	5282	5282	0	0	0	0	0	0	0	0	0	0	3864	3864	3864	3821	3821	3779	3779	3738	3738	3738	3698	3659	3621	3583	3546	3510	3510	3475	3475	3475	3440	3406	3373	3341	3341	3341	3309	3277	3246	3246	3216	3186	3186	3157	3129	3157	3129	3129	3129	3129	3129	0	0	0	0	0	0	0	0	0	0	0	2869	2845	2822	2822	2799	2799	2799	2777	2754	2733	2733	2711	2711	2690	2669	2669	2669	2649	2649	2629	2609	2609	2589	2589	2551	2551	2514	2514	2514	2496	2496	2478	2460	2460	2443	2426	2443	2443	2426	2426	2409	2392	2343	2343	2327	2359	2359	2359	2359	2297	0	0	0	0	0	0	0	0	0	0	0	0	0	0	0	0	0	0	0	0	0	0	0	0	0	0	0	0	0	0	0	0	0	0	1969	1969	1969	1958	1947	1936	1936	1904	1894	1894	1894	1894	0	0	1873	1873	1853	1853	1853	1853	0	0	0	0	0	0	0	0	0	0	0	0	0	0	0	0	0	0	0
0	0	0	0	0	0	0	0	0	0	0	0	0	0	0	0	0	0	0	0	0	0	0	0	0	0	0	0	0	0	0	0	0	0	2015	2015	2027	2027	2027	2027	2027	2027	2039	2027	2027	2027	2027	2027	2039	2027	2039	2027	2027	2027	2027	2027	2027	2027	2027	2039	2027	2027	2027	2039	2039	2027	2027	2027	2039	2039	2039	2051	2039	2039	2027	2039	2027	2027	2027	2027	2015	2027	2063	2051	2063	2051	2063	2063	2063	2063	2063	2063	2063	2051	2051	2051	2063	2063	2063	2063	2051	2063	2063	2063	2063	2051	2051	2051	2051	2051	2051	2051	2051	2051	2051	2051	2051	2063	2051	2051	2051	2051	2063	2076	2063	2076	2076	2076	2076	2076	2076	2076	2076	2076	2076	2076	2076	2076	2076	2063	2063	2063	2063	2063	2076	2063	2076	2063	2063	2063	2076	2063	2076	2076	2076	2063	2063	2063	2063	2063	2063	2088	2076	2088	2088	2088	2088	2088	2076	2076	2076	2076	2076	2063	2063	2063	2076	2063	2063	2063	2076	2076	2076	2076	2076	2076	2076	2076	2063	2063	2076	2076	2076	2076	2076	2076	2076	2088	2076	2088	2088	2076	2076	2088	2101	2088	2088	2101	2114	2114	2114	2127	2140	2153	2167	2181	2208	2208	2208	2343	2343	2359	2376	2392	2426	2426	2426	2426	2426	2460	2460	0	0	5202	5202	5202	5202	5202	5202	5202	5202	5202	5282	5282	5282	5202	5202	5202	5202	5125	5282	5202	5202	5202	5202	5282	5282	5282	5282	5282	5282	5364	5364	5364	5364	5364	5364	5364	5282	5282	5282	5282	5282	5364	5364	5364	5364	5364	5364	5364	5364	5364	5364	5364	5364	5364	5364	5282	5282	5282	5282	5364	5364	5364	5364	5448	5448	3907	3907	3864	3864	3864	3864	3864	3864	3864	3864	3864	3864	3864	3864	3864	3864	3864	3821	3821	3821	3821	3779	3779	3738	3738	3738	3779	3779	3779	3779	3821	3821	3821	3821	3821	3779	3779	3779	3779	3779	3738	3738	3738	3738	3738	3779	3779	3779	3779	3779	3779	3738	3779	3779	3779	3779	3779	3821	3821	3864	3864	3864	3864	3864	3864	3864	3821	3779	3779	5448	5448	5448	5448	5448	5448	5448	5448	5448	5448	5448	5448	5448	5448	5448	5448	5448	5448	5448	5448	5448	5448	5448	5448	5448	5448	5364	5364	5364	5364	5364	5364	5448	5364	5364	5364	5364	5364	5364	5364	5364	5364	5364	5364	5364	5364	5364	5282	5282	5364	5364	5364	5364	5364	5364	5448	5448	5448	5448	5448	5448	5448	5535	5448	5535	5448	5535	5535	5535	5535	5535	5448	5448	5448	5364	5364	5364	5364	5448	5448	5448	5448	5448	5448	5448	5448	5448	5364	5364	0	0	0	0	0	0	0	0	0	0	3864	3821	3864	3821	3821	3779	3779	3738	3738	3698	3698	3659	3621	3546	3546	3510	3510	3475	3475	3475	3440	3440	3406	3373	3373	3341	3341	3277	3246	3246	3216	3186	3157	3157	3129	3129	3129	3129	3129	3129	3129	0	0	0	0	0	0	0	0	0	0	0	2822	2822	2822	2799	2799	2777	2777	2754	2754	2733	2711	2711	2690	2690	2669	2669	2669	2649	2649	2629	2609	2609	2589	2570	2551	2532	2514	2496	2496	2496	2496	2478	2478	2478	2478	2426	2443	2443	0	0	0	0	0	0	0	2343	2343	2343	2343	0	0	0	0	0	0	0	0	0	0	0	0	0	0	0	0	0	0	0	0	0	0	0	0	0	0	0	0	0	0	0	0	0	0	0	1969	1969	1969	1958	1958	1936	1936	1915	1904	1904	1894	1894	1883	1873	1873	1873	1873	1863	1863	1863	0	0	0	0	0	0	0	0	0	0	0	0	0	0	0	0	0	0	0
0	0	0	0	0	0	0	0	0	0	0	0	0	0	0	0	0	0	0	0	0	0	0	0	0	0	0	0	0	0	0	0	0	0	2015	2027	2027	2027	2027	2027	2027	2027	2039	2027	2027	2027	2027	2027	2039	2027	2027	2027	2027	2027	2027	2027	2027	2027	2027	2027	2027	2027	2027	2027	2039	2015	2027	2027	2027	2039	2039	2039	2039	2039	2027	2039	2039	2027	2027	2027	2027	2027	2063	2063	2063	2063	2063	2063	2063	2063	2063	2063	2063	2063	2063	2063	2063	2051	2063	2051	2051	2051	2051	2051	2063	2051	2051	2051	2051	2051	2063	2063	2051	2051	2063	2051	2063	2051	2051	2063	2063	2051	2051	2051	2051	2076	2076	2076	2076	2076	2076	2076	2076	2076	2076	2076	2076	2076	2076	2076	2076	2076	2063	2063	2063	2063	2063	2063	2063	2076	2076	2063	2076	2063	2063	2063	2063	2063	2063	2063	2063	2076	2076	2076	2076	2088	2076	2076	2076	2063	2076	2076	2063	2063	2063	2076	2076	2076	2076	2076	2076	2076	2076	2076	2076	2076	2076	2076	2076	2076	2076	2076	2088	2088	2076	2076	2076	2076	2088	2088	2088	2101	2101	2101	2101	2101	2114	2114	2114	2114	2114	2127	2140	2153	2167	2181	2194	2194	2194	2359	2359	2376	2409	2409	2426	2443	2426	2443	2460	2460	2460	2460	0	5202	5202	5202	5202	5202	5282	5202	5202	5202	5282	5282	5282	5202	5202	5202	5202	5202	5282	5202	5282	5202	5202	5282	5282	5282	5282	5282	5282	5282	5364	5364	5364	5364	5364	5364	5282	5282	5282	5282	5282	5282	5282	5364	5364	5364	5364	5364	5364	5364	5364	5364	5364	5364	5282	5282	5282	5282	5282	5364	5364	5364	5364	5448	5448	3907	3907	3864	3864	3864	3864	3864	3864	3864	3864	3864	3864	3864	3864	3864	3821	3821	3821	3821	3821	3821	3779	3738	3738	3738	3738	3779	3779	3779	3779	3821	3821	3821	3821	3779	3779	3779	3779	3779	3779	3738	3738	3738	3779	3779	3779	3738	3779	3738	3738	3738	3738	3738	3779	3779	3779	3779	3779	3821	3821	3864	3864	3864	3864	3864	3821	3821	3779	3779	5448	5535	5448	5448	5364	5448	5448	5448	5448	5448	5448	5448	5448	5448	5448	5448	5448	5448	5448	5535	5535	5448	5448	5448	5448	5364	5364	5364	5364	5364	5364	5364	5364	5364	5364	5282	5364	5364	5364	5282	5282	5364	5364	5282	5364	5364	5282	5282	5282	5364	5364	5364	5282	5364	5364	5448	5448	5448	5448	5448	5448	5448	5448	5448	5448	5448	5535	5535	5535	5535	5535	5448	5448	5448	5448	5364	5364	5364	5448	5448	5448	5448	5448	5448	5448	5448	5448	5364	5364	0	0	0	0	0	0	0	0	0	0	3864	3864	3864	3864	3821	3779	3779	3738	3738	3738	3698	3659	3621	3583	3546	3510	3510	3510	3475	3475	3440	3440	3440	3373	3373	3373	3341	3309	3246	3216	3216	3186	3186	3157	3157	3129	3157	3157	3129	0	0	0	0	0	0	0	0	0	0	0	0	2822	2822	2822	2822	2799	2799	2777	2777	2754	2754	2733	2711	2711	2711	2690	2669	2669	2669	2649	2649	2629	2609	2589	2589	2570	2551	2551	2514	2496	2514	2496	2496	2478	2478	2478	2478	0	0	0	0	0	0	0	0	0	0	2343	2343	2343	2343	0	0	0	0	0	0	0	0	0	0	0	0	0	0	0	0	0	0	0	0	0	0	0	0	0	0	0	0	0	0	0	0	0	0	1980	1980	1980	1980	1980	1969	1947	1936	1915	1904	1904	1904	1904	1883	1873	1873	1873	1863	1863	1863	1863	0	0	0	0	0	0	0	0	0	0	0	0	0	0	0	0	0	0	0
0	0	0	0	0	0	0	0	0	0	0	0	0	0	0	0	0	0	0	0	0	0	0	0	0	0	0	0	0	0	0	0	0	0	2015	2015	2027	2027	2027	2027	2027	2039	2039	2039	2039	2039	2039	2039	2039	2039	2039	2027	2027	2027	2039	2027	2039	2039	2039	2039	2039	2039	2027	2039	2027	2027	2027	2027	2039	2039	2039	2039	2039	2039	2027	2027	2027	2027	2015	2015	2027	2027	2039	2039	2051	2051	2051	2051	2051	2063	2063	2063	2063	2063	2063	2063	2063	2063	2063	2063	2063	2063	2063	2063	2063	2051	2051	2051	2051	2051	2063	2063	2063	2063	2063	2063	2063	2063	2051	2063	2051	2051	2051	2051	2051	2076	2076	2076	2076	2076	2076	2076	2076	2063	2063	2063	2076	2076	2076	2076	2076	2076	2063	2063	2076	2063	2076	2063	2063	2076	2076	2063	2076	2063	2076	2063	2063	2063	2063	2063	2063	2076	2076	2063	2063	2076	2076	2076	2063	2063	2063	2063	2063	2063	2063	2076	2076	2076	2076	2076	2076	2076	2076	2076	2076	2076	2076	2076	2063	2076	2076	2076	2088	2088	2088	2076	2088	2088	2088	2088	2088	2088	2088	2088	2101	2101	2101	2114	2114	2114	2114	2127	2140	2153	2167	2181	2194	2194	2194	2376	2376	2392	2426	2426	2426	2443	2443	2443	2460	2460	2460	2460	0	0	5125	5125	5202	5202	5282	5202	5202	5202	5282	5282	5282	5282	5202	5202	5202	5202	5282	5282	5282	5202	5282	5282	5282	5282	5282	5282	5282	5364	5364	5364	5364	5364	5364	5364	5282	5282	5282	5282	5282	5282	5282	5282	5364	5282	5282	5364	5364	5364	5364	5364	5364	5364	5282	5282	5282	5282	5364	5364	5364	5364	5364	5364	5364	3864	3864	3864	3864	3864	3864	3864	3864	3864	3864	3864	3864	3864	3864	3864	3864	3821	3779	3779	3779	3779	3779	3738	3738	3738	3738	3738	3738	3779	3779	3779	3821	3821	3821	3779	3779	3738	3779	3779	3779	3779	3738	3738	3779	3779	3738	3738	3738	3738	3738	3738	3738	3738	3738	3779	3779	3779	3779	3821	3821	3864	3864	3864	3864	3821	3821	3821	3821	3821	5448	5448	5448	5364	5364	5448	5364	5448	5448	5448	5448	5448	5448	5448	5448	5448	5535	5448	5535	5535	5535	5448	5448	5448	5448	5448	5364	5364	5364	5364	5364	5364	5364	5364	5282	5282	5282	5282	5282	5282	5282	5364	5364	5282	5364	5364	5282	5364	5282	5282	5282	5282	5282	5364	5364	5364	5448	5448	5448	5448	5448	5448	5448	5448	5448	5535	5535	5535	5535	5535	5448	5448	5448	5448	5364	5364	5282	5364	5448	5448	5448	5448	5448	5448	5448	5364	5364	5364	5364	0	0	0	0	0	0	0	0	0	0	3907	3864	3864	3864	3864	3821	3779	3738	3738	3698	3698	3659	3621	3583	3546	3510	3510	3510	3475	3475	3440	3440	3406	3373	3373	3341	3341	3277	3246	3216	3216	3186	3186	3157	3157	3129	3129	3129	0	0	0	0	0	0	0	0	0	0	0	0	2822	2822	2822	2822	2822	2822	2799	2777	2777	2777	2754	2733	2733	2711	2711	2690	2690	2669	2669	2649	2649	2629	2589	2589	2570	2570	2551	2551	2514	2496	2514	2478	2496	2496	2496	0	0	0	0	0	0	2460	2460	2443	2443	2443	2443	0	0	0	0	0	0	0	0	0	0	0	0	0	0	0	0	0	0	0	0	0	0	0	0	0	0	0	0	0	0	0	0	0	0	0	1980	1992	2003	2003	1992	1992	1992	1980	1969	1947	1936	1915	1915	1904	1904	1904	1894	1873	1873	1873	1873	1863	1863	1863	0	0	0	0	0	0	0	0	0	0	0	0	0	0	0	0	0	0	0
