0	0	0	0	0	0	0	0	0	0	0	1287	1287	1287	1291	1291	1291	0	0	0	0	0	0	0	0	0	0	0	0	0	0	0	0	0	0	0	0	0	0	0	0	0	0	0	0	0	0	0	0	0	0	0	0	0	0	0	2027	2015	2015	2015	2003	1992	1992	1992	1980	1992	2015	2015	2015	2015	2015	2015	2015	2003	2003	1992	0	0	0	0	0	0	0	0	0	0	0	0	0	0	0	0	0	0	0	0	0	0	0	0	0	0	0	0	0	0	0	0	0	0	0	0	0	0	0	0	0	0	0	0	0	0	0	0	0	0	0	0	0	0	0	0	0	0	0	0	0	0	0	0	0	0	0	0	0	0	0	0	0	0	0	0	2669	2669	2669	2690	2690	2690	2690	2669	2669	2669	2669	2669	2669	2669	2669	2669	2669	2669	2669	2669	2669	2669	2669	2669	2690	2690	2690	2711	2711	2733	2754	2754	2754	2754	2754	2799	2822	2754	2754	2754	2777	2754	2777	2777	2777	2777	2754	2754	2754	2754	2777	2799	2799	2799	2822	2822	2822	2822	2845	2869	2869	2869	2917	2917	2967	2967	2967	2993	2993	2993	2993	0	0	0	4045	4093	4093	4093	4093	4142	4192	4243	4243	4296	4296	4296	4406	4406	4463	4463	4463	0	0	0	0	0	0	0	0	0	0	0	6235	6235	6235	6124	6235	6235	6235	6124	6124	6018	6018	0	0	0	0	0	0	0	0	0	0	0	0	0	0	0	0	0	0	0	0	0	0	5535	5448	5448	5448	5364	5364	5282	5282	5282	5282	5202	5125	5125	5125	5125	3952	3952	3952	3907	3907	3907	3907	3907	3907	3864	3907	3907	3907	3864	3907	3907	3907	3907	3907	3907	3907	3907	3864	3907	3907	3907	3907	3907	3952	3907	3907	3907	3907	3907	3907	3907	3907	3907	3907	3907	3907	3907	3907	3907	3907	3907	3907	3864	3864	3821	3821	3821	0	8146	8343	8146	7959	8146	7959	7959	8146	7959	7959	7959	8146	8146	8146	8146	8146	8146	8146	7959	7959	7779	7608	6853	6720	6468	6468	6468	6349	6349	6349	6235	6349	6349	6349	6349	6349	6349	6349	6468	6349	6468	6349	6349	6468	6349	6349	6349	6235	6349	6349	6349	7959	7959	7959	7959	7959	7959	7959	7959	7959	8146	7959	7959	7959	7959	7959	7959	8146	7959	7959	7959	7959	7959	7959	7959	7959	8146	8146	8146	8146	8146	8146	8146	8146	8146	8146	8146	8146	8146	8146	8146	8146	8146	8146	8146	8146	8146	7959	7959	7959	7959	0	0	0	0	0	4142	4142	4093	4142	4192	4192	4142	4142	4142	4192	4142	4142	4142	4243	4350	4350	0	0	0	0	0	0	0	0	0	0	0	0	0	0	0	0	0	0	0	0	0	0	0	0	0	0	0	0	0	0	0	0	0	3510	3475	3475	3406	3309	3216	3216	3216	3186	3186	3157	3129	3157	3157	0	0	0	0	0	0	0	0	0	0	0	3186	3186	3186	3157	3186	3129	3129	3129	3129	3157	0	0	0	0	0	0	0	0	0	0	0	0	0	0	0	0	3277	3216	3309	3246	3246	3246	3186	3216	3246	3246	0	0	0	0	0	0	0	2312	2297	2327	2312	2327	2312	2312	2312	2312	2312	2312	3186	3186	3186	3216	3216	3216	3216	3186	3216	3216	3186	3186	3186	3157	3186	3157	3157	3157	0	0	0	0	0	0	0	0	0	0	0	0	0	0	0	0	0	0	0	0	0	0	0	0	0	0	0	0	0	0	0	0	0
0	0	0	0	0	0	0	0	0	0	0	1282	1282	1287	1287	1287	0	0	0	0	0	0	0	0	0	0	0	0	0	0	0	0	0	0	0	0	0	0	0	0	0	0	0	0	0	0	0	0	0	0	0	0	0	0	0	0	2027	2015	2015	2003	1992	2003	1992	1992	1992	1992	2015	2015	2015	2015	2015	2015	2015	2015	2003	0	0	0	0	0	0	0	0	0	0	0	0	0	0	0	0	0	0	0	0	0	0	0	0	0	0	0	0	0	0	0	0	0	0	0	0	0	0	0	0	0	0	0	0	0	0	0	0	0	0	0	0	0	0	0	0	0	0	0	0	0	0	0	0	0	0	0	0	0	0	0	0	0	0	0	0	2711	2711	2711	2690	2690	2690	2690	2690	2669	2669	2669	2669	2669	2669	2669	2669	2669	2669	2669	2669	2669	2669	2669	2669	2669	2690	2690	2711	2711	2711	2733	2733	2754	2754	2733	2754	2754	2777	2754	2754	2733	2754	2754	2754	2754	2754	2754	2754	2754	2754	2754	2777	2777	2799	2799	2799	2822	2822	2845	2845	2845	2869	2893	2942	2942	2967	2967	2967	2993	3019	3019	2993	0	0	0	4045	4045	4093	4093	4142	4142	4192	4243	4243	4296	4350	4296	4406	4463	4521	4521	4463	0	0	0	0	0	0	0	0	0	0	6124	6124	6124	6124	6124	6124	6124	6124	6124	6018	5815	5815	0	0	0	0	0	0	0	0	0	0	0	0	0	0	0	0	0	0	0	0	0	0	5535	5448	5364	5448	5364	5364	5282	5282	5282	5282	5202	5125	5125	5125	5125	3998	3952	3907	3907	3907	3907	3907	3907	3907	3907	3907	3907	3907	3907	3907	3907	3907	3907	3907	3907	3907	3907	3864	3907	3907	3907	3907	3907	3907	3907	3907	3907	3907	3907	3907	3907	3907	3907	3907	3907	3907	3907	3907	3907	3907	3907	3907	3864	3864	3864	3864	3864	0	8343	8343	8146	8146	8146	8146	8146	8146	7959	7959	7959	8146	8146	8146	8146	8146	8146	8146	7959	7959	7779	7608	6720	6592	6592	6592	6592	6349	6349	6349	6349	6349	6349	6349	6349	6349	6349	6468	6468	6349	6468	6349	6349	6349	6349	6349	6349	6235	6349	6349	6235	7959	7959	7959	7959	7959	7959	7959	7959	7959	7959	7959	7959	7959	7959	8146	7959	7959	7959	7959	7959	7959	7959	7959	7959	7959	8146	8146	8146	8146	8146	8146	8146	8146	8146	8146	8146	8146	8146	8146	8146	8146	8146	8146	8146	8146	8146	7959	7959	7959	7959	7959	0	0	0	4192	4192	4142	4142	4192	4192	4192	4192	4192	4142	4192	4192	4192	4350	4296	4296	4296	0	0	0	0	0	0	0	0	0	0	0	0	0	0	0	0	0	0	0	0	0	0	0	0	0	0	0	0	0	0	0	0	0	3510	3475	3373	3373	3309	3216	3216	3216	3186	3186	3157	3129	3129	3157	0	0	0	0	0	0	0	0	0	0	0	3186	3186	3186	3186	3186	3157	3129	3129	3129	3157	0	0	0	0	0	0	0	0	0	0	0	0	0	0	0	0	3277	3246	3277	3246	3246	3246	3186	3216	3246	3246	0	0	0	0	0	0	0	2312	2297	2312	2312	2327	2327	2312	2312	2312	2312	2312	3186	3186	3186	3186	3186	3216	3216	3186	3186	3186	3186	3186	3186	3157	3186	3157	3186	3186	0	0	0	0	0	0	0	0	0	0	0	0	0	0	0	0	0	0	0	0	0	0	0	0	0	0	0	0	0	0	0	0	0
0	0	0	0	0	0	0	0	0	0	0	1282	1282	1282	1287	1287	0	0	0	0	0	0	0	0	0	0	0	0	0	0	0	0	0	0	0	0	0	0	0	0	0	0	0	0	0	0	0	0	0	0	0	0	0	0	0	0	2027	2015	2015	2003	1992	1992	2003	1992	1992	2003	2015	2015	2015	2015	2003	2015	2003	2003	0	0	0	0	0	0	0	0	0	0	0	0	0	0	0	0	0	0	0	0	0	0	0	0	0	0	0	0	0	0	0	0	0	0	0	0	0	0	0	0	0	0	0	0	0	0	0	0	0	0	0	0	0	0	0	0	0	0	0	0	0	0	0	0	0	0	0	0	0	0	0	0	0	0	0	0	0	2711	2711	2711	2690	2690	2690	2690	2690	2669	2669	2669	2669	2669	2669	2669	2669	2669	2669	2669	2669	2669	2669	2669	2669	2669	2669	2690	2690	2711	2711	2733	2733	2754	2754	2733	2754	2754	2754	2754	2754	2733	2754	2754	2754	2754	2754	2754	2754	2754	2754	2754	2777	2777	2777	2777	2777	2822	2822	2845	2845	2869	2893	2893	2917	2942	2967	2967	2967	2993	3019	3019	0	0	0	0	4045	4045	4093	4093	4142	4142	4192	4192	4243	4243	4350	4350	4406	4406	4521	4521	0	0	0	0	0	0	0	0	0	0	0	6124	6124	6124	6124	6124	6124	6124	6018	5915	5915	5719	5719	0	0	0	0	0	0	0	0	0	0	0	0	0	0	0	0	0	0	0	0	0	0	5448	5448	5448	5364	5364	5364	5282	5282	5282	5202	5202	5125	5125	5125	5125	3952	3907	3907	3907	3907	3907	3907	3907	3864	3864	3907	3907	3907	3907	3952	3952	3907	3907	3907	3907	3907	3907	3864	3864	3907	3907	3907	3907	3952	3952	3907	3907	3907	3907	3907	3907	3907	3907	3907	3907	3907	3907	3907	3907	3907	3907	3864	3864	3864	3821	3821	3821	0	8343	8343	8343	8146	7959	7959	7959	8146	7959	7959	7959	8146	8146	8146	8146	8146	8146	8146	7959	7959	7779	7608	6592	6468	6468	6468	6468	6349	6349	6349	6349	6349	6349	6349	6349	6349	6349	6349	6468	6349	6349	6349	6349	6349	6349	6349	6235	6235	6235	6349	6349	7959	7959	7959	7959	7959	7959	7959	7959	7959	7959	7959	7959	7959	7959	8146	7959	7959	7959	7959	7959	7959	7959	7959	7959	7959	8146	8146	8146	8146	8146	8146	8146	8146	8146	8146	8146	8146	8146	8146	8146	8146	8146	8146	8146	8146	8146	8146	8146	8146	7959	8146	7959	7959	0	4243	4192	4192	4142	4142	4192	4192	4192	4192	4192	4192	4192	4243	4350	4296	4350	4350	4350	4350	0	0	0	0	0	4406	4406	4406	4406	4350	4406	4406	0	0	0	0	0	0	0	0	0	0	0	0	0	0	0	0	0	0	0	0	0	3373	3373	3341	3216	3216	3186	3157	3157	3129	3129	3157	3157	0	0	0	0	0	0	0	0	0	0	3129	3157	3157	3216	3186	3186	3157	3129	3129	0	0	0	0	0	0	0	0	0	0	0	0	0	0	0	0	0	0	3277	3309	3309	3246	3277	3246	3216	3216	3246	3246	0	0	0	0	0	0	0	2312	2312	2312	2312	2327	2327	2312	2312	2312	2297	2312	2312	3186	3186	3186	3216	3216	3216	3186	3186	3186	3186	3186	3186	3157	3186	3157	3186	3186	0	0	0	0	0	0	0	0	0	0	0	0	0	0	0	0	0	0	0	0	0	0	0	0	0	0	0	0	0	0	0	0	0
0	0	0	0	0	0	0	0	0	0	0	1282	1282	1282	1287	1291	1291	0	0	0	0	0	0	0	0	0	0	0	0	0	0	0	0	0	0	0	0	0	0	0	0	0	0	0	0	0	0	0	0	0	0	0	0	0	0	0	2015	2015	2003	1992	1992	1992	2003	2003	2003	2015	2003	2015	2003	2003	2015	2015	2015	2015	0	0	0	0	0	0	0	0	0	0	0	0	0	0	0	0	0	0	0	0	0	0	0	0	0	0	0	0	0	0	0	0	0	0	0	0	0	0	0	0	0	0	0	2039	2039	2039	2039	2027	2027	0	0	0	0	0	0	0	0	0	0	0	0	0	0	0	0	0	0	0	0	0	0	0	0	0	0	0	0	2711	2711	2711	2690	2690	2690	2690	2669	2669	2669	2669	2690	2669	2669	2669	2669	2669	2669	2669	2669	2669	2669	2669	2669	2669	2669	2690	2690	2711	2711	2733	2733	2733	2754	2733	2733	2733	2754	2754	2754	2733	2754	2754	2754	2754	2754	2754	2754	2754	2754	2754	2754	2777	2777	2777	2799	2822	2822	2845	2845	2869	2869	2869	2917	2942	2967	2967	2993	3019	3019	3019	0	0	0	0	4045	4045	4093	4093	4142	4192	4192	4192	4243	4243	4296	4350	4406	4463	4521	4521	0	0	0	0	0	0	0	0	0	0	0	6124	6018	6018	6018	6018	6018	6018	5915	5915	5815	5815	5719	0	0	0	0	0	0	0	0	0	0	0	0	0	0	0	0	0	0	0	0	0	0	5448	5448	5364	5364	5364	5282	5282	5282	5282	5202	5125	5125	5050	5050	5125	3907	3952	3907	3907	3907	3864	3864	3864	3864	3907	3907	3907	3907	3864	3907	3907	3907	3907	3907	3907	3907	3907	3864	3907	3907	3907	3907	3907	3952	3952	3907	3907	3952	3907	3907	3907	3907	3907	3907	3907	3907	3907	3907	3907	3907	3907	3864	3864	3821	3821	3821	3821	0	8343	8343	8343	8146	7959	7959	7959	7959	7959	7959	7959	7959	8146	8146	8146	8146	8146	8146	7959	7959	7779	7444	6592	6592	6592	6468	6468	6468	6349	6468	6349	6349	6468	6349	6349	6349	6349	6349	6468	6349	6349	6349	6349	6349	6349	6349	6235	6235	6235	6235	6124	7959	7959	7959	7959	7959	7959	7959	7959	7959	7959	7959	7959	7959	7959	8146	7959	7959	7959	7959	7959	7959	7959	7959	7959	7959	8146	8146	8146	8146	8146	8146	8146	8146	8146	8146	8146	8146	8146	8146	8146	8146	8146	8146	8146	8146	8146	8146	8146	8146	8146	8146	8146	8146	0	4296	4296	4296	4192	4192	4192	4296	4296	4296	4296	4243	4192	4296	4296	4350	4350	4350	4350	4350	0	0	0	0	4296	4350	4350	4406	4406	4350	4296	4296	4296	0	0	0	0	0	0	0	0	0	0	0	0	0	0	0	0	0	0	0	0	0	3373	3341	3216	3216	3216	3186	3157	3157	3129	3157	3157	0	0	0	0	0	0	0	0	0	0	3129	3129	3186	3216	3186	3186	3157	3157	3129	0	0	0	0	0	0	0	0	0	0	0	0	0	0	0	0	0	0	0	3277	3277	3246	3246	3246	3216	3216	3246	3246	0	0	0	0	0	0	0	2312	2312	2312	2312	2312	2312	2297	2297	2297	2312	2312	2312	2312	2312	3186	3186	3216	3186	3186	3186	3186	3157	3186	3186	3186	3186	3157	3186	3186	0	0	0	0	0	0	0	0	0	0	0	0	0	0	0	0	0	0	0	0	0	0	0	0	0	0	0	0	0	0	0	0	0
0	0	0	0	0	0	0	0	0	0	0	1282	1282	1287	1291	1291	1291	0	0	0	0	0	0	0	0	0	0	0	0	0	0	0	0	0	0	0	0	0	0	0	0	0	0	0	0	0	0	0	0	0	0	0	0	0	0	0	2015	2003	2015	1992	1980	1992	2003	2027	2039	2039	2027	2027	2015	2015	1992	2003	1980	1980	0	0	0	0	0	0	0	0	0	0	0	0	0	0	0	0	0	0	0	0	0	0	0	0	0	0	0	0	0	0	0	0	0	0	0	0	0	0	0	0	0	2027	2027	2039	2039	2027	2027	2015	2015	0	0	0	0	0	0	0	0	0	0	0	0	0	0	0	0	0	0	0	0	0	0	0	0	0	2690	2690	2690	2690	2711	2690	2690	2690	2690	2690	2669	2669	2669	2669	2690	2669	2669	2669	2669	2669	2669	2669	2669	2669	2669	2669	2669	2669	2669	2690	2690	2711	2711	2711	2733	2733	2733	2733	2733	2754	2754	2754	2754	2754	2754	2733	2733	2754	2754	2754	2754	2754	2754	2754	2777	2777	2777	2777	2799	2799	2822	2822	2869	2869	2869	2869	2893	2942	2967	2967	2967	3019	3019	3019	0	0	0	0	4045	4045	4045	4045	4093	4142	4192	4243	4296	4350	4406	4406	4406	4463	4521	4521	0	0	0	0	0	0	0	0	0	0	0	6124	6124	6124	6018	6018	6018	5915	5915	5915	5815	5815	0	0	0	0	0	0	0	0	0	0	0	0	0	0	0	0	0	0	0	0	0	0	0	0	5364	5364	5364	5364	5364	5282	5282	5282	5282	5202	5125	5125	5125	5125	3907	3907	3907	3864	3907	3864	3864	3864	3907	3907	3907	3907	3864	3864	3907	3907	3907	3907	3907	3907	3907	3864	3864	3907	3864	3907	3907	3907	3952	3952	3907	3952	3952	3907	3907	3907	3907	3907	3864	3864	3907	3907	3864	3907	3907	3907	3864	3821	3864	3864	3864	3821	8146	8146	8146	8146	8146	8146	7959	7959	7959	7959	7959	7959	8146	8146	8146	8146	8146	8146	8146	7959	7959	7779	7287	6592	6349	6349	6349	6349	6349	6349	6468	6349	6349	6349	6349	6349	6349	6349	6349	6349	6349	6349	6349	6349	6349	6349	6349	6235	6235	6235	6235	6124	7959	7959	7959	7959	7959	7959	7959	7959	7959	7959	7959	7959	7959	8146	8146	7959	7959	7959	7959	7959	7959	7959	7959	7959	7959	8146	8146	8146	8146	8146	8146	8146	8146	8146	8146	8146	8146	8146	8146	8146	8146	8146	8146	8146	8146	8146	8146	8146	8146	8146	8146	8146	7959	7959	4350	4350	4350	4406	4350	4350	4350	4350	4350	4350	4350	4350	4350	4406	4406	4406	4406	4350	4350	0	0	0	0	4296	4350	4350	4350	4350	4296	4296	4296	4296	0	0	0	0	0	0	0	0	0	0	0	0	0	0	0	0	0	0	0	0	0	0	0	3216	3216	3186	3157	3157	3157	3129	3129	3129	0	0	0	0	0	0	0	0	0	0	0	3129	3129	3216	3216	3186	3186	3186	3186	0	0	0	0	0	0	0	0	0	0	0	0	0	0	0	0	0	0	0	3277	3277	3246	3246	3216	3186	3186	3216	3216	0	0	0	0	0	0	0	2312	2297	2297	2297	2297	2297	2312	2312	2312	2312	2312	2312	2312	2297	2297	3157	3216	3186	3186	3186	3186	3186	3186	3186	3186	3186	3157	3157	3157	0	0	0	0	0	0	0	0	0	0	0	0	0	0	0	0	0	0	0	0	0	0	0	0	0	0	0	0	0	0	0	0	0
0	0	0	0	0	0	0	0	0	0	0	1282	1287	1291	1291	1296	1296	0	0	0	0	0	0	0	0	0	0	0	0	0	0	0	0	0	0	0	0	0	0	0	0	0	0	0	0	0	0	0	0	0	0	0	0	0	0	0	2015	1980	1980	1980	1980	1992	2027	2051	2051	2039	2027	2039	2015	2003	1992	2003	1992	1992	1992	0	0	0	0	0	0	0	0	0	0	0	0	0	0	0	0	0	0	0	0	0	0	0	0	0	0	0	0	0	0	0	0	0	0	0	0	0	0	0	0	2027	2039	2039	2039	2039	2027	2027	2027	1992	1992	0	0	0	0	0	0	0	0	0	0	0	0	0	0	0	0	0	0	0	0	0	0	0	2711	2711	2690	2690	2711	2690	2690	2669	2690	2669	2669	2669	2690	2690	2690	2669	2690	2690	2669	2669	2669	2669	2669	2669	2669	2669	2669	2669	2669	2690	2690	2711	2711	2733	2733	2733	2754	2754	2754	2754	2754	2754	2754	2733	2733	2733	2733	2733	2777	2754	2754	2754	2777	2777	2777	2777	2777	2799	2799	2822	2822	2845	2845	2845	2869	2869	2893	2942	2942	2967	2967	2993	2993	0	0	0	0	0	3998	4045	4045	4045	4093	4142	4192	4243	4296	4296	4406	4463	4463	4521	4521	4521	0	0	0	0	0	0	0	0	0	6235	6235	6235	6468	6124	6018	5815	5815	5915	5815	6018	5915	5915	0	0	0	0	0	0	0	0	0	0	0	0	0	0	0	0	0	0	0	0	0	0	0	0	5364	5364	5364	5282	5282	5282	5282	5282	5202	5125	5125	5050	4977	4977	5125	3864	3907	3864	3864	3864	3864	3864	3907	3907	3907	3864	3864	3864	3907	3907	3907	3907	3907	3907	3907	3907	3864	3907	3864	3907	3907	3907	3952	3952	3907	3952	3952	3907	3907	3907	3907	3907	3907	3907	3864	3864	3864	3907	3907	3864	3821	3821	3821	3821	3821	0	8550	8343	8146	8146	8146	7959	7959	7959	7959	7959	7959	8146	8146	8146	8146	8146	8146	7959	8146	7959	7779	7779	7444	6468	6349	6468	6349	6349	6349	6349	6468	6349	6349	6349	6349	6349	6349	6349	6349	6349	6349	6349	6349	6349	6349	6349	6349	6235	6235	6235	6235	6124	7959	7959	7959	7959	7959	7959	7959	7959	7959	8146	7959	8146	8146	8146	8146	7959	7959	7959	7959	7959	7959	7959	7959	7959	7959	8146	8146	8146	8146	8146	8146	8146	8343	8343	8146	8146	8146	8146	8146	8146	8146	8146	8146	8146	8146	8146	8146	8146	8146	8146	8146	8146	7959	7959	7959	4350	4350	4406	4406	4406	4406	4406	4406	4406	4406	4406	4406	4406	4406	4406	4406	4350	4350	0	0	0	0	4296	4350	4350	4350	4350	4350	4296	4296	4243	4243	0	0	0	0	0	0	0	0	0	0	0	0	0	0	0	0	0	0	0	0	0	3186	3186	3186	3186	3157	3157	3157	3129	3129	3129	0	0	0	0	0	0	0	0	0	0	0	3129	3186	3216	3216	3186	3186	3186	3186	3186	0	0	0	0	0	0	0	0	0	0	0	0	0	0	0	0	0	0	3277	3277	3246	3246	3246	3186	3216	3216	3216	0	0	0	0	0	0	0	2312	2297	2297	2297	2312	2297	2312	2312	2312	2312	2312	2312	2312	2297	2297	3157	3216	3186	3186	3186	3186	3186	3186	3216	3216	3216	3186	3186	3186	0	0	0	0	0	0	0	0	0	0	0	0	0	0	0	0	0	0	0	0	0	0	0	0	0	0	0	0	0	0	0	0	0
0	0	0	0	0	0	0	0	0	0	0	0	1282	1287	1291	1287	1287	0	0	0	0	0	0	0	0	0	0	0	0	0	0	0	0	0	0	0	0	0	0	0	0	0	0	0	0	0	0	0	0	0	0	0	0	0	0	0	0	1980	1980	1980	1980	1980	2039	2051	2039	2039	2027	2039	2027	2003	1992	1992	1992	1980	1980	0	0	0	0	0	0	0	0	0	0	0	0	0	0	0	0	0	0	0	0	0	0	0	0	0	0	0	0	0	0	0	0	0	0	0	0	0	0	0	0	2027	2027	2039	2039	2039	2039	2027	2039	2039	1992	0	0	0	0	0	0	0	0	0	0	0	0	0	0	0	0	0	0	0	0	0	0	0	2711	2711	2711	2711	2711	2690	2669	2669	2669	2669	2669	2669	2669	2690	2690	2690	2669	2690	2669	2669	2669	2669	2669	2669	2669	2669	2669	2669	2669	2690	2690	2733	2733	2733	2733	2733	2733	2733	2733	2733	2733	2733	2733	2733	2733	2711	2733	2733	2777	2777	2754	2777	2777	2777	2799	2777	2777	2799	2799	2822	2822	2845	2845	2845	2869	2869	2893	2917	2942	2967	2942	2967	2967	0	0	0	0	0	3998	3998	4045	4045	4093	4192	4243	4243	4296	4350	4406	4463	4463	4463	4463	4643	4643	0	0	0	0	0	0	0	0	6349	6468	6235	6235	6124	6018	5815	5815	5815	5815	5815	5815	5915	0	0	0	0	0	0	0	0	0	0	0	0	0	0	0	0	0	0	0	0	0	0	0	0	5364	5364	5364	5364	5364	5282	5282	5282	5202	5125	5050	5050	4977	4977	4977	3864	3907	3907	3907	3864	3864	3864	3907	3907	3907	3864	3864	3864	3907	3907	3907	3907	3907	3907	3907	3907	3864	3907	3864	3907	3907	3907	3952	3952	3907	3952	3952	3907	3907	3907	3907	3907	3907	3864	3864	3864	3864	3864	3864	3864	3821	3821	3864	3864	3821	0	8343	8343	8146	8146	8146	7959	7959	7959	7959	7959	7959	8146	8146	8146	8146	8146	8146	8146	8146	7959	7959	7779	7779	6720	6349	6349	6349	6349	6349	6349	6468	6349	6349	6349	6349	6349	6349	6349	6349	6349	6349	6349	6349	6349	6349	6349	6349	6349	6235	6235	6235	6124	7959	7959	7959	7959	7959	7959	7959	7959	7959	8146	8146	8146	8146	8146	8146	7959	7959	7959	7959	7959	7959	7959	7959	7959	7959	8146	8146	8146	8146	8146	8343	8343	8343	8343	8343	8343	8146	8146	8146	8146	8146	7959	7959	7959	8146	8146	8146	8146	8343	8146	8146	8146	8146	8146	7959	7959	7959	4406	4406	4406	4406	4406	4406	4406	4406	4406	4406	4406	4406	4406	4406	4406	4350	0	0	0	0	4296	4296	4350	4350	4350	4350	4296	4296	4192	4192	0	0	0	0	0	0	0	0	0	0	0	0	0	0	0	0	0	0	0	0	3186	3186	3186	3186	3186	3157	3157	3157	3129	3101	3101	0	0	0	0	0	0	0	0	0	0	0	0	3186	3216	3216	3186	3186	3186	3186	3246	3246	0	0	0	0	0	0	0	0	0	0	0	0	0	0	0	0	0	3309	3277	3246	3246	3216	3186	3186	3186	3186	0	0	0	0	0	0	0	2312	2297	2312	2297	2312	2312	2312	2312	2312	2312	2312	2312	2312	2312	2312	3157	3186	3186	3186	3157	3186	3157	3186	3186	3186	3216	3186	3186	3186	0	0	0	0	0	0	0	0	0	0	0	0	0	0	0	0	0	0	0	0	0	0	0	0	0	0	0	0	0	0	0	0	0
0	0	0	0	0	0	0	0	0	0	0	0	1282	1287	1287	1287	1291	0	0	0	0	0	0	0	0	0	0	0	0	0	0	0	0	0	0	0	0	0	0	0	0	0	0	0	0	0	0	0	0	0	0	0	0	0	1992	1992	1980	1980	1980	1980	1980	2015	2039	2039	2039	2039	2027	2027	2027	2015	2015	2003	2003	1992	2003	2003	2003	0	0	0	0	0	0	0	0	0	0	0	0	0	0	0	0	0	0	0	0	0	0	0	0	0	0	0	0	0	0	0	0	0	0	0	0	0	0	2027	2039	2039	2039	2039	2039	2027	2039	2015	2027	2027	0	0	0	0	0	0	0	0	0	0	0	0	0	0	0	0	0	0	0	0	0	2690	2711	2733	2711	2711	2711	2690	2690	2690	2690	2669	2669	2669	2690	2690	2711	2690	2669	2669	2669	2669	2669	2669	2669	2669	2669	2669	2669	2669	2669	2690	2690	2690	2733	2733	2733	2733	2733	2733	2754	2733	2733	2733	2733	2733	2733	2711	2733	2733	2777	2777	2754	2754	2777	2754	2777	2777	2777	2777	2799	2822	2845	2845	2845	2869	2869	2869	2893	2917	2942	2967	2942	2967	2967	2967	0	0	0	0	0	3952	3998	3998	4093	4142	4192	4243	4296	4406	4463	4463	4521	4581	4581	4706	4706	0	0	0	0	0	0	0	0	6468	6349	6349	6349	6124	6124	5815	5815	5815	5815	5815	5815	0	0	0	0	0	0	0	0	0	0	0	0	0	0	0	0	0	0	0	0	0	0	0	0	0	5364	5364	5364	5364	5282	5282	5282	5282	5202	5125	5050	5050	4977	4977	4977	3907	3907	3907	3907	3907	3864	3864	3907	3864	3864	3864	3864	3864	3907	3907	3907	3907	3907	3907	3907	3907	3907	3907	3907	3907	3907	3907	3952	3952	3907	3952	3952	3907	3907	3907	3907	3907	3864	3864	3864	3864	3864	3864	3907	3864	3864	3864	3864	3864	0	0	8146	8146	8146	7959	7959	7959	7959	7959	7959	7959	7959	8146	8146	8146	8146	8146	8146	8146	8146	7959	7959	7779	7779	6468	6349	6349	6349	6349	6349	6349	6349	6349	6349	6349	6349	6349	6349	6349	6349	6349	6468	6349	6349	6349	6349	6349	6349	6349	6235	6235	6235	6124	6124	8146	8146	8146	8146	8146	7959	8146	8146	8146	8146	8146	8146	8146	7959	7959	7959	7959	7959	7959	7959	7959	7959	7959	7959	8146	8146	8146	8146	8146	8146	8146	8343	8343	8146	8146	8146	8146	8146	8146	8146	7959	7959	7959	8146	8146	8146	8146	8146	8146	8146	8146	8146	8146	8146	8146	8146	4406	4406	4406	4406	4406	4406	4406	4406	4406	4406	4406	4406	4406	4406	4406	0	0	0	0	3998	4093	4192	4296	4350	4350	4296	4296	4296	4243	4243	0	0	0	0	0	0	0	0	0	0	0	0	0	0	0	0	0	0	0	0	3216	3216	3186	3186	3186	3186	3157	3157	3157	3129	3129	0	0	0	0	0	0	0	0	0	0	0	0	3216	3216	3216	3216	3186	3186	3186	3246	3246	0	0	0	0	0	0	0	0	0	0	0	0	0	0	0	0	0	3309	3277	3277	3246	3216	3186	3186	3186	3186	0	0	0	0	0	0	0	2312	2312	2312	2312	2297	2312	2312	2312	2312	2312	2312	2297	2297	3186	3157	3157	3186	3186	3157	3157	3157	3157	3186	3186	3186	3186	3157	3186	3186	0	0	0	0	0	0	0	0	0	0	0	0	0	0	0	0	0	0	0	0	0	0	0	0	0	0	0	0	0	0	0	0	0
0	0	0	0	0	0	0	0	0	0	0	0	1282	1287	1287	1291	1291	0	0	0	0	0	0	0	0	0	0	0	0	0	0	0	0	0	0	0	0	0	0	0	0	0	0	0	0	0	0	0	0	0	0	0	0	0	2003	2003	1980	1980	1980	1980	1992	2027	2039	2039	2027	2027	2027	2027	2015	2015	2003	2003	2003	1992	1992	2003	2003	0	0	0	0	0	0	0	0	0	0	0	0	0	0	0	0	0	0	0	0	0	0	0	0	0	0	0	0	0	0	0	0	0	0	0	0	0	2027	2027	2027	2039	2039	2039	2039	2039	2039	2027	2027	2015	2015	0	0	0	0	0	0	0	0	0	0	0	0	0	0	0	0	0	0	0	2669	2690	2711	2711	2711	2711	2711	2690	2690	2690	2690	2669	2669	2669	2690	2690	2690	2690	2669	2669	2669	2669	2669	2669	2669	2669	2669	2669	2669	2669	2669	2690	2690	2690	2733	2733	2733	0	0	2733	2754	2733	2733	2733	2733	2733	2733	0	0	0	0	2777	2754	2754	2777	2754	2777	2777	2777	2799	2822	2845	2845	2845	2845	2869	2869	2869	2893	2917	2942	2942	2942	2967	2967	2967	0	0	0	0	0	4093	4093	4093	4142	4192	4192	4243	4296	4350	4350	4406	4463	4463	4463	4521	4521	0	0	0	6468	6349	6468	6468	6468	6468	6468	6468	6468	6468	6018	5815	5815	5915	5915	5815	5815	0	0	0	0	0	0	0	0	0	0	0	0	0	0	0	0	0	0	0	0	0	0	0	0	0	5364	5364	5364	5364	5364	5282	5364	5282	5202	5125	5050	5050	4977	4977	4977	3952	3952	3907	3907	3907	3907	3864	3907	3907	3864	3864	3864	3864	3907	3907	3907	3907	3907	3907	3907	3907	3907	3907	3907	3907	3907	3907	3952	3952	3907	3952	3952	3907	3907	3907	3907	3907	3864	3864	3864	3864	3864	3864	3907	3907	3907	3864	3864	3864	0	7959	8146	8146	8146	7959	7959	7959	7959	7959	8146	8146	8146	8146	8343	8146	8146	8146	8146	8146	8146	7959	7959	7779	7779	7137	6349	6349	6349	6349	6349	6349	6349	6349	6349	6349	6349	6349	6468	6349	6349	6349	6468	6468	6468	6468	6349	6349	6349	6349	6235	6235	6235	6235	6235	8146	8146	7959	8146	8146	7959	8146	8146	8146	8146	8146	7959	7959	7959	7959	7959	7959	7959	7959	7959	7959	7959	7959	7959	8146	8146	8146	8146	8343	8146	8146	8146	8343	8146	8146	8146	8146	8146	8146	8146	7959	7959	8146	8146	8146	8146	8146	8146	8343	8146	8146	8146	8146	8146	8146	8146	4350	4406	4406	4406	4406	4406	4406	4406	4406	4406	4406	4406	4406	4406	4350	4350	0	0	0	3998	4093	4192	4296	4350	4350	4350	4350	4296	4243	4243	0	0	0	0	0	0	0	0	0	0	0	0	0	0	0	0	0	0	0	0	3186	3186	3186	3186	3186	3186	3186	3186	3157	3186	3186	0	0	0	0	0	0	0	0	0	0	3246	3246	3216	3216	3216	3186	3186	3186	3216	3246	3246	0	0	0	0	0	0	0	0	0	0	0	0	0	0	0	0	3309	3309	3277	3246	3246	3216	3216	3186	3186	3186	0	0	0	0	0	0	0	0	2312	2312	2297	2297	2297	2297	2297	2312	2312	2297	2297	3186	3186	3157	3157	3186	3186	3186	3157	3157	3157	3186	3186	3186	3186	3157	3186	3186	0	0	0	0	0	0	0	0	0	0	0	0	0	0	0	0	0	0	0	0	0	0	0	0	0	0	0	0	0	0	0	0	0
0	0	0	0	0	0	0	0	0	0	0	0	1291	1291	1287	1291	1287	1287	0	0	0	0	0	0	0	0	0	0	0	0	0	0	0	0	0	0	0	0	0	0	0	0	0	0	0	0	0	0	0	0	0	0	0	0	1992	1980	1980	1980	1980	1992	1992	2027	2039	2039	2027	2027	2027	2027	2027	2027	2027	2003	2003	1992	1992	0	0	0	0	0	0	0	0	0	0	0	0	0	0	0	0	0	0	0	0	0	1992	1980	1980	0	0	0	0	0	0	0	0	0	0	0	0	0	0	0	2027	2027	2027	2027	2039	2039	2027	2039	2039	2039	2039	2027	2039	2027	2027	0	0	0	0	0	0	0	0	0	0	0	0	0	0	0	0	0	2669	2690	2690	2711	2711	2711	2690	2690	2669	2669	2669	2669	2669	2669	2690	2690	2690	2690	2669	2669	2669	2669	2669	2669	2669	2669	2669	2669	2669	2669	2690	2669	2669	2690	0	0	0	0	0	0	0	2733	2733	2733	2733	2733	2733	0	0	0	0	0	0	0	2777	2754	2777	2777	2777	2799	2822	2845	2845	2845	2845	2845	2869	2869	2917	2942	2942	2942	2967	2967	2993	2993	0	0	0	3952	3907	3907	3952	4142	4142	4192	4243	4296	4296	4350	4350	4406	4463	4463	4521	4521	4521	0	0	6468	6468	6468	6349	6349	6349	6468	6468	6468	6592	6468	6468	6018	5915	6468	6468	6592	6468	6592	6592	0	0	0	0	0	0	0	0	0	0	0	0	0	0	0	0	0	0	0	0	0	0	0	5364	5364	5364	5364	5364	5364	5364	5282	5202	5125	5050	4977	4906	4906	4977	3952	3952	3907	3907	3907	3907	3864	3864	3907	3864	3864	3864	3864	3907	3907	3907	3907	3907	3907	3907	3907	3907	3907	3907	3907	3907	3907	3952	3907	3907	3907	3907	3907	3907	3907	3907	3907	3907	3864	3864	3864	3864	3907	3907	3907	3907	3907	3907	3907	0	7959	7959	7959	7959	7959	7959	7959	7959	8146	8146	8146	8146	8146	8343	8146	8146	8146	8146	8146	8146	7959	7959	7779	7608	7287	6349	6468	6349	6349	6349	6349	6349	6349	6349	6349	6349	6349	6349	6349	6468	6468	6468	6468	6468	6468	6468	6468	6349	6349	6349	6349	6349	6349	6349	8146	8146	8146	8146	8146	8146	8146	8146	8146	8146	8146	7959	7959	7959	7959	7959	7959	7959	7959	7959	7959	7959	7959	7959	8146	8146	8146	8343	8146	8146	8146	8146	8146	8146	8146	8146	8146	8146	8146	8146	7959	8146	8146	7959	8146	8146	8146	8146	8146	8146	8146	8146	8146	8146	8146	8146	4350	4406	4406	4406	4406	4406	4406	4406	4406	4406	4406	4406	4406	4406	4406	4350	0	0	0	0	0	0	4296	4350	4350	4350	4296	4296	4243	4243	0	0	0	0	0	0	0	0	0	0	0	0	0	0	0	0	0	0	0	3157	3186	3186	3186	3186	3186	3186	3186	3186	3186	3186	3186	0	0	0	0	0	0	0	0	0	0	3246	3246	3216	3216	3216	3216	3186	3216	3216	3246	3246	3246	0	0	0	0	0	3277	3277	3277	3277	3246	3216	3216	3216	3277	3277	3277	3277	3277	3246	3246	3216	3186	3186	3157	3157	0	0	0	0	0	0	0	0	2297	2312	2297	2297	2297	2297	2297	2312	2312	2297	2281	2281	3186	3157	3186	3186	3186	3186	3186	3186	3186	3186	3186	3157	3157	3157	3157	3157	0	0	0	0	0	0	0	0	0	0	0	0	0	0	0	0	0	0	0	0	0	0	0	0	0	0	0	0	0	0	0	0	0
0	0	0	0	0	0	0	0	0	0	0	0	1291	1291	1287	1291	1291	1287	0	0	0	0	0	0	0	0	0	0	0	0	0	0	0	0	0	0	0	0	0	0	0	0	0	0	0	0	0	0	0	0	0	0	0	1969	1969	1969	1980	1992	1992	1992	1992	1992	2039	2039	2027	2027	2027	2027	2027	2027	2027	2003	2003	0	0	0	0	0	0	0	0	0	0	0	0	0	0	0	0	0	0	0	0	0	0	0	1992	1980	1980	1980	0	0	0	0	0	0	0	0	0	0	0	0	0	0	2039	2039	2027	2039	2039	2027	2027	2039	2039	2039	2039	2027	2027	2027	2027	2027	0	0	0	0	0	0	0	0	0	0	0	0	0	0	0	2649	2649	2649	2669	2690	2690	2690	2690	2690	2669	2669	2669	2669	2669	2669	2669	2690	2690	2690	2669	2669	2669	2669	2669	2669	2669	2669	2669	2669	2669	2669	2690	2669	2669	0	0	0	0	0	0	0	0	0	2754	2754	2754	2733	2754	2754	0	0	0	0	0	0	0	2754	2777	2777	2777	2799	2822	2845	2845	2845	2869	2869	2893	2893	2917	2942	2942	2967	2967	2993	2993	2993	0	0	3907	3907	3907	3907	3907	4045	4243	4243	4296	4296	4296	4350	4350	4406	4406	4463	4463	4521	4521	4521	6720	6592	6468	6468	6349	6349	6349	6349	6349	6468	6468	6468	6468	6592	6468	6468	6468	6468	6468	6468	6468	6468	0	0	0	0	0	0	0	0	0	0	0	0	0	0	0	0	0	0	0	0	0	0	5364	5448	5364	5364	5364	5282	5364	5282	5202	5125	5050	5050	5050	5050	4977	3952	3952	3907	3907	3907	3907	3907	3907	3864	3864	3864	3864	3864	3907	3907	3907	3907	3907	3907	3907	3864	3907	3907	3864	3864	3907	3907	3952	3907	3907	3907	3907	3907	3907	3907	3907	3907	3907	3907	3864	3864	3864	3907	3907	3907	3907	3907	3907	3907	8995	8767	7959	7959	7959	7959	7959	8146	8146	8146	8343	8343	8343	8343	8343	8146	8146	8146	8146	8146	8146	7959	7959	7779	7779	7287	6349	6468	6349	6235	6235	6235	6235	6235	6349	6235	6349	6349	6349	6349	6468	6349	6468	6468	6468	6468	6468	6468	6468	6349	6349	6349	6349	6349	6349	6349	8146	8146	8146	8146	8146	8146	8146	8146	8146	8146	8146	7959	7959	7959	7959	7959	8146	7959	7959	7959	7959	7959	7959	7959	8146	8146	8146	8146	8146	8146	8146	8146	8146	8146	8146	8146	8146	8146	8146	7959	7959	7959	7959	7959	8146	8146	8146	8146	8146	8146	8146	8146	8146	8343	8343	4350	4406	4406	4406	4406	4406	4406	4406	4406	4406	4406	4406	4406	4406	4406	0	0	0	0	0	0	0	4350	4350	4350	4350	4350	4296	4296	4296	0	0	0	0	0	0	0	0	0	0	0	0	0	0	0	0	0	4406	4243	3186	3186	3216	3186	3186	3186	3186	3186	3186	3186	3186	3186	0	0	0	0	0	0	0	0	0	0	3246	3246	3216	3216	3216	3216	3186	3186	3216	3246	3216	3216	0	0	0	0	3277	3277	3246	3246	3246	3246	3246	3216	3246	3277	3277	3277	3277	3277	3246	3246	3216	3186	3186	3157	3157	0	0	0	0	0	0	0	0	2297	2312	2297	2297	2297	2297	2297	2312	2312	2297	2297	3157	3186	3157	3157	3186	3186	3186	3157	3157	3157	3186	3157	3157	3186	3157	3157	3157	0	0	0	0	0	0	0	0	0	0	0	0	0	0	0	0	0	0	0	0	0	0	0	0	0	0	0	0	0	0	0	0	0
0	0	0	0	0	0	0	0	0	0	0	0	1291	1287	1282	1287	1287	0	0	0	0	0	0	0	0	0	0	0	0	0	0	0	0	0	0	0	0	0	0	0	0	0	0	0	0	0	0	0	0	0	0	0	0	1969	1969	1969	1980	1992	1992	1992	1992	1992	0	0	0	0	2015	2015	0	0	0	0	0	0	0	0	0	0	0	0	0	0	0	0	0	0	0	0	0	0	0	0	0	0	0	1992	1992	1980	1980	1980	1980	0	0	0	0	0	0	0	0	0	0	0	0	0	2039	2027	2027	2039	2039	2039	2027	2039	2039	2039	2039	2027	2015	2015	2015	2015	0	0	0	0	0	0	0	0	0	0	0	0	2570	2589	2589	2629	2629	2649	2669	2669	2690	2690	2669	2669	2669	2669	2669	2669	2669	2669	2669	2669	2669	2669	2669	2669	2669	2669	2669	2669	2669	2669	2669	2669	2669	2669	2690	2669	2669	0	0	0	0	0	0	0	0	2754	2754	2733	2733	2733	2733	2754	0	0	0	0	0	0	0	0	0	0	0	0	0	2845	2869	2869	2869	2869	2869	2869	2917	2942	2942	2967	2967	2993	2993	2993	0	3864	3907	3907	3907	3907	3907	4045	4045	4192	4243	4296	4296	4350	4350	4406	4406	4463	4463	4463	6992	7137	6720	6592	6468	6235	6235	6349	6235	6349	6349	6468	6468	6468	6468	6592	6468	6468	6468	6349	6468	6468	6468	6468	0	0	0	0	0	0	0	0	0	0	0	0	0	0	0	0	0	0	0	0	0	0	0	5448	5364	5364	5364	5282	5364	5282	5202	5125	5050	5050	5050	5050	4977	3952	3952	3907	3907	3907	3907	3907	3907	3907	3864	3864	3864	3864	3907	3907	3907	3907	3907	3907	3864	3864	3864	3864	3864	3864	3907	3907	3952	3907	3907	3907	3907	3907	3907	3907	3907	3907	3907	3907	3907	3864	3907	3907	3907	3907	3907	3907	3907	0	8995	8767	8550	8146	8146	7959	8146	8146	8146	8146	8343	8343	8343	8146	8146	8146	8146	8146	8146	8146	7959	7959	7959	7779	7779	6235	6235	6235	6349	6235	6235	6349	6235	6235	6349	6235	6349	6349	6349	6468	6468	6468	6468	6468	6468	6468	6349	6349	6468	6349	6349	6349	6235	6349	6349	7959	8146	7959	8146	8146	8146	8146	8146	8343	8146	8146	8146	7959	7959	7959	7959	7959	8146	7959	7959	7959	7959	7959	7959	7959	8146	8146	8146	8146	8146	7959	8146	8146	8146	8146	8146	8146	8146	8146	8146	8146	8146	8146	7959	7959	8146	8146	8146	8146	8146	8146	8343	8343	8343	8343	8343	4406	4406	4406	4406	4406	4406	4406	4406	4406	4406	4406	4406	4406	4406	4350	4350	0	0	0	0	0	0	4350	4350	4350	4350	4296	4296	4243	4142	4093	4045	3998	3998	3952	3952	0	0	0	0	0	0	0	0	4296	4243	4243	4296	4296	3186	3186	3216	3216	3216	3186	3186	3186	3186	3186	3186	3186	0	0	0	0	0	0	0	0	0	0	3246	3246	3216	3216	3216	3216	3216	3186	3216	3246	3216	3216	3186	3216	3277	3277	3246	3277	3246	3246	3277	3246	3246	3246	3246	3277	3277	3277	3277	3277	3246	3246	3216	3216	3186	3186	3157	3157	0	0	0	0	0	0	0	2312	2297	2297	2297	2297	2297	2297	2312	2312	2297	2297	3157	3186	3186	3186	3186	3186	3186	3157	3157	3157	3157	3157	3157	3157	3157	3157	3157	0	0	0	0	0	0	0	0	0	0	0	0	0	0	0	0	0	0	0	0	0	0	0	0	0	0	0	0	0	0	0	0	0
0	0	0	0	0	0	0	0	0	0	0	0	1287	1287	1282	1282	1282	0	0	0	0	0	0	0	0	0	0	0	0	0	0	0	0	0	0	0	0	0	0	0	0	0	0	0	0	0	0	0	0	0	0	0	0	0	0	0	0	0	0	0	0	0	0	0	0	0	2015	2015	0	0	0	0	0	0	0	0	0	0	0	0	0	0	0	0	0	0	0	0	0	0	0	0	0	0	0	1992	2003	2003	1992	1992	1980	0	0	0	0	0	0	0	0	0	0	0	0	0	2051	2039	2027	2027	2027	2027	2027	2039	2039	2039	2039	2027	2015	2015	2015	2015	0	0	0	0	0	0	0	0	0	0	0	2551	2570	2589	2629	2629	2649	2649	2669	2690	2690	2690	2669	2690	2669	2669	2669	2669	2669	2669	2669	2669	2669	2669	2669	2669	2669	2669	2669	2669	2669	2669	2669	2669	2669	2669	2669	2669	2669	2669	0	0	0	0	0	0	0	2754	2733	2733	2733	2733	2733	2733	0	0	0	0	0	0	0	0	0	0	0	0	0	0	2869	2869	2869	2869	2869	2869	0	0	0	0	0	0	0	0	3907	3864	3907	3907	3907	3907	3952	3998	4192	4192	4243	4296	4296	4350	4296	4406	4406	4463	4406	4406	6992	6853	6720	6592	6468	6349	6349	6349	6349	6349	6349	6468	6468	6468	6468	6468	6468	6468	6468	6349	6468	6468	6349	6349	6349	0	0	0	0	0	0	0	0	0	0	0	0	0	0	0	0	0	0	0	0	0	0	0	5364	5364	5364	5364	5364	5282	5202	5125	5125	5050	5050	5050	4977	3864	3952	3952	3907	3907	3907	3907	3907	3907	3864	3864	3864	3864	3907	3907	3907	3907	3907	3864	3864	3864	3864	3864	3821	3864	3907	3907	3907	3907	3907	3907	3907	3907	3907	3907	3907	3907	3907	3907	3907	3864	3907	3907	3907	3907	3952	3907	3952	3952	8767	8550	8343	7959	8146	7959	8146	8146	8146	8146	8343	8146	8550	8550	8343	8146	8146	8146	8146	8146	7959	7959	7959	7959	7779	7608	6235	6349	6349	6235	6235	6235	6235	6235	6235	6235	6235	6349	6349	6349	6468	6349	6468	6468	6468	6468	6468	6468	6468	6468	6349	6349	6349	6349	6349	7959	8146	7959	8146	8146	8146	8146	8146	8146	8146	8146	8146	7959	7959	7959	7959	7959	8146	8146	7959	7959	7959	7959	7959	7959	7959	8146	8146	8146	8146	8146	8146	8146	8146	8146	8146	8146	8146	8146	8146	8146	8146	8146	7959	7959	8146	7959	8146	7959	8146	8146	8146	8343	8343	8343	8343	4406	4406	4463	4463	4463	4463	4406	4406	4406	4406	4406	4406	4350	4350	4350	4350	0	0	0	0	0	0	4350	4350	4350	4350	4296	4296	4296	4192	4192	4045	3998	3998	3952	3952	0	0	0	0	0	0	4406	4350	4350	4296	4296	4296	4296	3186	3186	3216	3216	3216	3216	3186	3186	3186	3186	3186	3186	0	0	0	0	0	0	0	0	0	0	3277	3246	3216	3216	3216	3186	3186	3186	3216	3216	3216	3216	3216	3216	3246	3246	3246	3246	3246	3246	3246	3246	3246	3246	3246	3246	3246	3246	3246	3246	3216	3216	3216	3216	3186	3186	3186	3186	0	0	0	0	0	0	2312	2297	2297	2297	2281	2281	2281	2297	0	0	0	0	0	3186	3186	3216	3216	3216	3186	3186	3157	3157	3157	3157	3157	3157	3157	3157	3157	0	0	0	0	0	0	0	0	0	0	0	0	0	0	0	0	0	0	0	0	0	0	0	0	0	0	0	0	0	0	0	0	0
0	0	0	0	0	0	0	0	0	0	0	0	1287	1287	1277	1277	1277	0	0	0	0	0	0	0	0	0	0	0	0	0	0	0	0	0	0	0	0	0	0	0	0	0	0	0	0	0	0	0	0	0	0	0	0	0	0	0	0	0	0	0	0	0	0	0	0	0	0	0	0	0	0	0	0	0	0	0	0	0	0	0	0	0	0	0	0	0	0	0	0	0	0	0	0	0	0	0	1992	2003	1992	1992	1992	2027	2027	0	0	0	0	0	0	0	0	0	0	0	2051	2039	2039	2027	2027	2027	2015	2027	2027	2027	2027	2027	2003	1992	1992	0	0	0	0	0	0	0	0	0	0	0	0	2551	2570	2609	2649	2649	2649	2669	2669	2669	2690	2690	2669	2669	2690	2690	2669	2669	2669	2669	2669	2669	2669	2669	2669	2669	2669	2669	2669	2669	2669	2669	2669	2669	2669	2669	2669	2649	2649	2669	0	0	0	0	0	0	0	0	2733	2733	2733	2733	2733	2733	0	0	0	0	0	0	0	0	0	0	0	0	0	0	0	2869	2869	0	0	0	0	0	0	0	0	0	0	0	3907	3907	3907	3907	3907	3907	3952	4045	4142	4142	4243	4296	4296	4350	4296	4406	4463	4463	4463	4463	4463	6592	6592	6592	6468	6349	6235	6235	6235	6235	6235	6349	6468	6468	6468	6468	6468	6468	6468	6349	6349	6468	6349	6349	6349	6349	0	0	0	0	0	0	0	0	0	0	0	0	0	0	0	0	0	0	0	0	0	0	5364	5364	5364	5364	5364	5282	5282	5202	5125	5050	5050	5050	4977	3864	3907	3952	3952	3907	3907	3907	3907	3907	3864	3864	3864	3864	3864	3907	3907	3907	3907	3864	3864	3864	3864	3864	3821	3864	3907	3907	3907	3907	3907	3907	3907	3907	3907	3907	3907	3907	3907	3907	3907	3907	3907	3907	3907	3907	3952	3907	4838	4838	4906	4906	7959	7959	8146	7959	8146	8146	8146	8146	8146	8146	8550	8343	8343	8146	7959	7959	8146	8146	7959	8146	7959	7959	7779	7608	7287	6468	6349	6235	6235	6235	6235	6235	6235	6235	6235	6349	6235	6349	6349	6349	6349	6349	6349	6468	6349	6349	6349	6468	6349	6349	6349	6235	6235	7959	8146	8146	8146	7959	7959	8146	8146	8146	8146	8146	7959	7959	7959	7959	7959	7959	7959	8146	7959	7959	7959	7959	7959	7959	8146	8146	8146	8146	8146	8146	8146	8146	8146	8146	8146	8146	8146	8146	8146	8146	8146	8146	7959	7959	7959	7959	7959	8146	8146	8146	8343	8343	8343	8146	8146	4463	4463	4463	4463	4463	4463	4406	4406	4406	4406	4406	4406	4350	4350	4350	4350	4350	4350	4350	4350	4350	4406	4406	4406	4350	4350	4296	4296	4296	4192	4093	4045	3998	3998	3998	0	0	0	0	0	0	4406	4406	4350	4350	4350	4350	4296	4350	3186	3186	3216	3216	3216	3216	3186	3186	3186	3186	3186	0	0	0	0	0	0	0	0	0	0	0	3309	3246	3216	3216	3216	3186	3186	3216	3216	3246	3246	3216	3216	3246	3246	3216	3216	3246	3216	3216	3246	3246	3216	3216	3216	3246	3246	3246	3216	3246	3246	3216	3216	3186	3186	3186	3186	3186	3186	0	0	0	0	2297	2297	2297	2297	2281	2281	2281	2281	0	0	0	0	0	0	0	3186	3216	3246	3216	3216	3186	3157	3157	3157	3157	3157	3157	3157	3157	3157	0	0	0	0	0	0	0	0	0	0	0	0	0	0	0	0	0	0	0	0	0	0	0	0	0	0	0	0	0	0	0	0	0
0	0	0	0	0	0	0	0	0	0	0	0	1287	1287	1277	1277	1277	0	0	0	0	0	0	0	0	0	0	0	0	0	0	0	0	0	0	0	0	0	0	0	0	0	0	0	0	0	0	0	0	0	0	0	0	0	0	0	0	0	0	0	0	0	0	0	0	0	0	0	0	0	0	0	0	0	0	0	0	0	0	0	0	0	0	0	0	0	0	0	0	0	0	0	0	2027	2027	2015	2003	2015	2027	2003	2003	2027	2027	0	0	0	0	2015	2015	2027	2039	2039	2063	2063	2039	2039	2027	2027	2015	2015	2015	2015	2027	2015	2015	1969	1969	1992	1992	0	0	0	0	0	0	0	0	0	0	0	0	2551	2570	2609	2669	2669	2669	2669	2649	2669	2669	2669	2669	2690	2690	2669	2669	2669	2669	2669	2669	2669	2649	2669	2669	2649	2649	2669	2649	2669	2669	2669	2669	2669	2649	2649	2649	2629	2609	2609	0	0	0	0	0	0	0	0	2733	2733	2733	2733	2733	0	0	0	0	0	0	0	0	0	0	0	0	0	0	0	0	0	0	0	0	0	0	0	0	0	0	0	0	0	3907	3907	3907	3952	3907	3907	3952	4093	4192	4192	4243	4296	4296	4350	4350	4406	4463	4463	4463	4463	4463	6592	6468	6468	6349	6349	6235	6235	6235	6235	6235	6349	6349	6349	6349	6468	6468	6468	6468	6468	6468	6468	6349	6349	6349	6349	6349	0	0	0	0	0	0	0	0	0	0	0	0	0	0	0	0	0	0	0	0	0	5364	5364	5282	5364	5364	5364	5282	5202	5125	5050	5050	3821	3864	3864	3864	3907	3907	3907	3907	3907	3907	3907	3907	3907	3864	3864	3864	3907	3907	3907	3907	3907	3907	3864	3864	3821	3821	3864	3907	3907	3907	3907	3907	3907	3907	3907	3907	3907	3907	3907	3907	3907	3907	3907	3907	3907	3907	3952	3952	3907	4906	4906	7959	7959	7959	7959	7959	7959	8146	8146	8146	8146	8146	8146	8343	8343	8343	7959	7959	7959	7959	7959	7959	7959	7959	7779	7779	7608	7287	6592	6468	6349	6349	6235	6235	6349	6349	6349	6349	6349	6349	6349	6349	6349	6349	6349	6349	6468	6468	6468	6468	6468	6468	6349	6349	6235	6235	7959	7959	7959	8146	7959	7959	7959	7959	8146	8146	8146	7959	7959	7959	7959	7959	8146	8146	8146	8146	8146	8146	7959	7959	7959	8146	8146	8146	8146	8146	8146	8146	8146	8146	8146	8146	8146	8146	8146	8146	8146	8146	8146	8146	7959	8146	8146	8146	8146	8146	8146	8146	8146	8146	8146	8146	4463	4463	4463	4463	4463	4463	4406	4406	4406	4406	4406	4406	4350	4350	4350	4350	4406	4406	4350	4406	4350	4406	4406	4406	4406	4350	4350	4296	4296	4192	4093	4045	4045	3998	3998	0	0	0	0	0	4406	4406	4350	4350	4350	4350	4350	4350	4350	4350	3186	3216	3216	3216	3216	3186	3186	3186	3186	3186	0	0	0	0	0	0	0	0	0	0	0	3309	3246	3246	3216	3216	3186	3186	3216	3216	3216	3246	3246	3246	3246	3246	3216	3216	3216	3216	3216	3246	3246	3216	3216	3216	3246	3246	3216	3216	3246	3246	3246	3216	3186	3186	3186	3186	3186	3186	0	0	0	0	2312	2297	2297	2297	2281	2281	2281	2266	2266	0	0	0	0	0	0	0	0	3246	3246	3216	3186	3186	3157	3157	3157	3157	3157	3157	3157	3157	0	0	0	0	0	0	0	0	0	0	0	0	0	0	0	0	0	0	0	0	0	0	0	0	0	0	0	0	0	0	0	0	0
0	0	0	0	0	0	0	0	0	0	0	0	1282	1287	1277	1277	1277	0	0	0	0	0	0	0	0	0	0	0	0	0	0	0	0	0	0	0	0	0	0	0	0	0	0	0	0	0	0	0	0	0	0	0	0	0	0	0	0	0	0	0	0	0	0	0	0	0	0	0	0	0	0	0	0	0	0	0	0	0	0	0	0	0	0	0	0	0	0	0	0	2015	2015	2027	2027	2027	2015	2027	2027	2027	2027	2015	2015	0	0	0	0	0	0	2027	2027	2039	2039	2039	2051	2039	2039	2039	2039	2027	2027	2015	2015	2015	2027	2015	2015	1980	1969	1969	0	0	0	0	0	0	0	0	0	0	0	0	0	0	0	0	2669	2649	2690	2649	2669	2669	2669	2669	2669	2669	2669	2669	2669	2669	2669	2669	2669	2669	2669	2669	2669	2669	2669	2669	2669	2669	2669	2669	2669	2669	2649	2649	2649	2629	2609	2609	0	0	0	0	0	0	0	0	0	0	0	0	0	0	0	0	0	0	0	0	0	0	0	0	0	0	0	0	0	0	0	0	0	0	0	0	0	0	0	0	0	0	3952	3907	3907	3952	3952	3952	3998	4045	4142	4142	4192	4296	4296	4296	4350	4350	4406	4463	4463	4463	6592	6592	6592	6592	6468	6349	6349	6349	6235	6235	6235	6235	6349	6349	6349	6468	6468	6468	6468	6349	6468	6468	6468	6349	6349	6349	6468	6468	0	0	0	0	0	0	0	0	0	0	0	0	0	0	0	0	0	0	0	0	5364	5282	5282	5282	5364	5364	5364	5202	5050	5050	5050	3821	3821	3864	3864	3907	3907	3907	3907	3907	3907	3907	3864	3864	3864	3864	3864	3907	3907	3907	3907	3907	3907	3864	3864	3821	3821	3821	3864	3907	3907	3907	3907	3907	3907	3907	3907	3907	3907	3907	3907	3907	3907	3907	3907	3907	3907	3907	3952	3907	4906	4906	4906	4906	7959	7959	7959	7959	7959	7959	7959	7959	8146	8146	8146	8146	8146	8146	7959	8146	7959	7959	7959	7959	7959	7779	7779	7608	7287	6853	6468	6349	6349	6349	6349	6349	6349	6349	6349	6349	6349	6349	6349	6349	6349	6349	6468	6468	6468	6468	6468	6468	6349	6349	6349	6235	6235	7959	7959	7959	8146	7959	7959	7959	7959	8146	7959	8146	8146	7959	7959	7959	7959	7959	8146	8146	8146	7959	7959	7959	7959	7959	7959	8146	8146	8146	8146	8146	8146	8146	8146	8146	8146	8146	8146	8146	8343	8146	8146	8146	8146	7959	8146	8146	7959	8146	8146	8146	8146	8146	8146	7959	7959	8146	8146	4463	4463	4463	4463	4406	4406	4406	4406	4406	4406	4406	4406	4406	4350	4406	4406	4350	4406	4350	4406	4406	4406	4406	4350	4296	4296	4243	4142	4093	4045	3998	3998	3998	3998	0	0	0	4350	4406	4406	4350	4350	4350	4350	4350	4350	4350	4350	3186	3216	3216	3216	3216	3186	3186	3186	3186	0	0	0	0	0	0	0	0	0	0	0	0	3309	3277	3246	3246	3216	3216	3186	3216	3186	3216	3216	3216	3216	3216	3216	3216	3216	3216	3216	3216	3246	3246	3216	3216	3246	3216	3246	3216	3216	3216	3246	3246	3216	3216	3186	3186	3186	3186	3186	0	0	0	2312	2312	2297	2297	2297	2297	2281	2297	2281	2281	2281	0	0	0	0	0	0	0	3246	3246	3216	3186	3186	3157	3157	3157	3157	3157	3157	3157	3157	0	0	0	0	0	0	0	0	0	0	0	0	0	0	0	0	0	0	0	0	0	0	0	0	0	0	0	0	0	0	0	0	0
0	0	0	0	0	0	0	0	0	0	0	0	1282	1282	1277	1277	1277	0	0	0	2039	2039	2027	2015	2015	2015	0	0	0	0	0	0	0	0	0	0	0	0	0	0	0	0	0	0	0	0	0	0	0	0	0	0	0	0	0	0	0	0	0	0	0	0	0	0	0	0	0	0	0	0	0	0	0	0	0	0	0	0	0	0	0	0	0	0	0	0	0	0	2015	2027	2015	2039	2039	2027	2015	2027	2039	2027	2027	2015	2015	0	0	0	0	0	0	2039	2039	2039	2039	2039	2051	2039	2039	2027	2027	2027	2015	2015	2015	2015	2015	1992	1958	1958	1958	1969	0	0	0	0	0	0	0	0	0	0	0	0	0	0	0	2777	2733	2733	2690	2690	2690	2669	2669	2669	2690	2690	2690	2669	2669	2669	2669	2669	2669	2669	2669	2669	2669	2669	2669	2669	2669	2669	2669	2669	2669	2669	2649	2649	2649	2629	2609	2589	2589	0	0	0	0	0	0	0	0	0	0	0	0	0	0	0	0	0	0	0	0	0	0	0	0	0	0	0	0	0	0	0	0	0	0	0	0	0	0	0	0	3907	3907	3952	3907	3998	3998	3998	3998	4045	4093	4093	4142	4243	4296	4296	4296	4350	4463	4463	4463	4463	4463	6592	6468	6468	6468	6349	6349	6349	6235	6235	6235	6235	6235	6349	6349	6349	6468	6349	6349	6349	6468	6468	6468	6349	6349	6349	6349	6349	0	0	0	0	0	0	0	0	0	0	0	0	0	0	0	0	0	0	0	0	0	5282	5282	5282	5364	5364	5364	5202	5050	4977	4906	4906	3864	3864	3864	3907	3907	3907	3907	3907	3907	3907	3864	3864	3864	3864	3864	3907	3907	3907	3907	3907	3907	3907	3864	3821	3779	3779	3864	3864	3907	3907	3907	3907	3907	3907	3907	3907	3907	3907	3907	3907	3907	3907	3907	3907	3907	3907	3907	4906	4906	4906	4977	4977	4977	7959	7959	7959	7959	7959	7959	7959	7959	8146	8146	7959	7959	8343	8146	8146	8146	7959	7959	7959	7959	7779	7779	7608	7444	6992	6468	6468	6349	6349	6349	6349	6468	6468	6349	6468	6468	6349	6349	6349	6349	6349	6349	6468	6468	6468	6468	6468	6468	6349	6349	6235	6349	6349	7959	7959	7959	8146	8146	8146	8146	8146	8146	8146	8146	8146	7959	7959	7959	7959	7959	7959	7959	7959	7959	7959	7959	7959	8146	8146	8146	8146	8146	8146	8146	8146	8146	8146	8146	8146	8343	8146	8343	8343	8146	8146	7959	7959	7959	7959	7959	7959	8146	8146	8146	8146	8146	8146	8146	8146	4463	4463	4406	4406	4406	4406	4406	4406	4350	4350	4406	4406	4350	4350	4350	4406	4406	4350	4406	4350	4406	4406	4406	4406	4350	4296	4296	4243	4142	4045	3998	3998	3998	3952	3952	0	0	0	4350	4406	4406	4406	4350	4350	4350	4350	4350	4350	4350	3216	3216	3216	3216	3186	3186	3157	3129	3129	0	0	0	0	0	0	0	0	0	0	0	0	0	3277	3246	3246	3216	3186	3186	3216	3186	3216	3216	3216	3216	3216	3216	3216	3216	3216	3216	3216	3216	3216	3216	3216	3216	3216	3216	3216	3216	3216	3246	3246	3216	3216	3186	3186	3186	3186	3186	0	0	0	2312	2312	2297	2297	2297	2297	2297	2281	2266	2281	2281	0	0	0	0	0	0	0	0	3216	3216	3186	3186	3157	3129	3157	3157	3157	3157	3157	3157	0	0	0	0	0	0	0	0	0	0	0	0	0	0	0	0	0	0	0	0	0	0	0	0	0	0	0	0	0	0	0	0	0
0	0	0	0	0	0	0	0	0	0	0	0	1277	1282	1272	1272	1277	0	0	2027	2027	2027	2027	2015	2015	2015	2015	0	0	0	0	0	0	0	0	0	0	0	0	0	0	0	0	0	0	0	0	0	0	0	0	0	0	0	0	0	0	0	0	0	0	0	0	0	0	0	0	0	0	0	0	0	0	0	0	0	0	0	0	0	0	0	0	0	0	0	0	2027	2015	2015	2027	2039	2039	2039	2027	2027	2039	2027	2027	2027	2027	0	0	0	0	0	0	2027	2027	2027	2027	2039	2027	2015	2027	2015	2027	2027	2015	2015	2015	2003	2015	1980	1980	1980	1980	1980	0	0	0	0	0	0	0	0	0	0	0	0	0	0	0	2777	2733	2733	2690	2690	2690	2669	2690	2690	2690	2711	2690	2690	2669	2669	2669	2669	2669	2669	2649	2669	2649	2649	2669	2669	2669	2669	2669	2669	2669	2669	2649	2649	2629	2609	2609	2609	2589	0	0	0	0	0	0	0	0	0	0	0	0	0	0	0	0	0	0	0	0	0	0	0	0	0	0	0	0	0	0	0	0	0	0	0	0	0	0	3864	3864	3907	3907	3907	3907	3952	3998	3998	3998	4045	4093	4093	4142	4243	4296	4296	4296	4350	4350	4463	4463	4463	4463	6468	6468	6468	6349	6349	6349	6349	6349	6349	6235	6349	6349	6349	6349	6349	6349	6349	6349	6349	6349	6468	6349	6349	6349	6349	6349	6349	6349	0	0	0	0	0	0	0	0	0	0	0	0	0	0	0	0	0	0	0	0	0	0	0	0	0	0	0	0	4977	4977	4977	5050	3864	3864	3907	3907	3907	3907	3907	3907	3907	3864	3864	3864	3864	3864	3907	3907	3907	3907	3907	3907	3907	3864	3864	3821	3821	3864	3864	3907	3907	3907	3907	3907	3907	3907	3907	3907	3907	3907	3907	3907	3907	3907	3907	3907	3907	3907	4977	4977	4977	4977	5050	5050	7959	7959	7959	7959	7959	7959	7959	7959	8146	7959	8343	8343	8343	8146	8146	8146	7959	7959	7959	7959	7779	7608	7444	7137	6720	6468	6349	6349	6349	6349	6349	6468	6468	6349	6468	6468	6349	6349	6349	6349	6349	6349	6349	6468	6468	6349	6468	6468	6349	6349	6235	6235	6235	7959	7959	8146	7959	7959	8146	8146	8146	8146	8146	8146	8146	7959	7959	7959	7959	7959	7959	7959	7959	7959	7959	7959	7959	7959	8146	7959	8146	8146	8146	8146	8146	8146	8146	8146	8146	8146	8146	8343	8343	8146	8146	8146	7959	8146	8146	8146	8146	8146	8146	8146	8146	8146	8146	8146	8146	4463	4463	4406	4406	4406	4406	4406	4406	4350	4350	4406	4350	4350	4350	4350	4406	4406	4406	4406	4350	4350	4350	4406	4406	4350	4296	4243	4192	4142	3998	3998	3952	3952	3952	3952	0	0	0	4406	4406	4406	4406	4350	4350	4350	4350	4350	4350	4350	3216	3216	3216	3216	3186	3186	3157	3157	3157	0	0	0	0	0	0	0	0	0	0	0	0	0	3246	3129	3216	3157	3157	3186	3186	3186	3186	3216	3246	3246	3246	3246	3246	3246	3246	3216	3216	3216	3216	3216	3216	3216	3216	3216	3186	3216	3216	3216	3216	3216	3216	3216	3216	3216	3216	3216	0	0	0	0	2312	2312	2297	2297	2281	2297	2297	2266	2281	2266	2252	2252	0	0	0	0	0	0	3216	3216	3216	3186	3157	3157	3157	3157	3157	3157	3157	3157	0	0	0	0	0	0	0	0	0	0	0	0	0	0	0	0	0	0	0	0	0	0	0	0	0	0	0	0	0	0	0	0	0
0	0	0	0	0	0	0	0	0	0	0	0	1277	1282	1272	1272	0	0	0	2027	2027	2027	2027	2027	2015	2015	2015	2015	2015	0	0	0	0	0	0	0	0	0	0	0	0	0	0	0	0	0	0	0	0	0	0	0	0	0	0	0	0	0	0	0	0	0	0	0	0	0	0	0	0	0	0	0	0	0	0	0	0	0	0	0	0	0	0	0	0	0	0	2027	2003	2015	2015	2039	2039	2039	2027	2027	2027	2027	2027	2015	2003	2003	0	0	0	0	0	2027	2027	2027	2027	2027	2003	2015	2003	2015	2027	2027	2015	2015	2015	2015	2027	2003	2003	2027	2027	1980	0	0	0	0	0	0	0	0	0	0	0	0	0	0	0	2822	2777	2754	2733	2711	2733	2733	2711	2711	2711	2690	2690	2690	2669	2669	2669	2669	2669	2669	2649	2669	2649	2649	2669	2669	2649	2669	2669	2669	2669	2649	2649	2629	2669	2609	2609	2609	0	0	0	0	0	0	3373	3373	3373	3373	3341	3341	0	0	0	0	0	0	0	0	0	0	0	0	0	0	0	0	0	0	0	0	0	0	0	0	0	3821	3821	3864	3864	3907	3907	3952	3952	3998	3998	3998	3998	4045	4093	4093	4142	4243	4243	4243	4296	4296	4296	4406	4406	4406	4406	6592	6468	6468	6349	6349	6349	6349	6349	6349	6349	6349	6349	6349	6349	6349	6349	6349	6349	6349	6349	6468	6349	6349	6468	6349	6235	6235	6235	0	0	0	0	0	0	0	0	0	0	0	0	0	0	0	0	0	0	0	0	0	0	0	0	0	0	0	0	4977	4977	4977	4977	3864	3907	3907	3907	3907	3907	3907	3907	3907	3907	3907	3907	3864	3864	3907	3907	3907	3907	3907	3907	3907	3907	3907	3907	3907	3864	3864	3907	3907	3907	3907	3907	3907	3907	3907	3907	3907	3907	3907	3907	3907	3907	3907	3907	3907	5125	4977	4977	4977	4977	5050	5050	7959	7959	7959	7959	7959	7959	7959	7959	8146	7959	8343	8343	8343	8146	8146	8146	7959	7959	7959	7959	7779	7608	7287	6853	6592	6468	6349	6349	6235	6349	6349	6349	6468	6349	6468	6468	6468	6468	6468	6349	6349	6349	6349	6468	6468	6349	6349	6349	6349	6235	6235	6235	7959	7959	7959	7959	7959	7959	7959	7959	7959	7959	8146	8146	8146	7959	7959	7959	7959	7959	7959	7959	7959	7959	7959	7959	7959	8146	7959	8146	8146	8146	8146	8146	8146	8146	8146	8146	8146	8146	8146	8146	8343	8146	8146	8146	8146	8146	8146	7959	7959	8146	8146	8146	8146	8146	8146	8146	8146	4406	4406	4406	4406	4406	4406	4406	4350	4350	4350	4406	4350	4350	4350	4350	4350	4406	4350	4350	4350	4350	4350	4406	4406	4350	4296	4296	4192	4093	3998	3998	3952	3952	3952	3952	0	0	0	4350	4350	4350	4406	4350	4406	4350	4350	4350	4350	4350	3216	3216	3216	3216	3186	3186	3186	3186	3157	0	0	0	0	0	0	0	0	0	0	0	0	0	3246	3246	3216	3216	3186	3157	3186	3186	3186	3216	3246	3246	3246	3246	3216	3216	3216	3216	3216	3216	3216	3186	3186	3186	3186	3216	3216	3216	3216	3216	3216	3216	3216	3216	3216	3216	3216	3216	0	0	0	0	0	2312	2297	2297	2297	2297	2297	2297	2281	2281	2266	2266	0	0	0	0	0	0	3216	3216	3216	3186	3157	3157	3157	3157	3157	3157	3157	3157	0	0	0	0	0	0	0	0	0	0	0	0	0	0	0	0	0	0	0	0	0	0	0	0	0	0	0	0	0	0	0	0	0
0	0	0	0	0	0	0	0	0	0	0	0	1277	1277	1277	1277	0	0	2015	2015	2015	2027	2027	2027	2015	2015	2015	2015	2015	2015	0	0	0	0	0	0	0	0	0	0	0	0	0	0	0	0	0	0	0	0	0	0	0	0	0	0	0	0	0	0	0	0	0	0	0	0	0	0	0	0	0	0	0	0	0	0	0	0	0	0	0	0	0	0	0	0	0	2027	2015	2015	2015	2027	2039	2039	2027	2027	2039	2027	2015	2003	1992	1992	0	0	0	0	2027	2027	2027	2039	2027	2027	2027	2015	2003	2003	2027	2027	2027	2027	2027	2015	2027	2015	2003	2003	2015	2015	2015	0	0	0	0	0	0	0	0	0	0	0	0	0	0	2799	2777	2754	2733	2711	2711	2711	2711	2690	2711	2711	2690	2690	2669	2669	2669	2669	2669	2669	2649	2649	2649	2649	2669	2669	2649	2669	2669	2669	2669	2669	2649	2649	2669	2669	2669	2711	2711	0	0	0	0	0	3373	3373	3341	3341	3341	3341	3341	0	0	0	0	0	0	0	0	0	0	0	0	0	0	0	0	0	0	0	0	0	0	0	0	3821	3821	3864	3864	3907	3907	3952	3952	3998	3998	3998	3998	4045	4093	4142	4192	4192	4243	4296	4296	4296	4296	4296	4296	4296	4406	6468	6468	6349	6349	6349	6349	6349	6349	6349	6349	6349	6349	6349	6349	6349	6468	6349	6349	6349	6349	6349	6349	6349	6349	6349	6349	6349	6349	0	0	0	0	0	0	0	0	0	0	0	0	0	0	0	0	0	0	0	0	0	0	0	0	0	0	0	4906	4977	4977	4977	5050	5050	3864	3907	3907	3907	3907	3907	3907	3864	3864	3864	3864	3864	3864	3907	3907	3907	3907	3907	3952	3907	3907	3907	3907	3907	3864	3864	3907	3907	3907	3907	3907	3907	3907	3907	3907	3864	3864	3907	3907	3907	3907	3907	3907	5125	5125	5050	5050	5050	5050	5050	7959	7959	7959	7959	7959	7959	7959	7959	7959	7959	7959	7959	8146	8146	8146	8146	8146	7959	7959	7959	7779	7608	7444	7137	6853	6592	6349	6349	6349	6235	6349	6349	6349	6468	6349	6349	6468	6349	6349	6349	6349	6349	6349	6468	6468	6468	6349	6349	6349	6349	6235	6235	8146	7959	7959	7959	7959	7959	7959	7959	7959	7959	7959	7959	8146	7959	7959	7959	7959	7959	7959	7959	7959	7959	7959	7959	7959	7959	8146	8146	8146	8146	8146	8146	8146	8146	8146	8146	8146	8146	8146	8146	8343	8343	8146	8146	8146	8146	8146	8146	8146	8146	8146	8146	8146	8146	8146	8146	8146	8146	4406	4406	4350	4406	4406	4406	4350	4350	4350	4350	4350	4350	4350	4350	4350	4350	4350	4406	4406	4406	4350	4350	4406	4406	4406	4350	4296	4296	4296	3998	3952	3952	3952	3907	3907	0	0	0	4350	4350	4350	4406	4350	4406	4406	4406	4406	4406	3216	3216	3216	3216	3216	3216	3216	3157	3157	0	0	0	0	0	0	0	0	0	0	0	0	0	0	3246	3216	3216	3216	3186	3186	3186	3186	3186	3216	3246	3246	3246	3246	3216	3246	3216	3216	3216	3216	3216	3186	3186	3216	3186	3216	3216	3216	3216	3216	3216	3216	3216	3216	3216	3216	3216	3216	0	0	0	0	0	0	2297	2297	2312	2312	2297	2297	2297	2297	2281	2281	0	0	0	0	0	0	3216	3216	3186	3186	3186	3157	3157	3157	3157	3157	3157	3157	0	0	0	0	0	0	0	0	0	0	0	0	0	0	0	0	0	0	0	0	0	0	0	0	0	0	0	0	0	0	0	0	0
0	0	0	0	0	0	0	0	0	0	0	0	1277	1277	1277	1277	0	0	2015	2027	2027	2027	2027	2027	2015	2015	2015	2015	2015	2015	0	0	0	0	0	0	0	0	0	0	0	0	0	0	0	0	0	0	0	0	0	0	0	0	0	0	0	0	0	0	0	0	0	0	0	0	0	0	0	0	0	0	0	0	0	0	0	0	0	0	0	0	0	0	0	0	0	2015	2003	2039	2039	2039	2027	2027	2015	2039	2039	2027	2027	2003	1992	1992	0	0	0	2027	2027	2039	2027	2027	2027	2015	2003	2015	2003	2003	2027	2027	2027	2027	2027	2015	2015	2015	2015	2027	2027	2039	2039	0	0	0	0	0	0	0	0	0	0	0	0	0	0	2777	2754	2754	2754	2733	2711	2711	2711	2690	2711	2711	2711	2690	2669	2669	2669	2669	2669	2669	2649	2649	2649	2669	2669	2669	2669	2669	2669	2669	2669	2669	2649	2649	2669	2669	2690	2690	2690	0	0	0	0	3341	3373	3341	3373	3341	3341	3373	3341	3341	0	0	0	0	0	0	0	0	0	0	0	0	0	0	0	0	0	0	0	0	0	0	3821	3821	3821	3864	3864	3907	3907	3952	3952	3952	3998	3998	3998	4045	4093	4142	4192	4243	4243	4296	4243	4243	4296	4296	4296	4296	4296	6468	6468	6349	6349	6349	6349	6349	6349	6349	6349	6349	6349	6349	6349	6349	6468	6468	6349	6349	6468	6349	6349	6349	6349	6349	6349	6349	6349	0	0	0	0	0	0	0	0	0	0	0	0	0	0	0	0	0	0	0	0	0	0	0	0	0	0	4906	4977	4977	4977	4977	5050	5050	3864	3907	3907	3907	3907	3907	3907	3864	3864	3864	3864	3864	3864	3907	3907	3907	3907	3907	3952	3907	3907	3907	3907	3864	3864	3864	3907	3907	3907	3907	3907	3907	3907	3907	3907	3864	3864	3907	3907	3907	3907	3907	3907	5125	5125	5050	5050	5050	5050	5050	7959	7959	7959	7959	7959	7959	7959	7959	7959	7959	7959	8146	8343	8146	8146	8146	8146	7959	7959	7959	7779	7608	7444	7137	6720	6592	6468	6349	6349	6235	6349	6349	6468	6468	6349	6468	6468	6349	6468	6468	6349	6349	6349	6349	6468	6349	6349	6349	6349	6349	6235	6235	8146	7959	7959	7959	7959	7959	7959	7959	7959	7959	7959	7959	8146	7959	7959	7959	7959	8146	7959	7959	7959	7959	7959	7959	7959	7959	8146	8146	8146	8146	8146	8146	8146	8146	8146	8146	8146	8146	8146	8146	8146	8146	8146	8146	8146	8146	8146	8146	8146	8146	8146	8146	8146	8146	8146	8146	8146	8146	4406	4406	4406	4406	4406	4406	4350	4350	4350	4350	4350	4350	4350	4350	4350	4350	4350	4350	4406	4406	4406	4406	4406	4406	4406	4296	4296	4296	4296	3998	3998	3998	3952	3907	3907	0	0	0	4350	4350	4350	4350	4406	4406	4406	4406	4406	3216	3216	3216	3216	3186	3186	3216	3186	3157	3157	0	0	0	0	0	0	0	0	0	0	0	0	0	0	3246	3216	3216	3186	3186	3186	3186	3186	3186	3216	3246	3246	3246	3216	3216	3246	3216	3216	3216	3216	3216	3216	3216	3216	3216	3216	3216	3216	3216	3216	3216	3216	3216	3216	3246	3216	3216	3216	0	0	0	0	0	0	0	2312	2312	2312	2297	2312	2297	2297	2281	2281	0	0	0	0	0	3157	3186	3186	3186	3157	3157	3157	3157	3157	3157	3157	3157	3157	0	0	0	0	0	0	0	0	0	0	0	0	0	0	0	0	0	0	0	0	0	0	0	0	0	0	0	0	0	0	0	0	0
0	0	0	0	0	0	0	0	0	0	0	0	1277	1277	1277	1291	1291	0	0	2015	2027	2027	2027	2027	2015	2015	2015	2015	2015	0	0	0	0	0	0	0	0	0	0	0	0	0	0	0	0	0	0	0	0	0	0	0	0	0	0	0	0	0	0	0	0	0	0	0	0	0	0	0	0	0	0	0	0	0	0	0	0	0	0	0	0	0	0	0	0	0	0	2015	2003	2027	2027	2027	2027	2015	2015	2027	2039	2027	2027	2027	1992	2039	2027	2027	0	2027	2039	2027	2027	2027	2027	2015	2015	2015	2015	2015	2015	2027	2027	2027	2015	2015	2015	2015	2015	2027	2027	2039	2039	2039	0	0	0	0	0	0	0	0	0	0	0	0	2733	2733	2733	2733	2733	2711	2711	2733	2711	2690	2711	2711	2711	2690	2690	2669	2690	2669	2669	2669	2649	2649	2649	2669	2669	2669	2669	2669	2669	2669	2669	2669	2669	2669	2669	2669	2669	2669	2690	0	0	0	3373	3373	3373	3373	3373	3373	3373	3373	3373	3373	3341	3341	0	0	0	0	0	0	0	0	0	0	0	0	0	0	0	0	0	0	0	3698	3779	3821	3821	3864	3864	3907	3907	3907	3907	3998	3998	3998	3998	4045	4093	4142	4192	4192	4243	4243	4243	4243	4296	4296	4296	4296	4296	6468	6468	6349	6349	6349	6349	6349	6349	6349	6349	6349	6349	6349	6349	6349	6349	6349	6349	6349	6349	6349	6349	6349	6349	6349	6349	6349	6349	0	0	0	0	0	0	0	0	0	0	0	0	0	0	0	0	0	0	0	0	0	0	0	0	0	0	4977	4977	4977	4977	4977	4977	5050	3864	3907	3907	3907	3907	3907	3907	3864	3864	3864	3907	3864	3864	3907	3907	3907	3907	3907	3907	3907	3907	3907	3907	3864	3864	3864	3907	3907	3907	3907	3907	3907	3907	3907	3907	3864	3907	3907	3907	3907	3907	3907	3907	5125	5125	5050	5050	5050	5050	5050	7959	7959	7959	7959	7959	7959	7959	7959	7959	7959	7959	8146	8146	8146	8146	8146	8146	7959	7959	7779	7779	7608	7444	7137	6720	6592	6468	6349	6349	6235	6235	6349	6349	6468	6349	6468	6468	6468	6468	6468	6468	6468	6349	6349	6349	6349	6349	6349	6349	6349	6235	6235	7959	7959	7959	7959	7959	7959	7959	7959	7959	7959	7959	7959	7959	7959	7959	7959	7959	8146	7959	7959	7959	7959	7959	7959	7959	7959	8146	8146	8146	8146	8146	8146	8146	8146	8146	8146	8146	8146	8146	8146	8146	8146	8146	8146	8146	8146	8146	8146	8146	8146	8146	8146	8146	8146	8146	8146	8146	8146	4406	4406	4406	4406	4406	4406	4350	4350	4350	4350	4350	4350	4350	4350	4350	4350	4406	4406	4406	4406	4406	4406	4406	4406	4406	4350	4350	4350	0	0	3998	3998	3952	3907	3907	0	0	0	4350	4350	4350	4406	4406	4406	4406	4406	4406	3216	3216	3216	3216	3186	3216	3186	3186	3157	3157	0	0	0	0	0	0	0	0	0	0	0	0	0	0	3216	3216	3216	3186	3216	3186	3186	3157	3157	3186	3216	3216	3216	3216	3216	3246	3216	3216	3216	3216	3216	3186	3216	3216	3216	3216	3186	3216	3186	3186	3186	3216	3216	3216	3216	3216	3216	0	0	0	0	0	0	0	2312	2312	2297	2297	2297	2312	2297	2297	2297	2297	0	0	0	0	0	3157	3186	3186	3186	3157	3157	3157	3157	3157	3157	3157	3157	3157	0	0	0	0	0	0	0	0	0	0	0	0	0	0	0	0	0	0	0	0	0	0	0	0	0	0	0	0	0	0	0	0	0
0	0	0	0	0	0	0	0	0	0	0	0	1282	1282	1282	1282	1291	0	0	2015	2015	2015	2015	2015	2015	2015	2003	2003	2003	0	0	0	0	0	0	0	0	0	0	0	0	0	0	0	0	0	0	0	0	0	0	0	0	0	0	0	0	0	0	0	0	0	0	0	0	0	0	0	0	0	0	0	0	0	0	0	0	0	0	0	0	0	0	0	0	2015	2015	2015	2003	2027	2027	2027	2027	2027	2027	2027	2027	2027	2027	2027	2027	2039	2027	2027	2039	2039	2039	2027	2027	2027	2027	2015	2015	2015	2015	2015	2027	2027	2027	2027	2015	2015	2015	2015	2015	2027	2039	2051	2051	2039	0	0	0	0	0	0	0	0	0	0	2690	2669	2733	2733	2711	2733	2733	2711	2733	2733	2733	2690	2690	2690	2690	2690	2690	2669	2690	2669	2669	2669	2669	2649	2649	2649	2669	2669	2669	2669	2669	2669	2669	2669	2669	2649	2669	2669	2669	2669	3373	3341	3373	3341	3373	3373	3373	3373	3373	3373	3373	3373	3373	3373	3373	3406	3406	3406	3373	3373	3406	3406	3373	3406	3406	3406	3440	3440	3475	3510	3583	3583	3583	3621	3659	3698	3698	3821	3821	3864	3907	3907	3907	3907	3952	3998	3998	4045	3998	4045	4093	4142	4192	4243	4243	4243	4243	4296	4296	4296	4296	4296	4296	6468	6349	6349	6349	6349	6349	6468	6349	6349	6468	6349	6349	6349	6349	6349	6349	6349	6349	6349	6349	6349	6349	6349	6235	6349	6235	6235	6235	6235	0	0	0	0	0	0	0	0	0	0	0	0	0	0	0	0	0	0	0	0	0	0	0	0	0	4977	5050	4977	4977	4977	4977	5050	3864	3907	3907	3907	3907	3864	3864	3864	3864	3864	3864	3864	3864	3907	3907	3907	3907	3907	3907	3907	3907	3907	3907	3952	3907	3907	3907	3907	3907	3907	3907	3907	3907	3907	3907	3864	3907	3907	3907	3907	3907	3907	3864	3864	5125	5050	5050	5050	5050	5050	7959	7959	7959	7959	7959	7959	7959	7959	7959	7959	7959	8146	8146	8146	8343	8146	8146	8146	7959	7959	7779	7779	7608	7287	6468	6468	6349	6349	6349	6235	6349	6349	6349	6468	6349	6468	6468	6468	6349	6349	6349	6349	6349	6349	6349	6349	6349	6349	6349	6349	6349	6349	7959	7959	7959	7959	7959	7959	7959	7959	7959	7959	7959	7959	8146	8146	7959	7959	7959	7959	7959	7959	7959	7959	7959	7959	7959	7959	8146	8146	8146	8146	8146	8146	8146	8146	8146	8146	8146	8146	8146	8146	8146	8146	8146	8146	8146	8146	8146	8146	8146	8146	8146	8146	8146	8146	8146	8146	8146	4463	4406	4406	4406	4406	4406	4406	4406	4406	4406	4350	4406	4350	4350	4350	4350	4350	4406	4350	4406	4406	4350	4350	4406	4406	4406	4350	4296	4296	0	0	0	3998	3952	3907	3907	0	0	0	4350	4350	4350	4406	4406	4406	4406	4406	4406	4350	3216	3216	3186	3186	3186	3186	3186	3186	3186	3186	0	0	0	0	0	0	0	0	0	0	0	0	0	3216	3186	3186	3186	3186	3186	3157	3157	3157	3186	3216	3216	3216	3216	3216	3216	3246	3216	3216	3216	3216	3186	3186	3186	3186	3216	3216	3216	3186	3186	3186	3186	3186	3157	3216	3216	3216	0	0	0	0	0	0	0	2312	2312	2297	2297	2297	2297	2297	2297	2297	2297	0	0	0	0	0	3157	3157	3186	3186	3186	3157	3157	3157	3157	3157	3157	3157	3157	0	0	0	0	0	0	0	0	0	0	0	0	0	0	0	0	0	0	0	0	0	0	0	0	0	0	0	0	0	0	0	0	0
0	0	0	0	0	0	0	0	0	0	0	0	1277	1282	1282	1282	0	0	0	2015	2015	2015	2015	2015	2015	2003	1992	1992	2003	0	0	0	0	0	0	0	0	1611	1603	1603	1603	0	0	0	0	0	0	0	0	0	0	0	0	0	0	0	0	0	0	0	0	0	0	0	0	0	0	0	0	0	0	0	0	0	0	0	0	0	0	0	0	0	0	0	0	2015	2003	2003	1992	1992	2015	2015	2027	2027	2027	2027	2027	2027	2027	2027	2039	2039	2039	2039	2027	2027	2027	2039	2027	2027	2027	2015	2015	2015	2015	2027	2027	2027	2027	2015	2015	2015	2015	2027	2015	2027	2027	2039	2039	2039	0	0	0	0	0	0	0	0	0	2669	2669	2669	2711	2733	2711	2711	2711	2711	2711	2733	2711	2690	2690	2690	2690	2690	2690	2669	2669	2669	2649	2649	2649	2649	2649	2669	2669	2669	2669	2669	2669	2669	2669	2669	2669	2649	2669	2649	2649	2649	3373	3373	3373	3341	3373	3373	3373	3373	3373	3373	3373	3373	3373	3373	3373	3373	3373	3373	3373	3373	3406	3373	3373	3406	3406	3406	3406	3440	3475	3510	3546	3546	3583	3583	3659	3698	3779	3821	3821	3864	3864	3907	3907	3907	3907	3952	3952	3998	3998	4045	4142	4192	4192	4243	4243	4243	4243	4296	4296	4350	4350	4350	6349	6349	6349	6349	6349	6349	6349	6468	6349	6349	6468	6468	6349	6349	6349	6349	6349	6349	6349	6349	6349	6349	6349	6349	6349	6349	6349	6349	6349	6235	0	0	0	0	0	0	0	0	0	0	0	0	0	0	0	0	0	0	0	0	0	0	0	0	0	4977	5050	4977	4977	4977	4977	4977	3864	3907	3907	3864	3864	3864	3864	3864	3864	3864	3864	3864	3864	3864	3907	3907	3907	3907	3907	3907	3907	3907	3907	3952	3952	3907	3952	3952	3907	3907	3907	3907	3907	3907	3907	3864	3907	3907	3907	3907	3907	3864	3864	3864	5125	5050	4977	4977	4977	4977	7959	7959	7959	7959	7959	7959	7959	7959	7959	7959	7959	7959	8146	8146	8146	8146	8146	8146	8146	7959	7959	7779	7608	7779	6592	6468	6349	6349	6235	6235	6349	6235	6349	6349	6349	6349	6468	6468	6349	6349	6349	6349	6349	6349	6349	6349	6349	6349	6349	6349	6349	6468	6468	7779	7959	7959	7959	7959	7959	7959	7959	7959	7959	7959	7959	8146	7959	7959	7959	7959	7959	7959	7959	7959	7959	8146	7959	7959	7959	8146	8146	8146	8146	8146	8146	8146	8146	8146	8146	8146	8146	8146	8146	8146	8146	8146	8146	8146	8146	8146	8146	8146	8146	8146	8146	7959	8146	8146	8146	4463	4463	4406	4406	4406	4406	4406	4406	4406	4350	4350	4350	4350	4350	4350	4350	4350	4350	4350	4406	4406	4350	4350	4406	4350	4350	4350	4350	4350	0	0	0	0	0	0	0	0	0	0	4406	4350	4350	4350	4406	4350	4350	4350	4406	4406	3246	3216	3216	3216	3216	3186	3216	3216	3157	3157	0	0	0	0	0	0	0	0	0	0	0	0	0	3216	3216	3216	3216	3216	3186	3157	3157	3157	3186	3216	3216	3216	3216	3216	3216	3246	3216	3216	3216	3216	3216	3216	3216	3186	3216	3216	3216	3186	3186	3186	3186	3186	3157	3216	3216	0	0	0	0	0	0	0	0	2312	2297	2281	2281	2281	2297	2281	2297	2297	0	0	0	0	0	3129	3157	3157	3157	3157	3157	3157	3157	3157	3186	3186	3157	3157	3157	0	0	0	0	0	0	0	0	0	0	0	0	0	0	0	0	0	0	0	0	0	0	0	0	0	0	0	0	0	0	0	0	0
0	0	0	0	0	0	0	0	0	0	0	0	1277	1282	1282	1282	0	0	2027	2015	2015	2015	2015	2015	2015	2003	1992	1992	0	0	0	0	0	0	0	0	0	1603	1603	1603	1603	0	0	0	0	0	0	0	0	0	0	0	0	0	0	0	0	0	0	0	0	0	0	0	0	0	0	0	0	0	0	0	0	0	0	0	0	0	0	0	0	0	0	0	2003	2003	2015	2003	2015	2015	2027	2027	2027	2027	2027	2027	2027	2027	2027	2027	2039	2039	2039	2039	2027	2027	2039	2027	2027	2027	2027	2015	2015	2027	2027	2027	2027	2027	2027	2027	2015	2015	2015	2015	2015	2027	2015	2015	2039	2039	0	0	0	0	0	0	0	0	0	2690	2690	2690	2690	2733	2669	2733	2690	2690	2690	2711	2690	2669	2669	2690	2669	2669	2669	2669	2669	2669	2649	2649	2649	2649	2649	2669	2669	2669	2669	2669	2669	2669	2669	2669	2669	2649	2649	2669	2669	2669	3373	3373	3373	3373	3373	3373	3373	3373	3373	3373	3373	3406	3373	3373	3373	3373	3373	3373	3373	3373	3373	3373	3373	3406	3406	3406	3406	3440	3440	3510	3583	3583	3583	3621	3621	3698	3779	3821	3864	3864	3907	3907	3907	3907	3907	3952	3952	3952	3998	4045	4093	4142	4192	4192	4243	4243	4243	4296	4296	4350	4350	4350	4350	6468	6349	6349	6349	6235	6349	6468	6468	6468	6468	6468	6468	6349	6349	6349	6349	6349	6235	6235	6235	6235	6468	6468	6349	6349	6235	6235	6349	0	0	0	0	0	0	0	0	0	0	0	0	0	0	0	0	0	0	0	0	0	0	0	0	0	0	4977	5050	4977	4977	4977	4977	4977	4977	3907	3864	3864	3907	3864	3864	3864	3864	3864	3864	3864	3864	3907	3907	3907	3907	3907	3864	3907	3907	3864	3907	3952	3952	3952	3952	3952	3907	3907	3907	3907	3907	3907	3907	3864	3864	3864	3907	3907	3864	3864	3864	3864	5050	5050	4977	4977	4977	4977	7959	7959	8146	8146	8146	8146	8146	8146	8146	7959	8146	8146	8146	8146	8146	8343	8146	8146	8146	7959	7959	7779	7779	7608	6592	6468	6349	6349	6349	6235	6349	6349	6349	6349	6349	6349	6468	6468	6349	6349	6349	6349	6349	6349	6349	6349	6349	6349	6349	6349	6349	6592	6592	7779	7959	7959	7959	7959	7959	7959	7959	7959	7959	7959	7959	7959	7959	7959	7959	7959	7959	7959	7959	7959	7959	8146	7959	7959	8146	8146	8343	8146	8146	8146	8146	8146	8146	8146	8146	8146	8146	8146	8146	8146	8146	8146	8146	8146	8146	8146	8146	8146	8146	8146	8146	7959	7959	7959	7959	7959	4406	4406	4406	4406	4406	4406	4406	4406	4406	4406	4406	4350	4350	4350	4350	4350	4350	4350	4406	4350	4350	4350	4350	4350	4350	4350	4350	4350	0	0	0	0	0	0	0	0	0	0	4406	4350	4350	4350	4406	4406	4350	4350	4406	4406	3246	3216	3186	3186	3186	3186	3186	3186	3157	3186	3186	0	0	0	0	0	0	0	0	0	0	0	0	3216	3216	3216	3216	3216	3186	3186	3157	3157	3186	3186	3186	3216	3216	3216	3186	3216	3216	3186	3216	3216	3186	3216	3216	3216	3216	3216	3216	3186	3186	3186	3186	3186	3186	3186	3186	0	0	0	0	0	0	0	0	0	2297	2281	2281	2281	2281	2266	2281	2281	0	0	0	0	0	3157	3157	3157	3157	3157	3157	3157	3157	3186	3186	3186	3157	3157	3157	0	0	0	0	0	0	0	0	0	0	0	0	0	0	0	0	0	0	0	0	0	0	0	0	0	0	0	0	0	0	0	0	0
0	0	0	0	0	0	0	0	0	0	0	0	1277	1277	1282	0	0	2015	2015	2015	2015	2015	2003	2003	2003	1992	1980	1992	1992	0	0	0	0	0	0	0	0	1603	1603	1603	1603	1603	0	0	0	0	0	0	0	0	0	0	0	0	0	0	0	0	0	0	0	0	0	0	0	0	0	0	0	0	0	0	0	0	0	0	0	0	0	0	0	0	0	2003	2003	2003	2015	2003	2015	2015	2027	2027	2015	2015	2027	2027	2027	2027	2027	2027	2027	2027	2039	2027	2027	2027	2027	2027	2003	2027	2027	2027	2027	2027	2027	2027	2027	2027	2027	2015	2015	2003	2003	2003	1992	1992	1992	1992	0	0	0	0	0	0	0	0	0	0	0	2690	2690	2649	2649	2649	2669	2711	2711	2711	2690	2690	2690	2669	2669	2669	2669	2669	2669	2669	2669	2669	2649	2649	2649	2649	2649	2649	2649	2669	2669	2669	2669	2669	2669	2669	2669	2649	2649	2649	2649	2649	3406	3373	3373	3373	3373	3373	3373	3373	3373	3373	3373	3373	3373	3373	3373	3373	3373	3373	3373	3373	3406	3406	3373	3373	3406	3406	3440	3440	3440	3510	3583	3583	3621	3621	3659	3698	3779	3821	3864	3864	3907	3907	3907	3864	3907	3907	3907	3952	3998	4045	4093	4192	4192	4192	4243	4243	4243	4296	4296	4350	4350	4406	4406	6468	6349	6349	6349	6349	6468	6468	6468	6468	6468	6468	6468	6349	6235	6235	6235	6235	6349	6349	6349	6235	6468	6349	6349	6349	6349	6349	0	0	0	0	0	0	0	0	0	0	0	0	0	0	0	0	0	0	0	0	0	0	0	0	0	0	0	0	5050	4977	4977	4977	4906	4977	4977	4977	3907	3864	3864	3864	3864	3864	3821	3864	3864	3864	3864	3907	3907	3864	3864	3864	3864	3864	3907	3864	3864	3864	3907	3952	3907	3907	3907	3907	3907	3907	3907	3907	3864	3864	3864	3864	3907	3864	3864	3864	3864	3864	5125	5050	4977	4906	4906	4906	4906	8146	8146	8146	8146	8146	8146	8146	8146	8146	8146	8146	8146	8343	8343	8343	8343	8146	8146	7959	7959	7779	7779	7608	7608	6592	6468	6349	6349	6349	6349	6349	6349	6349	6349	6349	6349	6349	6349	6349	6349	6349	6349	6349	6349	6349	6349	6349	6349	6349	6349	6592	6592	7959	7959	7959	7959	7959	7959	7959	7959	7959	7959	7959	7959	7959	7959	7959	7959	7959	7959	7959	7959	7959	7959	7959	7959	7959	8343	8146	8343	8343	8343	8146	8146	8146	8146	8146	8146	8146	8146	8146	8146	8146	8146	8146	8146	8146	8146	8146	8146	8146	7959	7959	7959	7779	7779	7959	7959	7959	4406	4350	4406	4406	4406	4406	4406	4406	4406	4406	4406	4406	4406	4350	4350	4350	4406	4406	4406	4406	4406	4406	4406	4350	4296	4296	4296	0	0	0	0	0	0	0	0	0	0	0	4406	4350	4350	4350	4406	4350	4350	4350	4406	4406	3246	3216	3186	3186	3186	3186	3186	3186	3157	3186	3186	0	0	0	0	0	0	0	0	0	0	0	0	3216	3186	3186	3186	3186	3186	3186	3186	3186	3216	3216	3186	3186	3216	3216	3216	3246	3216	3216	3216	3216	3216	3216	3216	3186	3216	3186	3216	3186	3186	3186	3186	3186	3186	3186	3186	0	0	0	0	0	0	0	0	0	2297	2252	2252	2252	2252	2252	2252	2281	0	0	0	3129	3129	3157	3157	3157	3157	3157	3157	3157	3157	3157	3157	3186	3157	3157	3157	0	0	0	0	0	0	0	0	0	0	0	0	0	0	0	0	0	0	0	0	0	0	0	0	0	0	0	0	0	0	0	0	0
0	0	0	0	0	0	0	0	0	0	0	0	1282	1282	0	0	0	2015	2015	2015	2015	2015	2003	2003	2003	1992	1980	1980	1992	0	0	0	0	0	0	0	1603	1603	1603	1596	1603	1603	0	0	0	0	0	0	0	0	0	0	0	0	0	0	0	0	0	0	0	0	0	0	0	0	0	0	0	0	0	0	0	0	0	0	0	0	0	0	0	0	0	2003	2003	2015	2027	2027	2015	2027	2027	2015	2015	2003	2003	2015	2015	2027	2027	2027	2027	2027	2027	2027	2015	2015	2003	2003	2003	2003	2003	1992	2015	2027	2027	2027	2027	2015	2027	2015	2003	2003	1992	1992	1992	1980	1980	1980	0	0	0	0	0	0	0	0	0	0	2669	2690	2669	2649	2629	2649	2649	2669	2669	2690	2690	2690	2690	2690	2690	2669	2669	2669	2669	2669	2690	2669	2649	2649	2669	2649	2649	2649	2669	2669	2669	2669	2669	2669	2669	2669	2649	2649	2649	2649	2649	3406	3373	3373	3373	3373	3373	3373	3406	3373	3406	3373	3373	3373	3373	3373	3373	3373	3373	3373	3373	3373	3373	3373	3373	3406	3406	3406	3440	3440	3440	3510	3546	3583	3621	3621	3621	3698	3779	3779	3821	3864	3864	3907	3907	3864	3864	3907	3907	3952	3998	4045	4093	4142	4192	4192	4243	4243	4243	4296	4296	4350	4406	4406	4406	6592	6468	6349	6349	6349	6468	6468	6468	6468	6468	6468	6349	6235	6235	6235	6235	6235	6235	6349	6235	6235	6468	6468	6349	6349	6235	6235	0	0	0	0	0	0	0	0	0	0	0	0	0	0	0	0	0	0	0	0	0	0	0	0	0	0	0	0	5050	5050	5050	4977	4977	4977	4977	3864	3864	3864	3907	3864	3864	3864	3864	3864	3864	3864	3864	3907	3907	3907	3864	3864	3864	3864	3864	3864	3864	3907	3907	3907	3952	3907	3907	3907	3907	3864	3864	3864	3864	3864	3864	3864	3907	3864	3864	3864	3821	3821	5125	5050	4977	4906	4906	4906	4906	8146	8146	8146	8146	8146	8146	8146	8146	8146	8146	8146	8146	8146	8343	8343	8343	8146	8146	8146	8146	7779	7779	7779	6592	6592	6468	6349	6349	6349	6349	6349	6349	6349	6349	6349	6468	6349	6349	6349	6349	6349	6349	6349	6349	6349	6349	6349	6349	6349	6349	6349	6720	6720	7959	7959	7959	7959	7959	7959	7959	7959	7959	7959	7959	7959	7959	7959	7959	7959	7959	7959	7959	7959	7959	8146	7959	7959	8146	8146	8343	8343	8146	8343	8146	8146	8146	8146	8146	8146	8146	7959	8146	7959	7959	8146	8146	8146	8146	8146	8146	8146	8146	7959	7959	7779	7779	7779	7959	7959	4406	4350	4406	4406	4406	4406	4406	4406	4406	4406	4406	4406	4406	4406	4350	4406	4406	4350	4350	4350	4350	4350	4350	4350	4296	4243	4243	0	0	0	0	0	0	0	0	0	0	0	4406	4350	4350	4350	4406	4350	4350	4350	4406	4350	3246	3216	3157	3186	3186	3186	3186	3186	3186	3216	3216	0	0	0	0	0	0	0	0	0	0	0	0	3216	3157	3157	3157	3186	3186	3186	3186	3157	3216	3216	3186	3186	3216	3216	3216	3216	3216	3186	3216	3216	3186	3186	3216	3186	3216	3186	3186	3186	3186	3186	3186	3186	3186	3186	3186	0	0	0	0	0	0	0	0	0	0	2237	2252	2252	2237	2237	2237	0	0	0	0	3129	3129	3157	3157	3157	3157	3157	3157	3157	3157	3157	3186	3157	3157	3157	3157	0	0	0	0	0	0	0	0	0	0	0	0	0	0	0	0	0	0	0	0	0	0	0	0	0	0	0	0	0	0	0	0	0
0	0	0	0	0	0	0	0	0	0	0	0	1282	1282	0	0	0	2015	2015	2003	2015	2003	2003	2003	1992	1992	1980	1980	0	0	0	0	0	0	0	0	1603	1603	1603	1603	1596	1596	0	0	0	0	0	0	0	0	0	0	0	0	0	0	0	0	0	0	0	0	0	0	0	0	0	0	0	0	0	0	0	0	0	0	0	0	0	0	0	1992	1992	1992	2003	2003	2027	2027	2015	2015	2015	2015	2003	2015	2015	2015	2027	2027	2027	2039	2039	2039	2027	2027	2015	2015	2003	2003	2003	2003	2003	2003	2003	2027	2027	2027	2027	2015	2015	2015	2003	2003	2003	2003	1992	1992	1980	1980	0	0	0	0	0	0	0	0	0	0	2669	2690	2669	2609	2589	2609	2609	2609	2669	2669	2669	2690	2690	2669	2669	2669	2649	2669	2669	2669	2669	2669	2649	2669	2669	2649	2649	2649	2669	2669	2669	2649	2669	2649	2669	2669	2649	2649	2629	2629	2629	3406	3406	3406	3406	3406	3406	3406	3406	3373	3406	3373	3406	3406	3373	3373	3373	3373	3373	3373	3373	3373	3373	3406	3373	3406	3406	3440	3440	3440	3475	3510	3546	3583	3621	3621	3621	3659	3738	3779	3821	3864	3864	3864	3864	3864	3864	3907	3907	3952	3998	3998	4093	4142	4142	4192	4243	4243	4243	4296	4350	4406	4463	4463	6235	6468	6349	6349	6349	6349	6349	6468	6349	6349	6468	6349	6235	6235	6124	6235	6235	6235	6235	6235	6235	6235	6468	6349	6349	6349	6235	6235	6235	0	0	0	0	0	0	0	0	0	0	0	0	0	0	0	0	0	0	0	0	0	0	0	0	0	0	0	5125	5050	5050	4977	4977	4906	4906	3864	3864	3864	3864	3864	3864	3864	3821	3864	3864	3864	3864	3907	3907	3907	3907	3864	3864	3864	3864	3864	3864	3907	3907	3907	3907	3907	3907	3907	3907	3864	3864	3864	3864	3864	3821	3864	3907	3864	3864	3864	3821	3821	5125	5050	4977	4977	4906	4906	7959	7959	7959	8146	7959	8146	8146	8146	8146	8146	8146	8146	8146	8343	8343	8343	8343	8343	8343	8146	8146	7779	7779	6720	6720	6592	6468	6468	6349	6349	6349	6349	6468	6349	6349	6349	6349	6349	6349	6349	6349	6349	6468	6349	6349	6349	6349	6349	6349	6349	6349	6468	6468	6468	7959	7959	7779	7779	7959	7959	7959	7959	7959	7959	7959	7959	7959	7959	7959	7959	7959	7959	7959	7959	7959	7959	7959	8146	8343	8343	8343	8343	8343	8343	8146	8146	8146	8146	8146	8146	7959	7959	7959	7959	7959	8146	8146	8146	8146	8146	8146	8146	7959	7959	7959	7959	7779	7959	7959	7959	4406	4350	4350	4350	4406	4406	4406	4406	4406	4406	4406	4406	4406	4350	4350	4350	4406	4406	4406	4406	4350	4406	4350	4350	4296	4296	4296	0	0	0	0	0	0	0	0	0	0	0	4406	4350	4350	4350	4350	4350	4350	4350	4350	4350	3246	3216	3186	3186	3186	3186	3186	3186	3186	3216	3186	3186	0	0	0	0	0	0	0	0	0	0	0	0	3157	3157	3157	3186	3186	3186	3186	3186	3216	3216	3186	3186	3216	3246	3246	3246	3216	3216	3216	3216	3186	3186	3216	3186	3216	3216	3216	3186	3186	3186	3186	3186	3186	3186	3186	0	0	0	0	0	0	0	0	0	2266	2252	2252	2252	2237	2237	2237	0	0	0	3019	3019	3019	3157	3157	3157	3186	3186	3186	3186	3186	3186	3186	3186	3157	3157	3157	0	0	0	0	0	0	0	0	0	0	0	0	0	0	0	0	0	0	0	0	0	0	0	0	0	0	0	0	0	0	0	0	0
0	0	0	0	0	0	0	0	0	0	0	0	1277	1277	0	0	0	2015	2015	2003	2003	2003	2003	2003	1992	1992	1992	1992	1992	0	0	0	0	0	0	1603	1603	1603	1603	1596	1596	1589	1589	0	0	0	0	0	0	0	0	0	0	0	0	0	0	0	0	0	0	0	0	0	0	0	0	0	0	0	0	0	0	0	0	0	0	0	0	0	1992	1980	1992	1992	1992	2003	2027	2027	2027	2027	2015	2015	2003	2003	2015	2015	2015	2027	2027	2039	2039	2039	2039	2027	2015	2015	2003	2003	1992	2003	2003	1992	2003	2015	2015	2027	2027	2015	2027	2015	2003	2003	2003	2003	1992	1992	1992	1992	0	0	0	0	0	0	0	0	0	0	0	0	0	2589	2589	2589	2629	2629	2669	2690	2669	2690	2690	2669	2669	2669	2649	2669	2669	2669	2669	2669	2669	2669	2669	2649	2669	2669	2669	2669	2669	2649	2649	2649	2649	2649	2649	2629	2629	2629	3406	3406	3406	3406	3406	3406	3406	3406	3406	3406	3406	3406	3406	3373	3373	3373	3373	3373	3373	3373	3373	3373	3373	3373	3373	3406	3406	3406	3440	3440	3475	3510	3546	3583	3583	3621	3659	3698	3738	3779	3821	3821	3864	3864	3864	3864	3864	3907	3907	3952	3998	3998	4093	4142	4192	4192	4243	4243	4296	4350	4406	4406	4406	4406	6124	6235	6235	6235	6349	6349	6349	6349	6349	6349	6349	6349	6235	6235	6235	6235	6235	6235	6235	6349	6349	6235	6349	6349	6349	6235	6235	6235	6235	0	0	0	0	0	0	0	0	0	0	0	0	0	0	0	0	0	0	0	0	0	0	0	0	0	0	0	5125	5050	4977	4977	4977	4906	4906	3864	3864	3864	3864	3864	3864	3864	3864	3864	3864	3864	3864	3907	3907	3907	3864	3864	3864	3821	3864	3864	3864	3907	3907	3907	3907	3907	3907	3907	3907	3864	3864	3864	3864	3821	3821	3821	3907	3864	3864	3864	3821	3907	3907	5050	4977	4906	4906	4906	7959	7959	8146	8146	8146	8146	8146	8146	8146	8146	8146	8146	8146	8343	8343	8343	8343	8343	8343	8146	8146	7779	7779	6720	6592	6592	6468	6468	6468	6468	6349	6349	6349	6349	6349	6349	6349	6349	6349	6349	6349	6349	6468	6349	6468	6349	6349	6349	6349	6349	6349	6349	6349	6720	6720	7779	7779	7959	7959	7959	7959	7959	7959	7959	7959	7959	7959	7959	7959	7959	7959	7959	7959	7959	7959	7959	7959	7959	8146	8146	8343	8343	8343	8343	8343	8343	8146	8146	8146	8146	8146	8146	8146	7959	7959	8146	8146	8146	8146	8146	8146	8146	8146	7959	7959	7959	7959	7959	7959	7959	4406	4406	4406	4406	4406	4406	4406	4406	4406	4406	4406	4406	4406	4350	4350	4350	4406	4350	4350	4350	4350	4350	4350	4350	4296	4243	4192	4192	0	0	0	0	0	0	0	0	0	0	4406	4350	4350	4350	4350	4350	4350	4350	4350	4350	4350	3216	3186	3186	3216	3186	3186	3157	3129	3129	3186	3186	0	0	0	0	0	0	0	0	0	0	0	0	3157	3157	3157	3157	3186	3186	3186	3186	3216	3216	3216	3186	3216	3216	3246	3216	3216	3216	3186	3216	3216	3186	3216	3186	3216	3216	3186	3186	3216	3186	3186	3186	3186	3186	3186	0	0	0	0	0	0	0	2297	2281	2266	2252	2252	2252	2237	2223	2208	2208	0	0	3019	3157	3157	3186	3186	3186	3186	3186	3186	3186	3157	3186	3157	3157	3157	3157	3157	0	0	0	0	0	0	0	0	0	0	0	0	0	0	0	0	0	0	0	0	0	0	0	0	0	0	0	0	0	0	0	0	0
0	0	0	0	0	0	0	0	0	0	0	0	1282	1282	1282	1282	0	2015	2015	2003	2003	2003	2003	2003	1992	1992	1992	1992	1992	0	0	0	0	0	0	1603	1603	1603	1603	1603	1603	1596	1596	1596	0	0	0	0	0	0	0	0	0	0	0	0	0	0	0	0	0	0	0	0	0	0	0	0	0	0	0	0	0	0	0	0	0	0	1969	1980	1992	1969	1969	1969	1980	1980	2027	2027	2027	2015	2015	2015	2003	2003	2015	2015	2027	2039	2039	2039	2039	2039	2039	2027	2015	2003	2003	1992	1992	2003	2003	1992	2003	2027	2015	2027	2027	2027	2027	2027	2003	2015	2003	2003	2003	2003	1992	1992	0	0	0	0	0	0	0	0	0	0	0	0	0	2609	2609	2609	2629	2629	2669	2669	2669	2669	2690	2669	2669	2669	2669	2669	2669	2669	2669	2669	2669	2669	2649	2669	2669	2669	2669	2669	2669	2649	2649	2649	2649	2649	2649	2629	2629	2629	3373	3406	3406	3406	3406	3406	3406	3406	3406	3406	3406	3406	3373	3373	3373	3373	3373	3373	3373	3373	3373	3373	3373	3373	3373	3406	3406	3440	3440	3440	3475	3510	3546	3546	3583	3621	3621	3698	3738	3779	3779	3821	3864	3864	3864	3864	3864	3907	3907	3907	3952	3998	4093	4192	4192	4192	4243	4243	4296	4296	4296	4406	4406	6124	6124	6235	6235	6235	6349	6349	6349	6349	6349	6349	6349	6235	6235	6235	6235	6235	6235	6235	6349	6349	6349	6349	6468	6468	6468	6235	6124	6124	6124	0	0	0	0	0	0	0	0	0	0	0	0	0	0	0	0	0	0	0	0	0	0	0	0	0	0	0	0	5050	4977	4977	4977	4906	4906	3864	3864	3864	3864	3864	3864	3864	3864	3864	3864	3864	3864	3864	3907	3864	3864	3864	3821	3821	3821	3821	0	0	3907	3907	3907	3907	3907	3907	3907	3864	3864	3864	3864	3821	3821	3821	3821	3864	3864	3907	3907	3907	3907	5050	4977	4977	4906	4906	8146	8146	8146	8146	8146	8146	8146	8343	8146	8146	8146	8146	8146	8146	8343	8343	8343	8146	8343	8146	7959	7779	7779	6853	6720	6592	6468	6468	6349	6349	6349	6349	6349	6349	6349	6349	6349	6349	6349	6349	6349	6349	6468	6349	6349	6349	6349	6349	6235	6349	6349	6349	6592	6592	7779	7959	7779	7959	7959	7959	7959	7959	7959	7959	7959	7959	7959	7959	7959	7959	7959	7959	7959	7959	7959	7959	7959	7959	8146	8146	8343	8343	8343	8343	8343	8146	8146	8146	7959	7959	7959	7959	7959	7959	7959	8146	8146	8146	8146	8146	8146	8146	8146	7959	7959	7959	7959	7959	7959	7959	0	4463	4406	4406	4406	4406	4406	4406	4406	4406	4406	4406	4406	4350	4350	4350	4350	4350	4350	4350	4350	4350	4350	4296	4296	4243	4192	4192	0	0	0	0	0	0	0	0	0	0	4406	4406	4406	4350	4406	4350	4350	4350	4350	4350	4350	3216	3186	3186	3186	3186	3157	3157	3129	3157	3157	0	0	0	0	0	0	0	0	0	0	0	0	0	0	3157	3157	3157	3186	3186	3186	3186	3216	3216	3216	3186	3216	3216	3216	3216	3216	3186	3186	3186	3186	3216	3216	3216	3246	3246	3216	3216	3216	3186	3216	3186	3186	3186	3186	0	0	0	0	0	0	2297	2281	2281	2281	2281	2237	2252	2223	2208	2194	2194	0	0	0	3101	3157	3186	3186	3186	3157	3157	3157	3157	3157	3157	3157	3157	3157	3157	3157	0	0	0	0	0	0	0	0	0	0	0	0	0	0	0	0	0	0	0	0	0	0	0	0	0	0	0	0	0	0	0	0	0
0	0	0	0	0	0	0	0	0	0	0	0	1282	1282	1277	1277	0	0	0	1992	1992	1992	1992	1992	1992	1992	1992	1992	1992	0	0	0	0	0	0	1603	1603	1603	1603	1603	1603	1596	1596	1581	1596	1596	0	0	0	0	0	0	0	0	0	0	0	0	0	0	0	0	0	0	0	0	0	0	0	0	0	0	0	0	0	0	0	0	1969	1969	1969	1969	1969	1958	1969	2015	2027	2027	2027	2027	2015	2015	2003	2003	2015	2015	2027	2027	2039	2039	2051	2039	2039	2039	2015	2003	2003	1992	2003	2003	2003	2003	2003	2027	2015	2027	2027	2027	2027	2027	2015	2003	2003	2003	2003	2003	2003	2003	0	0	0	0	0	0	0	0	0	0	0	0	0	2609	2609	2609	2629	2629	2669	2669	2669	2669	2690	2669	2690	2669	2669	2669	2669	2669	2690	2669	2649	2669	2669	2669	2669	2669	2669	2669	2649	2649	2649	2649	2649	2649	2649	2629	2629	2629	2609	2609	3406	3406	3406	3406	3406	3406	3406	3373	3373	3373	3373	3373	3373	3373	3373	3373	3373	3373	3373	3373	3373	3373	3373	3406	3406	3440	3440	3475	3475	3510	3546	3546	3583	3621	3621	3659	3698	3738	3821	3821	3864	3864	3864	3864	3864	3864	3907	3907	3952	4045	4142	4142	4192	4192	4243	4296	4296	4296	4350	4350	6124	6124	6235	6235	6235	6349	6349	6235	6349	6349	6349	6235	6235	6235	6235	6235	6235	6235	6235	6235	6349	6349	6468	6349	6468	6468	6468	6235	6124	6124	6124	0	0	0	0	0	0	0	0	0	0	0	0	0	0	0	0	0	0	0	0	0	0	0	0	0	0	0	0	5050	5050	4977	4977	4977	3738	3864	3864	3864	3864	3864	3864	3864	3864	3864	3864	3864	3864	3864	3907	3864	3864	3864	3864	3864	3864	3864	0	0	3907	3907	3907	3907	3907	3907	3907	3864	3864	3864	3821	3821	3821	3821	3821	3864	3864	3907	3907	3907	3907	3907	4977	4977	4906	4906	4906	8343	8343	8343	8146	8146	8146	8343	8146	8146	8146	8146	8146	8146	8146	8146	8343	8146	8343	8146	7959	7608	7287	6853	6720	6592	6592	6468	6349	6349	6349	6349	6349	6349	6349	6349	6349	6349	6349	6349	6349	6349	6349	6349	6468	6349	6349	6349	6235	6235	6349	6349	6349	6349	7959	7779	7779	7959	7959	7959	7959	7959	7959	7959	7959	7959	7959	7959	7959	7959	7959	7959	7959	7959	7959	7959	7959	7959	8146	8146	8343	8343	8343	8343	8343	8146	8146	8146	7959	7959	7959	7959	7959	7959	7959	8146	8146	8146	8146	8146	8146	8146	8146	8146	8146	8146	7959	7959	7959	7959	0	4406	4406	4406	4406	4406	4406	4406	4406	4406	4406	4406	4406	4406	4350	4350	4350	4350	4350	4350	4350	4350	4350	4296	4296	4243	4243	4192	0	0	0	0	0	0	0	0	0	0	0	4406	4350	4350	4350	4350	4350	4350	4350	4350	4350	3216	3186	3186	3186	3186	3186	3157	3129	3129	3157	0	0	0	0	0	0	0	0	0	0	0	0	0	0	0	3157	3157	3186	3186	3186	3157	3216	3216	3216	3216	3216	3216	3216	3216	3186	3186	3186	3216	3186	3186	3216	3216	3216	3246	3216	3216	3216	3186	3216	3186	3186	3186	3186	0	0	0	0	0	0	2297	2297	2297	2297	2297	2266	2252	2237	2237	2237	2237	0	0	0	3129	3157	3157	3186	3186	3157	3157	3157	3157	3157	3157	3157	3129	3157	3157	3157	0	0	0	0	0	0	0	0	0	0	0	0	0	0	0	0	0	0	0	0	0	0	0	0	0	0	0	0	0	0	0	0	0
0	0	0	0	0	0	0	0	0	0	0	0	1282	1282	1277	1277	0	0	0	1980	1992	1992	1992	1992	1992	1992	1992	2003	1980	1980	0	0	0	0	0	1611	1603	1603	1603	1603	1603	1596	1596	1581	1581	1596	0	0	0	0	0	0	0	0	0	0	0	0	0	0	0	0	0	0	0	0	0	0	0	0	0	0	0	0	0	0	0	0	1969	1969	1969	1969	1980	1980	1992	2003	2027	2027	2027	2015	2015	2015	2003	2003	2015	2015	2015	2027	2027	2039	2039	2039	2039	2039	2015	2003	2003	1992	2003	1992	1992	1992	2003	2027	2027	2027	2027	2027	2027	2027	2015	2015	2003	2003	2003	2003	2027	2027	0	0	0	0	0	0	0	0	0	0	0	0	0	0	2609	2609	2629	2609	2649	2669	2690	2669	2690	2690	2690	2669	2669	2669	2669	2690	2690	2669	2669	2669	2669	2669	2669	2669	2669	2669	2669	2669	2669	2649	2649	2669	2649	2649	2629	2629	3406	3406	3406	3406	3406	3406	3406	3406	3406	3373	3373	3373	3373	3373	3373	3373	3373	3373	3373	3373	3373	3373	3406	3406	3373	3406	3440	3440	3440	3475	3510	3510	3546	3583	3583	3621	3621	3621	3659	3738	3821	3821	3821	3864	3864	3864	3864	3864	3864	3952	3952	4045	4142	4192	4192	4243	4243	4296	4296	4350	4350	4463	4463	6235	6235	6235	6235	6235	6235	6235	6235	6349	6349	6235	6235	6235	6235	6235	6235	6235	6124	6235	6349	6349	6468	6468	6468	6468	6468	6124	6124	6124	0	0	0	0	0	0	0	0	0	0	0	0	0	0	0	0	0	0	0	0	0	0	0	0	0	0	0	0	0	5050	5050	4977	4977	3738	3738	3738	3864	3864	3864	3864	3864	3864	3864	3864	3864	3864	3864	3907	3907	3907	3907	3864	3864	3864	3864	3864	0	0	0	0	3907	3907	3907	3907	3907	3907	3864	3864	3821	3821	3821	3821	3864	3864	3864	3907	3907	3907	3907	3907	3907	4977	4906	4906	4906	8343	8343	8343	8146	8146	8146	8146	8146	8146	8146	8146	8146	8146	8146	8146	8146	8146	8146	8146	7959	7779	7608	6853	6720	6592	6592	6468	6349	6349	6349	6349	6349	6349	6349	6349	6349	6349	6349	6349	6349	6349	6468	6349	6468	6349	6349	6349	6235	6349	6349	6349	6349	6468	8343	7779	7959	7959	7959	7959	7959	7959	7959	7959	7959	7959	7959	7959	7959	7959	7959	7959	7959	7959	7959	7959	7959	7959	8146	8343	8343	8343	8343	8343	8343	8146	8146	8146	7959	7959	7959	8146	7959	7959	7959	7959	7959	8146	8146	8146	8146	8146	8146	8146	8146	8146	7959	7959	7959	0	0	4463	4406	4406	4406	4406	4406	4406	4406	4406	4406	4406	4406	4350	4350	4350	4350	4350	4350	4350	4350	4350	4350	4350	4296	4296	4296	0	0	0	0	0	0	0	0	0	0	0	0	0	4350	4350	4406	4350	4350	4350	4350	4350	4350	3216	3216	3216	3216	3186	3186	3186	3129	3129	0	0	0	0	0	0	0	0	0	0	0	0	0	0	0	0	3157	3157	3186	3186	3186	3157	3216	3216	3216	3216	3216	3216	3216	3216	3186	3186	3186	3216	3186	3216	3216	3216	3246	3246	3216	3216	3216	3186	3216	3216	3186	3186	3186	0	0	0	0	0	0	2297	2297	2297	2297	2297	2297	2252	2252	2237	2252	2252	0	0	0	3157	3157	3157	3186	3186	3157	3157	3157	3157	3157	3157	3129	3129	3157	3157	3157	0	0	0	0	0	0	0	0	0	0	0	0	0	0	0	0	0	0	0	0	0	0	0	0	0	0	0	0	0	0	0	0	0
0	0	0	0	0	0	0	0	0	0	0	0	1282	1282	1277	1277	0	0	1980	1980	1992	1980	1980	1992	1992	1992	2003	2003	2003	1980	0	0	0	0	1611	1603	1603	1603	1603	1603	1603	1596	1596	1589	1589	0	0	0	0	0	0	0	0	0	0	0	0	0	0	0	0	0	0	0	0	0	0	0	0	0	0	0	0	0	0	0	0	0	0	0	0	0	1980	1980	1980	2003	2015	2027	2015	2015	2015	2015	2003	2003	2003	2003	2003	2027	2027	2027	2039	2027	2027	2039	2015	2003	2003	2003	2003	2003	1992	2003	2003	2027	2027	2027	2027	2027	2027	2027	2003	2015	2015	2015	2027	2027	2039	2027	2027	0	0	0	0	0	0	0	0	0	0	0	0	0	2609	2609	2629	2690	2690	2669	2690	2669	2690	2669	2690	2690	2669	2669	2669	2669	2669	2669	2669	2669	2669	2669	2669	2669	2669	2669	2649	2669	2669	2669	2649	2669	2669	2649	2649	2649	3406	3406	3406	3406	3406	3406	3373	3406	3406	3373	3373	3373	3373	3373	3373	3373	3373	3373	3373	3373	3373	3373	3406	3406	3373	3406	3440	3440	3475	3475	3475	3510	3546	3546	3583	3583	3621	3621	3659	3698	3738	3738	3779	3779	3864	3864	3864	3864	3907	3907	3952	3998	4093	4142	4192	4192	4243	4296	4296	4296	4350	4463	4463	4463	6235	6235	6235	6124	6235	6235	6235	6349	6235	6235	6235	6235	6124	6124	6124	6235	6124	6235	6349	6349	6468	6468	6468	6468	6468	6124	6124	0	0	0	0	0	0	0	0	0	0	0	0	0	0	0	0	0	0	0	0	0	0	0	0	0	0	0	0	0	0	5050	5050	4977	4977	3738	3738	3779	3864	3864	3864	3864	3864	3864	3864	3864	3864	3864	3864	3907	3907	3907	3907	3907	3907	3864	3864	3864	0	0	0	0	0	3952	3907	3907	3907	3907	3907	3864	3864	3864	3821	3821	3821	3864	3864	3907	3907	3907	3907	3907	3907	3907	4906	4906	4906	8343	8343	8343	8146	8146	8146	8146	8146	8146	8146	7959	7959	8146	8146	8146	8343	8146	8343	8146	7959	7959	7779	6720	6720	6592	6592	6468	6349	6349	6349	6349	6349	6349	6349	6349	6349	6349	6349	6349	6349	6349	6468	6349	6349	6349	6349	6349	6235	6349	6235	6349	6349	8343	7959	7959	7959	7959	7959	7959	7959	7959	7959	7779	7779	7779	7779	7959	7959	7959	7959	7959	7959	7959	7959	7959	7959	7959	8146	8343	8343	8343	8550	8343	8343	8343	8146	8146	7959	7959	8146	8146	8146	8146	7959	8146	8146	8146	8146	8146	8146	8146	8146	8146	8146	8146	8146	8146	8146	8146	0	4463	4406	4406	4406	4406	4350	4406	4406	4406	4406	4406	4406	4350	4350	4350	4350	4406	4350	4406	4350	4350	4350	4350	4296	4296	4296	0	0	0	0	0	0	0	0	0	0	0	0	0	4350	4350	4406	4350	4350	4350	4350	4350	0	3216	3216	3216	3216	3216	3216	3186	0	0	0	0	0	0	0	0	0	0	0	0	0	0	0	0	0	0	0	0	3186	3216	3216	3186	3216	3216	3216	3216	3216	3216	3216	3186	3186	3186	3186	3186	3186	3216	3216	3216	3216	3246	3216	3216	3216	3186	3186	2281	2281	3186	0	0	0	0	2297	2297	2297	2297	2297	2297	2297	2312	2266	2252	2252	2237	2237	2237	0	0	0	3157	3186	3186	3186	3186	3157	3157	3157	3157	3157	3157	3157	3157	3157	3157	3157	0	0	0	0	0	0	0	0	0	0	0	0	0	0	0	0	0	0	0	0	0	0	0	0	0	0	0	0	0	0	0	0	0
0	0	0	0	0	0	0	0	0	0	0	0	1282	1282	1277	1277	0	0	1980	1980	1980	1980	1980	1992	1980	1980	1992	2003	2003	0	0	0	0	0	1603	1603	1603	1603	1603	1603	1603	1596	1596	1589	1589	0	0	0	0	0	0	0	0	0	0	0	0	0	0	0	0	0	0	0	0	0	0	0	0	0	0	0	0	0	0	0	0	0	0	0	0	1947	1980	1969	1980	1992	2015	2015	2015	2015	2015	2015	2003	2003	2015	2015	2003	2015	2027	2027	2039	2027	2027	2027	2015	2003	2003	2003	2003	2003	2003	2003	2027	2027	2027	2027	2027	2027	2027	2027	2003	2015	2015	2015	2027	2027	2027	2015	2015	0	0	0	0	0	0	0	0	0	0	0	0	0	2649	2629	2649	2690	2669	2669	2669	2669	2669	2669	2690	2690	2669	2669	2669	2669	2669	2669	2669	2669	2669	2669	2669	2669	2669	2669	2669	2669	2669	2669	2669	2669	2669	2649	2649	2649	3406	3406	3406	3406	3406	3406	3406	3406	3406	3406	3373	3373	3373	3373	3373	3373	3373	3373	3373	3373	3373	3373	3406	3406	3373	3406	3406	3440	3440	3475	3510	3546	3546	3583	3583	3583	3621	3659	3659	3659	3738	3738	3821	3864	3864	3864	3864	3864	3907	3907	3907	3998	4093	4142	4192	4243	4243	4296	4296	4350	4406	4463	4463	4463	4463	6235	6124	6124	6124	6124	6124	6235	6235	6124	6235	6124	6124	6124	6124	6235	6124	6235	6235	6349	6349	6468	0	0	0	6124	6124	0	0	0	0	0	0	0	0	0	0	0	0	0	0	0	0	0	0	0	0	0	0	0	0	0	0	0	0	0	0	5050	4977	4977	4977	3738	3738	3738	3864	3864	3864	3864	3864	3864	3864	3864	3864	3864	3864	3907	3907	3907	3907	3907	3907	3864	3864	3864	0	0	0	0	0	3952	3907	3907	3907	3907	3864	3864	3821	3821	3821	3821	3821	3864	3864	3907	3907	3907	3907	3907	3907	3907	4838	4838	4838	6235	6235	6124	8146	8146	8146	8146	8146	7959	7959	7959	7959	7959	8146	7959	8146	7959	8146	8146	7959	7959	6853	6720	6592	6468	6468	6468	6468	6349	6349	6349	6349	6349	6349	6349	6349	6349	6349	6349	6349	6349	6349	6349	6349	6349	6349	6349	6235	6235	6235	6235	6349	6349	7959	7959	7959	7959	7959	7959	7959	7959	7959	7779	7779	7779	7779	7779	7959	7959	7959	7959	7959	7959	7959	7959	7959	7959	8146	8146	8146	8343	8343	8146	8146	8146	8146	8146	7959	7959	8146	8146	8146	8146	8146	8146	8146	8146	8146	8146	8146	8146	8146	8146	8146	8146	8146	8146	8146	8146	0	0	0	4406	4406	4350	4350	4350	4350	4350	4350	4350	4350	4350	4350	4350	4350	4406	4350	4350	4350	4350	4350	4350	4350	4296	0	0	0	0	0	0	0	0	0	0	0	0	0	0	0	4350	4406	4350	4350	4350	4350	0	0	0	0	0	0	3216	3216	0	0	0	0	0	0	0	0	0	0	0	0	0	0	0	0	0	0	0	0	0	0	3216	3216	3186	3246	3246	3216	3216	3186	3216	3216	3186	3157	3157	3186	3186	3186	3216	3216	3216	3246	3246	3216	3216	3216	3186	2266	2266	3216	3186	0	0	0	2266	2297	2297	2297	2297	2297	2297	2297	2297	2266	2252	2252	2237	2223	2223	2208	2208	0	0	3186	3186	3186	3186	3157	3157	3157	3157	3157	3157	3186	3186	3157	3157	3157	0	0	0	0	0	0	0	0	0	0	0	0	0	0	0	0	0	0	0	0	0	0	0	0	0	0	0	0	0	0	0	0	0
0	0	0	0	0	0	0	0	0	0	0	0	1277	1277	1277	1277	0	0	0	1980	1980	1980	1980	1992	1980	1992	1992	2003	2003	0	0	0	0	0	1603	1603	1603	1603	1603	1603	1603	1603	1596	1589	1589	0	0	0	0	0	0	0	0	0	0	0	0	0	0	0	0	0	0	0	0	0	0	0	0	0	0	0	0	0	0	0	0	0	0	0	0	1980	1980	1980	1980	1992	2003	2015	2015	2015	2015	2015	2015	2015	2003	2003	2003	2003	2015	2027	2027	2027	2027	2027	2015	2003	2015	2003	2003	2003	1992	2003	2003	2003	1992	2003	2003	2015	2015	2015	2003	2027	2027	2027	2027	2027	2027	2015	2039	2039	0	0	0	0	0	0	0	0	0	0	2733	2711	2649	2669	2690	2690	2669	2669	2669	2669	2669	2669	2669	2669	2669	2669	2669	2669	2669	2649	2649	2669	2669	2669	2669	2669	2669	2690	2669	2669	2669	2669	2669	2669	2669	2649	2649	2649	2649	3406	3406	3406	3406	3406	3406	3406	3406	3406	3373	3373	3373	3373	3373	3373	3373	3373	3373	3373	3373	3373	3406	3373	3373	3406	3406	3440	3440	3440	3510	3546	3546	3583	3583	3583	3621	3621	3659	3738	3738	3821	3821	3864	3864	3864	3864	3864	3907	3907	3907	3998	4093	4142	4142	4192	4243	4296	4296	4296	4350	4406	4463	4406	4406	4406	6124	6124	6018	6124	6124	6124	6124	6124	6124	6124	6124	6124	6124	6235	6124	6124	6235	6235	6349	0	0	0	0	0	0	0	0	0	0	0	0	0	0	0	0	0	0	0	0	0	0	0	0	0	0	0	0	0	0	0	0	0	0	0	0	4977	4977	4906	4977	3738	3738	3738	3864	3864	3864	3864	3864	3864	3864	3864	3864	3864	3864	3864	3907	3907	3864	3864	3864	3821	3821	3864	0	0	0	0	0	3952	3907	3907	3907	3907	3864	3864	3821	3821	3821	3821	3821	3864	3864	3907	3907	3907	3907	3952	3952	3952	3952	6235	6235	6235	6235	6124	6235	6235	6235	6235	6235	6468	6349	7959	7959	7959	6349	6349	6468	8146	6349	6468	6468	6468	6468	6592	6468	6468	6468	6349	6468	6349	6349	6349	6349	6349	6349	6349	6349	6349	6349	6349	6349	6349	6349	6349	6349	6349	6349	6349	6235	6235	6235	6235	6235	6235	8146	8146	8146	8146	8146	7959	7959	7959	7959	7779	7779	7779	7779	7779	7779	7779	7959	7959	7959	7959	7959	7779	7779	7779	7959	7959	8146	8146	8146	8146	8146	8146	8146	8146	7959	7959	8146	8146	8146	8146	8146	8146	8146	8146	8146	8146	8146	8146	8146	8146	8146	8146	8146	8146	8146	8146	0	0	0	4406	4406	4350	4350	4350	4350	4350	4350	4350	4350	4350	0	0	0	0	0	4350	4350	4350	4350	4350	4350	0	0	0	0	0	0	0	0	0	0	0	0	0	0	0	0	0	0	0	0	0	0	0	0	0	0	0	0	0	0	0	0	0	0	0	0	0	0	0	0	0	0	0	0	0	0	0	0	0	0	0	0	0	0	0	3246	3246	3246	3216	3216	3216	3186	3186	3157	3157	3157	3157	3216	3216	3246	3246	3246	3246	3216	3216	3186	2297	2297	2266	2266	0	0	2252	2252	2266	2281	2281	2297	2297	2297	2297	2297	2297	2252	2237	2237	2237	2223	2208	2208	2208	2208	0	0	0	3186	3186	3157	3157	3157	3157	3157	3186	3186	3186	3157	3157	3157	0	0	0	0	0	0	0	0	0	0	0	0	0	0	0	0	0	0	0	0	0	0	0	0	0	0	0	0	0	0	0	0	0
0	0	0	0	0	0	0	0	0	0	0	0	1277	1282	1277	1277	0	0	0	1980	1980	1980	1992	1992	1980	1992	1992	1992	1992	0	0	0	0	1611	1603	1603	1603	1603	1603	1603	1596	1596	1596	1589	1589	0	0	0	0	0	0	0	0	0	0	0	0	0	0	0	0	0	0	0	0	0	0	0	0	0	0	0	0	0	0	0	0	0	0	0	0	1980	1980	1980	1980	1992	2003	2015	2015	2015	2003	2015	2003	2003	2003	2003	2003	2003	2015	2015	2015	2015	2027	2027	2015	2003	2003	2003	2003	2003	2003	2003	2027	2027	2015	2015	2015	2027	2015	2015	2003	2015	2027	2027	2027	2027	2027	2015	2015	2039	0	0	0	0	0	0	0	0	2669	2669	2733	2690	2711	2669	2669	2669	2669	2669	2669	2669	2669	2669	2669	2669	2669	2669	2669	2669	2669	2669	2669	2669	2669	2669	2669	2690	2690	2690	2669	2669	2669	2669	2669	2669	2669	2669	2649	2649	2649	3406	3406	3406	3406	3406	3373	3373	3373	3373	3373	3373	3373	3373	3373	3373	3373	3373	3373	3373	3373	3373	3373	3373	3373	3406	3406	3406	3440	3440	3510	3510	3546	3583	3583	3621	3621	3698	3698	3779	3821	3864	3864	3864	3864	3864	3864	3864	3907	3907	3907	3998	4093	4093	4142	4192	4243	4296	4296	4296	4350	4463	4463	4406	4406	4406	6018	6018	5915	6018	6124	6124	6124	6124	6124	6124	6124	6124	6124	6124	6124	6124	6124	6124	0	0	0	0	0	0	0	0	0	0	0	0	0	0	0	0	0	0	0	0	0	0	0	0	0	0	0	0	0	0	0	0	0	0	0	0	4977	4977	5050	4977	4906	4977	4977	4977	3821	3864	3864	3864	3864	3864	3864	3864	3864	3864	3864	3907	3907	3864	3864	3864	3864	3821	3821	0	0	0	0	0	0	3907	3907	3907	3907	3864	3864	3864	3864	3821	3821	3821	3821	3864	3864	3907	3907	3907	3907	3907	3952	3952	3952	6235	6235	6235	6124	6124	6235	6235	6235	6235	6235	6468	6349	6349	6349	6349	6349	6349	6349	6349	6349	6468	6468	6468	6592	6468	6468	6349	6349	6349	6349	6235	6349	6349	6349	6349	6349	6349	6349	6349	6349	6349	6349	6349	6349	6349	6349	6349	6349	6349	6235	6235	6235	6235	6235	6235	7959	8146	8146	8146	7959	7959	7959	7779	7779	7779	7779	7779	7779	7779	7779	7959	7959	7779	7779	7779	7779	7779	7779	7779	7959	8146	8146	8146	8146	8146	8146	8146	8146	8146	7959	7959	8146	8146	8146	7959	7959	7959	8146	7959	8146	8146	8146	8146	8146	8146	8343	8343	8146	8146	0	0	0	0	0	0	0	0	0	0	0	0	0	0	0	0	0	0	0	0	0	0	0	0	0	0	0	0	0	0	0	0	0	0	0	0	0	0	0	0	0	0	0	0	0	0	0	0	0	0	0	0	0	0	0	0	0	0	0	0	0	0	0	0	0	0	0	0	0	0	0	0	0	0	0	0	0	0	0	0	0	0	0	3246	3246	2343	2343	2359	2359	2376	2376	2376	2327	2327	3216	3277	3277	3277	3246	3246	3216	3216	2312	2312	2297	2266	2266	2252	2252	2266	2281	2281	2297	2297	2297	2297	2297	2297	2297	2297	2252	2237	2223	2223	2223	2208	2208	2208	2237	2237	0	0	3157	3157	3157	3157	3157	3129	3129	3129	3129	3186	3157	3157	3157	0	0	0	0	0	0	0	0	0	0	0	0	0	0	0	0	0	0	0	0	0	0	0	0	0	0	0	0	0	0	0	0	0
0	0	0	0	0	0	0	0	0	0	0	0	1277	1282	1282	1277	0	0	1992	1992	1992	1992	1992	1992	1992	1992	2003	2003	2003	0	0	0	0	1611	1603	1603	1603	1603	1596	1596	1596	1596	1596	1589	1589	0	0	0	0	0	0	0	0	0	0	0	0	0	0	0	0	0	0	0	0	0	0	0	0	0	0	0	0	0	0	0	0	0	0	0	0	1992	1992	1992	1992	2003	2015	2015	2015	2015	2015	2015	2015	2003	2003	2003	1992	2003	2003	2003	2003	2003	1992	2003	2003	2003	2015	2003	2015	2015	2003	2015	2027	2027	2015	2015	2015	2015	2015	2003	2003	2015	2015	2027	2027	2027	2015	2015	2015	2015	0	0	0	0	0	0	0	2649	2649	2649	2669	2669	2669	2649	2669	2669	2669	2669	2669	2669	2669	2669	2669	2690	2669	2669	2669	2669	2669	2669	2669	2669	2669	2669	2669	2669	2669	2669	2669	2669	2669	2669	2669	2669	2669	2669	2669	2649	2649	2649	3406	3406	3406	3406	3373	3373	3373	3373	3373	3373	3373	3373	3373	3373	3373	3373	3373	3373	3373	3373	3373	3373	3373	3373	3406	3406	3406	3440	3510	3546	3583	3583	3621	3621	3659	3698	3738	3779	3821	3864	3864	3864	3864	3864	3864	3864	3907	3907	3952	3952	4045	4093	4142	4093	4243	4296	4296	4350	4406	4463	4463	4406	4406	0	6018	6018	5915	6018	6018	6124	6124	6124	6124	6124	6124	6124	6124	6124	6124	6124	6018	6018	0	0	0	0	0	0	0	0	0	0	0	0	0	0	0	0	0	0	0	0	0	0	0	0	0	0	0	0	0	0	0	0	0	0	0	0	4977	5050	5050	4977	4906	4977	4977	3738	3821	3821	3821	3864	3864	3864	3864	3864	3864	3864	3864	3907	3907	3864	3864	3864	3864	3821	3821	0	0	0	0	0	0	3907	3907	3907	3907	3864	3864	3864	3821	3864	3821	3821	3821	3864	3864	3864	3907	3907	3907	3907	3952	3952	3952	6235	6235	6235	6235	6235	6235	6235	6235	6235	6349	6349	6349	6349	6349	6349	6349	6349	6349	6349	6349	6349	6468	6468	6468	6349	6349	6349	6349	6349	6349	6235	6349	6349	6349	6349	6349	6349	6468	6468	6468	6468	6468	6349	6235	6349	6349	6349	6349	6349	6235	6235	6235	6235	6124	6124	6124	8146	8343	8146	8146	7959	7959	7959	7779	7779	7608	7779	7779	7779	7779	7779	7779	7779	7779	7779	7779	7779	7779	7779	7959	8146	7959	8146	8146	7959	7959	8146	8146	8146	8146	7959	8146	8146	8146	7959	7959	7959	7959	7959	7959	8146	8146	8146	8146	8343	8767	8767	8146	8146	0	0	0	0	0	0	0	0	0	0	0	0	0	0	0	0	0	0	0	0	0	0	0	0	0	0	0	0	0	0	0	0	0	0	0	0	0	0	0	0	0	0	0	0	0	0	0	0	0	0	0	0	0	0	0	0	0	0	0	0	0	0	0	0	0	0	0	0	0	0	0	0	0	0	0	0	0	0	0	0	0	0	0	0	2359	2343	2343	2359	2359	2376	2376	2343	2327	2312	2343	2312	2312	3277	3277	2312	2312	2312	2312	2297	2297	2266	2266	2252	2266	2266	2281	2281	2297	2297	2297	0	0	0	0	0	0	2223	2223	2223	2223	2223	2223	2223	2237	2237	0	0	3157	3157	3157	3157	3157	3157	3157	3157	3157	3157	3157	3157	3157	0	0	0	0	0	0	0	0	0	0	0	0	0	0	0	0	0	0	0	0	0	0	0	0	0	0	0	0	0	0	0	0	0
