0	0	884	884	887	889	889	891	896	898	903	910	915	915	917	920	922	925	927	930	932	937	937	940	940	945	945	945	1102	1102	1102	1102	1102	1102	1102	1098	1098	1098	1095	1095	1102	1102	1102	1102	1102	1102	1102	1098	1098	1098	1098	1098	1095	1095	1095	1095	1095	1105	1098	1102	1098	1095	1095	1098	1102	1102	1105	1105	1109	1109	1109	0	0	0	0	0	0	0	0	5719	5719	5719	5719	5719	5719	5719	5815	5815	0	0	0	0	0	0	0	6235	6235	6235	6124	5915	5915	6018	6124	6124	6124	6235	6235	6349	6235	6235	6349	6349	6349	6349	6235	6235	6235	6235	6235	6235	6235	6235	6124	6235	6235	6235	6235	6124	6124	6124	6124	6235	6235	6235	6235	6235	6235	6235	6235	6235	6235	6235	6349	6235	6349	6235	6235	6235	6349	6235	6235	6235	6235	6235	6235	6235	6235	6235	6235	6235	6235	6235	6235	6124	6124	6124	6124	6124	6018	6124	6124	6235	6235	6235	6235	6349	6349	6349	6349	6349	6349	6235	6235	6235	6235	6235	6349	6349	6349	6349	6349	6235	6235	6235	6124	6124	6124	6124	6235	6235	6235	6235	6235	6235	6124	6124	6124	6124	6124	6124	6124	6018	6124	6124	6124	6235	6235	6124	6124	6124	6124	6124	6018	6018	6018	6018	6124	6124	6124	6124	6124	6124	6235	6124	6124	6235	6124	6235	6124	6124	6124	6124	6124	6124	6124	6124	6124	6124	6235	6235	6349	6349	6349	6349	6235	6235	6235	6124	6124	6124	6124	6124	6124	6235	6235	6235	6235	6349	6349	6349	6349	6468	6468	6468	6349	6349	6235	6235	6235	6235	6235	6235	6235	6235	6235	0	0	0	0	0	0	0	0	0	0	0	3475	3475	3475	3510	3475	3475	3475	3475	3475	3440	3440	3440	3440	6349	6349	6235	6235	6124	6124	6018	6124	6124	6124	6124	6124	6124	6124	6124	6124	6124	6124	6124	6124	6124	6235	6124	6124	6124	6124	6124	6124	6235	6124	6124	6124	6124	6124	6124	6124	6018	6124	6124	6124	6124	6124	6124	6124	6124	6124	6124	6124	6235	6124	6124	6124	6124	6124	6124	6124	6124	6124	6124	6124	6124	6124	6124	6124	6124	6124	6124	6235	6235	6235	6235	6235	6124	6124	6124	6124	6124	6124	6124	6124	6124	6124	6235	6235	6235	6235	6124	6124	6124	6124	6124	6018	6124	6124	6124	6235	6235	6235	6235	6235	6235	6349	6349	6349	6349	6349	6349	6349	6349	6124	6124	6124	6124	6235	6235	6235	6124	6235	6235	6235	6235	6235	6124	6124	6235	6235	6235	6124	6124	6235	6235	6235	6235	6235	6124	6124	6235	6124	6124	6124	6124	6124	6124	6124	6124	6124	6124	6124	6124	6235	6235	6349	6349	6349	6349	6349	6349	6235	6235	6235	6235	6124	6124	0	0	0	0	0	0	0	0	0	0	0	6018	6235	6235	6349	6349	6349	6349	6235	6235	6235	6235	6349	6349	6349	6349	6349	6349	6349	6349	6468	6468	6468	6349	6468	6468	6349	6235	6349	6349	6235	6235	6468	6349	6349	6349	0	6349	6349	0	6349	6349	6349	6349	6349	6349	6349	6468	6349	6349	6124	6235	6235	6235	6124	6124	6124	6235	6124	6124	6235	6235	6235	6124	6124	6124	6124	6124	6235	6235	6235	6349	6349	6349	6349	6349	6349	6124	6124	6124	6124	6018	6018	5915	6018	6124	6124	6124	6124	6124	6235	6124	6124	6018	6018	0	0	0	0	0	2570	2589	2570	2570	2570	2570	2570	2570	2551	2532	2532	2496	2496	2496	2496	2496	2496	2496	2496	2496	2496	0	0	0	0	0	0	0	0	0	0	0	0	0	0	0	0	0	0	0	0	0	0	0	0	0	0	0	0	0	0	0	0	0	0	0	0	0
0	0	884	884	887	891	884	896	898	903	905	908	913	915	917	920	922	925	925	930	932	937	940	940	942	948	950	950	950	1102	1102	1102	1102	1102	1098	1098	1098	1098	1095	1095	1102	1102	1102	1102	1102	1102	1102	1098	1098	1098	1098	1098	1098	1098	1098	1098	1098	1102	1098	1102	1098	1095	1098	1098	1102	1105	1105	1105	1109	1123	1123	0	0	0	0	0	0	0	0	0	5815	5815	5719	5815	5719	5815	5815	5915	5915	0	0	0	0	0	0	0	0	6235	6124	5915	5915	5915	6235	6235	6235	6349	6349	6349	6235	6235	6349	6349	6349	6349	6235	6235	6235	6235	6235	6235	6235	6235	6124	6235	6235	6235	6235	6235	6235	6235	6235	6235	6235	6235	6235	6235	6235	6235	6235	6235	6235	6349	6349	6349	6349	6349	6349	6235	6349	6235	6235	6235	6235	6235	6235	6235	6235	6235	6235	6235	6235	6235	6235	6124	6124	6124	6124	6235	6124	6124	6235	6235	6235	6235	6349	6349	6349	6349	6349	6349	6349	6349	6235	6349	6235	6349	6349	6349	6349	6349	6235	6235	6235	6235	6124	6124	6124	6124	6235	6235	6235	6235	6235	6235	6235	6124	6124	6124	6124	6235	6124	6124	6124	6235	6235	6235	6235	6235	6124	6124	6124	6124	6018	6124	6124	6018	6124	6124	6124	6124	6235	6235	6235	6124	6124	6124	6124	6124	6124	6124	6124	6124	6124	6124	0	0	0	0	6235	6349	6349	6349	6349	6349	6235	6235	6235	6124	6124	6124	6124	6124	6124	6235	6235	6235	6235	6349	6235	6235	6349	6468	6468	6468	6235	6349	6349	6235	6124	6235	6235	6235	6235	6235	0	0	0	0	0	0	0	0	0	0	0	0	0	3475	3546	3546	3475	3510	3475	3475	3475	3440	3440	3440	3440	0	6349	6235	6235	6124	6235	6018	6124	6124	6124	6124	6124	6124	6124	6124	6124	6124	6124	6124	6124	6124	6124	6124	6124	6124	6124	6124	6124	6235	6124	6124	6124	6124	6124	6124	6124	6124	6124	6124	6124	6124	6124	6124	6124	6124	6124	6124	6124	6235	6124	6235	6235	6235	6124	6124	6124	6124	6124	6124	6124	6124	6124	6124	6124	6124	6235	6235	6235	6235	6235	6235	6235	6235	6124	6124	6124	6124	6124	6124	6124	6124	6124	6235	6235	6235	6235	6235	6124	6124	6124	6124	6124	6124	6124	6235	6235	6235	6235	6235	6235	6235	6349	6349	6349	6349	6349	6349	6349	6349	6349	6124	6124	6124	6235	6235	6235	6124	6235	6235	6235	6235	6235	6124	6124	6124	6235	6235	6124	6235	6235	6349	6349	6349	6235	6235	6235	6235	6124	6124	6124	6124	6124	6124	6124	6124	6124	6124	6235	6235	6235	6235	6349	6349	6349	6349	6349	6349	6349	6235	6235	6349	6349	6124	0	0	0	0	0	0	0	0	0	0	0	0	6349	6235	6349	6349	6235	6235	6235	6235	6235	6235	6349	6349	6349	6349	6349	6349	6349	6349	6468	6468	6468	6468	6468	6468	6349	6468	6349	6349	6349	6468	6468	6349	6349	6349	0	0	0	0	6349	6349	6349	6349	6349	6468	6468	6468	6349	6349	6468	6349	6235	6235	6124	6124	6235	6235	6124	6124	6235	6235	6235	6235	6124	6124	6235	6124	6235	6235	6349	6349	6349	6349	6349	6349	6349	6235	6235	6235	6235	6124	6018	6018	6124	6124	6124	6124	6124	6124	6124	6124	6018	6018	6018	0	0	0	0	0	2551	2570	2570	2570	2570	2570	2570	2570	2551	2532	2551	2496	2496	2496	2496	2496	2496	2496	2496	2496	2496	0	0	0	0	0	0	0	0	0	0	0	0	0	0	0	0	0	0	0	0	0	0	0	0	0	0	0	0	0	0	0	0	0	0	0	0	0
0	0	887	887	891	894	896	896	898	903	905	908	913	915	917	920	920	922	925	927	927	937	940	942	945	948	950	953	953	953	953	1102	1102	1098	1098	1098	1098	1098	1088	1091	1098	1102	1102	1102	1102	1098	1098	1098	1098	1098	1098	1098	1098	1098	1098	1098	1098	1098	1098	1098	1098	1095	1098	1098	1102	1105	1109	1109	1109	1113	1113	1113	0	0	0	0	0	0	0	0	5815	5719	5719	5815	5815	5719	5815	5915	5915	5915	0	0	0	0	0	0	0	0	0	5915	5915	5915	6349	6235	6235	6349	6349	6349	6235	6235	6349	6349	6349	6349	6235	6235	6235	6235	6235	6235	6235	6235	6235	6235	6235	6349	6235	6235	6235	6235	6235	6235	6235	6235	6235	6349	6349	6235	6235	0	0	6349	6349	6349	6349	6349	6349	6235	6235	6235	6235	6235	6235	6235	6235	6235	6235	6235	6235	6235	6235	6235	6235	6235	6235	6235	6235	6235	6235	6235	6235	6235	6235	6349	6235	6235	6349	6349	6349	6349	6235	6235	6235	6349	6349	6349	6349	6349	6349	6349	6235	6235	6235	6235	6124	6124	6124	6124	6235	6235	6349	6235	6235	6235	6235	6124	6124	6124	6235	6235	6124	6124	6124	6235	6235	6235	6235	6235	6235	6124	6124	6124	6124	6124	6018	6018	6235	6235	6235	6235	6235	6235	6235	6124	6124	6124	6124	6124	6124	6124	6235	6235	6235	6235	0	0	0	0	0	6349	6349	6349	6349	6349	6235	6235	6235	6235	6235	6235	6124	6235	6235	6235	6235	6235	6235	6349	6235	6349	6468	6592	6592	6592	6468	6235	6235	6235	6235	6235	6235	6235	0	0	0	0	0	0	0	3510	3510	0	0	0	0	0	0	0	3546	3546	3475	3510	3475	3475	3475	3440	3440	3440	3440	0	6235	6235	6235	6235	6235	6124	6124	6124	6124	6124	6018	6124	6124	6124	6124	6124	6124	6124	6124	6124	6124	6124	6124	6124	6235	6235	6235	6235	6235	6124	6124	6124	6124	6124	6124	6124	6124	6235	6235	6124	6124	6124	6124	6124	6124	6124	6235	6468	6235	6235	6235	6235	6235	6235	6124	6124	6235	6124	6124	6124	6124	6124	6124	6124	6235	6235	6235	6349	6235	6235	6235	6235	6235	6124	6124	6124	6124	6124	6124	6124	6124	6235	6235	6349	6235	6235	6235	6124	6124	6124	6124	6124	6124	6235	6235	6235	6235	6235	6349	6349	6349	6349	6349	6349	6349	6349	6349	6349	6349	6235	6235	6235	6235	6235	6235	6235	6235	6235	6235	6124	6124	6124	6124	6235	6235	6235	6235	6235	6235	6349	6349	6468	6349	6349	6235	6235	6124	6235	6124	6124	6235	6124	6235	6235	6235	6235	6235	6349	6349	6349	6349	6349	6349	6349	6349	6349	6235	6235	6349	6349	6349	0	0	0	0	0	0	0	0	0	0	0	0	0	6349	6349	6349	6349	6235	6235	6235	6235	6349	6349	6349	6349	6468	6468	6468	6468	6468	6349	6349	6468	6468	6468	6468	6468	6349	6468	6468	6468	6349	6468	6468	6468	6468	6468	0	0	0	0	6349	6235	6349	6349	6349	6349	6349	6468	6349	6349	6349	6349	6349	6349	6235	6235	6235	6235	6235	6235	6349	6235	6235	6235	6235	6235	6235	6235	6349	6349	6349	6349	6349	6349	6349	6349	6349	6235	6235	6235	6235	6235	6124	6124	6124	6124	5915	6018	6018	6018	6124	6124	6124	6018	6018	0	0	0	0	0	2570	2589	2570	2570	2570	2570	2570	2570	2551	2551	2532	2514	2496	2496	2496	2496	2496	2496	2514	2496	2496	0	0	0	0	0	0	0	0	0	0	0	0	0	0	0	0	0	0	0	0	0	0	0	0	0	0	0	0	0	0	0	0	0	0	0	0	0
0	0	889	889	891	894	896	898	901	903	905	908	913	915	917	920	922	925	925	927	927	935	940	942	945	948	953	953	953	955	955	955	1102	1098	1098	1098	1098	1098	1088	1091	1098	1102	1102	1098	1095	1095	1098	1098	1098	1098	1098	1098	1098	1098	1098	1105	1105	1102	1105	1102	1098	1095	1098	1098	1105	1105	1109	1109	1109	1113	1113	1113	0	0	0	0	0	0	0	0	0	5719	5719	5815	5815	5815	5815	5915	5815	5915	5915	6018	6018	0	0	0	0	0	0	0	0	0	6468	6349	6235	6349	6349	6349	6349	6349	6349	6349	6349	6349	6349	6235	6235	6349	6349	6349	6349	6349	6349	6349	6349	6349	6349	6235	6235	6235	6235	6235	6235	6235	6235	6235	6349	0	0	0	0	0	6349	6235	6235	6235	6235	6235	6235	6235	6235	6235	6235	6235	6235	6235	6235	6235	6235	6235	6235	6235	6235	6235	6349	6235	6235	6349	6349	6349	6235	6235	6235	6235	6235	6235	6235	6235	6235	6235	6235	6235	6235	6235	6349	6349	6349	6349	6349	6349	6349	6235	6235	6235	6124	6124	6124	6124	6235	6235	6235	6235	6235	6235	6235	6124	6124	6124	6235	6235	6124	6124	6124	6235	6235	6235	6235	6235	6235	6235	6235	6235	6235	6235	6235	6235	6235	6235	6124	6124	6124	6235	6235	6124	6124	6124	6124	6124	6124	6124	6235	6235	6235	6235	0	0	0	0	0	6349	6349	6349	6349	6349	6235	6349	6349	6235	6235	6235	6235	6235	6235	6235	6349	6349	6349	6349	6349	6468	6468	6592	6592	6592	6592	6235	6235	6235	6235	6349	6235	6235	0	0	0	0	0	3546	3510	3475	3475	3475	0	0	0	0	0	3475	3475	3510	3475	3475	3475	3475	3475	3440	3440	3440	3440	0	6235	6235	6235	6235	6235	6124	6124	6124	6124	6124	6124	6124	6124	6124	6124	6124	6124	6124	6124	6124	6124	6124	6124	6124	6124	6124	6235	6235	6235	6235	6124	6124	6124	6235	6124	6124	6124	6124	6235	6124	6124	6124	6124	6124	6124	6124	6468	6468	6235	6349	6349	6349	6235	6235	6235	6235	6235	6124	6124	6124	6124	6124	6124	6235	6349	6349	6349	6349	6349	6349	6349	6235	6235	6235	6124	6124	6124	6124	6124	6124	6124	6235	6235	6349	6349	6349	6235	6235	6124	6124	6124	6235	6235	6235	6235	6235	6235	6349	6349	6349	6349	6349	6468	6349	6349	6349	6349	6349	6349	6235	6235	6349	6349	6349	6235	6235	6235	6235	6235	6235	6235	6235	6235	6235	6349	6349	6235	6235	6349	6349	6349	6468	6349	6349	6349	6235	6235	6235	6124	6124	6235	6235	6349	6235	6235	6349	6235	6349	6349	6349	6349	6349	6349	6349	6349	6235	6235	6235	6349	0	0	0	0	0	0	0	0	0	0	0	6468	6349	6349	6349	6468	6349	6468	6349	6349	6235	6235	6349	6349	6349	6349	6349	6468	6468	6468	6468	6468	6468	6468	6592	6592	6592	6468	6468	6349	6468	6468	6468	6468	6468	6468	6592	6592	6592	0	0	0	0	6349	6349	6349	6349	6349	6349	6349	6349	6349	6349	6349	6349	6349	6349	6235	6235	6235	6235	6235	6235	6349	6235	6349	6349	6235	6235	6235	6349	6349	6349	6349	6349	6349	6349	6349	6349	6349	6235	6235	6235	6235	6235	6235	6235	6124	6124	5915	6124	6018	6124	6124	6124	6124	6124	6018	0	0	0	0	0	2570	2570	2570	2570	2570	2570	2570	2570	2551	2551	2551	2532	2514	2514	2496	2496	2514	2514	2514	2514	2514	0	0	0	0	0	0	0	0	0	0	0	0	0	0	0	0	0	0	0	0	0	0	0	0	0	0	0	0	0	0	0	0	0	0	0	0	0
0	0	891	889	894	896	901	903	903	905	908	908	910	915	917	920	922	925	925	927	927	935	940	942	945	950	953	955	955	958	958	958	0	1098	1098	1098	1098	1098	1088	1095	1091	1102	1102	1102	1095	1102	1098	1098	1098	1095	1095	1095	1095	1098	1095	1102	1102	1102	1098	1102	1098	1095	1095	1098	1105	1105	1109	1109	1109	1109	1109	1113	1113	1113	0	0	0	0	0	0	0	5719	5815	5815	5815	5815	5915	5915	5915	5915	5915	6018	6018	0	0	0	0	0	0	0	0	0	6349	6349	6349	6235	6349	6349	6349	6235	6235	6349	6349	6349	6349	6349	6349	6349	6349	6349	6349	6349	6349	6349	6349	6349	6349	6235	6235	6235	6235	6349	6235	6235	6235	6235	0	0	0	0	0	0	6349	6235	6235	6349	6349	6349	6349	6235	6235	6235	6235	6235	6235	6235	6235	6235	6235	6235	6235	6349	6349	6235	6349	6235	6235	6349	6349	6349	6235	6235	6235	6235	6235	6235	6235	6235	6235	6235	6235	6235	6235	6349	6349	6349	6349	6349	6349	6349	6349	6349	6349	6349	6235	6235	6235	6235	6235	6235	6349	6235	6235	6349	6235	6235	6235	6124	6349	6349	6124	6124	6235	6235	6235	6349	6349	6349	6468	6349	6235	6349	6349	6349	6349	6235	6235	6235	6235	6124	6124	6235	6124	6124	6124	6124	6124	6124	6124	6124	6235	6235	6235	6235	0	0	0	0	0	6349	6349	6349	6349	6468	6349	6349	6349	6349	6235	6235	6235	6235	6349	6235	6349	6349	6235	6468	6468	6468	6468	6592	6592	6592	6592	6592	6468	6349	6235	6349	6235	6235	0	0	0	0	3546	3546	3475	3510	3475	3440	3440	3440	0	0	0	3475	3475	3510	3475	3510	3475	3475	3475	3440	3440	3440	3440	0	6349	6235	6235	6235	6235	6124	6124	6124	6124	6124	6124	6124	6124	6124	6124	6124	6124	6124	6124	6124	6124	6124	6124	6124	6124	6235	6124	6124	6235	6235	6124	6124	6235	6235	6235	6124	6235	6235	6235	6235	6124	6124	6124	6124	6124	6235	6349	6349	6235	6468	6349	6349	6235	6235	6124	6235	6124	6124	6124	6124	6124	6124	6235	6235	6235	6349	6349	6349	6349	6349	6349	6349	6349	6349	6349	6349	6349	6349	6124	6124	6124	6349	6349	6349	6349	6349	6349	6235	6235	6235	6235	6235	6235	6235	6235	6235	6235	6349	6349	6349	6349	6349	6468	6349	6468	6349	6349	6349	6349	6349	6349	6349	6349	6349	6349	6349	6349	6235	6349	6349	6349	6235	6235	6235	6349	6349	6349	6349	6349	6349	6349	6468	6468	6349	6349	6235	6235	6124	6124	6124	6235	6235	6349	6349	6349	6349	6349	6349	6349	6349	6349	6349	6349	6349	6349	6349	6349	0	0	0	0	0	0	0	0	0	0	0	0	6720	6592	6349	6468	6349	6468	6468	6468	6468	6349	6468	6349	6349	6349	6349	6468	6349	6468	6468	6468	6468	6592	6468	6592	6592	6592	6592	6592	6468	6468	6468	6468	6468	6468	6592	6592	6592	6592	6592	0	0	0	6349	6349	6235	6349	6349	6349	6349	6349	6349	6349	6349	6349	6349	6349	6349	6235	6235	6349	6349	6349	6349	6349	6349	6349	6349	6349	6349	6349	6349	6349	6349	6349	6349	6349	6349	6349	6468	6349	6349	6349	6235	6235	6349	6235	6235	6235	6018	6018	6235	6124	6124	6124	6124	6124	6124	0	0	0	0	0	0	0	2570	2570	2570	2570	2570	2570	2570	2551	2551	2551	2514	2514	2496	2496	2496	2514	2514	2514	2514	2514	0	0	0	0	0	0	0	0	0	0	0	0	0	0	0	0	0	0	0	0	0	0	0	0	0	0	0	0	0	0	0	0	0	0	0	0	0
0	0	894	889	898	901	903	905	908	908	910	910	913	915	915	917	922	925	927	930	930	935	940	942	948	950	953	955	955	958	961	963	966	969	974	974	1098	1098	1091	1091	1091	1095	1095	1095	1095	1098	1098	1098	1098	1098	1095	1098	1098	1098	1102	1102	1102	1098	1098	1098	1098	1095	1098	1098	1102	1105	1105	1105	1109	1113	1113	1113	1113	1113	0	0	0	0	0	0	0	0	5815	5815	5915	5915	5915	5915	5915	6018	6018	6018	6018	0	0	0	0	0	0	0	0	0	6349	6349	6349	6235	6235	6235	6235	6235	6235	6235	6349	6349	6349	6349	6349	6349	6349	6349	6349	6349	6349	6468	6468	6468	6468	6349	6349	6349	6349	6349	6349	6235	6235	6235	0	0	0	0	0	0	0	6235	6235	6349	6349	6349	6349	6349	6349	6235	6235	6235	6235	6349	6349	6235	6349	6349	6349	6349	6349	6349	6349	6349	6349	6349	6349	6349	6235	6235	6235	6235	6235	6235	6349	6349	6349	6349	6349	6349	6349	6349	6349	6349	6349	6349	6349	6349	6349	6349	6349	6349	6235	6235	6235	6235	6235	6235	6468	6235	6235	6235	6235	6235	6235	6235	6235	6349	6235	6235	6349	6468	6349	6349	6349	6349	6468	6468	6349	6468	6468	6468	6349	6349	6235	6235	6124	6124	6124	6235	6124	6124	6124	6124	6124	6124	6124	6235	6235	6235	6235	6235	6235	0	0	0	0	6349	6349	6349	6349	6468	6349	6235	6349	6349	6349	6235	6235	6235	6349	6349	6349	6349	6235	6349	6468	6468	6468	6592	6592	6592	6592	6592	6349	6349	6349	6349	6349	6235	0	0	0	0	3546	3546	3546	3475	3475	3475	3475	3475	3475	3475	3510	3510	3475	3510	3475	3475	3475	3475	3475	3475	3440	3440	3440	0	6349	6235	6235	6235	6235	6124	6124	6124	6124	6124	6124	6124	6235	6235	6124	6235	6124	6124	6124	6124	6124	6124	6124	6124	6124	6124	6124	6349	6235	6235	6124	6235	6235	6235	6235	6235	6235	6349	6349	6349	6235	6235	6235	6235	6235	6235	6235	6349	6235	6349	6468	6349	6349	6235	6235	6349	6124	6124	6124	6124	6235	6235	6235	6235	6235	6349	6349	6349	6349	6468	6349	6349	6349	6349	6349	6468	6349	6349	6349	6124	6349	6349	6349	6235	6235	6235	6349	6349	6235	6349	6349	6349	6349	6235	6235	6235	6235	6349	6349	6349	6349	6468	6468	6468	6468	6468	6468	6468	6468	6349	6468	6349	6349	6349	6349	6349	6349	6349	6349	6349	6349	6468	6349	6349	6349	6468	6349	6349	6349	6349	6349	6468	6349	6349	6235	6235	6235	6235	6124	6124	6349	6349	6349	6349	6349	6349	6349	6349	6349	6349	6349	6349	6349	6468	6349	6349	6349	0	0	0	0	0	0	0	0	0	6853	6853	6853	6853	6720	6468	6349	6468	6468	6468	6468	6468	6468	6468	6468	6468	6468	6468	6468	6468	6468	6468	6468	6592	6592	6592	6592	6592	6592	6592	6592	6468	6592	6592	6468	6468	6592	6592	6592	6592	6592	6592	0	0	0	6349	6349	6349	6349	6349	6349	6349	6349	6468	6468	6468	6349	6468	6349	6349	6349	6235	6349	6349	6349	6349	6349	6349	6468	6468	6349	6349	6349	6349	6349	0	6349	6349	6468	6468	6349	6468	6468	6349	6468	6349	6349	6349	6235	6235	6235	6235	6235	6235	6124	6124	6124	6124	6124	6124	0	0	0	0	0	0	0	2570	2570	2570	2570	2570	2570	2570	2551	2551	2551	2514	2514	2496	2496	2496	2514	2496	2496	2496	2496	0	0	0	0	0	0	0	0	0	0	0	0	0	0	0	0	0	0	0	0	0	0	0	0	0	0	0	0	0	0	0	0	0	0	0	0	0
0	0	898	905	905	905	908	910	910	910	910	910	913	915	915	917	922	925	927	927	932	932	940	945	948	950	953	955	955	958	961	961	969	974	974	980	980	1098	1091	1091	1091	1095	1095	1095	1098	1098	1098	1098	1098	1098	1098	1098	1098	1102	1102	1102	1102	1098	1098	1102	1098	1095	1095	1095	1102	1105	1105	1105	1109	1109	1113	1113	1113	0	0	0	0	0	0	0	0	0	5815	5915	5915	5915	5915	5915	5915	5915	5915	5915	0	0	0	0	0	0	0	0	0	0	6349	6349	6349	6235	6235	6235	6235	6235	6235	6235	6349	6349	6349	6349	6349	6349	6349	6349	6349	6349	6349	6468	6349	6349	6349	6349	6349	6349	6349	6349	6349	6349	6349	6235	0	0	0	0	0	0	0	0	0	6349	6349	0	6349	6349	6349	6349	6349	6235	6349	6349	6349	6349	6349	6349	6349	6349	6349	6349	6349	6349	6349	6349	6349	6349	6235	6349	6235	6235	6349	6349	6349	6349	6349	6349	6349	6349	6349	6349	6349	6349	6349	6349	6349	6349	6349	6349	6349	6349	6235	6349	6235	6349	6468	6468	6468	6235	6124	6235	6235	6349	6235	6235	6468	6349	6235	6349	6349	6468	6349	6349	6468	6349	6468	6468	6349	6468	6468	6468	6468	6349	6235	6235	6235	6235	6235	6235	6124	6124	6124	6124	6124	6124	6124	6235	6235	6235	6235	6349	6349	0	0	0	0	6349	6468	6468	6468	6468	6349	6349	6349	6349	6349	6349	6235	6349	6349	6468	6349	6349	6235	6235	6235	6468	6468	6592	6592	6592	6592	6468	6468	6349	6349	6349	6349	0	0	0	0	3583	3583	3546	3546	3475	3510	3510	3510	3510	3475	3510	3510	3510	3510	3510	3510	3475	3475	3475	3475	3475	3440	3475	3475	3475	6349	6235	6235	6235	6235	6124	6235	6235	6235	6235	6235	6235	6349	6349	6235	6235	6235	6235	6124	6124	6124	6124	6124	6124	6124	6124	6124	6235	6235	6235	6124	6124	6235	6235	6349	6349	6349	6349	6349	6349	6349	6235	6235	6235	6235	6235	6349	6349	6349	6468	6468	6468	6349	6349	6349	6349	6349	6124	6124	6124	6235	6235	6235	6235	6235	6349	6349	6349	6468	6468	6468	6468	6468	6468	6468	6468	6468	6468	6349	6124	6349	6349	6349	6235	6235	6349	6349	6349	6468	6468	6468	6349	6349	6349	6349	6349	6235	6349	6468	6468	6349	6468	6468	6468	6468	6468	6468	6468	6468	6468	6468	6349	6468	6468	6349	6349	6349	6235	6349	6349	6468	6468	6349	6349	6349	6468	6468	6349	6349	6468	6349	6468	6349	6349	6349	6235	6235	6349	6349	6349	6349	6349	6468	6349	6349	6349	6349	6349	6349	6349	6349	6349	6468	6468	6349	6349	0	0	0	0	0	0	0	0	0	6720	6720	6853	6853	6853	6720	6468	6468	6468	6468	6468	6468	6468	6468	6468	6468	6468	6468	6468	6592	6592	6592	6468	6468	6468	6468	6468	6468	6592	6592	6592	6592	6468	6592	6592	6468	6468	6592	6592	6592	6592	6592	0	0	0	0	6349	6349	6349	6349	6349	6349	6468	6468	6468	6468	6468	6468	6468	6468	6468	6349	6349	6349	6349	6349	6349	6349	6349	6468	6468	6468	6349	6349	6349	6349	0	0	6468	6468	6468	6349	6349	6468	6349	6349	6349	6235	6349	6349	6235	6235	6235	6235	6235	6235	6235	6235	6235	6235	6124	0	0	0	0	0	0	0	2570	2589	2589	2570	2570	2570	2570	2551	2551	2551	2532	2514	2496	2496	2496	2496	2496	2496	2496	2496	0	0	0	0	0	0	0	0	0	0	0	0	0	0	0	0	0	0	0	0	0	0	0	0	0	0	0	0	0	0	0	0	0	0	0	0	0
0	0	898	910	913	913	913	913	913	913	915	913	915	920	920	920	922	925	927	930	932	940	942	948	948	950	953	955	955	961	966	972	977	977	980	980	983	983	1091	1091	1091	1098	1095	1095	1095	1098	1098	1098	1098	1098	1098	1098	1098	1102	1102	1102	1102	1098	1095	1098	1095	1095	1095	1095	1105	1109	1109	1105	1113	1113	1113	1296	1296	1296	0	0	0	0	0	0	0	5815	5815	5815	5915	5915	5915	5915	5915	6018	6018	6018	0	0	0	0	0	0	0	0	0	0	6349	6349	6235	6349	6235	6235	6235	6235	6235	6235	6349	6349	6349	6349	6349	6468	6349	6349	6349	6349	6349	6349	6468	6468	6592	6592	6592	6468	6468	6349	6468	6349	6349	0	0	0	0	0	0	0	0	0	0	0	0	0	6349	6349	6349	6349	6349	6349	6349	6468	6468	6349	6349	6349	6349	6349	6349	6349	6349	6468	6468	6349	6349	6349	6349	6349	6349	6349	6349	6349	6349	6349	6349	6349	6349	6349	6349	6349	6349	6349	6349	6349	6349	6349	6349	6349	6349	6349	6349	6349	6349	6349	6349	6468	6468	6349	6349	6349	6235	6235	6235	6235	6235	6235	6349	6468	6468	6468	6468	6468	6468	6468	6468	6468	6468	6592	6468	6468	6468	6349	6349	6235	6235	6235	6235	6235	6235	6235	6124	6124	6235	6124	6124	6235	6235	6235	6349	6349	6349	6235	6235	6235	0	6468	6468	6468	6468	6468	6349	6235	6349	6349	6349	6349	6349	6349	6468	6468	6468	6468	6349	6349	6235	6468	6468	6592	6592	6592	6592	6592	6468	6349	6349	6349	0	0	0	0	0	3583	3583	3546	3546	3475	3510	3510	3510	3475	3475	3475	3510	3510	3510	3510	3510	3475	3475	3475	3475	3475	3475	3475	3475	3475	3475	6235	6235	6235	6235	6124	6235	6235	6235	6349	6349	6349	6468	6468	6468	6349	6349	6349	6235	6235	6124	6124	6124	6235	6235	6124	6124	6235	6235	6235	6124	6235	6349	6349	6468	6349	6349	6468	6468	6468	6349	6349	6235	6235	6349	6235	6468	6349	6349	6349	6468	6468	6349	6349	6349	6349	6349	6124	6124	6124	6235	6124	6235	6235	6235	6349	6349	6349	6468	6468	6468	6468	6468	6468	6468	6468	6468	6468	6468	6349	6349	6349	6349	6349	6349	6349	6349	6468	6468	6468	6468	6468	6468	6349	6349	6349	6235	6349	6468	6468	6468	6468	6468	6468	6468	6468	6468	6468	6468	6468	6468	6468	6349	6349	6349	6349	6349	6349	6349	6349	6468	6349	6349	6349	6349	6592	6468	6468	6468	6349	6468	6468	6468	6349	6349	6235	6235	6349	6349	6349	6468	6349	6468	6349	6349	6349	6349	6349	6349	6468	6349	6468	6468	6468	6468	6349	0	0	0	0	0	0	0	0	6720	6592	6720	6720	6853	6853	6720	6468	6468	6468	6468	6468	6468	6349	6468	6468	6468	6468	6592	6468	6592	6592	6592	6592	6592	6592	6592	6592	6468	6592	6592	6592	6592	6468	6468	6468	6468	6592	6592	6592	6592	6592	0	0	0	0	0	6468	6468	6349	6349	6468	6468	6468	6468	6468	6468	6468	6468	6468	6468	6468	6468	6468	6468	6468	6468	6468	6468	6468	6468	6468	6468	6349	6349	6349	6349	0	0	6468	6468	6349	6349	6349	6468	6349	6468	6349	6349	6349	6349	6235	6235	0	0	6235	6235	6235	6235	6235	6235	0	0	0	0	0	0	0	0	2589	2589	2589	2589	2570	2570	2570	2551	2551	2551	2532	2514	2514	2496	2496	2514	2496	2496	2496	2496	0	0	0	0	0	0	0	0	0	0	0	0	0	0	0	0	0	0	0	0	0	0	0	0	0	0	0	0	0	0	0	0	0	0	0	0	0
0	0	0	913	913	917	915	915	917	917	917	917	920	922	920	922	925	927	930	935	937	940	945	948	948	950	953	955	955	958	966	974	977	980	983	983	983	983	983	1091	1102	1102	1102	1102	1102	1102	1098	1098	1098	1098	1098	1098	1098	1102	1102	1098	1098	1098	1095	1098	1098	1098	1098	1095	1109	1109	1105	1105	1105	1113	1301	1296	1296	1287	1287	0	0	0	0	0	0	5815	5915	5915	5915	5915	5915	6018	6018	5915	5915	5915	5915	0	0	0	6349	6349	6349	6349	6349	6349	6235	6235	6349	6235	6235	6235	6235	6235	6235	6235	6349	6349	6349	6349	6468	6468	6349	6349	6349	6349	6349	6349	6349	6349	6349	6468	6468	6468	6468	6468	6468	6349	6349	0	0	0	0	6349	6349	6349	0	0	0	0	0	0	0	6349	6349	6349	6349	6349	6349	6468	6468	6349	6349	6349	6349	6468	6468	6349	6349	6468	6468	6349	6349	6349	6349	6349	6349	6349	6349	6349	6349	6349	6349	6468	6468	6468	6468	6468	6349	6468	6349	6349	6349	6349	6349	6349	6349	6349	6349	6349	6349	6349	6349	6349	6468	6349	6349	6349	6235	6235	6235	6235	6349	6235	6349	6468	6468	6468	6468	6468	6468	6468	6592	6592	6468	6592	6592	6468	6468	6349	6349	6235	6235	6235	6235	6235	6235	6235	6235	6235	6235	6235	6235	6235	6235	6349	6349	6468	6468	6349	6349	6468	6592	6468	6468	6468	6468	6468	6349	6235	6349	6349	6468	6468	6468	6468	6468	6592	6468	6468	6468	6468	6468	6468	6468	6592	6592	6592	6592	6468	6468	6468	6468	6468	0	0	0	0	3583	3583	3583	3583	3546	3475	3475	3475	3475	3475	3475	3475	3475	3510	3510	3510	3510	3510	3510	3475	3475	3475	3475	3475	3510	3475	3475	3475	6235	6349	6349	6235	6235	6235	6235	6349	6349	6349	6468	6468	6468	6468	6349	6468	6349	6349	6235	6235	6235	6235	6235	6124	6124	6235	6349	6235	6235	6235	6349	6349	6468	6468	6468	6468	6468	6468	6468	6349	6349	6349	6349	6349	6468	6349	6349	6349	6468	6468	6468	6349	6349	6349	6349	6349	6235	6124	6235	6235	6235	6235	6235	6349	6468	6468	6468	6592	6468	6468	6468	6468	6468	6468	6468	6468	6468	6349	6349	6349	6349	6349	6349	6349	6349	6468	6468	6468	6468	6468	6468	6468	6468	6468	6468	6468	6468	6468	6468	6468	6468	6468	6468	6468	6468	6468	6468	6468	6468	6468	6468	6349	6349	6349	6349	6349	6468	6468	6468	6468	6468	6468	6468	6592	6468	6468	6468	6468	6468	6468	6468	6349	6349	6349	6349	6349	6349	6468	6468	6468	6468	6349	6349	6349	6349	6349	6349	6468	6349	6468	6468	6468	6468	6592	6592	6468	6468	0	0	0	0	0	6592	6592	6720	6720	6720	6720	6720	6468	6468	6468	6349	6349	6468	6349	6468	6468	6592	6468	6592	6468	6592	6468	6592	6592	6592	6592	6592	6592	6468	6592	6592	6592	6592	6592	6592	6592	6592	6720	6720	6720	0	0	0	0	0	0	0	6468	6349	6468	6468	6468	6468	6468	6468	6468	6592	6592	6468	6468	6592	6592	6592	6592	6592	6592	6468	6468	6468	6468	6468	6468	6468	6468	6468	6468	6468	0	0	0	6468	6349	6349	0	0	0	6468	6349	6349	6349	6349	0	0	0	0	0	0	0	0	0	0	0	0	0	0	0	0	0	2609	2589	2589	2589	2570	2570	2570	2551	2551	2551	2532	2532	2514	2496	2496	2496	2496	2496	2496	2496	2496	0	0	0	0	0	0	0	0	0	0	0	0	0	0	0	0	0	0	0	0	0	0	0	0	0	0	0	0	0	0	0	0	0	0	0	0	0
0	0	0	913	915	920	920	920	920	922	920	922	922	925	925	927	927	930	932	937	937	940	945	948	950	950	955	955	958	961	966	974	977	980	980	983	983	983	983	988	1000	997	997	1102	1109	1109	1102	1102	1098	1098	1098	1098	1098	1098	1098	1098	1098	1098	1098	1098	1098	1091	1091	1091	1109	1109	1113	1113	1105	1296	1301	1296	1296	1291	1291	1291	0	0	0	0	0	0	5915	6018	5915	5915	5915	6018	6018	6018	6018	6124	6124	6235	6235	6349	6349	6349	6349	6349	6349	6349	6235	6235	6349	6235	6235	6235	6235	6235	6235	6235	6349	6349	6349	6468	6468	6468	6349	6468	6349	6468	6468	6349	6349	6468	6468	6592	6468	6468	6468	6468	6468	6468	6468	6468	6468	0	6349	6349	6349	6349	0	0	0	0	0	0	0	6349	6349	6349	6468	6349	6468	6468	6592	6468	6468	6468	6468	6468	6468	6468	6468	6592	6592	6468	6349	6349	6349	6349	6349	6349	6349	6349	6349	6349	6349	6349	6468	6468	6468	6349	6349	6349	6349	6349	6349	6349	6349	6349	6468	6468	6468	6349	6349	6349	6349	6349	6349	6349	6349	6349	6349	6349	6349	6349	6349	6349	6468	6468	6592	6592	6468	6468	6468	6592	6592	6592	6592	6592	6592	6468	6468	6349	6349	6349	6349	6349	6349	6349	6349	6349	6349	6349	6349	6235	6349	6349	6349	6349	6349	6468	6468	6349	6349	6468	6592	6468	6468	6468	6468	6468	6349	6349	6349	6468	6468	6468	6349	6468	6468	6468	6468	6468	6468	6468	6468	6468	6468	6592	6592	6592	6468	6468	6468	6468	6468	6468	0	0	0	0	3583	3583	3583	3583	3583	3546	3510	3510	3475	3475	3475	3475	3475	3510	3510	3510	3510	3510	3510	3475	3475	3510	3475	3510	3510	3475	3475	3475	0	6468	6349	6235	6349	6235	6349	6349	6468	6349	6468	6468	6592	6468	6468	6468	6468	6349	6349	6349	6349	6349	6349	6235	6124	6349	6349	6235	6235	6235	6349	6468	6468	6468	6468	6468	6468	6468	6468	6349	6349	6349	6468	6468	6349	6468	6468	6468	6468	6468	6468	6349	6349	6349	6468	6349	6349	6235	6235	6349	6349	6349	6349	6468	6468	6468	6468	6468	6468	6468	6468	6468	6468	6468	6468	6468	6468	6468	6468	6468	6349	6349	6468	6349	6468	6468	6468	6468	6468	6468	6468	6592	6468	6468	6468	6468	6468	6592	6468	6468	6468	6468	6468	6468	6468	6468	6468	6468	6468	6468	6468	6468	6468	6468	6468	6468	6468	6468	6468	6468	6468	6468	6468	6592	6468	6468	6468	6592	6468	6468	6468	6468	6349	6349	6349	6349	6349	6468	6468	6468	6468	6468	6468	6468	6349	6349	6468	6468	6349	6349	6468	0	6592	6592	6468	6592	6468	6468	6468	6468	6468	6468	6468	6468	6720	6720	6720	6720	6720	6468	6468	6468	6349	6349	6468	6349	6468	6468	6592	6592	6592	6592	6592	6468	6592	6592	6592	6592	6592	6592	6592	6592	6592	6720	6592	6592	6592	6592	6720	6720	6720	6592	6592	0	0	0	0	0	0	0	6349	6468	6592	6592	6592	6468	6468	6592	6592	6592	6592	6592	6592	6720	6720	6720	6720	6592	6592	6468	6468	6468	6468	6468	6468	6468	6468	6468	6592	6468	6468	0	0	0	0	0	0	0	0	0	0	0	0	0	0	0	0	0	0	0	0	0	0	0	0	0	0	0	0	0	2609	2589	2570	2570	2570	2570	2551	2551	2551	2551	2551	2532	2532	2514	2514	2514	2496	2496	2496	2496	2496	0	0	0	0	0	0	0	0	0	0	0	0	0	0	0	0	0	0	0	0	0	0	0	0	0	0	0	0	0	0	0	0	0	0	0	0	0
0	0	0	917	922	920	920	920	922	922	922	922	925	925	927	925	930	932	937	937	940	942	942	945	948	950	953	955	958	961	966	974	977	980	983	985	985	985	988	988	1000	997	997	997	1109	988	988	985	985	1098	1098	1098	1098	1098	1098	1098	1098	1098	1098	1098	1098	1095	1095	1095	1109	1109	1113	1113	0	1296	1296	1296	1296	1291	1291	1296	1296	0	0	0	0	0	0	6018	6018	6018	5915	6018	6018	6018	6124	6124	6235	6235	6349	6349	6349	6349	6349	6349	6349	6235	6235	6235	6349	6349	6349	6235	6235	6235	6235	6235	6349	6349	6349	6468	6592	6468	6349	6349	6349	6468	6468	6349	6349	6468	6468	6720	6720	6468	6468	6468	6468	6468	6468	6468	6349	6349	6235	6235	6235	6235	0	0	0	0	0	0	0	6468	6468	6468	6468	6468	6468	6468	6592	6468	6592	6468	6468	6468	6468	6468	6468	6468	6720	6720	6349	6349	6349	6349	6349	6349	6349	6349	6468	6468	6468	6468	6468	6468	6468	6349	6349	6349	6349	6349	6349	6349	6468	6468	6592	6592	6468	6468	6468	6468	6468	6468	6468	6349	6349	6349	6349	6349	6468	6349	6468	6468	6592	6592	6592	6592	6468	6468	6592	6592	6592	6468	6468	6592	6592	6468	6468	6349	6349	6349	6349	6349	6468	6468	6349	6468	6468	6468	6349	6349	6349	6468	6468	6468	6468	6468	6468	6468	6468	6468	6468	6468	6468	6468	6468	6468	6468	6349	6349	6468	6468	6468	6468	6468	6592	6592	6468	6468	6468	6468	6468	6468	6468	6592	6592	6592	6592	6468	6468	6468	6468	6468	0	0	3621	3583	3621	3583	3621	3583	3583	3583	3510	3510	3510	3475	3475	3475	3475	3510	3510	3510	3510	3510	3510	3510	3510	3510	3510	3546	3546	3510	3510	3510	0	6468	6349	6235	6349	6349	6349	6468	6592	6592	6592	6468	6592	6468	6468	6468	6468	6349	6349	6349	6349	6349	6349	6349	6349	6349	6349	6349	6349	6349	6468	6468	6592	6592	6468	6468	6468	6468	6468	6468	6349	6349	6468	6468	6468	6468	6468	6468	6468	6468	6468	6468	6349	6349	6468	6349	6349	6349	6349	6349	6349	6349	6349	6468	6468	6468	6468	6468	6468	6468	6468	6468	6468	6468	6468	6468	6468	6468	6468	6468	6468	6468	6468	6468	6468	6468	6592	6468	6468	6468	6468	6468	6468	6468	6468	6468	6592	6592	6592	6468	6468	6468	6468	6468	6468	6468	6468	6468	6592	6468	6468	6468	6468	6468	6468	6468	6468	6468	6592	6592	6468	6592	6592	6592	6592	6592	6592	6592	6468	6468	6349	6468	6349	6349	6349	6349	6349	6468	6468	6468	6468	6468	6349	6349	6349	6349	6349	6468	6349	6349	0	0	6592	6592	6468	6592	6592	6592	6592	6468	6468	6468	6592	6468	6592	6592	6720	6720	6592	6468	6468	6468	6468	6468	6468	6468	6468	6468	6592	6592	6592	6592	6592	6592	6592	6592	6592	6592	6592	6592	6592	6592	6592	6720	6592	6592	6592	6592	6720	6592	6720	6720	6720	6720	0	0	0	0	0	6592	6468	6592	6592	6592	6468	6468	6468	6592	6592	6592	6592	6592	6720	6720	6720	6720	6720	6720	6720	6592	6592	6468	6592	6592	6468	6468	6468	6468	6468	6468	6349	6349	0	0	0	0	0	0	0	0	0	0	0	0	0	0	0	0	0	0	0	0	0	0	0	0	0	0	0	0	0	0	2570	2570	2570	2570	2551	2551	2532	2532	2532	2532	2514	2514	2514	2496	2496	2496	2496	2496	2496	0	0	0	0	0	0	0	0	0	0	0	0	0	0	0	0	0	0	0	0	0	0	0	0	0	0	0	0	0	0	0	0	0	0	0	0	0
0	0	0	920	920	922	922	922	922	925	925	927	932	932	932	932	932	940	940	940	940	942	942	945	948	950	953	955	958	961	966	974	980	983	985	988	988	988	991	997	1000	997	997	997	994	991	991	991	991	1102	1102	1102	1098	1098	1098	1098	1098	1098	1098	1098	1098	1095	1095	1098	1109	1109	1109	1109	0	1296	1296	1296	1296	1291	1296	1296	1301	1306	1306	0	0	0	0	0	6018	6018	6018	6018	6018	6124	6124	6124	6235	6235	6349	6349	6349	6349	6349	6349	6349	6349	6349	6349	6349	6349	6349	6235	6235	6235	6235	6235	6349	6349	6349	6349	6468	6468	6468	6349	6349	6468	6468	6468	6468	6592	6592	6720	6720	6592	6720	6592	6592	6592	6592	6592	6592	6592	6592	6349	6349	6349	6349	0	0	0	0	0	0	6468	6468	6468	6468	6468	6592	6592	6720	6592	6592	6592	6592	6592	6468	6468	6468	6592	6592	6592	0	0	0	0	0	6468	6468	6468	6592	6592	6592	6592	6592	6592	6592	0	0	0	0	6349	6349	6468	6592	6468	6592	6592	6592	6468	6468	6468	6468	6468	6468	6468	6349	6349	6349	6468	6468	6468	6468	6592	6592	6592	6592	6592	6592	6592	6592	6592	6592	6592	6592	6592	6592	6468	6468	6468	6468	6468	6468	6468	6468	6468	6468	6468	6468	6468	6468	6468	6468	6592	6592	6468	6468	6592	6592	6468	6468	6468	6468	6468	6468	6468	6468	6468	6468	6468	6468	6592	6592	6592	6592	6592	6468	6468	6468	6468	6468	6468	6468	6592	6592	6592	6592	6592	6592	6592	6592	6468	6592	6592	0	0	3621	3621	3621	3621	3621	3583	3583	3583	3546	3510	3510	3475	3475	3475	3510	3510	3510	3510	3510	3510	3510	3510	3510	3510	3546	3546	3546	3546	3510	3546	3546	3546	6468	6349	6349	6349	6592	6592	6592	6592	6592	6592	6592	6592	6468	6468	6468	6468	6468	6349	6349	6349	6349	6349	6349	6349	6468	6468	6468	6468	6468	6592	6592	6592	6592	6592	6592	6468	6468	6468	6468	6468	6468	6468	6468	6468	6468	6592	6468	6468	6468	6468	6468	6349	6468	6468	6468	6468	6468	6468	6468	6468	6468	6468	6468	6468	6468	6592	6468	6468	6468	6468	6468	6468	6468	6468	6468	6468	6468	6349	6349	6468	6468	6468	6468	6468	6592	6468	6468	6468	6468	6468	6468	6468	6468	6468	6468	6468	6468	6468	6592	6468	6468	6468	6468	6468	6592	6592	6592	6592	6468	6468	6468	6468	6468	6468	6468	6468	6592	6592	6592	6592	6720	6720	6592	6592	6592	6592	6592	6468	6349	6468	6349	6349	6349	6349	6349	6468	6468	6468	6468	6468	6349	6468	6468	6349	6349	0	0	0	0	0	6592	6592	6592	6592	6592	6592	6592	6468	6468	6468	6592	6592	6592	6592	6720	6720	6592	6592	6468	6468	6468	6468	6468	6468	6468	6468	6592	6592	6592	6592	6592	6592	6592	6468	6468	6468	6592	6592	6592	6592	6592	6592	6592	6592	6720	6720	6720	6720	6720	6720	6720	6720	0	0	0	0	0	6592	6592	6720	6720	6720	6592	6468	6468	6592	6592	6720	6592	6592	6720	6853	6853	6853	6720	6720	6720	6592	6592	6592	6592	6592	6468	6592	6468	6468	6592	6592	6468	6468	0	0	0	0	0	0	0	0	0	0	0	0	0	0	0	0	0	0	0	0	0	0	0	0	0	0	0	0	0	0	2570	2570	2570	2570	2551	2532	2532	2532	2532	2532	2514	2514	2496	2496	2496	2478	2478	2478	2478	0	0	0	0	0	0	0	0	0	0	0	0	0	0	0	0	0	0	0	0	0	0	0	0	0	0	0	0	0	0	0	0	0	0	0	0	0
0	0	0	920	925	922	922	925	925	930	935	942	940	942	937	937	937	940	940	940	940	940	942	945	945	950	953	955	958	961	963	974	980	983	985	988	988	991	994	997	1000	997	997	994	994	991	994	994	1023	1023	1102	1102	1098	1098	1098	1098	1098	1098	1098	1098	1098	1095	1098	1098	1102	1109	1109	1109	0	1296	1296	1296	1291	1291	1296	1296	1306	1306	1316	1316	1316	1316	0	0	0	0	6018	6018	6018	6235	6235	6235	6235	6235	6349	6349	6349	6349	6349	6235	6235	6235	6349	6349	6349	6349	6349	6349	6349	6349	6349	6349	6349	6468	6349	6468	6468	6468	6468	6468	6349	6468	6592	6592	6592	6592	6720	6720	6720	6720	6720	6720	6720	6592	6592	6720	6592	6592	6592	6468	6468	6468	6468	0	6468	6468	0	0	6592	6592	6592	6592	6592	6592	6592	6592	6720	6720	6720	6720	6720	6720	6720	6720	6468	6468	6720	6720	0	0	0	0	0	6468	6468	6592	6720	6720	6592	6592	6592	6592	6592	0	0	0	0	0	0	6468	6592	6592	6592	6592	6592	6468	6468	6468	6468	6468	6468	6349	6349	6349	6468	6468	6468	6468	6468	6592	6592	6592	6592	6592	6592	6592	6592	6592	6592	6592	6592	6592	6592	6592	6592	6468	6468	6468	6468	6468	6468	6468	6468	6468	6468	6468	6592	6468	6592	6592	6592	6468	6468	6592	6592	6468	6468	6468	6592	6468	6468	6468	6468	6468	6592	6592	6592	6592	6592	6592	6592	6592	6592	6592	6468	6468	6468	6468	6468	6592	6592	6592	6592	6592	6592	6592	6592	6592	6592	6592	0	0	3659	3621	3621	3621	3621	3583	3583	3583	3546	3546	3510	3510	3510	3510	3510	3510	3510	3510	3510	3510	3510	3510	3510	3546	3546	3546	3546	3546	3546	3546	3583	3583	6468	6349	6349	6349	6468	6592	6592	6592	6468	6592	6592	6592	6468	6468	6468	6468	6468	6468	6468	6468	6468	6468	6468	6468	6468	6468	6468	6468	6592	6592	6592	6592	6592	6592	6592	6468	6468	6468	6468	6468	6592	6468	6592	6592	6592	6592	6592	6592	6468	6468	6468	6468	6468	6468	6468	6468	6468	6468	6468	6468	6468	6468	6468	6468	6468	6468	6468	6468	6468	6468	6468	6468	6468	6468	6468	6468	6468	6349	6468	6468	6468	6468	6468	6468	6468	6468	6468	6468	6468	6468	6468	6468	6468	6592	6592	6592	6592	6468	6592	6592	6592	6468	6468	6468	6592	6592	6592	6592	6592	6468	6468	6468	6468	6592	6592	6592	6592	6592	6592	6592	6592	6853	6720	6592	6592	6592	6592	6468	6468	6468	6349	6349	6468	6468	6468	6468	6468	6468	6468	6468	6468	6468	6468	0	0	0	0	0	0	0	6592	6592	6592	6592	6592	6592	6592	6468	6468	6468	6592	6468	6468	6592	6592	6720	6720	6468	6468	6468	6468	6468	6468	6468	6468	6468	6468	6592	6720	6592	6592	6468	6592	6592	6468	6468	6592	6592	6592	6592	6592	6720	6592	6720	6720	6720	6720	6720	6720	6720	6720	6720	0	0	0	6853	6853	6853	6720	6720	6853	6720	6720	6468	6592	6592	6592	6720	6720	6720	6720	6853	6853	6853	6853	6720	6853	6720	6720	6592	6592	6592	6592	6468	6468	6592	6592	6592	6468	6468	0	0	0	0	0	0	0	0	0	0	0	0	0	0	0	0	0	0	0	0	0	0	0	0	0	0	0	0	0	0	2570	2570	2570	2551	2551	2532	2532	2532	2532	2514	2514	2514	2496	2496	2478	2478	2478	2478	2478	0	0	0	0	0	0	0	0	0	0	0	0	0	0	0	0	0	0	0	0	0	0	0	0	0	0	0	0	0	0	0	0	0	0	0	0	0
0	0	0	920	922	920	920	935	937	935	940	942	942	940	940	940	940	942	940	940	940	940	942	945	948	950	953	955	958	961	966	977	977	980	985	988	988	991	994	997	1000	1000	1000	1000	1000	977	977	1017	1023	1023	1020	1020	1098	1098	1095	1095	1095	1095	1098	1095	1098	1095	1098	1098	1105	1109	1113	1113	0	1296	1296	1296	1291	1291	1296	1296	1311	1311	1311	1316	1316	1316	0	0	0	0	0	0	0	6235	6235	6235	6235	6235	6349	6349	6349	6349	6349	6235	6349	6349	6349	6349	6349	6468	6468	6468	6468	6468	6468	6468	6468	6468	6468	6468	6592	6592	6468	6468	6349	6592	6592	6592	6592	6592	6720	6720	6720	6720	6720	6720	6720	6720	6720	6720	6592	6592	6592	6468	6468	6468	6592	6720	6468	6468	6468	6592	6592	6592	6592	6592	6592	6592	6592	6720	6720	6720	6720	6720	6720	6720	6720	6720	6720	6468	6720	6720	0	0	0	0	0	0	6468	6592	6720	6720	6592	6592	0	0	0	0	0	0	0	0	0	0	6592	6592	6720	6592	6592	6468	6468	6468	6468	6468	6468	6349	6468	6468	6468	6468	6592	6468	6592	6592	6592	6592	6592	6592	6592	6592	6592	6592	6592	6592	6592	6592	6592	6592	6592	6468	6468	6468	6468	6468	6468	6468	6592	6592	6592	6592	6592	6592	6592	6592	6592	6592	6592	6592	6592	6592	6592	6592	6592	6592	6592	6592	6468	6349	6592	6468	6592	6592	6592	6592	6720	6592	6592	6592	6468	6468	6468	6468	6468	6592	6592	6592	6592	6592	6592	6592	6592	6592	6592	6592	6592	0	3659	3659	3659	3621	3621	3621	3583	3583	3583	3546	3546	3510	3475	3510	3510	3510	3510	3510	3510	3510	3546	3510	3510	3510	3546	3546	3583	3583	3546	3583	3583	3583	6468	6235	6349	6349	6468	6468	6592	6592	6592	6468	6468	6468	6468	6592	6468	6468	6468	6468	6468	6468	6468	6468	6468	6468	6468	6468	6468	6468	6592	6592	6592	6592	0	0	0	0	0	6592	6592	6592	6592	6468	6592	6592	6592	6592	6468	6592	6468	6468	6468	6468	6592	6468	6468	6468	6468	6468	6468	6468	6468	6468	6468	6468	6468	6592	6468	6468	6468	6592	6468	6468	6468	6592	6468	6468	6468	6468	6468	6468	6592	6468	6468	6468	6592	6468	6468	6468	6468	6468	6592	6592	6592	6468	6592	6592	6592	6592	6592	6468	6468	6592	6592	6592	6592	6592	6468	6592	6592	6592	6468	6468	6592	6592	6592	6592	6592	6592	6720	6720	6992	6853	6853	6592	6592	6592	6592	6468	6468	6468	6468	6468	6468	6468	6468	6468	6592	6468	6592	6468	6468	6468	6468	0	0	0	0	0	0	0	0	6592	6592	6720	6592	6592	6592	0	6468	6468	0	6468	6468	6468	6592	6720	6720	6468	6468	0	0	0	0	0	0	6468	6468	0	6853	6853	6592	6468	6592	6592	0	0	0	0	0	0	0	6720	6720	6720	6720	6720	6720	6720	6720	6720	6853	6853	6853	6853	6853	6853	6853	6853	6853	6853	6853	6853	6720	6468	6468	6592	6592	6720	6720	6720	6853	6853	6853	6853	6853	6853	6853	6720	6720	6592	6592	6592	6592	6592	6592	6592	6592	6592	0	0	0	0	0	0	0	0	0	0	0	0	0	0	0	0	0	0	0	0	0	0	0	0	0	0	0	0	0	0	2629	2609	2589	2570	2570	2551	2551	2532	2532	2532	2532	2514	2532	2514	2514	2496	2496	2478	2496	2478	2478	0	0	0	0	0	0	0	0	0	0	0	0	0	0	0	0	0	0	0	0	0	0	0	0	0	0	0	0	0	0	0	0	0	0	0	0	0
0	0	0	0	922	920	945	945	940	940	942	942	942	942	942	940	940	942	942	940	940	942	942	945	948	950	953	955	958	961	966	972	972	980	985	985	988	991	994	997	1000	997	1000	1000	974	974	977	1017	1020	1020	1020	1020	1095	1095	1095	1095	1095	1095	1098	1098	1098	1095	1098	1102	1102	1105	1113	1113	0	1296	1296	1291	1291	1291	1291	1291	1296	1306	1311	1316	1316	1316	0	0	0	0	0	0	0	6235	6235	6235	6235	6235	6235	6235	6349	6235	6235	6235	6235	6235	6349	6349	6349	6468	6468	6592	6592	6592	6468	6592	6592	6592	6592	6592	6592	6592	6592	6592	6592	6592	6592	6592	6592	6592	6720	6720	6720	6720	6720	6720	6720	6720	6720	6720	6720	6720	6592	6592	6720	6720	6720	6720	6720	6720	6592	6592	6720	6720	6592	6592	6592	6592	6592	6592	6853	6853	6720	6720	6720	0	6720	6720	6720	0	0	0	0	0	0	0	0	0	0	0	0	0	0	0	0	0	0	0	0	0	0	0	0	0	6468	6592	6592	6592	6592	6592	6592	6468	6468	0	0	0	6468	6468	6468	6468	6592	6468	6468	6592	6592	6592	6592	6592	6592	6592	6720	6720	6720	6720	6720	6720	6720	6592	6592	6592	6592	6592	6468	6468	6468	6468	6592	6592	6592	6592	6592	6592	6592	6592	6592	6592	6592	6592	6592	6592	6592	6592	6592	6592	6592	6592	6592	6468	6592	6592	6592	6720	6720	6720	6720	6592	6592	6592	6468	6468	6468	6468	6468	6592	6592	6592	6592	6592	6592	6592	6592	6592	6592	6592	6592	6592	3659	3659	3659	3621	3621	3621	3583	3583	3583	3510	3546	3510	3475	3510	3510	3510	3510	3510	3510	3510	3510	3546	3546	3546	3546	3583	3583	3583	3583	3583	3583	0	6468	6235	6349	6349	6468	6468	6592	6592	6592	6468	6468	6468	6468	6468	6468	6468	6468	6468	6468	6468	6592	6592	6592	6592	6592	6592	6592	6853	6992	6592	6592	7137	7137	0	0	0	0	6592	6592	6592	6468	6468	6468	6592	6592	6592	6592	6592	6592	6592	6592	6468	6592	6592	6592	6592	6592	6468	6468	6468	6468	6468	6468	6468	6468	6592	6468	6592	6468	6592	6468	6468	6468	6592	6592	6592	6592	6592	6592	6592	6592	6468	6468	6592	6592	6592	6592	6468	6592	6468	6592	6592	6592	6592	6592	6592	6592	6592	6592	6592	6592	6592	6592	6592	6592	6592	6468	6592	6592	6592	6592	6468	6592	6592	6592	6592	6720	6720	6992	6992	6992	6853	6853	6592	6592	6592	6468	6468	6468	6468	6468	6468	6468	6468	6468	6592	6592	6592	6592	6592	6592	6468	6468	0	0	0	0	0	0	0	0	0	0	6468	6468	6235	6235	0	0	0	0	0	0	6468	6592	6720	6720	0	0	0	0	0	0	0	0	0	0	0	6853	6853	0	0	0	0	0	0	0	0	0	0	0	6853	6720	6720	6720	6720	6853	6720	6720	6853	6853	6853	6853	6853	6853	6853	6853	6853	6853	6853	6853	6853	6720	6592	6592	6720	6720	6720	6853	6853	6853	6992	6853	6853	6853	6853	6853	6853	6720	6720	6720	6853	6853	6853	6592	6592	6592	0	0	0	0	0	0	0	0	0	0	0	0	0	0	0	0	0	0	0	0	0	0	0	0	0	0	0	0	0	0	0	2629	2609	2589	2570	2570	2551	2532	2532	2514	2532	2514	2514	2532	2532	2514	2496	2496	2496	2496	2496	2496	0	0	0	0	0	0	0	0	0	0	0	0	0	0	0	0	0	0	0	0	0	0	0	0	0	0	0	0	0	0	0	0	0	0	0	0	0
0	0	0	0	0	0	945	945	942	942	942	942	942	942	942	942	945	945	945	945	942	945	945	945	948	950	953	958	958	961	966	969	977	977	983	985	988	991	994	997	1000	1000	1000	1000	1011	977	1017	1017	1020	1020	1020	1020	1020	1091	1091	1091	1095	1095	1098	1095	1098	1098	1095	1098	1102	1102	1116	1116	0	1296	1291	1291	1291	1291	1291	1291	1296	1296	1296	1311	1316	1316	1316	0	0	0	0	0	0	6235	6235	6124	6124	6124	6235	6235	6235	6235	6235	6235	6349	6349	6349	6349	6349	6468	6468	6468	6468	6468	6468	6468	6592	6592	6592	6592	6592	6720	6720	6720	6720	6720	6720	6720	6720	6720	6720	6720	6720	6720	6720	6720	6720	6720	6720	6720	6720	6720	6720	6720	6720	6720	6720	6720	6720	6720	6720	6720	6720	6720	6720	6720	6720	6720	6720	6720	6853	6720	6720	0	0	0	0	6720	6720	0	0	0	0	0	0	0	0	0	0	0	0	0	0	0	0	0	0	0	0	0	0	0	0	0	6468	6592	6592	6592	6592	6592	6592	0	0	0	0	0	0	0	0	6468	6592	6468	6468	6592	6592	6720	6592	6592	6720	6720	6720	6720	6720	6720	6720	6720	6592	6592	6720	6592	6592	6592	6592	6592	6592	6592	6592	6592	6592	6592	6592	6592	6592	6592	6592	6592	6592	6592	6592	6592	6592	6592	6592	6592	6592	6592	6592	6592	6720	6592	6720	6720	6720	6720	6720	6592	6592	6592	6468	6468	6468	6468	6468	6592	6592	6592	6592	6592	6592	6592	6592	6592	6592	6592	6592	6592	0	0	3659	3621	3621	3621	3621	3583	3583	3546	3546	3546	3510	3510	3510	3510	3510	3510	3510	3510	3546	3546	3546	3546	3546	3583	3583	3583	3583	0	0	0	0	0	6349	6349	6468	6592	6720	6592	6592	6592	6592	6592	6592	6592	6468	6592	6592	6592	6468	6592	6592	6592	6592	6592	6592	6853	6853	6992	6992	6853	7137	7137	7137	0	0	0	0	0	0	6468	6592	6592	6592	6592	6592	6592	6592	6592	6592	6592	6592	6592	6720	6720	6592	6592	6592	6592	6592	6592	6592	6592	6592	6592	6592	6592	6592	6468	6468	6592	6468	6468	6468	6592	6592	6592	6592	6592	6592	6592	6592	6468	6468	6592	6592	6592	6592	6468	6468	6468	6592	6592	6592	6592	6720	6720	6720	6592	6592	6592	6592	6592	6592	6592	6592	6592	6468	6592	6592	6592	6592	6592	6592	6720	6720	6853	6853	6853	6992	6992	6992	6992	6992	6720	6592	6592	6592	6468	6468	6468	6468	6468	6468	6468	6468	6592	6592	6592	6592	6592	6592	0	0	0	0	0	0	0	0	0	0	0	0	6349	6349	6235	6235	0	0	0	0	0	0	0	0	0	0	0	0	0	0	0	0	0	0	0	0	0	0	0	0	0	0	0	0	0	0	0	0	0	0	6853	6853	6853	6853	6853	6853	6853	6853	6853	6853	6853	6853	6853	6853	6992	6853	6853	6853	6853	6853	6853	6853	6592	6720	6720	6720	6720	6853	6853	6853	6992	6992	6992	6992	6992	6853	6853	6853	6853	6853	6853	6720	6720	0	0	0	0	0	0	0	0	0	0	0	0	0	0	0	0	0	0	0	0	0	0	0	0	0	0	0	0	0	0	0	0	0	0	0	2609	2589	2570	2570	2551	2532	2532	2532	2532	2514	2514	2532	2532	2514	2514	2496	2496	2496	2478	2478	0	0	0	0	0	0	0	0	0	0	0	0	0	0	0	0	0	0	0	0	0	0	0	0	0	0	0	0	0	0	0	0	0	0	0	0	0
0	0	0	884	884	884	884	945	945	945	945	945	942	942	942	945	948	948	948	948	948	948	948	945	950	953	953	955	961	963	966	966	969	974	983	983	988	988	994	997	1000	1000	1000	1003	1011	1014	1017	1020	1020	1020	1020	1020	1020	1091	1091	1091	1095	1095	1095	1095	1098	1098	1095	1098	1098	1098	1098	1116	1116	1296	1296	1296	1291	1291	1291	1291	1296	1296	1301	1311	1316	1316	1316	0	0	0	0	0	0	0	0	6124	6124	6124	6235	6235	6235	6235	6235	6235	6349	6349	6468	6468	6468	6592	6592	6592	6592	6592	6592	6592	6720	6720	6720	6720	6720	6720	6720	6720	6720	6720	6720	6720	6720	6720	6720	6720	6720	6720	6720	6720	6720	6720	6720	6720	6720	6720	6720	6720	6720	6853	6720	6853	6720	6720	6720	6720	6720	6720	6720	6720	6720	6720	6720	6720	6720	6720	6720	0	0	0	0	0	0	0	0	0	0	0	0	0	0	0	0	0	0	0	0	0	0	0	0	0	0	0	0	0	0	6468	6468	6468	6592	6592	6592	6592	6592	0	0	0	0	0	0	0	0	0	0	0	0	0	6720	6720	6720	6720	6720	6720	6720	6720	6720	6720	6720	6720	6592	6592	6592	6592	6592	6592	6592	6592	6592	6592	6592	6592	6720	6720	6720	6720	6720	6720	6720	6720	6720	6592	6592	6592	6592	6720	6720	6592	6592	6720	6592	6592	6720	6720	6720	6853	6720	6720	6720	6592	6592	6592	6468	6468	6468	6468	6468	6592	6592	6720	6720	6720	6720	6720	6720	6720	6720	6592	6720	6720	6720	0	0	3621	3621	3621	3621	3583	3583	3546	3546	3546	3510	3510	3510	3510	3510	3510	3510	3510	3546	3546	3546	3546	3583	3583	3583	0	0	0	0	0	0	0	0	0	0	6592	6720	6720	6592	6592	6592	6592	6592	6592	6592	6592	6592	6592	6592	6592	6592	6592	6720	6592	6592	6592	6853	6992	6992	6992	6992	6992	7137	0	6853	6720	6592	6592	6720	6720	6592	6592	6592	6592	6592	6592	6592	6592	6592	6592	6592	6592	6853	6720	6720	6720	6592	6592	6592	6592	6592	6592	6592	6592	6592	6592	6592	6592	6592	6592	6592	6592	6592	6592	6592	6592	6592	6592	6592	6592	6592	6592	6592	6592	6592	6592	6592	6592	6592	6592	6720	6592	6592	6592	6853	6853	6720	6720	6720	6720	6592	6720	6592	6592	6592	6592	6592	6592	6720	6592	6592	6592	6720	6720	6853	6853	6853	6853	6992	6992	6992	6992	6992	6720	6720	6592	6592	6592	6468	6468	6468	6468	6468	6468	6468	6468	6468	6468	6592	6720	6720	0	0	0	0	0	0	0	0	0	0	0	0	6349	6349	6235	6235	0	0	0	0	0	0	0	0	0	0	0	0	0	0	0	0	0	0	0	0	0	0	0	0	0	0	0	0	0	0	0	0	0	0	6853	6853	6853	6853	6853	6853	6853	6853	6853	6853	6853	6992	6992	6853	6853	6853	6853	6853	6853	6853	6853	6853	6720	6720	6720	6853	6853	6853	6853	6992	6992	6992	6992	6992	6992	6992	6853	6853	6853	6992	6992	6992	6720	0	0	0	0	0	0	0	0	0	0	0	0	0	0	0	0	0	0	0	0	0	0	0	0	0	0	0	0	0	0	0	0	0	0	0	2609	2589	2570	2570	2570	2532	2532	2532	2551	2532	2532	2532	2532	2532	2514	2496	2496	2496	2478	2478	0	0	0	0	0	0	0	0	0	0	0	0	0	0	0	0	0	0	0	0	0	0	0	0	0	0	0	0	0	0	0	0	0	0	0	0	0
0	0	0	884	887	887	891	948	948	948	948	948	945	945	945	948	950	950	950	955	953	953	950	945	948	953	953	955	961	963	966	966	969	974	980	983	988	991	994	994	997	1000	1000	1000	1011	1017	1020	1020	1023	1023	1020	1020	1020	1020	1098	1098	1095	1095	1095	1095	1095	1095	1091	1095	1095	1098	1098	1120	1120	0	1296	1296	1296	1296	1296	1296	1301	1301	1301	1311	1316	1326	1326	1326	1326	0	0	0	0	0	0	0	0	0	0	6235	6235	6235	6235	6235	6235	6349	6468	6468	6468	6592	6592	6592	6592	6720	6592	6592	6720	6720	6720	6720	6592	6720	6720	6720	6720	6720	6720	6720	6720	6720	6720	6720	6720	6720	6720	6853	6720	6720	6853	6853	6853	6853	6720	6720	6720	6720	6720	6720	6720	6720	6720	6720	6720	6720	6720	6720	6720	6720	6720	6720	6720	6720	6720	0	0	0	0	0	0	0	0	0	0	0	0	0	0	0	0	0	0	0	0	0	0	0	0	0	0	0	0	0	0	6349	6468	6468	6592	6592	6592	6720	6720	0	0	0	0	0	0	0	0	0	0	0	0	0	6592	6720	6592	6592	6720	6853	6720	6720	6720	6720	6720	6720	6592	6592	6592	6592	6592	6592	6592	6592	6720	6720	6720	6592	6720	6720	6720	6720	6720	6720	6592	6592	6592	6592	6592	6592	6592	6720	6720	6720	6720	6720	6592	6720	6720	6720	6720	6720	6853	6720	6720	6592	6592	6592	6468	6468	6468	6468	6468	6592	6592	6720	6720	6720	6720	6720	6720	6720	6720	6720	6720	6720	6720	0	0	0	3621	3583	3583	3583	3583	3583	3546	3546	3510	3546	3546	3546	3510	3510	3510	3510	3546	3546	3546	3546	3583	3583	0	0	0	0	0	0	0	0	0	0	6592	6592	6592	6592	6592	6592	6592	6592	6592	6592	6592	6592	6720	6592	6592	6720	6720	6720	6720	6853	6853	6853	6853	6992	6992	6853	6992	6992	6992	6853	6853	6853	6853	6592	6720	6720	6592	6592	6592	6592	6592	6592	6592	6592	6592	6853	6853	6853	6853	6853	6720	6720	6720	6592	6592	6592	6592	6592	6720	6720	6853	6853	6720	6720	6592	6592	6592	6592	6592	6592	6592	6592	6592	6592	6592	6592	6592	6592	6592	6592	6592	6592	6592	6592	6592	6592	6720	6720	6720	6720	6853	6720	6720	6592	6720	6720	6720	6720	6720	6720	6720	6592	6592	6592	6720	6720	6720	6720	6720	6720	6853	6853	6853	6992	6992	6992	6992	6992	6853	6853	6720	6720	6592	6592	6468	6468	6468	6468	6468	6468	6592	6592	6468	6592	6468	6468	6720	0	0	0	0	0	0	0	0	0	0	0	0	0	0	0	0	0	0	0	0	0	0	0	0	0	0	0	0	0	0	0	0	0	0	0	0	0	0	0	0	0	0	0	0	0	0	0	0	0	0	6853	6853	6853	6853	6853	6992	6992	6992	6992	6992	6992	6992	6992	6992	6992	6853	6853	6853	6992	6853	6853	6853	6853	6853	6853	6853	6853	6853	6853	6992	6992	6992	6992	6992	6992	6853	6853	6853	6853	6992	6992	6992	0	0	0	0	0	0	0	0	0	0	0	0	0	0	0	0	0	0	0	0	0	0	0	0	0	0	0	0	0	0	0	0	0	0	0	0	0	0	2589	2589	2570	2532	2532	2532	2532	2532	2514	2532	2514	2514	2496	2496	2496	2496	2478	2478	0	0	0	0	0	0	0	0	0	0	0	0	0	0	0	0	0	0	0	0	0	0	0	0	0	0	0	0	0	0	0	0	0	0	0	0	0
0	0	0	889	889	891	891	948	948	948	950	948	948	948	950	953	955	955	958	961	958	961	958	958	958	961	955	958	963	966	966	966	969	974	977	980	985	991	994	994	997	1000	1003	1003	1006	1017	1020	1023	1023	1023	1023	1020	1020	1020	1020	1098	1098	1098	1098	1095	1095	1095	1095	1095	1095	1095	1095	1116	1116	0	1296	1301	1296	1296	1296	1296	1301	1301	1306	1311	1311	1326	1321	1326	1326	0	0	0	0	0	0	0	0	0	0	0	0	0	6124	6124	6235	6235	6349	6349	6468	6468	6468	6592	6592	6592	6592	6592	6592	6720	6720	6720	6592	6720	6720	6720	6720	6720	6720	6720	6853	6853	6853	6720	6720	6853	6853	6853	6853	6853	6853	6853	6853	6853	6720	6720	6720	6720	6720	6720	6720	6720	6720	6720	6720	6720	6720	6720	6720	6720	6720	6720	6720	6853	6853	0	0	0	0	0	0	0	0	0	0	0	0	0	0	0	0	0	0	0	0	0	0	0	0	0	0	0	0	0	0	6349	6592	6468	6592	6592	6720	6720	6720	0	0	0	0	0	0	0	0	0	0	0	0	0	6592	6853	6720	6720	6853	6853	6853	6853	6720	6720	6720	6720	6592	6592	6592	6592	6853	6853	6720	6720	6853	6720	6592	6592	6592	6720	6720	6592	6592	6592	6592	6592	6592	6592	6592	6592	6720	6720	6720	6720	6720	6720	6720	6720	6720	6720	6720	6720	6853	6720	6720	6592	6720	6592	6592	6592	6592	6592	6592	6592	6592	6720	6720	6720	6720	6853	6853	6853	6853	6720	6720	6720	6720	6720	0	0	0	3583	3583	3583	3583	3583	3546	3546	3510	3546	3546	3546	3546	3510	3510	3510	3546	3546	3546	3546	3546	3583	0	0	0	0	0	0	0	0	0	0	6592	6592	6592	6720	6720	6592	6592	6592	6592	6592	6592	6720	6720	6720	6592	6720	6720	6720	6853	6853	6853	6853	6853	6992	6992	6992	6992	6992	6992	6853	6853	6853	6853	0	6720	6592	6592	6592	6592	6592	6592	6720	6592	6592	6853	6853	6853	6853	6853	6853	6853	6720	6720	6720	6720	6720	6720	6720	6720	6720	6853	6853	6720	6720	6720	6592	6592	6592	6592	6592	6720	6720	6720	6720	6720	6720	6720	6592	6592	6592	6720	6720	6720	6720	6720	6720	6853	6853	6720	6853	6853	6853	6853	6720	6720	6853	6853	6853	6720	6720	6720	6720	6720	6720	6720	6853	6853	6853	6992	6992	6992	6853	6853	6992	6992	6992	6992	6992	6992	6853	6720	6720	6592	6592	6468	6468	6468	6468	6468	6592	6592	6592	6592	6592	6468	6468	0	0	0	0	0	0	0	0	0	0	0	0	0	0	0	0	0	0	0	0	0	0	0	0	0	0	0	0	0	0	0	0	0	0	0	0	0	0	0	0	0	0	0	0	0	0	0	0	0	0	6992	6992	6992	6992	6992	6992	6992	6992	6992	6992	6992	6992	6992	6992	6992	6992	6853	6853	6853	6992	6853	6992	6992	6992	6992	6992	6992	6853	6992	6992	6992	7137	6992	6853	6992	6992	6853	6853	6853	6853	6992	6992	6992	0	0	0	0	0	0	0	0	0	0	0	0	0	0	0	0	0	0	0	0	0	0	0	0	0	0	0	0	0	0	0	0	0	0	0	0	0	0	2609	2589	2570	2551	2551	2551	2551	2532	2514	2514	2514	2514	2496	2496	2496	2478	2478	2478	0	0	0	0	0	0	0	0	0	0	0	0	0	0	0	0	0	0	0	0	0	0	0	0	0	0	0	0	0	0	0	0	0	0	0	0	0
0	0	0	891	891	894	896	896	903	953	953	953	950	950	953	955	958	958	961	963	963	966	963	963	963	963	963	963	966	966	969	969	972	974	977	977	980	988	994	994	1000	1000	1000	1006	1008	1017	1020	1020	1023	1023	1023	1023	1020	1020	1020	1098	1098	1098	1098	1098	1095	1098	1095	1095	1095	1095	1095	1116	1116	1116	1306	1306	1301	1296	1301	1301	1306	1311	1311	1311	1321	1326	1326	1326	1326	0	0	0	0	0	0	0	0	0	0	0	0	6235	6235	6235	6235	6235	6349	6349	6468	6468	6468	6468	6468	6468	6592	6468	6468	6720	6720	6720	6592	6720	6720	6720	6720	6720	6720	6853	6853	6853	6853	6853	6720	6853	6853	6853	6720	6853	6853	6853	6853	6853	6853	6720	6720	6720	6720	6720	6720	6720	6720	6720	6720	6720	6720	6720	6720	6720	6853	6720	6853	6853	6853	0	0	0	0	0	0	0	0	0	0	0	0	0	0	0	0	0	0	6853	6992	6992	6992	0	0	7137	7137	7137	0	0	0	0	6592	6720	6720	6720	6853	6720	6720	6720	0	0	0	0	0	0	0	0	0	0	0	0	0	6720	6853	6853	6853	6853	6720	6720	6720	6720	6853	6720	6592	6592	6592	6592	6853	6853	6720	6720	6853	6853	6720	6720	6720	6720	6720	6720	6720	6592	6592	6592	6720	6720	6720	6720	6720	6720	6720	6720	6720	6720	6720	6720	6720	6720	6720	6720	6853	6853	6720	6720	6720	6720	6592	6592	6592	6592	6592	6592	6720	6720	6853	6853	6853	6853	6853	6853	6853	6720	6720	6720	6853	6720	6720	0	0	0	3621	3583	3583	3583	3546	3583	3583	3546	3546	3546	3546	3510	3510	3546	3546	3546	3546	3546	3546	0	0	0	0	0	0	0	0	0	0	0	6592	6592	6592	6592	6592	6592	6592	6592	6592	6592	6592	6720	6720	6720	6720	6720	6720	6720	6992	6992	6992	6992	6992	6992	7137	6992	6992	6992	6992	6992	6992	0	0	6592	6592	6592	6592	6592	6720	6592	6720	6720	6720	6720	6853	6853	6853	6853	6853	6853	6853	6853	6853	6853	6720	6720	6720	6720	6720	6720	6853	6853	6853	6853	6853	6992	6992	6720	6720	6720	6853	6720	6720	6720	6720	6720	6720	6720	6720	6720	6720	6720	6720	6720	6720	6853	6853	6853	6720	6853	6853	6853	6853	6853	6853	6853	6853	6853	6853	6853	6853	6720	6853	6853	6853	6853	6853	6992	6992	6992	6992	6992	6992	6992	6992	6992	6992	6992	6992	6853	6720	6720	6592	6592	6592	6592	6592	6592	6468	6468	6592	6592	6592	6592	6468	6468	0	0	0	0	0	0	0	0	0	0	0	0	0	0	0	0	0	0	0	0	0	0	0	0	0	0	0	0	0	0	0	0	0	0	0	0	0	0	0	0	0	0	0	0	0	0	0	0	0	6992	6992	6992	6992	6992	6992	6992	6992	7137	7137	7137	7137	7137	7137	6992	6992	6992	6853	6853	6992	6992	6992	6992	6992	6992	6992	6992	6992	6853	6992	6992	6992	6992	6992	6992	6992	6992	6853	6853	6853	6853	0	0	0	0	0	0	0	0	0	0	0	0	0	0	0	0	0	0	0	0	0	0	0	0	0	0	0	0	0	0	0	0	0	0	0	0	0	0	0	0	0	2609	2589	2570	2551	2551	2551	2532	2532	2514	2532	2514	2514	2496	2496	2496	2478	2478	2478	0	0	0	0	0	0	0	0	0	0	0	0	0	0	0	0	0	0	0	0	0	0	0	0	0	0	0	0	0	0	0	0	0	0	0	0	0
0	0	0	891	894	896	896	898	903	903	953	953	950	953	955	961	961	961	963	966	966	966	966	969	969	966	966	966	969	972	972	972	972	974	977	977	980	988	994	997	1000	1003	1003	1006	1011	1011	1017	1023	1026	1023	1023	1023	1023	1020	1020	1020	1020	1098	1098	1098	1095	1095	1095	1091	1095	1095	1095	1095	1095	1116	1311	1311	1306	1301	1301	1306	1306	1306	1306	1306	1311	1326	1326	1331	1331	1331	1331	0	0	0	0	0	0	0	0	6018	6018	6018	6124	6124	6124	6235	6349	6349	6468	6468	6468	6468	6592	6468	6468	6468	6468	0	0	0	0	6720	6720	6720	6853	6853	6720	6853	6853	6853	6853	6853	0	0	6853	6853	6853	6853	6853	6853	6853	6853	6853	6720	6853	6720	6853	6720	6720	6720	6720	6720	6853	6720	6853	6853	6853	6853	6853	6720	6853	6720	6720	0	0	0	0	0	0	0	0	0	0	0	0	0	0	0	0	0	0	6853	6992	6853	6853	6853	0	7137	7287	7287	7287	6992	6992	0	6853	6853	6853	6853	6992	6853	6853	6853	6853	0	0	0	0	0	0	0	0	0	0	0	0	6853	6720	6720	6720	6853	6720	6720	6853	6853	6853	6853	6720	6592	6992	6992	6992	6992	6853	6853	6853	6853	6720	6592	6592	6592	6720	6592	6720	6592	6592	6720	6720	6720	6720	6720	6720	6720	6720	6720	6720	6720	6720	6720	6720	6720	6853	6853	6992	6992	6853	6720	6853	6720	6720	6592	6592	6592	6592	6592	6720	6853	6853	6853	6853	6853	6853	6853	6853	6720	6720	6853	6853	6720	6720	0	0	0	3621	3583	3583	3583	3583	3583	3583	3546	3546	3546	3546	3546	3546	3546	3546	3546	3546	3546	0	0	0	0	0	0	0	0	0	0	0	6853	6720	6592	6592	6592	6592	6592	6592	6592	6592	6592	6720	6720	6992	6853	6853	6720	6720	6720	6720	6720	6853	6853	6992	7137	7137	6992	6992	6992	6992	6853	6720	6720	0	6592	6592	6592	6720	6720	6720	6720	6720	6853	6853	6853	6853	6853	6853	6992	6992	6992	6992	6992	6853	6853	6853	6853	6720	6720	6720	6720	6853	6853	6853	6853	6853	6992	6720	6853	6853	6853	6853	6720	6720	6853	6720	6720	6720	6720	6720	6720	6720	6720	6720	6853	6853	6853	6853	6853	6853	6853	6853	6853	6853	6853	6853	6853	6992	6992	6992	6853	6853	6853	6853	6853	6853	6853	6853	6853	6992	6992	7137	6992	6992	6992	6992	6992	6992	6992	6992	6853	6720	6853	6853	6720	6592	6592	6592	6720	6720	6468	0	0	0	0	0	0	0	0	0	0	0	0	0	0	0	0	0	0	0	0	0	0	0	0	0	0	0	0	0	0	0	0	0	0	0	0	0	0	0	0	0	0	0	0	0	0	0	0	0	0	0	7137	6992	6992	6992	6992	6853	6992	6992	6992	6992	6992	6992	7137	7137	7137	7137	7137	7137	6992	6992	6992	6992	6853	6853	6992	6992	6992	6992	6992	6992	6992	6992	6992	6992	6992	7137	7137	6992	6992	6992	6992	6853	6853	6853	0	0	0	0	0	0	0	0	0	0	0	0	0	0	0	0	0	0	0	0	0	0	0	0	0	0	0	0	0	0	0	0	0	0	0	0	0	0	0	0	0	2629	2629	2609	2589	2570	2551	2551	2532	2532	2532	2532	2514	2514	2496	2496	2496	2496	2478	2478	0	0	0	0	0	0	0	0	0	0	0	0	0	0	0	0	0	0	0	0	0	0	0	0	0	0	0	0	0	0	0	0	0	0	0	0	0
0	0	0	891	894	896	896	898	901	903	903	955	953	953	955	961	963	963	966	969	969	969	969	972	972	969	969	969	969	972	969	969	972	974	977	977	980	985	994	994	997	1000	1000	1003	1008	1014	1017	1026	1033	1026	1026	1033	1036	1039	1039	1039	1095	1095	1095	1091	1095	1091	1091	1091	1095	1095	1095	1095	1095	0	1316	1316	1311	1306	1306	1306	1311	1311	1311	1311	1316	1326	1326	1331	1331	1336	1336	1336	0	0	0	0	0	0	0	6018	6124	6124	6124	6124	6124	6235	6349	6349	6592	6592	6468	6468	6592	6468	6468	0	0	0	0	0	6720	6720	6720	6720	6853	6720	6720	6853	6853	6853	0	0	0	0	0	6853	6853	6853	6853	6853	6853	6853	6853	6853	6853	6853	6853	6720	6720	6720	6720	0	6853	6720	6853	6853	6853	6853	6853	6853	6853	6853	6853	0	0	0	0	0	0	0	0	0	0	0	0	0	0	6992	6992	6992	6992	6992	7137	6992	6992	6992	6992	7287	7287	7287	7287	6992	6992	6992	6853	6853	6853	6853	6992	6992	6853	6853	6853	6853	0	6853	6853	0	7137	7137	7137	0	0	0	6853	6720	6853	6853	6853	6992	6853	6720	6853	6853	6992	6720	6720	7137	7137	7137	7137	6992	6992	6992	6853	6853	6720	6720	6592	6592	6592	6592	6720	6720	6720	6720	6720	6720	6720	6853	6853	6853	6720	6853	6720	6853	6720	6853	6853	6853	6853	6853	6992	6992	6853	6853	6853	6853	6720	6720	6720	6720	6720	6720	6720	6720	6720	6853	6992	6992	6992	6992	6853	6853	6853	6853	6853	6720	6720	0	0	0	3583	3583	3583	3583	3583	3583	3583	3546	3546	3546	3546	3546	3546	3546	3546	3583	3546	3546	3546	0	0	0	0	0	0	0	0	7137	7137	6853	6720	6720	6592	6592	6592	6592	6592	6592	6720	6720	6720	6720	6992	6853	6853	6853	6720	6720	6592	6592	6592	6992	6992	6992	6992	6992	6992	6992	6992	6853	6853	6720	0	6592	6468	6468	6592	6720	6853	6720	6853	6853	6853	6853	6992	6992	6992	6992	6992	6992	6992	6992	6992	6992	6992	6992	6853	6853	6720	6853	6853	6853	6853	6853	6853	6992	6720	6720	6720	6853	6720	6720	6720	6853	6853	6720	6720	6720	6720	6853	6853	6853	6853	6853	6853	6992	6992	6853	6853	6853	6853	6853	6853	6853	6853	6992	6992	6992	6992	6853	6853	6853	6853	6720	6720	6853	6992	6992	6992	6992	7137	6992	6992	6992	6992	6992	6992	6992	6992	6853	6853	6853	6853	6853	6592	6592	6592	6592	6720	0	0	0	0	0	0	0	0	0	0	0	0	0	0	0	0	0	0	0	0	0	0	0	0	0	0	0	0	0	0	0	0	0	0	0	0	0	0	0	0	0	0	0	0	0	0	0	0	0	0	7287	7137	6992	6992	6992	6992	6992	6992	6992	6992	6992	6992	6992	6992	7137	7137	7137	7137	7137	7137	6992	6992	6992	6992	6992	6992	6992	6992	6992	6992	6992	6992	6992	6992	6992	7137	7137	7137	7137	6992	6992	6992	6992	6853	6853	6853	0	0	0	0	0	0	0	0	0	0	0	0	0	0	0	0	0	0	0	0	0	0	0	0	0	0	0	0	0	0	0	0	0	0	0	0	0	0	0	0	0	2629	2629	2609	2570	2570	2551	2551	2551	2532	2532	2532	2496	2496	2496	2496	2478	2478	2478	2478	0	0	0	0	0	0	0	0	0	0	0	0	0	0	0	0	0	0	0	0	0	0	0	0	0	0	0	0	0	0	0	0	0	0	0	0	0
0	0	0	894	896	896	898	901	903	905	908	908	945	935	953	961	963	966	966	969	969	969	972	972	972	972	969	969	972	974	972	972	974	977	977	977	980	985	991	991	994	1000	1003	1006	1011	1017	1020	1026	1033	1033	1033	1036	1039	1039	1039	1039	1095	1095	1091	1091	1091	1095	1095	1095	1095	1095	1095	1095	1098	1098	1321	1331	1321	1321	1316	1316	1316	1316	1311	1311	1326	1331	1336	1336	1342	1342	1342	1342	1342	0	0	0	0	0	0	6018	6124	6124	6124	6124	6124	6235	6349	6349	6349	6468	6468	6468	0	0	0	0	0	0	0	0	6720	6720	6720	6720	6853	6853	6720	6720	6853	0	0	0	0	0	0	6853	6992	6992	6992	6992	6853	6853	6853	6853	6853	6853	6853	6853	6853	0	0	0	6853	6853	6853	6853	6853	6853	6853	6853	6853	6720	6720	0	0	0	0	0	0	0	0	0	0	0	0	0	0	7137	7137	7137	7137	7137	7137	7137	7137	7137	7287	7287	7287	7137	7137	7137	7137	7137	6992	6853	6853	6853	6992	6992	6720	6720	6853	6853	6853	6853	6853	6992	7137	7137	6992	6992	6992	7137	6853	6720	6853	6853	6853	6853	6853	6853	6853	6992	6992	6992	6992	7137	7137	7137	7137	6992	6992	6853	6853	6853	6853	6720	6592	6592	6592	6592	6720	6720	6720	6720	6720	6853	6853	6853	6853	6853	6853	6853	6853	6853	6853	6853	6853	6853	6853	6992	6992	6992	6992	6992	6992	6853	6853	6720	6720	6720	6720	6720	6853	6853	6853	6992	6992	6992	6992	6992	6992	6992	6853	6853	6853	0	0	0	0	0	3583	3583	3583	3583	3583	3583	3583	3583	3583	3546	3546	3546	3546	3546	3546	3583	3583	3583	3583	3583	0	0	0	0	0	0	7137	7137	6853	6853	6720	6592	6592	6592	6592	6592	6592	6592	6720	6720	6720	6720	6992	6992	6853	6853	6853	6720	6720	6720	6720	6853	6992	6992	6992	6992	6992	6992	6992	6992	6853	0	0	0	6468	6468	6592	6592	6720	6720	6720	6853	6853	6853	6992	6992	6853	6992	6992	6992	6992	6992	6853	6992	6853	6853	6853	6853	6853	6853	6992	6992	6992	6992	6992	6992	6992	6853	6853	6853	6853	6853	6853	6853	6853	6853	6720	6720	6853	6853	6853	6853	6853	6853	6992	6992	6853	6853	6853	6853	6853	6992	6992	6992	6992	6992	6992	6992	6992	6992	6853	6853	6853	6853	6992	6992	6992	6992	6992	6992	7137	6992	6992	6992	0	0	0	0	0	0	6853	6853	6853	6592	6592	6592	6468	6468	0	0	0	0	0	0	0	0	0	0	0	0	0	0	0	0	0	0	0	0	0	0	0	0	0	0	0	0	0	0	0	0	0	0	0	0	0	0	0	0	0	0	0	0	0	0	0	0	0	7444	7287	7287	7137	6992	6992	6992	6992	6992	6992	6992	6992	6992	6992	6992	6992	7137	7444	7137	7444	7444	7444	7444	7137	6992	6992	6992	6992	6992	6992	6992	6992	6992	6992	6992	6992	6992	7137	7137	7287	7287	7137	6992	6992	6992	6853	6853	0	0	0	0	0	0	0	0	0	0	0	0	0	0	0	0	0	0	0	0	0	0	0	0	0	0	0	0	0	0	0	0	0	0	0	0	0	0	0	0	0	0	2609	2609	2589	2570	2570	2551	2551	2532	2532	2514	2514	2496	2496	2496	2478	2478	2478	2478	2478	0	0	0	0	0	0	0	0	0	0	0	0	0	0	0	0	0	0	0	0	0	0	0	0	0	0	0	0	0	0	0	0	0	0	0	0	0
0	0	0	896	896	898	901	903	905	908	910	913	920	917	917	961	966	966	969	972	972	972	974	974	974	974	977	977	980	977	977	974	977	977	977	977	983	988	988	991	994	994	1003	1011	1017	1020	1020	1026	1026	1033	1033	1033	1039	1039	1042	1042	0	1095	1098	1098	1098	1098	1095	1095	1095	1095	1098	1098	1098	1098	1321	1331	1326	1326	1326	1326	1321	1321	1316	1316	1331	1336	1336	1336	1342	1336	1342	1347	1347	1347	0	0	0	0	0	0	6124	6124	6124	6124	6124	6235	6235	6235	6235	6349	6349	6349	6349	0	0	0	0	0	0	0	6853	6853	6853	6853	6853	6853	6720	6720	0	0	0	0	0	0	0	6992	6992	6992	6992	6992	6992	6992	7137	7137	6992	6992	6853	6853	6853	0	0	0	0	6853	6853	6853	6853	6853	6853	6853	6853	6853	6720	0	0	0	0	0	0	0	0	0	0	0	0	0	7287	7137	7137	7137	7287	7137	7287	6992	6992	7137	7287	7137	7287	7137	7137	6992	7137	7137	7137	6992	6992	6992	7137	6992	6853	6720	6853	6853	6853	6853	6853	7137	7137	7137	7137	7137	7137	7137	6853	6720	6853	6853	6853	6853	6853	6853	6853	6992	7137	7137	6992	7137	7137	7137	7137	6992	6992	6853	6853	6853	6853	6720	6720	6720	6592	6592	6720	6720	0	0	6853	6992	6992	6992	6853	6853	6853	6853	6853	6853	6853	6853	6853	6853	6853	6853	6992	6992	6992	6992	6992	6992	6853	6853	6720	6853	6853	6853	6853	6992	6992	7137	7137	7137	6992	6992	6992	6720	6720	6853	6853	0	0	0	0	0	3621	3583	3583	3583	3583	3583	3583	3583	3583	3583	3546	3546	3546	3583	3583	3583	3583	3583	3621	3621	3621	0	0	0	0	7137	7137	7137	6853	6853	6720	6720	6592	6592	6592	6592	6720	6592	6592	6720	6992	6992	6992	6992	6992	6992	6853	6853	6853	6853	6853	6853	6992	6992	6992	6992	6992	6992	6992	6992	0	0	0	0	0	0	6592	6592	6853	6853	6853	6992	6992	6992	6992	6992	6992	6992	6992	6992	6853	6853	6853	6853	6853	6853	6853	6853	6853	6992	6992	6992	6992	6992	6992	6992	6992	6992	6992	6992	6992	6853	6853	6853	6853	6853	6853	6853	6853	6853	6992	6992	6992	6992	6992	6992	6992	6992	6853	6853	6992	6992	6992	6992	6992	6992	6992	6992	6992	6992	6992	6992	6853	6853	6992	6992	6992	6992	6992	6992	7137	7137	7137	7137	0	0	0	0	0	0	6720	6720	6720	6720	6592	6592	6592	6592	6592	0	0	0	0	0	0	0	0	0	0	0	0	0	0	0	0	0	0	0	0	0	0	0	0	0	0	0	0	0	6349	6349	0	0	0	0	0	0	0	0	0	0	0	0	0	0	0	0	0	7287	7287	7287	7137	7137	7137	6992	6992	6992	6992	6992	6992	6992	6992	6992	6992	7137	7287	7137	7137	7287	7287	7287	6992	6992	6992	6992	6992	6992	6992	6992	6992	7137	7137	6992	7137	7137	7137	7287	7287	7287	7137	6992	6992	6992	6853	6853	0	0	0	0	0	0	0	0	0	0	0	0	0	0	0	0	0	0	0	0	0	0	0	0	0	0	0	0	0	0	0	0	0	0	0	0	0	0	0	0	0	2629	2629	2609	2589	2570	2570	2551	2532	2514	2514	2514	2496	2496	2496	2478	2478	2478	2478	2478	2478	0	0	0	0	0	0	0	0	0	0	0	0	0	0	0	0	0	0	0	0	0	0	0	0	0	0	0	0	0	0	0	0	0	0	0	0	0
0	0	0	896	901	901	903	905	905	908	908	913	915	917	922	922	925	925	974	974	977	977	977	977	977	980	985	985	985	980	980	977	980	977	977	980	985	994	997	1000	1000	1006	1011	1014	1017	1020	1020	1023	1030	1033	1033	1039	1039	1042	1042	1042	1042	1088	1098	1098	1098	1102	1095	1098	1098	1098	1098	1098	1098	0	0	1363	1352	1331	1331	1326	1326	1336	1326	1331	1336	1342	1347	1347	1342	1347	1347	1352	1352	1358	1358	1358	0	0	0	0	0	6124	6235	6235	6235	6235	6349	6349	6349	6349	6349	6349	6349	0	0	0	0	0	6853	6853	6853	6853	6853	6992	6992	0	0	0	0	0	0	0	0	0	0	6992	6992	7287	7287	7287	7287	7287	7137	7137	6992	6992	0	0	0	0	0	0	0	0	0	6853	6853	6853	6853	6853	6853	6853	0	0	0	0	0	0	0	0	0	0	0	0	0	0	7287	7137	7137	7137	7287	7137	7137	6992	7137	7137	7287	7287	7287	7287	7137	7137	7137	7137	7137	7137	7137	7137	7137	6992	6992	6720	6853	6853	6992	6853	6992	7137	7137	7137	7137	7137	7137	7137	6992	6853	6853	6853	6992	6992	6853	6992	6992	6992	7137	7137	6992	7137	7137	7137	7137	6992	6992	6853	6853	6853	6853	6720	6720	6720	6720	6720	6720	6720	0	0	6853	6992	6992	6992	6992	6853	6853	6853	6853	6853	6853	6853	6853	6853	6992	6853	6992	6992	6992	6992	6992	6992	6853	6853	6853	6853	6992	6992	6992	6992	7137	6992	7137	7137	7137	7137	6992	6992	6720	0	0	0	0	0	0	0	3583	3583	3583	3583	3583	3583	3583	3583	3583	3583	3546	3546	3583	3583	3583	3583	3583	3583	3583	3583	3621	0	0	0	0	7137	7137	7137	6853	6720	6720	6720	6592	6592	6592	6592	6720	6592	6720	6720	6992	6992	6992	6992	6992	6853	6853	6853	6720	6720	6853	6853	6992	6992	6992	6992	6992	6992	6992	6992	6992	6992	0	0	0	0	0	0	6853	6853	6992	6992	6992	6992	6992	6992	6992	6992	6992	6992	6853	6853	6853	6853	6853	6853	6853	6853	6853	6992	6992	7137	7137	7137	7137	6992	6992	6992	6992	6992	6992	6853	6853	6853	6853	6992	6853	6853	6853	6992	6992	6992	6992	6992	6992	6992	6992	6992	6992	6853	6992	6992	6992	6992	6992	6992	6992	6992	6992	6992	6992	6992	0	0	6992	6992	6992	6992	6992	6992	7137	7137	7137	7137	7137	0	0	0	6853	6853	6853	6853	6720	6720	6592	6592	6592	6592	6720	6720	0	0	0	0	0	0	0	0	0	0	0	0	0	0	0	0	0	0	0	0	0	0	0	0	0	0	0	0	6349	6349	6349	0	0	0	0	0	0	0	0	0	0	0	0	0	0	0	7287	7287	7137	7137	7137	7137	7137	6992	6992	6992	7137	6992	6992	6992	6992	6992	6992	7287	7287	7287	7444	7287	7287	7287	6992	6992	6992	6992	7137	7137	6992	7137	7137	7137	7137	6992	6992	7137	7137	7287	7444	7444	7444	6992	6992	0	0	0	0	0	0	0	0	0	0	0	0	0	0	0	0	0	0	0	0	0	0	0	0	0	0	0	0	0	0	0	0	0	0	0	0	0	0	0	0	0	0	0	2629	2629	2629	2609	2589	2570	2570	2551	2532	2514	2514	2514	2496	2496	2496	2478	2478	2478	2478	2460	2460	0	0	0	0	0	0	0	0	0	0	0	0	0	0	0	0	0	0	0	0	0	0	0	0	0	0	0	0	0	0	0	0	0	0	0	0	0
0	0	0	898	901	903	903	905	905	908	910	910	913	915	922	925	930	932	932	977	977	980	980	983	980	991	991	994	994	994	988	988	991	988	994	980	994	997	1000	1000	1000	1006	1014	1014	1017	1020	1020	1023	1026	1030	1030	1039	1039	1042	1045	1045	1061	1088	1088	1095	1095	1098	1095	1095	1095	1098	1098	1098	1098	0	1368	1358	1352	1352	1347	1347	1342	1342	1336	1352	1352	1352	1352	1352	1347	1347	1352	1352	1352	1358	1363	1363	1363	1363	0	0	0	0	6235	6235	6235	6235	6349	6349	6349	0	0	0	0	0	0	0	0	0	6853	6992	6992	6992	6992	6992	6992	0	0	0	0	0	0	0	0	0	0	6992	7287	7287	7287	7287	7287	7287	7137	7137	0	0	0	0	0	0	0	0	0	0	0	6853	6853	6853	6853	6853	6992	6992	0	0	0	0	0	0	0	0	0	0	0	0	0	0	7287	7287	7287	7287	7287	7287	7137	6992	6992	7137	7287	7287	7287	7287	7287	7137	7137	7287	7287	7287	7287	7287	7287	6992	6853	6720	6720	6853	6853	6853	6992	6992	7137	7137	7137	7137	7137	7137	6992	6720	6720	6853	6992	6992	6992	6992	6992	7137	7137	7137	6992	7137	7137	7137	6992	6992	6992	6853	6853	6853	6720	6720	6720	6720	6720	6720	6720	6720	0	0	6992	7137	6992	7137	6992	6853	6853	6853	6853	6853	6853	6853	6853	6853	6992	6992	6992	6992	6992	6992	6992	6992	6992	6853	6992	6992	6992	6992	6992	6992	7137	6992	7137	7137	7137	7137	6992	6992	0	0	0	0	0	0	0	0	3583	3583	3583	3583	3583	3583	3583	3583	3583	3583	3583	3583	3583	3583	3583	3583	3583	3583	3583	3546	3546	0	0	0	7137	7137	7137	7137	6853	6720	6720	6720	6720	6720	6592	6720	6720	6592	6720	6992	6992	6992	6992	6992	6992	6992	6853	6853	6720	6720	6853	6992	6992	6992	6992	6992	6992	6992	6992	6992	6992	6992	0	0	0	0	0	0	6853	6853	6853	6992	6992	6992	6992	6992	6992	6992	6992	6992	6992	6992	6992	6992	6853	6853	6992	6992	6992	6992	6992	7137	7137	7137	7137	6992	6992	6992	6992	6992	6992	6853	6853	6853	6853	6853	6853	6853	6992	6992	6992	6992	6992	6992	6992	6992	6992	6992	6992	6992	6992	6992	6992	6992	6992	6992	6992	6992	7137	7137	0	0	0	0	6992	6992	6992	6992	6992	6992	7137	7137	7137	7137	7137	0	0	0	6853	6853	6853	6853	6720	6720	6720	6720	6592	6720	6720	6720	0	0	0	0	0	0	0	0	0	0	0	0	0	0	0	0	0	0	0	0	0	0	0	0	0	0	0	0	6349	6468	6468	0	0	0	0	0	0	0	0	0	0	0	0	0	0	0	7287	7287	7137	7137	7137	7137	7137	6992	6992	6992	7137	7137	7137	7137	6992	6992	6992	7137	7287	7137	7137	7137	7444	7444	7137	7137	7137	7137	7137	7137	7137	7137	7137	7137	7137	6992	6992	6992	7137	7287	7287	7287	7287	0	0	0	0	0	0	0	0	0	0	0	7779	7779	0	0	0	0	0	0	0	0	0	0	0	0	0	0	0	0	0	0	0	0	0	0	0	0	0	0	0	0	0	0	0	0	2629	2629	2609	2589	2570	2570	2570	2551	2551	2532	2532	2514	2514	2496	2496	2478	2478	2478	2478	2460	2460	0	0	0	0	0	0	0	0	0	0	0	0	0	0	0	0	0	0	0	0	0	0	0	0	0	0	0	0	0	0	0	0	0	0	0	0	0
0	0	0	905	905	905	905	905	905	908	910	910	913	915	922	925	930	932	935	935	977	977	985	988	991	994	994	997	997	997	997	997	997	997	997	1000	997	1000	1000	1000	1000	1006	1014	1017	1017	1020	1020	1023	1026	1026	1030	1036	1039	1042	1048	1055	1061	1061	1085	1088	1091	1095	1095	1095	1095	1098	1098	1098	0	1374	1368	1363	1358	1352	1352	1347	1347	1352	1347	1352	1352	1352	1352	1352	1352	1352	1352	1358	1358	1358	1363	1363	1363	1374	1374	0	0	0	0	0	6235	6235	6349	6349	0	0	0	0	0	0	0	0	0	0	6853	6853	6992	6853	6992	6992	6992	6992	0	0	0	0	0	0	0	0	0	7287	7287	7287	7287	7287	7287	7287	7287	7137	0	0	0	0	0	0	0	0	0	0	0	6853	6992	6992	6992	6992	7137	7137	0	0	0	0	0	0	0	0	0	0	0	0	0	0	0	7287	7287	7287	7287	7444	7287	7287	6992	0	0	0	7287	7287	7287	0	0	7444	7287	7287	7287	7137	7287	6992	6720	6720	6720	6720	6853	6720	6853	6992	6992	7137	7137	7137	6992	7137	7137	7137	7137	6853	6992	6992	6992	6992	6992	7137	7137	6992	6992	6992	7137	7137	6992	6992	6992	6853	6853	6720	6720	6720	6720	6720	6720	6720	6720	6720	0	0	7137	7137	6992	7137	6992	6992	6853	6853	6853	6853	6853	6853	6853	6992	6992	6992	6992	6992	6992	7137	7137	7137	6992	6992	6992	6992	6992	6992	6992	7137	7137	7137	7137	7137	7137	7137	7137	6992	0	0	0	0	0	0	0	3583	3583	3583	3583	3583	3583	3583	3583	3583	3583	3583	3583	3583	3583	3583	3583	3583	3583	3583	3583	3583	3583	3583	0	7137	7137	7137	7137	7137	6853	6853	6720	6720	6720	6592	6592	6592	6592	6592	6592	6720	6992	6992	6992	6992	6992	6992	6853	6853	6720	6720	6853	6992	6992	7137	7137	7137	7137	6992	6992	6992	6992	0	0	0	0	0	0	0	6992	6853	6853	6992	6992	6992	6992	6992	6992	6992	6992	6992	6992	6992	6992	6992	0	7137	7137	7137	7137	6992	6992	7137	7137	7137	7137	6992	6992	6992	6992	6992	6992	6992	6992	6992	6992	6992	6992	6992	6992	6992	6992	6992	6992	6992	6992	7137	6992	6992	6992	6992	6992	6992	6992	6992	6992	7137	7137	6992	6992	6992	0	0	0	0	6992	6992	6992	6992	6992	6992	7137	7137	7137	7137	0	0	0	0	0	6853	6853	6720	6720	6720	6720	6720	6720	6720	6720	6720	0	0	0	0	0	0	0	0	0	0	0	0	0	0	0	0	0	0	0	0	0	0	0	0	0	0	0	0	6235	6235	6468	0	0	0	0	0	0	0	0	0	0	0	0	0	0	0	7287	7287	7137	7137	7287	7137	7137	7137	7137	7137	7137	7287	7287	7287	7137	7137	7287	7287	7287	7287	7444	7444	7444	7444	7137	7137	7137	7137	7444	7287	7287	7137	7287	7137	7137	7137	7137	7137	7137	7287	7287	7287	7287	0	0	0	0	0	0	0	0	0	0	0	7444	7444	0	0	0	0	0	0	0	0	0	0	0	0	0	0	0	0	0	0	0	0	0	0	0	0	0	0	0	0	0	0	0	0	2629	2629	2609	2589	2570	2570	2551	2551	2551	2532	2532	2532	2514	2496	2496	2496	2496	2478	2478	2460	2460	0	0	0	0	0	0	0	0	0	0	0	0	0	0	0	0	0	0	0	0	0	0	0	0	0	0	0	0	0	0	0	0	0	0	0	0	0
0	0	0	896	905	905	905	905	905	908	910	910	913	915	925	927	932	935	940	942	942	942	991	991	994	997	997	997	1000	1000	1000	1000	1000	1000	1000	1000	1000	1000	1003	1003	1003	1014	1017	1017	1020	1020	1023	1023	1026	1030	1033	1036	1039	1039	1048	1055	1061	1068	1081	1088	1091	1095	1095	1095	1091	1098	1102	1102	1102	1374	1363	1363	1358	1358	1358	1352	1352	1352	1352	1358	1358	1358	1358	1358	1358	1358	1358	1358	1363	1363	1368	1368	1374	1374	1374	0	0	0	0	0	0	0	0	0	0	0	0	0	0	0	0	6720	6720	6720	6720	6853	6853	6853	6853	6992	6992	6992	0	0	0	0	0	0	0	0	7137	7287	7287	7287	7287	7287	7287	7287	7287	0	0	0	0	0	0	0	0	0	0	0	0	0	6992	6992	6992	6992	7137	7137	0	0	0	0	0	0	0	0	0	0	0	0	0	0	0	7287	7287	7287	7444	7444	7444	7287	0	0	0	0	0	0	0	0	0	7287	7444	7444	7287	7137	7287	7137	7137	6592	6592	6720	6720	6720	6853	6992	7137	7137	7137	7137	6992	6992	7137	7137	7137	0	6992	6992	6992	6992	6992	6992	6992	6992	6992	6992	6992	6992	6992	6992	6992	6992	6853	6853	6853	6720	6720	6720	6720	6720	6720	6992	6992	0	7137	7137	7137	7137	7137	7137	6992	6992	6992	6992	6853	6853	6992	6992	6992	6992	6992	6992	6992	7137	7137	7137	6992	6992	6992	6992	6992	6992	7137	7137	7137	7137	7137	7137	7137	7137	7137	0	0	0	0	0	0	0	0	3583	3621	3583	3583	3583	3583	3583	3583	3583	3583	3583	3583	3583	3583	3583	3583	3583	3583	3583	3583	3546	3546	3546	3583	7137	7137	7137	7137	7137	6853	6592	6592	6720	6720	6592	6592	6592	6592	6592	6592	6720	6853	6853	6853	6992	6992	6992	6853	6853	6853	6853	6992	6992	6992	7137	7137	7137	7137	7137	6992	6992	6992	0	0	0	0	0	0	6992	6992	6853	6992	6992	6992	6992	6992	6992	7137	7137	6992	6992	6992	6992	6992	6992	0	7137	7137	7137	7137	7137	7137	7137	7137	6992	6992	6992	6992	6992	7137	6992	6992	6992	6992	6992	6992	6992	6992	6992	6992	6992	6992	6992	6992	6992	6992	7137	7137	6992	7137	7137	7137	7137	7137	7137	7137	7137	7137	6992	6992	6992	0	0	0	0	6992	6992	6992	6992	6992	6992	7137	7137	7137	7137	7137	7137	7137	7137	6992	6853	6853	6853	6853	6853	6720	6720	6720	6720	6720	6720	0	0	0	0	0	0	0	0	0	0	0	0	0	0	0	0	0	0	0	0	0	0	0	0	0	0	6468	6468	6349	6349	6349	0	0	0	0	0	0	0	0	0	0	0	0	0	0	7287	7287	7287	7287	7287	7287	7287	7287	7287	7287	7287	7444	7444	7287	7287	7137	7137	7287	7287	7287	7287	7444	7444	7444	7444	7444	7444	7444	7444	7444	7444	7287	7287	7287	7137	7287	7287	7137	7137	7137	7287	7444	7444	7444	0	0	0	0	0	0	0	0	0	0	7444	7444	7444	7444	7444	7444	0	0	0	0	0	0	0	0	0	0	0	0	0	0	0	0	0	0	0	0	0	0	0	0	0	0	0	0	0	0	0	2589	2570	2570	2570	2551	2532	2532	2532	2532	2514	2514	2496	2496	2496	2478	2478	2478	2460	2460	0	0	0	0	0	0	0	0	0	0	0	0	0	0	0	0	0	0	0	0	0	0	0	0	0	0	0	0	0	0	0	0	0	0	0	0	0
0	0	0	894	896	905	905	905	905	908	910	910	913	913	922	927	935	940	942	945	948	948	948	948	994	997	997	997	1000	1000	1000	1000	1003	1003	1003	1003	1003	1008	1011	1008	1014	1017	1017	1017	1020	1020	1023	1023	1023	1033	1033	1039	1039	1039	1045	1052	1058	1068	1078	1085	1085	1095	1091	1091	1091	1095	1095	1095	1095	0	1363	1363	1358	1358	1358	1358	1358	1358	1358	1363	1358	1363	1363	1358	1363	1363	1358	1363	1363	1363	1368	1374	1374	1374	0	0	0	0	0	0	0	0	0	0	0	0	0	0	0	0	0	6720	6720	6720	6720	6853	6853	6853	6992	6992	6992	6992	0	0	0	0	0	0	0	0	7137	7287	7287	7287	7287	7287	7287	7444	7444	0	0	0	0	0	0	0	0	0	0	0	0	0	6992	7137	7137	7137	7137	7137	7137	7137	7137	0	0	0	0	0	0	0	0	0	0	0	0	0	7287	7287	7444	7444	7444	0	0	0	0	0	0	0	0	0	0	7287	7287	7287	7287	0	0	7137	6592	6592	6592	6720	6853	6720	6720	7137	7137	7137	7137	7137	7137	6992	0	0	0	0	7137	6992	6992	6992	6992	7137	7137	7137	6992	6992	6992	7137	6992	6992	6992	6992	6992	6853	6853	6853	6853	6720	6853	6853	6992	6992	6992	6992	7137	7137	7137	7137	7137	7137	6992	6992	6992	6992	6992	6992	6992	6992	6992	7137	7137	7137	6992	7137	7137	7137	6992	6992	7137	7137	7137	7137	7137	7137	7137	7137	7287	7287	7287	7287	7287	0	0	0	0	0	0	0	3621	3621	3621	3583	3583	3583	3583	3583	3583	3583	3583	3583	3583	3583	3583	3583	3583	3583	3583	3583	3583	3546	3546	3546	3546	3546	3546	7137	3546	3475	3475	6592	6592	6720	6720	0	0	0	0	0	0	0	6853	6853	6853	6992	6992	6992	6992	6992	6853	6853	6992	6992	6992	6992	6992	7137	7137	7137	7137	7137	7137	0	0	0	0	0	0	6992	6992	6853	6992	6992	6992	6992	7137	7137	7137	7137	6992	6992	6992	6992	6992	6992	6992	7137	7137	7287	7287	7287	7137	7137	7137	6992	6992	6992	6992	7137	7137	7137	7137	7137	6992	6992	6992	6992	6992	6992	6992	6992	6992	6992	6992	7137	7137	7137	7137	7137	7137	7137	7137	7137	7137	7137	7137	7137	7137	6992	6992	6992	0	0	0	0	6992	6992	6992	6992	6992	6992	7137	7137	7137	7137	7137	7137	7137	6992	6992	6853	6853	6853	6853	6853	6853	6853	6720	6720	6720	6720	0	0	0	0	0	0	0	0	0	0	0	0	0	0	0	0	0	0	0	0	0	0	7137	7137	6853	6720	6592	6592	6468	6468	6468	6468	0	7137	7137	7137	0	0	0	0	0	7444	7444	7444	7444	7444	7287	7287	7287	7287	7287	7287	7287	7287	7287	7444	7444	7444	7444	7287	7287	7287	7287	7287	7444	7444	7444	7444	7444	7444	7444	7444	7444	7444	7444	7444	7444	7287	7287	7287	7287	7287	7287	7137	7137	7287	7444	7444	7444	0	0	0	0	0	0	0	0	0	7287	7444	7444	7444	7444	7444	7444	7444	7444	0	0	0	0	0	0	0	0	0	0	0	0	0	0	0	0	0	0	0	0	0	0	0	0	0	0	0	0	0	2589	2570	2570	2570	2551	2532	2532	2532	2532	2514	2514	2496	2496	2496	2496	2478	2460	2443	2443	0	0	0	0	0	0	0	0	0	0	0	0	0	0	0	0	0	0	0	0	0	0	0	0	0	0	0	0	0	0	0	0	0	0	0	0	0
0	0	0	894	896	905	905	905	905	908	908	910	910	908	917	925	932	940	942	945	945	945	948	948	991	994	994	997	1000	1003	1003	1003	1006	1008	1011	1011	1014	1017	1017	1014	1017	1020	1020	1020	1020	1020	1023	1023	1023	1033	1036	1036	1039	1042	1048	1055	1058	1064	1074	1081	1088	1091	1088	1091	1091	1098	1098	1098	1098	0	1363	1363	1358	1358	1358	1358	1358	1363	1363	1363	1363	1363	1363	1363	1368	1368	1363	1363	1368	1374	1374	1379	1385	1390	1402	1402	0	0	0	0	0	0	0	0	0	0	0	0	0	0	0	6720	6720	6720	6720	6720	6853	6853	6992	7137	6992	6992	0	0	0	0	0	0	0	7137	7137	7287	7287	7287	7287	7287	7287	7287	7287	7287	0	0	0	0	0	0	0	0	0	0	0	0	6992	7137	7137	7137	7137	7137	7137	7137	7137	0	0	0	0	0	0	0	0	0	0	0	0	0	7287	7444	7444	7444	7444	0	0	0	0	0	0	0	0	0	0	7287	7287	7287	7287	0	0	0	6592	6592	6720	6853	6853	6720	6720	6992	7137	7137	7287	7137	7137	0	0	0	0	0	7137	6992	6992	6992	7137	7137	7137	7137	6992	6992	6992	6992	6992	6992	7137	7137	7137	6992	6853	6853	6853	6720	6853	6853	6992	6992	6992	6992	6992	7137	7137	7137	7137	7137	6992	6992	6992	6992	6992	6992	6992	6992	7137	7137	7137	7137	7137	7137	7137	7137	7137	6992	7137	7137	7137	7137	7137	7137	7137	7137	7287	7287	7444	7444	7444	0	0	0	0	0	0	0	3621	3621	3621	3583	3583	3583	3583	3583	3583	3583	3583	3583	3583	3583	3583	3583	3583	3583	3583	3583	3583	3583	3546	3546	3546	3546	3510	3546	3546	3546	3475	3475	0	0	0	0	0	0	0	0	0	0	0	6992	6853	6992	6992	6992	6992	6992	6992	6853	6992	6992	6992	6992	7137	7137	7137	7137	7137	7137	7137	7137	0	0	0	0	6992	6992	6992	6992	7137	7137	7137	7137	7137	7137	7137	7137	6992	7137	7137	6992	6992	6992	7137	7137	7287	7287	7287	7287	7287	7137	7137	7137	7137	7137	7137	7137	7137	7137	7137	7137	7137	6992	6992	6992	6992	6992	6992	7137	7137	7137	7137	7137	7137	7137	7137	7137	7287	7137	7287	7137	7137	7137	7137	7137	7287	7137	7137	7137	0	0	0	0	0	0	6992	7137	6992	7137	7137	7137	7137	7137	7137	7137	7137	7137	7137	6853	6853	6853	6992	6992	6992	6992	6992	6720	0	0	0	0	0	0	0	0	0	0	0	0	0	0	0	0	0	0	0	0	6992	7137	7137	7137	7137	6992	6992	6853	6853	6853	6853	6720	6720	6853	6853	7137	7137	7137	0	0	0	0	0	7608	7608	7608	7444	7444	7444	7444	7287	7444	7444	7444	7444	7444	7444	7444	7444	7444	7444	7287	7287	7287	7444	7444	7444	7444	7444	7444	7608	7444	7444	7608	7444	7608	7444	7444	7444	7444	7287	7287	7444	7444	7287	7287	7287	7444	7444	7444	0	0	0	0	0	0	0	0	0	7444	7608	7444	7444	7444	7444	7444	7444	7444	7444	0	0	0	0	0	0	0	0	0	0	0	0	0	0	0	0	0	0	0	0	0	0	0	0	0	0	0	0	0	2609	2570	2570	2570	2551	2532	2532	2532	2532	2514	2514	2496	2496	2496	2496	2478	2460	2443	2443	0	0	0	0	0	0	0	0	0	0	0	0	0	0	0	0	0	0	0	0	0	0	0	0	0	0	0	0	0	0	0	0	0	0	0	0	0
0	0	0	891	896	905	905	903	905	908	908	910	910	910	920	925	930	940	942	942	945	945	948	948	948	948	994	994	997	1003	1003	1008	1011	1011	1014	1017	1017	1017	1017	1017	1020	1020	1020	1020	1020	1020	1023	1023	1026	1033	1036	1039	1039	1042	1048	1055	1058	1064	1074	1078	1085	1088	1088	1091	1091	1102	1102	1102	1105	1105	1363	1363	1363	1358	1363	1363	1363	1363	1363	1368	1368	1368	1368	1368	1374	1368	1368	1368	1374	1374	1379	1379	1390	1390	1396	1402	1402	1402	0	0	0	0	0	0	0	0	0	0	0	0	0	6720	6592	6720	6720	6720	6853	6853	6853	6853	6992	6992	0	0	0	0	0	0	0	7137	7137	7137	7287	7287	7287	7287	7287	7287	7287	7444	7444	7444	0	0	0	0	0	0	0	0	7287	7287	7137	7137	7137	7137	7287	7137	7287	7287	7287	0	0	0	0	0	0	0	0	0	0	0	0	0	0	7444	7444	7444	7444	0	0	0	0	0	0	0	0	0	0	7287	7287	7287	0	0	0	0	0	0	6720	6853	7137	6853	7137	7137	7137	7287	7287	7137	7137	0	0	0	0	0	7137	7137	7137	7137	7137	7137	7137	7137	6992	6992	6992	6992	6992	6992	7137	7137	7137	6992	6992	6853	6853	6853	6853	6853	6853	6992	6992	7137	7137	7137	7137	7137	7137	7137	6992	7137	6992	6992	6992	6992	7137	7137	7137	7137	7137	7137	7137	7137	7137	7137	7137	7137	7137	7137	7137	7137	7137	7137	7137	7287	7444	7444	7444	7608	7608	7608	7608	0	0	0	0	0	3621	3621	3621	3583	3583	3583	3583	3583	3583	3583	3583	3583	3583	3583	3583	3583	3583	3583	3583	3583	3583	3583	3546	3546	3546	3546	3510	3546	3510	3475	3475	3475	0	0	0	0	0	0	0	0	0	0	0	6992	6853	6992	6992	6992	6992	7137	6992	6992	7137	7137	7608	7608	7608	7287	7287	7137	7137	7137	7137	7137	0	0	6992	6992	6992	6992	7137	6992	7137	7137	7137	7137	7137	7137	7137	7137	7137	7137	7137	7137	7137	7137	7137	7444	7444	7444	7287	7287	7287	7137	7137	7137	6992	6992	7137	7137	7137	7137	7137	7137	7137	6992	6992	6992	6992	6992	6992	6992	7137	7137	7137	7137	7137	7137	7137	7137	7137	7137	7137	7137	7137	7137	7137	7137	7137	7137	7137	7137	0	0	0	0	0	0	0	7137	6992	7137	7137	7137	7137	7137	7137	7137	7137	7137	7137	6853	6992	6992	6992	6992	6992	7137	7137	7137	7137	0	0	0	0	0	0	0	0	0	0	0	0	0	0	0	0	0	0	0	6992	7137	7287	7137	7137	7137	6992	6992	6992	6992	6853	6853	6853	6992	6992	6992	7137	0	0	0	0	7608	7608	7779	7779	7608	7608	7608	7444	7444	7444	7444	7444	7444	7444	7444	7444	7444	7444	7444	7444	7444	7287	7287	7444	7444	7444	7444	7444	7444	7608	7608	7444	7608	7608	7608	7608	7608	7608	7444	7444	7444	7444	7444	7444	7444	7444	7444	7444	0	0	0	0	0	0	0	0	7444	7444	7444	7444	7444	7444	7444	7444	7444	7444	7608	7608	0	0	0	0	0	0	0	0	0	0	0	0	0	0	0	0	0	0	0	0	0	0	0	0	0	0	0	0	0	2570	2551	2570	2570	2551	2532	2532	2532	2532	2532	2514	2514	2496	2496	2496	2478	2460	2443	2443	0	0	0	0	0	0	0	0	0	0	0	0	0	0	0	0	0	0	0	0	0	0	0	0	0	0	0	0	0	0	0	0	0	0	0	0	0
0	0	0	889	894	903	903	903	905	908	908	910	910	910	917	930	932	940	942	942	945	945	948	948	948	948	988	985	997	997	1006	1008	1014	1017	1020	1020	1020	1020	1020	1023	1023	1023	1020	1023	1023	1023	1026	1026	1033	1033	1036	1039	1039	1042	1048	1055	1058	1064	1074	1078	1085	1085	1085	1091	1095	1102	1102	1105	1109	1109	0	1363	1363	1363	1363	1368	1368	1368	1368	1374	1374	1374	1374	1374	1374	1374	1374	1374	1374	1379	1379	1385	1390	1390	1396	1402	1402	1402	1402	0	0	0	0	0	0	0	0	0	0	0	0	6720	6720	6720	6720	6720	6720	6720	6720	6853	0	0	0	0	0	0	0	0	0	6992	7137	7137	7287	7287	7287	7287	7287	7287	7287	7287	7287	7287	7444	7444	7444	7608	7608	0	7287	7287	7287	7287	7287	7287	7287	7287	7287	7287	7287	7287	7287	0	0	0	0	0	0	0	0	0	0	0	0	0	0	0	0	0	0	0	0	0	0	0	0	0	0	0	0	7444	7444	0	0	0	0	0	0	0	6720	6992	6992	6992	7137	7137	7137	7287	7287	7287	7287	0	0	0	0	0	7287	7137	7137	7137	7137	7137	7137	7137	6992	6992	6992	6992	7137	7137	7137	7287	7287	7137	7137	6992	6992	6992	6992	6992	7137	6992	7137	7137	7137	7137	7137	7137	7137	7137	7137	7137	7137	7137	6992	7137	7137	7137	7137	7137	7287	7287	7287	7287	7287	7137	7137	7137	7137	7137	7137	7137	7137	7287	7287	7287	7444	7444	7444	7608	7608	7608	7608	3621	3621	3621	3621	3621	3621	3621	3621	3583	3583	3583	3583	3583	3583	3583	3583	3583	3583	3583	3546	3546	3583	3583	3583	3583	3583	3546	3583	3583	3583	3546	3546	3546	3510	3510	3510	3510	0	0	0	0	0	0	0	0	0	0	0	0	6853	6992	6992	6992	6992	7137	7137	7137	7137	7608	7608	7608	7608	7608	7287	7137	7137	7137	7137	7137	7137	6992	6992	6992	6992	6992	6992	6992	7137	7137	7137	7137	7137	7137	7137	7137	7137	7137	7137	7137	7287	7137	7287	7444	7444	7444	7287	7287	7287	7137	7137	7137	7137	7137	7137	7137	7137	7137	7137	7137	7137	7137	7137	7137	6992	6992	7137	7137	7137	7137	7137	7137	7137	7137	7137	7137	7137	7137	7137	7137	7137	7137	7137	7137	7137	7137	7137	7137	7287	7287	0	0	0	0	0	0	0	7137	7137	7137	7137	7137	7137	7137	7137	7137	7137	6853	6853	6992	6992	7137	6992	6992	6992	7287	7137	7137	7137	0	7287	7287	0	0	0	0	0	0	0	0	0	0	0	0	0	0	0	7137	7137	7137	7137	7137	6992	6992	6992	6992	6992	6992	6992	6992	6992	6992	0	0	7608	7608	7608	7608	7608	7779	7608	7608	7608	7608	7608	7608	7444	7444	7444	7444	7444	7444	7444	7444	7608	7444	7444	7444	7444	7444	7444	7608	7608	7444	7444	7608	7608	7608	7608	7608	7608	7608	7608	7608	7444	7444	7444	7444	7444	7608	7444	7444	7444	7444	7444	0	0	0	0	0	7444	7444	7444	7444	7444	7444	7444	7444	7444	7444	7444	7444	7608	7608	7608	7608	7608	0	0	0	0	0	0	0	0	0	0	0	0	0	0	0	0	0	0	0	0	0	0	0	0	0	0	0	2570	2551	2551	2551	2551	2532	2551	2551	2551	2532	2532	2514	2496	2496	2496	2478	2460	2443	2443	0	0	0	0	0	0	0	0	0	0	0	0	0	0	0	0	0	0	0	0	0	0	0	0	0	0	0	0	0	0	0	0	0	0	0	0	0
0	0	0	889	896	903	903	905	905	908	908	910	913	913	920	922	927	942	942	942	945	945	948	948	953	953	974	977	977	974	974	974	1020	1020	1023	1026	1023	1026	1026	1026	1026	1026	1023	1023	1023	1023	1026	1026	1026	1033	1036	1039	1039	1045	1052	1058	1061	1068	1071	1074	1074	1085	1081	1085	1091	1098	1102	1105	1109	1109	0	1363	1363	1363	1363	1379	1379	1374	1379	1379	1379	1379	1379	1379	1379	1379	1374	1374	1379	1385	1385	1390	1390	1396	1402	1402	1402	1419	1425	1425	1425	0	0	0	0	0	0	0	0	0	0	6720	6720	6720	6720	6720	6720	6720	6720	0	0	0	0	0	0	0	0	0	0	6992	7137	7137	7287	7287	7287	7287	7287	7287	7287	7444	7444	7444	7444	7608	7444	7444	7287	7444	7287	7287	7287	7287	7137	7287	7287	7287	7287	7287	7287	7287	0	0	0	0	0	0	0	0	0	0	0	0	0	0	0	0	7444	7444	7444	7608	7444	7444	0	0	0	0	0	7444	7444	7444	7444	7444	7444	7444	7444	0	7137	7137	7137	7137	7137	6992	7137	7137	7137	7137	7137	7287	7287	0	0	0	0	0	7287	7287	7287	7287	7137	7137	7137	7137	7137	7137	7137	7137	7137	7137	7287	7287	7287	7287	7287	7137	7137	7137	6992	6992	7137	6992	7137	7137	7137	7137	7137	7137	7137	7137	7137	7137	7137	7287	7287	7137	7137	7137	7287	7287	7287	7287	7287	7287	7287	7287	7137	7137	7137	7137	7137	7137	7137	7137	7137	7287	7444	3583	3583	3583	3583	3583	3621	3621	3621	3621	3621	3621	3621	3621	3621	3621	3583	3583	3583	3583	3583	3546	3546	3583	3583	3583	3583	3583	3583	3583	3583	3583	3583	3583	3583	3583	3583	3583	3546	3583	3510	3510	3510	3510	3546	3546	3546	0	0	0	0	0	0	0	0	0	0	0	0	6992	7137	7137	7137	7137	7137	7444	7444	7444	7444	7287	7287	7137	7137	7137	7137	7137	7137	7137	7137	6992	7137	6992	7137	7137	7137	7137	7137	7137	7287	7137	7137	7137	7137	7137	7137	7137	7287	7137	7287	7287	7444	7444	7287	7287	7287	7137	7137	7137	7137	7137	7137	7137	7137	7137	7137	7287	7287	7287	7137	7287	7287	7287	7287	7287	7287	7287	7287	7287	7137	7137	7137	7137	7137	7287	7287	7287	7287	7137	7137	7137	7137	7137	7137	7137	7287	7287	7287	0	0	0	0	0	0	0	7137	7137	7137	7137	7137	7137	7137	7137	7287	7287	6853	0	0	7137	6992	6992	6992	7287	7137	7137	7137	7287	7287	7287	7287	0	0	0	0	0	0	0	0	0	0	0	0	0	0	0	7287	7137	7137	7137	6992	6992	6992	6992	6992	6992	7444	7444	6992	6992	7444	7444	7608	7444	7444	7444	7608	7608	7608	7779	7779	7779	7608	7608	0	0	7608	7608	7608	7444	7444	7444	7608	7608	7444	7444	7444	7444	7608	7608	7608	7444	8146	8146	8146	7959	7959	7779	7779	7779	7608	7608	7608	7608	7608	7608	7444	7608	7444	7444	7444	7444	7444	0	0	0	0	7444	7444	7444	7608	7608	7608	7444	7444	7444	7444	7444	7444	7444	7444	7608	7608	7608	7608	0	0	0	0	0	0	0	0	0	0	0	0	0	0	0	0	0	0	0	0	0	0	0	0	0	0	2570	2570	2551	2570	2570	2551	2551	2551	2551	2551	2532	2532	2514	2514	2496	2496	2478	2460	2443	2443	0	0	0	0	0	0	0	0	0	0	0	0	0	0	0	0	0	0	0	0	0	0	0	0	0	0	0	0	0	0	0	0	0	0	0	0	0
0	0	0	889	896	901	903	903	905	905	908	910	913	913	917	920	925	940	940	942	942	942	945	948	950	961	969	974	972	974	974	974	974	1026	1026	1030	1026	1030	1030	1030	1030	1030	1026	1026	1026	1026	1026	1030	1033	1033	1036	1039	1039	1042	1052	1058	1061	1068	1074	1071	1074	1081	1081	1085	1085	1098	1102	1105	1105	1109	1407	1390	1390	1385	1385	1385	1390	1385	1390	1390	1379	1379	1385	1390	1390	1385	1379	1379	1385	1390	1390	1396	1396	1402	1402	1407	1413	1419	1425	1431	1425	1425	1443	1443	0	0	0	0	0	0	0	6720	6720	6720	6720	0	0	0	0	0	0	0	0	0	0	0	0	0	0	0	7137	7287	7287	7287	7287	7287	7444	7444	7287	7444	7444	7444	7444	7444	7444	7444	7287	7444	7444	7444	7287	7287	7287	7287	7287	7287	7287	7287	7287	7287	0	0	0	0	0	0	0	0	0	0	0	0	0	0	0	0	7444	7444	7444	7444	7444	7444	7444	7444	0	0	0	7287	7287	7287	7287	7444	7444	7444	7444	7287	7287	7287	7287	7137	7137	7137	7137	7287	7287	7287	7287	7287	7287	7287	0	0	0	0	7287	7287	7287	7287	7137	7137	7137	7137	7137	7137	7137	7137	7137	7287	7287	7287	7287	7287	7287	7287	7287	7137	7137	7137	7137	7137	7137	7137	7137	7137	7287	7287	7287	7137	7287	7287	7287	7287	7287	7287	7287	7287	7287	7287	7287	7287	7287	7608	7287	7287	7137	7137	7137	7137	7287	7287	7287	7287	3546	3583	3583	3583	3583	3583	3546	3583	3621	3583	3583	3583	3621	3621	3621	3621	3621	3621	3583	3583	3583	3583	3583	3546	3546	3583	3583	3583	3583	3583	3583	3583	3583	3583	3583	3583	3583	3583	3583	3583	3546	3583	3546	3510	3510	3546	3546	3546	3621	3621	0	0	0	0	0	0	0	0	0	0	0	7137	7137	7137	7287	7287	7444	7444	7444	7287	7287	7287	7137	7137	7137	7137	7137	7137	7137	7137	7137	7137	7137	6992	7137	7137	7137	7137	7287	7287	7287	7287	7287	7137	7137	7137	7287	7287	7287	7287	7444	7444	7444	7444	7287	7137	7287	7137	7137	7137	7137	7137	7137	7137	7137	7137	7137	7287	7287	7287	7444	7444	7444	7444	7287	7287	7287	7287	7287	7287	7287	7287	7137	7137	7287	7287	7287	7287	7287	7287	7287	7287	7287	7287	7287	7287	7444	7444	7444	7444	0	0	0	0	0	0	0	7287	7137	7137	7137	7137	7287	7287	7287	7287	0	0	0	0	0	0	0	7287	7287	7287	7137	7287	7287	7287	7287	0	0	0	0	0	0	0	0	0	0	0	0	0	0	0	7287	7137	7137	7287	7287	6992	7137	7444	7444	7444	7444	7608	7608	7608	7608	7608	7608	7444	7444	7444	7608	7608	7608	7779	7608	7608	7608	7608	0	0	7608	7608	7608	7608	7608	7608	7444	7444	7444	7444	7444	7444	7608	7608	7608	0	7959	7959	8146	7959	7959	7959	7779	7779	7779	7608	7608	7608	7608	7608	7608	7608	7608	7444	7444	7444	7608	7444	7444	7444	7444	7444	7608	7608	7608	7608	7608	7608	7608	7444	7444	7444	7444	7444	7444	7444	7608	7608	7608	7608	7608	0	0	0	0	0	0	0	0	0	0	0	0	0	0	0	0	0	0	0	0	0	0	0	0	2589	2570	2551	2570	2570	2551	2532	2532	2551	2551	2532	2514	2496	2496	2496	2496	2478	2460	2443	2443	0	0	0	0	0	0	0	0	0	0	0	0	0	0	0	0	0	0	0	0	0	0	0	0	0	0	0	0	0	0	0	0	0	0	0	0	0
0	0	0	889	894	896	901	903	903	905	908	910	913	915	920	922	925	937	940	942	942	945	948	948	955	958	963	969	969	969	972	974	974	974	1030	1030	1026	1026	1030	1030	1033	1033	1033	1030	1033	1048	1033	1036	1036	1039	1042	1045	1045	1048	1052	1055	1061	1068	1071	1071	1074	1078	1078	1085	1095	1102	1102	1105	1109	1109	1407	1402	1396	1396	1396	1396	1396	1390	1390	1390	1390	1385	1385	1390	1390	1385	1385	1379	1385	1390	1390	1390	1396	1396	1402	1407	1413	1419	1425	1431	1431	1443	1443	1443	0	0	0	0	0	0	6720	6720	6592	6592	6720	6720	0	0	0	0	0	0	0	0	0	0	0	0	0	7287	7287	7287	7444	7444	7444	7287	7444	7287	7287	7444	7444	7444	7444	7444	7444	7444	7444	7444	7287	7444	7444	7287	7287	7287	7287	7287	7287	0	0	0	0	0	0	0	0	0	0	0	0	0	0	0	0	0	0	7444	7444	7444	7444	7444	7444	7444	7444	7444	7444	0	0	7444	7444	7287	7287	7444	7444	7444	7608	7287	7287	7287	7287	7287	7287	7287	7287	7444	7444	7287	7287	7287	7287	7287	7287	7287	7287	0	7287	7287	7287	7287	7287	7287	7287	7287	7287	7287	7137	7137	7287	7287	7287	7287	7287	7287	7287	7287	7287	7287	7287	7137	7137	7137	7137	7287	7287	7287	7287	7287	7444	7444	7444	7444	7444	7444	7444	7287	7287	7287	7444	7287	7444	7444	7444	7608	7608	7287	7287	7137	7137	7137	7287	7287	7287	7287	3546	3546	3583	3583	3583	3583	3583	3583	3583	3583	3583	3583	3583	3583	3621	3621	3621	3583	3583	3583	3583	3583	3546	3546	3546	3546	3546	3583	3583	3583	3583	3583	3583	3583	3546	3583	3583	3583	3583	3583	3583	3583	3546	3546	3510	3546	3546	3546	3546	3546	3546	0	0	0	0	0	0	0	0	0	0	7137	7137	7287	7287	7287	7444	7444	7444	7287	7287	7287	7137	7137	7137	7137	7137	7137	7137	7137	7137	7137	7137	6992	7137	7137	7287	7287	7287	7287	7287	7287	7287	7287	7137	7287	7287	7287	7444	7287	7287	7287	7444	7287	7287	7137	7137	7287	7287	7137	7137	7137	7287	7287	7287	7287	7287	7287	7287	7287	7287	7287	7444	7444	7287	7444	7444	7444	7444	7444	7287	7287	7287	7287	7287	7287	7287	7287	7444	7287	7287	7444	7444	7287	7287	7444	7444	7444	7444	7444	7444	7444	7444	0	0	0	0	7287	7287	7287	7287	7287	7287	7287	7287	7287	0	0	0	0	0	0	0	7287	7287	7287	7287	7287	7287	7137	7137	0	0	0	0	0	0	0	0	0	0	0	0	0	0	0	0	7137	7137	7287	7287	0	7137	7444	7608	7608	7608	7608	7608	7608	7608	7608	7608	7444	7444	7444	7608	7608	7608	7779	7779	7779	7779	7608	0	0	7608	7608	7608	7608	7608	7444	7444	7444	7444	7444	0	0	0	0	0	0	7959	7959	7959	7959	8146	7959	7779	7779	7779	7608	7608	7608	7608	7608	7608	7608	7608	7444	7444	7444	7444	7444	7444	7444	7608	7608	7608	7608	7608	7608	7608	7608	7608	7608	7608	7608	7608	7444	7444	7608	7608	7608	7608	7608	7608	7444	7444	0	0	0	0	0	0	0	0	0	0	0	0	0	0	0	0	0	0	0	0	0	0	2570	2570	2570	2570	2570	2551	2551	2551	2551	2551	2532	2532	2496	2496	2496	2496	2478	2460	2460	2460	0	0	0	0	0	0	0	0	0	0	0	0	0	0	0	0	0	0	0	0	0	0	0	0	0	0	0	0	0	0	0	0	0	0	0	0	0
