0	0	0	0	0	896	896	896	896	898	903	905	908	915	920	922	925	925	927	930	932	935	940	945	948	953	955	961	961	963	966	969	969	972	977	980	983	985	991	997	1000	1008	1008	1008	1011	1014	1020	1030	1033	1036	1039	1042	1048	1055	1058	1058	1061	1064	1071	1074	1074	1078	1078	1081	1081	1085	1088	1091	1095	1098	1098	1098	0	0	0	0	0	0	0	4706	4838	4771	4771	4771	4771	4771	4771	4771	4771	4838	4771	4771	4771	4771	4771	4706	4706	4706	4706	4706	4706	4706	4706	4706	4706	4771	4771	4771	4771	4771	4771	4706	4706	4771	4771	4771	4838	4838	4838	4838	4838	4838	4771	4771	4771	4838	4771	4838	4838	4838	4838	4838	4838	4838	4771	4771	4706	4706	4771	4771	4771	4771	4706	4706	4706	4706	6592	6592	6592	6468	6468	8146	8146	8343	8343	8343	8343	8343	6592	6592	6592	6349	6349	7959	7959	6468	6349	6349	6592	6592	6592	6468	6592	6592	6468	6468	6349	6349	6349	6349	6349	6468	6468	8146	8146	7959	8146	8146	8146	8146	8146	8146	8146	8146	8343	8343	8146	7959	7959	7959	7959	7959	7959	7959	7959	8146	8146	8146	8146	8146	8146	8146	8146	8146	8146	8146	8146	8146	8146	8146	8146	8146	8146	7959	7959	7959	7959	7959	7959	8146	8343	8343	8343	8343	8343	8343	8146	8343	8146	8343	8343	8343	8343	8343	8146	8146	8146	8146	8146	8146	7959	7959	7959	8146	8146	8146	7959	7959	8146	8146	8146	8146	8550	3583	3583	3583	3583	3546	3475	3475	3475	3475	3475	3475	3475	3475	3475	3475	3440	3440	3475	3475	3475	3440	3475	3475	3475	3475	3475	3475	3475	3475	3475	3475	3475	3475	3440	3475	3475	3475	3475	3475	3475	3475	3475	3475	3440	3475	3475	3440	3440	3440	3475	3475	3475	3440	3440	3440	3440	3440	3440	3440	3440	3440	3440	3440	3475	3475	3440	3475	3475	3475	3510	3510	3510	3546	3583	4771	4771	4771	4771	4771	4771	4771	4706	4706	4706	4706	4706	4706	4706	4706	4706	4706	4706	4706	4706	4706	4643	4643	4581	4581	4521	4521	4521	4521	4521	4521	4521	4521	4521	4521	4521	4521	4521	4521	4521	4521	4521	4521	4521	4521	4463	4463	4521	4463	4463	4521	4521	4521	4521	4521	4463	4521	4463	4521	4521	4521	4521	4581	4581	4643	4643	4643	4706	4706	4706	4706	4706	4706	4706	4706	4771	4771	4771	4771	4838	4771	4771	4838	4838	4771	4771	4771	4771	4771	4706	4706	4706	4706	4706	4706	4706	4771	4771	4771	4771	4643	4643	4643	4581	4521	4463	4463	4463	4463	4521	4463	4521	4521	4521	4463	4463	4406	4406	4406	4406	4406	4463	4463	4463	4463	4463	4463	4463	4463	4463	4463	4463	4463	4521	4463	4463	4463	4463	4463	4463	4463	4463	4463	4463	4463	4521	4521	4581	4581	4643	4643	4643	4706	4706	4706	4706	4771	4771	4771	4771	4771	4771	4771	0	7959	8146	8146	8343	8343	8343	8343	8343	8343	8343	8146	8343	8343	8343	8343	8343	8550	8550	8550	8343	8343	8343	8343	8343	8343	8343	8343	8343	8343	8343	8343	8146	8343	8343	8343	8343	8550	8343	8550	8550	8550	8550	8550	8550	8550	8343	8343	8343	8343	8343	8550	8343	8550	8550	8550	8550	8550	8550	8550	8550	8343	8343	8550	8343	8550	8146	8146	8343	0	0	0	0	0	0	0	0	0	0	0	0	0	0	0	0	0	2532	2551	2570	2570	2551	2551	2551	2532	2532	2496	2496	2496	2496	2478	2478	2460	2460	2460	0	0	0	0	0	0	0	0	0	0	0	0	0	0	0	0	0	0	0	0	0	0	0	0	0	0	0	0	0	0	0	0	0	0	0	0
0	0	0	0	0	894	896	896	896	898	903	905	910	917	920	922	922	925	925	930	932	937	942	945	948	953	955	961	961	963	966	969	969	974	977	980	983	985	988	994	1000	1006	1008	1008	1011	1014	1023	1030	1036	1039	1039	1042	1045	1052	1058	1061	1064	1068	1071	1074	1074	1078	1078	1081	1081	1081	1085	1091	1091	1095	1095	1098	0	0	0	0	0	0	0	0	4838	4771	4771	4771	4771	4771	4771	4771	4771	4771	4771	4771	4771	4771	4771	4771	4706	4706	4706	4706	4706	4771	4771	4771	4771	4771	4771	4838	4771	4771	4771	4706	4771	4771	4771	4771	4838	4838	4838	4838	4838	4838	4771	4771	4838	4838	4838	4838	4838	4838	4838	4838	4838	4838	4838	4771	4771	4771	4771	4771	4771	4771	4771	4771	4771	4771	6592	6592	6468	6468	6468	6468	6468	6468	6468	6468	6468	6468	6468	6592	6592	6349	6349	6468	6468	6468	6349	6468	6592	6592	6592	6468	6592	6592	6468	6468	6349	6349	6349	6349	6468	6468	6468	6468	8146	8146	8146	8146	8146	8146	8146	8146	8146	8146	8146	8146	8146	7959	7959	7959	7959	7959	7959	7959	7959	8146	8146	8146	8146	8146	8343	8343	8146	8146	8146	8146	8146	8146	8146	8146	8146	8146	8146	7959	7959	8146	8146	8146	8146	8343	8343	8343	8343	8343	8343	8343	8343	8343	8343	8343	8343	8343	8343	8146	8146	8146	8146	8146	8146	8146	8146	7959	7959	8146	8146	8146	7959	7959	8146	8146	8146	8146	8343	8343	8343	3583	3583	3546	3475	3475	3475	3475	3475	3475	3475	3475	3475	3475	3440	3475	3475	3475	3475	3440	3475	3475	3475	3475	3475	3475	3475	3475	3475	3475	3475	3475	3475	3475	3475	3475	3475	3475	3475	3475	3475	3440	3440	3440	3440	3440	3440	3440	3440	3440	3440	3440	3440	3440	3440	3440	3440	3440	3440	3440	3440	3440	3475	3475	3440	3440	3475	3475	3510	3510	4771	4771	4771	4771	4771	4771	4771	4771	4771	4771	4771	4706	4706	4706	4706	4706	4706	4706	4706	4706	4706	4706	4706	4706	4643	4643	4643	4581	4521	4521	4521	4521	4521	4521	4521	4521	4521	4521	4521	4521	4521	4521	4521	4521	4521	4521	4463	4521	4463	4463	4463	4463	4463	4521	4521	4521	4521	4521	4463	4463	4463	4463	4521	4521	4521	4581	4581	4581	4581	4581	4643	4643	4643	4643	4643	4643	4706	4706	4706	4706	4706	4706	4771	4771	4771	4771	4771	4771	4771	4771	4706	4706	4706	4643	4581	4581	4581	4521	4521	4521	4706	4771	4771	4643	4643	4581	4581	4521	4463	4463	4463	4463	4463	4463	4521	4521	4521	4463	4463	4406	4406	4406	4406	4406	4406	4406	4463	4463	4463	4463	4463	4463	4521	4521	4463	4463	4463	4463	4463	4463	4463	4463	4463	4463	4463	4463	4463	4463	4521	4581	4581	4581	4643	4643	4643	4643	4643	4643	4706	4771	4771	4771	4771	4771	4706	4706	4706	7959	8146	8146	8343	8343	8343	8343	8343	8343	8343	8343	8343	8343	8343	8343	8343	8343	8343	8343	8343	8343	8343	8343	8343	8343	8343	8146	8343	8343	8343	8343	8146	8343	8343	8343	8343	8343	8343	8550	8550	8550	8550	8550	8550	8550	8343	8343	8343	8343	8343	8550	8343	8550	8343	8343	8550	8550	8550	8550	8550	8343	8343	8343	8343	8146	8146	8146	0	0	0	0	0	0	0	0	0	0	0	0	0	0	0	0	0	0	2532	2551	2551	2551	2551	2551	2551	2551	2532	2496	2496	2496	2496	2496	2478	2478	2478	2478	0	0	0	0	0	0	0	0	0	0	0	0	0	0	0	0	0	0	0	0	0	0	0	0	0	0	0	0	0	0	0	0	0	0	0	0
0	0	0	0	0	894	894	896	896	898	903	908	910	910	917	922	922	925	927	930	932	937	942	942	948	953	955	961	961	963	966	969	969	974	977	977	980	983	985	988	1000	1006	1008	1011	1014	1017	1023	1030	1036	1039	1039	1042	1045	1052	1055	1058	1064	1068	1068	1071	1074	1074	1078	1085	1085	1085	1088	1095	1095	1098	1098	0	0	0	0	0	0	0	0	4771	4771	4771	4771	4771	4771	4771	4771	4771	4771	4838	4771	4838	4771	4771	4771	4771	4771	4771	4706	4771	4706	4771	4771	4771	4771	4771	4838	4838	4771	4771	4771	4706	4771	4771	4771	4771	4838	4838	4838	4838	4838	4838	4771	4771	4771	4771	4771	4838	4838	4838	4838	4838	4838	4838	4838	4771	4771	4771	4771	4771	4771	4771	4771	4771	4771	4771	6592	6468	6468	6468	6468	6468	6349	6468	6468	6468	6468	6468	6468	6592	6592	6349	6468	6468	6468	6468	6349	6468	6468	6468	6468	6468	6468	6468	6349	6349	6349	6349	6349	6349	6349	6468	6468	6468	6468	7959	7959	8146	8146	8146	8146	8146	8146	8146	8146	8343	8146	7959	7959	7959	7959	7959	7959	7959	7959	7959	8146	8146	8146	8146	8146	7959	7959	7959	7959	8146	7959	7959	8146	8146	8146	7959	7959	7959	7959	7959	8146	8146	8146	8343	8343	8343	8343	8343	8343	8343	8343	8343	8343	8343	8343	8343	8146	8146	8146	8146	8146	8146	7959	8146	8146	7959	8146	8146	7959	8146	7959	7959	7959	7959	8146	8343	8343	8550	8550	8550	0	0	3475	3475	3475	3475	3510	3475	3475	3475	3475	3475	3440	3440	3440	3440	3475	3440	3475	3475	3440	3475	3475	3475	3475	3475	3475	3475	3475	3475	3475	3475	3475	3475	3475	3475	3475	3475	3475	3475	3440	3440	3440	3440	3440	3440	3440	3440	3440	3440	3440	3440	3440	3440	3440	3440	3440	3440	3440	3440	3475	3475	3440	3440	4706	4706	4706	4706	4706	4771	4771	4771	4771	4771	4771	4771	4771	4771	4771	4706	4706	4706	4706	4706	4643	4643	4643	4706	4706	4706	4706	4706	4643	4643	4706	4521	4521	4521	4521	4521	4521	4521	4463	4521	4463	4463	4521	4521	4521	4521	4521	4521	4521	4521	4521	4463	4463	4463	4463	4463	4463	4521	4521	4463	4521	4521	4463	4463	4463	4463	4521	4521	4521	4521	4581	4581	4581	4581	4581	4581	4521	4521	4581	4581	4643	4643	4643	4706	4706	4706	4771	4771	4706	4706	4771	4771	4706	4706	4521	4521	4521	4521	4521	4521	4521	4521	4521	4521	4706	4706	4706	4643	4643	4643	4581	4521	4463	4463	4463	4463	4463	4463	4463	4521	4521	4521	4463	4406	4406	4406	4406	4406	4406	4406	4463	4463	4463	4463	4463	4463	4463	4463	4463	4463	4406	4406	4406	4463	4463	4463	4463	4463	4463	4463	4463	4521	4581	4581	4581	4581	4581	4581	4581	4581	4581	4643	4706	4771	4771	4771	4771	4771	4771	4771	4771	7779	7959	7959	8146	8146	8146	8146	8343	8343	8343	8343	8343	8343	8343	8343	8343	8146	8146	8146	8343	8343	8343	8343	8343	8343	8343	8146	8146	8146	8146	8146	8146	8343	8343	8343	8343	8343	8343	8550	8550	8767	8550	8550	8550	8550	8343	8343	8343	8343	8550	8550	8550	8550	8550	8550	8550	8550	8550	8550	8550	8343	8343	8343	8343	8343	8343	0	0	0	0	0	0	0	0	0	0	0	0	0	0	0	0	0	0	0	2532	2551	2551	2551	2551	2551	2551	2551	2532	2514	2496	2496	2496	2496	2478	2478	2478	2478	0	0	0	0	0	0	0	0	0	0	0	0	0	0	0	0	0	0	0	0	0	0	0	0	0	0	0	0	0	0	0	0	0	0	0	0
0	0	0	0	0	891	891	894	894	896	903	905	905	917	920	922	922	925	927	932	935	935	940	945	945	948	953	958	958	966	966	969	969	974	977	977	980	983	985	988	1000	1008	1011	1011	1014	1020	1023	1030	1033	1039	1039	1042	1045	1048	1052	1052	1064	1068	1068	1071	1074	1078	1078	1085	1085	1088	1088	1091	1095	1095	1095	0	0	0	0	0	0	0	0	4771	4838	4771	4771	4771	4771	4771	4771	4771	4838	4838	4838	4838	4771	4771	4771	4706	4771	4771	4771	4771	4771	4771	4771	4771	4771	4771	4838	4838	4771	4771	4771	4771	4771	4771	4771	4771	4838	4771	4771	4838	4838	4771	4771	4771	4771	4771	4771	4838	4838	4838	4838	4838	4838	4838	4838	4771	4771	4771	4771	4771	4771	4771	4838	4771	4771	4771	6468	6468	6468	6468	6468	6468	6349	6468	6468	6468	6468	6468	6468	6468	6349	6349	6468	6468	6468	6349	6349	6468	6468	6468	6468	6468	6468	6468	6349	6349	6349	6349	6349	6349	6349	6468	6468	6468	6468	7959	7959	7959	8146	8146	8146	8146	8146	8146	8146	8343	8146	7959	7959	7959	7959	7959	7959	7959	7959	7959	7959	7959	7959	7959	7959	7959	7959	7959	8146	8146	7959	7959	7959	8146	7959	7959	7959	7959	7959	8146	7959	8146	8146	8343	8343	8343	8343	8146	8343	8343	8343	8343	8343	8343	8343	8343	8146	8146	8146	8146	8146	8146	8146	8146	8146	7959	7959	8146	7959	7959	7959	7959	7959	7959	8146	8343	8550	8550	8550	8550	8550	0	3475	3475	3510	3510	3510	3475	3475	3475	3475	3475	3475	3475	3440	3440	3440	3440	3440	3475	3440	3475	3475	3475	3475	3475	3475	3475	3475	3475	3475	3475	3475	3475	3475	3475	3475	3475	3475	3475	3475	3440	3440	3440	3440	3440	3440	3440	3440	3440	3440	3440	3440	3440	3440	3440	3440	3440	3440	3475	3475	3475	3475	4706	4706	4706	4706	4706	4706	4706	4771	4771	4771	4771	4771	4771	4771	4771	4771	4706	4706	4706	4706	4706	4643	4643	4643	4643	4706	4706	4706	4643	4706	4706	4706	4521	4521	4521	4521	4521	4521	4521	4521	4521	4463	4463	4463	4521	4521	4521	4521	4521	4521	4521	4521	4463	4521	4521	4521	4521	4521	4521	4521	4521	4521	4463	4463	4463	4463	4463	4521	4521	4521	4521	4521	4521	4521	4521	4521	4521	4521	4521	4521	4521	4581	4581	4581	4581	4643	4643	4706	4706	4643	4643	4521	4521	4521	4463	4463	4521	4521	4521	4521	4463	4463	4463	4521	4521	4643	4643	4706	4643	4643	4581	4521	4521	4463	4406	4463	4463	4521	4463	4463	4521	4521	4521	4463	4406	4350	4406	4406	4406	4406	4406	4463	4463	4463	4463	4406	4406	4463	4463	4463	4463	4463	4406	4406	4463	4463	4463	4463	4463	4463	4521	4521	4521	4581	4521	4581	4581	4581	4581	4581	4521	4521	4581	4706	4706	4706	4771	4771	4771	4771	4706	4706	4706	7959	8343	8343	8146	8146	8146	8343	8343	8343	8343	8343	8343	8343	8343	8343	8146	8146	8146	8343	8343	8343	8343	8343	8343	8343	8343	8343	8343	8343	8343	8146	8343	8343	8343	8343	8343	8343	8550	8550	8550	8343	8343	8343	8550	8343	8343	8343	8343	8550	8550	8550	8550	8550	8550	8343	8343	8343	8343	8550	8343	8343	8550	8343	8343	8343	8146	8146	0	0	8550	8550	8343	8343	0	0	0	0	0	0	0	0	0	0	0	2551	2551	2570	2570	2551	2551	2551	2551	2551	2532	2514	2496	2496	2496	2478	2478	2478	2478	0	0	0	0	0	0	0	0	0	0	0	0	0	0	0	0	0	0	0	0	0	0	0	0	0	0	0	0	0	0	0	0	0	0	0	0
0	0	0	0	0	889	891	894	896	896	903	905	910	915	915	920	922	925	930	930	935	937	940	945	945	948	950	955	958	963	966	969	969	972	974	977	980	983	985	988	997	1008	1014	1017	1017	1023	1023	1030	1030	1036	1039	1042	1045	1048	1052	1058	1064	1068	1068	1071	1074	1078	1078	1085	1085	1088	1088	1095	1095	1095	1095	0	0	0	0	0	0	0	0	0	4838	4771	4771	4771	4771	4838	4771	4771	4838	4838	4838	4838	4771	4771	4771	4771	4771	4771	4771	4771	4771	4771	4771	4771	4771	4771	4771	4771	4771	4771	4771	4706	4706	4771	4706	4771	4771	4771	4706	4838	4838	4771	4771	4771	4771	4771	4771	4838	4838	4838	4838	4838	4838	4838	4838	4838	4838	4838	4838	4771	4771	4771	4771	4771	4771	6592	6468	6468	6468	6468	6468	6468	6468	6468	6468	6468	6468	6349	6468	6468	6468	6349	6349	6468	6349	6349	6349	6349	6349	6468	6468	6349	6468	6468	6349	6349	6349	6349	6349	6349	6349	6349	6349	6349	6592	7959	8146	7959	8146	8146	8146	8146	8146	8146	8146	8343	8146	7959	7959	7959	7959	7959	7959	7959	7959	7959	7959	8146	7959	7959	7959	7959	7959	7959	7959	7959	7959	7959	7959	7959	7959	7959	7959	7959	7959	7959	8146	8146	8146	8343	8550	8550	8343	8146	8343	8343	8343	8343	8343	8343	8146	8146	8146	8146	8146	8146	8146	8146	8146	8146	8146	8146	7959	8146	7959	7959	7959	8146	8146	8146	8343	8343	8550	8550	8550	8550	8550	0	0	3475	3510	3510	3510	3475	3475	3475	3475	3475	3475	3475	3475	3475	3475	3440	3440	3475	3440	3475	3475	3475	3475	3475	3475	3475	3475	3475	3475	3475	3475	3475	3475	3475	3475	3475	3475	3475	3475	3440	3440	3440	3440	3440	3440	3475	3475	3440	3440	3440	3440	3440	3440	3440	3440	3440	3440	3475	3475	3475	4706	4706	4706	4706	4706	4706	4706	4706	4706	4706	4771	4771	4771	4771	4771	4771	4771	4706	4706	4643	4706	4643	4581	4581	4581	4581	4706	4706	4706	4643	4706	4706	4706	4581	4581	4521	4521	4521	4521	4521	4463	4463	4463	4521	4521	4521	4463	4521	4521	4581	4581	4521	4521	4521	4521	4521	4521	4463	4463	4463	4521	4463	4463	4463	4463	4463	4463	4463	4521	4521	4521	4521	4521	4521	4521	4521	4463	4463	4463	4463	4521	4521	4521	4521	4581	4581	4581	4521	4521	4521	4521	4521	4581	4521	4521	4463	4463	4463	4463	4521	4463	4463	4463	4463	4521	4521	4643	4643	4643	4581	4581	4581	4521	4521	4521	4406	4463	4521	4521	4521	4463	0	0	0	4463	4406	4350	4406	4406	4406	4406	4406	4463	4463	4406	4406	4406	4406	4406	4463	4463	4463	4406	4406	4406	4406	4406	4406	4463	4406	4463	4521	4581	4581	4581	4521	4521	4521	4463	4521	4463	4406	4406	4463	4463	4643	4706	4706	4771	4771	4706	4706	4706	4706	7959	8343	8343	8146	8146	8146	8343	8343	8343	8343	8343	8343	8343	8343	8343	8146	8146	8146	8146	8343	8343	8343	8343	8146	8343	8146	8146	8146	8343	8146	8146	8146	8146	8146	8343	8146	8146	8550	8550	8550	8343	8343	8343	8343	8343	8343	8343	8343	8550	8550	8343	8550	8550	8343	8550	8550	8550	8550	8550	8343	8343	8343	8343	8343	8343	8343	8343	0	0	8550	8343	8343	8550	8550	0	0	0	0	0	0	0	0	0	0	2551	2551	2551	2570	2551	2551	2551	2551	2551	2551	2532	2514	2496	2496	2478	2478	2478	2478	0	0	0	0	0	0	0	0	0	0	0	0	0	0	0	0	0	0	0	0	0	0	0	0	0	0	0	0	0	0	0	0	0	0	0	0
0	0	0	0	0	889	891	894	894	896	901	905	908	908	913	917	922	925	925	932	935	937	940	940	945	945	948	953	961	961	966	969	969	972	974	980	980	977	985	985	988	988	1014	1017	1020	1020	1030	1030	1033	1036	1036	1039	1042	1045	1048	1058	1068	1068	1071	1074	1078	1081	1081	1085	1085	1085	1085	1088	1088	1088	1095	0	0	0	0	0	0	0	0	4838	4838	4771	4771	4771	4838	4838	4838	4838	4838	4838	4838	4838	4838	4771	4838	4838	4771	4771	4771	4771	4771	4771	4771	4771	4771	4771	4771	4771	4771	4771	4706	4706	4706	4771	4706	4771	4771	4771	4771	4771	4838	4771	4771	4771	4771	4771	4771	4838	4838	4838	4838	4838	4838	4838	4838	4838	4838	4838	4771	4771	4771	4771	4771	4706	4706	4643	4643	6468	6468	6468	6468	6468	6468	6468	6468	6468	6349	6349	6468	6468	6468	6468	6349	6349	6349	6349	6349	6349	6349	6349	6468	6468	6468	6468	6468	6349	6349	6349	6349	6349	6349	6349	6349	6349	6592	8146	8146	7959	8146	8146	8146	8146	8146	8146	8146	8146	8146	7959	7959	7959	7959	7959	7959	7959	7959	7959	7959	7959	7959	7959	7959	7959	7959	7959	7959	7959	7959	7959	7959	7959	7959	7959	7959	7959	8146	8146	8343	8146	8343	8343	8343	8343	8343	8146	8146	8146	8146	8146	8146	8146	8146	8146	8146	8146	8146	7959	8146	8146	8146	8146	8146	8146	8146	8146	7959	7959	8146	8146	8146	8550	8550	8550	8550	8550	8550	8550	8550	0	0	0	3510	3510	3510	3475	3475	3475	3475	3475	3475	3475	3475	3475	3440	3440	3440	3440	3440	3475	3475	3475	3475	3475	3475	3475	3475	3475	3475	3475	3475	3475	3475	3475	3475	3475	3475	3475	3475	3440	3440	3440	3440	3440	3440	3475	3440	3440	3406	3440	3440	3440	3440	3440	3440	3440	3440	3475	3510	3510	4706	4771	4706	4706	4706	4706	4706	4706	4706	4706	4771	4771	4771	4771	4771	4771	4771	4706	4706	4643	4643	4581	4521	4521	4521	4581	4643	4706	4643	4643	4643	4706	4643	4521	4521	4521	4521	4521	4521	4521	4521	4521	4521	4521	4521	4521	4521	4521	4521	4581	4581	4521	4521	4521	4521	4521	4521	4521	4463	4463	4521	4463	4463	4463	4463	4521	4521	4521	4521	4581	4581	4581	4521	4521	4521	4463	4463	4463	4463	4463	4521	4521	4521	4521	4521	4521	4521	4521	4463	4521	4521	4521	4521	4521	4521	4521	4521	4521	4521	4521	4521	4463	4463	4406	4406	4643	4706	4643	4706	4581	4643	4581	4581	4463	4463	4463	4463	4521	4521	4521	4521	0	0	0	0	4463	4463	4463	4463	4463	4463	4463	4463	4463	4406	4406	4406	4463	4463	4521	4521	4521	4706	4706	4706	4463	4463	4463	4463	4463	4706	4706	4706	4581	4581	4521	4521	4521	4463	4463	4406	4406	4350	4406	4463	4581	4643	4643	4771	4771	4706	4706	4706	4706	0	8343	8343	8146	8146	8146	8146	8146	8343	8343	8343	8343	8343	8343	8146	8146	8146	8146	8146	8146	8146	8146	8146	8146	8146	8146	8146	8146	8146	8146	8146	8146	8146	8146	8146	8146	8146	8343	8550	8550	8343	8343	8343	8550	8550	8343	8343	8343	8550	8550	8550	8550	8550	8550	8550	8767	8550	8550	8550	8343	8343	8343	8343	8343	8343	8343	8343	0	0	8550	8343	8343	8550	8550	0	0	0	0	0	0	0	0	0	0	2551	2551	2551	2551	2551	2551	2551	2551	2551	2551	2532	2514	2496	2496	2496	2478	2478	2478	0	0	0	0	0	0	0	0	0	0	0	0	0	0	0	0	0	0	0	0	0	0	0	0	0	0	0	0	0	0	0	0	0	0	0	0
0	0	0	0	0	887	891	894	894	896	898	903	908	910	910	917	917	922	925	925	932	940	942	945	945	948	948	950	958	958	966	969	972	974	974	977	977	983	985	988	1003	1003	1011	1017	1020	1023	1030	1030	1033	1036	1039	1039	1042	1045	1048	1061	1068	1071	1074	1078	1081	1081	1081	1085	1085	1085	1085	1085	1085	1085	0	0	0	0	0	0	0	0	0	4838	4838	4771	4771	4771	4771	4771	4771	4771	4838	4838	4838	4838	4771	4771	4771	4771	4771	4771	4771	4771	4771	4771	4771	4771	4771	4771	4771	4771	4771	4771	4706	4706	4706	4706	4706	4706	4706	4706	4706	4706	4706	4771	4771	4771	4771	4838	4838	4838	4838	4838	4838	4838	4838	4838	4838	4838	4838	4838	4771	4771	4771	4771	4706	4706	4643	4581	4581	6468	6468	6592	6468	6468	6468	6468	6468	6468	6349	6349	6349	6468	6349	6349	6349	6349	6349	6349	6349	6349	6349	6349	6468	6468	6468	6468	6468	6349	6349	6349	6349	6349	6349	6349	6349	6349	6349	8146	7959	7959	7959	8146	7959	7959	7959	8146	8146	8146	8146	7959	7959	7959	7959	7959	7959	7959	7959	7959	7959	7959	7959	7959	7959	7959	7959	7959	7959	7959	7959	7959	7959	7959	7959	8146	8146	8146	8146	8343	8343	8343	8343	8343	8343	8343	8343	8146	8146	8146	8146	8146	8146	8146	8146	8146	8146	7959	7959	7959	8146	8146	8146	7959	7959	8146	8146	8146	8146	8146	8343	8343	8343	8343	8343	8550	8550	8550	8550	8550	8343	8343	0	0	0	3510	3510	3475	3475	3475	3475	3475	3475	3475	3475	3475	3475	3440	3475	3475	3440	3475	3475	3475	3475	3475	3475	3475	3510	3510	3475	3510	3475	3475	3475	3475	3475	3475	3475	3475	3475	3475	3475	3440	3440	3440	3440	3440	3440	3440	3406	3440	3440	3440	3440	3440	3440	3440	3440	3475	3510	3510	4706	4706	4706	4706	4706	4706	4706	4706	4706	4706	4771	4771	4771	4771	4771	4771	4771	4771	4706	4643	4643	4581	4521	4521	4581	4581	4706	4706	4643	4643	4643	4643	4643	4521	4521	4521	4521	4521	4521	4521	4581	4581	4521	4521	4521	4581	4581	4643	4838	4581	4581	4581	4521	4521	4521	4521	4521	4521	4463	4463	4521	4521	4521	4521	4521	4581	4521	4581	4581	4643	4643	4643	4581	4581	4581	4521	4521	4521	4463	4521	4521	4521	4521	4581	4581	4581	4521	4521	4463	4521	4521	4521	4521	4521	4521	4521	4521	4521	4521	4521	4463	4463	4463	4706	4706	4706	4706	4706	4706	4581	4643	4581	4581	4521	4521	4521	4463	4521	4581	4581	4581	0	0	0	0	4463	4463	4521	4521	4521	4581	4521	4521	4521	4463	4463	4463	4521	4643	4643	4706	4706	4706	4706	4706	4771	4706	4706	4643	4706	4706	4706	4706	4643	4643	4521	4521	4521	4463	4463	4406	4406	4350	4406	4406	4463	4581	4643	4706	4771	4771	4771	4771	4771	0	8343	8343	8343	8343	8343	8343	8343	8343	8343	8146	8343	8343	8343	8146	8146	8146	8146	8146	8146	8146	8146	8146	8146	8146	8146	8146	8146	8146	8146	8146	8146	8146	8146	8146	8146	8146	8343	8343	8343	8343	8343	8343	8343	8550	8343	8343	8550	8550	8343	8343	8343	8550	8550	8550	8550	8550	8550	8550	8343	8343	8343	8343	8343	8343	8343	8343	8343	8343	8550	8550	8343	8550	8550	0	0	0	0	0	0	0	0	0	0	0	2551	2570	2570	2551	2551	2551	2551	2551	2551	2532	2514	2496	2496	2496	2478	2478	2478	0	0	0	0	0	0	0	0	0	0	0	0	0	0	0	0	0	0	0	0	0	0	0	0	0	0	0	0	0	0	0	0	0	0	0	0
0	0	0	0	0	887	887	891	894	896	898	901	905	908	908	925	920	922	925	930	930	940	942	945	945	948	948	948	950	961	966	969	972	974	977	977	977	983	985	991	1000	1000	1011	1017	1023	1023	1023	1030	1033	1036	1039	1039	1042	1045	1048	1064	1071	1074	1074	1078	1081	1081	1085	1085	1085	1085	1085	1085	1085	1085	0	0	0	0	0	0	0	0	0	4838	4838	4771	4771	4838	4838	4838	4838	4838	4838	4838	4838	4771	4771	4771	4771	4771	4771	4771	4771	4771	4771	4771	4771	4771	4771	4771	4771	4771	4771	4706	4706	4706	4706	4706	4706	4706	4706	4706	4706	4706	4771	4771	4771	4771	4838	4838	4838	4838	4838	4838	4838	4838	4838	4838	4838	4838	4838	4838	4771	4771	4706	4706	4706	4643	4643	4581	4581	6468	6468	6592	6468	6468	6468	6468	6468	6468	6468	6468	6468	6468	6349	6349	6349	6349	6349	6349	6349	6349	6349	6468	6468	6468	6468	6468	6468	6468	6349	6349	6349	6349	6349	6349	6349	6349	6349	6349	8146	7959	7959	8146	7959	7959	7959	8146	8146	8146	8146	7959	8146	8146	8146	8146	8146	7959	7959	7959	7959	7959	7959	7959	7959	7959	7959	7959	7959	7959	7959	7959	7959	7959	8146	8146	8146	8146	8146	8146	8343	8343	8343	8146	8343	8343	8343	8146	8146	8146	8146	8146	8146	8146	8146	8146	7959	7959	7959	7959	7959	7959	7959	7959	8146	8146	8146	8146	8146	8146	8343	8343	8343	8343	8343	8343	8550	8550	8550	8550	8343	8343	0	0	0	3546	3510	3510	3510	3475	3475	3475	3475	3475	3475	3475	3475	3475	3475	3475	3440	3475	3475	3475	3475	3475	3475	3510	3510	3510	3510	3510	3510	3475	3510	3475	3475	3475	3475	3475	3475	3475	3475	3440	3440	3440	3440	3440	3440	3440	3440	3440	3440	3440	3440	3440	3440	3440	3440	3475	3510	3510	4706	4771	4706	4706	4706	4706	4706	4706	4706	4706	4706	4771	4771	4771	4771	4771	4771	4771	4706	4643	4643	4643	4581	4581	4643	4706	4706	4771	4706	4771	4771	4771	4706	4706	4643	4643	4643	4643	4643	4643	4706	4643	4581	4581	4643	4771	4643	4643	4838	4838	4771	4706	4581	4581	4581	4581	4521	4521	4521	4521	4521	4521	4521	4581	4581	4581	4581	4643	4643	4643	4706	4706	4643	4643	4643	4643	4643	4581	4581	4643	4643	4581	4643	4581	4581	4581	4581	4521	4521	4521	4581	4521	4581	4581	4643	4643	4643	4643	4643	4581	4581	4706	4706	4771	4771	4771	4706	4706	4706	4643	4643	4643	4643	4643	4643	4643	4521	4581	4643	4643	4581	0	4706	4706	4643	4643	4581	4643	4643	4643	4581	4581	4581	4581	4581	4521	4581	4643	4706	4706	4771	4771	4771	4771	4706	4771	4771	4706	4706	4706	4706	4706	4706	4643	4643	4581	4581	4521	4463	4463	4463	4406	4406	4463	4406	4521	4581	4706	4706	4771	4706	4771	4771	4771	0	8343	8343	8146	8146	8343	8343	8146	8343	8343	8146	8343	8146	8343	8146	8146	8146	8146	8146	8146	8146	8146	8146	8146	8343	8343	8146	8146	8146	8146	8146	8146	8146	8146	8343	8343	8146	8550	8343	8550	8343	8343	8343	8343	8343	8343	8550	8550	8550	8550	8343	8550	8550	8550	8550	8550	8550	8550	8550	8343	8343	8343	8343	8550	8343	8343	8343	8343	8343	8550	8343	8343	8343	8343	0	0	0	0	0	0	0	0	0	0	0	2570	2570	2570	2570	2570	2551	2551	2551	2551	2532	2496	2496	2496	2478	2478	2478	2478	0	0	0	0	0	0	0	0	0	0	0	0	0	0	0	0	0	0	0	0	0	0	0	0	0	0	0	0	0	0	0	0	0	0	0	0
0	0	0	0	0	887	889	891	896	896	898	898	903	908	908	913	920	922	925	925	925	937	937	945	945	948	948	948	948	963	966	972	972	974	977	977	977	983	991	997	1003	1008	1008	1020	1023	1023	1026	1030	1033	1036	1039	1039	1042	1048	1048	1061	1071	1074	1074	1078	1081	1081	1085	1085	1085	1085	1085	1085	1085	1085	0	0	0	0	0	0	0	0	0	4838	4838	4771	4771	4838	4838	4838	4838	4838	4838	4838	4838	4771	4771	4771	4771	4771	4771	4771	4771	4771	4771	4771	4771	4771	4771	4771	4771	4771	4771	4771	4706	4706	4706	4706	4706	4706	4706	4706	4706	4706	4771	4706	4771	4771	4771	4771	4771	4771	4838	4838	4838	4838	4838	4838	4838	4838	4838	4838	4771	4771	4706	4706	4706	4643	4643	4581	4581	6468	6468	6592	6468	6468	6468	6468	6468	6468	6468	6468	6349	6349	6349	6349	6349	6349	6349	6349	6349	6349	6349	6349	6349	6349	6349	6468	6468	6349	6349	6349	6349	6349	6349	6349	6349	6349	6349	7959	7959	7959	7959	8146	7959	7959	8146	8146	8146	8146	8146	8146	8146	8146	8146	8146	8146	7959	7959	7959	7959	7959	7959	7959	7959	7959	7959	7959	7959	7959	7959	7959	7959	7959	7959	8146	8146	8146	8146	8146	8146	8146	8146	8146	8146	8550	8146	8146	8146	8146	8146	8146	8146	8146	7959	7959	7959	7959	7959	7959	7959	8146	7959	7959	8146	8146	8146	8146	8146	8146	8343	8343	8343	8343	8343	8343	8550	8550	8550	8343	8343	8343	0	0	0	3546	3510	3510	3510	3475	3475	3475	3475	3475	3475	3475	3475	3475	3475	3475	3475	3440	3475	3475	3475	3475	3510	3510	3510	3510	3510	3510	3510	3510	3510	3475	3475	3475	3475	3475	3475	3475	3475	3475	3475	3475	3475	3440	3440	3440	3440	3440	3440	3440	3440	3440	3440	3440	3440	3440	3475	3475	4706	4771	4706	4706	4706	4706	4706	4706	4706	4706	4706	4706	4771	4771	4771	4771	4771	4771	4706	4706	4706	4643	4581	4581	4706	4706	4706	4706	4706	4706	4706	4771	4706	4706	4706	4706	4706	4706	4706	4706	4706	4706	4706	4771	4771	4771	4706	4706	4838	4838	4771	4706	4643	4581	4581	4581	4521	4521	4521	4521	4581	4643	4643	4706	4643	4643	4643	4706	4706	4706	4706	4771	4706	4706	4706	4706	4706	4706	4706	4706	4706	4643	4643	4643	4643	4643	4581	4581	4581	4581	4706	4706	4706	4643	4706	4706	4706	4706	4706	4706	4771	4771	4771	4771	4771	4771	4771	4771	4706	4643	4643	4643	4643	4643	4643	4643	4643	4643	4643	4643	4643	4706	4706	4706	4706	4706	4706	4706	4706	4643	4643	4643	4643	4643	4643	4581	4643	4643	4706	4706	4771	4771	4771	4771	4706	4706	4771	4771	4706	4706	4706	4706	4706	4643	4643	4581	4581	4521	4521	4463	4463	4463	4406	4521	4521	4581	4643	4643	4706	4706	4706	4771	4771	4771	0	8550	8343	8343	8343	8343	8343	8343	8343	8343	8146	8343	8146	8343	8146	8146	8146	8146	8146	8343	8146	8343	8343	8343	8343	8343	8343	8146	8146	8146	8146	8146	8146	8146	8343	8343	8146	8146	8146	8343	8343	8343	8343	8343	8343	8343	8550	8550	8550	8343	8343	8550	8550	8550	8550	8550	8550	8550	8767	8343	8343	8343	8343	8550	8550	8550	8550	8550	8550	8550	8550	8343	8343	8146	8146	0	0	0	0	0	0	0	0	0	0	2570	2570	2570	2570	2570	2551	2551	2551	2551	2532	2496	2496	2496	2478	2478	2478	2478	0	0	0	0	0	0	0	0	0	0	0	0	0	0	0	0	0	0	0	0	0	0	0	0	0	0	0	0	0	0	0	0	0	0	0	0
0	0	0	0	0	0	889	891	894	896	896	896	901	905	905	915	922	922	925	925	930	937	940	945	945	948	948	950	950	963	966	969	972	974	974	977	977	980	985	994	1000	1000	1008	1020	1026	1030	1026	1030	1033	1036	1039	1042	1045	1048	1052	1061	1071	1074	1074	1078	1081	1081	1085	1085	1085	1085	1085	1085	1085	1085	0	0	0	0	0	0	0	0	4906	4838	4838	4771	4771	4771	4838	4838	4838	4771	4771	4838	4838	4771	4771	4771	4771	4771	4771	4771	4771	4771	4706	4706	4771	4771	4771	4706	4706	4771	4706	4706	4706	4706	4706	4771	4706	4771	4706	4706	4706	4706	4771	4771	4771	4771	4771	4771	4771	4771	4838	4838	4838	4838	4838	4838	4838	4838	4838	4838	4771	4771	4706	4771	4706	4643	4581	4581	4581	6592	6592	6592	6592	6592	6592	6468	6468	6468	6468	6468	6349	6349	6349	6349	6349	6349	6349	6349	6349	6349	6349	6468	6349	6349	6349	6349	6468	6349	6349	6349	6349	6349	6349	6349	6349	6349	6349	8146	8146	7959	7959	8146	7959	7959	8146	8146	8146	8146	8146	8146	8146	8146	8146	8146	8146	7959	7959	7959	7959	7959	7959	7959	7959	7959	7959	7959	7959	7959	7959	7959	7959	7959	8146	8146	8146	8146	8146	8146	8146	8146	8146	8146	8146	8146	8146	8146	8146	8146	8146	7959	7959	7959	7959	7959	7959	7959	7959	7959	7959	7959	7959	7959	8146	8343	8343	8343	8343	8343	8343	8343	8343	8343	8343	8343	8550	8550	8343	8146	8146	8146	0	0	0	3546	3510	3475	3475	3475	3475	3475	3475	3475	3475	3475	3475	3475	3475	3440	3440	3440	3475	3475	3475	3475	3510	3510	3546	3546	3510	3510	3510	3510	3510	3475	3475	3475	3475	3475	3475	3475	3475	3475	3475	3475	3475	3440	3440	3440	3406	3440	3440	3440	3440	3440	3440	3440	3440	3440	3440	4643	4643	4771	4771	4706	4706	4706	4706	4706	4706	4706	4706	4706	4706	4706	4771	4771	4771	4706	4706	4643	4581	4581	4643	4643	4643	4706	4706	4706	4706	4706	4706	4706	4706	4706	4706	4706	4706	4706	4771	4706	4771	4706	4771	4771	4771	4771	4771	4771	4771	4771	4771	4771	4706	4706	4643	4643	4643	4643	4643	4581	4706	4771	4706	4771	4706	4706	4706	4706	4706	4706	4706	4706	4706	4706	4771	4771	4771	4771	4771	4706	4706	4706	4706	4581	4581	4581	4581	4521	4521	4521	4706	4706	4643	4643	4643	4706	4771	4706	4706	4706	4771	4771	4771	4771	4771	4771	4771	4706	4706	4643	4643	4643	4643	4643	4643	4643	4643	4706	4643	4643	4643	4706	4706	4706	4706	4706	4706	4706	4706	4706	4706	4643	4643	4643	4643	4643	4706	4706	4706	4706	4771	4706	4706	4706	4706	4706	4771	4771	4706	4706	4706	4706	4706	4643	4643	4581	4581	4521	4521	4463	4463	4406	4406	4406	4406	4643	4643	4706	4706	4706	4706	4706	4771	4771	0	8550	8343	8343	8343	8343	8343	8146	8146	8146	8146	8343	8146	8343	8343	8343	8343	8343	8343	8343	8343	8343	8343	8343	8343	8343	8146	8146	8146	8146	8146	8146	8146	8146	8146	8146	8343	8343	8146	8146	8343	8343	8343	8343	8343	8550	8343	8550	8550	8550	8343	8550	8550	8550	8550	8550	8550	8550	8767	8343	8343	8550	8343	8550	8550	8343	8343	8343	8550	8550	8343	8343	8146	7959	7959	0	0	0	0	0	0	0	0	0	0	2570	2570	2570	2570	2570	2551	2551	2551	2532	2532	2496	2496	2496	2478	2478	2478	2478	0	0	0	0	0	0	0	0	0	0	0	0	0	0	0	0	0	0	0	0	0	0	0	0	0	0	0	0	0	0	0	0	0	0	0	0
0	0	0	0	0	0	889	891	894	896	896	898	903	905	905	920	922	922	925	925	927	935	940	942	945	948	950	948	948	963	966	969	972	974	977	977	977	983	985	994	997	1003	1008	1008	1020	1026	1030	1030	1033	1036	1036	1042	1045	1048	1048	1048	1071	1074	1078	1078	1081	1081	1085	1085	1085	1085	1085	1085	1085	0	0	0	0	0	0	0	0	0	4906	4838	4838	4771	4706	4771	4771	4771	4771	4771	4771	4838	4838	4771	4771	4771	4771	4771	4706	4771	4706	4706	4706	4706	4706	4706	4706	4706	4706	4706	4706	4706	4706	4706	4771	4771	4771	4771	4771	4706	4771	4706	4771	4771	4771	4771	4771	4771	4771	4771	4838	4838	4838	4838	4838	4838	4838	4838	4771	4838	4771	4771	4706	4771	4706	4706	4643	4643	4643	6592	6592	6592	6592	6592	6468	6468	6468	6468	6349	6349	6349	6349	6349	6349	6349	6349	6349	6349	6349	6349	6349	6349	6349	6349	6349	6468	6468	6468	6349	6349	6349	6349	6349	6349	6349	6349	6349	7959	7959	7959	7959	8146	7959	8146	8146	8146	8146	8146	8343	8146	8146	8146	7959	7959	7959	7959	7959	7959	7959	7959	7959	7959	7959	7959	7959	7959	7959	7959	7959	7959	7959	8146	8146	8146	8146	8146	8146	7959	8146	7959	7959	7959	8146	8146	8146	8146	8146	8146	8146	7959	7959	7959	7959	7959	7959	7959	7959	7959	7959	7959	7959	8146	8146	8343	8343	8343	8343	8343	8343	8343	8343	8343	8343	8343	8343	8343	8343	8146	8146	8146	0	0	0	0	3510	3510	3510	3475	3475	3475	3475	3475	3475	3475	3475	3475	3475	3475	3475	3475	3475	3475	3475	3510	3510	3510	3546	3546	3546	3546	3510	3510	3510	3510	3475	3475	3475	3475	3475	3475	3475	3475	3475	3475	3440	3475	3475	3440	3440	3440	3440	3440	3440	3440	3440	3440	3440	3440	3440	4643	4643	4771	4771	4706	4706	4706	4706	4706	4706	4706	4706	4706	4706	4706	4706	4706	4706	4706	4643	4581	4581	4581	4643	4643	4643	4706	4706	4706	4706	4706	4706	4706	4706	4706	4706	4706	4706	4706	4771	4771	4771	4771	4771	4771	4771	4771	4771	4706	4771	4706	4771	4771	4706	4706	4643	4706	4643	4706	4706	4706	4771	4771	4771	4771	4706	4706	4706	4706	4706	4706	4771	4771	4771	4771	4771	4771	4771	4771	4771	4706	4771	4771	4706	4706	4706	4706	4706	4706	4706	4706	4706	4706	4706	4706	4706	4706	4771	4706	4771	4771	4771	4771	4771	4771	4706	4771	4771	4706	4706	4643	4643	4643	4643	4643	4643	4706	4643	4706	4706	4643	4643	4706	4706	4706	4706	4706	4706	4706	4706	4706	4706	4706	4643	4706	4706	4706	4706	4706	4706	4706	4771	4706	4706	4771	4706	4706	4771	4706	4706	4706	4643	4706	4643	4643	4581	4581	4521	4521	4463	4463	4463	4406	4406	4463	4463	4643	4643	4706	4706	4706	4706	4706	4771	4771	0	8343	8343	8343	8343	8343	8343	8343	8146	8146	8146	8146	8146	8343	8343	8343	8343	8343	8343	8343	8343	8343	8343	8343	8343	8343	8343	8343	8146	8343	8146	8146	7959	8146	8146	8343	8343	8146	8146	8343	8343	8343	8146	8146	8343	8343	8343	8343	8550	8550	8343	8550	8550	8550	8550	8550	8550	8550	8767	8343	8343	8550	8343	8550	8550	8343	8343	8343	8343	8343	8343	8343	8343	7959	7959	0	0	0	0	0	0	0	0	0	0	2570	2570	2570	2570	2570	2551	2551	2551	2532	2514	2496	2496	2496	2478	2478	2478	2478	0	0	0	0	0	0	0	0	0	0	0	0	0	0	0	0	0	0	0	0	0	0	0	0	0	0	0	0	0	0	0	0	0	0	0	0
0	0	0	0	0	0	891	894	894	896	896	898	898	908	913	920	920	922	922	925	925	930	935	940	945	950	950	950	953	963	966	969	974	974	977	977	980	983	985	991	991	1000	1006	1006	1006	1020	1023	1030	1033	1036	1039	1042	1045	1048	1052	1052	1071	1071	1074	1078	1081	1081	1085	1085	1085	1085	1085	1085	1085	0	0	0	0	0	0	0	0	0	4838	4771	4771	4706	4706	4771	4771	4771	4771	4771	4771	4771	4771	4771	4771	4771	4771	4771	4706	4706	4706	4706	4706	4771	4771	4771	4771	4706	4706	4771	4771	4706	4706	4771	4771	4771	4771	4838	4771	4771	4771	4771	4771	4771	4771	4706	4771	4771	4771	4771	4838	4838	4838	4838	4838	4838	4838	4838	4771	4838	4771	4771	4706	4771	4771	4706	4643	4643	4643	6720	6592	6592	6592	6592	6592	6468	6468	6468	6468	6468	6349	6349	6349	6349	6349	6349	6349	6349	6349	6349	6349	6349	6349	6349	6349	6468	6349	6349	6349	6349	6349	6349	6349	6349	6349	6349	6349	7959	7959	7959	7959	7959	7959	8146	8146	8146	8146	8343	8343	8146	8146	8146	8146	7959	7959	7959	7959	7959	7959	7959	7959	7959	7959	7959	7959	7959	7959	7959	7959	7959	7959	8146	8146	8146	7959	7959	7959	7959	7959	7959	7959	8146	7959	8146	8146	8146	8146	7959	7959	7959	7959	7959	7959	7959	7959	7959	7959	7959	7959	7959	7959	8146	8343	8343	8343	8550	8343	8343	8343	8343	8343	8343	8146	8146	8146	8146	8146	7959	8146	8146	0	0	0	0	3546	3510	3510	3475	3475	3475	3475	3475	3475	3475	3475	3475	3475	3475	3475	3475	3475	3475	3475	3510	3510	3510	3510	3546	3546	3510	3510	3510	3510	3510	3475	3475	3475	3475	3475	3475	3475	3475	3475	3475	3475	3440	3440	3440	3440	3440	3440	3440	3440	3440	3440	3440	3440	3440	3440	4643	4706	4771	4771	4706	4706	4706	4706	4706	4706	4706	4706	4706	4706	4706	4706	4706	4706	4643	4581	4581	4581	4581	4643	4643	4643	4706	4706	4706	4706	4706	4706	4706	4706	4706	4706	4706	4706	4771	4771	4771	4771	4771	4771	4771	4771	4771	4771	4771	4771	4706	4706	4771	4706	4706	4706	4706	4706	4706	4706	4706	4706	4771	4706	4771	4706	4706	4706	4771	4706	4706	4771	4771	4771	4771	4771	4771	4771	4771	4771	4706	4771	4771	4771	4771	4706	4706	4771	4706	4706	4706	4706	4771	4706	4706	4706	4706	4771	4771	4771	4771	4706	4706	4706	4771	4706	4706	4771	4706	4706	4643	4706	4706	4706	4706	4706	4706	4643	4706	4706	4643	4643	4706	4706	4706	4706	4706	4706	4706	4706	4706	4706	4643	4643	4706	4706	4706	4706	4706	4706	4706	4706	4706	4706	4706	4706	4706	4706	4706	4706	4706	4643	4643	4643	4643	4581	4581	4581	4521	4521	4463	4463	4406	4406	4406	4643	4643	4706	4706	4706	4706	4706	4706	4706	4706	0	8550	8343	8343	8343	8343	8343	8343	8146	8146	8146	8343	8343	8343	8343	8343	8343	8343	8343	8343	8343	8343	8343	8343	8343	8343	8343	8343	8146	8343	8343	8146	8146	8146	8146	8343	8146	8146	8343	8146	8343	8146	8146	8146	8343	8550	8343	8550	8550	8550	8343	8550	8550	8550	8550	8550	8550	8550	8550	8343	8343	8343	8343	8343	8343	8343	8343	8343	8343	8343	8146	8146	8146	8146	0	0	0	0	0	0	0	0	0	0	0	2570	2570	2570	2570	2570	2551	2551	2551	2532	2514	2496	2496	2496	2496	2478	2478	2478	0	0	0	0	0	0	0	0	0	0	0	0	0	0	0	0	0	0	0	0	0	0	0	0	0	0	0	0	0	0	0	0	0	0	0	0
0	0	0	0	0	0	891	891	891	896	896	896	896	910	915	920	922	922	925	925	925	925	935	942	948	950	953	950	953	961	966	969	974	974	977	977	980	985	988	994	997	1000	1003	1000	1000	1020	1023	1026	1030	1036	1039	1042	1042	1048	1052	1061	1061	1071	1074	1078	1081	1081	1085	1085	1085	1085	1081	1081	1081	0	0	0	0	0	0	0	0	0	4771	4706	4706	4706	4643	4706	4706	4706	4771	4706	4771	4771	4771	4771	4771	4706	4706	4706	4706	4706	4706	4706	4706	4771	4771	4771	4771	4771	4771	4771	4771	4771	4771	4771	4771	4838	4838	4838	4771	4771	4838	4771	4838	4771	4771	4771	4838	4771	4771	4771	4838	4771	4771	4771	4838	4838	4771	4771	4771	4771	4771	4771	4706	4771	4771	4771	4706	4706	4706	6592	6592	6592	6592	6592	6468	6468	6468	6349	6349	6349	6349	6349	6349	6349	6349	6349	6349	6349	6349	6349	6349	6349	6349	6349	6349	6349	6349	6349	6349	6349	6349	6349	6349	6349	6349	6349	6349	7137	7779	7779	7959	7959	7959	7959	8146	8146	8146	8343	8343	8146	8146	8146	7959	7959	7959	7959	7779	7779	7779	7779	7779	7959	7959	7959	7959	7959	7959	7959	7959	7959	7959	8146	8146	8146	7959	7959	7959	7959	7959	7959	7959	7959	7959	8146	8146	8146	8146	7959	7959	7959	7959	8146	8146	7959	7959	7959	7959	7959	7959	8146	8146	8146	8343	8343	8343	8550	8343	8343	8343	8146	8146	8146	8146	8146	8146	8146	7959	7959	7959	8146	0	0	0	0	3546	3510	3510	3510	3475	3475	3475	3475	3475	3475	3475	3475	3475	3475	3475	3475	3475	3475	3475	3510	3510	3510	3510	3546	3546	3546	3510	3510	3510	3510	3510	3475	3475	3475	3475	3475	3475	3475	3475	3475	3440	3440	3440	3440	3440	3440	3440	3440	3440	3440	3440	3440	3406	3440	3440	4643	4706	4771	4771	4771	4706	4771	4706	4706	4771	4771	4771	4706	4706	4706	4706	4706	4706	4643	4581	4581	4581	4581	4581	4643	4643	4706	4706	4706	4706	4706	4706	4706	4706	4706	4706	4771	4771	4771	4771	4771	4771	4771	4771	4771	4771	4771	4771	4771	4771	4771	4771	4771	4771	4706	4706	4706	4706	4706	4706	4706	4706	4771	4771	4771	4771	4771	4706	4771	4771	4706	4771	4771	4706	4771	4706	4771	4706	4706	4706	4706	4771	4771	4771	4771	4706	4706	4771	4706	4706	4706	4706	4771	4771	4706	4771	4706	4771	4771	4771	4771	4771	4771	4771	4771	4706	4706	4706	4771	4771	4643	4706	4706	4706	4706	4706	4706	4643	4706	4706	4643	4643	4643	4643	4706	4706	4706	4706	4706	4706	4706	4643	4643	4643	4643	4643	4643	4643	4706	4706	4706	4706	4706	4706	4706	4706	4706	4706	4706	4706	4706	4643	4643	4643	4643	4581	4581	4581	4581	4521	4463	4406	4406	4350	4463	4463	4643	4706	4706	4706	4706	4706	4706	4706	4706	0	8550	8550	8343	8343	8343	8343	8146	8146	8146	8146	8146	8146	8343	8343	8343	8343	8343	8343	8343	8343	8343	8343	8343	8343	8343	8343	8343	8343	8343	8343	8343	8146	8146	8146	8343	8146	8146	8146	8146	8343	8146	8146	8146	8343	8550	8550	8343	8343	8343	8343	8550	8550	8550	8550	8550	8550	8550	8550	8343	8343	8343	8343	8343	8146	8146	8146	8146	8146	8146	8146	8146	8146	8146	0	0	0	0	0	0	0	0	0	0	0	2570	2570	2570	2570	2570	2551	2551	2551	2532	2514	2514	2496	2496	2496	2478	2478	2478	0	0	0	0	0	0	0	0	0	0	0	0	0	0	0	0	0	0	0	0	0	0	0	0	0	0	0	0	0	0	0	0	0	0	0	0
0	0	0	0	0	0	891	889	891	896	896	898	898	915	920	920	922	925	925	925	927	930	935	940	950	953	953	953	955	961	963	966	972	974	977	977	980	985	988	994	994	1000	1003	1003	1003	1023	1026	1026	1030	1036	1039	1042	1045	1048	1052	1061	1061	1071	1074	1078	1081	1081	1085	1085	1085	1085	1085	1085	1085	0	0	0	0	0	0	0	0	0	4771	4643	4643	4643	4643	4706	4706	4771	4771	4706	4771	4771	4771	4771	4771	4706	4706	4706	4706	4706	4706	4706	4706	4771	4771	4706	4771	4771	4771	4771	4771	4771	4771	4838	4838	4838	4838	4838	4838	4838	4838	4838	4838	4838	4771	4771	4771	4771	4706	4771	4771	4771	4771	4771	4838	4838	4838	4771	4771	4771	4771	4771	4706	4771	4771	4771	4706	4706	4706	6468	6468	6468	6468	6468	6468	6349	6349	6349	6349	6349	6349	6349	6349	6349	6349	6349	6349	6349	6349	6349	6349	6349	6349	6349	6349	6349	6349	6349	6349	6349	6349	6349	6349	6349	6349	6349	6349	7137	7608	7779	7959	7959	7959	7959	8146	8146	8146	8146	8343	8146	8146	8146	7959	7959	7959	7779	7779	7779	7779	7779	7779	7779	7959	7959	7959	7959	7959	7959	7959	7959	7959	8146	8146	7959	7959	7959	7959	7959	7959	7959	7959	7959	7959	7959	7959	7959	7959	7959	8146	8146	8146	8146	8146	8146	7959	7959	7959	7959	7959	8146	8146	8146	8343	8343	8343	8550	8343	8343	8343	8146	8146	8146	8146	8146	8146	8146	7959	7959	7959	0	0	0	0	3546	3546	3510	3510	3510	3475	3475	3475	3475	3475	3475	3475	3475	3475	3475	3475	3475	3475	3475	3510	3510	3510	3510	3510	3546	3546	3546	3510	3510	3510	3510	3510	3475	3475	3475	3475	3475	3475	3475	3475	3475	3475	3475	3475	3475	3440	3440	3440	3440	3440	3440	3440	3406	3406	3440	3440	3440	4771	4771	4771	4771	4771	4771	4771	4771	4771	4771	4771	4706	4706	4706	4706	4706	4643	4581	4581	4581	4581	4581	4643	4643	4706	4706	4706	4706	4706	4706	4706	4706	4706	4706	4771	4771	4771	4771	4771	4771	4771	4771	4771	4771	4771	4771	4771	4771	4771	4771	4706	4706	4706	4771	4706	4771	4706	4771	4706	4771	4706	4771	4771	4771	4771	4771	4706	4706	4706	4706	4706	4706	4706	4706	4706	4706	4706	4706	4706	4706	4706	4706	4706	4706	4706	4706	4706	4706	4706	4643	4643	4771	4771	4771	4771	4771	4771	4771	4771	4771	4771	4771	4771	4771	4771	4771	4771	4771	4771	4643	4706	4706	4706	4706	4706	4706	4643	4706	4706	4643	4643	4643	4643	4706	4706	4706	4706	4706	4706	4706	4706	4643	4643	4643	4643	4643	4643	4706	4706	4706	4706	4706	4706	4706	4706	4706	4706	4706	4706	4706	4643	4643	4643	4643	4643	4581	4581	4521	4521	4463	4463	4406	4406	4463	4463	4706	4706	4706	4706	4706	4706	4706	4643	4643	4643	8550	8550	8343	8343	8343	8146	8146	8146	8146	8146	8343	8343	8343	8343	8343	8343	8343	8343	8343	8343	8343	8343	8343	8343	8343	8343	8343	8343	8343	8343	8146	8146	8146	8146	7959	8146	7959	7959	8146	8146	8146	8343	8146	8343	8550	8550	8343	8343	8343	8343	8343	8343	8343	8550	8550	8550	8550	8550	8343	8343	8343	8146	8146	8146	8146	8146	8146	8146	8146	8146	8146	8146	8146	0	0	0	0	0	0	0	0	0	0	0	2570	2570	2570	2570	2570	2551	2551	2551	2532	2514	2514	2496	2496	2496	2496	2478	2478	0	0	0	0	0	0	0	0	0	0	0	0	0	0	0	0	0	0	0	0	0	0	0	0	0	0	0	0	0	0	0	0	0	0	0	0
0	0	0	0	0	0	891	891	894	896	898	898	915	915	917	920	922	925	925	925	927	930	935	935	950	953	955	953	955	958	961	963	969	972	974	977	980	983	983	988	994	997	1000	1003	1003	1020	1023	1023	1026	1036	1039	1042	1045	1048	1052	1061	1061	1071	1074	1074	1078	1081	1081	1081	1085	1085	1085	1085	1085	0	0	0	0	0	0	0	0	0	4706	4643	4643	4643	4643	4643	4706	4706	4706	4706	4706	4771	4771	4771	4771	4771	4771	4706	4706	4706	4706	4706	4706	4771	4771	4706	4771	4771	4771	4771	4771	4771	4771	4838	4838	4838	4838	4838	4838	4838	4838	4838	4838	4771	4771	4706	4771	4706	4706	4771	4771	4771	4771	4771	4838	4838	4838	4771	4771	4771	4771	4771	4706	4771	4771	4771	4771	4771	4771	6468	6468	6468	6468	6468	6468	6349	6349	6349	6349	6349	6349	6349	6349	6349	6349	6349	6349	6349	6349	6349	6349	6349	6349	6349	6349	6349	6349	6349	6349	6235	6349	6349	6349	6349	6349	6349	6468	7287	7608	7779	7779	7959	7959	7959	8146	8146	7959	8146	8146	7959	8146	7959	7959	7959	7779	7779	7779	7779	7779	7779	7779	7779	7959	7959	7959	7959	7959	7959	7959	7959	7959	7959	8146	8146	7959	7959	7959	7959	7959	7959	7959	7959	7959	7959	7959	7959	7959	8146	8146	8146	8146	8146	8146	8146	8146	8146	8146	7959	7959	7959	7959	8146	8146	8343	8343	8343	8343	8343	8146	8146	8146	8146	8146	8146	8146	8146	8146	7959	7959	7959	0	0	0	3546	3546	3510	3510	3475	3475	3475	3475	3475	3475	3475	3475	3475	3475	3475	3475	3475	3475	3475	3510	3510	3546	3510	3510	3546	3510	3510	3510	3510	3546	3510	3510	3510	3510	3510	3475	3475	3475	3475	3475	3475	3475	3475	3475	3475	3440	3440	3440	3440	3440	3440	3440	3440	3440	3475	3475	4706	4771	4771	4771	4771	4771	4771	4771	4771	4771	4771	4771	4771	4706	4706	4706	4706	4643	4581	4581	4581	4581	4581	4643	4643	4643	4706	4706	4706	4706	4706	4706	4706	4706	4706	4706	4771	4706	4706	4771	4771	4771	4771	4771	4771	4771	4771	4771	4771	4706	4706	4706	4706	4706	4771	4706	4706	4706	4706	4706	4771	4706	4771	4771	4771	4771	4771	4771	4771	4706	4706	4706	4643	4643	4643	4706	4706	4706	4643	4643	4643	4706	4706	4643	4706	4706	4706	4706	4643	4581	4581	4581	4581	4706	4706	4706	4706	4706	4771	4771	4771	4771	4771	4771	4771	4771	4771	4771	4771	4771	4706	4706	4706	4706	4706	4643	4643	4643	4643	4643	4643	4643	4643	4643	4706	4643	4706	4706	4706	4706	4706	4706	4643	4643	4643	4706	4643	4643	4706	4706	4706	4706	4706	4706	4706	4706	4706	4706	4706	4643	4706	4643	4643	4643	4643	4643	4581	4581	4521	4521	4463	4463	4463	4406	4463	4463	4706	4706	4706	4706	4706	4706	4706	4706	4643	4643	0	8550	8146	8343	8146	8343	8146	8146	8146	8146	8343	8343	8343	8343	8343	8343	8343	8343	8343	8343	8343	8343	8343	8343	8343	8343	8343	8343	8343	8343	8146	8146	7959	8146	7959	7959	7959	8146	8146	8146	8146	8146	8146	8343	8343	8343	8343	8343	8343	8343	8550	8343	8343	8343	8550	8550	8550	8550	8146	8146	8146	8146	8146	8146	8146	0	0	0	0	0	0	0	0	0	0	0	0	0	0	0	0	0	0	0	2570	2570	2570	2570	2570	2551	2551	2551	2532	2532	2514	2496	2496	2496	2496	2478	2478	0	0	0	0	0	0	0	0	0	0	0	0	0	0	0	0	0	0	0	0	0	0	0	0	0	0	0	0	0	0	0	0	0	0	0	0
0	0	0	0	0	0	891	891	891	896	903	908	915	915	917	917	922	922	925	925	927	930	935	937	948	953	953	953	953	958	958	963	972	974	974	977	977	980	985	988	991	991	1000	1003	1003	1020	1023	1023	1026	1036	1042	1042	1045	1048	1052	1055	1061	1068	1071	1071	1078	1081	1081	1088	1088	1091	1085	1088	1088	0	0	0	0	0	0	0	0	0	4643	4643	4643	4643	4643	4643	4643	4706	4706	4706	4706	4771	4706	4771	4771	4706	4706	4706	4706	4706	4706	4706	4771	4771	4771	4706	4771	4771	4706	4706	4771	4706	4771	4838	4838	4838	4838	4838	4838	4838	4838	4771	4771	4771	4706	4706	4771	4706	4706	4771	4771	4771	4771	4771	4838	4838	4838	4771	4771	4771	4771	4771	4771	4771	4771	4838	4771	4771	4771	6468	6468	6468	6468	6468	6468	6349	6349	6349	6349	6349	6349	6349	6349	6349	6349	6349	6349	6349	6349	6349	6349	6349	6349	6349	6349	6349	6349	6349	6349	6349	6349	6349	6349	6349	6349	6349	6468	7287	7608	7779	7779	7779	7959	7959	7959	8146	7959	7959	8146	7779	7959	7959	7779	7779	7779	7779	7779	7779	7779	7959	7959	7959	7959	7959	7779	7779	7779	7959	7959	7959	7959	7959	8146	8146	8146	7959	7959	7959	7959	7959	7959	7959	7959	7959	7959	7959	7959	8146	8146	8146	8146	8146	8146	8146	7959	8146	8146	7959	7959	7959	8146	8146	8343	8343	8343	8343	8343	8343	8146	8146	8146	8146	8146	8146	8146	8146	7959	7959	7959	7959	0	0	3546	3546	3546	3546	3510	3510	3475	3475	3475	3475	3475	3475	3475	3475	3475	3475	3475	3475	3475	3475	3510	3510	3510	3510	3510	3510	3510	3510	3546	3510	3546	3510	3510	3510	3510	3510	3475	3475	3475	3475	3475	3475	3475	3475	3475	3475	3440	3440	3440	3440	3440	3440	3440	3440	3440	3475	3475	4706	4771	4771	4771	4771	4771	4771	4771	4771	4771	4771	4771	4771	4706	4706	4706	4706	4643	4581	4581	4521	4581	4581	4581	4643	4643	4643	4706	4706	4706	4706	4706	4706	4706	4706	4706	4706	4706	4706	4771	4771	4771	4771	4771	4771	4771	4771	4706	4706	4706	4706	4771	4771	4771	4771	4771	4771	4771	4771	4771	4771	4771	4771	4771	4771	4771	4771	4771	4706	4706	4706	4706	4643	4643	4643	4643	4643	4643	4643	4643	4643	4643	4706	4643	4706	4706	4706	4706	4643	4581	4581	4521	4581	4581	4581	4706	4706	4771	4771	4771	4771	4771	4771	4771	4771	4771	4771	4771	4771	4771	4706	4706	4706	4706	4706	4706	4643	4643	4643	4643	4643	4643	4643	4643	4706	4706	4706	4706	4706	4706	4706	4706	4706	4643	4643	4706	4706	4643	4643	4706	4706	4706	4706	4706	4706	4706	4706	4706	4643	4643	4706	4643	4643	4643	4643	4643	4581	4581	4521	4521	4463	4463	4406	4463	4463	4521	4643	4706	4706	4706	4706	4706	4643	4643	4643	4643	0	8550	8343	8343	8343	8343	8343	8343	8343	8343	8343	8343	8343	8343	8343	8343	8343	8343	8343	8343	8146	8146	8146	8146	8343	8343	8343	8343	8343	8146	8146	8146	7959	8146	7959	7959	7959	8146	8146	8146	8146	8146	8146	8146	8343	8343	8146	8343	8343	8343	8343	8343	8343	8343	8343	8550	8550	8343	8146	8146	8146	7959	7959	8146	0	0	0	0	0	0	0	0	0	0	0	0	0	0	0	0	0	0	0	0	2570	2570	2570	2570	2570	2551	2551	2532	2532	2514	2514	2496	2496	2496	2496	2496	2496	0	0	0	0	0	0	0	0	0	0	0	0	0	0	0	0	0	0	0	0	0	0	0	0	0	0	0	0	0	0	0	0	0	0	0	0
0	0	0	0	0	0	891	891	894	896	901	908	913	915	917	920	922	922	922	925	927	930	935	940	945	950	953	953	953	958	961	963	969	972	974	977	980	980	983	988	991	991	997	1003	1003	1020	1023	1020	1023	1030	1039	1042	1045	1045	1055	1055	1061	1068	1071	1074	1078	1081	1085	1088	1091	1091	1088	1088	1088	0	0	0	0	0	0	0	0	0	4643	4643	4643	4643	4643	4706	4706	4706	4706	4706	4706	4771	4706	4771	4771	4706	4706	4706	4706	4706	4706	4771	4771	4771	4771	4771	4771	4771	4706	4771	4771	4706	4771	4771	4771	4838	4838	4838	4771	4838	4838	4771	4771	4706	4706	4706	4771	4706	4706	4706	4771	4771	4771	4771	4771	4771	4771	4771	4706	4771	4771	4838	4771	4771	4771	4838	4838	4838	4838	6468	6468	6468	6468	6349	6349	6349	6349	6349	6349	6235	6349	6349	6349	6349	6349	6349	6349	6349	6349	6349	6349	6349	6349	6235	6349	6349	6349	6349	6349	6349	6349	6349	6349	6349	6349	6349	6468	7444	7608	7779	7779	7779	7779	7959	7779	7779	7779	7959	8146	7779	7959	7779	7779	7959	7959	7959	7959	7959	7959	7959	7959	7959	7959	7959	7779	7779	7779	7779	7779	7959	7959	7959	8146	8146	8146	7959	7959	7959	7959	7959	7959	7959	7959	7959	7959	7959	7959	8146	8146	8146	8146	8146	8146	8146	8146	8146	8146	7959	7959	8146	8146	8146	8146	8343	8343	8343	8343	8343	8146	7959	7959	8146	8146	8146	8146	8146	8146	8146	7959	7959	0	0	3546	3546	3546	3546	3510	3510	3510	3475	3475	3475	3475	3475	3475	3475	3475	3475	3475	3475	3475	3475	3510	3510	3546	3510	3546	3546	3546	3546	3546	3546	3546	3546	3510	3510	3510	3475	3475	3475	3475	3475	3475	3475	3475	3475	3475	3475	3440	3440	3440	3440	3440	3440	3440	3440	3440	3475	3475	4706	4771	4771	4771	4771	4771	4771	4771	4771	4771	4771	4771	4771	4771	4706	4706	4706	4706	4643	4581	4581	4581	4581	4581	4643	4643	4643	4706	4706	4706	4706	4706	4706	4706	4706	4706	4706	4706	4706	4706	4771	4771	4771	4771	4771	4771	4771	4706	4706	4706	4706	4706	4771	4771	4771	4771	4771	4771	4771	4706	4706	4771	4771	4771	4771	4771	4771	4771	4706	4706	4706	4643	4643	4643	4581	4643	4643	4581	4581	4581	4581	4643	4643	4643	4643	4706	4706	4643	4581	4521	4521	4581	4581	4643	4706	4706	4706	4771	4771	4771	4771	4771	4771	4771	4771	4771	4771	4771	4771	4771	4706	4706	4706	4706	4706	4706	4706	4643	4643	4706	4643	4643	4643	4643	4643	4643	4706	4706	4706	4706	4706	4706	4706	4643	4643	4643	4643	4643	4643	4706	4706	4706	4706	4706	4706	4706	4706	4706	4706	4706	4706	4643	4643	4643	4643	4643	4643	4581	4521	4521	4521	4463	4463	4463	4521	4581	4643	4706	4706	4706	4706	4706	4706	4643	4643	4643	0	0	8550	8343	8343	8343	8343	8343	8343	8343	8343	8343	8343	8343	8343	8343	8343	8343	8343	8343	8343	8343	8343	8343	8343	8343	8343	8343	8343	8343	8146	7959	7959	8146	7959	7959	7959	8146	8146	8146	8146	8146	8146	8146	8146	8146	8146	8146	8343	8343	8343	8343	8146	8343	8343	8343	8343	8343	8146	8146	8146	7959	7959	0	0	0	0	0	0	0	0	0	0	0	0	0	0	0	0	0	0	0	0	0	2570	2570	2570	2570	2570	2551	2551	2551	2532	2532	2514	2514	2496	2496	2496	2496	2496	0	0	0	0	0	0	0	0	0	0	0	0	0	0	0	0	0	0	0	0	0	0	0	0	0	0	0	0	0	0	0	0	0	0	0	0
0	0	0	0	0	0	894	894	896	898	901	905	913	913	915	917	922	922	922	925	927	930	935	940	945	948	950	953	953	955	958	963	969	972	974	977	980	983	985	988	988	991	991	1000	1000	1017	1017	1020	1023	1030	1033	1036	1045	1052	1055	1055	1061	1068	1071	1074	1078	1081	1085	1088	1091	1091	1088	1088	1091	1091	0	0	0	0	0	0	0	0	4643	4581	4581	4643	4643	4643	4706	4706	4706	4706	4706	4706	4706	4706	4706	4706	4706	4706	4706	4706	4706	4771	4771	4771	4771	4771	4771	4771	4771	4771	4771	4771	4771	4771	4838	4838	4838	4771	4771	4771	4771	4771	4771	4706	4706	4706	4771	4771	4771	4706	4706	4771	4771	4771	4771	4771	4771	4771	4706	4771	4771	4771	4771	4771	4771	4771	4771	4771	4771	6468	6468	6468	6468	6349	6349	6349	6349	6349	6349	6349	6349	6349	6349	6349	6349	6349	6349	6349	6349	6349	6349	6349	6349	6235	6349	6349	6349	6235	6235	6235	6349	6235	6349	6235	6349	6349	6468	7444	7608	7779	7779	7779	7779	7779	7779	7779	7779	0	0	0	0	7779	7779	7959	7959	7959	7959	7959	7959	7959	7959	7959	7959	7959	7779	7779	7779	7779	7779	7959	7959	7959	8146	8146	8146	8146	8146	8146	7959	7959	7959	7959	7959	7959	7959	7959	7959	7959	8146	8146	8146	8146	8146	8146	8146	8146	8146	8146	8146	8146	8146	8146	8146	8146	8146	8343	8343	8146	8146	8146	8146	8146	8146	8146	8146	8146	8146	8146	7959	8146	8146	0	0	3475	3546	3510	3510	3510	3510	3475	3475	3475	3475	3475	3475	3475	3475	3475	3475	3475	3475	3475	3510	3510	3510	3510	3510	3510	3546	3546	3583	3546	3583	3546	3546	3510	3510	3510	3475	3475	3475	3475	3475	3475	3475	3475	3475	3475	3440	3440	3440	3440	3440	3475	3475	3475	3475	3510	3510	4706	4771	4771	4771	4771	4771	4771	4771	4771	4771	4771	4771	4771	4706	4706	4706	4706	4706	4643	4581	4581	4581	4581	4643	4643	4643	4643	4706	4706	4706	4706	4706	4706	4706	4706	4706	4706	4706	4706	4706	4771	4771	4771	4771	4771	4771	4771	4706	4706	4706	4706	4706	4771	4771	4771	4706	4771	4771	4771	4706	4706	4771	4771	4771	4771	4771	4771	4706	4706	4706	4706	4581	4581	4581	4581	4581	4581	4581	4581	4581	4581	4581	4643	4643	4643	4706	4706	4643	4521	4521	4521	4581	4581	4643	4706	4706	4706	4771	4771	4771	4771	4771	4771	4771	4771	4706	4706	4771	4771	4771	4706	4706	4706	4706	4706	4706	4706	4643	4643	4706	4643	4643	4643	4643	4643	4643	4706	4706	4706	4706	4706	4706	4706	4643	4643	4643	4643	4643	4643	4706	4706	4706	4706	4706	4706	4706	4706	4706	4706	4706	4706	4706	4706	4706	4643	4643	4643	4643	4581	4521	4521	4521	4463	4521	4521	4581	4643	4706	4706	4706	4706	4706	4706	4706	4706	4706	0	5202	5202	8343	8343	8343	0	0	8343	8343	8343	8343	8343	8343	8343	8343	8343	8550	8550	8343	8343	8343	8550	8343	8343	8343	8343	8343	8343	8146	8146	8146	7959	8146	8146	8146	7959	8146	8146	8146	8146	8146	8146	8146	8146	8146	8146	8146	8146	8146	8343	8343	8146	8343	8343	8343	8343	8343	8146	7959	7959	7959	7959	0	0	0	0	0	0	0	0	0	0	0	0	0	0	0	0	0	0	0	0	0	0	2570	2570	2570	2551	2551	2551	2551	2532	2532	2532	2514	2496	2496	2496	2478	2478	0	0	0	0	0	0	0	0	0	0	0	0	0	0	0	0	0	0	0	0	0	0	0	0	0	0	0	0	0	0	0	0	0	0	0	0
0	0	0	0	0	0	894	894	896	898	903	905	910	913	915	917	922	922	922	925	927	927	937	940	945	948	948	950	953	955	958	963	972	972	974	977	980	983	985	985	991	991	997	997	1000	1017	1020	1023	1030	1033	1033	1036	1045	1048	1052	1055	1061	1068	1071	1074	1078	1081	1085	1088	1091	1091	1088	1091	1091	1095	1095	0	0	0	0	0	0	0	0	4581	4581	4643	4643	4643	4706	4771	4706	4706	4706	4706	4706	4706	4706	4706	4706	4706	4706	4706	4706	4771	4771	4838	4771	4771	4771	4838	4771	4771	4771	4771	4771	4838	4838	4771	4838	4771	4771	4771	4771	4771	4771	4706	4706	4706	4771	4771	4771	4771	4771	4771	4771	4771	4771	4771	4771	4771	4706	4706	4771	4771	4771	4771	4706	4706	4706	4706	4706	6468	6349	6349	6349	6349	6349	6349	6349	6349	6235	6235	6235	6349	6349	6349	6349	6349	6349	6349	6349	6349	6349	6349	6349	6349	6349	6349	6349	6349	6235	6235	6235	6235	6235	6235	6349	6349	6468	6468	7608	7779	7779	7779	7779	7779	7779	7779	0	0	0	0	0	0	0	0	7959	7959	7779	7959	7959	7959	7959	7959	7959	7959	7779	7779	7779	7779	7779	7779	7959	7959	8146	8146	8146	8146	8146	8146	8146	7959	8146	7959	7959	7959	7959	7959	7959	8146	8146	8146	8146	8146	8343	8146	8343	8146	8146	8146	8146	8146	7959	7959	8146	8146	8146	8146	8146	8146	7959	7959	7959	8146	8146	8146	8146	8343	8343	8146	7959	8146	8146	0	0	3475	3510	3510	3510	3510	3510	3475	3475	3475	3475	3475	3475	3475	3475	3475	3475	3475	3475	3475	3510	3510	3510	3510	3510	3546	3546	3546	3583	3546	3546	3546	3546	3510	3510	3510	3475	3475	3475	3475	3475	3475	3475	3475	3475	3475	3440	3440	3440	3440	3440	3475	3475	3475	3510	3510	3510	4706	4771	4771	4771	4771	4771	4771	4771	4771	4706	4706	4771	4706	4706	4706	4706	4706	4706	4643	4581	4581	4581	4643	4581	4643	4643	4643	4706	4706	4706	4706	4706	4706	4706	4706	4706	4706	4706	4706	4706	4771	4771	4771	4771	4771	4771	4771	4771	4771	4706	4771	4771	4771	4706	4706	4706	4771	4706	4706	4706	4706	4771	4771	4771	4771	4771	4771	4706	4706	4706	4643	4643	4581	4521	4581	4581	4581	4581	4521	4581	4581	4581	4643	4706	4706	4706	4706	4643	4521	4521	4581	4581	4643	4643	4706	4706	4771	4771	4771	4771	4771	4771	4771	4771	4706	4706	4706	4706	4706	4771	4706	4706	4706	4706	4706	4706	4706	4706	4706	4706	4643	4643	4643	4643	4643	4706	4706	4706	4706	4706	4706	4706	4706	4643	4643	4643	4643	4643	4643	4643	4706	4706	4706	4706	4706	4706	4706	4706	4706	4706	4706	4706	4706	4706	4643	4643	4643	4643	4581	4521	4521	4521	4463	4463	4521	4581	4643	4706	4706	4706	4706	4706	4706	4643	4643	4643	5125	5125	5202	0	0	0	0	0	0	0	0	0	0	0	8343	8343	8343	8550	8550	8343	8343	8343	8343	8343	8343	8343	8343	8343	8343	8343	8343	8146	8146	8146	8146	8146	8146	8146	8146	8146	7959	7959	7959	8146	8146	8146	7959	7959	8146	8343	8343	8146	8146	8343	8343	8343	8343	8343	8146	7959	7959	0	0	0	0	0	0	0	0	0	0	0	0	0	0	0	0	0	0	0	0	0	0	0	0	0	2570	2570	2551	2551	2532	2532	2532	2532	2514	2514	2496	2496	2478	2478	2478	0	0	0	0	0	0	0	0	0	0	0	0	0	0	0	0	0	0	0	0	0	0	0	0	0	0	0	0	0	0	0	0	0	0	0	0
0	0	0	0	0	0	894	894	896	898	903	905	910	910	915	917	922	922	922	925	925	927	937	942	945	948	948	950	953	955	961	966	969	969	974	977	980	983	985	991	991	991	997	1000	1003	1011	1017	1020	1030	1030	1033	1036	1045	1048	1055	1055	1064	1068	1071	1074	1078	1081	1085	1091	1091	1091	1091	1088	1091	1091	1091	0	0	0	0	0	0	0	0	0	0	0	0	0	0	4706	4643	4643	4706	4706	4706	4706	4706	4706	4771	4706	4706	4706	4771	4771	4771	4771	4771	4771	4771	4771	4771	4771	4771	4706	4771	4771	4771	4771	4771	4706	4706	4706	4706	4706	4706	4706	4706	4706	4771	4771	4771	4706	4771	4771	4771	4771	4771	4706	4771	4771	4706	4706	4771	4771	4771	4706	4706	4581	4581	4581	4581	6468	6349	6349	6349	6349	6349	6349	6349	6349	6349	6235	6235	6349	6349	6349	6349	6349	6349	6349	6349	6349	6349	6349	6349	6349	6349	6349	6349	6349	6349	6349	6349	6349	6349	6349	6349	6349	6349	7779	7779	7959	7959	7779	7779	7779	0	0	0	0	0	0	0	0	0	0	7959	7959	7959	7959	7959	7959	7959	7959	7959	7959	7779	7779	7779	7779	7779	7779	7779	7959	8146	8146	8146	8146	8146	8146	8146	7959	8146	7959	7959	8146	7959	8146	8146	8146	8146	8146	8146	8343	8343	8343	8343	8343	8343	8343	8146	8146	7959	8146	8146	8146	8146	8146	8146	7959	7959	7959	7959	8146	8146	8146	8146	8343	8343	8146	7959	7959	8146	0	0	3475	3510	3510	3510	3510	3475	3475	3475	3475	3475	3475	3475	3475	3475	3475	3475	3475	3475	3510	3510	3510	3510	3510	3510	3510	3546	3546	3546	3546	3546	3546	3510	3510	3510	3475	3475	3475	3475	3475	3475	3475	3475	3475	3475	3475	3440	3440	3440	3440	3440	3475	3475	3475	3510	3510	3510	4706	4771	4771	4771	4771	4771	4771	4771	4771	4706	4771	4771	4771	4706	4706	4706	4706	4643	4581	4521	4581	4581	4581	4581	4581	4581	4643	4706	4706	4706	4706	4706	4706	4706	4706	4706	4706	4706	4706	4706	4771	4771	4771	4771	4771	4771	4771	4706	4706	4771	4771	4771	4771	4706	4706	4706	4706	4706	4706	4706	4706	4771	4771	4771	4771	4771	4771	4706	4706	4706	4643	4643	4581	4521	4521	4581	4581	4581	4581	4581	4581	4643	4706	4706	4706	4706	4706	4643	4643	4581	4581	4581	4581	4643	4643	4706	4706	4771	4771	4771	4771	4771	4706	4706	4706	4706	4706	4771	4771	4771	4706	4706	4706	4706	4706	4706	4706	4706	4706	4706	4706	4643	4643	4643	4706	4706	4706	4706	4706	4771	4706	4706	4706	4706	4643	4643	4643	4643	4643	4643	4706	4706	4706	4706	4706	4706	4706	4706	4706	4706	4706	4706	4706	4706	4643	4643	4643	4643	4581	4521	4521	4521	4463	4463	4521	4581	4706	4706	4706	4706	4706	4706	4706	4771	4771	5125	5125	5202	5202	5202	0	0	0	0	0	0	0	0	0	0	0	8343	8343	8550	8550	8550	8343	8343	8343	8343	8550	8343	8343	8343	8343	8343	8343	8343	8146	8146	8146	8146	8146	8146	8146	7959	7959	7959	7779	7959	8146	8146	7959	8146	8146	8343	8146	8146	8146	0	0	0	0	0	0	0	0	0	0	0	0	0	0	0	0	0	0	0	0	0	0	0	0	0	0	0	0	0	0	0	0	0	2551	2551	2551	2551	2532	2532	2514	2532	2514	2514	2496	2478	2478	2478	2478	0	0	0	0	0	0	0	0	0	0	0	0	0	0	0	0	0	0	0	0	0	0	0	0	0	0	0	0	0	0	0	0	0	0	0	0
0	0	0	0	0	0	894	896	898	898	903	903	908	910	915	917	922	920	920	922	925	927	937	942	945	945	948	948	953	958	966	969	972	972	977	980	980	983	985	988	991	991	997	1003	1003	1008	1014	1020	1023	1033	1033	1039	1048	1052	1055	1058	1064	1068	1071	1074	1078	1081	1081	1088	1091	1091	1091	1091	1091	1091	1091	0	0	0	0	0	0	0	0	0	0	0	0	0	0	4643	4643	4643	4643	4643	4643	4643	4643	4706	4706	4706	4706	4706	4706	4771	4771	4771	4771	4771	4771	4771	4771	4771	4771	4706	4706	4706	4771	4706	4706	4706	4706	4706	4706	4706	4706	4706	4706	4706	4771	4771	4771	4771	4771	4771	4771	4771	4771	4706	4771	4706	4706	4706	4771	4771	4771	4706	4706	4581	4581	4581	6468	6468	6349	6349	6349	6349	6349	6349	6349	6349	6349	6349	6349	6349	6349	6349	6349	6349	6349	6349	6349	6349	6349	6349	6349	6349	6349	6349	6349	6349	6349	6349	6349	6349	6349	6349	6349	6349	6349	7959	7959	7959	7779	7779	7779	7779	0	0	0	0	0	0	0	0	0	0	0	7959	7779	7959	7959	8146	8146	7959	7959	7959	7779	7779	7779	7779	7779	7779	7779	7959	8146	8146	8146	7959	8146	8146	8146	7959	8146	7959	7959	8146	7959	8146	8146	8146	8146	8146	8146	8146	8343	8146	8343	8343	8343	8343	8146	8146	7959	8146	8146	8146	8146	8146	8146	7959	7959	7959	7959	8146	8146	7959	7959	8146	8146	8146	7959	7959	0	0	0	3510	3546	3510	3510	3510	3510	3510	3510	3510	3510	3475	3475	3475	3475	3475	3475	3475	3475	3475	3475	3475	3475	3510	3510	3546	3546	3546	3546	3546	3546	3510	3510	3510	3510	3475	3475	3475	3475	3475	3475	3475	3475	3475	3475	3475	3440	3440	3440	3475	3475	3475	3475	3475	3510	3510	3510	4706	4771	4771	4771	4771	4771	4771	4771	4771	4706	4771	4771	4771	4771	4706	4771	4706	4706	4581	4521	4521	4521	4581	4581	4581	4643	4643	4706	4706	4706	4706	4706	4706	4706	4706	4706	4706	4706	4706	4706	4771	4771	4771	4706	4706	4706	4706	4706	4706	4706	4706	4771	4771	4706	4706	4706	4706	4706	4706	4706	4706	4771	4771	4771	4771	4771	4771	4706	4706	4643	4643	4581	4581	4521	4581	4581	4581	4581	4581	4581	4643	4706	4706	4706	4706	4706	4706	4643	4643	4581	4581	4581	4643	4643	4706	4706	4706	4771	4771	4771	4771	4771	4706	4706	4706	4706	4706	4706	4771	4771	4706	4706	4706	4706	4706	4706	4706	4706	4706	4706	4706	4643	4706	4706	4706	4706	4706	4706	4706	4771	4706	4706	4706	4706	4643	4643	4643	4643	4643	4706	4706	4706	4706	4706	4706	4706	4706	4706	4706	4706	4706	4706	4706	4706	4643	4643	4643	4581	4581	4521	4521	4521	4463	4406	4406	4643	4706	4706	4706	4706	4771	4771	4838	4906	5202	5125	5202	5202	5202	5202	0	0	0	0	0	5050	5050	0	0	0	0	0	0	0	8550	8550	8343	8343	8343	8343	8343	8343	8343	8343	8343	8343	8343	8343	8146	8343	8146	7959	7959	7959	8146	7959	7959	7959	7959	8146	8146	8146	8146	8146	8343	8343	8343	8343	8343	0	0	0	0	0	0	0	0	0	0	0	0	0	0	0	0	0	0	0	0	0	0	0	0	0	0	0	0	0	0	0	0	0	2551	2551	2551	2551	2532	2532	2532	2532	2514	2514	2496	2478	2478	2478	2478	0	0	0	0	0	0	0	0	0	0	0	0	0	0	0	0	0	0	0	0	0	0	0	0	0	0	0	0	0	0	0	0	0	0	0	0
0	0	0	0	0	0	894	896	898	898	901	903	908	910	913	915	915	920	920	922	922	927	940	942	945	945	945	948	953	961	969	972	974	974	977	977	980	983	985	988	991	991	997	1003	1006	1011	1017	1020	1023	1030	1033	1036	1048	1052	1055	1058	1064	1068	1071	1071	1078	1081	1085	1088	1091	1091	1091	1091	1095	1095	1095	0	0	0	0	0	0	0	0	0	0	0	0	0	0	4643	4643	4643	4643	4581	4581	4643	4643	4706	4706	4706	4706	4706	4706	4771	4706	4706	4771	4706	4706	4771	4771	4771	4771	4706	4771	4771	4771	4706	4706	4706	4706	4706	4706	4706	4706	4706	4706	4706	4771	4771	4771	4771	4771	4771	4771	4771	4771	4706	4771	4771	4706	4706	4771	4771	4771	4771	4706	4581	4581	4581	4581	6468	6468	6349	6349	6349	6349	6349	6349	6349	6349	6349	6349	6349	6349	6349	6349	6349	6349	6349	6349	6349	6349	6349	6349	6349	6349	6349	6349	6349	6349	6349	6349	6349	6349	6349	6349	6349	6349	7959	7959	7959	7959	7959	7779	0	0	0	0	0	0	0	0	0	0	0	0	0	7608	7959	7959	8146	7959	7959	7959	7959	7779	7779	7779	7779	7779	7779	7779	7959	7959	7959	7959	7959	8146	8146	8146	8146	8146	8146	8146	8146	8146	8146	8146	8146	8146	8146	8146	8146	8146	8146	8146	8146	8146	8343	8146	8146	8146	8146	8146	8146	8146	8146	8146	7959	7959	7959	7959	8146	8146	7959	7959	8343	8146	8146	8146	7959	0	0	0	3510	3510	3510	3510	3510	3510	3510	3510	3510	3510	3475	3475	3475	3475	3475	3475	3475	3475	3475	3475	3475	3510	3510	3510	3546	3546	3546	3546	3546	3546	3510	3510	3510	3510	3475	3475	3475	3475	3475	3475	3475	3475	3475	3475	3475	3440	3440	3440	3440	3475	3475	3475	3475	3510	3510	3510	3510	4771	4771	4771	4771	4771	4771	4706	4706	4706	4706	4771	4706	4706	4706	4706	4706	4771	4521	4521	4521	4521	4581	4581	4581	4643	4643	4706	4706	4706	4706	4706	4706	4706	4706	4706	4706	4706	4706	4706	4706	4771	4771	4706	4706	4706	4706	4706	4706	4706	4706	4706	4706	4706	4706	4706	4706	4706	4706	4706	4706	4771	4771	4771	4771	4771	4706	4706	4643	4643	4581	4581	4581	4581	4581	4581	4581	4581	4581	4581	4581	4643	4706	4706	4706	4706	4706	4706	4706	4643	4581	4581	4643	4643	4706	4706	4771	4771	4771	4771	4771	4771	4706	4706	4706	4706	4706	4771	4771	4706	4706	4706	4706	4706	4706	4706	4706	4706	4706	4706	4706	4706	4706	4706	4706	4706	4706	4706	4706	4771	4706	4706	4706	4706	4643	4643	4643	4643	4706	4643	4706	4706	4706	4706	4706	4706	4706	4706	4706	4706	4706	4706	4706	4643	4643	4643	4581	4581	4581	4521	4521	4406	4406	4406	4406	4706	4706	4706	4706	4771	4771	4771	4838	4906	5125	5125	5125	5202	5202	5202	5125	4906	5050	5202	5050	5050	5050	0	0	0	0	0	0	0	0	0	0	8343	8343	8343	8343	8343	8343	8343	0	0	8343	8343	8343	8146	8146	8146	7959	7959	7959	7959	7779	7959	7959	7959	8146	8146	8146	8146	8343	8343	8343	8343	8343	0	0	0	0	0	0	0	0	0	0	0	0	0	0	0	0	0	0	0	0	0	0	0	0	0	0	0	0	0	0	0	0	0	2551	2551	2551	2551	2532	2532	2532	2532	2514	2496	2496	2496	2478	2478	2478	0	0	0	0	0	0	0	0	0	0	0	0	0	0	0	0	0	0	0	0	0	0	0	0	0	0	0	0	0	0	0	0	0	0	0	0
0	0	0	0	0	0	894	896	898	901	903	905	908	910	910	915	922	920	920	922	930	932	940	942	945	945	945	948	953	961	972	974	974	974	977	980	980	983	985	988	991	997	1003	1008	1008	1011	1017	1017	1023	1030	1033	1036	1055	1055	1058	1061	1064	1068	1071	1071	1074	1081	1081	1088	1091	1091	1088	1091	1095	1095	1095	0	0	0	0	0	0	0	0	0	0	0	0	0	0	0	4643	4643	4643	4581	4581	4643	4643	4643	4706	4706	4706	4706	4706	4706	4706	4706	4706	4706	4771	4771	4771	4771	4771	4706	4771	4771	4771	4706	4706	4706	4706	4771	4706	4706	4706	4771	4771	4706	4771	4771	4838	4771	4838	4838	4771	4771	4771	4706	4771	4706	4706	4706	4706	4771	4771	4771	4706	4643	4643	4643	6592	6468	6468	6349	6349	6349	6349	6349	6349	6349	6349	6349	6349	6349	6349	6349	6349	6349	6349	6349	6349	6349	6349	6349	6349	6349	6349	6349	6349	6349	6349	6349	6349	6349	6349	6349	6349	6349	6349	7959	7959	7959	7959	7959	0	0	0	0	0	0	0	0	0	0	0	0	0	0	7608	7779	7959	8146	7959	7959	7959	7959	7959	7779	7779	7779	7779	7779	7779	7959	7959	7959	7959	7779	7779	7779	7959	7959	7959	8146	7959	8343	8343	8343	8146	8146	8146	8146	8146	8146	8146	8146	8146	8146	8343	8146	8146	8146	8146	8146	8146	7959	7959	7959	8146	7959	7959	7959	7959	8146	8146	7959	7959	8146	8146	8146	8146	0	0	0	0	3510	3510	3510	3510	3510	3510	3510	3510	3510	3510	3510	3475	3475	3475	3475	3475	3475	3475	3475	3475	3510	3510	3510	3510	3546	3546	3546	3546	3546	3546	3510	3510	3510	3510	3510	3475	3475	3475	3475	3475	3475	3475	3475	3475	3475	3440	3440	3440	3475	3475	3475	3510	3475	3510	3510	3510	4771	4771	4771	4771	4771	4771	4771	4706	4706	4706	4706	4706	4771	4771	4706	4771	4706	4706	4463	4463	4463	4521	4521	4581	4581	4643	4706	4706	4706	4706	4706	4706	4706	4706	4706	4706	4706	4706	4706	4706	4706	4706	4706	4706	4706	4706	4706	4706	4706	4706	4706	4706	4706	4706	4706	4706	4706	4706	4771	4706	4706	4706	4771	4771	4771	4706	4706	4706	4643	4643	4581	4581	4581	4581	4581	4581	4581	4581	4581	4581	4581	4643	4706	4706	4706	4706	4706	4706	4706	4643	4581	4581	4643	4706	4706	4771	4771	4771	4771	4771	4771	4706	4706	4706	4706	4706	4706	4706	4771	4706	4706	4706	4643	4706	4706	4706	4706	4706	4706	4706	4706	4706	4706	4706	4706	4706	4706	4706	4706	4771	4706	4706	4706	4706	4643	4643	4643	4643	4643	4643	4706	4706	4706	4706	4706	4706	4706	4706	4706	4706	4706	4706	4706	4706	4643	4643	4581	4581	4581	4521	4521	4463	4406	4463	4463	4706	4706	4706	4706	4706	4771	4771	4771	4906	5050	5125	5125	5202	5202	5125	4977	4906	4906	4906	5050	4977	4977	0	0	0	0	0	0	0	0	0	0	0	0	0	0	8343	8343	0	0	0	0	8343	8343	8146	8146	8146	7959	7959	7959	7959	7779	7779	7779	7959	7959	8146	8146	8146	8343	8343	8343	8343	8343	0	0	0	0	0	0	0	0	0	0	0	0	0	0	0	0	0	0	0	0	0	0	0	0	0	0	0	0	0	0	0	0	0	2551	2551	2551	2551	2551	2532	2532	2532	2514	2496	2496	2496	2478	2478	2478	0	0	0	0	0	0	0	0	0	0	0	0	0	0	0	0	0	0	0	0	0	0	0	0	0	0	0	0	0	0	0	0	0	0	0	0
0	0	0	0	0	0	894	896	896	903	903	905	908	910	913	915	920	920	920	925	932	935	937	942	945	945	945	950	953	958	972	974	974	974	977	980	980	983	985	991	991	997	1003	1008	1008	1011	1017	1017	1023	1030	1033	1036	1052	1055	1058	1061	1064	1068	1071	1071	1078	1078	1081	1085	1088	1088	1088	1091	1091	1109	1109	0	0	0	0	0	0	0	0	0	0	0	0	0	0	0	4643	4643	4643	0	4581	4643	4643	4643	4706	4706	4706	4706	4706	4706	4643	4706	4706	4706	4771	4771	4771	4771	4771	4771	4771	4771	4771	4771	4771	4771	4771	4771	4771	4771	4771	4771	4771	4771	4771	4771	4838	4771	4838	4771	4838	4771	4771	4706	4771	4771	4706	4706	4706	4771	4771	4771	4706	4643	4643	4643	6720	6468	6468	6349	6349	6349	6349	6349	6349	6349	6349	6349	6349	6349	6349	6349	6349	6235	6349	6349	6349	6349	6349	6349	6349	6349	6349	6349	6349	6349	6349	6349	6349	6349	6349	6349	6349	6349	6349	0	0	0	0	0	0	0	0	0	0	0	0	0	0	0	0	0	0	0	7444	7779	7779	7959	7959	7959	7959	7959	7959	7779	7779	7779	7779	7779	7779	7779	7959	7779	7779	7779	7779	7779	7779	7959	8146	8146	8146	8146	8343	8343	8146	8146	8146	7959	7959	8146	8146	8146	8146	8146	8146	8146	8146	7959	7959	7959	7959	7959	7959	7959	7959	7959	7959	7959	7959	7959	7959	7959	7959	8146	8146	8146	0	0	0	0	0	3510	3510	3510	3510	3510	3510	3510	3510	3510	3546	3510	3510	3510	3475	3475	3475	3475	3475	3510	3475	3510	3510	3510	3510	3510	3546	3546	3546	3510	3546	3510	3510	3510	3510	3510	3475	3475	3475	3475	3475	3475	3475	3475	3475	3475	3440	3440	3440	3475	3475	3510	3510	3510	3510	3510	3510	4706	4771	4771	4771	4771	4706	4706	4706	4706	4706	4706	4706	4706	4771	4706	4771	4706	4706	4521	4521	4463	4463	4521	4521	4521	4643	4643	4706	4706	4706	4706	4706	4706	4706	4706	4706	4706	4706	4706	4706	4706	4706	4706	4706	4706	4706	4706	4706	4706	4706	4706	4706	4706	4706	4706	4706	4706	4706	4706	4706	4706	4771	4771	4706	4771	4706	4706	4706	4643	4643	4581	4581	4581	4581	4581	4581	4581	4581	4581	4581	4581	4643	4643	4706	4706	4706	4706	4706	4706	4581	4581	4581	4643	4643	4706	4771	4771	4771	4771	4771	4771	4771	4706	4706	4706	4706	4706	4706	4706	4706	4706	4706	4643	4643	4706	4706	4706	4706	4706	4706	4706	4706	4706	4706	4706	4706	4706	4706	4706	4706	4706	4706	4706	4706	4643	4706	4643	4643	4706	4643	4706	4706	4706	4706	4706	4706	4706	4706	4706	4706	4706	4706	4706	4706	4643	4643	4643	4581	4581	4581	4521	4463	4406	4463	4643	4706	4706	4706	4706	4706	4771	4771	4771	4838	4977	5050	5125	5202	5202	5125	4977	4977	4906	4906	0	4977	4977	0	0	0	0	0	0	0	0	0	0	0	0	0	0	0	0	0	0	0	0	0	0	0	8146	8146	8146	8146	8146	8146	7959	7959	7959	7959	8146	8146	8146	8146	8343	8343	8343	8343	0	0	0	0	0	0	0	0	0	0	0	0	0	0	0	0	0	0	0	0	0	0	0	0	0	0	0	0	0	0	0	0	0	0	2551	2551	2551	2551	2532	2514	2514	2514	2496	2496	2496	2496	2478	2478	2478	0	0	0	0	0	0	0	0	0	0	0	0	0	0	0	0	0	0	0	0	0	0	0	0	0	0	0	0	0	0	0	0	0	0	0	0
0	0	0	0	0	0	894	894	898	903	905	908	910	913	913	915	917	920	920	925	932	935	935	940	942	945	948	953	955	961	972	974	974	977	977	980	980	983	988	991	991	994	1003	1008	1008	1014	1017	1017	1023	1030	1033	1039	1048	1052	1055	1061	1064	1068	1071	1071	1074	1078	1078	1085	1088	1085	1085	1095	1095	1095	1109	0	0	0	0	0	0	0	0	0	0	0	0	0	0	0	0	0	0	0	0	0	0	0	0	0	0	0	4706	4706	4706	4706	4706	4706	4771	4771	4771	4771	4771	4706	4706	4771	4771	4771	4706	4771	4771	4771	4771	4706	4771	4771	4771	4771	4706	4771	4838	4838	4838	4771	4838	4838	4771	4706	4771	4771	4706	4706	4706	4706	4706	4643	4643	4643	4643	4581	4581	6592	6468	6468	6349	6349	6349	6349	6349	6349	6349	6349	6349	6349	6349	6235	6349	6235	6349	6349	6349	6349	6349	6349	6349	6349	6349	6349	6349	6349	6349	6349	6349	6349	6349	6349	6349	6349	6349	0	0	0	0	0	0	0	0	0	0	0	0	0	0	0	0	0	0	0	7137	7137	7779	7959	7959	7959	7959	7959	7959	7779	7779	7779	7779	7779	7779	7959	7779	7779	7779	7779	7779	7779	7779	7959	7959	7779	7959	7959	8146	8146	8146	7959	7959	7959	7959	7959	7959	7959	8146	8146	8146	8146	7959	7959	7959	7959	7959	7959	7959	7959	7959	7959	7959	7959	7959	7959	7959	7959	7959	8146	8146	8146	8146	0	0	0	0	3510	3510	3510	3546	3510	3546	3546	3546	3546	3546	3510	3510	3510	3510	3475	3475	3475	3475	3475	3475	3475	3510	3510	3510	3510	3546	3546	3546	3510	3546	3510	3510	3510	3510	3510	3510	3510	3475	3475	3475	3475	3475	3475	3475	3475	3440	3440	3440	3475	3475	3510	3510	3510	3510	3510	3510	4706	4706	4771	4771	4706	4706	4706	4706	4706	4706	4706	4706	4706	4706	4706	4706	4706	4706	4581	4521	4463	4463	4521	4521	4521	4643	4643	4706	4706	4706	4706	4706	4706	4706	4706	4706	4706	4706	4706	4706	4706	4706	4706	4706	4706	4706	4706	4706	4706	4706	4706	4706	4706	4706	4706	4771	4706	4706	4771	4706	4706	4771	4771	4706	4771	4771	4771	4706	4706	4643	4643	4643	4581	4581	4581	4581	4581	4581	4581	4581	4643	4643	4706	4706	4706	4706	4706	4643	4643	4581	4521	4521	4581	4643	4643	4771	4706	4771	4771	4771	4771	4771	4706	4706	4706	4706	4771	4771	4771	4706	4771	4706	4643	4643	4706	4706	4706	4706	4706	4706	4706	4706	4706	4706	4706	4706	4706	4706	4706	4706	4706	4706	4706	4706	4706	4706	4706	4706	4706	4706	4706	4706	4706	4706	4706	4706	4706	4706	4706	4706	4706	4706	4706	4706	4706	4706	4643	4581	4581	4581	4521	4463	4463	4463	4581	4643	4706	4706	4706	4706	4771	4706	4706	4771	4838	4977	4977	5202	5202	5202	5202	4977	0	0	0	0	0	0	0	0	0	0	0	0	0	0	0	0	0	0	0	0	0	0	0	0	0	0	0	0	0	0	8146	8146	8146	8146	7959	7959	7959	7959	8146	8146	8146	8146	8146	8343	8343	8343	0	0	0	0	0	0	0	0	0	0	0	0	0	0	0	0	0	0	0	0	0	0	0	0	0	0	0	0	0	0	0	0	0	0	2570	2551	2551	2551	2532	2514	2514	2514	2496	2496	2496	2496	2478	2478	2478	0	0	0	0	0	0	0	0	0	0	0	0	0	0	0	0	0	0	0	0	0	0	0	0	0	0	0	0	0	0	0	0	0	0	0	0
0	0	0	0	0	0	896	901	901	903	905	908	910	913	913	915	915	917	920	927	935	935	937	940	942	945	948	953	958	961	966	972	974	974	977	980	983	985	988	991	991	994	1006	1008	1011	1017	1020	1020	1023	1030	1033	1039	1048	1048	1055	1061	1064	1068	1071	1071	1074	1078	1078	1081	1085	1085	1085	1095	1095	1095	0	0	0	0	0	0	0	0	0	0	0	0	0	0	0	0	0	0	0	0	0	0	0	0	0	0	0	0	0	4643	4643	4643	4643	4643	4706	4706	4706	4706	4706	4706	4706	4771	4771	4771	4706	4771	4771	4771	4771	4771	4771	4838	4838	4771	4771	4838	4838	4838	4838	4771	4838	4838	4771	4771	4771	4771	4706	4706	4706	4771	4771	4706	4643	4643	4643	4643	6468	6468	6468	6349	6349	6349	6468	6349	6349	6349	6349	6349	6349	6349	6349	6235	6349	6235	6349	6349	6349	6349	6349	6349	6349	6349	6349	6349	6349	6349	6349	6349	6349	6349	6349	6349	6349	6349	6349	0	0	0	0	0	0	0	0	0	0	0	0	0	0	0	0	0	0	0	7137	7137	7608	7959	7959	7959	7959	7959	7959	7779	7779	7779	7959	7959	7959	7959	7959	7779	7779	7779	7779	7779	7779	7779	7959	7779	7959	7959	7959	7959	7959	7959	7959	7959	7959	7959	7959	8146	8146	8146	8146	8146	7959	7959	7959	7959	7959	7959	7779	7779	7779	7779	7779	7959	7959	7959	7959	7959	7959	8146	8146	8146	8146	0	0	0	0	3510	3546	3546	3546	3546	3546	3546	3546	3546	3546	3510	3510	3510	3510	3475	3475	3475	3475	3475	3475	3510	3510	3510	3510	3510	3546	3546	3546	3510	3546	3546	3510	3510	3510	3510	3510	3510	3475	3475	3475	3475	3475	3475	3475	3475	3440	3440	3440	3475	3475	3475	3510	3546	3546	4706	4706	4706	4706	4771	4771	4771	4706	4706	4706	4706	4706	4706	4706	4706	4706	4706	4706	4706	4581	4521	4521	4521	4521	4521	4521	4521	4581	4643	4706	4706	4706	4706	4706	4706	4706	4706	4706	4706	4706	4706	4706	4706	4706	4706	4706	4706	4706	4706	4706	4706	4706	4706	4706	4706	4706	4706	4771	4706	4706	4706	4706	4706	4706	4706	4706	4706	4706	4706	4706	4643	4643	4581	4581	4581	4581	4581	4581	4581	4581	4581	4521	4581	4643	4643	4706	4706	4706	4706	4706	4643	4581	4521	4521	4581	4581	4643	4706	4706	4706	4706	4706	4706	4706	4706	4706	4706	4706	4771	4771	4771	4771	4771	4706	4643	4643	4706	4706	4706	4706	4706	4706	4706	4706	4706	4706	4706	4706	4706	4706	4706	4706	4706	4706	4706	4706	4706	4706	4706	4706	4706	4706	4706	4706	4706	4706	4706	4706	4706	4706	4706	4706	4706	4706	4643	4643	4706	4706	4643	4581	4643	4643	4521	4521	4521	4581	4643	4706	4706	4706	4706	4706	4706	4706	4706	4706	4771	4906	4906	5202	5202	5202	5202	0	0	0	0	0	0	0	0	0	0	0	0	0	0	0	0	0	0	0	0	0	0	0	0	0	0	0	0	0	0	0	0	8146	8146	8146	8146	8146	8146	8146	8146	8146	8146	8146	8146	8146	8343	8343	0	0	0	0	0	0	0	0	0	0	0	0	0	0	0	0	0	0	0	0	0	0	0	0	0	0	0	0	0	0	0	0	0	2589	2570	2570	2551	2551	2532	2532	2514	2514	2514	2496	2496	2496	2496	2478	2478	0	0	0	0	0	0	0	0	0	0	0	0	0	0	0	0	0	0	0	0	0	0	0	0	0	0	0	0	0	0	0	0	0	0	0	0
0	0	0	0	0	0	896	903	903	905	908	908	910	913	913	915	915	917	922	930	935	935	935	940	942	948	950	953	955	958	966	969	974	974	977	980	983	985	988	991	994	997	1008	1011	1011	1017	1020	1020	1023	1026	1033	1036	1045	1052	1058	1061	1064	1068	1071	1071	1074	1074	1074	1078	1085	1085	1085	1088	1095	1095	0	0	0	0	0	0	0	0	0	0	0	0	4643	4643	4643	0	0	0	0	0	0	0	0	0	0	0	0	0	0	4643	4643	4643	4643	4643	4706	4706	4706	4706	4706	4706	4706	4771	4771	4771	4771	4771	4838	4838	4771	4771	4771	4838	4838	4838	4771	4838	4838	4838	4838	4771	4771	4771	4771	4771	4771	4771	4771	4706	4706	4771	4771	4706	4643	4643	4771	4771	6468	6349	6349	6349	6349	6349	6349	6349	6349	6349	6349	6349	6349	6349	6349	6235	6349	6235	6349	6349	6349	6349	6349	6349	6349	6349	6349	6349	6349	6349	6349	6349	6349	6349	6349	6349	6349	6349	6349	0	0	0	0	0	0	0	0	0	0	0	0	0	0	0	0	0	0	0	0	0	7608	7959	7959	7779	7779	7959	7959	7959	7779	7779	7959	7959	7959	7959	7959	7959	7959	7779	7779	7779	7779	7779	7959	7959	7959	7959	7959	7959	7959	7959	7959	7959	7959	7959	7959	7959	7959	8146	8146	8146	7959	7959	7959	7959	7959	7779	7779	7779	7779	7779	7779	7959	7959	7959	7959	7959	7959	7959	7959	7959	7959	0	0	0	0	0	3546	3546	3546	3546	3546	3546	3546	3546	3546	3546	3546	3510	3510	3510	3475	3475	3475	3475	3510	3510	3510	3510	3510	3510	3546	3546	3546	3546	3546	3546	3546	3546	3510	3510	3510	3510	3475	3475	3475	3475	3475	3475	3475	3440	3440	3440	3440	3440	3475	3510	3510	3546	3546	4706	4706	4706	4706	4706	4771	4771	4771	4706	4706	4706	4706	4706	4706	4706	4706	4706	4706	4706	4643	4581	4521	4521	4521	4521	4521	4521	4581	4643	4706	4706	4706	4706	4706	4706	4706	4706	4706	4706	4706	4706	4706	4706	4706	4706	4706	4706	4706	4706	4706	4706	4706	4706	4706	4706	4706	4706	4706	4706	4706	4706	4706	4706	4706	4771	4706	4706	4706	4706	4706	4643	4581	4643	4581	4581	4581	4581	4581	4521	4521	4521	4521	4521	4581	4706	4706	4771	4706	4706	4706	4706	4581	4581	4521	4581	4581	4643	4643	4706	4706	4706	4706	4706	4706	4706	4706	4706	4706	4771	4706	4706	4706	4771	4706	4643	4643	4706	4706	4706	4706	4706	4706	4706	4706	4706	4706	4706	4706	4706	4706	4706	4706	4706	4706	4706	4706	4706	4706	4706	4706	4706	4706	4706	4706	4643	4643	4643	4643	4643	4643	4643	4643	4643	4643	4581	4643	4643	4643	4581	4581	4581	4581	4521	4521	4521	4581	4643	4643	4643	4643	4706	4706	4706	4706	4706	4706	4706	4771	4771	0	0	0	0	0	0	0	0	0	0	0	0	0	0	0	0	0	0	0	0	0	0	0	0	0	0	0	0	0	0	0	0	0	0	0	0	8146	8146	8343	8146	8146	8343	8146	8146	8146	8146	8343	8343	8343	8343	0	0	0	0	0	0	0	0	0	0	0	0	0	0	0	0	0	0	0	0	0	0	0	0	0	0	0	0	0	0	0	0	0	0	2589	2570	2570	2570	2551	2551	2532	2532	2514	2514	2496	2496	2496	2496	2496	2496	0	0	0	0	0	0	0	0	0	0	0	0	0	0	0	0	0	0	0	0	0	0	0	0	0	0	0	0	0	0	0	0	0	0	0	0
0	0	0	0	0	0	0	903	905	908	910	910	913	913	915	915	917	917	922	927	932	935	935	940	942	945	950	955	955	958	966	972	974	974	977	980	983	985	991	994	997	997	1006	1008	1011	1017	1020	1020	1026	1030	1033	1036	1039	1045	1055	1058	1064	1068	1068	1071	1071	1074	1078	1078	1085	1085	1088	1088	0	0	0	0	0	0	0	0	0	0	0	0	0	0	4643	4643	4643	4643	0	0	0	0	0	0	0	0	0	0	0	0	0	0	4643	4706	4643	4643	4706	4706	4706	4706	4706	4706	4706	4771	4771	4771	4706	4771	4771	4838	4771	4771	4771	4838	4838	4838	4771	4838	4838	4838	4838	4771	4771	4771	4771	4771	4771	4771	4771	4706	4706	4706	4706	4706	4643	4643	4706	4643	4643	6349	6349	6349	6349	6349	6468	6349	6349	6349	6349	6349	6349	6349	6349	6235	6349	6349	6349	6349	6349	6349	6349	6349	6349	6349	6349	6349	6349	6235	6349	6349	6349	6349	6349	6349	6349	6349	6468	6468	0	0	0	0	0	0	0	0	0	0	0	0	0	0	0	0	0	0	0	0	0	0	0	5719	5719	7959	7959	7959	7959	5719	5719	7959	5719	5719	7959	7959	7959	7779	7779	7779	7779	7959	7959	7959	7959	7959	7959	7959	7959	7959	7959	7959	7959	7959	7959	7959	7959	7959	8146	8146	7959	7959	7959	7959	7959	7959	7779	7959	7959	7959	7959	7959	7959	7959	7959	7959	7959	7959	7959	7959	8146	8146	0	0	0	0	3546	3546	3546	3546	3546	3546	3546	3546	3546	3546	3546	3510	3510	3510	3510	3510	3475	3510	3510	3510	3510	3510	3510	3510	3546	3546	3546	3546	3583	3546	3583	3546	3546	3510	3510	3510	3475	3475	3475	3475	3475	3475	3475	3475	3440	3440	3440	3475	3475	3510	3510	3546	3546	4643	4706	4706	4706	4706	4706	4706	4771	4706	4706	4706	4706	4706	4706	4706	4706	4706	4706	4706	4643	4581	4521	4521	4521	4521	4521	4521	4581	4643	4706	4706	4706	4706	4706	4706	4706	4706	4706	4706	4706	4706	4706	4706	4706	4706	4706	4706	4706	4706	4706	4706	4706	4706	4706	4706	4706	4706	4771	4771	4771	4771	4771	4706	4771	4771	4706	4706	4706	4706	4706	4643	4643	4643	4643	4581	4581	4581	4581	4581	4521	4521	4521	4521	4581	4643	4706	4771	4771	4771	4706	4706	4581	4581	4521	4581	4581	4643	4643	4643	4643	4706	4706	4706	4706	4706	4706	4706	4706	4771	4706	4706	4706	4771	4706	4643	4643	4706	4706	4706	4706	4706	4706	4706	4706	4706	4706	4706	4706	4706	4706	4706	4706	4706	4706	4706	4706	4706	4706	4706	4706	4706	4706	4706	4643	4643	4643	4643	4643	4643	4643	4643	4643	4581	4581	4581	4581	4581	4643	4521	4521	4581	4581	4581	4521	4521	4581	4643	4643	4643	4643	4706	4706	4706	4706	4706	4643	4706	4771	4771	0	0	0	0	0	0	0	0	0	0	0	0	0	0	0	0	0	0	0	0	0	0	0	0	0	0	0	0	0	0	0	0	0	0	0	0	0	0	8343	8146	8146	8343	8343	8343	8146	8343	8343	8343	8343	8343	0	0	0	0	0	0	0	0	0	0	0	0	0	0	0	0	0	0	0	0	0	0	0	0	0	0	0	0	0	0	0	0	0	0	0	2570	2570	2570	2551	2551	2532	2532	2514	2514	2496	2496	2496	2496	2496	2496	0	0	0	0	0	0	0	0	0	0	0	0	0	0	0	0	0	0	0	0	0	0	0	0	0	0	0	0	0	0	0	0	0	0	0	0
0	0	0	0	0	0	0	905	903	910	913	913	913	915	915	915	917	917	922	927	932	935	935	937	940	945	950	953	955	958	963	969	972	974	977	983	985	988	991	994	997	997	1003	1006	1008	1017	1020	1020	1026	1033	1036	1036	1039	1048	1055	1055	1061	1068	1071	1071	1071	1074	1078	1078	1085	1085	1088	1088	0	0	0	0	0	0	0	0	0	0	0	0	0	0	4643	4643	4643	4643	0	0	0	0	0	0	0	0	0	0	4706	4706	4706	4706	4706	4706	4706	4643	4706	4706	4706	4643	4643	4706	4706	4771	4771	4771	4771	4771	4771	4838	4771	4771	4771	4838	4838	4838	4771	4771	4838	4838	4838	4771	4771	4838	4771	4771	4771	4771	4771	4706	4706	4706	4706	4706	4643	4643	4706	4706	4706	6349	6349	6349	6349	6349	6349	6349	6349	6349	6349	6349	6349	6349	6349	6235	6349	6349	6349	6349	6349	6349	6349	6349	6349	6349	6349	6235	6235	6235	6349	6349	6349	6349	6349	6349	6349	6349	6468	6468	0	0	0	0	0	0	0	0	0	0	0	0	0	0	0	0	0	0	0	0	0	0	0	5719	5719	7959	7959	5719	5719	5815	5719	5719	5719	5719	5626	5626	7779	7779	7779	7959	7959	7959	7959	7959	7959	7959	7779	7779	7779	7779	7779	7779	7779	7779	7779	7959	7959	7959	8146	8146	7959	7959	7959	7959	7959	7959	7779	7779	7779	7959	7959	7959	7959	7959	7959	7959	7959	7959	7959	7959	8146	8146	0	0	0	0	3546	3546	3546	3546	3546	3546	3546	3546	3546	3546	3546	3510	3510	3510	3510	3510	3510	3510	3546	3546	3546	3546	3546	3546	3546	3583	3583	3583	3583	3583	3583	3546	3546	3510	3510	3510	3510	3475	3475	3475	3475	3475	3475	3475	3440	3440	3440	3440	3475	3510	3510	3546	3546	4706	4706	4706	4706	4706	4706	4706	4771	4706	4706	4706	4706	4706	4706	4706	4706	4706	4706	4706	4643	4581	4521	4521	4521	4521	4521	4521	4581	4643	4643	4706	4706	4706	4706	4706	4706	4706	4706	4771	4706	4706	4706	4706	4706	4706	4706	4706	4706	4706	4706	4706	4706	4706	4706	4706	4706	4706	4771	4771	4771	4706	4706	4771	4771	4771	4706	4706	4706	4706	4706	4643	4581	4643	4643	4643	4581	4581	4581	4581	4521	4521	4521	4581	4581	4643	4643	4706	4706	4706	4643	4643	4643	4581	4581	4581	4581	4643	4643	4643	4643	4643	4706	4706	4706	4706	4706	4706	4706	4706	4706	4706	4706	4706	4706	4643	4643	4706	4706	4706	4706	4706	4706	4706	4706	4706	4643	4706	4706	4643	4706	4706	4706	4706	4706	4706	4706	4706	4706	4706	4706	4706	4706	4706	4643	4643	4643	4643	4643	4643	4643	4643	4581	4581	4521	4521	4521	4521	4581	4521	4581	4581	4581	4581	4521	4581	4581	4643	4643	4643	4643	4706	4706	4706	4706	4643	4643	4706	4706	4706	0	0	0	0	0	0	0	0	0	0	0	0	0	0	0	0	0	0	0	0	0	0	0	0	0	0	0	0	0	0	0	0	0	0	0	0	0	0	0	0	0	8343	8343	8343	8146	8343	8343	8343	0	0	0	0	0	0	0	0	0	0	0	0	0	0	0	0	0	0	0	0	0	0	0	0	0	0	0	0	0	0	0	0	0	0	0	0	2570	2570	2570	2570	2551	2551	2532	2532	2514	2496	2496	2496	2496	2496	2478	2478	0	0	0	0	0	0	0	0	0	0	0	0	0	0	0	0	0	0	0	0	0	0	0	0	0	0	0	0	0	0	0	0	0	0	0	0
0	0	0	0	0	0	894	898	898	908	913	913	913	915	915	917	917	917	922	925	930	932	935	937	937	948	953	955	955	958	961	966	969	972	977	983	985	988	991	994	997	997	1003	1006	1011	1017	1017	1023	1026	1026	1036	1039	1042	1048	1052	1055	1064	1068	1071	1071	1074	1074	1081	1085	1088	1088	1091	1095	1095	0	0	0	0	0	0	0	0	0	0	0	0	0	4643	4643	4643	4643	4643	0	0	0	0	0	0	0	0	4771	4706	4706	4706	4643	4706	4706	4643	4643	4706	4706	4706	4706	4643	4643	4706	4706	4771	4771	4771	4771	4771	4838	4838	4771	4838	4838	4838	4838	4838	4838	4838	4838	4838	4771	4771	4838	4771	4771	4771	4771	4771	4706	4706	4706	4706	4706	4643	4643	4706	4706	4706	4706	6349	6349	6349	6349	6349	6349	6349	6349	6349	6349	6349	6349	6235	6235	6349	6349	6349	6349	6349	6349	6349	6349	6349	6349	6349	6235	6235	6235	6349	6349	6349	6349	6349	6349	6349	6349	6349	6349	6349	0	0	0	0	0	0	0	0	0	0	0	0	0	0	0	0	0	0	5815	5815	5719	5719	5719	5719	0	0	5719	5719	5815	5815	5815	5719	5719	5626	5626	7959	7959	7959	7959	7959	7959	7959	7959	7959	7959	7779	7779	7779	7779	7779	7779	7779	7779	7779	7779	7779	7959	7959	7959	7959	7959	7959	7959	7959	7959	7959	7959	7959	7959	7959	7959	7959	7959	7959	7959	7959	7959	7959	7959	8343	8146	8146	0	0	0	0	3583	3546	3546	3546	3546	3546	3546	3546	3546	3546	3546	3546	3510	3546	3510	3510	3546	3546	3546	3546	3546	3546	3546	3546	3583	3583	3583	3583	3583	3583	3546	3546	3510	3510	3475	3510	3475	3475	3475	3475	3475	3475	3475	3440	3440	3440	3440	3475	3510	3510	3546	3546	4706	4706	4706	4706	4706	4706	4706	4771	4706	4706	4706	4706	4706	4706	4706	4706	4706	4706	4706	4643	4581	4521	4521	4521	4521	4521	4521	4521	4581	4581	4643	4643	4643	4643	4643	4706	4706	4706	4706	4706	4706	4706	4706	4706	4706	4706	4706	4706	4706	4706	4643	4643	4706	4643	4643	4706	4706	4771	4771	4771	4771	4771	4771	4771	4706	4706	4706	4706	4706	4706	4643	4643	4643	4643	4643	4643	4581	4581	4581	4521	4521	4521	4521	4581	4643	4643	4706	4706	4706	4643	4643	4581	4581	4581	4581	4581	4643	4643	4581	4581	4643	4643	4643	4643	4643	4643	4706	4706	4706	4706	4706	4706	4706	4643	4643	4643	4706	4706	4706	4706	4706	4706	4706	4706	4706	4643	4643	4643	4643	4643	4643	4643	4643	4706	4706	4706	4706	4706	4706	4706	4706	4706	4643	4643	4643	4643	4643	4581	4581	4581	4581	4581	4521	4521	4521	4521	4521	4521	4521	4521	4521	4521	4463	4521	4521	4521	4581	4643	4643	4643	4706	4706	4706	4706	4643	4643	4706	4706	4706	0	0	0	0	0	0	0	0	0	0	0	0	0	0	0	0	0	0	0	0	0	0	0	0	0	0	0	0	0	0	0	0	0	0	0	0	0	0	0	0	0	6018	6018	0	0	0	0	0	0	0	0	0	0	0	0	0	0	0	0	0	0	0	0	0	0	0	0	0	0	0	0	0	0	0	0	0	0	0	0	0	0	0	0	0	2570	2570	2570	2551	2551	2551	2532	2532	2514	2496	2496	2496	2496	2478	2478	2478	2478	0	0	0	0	0	0	0	0	0	0	0	0	0	0	0	0	0	0	0	0	0	0	0	0	0	0	0	0	0	0	0	0	0	0	0
0	0	0	0	0	0	896	898	898	903	913	910	913	915	917	917	920	920	922	925	930	932	932	937	937	948	953	955	955	958	961	963	966	969	972	983	985	991	994	994	997	997	997	1003	1011	1017	1020	1020	1026	1030	1033	1039	1042	1045	1048	1052	1064	1071	1071	1071	1074	1074	1081	1085	1088	1088	1091	1095	1095	0	0	0	0	0	0	0	0	0	0	4643	4706	4706	4706	4706	4706	4706	4706	0	0	0	0	0	0	0	4706	4706	4643	4643	4643	4643	4706	4706	4706	4706	4706	4706	4706	4643	4643	4706	4706	4706	4838	4771	4771	4771	4771	4771	4771	4771	4771	4838	4838	4838	4838	4838	4838	4771	4771	4771	4771	4838	4771	4771	4838	4838	4771	4706	4706	4706	4706	4643	4643	4643	4706	4706	4771	4771	4771	4771	4771	6349	6349	6349	6349	6349	6349	6349	6349	6235	6235	6235	6349	6349	6349	6349	6349	6349	6349	6349	6235	6235	6235	6235	6235	6235	6235	6235	6349	6235	6349	6349	6349	6235	6235	6349	6349	0	0	0	0	0	0	0	0	0	0	0	0	0	0	0	0	0	0	5815	5815	5719	5719	5719	5719	5719	5719	5719	5719	5815	5815	5815	5719	5719	5719	5626	5719	5719	5535	5535	8146	8146	8146	7959	7959	7959	7959	7779	7779	7779	7779	7779	7779	7779	7779	7779	7779	7959	7959	7959	7959	7959	7959	7959	7959	7959	7959	7959	7959	7959	7959	7959	7959	7959	7959	7959	7959	7959	7959	7959	8343	8146	8146	0	0	0	0	3583	3546	3510	3546	3546	3510	3546	3546	3546	3546	3546	3546	3546	3546	3510	3510	3510	3546	3546	3546	3546	3546	3546	3546	3583	3583	3583	3583	3583	3583	3546	3546	3510	3510	3475	3510	3475	3475	3475	3475	3475	3475	3475	3440	3440	3440	3475	3475	3510	3510	3546	3546	4706	4706	4706	4706	4706	4771	4771	4771	4771	4706	4706	4706	4706	4706	4706	4706	4706	4706	4706	4643	4581	4521	4521	4521	4521	4521	4521	4521	4581	4581	4581	4581	4581	4581	4643	4643	4643	4706	4706	4706	4706	4706	4706	4706	4643	4643	4706	4706	4706	4643	4643	4643	4706	4706	4643	4706	4706	4771	4771	4706	4706	4771	4706	4706	4706	4706	4706	4706	4706	4706	4643	4643	4643	4643	4643	4581	4581	4521	4521	4521	4521	4521	4581	4581	4581	4643	4643	4706	4643	4643	4643	4643	4581	4581	4581	4643	4581	4581	4581	4581	4581	4581	4581	4581	4581	4581	4643	4643	4643	4706	4706	4706	4581	4581	4581	4643	4643	4643	4643	4643	4643	4643	4643	4643	4643	4643	4643	4643	4643	4643	4643	4643	4643	4706	4706	4706	4706	4706	4706	4706	4706	4643	4643	4643	4581	4581	4581	4581	4521	4463	4521	4521	4463	4463	4463	4463	4463	4521	4521	4521	4521	4521	4463	4521	4521	4521	4581	4643	4643	4643	4706	4706	4706	4706	4643	4643	4643	4706	4706	0	0	0	0	0	0	0	0	0	0	0	0	0	0	0	0	0	0	0	0	0	0	0	0	0	0	0	0	0	0	0	0	0	0	0	0	0	0	0	6018	6018	6018	6018	6018	6124	6124	6124	0	0	0	0	0	0	0	0	0	0	0	0	0	0	0	0	0	0	0	0	0	0	0	0	0	0	0	0	0	0	0	0	0	0	0	0	0	2570	2570	2570	2551	2551	2551	2551	2532	2514	2514	2496	2496	2496	2478	2478	2478	2478	0	0	0	0	0	0	0	0	0	0	0	0	0	0	0	0	0	0	0	0	0	0	0	0	0	0	0	0	0	0	0	0	0	0	0
0	0	0	0	0	0	898	898	898	905	913	910	913	913	915	917	920	920	922	925	927	932	932	937	937	945	953	955	958	958	961	963	966	969	972	977	985	988	994	997	1000	1000	1003	1006	1011	1017	1020	1023	1026	1033	1036	1039	1042	1045	1048	1052	1061	1071	1071	1074	1074	1074	1081	1085	1088	1091	1091	1095	1095	0	0	0	0	0	0	0	0	0	4643	4643	4643	4706	4706	4706	4706	4643	4643	4643	0	0	0	0	0	4643	4643	4706	4643	4643	4643	4643	4643	4706	4643	4643	4643	4706	4706	4643	4643	4643	4643	4706	4706	4771	4771	4771	4771	4771	4771	4771	4771	4771	4771	4838	4838	4838	4838	4771	4771	4771	4838	4771	4838	4771	4838	4838	4771	4706	4706	4706	4706	4706	4706	4643	4771	4771	4771	4838	4838	4838	4838	6349	6349	6349	6349	6349	6349	6349	6349	6235	6235	6235	6235	6349	6349	6349	6349	6349	6349	6349	6349	6235	6235	6235	6235	6235	6235	6235	6349	6235	6349	6349	6349	6235	6349	6349	6349	0	0	0	0	0	0	0	0	0	0	0	0	0	0	0	0	0	0	5815	5815	5815	5815	5719	5719	5719	5719	5719	5719	5719	5815	5815	5719	5719	5719	5626	5626	5626	5535	5535	5626	5626	7959	7959	7959	7959	7779	7779	7779	7779	7779	7779	7779	7779	7779	7959	7959	7959	7959	8146	7959	7959	7959	7959	7959	7959	7959	7959	7959	7959	7959	7959	7959	7959	7959	7959	7959	7959	7959	7959	7959	7959	8146	8146	0	0	0	3583	3510	3510	3546	3510	3510	3546	3546	3546	3546	3546	3546	3546	3546	3510	3510	3510	3510	3546	3546	3546	3546	3546	3583	3583	3583	3583	3583	3583	3583	3583	3546	3510	3510	3475	3510	3475	3475	3475	3475	3475	3475	3475	3440	3440	3440	3440	3475	3510	3510	3546	3546	4643	4643	4706	4706	4706	4771	4771	4771	4771	4706	4706	4706	4706	4706	4706	4706	4706	4706	4706	4706	4581	4521	4521	4521	4521	4463	4463	4521	4521	4521	4521	4521	4581	4581	4581	4581	4581	4643	4643	4643	4643	4643	4706	4643	4643	4643	4643	4706	4706	4643	4643	4643	4706	4706	4643	4706	4706	4771	4771	4771	4706	4706	4771	4771	4706	4706	4706	4706	4706	4706	4706	4643	4643	4643	4643	4581	4521	4521	4521	4521	4521	4521	4521	4581	4581	4643	4706	4706	4706	4706	4706	4706	4581	4581	4581	4581	4581	4581	4581	4521	4581	4581	4521	4521	4521	4521	4581	4581	4581	4521	4643	4643	4581	4581	4581	4581	4643	4643	4643	4643	4643	4581	4581	4643	4643	4581	4581	4643	4643	4643	4643	4643	4643	4643	4706	4706	4706	4706	4643	4643	4643	4581	4581	4581	4521	4521	4521	4463	4463	4463	4463	4463	4463	4463	4463	4463	4463	4463	4463	4521	4521	4521	4463	4521	4463	4521	4521	4581	4581	4643	4643	4706	4706	4706	4643	4706	4706	4706	4706	0	0	0	0	0	0	0	0	0	0	0	0	0	0	0	0	0	0	0	0	0	0	0	0	0	0	0	0	0	0	0	0	0	0	0	0	0	0	0	6018	6018	6018	6018	6018	6018	6018	6018	0	0	0	0	0	0	0	0	0	0	0	0	0	0	0	0	0	0	0	0	0	0	0	0	0	0	0	0	0	0	0	0	0	0	0	0	0	2570	2570	2570	2551	2551	2551	2551	2532	2532	2514	2496	2496	2478	2478	2478	2478	2478	0	0	0	0	0	0	0	0	0	0	0	0	0	0	0	0	0	0	0	0	0	0	0	0	0	0	0	0	0	0	0	0	0	0	0
0	0	0	0	0	0	898	898	901	908	910	910	913	913	915	917	920	920	922	927	927	932	932	937	940	945	953	955	955	958	961	961	966	972	974	977	983	988	994	1000	1000	1000	1006	1006	1014	1017	1020	1023	1030	1033	1036	1039	1042	1045	1052	1052	1061	1071	1071	1071	1074	1074	1081	1081	1085	1085	1088	1091	1091	0	0	0	0	0	0	0	0	0	4643	4643	4643	4706	4706	4706	4706	4643	4643	4643	4643	0	0	0	0	4706	4706	4706	4643	4643	4643	4643	4643	4706	4643	4643	4643	4706	4706	4643	4643	4643	4706	4706	4771	4771	4771	4771	4771	4771	4771	4771	4771	4771	4771	4771	4771	4771	4771	4771	4771	4771	4771	4771	4838	4771	4771	4771	4771	4706	4706	4706	4706	4706	4706	4643	4771	4706	4771	4838	4838	4838	4838	4838	6235	6235	6349	6349	6349	6349	6349	6235	6235	6235	6349	6349	6349	6349	6349	6349	6349	6349	6349	6235	6235	6235	6235	6235	6349	6235	6349	6235	6235	6349	6235	6235	6235	6349	0	0	0	0	0	0	0	0	0	0	0	0	0	0	0	0	0	0	5815	5815	5815	5815	5815	5719	5719	5719	5719	5719	5719	5719	5719	5719	5719	5719	5719	5719	5626	5626	5626	5626	5626	5626	5535	5535	5535	7779	7779	7959	7779	7779	7779	7779	7779	7779	7779	7959	7959	7959	7959	8146	8146	7959	7959	7959	7959	7959	7959	7959	7959	7959	7959	7959	7959	7959	7959	7959	7959	7959	7959	7959	7959	7959	8146	8146	0	0	0	0	3475	3475	3510	3510	3510	3510	3510	3546	3546	3546	3546	3546	3546	3546	3510	3510	3510	3510	3546	3546	3546	3583	3583	3583	3583	3583	3583	3583	3583	3546	3546	3510	3510	3475	3475	3475	3475	3475	3475	3475	3475	3475	3440	3440	3440	3475	3475	3510	3510	3546	3546	3546	4643	4706	4706	4706	4771	4771	4771	4771	4706	4706	4706	4706	4706	4706	4706	4706	4706	4706	4706	4581	4521	4463	4463	4463	4463	4463	4463	4463	4521	4521	4521	4521	4521	4521	4521	4581	4581	4581	4581	4581	4581	4643	4581	4581	4581	4581	4643	4643	4581	4581	4581	4643	4643	4581	4643	4643	4706	4706	4706	4706	4706	4643	4706	4706	4643	4643	4643	4643	4643	4643	4643	4581	4643	4581	4581	4521	4521	4521	4521	4521	4521	4521	4521	4521	4581	4643	4643	4581	4581	4521	4521	4521	4581	4581	4643	4581	4581	4581	4581	4521	4521	4521	4521	4521	4521	4521	4521	4521	4521	4463	4521	4463	4463	4521	4521	4463	4521	4521	4521	4521	4521	4581	4581	4581	4581	4581	4581	4581	4581	4581	4643	4643	4643	4643	4706	4706	4643	4643	4643	4581	4521	4463	4463	4463	4463	4463	4463	4463	4463	4463	4463	4463	4463	4463	4463	4463	4463	4463	4463	4463	4463	4463	4463	4463	4463	4463	4521	4521	4643	4706	4706	4706	4706	4706	4706	4706	4706	0	0	0	0	0	0	0	0	0	0	0	0	0	0	0	0	0	0	0	0	0	0	0	0	0	0	0	0	0	0	0	0	0	0	0	0	0	0	0	5915	6018	6018	6018	6018	6018	6018	6124	6124	0	0	0	0	0	0	0	0	0	0	0	0	0	0	0	0	0	0	0	0	0	0	0	0	0	0	0	0	0	0	0	0	0	0	0	0	0	2570	2570	2570	2551	2570	2551	2551	2532	2514	2514	2496	2496	2478	2478	2478	2478	2478	0	0	0	0	0	0	0	0	0	0	0	0	0	0	0	0	0	0	0	0	0	0	0	0	0	0	0	0	0	0	0	0	0	0	0
