0	0	0	0	0	0	0	0	0	0	0	0	0	0	0	2426	2443	2443	2443	2443	2443	2443	2460	2460	2460	2460	2478	2514	2514	2514	2514	2514	2532	2532	2532	2532	2514	2532	2532	2532	2532	2532	2532	2514	2532	2532	2514	2514	2514	2514	2514	2514	2496	2514	2514	2514	2514	2514	2514	2514	2514	2514	2514	2514	2514	2514	2514	2514	2532	2532	2532	2514	2514	2514	2514	2514	2514	2514	2532	2532	2532	2532	2532	2532	2532	2532	2532	2532	2532	2532	2514	2532	2532	2532	2514	2514	2532	2532	2514	2514	2496	2532	2514	2532	2514	2514	2532	2532	2532	2532	2514	2532	2532	2532	2532	2532	2532	2514	2514	2893	2893	2893	2893	2893	2893	2893	2869	2869	2845	2845	2845	2845	2845	2845	2845	2869	2869	2917	2917	3659	3659	3659	3621	3621	3621	3621	3621	3583	3583	3583	3583	3583	3583	3583	3583	3583	3546	3546	3583	3546	3583	3583	3583	3621	3583	3583	3583	3583	3583	3546	3546	3546	3583	3621	3621	3621	3659	3621	3621	3621	3621	3621	3621	3621	3621	3621	3621	3621	3621	3621	3621	3621	3583	3621	3621	3583	3583	3621	3659	3659	3659	3659	3659	3659	3659	3659	3659	3659	3659	3659	3659	3659	3659	3659	3659	3659	3659	3621	3621	3659	3659	3621	3659	3659	3659	3659	3659	3621	3621	3621	3621	3621	3621	3583	3583	3583	3583	3583	3583	3583	3583	3583	3583	3583	3583	3583	3583	3621	3659	3659	3621	3583	3621	3621	3621	3621	3659	3046	3046	3046	3019	3019	3019	3019	3019	3019	2993	3019	3019	3019	3046	3046	3019	3019	2993	2967	2967	2942	2942	2942	2942	2942	2917	2917	2917	2917	2917	2893	2893	2869	2893	2893	2893	2893	2893	2869	2893	2893	2893	2893	2869	2893	2869	2869	2869	2869	2869	2869	2869	2869	2869	2869	2869	2869	2893	2917	2917	2942	2942	2942	2942	2942	2942	2942	2942	2942	2967	2967	2967	2967	2993	2993	2993	2993	2993	2993	2993	2967	2967	2967	2967	2967	2967	2967	2967	2967	2993	2967	2967	3659	3659	3659	3621	3621	3621	3621	3621	3621	3621	3621	3621	3621	3621	3621	3621	3621	3621	3621	3583	3621	3583	3583	3583	3621	3659	3659	3659	3659	3659	3659	3659	3659	3659	3659	3659	3659	3659	3659	3659	3659	3659	3659	3659	3621	3659	3659	3621	3621	3659	3659	3659	3659	3621	3621	3621	3621	3621	3621	3583	3621	3621	3621	3621	3621	3621	3621	3621	3621	3621	3621	3621	3621	3621	3621	3621	3621	3583	3583	3583	3583	3583	3583	3621	3659	3659	3659	3659	3659	3659	3659	3659	3621	3621	3621	3621	3621	3621	3621	3621	3621	3621	3621	3621	3583	3583	3583	3583	3546	3583	3583	3583	3546	3583	3546	3583	3583	3546	3546	3546	3546	3546	3659	3659	3659	3659	0	0	0	0	1947	1936	1936	1925	1915	1904	1894	1894	1894	1894	1883	1873	1873	1863	1863	1853	1833	1833	1824	1814	1804	1795	1786	1777	1777	1768	1768	1768	1768	0	0	0	0	0	0	0	0	0	0	0	0	0	0	0	0	0	0	0	0	0	0	0	0	0	0	0	0	0	0	0	0	0	0	0	0	0	0	0	0	0	0	0	0	0	0	0	0	0	0	0	0	0	0	0	0	0	0	0	0	0	0	0	0	0	0	0	0	0	0	0	0	0	0	0	0	0	0	0	0	0	0	0	0	0	0	0	0	0	0	0	0	0	0	0	0	0	0	0	0	0	0	0	0	0	0	0	0	0	0	0	0	0	0	0	0	0	0	0	0	0	0	0	0	0	0	0	0	0	0	0	0
0	0	0	0	0	0	0	0	0	0	0	0	0	0	0	2426	2443	2443	2443	2443	2443	2460	2460	2460	2460	2478	2496	2496	2514	2514	2514	2514	2532	2532	2532	2514	2514	2514	2532	2532	2532	2532	2532	2514	2532	2532	2514	2514	2514	2514	2514	2496	2496	2514	2514	2514	2514	2514	2532	2514	2514	2514	2514	2514	2514	2514	2514	2514	2514	2514	2514	2514	2514	2514	2514	2514	2514	2532	2532	2532	2532	2532	2532	2532	2532	2532	2514	2532	2532	2514	2514	2532	2532	2514	2514	2514	2532	2532	2514	2496	2496	2514	2514	2514	2496	2514	2532	2532	2532	2532	2532	2532	2532	2532	2532	2532	2532	2532	2532	2532	2917	2917	2893	2893	2893	2893	2893	2893	2869	2869	2869	2845	2869	2845	2845	2869	2869	2917	2917	2893	2893	3621	3621	3621	3621	3621	3583	3583	3583	3583	3546	3546	3583	3583	3583	3583	3546	3546	3583	3583	3583	3583	3583	3621	3621	3583	3583	3583	3583	3546	3546	3546	3583	3583	3621	3621	3621	3621	3621	3621	3621	3621	3621	3621	3621	3621	3621	3621	3621	3621	3583	3583	3583	3583	3583	3583	3583	3621	3621	3659	3659	3659	3659	3659	3659	3659	3659	3659	3659	3621	3659	3621	3659	3659	3659	3659	3659	3659	3621	3621	3621	3659	3621	3659	3659	3659	3659	3621	3621	3621	3621	3621	3621	3583	3583	3583	3583	3583	3583	3583	3583	3583	3583	3583	3583	3583	3583	3621	3659	3659	3621	3583	3583	3621	3659	3659	3698	3046	3046	3046	3019	3019	3019	3019	2993	3019	3019	3019	3019	3019	3046	3046	3019	3019	2993	2967	2967	2942	2942	2942	2942	2942	2942	2917	2917	2917	2917	2893	2893	2869	2869	2869	2869	2869	2869	2869	2893	2869	2869	2869	2869	2869	2869	2869	2869	2869	2869	2869	2869	2869	2869	2869	2869	2869	2893	2893	2917	2917	2917	2942	2942	2942	2942	2942	2942	2942	2942	2942	2967	2967	2993	2993	2993	2993	2993	2993	2993	2967	2967	2967	2967	2967	2967	2967	2967	2967	2967	2967	2967	3659	3659	3659	3621	3621	3621	3621	3621	3621	3621	3621	3621	3621	3621	3621	3621	3621	3621	3621	3583	3583	3583	3583	3583	3621	3621	3659	3659	3659	3659	3659	3621	3621	3621	3621	3621	3621	3621	3659	3621	3659	3659	3659	3659	3621	3659	3659	3621	3621	3659	3659	3659	3659	3621	3621	3621	3621	3621	3621	3583	3583	3621	3621	3583	3621	3621	3621	3621	3621	3621	3621	3621	3621	3621	3621	3621	3621	3583	3583	3583	3583	3583	3583	3583	3659	3659	3659	3659	3659	3659	3659	3659	3621	3621	3621	3621	3621	3621	3621	3621	3621	3621	3621	3621	3583	3583	3583	3583	3583	3583	3583	3583	3583	3583	3583	3583	3583	3583	3546	3546	3546	3546	3546	3659	0	0	0	1992	1980	1980	1947	1947	1936	1936	1915	1904	1904	1894	1904	1894	1894	1883	1873	1863	1863	1853	1843	1833	1824	1814	1804	1795	1786	1777	1777	1768	1759	1741	1741	0	0	0	0	0	0	0	0	0	0	0	0	0	0	0	0	0	0	0	0	0	0	0	0	0	0	0	0	0	0	0	0	0	0	0	0	0	0	0	0	0	0	0	0	0	0	0	0	0	0	0	0	0	0	0	0	0	0	0	0	0	0	0	0	0	0	0	0	0	0	0	0	0	0	0	0	0	0	0	0	0	0	0	0	0	0	0	0	0	0	0	0	0	0	0	0	0	0	0	0	0	0	0	0	0	0	0	0	0	0	0	0	0	0	0	0	0	0	0	0	0	0	0	0	0	0	0	0	0	0	0	0
0	0	0	0	0	0	0	0	0	0	0	0	0	0	0	2426	2443	2443	2460	2443	2460	2460	2460	2478	2478	2478	2496	2496	2514	2514	2514	2514	2532	2514	2514	2514	2514	2514	2514	2532	2532	2532	2532	2514	2532	2532	2514	2514	2496	2514	2514	2496	2496	2514	2514	2514	2514	2514	2514	2514	2514	2514	2514	2514	2514	2514	2514	2514	2514	2514	2514	2514	2514	2496	2496	2514	2514	2532	2532	2532	2514	2532	2532	2514	2532	2532	2514	2532	2532	2532	2514	2532	2532	2532	2532	2532	2532	2532	2514	2514	2496	2514	2496	2514	2496	2514	2514	2532	2532	2551	2532	2532	2532	2532	2551	2551	2532	2532	2532	2532	2917	2917	2917	2917	2917	2917	2917	2893	2893	2893	2869	2869	2869	2869	2869	2893	2917	2942	2917	2917	2917	3621	3621	3621	3621	3621	3583	3583	3583	3546	3546	3583	3583	3546	3546	3546	3583	3546	3583	3546	3583	3583	3583	3621	3621	3583	3583	3583	3546	3546	3546	3546	3583	3583	3583	3621	3621	3621	3621	3621	3621	3621	3621	3621	3621	3621	3621	3621	3621	3621	3583	3583	3583	3583	3583	3583	3583	3621	3659	3659	3659	3659	3659	3659	3659	3659	3659	3659	3659	3621	3621	3659	3659	3659	3659	3659	3659	3659	3659	3659	3659	3659	3621	3659	3659	3659	3659	3621	3621	3621	3621	3583	3583	3583	3583	3583	3583	3583	3583	3583	3583	3583	3583	3621	3621	3583	3583	3583	3621	3621	3583	3583	3583	3621	3621	3073	3046	3046	3046	3046	3046	3019	3019	3019	2993	3019	3019	3019	3019	3019	3046	3046	3019	2993	2967	2967	2942	2942	2942	2942	2942	2942	2942	2917	2917	2893	2893	2893	2893	2869	2869	2869	2869	2869	2869	2869	2869	2869	2869	2869	2869	2869	2869	2869	2869	2845	2869	2845	2869	2869	2869	2869	2869	2869	2893	2893	2917	2917	2942	2942	2942	2942	2942	2967	2942	2942	2942	2942	2967	2967	2993	2993	2993	2993	2993	2993	2993	2967	2967	2967	2967	2942	2967	2967	2967	2967	2967	2967	2967	3659	3659	3659	3621	3621	3621	3621	3621	3621	3621	3621	3621	3621	3621	3621	3621	3621	3621	3583	3583	3583	3583	3583	3583	3621	3659	3621	3659	3659	3659	3621	3621	3621	3621	3621	3621	3621	3621	3659	3621	3659	3659	3621	3659	3621	3659	3659	3659	3659	3659	3659	3659	3659	3621	3621	3621	3621	3621	3583	3583	3583	3583	3621	3621	3621	3621	3621	3621	3621	3621	3621	3621	3621	3621	3621	3583	3583	3583	3583	3583	3583	3583	3583	3621	3659	3659	3659	3659	3659	3659	3659	3659	3659	3659	3659	3621	3659	3621	3621	3621	3621	3621	3621	3621	3583	3583	3583	3583	3583	3583	3583	3583	3583	3583	3583	3583	3583	3583	3583	3546	3546	3546	3546	0	0	0	0	1992	1969	1958	1947	1947	1947	1936	1936	1925	1904	1894	1904	1894	1894	1883	1873	1863	1863	1853	1843	1833	1824	1824	1814	1804	1786	1786	1777	1768	1750	1741	1741	0	0	0	0	0	0	0	0	0	0	0	0	0	0	0	0	0	0	0	0	0	0	0	0	0	0	0	0	0	0	0	0	0	0	0	0	0	0	0	0	0	0	0	0	0	0	0	0	0	0	0	0	0	0	0	0	0	0	0	0	0	0	0	0	0	0	0	0	0	0	0	0	0	0	0	0	0	0	0	0	0	0	0	0	0	0	0	0	0	0	0	0	0	0	0	0	0	0	0	0	0	0	0	0	0	0	0	0	0	0	0	0	0	0	0	0	0	0	0	0	0	0	0	0	0	0	0	0	0	0	0	0
0	0	0	0	0	0	0	0	0	0	0	0	0	0	0	2426	2443	2460	2460	2460	2460	2460	2460	2460	2478	2478	2496	2496	2514	2514	2514	2514	2514	2514	2514	2514	2514	2514	2514	2532	2532	2532	2514	2514	2514	2532	2514	2514	2514	2514	2514	2496	2514	2514	2514	2514	2514	2514	2514	2514	2514	2514	2514	2514	2514	2514	2514	2514	2514	2514	2514	2514	2514	2514	2514	2514	2514	2514	2532	2532	2514	2514	2532	2514	2532	2532	2514	2532	2532	2532	2514	2532	2532	2532	2532	2532	2532	2532	2514	2514	2514	2514	2514	2514	2514	2514	2532	2532	2532	2551	2532	2532	2532	2532	2551	2551	2551	2551	2551	2551	2917	2917	2917	2917	2917	2942	2942	2917	2917	2917	2893	2893	2893	2893	2893	2893	2917	2917	2942	2917	2917	2942	2942	3621	3621	3621	3583	3583	3583	3546	3546	3583	3583	3546	3546	3546	3546	3583	3583	3583	3583	3583	3583	3621	3621	3583	3583	3583	3583	3546	3546	3546	3583	3583	3583	3583	3621	3621	3621	3621	3621	3621	3621	3621	3621	3621	3621	3621	3621	3621	3621	3583	3583	3583	3583	3583	3621	3621	3659	3659	3659	3659	3659	3659	3659	3659	3659	3659	3659	3659	3659	3659	3659	3659	3659	3621	3659	3621	3621	3621	3659	3659	3621	3659	3659	3659	3621	3621	3621	3621	3621	3621	3583	3621	3583	3583	3583	3583	3583	3583	3583	3583	3583	3621	3621	3583	3621	3621	3621	3621	3621	3583	3583	3621	3621	3073	3073	3046	3046	3046	3019	3019	3019	3019	2993	2993	2993	2993	2993	3019	3019	3019	2993	2993	2967	2967	2967	2942	2942	2942	2942	2942	2942	2942	2917	2917	2917	2893	2893	2869	2869	2869	2869	2869	2869	2869	2869	2869	2869	2869	2869	2893	2869	2869	2869	2869	2869	2869	2869	2869	2869	2869	2869	2869	2893	2893	2893	2893	2917	2917	2942	2942	2942	2942	2967	2942	2942	2942	2967	2967	2967	2967	2993	2993	2993	2993	2967	2967	2967	2967	2967	2942	2967	2942	2967	2967	2967	2967	2967	3659	3659	3659	3621	3583	3621	3621	3621	3621	3621	3621	3621	3621	3621	3621	3621	3621	3621	3583	3583	3583	3583	3583	3583	3621	3659	3659	3659	3659	3659	3659	3621	3621	3621	3621	3621	3621	3621	3621	3621	3659	3659	3621	3659	3659	3659	3659	3659	3659	3659	3659	3659	3659	3621	3621	3621	3621	3621	3621	3621	3583	3621	3621	3621	3621	3621	3621	3621	3621	3621	3621	3621	3621	3621	3621	3621	3621	3583	3583	3583	3583	3583	3583	3621	3659	3659	3659	3659	3659	3659	3659	3621	3621	3621	3659	3621	3659	3621	3621	3621	3621	3621	3621	3583	3583	3583	3583	3583	3583	3583	3583	3583	3583	3583	3583	3583	3583	3546	3546	3546	3546	3546	2039	2039	2027	2015	2003	1992	1969	1958	1947	1947	1947	1936	1936	1925	1915	1904	1904	1894	1894	1883	1873	1873	1863	1853	1843	1824	1824	1814	1814	1804	1795	1786	1777	1768	1759	1750	1750	0	0	0	0	0	0	0	0	0	0	0	0	0	0	0	0	0	0	0	0	0	0	0	0	0	0	0	0	0	0	0	0	0	0	0	0	0	0	0	0	0	0	0	0	0	0	0	0	0	0	0	0	0	0	0	0	0	0	0	0	0	0	0	0	0	0	0	0	0	0	0	0	0	0	0	0	0	0	0	0	0	0	0	0	0	0	0	0	0	0	0	0	0	0	0	0	0	0	0	0	0	0	0	0	0	0	0	0	0	0	0	0	0	0	0	0	0	0	0	0	0	0	0	0	0	0	0	0	0	0	0	0
0	0	0	0	0	0	0	0	0	0	0	0	0	0	0	2426	2443	2460	2460	2460	2460	2460	2460	2460	2478	2478	2478	2496	2514	2514	2514	2514	2514	2514	2514	2514	2514	2514	2514	2514	2514	2514	2514	2514	2514	2514	2514	2496	2514	2514	2514	2514	2514	2514	2514	2514	2514	2496	2514	2514	2514	2514	2514	2514	2514	2514	2514	2514	2514	2514	2514	2514	2514	2496	2496	2514	2514	2532	2532	2532	2532	2532	2532	2514	2532	2532	2514	2532	2532	2514	2514	2532	2532	2514	2514	2514	2532	2532	2514	2496	2496	2514	2514	2514	2514	2514	2532	2532	2532	2551	2532	2532	2532	2532	2551	2551	2551	2551	2551	2551	2942	2942	2942	2942	2942	2942	2967	2942	2942	2917	2917	2917	2917	2917	2893	2917	2942	2993	2993	2967	2967	2942	2942	3621	3621	3621	3583	3583	3583	3546	3583	3583	3583	3583	3583	3546	3546	3583	3583	3546	3546	3621	3621	3621	3621	3583	3583	3583	3583	3583	3583	3583	3583	3583	3583	3583	3621	3621	3621	3621	3621	3621	3621	3621	3621	3621	3621	3621	3621	3621	3621	3621	3583	3621	3621	3583	3621	3621	3659	3659	3659	3659	3659	3659	3659	3659	3659	3659	3659	3659	3659	3659	3659	3659	3659	3621	3659	3621	3621	3621	3659	3659	3659	3659	3659	3659	3621	3621	3621	3621	3583	3583	3583	3621	3583	3583	3583	3583	3583	3583	3583	3583	3621	3621	3621	3621	3621	3621	3621	3621	3621	3621	3621	3621	3621	3073	3073	3073	3046	3046	3019	2993	2993	2993	2993	2993	2993	2993	3019	3019	3046	3046	2993	2993	2967	2967	2967	2942	2942	2942	2942	2942	2942	2917	2917	2893	2893	2893	2869	2869	2869	2869	2869	2893	2869	2869	2869	2869	2869	2869	2869	2869	2869	2869	2869	2869	2869	2869	2869	2869	2869	2869	2869	2869	2893	2893	2893	2893	2917	2917	2942	2942	2967	2967	2967	2967	2967	2942	2967	2967	2967	2967	2967	2993	2993	2993	2967	2967	2967	2967	2967	2967	2967	2942	2967	2967	2967	2967	2967	3659	3659	3621	3621	3621	3621	3621	3621	3621	3621	3621	3621	3621	3621	3621	3621	3621	3583	3583	3583	3583	3583	3583	3583	3659	3621	3659	3659	3621	3659	3621	3621	3621	3621	3621	3621	3621	3621	3621	3621	3659	3659	3659	3659	3659	3659	3659	3659	3621	3659	3621	3659	3621	3621	3621	3621	3621	3621	3621	3621	3621	3621	3621	3621	3621	3621	3621	3621	3621	3621	3621	3621	3621	3621	3621	3621	3621	3621	3583	3583	3583	3583	3583	3621	3659	3659	3659	3659	3659	3621	3621	3621	3621	3621	3659	3621	3659	3621	3621	3621	3621	3621	3621	3583	3583	3583	3583	3583	3583	3583	3583	3583	3583	3583	3583	3583	3546	3546	3546	3546	3546	2039	2039	2039	2027	2015	2015	1992	1969	1969	1958	1947	1947	1947	1936	1925	1915	1904	1904	1904	1894	1883	1873	1863	1853	1853	1843	1824	1824	1814	1814	1804	1795	1786	1786	1777	1759	1759	1759	0	0	0	0	0	0	0	0	0	0	0	0	0	0	0	0	0	0	0	0	0	0	0	0	0	0	0	0	0	0	0	0	0	0	0	0	0	0	0	0	0	0	0	0	0	0	0	0	0	0	0	0	0	0	0	0	0	0	0	0	0	0	0	0	0	0	0	0	0	0	0	0	0	0	0	0	0	0	0	0	0	0	0	0	0	0	0	0	0	0	0	0	0	0	0	0	0	0	0	0	0	0	0	0	0	0	0	0	0	0	0	0	0	0	0	0	0	0	0	0	0	0	0	0	0	0	0	0	0	0	0	0
0	0	0	0	0	0	0	0	0	0	0	0	0	0	0	2426	2443	2460	2460	2460	2460	2460	2460	2478	2478	2478	2496	2496	2514	2514	2514	2496	2514	2514	2514	2514	2514	2514	2514	2514	2514	2514	2514	2514	2514	2514	2532	2514	2514	2514	2514	2514	2514	2514	2514	2514	2514	2514	2514	2514	2514	2514	2514	2514	2514	2514	2514	2514	2514	2514	2514	2514	2496	2496	2496	2514	2514	2532	2532	2532	2532	2514	2532	2514	2514	2532	2514	2532	2514	2514	2514	2532	2532	2514	2514	2514	2532	2514	2496	2496	2496	2478	2514	2514	2514	2532	2532	2532	2532	2551	2532	2532	2532	2532	2551	2551	2551	2551	2551	2551	2967	2967	2967	2967	2967	2967	2967	2942	2942	2942	2942	2942	2942	2942	2917	2942	2942	2993	2993	2967	2967	2967	2967	2967	3621	3621	3583	3583	3583	3546	3583	3583	3583	3583	3583	3546	3546	3583	3583	3583	3583	3621	3621	3621	3621	3583	3583	3583	3583	3583	3546	3583	3583	3583	3583	3621	3583	3621	3621	3621	3621	3621	3621	3621	3621	3621	3583	3621	3621	3621	3621	3621	3583	3583	3583	3621	3621	3621	3621	3659	3621	3659	3621	3659	3659	3659	3659	3659	3659	3659	3659	3659	3659	3621	3659	3659	3659	3621	3659	3621	3659	3659	3621	3659	3659	3659	3659	3621	3621	3621	3583	3583	3583	3621	3583	3583	3583	3583	3583	3583	3583	3583	3621	3621	3621	3621	3621	3621	3621	3621	3621	3621	3583	3621	3621	3621	3046	3046	3046	3046	3019	3019	3019	2993	2993	2993	2993	3019	3019	3019	3046	3019	2993	2993	2993	2967	2967	2967	2942	2942	2942	2942	2942	2917	2917	2917	2893	2893	2869	2869	2869	2869	2869	2869	2869	2869	2869	2869	2869	2869	2869	2869	2869	2869	2869	2869	2869	2869	2869	2869	2869	2869	2869	2869	2869	2893	2917	2917	2917	2917	2942	2942	2967	2967	2967	2967	2942	2942	2967	2967	2967	2967	2993	2993	2993	2993	2967	2967	2967	2967	2967	2942	2942	2942	2942	2967	2967	2967	2967	3659	3659	3659	3659	3621	3621	3621	3621	3621	3621	3621	3621	3621	3621	3621	3583	3583	3583	3583	3583	3583	3621	3583	3583	3621	3621	3621	3621	3621	3621	3621	3621	3659	3659	3621	3621	3621	3621	3621	3621	3659	3659	3659	3659	3659	3659	3659	3659	3621	3659	3621	3659	3621	3621	3621	3621	3621	3621	3621	3621	3621	3621	3621	3621	3621	3621	3621	3621	3621	3621	3621	3621	3621	3621	3621	3621	3621	3583	3583	3583	3583	3583	3583	3621	3659	3659	3659	3659	3659	3621	3621	3621	3621	3621	3659	3621	3659	3621	3621	3621	3621	3621	3621	3583	3583	3583	3583	3583	3583	3583	3583	3583	3583	3583	3583	3583	3583	3546	3583	3546	2051	2039	2039	2039	2027	2015	2015	2003	1980	1969	1969	1958	1947	1947	1936	1936	1925	1915	1904	1904	1894	1883	1873	1873	1863	1853	1853	1833	1824	1824	1814	1804	1795	1786	1786	1777	1777	1750	1750	0	0	0	0	0	0	0	0	0	0	0	0	0	0	0	0	0	0	0	0	0	0	0	0	0	0	0	0	0	0	0	0	0	0	0	0	0	0	0	0	0	0	0	0	0	0	0	0	0	0	0	0	0	0	0	0	0	0	0	0	0	0	0	0	0	0	0	0	0	0	0	0	0	0	0	0	0	0	0	0	0	0	0	0	0	0	0	0	0	0	0	0	0	0	0	0	0	0	0	0	0	0	0	0	0	0	0	0	0	0	0	0	0	0	0	0	0	0	0	0	0	0	0	0	0	0	0	0	0	0	0	0
0	0	0	0	0	0	0	0	0	0	0	0	0	0	0	2426	2443	2460	2460	2460	2478	2460	2478	2478	2496	2496	2496	2496	2514	2514	2514	2496	2496	2496	2496	2496	2496	2514	2514	2514	2514	2514	2514	2514	2514	2514	2514	2514	2514	2514	2514	2514	2514	2514	2514	2514	2514	2496	2514	2514	2514	2514	2514	2514	2514	2532	2532	2514	2514	2514	2496	2496	2496	2496	2496	2514	2514	2532	2532	2532	2532	2514	2514	2514	2514	2532	2532	2532	2514	2514	2514	2532	2532	2532	2514	2514	2514	2514	2496	2496	2496	2478	2514	2514	2514	2532	2532	2532	2532	2532	2532	2532	2532	2551	2551	2551	2551	2532	2532	2532	2993	2967	2967	2967	2967	2967	2967	2993	2967	2967	2967	2967	2967	2967	2942	2942	2967	2993	2993	2993	2993	2993	2993	2993	2993	3621	3621	3621	3583	3583	3583	3583	3583	3583	3583	3546	3546	3546	3583	3546	3546	3621	3621	3621	3621	3583	3583	3583	3583	3583	3583	3583	3583	3583	3583	3621	3621	3621	3621	3621	3621	3621	3621	3621	3621	3583	3583	3621	3621	3621	3621	3621	3583	3583	3583	3583	3621	3583	3659	3659	3659	3659	3659	3659	3659	3659	3659	3659	3659	3659	3659	3659	3659	3659	3659	3659	3659	3659	3621	3621	3659	3621	3621	3621	3659	3621	3621	3621	3621	3621	3621	3621	3583	3621	3583	3583	3583	3583	3583	3583	3583	3621	3621	3659	3621	3621	3659	3659	3621	3621	3621	3621	3621	3583	3546	3546	3046	3046	3019	3019	2993	2993	2993	2993	2993	2993	2993	3019	3019	3046	3046	3046	3019	3019	2993	2967	2967	2942	2942	2942	2942	2942	2942	2942	2917	2917	2893	2893	2869	2869	2869	2869	2869	2869	2869	2869	2869	2869	2869	2869	2869	2869	2869	2869	2869	2869	2869	2869	2869	2869	2869	2869	2869	2869	2893	2893	2917	2917	2917	2917	2942	2942	2942	2967	2942	2942	2942	2942	2967	2967	2967	2967	2993	2993	2993	2993	2967	2967	2967	2942	2942	2942	2942	2942	2967	2967	2967	2967	2967	3659	3659	3659	3621	3621	3621	3621	3621	3621	3621	3621	3621	3621	3621	3621	3621	3621	3621	3583	3583	3621	3621	3621	3621	3621	3659	3659	3659	3621	3621	3621	3621	3621	3659	3659	3621	3621	3621	3621	3621	3621	3659	3659	3659	3659	3659	3659	3659	3621	3659	3621	3659	3621	3621	3621	3621	3621	3621	3621	3621	3621	3621	3621	3621	3621	3621	3621	3621	3621	3621	3621	3621	3621	3621	3621	3621	3621	3621	3621	3621	3621	3621	3621	3621	3659	3659	3659	3659	3659	3621	3621	3621	3621	3621	3659	3659	3621	3659	3659	3621	3621	3621	3583	3583	3583	3583	3583	3583	3583	3583	3583	3583	3583	3621	3621	3621	3583	3621	3698	2051	2051	2039	2039	2039	2027	2027	2015	2003	2003	1980	1969	1958	1958	1947	1947	1936	1925	1925	1904	1904	1894	1883	1873	1873	1863	1853	1853	1833	1824	1814	1804	1795	1795	1786	1777	1768	1768	1759	1750	1750	0	0	0	0	0	0	0	0	0	0	0	0	0	0	0	0	0	0	0	0	0	0	0	0	0	0	0	0	0	0	0	0	0	0	0	0	0	0	0	0	0	0	0	0	0	0	0	0	0	0	0	0	0	0	0	0	0	0	0	0	0	0	0	0	0	0	0	0	0	0	0	0	0	0	0	0	0	0	0	0	0	0	0	0	0	0	0	0	0	0	0	0	0	0	0	0	0	0	0	0	0	0	0	0	0	0	0	0	0	0	0	0	0	0	0	0	0	0	0	0	0	0	0	0	0	0	0	0	0	0	0
0	0	0	0	0	0	0	0	0	0	0	0	0	0	0	2426	2443	2460	2460	2460	2478	2478	2478	2496	2496	2496	2514	2514	2514	2514	2514	2514	2514	2514	2514	2514	2514	2514	2514	2514	2514	2514	2514	2514	2514	2514	2514	2514	2514	2514	2514	2514	2514	2514	2514	2532	2532	2514	2514	2514	2514	2514	2514	2514	2514	2532	2514	2514	2514	2514	2514	2514	2496	2496	2496	2514	2514	2532	2532	2532	2532	2532	2532	2532	2532	2532	2532	2532	2532	2514	2514	2532	2532	2532	2532	2532	2514	2514	2496	2496	2496	2496	2496	2514	2514	2532	2532	2532	2532	2532	2514	2514	2514	2532	2532	2551	2532	2532	2532	2514	2514	2514	3019	2993	2993	2993	2993	2993	2993	2967	2993	2967	2993	2993	2967	2967	2967	2993	2993	2993	2993	2993	2993	2993	2993	3621	3621	3621	3621	3583	3583	3621	3583	3583	3583	3583	3546	3546	3546	3546	3510	3621	3621	3583	3621	3583	3583	3583	3583	3583	3583	3583	3583	3583	3621	3621	3621	3621	3621	3621	3621	3583	3621	3621	3621	3583	3583	3583	3621	3621	3583	3583	3583	3583	3583	3583	3583	3583	3621	3621	3621	3659	3621	3621	3659	3659	3659	3659	3659	3659	3659	3659	3659	3659	3659	3659	3659	3621	3621	3621	3621	3621	3621	3621	3621	3621	3659	3621	3621	3621	3621	3621	3583	3621	3621	3621	3583	3583	3583	3583	3583	3621	3621	3621	3621	3621	3659	3621	3621	3621	3621	3621	3621	3621	3546	3046	3046	3019	3019	3019	2993	2993	2993	2993	2993	2993	3019	3019	3019	3046	3046	3046	3019	3019	2993	2967	2967	2942	2942	2942	2942	2942	2917	2917	2917	2893	2893	2869	2869	2869	2869	2869	2869	2869	2893	2869	2869	2869	2869	2869	2869	2869	2869	2845	2845	2869	2869	2869	2869	2869	2869	2869	2869	2869	2917	2917	2917	2917	2917	2942	2942	2942	2967	2967	2967	2942	2942	2942	2967	2967	2967	2967	2993	2993	2993	2967	2967	2967	2967	2967	2942	2942	2942	2967	2967	2967	2993	2993	3659	3621	3659	3659	3621	3621	3621	3621	3621	3621	3621	3621	3621	3621	3621	3621	3583	3583	3621	3583	3621	3621	3621	3621	3621	3621	3659	3659	3621	3621	3621	3621	3621	3621	3621	3621	3621	3621	3621	3621	3621	3621	3659	3659	3659	3659	3659	3659	3621	3621	3621	3621	3621	3621	3621	3621	3621	3621	3621	3621	3621	3621	3621	3621	3621	3621	3621	3621	3621	3621	3621	3621	3621	3621	3621	3621	3621	3621	3583	3621	3621	3621	3621	3621	3621	3659	3659	3659	3659	3659	3659	3621	3621	3621	3621	3621	3621	3621	3621	3659	3621	3621	3621	3583	3583	3583	3583	3583	3583	3583	3583	3583	3621	3621	3621	3621	3621	2127	2063	2063	2051	2051	2039	2039	2039	2027	2027	2015	2003	2003	1980	1969	1969	1958	1947	1947	1936	1936	1925	1915	1904	1894	1883	1873	1873	1863	1863	1853	1843	1824	1814	1804	1795	1795	1786	1777	1768	1759	1750	1741	1741	0	0	0	0	0	0	0	0	0	0	0	0	0	0	0	0	0	0	0	0	0	0	0	0	0	0	0	0	0	0	0	0	0	0	0	0	0	0	0	0	0	0	0	0	0	0	0	0	0	0	0	0	0	0	0	0	0	0	0	0	0	0	0	0	0	0	0	0	0	0	0	0	0	0	0	0	0	0	0	0	0	0	0	0	0	0	0	0	0	0	0	0	0	0	0	0	0	0	0	0	0	0	0	0	0	0	0	0	0	0	0	0	0	0	0	0	0	0	0	0	0	0	0	0	0	0	0	0	0	0	0
0	0	0	0	0	0	0	0	0	0	0	0	0	0	0	2409	2443	2443	2443	2460	2460	2460	2478	2478	2496	2496	2496	2496	2514	2514	2514	2496	2514	2514	2514	2514	2514	2514	2514	2514	2514	2514	2496	2496	2496	2496	2496	2496	2514	2514	2514	2514	2514	2514	2514	2514	2514	2496	2514	2514	2514	2514	2514	2514	2514	2514	2514	2514	2514	2514	2514	2514	2514	2496	2496	2496	2514	2532	2532	2532	2532	2532	2532	2532	2532	2532	2532	2532	2532	2532	2532	2532	2532	2532	2532	2532	2532	2514	2514	2496	2514	2496	2496	2514	2514	2514	2532	2532	2514	2532	2514	2514	2514	2514	2532	2551	2532	2532	2532	2514	2514	3073	3073	3046	3046	3019	3019	2993	2993	2993	2993	2993	2993	3019	2993	2967	2993	3019	3073	2993	2993	2993	3019	3019	3019	3019	3019	3659	3659	3621	3621	3621	3621	3583	3583	3546	3546	3546	3546	3510	3510	3546	3546	3546	3546	3583	3583	3583	3583	3583	3583	3583	3583	3621	3621	3621	3621	3621	3621	3621	3583	3583	3583	3583	3583	3583	3583	3583	3621	3621	3621	3583	3621	3583	3583	3583	3583	3583	3621	3659	3659	3659	3659	3659	3659	3659	3659	3659	3659	3659	3659	3659	3659	3621	3621	3659	3621	3621	3621	3621	3621	3583	3621	3621	3621	3621	3659	3621	3621	3659	3621	3621	3621	3621	3621	3621	3621	3659	3659	3659	3621	3621	3621	3621	3621	3621	3621	3621	3621	3621	3583	3621	3546	3546	3546	3019	3019	3019	3019	2993	2967	2967	2967	2967	2967	2967	2993	3019	3019	3046	3046	3046	3019	2993	2993	2967	2967	2942	2942	2942	2942	2942	2917	2917	2917	2893	2893	2893	2893	2893	2869	2893	2893	2893	2893	2869	2869	2869	2869	2869	2869	2869	2869	2845	2869	2845	2845	2845	2845	2869	2869	2869	2869	2893	2917	2893	2893	2917	2893	2917	2917	2942	2942	2967	2942	2942	2942	2942	2967	2967	2967	2967	2993	2993	2967	2967	2967	2967	2967	2967	2942	2942	2942	2967	2967	2967	2967	2967	3659	3621	3621	3621	3621	3621	3621	3621	3621	3621	3621	3621	3621	3621	3621	3621	3621	3621	3621	3583	3621	3621	3621	3621	3583	3583	3659	3621	3621	3621	3621	3621	3621	3659	3621	3621	3621	3621	3621	3621	3621	3621	3659	3659	3659	3659	3659	3659	3659	3621	3621	3621	3621	3621	3621	3621	3621	3621	3621	3621	3621	3621	3621	3621	3621	3621	3621	3621	3621	3621	3621	3621	3621	3621	3621	3621	3621	3621	3621	3621	3621	3621	3621	3621	3621	3659	3659	3621	3659	3659	3621	3621	3621	3621	3621	3621	3621	3621	3621	3621	3621	3621	3583	3583	3583	3583	3583	3583	3583	3583	3583	3583	3621	3621	3621	3659	2127	2127	2088	2063	2063	2063	2051	2039	2039	2039	2027	2015	2015	2003	1980	1980	1969	1969	1958	1947	1936	1936	1925	1915	1904	1904	1894	1883	1873	1863	1863	1853	1843	1824	1814	1804	1795	1795	1786	1777	1768	1759	1750	1750	1750	0	0	0	0	0	0	0	0	0	0	0	0	0	0	0	0	0	0	0	0	0	0	0	0	0	0	0	0	0	0	0	0	0	0	0	0	0	0	0	0	0	0	0	0	0	0	0	0	0	0	0	0	0	0	0	0	0	0	0	0	0	0	0	0	0	0	0	0	0	0	0	0	0	0	0	0	0	0	0	0	0	0	0	0	0	0	0	0	0	0	0	0	0	0	0	0	0	0	0	0	0	0	0	0	0	0	0	0	0	0	0	0	0	0	0	0	0	0	0	0	0	0	0	0	0	0	0	0	0	0	0
0	0	0	0	0	0	0	0	0	0	0	0	0	0	0	2392	2392	2426	2443	2443	2443	2460	2460	2478	2478	2496	2496	2496	2514	2514	2514	2514	2514	2514	2514	2514	2514	2514	2514	2514	2514	2496	2496	2496	2496	2496	2496	2496	2496	2514	2514	2514	2514	2514	2514	2514	2514	2496	2514	2496	2496	2514	2514	2514	2514	2514	2514	2514	2514	2514	2496	2514	2514	2514	2514	2514	2514	2532	2532	2532	2532	2532	2532	2532	2532	2532	2532	2532	2532	2532	2532	2532	2532	2532	2514	2532	2532	2514	2496	2496	2496	2514	2514	2514	2514	2532	2532	2532	2514	2514	2514	2514	2532	2514	2532	2532	2532	2532	2532	2514	2514	3046	3046	3046	3046	3019	3046	3046	3019	3019	3019	3019	3046	3046	3046	3019	3046	3046	3101	3073	3019	3019	3019	3046	3046	3046	3101	3101	3101	3621	3621	3621	3621	3583	3583	3546	3546	3583	3546	3546	3510	3546	3546	3510	3546	3583	3583	3583	3583	3583	3583	3583	3583	3583	3621	3621	3621	3621	3621	3621	3583	3583	3583	3583	3583	3583	3583	3621	3621	3621	3621	3621	3621	3621	3621	3621	3621	3621	3659	3659	3659	3659	3621	3659	3659	3659	3659	3659	3659	3659	3659	3659	3621	3621	3621	3621	3621	3621	3621	3621	3621	3621	3621	3621	3621	3621	3659	3621	3621	3621	3621	3621	3621	3621	3621	3621	3621	3621	3659	3621	3621	3621	3621	3621	3621	3621	3621	3621	3621	3583	3583	3621	3546	3546	3546	3019	3019	3019	2993	2993	2967	2967	2967	2967	2967	2967	2993	3019	3019	3046	3046	3046	3046	3019	2967	2967	2967	2942	2942	2942	2942	2942	2917	2917	2917	2893	2893	2893	2893	2893	2893	2893	2893	2893	2893	2869	2869	2869	2869	2869	2869	2869	2869	2869	2869	2869	2869	2845	2869	2869	2869	2893	2869	2893	2917	2893	2893	2917	2893	2893	2893	2917	2917	2942	2942	2942	2942	2942	2967	2967	2967	2967	2967	2967	2967	2967	2967	2967	2967	2942	2942	2942	2942	2967	2967	2967	2967	3621	3621	3621	3621	3621	3621	3621	3621	3621	3621	3621	3621	3621	3583	3583	3583	3583	3583	3583	3583	3583	3583	3583	3583	3583	3583	3583	3659	3659	3621	3621	3621	3659	3621	3621	3621	3621	3621	3621	3621	3621	3621	3659	3659	3659	3659	3659	3659	3621	3621	3621	3621	3621	3621	3621	3621	3621	3621	3621	3621	3621	3621	3621	3621	3621	3621	3621	3621	3621	3621	3621	3621	3621	3621	3621	3621	3621	3621	3621	3621	3621	3621	3583	3621	3621	3621	3659	3621	3621	3621	3621	3621	3621	3583	3621	3621	3621	3621	3583	3583	3621	3621	3621	3583	3583	3546	3583	3546	3546	3546	3583	3583	3621	3621	3621	3659	2127	2127	2127	2088	2088	2076	2063	2063	2051	2051	2039	2027	2027	2015	2015	2003	1980	1980	1969	1958	1958	1947	1936	1925	1904	1904	1904	1894	1883	1873	1873	1863	1853	1843	1814	1804	1795	1795	1786	1786	1777	1768	1768	1750	1750	1750	0	0	0	0	0	0	0	0	0	0	0	0	0	0	0	0	0	0	0	0	0	0	0	0	0	0	0	0	0	0	0	0	0	0	0	0	0	0	0	0	0	0	0	0	0	0	0	0	0	0	0	0	0	0	0	0	0	0	0	0	0	0	0	0	0	0	0	0	0	0	0	0	0	0	0	0	0	0	0	0	0	0	0	0	0	0	0	0	0	0	0	0	0	0	0	0	0	0	0	0	0	0	0	0	0	0	0	0	0	0	0	0	0	0	0	0	0	0	0	0	0	0	0	0	0	0	0	0	0	0	0
0	0	0	0	0	0	0	0	0	0	0	0	0	0	0	2376	2409	2426	2426	2443	2443	2460	2460	2478	2478	2478	2496	2496	2514	2514	2514	2514	2514	2514	2514	2514	2514	2514	2514	2514	2514	2496	2496	2496	2496	2496	2496	2496	2514	2514	2514	2514	2514	2514	2514	2514	2514	2496	2514	2496	2496	2514	2514	2514	2496	2514	2514	2514	2514	2514	2496	2514	2514	2514	2496	2514	2514	2532	2532	2532	2532	2532	2532	2532	2532	2532	2532	2532	2514	2514	2514	2514	2514	2514	2514	2514	2514	2496	2496	2496	2514	2514	2514	2514	2514	2532	2532	2532	2514	2532	2514	2514	2532	2532	2532	2532	2532	2551	2532	2514	2514	3073	3073	3073	3073	3073	3073	3073	3046	3046	3046	3073	3073	3073	3073	3073	3073	3101	3129	3101	3101	3101	3046	3073	3073	3073	3101	3101	3129	3583	3583	3621	3621	3583	3546	3546	3583	3583	3583	3546	3510	3546	3546	3546	3546	3546	3546	3583	3510	3583	3583	3621	3621	3621	3621	3621	3621	3621	3621	3621	3583	3583	3583	3583	3583	3583	3583	3583	3621	3621	3621	3621	3621	3621	3621	3621	3621	3621	3659	3659	3659	3659	3659	3659	3659	3659	3659	3659	3659	3659	3659	3659	3621	3621	3621	3659	3621	3621	3621	3621	3621	3621	3621	3621	3621	3621	3659	3621	3621	3621	3621	3621	3621	3621	3621	3621	3621	3659	3659	3621	3621	3621	3659	3659	3621	3621	3659	3621	3621	3583	3583	3583	3546	3546	3510	3510	3019	3019	2993	2993	2967	2967	2967	2967	2967	2967	2967	2993	3019	3046	3046	3046	3046	3019	2993	2967	2942	2942	2942	2942	2942	2942	2917	2917	2917	2917	2893	2893	2893	2893	2893	2893	2893	2893	2893	2869	2869	2869	2869	2869	2869	2845	2845	2845	2845	2845	2845	2845	2845	2869	2869	2869	2893	2893	2917	2917	2893	2917	2917	2917	2893	2917	2917	2917	2917	2917	2942	2942	2967	2967	2967	2967	2967	2967	2967	2942	2942	2942	2967	2967	2942	2942	2942	2967	2967	2967	3621	3621	3621	3621	3621	3621	3621	3621	3621	3621	3621	3621	3621	3621	3583	3583	3583	3583	3583	3583	3583	3583	3583	3583	3583	3583	3583	3583	3659	3621	3621	3621	3621	3659	3659	3621	3621	3621	3621	3621	3621	3621	3621	3621	3659	3659	3659	3659	3659	3621	3621	3621	3621	3621	3621	3621	3621	3621	3621	3621	3621	3621	3621	3621	3621	3621	3621	3621	3621	3621	3621	3621	3621	3621	3621	3621	3621	3583	3621	3583	3583	3621	3621	3583	3583	3583	3583	3659	3621	3621	3621	3621	3621	3621	3583	3583	3583	3621	3583	3583	3621	3621	3621	3621	3621	3583	3583	3583	3583	3583	3583	3583	3621	3621	3659	2153	2153	2140	2140	2127	2114	2088	2088	2076	2063	2051	2051	2039	2039	2027	2027	2015	2003	1980	1980	1980	1969	1958	1947	1936	1925	1915	1915	1904	1904	1894	1883	1873	1863	1853	1843	1814	1804	1795	1795	1786	1786	1777	1768	1768	1750	1750	1741	1741	0	0	0	0	0	0	0	0	0	0	0	0	0	0	0	0	0	0	0	0	0	0	0	0	0	0	0	0	0	0	0	0	0	0	0	0	0	0	0	0	0	0	0	0	0	0	0	0	0	0	0	0	0	0	0	0	0	0	0	0	0	0	0	0	0	0	0	0	0	0	0	0	0	0	0	0	0	0	0	0	0	0	0	0	0	0	0	0	0	0	0	0	0	0	0	0	0	0	0	0	0	0	0	0	0	0	0	0	0	0	0	0	0	0	0	0	0	0	0	0	0	0	0	0	0	0	0	0	0	0
0	0	0	0	0	0	0	0	0	0	0	0	0	0	0	2376	2409	2426	2426	2443	2443	2460	2460	2478	2478	2496	2514	2514	2514	2514	2514	2514	2514	2514	2514	2514	2514	2514	2514	2514	2514	2496	2496	2496	2496	2514	2496	2496	2514	2514	2514	2514	2514	2514	2514	2514	2514	2496	2514	2496	2514	2514	2514	2514	2514	2532	2514	2514	2514	2514	2514	2514	2514	2496	2496	2514	2514	2532	2532	2532	2532	2532	2532	2532	2532	2532	2532	2532	2514	2514	2532	2532	2532	2532	2514	2532	2514	2514	2496	2496	2514	2496	2514	2514	2514	2514	2532	2514	2514	2532	2514	2532	2532	2532	2532	2532	2532	2551	2532	2514	2514	3073	3073	3101	3101	3101	3101	3101	3073	3073	3073	3101	3101	3129	3101	3101	3101	3101	3129	3129	3101	3129	3129	3129	3101	3129	3129	3129	3129	3129	3157	3621	3621	3583	3546	3546	3583	3583	3546	3546	3510	3510	3510	3510	3546	3546	3546	3583	3510	3583	3583	3621	3621	3621	3621	3621	3621	3621	3621	3621	3583	3583	3583	3583	3583	3583	3583	3546	3583	3621	3621	3621	3621	3621	3621	3621	3621	3621	3659	3659	3659	3659	3659	3659	3659	3659	3659	3659	3659	3659	3659	3659	3621	3659	3659	3659	3659	3659	3659	3621	3621	3621	3621	3621	3621	3621	3659	3621	3621	3621	3621	3621	3621	3621	3621	3621	3621	3621	3621	3621	3621	3621	3659	3659	3621	3621	3621	3621	3621	3583	3583	3583	3583	3546	3510	3659	3019	3019	2993	2993	2967	2967	2967	2967	2967	2967	2967	2993	2993	3019	3046	3019	3019	2993	2967	2942	2942	2942	2942	2942	2942	2942	2917	2917	2917	2893	2893	2893	2893	2893	2893	2893	2893	2893	2893	2869	2869	2869	2869	2869	2869	2845	2845	2845	2845	2845	2845	2845	2845	2869	2869	2869	2893	2893	2917	2917	2893	2917	2893	2893	2893	2893	2893	2917	2893	2893	2917	2942	2942	2967	2967	2967	2967	2967	2942	2942	2917	2917	2942	2942	2942	2942	2967	2967	2967	2967	3621	3621	3621	3621	3621	3621	3621	3621	3621	3621	3621	3621	3621	3583	3583	3583	3583	3583	3621	3583	3583	3583	3583	3583	3583	3583	3583	3583	3659	3659	3621	3621	3621	3621	3621	3621	3621	3621	3621	3621	3621	3621	3621	3659	3659	3659	3659	3659	3621	3621	3621	3621	3621	3621	3621	3621	3621	3621	3621	3621	3621	3621	3621	3621	3621	3621	3621	3621	3621	3621	3621	3583	3621	3621	3583	3583	3621	3621	3621	3583	3583	3621	3621	3621	3621	3583	3583	3621	3621	3621	3621	3621	3621	3621	3583	3621	3621	3621	3621	3583	3583	3621	3621	3583	3583	3583	3583	3583	3583	3583	3583	3583	3621	3621	3698	2153	2153	2140	2127	2127	2114	2101	2088	2088	2063	2063	2051	2039	2039	2039	2027	2027	2015	1992	1980	1980	1969	1958	1947	1936	1925	1915	1915	1904	1904	1894	1883	1873	1863	1853	1843	1814	1804	1795	1795	1786	1786	1777	1768	1759	1750	1750	1741	1741	0	0	0	0	0	0	0	0	0	0	0	0	0	0	0	0	0	0	0	0	0	0	0	0	0	0	0	0	0	0	0	0	0	0	0	0	0	0	0	0	0	0	0	0	0	0	0	0	0	0	0	0	0	0	0	0	0	0	0	0	0	0	0	0	0	0	0	0	0	0	0	0	0	0	0	0	0	0	0	0	0	0	0	0	0	0	0	0	0	0	0	0	0	0	0	0	0	0	0	0	0	0	0	0	0	0	0	0	0	0	0	0	0	0	0	0	0	0	0	0	0	0	0	0	0	0	0	0	0	0
0	0	0	0	0	0	0	0	0	0	0	0	0	0	0	2376	2392	2426	2426	2443	2443	2460	2460	2478	2478	2496	2496	2496	2514	2514	2514	2514	2532	2532	2514	2514	2514	2514	2514	2514	2496	2496	2478	2478	2496	2514	2514	2496	2514	2514	2514	2514	2514	2496	2514	2514	2514	2514	2514	2496	2514	2514	2514	2514	2514	2532	2532	2514	2514	2514	2514	2514	2514	2496	2496	2496	2514	2532	2532	2532	2532	2532	2532	2532	2532	2532	2532	2532	2532	2532	2532	2532	2551	2532	2532	2532	2532	2514	2514	2496	2514	2496	2496	2514	2496	2514	2514	2514	2514	2532	2514	2532	2532	2532	2532	2532	2532	2551	2514	2514	2514	3073	3073	3101	3101	3101	3101	3101	3101	3129	3129	3129	3129	3129	3129	3129	3129	3129	3157	3129	3157	3129	3157	3157	3157	3157	3157	3129	3129	3129	3157	3157	3157	3510	3510	3510	3546	3546	3546	3546	3510	3546	3546	3546	3546	3546	3546	3583	3546	3583	3621	3621	3621	3621	3621	3621	3659	3621	3621	3621	3621	3621	3621	3583	3583	3583	3583	3583	3583	3621	3621	3621	3621	3621	3621	3621	3621	3621	3659	3659	3659	3659	3659	3659	3659	3659	3659	3659	3659	3659	3659	3659	3659	3659	3659	3659	3659	3659	3659	3621	3621	3621	3621	3621	3659	3659	3659	3659	3659	3621	3621	3621	3621	3621	3621	3621	3621	3621	3621	3621	3621	3621	3621	3659	3659	3621	3621	3621	3621	3621	3583	3583	3583	3583	3583	3621	3019	3019	2993	2993	2967	2967	2967	2967	2967	2967	2967	2993	2993	3019	3019	3019	2993	2967	2967	2942	2942	2942	2917	2917	2917	2917	2917	2917	2893	2893	2893	2893	2893	2893	2893	2893	2893	2869	2869	2869	2869	2869	2845	2869	2845	2845	2845	2845	2845	2845	2845	2845	2845	2845	2869	2869	2869	2869	2917	2917	2893	2917	2893	2893	2893	2893	2893	2893	2893	2893	2917	2942	2942	2967	2967	2967	2967	2967	2942	2917	2917	2917	2942	2942	2942	2942	2967	2967	2967	3621	3621	3621	3621	3621	3621	3621	3621	3621	3621	3621	3621	3621	3583	3583	3583	3583	3583	3583	3583	3583	3583	3583	3583	3583	3583	3583	3583	3583	3621	3621	3621	3621	3659	3659	3621	3621	3621	3621	3621	3621	3621	3659	3659	3659	3659	3659	3659	3659	3621	3621	3621	3621	3621	3621	3621	3621	3621	3621	3621	3621	3621	3621	3621	3621	3621	3621	3621	3621	3621	3621	3621	3621	3621	3621	3583	3583	3621	3621	3583	3583	3583	3583	3621	3583	3621	3583	3583	3583	3583	3583	3621	3621	3621	3621	3621	3621	3621	3621	3621	3583	3583	3621	3621	3621	3583	3583	3583	3583	3583	3583	3583	3546	3546	3546	3738	2167	2153	2140	2140	2127	2127	2114	2101	2088	2076	2063	2063	2051	2051	2039	2039	2027	2003	1992	1980	1980	1969	1958	1947	1936	1925	1915	1915	1904	1904	1894	1883	1863	1853	1843	1833	1814	1804	1795	1795	1786	1786	1777	1768	1759	1750	1741	1732	1732	0	0	0	0	0	0	0	0	0	0	0	0	0	0	0	0	0	0	0	0	0	0	0	0	0	0	0	0	0	0	0	0	0	0	0	0	0	0	0	0	0	0	0	0	0	0	0	0	0	0	0	0	0	0	0	0	0	0	0	0	0	0	0	0	0	0	0	0	0	0	0	0	0	0	0	0	0	0	0	0	0	0	0	0	0	0	0	0	0	0	0	0	0	0	0	0	0	0	0	0	0	0	0	0	0	0	0	0	0	0	0	0	0	0	0	0	0	0	0	0	0	0	0	0	0	0	0	0	0	0
0	0	0	0	0	0	0	0	0	0	0	0	0	0	0	2376	2392	2409	2426	2426	2426	2460	2460	2460	2478	2478	2496	2496	2514	2514	2514	2514	2532	2514	2514	2514	2514	2514	2514	2514	2514	2496	2496	2496	2496	2514	2496	2496	2514	2514	2514	2514	2514	2514	2514	2514	2514	2514	2514	2496	2514	2514	2514	2514	2514	2532	2532	2514	2514	2514	2514	2514	2496	2496	2496	2496	2496	2532	2532	2532	2551	2532	2532	2532	2532	2532	2532	2532	2532	2532	2532	2532	2532	2532	2532	2532	2514	2514	2514	2514	2514	2496	2514	2496	2496	2514	2532	2514	2514	2532	2514	2532	2532	2532	2532	2532	2532	2532	2514	2514	2514	3157	3101	3129	3129	3129	3129	3129	3129	3129	3157	3129	3129	3157	3157	3157	3157	3157	3186	3157	3186	3157	3157	3157	3129	3129	3129	3129	3129	3129	3129	3157	3157	3186	3246	3546	3546	3510	3546	3546	3510	3546	3546	3546	3546	3546	3546	3583	3546	3546	3583	3621	3583	3621	3621	3621	3621	3621	3621	3621	3621	3621	3621	3621	3621	3583	3583	3583	3583	3621	3621	3621	3621	3621	3621	3621	3621	3621	3659	3659	3659	3659	3659	3659	3659	3659	3659	3659	3659	3659	3659	3659	3621	3659	3659	3621	3621	3621	3621	3621	3621	3621	3621	3621	3659	3659	3659	3659	3659	3621	3621	3621	3621	3621	3621	3621	3621	3621	3621	3621	3621	3621	3621	3621	3621	3621	3621	3621	3621	3583	3583	3583	3583	3583	3583	3621	3019	3019	2993	2993	2967	2967	2967	2967	2967	2967	2967	2967	2993	2993	3019	2993	2993	2967	2967	2942	2942	2942	2942	2917	2917	2917	2917	2917	2869	2869	2893	2893	2893	2893	2869	2893	2869	2869	2869	2869	2869	2869	2869	2869	2869	2845	2845	2845	2845	2845	2845	2845	2845	2869	2869	2869	2869	2869	2893	2893	2893	2893	2893	2893	2893	2893	2893	2893	2893	2893	2917	2942	2942	2967	2967	2967	2942	2942	2942	2917	2917	2917	2917	2942	2942	2942	2942	2942	2942	3621	3621	3621	3621	3621	3621	3621	3621	3621	3621	3621	3621	3621	3621	3621	3583	3583	3583	3583	3583	3583	3583	3583	3583	3583	3583	3583	3583	3583	3621	3621	3621	3621	3621	3659	3621	3621	3621	3659	3659	3621	3621	3659	3659	3659	3659	3659	3659	3659	3659	3621	3621	3621	3621	3621	3621	3621	3621	3621	3621	3621	3621	3621	3621	3621	3621	3621	3621	3621	3621	3621	3621	3621	3621	3621	3621	3583	3621	3583	3583	3583	3583	3583	3583	3621	3621	3583	3546	3583	3583	3583	3583	3583	3621	3621	3621	3621	3621	3621	3621	3621	3583	3621	3621	3583	3583	3583	3546	3583	3583	3583	3546	3546	2208	2208	2194	2181	2153	2153	2140	2140	2127	2114	2114	2101	2076	2076	2063	2051	2063	2051	2039	2027	2003	1992	1980	1980	1969	1958	1947	1936	1925	1915	1925	1904	1904	1894	1883	1873	1853	1843	1833	1814	1804	1795	1795	1786	1786	1777	1768	1759	1750	1741	1732	1732	1732	0	0	0	0	0	0	0	0	0	0	0	0	0	0	0	0	0	0	0	0	0	0	0	0	0	0	0	0	0	0	0	0	0	0	0	0	0	0	0	0	0	0	0	0	0	0	0	0	0	0	0	0	0	0	0	0	0	0	0	0	0	0	0	0	0	0	0	0	0	0	0	0	0	0	0	0	0	0	0	0	0	0	0	0	0	0	0	0	0	0	0	0	0	0	0	0	0	0	0	0	0	0	0	0	0	0	0	0	0	0	0	0	0	0	0	0	0	0	0	0	0	0	0	0	0	0	0	0	0
0	0	0	0	0	0	0	0	0	0	0	0	0	0	0	2376	2409	2409	2426	2426	2426	2443	2460	2460	2478	2478	2496	2514	2514	2514	2514	2514	2532	2514	2514	2514	2514	2514	2514	2514	2514	2514	2496	2496	2514	2514	2496	2496	2514	2514	2514	2514	2514	2514	2514	2514	2514	2514	2514	2496	2496	2514	2514	2514	2514	2514	2514	2514	2514	2514	2514	2514	2496	2514	2478	2496	2496	2514	2532	2532	2532	2551	2551	2532	2532	2532	2532	2532	2532	2532	2532	2532	2532	2532	2532	2532	2532	2514	2514	2514	2514	2514	2514	2514	2514	2514	2532	2514	2532	2532	2514	2532	2532	2532	2532	2532	2532	2551	2532	2532	2532	3186	3186	3157	3186	3157	3157	3157	3157	3157	3157	3157	3157	3157	3157	3157	3157	3157	3216	3216	3186	3186	3216	3186	3157	3157	3157	3157	3186	3186	3186	3216	3216	3216	3246	3246	3246	3510	3510	3546	3546	3583	3546	3546	3546	3546	3546	3546	3510	3510	3583	3583	3583	3621	3621	3621	3621	3621	3621	3621	3621	3621	3621	3621	3621	3583	3583	3583	3583	3621	3621	3621	3583	3621	3583	3621	3621	3621	3659	3659	3659	3659	3659	3659	3659	3659	3621	3621	3659	3659	3621	3621	3621	3621	3621	3621	3621	3621	3659	3621	3621	3621	3621	3659	3659	3659	3659	3621	3621	3621	3621	3621	3621	3621	3621	3621	3621	3621	3621	3621	3621	3621	3621	3659	3659	3621	3621	3621	3621	3583	3583	3583	3583	3583	3546	3583	3019	3019	2993	2993	2967	2967	2967	2967	2967	2967	2967	2967	2967	2993	2993	2993	2993	2967	2942	2942	2942	2942	2942	2917	2917	2917	2917	2917	2869	2869	2869	2869	2869	2893	2869	2869	2869	2869	2869	2869	2845	2845	2845	2869	2869	2845	2869	2845	2845	2845	2845	2845	2845	2869	2869	2869	2869	2869	2893	2893	2893	2893	2893	2893	2893	2893	2893	2893	2893	2893	2893	2917	2942	2942	2942	2942	2942	2942	2917	2917	2917	2917	2917	2917	2917	2942	2942	2942	2942	3583	3583	3621	3621	3621	3621	3621	3621	3621	3621	3621	3621	3621	3583	3583	3583	3583	3583	3621	3583	3583	3583	3583	3583	3583	3583	3583	3583	3583	3621	3621	3621	3621	3621	3621	3621	3621	3621	3621	3659	3659	3659	3659	3659	3659	3659	3659	3659	3659	3659	3621	3621	3621	3621	3621	3621	3621	3621	3621	3621	3621	3621	3621	3621	3621	3621	3621	3621	3621	3621	3621	3621	3621	3621	3621	3583	3583	3546	3583	3583	3583	3583	3583	3621	3621	3621	3583	3583	3583	3583	3583	3583	3583	3621	3621	3621	3621	3659	3621	3621	3659	3621	3621	3621	3621	3583	3583	3546	3583	3583	3583	3546	3546	2223	2223	2208	2194	2167	2153	2140	2140	2127	2127	2114	2101	2088	2076	2076	2063	2063	2051	2051	2027	2015	2003	1980	1980	1969	1958	1947	1936	1925	1915	1925	1904	1904	1894	1883	1863	1853	1843	1833	1814	1804	1795	1795	1786	1786	1777	1768	1768	1750	1741	1741	1732	1723	1723	0	0	0	0	0	0	0	0	0	0	0	0	0	0	0	0	0	0	0	0	0	0	0	0	0	0	0	0	0	0	0	0	0	0	0	0	0	0	0	0	0	0	0	0	0	0	0	0	0	0	0	0	0	0	0	0	0	0	0	0	0	0	0	0	0	0	0	0	0	0	0	0	0	0	0	0	0	0	0	0	0	0	0	0	0	0	0	0	0	0	0	0	0	0	0	0	0	0	0	0	0	0	0	0	0	0	0	0	0	0	0	0	0	0	0	0	0	0	0	0	0	0	0	0	0	0	0	0
0	0	0	0	0	0	0	0	0	0	0	0	0	0	0	2376	2392	2409	2409	2426	2426	2460	2460	2478	2478	2514	2514	2514	2514	2514	2514	2514	2532	2514	2514	2514	2514	2514	2514	2514	2514	2514	2496	2496	2514	2514	2514	2496	2496	2514	2514	2514	2514	2514	2514	2514	2514	2514	2514	2496	2496	2514	2514	2514	2514	2514	2514	2514	2514	2514	2514	2514	2496	2496	2496	2514	2514	2514	2532	2532	2532	2551	2551	2532	2532	2532	2532	2532	2532	2532	2532	2532	2532	2532	2532	2532	2514	2514	2514	2514	2514	2514	2514	2514	2514	2514	2532	2514	2532	2532	2532	2532	2532	2532	2532	2532	2532	2532	2532	2532	2514	2514	3216	3186	3186	3186	3186	3186	3186	3186	3186	3186	3186	3186	3186	3186	3186	3186	3216	3216	3246	3216	3216	3216	3216	3186	3157	3186	3186	3186	3216	3216	3216	3216	3216	3216	3246	3246	3621	3621	3583	3621	3583	3583	3583	3583	3546	3546	3546	3546	3583	3583	3583	3621	3621	3621	3621	3621	3621	3621	3621	3621	3621	3621	3621	3621	3583	3583	3583	3621	3621	3621	3583	3621	3583	3583	3621	3621	3659	3659	3659	3659	3659	3659	3621	3621	3621	3621	3659	3621	3621	3621	3621	3621	3659	3659	3621	3659	3659	3659	3659	3659	3659	3659	3659	3659	3659	3621	3621	3621	3621	3621	3621	3621	3621	3621	3583	3583	3583	3621	3621	3621	3621	3621	3659	3621	3621	3621	3621	3583	3583	3583	3583	3583	3583	3583	2993	2993	2993	2993	2967	2967	2942	2942	2967	2942	2967	2967	2967	2967	2967	2993	2967	2942	2942	2942	2942	2942	2942	2917	2917	2917	2917	2917	2869	2869	2869	2869	2869	2869	2869	2869	2869	2869	2869	2869	2845	2845	2869	2845	2869	2845	2845	2845	2845	2845	2845	2845	2845	2845	2869	2869	2869	2869	2893	2893	2893	2893	2893	2893	2893	2893	2893	2893	2893	2893	2893	2917	2917	2942	2942	2942	2942	2942	2917	2893	2893	2893	2917	2917	2917	2917	2917	2917	2917	2917	3583	3621	3621	3621	3621	3621	3621	3621	3621	3621	3621	3621	3583	3583	3583	3583	3583	3621	3583	3583	3583	3583	3583	3583	3583	3583	3583	3583	3583	3621	3621	3621	3621	3621	3621	3621	3621	3659	3659	3659	3659	3659	3659	3659	3659	3659	3659	3659	3621	3621	3621	3621	3621	3621	3621	3621	3621	3621	3621	3621	3621	3621	3621	3621	3621	3621	3621	3621	3621	3621	3621	3621	3621	3621	3583	3583	3546	3583	3583	3583	3583	3621	3583	3621	3621	3583	3583	3583	3583	3583	3583	3583	3621	3621	3621	3621	3659	3659	3659	3659	3621	3621	3621	3621	3621	3583	3583	3583	3583	3583	0	0	2237	2223	2223	2208	2181	2167	2153	2140	2127	2127	2127	2114	2101	2088	2076	2063	2063	2063	2051	2027	2015	2003	1980	1980	1969	1969	1947	1947	1936	1925	1925	1915	1904	1894	1873	1863	1853	1843	1833	1814	1804	1795	1795	1786	1786	1777	1768	1768	1759	1750	1741	1732	1732	1723	0	0	0	0	0	0	0	0	0	0	0	0	0	0	0	0	0	0	0	0	0	0	0	0	0	0	0	0	0	0	0	0	0	0	0	0	0	0	0	0	0	0	0	0	0	0	0	0	0	0	0	0	0	0	0	0	0	0	0	0	0	0	0	0	0	0	0	0	0	0	0	0	0	0	0	0	0	0	0	0	0	0	0	0	0	0	0	0	0	0	0	0	0	0	0	0	0	0	0	0	0	0	0	0	0	0	0	0	0	0	0	0	0	0	0	0	0	0	0	0	0	0	0	0	0	0	0	0
0	0	0	0	0	0	0	0	0	0	0	0	0	1665	1681	1690	1690	2409	2409	2409	2426	2460	2478	2514	2496	2514	2514	2514	2514	2514	2532	2514	2532	2514	2514	2514	2514	2514	2514	2514	2514	2514	2514	2496	2514	2514	2514	2514	2514	2514	2514	2514	2514	2514	2514	2514	2514	2514	2514	2514	2514	2514	2514	2514	2514	2532	2514	2532	2514	2514	2514	2514	2496	2496	2496	2514	2514	2514	2532	2514	2532	2532	2532	2532	2532	2532	2532	2532	2532	2532	2551	2551	2532	2532	2532	2532	2532	2514	2514	2514	2532	2532	2532	2514	2514	2514	2532	2514	2532	2532	2532	2551	2532	2532	2532	2532	2532	2532	2532	2532	2532	2532	3246	3216	3216	3186	3216	3216	3186	3186	3186	3186	3186	3186	3186	3186	3186	3186	3216	3216	3246	3216	3216	3246	3216	3216	3186	3216	3216	3216	3216	3216	3216	3216	3216	3216	3246	3246	3510	3546	3546	3583	3583	3546	3583	3546	3546	3546	3510	3510	3546	3546	3546	3583	3583	3621	3621	3621	3621	3621	3621	3621	3621	3621	3621	3583	3583	3583	3583	3583	3621	3621	3621	3621	3583	3583	3621	3583	3621	3621	3659	3659	3659	3659	3621	3621	3621	3621	3659	3659	3621	3621	3659	3659	3659	3659	3621	3659	3659	3621	3621	3659	3659	3659	3659	3659	3659	3621	3621	3621	3621	3621	3621	3621	3621	3621	3583	3583	3583	3621	3621	3621	3621	3659	3659	3659	3621	3621	3621	3621	3621	3583	3583	3583	3583	3583	2967	2967	2967	2993	2967	2967	2967	2967	2967	2967	2967	2967	2967	2967	2967	2967	2967	2942	2942	2942	2942	2942	2942	2917	2917	2917	2917	2917	2917	2869	2893	2869	2869	2869	2869	2869	2869	2869	2869	2869	2845	2845	2845	2845	2845	2845	2845	2845	2845	2845	2845	2845	2845	2845	2869	2869	2869	2869	2869	2893	2893	2893	2893	2893	2893	2893	2893	2893	2893	2893	2893	2917	2917	2917	2942	2942	2942	2942	2942	2917	2917	2893	2893	2893	2893	2893	2917	2893	2917	2917	3583	3621	3621	3621	3621	3621	3621	3621	3621	3621	3621	3583	3583	3583	3583	3583	3583	3621	3583	3583	3583	3583	3583	3583	3583	3583	3583	3583	3621	3621	3621	3621	3621	3621	3621	3621	3621	3621	3659	3659	3659	3659	3659	3659	3659	3659	3659	3621	3621	3621	3621	3621	3621	3621	3621	3621	3621	3621	3621	3621	3621	3621	3621	3621	3621	3621	3621	3621	3621	3621	3621	3621	3621	3621	3583	3583	3583	3583	3583	3583	3583	3583	3583	3621	3583	3583	3583	3621	3583	3621	3583	3583	3621	3621	3621	3621	3659	3621	3659	3659	3659	3659	3621	3621	3621	3583	3583	3546	3546	0	0	2237	2237	2223	2223	2208	2181	2181	2167	2153	2140	2127	2127	2114	2101	2088	2076	2063	2063	2063	2051	2039	2027	2003	1980	1980	1969	1958	1947	1936	1936	1925	1925	1904	1904	1894	1873	1863	1853	1843	1833	1824	1804	1795	1795	1786	1786	1786	1777	1759	1750	1732	1732	1732	1732	0	0	0	0	0	0	0	0	0	0	0	0	0	0	0	0	0	0	0	0	0	0	0	0	0	0	0	0	0	0	0	0	0	0	0	0	0	0	0	0	0	0	0	0	0	0	0	0	0	0	0	0	0	0	0	0	0	0	0	0	0	0	0	0	0	0	0	0	0	0	0	0	0	0	0	0	0	0	0	0	0	0	0	0	0	0	0	0	0	0	0	0	0	0	0	0	0	0	0	0	0	0	0	0	0	0	0	0	0	0	0	0	0	0	0	0	0	0	0	0	0	0	0	0	0	0	0	0	0
0	0	0	0	0	0	0	0	0	0	0	0	0	1673	1690	1690	1698	1706	1706	1715	1715	2460	2551	2532	2514	2532	2514	2532	2532	2532	2514	2514	2514	2514	2514	2514	2514	2514	2514	2514	2514	2514	2496	2496	2514	2496	2514	2514	2514	2514	2514	2514	2514	2514	2514	2514	2514	2514	2514	2514	2514	2514	2514	2514	2514	2532	2514	2514	2514	2514	2514	2514	2496	2496	2496	2496	2514	2514	2532	2532	2532	2532	2532	2532	2532	2532	2532	2532	2532	2551	2551	2551	2551	2551	2532	2551	2532	2532	2514	2514	2532	2532	2532	2532	2514	2514	2532	2532	2532	2532	2532	2532	2532	2532	2532	2532	2514	2514	2514	2532	2532	2532	3277	3216	3246	3216	3216	3216	3186	3216	3216	3186	3186	3186	3186	3186	3186	3186	3216	3246	3246	3246	3246	3246	3246	3216	3216	3216	3216	3216	3216	3216	3216	3186	3216	3216	3246	3246	3475	3475	3510	3546	3546	3546	3546	3546	3546	3546	3510	3510	3546	3546	3546	3546	3583	3583	3621	3583	3621	3621	3621	3621	3583	3621	3621	3621	3621	3583	3621	3621	3621	3621	3621	3583	3583	3583	3583	3583	3621	3659	3659	3659	3659	3621	3621	3621	3621	3621	3621	3659	3621	3621	3659	3659	3659	3621	3621	3621	3621	3621	3621	3621	3621	3621	3659	3659	3659	3621	3621	3621	3621	3621	3621	3583	3583	3583	3583	3583	3583	3583	3621	3621	3621	3621	3621	3621	3621	3621	3621	3621	3621	3583	3546	3546	3546	3546	2967	2967	2967	2967	2967	2967	2967	2967	2967	2942	2967	2967	2967	2967	2967	2967	2967	2942	2942	2942	2942	2942	2942	2917	2917	2917	2917	2917	2893	2893	2893	2869	2869	2869	2869	2893	2869	2869	2869	2869	2845	2845	2845	2845	2845	2845	2845	2845	2845	2845	2845	2845	2845	2845	2845	2845	2869	2869	2893	2893	2893	2893	2893	2893	2893	2893	2893	2893	2917	2917	2893	2917	2917	2942	2942	2942	2942	2942	2942	2917	2917	2893	2893	2893	2893	2893	2893	2893	2893	2893	2893	3583	3621	3621	3621	3621	3621	3621	3621	3621	3621	3621	3583	3583	3583	3583	3583	3583	3583	3621	3583	3621	3621	3621	3583	3583	3583	3583	3621	3621	3621	3621	3621	3621	3621	3621	3621	3621	3621	3659	3659	3659	3659	3659	3659	3659	3659	3621	3621	3621	3621	3621	3621	3583	3621	3621	3621	3621	3621	3621	3621	3621	3621	3621	3621	3621	3621	3621	3621	3621	3621	3621	3621	3621	3583	3583	3583	3583	3583	3583	3583	3583	3583	3621	3621	3583	3583	3621	3621	3621	3621	3621	3621	3621	3621	3621	3659	3659	3659	3659	3659	3659	3621	3621	3621	3583	3583	3583	3583	0	0	2237	2237	2223	2223	2208	2194	2181	2167	2153	2140	2140	2127	2114	2114	2101	2076	2076	2063	2051	2051	2039	2027	2015	2003	1980	1969	1958	1947	1936	1936	1925	1925	1915	1904	1883	1873	1853	1843	1843	1833	1824	1804	1795	1795	1786	1786	1786	1768	1759	1750	1741	1741	0	0	0	0	0	0	0	0	0	0	0	0	0	0	0	0	0	0	0	0	0	0	0	0	0	0	0	0	0	0	0	0	0	0	0	0	0	0	0	0	0	0	0	0	0	0	0	0	0	0	0	0	0	0	0	0	0	0	0	0	0	0	0	0	0	0	0	0	0	0	0	0	0	0	0	0	0	0	0	0	0	0	0	0	0	0	0	0	0	0	0	0	0	0	0	0	0	0	0	0	0	0	0	0	0	0	0	0	0	0	0	0	0	0	0	0	0	0	0	0	0	0	0	0	0	0	0	0	0	0	0
0	0	0	0	0	0	0	0	0	0	0	0	0	1673	1681	1690	1690	1698	1698	1706	1706	1706	2551	2532	2514	2514	2532	2532	2532	2514	2514	2514	2514	2514	2514	2514	2514	2514	2514	2514	2514	2514	2514	2514	2514	2514	2514	2514	2514	2514	2514	2514	2514	2514	2514	2514	2514	2514	2514	2514	2496	2514	2496	2496	2514	2514	2514	2514	2514	2514	2514	2514	2496	2496	2496	2514	2514	2514	2532	2514	2532	2532	2532	2532	2532	2532	2532	2551	2532	2551	2551	2551	2551	2551	2551	2551	2532	2532	2514	2514	2532	2532	2532	2514	2514	2514	2532	2532	2532	2532	2532	2551	2551	2532	2532	2514	2514	2514	2496	2496	2496	2514	3277	3277	3246	3277	3277	3246	3216	3216	3216	3216	3216	3216	3186	3216	3216	3216	3246	3246	3246	3246	3246	3277	3277	3246	3246	3246	3246	3216	3216	3216	3216	3216	3216	3186	3186	3186	3373	3373	3510	3546	3546	3546	3546	3546	3546	3546	3510	3510	3510	3510	3546	3546	3583	3583	3621	3621	3621	3621	3621	3621	3583	3621	3621	3621	3621	3583	3583	3583	3583	3583	3583	3583	3583	3583	3583	3583	3621	3659	3659	3621	3621	3621	3621	3621	3621	3621	3621	3621	3621	3621	3621	3621	3659	3621	3583	3621	3621	3621	3621	3621	3621	3621	3659	3659	3659	3621	3621	3621	3621	3621	3621	3621	3621	3621	3583	3583	3583	3621	3621	3583	3621	3621	3621	3621	3621	3621	3583	3583	3583	3583	3546	3546	3546	3510	2993	2993	2993	2967	2967	2967	2967	2967	2967	2942	2967	2967	2967	2967	2967	2967	2967	2942	2942	2942	2942	2942	2942	2917	2942	2917	2942	2942	2893	2893	2893	2869	2869	2869	2869	2869	2869	2869	2869	2845	2845	2845	2845	2845	2845	2845	2845	2845	2845	2845	2845	2845	2845	2845	2845	2845	2845	2845	2869	2893	2893	2893	2893	2893	2893	2893	2893	2893	2917	2917	2917	2917	2917	2942	2942	2942	2942	2942	2942	2942	2917	2893	2917	2893	2893	2893	2893	2893	2893	2893	2893	3621	3621	3621	3621	3621	3583	3621	3621	3583	3583	3583	3583	3583	3583	3583	3583	3583	3621	3621	3621	3621	3621	3621	3583	3583	3583	3583	3583	3621	3621	3621	3621	3621	3621	3621	3621	3621	3621	3659	3659	3659	3659	3659	3659	3659	3621	3621	3621	3621	3621	3621	3621	3621	3621	3621	3621	3621	3621	3621	3583	3583	3583	3583	3583	3621	3621	3621	3621	3621	3621	3621	3621	3621	3583	3583	3583	3583	3583	3583	3583	3546	3583	3583	3583	3583	3546	3621	3621	3621	3621	3621	3621	3621	3621	3621	3621	3621	3621	3659	3621	3659	3621	3621	3621	3583	3621	3621	3621	2252	2237	2237	2237	2223	2223	2208	2194	2181	2181	2167	2153	2140	2140	2127	2114	2101	2088	2076	2063	2051	2051	2039	2027	2015	1980	1980	1969	1958	1947	1936	1925	1925	1925	1915	1894	1883	1873	1853	1853	1843	1833	1824	1804	1795	1795	1786	1786	1786	1759	1759	1741	1723	1723	0	0	0	0	0	0	0	0	0	0	0	0	0	0	0	0	0	0	0	0	0	0	0	0	0	0	0	0	0	0	0	0	0	0	0	0	0	0	0	0	0	0	0	0	0	0	0	0	0	0	0	0	0	0	0	0	0	0	0	0	0	0	0	0	0	0	0	0	0	0	0	0	0	0	0	0	0	0	0	0	0	0	0	0	0	0	0	0	0	0	0	0	0	0	0	0	0	0	0	0	0	0	0	0	0	0	0	0	0	0	0	0	0	0	0	0	0	0	0	0	0	0	0	0	0	0	0	0	0	0	0
0	0	0	0	0	0	0	0	0	0	0	0	0	1673	1690	1690	1698	1706	1706	1715	1706	1715	1715	1715	2514	2514	2532	2551	2532	2514	2514	2514	2496	2496	2496	2496	2514	2514	2514	2514	2514	2514	2514	2514	2514	2514	2496	2514	2514	2514	2514	2514	2514	2532	2514	2514	2514	2514	2514	2514	2496	2496	2496	2496	2514	2514	2514	2514	2514	2514	2514	2496	2496	2496	2496	2496	2514	2514	2514	2514	2514	2532	2532	2514	2514	2532	2532	2551	2532	2551	2551	2551	2551	2551	2551	2551	2551	2551	2514	2514	2532	2532	2532	2532	2514	2514	2532	2514	2532	2532	2514	2514	2514	2532	2514	2514	2514	2496	2496	2496	2496	3309	3309	3309	3341	3309	3341	3309	3277	3246	3246	3246	3216	3216	3186	3216	3216	3216	3246	3246	3246	3246	3246	3277	3277	3277	3246	3277	3277	3246	3246	3246	3246	3216	3216	3216	3216	3216	3309	3341	3510	3546	3546	3546	3546	3546	3546	3546	3510	3510	3546	3546	3546	3546	3583	3583	3621	3583	3583	3621	3621	3583	3583	3583	3583	3621	3583	3583	3583	3583	3583	3583	3583	3583	3583	3583	3583	3583	3621	3659	3659	3621	3621	3621	3621	3621	3621	3621	3621	3621	3621	3621	3621	3621	3659	3659	3621	3621	3621	3621	3621	3621	3621	3621	3659	3621	3621	3621	3621	3621	3621	3621	3583	3583	3583	3583	3583	3583	3583	3583	3621	3583	3621	3621	3621	3621	3621	3621	3583	3583	3583	3583	3546	3546	3546	3546	2993	2993	2967	2967	2967	2967	2967	2942	2967	2942	2942	2967	2967	2967	2967	2967	2967	2942	2942	2942	2942	2942	2942	2942	2942	2942	2942	2942	2893	2893	2869	2869	2869	2869	2869	2869	2869	2869	2869	2845	2845	2845	2845	2845	2845	2845	2845	2845	2845	2845	2845	2845	2845	2845	2845	2845	2845	2845	2869	2869	2893	2893	2893	2893	2893	2893	2893	2893	2917	2917	2917	2917	2917	2942	2942	2942	2942	2942	2942	2917	2917	2893	2893	2893	2893	2893	2893	2893	2893	2893	3583	3621	3621	3621	3621	3621	3583	3583	3583	3583	3583	3583	3583	3583	3583	3583	3583	3583	3621	3621	3621	3621	3621	3621	3583	3583	3583	3583	3621	3621	3621	3621	3621	3621	3583	3621	3621	3621	3621	3621	3621	3659	3659	3659	3659	3621	3621	3621	3621	3621	3621	3621	3621	3621	3621	3621	3621	3621	3621	3621	3621	3621	3621	3621	3621	3621	3621	3621	3621	3621	3621	3583	3583	3583	3583	3583	3583	3583	3583	3583	3583	3546	3583	3583	3583	3583	3546	3621	3621	3621	3621	3621	3621	3621	3621	3621	3621	3621	3621	3621	3621	3621	3621	3621	3583	3583	3583	3583	3621	2252	2237	2237	2237	2237	2223	2208	2208	2194	2181	2181	2167	2153	2140	2127	2127	2114	2088	2076	2076	2063	2051	2039	2027	2015	2003	1980	1969	1958	1947	1936	1936	1925	1936	1915	1894	1883	1873	1863	1853	1853	1843	1833	1804	1804	1795	1786	1786	1786	1759	1750	1750	1741	1741	0	0	0	0	0	0	0	0	0	0	0	0	0	0	0	0	0	0	0	0	0	0	0	0	0	0	0	0	0	0	0	0	0	0	0	0	0	0	0	0	0	0	0	0	0	0	0	0	0	0	0	0	0	0	0	0	0	0	0	0	0	0	0	0	0	0	0	0	0	0	0	0	0	0	0	0	0	0	0	0	0	0	0	0	0	0	0	0	0	0	0	0	0	0	0	0	0	0	0	0	0	0	0	0	0	0	0	0	0	0	0	0	0	0	0	0	0	0	0	0	0	0	0	0	0	0	0	0	0	0	0
0	0	0	0	0	0	0	0	0	0	0	0	0	1673	1690	1690	1698	1698	1698	1706	1706	1715	1715	1715	1723	1723	2532	2532	2532	2514	2514	2514	2514	2514	2514	2514	2514	2514	2514	2514	2514	2514	2514	2514	2514	2514	2514	2514	2514	2514	2532	2532	2532	2532	2514	2514	2514	2514	2514	2514	2496	2496	2496	2514	2514	2514	2514	2514	2514	2514	2514	2496	2496	2496	2496	2496	2496	2514	2532	2514	2514	2532	2514	2514	2514	2514	2532	2532	2532	2532	2551	2551	2551	2532	2532	2551	2532	2532	2532	2514	2532	2532	2532	2514	2496	2496	2496	2514	2514	2496	2496	2514	2532	2532	2514	2496	2496	2496	2478	2478	2478	3341	3341	3341	3341	3341	3341	3309	3309	3309	3277	3277	3246	3216	3216	3216	3216	3216	3246	3277	3246	3277	3277	3277	3309	3277	3277	3309	3309	3277	3309	3277	3277	3277	3246	3246	3246	3309	3341	3341	3373	3510	3510	3510	3546	3546	3546	3546	3510	3510	3546	3546	3546	3546	3583	3583	3583	3583	3583	3621	3621	3583	3583	3583	3621	3621	3583	3583	3583	3583	3583	3583	3583	3583	3583	3583	3583	3621	3659	3659	3659	3621	3621	3621	3621	3621	3621	3583	3621	3621	3621	3621	3583	3621	3621	3621	3621	3621	3621	3621	3621	3621	3621	3621	3659	3659	3621	3621	3621	3621	3583	3621	3583	3583	3583	3583	3583	3583	3583	3583	3621	3583	3621	3621	3583	3621	3621	3583	3583	3583	3583	3583	3546	3546	3546	3546	2993	2967	2967	2967	2967	2942	2942	2942	2942	2942	2942	2942	2942	2967	2967	2967	2967	2942	2942	2942	2942	2942	2942	2942	2942	2942	2942	2893	2893	2893	2869	2869	2869	2869	2869	2893	2869	2869	2869	2869	2845	2845	2845	2845	2845	2845	2845	2845	2845	2845	2845	2845	2845	2845	2845	2845	2845	2845	2869	2869	2869	2869	2893	2893	2893	2893	2893	2893	2917	2893	2893	2917	2917	2917	2917	2917	2942	2942	2917	2917	2917	2893	2893	2893	2893	2893	2869	2893	2893	2893	3583	3621	3621	3621	3621	3583	3583	3583	3583	3583	3583	3583	3583	3583	3583	3583	3583	3583	3621	3621	3621	3621	3621	3621	3583	3583	3583	3583	3621	3621	3621	3621	3621	3621	3621	3621	3621	3621	3621	3621	3621	3621	3621	3659	3621	3621	3621	3621	3621	3621	3621	3621	3621	3621	3621	3621	3621	3621	3621	3621	3583	3583	3621	3621	3621	3621	3621	3621	3621	3621	3583	3583	3583	3583	3583	3583	3583	3583	3583	3583	3583	3546	3546	3583	3583	3583	3546	3621	3659	3621	3621	3621	3621	3621	3621	3621	3621	3621	3621	3621	3621	3621	3621	3583	3583	3583	3583	3583	2252	2252	2252	2252	2252	2237	2237	2223	2208	2208	2181	2181	2167	2153	2140	2127	2127	2114	2101	2076	2076	2063	2051	2039	2027	2015	2003	1980	1980	1958	1947	1936	1936	1925	1925	1915	1894	1883	1873	1863	1863	1853	1843	1833	1824	1804	1795	1786	1786	1768	1759	1750	1741	1741	1741	0	0	0	0	0	0	0	0	0	0	0	0	0	0	0	0	0	0	0	0	0	0	0	0	0	0	0	0	0	0	0	0	0	0	0	0	0	0	0	0	0	0	0	0	0	0	0	0	0	0	0	0	0	0	0	0	0	0	0	0	0	0	0	0	0	0	0	0	0	0	0	0	0	0	0	0	0	0	0	0	0	0	0	0	0	0	0	0	0	0	0	0	0	0	0	0	0	0	0	0	0	0	0	0	0	0	0	0	0	0	0	0	0	0	0	0	0	0	0	0	0	0	0	0	0	0	0	0	0	0	0
0	0	0	0	0	0	0	0	0	0	0	0	0	1681	1690	1690	1690	1698	1706	1706	1715	1715	1723	1723	1723	1732	1732	2532	2532	2514	2496	2514	2496	2496	2496	2514	2514	2514	2514	2514	2514	2514	2514	2496	2514	2496	2496	2514	2514	2514	2532	2532	2532	2532	2514	2514	2532	2514	2514	2514	2514	2514	2514	2514	2514	2514	2514	2514	2514	2514	2496	2496	2496	2496	2496	2514	2514	2514	2532	2514	2514	2514	2514	2496	2496	2514	2532	2532	2532	2532	2551	2551	2551	2532	2532	2551	2532	2532	2532	2532	2514	2514	2514	2514	2496	2514	2514	2514	2514	2514	2496	2514	2532	2532	2514	2496	2496	2496	2478	2478	2478	3341	3341	3341	3341	3373	3373	3341	3341	3341	3341	3309	3277	3246	3216	3246	3246	3246	3277	3277	3277	3309	3277	3277	3309	3277	3277	3309	3309	3309	3309	3341	3309	3309	3246	3246	3309	3341	3341	3341	3373	3475	3510	3510	3546	3546	3546	3546	3510	3510	3546	3546	3546	3546	3583	3583	3621	3583	3621	3621	3621	3583	3583	3583	3621	3621	3583	3583	3583	3621	3583	3583	3583	3583	3621	3583	3583	3621	3659	3659	3659	3659	3621	3621	3621	3621	3621	3621	3621	3621	3621	3621	3621	3621	3621	3621	3621	3621	3621	3621	3621	3659	3621	3621	3621	3659	3621	3621	3621	3621	3621	3621	3583	3583	3583	3583	3583	3583	3583	3621	3621	3583	3583	3583	3583	3583	3583	3583	3583	3621	3583	3583	3546	3546	3546	2967	2967	2967	2967	2967	2942	2942	2942	2942	2942	2942	2942	2942	2942	2942	2942	2942	2942	2967	2942	2942	2942	2942	2942	2942	2942	2942	2942	2893	2893	2869	2869	2869	2869	2869	2869	2869	2869	2869	2869	2845	2845	2845	2845	2845	2845	2845	2845	2845	2845	2845	2845	2845	2845	2845	2845	2845	2845	2845	2869	2869	2869	2869	2869	2869	2893	2893	2893	2893	2893	2917	2917	2917	2917	2917	2917	2917	2942	2917	2917	2917	2917	2893	2893	2893	2893	2869	2869	2869	2869	2869	3621	3621	3621	3621	3621	3621	3583	3583	3583	3583	3583	3583	3583	3583	3583	3583	3583	3583	3621	3621	3621	3621	3621	3621	3583	3583	3583	3583	3621	3621	3621	3621	3621	3621	3621	3621	3621	3621	3621	3621	3621	3621	3621	3621	3621	3621	3621	3621	3621	3621	3621	3621	3621	3621	3621	3621	3621	3621	3621	3621	3621	3621	3621	3621	3621	3621	3621	3621	3621	3621	3621	3583	3583	3583	3583	3583	3583	3583	3583	3583	3583	3546	3546	3583	3583	3546	3583	3621	3621	3621	3621	3621	3621	3621	3621	3621	3583	3583	3621	3621	3583	3621	3621	3583	3583	3583	3583	3583	2252	2252	2252	2252	2252	2237	2237	2223	2223	2208	2194	2181	2181	2153	2140	2127	2127	2114	2101	2088	2076	2063	2051	2039	2027	2015	2003	1980	1980	1969	1947	1947	1936	1925	1925	1915	1894	1883	1873	1863	1853	1853	1833	1833	1824	1804	1795	1786	1786	1768	1759	1750	1750	1741	1741	0	0	0	0	0	0	0	0	0	0	0	0	0	0	0	0	0	0	0	0	0	0	0	0	0	0	0	0	0	0	0	0	0	0	0	0	0	0	0	0	0	0	0	0	0	0	0	0	0	0	0	0	0	0	0	0	0	0	0	0	0	0	0	0	0	0	0	0	0	0	0	0	0	0	0	0	0	0	0	0	0	0	0	0	0	0	0	0	0	0	0	0	0	0	0	0	0	0	0	0	0	0	0	0	0	0	0	0	0	0	0	0	0	0	0	0	0	0	0	0	0	0	0	0	0	0	0	0	0	0	0
0	0	0	0	0	0	0	0	0	0	0	0	0	1681	1690	1690	1698	1715	1715	1715	1715	1723	1723	1723	1723	1732	1732	1741	1741	2514	2496	2514	2514	2496	2496	2514	2514	2532	2532	2532	2532	2514	2514	2514	2514	2514	2496	2514	2514	2514	2532	2532	2532	2514	2514	2514	2532	2514	2514	2514	2496	2514	2496	2496	2496	2514	2496	2514	2496	2496	2496	2496	2514	2514	2514	2514	2514	2532	2532	2514	2514	2514	2514	2496	2514	2532	2532	2532	2532	2532	2551	2551	2551	2532	2551	2551	2551	2551	2514	2514	2514	2532	2514	2514	2496	2496	2514	2514	2514	2514	2514	2514	2532	2532	2514	2496	2514	2496	2478	2460	2460	2460	2460	3440	3440	3440	3406	3373	3373	3373	3373	3373	3373	3406	3406	3277	3277	3277	3277	3309	3309	3309	3309	3309	3309	3309	3309	3341	3341	3341	3341	3341	3341	3341	3309	3309	3309	3406	3406	3373	3440	3475	3510	3510	3546	3546	3546	3546	3510	3510	3546	3546	3546	3546	3583	3621	3621	3621	3583	3621	3621	3583	3583	3583	3621	3621	3583	3583	3583	3621	3583	3583	3583	3583	3621	3621	3621	3621	3659	3659	3659	3659	3659	3621	3621	3621	3621	3621	3621	3621	3583	3621	3583	3621	3621	3621	3621	3621	3621	3621	3621	3621	3621	3621	3621	3621	3621	3621	3621	3621	3583	3583	3583	3583	3583	3583	3583	3583	3621	3621	3621	3583	3583	3583	3583	3583	3583	3583	3583	3621	3583	3583	3546	3546	3546	3546	2993	2967	2967	2967	2942	2942	2942	2942	2942	2942	2942	2942	2942	2942	2942	2942	2942	2942	2942	2942	2942	2942	2942	2942	2942	2942	2917	2917	2893	2893	2893	2869	2869	2869	2869	2869	2869	2869	2869	2869	2845	2845	2845	2845	2845	2845	2845	2845	2845	2845	2845	2845	2845	2845	2845	2845	2845	2845	2869	2869	2869	2869	2893	2893	2893	2893	2893	2893	2893	2893	2917	2917	2942	2942	2942	2942	2942	2942	2917	2917	2917	2893	2893	2893	2893	2893	2869	2869	2869	2869	3659	3621	3621	3621	3621	3621	3583	3583	3583	3583	3583	3583	3583	3583	3583	3583	3583	3583	3583	3621	3621	3621	3621	3621	3583	3583	3583	3583	3621	3621	3621	3621	3621	3621	3621	3621	3621	3621	3621	3621	3621	3621	3621	3621	3621	3621	3621	3621	3621	3621	3621	3621	3621	3621	3621	3621	3621	3621	3621	3621	3621	3621	3621	3621	3621	3621	3621	3621	3621	3583	3583	3583	3583	3583	3583	3546	3583	3583	3583	3546	3583	3546	3546	3546	3546	3546	3546	3621	3621	3621	3621	3583	3583	3621	3583	3583	3583	3583	3583	3621	3583	3583	3583	3583	3583	3583	3583	3583	2252	2252	2252	2252	2252	2237	2237	2223	2223	2208	2181	2181	2167	2153	2140	2127	2127	2114	2101	2088	2076	2063	2051	2039	2027	2015	2003	1980	1980	1969	1947	1947	1936	1925	1925	1915	1894	1883	1873	1863	1853	1843	1833	1833	1824	1804	1795	1795	1786	1786	1759	1759	1750	1741	1741	0	0	0	0	0	0	0	0	0	0	0	0	0	0	0	0	0	0	0	0	0	0	0	0	0	0	0	0	0	0	0	0	0	0	0	0	0	0	0	0	0	0	0	0	0	0	0	0	0	0	0	0	0	0	0	0	0	0	0	0	0	0	0	0	0	0	0	0	0	0	0	0	0	0	0	0	0	0	0	0	0	0	0	0	0	0	0	0	0	0	0	0	0	0	0	0	0	0	0	0	0	0	0	0	0	0	0	0	0	0	0	0	0	0	0	0	0	0	0	0	0	0	0	0	0	0	0	0	0	0	0
0	0	0	0	0	0	0	0	0	0	0	0	0	1698	1698	1706	1715	1723	1715	1723	1723	1723	1723	1723	1723	1732	1750	1759	1759	0	0	2514	2514	2514	2514	2514	2514	2532	2532	2532	2532	2514	2514	2514	2514	2514	2514	2514	2514	2514	2532	2532	2532	2514	2514	2514	2514	2514	2514	2514	2496	2496	2496	2514	2496	2496	2496	2514	2496	2496	2496	2514	2514	2514	2514	2514	2514	2532	2532	2532	2532	2532	2532	2514	2514	2532	2514	2496	2496	2514	2514	2551	2551	2551	2532	2532	2551	2532	2514	2514	2514	2532	2514	2514	2496	2514	2532	2514	2514	2514	2514	2514	2514	2514	2496	2496	2496	2496	2478	2460	2460	2460	2460	3440	3440	3475	3440	3406	3373	3440	3440	3440	3373	3406	3406	3277	3440	3277	3277	3277	3373	3309	3341	3309	3341	3309	3341	3341	3373	3373	3373	3406	3373	3373	3373	3406	3440	3440	3406	3406	3406	3475	3475	3546	3546	3583	3583	3546	3510	3546	3546	3546	3546	3583	3583	3621	3621	3621	3583	3621	3621	3621	3583	3621	3621	3621	3621	3583	3583	3621	3583	3583	3583	3583	3621	3621	3621	3621	3659	3659	3659	3659	3659	3621	3621	3621	3621	3621	3621	3621	3621	3621	3583	3621	3621	3621	3621	3621	3621	3621	3621	3621	3621	3621	3621	3621	3621	3621	3621	3621	3583	3583	3583	3583	3583	3583	3583	3583	3621	3621	3621	3583	3583	3583	3583	3583	3583	3583	3583	3621	3583	3583	3546	3546	3546	3546	2967	2967	2967	2967	2942	2942	2942	2942	2942	2942	2942	2942	2942	2942	2942	2942	2942	2942	2942	2942	2942	2942	2942	2917	2917	2917	2917	2917	2893	2869	2869	2869	2893	2869	2869	2869	2869	2869	2869	2845	2845	2845	2845	2845	2845	2845	2845	2845	2845	2845	2845	2845	2845	2845	2845	2845	2845	2845	2869	2869	2869	2869	2893	2893	2893	2893	2893	2893	2893	2893	2917	2917	2942	2942	2942	2917	2917	2917	2917	2893	2893	2893	2893	2893	2893	2893	2893	2869	2869	2869	3621	3621	3621	3621	3621	3583	3583	3583	3583	3583	3583	3583	3583	3583	3583	3583	3583	3583	3583	3621	3621	3621	3583	3583	3583	3583	3621	3621	3621	3621	3659	3621	3621	3621	3621	3621	3621	3621	3621	3621	3621	3621	3621	3621	3621	3621	3621	3621	3621	3621	3621	3621	3621	3621	3621	3621	3621	3621	3621	3621	3583	3621	3621	3621	3621	3621	3621	3621	3621	3583	3583	3546	3546	3546	3546	3546	3546	3583	3583	3546	3583	3546	3546	3546	3546	3546	3546	3621	3583	3583	3621	3583	3583	3583	3583	3583	3583	3583	3583	3583	3583	3583	3583	3583	3583	3546	3546	3583	3546	2252	2252	2252	2252	2237	2237	2223	2208	2208	2194	2181	2167	2153	2140	2127	2127	2114	2101	2088	2076	2063	2051	2039	2027	2015	2003	1980	1980	1958	1958	1947	1936	1925	1925	1915	1894	1883	1873	1863	1853	1843	1833	1833	1824	1804	1795	1795	1786	1777	1768	1759	1759	1741	1750	1750	0	0	0	0	0	0	0	0	0	0	0	0	0	0	0	0	0	0	0	0	0	0	0	0	0	0	0	0	0	0	0	0	0	0	0	0	0	0	0	0	0	0	0	0	0	0	0	0	0	0	0	0	0	0	0	0	0	0	0	0	0	0	0	0	0	0	0	0	0	0	0	0	0	0	0	0	0	0	0	0	0	0	0	0	0	0	0	0	0	0	0	0	0	0	0	0	0	0	0	0	0	0	0	0	0	0	0	0	0	0	0	0	0	0	0	0	0	0	0	0	0	0	0	0	0	0	0	0	0	0
0	0	0	0	0	0	0	0	0	0	0	0	0	1706	1706	1715	1723	1732	1723	1723	1723	1723	1723	1723	1723	1732	1741	1759	1777	1777	1777	1777	1777	2514	2514	2514	2532	2532	2551	2532	2532	2532	2532	2514	2514	2514	2514	2514	2514	2514	2514	2532	2532	2514	2514	2514	2514	2514	2514	2514	2514	2496	2496	2496	2496	2496	2496	2496	2496	2496	2496	2496	2514	2514	2514	2514	2514	2532	2532	2514	2514	2514	2514	2496	2496	2514	2514	2496	2514	2532	2551	2551	2532	2532	2551	2551	2551	2532	2532	2514	2514	2532	2514	2532	2514	2514	2532	2514	2514	2514	2496	2514	2514	2514	2496	2496	2496	2496	2478	2460	2409	2409	0	0	0	3475	3475	3440	3440	3440	3440	3440	3440	3406	3406	3406	3406	3406	3406	3406	3406	3406	3406	3373	3373	3373	3373	3373	3373	3373	3406	3440	3440	3440	3440	3440	3440	3440	3475	3475	3475	3475	3475	3475	3546	3546	3583	3546	3510	3546	3546	3546	3546	3546	3583	3621	3621	3621	3621	3621	3621	3621	3583	3583	3621	3621	3583	3583	3583	3583	3583	3583	3583	3583	3583	3583	3621	3621	3659	3659	3659	3659	3659	3621	3621	3621	3621	3621	3621	3583	3583	3583	3583	3583	3583	3583	3583	3583	3583	3621	3621	3621	3621	3621	3621	3621	3621	3621	3621	3621	3583	3583	3583	3583	3583	3583	3583	3583	3621	3621	3621	3621	3621	3621	3621	3621	3621	3621	3621	3621	3583	3583	3546	3546	3546	3546	2967	2967	2967	2967	2942	2942	2942	2942	2917	2942	2942	2942	2942	2967	2942	2942	2942	2942	2942	2942	2942	2942	2942	2917	2917	2917	2917	2893	2893	2893	2893	2893	2893	2893	2869	2869	2869	2869	2869	2845	2845	2869	2845	2845	2845	2845	2845	2845	2822	2822	2845	2845	2845	2845	2845	2845	2845	2845	2869	2869	2893	2893	2893	2893	2893	2893	2893	2893	2893	2893	2917	2917	2917	2917	2942	2917	2917	2893	2893	2893	2893	2893	2893	2893	2893	2893	2893	2893	2893	3621	3621	3621	3621	3621	3583	3583	3583	3583	3583	3583	3583	3583	3583	3583	3583	3583	3583	3583	3621	3621	3621	3621	3583	3583	3583	3583	3621	3621	3659	3659	3659	3621	3621	3621	3621	3621	3621	3621	3621	3621	3621	3621	3621	3621	3621	3621	3621	3621	3621	3621	3621	3621	3621	3621	3621	3621	3621	3621	3621	3621	3621	3621	3621	3621	3621	3583	3621	3621	3621	3583	3583	3583	3583	3583	3546	3546	3583	3583	3583	3546	3583	3546	3546	3546	3546	3546	3546	3583	3583	3583	3583	3583	3583	3583	3583	3583	3583	3583	3583	3583	3583	3583	3583	3583	3583	3546	3546	3546	3546	3546	2252	2252	2252	2237	2237	2223	2223	2208	2194	2181	2167	2153	2140	2127	2127	2114	2101	2088	2076	2063	2039	2027	2027	2015	2003	1980	1969	1958	1947	1947	1936	1925	1915	1915	1894	1883	1873	1863	1853	1843	1833	1833	1824	1804	1795	1795	1786	1777	1768	1759	1759	1750	1750	1741	1741	0	0	0	0	0	0	0	0	0	0	0	0	0	0	0	0	0	0	0	0	0	0	0	0	0	0	0	0	0	0	0	0	0	0	0	0	0	0	0	0	0	0	0	0	0	0	0	0	0	0	0	0	0	0	0	0	0	0	0	0	0	0	0	0	0	0	0	0	0	0	0	0	0	0	0	0	0	0	0	0	0	0	0	0	0	0	0	0	0	0	0	0	0	0	0	0	0	0	0	0	0	0	0	0	0	0	0	0	0	0	0	0	0	0	0	0	0	0	0	0	0	0	0	0	0	0	0	0	0
0	0	0	0	0	0	0	0	0	0	0	0	0	1715	1723	1723	1732	1732	1732	1723	1723	1723	1732	1732	1723	1732	1741	1741	1759	1759	1759	1759	1786	1786	1786	2514	2532	2551	2551	2532	2532	2532	2532	2532	2532	2514	2514	2514	2514	2514	2514	2532	2532	2514	2514	2514	2514	2496	2496	2514	2496	2496	2496	2514	2514	2514	2496	2496	2496	2496	2478	2496	2496	2496	2496	2496	2514	2514	2514	2514	2514	2514	2514	2496	2496	2496	2514	2496	2514	2514	2532	2551	2532	2532	2532	2532	2532	2514	2532	2514	2514	2532	2532	2532	2514	2514	2532	2514	2514	2496	2496	2514	2532	2514	2514	2496	2496	2496	2478	2460	2409	2409	0	0	0	3475	3475	3440	3475	3440	3440	3440	3475	3406	3406	3406	3406	3406	3440	3440	3475	3475	3475	3475	3440	3440	3440	3440	3440	3406	3440	3475	3440	3440	3406	3440	3440	3475	3475	3475	3475	3475	3510	3546	3546	3546	3546	3546	3510	3546	3546	3546	3546	3546	3583	3621	3621	3621	3583	3621	3621	3621	3583	3583	3621	3621	3583	3583	3583	3621	3583	3583	3583	3583	3583	3583	3621	3621	3659	3659	3659	3659	3659	3621	3621	3621	3621	3621	3621	3583	3583	3583	3583	3583	3583	3583	3583	3583	3621	3621	3621	3621	3621	3621	3621	3621	3583	3583	3583	3583	3583	3583	3583	3583	3583	3583	3583	3583	3621	3621	3621	3621	3621	3621	3621	3621	3621	3621	3621	3621	3583	3583	3583	3583	3583	3583	2993	2967	2967	2942	2942	2917	2917	2917	2917	2917	2917	2942	2942	2942	2942	2942	2942	2942	2942	2942	2942	2942	2942	2917	2917	2917	2917	2893	2893	2893	2893	2893	2893	2893	2893	2869	2893	2869	2869	2869	2845	2869	2869	2845	2845	2845	2845	2845	2822	2822	2845	2845	2845	2845	2845	2845	2845	2845	2869	2869	2893	2893	2893	2893	2893	2893	2893	2893	2893	2893	2893	2917	2917	2917	2917	2917	2893	2893	2893	2893	2893	2893	2893	2893	2893	2893	2893	2893	2893	3621	3621	3621	3621	3583	3583	3583	3583	3583	3583	3583	3583	3583	3583	3583	3583	3621	3583	3621	3621	3621	3583	3621	3583	3583	3583	3583	3621	3621	3659	3659	3659	3621	3621	3621	3621	3621	3621	3621	3621	3621	3621	3621	3621	3621	3621	3621	3621	3621	3621	3621	3621	3621	3621	3621	3583	3621	3621	3621	3621	3621	3583	3621	3621	3621	3621	3583	3621	3621	3621	3583	3583	3583	3583	3583	3546	3546	3583	3583	3583	3546	3546	3546	3546	3546	3546	3546	3546	3583	3583	3583	3583	3583	3583	3583	3583	3583	3583	3583	3583	3583	3583	3546	3546	3546	3546	3546	3546	3546	3546	3546	3546	2252	2252	2252	2237	2237	2223	2223	2194	2181	2167	2153	2140	2127	2127	2114	2101	2088	2076	2063	2039	2027	2027	2015	2003	1992	1980	1969	1958	1947	1936	1925	1915	1915	1894	1883	1873	1863	1853	1843	1833	1833	1824	1804	1795	1795	1786	1777	1768	1759	1759	1750	1750	1741	1741	0	0	0	0	0	0	0	0	0	0	0	0	0	0	0	0	0	0	0	0	0	0	0	0	0	0	0	0	0	0	0	0	0	0	0	0	0	0	0	0	0	0	0	0	0	0	0	0	0	0	0	0	0	0	0	0	0	0	0	0	0	0	0	0	0	0	0	0	0	0	0	0	0	0	0	0	0	0	0	0	0	0	0	0	0	0	0	0	0	0	0	0	0	0	0	0	0	0	0	0	0	0	0	0	0	0	0	0	0	0	0	0	0	0	0	0	0	0	0	0	0	0	0	0	0	0	0	0	0
0	0	0	0	0	0	0	0	0	0	0	0	0	1715	1723	1723	1732	1732	1732	1732	1732	1732	1732	1732	1732	1732	1741	1750	1768	1768	1759	1759	1777	1777	1777	1786	1786	1786	2551	2532	2532	2532	2532	2532	2514	2514	2514	2514	2514	2514	2532	2532	2532	2514	2514	2514	2514	2514	2514	2514	2514	2514	2514	2514	2514	2514	2496	2496	2496	2496	2478	2478	2496	2496	2496	2514	2514	2532	2532	2514	2514	2514	2514	2496	2496	2514	2514	2514	2514	2532	2532	2551	2532	2532	2532	2532	2532	2514	2514	2514	2514	2514	2532	2532	2514	2514	2532	2514	2514	2514	2514	2514	2514	2514	2514	2514	2496	2496	2496	2460	2460	2409	0	0	0	0	0	3475	3475	3475	3475	3475	3475	3475	3440	3440	3475	3475	3475	3510	3510	3510	3510	3510	3475	3510	3510	3510	3475	3475	3440	3475	3440	3440	3406	3440	3440	3475	3475	3475	3475	3475	3475	3510	3546	3546	3546	3510	3510	3546	3546	3546	3546	3546	3583	3621	3621	3621	3621	3621	3621	3621	3583	3583	3621	3621	3583	3621	3621	3621	3621	3583	3583	3583	3583	3583	3621	3621	3659	3659	3659	3659	3659	3621	3621	3621	3621	3621	3583	3583	3583	3583	3583	3583	3583	3583	3583	3583	3583	3583	3583	3583	3583	3583	3583	3583	3583	3583	3583	3583	3583	3583	3583	3583	3583	3583	3583	3583	3621	3621	3621	3621	3621	3621	3621	3621	3583	3583	3583	3621	3583	3583	3583	3583	3583	3583	2967	2967	2942	2942	2942	2917	2893	2893	2893	2917	2917	2917	2942	2967	2942	2942	2942	2942	2942	2942	2942	2942	2942	2917	2917	2917	2917	2893	2893	2893	2893	2893	2893	2893	2893	2893	2893	2869	2869	2869	2845	2869	2869	2845	2845	2845	2845	2845	2845	2845	2845	2845	2869	2869	2845	2845	2869	2869	2869	2869	2893	2893	2893	2893	2893	2893	2893	2893	2893	2893	2893	2917	2917	2917	2917	2917	2893	2893	2893	2893	2893	2893	2893	2893	2893	2893	2893	2893	2893	3621	3621	3583	3583	3583	3583	3583	3583	3583	3583	3583	3583	3583	3583	3583	3583	3583	3583	3583	3583	3583	3583	3583	3583	3583	3583	3583	3583	3583	3621	3621	3659	3621	3621	3621	3621	3621	3583	3621	3583	3583	3621	3621	3621	3621	3621	3621	3621	3621	3621	3621	3621	3621	3621	3621	3583	3621	3621	3621	3621	3621	3583	3583	3621	3621	3621	3583	3621	3621	3621	3583	3583	3583	3583	3583	3546	3546	3583	3583	3583	3546	3546	3546	3546	3546	3546	3546	3546	3583	3583	3583	3583	3583	3583	3583	3583	3583	3583	3546	3583	3583	3583	3546	3583	3583	3583	3546	3546	3546	3546	3546	3546	2252	2252	2237	2237	2237	2223	2223	2208	2167	2167	2140	2140	2127	2114	2114	2101	2076	2076	2063	2039	2027	2027	2003	1992	1992	1980	1958	1958	1947	1936	1915	1904	1904	1894	1883	1873	1863	1853	1843	1833	1833	1824	1804	1795	1795	1786	1777	1768	1759	1759	1750	1750	1741	1741	0	0	0	0	0	0	0	0	0	0	0	0	0	0	0	0	0	0	0	0	0	0	0	0	0	0	0	0	0	0	0	0	0	0	0	0	0	0	0	0	0	0	0	0	0	0	0	0	0	0	0	0	0	0	0	0	0	0	0	0	0	0	0	0	0	0	0	0	0	0	0	0	0	0	0	0	0	0	0	0	0	0	0	0	0	0	0	0	0	0	0	0	0	0	0	0	0	0	0	0	0	0	0	0	0	0	0	0	0	0	0	0	0	0	0	0	0	0	0	0	0	0	0	0	0	0	0	0	0
0	0	0	0	0	0	0	0	0	0	0	0	0	1706	1715	1723	1732	1741	1732	1732	1732	1741	1741	1741	1741	1741	1750	1750	1768	1777	1777	1777	1777	1786	1786	1786	1795	1814	1824	1824	2532	2514	2514	2514	2514	2514	2514	2532	2514	2514	2532	2514	2532	2514	2514	2514	2514	2514	2514	2514	2514	2514	2514	2514	2496	2496	2496	2496	2496	2496	2478	2496	2496	2496	2496	2514	2514	2532	2532	2514	2532	2514	2514	2514	2496	2514	2514	2514	2514	2514	2532	2532	2532	2532	2532	2532	2514	2514	2514	2514	2514	2532	2532	2532	2532	2532	2532	2532	2514	2514	2514	2514	2514	2514	2514	2496	2496	2496	2460	2460	2460	0	0	0	0	0	0	3475	3510	3510	3475	3475	3475	3475	3475	3475	3475	3475	3475	3510	3546	3546	3546	3546	3583	3546	3546	3510	3510	3510	3510	3475	3475	3475	3440	3475	3475	3475	3510	3510	3475	3510	3510	3510	3546	3546	3546	3546	3510	3546	3546	3546	3583	3583	3583	3621	3621	3621	3621	3621	3621	3583	3583	3583	3583	3583	3583	3621	3621	3621	3621	3583	3583	3583	3583	3583	3583	3583	3621	3621	3621	3621	3659	3621	3621	3621	3621	3621	3583	3583	3621	3583	3583	3583	3583	3583	3583	3546	3583	3583	3583	3583	3583	3583	3583	3583	3583	3583	3583	3583	3583	3583	3583	3583	3583	3583	3583	3583	3621	3621	3621	3583	3583	3621	3621	3621	3583	3583	3583	3621	3621	3583	3583	3583	3583	2967	2967	2967	2942	2942	2942	2917	2893	2893	2893	2917	2917	2917	2942	2942	2942	2967	2942	2967	2942	2942	2942	2942	2942	2942	2942	2942	2917	2917	2917	2893	2893	2893	2893	2893	2893	2893	2893	2893	2869	2869	2845	2869	2869	2845	2845	2845	2845	2845	2845	2845	2845	2845	2869	2869	2845	2869	2869	2869	2869	2869	2893	2893	2893	2893	2917	2893	2893	2893	2893	2893	2917	2917	2917	2917	2917	2917	2893	2893	2893	2893	2893	2893	2893	2893	2893	2893	2893	2893	2893	3621	3621	3583	3583	3583	3583	3583	3583	3583	3583	3583	3583	3583	3583	3583	3583	3583	3583	3583	3583	3583	3583	3583	3583	3583	3583	3583	3621	3621	3621	3659	3659	3621	3621	3621	3621	3621	3621	3583	3583	3583	3621	3621	3621	3621	3621	3621	3621	3621	3621	3621	3621	3621	3621	3621	3621	3621	3621	3621	3621	3621	3583	3621	3621	3621	3621	3583	3621	3621	3621	3583	3583	3546	3546	3583	3546	3546	3583	3583	3546	3546	3583	3546	3546	3546	3583	3546	3583	3621	3583	3583	3583	3583	3583	3583	3583	3583	3583	3546	3583	3583	3583	3546	3583	3583	3583	3546	3546	3546	3546	3546	3546	2237	2237	2237	2237	2237	2223	2208	2194	2167	2153	2140	2140	2127	2114	2114	2101	2076	2063	2051	2039	2027	2027	2015	1992	1992	1969	1958	1947	1947	1936	1904	1904	1904	1894	1883	1873	1863	1843	1843	1833	1824	1824	1804	1795	1786	1786	1777	1768	1768	1759	1750	1741	1732	1732	0	0	0	0	0	0	0	0	0	0	0	0	0	0	0	0	0	0	0	0	0	0	0	0	0	0	0	0	0	0	0	0	0	0	0	0	0	0	0	0	0	0	0	0	0	0	0	0	0	0	0	0	0	0	0	0	0	0	0	0	0	0	0	0	0	0	0	0	0	0	0	0	0	0	0	0	0	0	0	0	0	0	0	0	0	0	0	0	0	0	0	0	0	0	0	0	0	0	0	0	0	0	0	0	0	0	0	0	0	0	0	0	0	0	0	0	0	0	0	0	0	0	0	0	0	0	0	0	0
0	0	0	0	0	0	0	0	0	0	0	0	0	1706	1715	1723	1723	1732	1732	1732	1732	1741	1741	1750	1750	1750	1741	1750	1768	1768	1777	1786	1786	1786	1786	1795	1804	1814	1824	1824	1833	1843	1843	1843	1843	1843	2514	2514	2514	2514	2514	2514	2514	2514	2514	2496	2496	2496	2496	2496	2496	2496	2496	2496	2496	2496	2496	2496	2496	2496	2496	2496	2496	2496	2496	2496	2496	2532	2514	2514	2514	2514	2514	2496	2496	2514	2514	2514	2478	2514	2532	2532	2532	2532	2532	2532	2514	2514	2514	2514	2514	2532	2532	2532	2532	2532	2532	2532	2514	2514	2496	2496	2514	2514	2496	2496	2514	2514	2460	2460	2460	0	0	0	0	0	0	0	3510	3510	3510	3510	3510	3475	3510	3510	3510	3510	3546	3546	3546	3583	3546	3583	3583	3546	3546	3546	3546	3510	3510	3510	3475	3475	3475	3475	3475	3510	3510	3510	3510	3510	3510	3510	3546	3510	3546	3510	3510	3546	3546	3583	3583	3583	3621	3621	3621	3621	3621	3621	3621	3583	3583	3583	3583	3583	3621	3621	3621	3621	3621	3583	3583	3583	3583	3583	3583	3583	3583	3621	3621	3621	3621	3621	3621	3621	3621	3621	3621	3621	3621	3583	3583	3583	3583	3583	3546	3546	3583	3583	3583	3583	3583	3583	3583	3583	3583	3583	3583	3583	3583	3546	3583	3546	3546	3546	3546	3583	3583	3583	3621	3583	3583	3583	3621	3583	3583	3583	3583	3583	3621	3583	3583	3583	3583	2967	2967	2967	2942	2942	2942	2917	2893	2893	2893	2893	2917	2917	2942	2942	2967	2967	2942	2967	2942	2942	2942	2942	2942	2942	2942	2942	2917	2917	2917	2893	2893	2893	2893	2893	2893	2893	2893	2893	2893	2869	2869	2869	2869	2869	2845	2845	2845	2845	2845	2845	2845	2869	2869	2869	2845	2845	2845	2869	2869	2893	2893	2893	2893	2893	2917	2893	2893	2893	2893	2893	2917	2917	2893	2893	2893	2893	2893	2893	2893	2893	2893	2893	2893	2893	2869	2869	2869	2893	2893	3583	3583	3583	3583	3583	3583	3583	3583	3583	3583	3583	3583	3583	3583	3583	3583	3583	3583	3583	3583	3583	3583	3583	3583	3583	3583	3583	3583	3583	3621	3621	3621	3621	3621	3621	3621	3621	3621	3621	3621	3583	3621	3621	3621	3621	3621	3621	3621	3621	3621	3621	3621	3621	3621	3621	3583	3583	3583	3621	3583	3621	3583	3621	3621	3621	3621	3583	3621	3621	3621	3583	3583	3546	3583	3583	3546	3546	3583	3583	3583	3546	3583	3546	3546	3546	3546	3546	3546	3583	3583	3583	3583	3546	3583	3583	3583	3583	3583	3583	3583	3583	3583	3546	3583	3583	3583	3546	3583	3583	3546	3583	3583	3583	2223	2223	2223	2223	2223	2223	2208	2167	2153	2140	2140	2127	2114	2114	2101	2076	2063	2063	2039	2027	2027	2015	2003	1992	1969	1958	1947	1947	1936	1915	1915	1904	1904	1883	1873	1853	1843	1833	1833	1824	1824	1804	1795	1795	1786	1777	1777	1768	1759	1750	1741	1723	1723	1723	0	0	0	0	0	0	0	0	0	0	0	0	0	0	0	0	0	0	0	0	0	0	0	0	0	0	0	0	0	0	0	0	0	0	0	0	0	0	0	0	0	0	0	0	0	0	0	0	0	0	0	0	0	0	0	0	0	0	0	0	0	0	0	0	0	0	0	0	0	0	0	0	0	0	0	0	0	0	0	0	0	0	0	0	0	0	0	0	0	0	0	0	0	0	0	0	0	0	0	0	0	0	0	0	0	0	0	0	0	0	0	0	0	0	0	0	0	0	0	0	0	0	0	0	0	0	0	0
0	0	0	0	0	0	0	0	0	0	0	0	0	1698	1706	1715	1723	1732	1732	1732	1732	1741	1750	1759	1759	1759	1768	1777	1777	1777	1777	1786	1786	1795	1795	1795	1804	1814	1824	1824	1833	1843	1843	1843	1843	1873	1873	1873	1863	1863	2514	2514	2514	2514	2514	2514	2514	2496	2496	2496	2496	2496	2496	2496	2496	2496	2496	2496	2496	2496	2496	2496	2496	2496	2496	2496	2496	2514	2514	2514	2514	2514	2514	2496	2496	2496	2496	2496	2496	2514	2532	2532	2532	2532	2532	2514	2514	2514	2514	2514	2532	2532	2532	2532	2532	2532	2532	2514	2514	2496	2496	2496	2514	2514	2496	2514	2514	2514	2514	0	0	0	0	0	0	0	0	3546	3546	3546	3546	3546	3546	3510	3510	3510	3510	3510	3546	3546	3546	3583	3546	3583	3583	3546	3546	3546	3546	3546	3510	3510	3510	3510	3510	3510	3510	3510	3546	3546	3546	3546	3510	3546	3546	3510	3546	3510	3510	3546	3546	3583	3583	3583	3621	3621	3621	3583	3583	3583	3583	3583	3583	3583	3583	3583	3621	3621	3621	3621	3621	3583	3583	3583	3583	3583	3546	3546	3583	3621	3621	3621	3621	3621	3621	3621	3621	3621	3583	3583	3583	3583	3583	3583	3583	3583	3546	3546	3546	3546	3583	3583	3583	3583	3583	3583	3583	3583	3583	3583	3583	3583	3583	3546	3583	3583	3546	3583	3583	3583	3621	3583	3583	3583	3621	3583	3583	3546	3546	3583	3583	3583	3583	3621	3621	3659	2942	2942	2917	2917	2917	2917	2893	2893	2893	2893	2917	2917	2942	2942	2967	2967	2942	2967	2942	2942	2942	2942	2942	2942	2942	2942	2917	2917	2917	2893	2893	2893	2893	2893	2893	2893	2893	2893	2893	2869	2869	2869	2869	2869	2869	2845	2845	2845	2845	2845	2845	2845	2869	2869	2869	2869	2869	2869	2869	2893	2893	2893	2893	2893	2893	2893	2893	2893	2893	2893	2917	2893	2893	2893	2893	2893	2893	2893	2893	2869	2869	2869	2869	2869	2869	2869	2869	2869	3583	3583	3583	3583	3583	3583	3583	3583	3583	3583	3583	3583	3583	3583	3583	3583	3583	3583	3583	3583	3583	3583	3583	3583	3583	3583	3583	3583	3583	3583	3621	3621	3621	3621	3621	3621	3621	3621	3621	3583	3583	3583	3621	3621	3621	3621	3621	3621	3621	3621	3583	3621	3583	3621	3583	3583	3583	3583	3583	3583	3583	3583	3583	3583	3621	3621	3621	3621	3583	3621	3583	3583	3583	3546	3583	3583	3546	3546	3546	3546	3546	3546	3546	3583	3546	3546	3546	3546	3546	3583	3583	3583	3546	3546	3583	3583	3583	3583	3583	3583	3583	3583	3583	3546	3546	3583	3583	3546	3583	3583	3583	3583	3583	3583	3583	3583	2223	2237	2223	2223	2208	2167	2153	2140	2140	2127	2114	2114	2101	2088	2063	2051	2039	2027	2027	2015	2003	1992	1969	1958	1947	1947	1936	1915	1915	1904	1904	1883	1863	1853	1843	1843	1833	1824	1824	1804	1795	1795	1786	1777	1777	1759	1759	1750	1741	1723	1723	1723	0	0	0	0	0	0	0	0	0	0	0	0	0	0	0	0	0	0	0	0	0	0	0	0	0	0	0	0	0	0	0	0	0	0	0	0	0	0	0	0	0	0	0	0	0	0	0	0	0	0	0	0	0	0	0	0	0	0	0	0	0	0	0	0	0	0	0	0	0	0	0	0	0	0	0	0	0	0	0	0	0	0	0	0	0	0	0	0	0	0	0	0	0	0	0	0	0	0	0	0	0	0	0	0	0	0	0	0	0	0	0	0	0	0	0	0	0	0	0	0	0	0	0	0	0	0	0	0
0	0	0	0	0	0	0	0	0	0	0	0	0	1690	1698	1706	1715	1723	1732	1741	1741	1750	1759	1768	1768	1777	1777	1786	1786	1786	1777	1777	1786	1795	1795	1795	1814	1814	1824	1824	1833	1833	1833	1843	1843	1873	1873	1883	1883	1894	1894	2514	2514	2514	2514	2514	2514	2496	2496	2496	2496	2496	2496	2496	2496	2514	2496	2496	2496	2496	2496	2496	2478	2478	2478	2478	2496	2514	2514	2496	2514	2514	2514	2496	2478	2496	2478	2496	2496	2514	2514	2532	2514	2514	2514	2514	2514	2514	2514	2514	2532	2532	2551	2551	2532	2532	2532	2514	2514	2496	2496	2478	2514	2514	2496	2514	2532	2514	2514	0	0	0	0	0	3546	3475	3583	3583	3546	3546	3546	3546	3546	3510	3510	3510	3510	3510	3546	3583	3546	3583	3546	3583	3583	3546	3546	3546	3546	3546	3510	3510	3510	3510	3510	3510	3510	3546	3510	3510	3510	3510	3510	3510	3546	3510	3510	3510	3510	3546	3546	3546	3583	3583	3583	3621	3621	3583	3583	3583	3583	3583	3583	3546	3546	3583	3583	3621	3621	3583	3621	3621	3583	3583	3546	3546	3546	3546	3583	3583	3621	3621	3621	3621	3621	3621	3621	3583	3583	3583	3583	3583	3583	3546	3583	3583	3546	3546	3583	3583	3583	3583	3583	3583	3583	3583	3583	3583	3583	3583	3583	3583	3583	3583	3583	3583	3546	3583	3583	3583	3621	3583	3583	3583	3583	3583	3583	3546	3546	3583	3583	3583	3583	3583	3546	3659	2942	2942	2917	2917	2917	2917	2917	2893	2893	2893	2917	2917	2942	2942	2942	2967	2942	2967	2942	2942	2942	2942	2942	2942	2942	2942	2942	2917	2917	2917	2917	2893	2893	2893	2893	2893	2893	2893	2893	2869	2869	2869	2869	2869	2869	2869	2845	2845	2869	2869	2869	2869	2869	2869	2869	2869	2869	2869	2893	2893	2893	2893	2893	2893	2893	2893	2893	2893	2893	2893	2893	2893	2893	2893	2893	2893	2893	2893	2869	2869	2869	2869	2869	2869	2869	2869	2869	2869	3583	3583	3583	3583	3583	3583	3583	3583	3583	3583	3583	3583	3583	3583	3583	3583	3583	3583	3583	3583	3583	3583	3583	3583	3583	3583	3583	3583	3583	3583	3621	3621	3621	3621	3621	3621	3621	3621	3621	3583	3583	3583	3621	3621	3621	3621	3621	3621	3621	3621	3621	3621	3621	3621	3621	3583	3583	3583	3583	3583	3583	3583	3583	3583	3621	3621	3621	3621	3583	3583	3583	3583	3583	3546	3583	3583	3546	3546	3546	3546	3546	3546	3583	3546	3546	3546	3546	3546	3546	3583	3583	3583	3583	3583	3583	3583	3583	3583	3583	3583	3583	3583	3583	3546	3546	3546	3546	3546	3546	3546	3546	3546	3583	3621	3621	3621	0	2237	2237	2223	2208	2167	2153	2140	2140	2127	2114	2101	2101	2088	2063	2051	2039	2027	2015	1992	1992	1992	1969	1958	1947	1947	1936	1925	1925	1915	1915	1883	1873	1863	1853	1843	1833	1824	1824	1814	1795	1795	1786	1777	1777	1759	1750	1741	1723	1723	1723	1723	0	0	0	0	0	0	0	0	0	0	0	0	0	0	0	0	0	0	0	0	0	0	0	0	0	0	0	0	0	0	0	0	0	0	0	0	0	0	0	0	0	0	0	0	0	0	0	0	0	0	0	0	0	0	0	0	0	0	0	0	0	0	0	0	0	0	0	0	0	0	0	0	0	0	0	0	0	0	0	0	0	0	0	0	0	0	0	0	0	0	0	0	0	0	0	0	0	0	0	0	0	0	0	0	0	0	0	0	0	0	0	0	0	0	0	0	0	0	0	0	0	0	0	0	0	0	0	0
0	0	0	0	0	0	0	0	0	0	0	0	0	1681	1690	1706	1706	1723	1723	1732	1732	1750	1759	1768	1777	1777	1786	1786	1786	1786	1786	1777	1786	1795	1795	1804	1804	1814	1814	1824	1833	1833	1833	1843	1873	1883	1883	1883	1894	1894	1894	0	2496	2514	2514	2514	2514	2514	2496	2496	2496	2496	2496	2478	2478	2496	2514	2514	2514	2514	2496	2496	2496	2478	2478	2478	2496	2514	2514	2496	2496	2496	2496	2496	2478	2496	2478	2478	2496	2514	2514	2514	2496	2496	2514	2514	2514	2514	2514	2532	2532	2532	2551	2532	2532	2532	2532	2514	2514	2514	2496	2496	2496	2514	2496	2532	2532	2532	2532	0	0	0	0	3510	3510	3475	3583	3583	3583	3583	3546	3546	3546	3546	3546	3546	3546	3546	3546	3583	3583	3583	3583	3583	3583	3510	3510	3546	3546	3546	3510	3510	3510	3510	3510	3510	3510	3546	3546	3546	3546	3510	3510	3510	3510	3510	3510	3546	3510	3510	3546	3546	3583	3583	3583	3621	3621	3583	3583	3546	3546	3583	3546	3546	3583	3583	3621	3621	3621	3583	3621	3621	3583	3583	3546	3546	3546	3546	3583	3583	3583	3621	3621	3621	3621	3621	3621	3583	3583	3583	3583	3583	3583	3583	3583	3583	3583	3583	3583	3546	3546	3546	3546	3583	3583	3583	3583	3583	3583	3583	3583	3583	3583	3583	3583	3583	3583	3583	3583	3583	3583	3583	3583	3583	3583	3583	3583	3583	3546	3583	3583	3583	3583	3583	3546	3546	2893	2893	2893	2893	2893	2893	2893	2893	2893	2917	2917	2917	2942	2942	2942	2942	2942	2942	2942	2942	2942	2942	2942	2942	2942	2942	2917	2917	2917	2893	2893	2893	2893	2893	2893	2893	2893	2893	2893	2869	2869	2869	2869	2869	2869	2869	2869	2869	2869	2869	2869	2869	2869	2869	2869	2869	2869	2869	2893	2893	2893	2893	2893	2893	2893	2893	2893	2893	2893	2893	2893	2893	2893	2893	2893	2893	2893	2893	2893	2869	2869	2869	2869	2869	2869	2869	2869	2869	3583	3583	3583	3583	3583	3583	3583	3583	3583	3583	3583	3583	3583	3583	3583	3583	3583	3583	3583	3583	3583	3583	3583	3583	3583	3583	3583	3583	3583	3583	3621	3621	3621	3621	3621	3621	3621	3621	3621	3583	3583	3583	3621	3621	3621	3621	3621	3621	3621	3621	3583	3621	3583	3621	3621	3621	3583	3583	3583	3583	3583	3583	3583	3621	3621	3621	3621	3621	3583	3583	3583	3583	3546	3546	3546	3546	3546	3546	3546	3546	3546	3546	3583	3583	3583	3583	3583	3546	3546	3583	3583	3583	3546	3546	3583	3583	3583	3583	3583	3583	3583	3583	3583	3583	3546	3546	3546	3546	3546	3546	3546	3583	3583	3621	3621	3621	0	2237	2237	2223	2208	2181	2153	2140	2140	2127	2114	2101	2101	2088	2063	2051	2027	2027	2015	2003	1992	1992	1969	1958	1947	1947	1936	1936	1936	1915	1904	1883	1883	1863	1853	1843	1833	1833	1824	1814	1804	1795	1786	1777	1777	1759	1750	1741	1741	1723	1723	1723	0	0	0	0	0	0	0	0	0	0	0	0	0	0	0	0	0	0	0	0	0	0	0	0	0	0	0	0	0	0	0	0	0	0	0	0	0	0	0	0	0	0	0	0	0	0	0	0	0	0	0	0	0	0	0	0	0	0	0	0	0	0	0	0	0	0	0	0	0	0	0	0	0	0	0	0	0	0	0	0	0	0	0	0	0	0	0	0	0	0	0	0	0	0	0	0	0	0	0	0	0	0	0	0	0	0	0	0	0	0	0	0	0	0	0	0	0	0	0	0	0	0	0	0	0	0	0	0
0	0	0	0	0	0	0	0	0	0	0	0	0	1673	1690	1698	1706	1715	1723	1723	1732	1741	1759	1768	1768	1777	1786	1786	1786	1786	1786	1786	1786	1786	1786	1804	1804	1814	1824	1824	1833	1843	1843	1843	1873	1873	1883	1883	1894	1894	1894	1894	2496	2514	2514	2514	2514	2514	2496	2496	2496	2496	2478	2478	2496	2514	2514	2496	2514	2514	2514	2514	2496	2496	2478	2478	2496	2514	2514	2496	2496	2496	2514	2496	2478	2496	2478	2496	2496	2514	2514	2514	2496	2496	2496	2496	2514	2496	2514	2532	2532	2532	2532	2532	2532	2532	2514	2514	2514	2514	2496	2496	2496	2496	2496	2532	2532	2532	2532	0	3475	3475	3510	3475	3475	3475	3546	3583	3546	3546	3546	3546	3546	3546	3546	3546	3546	3583	3583	3621	3583	3583	3546	3546	3546	3546	3510	3546	3546	3546	3510	3510	3510	3510	3510	3546	3546	3546	3546	3546	3546	3546	3546	3546	3510	3510	3510	3546	3510	3510	3546	3546	3583	3583	3583	3583	3583	3583	3583	3546	3583	3546	3546	3546	3546	3583	3621	3621	3583	3583	3621	3621	3583	3583	3546	3546	3546	3546	3583	3583	3583	3621	3621	3621	3621	3621	3621	3621	3583	3583	3583	3583	3583	3583	3583	3583	3583	3583	3583	3546	3583	3546	3583	3583	3583	3583	3583	3621	3583	3621	3583	3583	3621	3583	3583	3583	3583	3583	3583	3583	3583	3583	3583	3583	3621	3583	3583	3583	3583	3583	3583	3583	3583	3583	3546	3621	2917	2917	2917	2917	2917	2917	2917	2893	2893	2917	2917	2917	2917	2942	2942	2942	2942	2942	2942	2942	2942	2942	2942	2942	2942	2942	2917	2917	2893	2893	2893	2893	2869	2869	2869	2893	2869	2893	2893	2869	2869	2869	2869	2869	2869	2869	2869	2869	2869	2869	2869	2869	2869	2869	2869	2869	2869	2869	2893	2893	2893	2893	2893	2893	2893	2893	2893	2893	2893	2893	2893	2893	2893	2893	2893	2893	2893	2893	2869	2869	2869	2869	2869	2869	2869	2869	2869	2869	2869	3583	3583	3583	3583	3583	3583	3583	3583	3583	3583	3583	3583	3583	3583	3583	3583	3583	3583	3583	3583	3583	3583	3583	3583	3583	3583	3583	3583	3583	3621	3621	3621	3621	3621	3621	3621	3621	3621	3621	3621	3621	3583	3621	3621	3621	3621	3621	3583	3583	3583	3583	3583	3583	3621	3621	3621	3621	3583	3621	3583	3583	3621	3621	3621	3621	3621	3621	3621	3583	3583	3583	3546	3546	3546	3546	3546	3546	3546	3546	3546	3583	3583	3583	3583	3583	3583	3546	3546	3583	3583	3583	3583	3583	3583	3583	3583	3583	3583	3583	3583	3583	3583	3583	3583	3583	3546	3546	3546	3546	3546	3546	3583	3583	3583	3583	0	0	2237	2237	2223	2208	2153	2140	2127	2127	2114	2101	2101	2088	2063	2051	2039	2027	2015	2003	1992	1992	1969	1958	1947	1947	1936	1936	1936	1925	1915	1883	1873	1863	1853	1843	1833	1833	1824	1814	1795	1795	1786	1777	1777	1759	1750	1741	1741	1723	1723	1723	0	0	0	0	0	0	0	0	0	0	0	0	0	0	0	0	0	0	0	0	0	0	0	0	0	0	0	0	0	0	0	0	0	0	0	0	0	0	0	0	0	0	0	0	0	0	0	0	0	0	0	0	0	0	0	0	0	0	0	0	0	0	0	0	0	0	0	0	0	0	0	0	0	0	0	0	0	0	0	0	0	0	0	0	0	0	0	0	0	0	0	0	0	0	0	0	0	0	0	0	0	0	0	0	0	0	0	0	0	0	0	0	0	0	0	0	0	0	0	0	0	0	0	0	0	0	0	0
0	0	0	0	0	0	0	0	0	0	0	0	0	1673	1681	1690	1706	1715	1723	1723	1732	1741	1750	1750	1759	1777	1777	1786	1786	1786	1795	1795	1795	1795	1804	1814	1814	1824	1824	1824	1824	1833	1843	1843	1873	1873	1873	1883	1894	1894	1894	1894	0	2478	2496	2496	2496	2496	2478	2496	2496	2478	2460	2478	2478	2478	2514	2496	2514	2514	2514	2496	2496	2478	2478	2478	2478	2514	2514	2496	2496	2496	2496	2496	2478	2496	2478	2496	2496	2514	2514	2514	2496	2496	2496	2514	2514	2496	2514	2514	2532	2532	2532	2532	2532	2532	2532	2514	2496	2496	2496	2478	2496	2496	2496	2514	2532	2532	2532	2532	3475	3475	3475	3475	3475	3475	3546	3546	3583	3583	3583	3583	3546	3510	3510	3510	3546	3510	3546	3621	3621	3546	3546	3546	3546	3546	3546	3546	3546	3546	3546	3546	3546	3546	3546	3583	3546	3546	3546	3546	3546	3546	3546	3510	3510	3510	3510	3510	3510	3510	3510	3546	3583	3583	3583	3583	3583	3583	3583	3546	3583	3546	3546	3546	3583	3583	3621	3621	3583	3583	3583	3621	3583	3546	3546	3546	3546	3546	3583	3583	3621	3621	3621	3621	3621	3621	3621	3621	3583	3621	3583	3583	3583	3583	3583	3583	3621	3583	3583	3583	3583	3583	3583	3583	3583	3583	3621	3621	3583	3583	3583	3583	3583	3583	3583	3621	3583	3583	3583	3583	3583	3621	3583	3583	3621	3621	3621	3583	3583	3583	3583	3583	3583	3583	3583	3546	2917	2917	2893	2917	2917	2917	2893	2893	2893	2893	2917	2893	2893	2917	2917	2942	2942	2942	2942	2942	2942	2942	2942	2942	2942	2942	2942	2917	2917	2893	2893	2893	2869	2869	2869	2869	2869	2893	2893	2869	2869	2869	2869	2869	2869	2869	2869	2869	2869	2869	2869	2869	2869	2869	2869	2869	2869	2869	2893	2893	2893	2893	2893	2893	2893	2893	2893	2893	2893	2893	2893	2893	2893	2893	2893	2869	2869	2869	2869	2869	2869	2869	2869	2869	2869	2869	2869	3583	3583	3583	3583	3583	3583	3583	3583	3583	3583	3583	3583	3583	3583	3583	3583	3583	3583	3583	3583	3583	3583	3583	3583	3583	3583	3583	3583	3583	3583	3583	3583	3621	3621	3621	3621	3621	3621	3621	3621	3621	3621	3621	3621	3621	3621	3621	3621	3583	3583	3583	3583	3583	3583	3621	3621	3621	3621	3621	3583	3583	3583	3583	3621	3621	3621	3621	3621	3621	3583	3583	3583	3546	3546	3546	3546	3546	3546	3546	3546	3546	3546	3546	3583	3583	3583	3583	3583	3583	3583	3583	3583	3583	3583	3583	3583	3583	3583	3583	3583	3583	3583	3583	3583	3583	3583	3583	3546	3546	3546	3546	3546	3546	3546	3546	3583	2297	2297	0	2252	2237	2223	2208	2153	2140	2127	2127	2114	2101	2101	2088	2076	2051	2039	2027	2015	2003	1992	1992	1969	1958	1947	1947	1936	1936	1936	1925	1915	1904	1873	1863	1853	1843	1843	1833	1824	1814	1795	1795	1786	1777	1768	1759	1750	1741	1741	1741	1723	1723	0	0	0	0	0	0	0	0	0	0	0	0	0	0	0	0	0	0	0	0	0	0	0	0	0	0	0	0	0	0	0	0	0	0	0	0	0	0	0	0	0	0	0	0	0	0	0	0	0	0	0	0	0	0	0	0	0	0	0	0	0	0	0	0	0	0	0	0	0	0	0	0	0	0	0	0	0	0	0	0	0	0	0	0	0	0	0	0	0	0	0	0	0	0	0	0	0	0	0	0	0	0	0	0	0	0	0	0	0	0	0	0	0	0	0	0	0	0	0	0	0	0	0	0	0	0	0	0
