0	0	726	725	728	729	731	731	731	734	753	753	753	752	755	755	756	755	756	760	763	768	770	775	775	780	782	784	786	788	789	789	795	798	802	804	808	810	815	815	817	823	823	823	825	827	827	829	839	843	848	848	850	852	854	856	867	875	875	878	878	882	884	887	891	894	894	896	910	910	913	915	922	927	930	935	937	940	940	942	955	958	961	963	966	972	977	980	983	983	997	1003	1011	1017	1020	1020	1020	1023	1030	1033	1033	1052	1055	1055	1055	1061	1078	1081	1085	1088	1098	1102	1102	1105	1113	1116	1116	1120	1123	1127	1127	1127	1127	0	1641	1641	1641	1641	1649	1649	1657	1649	1657	1657	1657	1649	1649	1649	1634	1649	1649	1649	1649	1649	1649	1657	1657	1657	1657	1665	1657	1657	1665	1657	1657	1665	1665	1673	1673	1673	1681	1681	1681	1681	1681	1681	0	0	0	0	0	7959	8146	7959	8146	8146	8146	8343	8146	8146	8343	8343	8343	8343	8343	8343	8343	8343	8343	8343	8146	8343	8343	8343	8343	8343	8343	8343	8146	8146	8343	8343	8343	8343	8343	8343	8343	8146	8146	8146	8146	8146	8146	8343	8343	8343	8343	8343	8550	8550	8550	8343	8343	8343	8343	8343	8343	8343	8343	8343	8343	8343	8343	8343	8343	8343	8343	8146	8146	8146	8146	8343	8343	8343	8343	8343	8343	8343	8343	8343	8343	8343	8343	8343	8550	8343	8343	8343	8343	8343	8343	8343	8343	3309	3309	3309	3341	3341	3341	3309	3309	3341	3309	3309	3309	3309	3309	3309	3309	3309	3309	3309	3309	3277	3277	3277	3277	3246	3216	3216	3216	3216	3186	3186	3186	3186	3186	3186	3157	3157	3186	3186	3186	3157	3186	3186	3157	3157	3157	3157	3157	3157	3157	3216	3216	3216	3216	3216	3216	3216	3216	3216	3216	3216	3216	3216	3216	3216	3216	3216	3216	3216	3216	3216	3216	3246	3246	3277	3277	3309	3309	3309	3309	3309	3309	3309	3309	3309	3309	3309	3309	3309	3341	3341	3341	3341	3341	3341	3309	3309	3309	3309	0	8767	8767	8767	8550	8343	8146	8146	8146	8146	8343	8343	8343	8343	8343	8343	8343	8146	8146	8146	8146	8146	8146	8343	8343	8146	8146	8146	8146	7959	7959	7959	7959	7959	7959	7959	8146	8146	8146	8343	8343	8550	8550	8550	8550	8550	8550	8550	8343	8146	8146	7959	8146	8146	7959	8146	8146	8146	8146	8146	8146	8146	8146	8146	8146	8146	8146	8146	8146	8146	8146	8146	8146	8146	8146	8146	8146	8146	8146	8146	8146	8146	8146	8146	7959	8146	8146	8146	8146	8146	8146	8146	8146	8146	8146	8146	8146	8146	8146	8146	8146	8146	8146	8146	8146	8146	8146	7959	7959	7959	8146	8146	8146	8146	8146	8343	8146	8146	8146	8146	8146	8146	8146	8146	8146	8146	8146	7959	7959	7959	7959	7959	7959	7959	8146	7959	7959	7959	7959	8146	8146	8146	8146	8146	8146	8146	8146	8146	8146	8343	8343	8343	8343	8146	8146	8146	8146	8146	8146	8343	8343	8343	8343	8146	8146	8146	8146	8146	8146	8146	8146	8146	8146	8343	8343	8343	8343	8343	8343	8343	8343	8146	8146	8343	8146	8343	8343	8343	8343	8343	8343	8343	8343	8343	8146	8146	8146	8146	8146	8146	8146	8146	8146	8343	8343	8343	8343	8343	8343	8343	8343	8146	8146	8146	8146	8146	8146	8146	8146	8146	8146	8146	8146	7959	7959	7779	7779	7608	7608	7608	7608	7608	7608	7608	7779	7779	7779	7779	7779	7779	7959	7779	7959	7959	7959	0	0	0	0	0	0	0	0	0	0	0	0	0	0	0	0	0	0	0	0	0	0	0	0	0	0	0	0	0	0	0	0	0
0	0	725	725	728	728	729	729	731	0	0	0	0	752	755	755	756	753	756	760	765	768	770	773	773	779	782	784	786	788	789	791	797	798	802	804	808	810	815	815	817	819	823	823	825	825	831	833	837	841	848	850	850	850	852	856	875	878	875	878	878	882	884	887	891	891	894	896	908	910	910	915	925	927	930	935	937	940	940	950	953	955	958	961	966	974	977	980	980	985	997	1006	1008	1014	1020	1020	1020	1020	1026	1033	1036	1048	1055	1055	1055	1071	1078	1081	1081	1085	1091	1098	1102	1109	1113	1116	1116	1123	1123	1127	1127	1127	0	0	1649	1649	1649	1657	1657	1657	1665	1665	1665	1665	1673	1673	1673	1673	1649	1665	1665	1665	1665	1665	1665	1673	1673	1673	1673	1681	1681	1681	1673	1673	1665	1673	1673	1673	1681	1681	1690	1690	1690	1681	1690	1690	0	0	0	0	0	7959	8146	8146	8146	8146	8146	8146	8146	8146	8146	8343	8343	8343	8343	8343	8343	8343	8343	8343	8343	8343	8343	8343	8343	8343	8343	8343	8146	8146	8343	8343	8343	8343	8343	8343	8343	8146	8146	8146	8146	8146	8146	8146	8343	8343	8343	8343	8550	8550	8343	8343	8343	8343	8343	8343	8343	8343	8343	8343	8343	8343	8343	8343	8343	8343	8343	8146	8146	8146	8146	8343	8146	8146	8343	8343	8146	8146	8343	8343	8343	8343	8343	8343	8550	8343	8343	8343	8343	8550	8343	8343	0	3309	3277	3309	3341	3341	3341	3341	3341	3341	3341	3309	3309	3309	3309	3309	3309	3309	3309	3309	3309	3277	3277	3277	3277	3246	3216	3216	3216	3216	3186	3186	3186	3186	3186	3186	3157	3157	3157	3186	3186	3157	3186	3157	3157	3157	3157	3157	3157	3157	3157	3186	3186	3216	3216	3216	3216	3186	3216	3216	3216	3216	3186	3216	3186	3186	3216	3216	3216	3216	3216	3216	3216	3216	3246	3246	3277	3277	3309	3309	3309	3309	3309	3309	3309	3309	3309	3309	3309	3309	3341	3341	3341	3341	3341	3341	3341	3309	3309	0	8767	8767	8767	8767	8550	8343	8343	8343	8146	8343	8343	8343	8343	8343	8343	8343	8146	8146	8146	8146	8146	8146	8146	8343	8343	8343	8146	8146	8146	7959	7959	7959	7959	8146	7959	7959	8146	8146	8146	8146	8343	8343	8550	8550	8550	8550	8550	8550	8343	8146	8146	8146	8146	8146	8146	8146	8146	8146	8146	8146	8146	8146	8146	8146	8146	8146	8146	8146	8146	8146	8146	8146	8146	8146	8146	8146	8146	8146	8146	8146	8146	8146	8146	8146	7959	7959	7959	7959	8146	8146	8146	7959	7959	8146	8146	8146	8146	8146	7959	8146	8146	8146	8146	8146	8146	8146	7959	7959	7959	7959	8146	8146	8146	7959	8146	8146	8146	8146	8146	8146	8146	8146	8146	8146	8146	8146	8146	7959	7959	7959	7959	7959	7959	7959	7959	7959	8146	7959	8146	8146	8146	8146	8146	8146	8146	8146	8146	8146	8146	8343	8343	8343	8343	8343	8343	8343	8343	8146	8146	8146	8343	8146	8146	8146	8146	8146	8146	8146	8146	8146	8343	8146	8343	8343	8343	8343	8343	8343	8343	8343	8343	8146	8146	8146	8146	8343	8343	8343	8343	8343	8343	8343	8343	8343	8343	8146	8146	8146	8146	8146	8146	8146	8343	8343	8343	8343	8343	8343	8343	8343	8343	8146	8146	8146	8146	8146	8146	8146	8146	8146	8146	8146	8146	8146	7959	7959	7779	7779	7608	7608	7608	7608	7608	7608	7779	7779	7959	7779	7779	7959	7959	7959	7959	7959	7959	0	0	0	0	0	0	0	0	0	0	0	0	0	0	0	0	0	0	0	0	0	0	0	0	0	0	0	0	0	0	0	0	0
0	0	725	725	726	728	729	731	731	734	734	0	0	748	753	753	755	753	756	763	765	768	770	773	773	779	780	782	784	788	791	793	797	797	800	802	806	808	808	814	815	819	823	823	825	825	827	831	835	839	848	848	850	850	852	856	856	878	878	880	878	882	887	887	891	891	894	896	903	910	910	913	927	927	930	935	937	937	940	950	953	953	961	961	966	972	977	983	985	985	1003	1008	1008	1014	1017	1017	1020	1020	1026	1033	1036	1052	1055	1055	1055	1058	1078	1081	1085	1085	1098	1095	1102	1102	1113	1116	1120	1123	1127	1123	1127	1127	1127	0	1649	1649	1715	1715	1690	1698	1690	1690	1690	1681	1681	1681	1690	1681	1681	1681	1681	1681	1681	1681	1681	1681	1681	1681	1681	1690	1681	1681	1681	1673	1673	1673	1673	1681	1681	1681	1690	1698	1698	1698	1706	1706	0	0	0	0	0	7959	7959	7959	8146	8146	8146	8146	8146	8146	8343	8343	8343	8343	8343	8343	8343	8343	8343	8343	8343	8343	8343	8343	8343	8343	8343	8343	8146	8146	8343	8343	8343	8343	8343	8343	8343	8343	8146	8146	8146	8146	8146	8146	8146	8343	8343	8343	8550	8550	8550	8343	8343	8343	8343	8343	8343	8343	8343	8343	8343	8343	8343	8343	8343	8343	8343	8343	8343	8343	8146	8343	8146	8146	8343	8343	8146	8146	8343	8343	8343	8343	8343	8343	8343	8550	8550	8550	8550	8550	8550	8550	8550	0	3277	3309	3341	3341	3341	3341	3341	3341	3341	3309	3309	3309	3309	3309	3309	3309	3309	3309	3309	3277	3277	3277	3277	3246	3216	3216	3216	3216	3186	3186	3186	3186	3186	3157	3157	3157	3157	3157	3157	3157	3186	3157	3157	3157	3157	3157	3157	3157	3157	3186	3216	3216	3216	3216	3216	3216	3216	3216	3216	3216	3186	3186	3186	3186	3216	3216	3216	3216	3216	3216	3216	3216	3246	3246	3277	3277	3309	3309	3309	3309	3309	3309	3309	3309	3309	3309	3309	3309	3341	3341	3341	3341	3341	3341	3341	3341	3309	8550	8550	8550	8550	8550	8550	8343	8343	8343	8146	8343	8343	8343	8343	8343	8343	8343	8343	8146	8146	8146	8146	8146	8343	8343	8343	8343	8146	8146	8146	8146	7959	7959	8146	8146	8146	7959	8146	8146	8146	8146	7959	8343	8550	8343	8550	8550	8550	8550	8343	8146	8146	8146	8343	8146	8146	8146	8146	8146	8146	8146	8146	8146	8146	8146	8146	8146	8146	8146	8146	8146	8146	8146	8146	8146	8146	8146	8146	8146	8146	8146	8146	8146	8146	8146	7959	7959	7959	7959	8146	7959	7959	7959	7959	8146	8146	7959	7959	7959	7959	7959	8146	8146	8146	8146	8146	8146	7959	7959	7959	7959	7959	7959	7959	7959	8146	8146	8343	8146	8146	8146	8146	8146	8146	8146	8146	8146	8146	7959	7959	7959	7959	7959	7959	7959	7959	7959	8146	8146	8146	8146	8146	8146	8146	8146	8146	8146	8146	8146	8146	8343	8343	8343	8343	8343	8343	8343	8343	8343	8343	8343	8343	8146	8146	8146	8343	8146	8146	8146	8146	8146	8343	8343	8343	8343	8550	8550	8550	8550	8343	8343	8343	8343	8343	8146	8146	8343	8343	8343	8343	8343	8343	8343	8343	8343	8343	8343	8343	8343	8146	8146	8146	8146	8146	8146	8343	8343	8343	8343	8343	8343	8343	8146	8146	8146	8146	8146	8146	8146	8146	8146	8146	8146	8146	8146	7959	7959	7779	7779	7608	7608	7608	7608	7608	7608	7779	7779	7779	7779	7779	7959	7959	7779	7779	7959	7959	0	0	0	0	0	0	0	0	0	0	0	0	0	0	0	0	0	0	0	0	0	0	0	0	0	0	0	0	0	0	0	0	0
0	720	723	725	726	728	729	732	734	734	734	0	0	752	753	753	753	753	755	763	765	768	772	773	775	780	782	782	784	788	789	793	798	798	800	802	804	808	808	810	817	819	823	825	825	827	829	831	835	841	845	845	848	848	850	854	875	878	878	880	880	880	887	887	891	894	896	903	903	910	910	913	920	925	930	930	937	940	940	942	953	953	961	966	966	972	977	980	983	980	1003	1006	1008	1014	1017	1017	1020	1023	1030	1033	1033	1048	1055	1055	1055	1071	1078	1081	1081	1091	1098	1102	1102	1102	1109	1116	1116	1120	1123	1120	1120	1120	1127	0	0	1698	1698	1698	1698	1698	1698	1698	1698	1698	1698	1698	1698	1690	1690	1698	1690	1690	1681	1681	1690	1690	1690	1690	1690	1690	1690	1690	1681	1681	1673	1681	1681	1681	1681	1690	1698	1698	1698	1706	1715	1715	1715	0	0	0	0	7959	7959	7959	8146	8146	8146	8146	8146	8343	8343	8343	8343	8343	8343	8343	8343	8343	8343	8343	8343	8343	8343	8343	8343	8343	8343	8343	8146	8146	8146	8343	8343	8343	8343	8343	8343	8343	8343	8343	8343	8146	8146	8343	8343	8343	8343	8343	8550	8550	8550	8343	8343	8343	8343	8343	8343	8343	8343	8343	8343	8343	8343	8146	8146	8343	8146	8146	8146	8343	8343	8343	8146	8343	8343	8343	8146	8146	8146	8146	8146	8343	8343	8343	8550	8550	8550	8550	8550	8550	8343	8343	8343	0	0	0	3341	3373	3373	3373	3341	3341	3341	3309	3309	3309	3309	3309	3309	3309	3309	3309	3309	3277	3277	3277	3277	3246	3246	3216	3216	3216	3186	3186	3186	3186	3186	3186	3186	3186	3157	3186	3186	3157	3157	3157	3157	3157	3157	3157	3157	3157	3157	3186	3186	3216	3186	3216	3186	3216	3216	3216	3216	3186	3186	3186	3186	3216	3216	3216	3216	3216	3216	3216	3216	3216	3246	3246	3277	3309	3309	3309	3309	3309	3309	3309	3309	3309	3309	3309	3309	3309	3341	3341	3341	3341	3341	3341	3341	3341	0	8550	8550	8550	8550	8550	8550	8343	8343	8343	8146	8343	8343	8343	8343	8343	8343	8343	8343	8146	8146	8146	8146	8146	8343	8343	8343	8343	8146	8146	8146	7959	7959	7959	7959	8146	7959	7959	8146	8146	8146	8146	8146	8343	8343	8343	8343	8343	8343	8343	8146	8146	8146	8146	8343	8146	8146	8146	8146	8146	8146	8146	8146	8146	8146	8146	8146	8146	8146	8146	8146	8146	8146	8146	8146	8146	8146	8146	8146	8146	8146	8146	8146	8146	8146	8146	8146	8146	8146	7959	7959	7959	7959	7959	7959	7959	8146	7959	7959	7959	8146	7959	8146	8146	8146	8146	8146	8146	7959	7959	7959	7959	7959	8146	7959	7959	8146	8343	8343	8146	8146	8146	8146	8146	8146	8146	7959	7959	7959	7959	7959	7959	7959	7959	7959	7959	7959	7959	7959	7959	8146	8146	7959	8146	8146	8146	8146	8146	8146	8146	8146	8343	8343	8343	8343	8343	8343	8343	8343	8343	8343	8343	8343	8343	8146	8146	8343	8343	8146	8146	8146	8343	8343	8343	8343	8343	8343	8550	8550	8343	8343	8343	8343	8146	8343	8343	8343	8343	8146	8146	8343	8343	8343	8343	8343	8343	8343	8343	8343	8343	8146	8146	8146	8343	8146	8146	8146	8343	8343	8343	8343	8146	8343	8343	8146	8343	8146	8146	8146	8146	8146	8146	8146	8146	8146	7959	7959	7779	7779	7779	7779	7608	7608	7608	7608	7608	7779	7779	7779	7779	7779	7779	7779	7779	7779	7779	7779	0	0	0	0	0	0	0	0	0	0	0	0	0	0	0	0	0	0	0	0	0	0	0	0	0	0	0	0	0	0	0	0	0
0	720	720	723	726	726	731	732	734	734	734	0	0	753	755	755	755	753	760	763	765	768	772	775	775	780	780	782	784	786	789	793	798	797	800	802	804	806	808	814	815	817	823	825	825	825	829	831	837	841	845	845	848	848	850	858	875	875	875	878	878	884	884	887	891	894	894	903	910	910	910	913	917	922	925	932	937	940	940	942	950	953	961	966	969	969	974	980	983	983	997	1006	1008	1014	1017	1017	1020	1023	1026	1030	1033	1036	1055	1055	1058	1071	1081	1081	1091	1095	1098	1102	1102	1102	1109	1116	1116	1120	1123	1116	1116	1116	1116	0	0	1698	1706	1706	1706	1706	1706	1706	1706	1706	1706	1706	1698	1698	1698	1698	1698	1698	1690	1698	1698	1698	1698	1698	1698	1706	1706	1706	1706	1698	1690	1698	1690	1690	1690	1698	1698	1698	1706	1706	1732	1732	1750	1759	1759	0	0	0	7959	7959	8146	8343	8343	8343	8343	8343	8343	8343	8343	8343	8343	8343	8146	8343	8343	8343	8343	8343	8343	8343	8343	8343	8343	8343	8146	8146	8343	8343	8343	8343	8343	8343	8343	8343	8343	8343	8343	8343	8343	8343	8343	8343	8343	8343	8550	8550	8550	8550	8550	8343	8343	8343	8343	8343	8343	8343	8343	8343	8343	8146	8146	8146	8146	8146	8146	8343	8146	8343	8146	8343	8343	8343	8146	8146	8146	8146	8343	8343	8343	8343	8343	8343	8343	8343	8343	8343	8343	8343	8343	8343	0	0	0	3406	3373	3373	3341	3341	3309	3309	3309	3309	3309	3309	3309	3309	3309	3309	3277	3277	3277	3277	3277	3246	3246	3216	3216	3216	3186	3186	3186	3186	3186	3186	3186	3186	3157	3157	3157	3157	3157	3157	3157	3157	3157	3157	3157	3157	3157	3186	3186	3216	3186	3216	3186	3186	3186	3186	3186	3186	3186	3186	3186	3216	3216	3216	3216	3216	3216	3216	3216	3216	3246	3246	3277	3309	3309	3309	3341	3341	3309	3309	3309	3309	3309	3309	3309	3309	3309	3341	3341	3341	3341	3341	3341	3341	0	8343	8343	8343	8550	8550	8550	8343	8343	8343	8146	8146	8146	8146	8343	8343	8343	8146	8146	8146	8146	8146	8146	8146	8343	8343	8343	8343	8146	8146	8146	7959	7959	7959	7959	8146	7959	7959	8146	8146	8146	8146	8146	8146	8146	8146	8146	8343	8146	8146	8146	8146	8146	8146	8343	8146	8146	8146	8146	8146	8146	8146	8146	8146	8146	8146	8146	8146	8146	8146	8146	8146	8146	8146	8146	8146	8146	8146	8146	8146	8146	8146	8146	8146	8146	8146	8146	8146	8146	7959	7959	7959	8146	8146	7959	7959	7959	7959	7959	7959	7959	7959	7959	7959	7959	7959	7959	7959	7959	7959	7959	7959	7959	7959	7959	7959	8146	8343	8343	8146	8146	8146	8146	8146	8146	8146	7959	7959	7959	7959	8146	7959	7959	7959	7959	7959	7959	7959	7959	7959	8146	8146	8146	8146	8146	8146	8146	8146	8146	8146	8146	8343	8343	8343	8343	8343	8343	8343	8343	8343	8343	8343	8343	8343	8343	8343	8343	8343	8146	8343	8343	8343	8343	8343	8343	8343	8550	8550	8550	8550	8550	8343	8343	8343	8343	8146	8343	8343	8343	8146	8146	8343	8343	8343	8343	8343	8343	8343	8343	8146	8146	8146	8146	8146	8146	8146	8146	8146	8146	8343	8343	8343	8343	8146	8146	8146	8146	8146	8146	8146	8146	8146	7959	7959	7959	7959	7959	7959	7959	7779	7779	7779	7779	7779	7779	7779	7779	7959	7779	7959	7779	7779	7779	7779	7608	7779	7779	0	0	0	0	0	0	0	0	0	0	0	0	0	0	0	0	0	0	0	0	0	0	0	0	0	0	0	0	0	0	0	0	0
0	717	719	720	725	725	731	732	734	734	739	740	740	755	755	755	756	756	760	760	763	767	770	773	775	780	780	780	782	788	789	795	797	797	800	800	804	804	806	812	817	817	825	825	825	827	829	829	837	841	845	845	848	852	856	858	860	867	873	875	880	884	887	887	891	894	905	908	910	910	910	913	915	922	925	937	940	940	942	942	948	950	958	966	972	974	977	980	980	983	988	1006	1008	1014	1017	1017	1017	1023	1026	1030	1030	1033	1048	1055	1058	1081	1081	1085	1091	1091	1098	1102	1102	1105	1113	1116	1116	1116	1120	1116	1116	1116	1116	0	0	0	1706	1706	1715	1715	1715	1715	1706	1706	1706	1706	1706	1706	1706	1698	1706	1706	1706	1706	1706	1706	1706	1715	1715	1715	1715	1715	1715	1715	1706	1706	1706	1698	1698	1698	1706	1706	1723	1732	1741	1750	1750	1759	1768	1768	1768	0	0	7959	8146	8343	8343	8343	8343	8343	8343	8343	8343	8343	8343	8343	8343	8343	8343	8343	8343	8343	8343	8343	8343	8343	8343	8343	8146	8146	8343	8343	8343	8343	8343	8343	8343	8343	8343	8343	8343	8343	8343	8343	8343	8343	8343	8343	8343	8343	8343	8343	8343	8343	8343	8343	8343	8343	8343	8343	8343	8343	8343	8343	8146	8343	8146	8146	8146	8343	8343	8343	8343	8343	8343	8343	8146	8146	8146	8146	8343	8343	8343	8146	8343	8343	8343	8343	8343	8550	8343	8343	8343	8343	0	0	0	3406	3406	3373	3341	3341	3309	3309	3309	3309	3309	3309	3309	3309	3309	3309	3277	3277	3277	3277	3277	3277	3246	3216	3246	3216	3216	3216	3186	3186	3186	3186	3186	3186	3157	3157	3157	3157	3157	3157	3157	3157	3157	3157	3157	3157	3157	3186	3186	3186	3186	3216	3186	3186	3186	3186	3186	3186	3186	3186	3186	3216	3216	3216	3216	3216	3216	3216	3216	3216	3246	3277	3277	3309	3309	3309	3309	3309	3309	3309	3309	3309	3309	3309	3309	3309	3309	3341	3309	3309	3309	3341	3341	3341	0	8343	8343	8343	8343	8343	8343	8343	8343	8343	8343	8343	8343	8146	8343	8343	8146	8146	8146	8146	8146	8146	8146	8343	8343	8343	8343	8343	8343	8343	8146	8146	7959	7959	7959	8146	7959	8146	8146	8146	8146	8343	8146	8146	7959	7959	8146	8146	8146	8146	8146	8146	8146	8146	8343	8343	8146	8146	8146	8146	8146	8146	8146	8146	8146	8146	8146	8146	8146	8146	8146	8146	8146	8146	8146	8146	8146	8146	8146	8146	8146	8146	8146	8146	8146	8146	8146	8146	8146	7959	8146	7959	8146	8146	7959	7959	7959	7959	7959	7959	7959	7959	7959	7959	7959	7959	7959	8146	7959	7959	7959	7959	7959	7959	7959	7959	8146	8146	8343	8146	8146	8146	8146	7959	8146	8146	8146	8146	8146	8146	8146	8146	7959	7959	7959	7959	7959	7959	7959	7959	8146	8146	7959	8146	8146	8146	8146	8146	8146	8146	8146	8343	8343	8343	8343	8146	8146	8343	8343	8343	8343	8343	8343	8343	8343	8146	8343	8343	8146	8146	8146	8343	8343	8343	8343	8343	8343	8550	8550	8550	8550	8343	8343	8343	8343	8146	8343	8343	8146	8146	8146	8146	8343	8343	8343	8343	8343	8343	8343	8343	8146	8343	8146	8146	8146	8146	8146	8146	8146	8146	8146	8146	8343	8146	8146	8146	8146	8146	8146	8146	8146	8146	7959	7959	7959	7959	7959	7959	7959	7779	7779	7779	7779	7779	7779	7779	7959	8146	8146	7959	7779	7779	7779	7779	7608	7779	7779	0	0	0	0	0	0	0	0	0	0	0	0	0	0	0	0	0	0	0	0	0	0	0	0	0	0	0	0	0	0	0	0	0
0	717	717	717	717	732	732	734	736	740	739	740	740	747	755	756	758	760	760	760	763	767	770	773	775	780	780	780	784	788	791	793	795	797	798	800	806	806	810	812	812	814	823	823	825	827	829	831	839	841	843	845	848	852	856	858	862	867	869	875	880	884	889	887	891	896	905	908	910	910	913	913	917	920	925	940	940	940	940	942	945	950	950	969	972	974	980	983	983	985	988	1006	1008	1011	1017	1017	1020	1023	1026	1030	1033	1036	1052	1055	1058	1081	1085	1085	1091	1091	1098	1098	1102	1105	1113	1116	1120	1120	1120	1120	1120	1116	0	0	0	0	1706	1706	1715	1715	1715	1715	1715	1715	1715	1715	1715	1715	1715	1706	1715	1715	1715	1706	1706	1715	1715	1723	1723	1723	1723	1723	1723	1715	1715	1715	1715	1715	1715	1723	1723	1723	1732	1741	1750	1750	1759	1759	1768	1777	1768	1768	0	0	0	0	8343	8550	8550	8343	8343	8343	8343	8343	8343	8343	8343	8343	8343	8343	8343	8343	8343	8343	8343	8343	8343	8343	8146	8343	8343	8343	8343	8343	8343	8343	8343	8343	8343	8343	8343	8343	8146	8146	8343	8146	8343	8343	8343	8343	8343	8343	8343	8343	8343	8343	8343	8343	8343	8343	8343	8343	8343	8343	8146	8343	8343	8343	8343	8343	8343	8343	8343	8343	8343	8343	8146	8343	8146	8146	8146	8146	8146	8146	8550	8550	8550	8343	8550	8550	8343	8343	8343	8343	8343	0	0	3440	3440	3373	3373	3341	3309	3309	3309	3309	3309	3309	3309	3309	3309	3309	3277	3277	3277	3277	3277	3277	3246	3246	3246	3216	3186	3186	3186	3186	3186	3186	3186	3186	3157	3157	3157	3157	3157	3157	3157	3157	3157	3157	3157	3157	3157	3186	3186	3186	3186	3186	3186	3186	3186	3186	3186	3186	3186	3186	3186	3216	3216	3216	3216	3216	3216	3216	3216	3216	3246	3246	3246	3277	3309	3309	3309	3309	3309	3309	3309	3309	3309	3309	3309	3309	3309	3309	3309	3309	3309	3309	3341	8343	8343	8343	8343	8343	8343	8343	8343	8343	8343	8343	8343	8146	8146	8146	8146	8146	8146	8146	8146	8146	8146	8146	8146	8146	8343	8343	8343	8343	8146	8343	8146	8146	8146	7959	7959	8146	8146	8146	8146	8146	8146	8146	8146	7959	7959	7959	7959	8146	8146	8146	8146	8146	8146	8146	8550	8343	8146	8146	8146	8146	8146	8146	8146	8146	8146	8146	8146	8146	8146	8146	8146	8146	8146	8146	8146	8146	8146	8146	8146	8146	8146	8146	8146	8146	8146	8146	8146	8146	8146	8146	8146	8146	8146	8146	8146	7959	7959	7959	7959	7959	7959	7959	7959	7959	7959	7959	7959	7959	7959	7959	7959	7959	7959	7959	7959	7959	8146	8146	8343	8146	8146	7959	7959	7959	7959	7959	8146	8146	8146	8146	8146	8146	7959	7959	7959	7959	7959	7959	7959	8146	8146	8146	7959	8146	7959	8146	7959	8146	8146	8146	8146	8343	8343	8343	8343	8343	8343	8343	8343	8343	8343	8343	8343	8146	8146	8146	8343	8343	8146	8146	8146	8343	8343	8343	8343	8343	8343	8550	8343	8343	8343	8343	8343	8343	8343	8343	8343	8146	8146	8146	8146	8146	8146	8343	8343	8343	8550	8343	8343	8343	8343	8343	8146	8146	8146	8146	8146	8146	8146	8146	8343	8343	8343	8343	8343	8343	8146	8146	7959	7959	7959	7959	7959	7959	7959	8146	7959	7959	7959	7779	7779	7779	7959	7959	7959	7959	8146	8146	8146	8146	7779	7779	7779	7608	7608	7608	7608	0	0	0	0	0	0	0	0	0	0	0	0	0	0	0	0	0	0	0	0	0	0	0	0	0	0	0	0	0	0	0	0	0
0	717	717	717	717	734	734	734	736	736	739	740	740	755	755	756	758	758	761	761	763	767	768	772	773	775	779	780	784	789	791	791	795	795	798	800	800	808	808	810	815	812	817	827	829	831	833	837	839	841	843	845	850	854	858	860	862	865	867	873	880	884	889	887	891	896	908	908	910	910	910	913	920	922	925	937	940	940	940	942	945	948	958	972	974	974	980	985	985	985	1008	1006	1008	1008	1014	1017	1020	1023	1030	1033	1036	1052	1055	1058	1058	1085	1085	1088	1091	1095	1098	1102	1102	1105	1113	1116	1116	1116	1116	1113	1113	0	0	0	0	0	1706	1715	1715	1715	1723	1723	1723	1723	1723	1723	1723	1723	1723	1723	1723	1723	1723	1723	1715	1723	1732	1732	1732	1741	1741	1741	1741	1741	1741	1732	1723	1723	1732	1732	1732	1732	1741	1741	1750	1759	1759	1759	1768	1777	1777	1777	1777	0	0	0	0	8550	8550	8550	8343	8343	8343	8343	8343	8343	8343	8343	8343	8343	8343	8343	8343	8343	8146	8146	8146	8146	8146	8146	8146	8343	8343	8343	8343	8343	8343	8343	8343	8343	8343	8343	8343	8343	8343	8146	8343	8343	8343	8343	8343	8343	8343	8343	8343	8343	8343	8343	8343	8343	8343	8343	8343	8343	8146	8343	8343	8343	8343	8343	8343	8343	8343	8343	8343	8343	8146	8146	8146	8146	8146	8146	8146	8146	8550	8550	8550	8343	8343	8343	8343	8343	8146	8146	8146	8146	0	3440	3440	3406	3373	3341	3341	3309	3309	3309	3309	3309	3309	3309	3309	3277	3277	3277	3277	3277	3277	3277	3246	3246	3246	3216	3216	3186	3186	3186	3186	3186	3186	3186	3157	3157	3157	3157	3157	3157	3157	3157	3157	3157	3157	3157	3157	3186	3186	3186	3186	3186	3186	3186	3186	3186	3186	3186	3186	3186	3186	3216	3216	3216	3216	3216	3216	3216	3246	3246	3246	3277	3246	3277	3277	3309	3309	3309	3309	3309	3309	3309	3309	3309	3309	3309	3309	3309	3309	3309	3309	3309	0	8343	8343	8343	8343	8343	8550	8343	8343	8343	8343	8343	8343	8146	8146	8146	8146	8146	8146	8146	8146	8146	8146	8146	8146	8146	8146	8343	8343	8343	8343	8343	8343	8343	8146	8146	8146	8146	8146	8146	8146	7959	8146	8146	7959	7959	7959	7959	7959	7959	7959	8146	8146	8146	8146	8343	8550	8343	8146	8343	8146	8146	8146	8146	8146	8146	8146	8146	8146	8146	8146	8146	8146	8146	8146	8146	8146	8146	8146	8146	8146	8146	8146	8146	8146	8146	8146	8146	8146	8146	8146	8146	8146	8146	8146	8146	8146	7959	7959	7959	7959	7959	7959	7959	7959	7959	7959	7959	7959	7959	7959	7959	7959	7959	7959	7959	7959	7959	8146	8146	7959	7959	8146	7959	7959	7959	7959	7959	8146	8146	8146	8146	8146	8146	8146	7959	7959	7959	7959	7959	7959	7959	8146	7959	7959	7959	7959	7959	7959	7959	8146	8146	8146	8343	8343	8343	8343	8343	8343	8343	8343	8343	8343	8343	8343	8343	8343	8146	8343	8146	8146	8146	8146	8343	8343	8343	8343	8343	8343	8343	8343	8343	8343	8343	8343	8343	8343	8343	8343	8343	8146	8146	8146	8146	8343	8343	8343	8343	8343	8550	8343	8343	8343	8343	8343	8343	8146	8146	8146	8146	8146	8146	8146	8146	8146	8146	8343	8343	8146	8146	7959	8146	8146	7959	8146	8146	8146	8146	8146	7959	7959	7779	7779	7779	7959	7959	7959	7959	7959	8146	8146	7959	7779	7779	7779	7608	7608	7608	7608	0	0	0	0	0	0	0	0	0	0	0	0	0	0	0	0	0	0	0	0	0	0	0	0	0	0	0	0	0	0	0	0	0
0	719	719	719	719	719	734	734	737	740	740	740	752	752	755	756	758	758	760	761	763	765	767	768	768	772	775	779	779	789	793	795	797	795	800	802	808	808	808	808	814	812	819	829	831	833	835	837	839	841	841	843	848	856	858	860	860	865	865	871	878	884	889	889	891	898	905	908	910	910	913	913	920	922	925	937	937	940	940	942	945	953	961	966	972	974	974	985	985	988	1006	1006	1006	1008	1014	1017	1020	1026	1030	1036	1045	1052	1052	1058	1058	1078	1085	1088	1091	1095	1095	1102	1102	1105	1113	1116	1116	1120	1116	1116	1116	0	0	0	0	0	0	1715	1715	1723	1723	1732	1723	1732	1741	1741	1741	1741	1732	1732	1732	1732	1732	1741	1741	1741	1759	1759	1759	1759	1750	1759	1750	1750	1750	1741	1741	1732	1741	1750	1750	1741	1750	1750	1759	1759	1768	1768	1777	1777	1777	1786	1786	0	0	0	0	0	8767	8550	8550	8343	8343	8343	8343	8343	8146	8343	8343	8343	8343	8343	8146	8146	8146	8146	8146	8146	8146	8146	8146	8146	8146	8343	8343	8343	8343	8343	8343	8343	8343	8343	8343	8343	8343	8343	8343	8343	8343	8343	8343	8343	8343	8343	8343	8343	8343	8343	8343	8343	8343	8343	8343	8343	8146	8343	8343	8343	8343	8343	8343	8343	8343	8343	8343	8343	8146	8343	8146	8146	8343	8343	8343	8343	8343	8343	8343	8343	8343	8343	8146	8146	8146	8146	8146	8146	0	0	0	3373	3373	3309	3309	3309	3309	3309	3309	3309	3309	3309	3309	3277	3277	3277	3277	3277	3277	3277	3246	3246	3216	3216	3216	3186	3186	3186	3186	3186	3186	3186	3186	3157	3157	3157	3157	3157	3157	3157	3157	3157	3157	3157	3157	3186	3186	3186	3186	3186	3186	3186	3186	3186	3186	3186	3186	3186	3186	3216	3216	3216	3216	3216	3216	3216	3216	3216	3216	3246	3246	3309	3309	3309	3309	3309	3309	3309	3309	3309	3309	3309	3309	3309	3309	3309	3309	3309	3309	3309	0	8343	8343	8343	8343	8343	8343	8343	8343	8343	8343	8343	8343	8343	8146	8146	8146	8146	8146	8146	8146	8146	8146	8146	8146	8146	8146	8343	8146	8146	8343	8343	8343	8343	8146	7959	8146	8146	8146	8146	8146	7959	8146	8146	7959	7959	7959	7959	7959	7959	7959	8146	8146	8146	8146	8146	8550	8343	8146	8146	8146	8146	8146	8146	8146	8146	8146	7959	8146	8146	8146	8146	8146	8146	7959	7959	8146	8146	8146	8146	8146	8146	8146	8146	8146	8146	8146	8146	8146	8146	8146	8146	8146	8146	8146	8146	8146	7959	7959	7959	7959	7959	7959	7959	7959	7959	7959	7959	7959	7959	7959	7959	7959	7959	7959	7959	7959	7959	8146	7959	8146	8146	8146	8146	7959	7959	7959	7959	8146	8146	8146	8146	8146	8146	8146	7959	7959	7959	7959	7959	7959	7959	8146	8146	7959	7959	7959	7959	7959	7959	7959	8146	8146	8343	8343	8343	8343	8343	8343	8343	8146	8343	8343	8343	8343	8343	8343	8343	8343	8343	8146	8146	8146	8343	8343	8343	8343	8343	8343	8343	8343	8343	8343	8343	8343	8343	8343	8343	8343	8343	8343	8146	8343	8343	8146	8343	8343	8343	8343	8343	8343	8343	8343	8343	8343	8343	8146	8146	8146	8146	8146	8146	8146	8146	8146	8343	8343	8343	8343	8146	8146	8146	8146	7959	7959	7959	7959	7959	7959	7959	7959	7779	7779	7779	7959	7959	7959	7959	7959	7959	7959	7959	7779	7779	7608	7608	7608	7608	7608	0	0	0	0	0	0	0	0	0	0	0	0	0	0	0	0	0	0	0	0	0	0	0	0	0	0	0	0	0	0	0	0	0
0	719	719	719	719	722	734	734	737	739	739	740	742	742	753	753	756	758	758	761	763	765	767	768	768	770	777	780	782	788	791	795	795	797	800	802	808	810	810	810	812	814	817	831	831	833	839	841	841	841	841	843	850	856	860	860	862	865	865	869	875	884	889	889	891	896	903	905	910	913	913	913	917	922	922	937	940	940	942	942	948	955	958	966	969	974	977	983	983	988	1006	1006	1008	1008	1011	1017	1023	1030	1036	1042	1048	1052	1052	1058	1058	1074	1085	1088	1091	1095	1098	1102	1102	1109	1113	1116	1116	1116	1116	1116	1116	0	0	0	0	0	0	0	1715	1723	1732	1741	1741	1750	1750	1750	1759	1759	1759	1759	1759	1759	1759	1759	1759	1759	1759	1768	1768	1768	1759	1768	1759	1759	1759	1759	1750	1750	1750	1750	1768	1759	1759	1768	1768	1768	1777	1777	1777	1786	1786	1804	1804	1804	0	0	0	0	8767	8767	8550	8343	8343	8343	8343	8343	8146	8343	8343	8343	8343	8343	8343	8146	8146	8146	8146	8146	8146	8146	8146	8146	8146	8146	8343	8343	8343	8343	8343	8343	8343	8343	8343	8343	8343	8343	8343	8343	8343	8343	8343	8343	8343	8343	8343	8343	8343	8343	8343	8343	8343	8343	8343	8343	8146	8343	8343	8343	8343	8343	8343	8343	8343	8343	8343	8343	8343	8343	8146	8146	8343	8146	8343	8343	8343	8343	8550	8343	8343	8343	8146	8146	8146	7959	7959	7959	0	0	3406	3341	3341	3309	3309	3309	3309	3309	3309	3309	3309	3309	3277	3277	3277	3277	3277	3277	3246	3246	3216	3216	3216	3216	3216	3216	3186	3186	3186	3186	3186	3186	3186	3186	3186	3157	3157	3157	3157	3157	3157	3157	3157	3157	3157	3186	3186	3186	3186	3186	3186	3186	3186	3186	3186	3186	3186	3186	3186	3216	3216	3216	3216	3216	3216	3216	3216	3216	3246	3246	3246	3277	3277	3309	3309	3309	3309	3309	3309	3309	3309	3309	3309	3309	3309	3309	3309	3309	3309	3309	0	8343	8343	8550	8343	8343	8343	8343	8343	8343	8343	8343	8343	8146	8343	8146	8146	8146	8146	8146	8146	8146	8146	7959	7959	7959	7959	8146	8343	8343	8343	8343	8343	8343	8343	7959	7959	8146	8146	8146	7959	7959	8146	8146	8146	7959	7959	7959	7959	7959	7959	7959	8146	8146	8146	8146	8343	8146	8146	8146	8146	8146	8146	8146	8146	8146	8146	8146	8146	7959	7959	8146	8146	8146	7959	8146	8146	8146	8146	7959	8146	8146	8146	8146	8146	8146	8146	8146	8146	8146	8146	8146	8146	8146	8146	8146	8146	7959	7959	7959	7959	7959	7959	7959	7959	7959	7959	7959	7959	7959	7959	7959	7959	7959	7959	7959	7959	7959	8146	8146	8146	8146	8146	8146	7959	7959	8146	7959	8146	8146	8146	8146	8146	8146	8146	7959	7959	7959	7959	7959	7959	7959	8146	8146	8146	7959	7959	7959	7959	7959	7959	7959	8146	8146	8343	8343	8343	8343	8343	8146	8146	8146	8146	8343	8343	8343	8343	8343	8343	8343	8146	8146	8146	8146	8146	8343	8343	8343	8343	8343	8343	8343	8343	8343	8343	8146	8146	8343	8343	8343	8343	8146	8146	8146	8146	8343	8343	8343	8343	8343	8343	8343	8343	8343	8343	8343	8146	8146	8146	8146	8146	8146	8146	8146	8343	8343	8343	8343	8343	8146	8146	8146	8146	7959	8146	8146	8146	7959	7959	8146	8146	7959	7959	7779	7959	7959	7959	7959	7959	7959	8146	8146	7959	7779	7779	7608	7608	7779	7779	0	0	0	0	0	0	0	0	0	0	0	0	0	0	0	0	0	0	0	0	0	0	0	0	0	0	0	0	0	0	0	0	0
0	719	719	720	720	720	722	736	736	742	742	742	748	748	758	758	761	763	763	763	765	765	767	768	768	768	775	779	782	788	789	795	795	797	800	802	808	808	810	810	812	814	817	829	831	843	841	841	841	841	843	843	852	856	860	860	862	865	865	869	875	884	887	889	891	894	901	903	910	913	913	917	920	922	922	940	940	942	942	945	950	953	955	963	972	977	980	983	983	985	1006	1003	1008	1008	1011	1020	1026	1030	1039	1045	1048	1052	1052	1058	1058	1071	1085	1088	1091	1091	1098	1102	1102	1109	1113	1116	1116	1116	1116	1116	1116	0	0	0	0	0	0	0	0	0	1732	1741	1768	1777	1768	1777	1768	1768	1768	1759	1759	1759	1759	1759	1750	1741	1759	1768	1768	1768	1768	1768	1768	1759	1768	1768	1768	1759	1768	1768	1777	1768	1759	1768	1768	1768	1777	1777	1786	1795	1795	1804	1804	1804	1804	0	0	0	0	8767	8550	8343	8343	8343	8343	8343	8343	8343	8343	8343	8343	8343	8146	8146	8146	8146	8146	8146	8146	8146	8146	8146	8146	8146	8343	8343	8343	8343	8343	8146	8146	8343	8343	8343	8343	8146	8343	8146	8343	8343	8343	8343	8343	8343	8343	8343	8343	8343	8343	8343	8343	8343	8343	8343	8343	8343	8343	8343	8343	8343	8343	8343	8343	8343	8343	8343	8343	8343	8146	8146	8343	8343	8146	8146	8343	8343	8343	8343	8343	8343	8146	8146	7959	7959	7959	7959	0	0	3406	3309	3309	3309	3277	3277	3309	3309	3309	3309	3309	3309	3309	3277	3277	3277	3277	3277	3246	3246	3216	3216	3216	3216	3216	3186	3186	3186	3186	3186	3186	3186	3186	3186	3186	3157	3157	3157	3157	3157	3157	3157	3157	3157	3157	3186	3186	3186	3186	3186	3186	3186	3186	3186	3186	3186	3186	3186	3186	3186	3186	3186	3216	3216	3216	3216	3246	3246	3246	3246	3277	3309	3277	3309	3309	3309	3309	3309	3309	3309	3309	3309	3309	3309	3309	3309	3309	3309	3309	3309	0	8343	8343	8343	8343	8343	8550	8343	8343	8343	8343	8343	8343	8343	8343	8343	8343	8146	8146	8146	8146	8146	7959	7959	7959	8146	8146	8146	8343	8343	8343	8343	8343	8343	8343	8146	8146	8146	8146	8146	7959	7959	8146	8146	8146	7959	7959	7959	7959	7959	7959	7959	8146	8146	8146	8146	8343	8146	8146	8146	8146	8146	8146	8146	8146	8146	8146	8146	8146	8146	8146	8146	8146	8146	7959	8146	8146	8146	7959	7959	8146	7959	8146	8146	8146	8146	8146	8146	8146	8146	8146	8146	8146	8146	8146	8146	8146	7959	7959	7959	7959	7959	7959	7959	7959	7959	7959	7959	7959	7959	7959	7959	7959	7959	7959	7959	7959	7959	8146	8146	8146	8146	8146	7959	7959	7959	8146	8146	8146	8146	8146	8146	8146	8146	8146	7959	7959	7959	7959	7959	7959	7959	8146	8146	7959	7959	7959	7959	7959	7959	7959	7959	8146	8343	8343	8343	8343	8343	8343	8343	8146	8343	8343	8343	8343	8343	8343	8343	8343	8343	8146	8146	8146	8146	8146	8343	8146	8146	8146	8343	8343	8146	8146	8146	8146	8146	8146	8146	8146	8146	8146	8146	8146	8343	8343	8343	8343	8550	8550	8550	8343	8343	8343	8343	8343	8343	8146	8146	8146	8146	8146	8146	8146	8343	8343	8343	8343	8343	8343	8146	8146	8146	8146	7959	8146	8146	8146	8146	8146	8146	8146	7959	7959	7959	7959	7959	7959	7959	7959	8146	8146	8146	7959	7959	7779	7608	7608	7608	7608	0	0	0	0	0	0	0	0	0	0	0	0	0	0	0	0	0	0	0	0	0	0	0	0	0	0	0	0	0	0	0	0	0
0	720	720	720	728	728	736	736	739	740	742	745	748	748	755	755	755	763	763	763	765	767	767	768	768	768	779	780	782	788	791	793	793	797	800	806	808	810	810	810	812	814	815	829	831	843	841	843	841	841	843	843	845	858	860	862	862	865	867	869	875	884	887	889	891	894	901	903	905	910	913	920	922	922	922	937	940	942	942	945	950	953	958	963	972	977	980	983	983	985	991	1003	1008	1008	1017	1020	1023	1030	1042	1048	1052	1055	1055	1058	1061	1071	1085	1085	1088	1091	1095	1098	1102	1105	1113	1113	1113	1113	1113	1116	1116	0	0	0	0	0	0	0	0	0	0	0	1768	1786	1777	1777	1777	1768	1768	1768	1768	1768	1768	1750	1750	1741	1750	1768	1768	1777	1777	1777	1777	1777	1777	1768	1768	1768	1768	1777	1777	1768	1768	1777	1777	1777	1777	1777	1786	1795	1795	1804	1804	1804	1804	1804	0	0	0	0	8550	8343	8343	8343	8343	8343	8343	8343	8343	8343	8343	8343	8146	8146	8146	8146	8146	8146	8146	8146	8146	8146	8146	8146	8146	8146	8146	8146	8146	8146	8146	8146	8343	8146	8146	8146	8146	8146	8146	8343	8343	8343	8343	8343	8343	8343	8343	8343	8343	8343	8343	8343	8343	8343	8343	8343	8343	8343	8343	8343	8343	8343	8343	8343	8343	8343	8343	8343	8343	8343	8343	8343	8343	8343	8343	8343	8343	8343	8343	8343	8146	8146	8146	7959	7779	7779	0	0	0	3309	3309	3277	3277	3309	3309	3309	3309	3309	3309	3309	3309	3277	3277	3277	3277	3277	3246	3246	3216	3216	3216	3216	3216	3186	3186	3186	3186	3186	3186	3186	3157	3157	3157	3157	3157	3157	3157	3157	3157	3157	3157	3157	3157	3157	3186	3186	3186	3186	3186	3186	3186	3186	3186	3186	3186	3186	3186	3186	3216	3216	3186	3216	3216	3216	3216	3246	3246	3246	3277	3309	3277	3277	3309	3309	3309	3309	3309	3309	3309	3309	3309	3309	3309	3309	3309	3309	3309	3309	0	8343	8343	8343	8343	8343	8550	8550	8343	8343	8343	8343	8343	8343	8343	8343	8343	8146	8146	8146	7959	7959	7959	7959	7959	7959	8146	8146	8343	8343	8343	8343	8343	8343	8343	8146	8146	8146	8146	8146	7959	7959	8146	8146	7959	7959	7959	7959	7959	7959	7959	7959	8146	8146	8146	8146	8343	8146	8146	8146	8146	8146	8146	8146	8146	8146	8146	8146	8146	8146	8146	8146	8146	8146	8146	8146	8146	8146	8146	8146	7959	7959	7959	7959	8146	8146	8146	8146	8146	8146	8146	8146	8146	8146	8146	8146	8146	7959	7959	7959	7959	7959	7959	7959	7959	7959	7959	7959	7959	7959	7959	7959	7959	7959	8146	7959	8146	8146	8146	8146	8146	8146	8146	7959	7959	7959	8146	8146	8146	8146	8146	8146	8146	8146	8146	7959	7959	7959	7959	7959	7959	7959	8146	8146	7959	7959	7959	7959	7959	7959	7959	7959	7959	8146	8343	8343	8343	8343	8343	8343	8146	8146	8146	8343	8343	8343	8343	8343	8343	8343	8343	8146	8146	8146	8146	8343	8146	8146	8146	8343	8146	8146	8146	8146	8146	8146	8146	8146	8146	8146	8146	8146	8146	8146	8146	8343	8343	8343	8343	8343	8343	8343	8343	8343	8343	8343	8146	8146	8146	8146	8146	8146	8146	8146	8343	8343	8343	8343	8146	8146	8146	8146	8146	7959	8146	8146	8146	8146	8146	8146	8146	7959	7959	7959	7959	7959	7959	7959	7959	8146	8146	8146	7959	7959	7779	7779	7779	7779	7779	0	0	0	0	0	0	0	0	0	0	0	0	0	0	0	0	0	0	0	0	0	0	0	0	0	0	0	0	0	0	0	0	0
0	720	722	722	728	728	737	737	740	742	743	745	748	752	753	755	755	756	763	765	765	767	767	768	768	770	779	780	782	784	791	793	795	795	800	800	808	810	810	812	814	815	815	817	831	843	843	843	843	841	843	843	845	858	860	860	862	865	869	869	878	882	884	889	891	896	901	901	905	910	913	920	922	922	922	927	942	942	945	948	953	953	961	963	972	977	980	983	985	988	994	997	1008	1008	1017	1023	1026	1030	1045	1052	1055	1055	1055	1058	1058	1064	1081	1085	1085	1091	1091	1098	1105	1105	1113	1116	1113	1113	1113	1116	1116	0	0	0	0	0	0	0	0	0	0	0	0	1786	1777	1777	1777	1777	1777	1777	1777	1777	1777	1750	1750	1750	1777	1777	1777	1786	1777	1786	1786	1786	1786	1777	1777	1777	1786	1795	1786	1777	1786	1777	1777	1777	1777	1786	1786	1804	1804	1814	1814	1814	1824	1824	0	0	0	0	0	8343	8146	8343	8343	8343	8343	8343	8343	8343	8343	8343	8343	8146	8146	8146	8146	8146	8146	8146	8146	8146	8146	8146	8146	8146	8146	8146	8343	8146	8146	8343	8343	8343	8146	8146	8343	8146	8146	8343	8343	8343	8343	8343	8343	8343	8343	8343	8343	8343	8343	8343	8343	8343	8343	8343	8343	8343	8343	8343	8343	8343	8343	8343	8343	8343	8343	8343	8343	8343	8343	8343	8146	8343	8146	8343	8343	8343	8343	8343	8343	8343	8343	7959	7779	7779	0	0	0	3309	3277	3277	3277	3277	3277	3277	3277	3309	3309	3309	3309	3277	3277	3277	3277	3246	3246	3216	3216	3216	3186	3186	3186	3186	3186	3186	3186	3186	3186	3186	3157	3157	3157	3157	3157	3157	3157	3157	3157	3157	3157	3157	3157	3157	3186	3186	3186	3186	3186	3186	3186	3186	3186	3186	3186	3186	3186	3186	3186	3216	3186	3216	3216	3216	3246	3246	3246	3246	3277	3309	3309	3309	3309	3341	3341	3341	3309	3309	3309	3309	3309	3277	3277	3309	3309	3277	3277	3309	0	8550	8343	8343	8550	8550	8550	8550	8343	8343	8343	8343	8343	8343	8343	8343	8343	7959	8146	7959	7959	7959	7959	7959	7959	7959	7959	8146	8146	8146	8343	8343	8343	8343	8343	8146	8146	8146	8146	8146	7959	7959	8146	7959	7959	7959	7959	7959	7959	7959	7959	8146	8146	8146	8146	8146	8343	8146	8146	8146	8146	8146	8146	8146	8146	8146	8146	8146	8146	8146	8146	8146	8146	8146	8146	8146	8146	8146	8146	7959	7959	7959	7959	7959	7959	8146	8146	8146	8146	8146	8146	8146	8146	8146	8146	8146	8146	8146	7959	7959	7959	7959	7959	7959	7959	7959	7959	7959	7959	7959	7959	7959	7959	7959	8146	8146	8146	8146	8146	8146	8146	8146	8146	7959	7959	7959	8146	8146	8146	8146	8146	8146	8146	8146	8146	7959	7959	7959	7959	7959	7959	7959	7959	7959	7959	7959	7959	7959	7959	7959	7959	7959	8146	8343	8343	8343	8343	8343	8343	8343	8146	8343	8146	8146	8343	8343	8343	8343	8343	8343	8343	8146	8146	8146	8146	8343	8146	8343	8146	8146	8146	8146	8146	8146	8146	8146	8146	8146	8146	8146	8146	8146	8146	8343	8343	8343	8343	8343	8343	8343	8343	8343	8343	8343	8343	8146	8146	8146	8146	8146	8343	8343	8146	8146	8343	8343	8343	8343	8146	8146	8146	8146	8146	8146	8146	8146	8146	8146	8146	8146	8146	7959	7959	7959	7959	7959	7959	7779	7779	7959	7959	7959	7959	7779	7779	7779	7608	7608	7608	0	0	0	0	0	0	0	0	0	0	0	0	0	0	0	0	0	0	0	0	0	0	0	0	0	0	0	0	0	0	0	0	0
0	720	723	725	729	731	736	737	740	742	745	745	748	752	753	755	758	758	763	765	765	767	767	768	768	770	779	780	782	784	786	793	795	795	798	798	806	808	810	812	814	815	817	819	831	833	841	843	843	841	843	845	845	850	858	860	862	865	867	869	878	882	887	889	891	894	898	901	903	910	913	920	922	922	922	925	940	942	948	950	955	958	961	966	972	974	980	983	991	991	994	997	1000	1008	1020	1026	1030	1030	1039	1045	1052	1052	1055	1058	1058	1064	1081	1085	1088	1091	1095	1102	1105	1109	1113	1116	1116	1113	1113	1116	1116	0	0	0	0	0	0	0	0	0	0	0	0	0	1804	1786	1786	1786	1786	1786	1786	1786	1777	1777	1759	1759	1777	1777	1786	1786	1786	1786	1786	1786	1786	1777	1777	1777	1795	1804	1795	1795	1795	1795	1786	1786	1786	1786	1795	1804	1804	1814	1814	1824	1824	1824	0	0	0	0	0	8343	8343	8343	8343	8343	8343	8343	8343	8343	8343	8343	8343	8343	8146	8146	8146	8146	8146	8146	8146	8146	8146	8146	8146	8146	8146	8146	8146	8146	8146	8343	8343	8146	8146	8146	8343	8343	8146	8343	8343	8343	8343	8343	8343	8343	8343	8343	8343	8343	8343	8343	8343	8343	8343	8343	8343	8343	8343	8343	8343	8343	8343	8343	8343	8343	8343	8343	8343	8343	8343	8343	8343	8343	8146	8343	8343	8343	8343	8343	8343	8343	8343	8146	8146	7779	0	3309	3277	3277	3277	3277	3277	3277	3277	3277	3277	3277	3309	3309	3277	3277	3277	3277	3277	3246	3246	3216	3216	3186	3186	3186	3186	3186	3186	3186	3186	3186	3186	3186	3157	3157	3157	3157	3157	3157	3157	3157	3157	3129	3129	3129	3129	3157	3157	3186	3186	3186	3186	3186	3186	3186	3186	3186	3186	3186	3186	3186	3186	3186	3186	3216	3216	3216	3246	3246	3246	3246	3277	3309	3309	3309	3309	3309	3341	3341	3309	3309	3309	3309	3309	3277	3309	3309	3309	3277	3277	0	0	8550	8343	8343	8343	8343	8343	8343	8343	8343	8343	8343	8343	8343	8343	8343	8343	7959	8146	8146	8146	8146	7959	7959	7959	7959	8146	8146	8146	8343	8343	8343	8343	8343	8343	8146	8146	8146	7959	7959	7959	7959	8146	8146	8146	7959	7959	7959	7959	7959	7959	8146	8146	8146	8146	8146	8146	8146	8146	8146	8146	8146	8146	8146	8146	8146	8146	8343	8343	8146	8146	8146	8146	8146	8146	8146	8146	8146	8146	8146	7959	7959	7959	7959	8146	8146	8146	8146	8146	8146	8146	8146	8146	8146	8146	8146	8146	8146	8146	8146	8146	7959	7959	7959	7959	7959	7959	7959	7959	7959	7959	7959	7959	7959	8146	8146	8146	8146	8146	8146	8146	8146	7959	7959	7959	7959	8146	8146	8146	8146	8146	8146	8146	8146	8146	7959	7959	7959	7959	7959	7959	7959	7959	8146	7959	7959	7959	7959	7959	7959	7959	7959	7959	8343	8343	8343	8343	8343	8343	8343	8146	8343	8146	8343	8343	8343	8343	8343	8343	8343	8343	8343	8343	8343	8343	8343	8343	8343	8146	8146	8146	8146	8146	8146	8146	8146	8146	8146	8146	8146	8146	8146	8146	8343	8146	8343	8343	8343	8343	8343	8343	8343	8146	8146	8146	8146	8146	7959	7959	8146	8343	8146	8146	8146	8146	8343	8343	8146	8343	8343	8343	8343	8146	8146	8146	8146	8146	8146	8146	8146	8146	8146	7959	7959	7959	7959	7959	7779	7779	7779	7779	7959	7779	7608	7608	7608	7608	7779	7779	0	0	0	0	0	0	0	0	0	0	0	0	0	0	0	0	0	0	0	0	0	0	0	0	0	0	0	0	0	0	0	0	0
0	720	725	725	729	729	737	739	740	743	745	745	747	750	753	753	756	760	763	763	765	767	767	768	768	772	779	782	784	786	788	793	793	795	797	797	798	808	812	814	815	815	817	819	831	833	841	843	843	841	841	843	845	856	858	860	862	865	869	869	878	882	887	889	891	894	898	901	903	908	913	917	922	922	925	925	945	945	950	953	955	958	961	963	966	974	980	980	983	991	994	997	1000	1017	1017	1026	1030	1033	1036	1042	1045	1052	1052	1052	1055	1064	1078	1085	1088	1088	1095	1098	1102	1105	1113	1116	1116	1116	1113	1116	1116	1116	0	0	0	0	0	0	0	0	0	0	0	0	1804	1804	1795	1786	1786	1786	1777	1777	1786	1786	1759	1759	1786	1786	1786	1786	1786	1786	1786	1786	1786	1786	1786	1786	1814	1814	1804	1804	1804	1795	1795	1795	1786	1786	1795	1814	1814	1824	1824	1824	1824	1824	0	0	0	0	0	7959	8146	8146	8343	8343	8343	8343	8343	8343	8343	8343	8343	8343	8343	8146	8146	8146	8146	8146	8146	8146	8146	8146	8146	8146	8146	8146	8146	8146	8146	8146	8146	8146	8146	8146	8343	8343	8146	8343	8343	8343	8343	8343	8343	8343	8343	8343	8343	8343	8343	8343	8343	8343	8343	8343	8343	8343	8343	8343	8343	8343	8343	8146	8343	8146	8343	8343	8343	8343	8343	8343	8343	8343	8146	8146	8146	8343	8343	8343	8343	8343	8343	8343	8146	0	3309	3309	3277	3277	3277	3277	3246	3277	3277	3277	3277	3277	3309	3309	3309	3277	3309	3277	3277	3246	3246	3216	3216	3186	3186	3186	3186	3186	3186	3186	3186	3186	3186	3186	3157	3157	3157	3157	3157	3157	3157	3157	3157	3129	3129	3129	3129	3129	3157	3186	3186	3186	3186	3186	3186	3186	3186	3186	3186	3186	3186	3186	3186	3186	3186	3216	3216	3216	3246	3216	3246	3246	3246	3277	3277	3309	3309	3309	3309	3309	3309	3309	3309	3309	3277	3277	3309	3309	3309	3309	3309	0	0	8550	8343	8343	8343	8343	8343	8343	8343	8343	8343	8343	8343	8343	8343	8343	8343	8146	8146	8146	8146	8146	8146	7959	7959	8146	8146	8146	8343	8343	8343	8343	8343	8343	8343	8146	8146	8146	7959	7959	7959	8146	8146	8146	8146	7959	8146	7959	7959	7959	8146	7959	8146	8146	8146	8146	8343	8146	8146	8146	8146	8146	8146	8146	8146	8146	8146	8146	8343	8146	8146	8146	8146	8146	8146	8146	8146	8146	8146	8146	7959	7959	7959	7959	8146	8146	8146	8146	8146	8146	8146	8146	8146	8146	8146	8146	8146	8146	8146	8146	7959	7959	7959	7959	7959	7959	7959	7959	7959	8146	7959	7959	8146	8146	8146	8146	8146	8146	8146	8146	8146	7959	7959	7959	7959	8146	8146	8146	8146	8146	8146	8146	8146	7959	7959	7959	7959	7959	7959	7959	7959	7959	8146	8146	8146	8146	7959	7959	7959	7959	7959	8146	8146	8343	8343	8343	8343	8343	8343	8343	8343	8343	8343	8343	8343	8343	8343	8343	8343	8343	8343	8343	8343	8343	8343	8343	8343	8343	8146	8146	8146	8146	8146	8146	8146	8146	8146	8146	8146	8146	8146	8343	8343	8146	8146	8146	8146	8146	8146	8146	8146	8343	8146	8146	8146	8146	8146	7959	7959	8146	8146	8146	8146	8146	8146	8146	8343	8343	8343	8343	8343	8343	8146	8146	8146	8146	8146	8146	8146	8146	8146	8146	7959	7959	7959	7959	7959	7779	7779	7779	7779	7959	7779	7608	7608	7608	7608	7608	7608	0	0	0	0	0	0	0	0	0	0	0	0	0	0	0	0	0	0	0	0	0	0	0	0	0	0	0	0	0	0	0	0	0
0	720	725	725	729	729	734	736	740	743	743	745	747	748	752	753	756	760	763	765	765	767	767	768	768	773	780	782	784	786	788	791	793	795	795	797	800	806	810	814	815	817	819	819	831	831	833	841	841	841	841	843	843	848	858	862	862	865	869	869	878	882	887	889	891	894	898	901	903	910	913	915	920	922	925	925	945	945	950	950	953	955	955	963	966	966	980	983	983	985	991	997	1003	1011	1017	1026	1030	1030	1036	1042	1042	1052	1048	1052	1055	1068	1078	1081	1088	1088	1095	1098	1102	1105	1113	1116	1116	1116	1113	1116	1116	1116	0	0	0	0	0	0	0	0	0	0	0	1814	1814	1814	1804	1804	1814	1814	1804	1804	1795	1795	1786	1786	1786	1786	1786	1786	1786	1786	1777	1786	1786	1786	1777	1804	1804	1804	1814	1814	1814	1814	1814	1814	1795	1795	1814	1824	1824	1824	1824	1824	1824	1824	0	0	0	0	0	8146	8146	8146	8343	8343	8343	8343	8343	8343	8343	8343	8343	8343	8343	8146	8146	8146	8146	8146	8146	8146	8146	8146	8146	8146	8146	8146	8146	8146	8146	8146	8146	8146	8146	8146	8146	8146	8146	8343	8343	8343	8343	8343	8343	8343	8343	8343	8343	8343	8343	8343	8343	8343	8343	8343	8343	8343	8550	8343	8343	8343	8343	8343	8343	8343	8343	8343	8343	8343	8343	8343	8146	8146	8146	8146	8343	8146	8343	8146	8343	8146	8343	8343	0	0	3341	3309	3277	3277	3277	3277	3246	3277	3277	3277	3277	3277	3277	3309	3309	3309	3309	3309	3277	3246	3246	3216	3216	3186	3186	3186	3186	3186	3186	3186	3186	3186	3186	3186	3157	3157	3157	3157	3157	3157	3157	3157	3129	3129	3129	3129	3129	3129	3186	3186	3186	3186	3186	3186	3186	3186	3186	3186	3186	3186	3186	3186	3186	3216	3186	3216	3216	3216	3246	3216	3246	3246	3246	3277	3277	3309	3309	3309	3309	3309	3309	3309	3309	3309	3277	3277	3277	3277	3277	3277	3277	0	0	8550	8343	8343	8343	8343	8343	8343	8146	8343	8343	8343	8343	8343	8343	7959	8146	7959	8146	8146	8146	8146	8146	7959	8146	8146	8146	8146	8146	8146	8146	8343	8343	8343	8146	8146	8146	8146	8146	8146	8146	8146	8146	8146	8343	8146	8146	8146	8146	8146	8146	7959	8146	7959	7959	7959	8343	8146	8146	8146	8146	8146	8146	8146	8146	8146	8146	8146	8343	8146	8146	8146	8146	8146	8146	8146	8146	7959	8146	8146	7959	7959	7959	7959	7959	7959	7959	8146	8146	8146	8146	8146	8146	8146	8146	8146	8146	8146	8146	8146	8146	8146	7959	7959	7959	7959	7959	7959	8146	8146	8146	8146	8146	8146	8146	8146	7959	8146	8146	8146	8146	7959	7959	7959	7959	8146	8146	8146	8343	8146	8146	8146	7959	7959	7959	7959	7959	7959	8146	8146	7959	8146	8146	8146	8146	8146	7959	7959	7959	7959	7959	7959	7959	8343	8343	8343	8343	8343	8343	8343	8343	8343	8343	8343	8343	8343	8343	8343	8343	8343	8343	8343	8343	8343	8343	8343	8343	8146	8146	8146	8146	8146	8146	8146	8146	8146	8146	8146	8146	8146	8146	8343	8343	8146	7959	8146	8146	8146	8146	8146	8146	8146	8146	8146	7959	8146	8146	8146	8146	8146	8146	8146	8146	8146	8146	8343	8343	8343	8343	8343	8343	8343	8146	8146	8146	8146	8146	8146	8146	8146	8146	7959	7959	7959	7959	7959	7959	7779	7779	7779	7779	7779	7779	7608	7608	7608	7444	7287	7287	0	0	0	0	0	0	0	0	0	0	0	0	0	0	0	0	0	0	0	0	0	0	0	0	0	0	0	0	0	0	0	0	0
0	725	725	726	729	729	736	736	739	743	745	745	747	748	750	752	755	760	761	763	765	765	768	772	772	773	782	784	784	786	788	789	791	793	795	795	795	810	812	815	815	817	817	819	831	831	833	835	843	841	843	845	848	850	858	862	865	865	869	880	880	884	887	891	894	894	898	901	903	905	910	915	917	922	930	935	935	945	945	950	953	955	963	966	974	980	983	983	985	988	991	997	1003	1008	1011	1020	1026	1030	1033	1039	1042	1052	1052	1055	1055	1058	1074	1081	1088	1088	1095	1098	1102	1105	1113	1116	1116	1113	1113	1113	1116	0	0	0	0	0	0	0	0	0	0	0	0	1814	1824	1814	1814	1814	1814	1814	1814	1814	1804	1804	1804	1804	1795	1786	1786	1777	1777	1777	1786	1777	1777	1777	1777	1768	1777	1786	1814	1814	1824	1824	1824	1824	1824	1824	1824	1824	1824	1824	1824	1824	1824	1824	0	0	0	8146	8146	8146	8146	8146	8343	8343	8343	8343	8343	8343	8343	8343	8343	8146	8146	8146	8146	8146	8146	8146	8146	8146	8146	8146	8146	8146	8146	8146	8146	8146	8146	8146	8146	8146	8146	8146	8146	8146	8146	8343	8343	8343	8343	8343	8343	8343	8343	8343	8343	8343	8343	8343	8343	8343	8343	8343	8343	8550	8550	8550	8550	8343	8343	8343	8343	8343	8343	8343	8343	8343	8343	8343	8343	8146	8343	8146	8146	8146	8146	8146	8343	8343	8343	8343	8343	0	3341	3309	3277	3277	3277	3246	3246	3246	3246	3277	3277	3277	3277	3309	3309	3309	3309	3309	3277	3277	3246	3216	3216	3186	3186	3186	3186	3186	3186	3186	3186	3186	3186	3157	3157	3157	3157	3157	3157	3157	3157	3157	3129	3129	3129	3129	3129	3129	3157	3186	3186	3186	3186	3186	3186	3186	3216	3186	3216	3186	3186	3186	3186	3216	3216	3216	3216	3216	3246	3246	3246	3246	3246	3277	3309	3309	3309	3309	3309	3309	3309	3309	3309	3309	3309	3277	3277	3277	3277	3277	3277	0	0	8767	8343	8343	8343	8343	8146	8343	8146	8343	8343	8343	8343	8343	8146	8146	8146	8146	8146	7959	8146	8146	8146	8146	8146	8146	8343	8146	8343	8343	8343	8343	8343	8343	8146	8146	8146	8146	8146	8146	8146	8146	8343	8146	8343	8146	8343	8146	8146	8146	8146	8146	8146	7959	8146	8146	8343	8343	8146	8146	8146	8146	8146	8146	8146	8146	8146	8343	8343	8343	8343	8146	8146	8146	8146	8146	8146	8146	8146	8146	7959	7959	7959	7959	7959	7959	7959	7959	8146	8146	8146	8146	8146	8146	8146	8146	8146	8146	8146	8146	7959	8146	7959	7959	7959	7959	7959	7959	7959	7959	7959	7959	8146	8146	8146	8146	7959	8146	8146	8146	8146	7959	7959	7959	7959	8146	8146	8146	8146	8146	7959	7959	7959	7959	7959	7959	7959	7959	8146	8146	8146	8146	8146	8146	8146	8146	8146	8146	8146	8146	8146	8146	8146	8343	8343	8343	8343	8343	8343	8343	8343	8146	8146	8146	8343	8146	8343	8343	8343	8343	8343	8343	8343	8343	8343	8343	8343	8146	8146	8146	8146	8146	8146	8343	8343	8343	8343	8146	8146	8146	8146	8146	8146	8146	7959	8146	8146	8146	8343	8146	8146	8146	8146	8146	8146	8146	8146	8146	8146	8146	8146	8146	8146	8146	8146	8343	8343	8343	8343	8343	8343	8343	8146	8146	8146	8146	8146	8146	8146	8146	8146	8146	7959	7959	7959	7959	7959	7959	7779	7779	7779	7779	7779	7608	7608	7608	7444	7287	7287	0	0	0	0	0	0	0	0	0	0	0	0	0	0	0	0	0	0	0	0	0	0	0	0	0	0	0	0	0	0	0	0	0
0	720	725	726	729	729	734	734	734	745	745	745	747	748	752	753	756	760	761	763	765	765	768	770	772	773	780	782	782	786	788	791	793	795	795	795	795	812	814	815	815	817	819	821	829	831	831	833	845	843	843	845	850	850	858	862	865	865	869	880	884	884	887	891	891	894	898	901	903	905	908	913	915	927	932	935	942	942	948	950	953	955	961	963	966	980	983	985	985	991	994	997	1003	1006	1008	1017	1026	1030	1030	1036	1039	1052	1052	1055	1055	1064	1068	1081	1088	1091	1098	1102	1105	1105	1113	1116	1116	1113	1113	1113	0	0	0	0	0	0	0	0	0	0	0	0	0	0	1814	1814	1795	1804	1814	1814	1814	1814	1814	1814	1804	1804	1795	1795	1786	1786	1777	1777	1777	1777	1777	1768	1759	1768	1777	1786	1786	1824	1833	1833	1824	1824	1833	1833	1843	1843	1833	1833	1833	1824	0	0	0	0	8146	8146	8146	8146	8343	8146	8343	8343	8343	8343	8343	8343	8343	8343	8343	8146	8146	8146	8146	8146	8146	8146	8146	8146	8146	8146	8146	8146	8146	8146	8146	8146	8146	8146	8146	8146	8146	8146	8146	8146	8146	8343	8343	8343	8343	8343	8343	8343	8343	8343	8343	8343	8343	8343	8343	8343	8343	8343	8343	8343	8343	8550	8343	8343	8343	8343	8343	8343	8343	8343	8343	8343	8343	8343	8146	8343	8146	8146	8146	8146	8146	8146	8146	8146	8146	8146	3406	3373	3341	3309	3277	3277	3277	3277	3246	3246	3277	3277	3277	3277	3277	3277	3309	3309	3309	3277	3277	3277	3246	3216	3216	3216	3186	3186	3186	3186	3186	3186	3186	3186	3186	3157	3157	3157	3157	3157	3157	3157	3157	3157	3157	3129	3129	3129	3129	3129	3157	3186	3186	3186	3186	3216	3216	3216	3216	3216	3216	3186	3186	3186	3216	3216	3216	3216	3216	3246	3246	3246	3246	3246	3277	3277	3309	3309	3309	3309	3309	3309	3309	3309	3309	3309	3309	3277	3277	3277	3277	3246	3246	0	0	8550	8343	8343	8146	8343	8146	8343	8146	8343	8343	8343	8343	8343	8343	8146	8146	8146	7959	7959	8146	8146	8146	8146	8146	8146	8343	8146	8343	8343	8146	8343	8343	8343	8146	8146	8146	8146	8146	8146	8146	8146	8146	8146	8146	8146	8343	8343	8146	8146	8146	8146	8146	8146	8146	8146	8343	8343	8343	8146	8146	8146	8146	8146	8146	8146	8146	8343	8343	8343	8343	8343	8343	8146	8146	8146	8146	8146	8146	8146	8146	7959	7959	7959	7959	7959	7959	7959	7959	7959	7959	8146	8146	8146	8146	8146	8146	7959	7959	8146	7959	7959	7959	7959	7959	7959	7959	7959	7959	7959	7959	7959	8146	8146	8146	8146	7959	8146	8146	8146	8146	7959	7959	7959	7959	8146	8146	8146	8146	8146	7959	7959	7959	7959	7959	7959	7959	8146	8146	8146	8146	8146	8146	8146	8146	8146	8146	8146	8146	8146	8146	8146	8146	8343	8343	8343	8343	8343	8343	8343	8343	8146	8146	8146	8146	8146	8146	8146	8146	8146	8146	8146	8343	8343	8343	8343	8343	8343	8146	8146	8146	8146	8343	8343	8343	8343	8343	8343	8343	8146	8146	8146	8146	8146	7959	8146	8146	8146	8343	8146	8146	8146	8146	8146	8146	8146	8146	8146	8146	8146	8146	8146	8146	8146	8146	8146	8343	8343	8343	8343	8343	8343	8146	8146	8146	8146	8146	8146	8146	8146	8146	8146	7959	7959	7959	7959	7959	7959	7779	7779	7608	7608	7608	7608	7444	7608	7444	7287	7287	0	0	0	0	0	0	0	0	0	0	0	0	0	0	0	0	0	0	0	0	0	0	0	0	0	0	0	0	0	0	0	0	0
0	720	723	725	728	731	734	734	736	739	743	745	747	748	750	753	755	758	760	761	763	763	767	768	770	770	779	780	782	784	788	793	793	793	795	795	795	814	814	815	815	817	817	823	829	831	831	833	841	835	841	848	852	854	856	862	865	865	869	869	880	880	887	891	894	896	901	901	903	905	908	913	915	915	937	940	942	942	948	950	953	955	961	963	972	980	983	985	985	991	994	997	1000	1006	1008	1011	1023	1030	1033	1039	1042	1052	1055	1055	1055	1061	1068	1068	1091	1095	1102	1102	1105	1109	1113	1113	1113	1113	1113	1113	0	0	0	0	0	0	0	0	0	0	0	0	0	0	1814	1814	1814	1814	1814	1814	1814	1814	1814	1814	1804	1804	1795	1795	1786	1786	1777	1777	1777	1777	1777	1768	1759	1759	1759	1833	1833	1833	1833	1833	1833	1824	1843	1843	1853	1853	1843	1843	8767	0	0	0	0	8146	8146	8146	8146	8343	8343	8146	8343	8343	8343	8343	8343	8343	8343	8343	8343	8146	8146	8146	8146	8146	8146	8146	8146	8146	8146	8146	8146	8146	8146	8146	8146	8146	8146	8146	8146	8146	8146	8146	8146	8146	8146	8343	8343	8343	8343	8343	8343	8343	8343	8343	8343	8343	8343	8343	8343	8343	8343	8343	8343	8343	8343	8343	8343	8343	8343	8343	8343	8343	8343	8343	8343	8343	8343	8343	8146	8146	7959	7959	8146	8146	8146	8146	8146	8146	7959	8146	8146	3373	3341	3341	3309	3309	3277	3277	3277	3277	3277	3277	3277	3277	3277	3277	3277	3277	3277	3277	3277	3246	3246	3216	3216	3186	3186	3186	3186	3186	3186	3186	3186	3186	3186	3157	3157	3157	3157	3157	3157	3157	3157	3157	3157	3157	3129	3129	3129	3157	3157	3186	3186	3186	3186	3186	3216	3216	3216	3216	3216	3186	3186	3186	3216	3216	3216	3216	3216	3246	3246	3246	3246	3246	3277	3277	3309	3309	3309	3309	3309	3309	3309	3309	3309	3309	3277	3277	3277	3277	3246	3246	3246	0	0	8550	8343	8343	8146	8343	8146	8146	8146	8343	8343	8343	8343	8343	8146	8146	8146	8146	8146	8146	8146	8146	8146	8343	8146	8146	8146	8146	8146	8146	8146	8146	8146	8343	8146	8146	8146	8146	8146	8146	8146	8146	8343	8146	8343	8343	8343	8343	8146	8146	8146	8146	8146	8146	8146	8146	8343	8343	8343	8146	8146	8146	8146	8146	8146	8146	8146	8146	8343	8343	8343	8343	8146	8146	8146	8146	8146	8146	8146	8146	8146	7959	7959	7959	7959	7959	7959	7959	7959	7959	7959	8146	7959	8146	8146	8146	8146	7959	8146	8146	7959	7959	7959	7959	7959	7959	7959	7959	7959	7959	7959	7959	8146	8146	8146	8146	8146	8146	8146	8146	7959	7959	7959	7959	7959	7959	8146	8146	8146	8146	7959	7959	7959	7959	7959	7959	7959	8146	8146	8146	8146	8146	8146	8146	8146	8146	8146	8146	8146	8146	8146	8146	8146	8343	8343	8343	8343	8343	8343	8146	7959	8146	8146	8146	8146	8146	8343	8343	8343	8343	8343	8343	8343	8343	8343	8343	8343	8343	8146	8343	8146	8343	8343	8343	8343	8550	8550	8343	8343	8343	8146	8146	8146	8146	8146	7959	8146	8146	8343	8146	8146	8146	8146	8146	7959	8146	8146	8146	8146	8146	8146	8146	8146	8146	8343	8146	8343	8343	8343	8343	8343	8146	8146	8146	8146	8146	8146	8146	8146	8146	8146	8146	7959	7959	7959	7959	7959	7959	7779	7779	7779	7608	7608	7444	7608	7608	7444	7444	7444	0	0	0	0	0	0	0	0	0	0	0	0	0	0	0	0	0	0	0	0	0	0	0	0	0	0	0	0	0	0	0	0	0
0	722	725	725	728	732	734	736	736	736	739	745	745	748	750	752	753	755	758	761	761	761	765	767	768	768	779	780	782	786	793	793	795	795	797	797	797	814	814	815	815	817	819	823	827	829	829	831	833	835	839	843	852	852	856	865	865	865	867	869	880	884	889	891	894	894	898	901	901	905	908	913	913	913	940	940	942	942	948	950	950	955	961	963	969	974	983	983	985	991	997	1000	1006	1008	1008	1011	1020	1030	1033	1042	1048	1055	1055	1055	1058	1061	1068	1071	1091	1098	1102	1102	1109	1109	1113	1116	1116	1116	1116	1116	0	0	0	0	0	0	0	0	0	0	0	0	0	0	0	0	1804	1824	1824	1814	1824	1824	1814	1814	1804	1804	1795	1795	1786	1786	1777	1777	1777	1777	1768	1768	1768	1768	1768	1833	1833	1833	1833	1833	1833	0	1843	1843	8767	1853	1843	1843	8550	8343	8343	8343	0	8146	8146	8146	8146	8146	8146	8146	8146	8343	8343	8343	8343	8146	8343	8343	8146	8146	8146	8146	8146	8146	8146	8146	8146	8146	8146	8146	8146	8146	8146	8146	8146	8146	8146	8146	8146	8146	8146	8146	8146	8146	8146	8343	8343	8343	8343	8343	8343	8343	8343	8343	8343	8343	8343	8343	8343	8343	8343	8343	8343	8343	8343	8343	8343	8343	8343	8343	8343	8343	8343	8343	8343	8343	8343	8146	8146	8146	7959	7959	7959	8146	8146	7959	7959	7959	7959	7959	8146	3373	3341	3341	3309	3309	3277	3277	3277	3277	3277	3277	3277	3277	3277	3277	3277	3277	3277	3277	3246	3246	3216	3216	3186	3186	3186	3186	3186	3186	3186	3186	3186	3186	3157	3157	3157	3157	3157	3157	3157	3157	3157	3157	3157	3157	3129	3157	3157	3157	3186	3186	3186	3186	3186	3186	3216	3216	3216	3186	3186	3186	3186	3186	3216	3216	3216	3216	3246	3246	3246	3246	3246	3246	3277	3277	3277	3309	3309	3309	3309	3309	3309	3309	3309	3309	3277	3277	3277	3277	3246	3246	3246	0	8343	8343	8343	8343	8146	8146	8146	8146	8146	8343	8343	8343	8343	8343	8146	8146	8146	8146	8146	8146	8343	8343	8343	8343	8343	8146	8343	8146	8146	8146	8146	8146	8146	8146	8146	8146	8146	8146	8146	8146	8146	8146	8343	8146	8343	8343	8343	8343	8146	8146	8146	8146	8146	8146	8146	8146	8343	8343	8146	8146	8146	8146	8146	8146	8146	8146	8146	8146	8146	8146	8146	8146	8146	8146	8146	8146	8146	8146	8146	8146	8146	8146	8146	8146	7959	7959	7959	7959	7959	7959	7959	8146	7959	8146	7959	8146	8146	7959	7959	8146	7959	7959	7959	7959	7959	7959	7959	7959	7959	7959	7959	7959	8146	8146	8146	8146	8146	8146	7959	7959	7959	7959	7959	7959	7959	8146	8146	8146	8146	7959	7959	7959	7959	7959	7959	7959	7959	8146	8146	8146	8146	8146	8146	8146	8146	8146	8146	8146	8146	8146	8146	8146	8146	8343	8343	8343	8343	8343	8343	8146	8146	8146	8146	8146	8146	8146	8343	8343	8343	8343	8146	8343	8343	8343	8343	8343	8343	8343	8343	8343	8146	8343	8343	8343	8343	8343	8550	8343	8343	8343	8146	8146	8146	7959	7959	7959	8146	8146	8146	8146	8146	8146	8146	8146	7959	8146	8146	8146	8146	8146	8146	8146	8146	8146	8146	8146	8146	8343	8343	8343	8343	8146	8146	8146	8146	8146	8146	7959	7959	7959	8146	8146	8146	8146	8146	8146	8146	7959	7779	7608	7608	7608	7608	7608	7608	7608	7608	7608	7608	0	0	0	0	0	0	0	0	0	0	0	0	0	0	0	0	0	0	0	0	0	0	0	0	0	0	0	0	0	0	0	0	0
0	723	723	725	728	729	732	734	734	736	740	743	745	748	750	752	753	755	758	760	761	761	763	767	768	767	773	782	784	788	791	793	795	795	797	798	798	810	812	812	814	817	819	821	821	827	829	831	833	835	839	841	852	852	856	865	865	865	867	867	878	889	891	894	896	896	898	898	901	903	903	910	910	910	940	940	942	942	948	950	953	958	961	966	969	972	980	983	985	994	997	1000	1003	1006	1008	1011	1017	1026	1030	1042	1048	1052	1055	1055	1058	1061	1064	1071	1071	1098	1105	1105	1109	1113	1116	1116	1116	1116	1116	1116	0	0	0	0	0	0	0	0	0	0	0	0	0	0	0	1804	1804	1814	1814	1814	1814	1814	1814	1814	1814	1804	1804	1786	1786	1786	1777	1777	1777	1777	1777	1768	1768	1795	1795	1795	0	0	0	0	0	0	0	8767	8767	8767	8767	8550	8343	8343	8343	8343	8343	8146	8146	8146	8146	8146	8146	8146	8146	8343	8343	8343	8146	8146	8343	8343	8146	8146	8146	8146	8146	8146	8146	8146	8146	8146	8146	8146	8146	8146	8146	8146	8146	8146	8146	8146	8146	8146	8146	8146	8146	8146	8146	8343	8343	8343	8343	8343	8343	8343	8343	8343	8343	8343	8343	8343	8343	8343	8343	8343	8343	8343	8343	8343	8343	8343	8343	8343	8146	8146	8343	8343	8343	8146	8343	8146	8146	7959	7959	7959	7959	8146	8146	7959	8146	7959	8146	8146	0	0	3341	3341	3309	3309	3277	3277	3277	3277	3277	3277	3277	3277	3277	3277	3277	3277	3277	3277	3246	3216	3216	3186	3186	3186	3186	3186	3186	3186	3186	3186	3186	3157	3157	3157	3157	3157	3157	3157	3157	3157	3157	3157	3157	3157	3157	3157	3157	3157	3186	3186	3186	3186	3186	3186	3216	3216	3216	3186	3216	3186	3186	3186	3186	3216	3216	3216	3216	3246	3246	3246	3246	3246	3246	3277	3309	3309	3309	3341	3341	3309	3309	3309	3309	3309	3309	3277	3277	3277	3277	3277	0	0	8343	8343	8343	8343	8146	8146	8146	8146	8146	8343	8343	8343	8146	8343	8146	8146	8146	8146	8343	8343	8343	8343	8343	8343	8343	8146	8146	8146	8146	8146	8146	8146	8146	8146	8146	7959	8146	8146	8146	8146	8146	8146	8343	8146	8343	8343	8343	8343	8146	8146	8146	8146	8146	8146	8146	8146	8343	8343	8146	8146	8146	8146	8146	8146	8146	8146	8146	8146	8146	8146	8146	8146	8146	8146	8146	8146	8146	8146	8146	8146	8146	8146	8146	8146	8146	7959	7959	7959	7959	8146	7959	8146	7959	8146	7959	8146	7959	7959	7959	7959	7959	7959	7959	7959	7959	7959	7959	7959	7959	7959	7959	7959	8146	8146	8146	8146	8146	8146	7959	7959	7959	7959	7959	7959	7959	8146	8146	7959	7959	7959	7959	7959	7959	7959	7959	7959	7959	8146	8146	8146	8146	8146	8146	8146	8146	8146	8146	8146	8146	8146	8146	8146	8146	8343	8343	8343	8343	8343	8343	8146	8146	8146	8146	8146	8146	8146	8146	8343	8343	8343	8343	8343	8343	8343	8343	8343	8343	8343	8343	8343	8146	8343	8343	8343	8343	8343	8550	8343	8343	8343	8146	8146	8146	7959	7959	8146	8146	8146	8146	8146	8146	8146	8146	8146	8146	8146	8146	8146	8146	8146	8146	8146	8146	8146	8146	8146	8343	8343	8343	8343	8343	8146	8146	7959	7959	8146	8146	8146	8146	8146	8146	8146	8146	8146	8146	7959	7959	7959	7779	7608	7608	7608	7608	7608	7608	7608	7608	7608	7608	0	0	0	0	0	0	0	0	0	0	0	0	0	0	0	0	0	0	0	0	0	0	0	0	0	0	0	0	0	0	0	0	0
0	723	725	726	728	731	732	732	734	734	736	742	745	750	750	752	753	753	756	760	761	761	763	767	767	767	768	782	786	788	789	793	793	797	798	798	800	810	812	812	814	815	819	821	825	831	831	831	833	835	841	845	850	852	854	865	865	867	867	867	875	889	891	894	896	898	898	901	901	903	908	913	913	913	935	937	942	942	948	953	955	958	961	966	969	972	980	983	988	994	997	1000	1003	1006	1008	1008	1017	1026	1033	1045	1048	1052	1052	1055	1061	1064	1068	1071	1071	1098	1105	1109	1109	1113	1116	1116	1116	1116	1116	1123	1123	0	0	0	0	0	0	0	0	0	0	0	0	0	1795	1795	1795	1795	1795	1795	1795	1795	1795	1804	1804	1804	1804	1795	1786	1786	1777	1777	1777	1777	1777	1768	1768	1795	1795	1795	1795	0	0	0	0	0	0	8767	8767	8767	8767	8550	8550	8343	8343	8343	8343	8146	8146	8146	8146	8146	8146	8146	8146	8343	8343	8146	8146	8146	8146	8146	8146	8146	8146	8146	8146	8146	8146	8146	8146	8146	8146	8146	8146	8146	8146	8146	8146	7959	7959	7959	8146	8146	8146	8146	8146	8146	8146	8146	8343	8343	8343	8343	8343	8343	8343	8146	8146	8343	8146	8343	8146	8146	8146	8343	8146	8343	8343	8343	8343	8343	8343	8343	8343	8343	8343	8343	8146	8146	8146	8146	8146	8146	8146	7959	8146	8146	8146	7959	7959	7959	7959	7959	0	0	0	0	3309	3341	3277	3277	3277	3277	3277	3277	3277	3277	3277	3277	3277	3277	3277	3246	3246	3216	3216	3186	3186	3186	3186	3186	3186	3186	3186	3186	3186	3157	3157	3157	3157	3157	3157	3157	3157	3157	3157	3157	3157	3157	3157	3157	3157	3157	3186	3186	3186	3186	3186	3186	3186	3216	3186	3216	3216	3216	3186	3186	3216	3216	3216	3216	3216	3216	3246	3246	3246	3277	3277	3277	3309	3309	3309	3309	3309	3309	3309	3309	3309	3309	3309	3277	3277	3277	3277	3277	0	8550	8343	8343	8343	8343	8146	8146	8146	8146	8146	8146	8146	8146	8146	8146	8146	8146	8146	8146	8146	8146	8343	8343	8343	8343	8343	8146	8146	8146	8146	8146	8146	8146	8146	8146	8146	8146	8146	8146	8146	8343	8146	8343	8343	8343	8343	8343	8343	8343	8146	8146	8146	8146	8146	8146	8146	8146	8343	8343	8146	8146	8146	8146	8146	8146	8146	8146	8146	8146	8146	8146	8146	8146	8146	8146	8146	8146	8146	8146	8146	8146	8146	8146	8146	8146	7959	7959	7959	7959	7959	8146	7959	8146	8146	8146	7959	7959	7959	7959	7959	7959	7959	7959	7959	7959	7959	7959	7959	7959	7959	7959	8146	8146	8146	8146	8146	8146	8146	8146	7959	7959	7959	7959	7959	7959	7959	8146	8146	7959	7959	7959	7959	7959	7959	7959	7959	8146	8146	8146	8146	8146	8146	8146	8146	8146	8146	8146	8146	8343	8146	8146	8146	8146	8146	8343	8343	8343	8343	8343	8343	8146	8146	8146	8146	8146	8146	8146	8146	8343	8343	8343	8343	8343	8343	8343	8343	8343	8343	8343	8343	8343	8343	8343	8343	8343	8343	8343	8343	8343	8343	8146	8146	8146	8146	7959	8146	8146	8146	8146	8343	8146	8343	8146	8146	8343	8146	8146	8146	8146	8146	8146	8146	8146	8146	8146	8146	8146	8146	8146	8343	8146	8146	8146	8146	8146	7959	7959	8146	8146	8146	8146	8146	8146	8146	8146	8146	7959	7959	7959	7779	7779	7779	7608	7608	7779	7779	7779	7779	7608	7608	0	0	0	0	0	0	0	0	0	0	0	0	0	0	0	0	0	0	0	0	0	0	0	0	0	0	0	0	0	0	0	0	0
0	723	725	726	728	729	731	732	732	734	737	737	745	748	750	752	753	755	756	760	760	761	763	763	767	767	768	768	786	788	789	791	793	795	798	800	802	808	810	810	812	817	819	821	825	829	829	831	833	841	841	848	852	852	854	865	865	867	867	867	871	878	891	891	896	898	898	898	901	901	905	915	915	930	932	935	937	942	942	953	958	961	961	963	969	969	977	985	991	994	997	1000	1000	1006	1006	1014	1017	1026	1030	1045	1048	1052	1055	1055	1058	1064	1068	1071	1071	1102	1109	1109	1113	1113	1113	1113	1116	1113	1116	1116	1123	0	0	0	0	0	0	0	0	0	0	0	0	0	1786	1786	1786	1786	1786	1786	1795	1795	1804	1804	1804	1804	1804	1786	1786	1786	1777	1786	1786	1786	1786	1786	1786	1795	1795	1795	1795	0	0	0	0	0	0	0	8767	8550	8550	8550	8343	8343	8343	8343	8343	8146	8146	8146	8146	8146	8146	8146	8146	8343	8343	8146	8146	8146	8146	8146	8146	8146	8146	8146	8146	8146	8146	8146	8146	8146	8146	8146	8146	8146	8146	8146	8146	8146	7959	7959	8146	8146	8146	8146	8146	8146	8146	8343	8343	8343	8343	8343	8343	8343	8343	8146	8146	8343	8146	8146	8146	8146	8146	8146	8146	8343	8146	8343	8146	8146	8146	8146	8146	8343	8343	8343	8343	8343	8343	8343	8146	8146	8146	8146	8146	8146	8146	8146	7959	7959	7959	7959	0	0	0	0	0	3309	3309	3277	3277	3277	3277	3277	3277	3277	3277	3277	3277	3246	3246	3216	3216	3216	3186	3186	3186	3186	3186	3186	3186	3186	3186	3186	3186	3157	3157	3157	3157	3157	3157	3157	3157	3157	3157	3157	3157	3157	3157	3157	3157	3157	3186	3186	3186	3186	3186	3186	3186	3186	3186	3186	3186	3186	3186	3186	3186	3216	3216	3216	3216	3216	3277	3277	3277	3277	3309	3309	3309	3309	3309	3309	3309	3309	3309	3309	3309	3309	3309	3277	3277	3277	3277	0	0	8343	8146	8343	8343	8343	8146	8146	8146	8146	8146	8146	8146	8146	8146	8146	8146	8146	8146	8146	8146	8343	8343	8343	8343	8343	8343	8146	8146	8146	8146	8146	8146	8146	8146	8146	8146	8146	8146	8146	8146	8146	8146	8146	8146	8146	8343	8343	8343	8146	8146	8146	8146	8146	8146	8146	8146	8146	8343	8343	8146	8146	8146	8146	8146	8146	8146	8146	8146	8146	8146	8146	8146	8343	8343	8146	8146	8146	8146	8146	8146	8146	8146	8146	8146	8146	8146	8146	7959	7959	8146	8146	7959	8146	8146	8146	7959	8146	7959	7959	7959	7959	7959	7959	7959	7959	7959	7959	7959	7959	7959	7959	7959	7959	7959	7959	7959	8146	8146	8146	7959	7959	7959	7959	7959	7959	7959	7959	7959	7959	7959	7959	7959	7959	8146	8146	8146	8146	8146	8146	8146	8146	8146	8146	8146	8146	8146	8146	8146	8343	8343	8343	8146	8146	8146	8146	8343	8343	8343	8343	8343	8146	8146	8146	8146	8146	8146	8146	7959	8146	8343	8146	8343	8343	8146	8343	8343	8343	8343	8343	8343	8343	8146	8343	8343	8343	8343	8343	8343	8343	8343	8146	8146	8146	8146	8146	8146	8146	8146	8146	8343	8146	8146	8146	8146	8343	8146	8146	8146	8146	8146	8146	8146	8146	8146	8146	8146	8146	8146	8146	8146	8146	8146	8146	8146	7959	7959	7959	7959	8146	7959	8146	8146	8146	8146	8146	7959	7959	7779	7959	7779	7779	7779	7779	7779	7779	7779	7779	7779	7608	7608	0	0	0	0	0	0	0	0	0	0	0	0	0	0	0	0	0	0	0	0	0	0	0	0	0	0	0	0	0	0	0	0	0
0	0	725	726	728	729	732	732	732	734	734	736	747	747	750	752	753	755	755	760	761	761	763	765	767	767	768	775	786	788	789	791	793	797	798	800	800	804	808	810	810	817	819	821	825	829	829	829	833	837	841	845	850	852	850	865	867	869	869	869	873	882	889	894	896	898	896	898	898	901	913	920	925	927	930	932	942	942	948	953	953	961	963	966	969	969	974	985	991	994	997	997	1000	1006	1006	1017	1020	1026	1033	1045	1048	1048	1052	1055	1061	1068	1071	1071	1085	1085	1102	1109	1113	1113	1116	1116	1116	1113	1113	1120	1120	0	0	0	0	0	0	0	0	0	0	0	0	1786	1786	1795	1795	1795	1795	1795	1795	1795	1795	1804	1814	1804	1804	1795	1786	1786	1786	1786	1786	1786	1786	1786	1795	1795	1795	1795	0	0	0	0	0	0	0	0	8550	8550	8550	8550	8343	8343	8343	8343	8343	8146	8146	8146	8146	8146	8146	8146	8146	8343	8343	8146	8146	8146	8146	8146	8146	8146	8146	8146	8146	8146	8146	8146	8146	8146	8146	8146	8146	7959	8146	8146	8146	8146	8146	8146	8146	8146	8146	8146	8146	8146	8146	8343	8343	8343	8343	8343	8343	8343	8146	8146	8146	8343	8146	8146	8146	8146	8146	8146	8146	8343	8343	8343	8146	8146	8146	8146	8343	8343	8343	8343	8343	8343	8343	8343	8146	8146	8146	8146	8146	8146	8146	8146	7959	7959	7959	7959	0	0	0	0	0	3309	3277	3277	3277	3277	3277	3277	3277	3277	3277	3277	3277	3246	3216	3216	3216	3186	3186	3186	3186	3186	3186	3186	3186	3186	3186	3186	3186	3157	3157	3157	3157	3157	3157	3157	3157	3157	3157	3157	3157	3157	3157	3157	3157	3157	3186	3186	3186	3186	3186	3186	3186	3186	3186	3186	3186	3186	3186	3186	3186	3216	3216	3216	3216	3216	3277	3277	3277	3277	3309	3277	3309	3309	3309	3309	3309	3309	3309	3309	3309	3309	3309	3277	3277	3277	3277	0	0	8146	8146	8146	8146	8146	8146	8146	8146	8146	8146	8343	8146	8146	8146	8146	8146	8146	8146	8146	8146	8343	8343	8343	8343	8343	8343	8146	8146	7959	7959	7959	8146	8146	7959	8146	8146	7959	7959	7959	7959	8146	8146	8146	8146	8146	8343	8146	8146	8146	8146	8146	8146	8146	8146	8146	8146	8146	8343	8146	8146	8146	8146	8146	8146	8146	8146	8146	8146	8146	8146	8146	8146	8146	8146	8146	8146	8146	8146	8146	8146	8146	8146	8146	8146	8146	8146	8146	8146	8146	8146	8146	8146	8146	8146	8146	8146	7959	7959	7959	7959	7959	7959	7959	7959	7959	7959	7959	7959	7959	7959	7959	7959	7959	7959	7959	7959	8146	8146	8146	7959	7959	7959	7959	7959	7959	7959	7959	7959	7959	7959	7959	7959	7959	8146	8146	8146	8146	8146	8146	8146	8146	8146	8146	8146	8146	8343	8146	8343	8343	8146	8146	8146	8146	8146	8343	8343	8343	8343	8343	8343	8146	8146	8146	8146	8146	8146	8146	8146	8146	8146	8146	8146	8146	8146	8146	8343	8146	8146	8343	8343	8343	8343	8343	8343	8343	8343	8343	8343	8343	8343	8343	8146	8146	8146	7959	7959	8146	8146	8146	8343	8343	8343	8343	8146	8146	8146	8146	8146	8146	8146	8146	8146	8146	8146	8146	8146	8146	8146	8146	8146	8146	8146	8146	8146	7959	7959	7959	7779	7959	7959	7959	8146	8146	8146	8146	7959	7959	7779	7959	7779	7959	7959	7959	7959	7959	7959	7779	7608	7608	7608	0	0	0	0	0	0	0	0	0	0	0	0	0	0	0	0	0	0	0	0	0	0	0	0	0	0	0	0	0	0	0	0	0
0	0	725	726	728	728	732	732	734	734	734	736	750	752	752	753	753	755	755	758	761	763	765	765	767	767	768	768	786	788	789	789	791	795	798	798	800	802	808	810	812	817	819	821	825	831	833	833	835	839	841	845	848	850	852	860	865	867	869	869	869	884	889	894	896	898	896	896	898	901	915	922	922	927	930	932	932	940	945	950	953	961	961	966	969	969	974	980	980	994	997	1000	1003	1008	1011	1014	1020	1023	1033	1045	1048	1048	1052	1055	1064	1068	1071	1074	1085	1091	1098	1109	1109	1113	1113	1113	1113	1113	1116	1116	1116	0	0	0	0	0	0	0	0	0	0	0	0	1786	1786	1795	1795	1795	1804	1795	1795	1795	1804	1804	1804	1804	1786	1786	1786	1786	1786	1786	1786	1786	1786	1786	1795	1804	1804	1804	0	0	0	0	0	0	0	8550	8550	8343	8550	8343	8343	8343	8343	8343	8146	8146	8146	8146	8146	8146	8146	8146	8146	8146	8343	8343	8146	8146	8146	8146	8146	8146	8146	8146	8146	8146	8146	8146	8146	8146	8146	8146	8146	8146	8146	8146	8146	8146	8146	8146	8146	8146	8146	8146	8146	7959	8146	8343	8343	8343	8343	8343	8343	8146	8146	8146	8343	8343	8146	8146	8146	8146	8146	8146	8146	8146	8146	8343	8146	8146	8146	8146	8343	8343	8343	8343	8343	8343	8343	8343	8343	8343	8146	8146	8146	8146	8146	8146	7959	7959	7959	7959	7959	0	0	0	0	3277	3277	3277	3277	3277	3277	3277	3277	3277	3277	3277	3277	3246	3246	3216	3216	3186	3186	3186	3186	3186	3186	3186	3186	3186	3186	3186	3186	3157	3157	3157	3157	3157	3157	3157	3157	3157	3129	3157	3129	3129	3157	3157	3157	3157	3186	3186	3186	3186	3186	3157	3186	3186	3186	3186	3186	3186	3186	3186	3186	3186	3216	3216	3216	3216	3277	3277	3277	3277	3277	3277	3277	3309	3309	3309	3309	3309	3309	3309	3277	3277	3277	3277	3277	3277	3277	0	0	8146	8146	8146	8146	8343	8146	8146	8146	8343	8146	8343	8146	8146	8146	8146	8146	8146	8146	8343	8343	8343	8343	8343	8343	8343	8343	8146	7959	7959	7959	8146	8146	8146	7959	8146	7959	7959	7959	7959	7959	7959	7959	8146	8146	8146	8146	8146	8146	8146	7959	7959	8146	7959	7959	8146	8146	8146	8146	8146	8146	8146	8146	8146	8146	8146	8146	7959	7959	7959	8146	7959	8146	8146	8146	8146	8146	8146	8146	8146	8146	8146	8146	8146	8146	8146	8146	8146	8146	8146	8146	8146	8146	8146	8146	8146	8146	8146	7959	7959	7959	7959	7959	7959	7959	7959	7959	7959	7959	7959	7959	7959	7959	7959	7959	7959	7959	7959	8146	8146	7959	7959	7959	7959	7959	7959	7959	7959	7959	7959	7959	7959	7959	7959	7959	8146	7959	7959	7959	7959	8146	8146	8146	8146	8146	8146	8146	8146	8146	8146	8146	8343	8343	7959	8146	8343	8343	8343	8343	8343	8343	8343	8146	8146	8146	8146	8146	8146	8146	8146	8146	8146	8146	8146	8146	8146	8343	8343	8146	8343	8343	8343	8343	8343	8343	8343	8343	8343	8343	8343	8343	8343	8343	8343	8146	8146	8146	8146	8146	8146	8343	8343	8343	8146	8343	8146	8146	8146	8146	8146	8146	8146	8146	8146	8146	8146	7959	8146	8146	8146	8146	8146	8146	8146	8146	7959	7959	7959	7959	8146	7959	8146	8146	8146	8146	8146	7959	7779	7779	7779	7779	7959	7959	7959	7959	7959	7779	7779	7779	7608	7608	0	0	0	0	0	0	0	0	0	0	0	0	0	0	0	0	0	0	0	0	0	0	0	0	0	0	0	0	0	0	0	0	0
0	0	725	726	732	732	732	732	734	734	734	734	747	750	752	752	753	755	755	758	761	763	767	767	770	768	772	773	786	788	789	789	791	793	797	798	800	802	808	810	812	817	817	819	827	831	833	833	837	841	843	845	848	850	852	852	865	869	869	869	869	884	889	891	894	896	896	896	901	903	903	917	922	925	930	930	937	937	948	950	953	961	963	963	969	972	974	977	977	994	997	1000	1006	1008	1011	1014	1017	1023	1023	1048	1048	1048	1048	1055	1064	1068	1074	1078	1081	1081	1098	1105	1109	1113	1113	1113	1113	1113	1113	1116	1116	0	0	0	0	0	0	0	0	0	6349	6468	6468	1786	1786	1786	1795	1795	1804	1795	1795	1795	1804	1804	1804	1804	1786	7608	1786	1786	1786	1786	1786	1786	7444	0	0	1804	7287	7287	7287	7287	8146	8146	8343	8343	8343	8343	8343	8343	8343	8343	8343	8343	8343	8343	8146	8146	8146	8146	8146	8146	8146	8146	8146	8146	8343	8146	8146	8146	8146	8146	8146	8146	8146	8146	8146	8146	8343	8343	8343	8343	8146	8146	8146	8146	8146	8146	8146	8146	8146	8146	8146	8146	8146	8146	8146	8146	8146	8343	8343	8343	8343	8343	8146	8146	8146	8146	8343	8343	8146	8343	8146	8146	8146	8146	8146	8146	8146	8343	8343	8146	8146	8146	8343	8343	8343	8343	8343	8343	8343	8343	8146	8343	8146	8146	8146	8146	8146	8146	8146	7959	8146	7959	7959	0	0	0	0	3277	3277	3277	3277	3277	3277	3277	3277	3277	3277	3277	3277	3246	3246	3216	3216	3216	3186	3186	3186	3186	3186	3186	3186	3186	3186	3186	3186	3157	3157	3157	3157	3157	3157	3157	3129	3157	3129	3129	3129	3129	3157	3157	3157	3157	3157	3186	3186	3186	3186	3186	3186	3186	3186	3186	3186	3186	3186	3186	3186	3186	3186	3216	3216	3246	3246	3246	3277	3277	3277	3277	3277	3277	3309	3309	3309	3309	3277	3309	3309	3277	3277	3277	3277	3277	3277	0	0	8146	8146	8146	8146	8146	8146	8146	8146	8146	8146	8146	8146	8146	8146	8146	8146	8146	8146	8146	8343	8343	8343	8343	8343	8343	8343	7959	8146	8146	7959	7959	7959	7959	7959	7959	7959	7959	7959	7959	7959	7959	7959	7959	8146	8146	8146	8146	8146	8146	7959	7959	7959	7959	7959	7959	7959	7959	7959	8146	8146	8146	8146	8146	8146	7959	7959	7959	7959	7959	7959	7959	7959	8146	8146	8146	8146	8146	8146	8146	8146	8146	8146	8146	8146	8146	8146	8146	8146	8146	8146	8146	8146	8146	8146	8146	8146	8146	8146	8146	7959	7959	7959	7959	7959	7959	7959	7959	7959	7959	8146	7959	7959	7959	7959	7959	7959	7959	7959	8146	7959	7959	7959	7959	7959	7959	7959	7959	7959	7959	7959	7959	7959	7959	7959	7959	7959	8146	8146	7959	8146	8146	8146	7959	7959	8146	8146	8146	8146	8146	8343	8343	8343	7959	7959	8146	8343	8343	8343	8343	8343	8146	8146	8146	8146	8146	8146	8146	8146	8146	8343	8146	8343	8146	8146	8146	8343	8343	8343	8343	8343	8343	8343	8343	8343	8343	8343	8343	8343	8146	8343	8343	8343	8343	8343	8146	8146	8343	8146	8343	8343	8146	8343	8343	8343	8343	8343	8343	8343	8343	8343	8343	8343	8146	8146	8146	8146	8146	8146	8146	8146	8146	8146	8146	8146	8146	8146	7959	7779	8146	7959	7959	7959	7959	7959	7959	7779	7779	7608	7779	7779	7959	7959	7779	7779	7779	7779	7608	7779	7779	7608	7608	0	0	0	0	0	0	0	0	0	0	0	0	0	0	0	0	0	0	0	0	0	0	0	0	0	0	0	0	0	0	0	0
0	0	0	732	732	732	732	732	732	734	734	734	734	750	752	752	753	756	756	760	763	765	767	768	770	772	773	773	786	788	789	789	791	793	795	797	798	802	810	812	814	817	817	819	823	831	833	835	837	841	843	845	848	850	852	852	865	869	869	869	869	882	884	889	894	896	896	898	903	910	910	920	920	925	930	932	932	940	948	950	953	963	963	963	966	972	972	977	977	991	997	1003	1006	1008	1011	1014	1017	1020	1030	1030	1045	1045	1048	1058	1064	1068	1074	1078	1081	1081	1095	1105	1109	1109	1113	1113	1113	1113	1113	1113	1113	0	0	0	0	0	0	0	0	0	6349	6468	6468	6468	1786	1786	1795	1795	1804	1795	1795	1795	0	0	0	0	0	7608	7608	7444	7608	7608	7608	7444	7444	7444	7444	7444	7287	7287	7287	7287	8146	8146	8343	8343	8343	8343	8343	8343	8343	8343	8343	8343	8343	8343	8343	8146	8146	8146	8146	8343	8146	8146	8146	8146	8146	8146	8146	8146	8146	8146	8146	8146	8146	8146	8146	8343	8343	8343	8343	8343	8146	8146	8146	8146	8146	8146	8146	8146	8146	8146	8146	8146	8146	8146	8146	8146	8146	8343	8343	8343	8343	8146	8146	8146	8146	8146	8343	8146	8146	8146	8146	8146	8146	8146	8146	8343	8146	8343	8343	8343	8343	8343	8343	8343	8343	8343	8343	8343	8343	8146	8146	8343	8343	8146	8146	8343	8343	8146	8146	7959	7959	7959	7959	0	0	0	3277	3277	3277	3277	3277	3277	3277	3277	3277	3277	3277	3277	3277	3246	3216	3216	3216	3216	3186	3186	3186	3186	3186	3186	3186	3186	3186	3186	3157	3157	3157	3157	3157	3157	3157	3157	3157	3129	3129	3129	3129	3129	3129	3129	3129	3129	3157	3186	3186	3186	3186	3186	3186	3186	3157	3186	3157	3186	3157	3186	3186	3186	3186	3216	3216	3246	3246	3246	3246	3277	3277	3277	3277	3309	3309	3309	3309	3277	3277	3277	3277	3277	3277	3277	3277	3309	3309	3309	0	8146	8343	8343	8146	8146	8146	8146	8146	8146	8146	8343	8146	8146	8146	8146	8146	8146	8146	8343	8343	8343	8343	8343	8343	8343	8343	8146	7959	7959	7959	8146	8146	8146	8146	8146	8146	7959	7959	7959	7959	7959	7959	8146	7959	8146	8146	8146	8146	8146	8146	7959	8146	7959	7959	7959	7959	7959	8343	8343	8146	8146	8146	8146	8146	7959	7959	7959	7959	7959	7959	7959	8146	8146	8146	8146	8146	8146	8146	8343	8146	8146	8146	8146	8146	8146	8146	8146	8146	8146	8146	8146	8146	8146	8146	8146	8146	8146	7959	7959	7959	7959	7959	7959	7959	7959	7959	7959	7959	7959	7959	7959	7959	7959	7959	7959	7959	7959	8146	8146	8146	7959	7959	7959	7959	7959	7959	7959	7959	7959	7959	7959	7959	7959	7959	7959	8146	8146	7959	7959	7959	7959	7959	7959	8146	8146	8146	8146	8146	8146	8146	8146	8146	8146	8146	8343	8343	8343	8343	8343	8146	8146	7959	8146	8146	8146	8146	8146	8146	8146	8146	8146	8146	8146	8146	8146	8343	8343	8146	8343	8146	8343	8343	8343	8343	8343	8343	8146	8343	8146	8146	8343	8343	8343	8343	7959	8146	8343	8343	8343	8343	8146	8146	8343	8343	8343	8343	8343	8343	8343	8343	8343	8343	8146	8146	8146	8146	8146	8146	8146	8146	8146	8146	8146	8146	8146	8146	8146	7959	8146	8146	8146	8146	7959	7959	7959	7779	7608	7608	7608	7608	7608	7779	7779	7779	7779	7779	7779	7779	7779	7779	7779	0	0	0	0	0	0	0	0	0	0	0	0	0	0	0	0	0	0	0	0	0	0	0	0	0	0	0	0	0	0	0	0
0	719	719	722	732	732	732	732	732	734	734	734	750	750	752	752	753	760	758	763	765	767	768	768	770	770	772	773	784	789	791	791	791	793	795	797	797	800	810	812	815	817	817	819	829	831	833	835	837	839	843	845	848	850	852	852	865	865	871	871	871	882	887	889	894	896	898	903	908	908	913	920	922	925	930	930	932	948	950	953	953	961	963	963	966	969	977	980	983	983	991	991	1003	1003	1011	1011	1014	1020	1020	1045	1045	1045	1048	1055	1058	1068	1068	1078	1085	1085	1095	1102	1105	1109	1113	1113	1113	1113	1113	1113	1113	0	0	0	0	0	0	0	0	0	6235	6468	6592	6592	6468	6468	6720	1795	1804	1804	1804	6992	7137	7137	0	7444	7444	7444	7444	7444	7444	7444	7444	7444	7444	7444	7287	7444	7287	7287	7287	7287	0	0	8146	8146	8146	8343	8343	8343	8343	8343	8343	8343	8343	8343	8343	8343	8146	8146	8146	8146	8146	8146	8146	8146	8146	8146	8146	8146	8146	8146	8146	8146	8146	8146	8146	8343	8343	8343	8343	8343	8343	8343	8146	8146	8146	8146	8146	8146	8146	8146	8146	8146	8146	8343	8146	8146	8146	8343	8343	8343	8146	8343	8146	8343	8343	8343	8343	8343	8343	8343	8146	8146	8146	8146	8146	8146	8146	8343	8343	8343	8146	8343	8343	8550	8343	8343	8343	8343	8343	8343	8343	8343	8343	8343	8343	8343	8343	8146	8146	8146	7959	7959	7959	0	0	0	3309	3277	3277	3277	3277	3277	3277	3277	3277	3277	3246	3277	3277	3246	3216	3216	3216	3186	3186	3186	3186	3186	3186	3186	3186	3186	3186	3186	3157	3157	3157	3157	3157	3157	3129	3129	3129	3129	3129	3129	3129	3129	3129	3129	3129	3129	3157	3186	3186	3186	3186	3186	3186	3186	3157	3157	3157	3157	3157	3157	3186	3186	3186	3216	3216	3216	3246	3246	3277	3277	3277	3277	3277	3309	3309	3277	3277	3277	3277	3277	3309	3277	3277	3309	3277	3309	3309	3309	0	0	8550	8343	8343	8146	8146	8343	8343	8146	8146	8343	8146	8146	8146	8146	8146	8146	8146	8343	8343	8343	8343	8343	8343	8343	8343	8146	8146	8146	8146	8146	8146	8146	8146	8146	8146	7959	7959	7959	7959	7959	7959	7959	7959	8146	8146	8146	8146	8146	8146	7959	7959	7959	7959	7959	7959	7959	8146	8146	8146	8146	8146	8146	8146	7959	7959	7959	7959	7959	8146	8146	8146	8146	8146	8146	8146	8146	8343	8343	8343	8343	8146	8146	8146	8146	8146	8146	7959	8146	8146	8146	8146	8146	8146	8146	8146	8146	7959	8146	7959	7959	7959	7959	7959	7959	7959	7959	7959	7959	7959	7959	7959	7959	7959	7959	7959	7959	7959	8146	8146	8146	7959	8146	8146	7959	7779	7779	7959	7959	7959	7959	7959	7959	7959	7959	7959	7779	7779	7959	7959	7959	7959	7959	8146	8146	8146	8146	8146	8146	8146	8146	8146	8146	8146	8343	8343	8343	8343	8343	8146	8146	8146	8146	8146	8146	8146	8146	8146	8146	8146	8146	8146	8146	8146	8146	8146	8146	8146	8146	8146	8343	8343	8146	8343	8343	8146	8146	8343	8343	8343	8343	8343	8343	8343	8146	8146	8146	8146	8343	8343	8343	8343	8343	8343	8343	8343	8343	8343	8343	8343	8343	8343	8343	8343	8343	8146	8146	8146	8146	8146	8146	8146	8146	8146	8146	8146	7959	7779	8146	7959	8146	7959	7959	7959	7959	7779	7779	7608	7779	7779	7608	7779	7779	7779	7779	7779	7779	7779	7779	7608	7608	0	0	0	0	0	0	0	0	0	0	0	0	0	0	0	0	0	0	0	0	0	0	0	0	0	0	0	0	0	0	0	0
0	720	720	722	726	726	732	731	732	734	736	745	747	748	750	752	755	761	760	765	765	767	768	768	772	772	772	773	773	789	789	789	791	793	795	797	797	800	810	814	815	817	817	819	829	833	835	837	839	841	843	845	848	850	852	852	852	867	875	875	880	880	884	891	891	891	898	901	903	908	913	920	920	920	925	930	932	945	950	950	950	955	955	963	966	966	974	980	983	983	991	991	1003	1006	1011	1011	1014	1020	1020	1045	1045	1048	1052	1052	1058	1058	1068	1074	1085	1088	1095	1102	1105	1109	1113	1113	1109	1109	1109	1109	1109	1109	0	0	0	0	0	0	0	0	6235	6468	6592	6592	6468	6592	6720	6720	6853	6720	6853	6992	7137	7287	7444	7444	7444	7444	7444	7287	7287	7444	7444	7444	7444	7444	7287	7444	7444	7287	7287	7444	7444	7608	7608	8146	8146	8343	8343	8343	8343	8343	8343	8343	8146	8146	8146	8146	8146	8146	8146	8146	8146	8146	8146	8146	8146	8146	8146	8146	8146	8146	8146	8146	8146	8146	8146	8146	8343	8343	8343	8343	8343	8146	8146	8146	8146	8146	8146	8146	8146	8146	8146	8146	8146	8343	8146	8146	8146	8343	8343	8343	8146	8146	8343	8343	8343	8343	8343	8146	8343	8343	8146	8146	8146	8146	8146	8146	8146	8146	8146	8146	8146	8146	8343	8343	8343	8343	8343	8343	8343	8343	8550	8343	8343	8343	8343	8343	8343	8343	8146	8146	8146	8146	8146	0	0	3246	3277	3246	3277	3277	3277	3277	3277	3277	3277	3246	3246	3277	3246	3246	3216	3216	3186	3186	3186	3186	3186	3186	3186	3186	3186	3186	3186	3186	3157	3157	3157	3157	3157	3157	3157	3129	3129	3157	3129	3129	3129	3129	3129	3129	3129	3129	3157	3157	3186	3186	3186	3186	3186	3186	3157	3157	3157	3157	3157	3157	3186	3186	3186	3216	3216	3216	3246	3246	3277	3277	3277	3277	3277	3277	3277	3246	3277	3246	3246	3277	3277	3277	3277	3277	3277	3277	3309	3309	0	0	8343	8343	8146	8146	8146	8146	8146	8146	8146	8343	8343	8343	8343	8146	8343	8343	8343	8343	8343	8343	8343	8343	8146	8146	8146	8146	8146	8146	8146	8146	8146	8146	8146	8146	8146	7959	7959	7959	7959	7959	7959	8146	8146	7959	7959	7959	7959	8146	8146	8146	8146	7959	7959	7959	7959	7959	8146	8146	8146	8146	8146	8146	8146	7959	8146	8146	7959	8146	8146	8146	8146	8146	8146	8146	8146	8146	8343	8343	8343	8343	8343	8146	8146	8146	8146	8146	7959	8146	8146	8146	8146	8146	8146	8146	8146	8146	8146	8146	7959	7959	7959	7959	7959	7959	7959	7959	7959	7959	7959	7959	7959	7959	7959	7959	7959	7959	7959	8146	8146	8146	7959	8146	7959	7959	7779	7779	7779	7959	7959	7959	7959	7959	7959	7959	7959	7959	7959	7959	7959	7959	7959	7959	7959	7959	8146	8146	8146	8146	8146	8146	8146	8343	8146	8146	8343	8343	8343	8343	8146	8343	8343	8146	8146	8146	8146	8146	8146	8146	8146	8146	8146	8146	8146	8146	8146	8146	8146	8146	8146	8146	8146	8343	8343	8343	8343	8343	8343	8343	8343	8343	8343	8343	8343	8146	8146	8343	8343	8343	8343	8343	8146	8343	8343	8343	8343	8343	8343	8343	8343	8343	8343	8343	8343	8343	8146	8146	8146	8146	8146	8146	8146	8146	8146	8146	8146	8146	7779	7959	7959	8146	8146	7959	7959	7959	7959	7779	7779	7959	7779	7779	7779	7779	7779	7779	7779	7779	7779	7779	7608	7608	0	0	0	0	0	0	0	0	0	0	0	0	0	0	0	0	0	0	0	0	0	0	0	0	0	0	0	0	0	0	0	0
0	720	725	725	726	726	731	731	732	734	734	734	748	750	752	752	753	760	758	763	765	765	767	767	772	772	772	773	786	789	789	791	791	795	795	798	798	802	808	814	815	817	819	823	829	831	833	835	837	839	841	843	848	850	852	856	856	871	875	875	880	880	884	891	891	896	898	901	903	908	913	917	917	917	925	925	937	942	945	948	950	955	961	963	969	972	974	980	983	983	991	991	1003	1008	1011	1014	1017	1023	1023	1042	1042	1048	1052	1055	1061	1064	1068	1078	1085	1085	1091	1098	1105	1105	1113	1113	1113	1109	1109	1105	1105	1105	0	0	0	0	0	0	0	0	0	6468	6592	6592	6468	6592	6720	6592	6853	6853	6853	6992	7137	7137	7287	7444	7287	7287	7287	7287	7287	7287	7287	7444	7444	7444	7444	7444	7444	7444	7444	7444	7608	7608	7779	7959	8146	8146	8146	8343	8343	8343	8343	8146	8343	8343	8146	8146	8146	8146	8146	8146	8146	8146	8146	8146	8146	8343	8343	8343	8343	8146	8146	8146	8146	8146	8146	8146	8146	8146	8343	8343	8146	8146	8146	8146	8146	8146	8146	8146	8146	8146	8146	8146	8146	8146	8146	8146	8146	8343	8343	8343	8146	8343	8343	8343	8343	8343	8343	8146	8146	8343	8146	8146	8146	7959	8146	7959	7959	8146	8146	8146	8146	8343	8343	8343	8343	8343	8146	8343	8146	8343	8343	8343	8343	8146	8146	8343	8343	8343	8146	8146	8146	8146	8146	0	0	3246	3277	3277	3246	3277	3277	3277	3277	3277	3246	3277	3277	3246	3246	3246	3216	3216	3216	3186	3186	3186	3186	3186	3186	3186	3186	3186	3157	3157	3157	3157	3157	3157	3157	3157	3157	3129	3129	3157	3129	3129	3129	3129	3129	3129	3129	3129	3157	3157	3186	3186	3186	3186	3186	3186	3157	3157	3157	3157	3157	3157	3157	3186	3186	3216	3216	3216	3246	3246	3246	3277	3277	3277	3277	3277	3277	3277	3246	3246	3216	3216	3216	3246	3246	3246	3246	3309	3309	3309	0	0	8343	8343	8343	8146	8146	8146	8146	8146	8343	8343	8343	8343	8343	8343	8343	8343	8343	8343	8343	8146	8146	8146	8146	8146	8146	8146	8146	8146	8146	8146	8146	8146	8146	8146	8146	7959	7959	7959	7959	7959	7959	7959	7959	7959	8146	8146	8146	8146	8146	8146	7959	7959	7959	7959	7959	7959	8146	8146	8146	8146	8146	8146	8146	8146	8146	8146	8146	8146	8146	8146	8146	8146	8146	7959	8146	8146	8146	8146	8343	8343	8343	8146	8146	8146	8146	8146	7959	8146	8146	8146	8146	7959	8146	8146	8146	8146	8146	8146	7959	7959	7959	7959	7959	7959	7959	7959	7959	7959	7959	7959	7959	7959	7959	7959	7959	7959	7959	8146	8146	8146	7959	8146	8146	7959	7959	7779	7779	7959	7959	7959	7959	7959	7959	8146	8146	8146	7959	7779	7959	7959	7959	7959	7959	7959	8146	7959	7959	8146	7959	8146	8146	8146	8146	8146	8343	8343	8146	8146	8146	8146	8146	8146	8146	8146	8146	8146	8146	8146	8343	8146	8146	8146	8146	8146	8146	8146	8146	8146	8343	8343	8146	8146	8146	8146	8146	8146	8146	8343	8146	8343	8343	8343	8343	8146	8343	8343	8146	8343	8343	8343	8343	8343	8343	8343	8343	8343	8343	8343	8343	8343	8343	8343	8343	8343	8343	8146	8146	8146	8146	8146	8146	8146	8146	8146	8146	8146	7959	8146	8146	8146	8146	7959	7959	7959	7959	7779	8146	7959	7779	7779	7779	7779	7779	7779	7779	7608	7608	7779	7608	7608	0	0	0	0	0	0	0	0	0	0	0	0	0	0	0	0	0	0	0	0	0	0	0	0	0	0	0	0	0	0	0	0
0	722	723	725	728	731	731	731	732	732	734	734	734	752	752	753	753	758	758	763	765	765	767	767	772	770	772	773	773	789	789	791	793	795	797	800	800	802	808	814	815	817	819	821	827	829	833	835	837	839	841	843	845	848	848	848	869	869	873	880	878	882	887	891	891	894	896	898	903	908	913	915	917	920	927	937	937	942	945	948	950	955	961	961	969	974	974	980	983	985	991	997	1006	1006	1008	1011	1014	1020	1020	1039	1045	1048	1055	1058	1061	1064	1068	1074	1081	1085	1091	1098	1105	1105	1109	1113	1113	1113	1109	1109	1109	1109	0	0	0	0	0	0	0	0	0	6592	6592	6592	6468	6592	6720	6720	6720	6853	6853	6992	6992	7137	7287	7287	7287	7287	7287	7137	7137	7137	7287	7287	7444	7444	7444	7444	7444	7444	7444	7608	7608	7779	7779	7959	7959	8146	8146	8343	8343	8343	8343	8343	8146	8343	8146	8343	8146	8146	8146	8146	8146	8146	8146	8146	8146	8343	8343	8343	8343	8146	8146	8146	8146	8146	8146	8146	8146	8146	8146	8343	8146	8146	8146	8146	8146	8146	8146	8146	8146	8146	8146	7959	7959	8146	8146	8146	8146	8343	8343	8343	8146	8146	8343	8343	8343	8343	8343	8146	8343	8146	8146	8146	8146	8146	8343	8146	8146	8146	8146	8146	8146	8343	8343	8343	8343	8343	8343	8343	8343	8343	8343	8343	8343	8343	8343	8343	8343	8343	8146	8343	8343	8343	8343	8343	0	3277	3277	3277	3277	3277	3277	3277	3277	3277	3246	3246	3277	3277	3246	3246	3246	3216	3216	3186	3186	3186	3186	3186	3186	3186	3186	3186	3157	3157	3157	3157	3157	3157	3157	3157	3157	3129	3129	3129	3129	3129	3129	3129	3129	3129	3129	3129	3157	3157	3186	3157	3186	3157	3157	3157	3157	3157	3157	3157	3157	3157	3157	3186	3186	3186	3216	3216	3216	3216	3246	3246	3277	3277	3277	3309	3309	3277	3277	3246	3246	3246	3246	3246	3246	3246	3246	3309	3309	3309	0	0	8550	8550	8343	8146	8146	8146	8146	8146	8343	8343	8343	8343	8550	8343	8343	8343	8343	8343	8146	8146	8146	8146	8146	8146	8146	8146	8146	8146	8146	8146	8146	8146	8146	8146	8146	7959	7959	7959	7959	7959	7959	7959	8146	8146	8146	8146	8146	8146	8146	7959	7959	7959	7959	7959	7959	7959	8146	8146	8343	8343	8146	8146	8146	8146	8146	8146	8146	8146	8146	8146	7959	7959	7959	7959	8146	8146	8146	8343	8343	8343	8343	8146	8146	8146	8146	8146	8146	8146	8146	8146	8146	8146	8146	8146	8146	8146	8146	8146	8146	8146	8146	8146	7959	7959	7959	7959	7959	7959	7959	7959	7959	7959	7959	7959	7959	7959	8146	8146	8146	8146	8146	8146	8146	7959	7959	7779	7779	7779	7959	7959	7959	7959	7959	8146	8146	8146	7779	7779	7959	7959	7959	7959	7959	7959	7959	7959	7959	7959	7959	7959	8146	8146	8146	8146	8343	8343	8343	8343	8343	8343	8343	8146	8146	8146	8146	8146	8146	8146	8146	8146	8146	8343	8343	8343	8146	8146	8146	8146	8343	8343	8343	8343	8146	8146	8343	8146	8146	8146	8146	8146	8343	8343	8343	8343	8343	8343	8343	8146	8146	8146	8343	8146	8343	8343	8343	8343	8343	8343	8343	8343	8343	8343	8343	8343	8343	8146	8146	8146	8146	8146	8146	8146	8343	8146	8146	8146	8146	8146	8146	8146	8146	7959	7959	7959	7959	7779	7779	7779	7779	7608	7608	7608	7779	7608	7608	7608	7608	7779	7608	7608	0	0	0	0	0	0	0	0	0	0	0	0	0	0	0	0	0	0	0	0	0	0	0	0	0	0	0	0	0	0	0	0
0	720	722	725	726	729	728	728	731	731	731	731	731	752	752	755	755	760	760	763	765	765	767	768	772	772	772	773	773	788	789	791	793	797	797	800	800	802	806	814	815	817	819	819	825	829	833	835	839	839	841	843	845	850	850	858	862	867	871	873	873	878	884	884	891	894	896	901	903	905	910	917	917	920	925	932	935	940	945	948	950	953	958	961	969	974	977	980	983	988	994	997	997	1006	1008	1011	1014	1014	1026	1033	1042	1045	1052	1055	1061	1061	1068	1074	1081	1085	1088	1098	1102	1105	1113	1113	1113	1113	1113	1109	1109	1109	0	0	0	0	0	0	0	0	6853	6592	6592	6592	6592	6468	6720	6592	6720	6720	6853	6992	6992	7137	7137	7287	7287	7287	7137	7137	7287	7137	7287	7444	7444	7444	7444	7444	7608	7608	7608	7608	7779	7779	7779	7959	8146	8146	8146	8343	8343	8343	8343	8343	8343	8343	8343	8343	8146	8146	8146	8146	8146	8146	8146	8146	8146	8146	8146	8146	8146	8146	8146	8146	8146	8146	8146	8146	8146	8146	8146	8146	8146	8146	8146	8146	8146	8146	8146	8146	8146	8146	8146	7959	7959	8146	8146	8146	8146	8343	8343	8343	8146	8343	8343	8343	8343	8343	8343	8146	8146	8146	8343	8146	8146	8343	8343	8146	8146	8146	8146	8146	8146	8146	8146	8146	8343	8146	8343	8146	8146	8343	8343	8146	8343	8146	8343	8343	8343	8343	8343	8343	8343	8343	8343	8343	3277	3277	3277	3277	3277	3277	3277	3277	3277	3246	3246	3246	3277	3246	3246	3246	3246	3216	3216	3186	3186	3186	3186	3186	3186	3186	3157	3157	3157	3157	3157	3157	3157	3157	3157	3157	3157	3129	3129	3129	3129	3129	3129	3129	3129	3101	3101	3101	3129	3157	3157	3157	3157	3157	3157	3157	3157	3157	3157	3157	3157	3157	3157	3186	3186	3186	3186	3216	3216	3216	3246	3246	3246	3246	3277	3277	3309	3277	3277	3277	3246	3246	3246	3246	3246	3246	3246	3246	3246	3309	0	8550	8550	8550	8343	8146	8146	8146	8146	8343	8343	8343	8343	8550	8550	8550	8343	8343	8343	8343	8146	8146	8146	8146	8146	8146	8146	8146	8146	8146	8146	8146	8146	8146	8146	8146	8146	7959	8146	8146	7959	8146	8146	8146	8146	8146	8146	8146	8146	8146	8146	7959	7959	7959	7959	7959	7959	7959	8146	8146	8343	8343	8343	8343	8146	8146	8146	8146	8146	8146	8146	8146	8146	8146	8146	7959	8146	8146	8146	8343	8343	8343	8146	8146	8146	8146	8146	8146	8146	8146	8146	8146	8146	8146	8146	8146	8146	8146	8146	8146	8146	7959	8146	7959	7959	7959	7959	7959	7959	7959	7959	7959	7959	7959	7959	7959	7959	7959	7959	8146	7959	8146	7959	7959	7959	7959	7959	7959	7779	7959	7959	7959	7959	7959	7959	8146	8146	8146	7779	7779	7779	7959	7959	7959	7959	7959	7959	7959	7959	7959	7779	7779	7959	8146	8146	8146	8146	8146	8343	8146	8343	8343	8343	8146	8146	8146	8146	7959	7959	8146	8146	8146	8146	8343	8343	8343	8146	8146	8146	8343	8343	8343	8343	8343	8343	8146	8343	8146	8146	8146	8146	8146	8343	8343	8343	8343	8343	8343	8343	8343	8343	8343	8343	8343	8343	8343	8343	8343	8343	8343	8343	8343	8343	8343	8343	8343	8146	8146	8146	8146	8146	8146	8146	8146	8146	8146	8146	8146	8146	8146	8146	8146	8146	8146	7959	7959	7959	7779	7779	7608	7608	7608	7608	7608	7779	7779	7779	7779	7608	7608	7608	7608	0	0	0	0	0	0	0	0	0	0	0	0	0	0	0	0	0	0	0	0	0	0	0	0	0	0	0	0	0	0	0	0
