0	726	728	728	728	729	728	726	726	0	0	0	0	0	752	755	756	758	760	763	763	763	765	765	770	773	775	775	786	788	789	791	793	795	797	798	800	800	804	804	814	814	821	823	823	825	829	837	837	839	841	841	843	843	852	865	865	867	871	871	871	875	887	891	894	896	896	901	903	905	913	915	917	920	925	927	930	932	945	945	950	953	955	963	969	974	974	980	983	991	994	997	1000	1003	1008	1011	1026	1030	1033	1036	1039	1045	1048	1055	1058	1061	1064	1068	1068	1081	1081	1095	1105	1109	1116	1116	1113	1116	1116	1113	1113	1113	0	0	0	0	0	0	0	0	0	6720	6592	6592	6720	6720	6720	6720	6853	6853	6992	6992	6992	7137	7137	7287	7444	7608	7444	7444	7444	7444	7287	7444	7287	7444	7608	7608	7779	7959	7959	8146	8146	8146	8146	8146	8146	8343	8343	8343	8343	8343	8343	8343	8343	8146	8343	8343	8146	8146	8146	8146	8146	8146	8146	8146	8146	8146	8146	8146	8146	7959	7959	7959	7959	8146	8146	8146	8146	8146	8146	8146	8146	8146	8146	8146	8146	8146	8146	8146	8146	8146	8146	8146	7959	7959	7779	7779	7779	7959	7779	7779	7959	8343	8343	8343	8343	8146	8343	8343	8146	8146	8146	8146	8146	8343	8146	8343	8343	8146	8146	8146	8146	8146	8146	8146	8146	8146	8146	8146	8146	8343	8343	8343	8343	8343	8343	8343	8343	8343	8146	8343	8343	8343	8343	0	3779	3779	3779	3779	3738	3738	3738	3738	3738	3779	3779	3738	3738	3738	3738	3738	3698	3698	3698	3698	3698	3698	3659	3659	3659	3698	3659	3659	3659	3659	3659	3659	3621	3621	3621	3621	3621	3621	3621	3659	3621	3659	3621	3621	3621	3583	3583	3621	3621	3659	3659	3659	3659	3659	3659	3659	3659	3659	3659	3698	3698	3738	3738	3738	3738	3779	3779	3738	3779	3779	3779	3779	3779	3779	3779	3779	3779	3779	3779	3779	3779	3779	8146	8343	8343	8343	8343	8343	8343	8343	8146	8146	8146	8343	8146	8146	8146	8146	8146	8146	8146	8146	8343	8343	8343	8343	8146	8343	8146	8146	7959	7959	8146	8146	7959	8146	8146	8146	8146	8146	8146	8146	8146	8146	8146	8146	8146	8146	8146	8146	8146	8146	8146	8146	8343	8343	8343	8146	8146	8146	8146	8146	8146	7959	7959	7959	7959	8146	8146	8146	8146	8146	8146	8343	8146	8146	8146	8146	8146	8146	8146	8146	8146	8146	8146	8146	8343	8146	8146	8146	8146	8146	8146	8146	8146	8146	8146	8146	8146	8146	8146	8146	8146	8146	8146	7959	8146	8146	8146	8146	8146	7959	7959	7959	7959	7959	7779	7779	7608	7608	7779	7779	7779	7959	7959	7959	8146	8146	8146	8146	7959	7959	7959	7608	7779	7779	7959	7959	7959	7959	8146	7959	7959	7959	7959	7959	7959	4643	4643	4581	4581	7779	7779	7779	7779	7779	7779	7608	7608	7779	7779	7779	7959	7959	8343	8343	8343	8343	8343	8343	8343	8343	8343	8343	8146	8146	8146	8146	8146	8146	8343	8343	8343	8343	8343	8343	8343	8343	8343	8343	8343	8343	8343	8343	8343	8146	8343	8343	8343	8343	8343	8343	8343	8343	8343	8343	8343	8343	8146	8146	8146	8146	8146	8146	8146	8343	8146	8146	8146	8146	8146	8146	8146	8146	8146	8146	8146	8146	8146	8146	8146	8146	8146	8146	8146	7959	7959	7959	7959	7959	7959	7959	7959	7959	7959	7959	7959	7959	7959	7779	7608	7608	7608	7608	7444	7444	7444	7444	7608	7608	7608	7608	0	0	0	0	0	0	0	0	0	0	0	0	0	0	0	0	0	0	0	0	0	0	0	0	0	0	0	0	0	0	0	0
0	723	726	729	729	729	728	728	728	0	0	0	0	750	750	753	755	758	760	763	763	763	763	767	767	773	773	784	786	786	788	788	791	793	795	798	800	800	808	812	815	817	819	821	823	827	827	835	835	839	841	841	845	845	850	865	867	867	871	871	873	878	882	887	891	894	894	901	903	905	913	917	917	920	925	927	930	932	935	937	950	955	958	963	969	972	974	980	985	991	994	997	997	1000	1008	1020	1026	1030	1033	1036	1039	1045	1048	1055	1058	1061	1064	1064	1068	1068	1085	1098	1105	1109	1116	1116	1116	1116	1116	1113	1113	1113	0	0	0	0	0	0	0	0	0	6592	6592	6592	6592	6853	6853	6853	6992	6992	6992	7137	7137	7137	7444	7287	7444	7444	7444	7444	7444	7444	7287	7444	7287	7287	7444	7608	7608	7959	7959	7959	8146	8146	8146	8146	8146	8146	8343	8343	8343	8343	8343	8343	8343	8146	8146	8343	8343	8343	8146	8146	8146	8343	8343	8343	8343	8146	8146	8146	7959	7959	7959	7779	7779	8146	8146	8146	8146	8146	8146	8146	8146	8146	8146	8146	7959	7959	8146	8146	8146	8146	8146	8146	7959	7959	7959	7959	7959	7959	7959	7959	8146	8146	8146	8343	8343	8343	8343	8343	8146	8146	8146	8146	8146	8343	8146	8343	8343	8146	8146	8146	8146	8146	8146	8146	8146	8146	8146	8146	8343	8343	8343	8343	8343	8343	8343	8343	8343	8343	8343	8343	8343	8343	8343	0	3779	3779	3738	3738	3738	3738	3738	3779	3779	3779	3779	3738	3738	3738	3738	3738	3698	3698	3698	3698	3698	3698	3659	3659	3659	3698	3659	3659	3659	3659	3659	3659	3621	3621	3621	3621	3621	3659	3621	3659	3621	3659	3621	3621	3621	3621	3583	3621	3621	3659	3659	3659	3659	3659	3659	3659	3659	3659	3659	3698	3738	3738	3738	3738	3738	3779	3779	3738	3738	3779	3779	3779	3779	3779	3779	3779	3779	3779	3779	3779	3779	3779	0	8146	8146	8343	8343	8146	8146	8146	8146	8146	8146	8343	8146	8343	8146	8146	8146	8146	8146	8146	8146	8343	8343	8146	8146	8146	8146	8146	7959	8146	8343	8343	8146	8343	8343	8343	8343	8146	8146	8146	8146	8146	8146	8146	8146	7959	7959	7959	7959	8146	8343	8343	8343	8343	8343	8343	8146	8146	8146	8146	8146	8146	7959	7959	7959	8146	8146	8146	8146	8146	8146	8146	8146	7959	7959	8146	8146	8146	8146	8343	8146	8343	8343	8146	8343	8146	8146	8146	8146	7959	8146	8146	8146	8146	8146	4581	4581	4581	4581	7959	7959	8146	8146	7959	7959	7959	8146	8146	8146	8146	8146	7959	7959	7959	7779	4643	4643	4643	7608	7779	7779	7959	7959	7959	8146	4706	4706	4706	4643	4706	4643	4643	4643	7959	7959	7959	7959	8146	8146	7959	7959	7959	7959	7959	4643	4643	4643	4643	4581	4581	4581	4581	7779	7779	7779	7608	7608	4581	4581	4581	4643	4643	4643	4706	4706	4706	4771	4771	8343	8343	8343	8343	8146	8146	8146	8146	8146	8146	8343	8343	8343	8343	8343	8343	8343	8343	8343	8343	8343	8343	8343	8343	8146	8343	8343	8343	8343	8343	8343	8343	8343	8343	8343	8146	8343	8343	8146	8343	8146	8146	8146	8146	8146	8146	8146	8146	8146	8146	8146	8146	8146	8146	8146	8146	8146	8146	8146	8146	8146	8146	8146	8146	8146	8146	7959	7959	7959	7959	7959	7959	7959	7959	7959	7779	7959	7779	7779	7779	7608	7608	7444	7444	7444	7444	7444	7444	7444	7608	7608	7608	0	0	0	0	0	0	0	0	0	0	0	0	0	0	0	0	0	0	0	0	0	0	0	0	0	0	0	0	0	0	0	0
0	722	722	729	729	729	729	729	729	0	0	0	0	752	750	753	755	756	758	761	761	761	761	768	768	779	782	782	784	786	788	791	791	793	795	797	798	798	798	814	815	815	819	821	821	823	827	835	835	839	841	848	845	848	850	856	865	867	871	873	873	880	882	887	889	891	894	901	903	908	913	915	917	920	922	927	930	930	935	942	953	958	961	963	966	972	977	983	985	994	994	997	997	1000	1008	1017	1023	1030	1033	1033	1042	1045	1052	1055	1055	1061	1061	1064	1068	1068	1085	1095	1098	1105	1105	1109	1116	1120	1120	1120	1120	1113	0	0	0	0	0	0	0	0	6592	6592	6592	6720	6853	6992	6853	6992	6992	6992	7137	7137	7287	7287	7444	7444	7444	7444	7608	7444	7444	7444	7444	7444	7444	7444	7608	7779	7779	7959	7959	7959	8146	7959	8146	8146	8146	8146	8146	8146	8146	8146	8343	8146	8343	8146	8343	8343	8343	8343	8343	8146	8343	8343	8343	8343	8343	8146	8146	8146	8146	7959	7959	7779	7779	8146	8146	8146	8146	8146	8146	8146	8146	8146	8146	8146	7959	8146	8146	8146	8146	8146	8146	8146	8146	7959	7959	7959	7959	7959	7779	7959	8146	8146	8343	8343	8343	8343	8343	8343	8343	8343	8146	8343	8343	8343	8146	8343	8343	8146	8146	8146	8146	8146	8146	8146	8146	8146	8146	8146	8343	8343	8343	8343	8343	8343	8343	8343	8343	8343	8343	8343	8343	8343	8343	3698	3698	3779	3738	3738	3738	3738	3738	3738	3738	3738	3738	3738	3738	3738	3738	3738	3738	3698	3698	3698	3698	3698	3659	3659	3659	3659	3659	3659	3659	3659	3659	3659	3621	3621	3621	3621	3621	3621	3621	3659	3621	3659	3621	3621	3621	3621	3621	3621	3621	3621	3659	3659	3659	3659	3659	3659	3659	3659	3698	3698	3738	3738	3738	3738	3738	3779	3779	3779	3738	3779	3779	3779	3779	3779	3779	3779	3779	3779	3779	3779	3821	3821	0	8343	8343	8550	8343	8146	8146	8146	8146	8146	8146	7959	7959	8343	7959	8146	8146	8146	8146	8146	4771	4838	4771	4771	8146	7959	7959	7959	7959	7959	8343	8343	8343	8343	8343	8343	8343	8146	8146	4838	4771	4771	8146	7959	8146	7959	7959	7959	7959	8146	8343	8343	8343	8343	8343	8343	8343	8343	8146	8146	8146	8146	8146	7959	7959	8146	8146	8146	8146	8146	7959	7959	7959	7959	7959	7959	7959	8146	8146	8146	8146	8343	4706	4706	4706	4706	8146	8146	8146	7959	8146	8146	7959	7959	4643	4643	4581	4581	4581	4581	4581	8146	8146	7959	7959	7959	7959	8146	8146	8146	7959	7959	4706	4706	4706	4706	4706	4706	4706	4706	4771	4771	4771	4706	4706	4706	4706	4706	4643	4643	4643	4643	4643	4643	4643	7959	7959	8146	8146	7959	7959	7959	4643	4643	4643	4643	4643	4643	4581	4581	4581	4643	4643	4581	4581	4643	4581	4581	4581	4581	4706	4706	4706	4706	4706	4706	4706	4771	4771	8343	4771	4771	8146	8146	8146	8146	8146	8146	8343	8343	8343	8343	8343	8343	8343	8343	8343	8343	8343	8343	8343	8343	8343	8343	8343	8343	8343	8146	8146	8146	8146	8146	8146	8146	8146	8343	8146	8343	8343	8146	8343	8146	8146	8146	8146	8146	8146	8146	8146	8146	8146	8146	8146	8146	7959	8146	8146	8146	8146	8146	8146	8146	8146	8146	7959	7959	7959	7959	7959	7959	7959	7959	7959	7959	7959	7959	7959	7779	7608	7608	7608	7608	7444	7444	7444	7444	7444	7608	7608	7608	0	0	0	0	0	0	0	0	0	0	0	0	0	0	0	0	0	0	0	0	0	0	0	0	0	0	0	0	0	0	0	0
0	719	719	729	731	729	729	729	729	0	0	0	747	747	748	752	753	756	760	761	763	765	765	765	777	779	780	780	782	784	784	791	791	791	793	795	797	797	797	814	815	815	817	817	817	825	829	837	835	837	839	841	845	848	852	860	867	869	873	873	875	878	882	884	889	894	896	898	903	905	910	915	917	920	922	927	927	930	942	945	953	958	958	963	966	969	974	980	991	994	997	997	997	1000	1008	1017	1020	1030	1033	1033	1042	1048	1052	1055	1058	1061	1061	1061	1068	1074	1091	1091	1098	1105	1113	1116	1116	1120	1123	1120	1120	0	0	0	0	0	0	0	0	0	6592	6468	6468	6720	6853	6992	6992	6992	6992	6992	7137	7137	7137	7287	7287	7444	7444	7444	7608	7608	7608	7444	7444	7608	7608	7608	7608	7608	7779	7959	7959	7959	7959	7959	8146	8146	8146	8146	8146	8146	8146	8343	8343	8146	8343	8343	8343	8343	8343	8343	8343	8146	8146	8343	8343	8343	8146	8146	8146	8146	8146	7959	7959	7959	8146	8146	8146	8146	8343	8343	8343	8343	8146	8146	8146	8146	7959	8146	8146	8146	8146	8146	8146	8146	8146	7959	7959	7959	7959	8146	7959	7959	8146	8146	8343	8343	8343	8343	8343	8343	8343	8343	8146	8343	8146	8146	8146	8343	8343	8343	8146	8146	8146	8146	8146	8146	8146	8343	8146	8343	8343	8343	8343	8343	8343	8343	8343	8343	8343	8343	8343	8343	8343	8343	3698	3698	3698	3698	3698	3738	3738	3738	3738	3738	3738	3738	3738	3738	3738	3738	3738	3738	3738	3698	3698	3698	3698	3698	3659	3659	3659	3659	3659	3659	3659	3659	3659	3659	3621	3621	3621	3621	3621	3621	3621	3621	3621	3621	3621	3621	3621	3583	3621	3621	3621	3659	3659	3659	3659	3659	3659	3659	3659	3659	3659	3698	3738	3738	3738	3738	3738	3779	3779	3779	3738	3738	3779	3779	3738	3779	3779	3779	3779	3779	3779	3779	3779	3779	3779	3779	8343	8550	8343	8343	8343	8146	8146	8343	4838	4838	4838	4838	4838	4771	4771	4771	4771	4771	4771	4771	4771	4771	4771	4771	7959	7959	7959	7959	8146	8343	8343	8550	8343	4771	4771	4838	4838	4771	4771	4706	4706	8146	8146	7959	7959	7959	4771	4771	4706	4771	4771	4838	4771	4771	8343	8550	4838	4838	4771	4771	4706	4706	4838	4771	4771	4838	4838	4771	4771	7959	7779	4706	4643	4643	7959	8146	7959	8146	4706	4771	4771	4706	4706	4706	4771	4706	4771	4706	4706	8146	4706	4643	4643	4643	4643	4581	4581	4581	4643	4643	4706	4706	7959	7959	7959	8146	4706	4706	4706	4706	4706	4706	4706	4706	4706	4706	4706	4706	4771	4771	4771	4706	4706	4706	4706	4706	4643	4643	4643	4643	4643	4643	4643	4643	4581	4581	4581	4581	4581	4643	4643	4643	4643	4643	4643	4581	4581	4643	4643	4643	4643	4643	4581	4643	4643	4643	4643	4643	4706	4706	4706	4706	4706	4706	4706	4771	4771	4771	4838	4838	4838	4838	8146	8146	8146	8146	8146	8146	8343	8146	8343	8343	8343	8343	8343	8343	8146	8343	8343	8146	8146	8146	8343	8343	8146	8146	8146	8146	8146	8343	8343	8343	8146	8343	8343	8343	7959	7959	8343	8343	8146	8146	8146	8146	8146	8146	8146	8146	8146	8146	7959	8146	7959	8146	8146	8146	8146	8146	8146	8146	8146	8146	8146	7959	7959	8146	8146	7959	7959	7959	7959	7779	7959	7779	7779	7779	7608	7608	7608	7608	7608	7444	7444	7608	7608	7608	7608	7608	0	0	0	0	0	0	0	0	0	0	0	0	0	0	0	0	0	0	0	0	0	0	0	0	0	0	0	0	0	0	0	0
0	717	716	716	731	729	729	729	0	0	0	743	747	747	747	750	752	755	755	760	761	763	765	765	777	779	780	780	782	784	784	791	791	791	793	797	798	798	812	812	814	814	815	819	821	825	829	835	833	837	839	841	843	848	852	867	867	869	871	873	875	878	880	887	891	894	896	901	903	908	910	913	915	920	922	927	930	932	945	945	953	958	958	961	963	966	974	988	991	994	997	994	997	1000	1011	1017	1020	1026	1030	1033	1042	1048	1048	1052	1055	1055	1061	1068	1071	1074	1074	1095	1098	1102	1109	1113	1113	1116	1123	1123	1123	0	0	0	0	0	0	0	0	0	6468	6468	6468	6720	6853	6992	6992	6992	6992	6992	7137	7137	7287	7137	7287	7444	7444	7444	7608	7608	7608	7608	7608	7608	7608	7608	7608	7779	7779	7959	8146	7959	7959	7959	8146	8146	8146	8146	8146	8146	8343	8343	8343	8146	8343	8343	8343	8343	8343	8343	8146	8146	8146	8343	8146	8146	8146	8146	8146	8146	7959	8146	8146	8146	8146	8343	8343	8343	8343	8343	8343	8343	8146	8146	8146	7959	7959	8146	8146	8146	8146	8146	8146	8146	8146	8146	7959	7959	7959	7959	7959	7959	8146	8146	8343	8343	8343	8343	8343	8343	8343	8343	8146	8343	8146	8146	8146	8343	8146	8343	8343	8146	8146	8146	8146	8146	8146	8343	8146	8343	8343	8343	8343	8343	8343	8343	8343	8343	8343	8343	8343	8343	8343	8343	3698	3698	3698	3698	3738	3738	3738	3738	3738	3738	3738	3738	3738	3738	3738	3738	3738	3738	3738	3698	3698	3698	3698	3698	3659	3659	3659	3659	3659	3659	3659	3659	3659	3659	3621	3621	3621	3621	3621	3621	3621	3621	3621	3621	3621	3621	3621	3621	3621	3621	3621	3659	3659	3659	3659	3659	3659	3659	3659	3659	3659	3698	3738	3738	3779	3779	3779	3779	3779	3779	3779	3779	3738	3779	3738	3738	3779	3779	3779	3779	3779	3779	3821	3821	3779	3779	0	8550	8550	8550	8550	8146	4838	4838	4838	4771	4771	4771	4771	4771	4771	4771	4771	4771	4771	4771	4771	4771	4771	4771	4706	4771	4771	4771	4771	4771	4771	4771	4771	4771	4771	4771	4771	4771	4771	4706	4706	4771	4771	4706	4706	4771	4771	4771	4706	4706	4771	4771	4706	4771	4838	4838	4771	4771	4706	4706	4706	4706	4771	4771	4771	4771	4771	4771	4771	4706	4643	4643	4643	4643	4643	4643	4643	4643	4643	4706	4706	4706	4706	4706	4706	4771	4771	4771	4706	4771	4771	4706	4706	4643	4643	4643	4643	4643	4643	4706	4706	4706	4706	4706	4706	4706	4706	4706	4706	4706	4706	4706	4643	4643	4706	4706	4643	4706	4706	4706	4706	4706	4706	4706	4706	4643	4643	4643	4643	4643	4643	4643	4643	4643	4643	4643	4581	4581	4581	4643	4643	4643	4581	4581	4581	4581	4581	4581	4581	4643	4643	4643	4581	4643	4643	4706	4643	4643	4706	4706	4706	4706	4706	4706	4706	4706	4771	4771	4771	4771	4771	4771	4771	7959	8146	8146	8146	8146	8343	8343	8146	8343	8343	8343	8343	8146	8146	8146	8146	8146	8146	8146	8146	8146	8146	8146	8146	8146	8146	8146	8146	8146	8146	8146	8146	8146	7959	7959	8146	8146	8146	7959	8146	8146	8146	8146	8146	8146	8146	8146	8146	8146	7959	8146	8146	8146	8146	8146	8146	8146	8146	8146	8146	7959	8146	7959	7959	7959	7959	7959	7779	7779	7779	7779	7779	7779	7608	7779	7779	7779	7608	7608	7608	7779	7779	7779	7779	7779	0	0	0	0	0	0	0	0	0	0	0	0	0	0	0	0	0	0	0	0	0	0	0	0	0	0	0	0	0	0	0	0
0	717	716	716	0	0	0	0	0	0	743	745	745	747	747	750	752	752	758	760	761	765	765	767	777	779	780	780	782	784	784	789	789	791	793	797	797	808	812	812	815	814	815	817	821	825	833	837	839	839	839	841	841	845	850	865	867	869	873	873	875	875	880	887	891	894	896	898	903	905	910	913	913	917	922	930	932	935	945	945	950	958	958	958	963	972	974	988	991	994	994	994	997	997	1000	1011	1017	1026	1026	1036	1042	1045	1045	1055	1055	1058	1064	1071	1074	1078	1091	1095	1095	1102	1105	1113	1113	1116	1120	1120	1120	1120	0	0	0	0	0	0	0	0	6468	6468	6468	6853	6992	6992	6992	6992	6992	6992	7137	7137	7287	7287	7287	7444	7444	7444	7444	7444	7444	7444	7444	7608	7608	7608	7608	7779	7779	7959	8146	8146	7959	8146	8146	8146	8146	8146	8146	8146	8343	8343	8343	8146	8343	8343	8146	8343	8343	8343	8343	8146	8146	8146	8343	8146	8146	8146	8146	7959	7959	8146	8146	8146	8146	8146	8146	8343	8343	8343	8343	8343	8343	8146	8146	8146	8146	8146	8146	8146	8146	8146	8146	8146	8146	7959	7959	7959	7959	8146	7959	7959	8146	8146	8146	8146	8146	8343	8343	8343	8146	8343	8146	8146	8146	8146	8146	8146	8146	8146	8146	8146	8146	8146	8146	8146	8146	8146	8146	8146	8343	8343	8343	8343	8343	8343	8343	8343	8343	8343	8343	8146	8146	7959	3698	3698	3698	3738	3738	3738	3738	3738	3738	3738	3738	3738	3738	3738	3738	3738	3738	3738	3738	3698	3698	3698	3698	3698	3698	3659	3659	3659	3698	3698	3659	3621	3659	3659	3621	3621	3621	3621	3621	3621	3621	3621	3621	3621	3621	3621	3621	3621	3621	3621	3621	3659	3659	3659	3659	3659	3659	3659	3659	3659	3659	3659	3698	3738	3779	3779	3779	3779	3779	3779	3779	3738	3738	3738	3738	3738	3779	3779	3738	3779	3779	3779	3779	3779	3779	4706	4706	4706	4771	4771	4771	4771	4771	4771	4771	4771	4771	4771	4771	4771	4771	4771	4771	4771	4771	4771	4771	4771	4771	4706	4706	4771	4771	4771	4771	4771	4771	4771	4771	4771	4771	4771	4771	4771	4771	4706	4706	4771	4771	4706	4643	4771	4771	4771	4706	4706	4706	4706	4643	4706	4706	4706	4706	4771	4706	4706	4706	4706	4771	4771	4771	4771	4771	4771	4706	4706	4643	4643	4643	4643	4643	4643	4643	4643	4643	4706	4706	4706	4706	4706	4706	4771	4771	4706	4706	4771	4706	4706	4706	4643	4643	4643	4643	4643	4643	4706	4643	4643	4643	4706	4706	4706	4706	4706	4706	4706	4706	4706	4643	4643	4706	4706	4706	4706	4706	4706	4706	4706	4706	4706	4643	4643	4643	4643	4643	4643	4643	4643	4643	4581	4581	4643	4581	4581	4581	4581	4643	4643	4581	4643	4581	4581	4581	4643	4643	4643	4643	4643	4643	4643	4643	4643	4643	4643	4706	4706	4706	4706	4706	4706	4706	4706	4706	4771	4771	4771	4771	4706	4706	4706	8146	8146	8343	8343	8343	8343	8146	8146	8343	8343	8343	8146	8146	8146	8146	8146	8146	8146	8146	8146	8146	8146	8146	8146	7959	8146	8146	8146	8146	8146	8146	8146	8146	7959	7959	8146	8146	8146	8146	8146	8146	8146	8146	8146	8146	8146	8146	8146	7959	8146	8146	8146	8146	8146	8146	8146	8146	8146	8146	7959	7959	7959	7959	7959	7959	7959	7779	7779	7779	7779	7779	7779	7608	7779	7779	7779	7608	7779	7608	7779	7779	7779	7779	7779	0	0	0	0	0	0	0	0	0	0	0	0	0	0	0	0	0	0	0	0	0	0	0	0	0	0	0	0	0	0	0	0
0	0	714	714	0	0	0	0	0	0	743	743	745	745	747	747	752	752	760	760	761	765	763	767	777	780	780	780	782	784	784	788	789	793	793	793	797	808	812	812	815	814	815	817	819	827	835	837	839	839	839	841	841	848	852	865	869	871	871	873	875	875	875	884	889	894	898	901	905	908	910	910	913	917	920	927	932	937	942	945	950	958	958	961	963	972	974	985	985	994	994	994	997	1000	1003	1014	1017	1026	1033	1036	1042	1045	1045	1055	1055	1061	1068	1074	1074	1085	1095	1095	1098	1098	1105	1109	1113	1113	1116	1116	1134	1127	1127	1127	0	0	0	0	0	0	0	6468	6468	6992	6992	6992	6992	6992	6992	6992	7137	7287	7287	7287	7287	7444	7444	7444	7444	7444	7444	7444	7444	7444	7608	7608	7608	7608	7608	7608	7959	7959	8146	8146	8146	8343	8343	8146	8146	8343	8343	8343	8343	8146	8146	8343	8146	8146	8146	8146	8146	8146	8146	8146	8146	8146	8146	8146	8146	8146	8146	8146	8146	8146	8146	8146	8146	8343	8343	8343	8343	8343	8343	8146	8146	8146	8146	8146	8146	8146	8146	8146	8146	8146	8146	7959	8146	8146	7959	8146	7959	7959	8146	8146	8146	8146	8146	8146	8343	8343	8146	8343	8343	8343	8146	8343	8146	8146	8146	8146	8146	8146	8146	8146	8146	8343	8343	8343	8343	8343	8343	8343	8343	8343	8343	8343	8343	8343	8343	8343	8146	8146	8146	3659	3659	3698	3698	3738	3738	3738	3738	3738	3738	3738	3738	3738	3738	3738	3738	3738	3738	3738	3738	3698	3698	3698	3698	3698	3698	3659	3659	3659	3698	3698	3621	3621	3659	3659	3621	3621	3621	3621	3621	3621	3621	3621	3621	3621	3621	3621	3621	3621	3621	3621	3621	3659	3659	3698	3659	3659	3659	3659	3659	3659	3659	3698	3698	3738	3779	3779	3779	3779	3779	3779	3779	3738	3738	3738	3738	3738	3738	3738	3738	3779	3779	3779	3779	3779	4706	4706	4706	4706	4706	4771	4771	4771	4771	4771	4771	4771	4771	4771	4771	4771	4771	4771	4771	4838	4771	4771	4771	4771	4771	4771	4706	4706	4771	4771	4771	4771	4771	4771	4771	4771	4771	4771	4771	4771	4771	4771	4771	4771	4771	4771	4643	4771	4771	4771	4771	4706	4706	4706	4643	4706	4706	4706	4706	4771	4706	4706	4706	4643	4771	4771	4706	4706	4706	4706	4706	4643	4643	4643	4643	4643	4643	4643	4643	4643	4643	4643	4643	4643	4643	4706	4706	4706	4706	4706	4706	4706	4706	4643	4706	4643	4643	4643	4643	4643	4643	4643	4643	4643	4643	4643	4643	4643	4643	4643	4706	4643	4643	4643	4643	4643	4706	4706	4706	4706	4706	4706	4706	4643	4643	4706	4706	4706	4643	4643	4643	4643	4643	4581	4643	4581	4643	4643	4643	4581	4581	4581	4581	4581	4581	4643	4643	4643	4643	4643	4643	4643	4643	4643	4643	4643	4643	4643	4643	4643	4706	4706	4706	4706	4706	4706	4706	4706	4706	4706	4771	4771	4706	4706	4706	4706	8146	8146	8343	8146	8343	8146	8146	8146	8343	8343	8343	8343	8343	8343	8343	8146	8146	8343	8146	8146	8146	8146	8146	8146	7959	8146	8146	8146	8146	8146	8146	8146	8146	7959	8146	8146	8146	8146	8146	8146	8146	8146	8146	8146	8146	8146	8146	7959	7959	8146	7959	7959	8146	8146	8146	8146	8146	8146	8146	8146	8146	7959	7959	7959	7959	7959	7959	7779	7959	7779	7779	7779	7779	7779	7779	7779	7779	7779	7779	7779	7779	7779	7779	7779	0	0	0	0	0	0	0	0	0	0	0	0	0	0	0	0	0	0	0	0	0	0	0	0	0	0	0	0	0	0	0	0
0	0	716	716	0	0	0	0	0	0	745	745	747	745	745	747	750	750	760	760	761	763	763	770	777	780	780	780	780	782	784	788	789	793	795	793	802	808	812	812	815	815	815	817	819	825	833	837	839	839	839	841	843	850	852	858	867	869	871	873	875	875	878	882	889	891	896	898	905	908	908	910	910	915	915	930	937	940	942	945	950	955	958	958	963	972	974	980	991	994	997	997	997	1000	1006	1014	1020	1026	1033	1036	1039	1042	1045	1055	1055	1061	1068	1074	1078	1085	1091	1095	1095	1098	1105	1109	1109	1120	1116	1131	1138	1127	1127	1127	1127	0	0	0	0	0	0	0	0	6992	6992	6992	6992	6992	7287	7287	7137	7287	7444	7444	7444	7444	7444	7444	7444	7444	4771	4771	4771	4771	7608	7608	7608	7608	7608	7608	4838	4838	8343	8343	8343	8343	8343	8146	8146	8146	8146	8343	8343	8146	8146	8343	8343	8146	8146	8146	8146	8146	8146	8146	8343	8146	8146	8146	8146	8146	8146	8146	8146	8146	8146	8146	8146	8146	8343	8343	8343	8343	8146	8146	8146	7959	8146	8146	8146	8146	8146	8146	8146	7959	7959	7959	7959	7959	7959	8146	7959	7959	8146	8146	8146	8146	8146	8146	8146	8146	8146	8343	8146	8343	8146	8146	8146	8146	8146	8343	8146	8343	8343	8343	8343	8343	8343	8343	8343	8343	8343	8343	8343	8343	8343	8343	8343	8343	8343	8343	8146	8146	8146	3621	3621	3659	3659	3698	3738	3738	3738	3738	3738	3738	3738	3738	3738	3738	3738	3738	3738	3738	3738	3738	3698	3698	3698	3698	3698	3659	3659	3659	3659	3621	3621	3621	3621	3659	3621	3621	3621	3621	3621	3621	3621	3621	3621	3621	3621	3621	3621	3621	3621	3621	3621	3659	3659	3659	3659	3659	3659	3659	3659	3659	3659	3659	3698	3738	3738	3779	3738	3779	3779	3779	3779	3738	3738	3738	3738	3738	3738	3738	3738	3779	3779	3738	3738	3779	4706	4771	4771	4771	4771	4771	4771	4771	4771	4771	4771	4771	4771	4771	4771	4771	4771	4771	4771	4771	4771	4771	4771	4771	4771	4706	4706	4706	4706	4771	4706	4771	4771	4771	4771	4771	4771	4771	4771	4771	4771	4771	4771	4771	4771	4771	4771	4771	4643	4643	4643	4706	4706	4643	4706	4706	4706	4706	4706	4771	4706	4706	4706	4643	4706	4706	4706	4706	4706	4706	4643	4643	4643	4643	4643	4643	4643	4643	4643	4643	4643	4643	4643	4643	4643	4643	4643	4643	4643	4706	4706	4706	4706	4643	4643	4643	4643	4643	4643	4643	4643	4706	4643	4643	4643	4643	4643	4643	4643	4643	4643	4643	4643	4643	4643	4643	4706	4706	4706	4706	4706	4706	4706	4643	4643	4706	4643	4643	4643	4643	4643	4643	4643	4643	4643	4643	4643	4643	4643	4581	4581	4643	4643	4581	4581	4643	4643	4643	4643	4643	4643	4643	4643	4643	4643	4643	4643	4643	4643	4643	4706	4706	4706	4706	4706	4771	4771	4706	4706	4771	4771	4771	4706	4706	4706	4706	8146	8343	8343	8343	8343	8343	8146	8146	8146	8146	8343	8343	8343	8343	8343	8146	8343	8343	8146	8146	8146	8146	8146	8146	7959	8146	8146	7959	8146	8146	8146	8146	8146	7959	7959	8146	8146	8146	7959	8146	8146	8146	8146	8146	8146	8146	7959	7959	7779	8146	8146	8146	8343	8343	8146	8146	8146	8146	8146	8146	8146	7959	8146	8146	8146	7959	7959	7779	7779	7779	7779	7779	7779	7779	7779	7959	7779	7959	7779	7779	7779	7779	7779	7779	0	0	0	0	0	0	0	0	0	0	0	0	0	0	0	0	0	0	0	0	0	0	0	0	0	0	0	0	0	0	0	0
0	0	714	714	0	0	0	0	0	743	745	745	745	745	745	747	752	752	760	760	760	761	763	770	775	777	779	779	780	782	784	786	788	789	798	795	802	808	810	812	815	815	815	817	819	821	833	837	839	839	841	843	848	850	852	854	865	869	871	873	875	878	878	884	889	891	896	898	905	908	908	908	908	913	913	932	937	940	942	945	950	955	961	966	969	972	974	977	991	994	997	997	1000	1000	1008	1014	1020	1026	1033	1036	1039	1039	1045	1055	1055	1061	1071	1074	1078	1088	1091	1095	1098	1098	1102	1105	1109	1116	1116	1127	1134	1131	1131	1131	1127	0	0	0	0	0	0	0	0	6992	6992	6992	6992	6992	7444	7287	7287	7287	7444	7444	7287	7287	7444	4838	4906	4906	4771	4771	4771	4771	4706	4706	4706	4706	4706	4838	4838	4906	4838	4838	4906	4906	4906	8146	8146	8343	8343	8343	8343	8146	8146	8343	8343	8343	8146	8146	8146	8146	8146	8146	8146	8146	8146	8146	8146	8146	8146	8146	8146	8146	8146	8146	8146	8146	8146	8343	8146	8146	8146	8146	8146	7959	7959	8146	8146	8146	8146	8146	8146	7959	7959	7959	7959	7959	7959	8146	7959	8146	8146	8146	8146	8146	7959	8146	8146	8146	8146	8146	8146	8146	8343	8343	8146	8146	8146	8343	8343	8343	8343	8343	8343	8343	8343	8343	8550	8343	8343	8343	8343	8343	8343	8343	8343	8343	8343	8343	8343	8146	8146	3583	3583	3621	3659	3738	3738	3738	3738	3738	3738	3738	3738	3738	3738	3738	3738	3738	3738	3738	3738	3738	3698	3698	3698	3698	3698	3698	3659	3659	3659	3621	3659	3621	3621	3659	3621	3659	3621	3621	3621	3621	3621	3621	3621	3621	3621	3621	3583	3621	3621	3621	3621	3659	3659	3659	3659	3659	3659	3659	3659	3659	3659	3659	3698	3738	3738	3779	3738	3779	3738	3738	3779	3738	3738	3738	3738	3738	3738	3738	3738	3738	3738	3738	3738	3738	4771	4771	4771	4771	4771	4771	4771	4771	4771	4771	4771	4771	4771	4771	4771	4771	4771	4771	4771	4771	4771	4771	4771	4771	4706	4706	4706	4706	4706	4706	4706	4771	4771	4771	4771	4771	4771	4771	4771	4771	4771	4771	4771	4771	4706	4706	4643	4643	4643	4706	4706	4706	4706	4706	4706	4706	4706	4706	4706	4771	4706	4771	4706	4706	4771	4771	4706	4706	4706	4643	4643	4643	4643	4581	4581	4581	4643	4643	4643	4643	4643	4643	4643	4643	4643	4643	4643	4643	4643	4643	4643	4643	4643	4643	4643	4643	4643	4643	4643	4643	4643	4706	4643	4643	4643	4643	4643	4643	4643	4643	4643	4643	4643	4706	4643	4643	4706	4706	4706	4706	4706	4643	4643	4643	4706	4706	4706	4643	4643	4643	4643	4643	4643	4643	4643	4643	4643	4643	4643	4643	4643	4643	4643	4643	4643	4643	4643	4643	4643	4643	4643	4643	4643	4643	4643	4643	4643	4643	4643	4643	4706	4706	4706	4706	4706	4706	4706	4706	4706	4771	4771	4771	4706	4706	4706	4706	8146	8146	8343	8146	8146	8146	8146	8146	8146	8146	8343	8343	8343	8343	8343	8343	8343	8343	8343	8343	8343	8343	8343	8146	8146	8146	8146	8146	8146	8146	8146	8146	8146	7959	7959	8146	8146	7959	7959	8146	8146	8146	8146	7959	7959	7959	7959	7959	7959	8146	8146	8146	8343	8343	8146	8146	8146	8146	8146	8146	8146	8146	8146	8146	8146	8146	7959	7959	7959	7779	7779	7779	7959	7779	7779	7959	7959	7959	7779	7779	7779	7608	7779	7779	0	0	0	0	0	0	0	0	0	0	0	0	0	0	0	0	0	0	0	0	0	0	0	0	0	0	0	0	0	0	0	0
0	0	713	719	720	720	720	0	0	743	743	745	745	745	745	747	747	747	758	758	760	761	765	770	773	775	777	779	780	780	782	784	788	789	798	795	802	808	810	812	815	815	817	819	823	825	833	837	839	839	839	845	848	850	852	854	865	867	867	873	875	875	878	889	891	894	894	898	903	903	908	908	908	913	915	937	940	942	945	948	950	953	961	963	966	969	974	974	985	994	997	997	1000	1003	1008	1014	1020	1030	1033	1033	1036	1036	1045	1058	1052	1058	1071	1074	1078	1091	1095	1098	1098	1098	1105	1105	1109	1113	1113	1113	1134	1131	1131	1131	0	0	0	0	0	4906	4906	4838	4771	4771	4838	4838	4906	4906	4906	4906	4906	7287	7444	4906	4906	4838	4838	4838	4838	4838	4838	4838	4771	4771	4771	4771	4706	4771	4771	4771	4838	4838	4838	4906	4906	4906	4906	8146	8146	8343	8343	8343	8343	8146	8146	8146	8146	8146	8146	8146	8146	8343	8146	8146	8343	8146	8146	8146	8146	8146	8146	8146	8146	8146	8146	8146	8146	8146	8146	8343	8146	8146	8146	8146	8146	8146	8146	8146	8146	8146	8146	7959	7959	7959	7959	7959	7959	7959	7959	8146	7959	7959	8146	8146	8146	8146	7959	7959	8146	8146	8146	8146	8146	8343	8146	8343	8146	8146	8146	8343	8146	8146	8146	8343	8343	8343	8343	8343	8343	8343	8343	8343	8343	8343	8343	8343	8343	8343	8343	8343	8343	8146	8146	7959	3621	3659	3738	3738	3738	3738	3738	3738	3738	3698	3738	3738	3738	3738	3738	3738	3738	3738	3738	3738	3698	3698	3698	3698	3698	3698	3698	3659	3659	3659	3659	3621	3659	3659	3621	3659	3659	3621	3621	3621	3621	3621	3621	3621	3621	3621	3583	3621	3621	3621	3621	3659	3659	3659	3659	3659	3621	3659	3621	3659	3659	3659	3698	3698	3779	3779	3738	3779	3779	3779	3779	3738	3738	3738	3738	3738	3779	3738	3738	3738	3738	3738	3738	3738	4771	4771	4771	4771	4771	4771	4771	4771	4771	4771	4771	4771	4771	4771	4771	4771	4771	4771	4771	4771	4771	4771	4771	4771	4771	4706	4706	4706	4706	4706	4706	4771	4771	4771	4771	4771	4771	4771	4771	4771	4771	4771	4706	4706	4706	4706	4706	4643	4643	4706	4706	4706	4706	4706	4706	4706	4706	4706	4706	4706	4706	4706	4706	4643	4706	4706	4706	4706	4643	4643	4643	4643	4581	4581	4581	4581	4581	4581	4581	4581	4581	4581	4581	4581	4581	4581	4581	4581	4581	4581	4581	4643	4643	4643	4643	4643	4643	4643	4643	4643	4643	4706	4643	4643	4643	4643	4643	4643	4706	4643	4643	4643	4643	4706	4643	4643	4643	4643	4706	4706	4706	4706	4706	4706	4706	4706	4706	4706	4643	4643	4643	4643	4643	4643	4643	4643	4643	4643	4643	4643	4643	4643	4643	4643	4643	4643	4643	4643	4643	4643	4643	4643	4643	4643	4643	4643	4643	4643	4643	4643	4643	4706	4706	4706	4706	4706	4706	4706	4706	4771	4771	4771	4771	4706	4706	4706	8146	8146	8343	8343	8343	8146	8146	8146	8146	8146	8146	8343	8343	8343	8343	8343	8343	8343	8343	8343	8343	8343	8343	8146	8146	8146	8146	8146	8146	8146	8146	8343	8146	8146	8146	8146	8146	7959	7959	8146	8146	8146	8146	7959	8146	8146	8146	8146	8146	8146	8146	8146	8146	8146	8146	8146	8146	8146	8146	8146	8146	7959	8146	8146	8146	8146	7959	7959	7959	7779	7779	7959	7959	7779	7779	7959	7959	7959	7779	7779	7779	7608	7608	7779	0	0	0	0	0	0	0	0	0	0	0	0	0	0	0	0	0	0	0	0	0	0	0	0	0	0	0	0	0	0	0	0
0	0	713	719	720	720	720	0	745	745	743	743	743	745	745	747	747	747	756	756	760	761	768	770	773	775	777	779	780	784	786	786	789	789	800	800	802	806	808	810	815	815	817	817	827	827	835	839	839	841	843	845	845	850	852	854	865	869	869	871	873	873	878	887	891	896	901	901	905	908	908	908	910	915	932	935	940	940	942	948	950	953	963	966	969	969	972	974	977	988	994	997	1000	1003	1008	1014	1020	1026	1033	1033	1036	1036	1045	1055	1052	1058	1071	1071	1074	1088	1095	1098	1098	1098	1102	1102	1105	1109	1105	1105	1105	0	0	0	0	0	0	0	0	4906	4838	4838	4771	4706	4838	4838	4906	4906	4906	4906	4906	4906	4906	4906	4906	4838	4771	4838	4771	4771	4771	4838	4771	4771	4771	4838	4771	4771	4771	4838	4838	4838	4838	4838	4838	4838	4838	4838	8343	8343	8343	8146	8343	8146	8146	8146	8146	8146	8146	8146	8146	8146	8146	8343	8146	8146	8146	8146	8146	8146	8146	8146	8146	8146	8146	8146	8146	8146	8146	8343	8146	8146	8146	8146	8146	8146	8146	8146	8146	8146	8146	8146	8146	8146	7959	7959	7959	7959	7959	7959	7959	7959	7959	8146	8146	8146	7959	8146	8146	8146	8146	8146	8146	8146	8146	8146	8146	8146	8146	8343	8343	8146	8343	8343	8343	8343	8343	8343	8343	8343	8343	8343	8343	8343	8343	8343	8343	8343	8343	8146	8343	8343	8146	7959	3659	3659	3698	3738	3738	3738	3738	3738	3738	3738	3738	3738	3738	3738	3738	3738	3738	3738	3698	3698	3698	3698	3698	3698	3698	3698	3698	3698	3659	3659	3659	3621	3621	3659	3659	3659	3659	3621	3621	3621	3621	3621	3621	3621	3621	3621	3621	3621	3621	3621	3621	3621	3659	3659	3659	3659	3621	3621	3621	3621	3621	3659	3659	3698	3738	3779	3779	3779	3779	3779	3779	3779	3738	3738	3738	3738	3779	3738	3738	3738	3738	3698	3698	3698	4771	4771	4771	4771	4771	4771	4771	4771	4771	4771	4771	4771	4771	4771	4771	4771	4771	4771	4771	4771	4771	4771	4771	4771	4706	4706	4706	4706	4771	4706	4706	4706	4771	4771	4771	4771	4771	4771	4771	4771	4771	4771	4771	4706	4706	4771	4771	4706	4706	4706	4706	4706	4706	4706	4706	4706	4706	4706	4706	4771	4706	4706	4581	4581	4643	4643	4643	4643	4643	4581	4581	4581	4581	4581	4581	4581	4581	4581	4581	4581	4581	4581	4581	4581	4581	4581	4581	4581	4581	4581	4581	4581	4581	4581	4581	4643	4643	4643	4643	4643	4706	4706	4643	4643	4643	4706	4643	4643	4643	4643	4643	4643	4643	4771	4643	4643	4643	4706	4706	4706	4706	4706	4706	4643	4643	4706	4706	4706	4706	4643	4643	4643	4643	4643	4643	4643	4643	4643	4643	4643	4643	4643	4643	4643	4643	4643	4643	4643	4643	4643	4643	4643	4643	4643	4643	4643	4706	4643	4643	4643	4643	4706	4706	4706	4706	4706	4771	4706	4706	4771	4771	4771	4771	4706	4706	8146	8146	8343	8343	8343	8343	8146	8146	8343	8146	8146	8146	8146	8343	8343	8343	8343	8343	8343	8343	8343	8343	8343	8343	8146	8146	8146	8146	8146	8146	8146	8146	8343	8146	8146	8146	8146	8146	7959	7959	8146	8146	8146	8146	8146	8146	8146	8146	8146	8146	8146	8146	8146	8146	8146	8146	8146	8146	8146	8146	8146	8146	7959	8146	8146	7959	7959	7959	7959	7779	7779	7779	7779	7779	7779	7779	7779	7779	7959	7779	7779	7608	7779	7779	7779	0	0	0	0	0	0	0	0	0	0	0	0	0	0	0	0	0	0	0	0	0	0	0	0	0	0	0	0	0	0	0	0
0	0	0	0	720	725	720	731	731	743	743	743	743	745	745	747	747	747	755	756	760	761	765	770	773	775	779	780	782	784	786	788	789	793	798	798	800	804	806	808	814	815	817	817	829	831	837	839	839	841	843	845	848	850	854	854	860	869	869	871	873	878	884	889	891	896	901	901	903	908	908	910	913	917	930	932	935	937	942	945	953	958	963	966	969	969	972	974	983	985	994	997	1000	1003	1008	1014	1020	1026	1033	1033	1036	1036	1045	1058	1061	1064	1071	1071	1074	1088	1091	1098	1098	1098	1102	1102	1105	1109	1109	1109	1109	0	0	0	0	0	0	0	0	0	4838	4838	4771	4771	4838	4838	4838	4906	4906	4906	4906	4906	4906	4906	4838	4838	4771	4771	4771	4838	4838	4771	4771	4838	4838	4838	4771	4771	4771	4838	4838	4838	4838	4838	4838	4838	4838	4838	4838	8343	8146	8146	8146	8146	8146	8146	8146	8146	8146	8343	8146	8146	8146	8146	8146	8146	8146	8146	8146	8146	8146	8146	8146	8146	8146	8146	8146	8146	8146	8343	8146	8146	8146	8146	8146	8146	8146	8146	8146	8146	8146	8146	8146	8146	7959	7959	7959	7959	7959	7959	7959	7959	8146	8146	8146	8146	7959	8146	8146	8146	8343	8343	8146	8343	8343	8343	8146	8146	8146	8343	8343	8146	8343	8343	8343	8343	8343	8343	8343	8343	8343	8343	8343	8146	8343	8343	8343	8343	8343	8146	8343	8343	8146	8146	7959	3738	3738	3738	3738	3738	3738	3698	3698	3738	3738	3738	3738	3738	3738	3738	3738	3738	3698	3698	3698	3698	3698	3698	3698	3698	3698	3698	3659	3621	3659	3621	3621	3621	3621	3659	3621	3621	3621	3621	3621	3621	3621	3621	3621	3621	3583	3621	3621	3621	3583	3659	3659	3659	3659	3659	3621	3621	3621	3621	3621	3659	3659	3698	3738	3738	3779	3779	3779	3779	3779	3779	3779	3738	3779	3779	3779	3738	3738	3738	3738	3698	3698	3698	4771	4771	4771	4771	4771	4771	4771	4771	4771	4771	4771	4771	4771	4771	4771	4771	4771	4771	4771	4771	4771	4771	4771	4771	4706	4706	4706	4706	4706	4706	4706	4706	4706	4706	4706	4706	4771	4771	4771	4771	4771	4771	4771	4706	4706	4771	4706	4706	4706	4706	4771	4771	4706	4706	4771	4706	4771	4771	4706	4771	4643	4581	4581	4581	4643	4643	4643	4643	4643	4581	4581	4581	4581	4521	4521	4581	4521	4581	4581	4581	4521	4521	4521	4521	4581	4581	4581	4581	4581	4581	4581	4581	4581	4581	4581	4643	4643	4643	4643	4643	4706	4706	4643	4643	4706	4706	4706	4706	4706	4706	4706	4706	4771	4771	4643	4643	4643	4706	4706	4706	4706	4643	4643	4643	4643	4643	4706	4706	4706	4706	4643	4706	4643	4643	4643	4643	4643	4643	4643	4643	4643	4643	4643	4643	4643	4581	4643	4643	4643	4643	4643	4643	4643	4643	4643	4643	4706	4643	4643	4643	4643	4706	4706	4706	4706	4706	4706	4706	4706	4706	4771	4771	4771	4771	4771	8146	8343	8343	8343	8343	8343	8343	8146	8343	8146	8146	8146	8146	8146	8146	8343	8343	8343	8343	8343	8343	8343	8343	8343	8146	8343	8146	8343	8146	8146	8146	8146	8343	8146	8146	8146	8146	8146	8146	8146	8146	8146	8146	8146	8146	8146	8146	8146	8146	8146	8146	8146	8146	8146	8146	8146	8146	8146	8146	8146	8146	8146	8146	7959	8146	7959	8146	7959	7959	7959	7779	7779	7959	7959	7608	7608	7608	7959	7959	7779	7608	7608	7608	7779	7779	0	0	0	0	0	0	0	0	0	0	0	0	0	0	0	0	0	0	0	0	0	0	0	0	0	0	0	0	0	0	0	0
0	0	0	720	722	720	720	720	731	731	734	745	745	747	745	748	747	756	756	756	760	761	767	770	773	775	779	780	782	786	788	788	789	795	798	797	800	798	802	810	817	817	819	823	825	827	831	831	839	843	843	845	848	850	854	856	862	869	869	871	871	875	878	884	891	896	901	903	905	910	910	910	913	925	930	930	932	935	940	948	953	955	961	963	969	969	972	974	977	983	991	997	1003	1006	1011	1017	1023	1026	1033	1033	1039	1039	1045	1055	1058	1064	1071	1071	1078	1088	1091	1098	1098	1098	1105	1102	1102	1109	1109	1113	1113	0	0	0	0	0	0	0	0	0	4838	4838	4838	4771	4771	4771	4838	4838	4838	4838	4906	4906	4906	4838	4838	4838	4771	4771	4771	4771	4771	4771	4771	4771	4771	4771	4771	4771	4771	4771	4838	4838	4838	4838	4838	4838	4838	4838	4838	8343	8146	8146	8146	8146	8146	8146	8146	8146	8146	8343	8343	8146	8146	8146	8146	8146	8146	8146	8146	8146	8146	8146	8146	8146	8146	8146	8146	8146	8146	8146	8146	8146	8146	8146	8146	7959	8146	8146	8146	8146	8146	8146	8146	8146	7959	7959	7959	7959	7959	7959	7959	7959	8146	8146	8146	8146	8146	8146	8146	8343	8343	8343	8343	8343	8343	8343	8343	8343	8343	8343	8343	8343	8343	8343	8343	8343	8343	8343	8343	8343	8343	8343	8343	8343	8343	8343	8343	8343	8343	8146	8343	8343	8146	8146	8146	3738	3698	3698	3698	3738	3738	3698	3738	3738	3738	3738	3738	3738	3738	3738	3738	3738	3698	3698	3698	3698	3698	3698	3698	3698	3698	3698	3659	3621	3621	3621	3621	3621	3621	3659	3621	3621	3621	3621	3621	3621	3621	3621	3621	3621	3583	3621	3621	3621	3583	3621	3621	3659	3621	3621	3621	3621	3621	3621	3621	3659	3659	3698	3738	3779	3779	3779	3779	3779	3821	3779	3779	3779	3779	3779	3779	3738	3738	3738	3738	3698	3698	3698	4771	4771	4771	4771	4771	4771	4771	4771	4771	4771	4771	4771	4771	4771	4706	4706	4706	4771	4771	4771	4771	4771	4771	4771	4771	4706	4706	4706	4706	4706	4706	4706	4706	4706	4706	4706	4771	4771	4771	4771	4771	4771	4771	4706	4706	4771	4771	4706	4706	4706	4706	4706	4706	4706	4771	4771	4706	4771	4706	4706	4643	4643	4581	4581	4643	4643	4643	4581	4581	4581	4521	4581	4581	4521	4521	4521	4521	4521	4521	4521	4521	4521	4521	4521	4521	4521	4521	4521	4521	4521	4521	4581	4521	4521	4581	4581	4643	4643	4643	4643	4643	4706	4643	4643	4706	4706	4706	4706	4706	4706	4706	4706	4771	4771	4643	4643	4706	4706	4706	4706	4706	4643	4643	4643	4643	4643	4643	4643	4643	4706	4643	4643	4643	4706	4643	4643	4643	4643	4643	4643	4643	4643	4643	4643	4643	4643	4643	4643	4643	4643	4643	4643	4643	4643	4643	4643	4706	4643	4643	4643	4643	4706	4706	4706	4706	4771	4771	4706	4706	4771	4771	4771	4771	4771	4771	8146	8146	8343	8343	8343	8343	8343	8343	8343	8146	8146	8146	8343	8343	8343	8343	8343	8343	8343	8343	8343	8343	8343	8343	8343	8343	8343	8343	8343	8343	8343	8146	8146	8343	8146	8146	8146	8146	8146	8146	8146	8146	8146	8146	8146	8146	8146	8146	8146	8146	8146	8146	7959	8146	8146	8146	7959	7959	7959	7959	7959	7959	7959	7959	7959	7959	7959	7959	7959	7779	7779	7779	7779	7959	7779	7608	7779	7779	7959	7779	7779	7779	7779	7779	7779	0	0	0	0	0	0	0	0	0	0	0	0	0	0	0	0	0	0	0	0	0	0	0	0	0	0	0	0	0	0	0	0
0	0	714	720	722	722	723	723	731	731	734	734	745	745	745	748	748	753	756	756	760	760	760	770	772	773	775	779	780	786	788	788	789	793	793	797	797	800	802	806	815	817	821	823	825	827	831	839	839	843	845	848	848	848	852	854	862	869	871	871	871	875	882	887	894	898	901	903	905	908	910	910	913	920	930	930	932	935	945	948	953	955	961	963	966	969	972	974	980	983	985	997	1003	1008	1014	1020	1023	1026	1030	1033	1036	1036	1048	1058	1061	1064	1071	1071	1074	1085	1091	1095	1098	1098	1102	1105	1105	1113	1109	1116	1116	0	0	0	0	0	0	0	0	0	4838	4838	4771	4771	4771	4771	4771	4771	4838	4906	4906	4906	4838	4838	4838	4838	4771	4771	4771	4771	4771	4771	4706	4706	4706	4771	4771	4771	4771	4771	4838	4838	4838	4838	4838	4771	4771	4771	4771	8343	8146	8146	8146	8146	8146	8146	8146	8146	8146	8343	8343	8343	8343	8343	8343	8343	8343	8146	8146	8146	8146	8146	8146	8146	8146	8146	8146	8146	8146	8146	8146	8146	8146	8146	8146	7959	7959	7959	8146	8146	8146	8146	8146	8146	8146	7959	7959	7959	7959	7959	7959	7959	8146	8146	7959	7959	7959	8146	8146	8146	8343	8146	8146	8146	8343	8343	8343	8343	8343	8343	8343	8343	8343	8343	8343	8343	8146	8343	8343	8343	8343	8343	8343	8343	8343	8343	8343	8343	8343	8343	8343	8343	8146	8146	8146	8146	3698	3698	3738	3738	3738	3698	3738	3738	3738	3738	3738	3738	3738	3738	3738	3738	3698	3698	3698	3698	3698	3698	3698	3698	3698	3698	3659	3659	3659	3621	3621	3621	3621	3659	3621	3621	3621	3621	3621	3583	3583	3583	3583	3621	3583	3621	3621	3621	3583	3621	3621	3621	3621	3621	3621	3621	3621	3659	3659	3659	3659	3698	3738	3779	3779	3779	3779	3779	3821	3779	3779	3779	3779	3779	3779	3738	3738	3738	3738	3698	3698	4838	4838	4771	4771	4771	4771	4771	4771	4771	4771	4771	4771	4771	4771	4771	4706	4706	4706	4706	4771	4771	4771	4771	4771	4771	4771	4706	4706	4706	4706	4706	4706	4706	4706	4706	4706	4706	4771	4771	4771	4771	4771	4771	4771	4771	4706	4771	4771	4706	4706	4706	4706	4706	4706	4706	4706	4706	4706	4706	4706	4643	4643	4581	4581	4581	4581	4581	4643	4581	4581	4581	4521	4521	4581	4521	4521	4521	4521	4521	4581	4521	4521	4521	4521	4521	4521	4521	4521	4521	4521	4521	4521	4521	4521	4521	4581	4581	4643	4643	4643	4643	4643	4643	4643	4643	4706	4706	4706	4706	4706	4706	4706	4706	4706	4706	4706	4706	4643	4643	4706	4643	4643	4643	4643	4643	4643	4643	4643	4643	4643	4643	4643	4643	4643	4706	4643	4643	4643	4643	4643	4643	4643	4643	4643	4643	4643	4581	4643	4643	4643	4643	4643	4643	4643	4643	4643	4643	4643	4643	4643	4643	4643	4706	4706	4771	4771	4771	4706	4706	4706	4771	4771	4771	4706	4771	4771	8343	8343	8343	8343	8343	8343	8343	8343	8146	8146	8146	8146	8146	8146	8343	8146	8146	8343	8343	8343	8343	8343	8343	8343	8343	8343	8343	8343	8343	8146	8146	8146	8146	8146	8146	8146	8146	8146	8146	8146	8146	8146	8146	8146	8146	8343	8146	8146	8146	8343	8146	8146	7959	7959	7959	8146	7959	7959	7959	7959	7959	7959	7959	7959	7959	7959	8146	7959	7959	7779	7779	7779	7779	7779	7608	7959	7959	7959	7959	7959	7779	7779	7779	7779	7779	0	0	0	0	0	0	0	0	0	0	0	0	0	0	0	0	0	0	0	0	0	0	0	0	0	0	0	0	0	0	0	0
0	716	716	716	722	722	725	726	726	726	736	736	736	745	745	748	748	758	756	756	760	760	767	770	772	772	773	775	775	784	786	788	788	791	797	798	800	800	802	804	815	817	821	825	827	829	831	837	839	841	845	845	848	850	852	854	860	869	871	871	871	873	880	889	894	896	901	903	905	908	910	913	915	922	930	930	932	932	945	950	955	958	963	966	969	972	974	977	980	983	985	991	1000	1008	1017	1020	1023	1023	1026	1030	1033	1036	1045	1058	1058	1064	1071	1071	1074	1081	1088	1095	1098	1098	1102	1102	1109	1109	1113	1113	1113	1113	0	0	0	0	0	0	0	0	4838	4771	4771	4771	4771	4771	4771	4771	4771	4838	4838	4906	4838	4838	4838	4838	4771	4771	4771	4771	4771	4771	4706	4706	4706	4771	4771	4771	4771	4838	4838	4771	4771	4771	4771	4771	4771	4706	4706	8146	8146	7959	8146	7959	8146	8146	8146	8146	8146	8343	8343	8343	8343	8146	8146	8146	8146	8343	8146	8146	8146	8146	8146	8146	8146	8146	7959	7959	8146	8146	8146	8146	8146	8146	8146	7959	8146	8146	8146	8146	8146	8146	8146	8146	8146	7959	7959	7959	7959	7959	7959	7959	8146	8146	8146	8146	8146	8146	8146	8146	8343	8343	8343	8343	8343	8343	8343	8343	8343	8343	8343	8343	8146	8146	8146	8146	8146	8146	8343	8343	8343	8343	8343	8343	8343	8343	8343	8343	8343	8343	8343	8146	8146	8343	8343	8146	3698	3738	3738	3738	3738	3698	3738	3738	3738	3738	3738	3738	3738	3738	3738	3738	3698	3698	3698	3698	3698	3698	3698	3698	3698	3698	3659	3659	3659	3621	3621	3621	3621	3621	3621	3621	3621	3583	3583	3583	3583	3583	3583	3621	3583	3621	3621	3583	3583	3583	3621	3659	3621	3621	3621	3621	3621	3621	3659	3659	3659	3698	3698	3779	3779	3779	3779	3779	3821	3821	3779	3779	3738	3738	3779	3779	3738	3738	3738	3698	3698	4838	4771	4771	4771	4771	4771	4771	4771	4771	4771	4771	4771	4771	4771	4771	4706	4706	4706	4706	4706	4771	4771	4771	4771	4771	4706	4706	4706	4706	4706	4706	4706	4706	4706	4706	4771	4706	4771	4771	4771	4771	4771	4771	4771	4771	4771	4771	4771	4706	4706	4706	4706	4706	4706	4706	4706	4706	4706	4771	4643	4643	4643	4581	4581	4581	4581	4581	4643	4581	4581	4581	4581	4581	4581	4521	4521	4521	4521	4521	4521	4521	4521	4521	4581	4521	4521	4521	4521	4521	4521	4521	4463	4521	4521	4521	4521	4581	4581	4643	4643	4643	4643	4643	4643	4706	4706	4706	4706	4706	4706	4706	4706	4706	4706	4706	4706	4643	4643	4706	4643	4643	4706	4706	4706	4706	4643	4643	4643	4643	4643	4643	4643	4643	4643	4706	4643	4643	4643	4706	4643	4643	4643	4643	4643	4643	4643	4581	4643	4643	4643	4643	4643	4643	4643	4643	4643	4643	4706	4643	4643	4643	4706	4771	4771	4706	4771	4771	4706	4706	4706	4706	4771	4706	4706	4706	8146	8146	8146	8146	8343	8343	8343	8146	8343	8146	8146	8146	8146	8146	8146	8146	8146	8146	8146	8146	8146	8146	8343	8343	8343	8343	8343	8343	8343	8343	8146	8343	8146	8343	8146	8146	8146	8343	8146	8343	8343	8343	8343	8343	8343	8146	8343	8343	8146	8343	8343	8146	8146	7959	7959	7959	8146	7959	7959	7959	7959	7959	7959	7959	7959	7959	7959	7779	7779	7779	7779	7608	7779	7779	7779	7779	7959	7959	7959	7959	7779	7779	7779	7779	7608	7608	0	0	0	0	0	0	0	0	0	0	0	0	0	0	0	0	0	0	0	0	0	0	0	0	0	0	0	0	0	0	0	0
0	716	716	716	723	725	725	728	731	731	734	734	734	745	745	748	748	758	756	758	758	760	767	768	768	772	772	773	775	784	786	788	789	793	797	798	800	800	802	804	815	817	821	823	827	829	831	833	837	839	843	845	848	848	852	854	862	871	871	871	871	875	880	884	896	901	901	903	903	908	908	913	915	920	930	930	932	935	948	950	958	958	963	963	966	972	974	977	980	983	985	988	994	1011	1017	1020	1023	1023	1030	1033	1033	1039	1045	1058	1058	1068	1071	1071	1074	1085	1091	1095	1095	1098	1098	1105	1109	1113	1113	1113	1113	1113	0	0	0	0	0	0	0	0	0	4771	4771	4771	4771	4706	4706	4771	4771	4838	4838	4838	4838	4838	4838	4838	4771	4771	4771	4771	4771	4771	4706	4771	4706	4706	4706	4706	4838	4838	4838	4771	4771	4771	4771	4706	4706	4706	4706	8146	8146	8146	8146	8146	8146	8146	8146	8146	8146	8343	8146	8146	8146	8146	8146	8146	8146	8343	8146	8146	8146	8146	8146	8146	8146	8146	8146	8146	8146	8146	8146	8146	8146	8146	8146	7959	7959	7959	7959	8146	8146	8146	8146	8146	8146	7959	8146	7959	7959	7959	7959	7959	8146	8146	8146	8146	8146	8146	8146	8146	8343	8343	8343	8343	8343	8343	8343	8343	8343	8343	8343	8343	8343	8146	8146	8146	8146	8343	8343	8343	8343	8343	8343	8343	8343	8343	8343	8343	8343	8343	8343	8343	8146	8343	8343	0	0	3738	3738	3738	3738	3698	3738	3738	3738	3738	3738	3738	3738	3738	3738	3738	3698	3698	3698	3698	3698	3698	3698	3698	3698	3698	3659	3659	3659	3621	3621	3621	3621	3621	3621	3583	3583	3583	3583	3583	3583	3583	3621	3621	3583	3621	3621	3583	3583	3583	3621	3621	3621	3621	3621	3621	3621	3621	3659	3659	3659	3698	3698	3738	3779	3779	3779	3779	3821	3821	3779	3779	3738	3738	3738	3738	3698	3738	3738	3738	3738	4771	4771	4771	4771	4771	4771	4771	4771	4771	4771	4771	4771	4771	4771	4771	4706	4706	4706	4706	4771	4771	4771	4771	4771	4771	4771	4771	4706	4706	4706	4706	4706	4706	4706	4706	4706	4706	4706	4771	4771	4771	4771	4771	4771	4706	4706	4706	4706	4706	4706	4706	4771	4706	4706	4706	4706	4706	4706	4706	4643	4643	4643	4581	4581	4581	4581	4643	4643	4643	4581	4581	4521	4581	4581	4581	4581	4521	4521	4521	4521	4521	4521	4521	4581	4581	4581	4521	4581	4521	4521	4521	4463	4463	4521	4521	4521	4581	4581	4643	4643	4643	4643	4643	4643	4706	4706	4706	4706	4706	4706	4643	4643	4643	4643	4643	4643	4643	4643	4643	4706	4643	4706	4643	4706	4706	4643	4643	4643	4643	4643	4643	4643	4643	4643	4643	4643	4643	4706	4706	4643	4643	4643	4643	4643	4643	4643	4643	4643	4643	4643	4643	4643	4643	4643	4643	4643	4706	4706	4706	4706	4706	4771	4771	4771	4706	4771	4771	4706	4706	4706	4771	4771	4706	4771	4771	4771	8146	8146	8146	8146	8343	8343	8146	8343	8146	8146	8146	8146	8146	8146	8146	8146	8146	8146	8146	8146	8146	8146	8146	8146	8146	8146	8146	8343	8343	8146	8343	8146	8146	8146	8146	8146	8146	8146	8343	8343	8343	8343	8343	8343	8343	8343	8343	8343	8343	8343	8343	8146	8146	8146	7959	7959	7959	7959	7959	7959	7959	7959	7959	7959	7779	7779	7779	7608	7779	7608	7779	7779	7959	7959	7959	7959	8146	7959	7959	7779	7779	7779	7779	7608	7608	0	0	0	0	0	0	0	0	0	0	0	0	0	0	0	0	0	0	0	0	0	0	0	0	0	0	0	0	0	0	0	0
0	716	717	717	723	725	725	728	731	731	732	734	734	734	745	750	752	752	756	758	760	761	767	770	772	772	773	773	775	777	784	788	795	795	797	798	800	802	802	806	815	817	819	821	823	829	831	833	837	839	843	845	845	848	854	856	860	867	873	871	871	873	880	884	894	896	901	903	903	908	910	913	915	922	930	930	930	935	950	950	961	961	963	966	969	972	974	977	980	980	985	988	991	991	1020	1020	1023	1026	1030	1033	1033	1045	1052	1058	1061	1064	1068	1068	1074	1085	1091	1095	1098	1098	1105	1109	1109	1113	1113	1113	1113	1113	0	0	0	0	0	0	0	0	4771	4771	4771	4771	4771	4771	4771	4706	4771	4771	4771	4838	4838	4771	4771	4771	4771	4771	4771	4771	4771	4706	4706	4771	4771	4771	4706	4706	4838	4838	4838	4771	4771	4771	4771	4706	4706	4706	4706	4706	8146	7959	8146	8146	8146	7959	7959	7959	7959	8146	8146	8146	8146	8146	8146	8146	8146	8146	8146	8146	8146	8146	8146	8146	8146	8146	8146	8146	8146	8146	8146	8146	8146	8146	8146	7959	8146	8146	8146	8146	8146	8146	8146	8146	8146	8146	8146	7959	7959	7959	7959	7959	8343	8146	8146	8146	8146	8146	8146	8146	8343	8343	8146	8146	8343	8343	8343	8343	8343	8146	8343	8146	8146	8146	8146	8146	8343	8343	8343	8343	8343	8343	8343	8343	8343	8343	8343	8343	8343	8343	8343	8343	8343	8343	8343	0	3738	3738	3738	3698	3698	3698	3738	3738	3738	3738	3738	3738	3738	3738	3738	3698	3698	3698	3698	3698	3698	3698	3698	3698	3698	3698	3659	3659	3621	3621	3621	3621	3621	3621	3621	3621	3621	3621	3583	3583	3583	3621	3621	3621	3583	3621	3621	3583	3583	3583	3621	3621	3621	3621	3621	3621	3621	3621	3659	3659	3659	3698	3698	3738	3779	3779	3779	3779	3779	3779	3779	3779	3738	3779	3738	3738	3698	3698	3698	3698	4838	4771	4771	4771	4771	4706	4771	4771	4771	4771	4771	4771	4771	4771	4706	4771	4706	4706	4706	4771	4771	4771	4771	4771	4771	4771	4771	4706	4706	4706	4706	4706	4706	4706	4706	4706	4706	4706	4706	4706	4706	4706	4706	4706	4706	4706	4706	4706	4706	4706	4706	4643	4706	4706	4706	4706	4706	4706	4706	4771	4706	4706	4643	4706	4643	4643	4643	4643	4643	4643	4581	4581	4521	4521	4521	4581	4581	4521	4521	4521	4521	4521	4521	4521	4521	4521	4581	4581	4581	4581	4521	4521	4463	4463	4463	4463	4463	4581	4581	4581	4643	4643	4643	4643	4706	4706	4706	4643	4643	4643	4643	4643	4643	4643	4643	4643	4643	4643	4643	4643	4643	4643	4643	4643	4643	4706	4643	4643	4643	4643	4643	4643	4643	4643	4643	4643	4643	4643	4706	4643	4643	4643	4643	4643	4643	4643	4643	4643	4643	4643	4643	4643	4643	4643	4643	4706	4706	4706	4706	4771	4706	4706	4771	4771	4771	4706	4706	4706	4706	4643	4706	4706	4706	4706	4706	4706	4706	8343	8343	8343	8146	8343	8343	8146	8146	8146	8146	8146	8146	8146	8146	8146	8146	8146	8146	8146	8146	8146	8146	8146	8146	8146	8146	8146	8343	8343	8343	8343	8146	8146	8146	8146	8146	8146	8343	8343	8343	8343	8343	8343	8343	8343	8343	8343	8343	8343	8343	8343	8146	8146	8146	7959	7959	7959	7779	7779	7959	7779	7779	7959	8146	7779	7779	7779	7608	7608	7608	7608	7779	7779	7959	7959	8146	8146	8146	8146	7959	7779	7779	7779	7779	7779	0	0	0	0	0	0	0	0	0	0	0	0	0	0	0	0	0	0	0	0	0	0	0	0	0	0	0	0	0	0	0	0
0	0	717	719	725	726	726	731	731	734	734	739	739	734	0	755	755	758	758	758	760	763	767	770	772	772	772	773	775	779	782	786	795	797	797	800	802	802	802	808	814	815	817	819	825	829	831	833	835	839	845	845	848	850	852	856	860	865	873	871	871	873	880	882	894	896	898	898	901	908	910	913	915	920	927	927	930	932	950	945	961	961	966	966	969	972	974	974	983	983	985	991	997	997	1014	1020	1023	1023	1030	1030	1033	1045	1052	1058	1061	1064	1068	1071	1074	1085	1091	1095	1098	1098	1105	1105	1109	1113	1113	1113	1113	1113	0	0	0	0	0	0	0	0	4771	4838	4771	4771	4771	4771	4706	4706	4771	4771	4771	4838	4771	4771	4771	4771	4771	4771	4771	4771	4771	4771	4771	4771	4771	4771	4706	4706	4838	4838	4838	4771	4771	4771	4706	4706	4706	4706	4706	4706	4706	7959	8146	8146	8146	8146	7959	7959	7959	8146	8146	8146	8146	8146	8146	8146	8146	8146	8146	8146	8146	8146	8146	8146	8146	8146	8146	7959	8146	8146	8146	8146	8146	8146	8146	8146	8146	8146	8146	8146	8146	8146	8146	8146	8146	7959	7959	7959	7959	7959	7959	7959	8146	8146	8146	8146	8146	8146	8146	8146	8146	8146	8146	8146	8146	8343	8343	8343	8343	8343	8343	8343	8343	8146	8146	8146	8146	8146	8146	8343	8343	8343	8343	8343	8343	8343	8343	8343	8343	8343	8343	8343	8343	8343	8343	0	3738	3738	3738	3698	3698	3738	3738	3738	3738	3738	3738	3738	3738	3738	3738	3698	3698	3698	3698	3698	3698	3698	3698	3698	3698	3659	3659	3659	3659	3621	3621	3621	3621	3621	3621	3621	3621	3621	3583	3583	3583	3583	3583	3621	3583	3583	3621	3583	3583	3583	3621	3621	3621	3621	3621	3621	3621	3621	3659	3659	3698	3698	3738	3738	3779	3779	3779	3779	3779	3779	3779	3738	3738	3738	3738	3738	3698	3698	3698	3698	4838	4771	4771	4771	4771	4706	4771	4771	4771	4771	4771	4771	4771	4771	4771	4706	4706	4706	4706	4706	4771	4771	4771	4771	4771	4771	4771	4771	4706	4706	4706	4706	4706	4706	4706	4706	4706	4706	4706	4706	4706	4706	4706	4706	4706	4706	4643	4706	4706	4706	4706	4643	4706	4706	4706	4771	4706	4706	4706	4706	4706	4771	4706	4643	4643	4581	4643	4643	4643	4643	4643	4581	4521	4581	4581	4521	4581	4521	4521	4521	4521	4521	4521	4521	4521	4581	4581	4581	4581	4521	4521	4521	4463	4463	4463	4463	4521	4521	4581	4643	4643	4643	4643	4643	4643	4643	4643	4643	4706	4706	4643	4643	4643	4643	4643	4643	4643	4643	4643	4643	4643	4643	4643	4643	4643	4643	4643	4643	4643	4643	4643	4643	4643	4643	4643	4643	4643	4643	4643	4643	4643	4643	4643	4581	4643	4581	4581	4643	4643	4643	4643	4643	4706	4706	4706	4706	4706	4706	4643	4706	4643	4706	4771	4771	4771	4771	4771	4706	4706	4706	4706	4706	4706	4643	4706	4643	4643	8343	8343	8343	8343	8343	8146	8146	8146	8146	8146	8146	8146	8146	8146	8146	8146	8146	8146	8146	8146	8146	8146	8146	8146	8146	8146	8146	8146	8146	8146	8146	8146	8146	8146	8146	8146	8146	8343	8146	8343	8343	8343	8343	8343	8343	8343	8343	8343	8343	8343	8343	8146	8146	7959	7959	7959	7779	7779	7779	7959	7959	7779	7959	8146	7959	7779	7608	7608	7608	7608	7608	7608	7779	7779	7959	8146	8146	8146	8146	8146	7959	7779	7779	7779	7779	0	0	0	0	0	0	0	0	0	0	0	0	0	0	0	0	0	0	0	0	0	0	0	0	0	0	0	0	0	0	0	0
0	0	719	719	726	728	728	731	732	736	739	739	739	0	0	755	755	758	758	758	760	763	767	770	772	772	772	773	773	780	782	788	795	797	797	800	802	802	804	810	814	815	817	819	825	829	831	833	833	835	843	845	850	852	854	856	865	867	871	871	871	873	882	884	894	894	898	898	901	908	913	915	917	917	922	922	925	948	953	950	958	961	963	966	969	972	974	974	983	983	988	994	994	997	1011	1017	1020	1030	1033	1033	1036	1045	1052	1055	1058	1064	1068	1071	1074	1085	1088	1095	1095	1098	1105	1109	1113	1116	1116	1116	1113	1113	0	0	0	0	0	0	0	0	4771	4838	4771	4771	4771	4771	4706	4706	4771	4771	4771	4771	4771	4771	4771	4771	4771	4771	4771	4706	4771	4771	4771	4771	4771	4771	4771	4771	4838	4838	4838	4771	4771	4706	4706	4706	4706	4706	4706	4706	4706	4706	8146	8146	8146	8146	7959	8146	7959	8146	7959	7959	7959	7959	7959	7959	8146	8146	8146	8146	8146	8146	8146	8146	8146	8146	8146	8146	8146	8146	8146	8146	8146	7959	8146	7959	8146	8146	8146	8146	8146	8146	8146	8146	7959	7959	7959	7959	7959	7959	7959	7959	8343	8146	8146	8146	8146	8146	8146	8146	8146	8146	8343	8343	8343	8343	8343	8343	8343	8146	8146	8146	8146	8146	8146	8146	8146	8146	8146	8146	8343	8343	8343	8343	8343	8343	8343	8343	8343	8343	8343	8343	8343	8343	8343	0	3738	3738	3738	3698	3698	3738	3738	3738	3738	3738	3779	3779	3738	3738	3738	3698	3698	3698	3698	3698	3698	3698	3698	3698	3698	3659	3659	3659	3621	3621	3621	3621	3621	3621	3621	3621	3621	3621	3583	3583	3583	3583	3621	3621	3583	3621	3621	3621	3583	3583	3621	3621	3621	3621	3621	3621	3621	3621	3659	3659	3698	3698	3698	3738	3738	3738	3738	3738	3779	3779	3738	3738	3738	3738	3738	3738	3698	3698	3698	4838	4771	4771	4771	4706	4706	4771	4771	4771	4771	4771	4771	4771	4771	4771	4771	4771	4706	4706	4706	4706	4771	4771	4771	4771	4771	4771	4771	4771	4706	4706	4706	4706	4706	4706	4706	4706	4706	4706	4706	4706	4706	4706	4706	4706	4706	4643	4643	4643	4643	4706	4706	4706	4706	4706	4706	4706	4706	4706	4706	4706	4706	4706	4643	4643	4643	4581	4643	4643	4643	4643	4581	4581	4581	4581	4581	4521	4521	4521	4521	4521	4521	4463	4521	4521	4463	4521	4521	4521	4521	4521	4521	4521	4463	4463	4463	4463	4521	4521	4581	4581	4581	4643	4643	4643	4643	4706	4643	4643	4706	4706	4706	4706	4643	4643	4706	4643	4643	4643	4643	4643	4643	4643	4643	4643	4643	4706	4643	4643	4643	4643	4706	4643	4643	4643	4643	4643	4643	4643	4643	4643	4643	4643	4643	4581	4581	4581	4581	4643	4643	4643	4643	4643	4643	4706	4643	4706	4706	4706	4706	4706	4706	4706	4771	4771	4771	4771	4771	4706	4706	4706	4706	4706	4706	4706	4706	4643	4643	8146	8146	8343	8343	8343	8146	8146	8146	8146	8146	8146	8146	8146	8146	8146	8146	8146	8146	8146	8146	8146	8146	8146	8146	8146	7959	8146	8146	8146	8146	8146	8146	8146	8146	8146	8146	8343	8343	8146	8146	8146	8146	8146	8146	8343	8343	8343	8343	8343	8343	8343	8146	8146	8146	7959	7959	7959	8146	8146	8146	7959	7779	7959	8146	7959	7779	7779	7608	7608	7608	7608	7608	7779	7779	7959	8146	8146	8146	7959	7959	7779	7779	7779	7779	7779	0	0	0	0	0	0	0	0	0	0	0	0	0	0	0	0	0	0	0	0	0	0	0	0	0	0	0	0	0	0	0	0
0	0	720	723	725	725	725	732	732	732	739	739	739	0	0	0	0	758	758	760	760	765	768	770	770	772	772	772	773	775	779	788	793	795	795	800	802	804	804	812	814	815	817	817	825	827	831	833	833	835	841	845	850	852	856	858	862	865	869	871	873	875	880	882	887	894	898	898	901	908	910	915	915	915	920	922	922	950	953	953	955	955	961	966	969	969	972	974	977	983	988	1000	1006	1008	1011	1017	1020	1030	1030	1033	1036	1045	1052	1058	1061	1064	1068	1071	1074	1085	1091	1095	1095	1098	1105	1109	1113	1116	1116	1116	1116	1116	0	0	0	0	0	0	0	0	4771	4838	4771	4771	4771	4771	4771	4706	4771	4771	4771	4771	4706	4706	4771	4771	4771	4771	4771	4771	4771	4771	4771	4838	4771	4771	4838	4771	4771	4771	4771	4771	4706	4706	4706	4706	4706	4706	4706	4706	4706	4706	8146	8146	8146	8146	8146	8146	8146	7959	7959	7959	7959	7959	7959	7959	7959	8146	8146	8146	8146	8146	8146	8146	8146	8146	8146	8146	8146	8146	8146	8146	8146	7959	7959	8146	8146	8146	8146	8146	8146	8146	8146	8146	7959	7959	7959	7959	7959	7959	7959	7959	8343	8146	8146	8146	8146	8146	8146	8146	8343	8343	8343	8343	8343	8343	8343	8343	8146	8146	8146	8146	8146	8146	8146	8146	8146	8146	8146	8146	8146	8146	8146	8343	8343	8343	8343	8343	8343	8343	8343	8343	8343	8343	0	0	3738	3738	3738	3698	3698	3738	3738	3738	3738	3779	3779	3779	3738	3738	3738	3738	3698	3698	3698	3698	3698	3698	3659	3659	3659	3659	3659	3659	3621	3621	3621	3621	3621	3621	3621	3621	3621	3621	3583	3583	3583	3583	3621	3621	3583	3621	3621	3621	3621	3583	3621	3621	3621	3621	3621	3621	3621	3659	3659	3659	3698	3698	3698	3738	3738	3738	3738	3738	3779	3779	3738	3738	3738	3738	3738	3698	3698	3659	3659	4771	4771	4771	4771	4771	4771	4771	4771	4771	4771	4771	4771	4771	4771	4771	4771	4771	4706	4706	4706	4706	4706	4706	4706	4706	4706	4771	4771	4771	4706	4771	4771	4771	4706	4706	4706	4706	4706	4771	4706	4771	4706	4706	4706	4706	4706	4643	4643	4643	4643	4706	4706	4706	4706	4706	4706	4706	4706	4706	4706	4706	4706	4706	4643	4643	4581	4581	4643	4581	4581	4643	4643	4643	4581	4581	4581	4581	4581	4521	4521	4521	4521	4463	4521	4521	4463	4521	4521	4521	4521	4521	4521	4521	4463	4463	4463	4463	4463	4521	4581	4581	4643	4643	4643	4706	4706	4706	4706	4706	4706	4706	4706	4706	4643	4643	4643	4643	4643	4643	4643	4643	4643	4643	4643	4643	4643	4706	4643	4643	4643	4643	4706	4643	4643	4643	4643	4643	4643	4643	4643	4643	4643	4643	4581	4581	4643	4643	4643	4643	4643	4643	4643	4643	4706	4706	4643	4706	4706	4706	4706	4706	4706	4706	4771	4771	4771	4706	4706	4706	4706	4706	4706	4706	4706	4706	4706	4706	4706	8146	8146	8146	8146	8146	8146	8146	8146	8146	8146	8146	8146	8146	8146	8146	8146	8146	8146	8146	7959	8146	8146	8146	8146	8146	8146	8146	8146	8146	8146	8146	8146	8146	8146	8146	8146	8146	8146	8146	8146	8146	8146	8146	8146	8146	8343	8343	8343	8146	8343	8343	8146	8146	8146	8146	8146	7959	7959	8146	7959	7959	7959	7959	8146	7959	7779	7608	7608	7608	7608	7608	7608	7959	7959	7959	8146	8146	8146	7959	7959	7779	7779	7779	7779	7779	0	0	0	0	0	0	0	0	0	0	0	0	0	0	0	0	0	0	0	0	0	0	0	0	0	0	0	0	0	0	0	0
0	0	720	722	723	723	723	723	723	732	740	740	739	0	740	740	0	0	758	760	761	768	768	770	770	772	772	773	775	777	780	786	789	793	791	800	804	806	808	814	814	815	815	817	823	825	833	835	835	835	843	848	852	854	856	858	862	865	867	871	873	873	880	884	889	894	896	901	901	905	910	915	915	917	915	920	920	920	953	953	955	958	963	966	966	969	969	974	977	980	980	1000	1006	1008	1011	1014	1020	1030	1033	1033	1042	1048	1045	1058	1061	1064	1068	1074	1074	1085	1091	1095	1095	1098	1105	1105	1109	1116	1120	1116	1116	1116	0	0	0	0	0	0	0	4706	4771	4838	4771	4771	4771	4771	4771	4771	4771	4771	4771	4771	4771	4771	4771	4771	4771	4771	4771	4771	4838	4838	4838	4838	4838	4838	4838	4771	4771	4838	4838	4771	4771	4706	4706	4771	4706	4706	4706	4771	4771	8146	8146	8146	8146	8146	8146	8146	7959	7959	7959	7959	7959	7959	7779	7779	7779	7779	8146	8146	7959	8146	8146	7959	7959	8146	7959	7959	8146	8146	8146	8146	8146	8146	8146	8146	8146	8146	8146	8146	8146	8146	7959	7959	7959	7959	7959	7959	7959	7959	7959	7959	8343	8343	8146	8146	8343	8146	8146	8343	8343	8343	8343	8343	8343	8343	8343	8343	8146	8146	8146	8146	8146	8146	8146	8146	8146	8146	8146	8146	8146	8146	8146	8343	8343	8343	8343	8343	8343	8343	8343	8343	8343	8146	8146	0	3738	3738	3738	3738	3738	3738	3738	3738	3738	3738	3738	3738	3738	3738	3738	3738	3698	3698	3698	3698	3698	3659	3659	3659	3659	3659	3621	3621	3621	3621	3621	3621	3621	3621	3621	3621	3621	3621	3621	3583	3583	3583	3621	3621	3621	3621	3621	3621	3621	3583	3621	3621	3621	3621	3621	3621	3621	3621	3659	3659	3698	3698	3698	3738	3738	3738	3738	3738	3779	3738	3738	3698	3698	3698	3698	3698	3659	3659	4771	4771	4771	4771	4771	4771	4771	4771	4771	4771	4771	4771	4771	4771	4706	4771	4771	4706	4706	4706	4706	4706	4706	4706	4706	4706	4706	4771	4771	4771	4771	4771	4771	4771	4706	4706	4706	4771	4771	4771	4771	4771	4706	4706	4643	4643	4643	4643	4643	4643	4706	4706	4706	4706	4706	4706	4706	4706	4706	4706	4706	4706	4706	4706	4706	4706	4643	4581	4643	4643	4643	4643	4643	4643	4581	4581	4581	4581	4581	4521	4521	4521	4521	4521	4521	4521	4463	4521	4521	4521	4521	4521	4521	4521	4463	4463	4521	4521	4521	4581	4581	4643	4643	4643	4643	4643	4706	4706	4706	4706	4706	4706	4706	4643	4643	4643	4643	4643	4643	4643	4643	4643	4643	4643	4643	4643	4643	4643	4643	4643	4643	4643	4706	4643	4643	4643	4643	4643	4643	4643	4643	4643	4581	4643	4643	4643	4643	4643	4643	4643	4643	4643	4643	4643	4643	4643	4643	4706	4706	4706	4706	4706	4706	4706	4706	4771	4771	4706	4706	4706	4706	4706	4706	4706	4706	4706	4706	4706	4706	8146	8146	8146	8146	8146	8146	8146	8146	8146	8146	8146	8146	8146	8146	8146	8146	8146	8146	8146	8146	8146	8146	8146	8146	8146	8146	8146	8146	8146	8146	8146	8146	8146	8146	8146	8146	8146	8343	7959	7959	8146	8146	8146	8146	8146	8343	8343	8343	8343	8343	8343	8343	8146	8146	8146	8146	8146	8146	8146	7959	7959	7959	7959	7959	7959	7779	7779	7608	7608	7608	7608	7608	7959	7959	7959	8146	8146	8146	8146	7959	7779	7779	7779	7608	7608	0	0	0	0	0	0	0	0	0	0	0	0	0	0	0	0	0	0	0	0	0	0	0	0	0	0	0	0	0	0	0	0
0	0	720	722	722	722	723	723	722	740	740	740	740	740	740	740	0	758	758	760	761	768	768	770	768	772	772	773	779	780	782	784	788	789	789	804	806	808	808	814	814	815	815	817	817	829	833	835	835	835	841	848	854	856	856	858	860	865	867	869	873	875	880	884	889	891	894	901	903	905	913	913	915	917	917	922	945	950	953	955	958	958	963	966	969	969	972	974	977	980	997	1003	1003	1006	1008	1011	1014	1030	1033	1033	1042	1045	1045	1055	1061	1064	1068	1074	1078	1085	1091	1095	1095	1098	1105	1105	1113	1116	1120	1120	1120	0	0	0	0	0	0	0	0	4771	4771	4838	4838	4838	4838	4838	4771	4771	4771	4771	4771	4771	4771	4771	4771	4771	4771	4771	4771	4771	4838	4838	4838	4838	4838	4838	4838	4771	4771	4771	4771	4771	4771	4771	4771	4771	4706	4706	4771	4771	4771	8146	8146	8146	8146	8146	8146	7959	8146	7959	7959	7959	7959	7779	7779	7779	7779	7779	7959	7959	7959	7959	8146	7959	8146	8146	8146	8146	8343	8343	8343	8343	8343	8146	7959	8146	8146	8146	8146	8146	8146	7959	7959	7959	7959	7959	7959	7959	7959	8146	8146	8146	8146	8343	8146	8343	8343	8343	8343	8343	8343	8343	8343	8343	8343	8146	8146	8146	8146	8146	8146	8146	8146	8146	8146	8343	8146	8146	8146	8146	8146	8146	8146	8146	8343	8343	8343	8343	8343	8343	8343	8343	8343	8146	8146	0	0	3738	3698	3698	3698	3698	3738	3738	3738	3738	3738	3738	3738	3738	3698	3698	3698	3698	3698	3698	3698	3698	3659	3659	3659	3659	3621	3621	3621	3621	3621	3621	3621	3659	3621	3621	3621	3621	3621	3583	3583	3583	3621	3583	3583	3621	3621	3621	3583	3583	3621	3621	3621	3621	3621	3621	3621	3621	3659	3659	3698	3659	3698	3698	3738	3738	3738	3738	3738	3738	3738	3698	3698	3698	3738	3698	3659	3659	4771	4771	4771	4771	4771	4771	4771	4771	4771	4771	4771	4771	4706	4771	4706	4771	4771	4706	4706	4706	4706	4706	4706	4706	4706	4706	4706	4706	4771	4771	4771	4771	4771	4771	4706	4771	4771	4771	4771	4771	4771	4771	4706	4706	4643	4643	4643	4643	4643	4643	4643	4706	4706	4706	4706	4706	4706	4706	4643	4706	4643	4706	4643	4643	4643	4706	4643	4581	4643	4643	4643	4643	4643	4643	4643	4581	4581	4581	4581	4521	4521	4463	4521	4463	4521	4521	4463	4521	4463	4463	4463	4521	4521	4521	4521	4521	4521	4521	4521	4581	4581	4643	4643	4643	4643	4643	4706	4706	4706	4706	4706	4706	4706	4706	4643	4643	4643	4643	4643	4643	4643	4643	4643	4643	4643	4643	4643	4643	4643	4643	4643	4643	4706	4643	4643	4643	4643	4643	4643	4581	4581	4581	4581	4581	4643	4643	4643	4643	4643	4643	4643	4643	4643	4643	4643	4706	4643	4706	4706	4706	4706	4706	4706	4706	4706	4771	4706	4706	4706	4706	4706	4706	4706	4706	4706	4706	4706	4706	4706	4706	4706	7959	7959	7959	7959	7959	8146	8146	8146	8146	8146	8146	8146	8146	8146	8146	8146	8146	8146	8146	8146	8146	8146	8146	8146	8146	8146	8146	8146	8343	8146	8146	8343	8146	8343	8146	8343	7959	7959	8146	8146	8146	7959	8146	8146	8343	8343	8343	8343	8343	8146	8343	8146	8146	8146	8146	8146	8146	7959	7959	7959	7959	7959	7959	7779	7779	7608	7608	7608	7608	7608	7959	7959	8146	8146	8146	8146	7959	7959	7779	7779	7779	7608	7608	0	0	0	0	0	0	0	0	0	0	0	0	0	0	0	0	0	0	0	0	0	0	0	0	0	0	0	0	0	0	0	0
0	0	720	722	722	722	722	722	722	740	740	740	740	740	740	740	740	758	758	760	761	768	768	768	768	772	773	779	780	782	782	784	788	791	791	802	806	808	808	812	814	814	815	817	817	827	833	835	835	835	841	850	854	856	858	858	860	862	865	867	875	875	882	887	891	894	894	901	903	908	910	915	915	915	917	925	925	953	953	955	958	955	961	963	966	969	972	974	985	983	994	1000	1003	1006	1008	1014	1017	1033	1033	1033	1039	1045	1048	1055	1061	1064	1068	1074	1078	1091	1095	1095	1095	1098	1105	1105	1113	1116	1120	1120	1120	0	0	0	0	0	0	0	4838	4771	4771	4838	4838	4838	4838	4838	4771	4771	4771	4771	4771	4771	4771	4706	4771	4771	4771	4771	4771	4771	4771	4771	4771	4771	4838	4838	4838	4771	4771	4771	4771	4771	4706	4706	4771	4771	4706	4706	4706	4706	4706	8146	8146	8146	8146	8146	8146	7959	8146	8146	7959	7959	7959	7959	7959	7779	7779	7779	7959	8146	8146	8146	8146	8146	8146	8146	8146	8146	8343	7959	8146	8146	8146	8146	8146	8146	8146	8146	8146	8146	8146	8146	8146	8146	7959	8146	7959	7959	7959	7959	8146	8146	8343	8343	8343	8343	8343	8343	8343	8343	8343	8343	8343	8343	8343	8146	8146	8146	8146	8146	8146	8343	8343	8343	8343	8343	8146	8146	8146	8146	7959	7959	8146	8146	8146	8343	8343	8343	8343	8343	8343	8343	8343	8146	8146	0	0	3738	3738	3698	3698	3698	3698	3738	3738	3738	3738	3738	3738	3738	3738	3698	3698	3698	3698	3698	3698	3659	3659	3659	3659	3659	3621	3621	3621	3621	3621	3621	3659	3659	3659	3659	3583	3583	3621	3583	3583	3583	3583	3583	3583	3621	3621	3621	3583	3583	3621	3621	3621	3621	3621	3621	3621	3621	3621	3659	3698	3659	3698	3698	3738	3738	3738	3738	3738	3738	3738	3698	3698	3698	3698	3698	3659	3659	4706	4771	4771	4771	4771	4771	4771	4771	4771	4771	4771	4771	4771	4771	4771	4771	4771	4706	4706	4706	4706	4706	4706	4643	4706	4706	4706	4771	4771	4771	4771	4771	4771	4771	4706	4771	4771	4771	4771	4771	4771	4771	4706	4706	4706	4706	4643	4643	4643	4643	4643	4643	4706	4706	4706	4706	4706	4706	4643	4643	4706	4706	4706	4643	4643	4643	4643	4581	4643	4643	4643	4643	4581	4643	4581	4581	4581	4581	4581	4521	4521	4521	4521	4463	4463	4463	4463	4463	4463	4463	4463	4521	4521	4521	4521	4521	4581	4581	4581	4643	4643	4643	4706	4643	4643	4643	4771	4706	4771	4643	4706	4706	4706	4643	4643	4643	4643	4643	4643	4643	4643	4643	4706	4643	4643	4643	4643	4643	4643	4581	4643	4643	4643	4643	4643	4643	4643	4643	4643	4581	4581	4581	4581	4643	4643	4643	4643	4643	4643	4643	4643	4643	4643	4643	4643	4643	4643	4643	4643	4643	4643	4706	4643	4643	4643	4706	4706	4706	4706	4706	4706	4706	4706	4706	4706	4706	4706	4706	4706	4643	4643	7959	7959	7959	7959	7959	7959	8146	8146	8146	8146	8146	8146	8146	8146	8146	8146	8146	8146	8146	8146	8146	8146	8146	8146	8146	8146	8146	8146	8146	8146	8146	8146	8146	8146	8146	7959	7959	7779	7779	7779	7959	7959	8146	8146	8146	8146	8343	8343	8343	8343	8343	8146	8146	8146	8146	8146	8146	8146	7959	7779	7959	7959	7959	7779	7779	7779	7608	7608	7779	7779	7959	7959	8146	8146	8146	8146	7959	7959	7779	7779	7779	7779	7779	0	0	0	0	0	0	0	0	0	0	0	0	0	0	0	0	0	0	0	0	0	0	0	0	0	0	0	0	0	0	0	0
0	0	720	722	722	722	722	723	723	737	740	739	739	739	740	740	750	760	760	760	761	768	768	770	768	772	773	779	780	780	782	784	788	789	798	804	808	808	810	812	814	814	815	815	817	827	833	835	837	837	843	852	854	856	856	858	860	862	865	865	875	878	882	887	891	896	898	903	905	908	913	915	917	917	917	920	920	950	953	955	958	958	961	963	966	969	974	985	988	988	994	1003	1003	1006	1008	1011	1014	1030	1033	1033	1036	1045	1045	1052	1061	1068	1071	1078	1081	1091	1095	1095	1098	1098	1105	1105	1116	1116	1123	1123	0	0	0	0	0	0	0	0	4771	4771	4771	4838	4838	4838	4838	4838	4838	4838	4771	4771	4771	4771	4771	4706	4771	4771	4771	4771	4771	4771	4771	4838	4771	4771	4771	4838	4838	4771	4706	4771	4771	4771	4771	4706	4706	4771	4706	4706	4706	4706	8343	8146	8146	8146	8146	8146	8146	8146	8146	8146	8146	7959	7959	7959	7959	7779	7779	7959	7959	8146	8146	8146	8146	8146	8146	8146	8146	8146	8146	8343	8343	8146	8146	8146	8146	8146	8146	8146	8146	8146	8146	8146	8146	8146	7959	7959	7959	7959	7959	8146	8146	8146	8343	8343	8343	8343	8343	8343	8343	8343	8343	8343	8343	8146	8146	8146	8146	8146	8146	8343	8343	8343	8343	8343	8343	8343	8146	8146	8146	8146	7959	7959	7959	8146	8146	8146	8343	8343	8343	8343	8343	8343	8343	8343	8343	0	0	3698	3698	3698	3698	3698	3698	3698	3738	3738	3738	3738	3738	3698	3698	3698	3698	3659	3698	3659	3659	3659	3621	3659	3621	3621	3621	3621	3621	3621	3621	3621	3621	3621	3621	3621	3583	3583	3583	3583	3583	3583	3583	3583	3583	3583	3621	3621	3583	3583	3621	3621	3621	3621	3621	3621	3621	3621	3621	3659	3659	3659	3698	3698	3738	3738	3738	3738	3779	3738	3738	3698	3698	3738	3698	3698	3698	3698	4771	4771	4771	4771	4771	4771	4771	4771	4771	4771	4771	4771	4771	4706	4706	4706	4771	4706	4706	4706	4706	4643	4706	4643	4643	4706	4643	4706	4706	4706	4706	4771	4706	4706	4706	4706	4771	4771	4771	4771	4771	4771	4771	4771	4706	4706	4706	4706	4643	4643	4643	4706	4706	4706	4706	4706	4706	4706	4706	4706	4643	4706	4706	4643	4643	4643	4643	4643	4643	4643	4581	4643	4581	4643	4581	4581	4581	4581	4581	4521	4521	4521	4463	4521	4521	4463	4463	4463	4463	4463	4463	4521	4521	4521	4521	4521	4581	4581	4581	4643	4643	4706	4706	4643	4643	4643	4771	4771	4771	4643	4706	4706	4706	4643	4643	4643	4643	4706	4643	4643	4706	4643	4643	4643	4643	4643	4643	4643	4643	4643	4643	4643	4643	4643	4643	4643	4643	4643	4643	4643	4643	4643	4643	4643	4643	4643	4643	4643	4643	4643	4643	4643	4643	4643	4643	4643	4643	4643	4643	4643	4643	4643	4643	4643	4643	4706	4706	4706	4706	4706	4706	4706	4706	4706	4706	4706	4706	4706	4706	4643	4643	7608	7779	7608	7608	7959	7959	8146	8146	8146	8146	8146	8146	8146	7959	7959	7959	8146	8146	8146	8146	8146	8146	8146	8146	8146	8146	8146	8146	8146	8146	8146	8146	8146	8146	8146	7959	7779	7959	7959	7959	7959	7959	8146	8146	8146	8146	8146	8343	8146	8146	8343	8146	8146	8146	8146	8146	8146	7959	7959	7779	7779	7959	7779	7779	7779	7779	7779	7779	7959	7959	7959	7959	7959	8146	8146	8146	7959	7959	7779	7779	7779	7779	7779	0	0	0	0	0	0	0	0	0	0	0	0	0	0	0	0	0	0	0	0	0	0	0	0	0	0	0	0	0	0	0	0
0	0	720	720	722	722	722	722	722	739	739	739	739	739	740	740	750	750	758	758	763	770	770	770	770	773	777	780	780	782	782	784	788	795	797	802	804	804	808	810	814	814	814	815	817	831	833	835	837	837	841	850	850	856	858	858	860	862	865	869	875	880	884	889	894	898	901	903	905	910	913	915	915	917	920	922	922	950	953	953	958	958	961	963	972	974	980	983	985	988	994	1003	1003	1006	1008	1008	1011	1030	1033	1033	1039	1042	1045	1048	1064	1068	1074	1078	1078	1085	1091	1095	1095	1098	1109	1109	1116	1120	1123	1123	1123	0	0	0	0	0	0	0	4771	4771	4771	4838	4838	4838	4838	4838	4838	4838	4771	4771	4771	4771	4706	4706	4706	4706	4771	4706	4706	4706	4771	4771	4771	4771	4771	4771	4771	4771	4706	4771	4771	4771	4771	4706	4706	4706	4706	4706	4771	4771	8343	8146	8146	8146	8146	8146	8146	8146	8146	8146	8146	8146	7959	7959	7959	7779	7959	7959	7959	8146	8146	8146	8146	8146	8146	8146	8146	8146	8146	8146	8146	8146	8146	8146	8146	8146	8146	8146	8146	8146	8343	8146	8146	8146	8146	8146	7959	7959	7959	7959	8146	7959	8343	8343	8146	8343	8343	8343	8343	8343	8343	8343	8343	8146	8146	8146	8146	8146	8146	8343	8343	8343	8343	8343	8343	8343	8146	8146	8146	8146	8146	7959	7959	7959	8146	8146	8146	8146	8343	8343	8343	8343	8343	8343	8343	0	0	3738	3738	3738	3698	3698	3698	3698	3738	3738	3738	3738	3738	3738	3738	3698	3698	3659	3698	3659	3659	3659	3621	3621	3621	3621	3621	3621	3583	3583	3621	3621	3621	3621	3621	3621	3621	3621	3583	3583	3583	3583	3583	3583	3583	3583	3583	3583	3583	3583	3621	3621	3621	3621	3621	3621	3621	3621	3621	3621	3659	3659	3698	3698	3738	3738	3738	3738	3779	3779	3738	3738	3738	3738	3738	3698	3698	3698	4771	4771	4771	4771	4771	4771	4771	4771	4771	4771	4771	4771	4771	4706	4706	4706	4706	4706	4706	4706	4706	4643	4706	4643	4643	4643	4643	4643	4643	4643	4643	4706	4706	4706	4706	4771	4771	4771	4771	4771	4771	4771	4771	4771	4706	4706	4706	4706	4706	4643	4643	4643	4706	4706	4706	4643	4706	4706	4643	4643	4706	4706	4706	4643	4643	4643	4643	4643	4643	4643	4581	4643	4581	4521	4521	4521	4521	4521	4581	4521	4521	4521	4521	4521	4521	4463	4463	4463	4521	4463	4463	4521	4521	4521	4521	4521	4581	4581	4581	4643	4643	4706	4706	4771	4771	4706	4771	4771	4771	4706	4706	4706	4706	4643	4643	4643	4643	4706	4706	4706	4706	4706	4643	4643	4643	4643	4643	4643	4643	4643	4643	4643	4643	4643	4643	4643	4643	4643	4643	4643	4643	4643	4643	4643	4643	4643	4643	4643	4643	4643	4643	4643	4643	4643	4643	4643	4643	4643	4643	4643	4643	4643	4643	4643	4643	4706	4706	4706	4706	4706	4706	4706	4643	4706	4706	4706	4706	4706	4706	4706	4706	7608	7608	7608	7779	7779	7779	8146	7959	8146	8146	8146	8146	8146	8146	7959	7959	8146	7959	7959	8146	8146	8146	8146	8146	8146	8146	8146	8146	8146	8343	8146	8146	8146	8146	7959	7779	7959	7959	7779	7959	7959	7959	8146	8146	8146	8146	8146	8343	8146	8146	8146	8146	8146	8146	8146	8146	8146	8146	7959	7779	7779	7779	7779	7779	7959	7959	7959	7959	7959	8146	8146	7959	7959	7959	7959	7959	7959	7959	7779	7779	7779	7608	7608	0	0	0	0	0	0	0	0	0	0	0	0	0	0	0	0	0	0	0	0	0	0	0	0	0	0	0	0	0	0	0	0
0	0	720	720	722	722	722	722	722	739	739	737	737	737	747	752	752	753	756	758	760	760	770	770	772	779	780	782	782	782	784	784	788	793	797	800	802	804	804	804	810	812	814	815	817	819	833	835	839	841	843	848	852	854	856	858	860	862	867	869	873	880	884	887	891	898	898	903	908	910	913	915	917	920	920	925	937	942	950	953	953	955	961	963	972	974	980	983	985	988	994	1003	1006	1006	1008	1011	1011	1023	1033	1033	1039	1042	1045	1048	1064	1071	1078	1081	1081	1085	1091	1095	1095	1098	1109	1113	1116	1116	1116	1123	1123	0	0	0	0	0	0	0	0	4706	4771	4771	4771	4838	4838	4838	4838	4838	4771	4771	4771	4771	4706	4706	4706	4706	4771	4706	4706	4706	4771	4771	4771	4771	4771	4771	4771	4771	4706	4771	4706	4771	4706	4771	4706	4706	4706	4706	4706	8343	8343	8146	8146	8146	8146	8146	8146	8146	8146	8146	8146	8146	8146	8146	7959	7959	7959	7959	7959	8146	8146	8146	8146	8146	8146	8146	8146	8146	8146	8146	8146	8146	8146	8146	8146	8146	8146	8146	8146	8146	8146	8146	8146	8146	8146	8146	8146	7959	7959	8146	8146	7959	8343	8146	8146	8343	8343	8343	8343	8343	8343	8343	8146	8146	7959	7959	8146	8146	8146	8343	8343	8343	8343	8343	8343	8343	8343	8343	8343	8146	8146	8146	8146	8146	8146	8146	8146	8343	8343	8343	8343	8343	8343	8343	8343	0	0	3738	3738	3698	3698	3698	3698	3698	3698	3738	3698	3698	3738	3698	3738	3738	3738	3698	3698	3659	3659	3659	3621	3621	3621	3621	3621	3621	3583	3583	3621	3621	3621	3621	3583	3621	3621	3583	3583	3583	3583	3583	3583	3583	3583	3583	3583	3583	3583	3583	3583	3621	3621	3621	3621	3621	3621	3621	3621	3621	3659	3659	3698	3698	3738	3738	3738	3738	3779	3779	3738	3738	3738	3738	3698	3698	3698	3698	4771	4771	4771	4771	4771	4771	4771	4771	4771	4771	4771	4771	4706	4706	4706	4706	4706	4706	4706	4706	4706	4643	4643	4643	4643	4643	4643	4643	4643	4643	4643	4706	4706	4706	4706	4771	4771	4771	4771	4771	4771	4771	4771	4771	4771	4771	4771	4771	4706	4706	4643	4643	4643	4643	4643	4643	4706	4706	4643	4706	4706	4706	4706	4643	4643	4706	4706	4706	4706	4643	4706	4643	4643	4581	4521	4521	4521	4521	4521	4521	4521	4521	4521	4521	4521	4463	4521	4463	4521	4521	4521	4521	4521	4581	4581	4521	4521	4581	4643	4643	4643	4706	4706	4771	4706	4706	4771	4771	4706	4643	4643	4706	4643	4706	4643	4643	4643	4706	4643	4643	4706	4706	4706	4706	4643	4643	4643	4643	4581	4581	4643	4643	4643	4643	4643	4643	4643	4643	4643	4643	4643	4643	4643	4643	4643	4643	4643	4643	4643	4643	4643	4643	4643	4643	4643	4643	4643	4643	4643	4643	4643	4643	4643	4643	4643	4643	4706	4706	4706	4706	4706	4706	4706	4706	4706	4706	4706	4706	4771	4771	7608	7608	7608	7608	7779	7959	7959	8146	8146	8146	8146	8146	8146	8146	7959	7959	7959	7959	8146	8146	8146	8146	8146	8146	8146	7959	8146	8146	8146	8146	8146	7959	8146	7959	8146	8146	8146	7959	7959	7959	7959	7959	7959	8146	8146	8146	8146	8146	8146	8146	8146	8146	8146	8146	8146	8146	8146	8146	8146	7959	7959	7959	7959	7959	7779	7959	7959	7959	8146	8146	8146	8146	8146	7959	7959	7959	7779	7779	7779	7779	7779	7608	7608	7608	0	0	0	0	0	0	0	0	0	0	0	0	0	0	0	0	0	0	0	0	0	0	0	0	0	0	0	0	0	0	0	0
0	0	720	720	722	723	722	725	725	732	737	737	737	737	739	752	752	753	755	758	761	770	770	770	772	777	780	782	782	782	784	786	786	788	797	800	802	802	804	806	810	812	814	815	817	817	831	837	841	841	843	848	852	854	856	856	858	860	865	869	873	875	878	887	894	896	898	903	905	910	913	915	917	920	925	932	940	942	942	945	950	955	961	963	969	980	983	985	988	991	997	1000	1003	1008	1008	1011	1017	1023	1030	1030	1036	1039	1045	1045	1068	1071	1078	1081	1081	1085	1091	1095	1095	1098	1109	1109	1109	1116	1120	1120	1123	0	0	0	0	0	0	0	0	4771	4771	4771	4771	4838	4838	4838	4838	4838	4771	4771	4771	4771	4706	4706	4706	4706	4706	4706	4706	4706	4706	4706	4771	4771	4771	4771	4771	4771	4706	4706	4706	4706	4706	4706	4706	4706	4706	4643	4643	4643	8343	8343	8146	8146	8146	8146	8146	8146	8146	8146	8146	8146	8146	8146	7959	7959	7959	7959	7959	8146	8146	8146	8146	8146	8146	8146	8146	8146	8146	8146	8146	8146	8146	8146	8146	7959	8146	8146	8146	8146	8146	8146	8146	8146	8146	8146	8146	8146	8146	8146	8146	8146	8146	8146	8146	8146	8343	8343	8343	8343	8343	8343	8146	8146	8146	8146	8146	8146	8146	8343	8343	8343	8343	8343	8343	8343	8343	8343	8343	8146	8146	8146	8146	8146	8146	8146	8146	8146	8146	8343	8343	8343	8343	8343	8343	0	0	3779	3738	3698	3738	3698	3698	3698	3698	3738	3698	3698	3738	3698	3738	3698	3698	3698	3698	3659	3659	3659	3659	3621	3621	3621	3621	3621	3583	3583	3583	3583	3583	3621	3583	3621	3583	3583	3583	3583	3583	3583	3583	3583	3583	3583	3583	3583	3583	3583	3621	3621	3621	3621	3621	3621	3621	3621	3621	3621	3659	3659	3659	3698	3698	3738	3738	3738	3738	3779	3738	3738	3738	3698	3698	3698	3698	3698	4771	4771	4771	4771	4771	4771	4771	4706	4706	4706	4771	4706	4706	4706	4706	4706	4706	4706	4706	4706	4706	4706	4706	4706	4706	4706	4706	4706	4643	4643	4643	4706	4706	4706	4706	4706	4771	4771	4706	4771	4771	4771	4771	4771	4771	4771	4771	4771	4706	4706	4643	4643	4643	4643	4643	4643	4643	4643	4643	4643	4643	4643	4643	4643	4643	4643	4706	4706	4706	4706	4706	4643	4581	4581	4581	4581	4521	4521	4521	4521	4521	4521	4521	4521	4521	4521	4521	4521	4521	4521	4521	4521	4581	4581	4581	4521	4581	4643	4643	4643	4643	4706	4771	4771	4706	4706	4706	4706	4706	4643	4643	4643	4643	4643	4643	4643	4643	4643	4706	4706	4706	4643	4643	4643	4643	4643	4581	4581	4581	4581	4643	4581	4581	4643	4643	4643	4643	4643	4643	4643	4581	4581	4581	4643	4643	4643	4643	4643	4643	4643	4643	4643	4643	4643	4643	4643	4643	4643	4643	4643	4643	4643	4643	4643	4643	4706	4706	4706	4706	4706	4643	4643	4706	4643	4706	4706	4706	4706	4706	7608	7608	7608	7779	7959	7959	7959	7959	8146	8146	8146	8146	8146	8146	8146	7959	7959	7959	8146	8146	8146	8146	8146	8146	8146	8146	8146	8146	8146	8146	8146	8146	8146	8146	7959	8146	7959	7959	8146	7959	7959	7959	7959	8146	8146	8146	8146	8146	8146	8146	8146	8146	7959	7959	7959	7959	7959	7959	7959	8146	8146	7959	7959	7959	7959	7959	7959	8146	8146	8146	8146	8146	8146	7959	7959	7779	7779	7779	7779	7608	7608	7608	7608	7608	7608	0	0	0	0	0	0	0	0	0	0	0	0	0	0	0	0	0	0	0	0	0	0	0	0	0	0	0	0	0	0	0	0
0	0	719	720	723	725	725	726	728	731	734	737	737	737	739	752	753	753	755	756	758	765	770	770	772	779	780	780	782	782	784	784	786	788	797	800	802	804	804	804	810	814	814	815	815	815	831	837	841	841	841	848	850	854	856	856	856	860	867	869	882	884	887	887	891	894	896	903	905	910	913	917	917	920	922	925	940	942	945	948	950	955	958	961	963	980	983	985	988	994	997	1000	1003	1006	1011	1014	1020	1026	1030	1030	1036	1039	1042	1048	1068	1071	1078	1081	1081	1085	1091	1091	1095	1098	1098	1109	1113	1116	1116	1116	1116	0	0	0	0	0	0	0	0	4838	4771	4771	4838	4838	4838	4838	4838	4771	4771	4771	4771	4771	4706	4706	4706	4706	4706	4706	4706	4706	4706	4706	4706	4706	4771	4771	4771	4771	4706	4706	4706	4706	4706	4706	4706	4706	4706	4706	4706	4706	8343	8343	8146	8146	8343	8146	8146	8146	8146	8146	8146	8146	8146	8146	8146	7959	8146	8146	8146	8146	8146	8146	8146	8146	8146	8146	8146	8343	8146	8146	8146	8146	8146	8146	8146	7959	8146	8146	8146	8146	8146	8146	8146	8146	8146	8146	8146	8146	8146	8146	8146	8146	8146	8146	8146	8146	8146	8146	8343	8146	8146	8343	8146	8146	7959	7959	8146	8146	8146	8146	8146	8343	8343	8343	8343	8343	8146	8146	8343	8146	8146	8146	8146	8146	8146	8146	8343	8343	8343	8343	8343	8343	8343	8343	8343	0	0	3738	3738	3698	3698	3698	3698	3659	3698	3738	3738	3698	3738	3698	3738	3698	3698	3698	3659	3659	3659	3659	3621	3621	3621	3621	3583	3621	3583	3583	3583	3583	3583	3583	3583	3583	3583	3583	3583	3583	3583	3583	3583	3583	3583	3583	3583	3583	3583	3583	3621	3621	3621	3621	3621	3621	3621	3621	3621	3621	3659	3659	3659	3698	3698	3738	3738	3738	3738	3738	3738	3738	3738	3738	3698	3698	3698	3698	4838	4838	4838	4771	4771	4771	4771	4706	4706	4706	4706	4706	4706	4706	4706	4706	4706	4706	4706	4706	4706	4706	4706	4706	4706	4706	4643	4643	4643	4643	4643	4643	4643	4706	4706	4706	4771	4771	4706	4771	4771	4771	4771	4771	4771	4771	4771	4771	4706	4706	4643	4643	4643	4643	4643	4643	4643	4643	4643	4643	4643	4643	4643	4643	4643	4643	4706	4706	4771	4706	4706	4643	4581	4581	4521	4521	4521	4521	4521	4521	4521	4521	4521	4521	4521	4521	4521	4521	4521	4521	4521	4521	4581	4581	4581	4521	4581	4581	4643	4643	4643	4706	4771	4771	4706	4706	4706	4643	4643	4643	4581	4643	4581	4581	4581	4581	4643	4643	4643	4643	4643	4643	4643	4643	4581	4581	4581	4581	4581	4581	4581	4581	4581	4581	4581	4581	4581	4581	4581	4581	4581	4581	4581	4581	4643	4643	4643	4643	4643	4643	4581	4643	4581	4581	4643	4643	4643	4643	4643	4643	4643	4643	4643	4643	4643	4706	4706	4706	4706	4706	4706	4706	4706	4643	4706	4706	4706	4706	4706	7779	7608	7608	7779	7959	7959	7959	7959	8146	8146	8146	8146	8146	8146	8146	8146	8146	7959	8146	8146	8146	8146	8146	8146	8146	8146	8146	7959	8146	8146	7959	8146	7959	8146	8146	8146	7959	7959	7959	7959	7959	7959	7959	7959	8146	8146	8146	7959	8146	8146	8146	7959	7959	7959	7959	7959	7779	7959	7959	8146	8146	8146	8146	8146	8146	7959	7959	7959	7959	8146	8146	7959	8146	7959	7779	7779	7608	7608	7287	6992	6592	6592	6468	6592	6592	0	0	0	0	0	0	0	0	0	0	0	0	0	0	0	0	0	0	0	0	0	0	0	0	0	0	0	0	0	0	0	0
0	0	719	720	725	726	728	729	729	731	734	736	736	736	736	753	753	755	756	756	760	761	761	770	770	772	780	784	784	784	786	786	788	789	797	800	802	804	804	806	810	812	814	815	817	823	823	839	841	841	843	848	848	850	852	852	856	860	869	873	882	884	887	887	891	894	894	903	908	913	915	915	917	920	922	922	937	942	945	948	950	953	955	955	958	983	985	988	991	994	997	1000	1003	1006	1011	1014	1014	1020	1030	1030	1036	1039	1042	1052	1058	1071	1078	1078	1081	1085	1091	1095	1095	1098	1105	1105	1113	1113	1123	1123	1123	0	0	0	0	0	0	0	0	4771	4771	4771	4771	4838	4771	4771	4771	4771	4771	4771	4771	4771	4706	4706	4706	4706	4706	4706	4706	4706	4706	4706	4771	4771	4771	4771	4771	4771	4706	4706	4706	4706	4706	4643	4643	4643	4643	4643	4643	4643	8343	8343	8343	8343	8146	8146	8146	8146	8146	8146	8146	8146	8146	8146	8146	7959	7959	8146	8146	8146	8146	8146	8146	8146	8146	8146	8146	8343	8146	8146	8146	8146	8146	8146	8146	8146	8146	8146	8146	8146	8146	8146	8146	8343	8343	8146	8146	8146	8146	8146	8146	8146	8146	8146	8146	8146	8146	8146	8146	8146	8146	8146	8146	7959	7959	7959	7959	8146	8146	8146	8146	8343	8343	8343	8146	8146	8146	8146	8146	8146	8146	8146	8146	8146	8146	8146	8146	8343	8146	8343	8343	8343	8343	8146	8146	0	3738	3738	3659	3698	3698	3698	3698	3698	3698	3738	3698	3698	3738	3738	3738	3698	3698	3698	3659	3659	3659	3621	3621	3621	3621	3621	3621	3621	3583	3583	3583	3583	3583	3583	3583	3583	3583	3583	3583	3583	3583	3583	3583	3583	3583	3583	3583	3583	3583	3583	3621	3621	3621	3621	3621	3621	3621	3621	3621	3621	3621	3659	3659	3698	3698	3738	3738	3738	3738	3779	3738	3738	3738	3738	3698	3738	3698	3698	3698	4838	4838	4771	4771	4771	4771	4706	4643	4643	4706	4643	4643	4643	4706	4706	4706	4706	4706	4706	4706	4706	4706	4706	4706	4706	4706	4706	4643	4643	4643	4706	4706	4706	4706	4706	4706	4706	4706	4771	4771	4771	4771	4771	4771	4771	4771	4771	4706	4706	4643	4643	4643	4643	4643	4643	4643	4643	4643	4706	4643	4643	4643	4706	4706	4706	4706	4706	4771	4706	4706	4643	4581	4521	4581	4521	4521	4521	4581	4581	4521	4521	4581	4581	4581	4581	4521	4521	4521	4521	4521	4521	4581	4581	4581	4521	4521	4581	4643	4643	4643	4706	4706	4643	4706	4643	4643	4581	4581	4581	4521	4581	4581	4581	4581	4581	4643	4643	4643	4643	4643	4581	4581	4581	4521	4581	4521	4581	4581	4581	4581	4581	4581	4581	4581	4581	4581	4581	4581	4581	4581	4581	4581	4581	4581	4643	4643	4581	4581	4581	4581	4581	4581	4581	4581	4643	4643	4643	4643	4643	4643	4643	4643	4643	4643	4706	4706	4706	4706	4706	4706	4706	4706	4706	4706	4706	4706	4706	4706	7779	7779	7779	7959	8146	8146	8146	8146	8146	8146	8146	8146	8146	8146	8146	8146	8146	8146	8146	8146	8146	8146	8146	8146	8146	8146	8146	7959	8146	7959	7959	8146	7959	8146	8146	8146	8146	7959	8146	7959	7959	7959	8146	8146	8146	8146	8146	8146	8146	8146	8146	8146	8146	8146	8146	7959	7959	7959	8146	8146	8146	8146	8146	7959	7959	7779	7959	7779	7959	7959	7959	7779	7959	8146	7779	7779	7444	7287	6720	6592	6468	6468	6468	6468	6468	0	0	0	0	0	0	0	0	0	0	0	0	0	0	0	0	0	0	0	0	0	0	0	0	0	0	0	0	0	0	0	0
0	0	720	720	725	726	728	729	729	731	732	736	734	734	736	736	756	756	756	760	760	761	765	770	770	772	773	782	784	784	786	786	788	791	798	802	804	804	804	808	810	810	814	817	819	823	827	833	841	841	843	845	848	850	850	852	858	862	871	875	882	884	887	887	891	894	894	903	910	913	913	915	917	917	920	922	932	940	945	948	950	953	953	953	953	972	983	985	988	997	1000	1003	1003	1006	1008	1011	1017	1023	1023	1030	1030	1036	1045	1052	1058	1061	1074	1074	1078	1081	1091	1095	1095	1098	1105	1109	1109	1113	1120	1123	1123	0	0	0	0	0	0	0	0	4771	4771	4771	4771	4838	4771	4771	4771	4771	4771	4771	4771	4771	4771	4706	4706	4706	4706	4706	4706	4706	4706	4706	4706	4706	4706	4771	4771	4706	4706	4706	4706	4706	4706	4643	4643	4643	4643	4581	4581	4581	8343	8343	8146	8146	8343	8146	8146	8146	8146	8146	8146	8146	8146	8146	8146	8146	8146	8146	8146	8146	8146	8146	8146	8146	8146	8146	8146	8146	8146	8146	8146	8146	8146	7959	7959	8146	8146	8146	8146	8146	8146	8146	8146	8146	8146	8146	8146	8146	8146	8146	8146	8146	8146	8146	8146	8146	8146	8146	8146	8146	8146	8146	8146	7959	7959	7959	8146	8146	8146	7959	7959	7959	8146	8146	8146	8146	8146	8146	8146	8146	8146	8343	8146	8343	8343	8343	8343	8146	8146	8146	8146	8146	8146	7959	3738	3738	3738	3738	3698	3698	3698	3698	3659	3659	3698	3698	3698	3698	3698	3698	3738	3698	3698	3698	3659	3621	3659	3621	3621	3621	3621	3621	3583	3621	3583	3583	3583	3583	3583	3583	3583	3583	3583	3583	3583	3583	3583	3583	3583	3583	3583	3583	3583	3583	3583	3583	3621	3621	3621	3621	3621	3621	3621	3621	3621	3621	3621	3659	3659	3659	3698	3698	3738	3738	3738	3738	3698	3738	3738	3698	3698	3698	3698	3698	3698	4838	4838	4771	4771	4771	4706	4643	4643	4706	4706	4706	4706	4706	4706	4706	4706	4706	4706	4706	4706	4706	4706	4706	4706	4706	4706	4706	4643	4643	4643	4706	4706	4706	4706	4706	4706	4706	4706	4706	4706	4706	4771	4771	4771	4771	4771	4771	4706	4706	4706	4706	4643	4643	4643	4643	4643	4706	4706	4706	4643	4643	4706	4706	4706	4706	4706	4706	4771	4706	4706	4643	4643	4643	4581	4521	4521	4521	4581	4581	4521	4521	4521	4521	4521	4521	4521	4521	4581	4521	4521	4521	4581	4581	4581	4521	4521	4581	4581	4581	4581	4643	4643	4581	4581	4581	4521	4521	4521	4521	4521	4581	4581	4581	4581	4581	4581	4581	4581	4581	4581	4581	4581	4581	4521	4581	4521	4521	4521	4521	4521	4521	4521	4521	4521	4521	4521	4521	4521	4521	4521	4521	4581	4581	4581	4581	4581	4581	4581	4581	4581	4581	4581	4581	4643	4643	4643	4643	4643	4643	4643	4643	4643	4643	4643	4706	4706	4706	4706	4706	4706	4706	4706	4706	4706	4706	4706	4706	4706	7779	7959	7959	8146	8146	8146	8146	8146	8146	8146	8146	8146	8146	8146	8146	8146	8146	8146	8146	8146	8146	8146	8146	8343	8146	8146	8146	7959	8146	8146	8146	8146	8146	8146	8146	8146	8146	7959	8146	7959	8146	8146	8146	8146	8343	8343	8146	8146	8146	8146	8146	8146	7959	7959	7959	7959	7959	7959	7959	7959	8146	8146	8146	8146	7959	7959	7959	7779	7959	7959	7779	7779	7444	6468	6468	6592	6592	6468	6468	6468	6468	6468	6468	6468	6468	0	0	0	0	0	0	0	0	0	0	0	0	0	0	0	0	0	0	0	0	0	0	0	0	0	0	0	0	0	0	0	0
0	0	720	720	725	726	728	729	731	731	732	732	732	732	732	732	760	760	760	760	761	763	765	770	770	772	773	780	782	784	784	786	786	789	798	800	802	804	806	808	810	810	812	815	815	821	821	841	841	841	843	845	848	848	850	852	860	865	873	875	880	882	887	887	889	891	894	901	913	913	915	915	917	917	917	920	935	942	945	948	950	953	953	955	955	969	980	983	985	997	1000	1000	1003	1006	1006	1017	1020	1023	1023	1030	1039	1045	1048	1055	1058	1061	1071	1071	1074	1081	1088	1091	1095	1098	1105	1105	1109	1113	1120	1123	1123	0	0	0	0	0	0	0	0	4771	4771	4771	4771	4771	4771	4771	4771	4838	4838	4771	4771	4771	4771	4706	4706	4706	4771	4706	4771	4771	4771	4771	4771	4771	4771	4771	4771	4771	4706	4706	4706	4706	4706	4643	4643	4643	4643	4643	4643	4643	8343	8343	8343	8343	8146	8146	8146	8146	8146	8146	8146	8146	8146	8146	8146	8146	8146	8146	8146	8146	8146	8146	8146	8146	8146	8146	8146	8146	8146	8146	8146	8146	8146	8146	7959	7959	7959	7959	8146	8146	8146	8146	8146	8146	8146	8146	8146	8146	8146	8146	8146	8146	8146	8146	8146	8146	8146	8146	8146	7959	8146	8146	8146	7959	7959	7959	7959	7959	7959	7959	7959	7959	8146	8146	8146	8146	8146	8343	8146	8146	8146	8146	8146	8343	8343	8343	8343	8343	8146	8343	8146	8146	8146	3698	3738	3738	3738	3698	3698	3698	3659	3659	3698	3698	3698	3698	3698	3698	3698	3698	3698	3698	3698	3698	3659	3621	3659	3621	3621	3621	3583	3621	3583	3583	3583	3583	3583	3583	3583	3583	3583	3583	3583	3583	3583	3583	3583	3583	3583	3583	3583	3583	3583	3583	3583	3583	3621	3621	3621	3621	3621	3621	3621	3621	3621	3621	3621	3659	3659	3659	3698	3698	3698	3698	3698	3698	3698	3698	3698	3698	3698	3698	3698	3698	3659	3659	4838	4771	4771	4771	4706	4706	4643	4706	4706	4706	4706	4706	4706	4706	4706	4706	4706	4706	4706	4771	4706	4706	4706	4706	4706	4706	4643	4643	4643	4706	4706	4706	4706	4771	4706	4706	4706	4706	4706	4706	4771	4706	4706	4771	4771	4706	4706	4706	4706	4706	4643	4643	4643	4643	4643	4706	4643	4706	4643	4706	4706	4706	4706	4706	4706	4706	4771	4706	4706	4643	4643	4643	4581	4581	4521	4521	4581	4581	4581	4581	4521	4521	4521	4521	4521	4521	4581	4521	4521	4521	4521	4521	4521	4521	4521	4521	4581	4521	4521	4521	4581	4463	4463	4463	4463	4463	4463	4463	4463	4463	4521	4521	4521	4521	4521	4521	4521	4581	4521	4521	4521	4521	4521	4521	4521	4521	4521	4463	4521	4521	4463	4463	4463	4463	4463	4463	4463	4521	4521	4521	4581	4581	4581	4581	4581	4581	4581	4581	4581	4581	4581	4643	4643	4643	4643	4643	4643	4643	4643	4643	4643	4643	4643	4706	4706	4706	4706	4706	4706	4706	4706	4706	4706	4706	4706	4706	4771	4906	4906	7959	8146	8146	8146	8146	8146	8146	8146	8146	8146	8146	8146	8146	8146	8343	8146	8146	8146	8146	8343	8343	8343	8146	8146	8146	7959	8146	8343	8146	8146	8146	8146	8146	8146	8146	8146	8146	8146	8146	8146	8146	8146	8146	8146	8146	8146	8146	8146	8146	7959	7959	7959	7779	7779	7608	7779	7779	8146	8146	8146	8146	8146	7959	7959	7959	7959	7959	7959	7608	7444	7444	6468	6468	6468	6468	6468	6468	6468	6468	6349	6468	6468	6468	0	0	0	0	0	0	0	0	0	0	0	0	0	0	0	0	0	0	0	0	0	0	0	0	0	0	0	0	0	0	0	0
0	0	719	719	719	726	726	728	729	731	732	732	732	732	732	732	760	761	761	760	761	763	768	768	768	770	773	779	780	782	784	788	788	789	797	800	802	804	808	810	810	812	814	815	817	821	825	835	841	843	845	848	848	850	850	852	867	873	875	878	880	882	884	889	891	894	896	913	913	913	915	915	915	917	917	920	932	942	945	950	950	953	950	953	958	966	974	974	985	997	1000	1003	1006	1008	1014	1017	1020	1023	1023	1023	1030	1042	1048	1055	1058	1061	1064	1071	1074	1081	1091	1091	1095	1098	1105	1105	1109	1113	1116	1116	1123	0	0	0	0	0	0	0	4771	4771	4771	4771	4838	4838	4771	4838	4771	4838	4838	4771	4771	4771	4771	4771	4706	4706	4771	4706	4771	4771	4771	4771	4771	4771	4771	4771	4771	4706	4706	4706	4706	4706	4706	4706	4643	4643	4643	4643	4643	4643	8343	8343	8343	8343	8146	8146	8146	8146	8146	8146	8146	8146	8146	8146	8146	8146	8146	8146	8146	8146	8146	8146	8146	8146	8146	8146	8146	8146	8146	8146	8146	8146	7959	7959	7959	8146	7959	7959	7959	7959	8146	8146	8146	8146	8146	8146	8146	8146	8146	8146	8146	7959	8146	8146	8146	8146	7959	7959	7959	7959	7959	8146	8146	8146	8146	8146	8146	8146	7959	7959	7959	7959	8146	8146	8146	8146	8146	8146	8146	8146	8146	8146	8146	8343	8343	8343	8343	8343	8343	8343	8343	8343	8343	3698	3698	3738	3738	3738	3698	3698	3659	3698	3698	3698	3698	3698	3698	3698	3698	3698	3698	3698	3698	3698	3659	3659	3659	3621	3621	3621	3621	3621	3621	3621	3583	3583	3583	3583	3583	3583	3583	3583	3583	3621	3621	3583	3583	3583	3583	3583	3583	3583	3583	3583	3583	3583	3621	3621	3621	3621	3621	3621	3621	3621	3621	3621	3621	3621	3659	3659	3659	3698	3698	3698	3698	3698	3698	3698	3659	3659	3659	3659	3659	3659	3659	3659	4838	4771	4771	4706	4706	4706	4706	4706	4706	4706	4643	4706	4706	4706	4706	4706	4706	4771	4706	4771	4706	4771	4706	4706	4706	4706	4643	4706	4706	4706	4706	4643	4643	4706	4706	4643	4643	4706	4706	4706	4706	4706	4706	4706	4706	4706	4706	4706	4706	4706	4706	4706	4643	4643	4706	4643	4643	4706	4643	4643	4706	4706	4706	4706	4706	4706	4771	4706	4706	4643	4643	4643	4643	4643	4581	4521	4581	4581	4581	4581	4521	4521	4521	4521	4521	4521	4521	4521	4521	4521	4521	4521	4521	4521	4521	4521	4521	4581	4581	4521	4521	4463	4463	4463	4463	4406	4463	4406	4463	4463	4463	4463	4463	4463	4463	4463	4463	4463	4463	4463	4463	4463	4463	4521	4463	4521	4463	4463	4463	4463	4406	4463	4406	4406	4406	4463	4406	4463	4521	4521	4521	4581	4581	4643	4643	4581	4581	4581	4581	4581	4643	4643	4643	4643	4643	4643	4643	4643	4643	4643	4643	4643	4643	4706	4706	4706	4706	4706	4706	4706	4706	4706	4706	4706	4706	4706	4771	4771	7959	8146	8146	8146	8146	8146	8146	8146	8146	8146	8146	8146	7959	8146	8146	8146	8343	8343	8343	8146	8343	8343	8343	8146	8343	8146	8146	8146	8343	8146	8343	8343	8343	8343	8343	8343	8146	8146	8146	8146	8146	8146	8146	8343	8146	8343	8146	8146	8146	7959	7959	7959	7779	7779	7608	7608	7779	7779	8146	8146	8146	8146	8146	8146	7959	7959	7779	7779	7608	7444	7287	6468	6468	6468	6468	6468	6468	6349	6349	6349	6349	6468	6468	6468	0	0	0	0	0	0	0	0	0	0	0	0	0	0	0	0	0	0	0	0	0	0	0	0	0	0	0	0	0	0	0	0
