0	0	0	0	0	0	0	0	0	1277	1277	1282	1291	1296	1306	1311	1311	1316	1316	1321	1326	1331	1336	1336	1342	1342	1342	1342	1407	1407	1413	1419	1419	1419	1419	1419	1443	1443	1449	1455	1455	1461	1461	1473	1480	1480	1499	1499	1506	1512	1512	1512	1519	1512	1512	1512	1506	1512	1512	0	0	0	0	0	5535	5626	5719	5535	5626	5626	5719	5626	5626	5535	5535	5535	5535	5448	5448	5535	5535	5626	5626	5626	5626	5626	5626	5626	5535	5535	5535	5535	5535	5535	5535	5535	5535	0	0	0	0	0	0	0	0	2076	2063	2063	2063	2051	2051	2039	2027	2027	2027	2027	2027	2027	2027	2015	2015	2015	2003	1980	1969	1947	1936	1936	1925	1925	1915	1925	1915	1915	1925	1925	1925	1936	1936	1947	1958	1980	1992	2003	2003	2003	2003	2003	2003	2003	2003	2015	2027	2027	2027	2027	2039	2039	2039	2051	2051	2051	2063	2063	2063	2063	2076	2088	2088	2088	2101	2101	2101	2101	2114	2114	2127	2127	2127	2140	2140	2153	2153	2153	2167	2167	0	0	4463	4463	4406	4406	4463	4463	4463	4406	4406	4463	4463	4463	4463	4463	4463	4521	4521	4521	4521	4463	4463	4406	4406	4463	4463	4406	4406	4406	4463	4521	4463	4463	4463	4463	4463	4463	4463	4463	4463	4463	4463	4463	4463	4463	4463	4406	4406	4350	4350	4350	4406	4350	4406	4406	4406	4463	4463	4406	4463	4406	4406	4406	4406	4406	4406	4406	4350	4406	4350	4406	4406	4406	4406	4406	4406	4406	4406	4406	4406	4406	4406	4406	4406	4406	4406	4406	4406	4406	4406	4406	4463	4463	4463	4463	4463	4463	4463	4463	4463	4406	4463	4406	4463	4406	3475	3475	3475	3475	3440	3475	3440	3440	3440	3440	3406	3406	3406	3406	3406	3406	3406	3406	3406	3406	3373	3341	3341	3341	3341	3309	3309	3309	3309	3309	3309	3309	3309	3309	3309	3309	3309	3309	3309	3309	3309	3309	3309	3309	3309	3309	3309	3341	3341	3341	3341	3341	3341	3341	3341	3341	3341	3373	3373	3373	3373	3373	3373	3373	3373	3373	3341	3341	3341	3341	4463	4406	4406	4350	4406	4350	4350	4350	4350	4406	4406	4350	4406	4406	4406	4406	4406	4406	4406	4406	4350	4350	4406	4406	4406	4406	4406	4406	4463	4463	4406	4463	4463	4463	4463	4406	4463	4463	4463	4463	4406	4406	4406	4463	4406	4406	4406	4406	4406	4350	4350	4350	4350	4406	4406	4406	4406	4406	4463	4406	4406	4406	4406	4406	4350	4350	4296	4296	4296	4296	4296	4296	4296	4350	4350	4406	4406	4406	4406	4350	4406	4350	4296	4296	4350	4350	4350	4350	4406	4350	4350	4406	4406	4406	4406	4406	4406	4406	4406	4406	4406	4406	4406	4350	4350	4350	4350	4350	4350	4350	0	7959	7959	7779	7779	7779	7779	7779	7779	7779	7959	7959	7959	7959	7959	7779	7779	7779	7779	7779	7779	7779	7779	7608	7608	7608	7444	7444	7287	7137	7137	7137	6992	6992	6992	6992	7137	6992	6992	6992	6992	6992	6853	6853	6853	6720	6720	6592	6468	6468	6592	6468	6468	6468	6468	6468	6349	6349	6349	6349	6349	6349	6349	6349	6235	6235	6124	6018	6018	6018	6018	5915	5915	5915	5915	5815	5815	5719	5719	5626	5626	5626	5626	5626	5626	5626	5626	5626	5535	5535	5535	5535	5448	5448	5364	5282	5282	5282	5202	5202	5202	5202	5125	5125	5050	5050	4977	4977	4906	4906	4906	4906	4906	4906	4906	4906	4906	4838	4771	4771	4706	4706	4706	4706	4643	4643	4581	4521	4581	4521	4521	4521	4463	4463	0	0	0	0	0	0	0	0	0	0	0	0	0	0	0	0	0	0	0	0	0	0	0	0	0	0	0	0	0	0	0	0	0	0
0	0	0	0	0	0	0	0	0	1272	1277	1287	1291	1296	1306	1311	1311	1316	1316	1316	1326	1326	1331	1336	1336	1352	1352	1352	1396	1402	1407	1407	1419	1419	1419	1425	1443	1449	1455	1455	1461	1461	1473	1480	1480	1486	1512	1512	1519	1519	1519	1519	1519	1519	1512	1512	1512	1512	1512	1506	1506	1506	0	0	5535	5626	5719	5626	5626	5719	5719	5719	5719	5626	5535	5535	5535	5535	5448	5535	5535	5626	5719	5626	5626	5626	5626	5626	5535	5626	5535	5535	5535	5535	5626	5535	5535	5535	0	0	0	0	0	0	0	2063	2063	2063	2063	2063	2039	2039	2027	2027	2027	2027	2027	2027	2027	2015	2015	2015	2003	1980	1969	1969	1947	1947	1925	1925	1925	1925	1925	1925	1925	1925	1936	1947	1936	1947	1958	1980	1969	1992	1992	1992	1992	1980	1980	1980	2003	2015	2027	2027	2027	2027	2039	2039	2051	2051	2051	2051	2063	2063	2063	2063	2063	2076	2088	2088	2101	2101	2101	2101	2114	2114	2114	2127	2127	2140	2140	2153	2153	2153	2167	2167	0	0	4521	4463	4463	4463	4463	4463	4463	4406	4406	4463	4406	4463	4406	4463	4463	4463	4463	4463	4521	4463	4406	4406	4406	4463	4463	4406	4406	4406	4463	4463	4463	4463	4463	4463	4463	4463	4463	4463	4463	4463	4463	4463	4463	4463	4463	4406	4406	4350	4350	4350	4350	4350	4350	4406	4406	4463	4463	4406	4463	4406	4406	4406	4406	4406	4406	4406	4350	4350	4350	4350	4350	4350	4350	4350	4406	4406	4406	4406	4463	4406	4406	4406	4406	4406	4406	4350	4406	4406	4463	4406	4463	4463	4463	4463	4463	4406	4463	4406	4406	4406	4406	4406	4406	4406	3475	3475	3475	3475	3440	3440	3440	3440	3440	3440	3406	3440	3406	3406	3406	3406	3406	3406	3406	3406	3373	3341	3341	3341	3341	3309	3309	3309	3309	3309	3309	3309	3309	3309	3309	3309	3309	3309	3309	3309	3277	3277	3309	3309	3309	3309	3309	3309	3309	3309	3309	3309	3341	3341	3341	3341	3373	3373	3373	3373	3341	3373	3373	3373	3373	3341	3341	3341	3373	3373	4463	4406	4406	4350	4406	4406	4350	4350	4350	4406	4406	4406	4406	4406	4406	4406	4406	4406	4406	4406	4350	4406	4406	4406	4406	4406	4406	4406	4463	4406	4406	4406	4406	4463	4463	4406	4406	4406	4463	4406	4406	4406	4406	4406	4406	4406	4350	4350	4350	4350	4350	4350	4350	4406	4350	4350	4350	4406	4406	4406	4406	4406	4406	4406	4350	4350	4296	4296	4296	4296	4296	4350	4296	4296	4350	4406	4406	4406	4406	4350	4350	4350	4296	4296	4296	4296	4350	4350	4350	4350	4350	4406	4406	4406	4406	4406	4406	4406	4406	4350	4406	4406	4350	4350	4350	4350	4350	4406	4350	4350	0	7959	7959	7779	7779	7779	7779	7779	7959	7959	7959	7959	7959	7959	7959	7779	7779	7779	7779	7779	7779	7779	7779	7608	7608	7608	7444	7444	7287	7137	7137	7287	7137	6992	7137	6992	7137	6992	6992	6992	6992	6853	6853	6853	6853	6720	6720	6468	6468	6468	6468	6468	6468	6468	6468	6468	6349	6349	6349	6349	6349	6349	6349	6349	6349	6235	6235	6018	5915	5915	5915	5915	5915	5915	5815	5815	5719	5719	5626	5626	5626	5626	5626	5626	5626	5626	5626	5626	5535	5535	5535	5535	5535	5448	5448	5282	5282	5202	5202	5202	5202	5202	5202	5202	5050	4977	4977	4977	4906	4906	4906	4906	4906	4906	4838	4838	4906	4838	4771	4771	4706	4706	4706	4643	4643	4643	4581	4521	4581	4581	4521	4521	4463	4463	0	0	0	0	0	0	0	0	0	0	0	0	0	0	0	0	0	0	0	0	0	0	0	0	0	0	0	0	0	0	0	0	0	0
0	0	0	0	0	0	0	0	0	1272	1272	1287	1291	1291	1296	1306	1306	1311	1311	1311	1311	1326	1331	1331	1331	1358	1379	1396	1402	1402	1407	1407	1413	1419	1425	1425	1431	1443	1449	1455	1455	1461	1473	1480	1486	1499	1499	1512	1519	1519	1519	1519	1519	1519	1519	1512	1512	1519	1519	1512	1512	1553	1553	0	0	0	0	5626	5719	5719	5719	5719	5719	5535	5535	5535	5535	5535	5448	5448	5535	5626	5719	5626	5626	5626	5626	5626	5626	5626	5535	5535	5535	5626	5626	5535	5626	5626	0	0	0	0	0	0	0	2063	2063	2063	2063	2051	2039	2027	2027	2027	2027	2027	2027	2027	2027	2015	2015	2015	2003	1980	1969	1969	1958	1947	1936	1925	1925	1925	1925	1925	1915	1925	1925	1925	1936	1947	1947	1958	1958	1980	1980	1980	1980	1980	1980	1980	1992	2015	2015	2015	2015	2015	2027	2027	2039	2039	2051	2051	2051	2051	2051	2063	2063	2076	2076	2088	2088	2101	2101	2101	2114	2114	2114	2114	2127	2127	2140	2153	2153	2140	2153	2153	2153	0	4521	4521	4463	4463	4463	4463	4463	4406	4406	4463	4406	4463	4406	4463	4463	4463	4463	4463	4463	4463	4406	4406	4406	4463	4406	4406	4406	4406	4406	4463	4463	4463	4463	4463	4463	4463	4463	4463	4463	4463	4463	4463	4463	4463	4406	4406	4406	4350	4350	4350	4350	4350	4350	4406	4406	4463	4463	4406	4463	4406	4406	4406	4406	4406	4406	4406	4350	4406	4406	4406	4406	4406	4406	4406	4406	4406	4406	4406	4406	4406	4406	4406	4406	4406	4406	4406	4406	4406	4463	4463	4406	4406	4463	4463	4406	4406	4406	4406	4406	4406	4406	4350	4350	4350	3475	3475	3475	3475	3440	3440	3440	3440	3440	3440	3440	3440	3406	3406	3406	3406	3406	3406	3406	3373	3406	3341	3341	3341	3309	3309	3309	3309	3309	3309	3309	3309	3309	3309	3309	3309	3309	3309	3277	3277	3277	3277	3309	3309	3309	3309	3309	3309	3309	3309	3309	3309	3341	3341	3341	3341	3341	3341	3373	3373	3341	3373	3373	3341	3341	3341	3341	3341	3373	3373	4406	4350	4350	4350	4350	4350	4350	4350	4350	4406	4406	4406	4406	4406	4463	4463	4406	4406	4406	4463	4406	4406	4406	4406	4406	4406	4406	4406	4463	4406	4406	4406	4463	4463	4463	4406	4463	4463	4463	4406	4406	4406	4463	4463	4406	4406	4406	4406	4406	4350	4350	4350	4350	4350	4350	4350	4406	4406	4406	4406	4406	4406	4406	4406	4350	4350	4296	4296	4296	4296	4296	4296	4296	4350	4350	4406	4350	4406	4406	4350	4350	4350	4296	4296	4296	4296	4350	4350	4406	4350	4350	4350	4406	4406	4350	4350	4350	4406	4350	4350	4350	4406	4406	4350	4406	4406	4350	4406	4406	4406	7959	7959	7779	7779	7779	7779	7779	7779	7779	7959	7959	7779	7779	7959	7959	7779	7779	7779	7779	7779	7779	7779	7779	7608	7608	7608	7444	7444	7444	7287	7287	7287	7137	7137	7137	7137	7137	6992	6992	6992	6992	6853	6853	6853	6853	6720	6592	6468	6468	6468	6468	6468	6468	6468	6468	6468	6349	6349	6349	6235	6349	6349	6349	6349	6235	6235	6124	5915	5915	5915	5915	5915	5915	5915	5815	5815	5719	5719	5626	5626	5626	5626	5626	5626	5626	5626	5626	5535	5535	5535	5535	5535	5535	5448	5448	5282	5282	5202	5202	5202	5202	5202	5125	5125	5050	4977	4977	4977	4906	4906	4906	4906	4906	4906	4906	4838	4906	4838	4838	4771	4706	4706	4706	4643	4643	4643	4581	4581	4581	4581	4581	4521	4463	4463	0	0	0	0	0	0	0	0	0	0	0	0	0	0	0	0	0	0	0	0	0	0	0	0	0	0	0	0	0	0	0	0	0	0
0	0	0	0	0	0	0	0	0	1272	1272	1282	1287	1291	1296	1306	1311	1311	1311	1316	1321	1326	1331	1331	1352	1352	1352	1402	1402	1402	1407	1413	1413	1425	1425	1425	1431	1443	1449	1455	1455	1461	1461	1473	1486	1499	1506	1512	1519	1519	1519	1519	1519	1519	1519	1519	1519	1525	1525	1546	1546	1553	1553	1553	0	0	0	0	5719	5719	5815	5719	5719	5535	5535	5535	5535	5535	5448	5448	5535	5535	5626	5626	5626	5626	5626	5626	5626	5626	5535	5535	5535	5626	5626	5535	5626	5626	0	0	0	0	0	0	0	2063	2063	2063	2063	2063	2039	2027	2027	2027	2027	2027	2027	2027	2015	2015	2015	2003	1992	1980	1969	1969	1969	1958	1947	1936	1936	1936	1925	1925	1925	1925	1925	1925	1947	1947	1947	1958	1969	1969	1969	1969	1980	1980	1980	1980	1992	2015	2015	2015	2015	2015	2027	2027	2039	2051	2051	2051	2051	2051	2063	2063	2063	2076	2076	2088	2088	2101	2101	2101	2101	2114	2114	2114	2127	2127	2140	2140	2140	2140	2140	2140	2140	0	0	4521	4521	4463	4463	4463	4406	4406	4406	4406	4406	4463	4406	4463	4463	4463	4463	4463	4463	4463	4406	4406	4406	4406	4406	4406	4406	4406	4406	4406	4463	4463	4463	4463	4521	4521	4521	4521	4463	4521	4463	4463	4463	4463	4463	4406	4406	4406	4350	4350	4350	4350	4350	4406	4406	4463	4463	4406	4463	4406	4406	4406	4406	4406	4406	4406	4350	4406	4406	4406	4406	4406	4406	4406	4406	4406	4406	4406	4406	4406	4406	4406	4406	4406	4406	4406	4406	4406	4463	4463	4463	4406	4406	4406	4406	4406	4350	4350	4350	4350	4350	4350	4350	3475	3475	3475	3475	3440	3440	3440	3440	3440	3440	3440	3440	3440	3406	3406	3406	3406	3406	3406	3406	3373	3373	3309	3341	3309	3309	3309	3309	3309	3309	3309	3309	3309	3309	3309	3309	3309	3309	3309	3277	3277	3277	3277	3277	3309	3309	3309	3309	3309	3309	3309	3309	3309	3309	3309	3341	3341	3341	3341	3373	3373	3373	3373	3373	3341	3341	3341	3341	3341	3341	3341	4406	4350	4350	4350	4350	4350	4350	4350	4350	4406	4406	4406	4406	4406	4463	4463	4463	4463	4463	4463	4406	4406	4406	4406	4406	4406	4406	4406	4463	4406	4406	4406	4463	4463	4463	4406	4463	4463	4406	4406	4463	4463	4463	4406	4406	4406	4406	4406	4406	4406	4406	4406	4406	4406	4350	4406	4406	4406	4406	4406	4406	4406	4406	4350	4350	4350	4296	4296	4296	4296	4296	4296	4296	4350	4350	4406	4350	4406	4406	4406	4406	4350	4296	4296	4296	4296	4350	4350	4350	4350	4350	4350	4406	4350	4350	4350	4350	4350	4350	4350	4350	4406	4406	4350	4406	4406	4350	4406	4406	4406	7779	7779	7779	7779	7779	7779	7779	7779	7779	7779	7779	7779	7779	7959	7959	7779	7779	7779	7779	7779	7608	7608	7608	7608	7608	7608	7444	7444	7287	7287	7137	7287	6992	6992	7137	7137	7137	6992	6992	6992	6992	6992	6853	6853	6853	6720	6720	6468	6468	6468	6468	6468	6468	6468	6468	6349	6349	6235	6235	6235	6349	6235	6235	6235	6235	6235	6124	5915	5915	5915	5915	5915	5915	5915	5815	5815	5815	5815	5719	5626	5626	5626	5626	5626	5626	5626	5626	5535	5535	5535	5535	5535	5448	5448	5282	5282	5282	5282	5202	5202	5202	5202	5202	5125	5050	4977	4977	4977	4906	4906	4906	4906	4906	4906	4906	4771	4906	4838	4838	4771	4706	4706	4771	4643	4643	4643	4643	4581	4643	4581	4581	4581	4463	4463	0	0	0	0	0	0	0	0	0	0	0	0	0	0	0	0	0	0	0	0	0	0	0	0	0	0	0	0	0	0	0	0	0	0
0	0	0	0	0	0	0	0	0	1272	1272	1282	1287	1291	1291	1306	1306	1311	1311	1311	1321	1321	1326	1331	1347	1347	1347	1396	1402	1402	1419	1419	1413	1419	1419	1425	1425	1443	1449	1455	1461	1461	1467	1473	1480	1492	1499	1499	1512	1519	1519	1519	1525	1519	1525	1525	1539	1539	1546	1546	1553	1553	1560	1560	1560	0	1574	1574	1574	5719	5535	5535	5535	5535	5535	5535	5535	5535	5448	5448	5535	5535	5535	5535	5626	5626	5626	5626	5626	5626	5626	5535	5535	5535	5626	5626	5626	5626	5626	0	0	0	0	0	0	2063	2063	2063	2063	2063	2063	2039	2027	2027	2027	2027	2027	2027	2015	2015	2015	2015	2003	1980	1980	1969	1969	1969	1958	1969	1958	1958	1947	1936	1925	1925	1925	1925	1936	1947	1947	1958	1958	1969	1969	1969	1980	1980	1980	1980	1992	2003	2015	2015	2015	2015	2015	2015	2027	2039	2051	2051	2051	2051	2051	2051	2063	2063	2063	2076	2076	2088	2101	2101	2114	2127	2127	2127	2127	2127	2140	2140	2140	2140	2153	2153	2153	0	0	4521	4521	4463	4406	4463	4406	4406	4406	4406	4406	4406	4406	4406	4463	4463	4463	4463	4463	4406	4406	4406	4406	4406	4406	4406	4406	4406	4406	4463	4463	4463	4463	4521	4521	4521	4521	4521	4463	4521	4463	4463	4463	4463	4406	4406	4406	4406	4350	4350	4350	4350	4350	4406	4406	4406	4463	4406	4406	4406	4406	4406	4406	4406	4406	4406	4350	4350	4350	4406	4406	4406	4406	4406	4406	4406	4406	4406	4463	4463	4463	4406	4406	4463	4406	4406	4406	4406	4463	4463	4463	4406	4406	4406	4350	4350	4350	4350	4350	4350	4350	4350	4406	3475	3475	3475	3440	3440	3440	3440	3440	3440	3440	3440	3406	3440	3406	3406	3406	3373	3373	3373	3373	3373	3373	3309	3309	3309	3309	3309	3309	3309	3309	3309	3309	3309	3309	3309	3309	3309	3309	3309	3277	3277	3277	3277	3277	3277	3277	3309	3309	3309	3309	3309	3309	3309	3309	3309	3309	3309	3341	3341	3373	3373	3373	3373	3373	3341	3341	3341	3341	3341	3341	3341	3373	3373	4350	4350	4350	4350	4350	4350	4350	4350	4406	4350	4406	4406	4463	4463	4463	4463	4463	4463	4406	4406	4406	4406	4406	4406	4406	4406	4463	4406	4406	4406	4463	4463	4406	4406	4463	4406	4406	4406	4406	4463	4406	4406	4406	4463	4406	4406	4406	4406	4406	4406	4406	4406	4350	4350	4406	4406	4406	4406	4406	4406	4406	4406	4350	4350	4296	4296	4296	4296	4296	4296	4296	4350	4350	4406	4350	4406	4406	4350	4406	4350	4296	4350	4350	4296	4350	4350	4350	4350	4350	4350	4406	4406	4406	4406	4406	4406	4350	4350	4350	4406	4406	4350	4350	4350	4406	4406	4350	4350	7779	7608	7779	7779	7779	7779	7779	7779	7779	7779	7779	7779	7779	7779	7779	7779	7779	7779	7779	7779	7779	7779	7779	7608	7608	7608	7444	7287	7287	7137	7137	7137	6992	6992	6992	6992	6992	6992	6992	6992	6992	6992	6853	6853	6853	6720	6720	6592	6468	6468	6468	6468	6349	6468	6468	6349	6349	6235	6235	6235	6235	6235	6235	6235	6235	6235	6124	5915	5915	5915	5915	5915	5915	5915	5915	5815	5815	5815	5719	5719	5626	5626	5626	5626	5626	5626	5626	5535	5535	5535	5535	5535	5535	5448	5364	5282	5282	5282	5202	5202	5202	5202	5125	5125	5050	4977	4977	4977	4977	4977	4906	4906	4906	4906	4838	4838	4838	4838	4771	4771	4771	4771	4706	4643	4643	4643	4643	4643	4643	4581	4581	4521	4521	4521	0	0	0	0	0	0	0	0	0	0	0	0	0	0	0	0	0	0	0	0	0	0	0	0	0	0	0	0	0	0	0	0	0	0
0	0	0	0	0	0	0	0	0	1272	1272	1277	1282	1287	1291	1296	1306	1311	1306	1311	1316	1321	1326	1336	1352	1358	1390	1402	1407	1407	1419	1413	1419	1419	1419	1425	1431	1443	1449	1455	1461	1467	1467	1473	1480	1480	1492	1492	1519	1525	1525	1525	1525	1525	1525	1525	1539	1539	1546	1546	1553	1553	1567	1567	1581	1581	1574	1574	1574	1574	5535	5535	5535	0	5535	5535	5448	5535	5448	5626	5626	5626	5626	5535	5535	5626	5626	5626	5626	5626	5626	5626	5535	5535	5626	5626	5626	5626	5626	0	0	0	0	0	0	2063	2063	2063	2063	2063	2051	2039	2027	2027	2027	2027	2027	2015	2015	2015	2003	2003	2003	1992	1980	1980	1980	1980	1969	1969	1969	1958	1958	1936	1925	1925	1925	1936	1936	1936	1947	1958	1958	1969	1969	1969	1969	1969	1980	1980	2003	2003	2015	2015	2015	2015	2027	2015	2027	2039	2039	2051	2051	2051	2051	2051	2063	2063	2063	2063	2076	2076	2101	2101	2114	2114	2127	2127	2127	2140	2140	2140	2140	2140	2153	2153	2153	0	0	4521	4521	4463	4406	4406	4406	4406	4350	4406	4406	4406	4406	4463	4463	4463	4463	4463	4463	4463	4406	4406	4406	4463	4406	4406	4406	4406	4406	4463	4463	4463	4463	4521	4521	4521	4463	4521	4463	4463	4463	4463	4463	4463	4406	4406	4406	4406	4350	4350	4350	4350	4350	4406	4406	4406	4463	4406	4406	4406	4406	4406	4350	4350	4350	4350	4350	4350	4350	4406	4406	4406	4406	4406	4406	4406	4406	4406	4463	4463	4463	4406	4406	4406	4406	4406	4406	4463	4463	4463	4463	4406	4406	4406	4350	4350	4350	4350	4350	4350	4350	4350	4350	3440	3475	3475	3440	3440	3440	3440	3440	3440	3440	3440	3406	3406	3406	3406	3406	3373	3373	3373	3373	3341	3341	3309	3309	3309	3309	3309	3309	3309	3309	3309	3309	3309	3309	3309	3309	3309	3277	3277	3277	3277	3277	3277	3277	3277	3277	3309	3309	3309	3309	3309	3309	3309	3309	3309	3309	3309	3341	3341	3373	3373	3373	3373	3373	3341	3341	3341	3341	3341	3341	3373	3373	3373	4350	4350	4350	4350	4350	4350	4350	4350	4350	4350	4406	4406	4406	4463	4463	4463	4463	4463	4463	4406	4406	4406	4406	4406	4406	4406	4406	4406	4406	4406	4406	4406	4406	4406	4463	4406	4406	4350	4406	4406	4406	4350	4406	4406	4406	4406	4406	4406	4406	4406	4406	4406	4406	4406	4406	4406	4406	4406	4406	4406	4406	4350	4350	4350	4350	4296	4296	4296	4296	4350	4296	4350	4350	4406	4350	4406	4406	4406	4406	4350	4296	4350	4350	4350	4350	4350	4350	4350	4350	4406	4406	4406	4406	4406	4406	4350	4350	4350	4350	4350	4350	4350	4406	4406	4406	4406	4463	4406	4406	7608	7779	7779	7779	7779	7779	7959	7959	7959	7959	7779	7779	7959	7779	7779	7779	7959	7779	7779	7779	7779	7608	7608	7608	7608	7444	7444	7287	7287	7287	7287	6992	6992	6992	6992	6992	6992	6992	6992	6853	6853	6853	6853	6853	6720	6720	6720	6592	6592	6468	6468	6349	6468	6468	6349	6349	6235	6235	6235	6235	6235	6018	6235	6235	6235	5915	6018	5915	5915	5915	5915	5915	5915	5915	5915	5915	5815	5815	5719	5626	5626	5626	5626	5626	5626	5626	5535	5535	5535	5535	5535	5535	5448	5364	5282	5282	5282	5202	5202	5202	5202	5202	5202	5125	5050	4977	4977	4977	4977	4906	4906	4906	4838	4838	4838	4838	4838	4771	4771	4771	4771	4771	4643	4643	4643	4643	4643	4643	4581	4581	4521	4521	4521	0	0	0	0	0	0	0	0	0	0	0	0	0	0	0	0	0	0	0	0	0	0	0	0	0	0	0	0	0	0	0	0	0	0
0	0	0	0	0	0	0	0	0	1272	1272	1277	1282	1287	1291	1296	1306	1306	1306	1311	1316	1321	1321	1321	1342	1342	1402	1407	1413	1419	1419	1419	1419	1419	1419	1425	1431	1443	1449	1461	1461	1467	1467	1473	1473	1486	1499	1506	1519	1525	1525	1525	1525	1525	1525	1532	1532	1532	1539	1546	1553	1553	1567	1574	1581	1581	1581	1581	1574	1574	0	0	0	0	0	5535	5535	5535	5448	5719	5719	5719	5626	5535	5535	5626	5535	5535	5626	5626	5626	5626	5626	5626	5626	5626	5626	5535	5535	0	0	0	0	0	0	0	2063	2063	2063	2063	2051	2039	2027	2027	2027	2027	2027	2015	2015	2015	2003	2003	2003	1992	1980	1980	1980	1969	1969	1969	1969	1969	1958	1958	1947	1947	1936	1947	1947	1947	1947	1958	1958	1969	1969	1969	1969	1969	1969	1980	2003	2003	2003	2003	2003	2015	2015	2015	2027	2027	2039	2051	2063	2051	2063	2063	2063	2063	2063	2063	2063	2076	2101	2101	2114	2114	2127	2127	2127	2140	2140	2140	2140	2153	2167	2153	2153	0	0	4521	4521	4463	4406	4406	4406	4350	4350	4350	4406	4406	4406	4463	4463	4463	4463	4463	4463	4463	4463	4463	4406	4463	4406	4406	4406	4406	4463	4463	4463	4463	4521	4521	4521	4521	4521	4521	4521	4463	4463	4463	4463	4463	4463	4406	4406	4406	4350	4350	4350	4350	4350	4406	4406	4406	4406	4406	4406	4406	4406	4406	4350	4350	4350	4350	4350	4350	4350	4350	4406	4406	4406	4406	4406	4406	4463	4406	4463	4463	4406	4406	4406	4406	4406	4406	4406	4463	4463	4463	4463	4406	4406	4406	4406	4350	4350	4350	4350	4350	4350	4350	4350	3440	3440	3440	3440	3440	3440	3440	3440	3440	3440	3440	3406	3406	3406	3406	3373	3373	3373	3341	3373	3341	3341	3309	3309	3309	3309	3309	3309	3309	3309	3309	3309	3309	3309	3309	3309	3309	3309	3277	3277	3277	3277	3277	3277	3277	3309	3309	3309	3309	3309	3309	3309	3309	3309	3309	3309	3309	3341	3341	3341	3341	3373	3341	3341	3341	3341	3309	3309	3341	3341	3341	3373	3373	4350	4350	4350	4350	4350	4350	4350	4350	4350	4406	4406	4406	4463	4463	4463	4463	4463	4463	4463	4463	4463	4406	4406	4406	4406	4406	4406	4406	4406	4406	4406	4406	4406	4406	4406	4406	4406	4406	4406	4406	4406	4350	4406	4406	4406	4406	4406	4406	4406	4406	4406	4406	4406	4406	4406	4350	4406	4406	4406	4406	4406	4350	4350	4350	4350	4296	4296	4296	4296	4350	4350	4350	4350	4350	4350	4406	4406	4350	4350	4350	4350	4350	4350	4350	4350	4350	4350	4350	4350	4350	4406	4350	4406	4350	4350	4350	4350	4296	4350	4350	4350	4350	4406	4406	4406	4406	4463	4463	4463	0	7779	7779	7779	7779	7779	7779	7779	7959	7959	7779	7779	7959	7779	7779	7779	7959	7779	7779	7779	7779	7608	7608	7608	7608	7444	7444	7287	7287	7287	7287	6992	6992	6992	6992	6992	6992	6853	6853	6853	6853	6853	6853	6720	6720	6720	6592	6720	6592	6468	6468	6592	6468	6468	6349	6349	6349	6235	6235	6235	6235	6018	6235	6235	6235	6018	6018	5915	5915	5915	5915	5915	5915	5915	5915	5915	5815	5719	5719	5626	5626	5626	5626	5626	5626	5626	5535	5626	5626	5535	5535	5535	5448	5364	5282	5282	5202	5202	5202	5202	5202	5202	5202	5050	5050	4977	4977	4977	4977	4906	4906	4906	4838	4838	4838	4838	4771	4771	4771	4706	4706	4706	4771	4643	4643	4643	4643	4643	4643	4581	4581	4521	4521	0	0	0	0	0	0	0	0	0	0	0	0	0	0	0	0	0	0	0	0	0	0	0	0	0	0	0	0	0	0	0	0	0	0
0	0	0	0	0	0	0	0	0	1272	1272	1277	1282	1291	1296	1296	1296	1296	1306	1311	1316	1321	1321	1326	1331	1331	1402	1407	1419	1419	1419	1413	1413	1419	1425	1425	1431	1443	1455	1461	1467	1467	1467	1473	1473	1486	1486	1492	1512	1519	1525	1525	1525	1525	1525	1525	1532	1532	1539	1546	1567	1567	1574	1581	1581	1581	1581	1581	1581	1581	0	0	0	0	0	5719	5719	5719	5719	5719	5719	5719	5626	5535	5535	5626	5626	5626	5626	5626	5626	5626	5626	5535	5535	5535	5535	5535	5535	5535	0	0	0	0	0	0	0	2063	2063	2063	2063	2051	2039	2039	2039	2027	2027	2015	2015	2003	2003	2003	2003	1980	1980	1980	1969	1980	1980	1980	1980	1969	1969	1958	1958	1947	1947	1947	1947	1947	1947	1958	1958	1958	1958	1969	1969	1969	1969	1980	1992	2003	2003	2003	2003	2003	2015	2015	2015	2027	2039	2051	2051	2051	2051	2063	2051	2063	2063	2063	2063	2076	2101	2101	2114	2114	2127	2127	2127	2140	2140	2140	2140	2153	2167	2153	2153	0	0	4521	4521	4463	4406	4406	4406	4406	4406	4406	4406	4463	4463	4463	4463	4463	4463	4463	4463	4463	4463	4406	4406	4406	4406	4406	4406	4406	4406	4463	4463	4463	4521	4521	4521	4463	4463	4463	4463	4463	4463	4463	4463	4463	4463	4406	4406	4406	4350	4350	4350	4350	4350	4406	4406	4406	4463	4406	4406	4406	4406	4406	4406	4350	4350	4350	4350	4350	4350	4350	4406	4406	4406	4406	4406	4406	4463	4463	4463	4463	4406	4406	4406	4406	4406	4406	4406	4463	4463	4463	4463	4406	4406	4406	4406	4350	4350	4350	4350	4350	4350	4350	4350	3440	3440	3475	3440	3440	3440	3440	3440	3440	3440	3440	3406	3406	3406	3373	3373	3341	3341	3341	3341	3341	3341	3309	3309	3309	3309	3309	3309	3309	3309	3309	3309	3309	3309	3309	3309	3309	3309	3309	3277	3277	3277	3277	3309	3277	3309	3309	3309	3309	3309	3309	3309	3309	3309	3309	3309	3309	3341	3341	3341	3341	3373	3341	3341	3341	3341	3309	3341	3341	3341	3341	3373	3373	4296	4296	4296	4296	4350	4350	4350	4350	4406	4406	4406	4406	4463	4463	4463	4463	4463	4463	4463	4463	4463	4406	4406	4406	4406	4406	4406	4406	4406	4406	4406	4406	4406	4406	4406	4406	4350	4350	4350	4350	4350	4350	4406	4406	4406	4406	4406	4406	4463	4406	4406	4406	4406	4406	4406	4406	4406	4406	4406	4406	4406	4406	4350	4350	4350	4350	4350	4296	4296	4350	4350	4350	4350	4350	4350	4406	4406	4350	4350	4350	4350	4350	4350	4350	4350	4350	4350	4350	4350	4350	4350	4350	4350	4350	4350	4350	4350	4350	4350	4350	4406	4406	4406	4406	4406	4406	4406	4406	4406	0	7959	7959	7959	7779	7779	7779	7779	7959	7959	7779	7779	7959	7779	7779	7779	7779	7779	7779	7608	7608	7608	7608	7608	7444	7444	7444	7444	7444	7287	7287	6992	6992	6992	6992	6992	6853	6853	6853	6853	6853	6853	6720	6720	6720	6720	6720	6592	6592	6592	6468	6592	6468	6468	6468	6349	6349	6349	6349	6235	6349	6018	6124	6124	6018	6124	6018	6018	6018	5915	5915	5915	5915	5915	5815	5815	5815	5719	5626	5626	5626	5626	5535	5535	5626	5535	5535	5535	5535	5535	5535	5448	5364	5364	5282	5282	5282	5202	5202	5202	5202	5202	5202	5050	5050	4977	4977	4977	4906	4906	4906	4906	4838	4838	4771	4771	4706	4706	4706	4706	4706	4706	4706	4706	4643	4643	4643	4643	4581	4581	4581	4521	4521	0	0	0	0	0	0	0	0	0	0	0	0	0	0	0	0	0	0	0	0	0	0	0	0	0	0	0	0	0	0	0	0	0	0
0	0	0	0	0	0	0	0	0	1272	1277	1277	1291	1291	1291	1296	1296	1301	1306	1311	1311	1321	1321	1326	1326	1326	1413	1413	1413	1413	1419	1419	1419	1419	1431	1431	1437	1449	1449	1461	1461	1467	1467	1473	1473	1486	1486	1492	1506	1512	1519	1525	1525	1525	1525	1532	1532	1546	1546	1553	1574	1574	1574	1581	1581	1581	1589	1581	1581	1581	0	0	0	0	0	5719	5719	5719	5719	5719	5719	5719	5535	5535	5535	5626	5626	5626	5626	5626	5626	5626	5626	5535	5535	5535	5535	5535	5535	5535	0	0	0	0	0	0	0	2063	2063	2063	2063	2051	2051	2051	2039	2027	2027	2015	2015	2003	2003	2003	2003	1980	1980	1980	1980	1980	1980	1980	1980	1980	1969	1969	1958	1947	1936	1936	1936	1936	1947	1947	1958	1958	1969	1969	1969	1969	1969	1980	2003	2003	2003	2003	2003	2003	2015	2015	2027	2027	2039	2051	2051	2051	2051	2051	2051	2051	2063	2051	2063	2063	2088	2101	2114	2114	2127	2127	2127	2140	2140	2140	2140	2140	2140	2153	2153	2153	0	4463	4463	4463	4406	4406	4406	4406	4406	4406	4406	4463	4463	4463	4463	4463	4463	4463	4463	4463	4406	4406	4406	4406	4406	4406	4406	4406	4406	4406	4463	4463	4521	4521	4463	4463	4463	4463	4463	4463	4463	4463	4463	4463	4463	4406	4406	4406	4406	4350	4350	4350	4350	4406	4406	4406	4406	4406	4406	4406	4406	4350	4350	4350	4350	4350	4350	4350	4350	4350	4406	4406	4406	4406	4463	4463	4463	4463	4463	4463	4463	4406	4406	4463	4406	4406	4406	4463	4463	4463	4406	4406	4406	4406	4406	4406	4350	4350	4350	4350	4350	4350	3406	3440	3440	3475	3440	3440	3440	3440	3440	3440	3440	3406	3406	3406	3373	3373	3341	3341	3341	3341	3341	3341	3341	3309	3309	3309	3309	3309	3309	3309	3309	3309	3309	3309	3309	3309	3309	3309	3309	3309	3277	3277	3277	3277	3309	3309	3309	3309	3309	3309	3309	3309	3309	3309	3309	3309	3309	3341	3309	3341	3341	3341	3373	3341	3341	3341	3341	3309	3341	3341	3341	3341	3341	3341	4296	4296	4296	4296	4350	4350	4406	4406	4406	4406	4406	4406	4463	4463	4463	4463	4463	4463	4463	4463	4463	4406	4406	4406	4406	4406	4406	4406	4406	4406	4406	4406	4406	4406	4406	4406	4406	4350	4350	4350	4350	4350	4406	4406	4406	4406	4406	4406	4406	4406	4406	4406	4406	4406	4406	4406	4406	4406	4406	4406	4406	4406	4350	4350	4350	4350	4350	4296	4296	4350	4350	4350	4350	4350	4350	4350	4350	4350	4350	4350	4350	4406	4350	4350	4350	4350	4350	4350	4350	4350	4350	4350	4350	4350	4350	4350	4350	4350	4350	4350	4350	4350	4406	4406	4350	4350	4406	4406	4406	0	7959	7779	7779	7779	7779	7779	7779	7959	7959	7959	7779	7779	7779	7779	7779	7779	7608	7608	7608	7608	7608	7608	7444	7444	7444	7444	7444	7444	7287	7287	6992	6992	6992	6992	6992	6853	6853	6853	6853	6853	6853	6720	6720	6720	6720	6720	6720	6592	6592	6468	6468	6468	6468	6349	6349	6349	6349	6235	6235	6235	6018	6124	6124	6124	6018	6018	6018	6018	5915	5915	5915	5915	5915	5915	5915	5815	5815	5719	5626	5626	5626	5535	5535	5626	5535	5535	5535	5535	5535	5448	5448	5364	5282	5282	5282	5282	5282	5202	5202	5202	5202	5125	5050	5050	5050	4977	4977	4977	4977	4906	4906	4906	4838	4838	4771	4771	4771	4771	4771	4706	4706	4706	4706	4643	4643	4643	4643	4581	4581	4581	4521	4521	0	0	0	0	0	0	0	0	0	0	0	0	0	0	0	0	0	0	0	0	0	0	0	0	0	0	0	0	0	0	0	0	0	0
0	0	0	0	0	0	0	0	0	1272	1272	1272	1291	1291	1291	1296	1301	1301	1306	1311	1311	1316	1321	1321	1321	1321	1407	1407	1413	1413	1419	1419	1419	1425	1425	1431	1437	1449	1449	1455	1461	1467	1467	1473	1473	1480	1486	1492	1506	1506	1512	1519	1525	1525	1525	1532	1539	1560	1560	1567	1574	1581	1581	1581	1581	1589	1596	1589	1589	1589	1589	0	0	0	0	5719	5815	5815	5815	5719	5719	5626	5626	5535	5535	5626	5626	5626	5535	5535	5535	5626	5535	5535	5535	5535	5535	5535	5535	5535	5535	0	0	0	0	0	0	2076	2063	2063	2063	2051	2051	2051	2039	2027	2027	2015	2003	2003	2003	2003	2015	2003	1992	1992	1992	1992	1992	1980	1980	1980	1969	1969	1969	1958	1947	1936	1947	1936	1947	1958	1958	1969	1969	1969	1969	1969	1969	1969	1992	2003	2003	2003	2003	2003	2003	2015	2015	2027	2039	2051	2039	2051	2051	2051	2051	2051	2063	2051	2063	2063	2088	2088	2101	2114	2114	2127	2127	2140	2140	2140	2153	2153	2153	2153	2153	2153	0	4463	4463	4406	4406	4406	4406	4406	4406	4406	4406	4463	4463	4463	4463	4521	4521	4463	4463	4463	4463	4406	4406	4406	4406	4406	4406	4406	4463	4463	4463	4463	4521	4521	4463	4463	4463	4463	4463	4463	4463	4463	4463	4463	4406	4406	4406	4406	4350	4350	4350	4350	4350	4406	4406	4406	4406	4406	4406	4406	4406	4406	4350	4350	4350	4350	4350	4350	4350	4406	4406	4406	4406	4406	4463	4463	4463	4463	4463	4463	4406	4406	4406	4406	4406	4406	4406	4463	4406	4406	4406	4406	4406	4350	4406	4406	4406	4350	4350	4350	4350	4350	3406	3440	3440	3440	3440	3440	3440	3440	3440	3440	3440	3406	3373	3406	3373	3341	3341	3341	3341	3341	3341	3341	3341	3309	3309	3309	3309	3309	3309	3309	3309	3309	3309	3309	3309	3309	3309	3309	3309	3309	3277	3309	3277	3277	3309	3309	3309	3309	3309	3309	3309	3309	3309	3309	3309	3309	3309	3309	3309	3341	3341	3373	3373	3373	3373	3373	3341	3341	3341	3341	3341	3341	3341	3373	3373	3373	4350	4350	4350	4350	4406	4406	4406	4406	4406	4406	4463	4463	4463	4463	4463	4463	4406	4463	4406	4406	4406	4406	4406	4406	4406	4406	4350	4406	4406	4406	4350	4406	4406	4406	4406	4350	4406	4350	4350	4350	4350	4350	4350	4350	4406	4406	4406	4406	4406	4406	4406	4406	4406	4406	4406	4406	4406	4406	4406	4350	4350	4350	4350	4350	4350	4350	4296	4350	4350	4350	4350	4350	4350	4350	4350	4350	4350	4350	4350	4350	4350	4350	4350	4350	4296	4296	4296	4296	4350	4350	4350	4406	4406	4406	4406	4350	4406	4350	4350	4350	4406	4406	4350	4406	4406	4406	4406	7779	7779	7779	7779	7779	7779	7779	7779	7959	7779	7779	7779	7779	7608	7779	7779	7779	7608	7608	7608	7608	7608	7608	7444	7444	7444	7444	7444	7444	7287	7287	7137	6992	6992	6992	6853	6853	6853	6853	6853	6853	6853	6720	6720	6720	6720	6720	6592	6592	6592	6592	6468	6468	6468	6468	6349	6349	6349	6235	6349	6235	6235	6235	6124	6124	6124	6124	6018	6018	5915	5915	5915	5915	5915	5815	5815	5815	5815	5719	5719	5626	5626	5626	5626	5626	5535	5535	5535	5535	5448	5364	5448	5364	5282	5282	5282	5282	5282	5202	5202	5202	5125	5125	5125	5050	5050	4977	4977	4977	4977	4906	4906	4906	4838	4838	4838	4771	4838	4771	4771	4706	4706	4706	4706	4643	4643	4643	4643	4581	4581	4581	4521	4521	0	0	0	0	0	0	0	0	0	0	0	0	0	0	0	0	0	0	0	0	0	0	0	0	0	0	0	0	0	0	0	0	0	0
0	0	0	0	0	0	0	0	0	1277	1272	1282	1287	1291	1291	1296	1301	1301	1306	1311	1316	1316	1321	1326	1326	1326	1419	1419	1419	1419	1419	1419	1419	1425	1425	1431	1431	1449	1455	1461	1461	1467	1467	1473	1473	1480	1486	1492	1499	1512	1519	1525	1525	1525	1525	1532	1546	1560	1560	1574	1581	1581	1581	1589	1596	1596	1603	1603	1589	1596	1596	1596	0	0	0	0	5815	5815	5815	5815	5719	5626	5626	5535	5535	5535	5626	5626	5626	5626	5626	5626	5535	5535	5535	5535	5626	5626	5626	5626	5626	0	0	0	0	0	0	2076	2063	2063	2063	2051	2051	2051	2039	2027	2027	2015	2015	2015	2003	2003	2003	1992	1992	1992	1992	1992	1980	1980	1980	1980	1969	1969	1969	1958	1947	1947	1958	1947	1947	1958	1958	1969	1969	1969	1969	1969	1969	1980	1992	1992	1992	2003	2003	2003	2003	2003	2015	2015	2027	2039	2051	2051	2051	2063	2051	2051	2063	2051	2063	2076	2076	2088	2101	2114	2114	2127	2140	2140	2140	2140	2153	2153	2153	2153	2153	2153	2153	0	4463	4463	4406	4406	4406	4406	4406	4406	4406	4406	4406	4463	4463	4521	4463	4463	4463	4463	4463	4406	4406	4406	4406	4406	4406	4406	4463	4463	4463	4463	4521	4463	4463	4463	4463	4463	4463	4463	4463	4463	4463	4463	4406	4406	4406	4350	4350	4350	4350	4406	4406	4406	4406	4406	4406	4463	4406	4406	4406	4406	4406	4406	4350	4406	4406	4350	4350	4350	4406	4406	4406	4406	4463	4463	4463	4406	4406	4406	4406	4406	4406	4406	4463	4406	4406	4463	4463	4463	4406	4406	4406	4406	4406	4406	4406	4406	4406	4406	4406	4406	3406	3406	3440	3440	3440	3440	3440	3440	3440	3440	3406	3406	3406	3373	3373	3341	3341	3341	3341	3341	3341	3341	3341	3309	3309	3309	3309	3309	3309	3309	3309	3309	3309	3309	3309	3309	3309	3309	3309	3309	3277	3277	3277	3277	3309	3309	3309	3309	3309	3309	3309	3309	3309	3309	3309	3309	3309	3341	3341	3341	3373	3373	3373	3373	3373	3341	3341	3341	3341	3341	3341	3341	3341	3341	3373	3373	4406	4406	4406	4406	4406	4406	4406	4406	4406	4406	4463	4406	4463	4406	4463	4406	4406	4463	4406	4406	4406	4406	4406	4406	4350	4406	4350	4350	4406	4406	4350	4406	4406	4406	4406	4350	4350	4350	4350	4350	4350	4350	4350	4350	4406	4406	4406	4406	4406	4406	4406	4406	4406	4406	4406	4406	4406	4406	4406	4350	4350	4350	4350	4350	4350	4350	4350	4350	4350	4350	4350	4350	4350	4350	4350	4350	4350	4350	4350	4350	4350	4350	4350	4350	4296	4296	4296	4296	4350	4350	4350	4406	4406	4350	4406	4350	4350	4350	4350	4350	4350	4350	4350	4350	4406	4406	4406	7959	7959	7779	7779	7779	7959	8146	8146	7959	8146	7959	7779	7779	7779	7779	7779	7608	7608	7608	7608	7608	7608	7608	7444	7444	7444	7444	7444	7444	7287	7287	7137	6992	6992	6992	6992	6853	6853	6853	6853	6853	6853	6853	6720	6720	6720	6720	6592	6592	6592	6592	6468	6468	6468	6468	6468	6468	6349	6349	6349	6235	6124	6124	6124	6124	6018	6018	6018	6018	5915	5915	5915	5915	5915	5815	5815	5815	5626	5719	5626	5626	5626	5626	5626	5626	5535	5535	5535	5535	5448	5448	5448	5364	5364	5282	5282	5282	5282	5282	5202	5202	5125	5125	5125	5050	5050	5050	4977	4977	4977	4906	4906	4906	4838	4838	4838	4838	4838	4771	4771	4706	4706	4706	4706	4643	4643	4643	4643	4581	4581	4581	4521	4521	0	0	0	0	0	0	0	0	0	0	0	0	0	0	0	0	0	0	0	0	0	0	0	0	0	0	0	0	0	0	0	0	0	0
0	0	0	0	0	0	0	0	0	1277	1277	1277	1287	1291	1291	1296	1296	1301	1306	1311	1311	1311	1321	1326	1326	1331	1331	1425	1419	1419	1419	1419	1419	1425	1425	1431	1437	1449	1455	1455	1461	1467	1467	1473	1473	1480	1486	1492	1499	1512	1519	1525	1525	1525	1532	1539	1546	1560	1560	1567	1589	1589	1589	1596	1596	1603	1603	1603	1596	1603	1611	1611	1641	1641	0	0	0	5815	5815	5815	5626	5719	5626	5626	5535	5626	5626	5626	5626	5535	5626	5626	5535	5535	5535	5535	5535	5535	5535	5535	5535	0	0	0	0	0	0	2076	2063	2063	2063	2051	2051	2051	2039	2039	2027	2015	2015	2015	2003	2003	1992	1980	1980	1980	1980	1980	1980	1980	1980	1980	1969	1969	1969	1958	1958	1958	1947	1947	1958	1958	1958	1969	1969	1969	1969	1969	1969	1980	1992	1992	1980	1992	1992	2003	2003	2003	2003	2015	2015	2039	2039	2051	2051	2051	2051	2051	2051	2051	2063	2076	2076	2088	2101	2114	2127	2127	2127	2140	2140	2140	2153	2153	2153	2153	2153	2153	2153	0	0	4463	4350	4406	4406	4406	4406	4406	4406	4463	4463	4463	4521	4521	4521	4463	4463	4463	4463	4406	4350	4350	4406	4406	4406	4406	4463	4463	4463	4463	4463	4463	4463	4463	4406	4463	4463	4406	4463	4463	4463	4406	4406	4406	4406	4350	4350	4350	4350	4406	4406	4406	4406	4406	4406	4463	4406	4406	4406	4406	4406	4406	4406	4406	4406	4406	4406	4406	4406	4406	4406	4406	4406	4406	4406	4406	4406	4406	4406	4406	4406	4406	4406	4463	4463	4463	4463	4463	4406	4406	4406	4406	4406	4406	4406	4406	4406	4406	4406	4406	3406	3406	3440	3440	3440	3440	3440	3440	3440	3440	3406	3406	3406	3373	3373	3341	3341	3341	3341	3341	3341	3341	3341	3341	3309	3309	3309	3309	3309	3309	3309	3309	3309	3309	3309	3309	3309	3309	3309	3309	3277	3277	3277	3277	3309	3309	3309	3309	3309	3309	3309	3309	3309	3309	3309	3309	3341	3341	3341	3373	3373	3373	3373	3373	3341	3341	3341	3341	3341	3341	3341	3341	3341	3341	3373	3341	3341	4463	4406	4406	4406	4406	4406	4406	4406	4406	4463	4406	4406	4406	4463	4406	4406	4406	4406	4406	4406	4406	4406	4406	4350	4406	4406	4350	4406	4406	4406	4406	4406	4406	4406	4350	4350	4350	4350	4350	4350	4350	4350	4350	4406	4406	4406	4406	4406	4406	4406	4406	4406	4406	4406	4406	4406	4406	4406	4406	4350	4350	4350	4350	4350	4350	4350	4350	4350	4350	4406	4350	4350	4350	4350	4350	4296	4296	4296	4296	4350	4350	4350	4350	4350	4296	4296	4296	4350	4350	4350	4350	4406	4350	4406	4350	4406	4350	4350	4350	4350	4350	4350	4350	4296	4406	4406	8146	8146	7959	7959	7959	7959	8146	8146	8146	8146	7959	7959	7779	7779	7779	7779	7779	7779	7608	7608	7608	7608	7608	7608	7608	7608	7608	7608	7608	7444	7444	7137	7137	7137	6992	6992	6992	6992	6853	6853	6853	6853	6853	6720	6720	6720	6720	6592	6592	6592	6592	6468	6468	6468	6468	6468	6468	6349	6349	6349	6235	6235	6124	6124	6124	6124	6018	6018	6018	6018	5915	5915	5915	5915	5815	5915	5815	5626	5626	5626	5626	5626	5626	5626	5626	5626	5535	5535	5535	5448	5448	5448	5448	5364	5364	5282	5282	5282	5282	5202	5202	5202	5202	5202	5125	5125	5050	5050	5050	4977	4906	4906	4906	4906	4838	4838	4838	4838	4771	4771	4771	4706	4706	4706	4643	4643	4643	4643	4581	4581	4581	4581	4581	0	0	0	0	0	0	0	0	0	0	0	0	0	0	0	0	0	0	0	0	0	0	0	0	0	0	0	0	0	0	0	0	0	0
0	0	0	0	0	0	0	0	0	1268	1272	1272	1277	1277	1291	1296	1296	1296	1301	1306	1311	1311	1311	1316	1326	1326	1419	1419	1419	1419	1425	1419	1425	1431	1425	1437	1443	1449	1449	1455	1461	1467	1473	1473	1473	1492	1486	1499	1499	1506	1519	1519	1525	1532	1532	1539	1553	1553	1553	1560	1581	1581	1589	1596	1603	1611	1611	1611	1603	1611	1611	1618	1634	1641	1649	1657	1657	0	5815	5815	5626	5719	5535	5535	5535	5535	5535	5626	5535	5535	5535	5535	5535	5535	5535	5535	5535	5535	5448	5535	5535	5535	0	0	0	0	0	2076	2063	2063	2051	2051	2051	2051	2039	2039	2027	2015	2015	2015	2003	2003	1992	1980	1980	1980	1980	1980	1980	1980	1980	1969	1969	1969	1969	1958	1958	1958	1958	1958	1958	1958	1958	1969	1969	1969	1969	1969	1969	1980	1992	1992	1992	1992	1992	2003	2003	2003	2003	2015	2015	2039	2039	2051	2051	2051	2051	2051	2051	2051	2063	2076	2076	2088	2101	2101	2114	2127	2127	2140	2140	2140	2153	2153	2153	2153	2153	2153	2153	0	0	4350	4350	4463	4463	4463	4463	4406	4406	4406	4463	4463	4463	4463	4463	4463	4463	4463	4406	4406	4350	4350	4350	4406	4406	4406	4463	4463	4463	4463	4463	4463	4463	4406	4463	4463	4463	4406	4463	4463	4463	4463	4406	4406	4406	4350	4350	4350	4350	4406	4406	4406	4406	4406	4406	4406	4406	4406	4406	4406	4406	4406	4406	4406	4406	4406	4406	4406	4406	4406	4406	4406	4463	4406	4406	4406	4406	4406	4406	4406	4406	4406	4406	4463	4463	4463	4406	4406	4406	4406	4406	4406	4406	4406	4406	4406	4406	4406	4406	4406	4350	3440	3440	3440	3440	3440	3440	3440	3440	3440	3440	3440	3406	3373	3373	3341	3341	3341	3341	3341	3341	3341	3341	3341	3309	3309	3309	3309	3309	3309	3309	3309	3309	3309	3309	3309	3309	3277	3309	3309	3277	3277	3277	3277	3309	3309	3309	3309	3309	3309	3309	3309	3309	3309	3309	3309	3341	3341	3341	3373	3373	3373	3373	3341	3373	3341	3373	3373	3373	3373	3341	3373	3373	3373	3373	3373	4463	4463	4406	4463	4463	4463	4406	4406	4406	4406	4406	4406	4406	4406	4406	4406	4406	4406	4406	4406	4406	4406	4406	4406	4350	4406	4406	4406	4406	4406	4406	4406	4406	4406	4406	4406	4406	4350	4350	4350	4350	4350	4350	4350	4406	4406	4406	4406	4406	4406	4406	4406	4350	4406	4406	4406	4350	4350	4350	4406	4350	4350	4350	4350	4406	4406	4406	4350	4350	4350	4350	4350	4350	4350	4350	4350	4296	4296	4296	4296	4350	4296	4350	4350	4350	4296	4296	4296	4296	4350	4350	4350	4350	4406	4406	4406	4406	4350	4406	4350	4350	4350	4350	4350	4296	4296	8343	8146	7959	7959	7779	7959	7959	8146	8146	8146	8146	7959	7959	7779	7779	7779	7779	7779	7608	7608	7608	7608	7608	7608	7608	7608	7608	7608	7608	7608	7444	7444	7287	7137	7137	6992	6992	6992	6992	6853	6853	6853	6853	6853	6720	6720	6720	6592	6592	6468	6468	6468	6468	6468	6468	6468	6468	6349	6349	6349	6235	6235	6235	6124	6124	6124	6124	6124	6018	6018	6018	6018	5915	5915	5915	5915	5915	5815	5719	5719	5626	5626	5626	5626	5626	5626	5626	5535	5535	5535	5448	5448	5448	5448	5364	5282	5282	5282	5282	5282	5202	5202	5202	5125	5202	5125	5125	5050	5050	5050	4977	4906	4906	4906	4906	4838	4838	4838	4838	4771	4771	4706	4706	4706	4706	4706	4643	4643	4643	4581	4643	4581	4581	4581	0	0	0	0	0	0	0	0	0	0	0	0	0	0	0	0	0	0	0	0	0	0	0	0	0	0	0	0	0	0	0	0	0	0
0	0	0	0	0	0	0	0	0	1277	1277	1277	1277	1291	1291	1296	1296	1301	1301	1306	1311	1311	1311	1316	1316	1316	1316	1425	1425	1419	1425	1419	1425	1431	1431	1437	1443	1455	1455	1455	1461	1467	1473	1467	1486	1492	1492	1492	1492	1512	1512	1519	1519	1525	1525	1539	1546	1553	1553	1560	1574	1581	1589	1603	1611	1611	1611	1611	1603	1611	1611	1618	1634	1641	1641	1649	1649	1649	1649	1649	0	0	5535	5535	5535	5535	5535	5535	5535	5535	5535	5535	5535	5535	5535	5535	5535	5535	5535	5448	5448	5535	0	0	0	0	0	0	2063	2051	2051	2051	2051	2051	2027	2027	2015	2003	2003	2015	2003	2003	1992	2003	1992	1992	1992	1992	1980	1980	1980	1980	1969	1969	1969	1958	1958	1958	1958	1958	1958	1958	1958	1969	1980	1969	1969	1969	1969	1980	1980	1980	1980	1980	1992	1992	1992	2003	2003	2003	2015	2027	2027	2039	2051	2051	2051	2051	2051	2051	2051	2051	2076	2076	2088	2114	2114	2127	2127	2140	2140	2140	2153	2153	2153	2153	2153	2153	2153	0	0	4350	4350	4463	4463	4463	4406	4406	4406	4406	4406	4406	4463	4463	4463	4463	4463	4463	4406	4406	4350	4350	4350	4406	4406	4406	4463	4463	4463	4463	4463	4463	4463	4406	4463	4463	4463	4463	4463	4463	4463	4463	4406	4406	4406	4350	4350	4350	4406	4406	4463	4406	4406	4406	4406	4406	4406	4350	4406	4406	4406	4406	4406	4406	4406	4406	4406	4406	4406	4406	4406	4406	4406	4406	4406	4406	4350	4350	4350	4406	4406	4406	4406	4463	4463	4463	4406	4406	4406	4406	4350	4350	4406	4406	4406	4406	4406	4406	4406	4406	3406	3406	3440	3440	3440	3440	3440	3440	3440	3440	3440	3440	3406	3373	3373	3341	3341	3341	3341	3341	3341	3341	3341	3341	3309	3309	3309	3309	3309	3309	3309	3309	3309	3309	3309	3309	3309	3309	3309	3309	3309	3309	3277	3309	3309	3309	3309	3309	3309	3309	3309	3309	3309	3309	3309	3341	3341	3373	3373	3373	3373	3373	3373	3373	3373	3373	3373	3373	3406	3406	3373	3406	3406	3373	3406	3406	4463	4463	4406	4406	4463	4406	4406	4406	4406	4406	4406	4406	4406	4406	4406	4406	4406	4406	4406	4406	4406	4406	4406	4406	4406	4406	4406	4406	4406	4406	4406	4406	4406	4406	4406	4406	4406	4350	4350	4350	4350	4350	4350	4350	4406	4350	4406	4406	4350	4406	4406	4406	4350	4350	4350	4350	4350	4350	4350	4350	4350	4350	4406	4406	4406	4406	4406	4406	4350	4350	4350	4296	4296	4296	4296	4296	4296	4296	4296	4296	4350	4350	4350	4350	4350	4350	4350	4350	4350	4350	4350	4350	4350	4406	4406	4406	4406	4350	4406	4350	4350	4350	4350	4350	4296	4296	8343	7959	7959	7959	7779	7779	7959	7959	7959	7959	7959	7959	7959	7779	7779	7779	7779	7779	7608	7608	7608	7608	7608	7608	7608	7608	7608	7608	7608	7608	7444	7444	7137	7137	7137	6992	6992	6992	6992	6853	6853	6853	6853	6853	6720	6720	6592	6592	6468	6468	6468	6468	6468	6468	6468	6468	6349	6349	6349	6349	6235	6235	6235	6124	6124	6124	6018	6018	6018	6018	6018	6018	5915	5915	5915	5915	5915	5815	5815	5719	5626	5626	5626	5626	5626	5626	5626	5535	5535	5535	5535	5448	5448	5448	5364	5364	5282	5282	5282	5282	5282	5282	5202	5202	5202	5202	5125	5125	5125	5050	4977	4977	4906	4906	4906	4906	4838	4838	4838	4838	4771	4706	4706	4706	4706	4643	4643	4643	4643	4581	4643	4581	4581	4581	0	0	0	0	0	0	0	0	0	0	0	0	0	0	0	0	0	0	0	0	0	0	0	0	0	0	0	0	0	0	0	0	0	0
0	0	0	0	0	0	0	0	0	1277	1277	1277	1277	1291	1291	1296	1296	1296	1301	1306	1311	1311	1311	1316	1316	1316	1316	1425	1431	1425	1419	1419	1431	1437	1437	1443	1443	1449	1449	1455	1455	1467	1473	1473	1473	1480	1486	1499	1499	1519	1519	1519	1525	1525	1532	1539	1546	1553	1553	1560	1574	1581	1581	1603	1611	1611	1611	1611	1611	1611	1611	1618	1634	1641	1649	1657	1657	1657	1657	1657	1665	1665	0	0	0	5535	5535	5535	5535	5535	5535	5535	5535	5535	5535	5535	5535	5535	5535	5448	5448	0	0	0	0	0	0	0	2051	2051	2051	2051	2051	2051	2027	2015	2015	2015	2003	2003	2003	2003	2015	2003	1992	2003	1992	1992	1980	1980	1969	1969	1969	1969	1958	1958	1958	1958	1958	1958	1958	1958	1969	1969	1980	1980	1969	1969	1969	1980	1980	1980	1980	1992	1992	1992	1992	1992	2003	2003	2003	2015	2027	2027	2039	2051	2051	2051	2051	2051	2051	2063	2063	2076	2076	2101	2114	2127	2127	2140	2140	2140	2140	2153	2153	2153	2153	2153	2153	0	0	4350	4350	4406	4463	4406	4406	4406	4406	4406	4406	4406	4463	4463	4463	4463	4406	4406	4406	4406	4350	4350	4350	4406	4406	4406	4463	4463	4463	4463	4463	4463	4406	4406	4406	4463	4463	4463	4463	4463	4463	4406	4406	4406	4406	4350	4406	4406	4406	4463	4463	4463	4463	4406	4406	4406	4406	4406	4406	4406	4463	4406	4463	4463	4406	4406	4406	4406	4406	4406	4406	4406	4406	4406	4406	4406	4350	4350	4350	4406	4406	4406	4406	4406	4463	4406	4406	4406	4406	4406	4406	4350	4406	4406	4406	4406	4406	4406	4406	4463	3406	3440	3440	3440	3440	3440	3440	3440	3440	3440	3440	3406	3406	3406	3373	3341	3341	3341	3341	3341	3341	3341	3341	3341	3309	3309	3309	3309	3309	3309	3309	3309	3309	3309	3309	3309	3309	3277	3309	3309	3309	3309	3277	3309	3309	3309	3309	3309	3309	3309	3309	3309	3309	3309	3309	3341	3341	3373	3373	3373	3373	3373	3373	3373	3373	3373	3373	3406	3406	3406	3406	3406	3406	3373	3373	3373	4463	4463	4406	4406	4406	4406	4406	4406	4406	4406	4406	4406	4406	4406	4406	4406	4350	4406	4350	4350	4406	4406	4406	4406	4406	4406	4406	4406	4406	4406	4406	4406	4406	4406	4406	4406	4350	4350	4350	4350	4350	4350	4350	4350	4350	4350	4350	4350	4350	4406	4406	4350	4350	4350	4350	4350	4350	4350	4350	4350	4350	4350	4406	4406	4406	4406	4406	4406	4350	4350	4296	4296	4296	4296	4296	4296	4296	4296	4296	4296	4296	4296	4350	4350	4350	4350	4350	4350	4350	4350	4350	4296	4296	4406	4406	4406	4406	4350	4406	4350	4350	4350	4350	4350	4296	4296	0	7959	7959	7959	7779	7779	7779	7959	8146	7959	7959	7779	7779	7779	7779	7779	7779	7779	7608	7608	7608	7608	7608	7608	7608	7608	7608	7608	7608	7444	7444	7444	7287	7287	7137	7137	6992	6992	6992	6853	6853	6853	6853	6720	6592	6592	6592	6592	6468	6468	6468	6468	6468	6468	6349	6349	6349	6349	6349	6235	6235	6235	6235	6124	6124	6124	6124	6018	6018	6018	6018	6018	5915	5915	5915	5915	5815	5815	5815	5719	5719	5626	5626	5626	5626	5626	5626	5626	5535	5535	5535	5448	5448	5448	5364	5364	5282	5282	5202	5282	5282	5202	5202	5125	5202	5202	5125	5125	5125	5050	4977	4977	4906	4906	4906	4906	4906	4838	4838	4838	4771	4771	4706	4706	4706	4643	4706	4643	4643	4581	4581	4581	4581	4581	0	0	0	0	0	0	0	0	0	0	0	0	0	0	0	0	0	0	0	0	0	0	0	0	0	0	0	0	0	0	0	0	0	0
0	0	0	0	0	0	0	0	0	1272	1277	1277	1287	1291	1291	1291	1296	1296	1301	1306	1311	1311	1311	1311	1316	1316	1316	1425	1431	1425	1425	1437	1437	1437	1437	1443	1443	1449	1449	1455	1467	1473	1473	1473	1486	1492	1492	1499	1506	1519	1519	1519	1519	1525	1539	1539	1546	1553	1553	1560	1574	1574	1581	1603	1611	1603	1611	1611	1611	1611	1618	1626	1634	1641	1649	1657	1657	1657	1665	1665	1665	1665	0	0	0	0	5448	5535	5535	5535	5535	5535	5535	5535	5535	5535	5535	5535	5535	5448	5448	0	0	0	0	0	0	0	2063	2051	2051	2039	2051	2039	2027	2015	2015	2003	2003	2003	2003	2003	2015	2003	1992	1992	1992	1992	1980	1980	1980	1969	1969	1969	1958	1958	1958	1947	1958	1958	1958	1969	1969	1969	1980	1980	1969	1980	1980	1980	1980	1980	1980	1980	1992	1980	1992	1992	1992	2003	2003	2015	2015	2027	2027	2039	2039	2051	2051	2051	2051	2051	2051	2063	2076	2101	2114	2114	2127	2140	2140	2140	2140	2153	2153	2153	2153	2153	2153	0	0	4350	4350	4350	4406	4406	4406	4406	4350	4406	4406	4406	4463	4463	4463	4463	4406	4406	4406	4406	4350	4350	4350	4406	4406	4406	4463	4463	4463	4463	4463	4463	4406	4406	4463	4463	4463	4463	4463	4463	4463	4463	4406	4406	4406	4350	4350	4350	4406	4406	4463	4463	4463	4406	4406	4406	4406	4406	4406	4463	4463	4406	4463	4406	4406	4406	4406	4406	4463	4463	4463	4463	4406	4406	4406	4406	4350	4350	4350	4350	4406	4406	4406	4406	4406	4406	4406	4406	4406	4406	4406	4350	4350	4406	4406	4406	4406	4406	4463	4463	3440	3440	3440	3440	3440	3440	3440	3440	3440	3440	3440	3440	3406	3406	3373	3341	3341	3341	3341	3341	3341	3341	3341	3341	3309	3309	3309	3309	3309	3309	3309	3309	3309	3309	3309	3309	3309	3277	3309	3309	3277	3277	3277	3309	3309	3309	3309	3277	3309	3309	3309	3309	3309	3309	3309	3341	3341	3341	3373	3373	3373	3373	3373	3373	3341	3373	3373	3406	3406	3406	3406	3406	3406	3406	3406	4463	4463	4463	4406	4406	4406	4406	4406	4406	4406	4406	4406	4406	4406	4406	4406	4406	4350	4350	4350	4350	4350	4406	4406	4463	4406	4463	4406	4463	4463	4463	4406	4406	4406	4350	4406	4350	4350	4350	4350	4350	4350	4350	4296	4296	4350	4296	4350	4350	4350	4350	4350	4350	4350	4350	4350	4350	4350	4350	4350	4350	4350	4350	4406	4350	4406	4406	4350	4350	4350	4296	4296	4296	4296	4296	4296	4296	4296	4296	4296	4296	4296	4296	4296	4296	4350	4350	4350	4350	4350	4296	4296	4350	4296	4296	4406	4296	4406	4350	4350	4350	4350	4350	4350	4350	4350	4350	7959	7779	7779	7779	7779	7779	7959	7959	7959	7959	7779	7779	7779	7779	7779	7779	7779	7779	7779	7779	7608	7608	7608	7608	7608	7608	7608	7608	7444	7444	7444	7287	7137	7137	7287	7137	6992	6992	6992	6853	6853	6853	6853	6720	6720	6720	6592	6592	6592	6468	6468	6468	6468	6468	6468	6349	6349	6349	6349	6349	6349	6235	6235	6124	6124	6124	6018	6018	6018	6018	6018	6018	5915	5915	5915	5915	5815	5815	5719	5719	5719	5626	5719	5626	5719	5626	5626	5626	5626	5626	5535	5535	5535	5448	5364	5364	5282	5202	5282	5282	5202	5202	5202	5202	5202	5202	5125	5125	5125	5050	4977	4977	4977	4906	4906	4906	4906	4906	4838	4771	4771	4706	4706	4706	4706	4643	4643	4643	4643	4581	4581	4581	4581	4581	0	0	0	0	0	0	0	0	0	0	0	0	0	0	0	0	0	0	0	0	0	0	0	0	0	0	0	0	0	0	0	0	0	0
0	0	0	0	0	0	0	0	0	1272	1277	1277	1282	1287	1291	1296	1296	1296	1301	1306	1306	1311	1311	1311	1316	1316	1316	1437	1443	1437	1437	1443	1443	1443	1443	1443	1449	1449	1449	1455	1467	1473	1480	1473	1486	1486	1492	1499	1499	1519	1525	1519	1519	1525	1539	1539	1546	1546	1553	1560	1567	1574	1581	1596	1611	1611	1611	1611	1611	1611	1618	1626	1634	1641	1649	1657	1665	1665	1665	1665	1673	1673	1673	0	0	0	5448	5448	5448	5535	5535	5535	5535	5535	5535	5535	5535	5535	5535	5535	5448	5448	0	0	0	0	0	0	2063	2051	2051	2039	2051	2039	2027	2027	2015	2003	2003	2003	2003	2003	2003	1992	1992	1992	1992	1980	1980	1969	1969	1969	1958	1958	1958	1958	1958	1958	1958	1969	1969	1969	1969	1969	1969	1969	1969	1969	1969	1969	1980	1980	1980	1980	1980	1980	1992	1992	2003	2003	2003	2015	2015	2015	2027	2039	2039	2039	2051	2051	2051	2063	2063	2063	2063	2101	2114	2114	2127	2127	2140	2140	2140	2140	2153	2153	2153	2153	2167	2167	0	4350	4350	4406	4406	4406	4406	4350	4350	4350	4406	4406	4463	4463	4463	4463	4406	4406	4406	4406	4350	4350	4406	4406	4406	4406	4463	4463	4463	4463	4463	4463	4406	4463	4463	4463	4463	4463	4463	4463	4463	4463	4406	4406	4406	4406	4406	4406	4406	4406	4463	4406	4406	4406	4406	4406	4406	4406	4406	4463	4463	4463	4463	4406	4406	4406	4406	4406	4406	4406	4463	4463	4406	4406	4406	4406	4350	4350	4350	4350	4406	4406	4406	4406	4406	4406	4406	4406	4406	4406	4406	4406	4406	4406	4406	4406	4406	4463	4463	4406	3406	3406	3440	3440	3440	3440	3440	3440	3440	3440	3440	3440	3406	3406	3373	3341	3341	3341	3341	3341	3341	3341	3341	3341	3309	3309	3309	3309	3309	3309	3309	3309	3309	3309	3309	3309	3309	3309	3309	3309	3309	3309	3277	3277	3309	3309	3309	3277	3309	3309	3309	3309	3309	3309	3309	3341	3341	3373	3373	3373	3373	3373	3373	3373	3341	3373	3373	3406	3406	3406	3406	3406	3440	3440	3440	4463	4463	4463	4406	4406	4406	4406	4406	4350	4350	4406	4406	4406	4406	4350	4406	4350	4350	4350	4350	4350	4406	4406	4406	4463	4463	4463	4463	4463	4406	4463	4406	4406	4406	4350	4406	4350	4350	4350	4350	4296	4296	4296	4296	4296	4350	4350	4350	4350	4350	4350	4350	4350	4350	4296	4350	4350	4350	4350	4350	4406	4406	4350	4350	4350	4350	4350	4350	4350	4350	4296	4296	4296	4296	4296	4296	4296	4296	4296	4296	4296	4296	4296	4296	4296	4350	4350	4350	4296	4350	4350	4350	4350	4350	4350	4406	4406	4406	4350	4406	4350	4350	4350	4350	4350	4296	4296	4296	7779	7779	7959	7959	7959	7959	7959	7959	7959	7779	7779	7779	7779	7779	7779	7779	7779	7779	7779	7608	7608	7608	7608	7608	7608	7608	7608	7608	7444	7444	7287	7137	7137	7287	7137	7137	6992	6992	6992	6853	6853	6853	6720	6720	6720	6592	6592	6592	6468	6468	6468	6468	6468	6349	6349	6349	6349	6349	6349	6235	6235	6235	6235	6124	6124	6124	6018	6018	6018	6018	6018	6018	5915	5915	5815	5815	5719	5815	5719	5719	5626	5626	5626	5626	5626	5626	5626	5626	5626	5535	5535	5535	5448	5364	5282	5202	5202	5202	5202	5202	5202	5202	5202	5202	5202	5125	5125	5125	5050	4977	4977	4977	4977	4906	4906	4906	4906	4838	4771	4771	4706	4706	4706	4706	4643	4643	4643	4643	4643	4643	4581	4581	4581	0	0	0	0	0	0	0	0	0	0	0	0	0	0	0	0	0	0	0	0	0	0	0	0	0	0	0	0	0	0	0	0	0	0
0	0	0	0	0	0	0	0	0	1277	1277	1282	1282	1287	1287	1291	1291	1296	1301	1306	1306	1311	1311	1311	1316	1316	1321	1321	1443	1437	1437	1443	1443	1443	1443	1443	1443	1449	1449	1455	1467	1480	1480	1480	1480	1480	1492	1499	1499	1519	1519	1519	1519	1525	1532	1539	1546	1546	1553	1553	1560	1567	1574	1589	1603	1603	1611	1611	1611	1618	1626	1634	1641	1641	1649	1665	1665	1665	1665	1673	1673	1673	1681	1681	1681	0	0	5448	5448	5535	5626	5535	5535	5535	5535	5535	5535	5535	5535	5535	5448	5448	0	0	0	0	0	0	0	2051	2051	2051	2051	2039	2027	2027	2015	2003	1992	1992	1992	1992	1992	1969	1969	1969	1980	1969	1969	1969	1969	1958	1958	1958	1958	1958	1958	1958	1958	1958	1958	1958	1969	1958	1969	1969	1969	1969	1969	1969	1969	1969	1969	1980	1980	1980	1992	1992	2003	2015	2003	2015	2015	2015	2015	2027	2027	2039	2039	2051	2051	2051	2051	2063	2063	2088	2101	2114	2127	2127	2140	2140	2140	2153	2153	2153	2153	2153	2167	2167	0	0	4406	4406	4406	4406	4406	4350	4350	4406	4406	4406	4406	4406	4406	4406	4350	4350	4406	4350	4350	4350	4406	4406	4406	4406	4463	4406	4406	4406	4463	4463	4406	4463	4463	4463	4463	4463	4463	4463	4463	4463	4406	4406	4406	4406	4406	4406	4406	4463	4463	4406	4406	4406	4406	4406	4406	4406	4406	4463	4463	4406	4463	4406	4406	4406	4406	4406	4406	4463	4463	4463	4463	4406	4406	4406	4350	4350	4350	4350	4350	4406	4406	4406	4406	4463	4463	4463	4406	4406	4406	4350	4350	4406	4350	4406	4406	4406	4406	4406	3406	3406	3440	3440	3440	3440	3440	3440	3440	3440	3440	3440	3440	3406	3373	3373	3341	3341	3341	3341	3341	3341	3341	3341	3309	3309	3309	3309	3309	3309	3309	3309	3309	3309	3309	3309	3309	3277	3277	3309	3277	3309	3277	3309	3309	3309	3309	3309	3309	3309	3309	3309	3309	3309	3309	3341	3341	3373	3373	3373	3373	3373	3373	3373	3373	3373	3406	3406	3406	3406	3406	3406	3440	3440	4406	4406	4406	4406	4406	4406	4406	4406	4406	4350	4350	4406	4406	4406	4406	4406	4406	4406	4350	4350	4350	4350	4350	4406	4406	4463	4463	4463	4406	4406	4406	4406	4406	4350	4350	4350	4350	4350	4350	4350	4350	4296	4296	4296	4296	4296	4296	4296	4350	4350	4350	4350	4350	4350	4296	4350	4350	4350	4350	4350	4350	4406	4406	4406	4406	4406	4406	4350	4350	4350	4350	4350	4296	4296	4296	4296	4296	4296	4296	4296	4296	4296	4296	4296	4350	4296	4350	4350	4350	4350	4406	4350	4350	4350	4296	4296	4406	4350	4350	4350	4350	4350	4350	4296	4350	4350	4350	4350	4350	7779	7779	7779	7779	7779	7779	7779	7959	7779	7779	7779	7608	7779	7779	7779	7779	7779	7779	7779	7779	7779	7608	7608	7608	7608	7608	7608	7444	7444	7444	7287	7137	7137	7137	6992	6992	6992	6853	6853	6720	6720	6720	6592	6592	6592	6592	6592	6592	6592	6468	6468	6468	6468	6349	6349	6349	6349	6349	6349	6235	6235	6235	6124	6124	6124	6124	6018	6124	6124	6124	6124	6018	6018	5915	5915	5815	5815	5915	5719	5719	5626	5626	5626	5626	5626	5626	5626	5626	5535	5535	5535	5448	5448	5364	5282	5202	5202	5202	5202	5202	5202	5202	5125	5125	5125	5125	5125	5125	5050	5050	4977	4977	4906	4906	4906	4906	4906	4838	4771	4771	4706	4706	4706	4706	4643	4643	4643	4643	4643	4581	4581	4521	4521	0	0	0	0	0	0	0	0	0	0	0	0	0	0	0	0	0	0	0	0	0	0	0	0	0	0	0	0	0	0	0	0	0	0
0	0	0	0	0	0	0	0	0	1277	1282	1287	1287	1291	1291	1291	1296	1296	1301	1306	1306	1311	1311	1311	1316	1316	1316	1419	1431	1431	1425	1437	1443	1443	1443	1443	1443	1449	1449	1455	1467	1480	1480	1480	1486	1486	1492	1499	1492	1519	1519	1519	1519	1525	1532	1532	1539	1546	1553	1553	1560	1567	1567	1581	1596	1603	1611	1611	1611	1618	1626	1634	1641	1649	1657	1665	1665	1665	1673	1673	1681	1673	1681	1732	1732	1732	0	0	0	5535	5626	5626	5535	5535	5626	5535	5535	5535	5535	5448	5448	5448	0	0	0	0	0	0	0	2051	2051	2051	2051	2039	2027	2015	2015	2003	1992	1992	1992	1980	1980	1980	1980	1980	1980	1969	1969	1969	1969	1969	1958	1969	1958	1958	1958	1958	1958	1958	1958	1958	1958	1958	1958	1969	1969	1969	1980	1969	1980	1980	1980	1980	1980	1980	1992	1992	2003	2003	2003	2003	2015	2015	2015	2015	2027	2039	2039	2039	2039	2051	2051	2051	2063	2076	2101	2114	2114	2127	2127	2140	2140	2153	2153	2153	2153	2153	2153	2153	2153	0	4406	4406	4406	4406	4406	4350	4350	4406	4350	4350	4350	4406	4406	4406	4350	4350	4406	4406	4350	4406	4406	4406	4406	4406	4463	4406	4463	4463	4463	4463	4406	4463	4463	4463	4463	4406	4463	4463	4463	4406	4406	4350	4406	4406	4406	4406	4406	4406	4406	4406	4406	4406	4406	4406	4406	4406	4463	4463	4463	4463	4463	4463	4406	4406	4406	4406	4463	4463	4463	4463	4463	4463	4406	4406	4350	4350	4350	4350	4350	4406	4406	4406	4406	4463	4463	4463	4463	4463	4406	4406	4406	4406	4350	4350	4350	4406	4406	4406	3406	3406	3440	3440	3440	3440	3440	3440	3440	3440	3440	3440	3440	3406	3373	3373	3341	3341	3341	3341	3341	3341	3341	3341	3309	3309	3309	3309	3277	3309	3277	3309	3277	3277	3309	3309	3277	3277	3309	3309	3277	3277	3277	3309	3309	3309	3309	3277	3277	3309	3277	3309	3309	3309	3309	3341	3341	3341	3373	3373	3373	3373	3373	3373	3373	3373	3406	3406	3406	3406	3406	3440	3440	4406	4406	4406	4406	4406	4350	4350	4350	4406	4406	4406	4350	4350	4406	4406	4406	4406	4406	4406	4350	4350	4350	4350	4350	4406	4406	4463	4463	4463	4406	4406	4406	4406	4406	4350	4350	4350	4406	4350	4350	4406	4406	4350	4296	4350	4350	4296	4296	4350	4350	4406	4350	4350	4350	4350	4350	4296	4296	4296	4350	4350	4350	4350	4350	4350	4406	4350	4350	4350	4350	4350	4350	4350	4296	4296	4296	4296	4296	4296	4296	4296	4296	4296	4296	4296	4350	4296	4350	4350	4350	4350	4406	4350	4350	4350	4296	4296	4406	4296	4296	4350	4350	4406	4350	4350	4406	4406	4406	4406	7779	7779	7779	7779	7779	7959	7779	7959	7959	7779	7779	7779	7779	7779	7779	7779	7779	7779	7779	7779	7779	7779	7779	7779	7608	7608	7608	7608	7444	7444	7444	7444	7137	7137	7137	7137	7137	6992	6853	6853	6720	6720	6720	6592	6592	6592	6592	6592	6468	6468	6468	6468	6468	6468	6349	6349	6349	6349	6349	6349	6349	6235	6235	6235	6235	6124	6124	6124	6124	6124	6018	6018	6018	5915	5915	5915	5815	5915	5915	5719	5719	5626	5626	5626	5626	5535	5535	5535	5535	5535	5535	5535	5448	5448	5364	5282	5282	5202	5202	5202	5202	5202	5202	5125	5125	5125	5050	5050	5050	4977	4977	4977	4977	4977	4906	4906	4906	4906	4838	4706	4771	4706	4706	4706	4706	4706	4643	4643	4643	4643	4581	4581	4521	4521	0	0	0	0	0	0	0	0	0	0	0	0	0	0	0	0	0	0	0	0	0	0	0	0	0	0	0	0	0	0	0	0	0	0
0	0	0	0	0	0	0	0	0	1277	1282	1287	1287	1291	1291	1296	1296	1296	1301	1306	1306	1311	1311	1311	1316	1316	1316	1396	1407	1413	1419	1431	1437	1437	1443	1443	1443	1443	1449	1455	1467	1480	1480	1480	1486	1486	1492	1499	1492	1512	1519	1519	1519	1525	1532	1532	1539	1546	1553	1553	1560	1567	1567	1581	1589	1596	1603	1603	1611	1618	1626	1634	1641	1657	1665	1673	1673	1665	1673	1673	1681	1673	1706	1723	1723	1715	1723	1723	0	0	5626	5626	5535	5535	5626	5535	5535	5535	5535	5448	5448	5448	5448	0	0	0	0	0	0	2063	2051	2051	2051	2039	2027	2015	2015	2003	1992	1992	1992	1980	1992	1969	1969	1969	1969	1969	1969	1969	1969	1969	1958	1958	1958	1958	1958	1958	1958	1958	1969	1958	1958	1947	1958	1969	1969	1969	1969	1969	1969	1969	1969	1969	1969	1980	1980	1992	2003	2003	2003	2003	2003	2003	2003	2015	2015	2027	2027	2039	2039	2051	2051	2063	2063	2076	2088	2101	2114	2127	2140	2140	2140	2153	2153	2153	2153	2153	2153	2167	2167	0	0	4406	4463	4406	4406	4406	4406	4406	4350	4350	4406	4406	4406	4350	4350	4350	4350	4406	4350	4406	4406	4406	4463	4406	4463	4406	4406	4463	4463	4463	4406	4463	4406	4406	4406	4406	4406	4406	4406	4406	4406	4350	4406	4406	4406	4406	4406	4406	4406	4406	4406	4406	4406	4406	4406	4406	4463	4463	4463	4463	4463	4463	4406	4406	4406	4406	4463	4463	4463	4521	4463	4463	4463	4406	4406	4350	4350	4350	4350	4350	4406	4406	4406	4463	4463	4463	4463	4463	4406	4406	4350	4350	4350	4350	4350	4406	4406	3406	3406	3406	3440	3440	3440	3440	3440	3440	3440	3440	3440	3440	3406	3406	3373	3373	3373	3341	3341	3341	3341	3341	3341	3341	3277	3277	3277	3277	3277	3277	3277	3309	3309	3309	3309	3309	3309	3309	3309	3309	3277	3277	3277	3309	3309	3309	3309	3309	3309	3309	3277	3309	3309	3309	3309	3341	3341	3341	3373	3373	3373	3373	3373	3373	3373	3373	3406	3406	3406	3406	3406	3440	3440	4350	4350	4350	4350	4406	4350	4350	4350	4350	4350	4406	4350	4406	4406	4406	4406	4406	4406	4406	4406	4350	4350	4350	4350	4406	4406	4463	4463	4463	4463	4463	4406	4406	4406	4350	4350	4406	4406	4350	4350	4350	4350	4350	4350	4350	4296	4296	4296	4296	4296	4350	4350	4350	4350	4350	4296	4350	4350	4350	4350	4350	4350	4350	4350	4350	4350	4350	4350	4350	4350	4350	4350	4350	4296	4296	4296	4296	4296	4296	4296	4296	4296	4296	4296	4296	4350	4296	4350	4350	4350	4350	4350	4350	4350	4350	4296	4296	4296	4296	4350	4350	4350	4350	4350	4350	4406	4406	4406	4406	4406	7608	7779	7779	7779	7779	7779	7779	7959	7779	7779	7779	7779	7779	7779	7779	7779	7779	7779	7779	7779	7779	7779	7608	7608	7608	7608	7444	7444	7287	7287	7287	7137	7137	7137	7137	7137	6992	6992	6853	6720	6720	6720	6592	6592	6592	6592	6592	6592	6592	6468	6468	6468	6468	6349	6349	6349	6349	6349	6349	6235	6235	6235	6235	6124	6124	6124	6124	6124	6018	6018	6018	5915	5915	5915	5815	5815	5815	5815	5719	5719	5626	5626	5626	5626	5535	5535	5535	5535	5535	5535	5535	5448	5448	5364	5364	5282	5282	5282	5202	5202	5202	5125	5125	5050	5050	5050	5050	5050	4977	4977	4977	4977	4977	4906	4906	4906	4906	4906	4838	4706	4706	4706	4643	4643	4643	4643	4643	4643	4643	4643	4581	4463	4463	0	0	0	0	0	0	0	0	0	0	0	0	0	0	0	0	0	0	0	0	0	0	0	0	0	0	0	0	0	0	0	0	0	0
0	0	0	0	0	0	0	0	0	1282	1287	1287	1291	1291	1291	1296	1296	1296	1301	1306	1311	1311	1311	1311	1316	1316	1396	1396	1396	1407	1407	1425	1437	1437	1437	1443	1443	1443	1443	1449	1461	1473	1480	1480	1486	1486	1492	1492	1492	1499	1519	1519	1519	1525	1532	1532	1539	1546	1553	1560	1567	1574	1574	1581	1589	1596	1596	1603	1603	1611	1626	1641	1649	1665	1665	1673	1673	1673	1673	1673	1681	1673	1715	1723	1732	1723	1732	1741	1741	0	0	0	5535	5448	5535	5535	5535	5535	5535	5535	5719	5719	5448	0	0	0	0	0	0	2076	2063	2051	2051	2039	2027	2015	2003	2003	1992	1992	1980	1980	1980	1969	1969	1969	1969	1969	1969	1969	1969	1969	1958	1958	1958	1958	1958	1958	1958	1958	1969	1958	1958	1947	1947	1958	1969	1969	1969	1969	1969	1969	1980	1980	1980	1969	1980	1980	2003	2003	2003	2003	2003	2003	2003	2003	2015	2027	2027	2039	2039	2051	2063	2063	2063	2076	2076	2088	2101	2127	2127	2140	2140	2153	2153	2153	2153	2153	2153	2153	2153	0	0	4406	4406	4406	4406	4406	4406	4406	4406	4406	4406	4406	4406	4350	4350	4350	4350	4406	4350	4406	4406	4406	4406	4406	4406	4406	4406	4406	4406	4406	4406	4406	4406	4406	4406	4406	4406	4406	4406	4406	4350	4350	4406	4406	4406	4406	4406	4406	4406	4350	4350	4350	4406	4406	4406	4406	4463	4463	4463	4463	4463	4463	4406	4406	4406	4406	4406	4463	4463	4463	4521	4463	4463	4406	4406	4406	4350	4350	4350	4350	4350	4406	4406	4406	4406	4463	4463	4463	4406	4406	4406	4406	4350	4350	4350	4406	4406	3406	3406	3406	3440	3440	3440	3440	3440	3440	3440	3440	3440	3440	3406	3406	3373	3373	3373	3341	3341	3341	3341	3341	3341	3341	3277	3277	3277	3277	3277	3309	3277	3309	3309	3309	3309	3309	3277	3277	3277	3277	3277	3277	3277	3277	3277	3309	3309	3309	3277	3277	3277	3277	3309	3309	3309	3341	3341	3341	3373	3373	3373	3373	3373	3373	3373	3373	3406	3406	3406	3406	3406	3406	3440	4406	4350	4350	4406	4406	4350	4350	4350	4350	4406	4406	4350	4406	4406	4406	4406	4406	4406	4406	4350	4350	4350	4350	4350	4406	4406	4463	4463	4463	4463	4463	4406	4406	4406	4350	4350	4350	4406	4350	4350	4406	4350	4350	4350	4296	4296	4296	4296	4296	4296	4350	4350	4406	4406	4350	4350	4350	4350	4350	4350	4350	4350	4350	4350	4350	4350	4350	4350	4350	4350	4350	4350	4296	4296	4296	4296	4296	4296	4296	4350	4350	4350	4350	4296	4296	4350	4296	4350	4350	4350	4350	4350	4350	4296	4296	4296	4296	4296	4296	4350	4296	4350	4350	4350	4350	4406	4406	4406	4406	4406	7779	7779	7779	7959	7779	7779	7959	7779	7779	7779	7779	7779	7779	7779	7608	7779	7779	7779	7779	7779	7779	7779	7779	7608	7608	7444	7444	7287	7287	7287	7287	7137	7137	6992	6992	6992	6992	6853	6853	6720	6720	6720	6592	6592	6592	6592	6592	6468	6468	6468	6468	6468	6468	6349	6349	6235	6235	6349	6349	6235	6235	6235	6235	6124	6124	6124	6124	6124	6018	6018	6018	6018	5915	5915	5815	5815	5815	5815	5719	5719	5626	5626	5626	5626	5535	5535	5535	5535	5535	5535	5535	5535	5448	5364	5364	5282	5282	5282	5202	5202	5202	5125	5202	5125	4977	4977	5050	4977	4977	4977	4977	4906	4906	4906	4906	4906	4906	4906	4771	4706	4706	4643	4643	4643	4643	4643	4643	4643	4643	4643	4521	4463	4463	0	0	0	0	0	0	0	0	0	0	0	0	0	0	0	0	0	0	0	0	0	0	0	0	0	0	0	0	0	0	0	0	0	0
0	0	0	0	0	0	0	0	0	1282	1287	1287	1291	1291	1291	1296	1296	1296	1311	1306	1311	1311	1311	1311	1316	1316	1396	1396	1402	1402	1407	1419	1425	1437	1437	1443	1443	1443	1443	1443	1449	1467	1473	1480	1486	1486	1486	1486	1492	1492	1512	1519	1519	1525	1532	1532	1539	1546	1546	1560	1560	1574	1574	1581	1589	1596	1596	1603	1603	1618	1626	1641	1649	1665	1673	1673	1673	1673	1673	1681	1690	1681	1706	1723	1723	1723	1732	1732	1741	1750	1759	1759	0	5448	1786	1786	5535	5535	5535	5535	5535	5719	0	0	0	0	0	0	0	2063	2051	2051	2039	2027	2027	2015	2003	1992	1992	1980	1980	1980	1980	1969	1969	1969	1969	1969	1969	1969	1969	1958	1958	1958	1958	1958	1958	1958	1958	1958	1958	1958	1958	1958	1947	1958	1958	1969	1969	1969	1969	1969	1980	1980	1980	1980	1980	1992	2003	1992	2003	1992	2003	2003	2003	2003	2003	2027	2027	2039	2051	2051	2063	2063	2063	2076	2076	2088	2101	2114	2114	2127	2127	2140	2140	2153	2153	2153	2153	2153	2153	0	0	4350	4406	4406	4406	4406	4406	4406	4406	4406	4406	4406	4406	4350	4350	4350	4350	4406	4406	4406	4406	4406	4406	4406	4406	4406	4406	4406	4463	4406	4406	4406	4406	4406	4406	4350	4406	4406	4406	4406	4350	4350	4406	4406	4406	4406	4406	4406	4406	4350	4350	4350	4350	4406	4406	4406	4463	4463	4463	4463	4463	4463	4463	4406	4406	4406	4463	4463	4463	4463	4463	4463	4406	4406	4406	4406	4350	4350	4350	4350	4350	4350	4406	4406	4406	4463	4463	4463	4406	4406	4406	4406	4350	4350	4350	4350	4350	4350	3440	3440	3440	3440	3440	3440	3440	3440	3440	3440	3440	3440	3440	3406	3406	3373	3373	3341	3341	3341	3341	3341	3341	3341	3277	3277	3277	3277	3277	3309	3309	3309	3309	3309	3309	3309	3277	3277	3277	3277	3277	3277	3277	3277	3277	3277	3309	3309	3309	3277	3277	3309	3309	3309	3309	3309	3341	3341	3341	3373	3373	3373	3373	3373	3373	3373	3406	3406	3406	3406	3406	3406	3406	4406	4406	4406	4406	4406	4406	4350	4350	4406	4406	4350	4350	4350	4406	4406	4406	4406	4406	4406	4350	4350	4350	4350	4350	4406	4406	4406	4406	4406	4406	4406	4406	4406	4406	4350	4296	4296	4406	4406	4406	4406	4406	4350	4350	4350	4296	4296	4296	4406	4406	4406	4463	4406	4406	4406	4350	4350	4350	4350	4350	4350	4350	4350	4350	4350	4406	4406	4350	4350	4350	4406	4350	4350	4296	4296	4296	4296	4296	4350	4350	4350	4350	4350	4296	4296	4350	4296	4296	4296	4296	4350	4350	4406	4350	4350	4350	4350	4296	4350	4350	4350	4350	4350	4350	4350	4350	4406	4406	4406	4406	7779	7779	7779	7959	7959	7959	7959	7779	7779	7779	7608	7608	7608	7779	7779	7779	7779	7779	7779	7779	7779	7779	7779	7608	7608	7608	7444	7444	7444	7444	7287	7137	6992	6992	6992	6992	6992	6853	6853	6853	6853	6853	6720	6592	6592	6592	6592	6468	6592	6468	6468	6468	6349	6349	6349	6235	6235	6349	6349	6235	6235	6235	6124	6124	6124	6124	6018	6018	6018	6018	6018	5915	5915	5915	5915	5815	5815	5815	5719	5719	5626	5626	5626	5626	5626	5535	5535	5535	5535	5535	5535	5448	5364	5364	5282	5202	5202	5202	5202	5202	5202	5202	5202	5125	5050	5050	5050	4977	4977	4977	4906	4906	4906	4906	4906	4906	4906	4906	4906	4771	4706	4706	4706	4706	4643	4643	4643	4643	4643	4581	4521	4463	4463	0	0	0	0	0	0	0	0	0	0	0	0	0	0	0	0	0	0	0	0	0	0	0	0	0	0	0	0	0	0	0	0	0	0
0	0	0	0	0	0	0	0	0	1287	1287	1287	1287	1291	1296	1296	1296	1296	1306	1306	1311	1311	1311	1311	1311	1402	1402	1396	1402	1402	1402	1413	1419	1431	1437	1437	1443	1437	1443	1443	1449	1455	1473	1473	1480	1480	1486	1486	1499	1506	1512	1519	1519	1525	1525	1532	1532	1546	1546	1560	1560	1567	1567	1574	1581	1596	1596	1603	1603	1618	1634	1641	1649	1657	1665	1673	1673	1673	1681	1681	1690	1681	1706	1723	1723	1732	1732	1732	1741	1750	1759	1768	1777	1777	1777	1786	5535	5535	5535	5535	5535	0	0	0	0	0	0	0	0	2063	2063	2039	2039	2027	2015	2015	2003	1992	1992	1980	1980	1980	1980	1969	1969	1969	1969	1969	1969	1969	1969	1969	1958	1958	1958	1958	1958	1958	1958	1958	1958	1958	1958	1958	1947	1947	1958	1958	1969	1969	1969	1969	1980	1969	1969	1969	1980	1980	2003	2003	2003	2003	2003	2003	1992	2003	2003	2015	2027	2039	2039	2051	2051	2051	2063	2063	2063	2076	2088	2088	2114	2114	2127	2140	2153	2153	2153	2153	2167	2167	2167	0	0	4350	4406	4406	4406	4406	4406	4406	4406	4406	4406	4406	4406	4406	4406	4350	4406	4406	4406	4406	4406	4406	4406	4406	4406	4406	4406	4406	4406	4406	4406	4406	4406	4406	4406	4350	4406	4406	4406	4406	4350	4350	4406	4406	4406	4350	4406	4406	4406	4350	4350	4406	4406	4406	4406	4406	4406	4463	4463	4463	4463	4463	4463	4463	4463	4406	4463	4463	4463	4463	4463	4463	4406	4406	4406	4350	4350	4350	4350	4350	4350	4350	4350	4406	4406	4463	4463	4406	4406	4406	4406	4350	4350	4350	4350	4350	4350	4350	3440	3440	3440	3440	3440	3440	3440	3440	3440	3440	3440	3440	3440	3406	3406	3373	3373	3341	3341	3341	3341	3341	3341	3341	3277	3277	3277	3277	3277	3309	3309	3309	3309	3309	3309	3277	3277	3277	3277	3277	3277	3277	3277	3277	3277	3277	3277	3309	3309	3277	3277	3277	3309	3309	3309	3309	3341	3341	3341	3373	3373	3373	3373	3373	3373	3373	3373	3373	3373	3373	3373	3373	4406	4406	4406	4463	4463	4406	4406	4406	4406	4406	4406	4350	4350	4350	4406	4406	4350	4350	4406	4406	4406	4350	4350	4350	4350	4406	4406	4406	4406	4406	4406	4406	4406	4406	4406	4350	4350	4350	4350	4406	4406	4406	4406	4406	4406	4350	4406	4350	4406	4406	4463	4463	4463	4406	4406	4406	4350	4350	4350	4350	4350	4350	4350	4350	4350	4350	4350	4406	4350	4350	4350	4406	4350	4350	4296	4296	4296	4350	4296	4350	4350	4350	4350	4350	4350	4296	4350	4296	4296	4296	4350	4406	4350	4350	4350	4350	4350	4296	4296	4350	4350	4350	4350	4350	4350	4350	4350	4406	4406	4406	4406	4406	7779	7779	7779	7779	7779	7959	7779	7779	7779	7779	7779	7779	7779	7779	7779	7779	7779	7779	7779	7779	7779	7779	7608	7608	7444	7444	7287	7444	7444	7444	7137	7137	7137	7137	6992	6992	6853	6853	6853	6853	6853	6720	6720	6592	6592	6592	6592	6592	6468	6468	6468	6349	6349	6349	6235	6235	6349	6235	6235	6235	6124	6124	6124	6124	6124	6018	6018	6018	6018	6018	5915	5915	5915	5915	5815	5815	5815	5719	5719	5626	5626	5626	5535	5535	5535	5535	5535	5448	5282	5282	5282	5282	5282	5282	5282	5282	5202	5282	5202	5202	5202	5202	5125	5050	5050	5050	4977	4977	4906	4906	4906	4906	4906	4906	4906	4906	4906	4838	4771	4706	4706	4706	4643	4643	4643	4643	4643	4581	4521	4521	4463	4463	0	0	0	0	0	0	0	0	0	0	0	0	0	0	0	0	0	0	0	0	0	0	0	0	0	0	0	0	0	0	0	0	0	0
0	0	0	0	0	0	0	0	0	1282	1282	1287	1287	1287	1291	1291	1296	1296	1306	1311	1311	1311	1311	1311	1311	1402	1402	1402	1402	1402	1402	1413	1413	1425	1431	1437	1437	1437	1437	1437	1443	1467	1473	1473	1480	1480	1486	1486	1492	1506	1512	1519	1519	1525	1525	1532	1539	1546	1546	1553	1560	1567	1567	1574	1581	1596	1603	1611	1611	1618	1634	1641	1641	1649	1665	1673	1673	1681	1681	1690	1698	1698	1715	1715	1732	1732	1741	1750	1750	1750	1750	1759	1768	1768	1768	0	0	0	0	0	0	0	0	0	0	0	0	0	0	0	2051	2039	2027	2027	2015	2015	2003	1992	1992	1980	1980	1980	1980	1969	1969	1969	1969	1969	1969	1969	1969	1969	1969	1958	1958	1958	1958	1958	1958	1958	1958	1958	1958	1947	1947	1958	1958	1969	1969	1969	1969	1969	1969	1969	1969	1969	1969	1980	1992	2003	2003	2003	2003	2003	1992	2003	2003	2003	2015	2015	2027	2027	2051	2051	2051	2063	2063	2063	2076	2088	2114	2114	2127	2140	2153	2153	2153	2153	2167	2167	2167	0	0	4350	4350	4406	4406	4406	4406	4406	4406	4406	4406	4406	4406	4350	4350	4350	4350	4406	4350	4350	4350	4350	4350	4406	4406	4406	4406	4406	4406	4406	4406	4406	4406	4406	4406	4350	4350	4350	4350	4350	4350	4350	4406	4406	4406	4406	4406	4406	4406	4350	4350	4406	4406	4406	4406	4463	4463	4463	4463	4463	4521	4521	4463	4463	4463	4463	4463	4406	4406	4406	4406	4406	4406	4406	4406	4350	4350	4350	4350	4350	4350	4350	4350	4406	4406	4406	4463	4406	4406	4406	4406	4406	4350	4350	4350	4350	4350	3475	3475	3475	3475	3440	3440	3440	3440	3440	3440	3440	3440	3440	3440	3406	3406	3373	3373	3341	3341	3341	3341	3341	3341	3341	3277	3277	3277	3277	3277	3309	3309	3309	3309	3309	3309	3277	3277	3277	3277	3277	3277	3277	3277	3277	3277	3277	3277	3277	3277	3277	3277	3277	3309	3309	3309	3309	3341	3341	3341	3373	3373	3373	3373	3373	3373	3373	3373	3373	3373	3373	3373	4406	4406	4406	4463	4463	4463	4406	4406	4406	4406	4406	4406	4350	4350	4350	4406	4406	4350	4350	4350	4406	4350	4350	4350	4350	4350	4406	4406	4406	4406	4406	4406	4406	4406	4406	4406	4350	4350	4350	4406	4406	4406	4406	4463	4463	4406	4406	4406	4463	4463	4463	4463	4463	4463	4406	4406	4406	4350	4350	4350	4350	4350	4296	4296	4296	4350	4350	4350	4406	4350	4406	4406	4406	4406	4350	4296	4296	4350	4350	4296	4296	4296	4350	4296	4296	4296	4296	4296	4296	4296	4296	4296	4350	4296	4296	4296	4296	4296	4296	4296	4296	4296	4296	4350	4350	4350	4296	4350	4406	4406	4406	4406	4406	7779	7779	7779	7959	7779	7779	7779	7779	7779	7779	7608	7608	7608	7608	7608	7608	7779	7779	7779	7608	7608	7608	7608	7444	7444	7287	7287	7444	7444	7444	7444	7137	7137	7137	6992	6992	6992	6853	6853	6853	6853	6720	6720	6592	6592	6592	6592	6468	6468	6468	6468	6349	6349	6349	6349	6235	6235	6235	6124	6124	6124	6124	6018	6124	6124	6018	6018	6018	6018	6018	5915	5915	5915	5915	5815	5815	5815	5719	5719	5626	5626	5626	5535	5535	5535	5448	5448	5364	5282	5282	5282	5282	5282	5282	5282	5282	5282	5282	5202	5202	5202	5125	5125	5125	5050	5050	4977	4977	4977	4977	4906	4906	4906	4838	4838	4906	4838	4838	4771	4771	4706	4706	4706	4643	4643	4643	4643	4581	4521	4463	4463	4463	0	0	0	0	0	0	0	0	0	0	0	0	0	0	0	0	0	0	0	0	0	0	0	0	0	0	0	0	0	0	0	0	0	0
0	0	0	0	0	0	0	0	0	1287	1287	1287	1291	1291	1291	1296	1296	1296	1296	1306	1311	1311	1311	1311	1311	1407	1402	1402	1402	1402	1402	1407	1413	1419	1431	1437	1437	1437	1443	1443	1443	1449	1473	1473	1480	1480	1486	1486	1492	1506	1512	1519	1519	1525	1525	1532	1539	1539	1546	1546	1560	1567	1567	1574	1581	1596	1596	1611	1611	1618	1626	1634	1641	1649	1665	1665	1673	1673	1690	1698	1698	1706	1706	1741	1741	1732	1741	1759	1750	1750	1759	1759	1768	1768	1759	1759	0	0	0	0	0	0	0	0	0	0	0	0	0	0	2039	2027	2027	2027	2027	2015	2003	1992	1980	1980	1980	1980	1980	1969	1980	1969	1969	1969	1969	1969	1969	1969	1958	1958	1958	1958	1958	1958	1947	1947	1947	1947	1958	1947	1958	1958	1958	1969	1969	1969	1969	1969	1969	1969	1969	1969	1969	1980	1992	2003	2003	2003	2003	1992	1992	1992	2003	2015	2015	2027	2039	2051	2051	2051	2051	2063	2063	2063	2076	2088	2101	2101	2127	2153	2140	2153	2153	2153	2167	2167	2181	2181	0	4350	4350	4406	4406	4406	4406	4406	4406	4463	4406	4406	4406	4350	4406	4406	4350	4406	4350	4350	4350	4350	4350	4406	4350	4406	4406	4406	4463	4406	4406	4406	4406	4406	4350	4350	4350	4350	4350	4350	4350	4350	4406	4406	4406	4406	4406	4406	4406	4406	4406	4406	4406	4406	4406	4406	4463	4463	4463	4521	4521	4521	4463	4463	4463	4463	4463	4406	4406	4406	4406	4406	4406	4350	4406	4350	4350	4350	4350	4350	4350	4350	4350	4350	4406	4463	4463	4463	4406	4406	4406	4406	4350	4350	4350	4350	4350	3475	3475	3475	3475	3440	3440	3440	3440	3440	3440	3440	3440	3440	3406	3406	3406	3373	3341	3341	3341	3341	3341	3341	3341	3341	3277	3277	3277	3277	3277	3309	3309	3309	3277	3277	3309	3277	3277	3277	3277	3277	3277	3277	3277	3277	3277	3277	3277	3277	3277	3277	3277	3277	3277	3309	3309	3309	3309	3341	3341	3341	3373	3373	3373	3373	3373	3373	3373	3373	3373	3373	4406	4406	4406	4406	4406	4463	4463	4406	4406	4406	4406	4406	4406	4350	4350	4350	4406	4350	4350	4350	4350	4350	4350	4350	4350	4296	4350	4406	4406	4406	4406	4406	4406	4406	4406	4406	4406	4350	4350	4350	4406	4406	4406	4406	4406	4406	4406	4406	4406	4463	4463	4463	4463	4463	4463	4406	4406	4406	4350	4350	4350	4350	4296	4296	4296	4350	4350	4350	4350	4406	4406	4406	4350	4406	4350	4350	4296	4296	4296	4350	4296	4296	4296	4296	4296	4350	4296	4296	4296	4296	4296	4296	4296	4296	4296	4296	4296	4296	4296	4296	4296	4296	4350	4350	4350	4350	4350	4350	4350	4406	4406	4406	4406	4406	7779	7779	7779	7779	7779	7779	7779	7779	7779	7608	7608	7608	7608	7608	7608	7779	7779	7779	7779	7608	7608	7608	7608	7444	7444	7444	7444	7444	7287	7287	7287	7137	7137	7137	7137	6992	6992	6992	6853	6853	6853	6853	6720	6592	6592	6592	6592	6592	6468	6468	6468	6349	6349	6349	6349	6235	6235	6235	6124	6124	6018	6018	6018	6018	6018	6018	6018	6018	6018	6018	5915	5915	5815	5915	5815	5815	5719	5719	5719	5626	5626	5626	5535	5535	5535	5448	5448	5448	5282	5282	5282	5364	5364	5282	5282	5282	5282	5282	5202	5202	5202	5125	5125	5125	5125	5050	4977	4977	4977	4977	4906	4906	4906	4906	4838	4906	4838	4838	4838	4706	4706	4706	4706	4643	4643	4643	4643	4581	4521	4463	4463	4463	0	0	0	0	0	0	0	0	0	0	0	0	0	0	0	0	0	0	0	0	0	0	0	0	0	0	0	0	0	0	0	0	0	0
0	0	0	0	0	0	0	0	0	1282	1287	1287	1291	1291	1291	1296	1296	1296	1301	1301	1306	1311	1306	1311	1301	1402	1402	1402	1402	1402	1402	1413	1413	1419	1425	1437	1437	1437	1437	1443	1449	1467	1473	1473	1480	1480	1486	1486	1499	1512	1519	1519	1525	1525	1532	1532	1539	1539	1546	1546	1560	1560	1567	1574	1581	1589	1603	1603	1611	1618	1626	1634	1641	1649	1657	1665	1673	1681	1690	1698	1698	1706	1706	1715	1723	1732	1732	1750	1750	1750	1759	1759	1768	1768	1768	1768	1768	0	0	0	0	0	0	0	0	0	0	0	0	0	2039	2027	2027	2027	2027	2027	2015	1992	1980	2003	2003	2003	1992	1980	1980	1969	1969	1969	1969	1969	1958	1969	1958	1958	1958	1958	1958	1958	1958	1958	1958	1947	1947	1947	1958	1958	1958	1969	1958	1958	1969	1958	1969	1969	1958	1958	1969	1969	1980	1980	1980	1992	1992	1992	2003	2003	2003	2015	2015	2015	2027	2039	2051	2051	2051	2063	2063	2063	2076	2088	2101	2101	2114	2127	2140	2153	2153	2153	2167	2167	2181	2181	2181	0	4350	4463	4463	4463	4406	4406	4406	4406	4406	4406	4406	4350	4350	4350	4350	4406	4350	4350	4350	4350	4350	4406	4406	4406	4406	4463	4463	4406	4406	4406	4406	4406	4406	4350	4406	4406	4406	4406	4350	4350	4350	4406	4406	4406	4406	4463	4463	4406	4406	4406	4406	4406	4406	4463	4463	4463	4463	4463	4463	4463	4463	4463	4406	4406	4406	4406	4406	4406	4406	4406	4406	4350	4406	4350	4350	4350	4350	4350	4350	4350	4350	4350	4406	4406	4406	4406	4406	4406	4406	4406	4406	4350	4350	4350	4406	3475	3475	3475	3475	3475	3440	3440	3440	3440	3440	3440	3440	3440	3406	3406	3373	3373	3341	3341	3341	3341	3341	3341	3341	3309	3277	3277	3277	3277	3277	3309	3309	3277	3277	3277	3309	3277	3277	3277	3277	3277	3277	3277	3277	3277	3277	3277	3277	3277	3277	3277	3277	3277	3309	3309	3309	3309	3309	3341	3373	3373	3373	3373	3373	3341	3341	3373	3373	3373	3373	3373	4406	4406	4406	4406	4406	4463	4406	4406	4406	4406	4406	4406	4350	4350	4350	4350	4350	4350	4350	4350	4350	4350	4350	4350	4350	4350	4406	4406	4406	4406	4406	4406	4406	4406	4406	4406	4406	4406	4350	4350	4406	4406	4406	4406	4406	4406	4463	4463	4406	4406	4406	4406	4463	4406	4406	4406	4406	4406	4350	4296	4350	4296	4296	4296	4296	4296	4350	4350	4350	4350	4350	4350	4350	4350	4350	4296	4296	4296	4296	4296	4296	4296	4296	4350	4350	4350	4350	4296	4296	4296	4350	4296	4350	4350	4296	4296	4296	4296	4296	4296	4296	4296	4350	4350	4350	4350	4350	4350	4350	4350	4406	4350	4406	4406	7779	7779	7779	7779	7779	7779	7779	7779	7779	7608	7608	7608	7608	7608	7608	7779	7779	7779	7608	7608	7608	7608	7444	7444	7287	7287	7287	7287	7287	7287	7287	7137	7137	7137	7137	7137	6992	6992	6992	6853	6853	6853	6592	6592	6592	6468	6468	6468	6468	6468	6468	6468	6349	6349	6349	6349	6349	6349	6124	6124	6018	6018	6018	6018	6018	6018	6018	6018	6018	5915	5915	5915	5815	5915	5915	5815	5815	5719	5719	5626	5626	5626	5626	5535	5535	5535	5535	5448	5448	5364	5364	5364	5364	5282	5282	5282	5202	5202	5202	5202	5202	5202	5125	5125	5125	5050	4977	4977	4977	4977	4977	4906	4906	4906	4838	4838	4838	4838	4906	4771	4771	4771	4706	4706	4643	4643	4643	4581	4581	4463	4463	4463	0	0	0	0	0	0	0	0	0	0	0	0	0	0	0	0	0	0	0	0	0	0	0	0	0	0	0	0	0	0	0	0	0	0
0	0	0	0	0	0	0	0	0	1277	1282	1287	1291	1291	1291	1296	1296	1296	1296	1301	1311	1311	1311	1311	1402	1402	1402	1402	1402	1402	1402	1407	1413	1419	1425	1431	1431	1431	1437	1443	1455	1467	1467	1473	1473	1480	1486	1486	1499	1512	1519	1525	1525	1525	1532	1532	1539	1539	1539	1546	1546	1553	1567	1574	1581	1589	1603	1611	1611	1618	1626	1634	1641	1649	1657	1665	1673	1681	1690	1698	1698	1706	1706	1715	1723	1723	1741	1750	1750	1750	1768	1777	1777	1777	1777	1777	1777	1777	0	0	0	0	0	0	0	0	0	0	0	0	2027	2027	2027	2015	2015	2015	2015	2015	2015	2015	2015	2015	1992	1980	1980	1969	1969	1969	1969	1969	1958	1969	1958	1958	1958	1958	1958	1958	1958	1958	1947	1947	1947	1947	1947	1958	1958	1958	1958	1958	1958	1958	1958	1958	1958	1969	1969	1980	1980	1992	1980	1980	1992	1992	2003	2003	2003	2015	2015	2027	2027	2039	2051	2051	2051	2051	2063	2063	2076	2088	2101	2101	2114	2127	2140	2153	2153	2153	2167	2181	2181	2181	2181	0	4463	4463	4463	4463	4406	4406	4406	4463	4463	4406	4406	4406	4406	4406	4350	4406	4350	4350	4350	4350	4350	4350	4350	4406	4406	4406	4406	4406	4406	4406	4406	4406	4406	4350	4406	4406	4406	4350	4350	4350	4350	4406	4406	4406	4406	4406	4463	4406	4406	4406	4406	4406	4406	4406	4406	4463	4463	4463	4463	4463	4463	4463	4406	4406	4406	4406	4406	4350	4350	4350	4350	4350	4350	4350	4350	4350	4350	4350	4350	4350	4350	4350	4350	4406	4406	4406	4406	4406	4406	4463	4406	4406	4350	4406	4406	4406	3475	3475	3475	3475	3475	3440	3440	3440	3440	3440	3440	3440	3406	3406	3406	3373	3341	3341	3341	3341	3341	3341	3309	3309	3277	3277	3277	3277	3277	3309	3277	3309	3277	3277	3277	3277	3277	3277	3277	3277	3277	3277	3277	3277	3277	3277	3277	3277	3309	3277	3277	3277	3277	3309	3309	3309	3309	3341	3373	3373	3373	3373	3373	3341	3341	3341	3341	3341	3341	4463	4463	4406	4406	4406	4463	4463	4406	4406	4406	4406	4406	4406	4350	4350	4350	4350	4350	4350	4350	4350	4406	4406	4406	4350	4406	4350	4406	4406	4406	4406	4350	4350	4406	4406	4406	4406	4406	4406	4406	4350	4406	4406	4406	4406	4406	4406	4406	4463	4406	4350	4406	4406	4406	4406	4406	4406	4406	4350	4350	4296	4350	4296	4296	4296	4296	4296	4350	4350	4350	4350	4350	4350	4350	4350	4296	4296	4296	4296	4296	4296	4296	4296	4296	4296	4350	4350	4296	4296	4350	4350	4350	4350	4350	4350	4350	4406	4350	4350	4350	4296	4350	4350	4296	4350	4350	4350	4350	4350	4350	4350	4350	4350	4406	4406	7959	7779	7779	7779	7779	7779	7779	7779	7779	7779	7608	7608	7608	7608	7608	7608	7779	7779	7608	7608	7608	7608	7608	7444	7287	7444	7444	7444	7444	7444	7444	7137	7287	7137	7137	7137	6992	6992	6853	6853	6853	6853	6720	6592	6592	6592	6592	6592	6468	6468	6349	6468	6349	6349	6349	6235	6349	6349	6124	6124	6018	6018	6018	6018	6018	6018	6018	6018	6018	5915	5915	5815	5815	5815	5815	5719	5719	5719	5626	5626	5626	5626	5626	5626	5535	5535	5535	5535	5448	5364	5364	5364	5364	5282	5282	5282	5202	5202	5202	5202	5202	5202	5125	5125	5125	5050	4977	4977	4977	4977	4977	4977	4906	4906	4838	4838	4838	4838	4771	4771	4706	4706	4706	4706	4643	4643	4643	4581	4581	4463	4463	4463	0	0	0	0	0	0	0	0	0	0	0	0	0	0	0	0	0	0	0	0	0	0	0	0	0	0	0	0	0	0	0	0	0	0
0	0	0	0	0	0	0	0	0	1277	1282	1282	1287	1291	1291	1291	1296	1296	1296	1301	1311	1311	1311	1311	1306	1402	1402	1402	1402	1402	1402	1407	1413	1419	1419	1431	1431	1431	1437	1449	1461	1467	1467	1473	1473	1473	1480	1486	1499	1499	1519	1525	1525	1532	1539	1539	1539	1539	1546	1546	1553	1553	1560	1567	1581	1589	1603	1611	1611	1618	1626	1634	1641	1649	1657	1673	1673	1681	1690	1698	1698	1698	1706	1706	1715	1723	1732	1750	1750	1741	1768	1786	1786	1786	1786	1786	1786	1786	1786	0	0	0	0	0	0	0	0	0	0	0	2027	2015	2015	2015	2015	2015	2003	1992	1992	2015	2015	2015	1992	1980	1980	1980	1980	1969	1969	1969	1969	1969	1958	1958	1958	1958	1958	1958	1958	1947	1947	1947	1947	1947	1947	1947	1947	1947	1958	1958	1958	1958	1958	1958	1958	1958	1969	1980	1980	1980	1980	1980	1980	2003	2003	2003	2015	2015	2015	2027	2027	2039	2051	2039	2051	2051	2063	2063	2063	2076	2088	2114	2114	2114	2127	2140	2153	2153	2153	2153	2153	2181	0	4296	4296	4350	4463	4463	4406	4406	4406	4463	4463	4406	4406	4406	4406	4406	4350	4350	4350	4350	4350	4350	4350	4350	4350	4406	4406	4406	4406	4406	4406	4406	4406	4406	4350	4406	4406	4406	4406	4350	4350	4350	4406	4406	4406	4406	4406	4406	4463	4406	4406	4406	4406	4406	4406	4406	4406	4406	4463	4463	4463	4463	4406	4406	4406	4406	4406	4350	4350	4350	4350	4350	4350	4350	4350	4350	4350	4350	4350	4350	4350	4350	4350	4350	4350	4406	4406	4406	4406	4406	4406	4463	4406	4406	4406	4406	4406	4406	4406	3475	3440	3475	3475	3440	3440	3440	3440	3440	3440	3440	3406	3406	3373	3373	3341	3341	3341	3341	3341	3341	3309	3309	3277	3309	3277	3277	3277	3277	3277	3277	3277	3277	3277	3277	3277	3277	3277	3277	3277	3277	3277	3277	3277	3277	3277	3277	3277	3277	3277	3277	3309	3309	3309	3309	3309	3341	3373	3373	3373	3373	3373	3341	3341	3341	3341	3341	3341	3341	4463	4406	4406	4406	4406	4406	4406	4406	4406	4406	4406	4406	4406	4350	4350	4350	4350	4350	4350	4350	4350	4406	4350	4350	4406	4350	4350	4350	4350	4350	4350	4350	4350	4350	4350	4406	4406	4350	4406	4350	4406	4406	4406	4406	4406	4406	4406	4463	4406	4406	4406	4406	4406	4350	4350	4350	4406	4350	4350	4296	4296	4296	4296	4296	4296	4296	4350	4350	4406	4406	4350	4406	4350	4350	4406	4296	4296	4296	4296	4350	4296	4296	4296	4296	4296	4296	4296	4296	4350	4350	4350	4350	4350	4350	4350	4406	4350	4350	4350	4350	4350	4350	4350	4350	4350	4350	4350	4296	4350	4350	4350	4350	4350	4350	7959	7779	7779	7779	7779	7779	7779	7779	7779	7779	7608	7608	7608	7608	7608	7608	7779	7779	7779	7608	7444	7444	7444	7444	7287	7444	7444	7444	7444	7444	7444	7287	7287	7137	7137	7137	6992	6992	6853	6853	6853	6853	6853	6468	6592	6592	6592	6592	6468	6468	6468	6468	6468	6349	6349	6349	6349	6349	6349	6124	6124	6124	6018	6124	6018	6018	6018	6018	6018	6018	5915	5815	5815	5815	5815	5719	5626	5626	5626	5626	5626	5626	5626	5626	5535	5535	5535	5535	5448	5364	5364	5282	5282	5282	5282	5282	5202	5202	5202	5202	5202	5202	5125	5125	5125	5050	4977	4977	4977	4977	4977	4906	4906	4906	4838	4838	4771	4771	4771	4771	4771	4706	4706	4706	4643	4643	4643	4581	4581	4463	4463	4463	0	0	0	0	0	0	0	0	0	0	0	0	0	0	0	0	0	0	0	0	0	0	0	0	0	0	0	0	0	0	0	0	0	0
0	0	0	0	0	0	0	0	0	1277	1277	1277	1287	1291	1291	1291	1296	1296	1301	1301	1306	1311	1311	1311	1306	1402	1402	1402	1402	1402	1402	1407	1413	1419	1419	1431	1431	1431	1437	1449	1461	1461	1467	1467	1473	1473	1473	1480	1492	1519	1525	1532	1532	1532	1539	1539	1539	1539	1539	1546	1546	1546	1560	1567	1574	1581	1596	1611	1611	1618	1634	1634	1641	1649	1665	1673	1673	1681	1690	1690	1698	1698	1706	1706	1715	1723	1741	1759	1750	1750	1804	1804	1804	1804	1786	1786	1786	1795	1795	0	0	0	0	0	0	0	0	0	0	0	2027	2015	2015	2015	2015	2015	2015	2003	2003	2015	2015	2015	2015	1980	1992	1980	1980	1969	1969	1969	1969	1969	1958	1947	1958	1947	1947	1958	1947	1947	1947	1947	1947	1947	1947	1947	1958	1958	1958	1958	1958	1958	1958	1958	1958	1958	1969	1969	1980	1980	1980	1992	1992	1992	2003	2003	2015	2015	2015	2027	2027	2039	2039	2039	2051	2051	2063	2063	2063	2076	2088	2088	2101	2114	2114	2127	2153	2153	2153	2153	2153	0	0	4350	4350	4350	4463	4463	4406	4406	4406	4463	4463	4463	4406	4406	4406	4406	4406	4350	4350	4350	4350	4350	4350	4350	4350	4350	4406	4406	4406	4406	4406	4463	4406	4406	4406	4406	4406	4406	4406	4350	4350	4350	4350	4406	4406	4406	4406	4406	4406	4406	4406	4406	4350	4406	4406	4406	4406	4406	4406	4463	4463	4406	4406	4406	4406	4406	4406	4350	4350	4350	4350	4350	4350	4350	4350	4350	4350	4350	4350	4350	4350	4350	4350	4350	4350	4406	4406	4406	4406	4406	4406	4406	4406	4406	4406	4406	4350	4350	4350	3440	3440	3440	3440	3440	3440	3440	3440	3440	3440	3440	3406	3406	3373	3373	3341	3341	3341	3341	3341	3309	3309	3309	3309	3309	3309	3277	3309	3309	3277	3277	3277	3277	3277	3277	3277	3277	3277	3309	3277	3277	3277	3277	3277	3277	3277	3277	3277	3277	3277	3277	3277	3309	3309	3309	3341	3341	3373	3373	3373	3373	3341	3341	3309	3341	3341	3341	3341	4463	4463	4406	4406	4406	4406	4406	4406	4406	4406	4406	4350	4406	4350	4350	4350	4350	4350	4350	4350	4350	4406	4406	4406	4350	4350	4350	4350	4350	4350	4350	4350	4350	4350	4350	4406	4406	4406	4406	4406	4406	4406	4406	4406	4406	4406	4406	4406	4463	4406	4406	4350	4350	4350	4350	4350	4296	4350	4296	4350	4296	4296	4296	4296	4296	4296	4296	4350	4350	4350	4350	4350	4350	4406	4406	4406	4406	4350	4350	4296	4296	4296	4296	4296	4296	4350	4296	4296	4296	4350	4350	4350	4350	4350	4350	4350	4350	4350	4350	4350	4350	4350	4350	4350	4350	4296	4296	4296	4296	4350	4350	4350	4350	4350	4350	7779	7779	7779	7779	7779	7779	7779	7779	7779	7779	7608	7608	7608	7608	7608	7608	7779	7608	7608	7608	7444	7444	7608	7444	7444	7444	7444	7608	7444	7444	7444	7287	7287	7137	7137	7137	6992	6992	6853	6853	6853	6720	6720	6592	6592	6592	6592	6468	6468	6468	6468	6468	6349	6349	6349	6349	6235	6349	6349	6235	6124	6124	6124	6124	6018	6018	6018	6018	6018	5915	5915	5815	5815	5815	5815	5626	5626	5626	5626	5626	5626	5626	5626	5626	5535	5535	5535	5535	5448	5364	5364	5364	5282	5282	5282	5282	5282	5202	5202	5202	5202	5202	5125	5125	5125	5050	4977	4977	4977	4977	4977	4906	4906	4906	4838	4838	4771	4771	4771	4771	4706	4706	4706	4706	4643	4643	4643	4581	4581	4581	4463	4463	0	0	0	0	0	0	0	0	0	0	0	0	0	0	0	0	0	0	0	0	0	0	0	0	0	0	0	0	0	0	0	0	0	0
0	0	0	0	0	0	0	0	0	1277	1277	1277	1287	1291	1291	1291	1291	1296	1296	1301	1306	1311	1311	1311	1311	1306	1402	1402	1402	1402	1402	1407	1413	1413	1419	1419	1431	1431	1431	1449	1461	1467	1467	1473	1473	1473	1480	1480	1492	1519	1519	1532	1532	1532	1539	1539	1539	1539	1546	1546	1546	1546	1553	1553	1567	1581	1603	1618	1618	1641	1641	1634	1641	1657	1665	1665	1681	1681	1690	1690	1698	1698	1706	1706	1715	1732	1741	1759	1759	1768	1804	1795	1795	1795	1795	1795	1786	1795	1795	0	0	0	0	0	0	0	0	0	0	0	2039	2027	2027	2027	2027	2015	2015	2003	2015	2015	2015	2015	2003	1992	1992	1980	1980	1969	1969	1969	1969	1969	1958	1958	1958	1958	1958	1958	1947	1947	1947	1947	1947	1947	1947	1958	1958	1958	1958	1958	1958	1958	1958	1958	1958	1958	1969	1969	1980	1980	1980	1980	1992	1992	2015	2015	2015	2015	2027	2027	2027	2039	2039	2039	2051	2051	2063	2063	2063	2076	2076	2088	2101	2114	2114	2127	2127	2140	2140	2140	0	0	0	4350	4406	4406	4463	4463	4406	4406	4406	4463	4406	4406	4406	4406	4406	4350	4350	4350	4350	4350	4350	4350	4350	4350	4350	4406	4406	4406	4406	4406	4406	4463	4406	4406	4406	4406	4406	4406	4406	4350	4350	4350	4350	4350	4350	4406	4406	4406	4406	4406	4350	4350	4350	4350	4406	4406	4406	4350	4406	4406	4406	4350	4350	4350	4406	4406	4350	4350	4350	4350	4350	4350	4350	4350	4350	4350	4350	4350	4350	4350	4350	4350	4350	4350	4406	4406	4406	4406	4463	4463	4463	4406	4406	4406	4350	4406	4350	4350	4350	4296	3475	3475	3440	3440	3440	3440	3440	3440	3440	3440	3406	3406	3373	3373	3341	3341	3341	3309	3309	3309	3309	3309	3277	3309	3277	3277	3277	3277	3277	3277	3277	3277	3277	3277	3277	3277	3309	3309	3277	3277	3309	3277	3277	3277	3277	3277	3277	3277	3277	3277	3277	3309	3309	3309	3309	3341	3373	3373	3373	3373	3341	3341	3341	3341	3341	3341	3341	4463	4463	4406	4406	4406	4406	4350	4350	4406	4406	4350	4350	4350	4350	4350	4350	4350	4350	4350	4350	4350	4350	4406	4406	4406	4406	4350	4406	4350	4350	4350	4350	4350	4406	4350	4406	4406	4406	4406	4406	4406	4406	4406	4406	4406	4406	4406	4406	4406	4406	4350	4350	4350	4350	4350	4350	4296	4296	4296	4296	4296	4243	4296	4296	4296	4296	4296	4296	4350	4350	4350	4350	4350	4350	4350	4406	4406	4296	4296	4296	4296	4296	4296	4296	4350	4350	4296	4296	4296	4296	4296	4350	4350	4350	4350	4350	4350	4350	4350	4350	4350	4350	4350	4350	4296	4296	4296	4296	4296	4296	4350	4350	4350	4350	4350	7959	7959	7779	7779	7779	7779	7779	7779	7779	7779	7608	7608	7608	7779	7608	7608	7779	7608	7608	7608	7444	7608	7608	7444	7444	7444	7444	7444	7444	7444	7444	7287	7287	7137	7137	7137	6992	6853	6853	6853	6720	6720	6720	6592	6592	6468	6468	6468	6468	6468	6468	6468	6349	6349	6349	6235	6235	6235	6235	6235	6124	6124	6124	6124	6018	6018	6018	6018	6018	5915	5915	5815	5815	5815	5815	5719	5626	5626	5626	5626	5626	5626	5626	5626	5626	5535	5535	5535	5535	5448	5364	5364	5282	5282	5282	5282	5282	5202	5202	5202	5202	5125	5125	5125	5050	4977	4977	4977	4977	4977	4977	4906	4906	4906	4838	4771	4838	4838	4771	4771	4771	4706	4706	4706	4643	4643	4643	4581	4581	4521	4521	4521	0	0	0	0	0	0	0	0	0	0	0	0	0	0	0	0	0	0	0	0	0	0	0	0	0	0	0	0	0	0	0	0	0	0
0	0	0	0	0	0	0	0	0	1277	1277	1277	1287	1287	1291	1291	1291	1296	1296	1301	1306	1311	1311	1311	1311	1311	1402	1402	1402	1396	1402	1402	1413	1419	1413	1419	1425	1431	1431	1449	1467	1473	1467	1473	1473	1480	1480	1486	1499	1519	1519	1525	1532	1532	1539	1539	1539	1539	1546	1553	1553	1553	1553	1560	1560	1574	1574	1611	1626	1626	1641	1641	1641	1657	1665	1673	1673	1681	1690	1690	1690	1698	1706	1706	1715	1723	1741	1777	1768	1786	1795	1795	1795	1804	1795	1795	0	0	0	0	0	0	0	0	0	0	0	0	0	2027	2027	2027	2027	2027	2027	2027	2015	2015	2015	2015	2015	2015	2003	1992	1980	1980	1969	1969	1969	1969	1969	1958	1958	1958	1958	1947	1958	1958	1947	1947	1947	1947	1947	1947	1947	1958	1958	1958	1958	1958	1958	1958	1958	1958	1958	1958	1958	1969	1969	1980	1969	1980	1992	1992	1992	2015	2015	2015	2027	2027	2015	2027	2039	2039	2051	2051	2063	2063	2076	2076	2076	2088	2101	2114	2114	2127	2127	2127	2127	2127	0	0	0	4463	4521	4521	4521	4521	4463	4463	4406	4406	4406	4406	4350	4350	4350	4350	4350	4350	4350	4350	4350	4350	4350	4350	4350	4406	4406	4406	4406	4406	4406	4406	4406	4406	4350	4350	4406	4350	4350	4350	4350	4350	4350	4350	4350	4406	4406	4406	4406	4406	4406	4350	4350	4350	4406	4350	4350	4350	4350	4350	4350	4350	4350	4350	4406	4406	4406	4350	4350	4350	4350	4350	4350	4350	4406	4406	4406	4406	4350	4350	4350	4350	4350	4350	4406	4406	4406	4406	4463	4406	4406	4406	4406	4406	4350	4406	4350	4350	4350	4350	3475	3475	3440	3440	3440	3440	3440	3440	3440	3406	3406	3373	3373	3373	3341	3341	3341	3309	3309	3309	3309	3309	3277	3309	3277	3277	3309	3277	3277	3277	3277	3277	3277	3309	3309	3277	3277	3309	3277	3277	3277	3277	3277	3277	3277	3277	3309	3277	3277	3277	3309	3309	3309	3309	3341	3341	3373	3373	3373	3373	3373	3341	3341	3341	3341	3341	3341	4521	4463	4406	4406	4406	4350	4350	4350	4350	4350	4350	4350	4350	4296	4350	4350	4350	4350	4350	4350	4350	4406	4406	4406	4406	4406	4350	4350	4350	4350	4350	4350	4350	4406	4406	4406	4406	4406	4406	4406	4406	4406	4406	4406	4406	4406	4406	4406	4406	4406	4350	4350	4296	4350	4350	4350	4296	4296	4296	4296	4296	4296	4296	4296	4296	4296	4296	4350	4350	4350	4350	4350	4350	4406	4350	4406	4406	4350	4350	4350	4350	4350	4350	4350	4350	4350	4350	4296	4296	4296	4296	4296	4296	4350	4350	4350	4350	4350	4350	4350	4350	4350	4350	4296	4296	4296	4296	4296	4296	4350	4350	4350	4406	4350	4350	7959	7959	7779	7779	7779	7779	7779	7779	7779	7779	7608	7608	7608	7608	7608	7608	7779	7608	7608	7608	7608	7608	7608	7608	7444	7608	7444	7444	7444	7444	7287	7137	7137	6992	6992	6992	6853	6853	6853	6853	6720	6720	6720	6592	6592	6468	6468	6468	6468	6468	6349	6349	6349	6349	6349	6349	6235	6235	6235	6235	6235	6124	6124	6124	6018	6018	6018	6018	6018	5915	5915	5815	5815	5815	5719	5626	5626	5626	5626	5626	5626	5626	5626	5626	5626	5626	5535	5535	5535	5448	5364	5282	5282	5282	5282	5282	5202	5202	5202	5202	5125	5125	5125	5125	5050	4977	4977	4977	4977	4977	4977	4906	4906	4906	4838	4771	4838	4838	4838	4771	4771	4706	4706	4706	4643	4643	4643	4581	4581	4581	4521	4521	0	0	0	0	0	0	0	0	0	0	0	0	0	0	0	0	0	0	0	0	0	0	0	0	0	0	0	0	0	0	0	0	0	0
