0	0	0	0	0	0	0	0	0	0	0	0	0	0	1715	1715	1715	1723	1723	1723	1723	1732	1732	1723	1723	1732	1750	1750	1768	1768	1786	1786	1795	1795	1814	1814	1814	1824	1824	1833	1833	1863	1863	1904	1915	1915	1925	1925	1947	1947	1947	1958	1980	1992	2003	1992	1992	2039	2039	2039	2039	2312	2376	2343	2359	2359	2392	2392	2426	2443	2460	2460	2496	2514	2532	2532	2551	2570	2589	2589	2589	2609	2649	2669	2669	2690	2690	2711	2711	2711	2711	2711	2711	2733	2733	2733	0	3907	3907	3907	3907	3907	3864	3864	3864	3864	3864	3864	3864	3864	3864	3821	3821	3779	3821	3779	3738	3738	3738	3738	3738	3738	3738	3738	3738	3738	3738	3738	3698	3738	3738	3738	3738	3738	3738	3738	3738	3738	3738	3779	3779	3779	3779	3821	3821	3821	3821	3864	3864	3864	3864	3864	3864	3864	3864	3907	3907	3864	3907	3907	3907	3907	3952	3952	3952	3998	3998	3998	3952	4045	4243	4243	4296	4296	4296	4296	4350	4350	4296	4350	4350	4350	4406	4350	4406	4406	4406	4406	4406	4406	4406	4406	4350	4350	4296	4296	4243	4142	4142	4142	4093	4093	4521	4521	4581	4581	4521	4521	4521	4521	4521	4521	4521	4521	4521	4521	4521	4521	4521	4521	4521	4463	4521	4521	4463	4521	4521	4521	4521	4521	4521	4581	4581	4581	3510	3510	3510	3510	3510	3510	3510	3510	3510	3510	3546	3546	3546	3546	3546	3546	3546	3546	3546	3583	3583	3583	3583	3583	3583	3583	3583	3621	3621	3621	3659	3621	3621	3621	3583	3583	3583	3583	3546	3546	3546	3583	3546	3546	3546	3546	3546	3546	3546	3546	3546	3546	3546	3546	3546	3546	3546	3546	3546	3510	3510	4243	4243	4243	4243	4243	4243	4243	4243	4243	4243	4243	4243	4243	4243	4243	4243	4243	4243	4243	4243	4243	4243	4243	4243	4243	4243	4243	4243	4192	4192	4192	4192	4192	4192	4192	4192	4192	4192	4192	4192	4243	4243	4243	4243	4243	4243	4243	4192	4243	4243	4243	4243	4243	4243	4296	4296	4243	4243	4243	4243	4243	4243	4243	4243	4243	4243	4296	4296	4296	4296	4350	4350	4296	4296	4296	4243	4192	4192	4192	4142	4142	4142	4142	4142	4142	4142	4142	4142	4142	4142	4192	4192	4142	4142	4142	4142	4093	4045	3998	3998	3998	3998	3998	3952	3952	3998	3998	3998	3952	3998	3998	4045	4045	4093	4093	4093	4142	4142	4142	4142	4142	4093	4045	4045	3998	3998	3998	3952	3952	3952	3952	3952	3952	3952	3952	3907	3907	3907	3907	3952	3952	3952	3998	4093	4296	4350	4463	4463	4521	4521	4521	4521	6124	6124	6124	6124	6124	6124	6235	6349	6349	6349	6349	6349	0	0	0	0	0	0	0	0	0	0	0	0	0	0	0	0	0	0	0	0	0	0	0	0	0	0	0	0	0	0	0	0	0	0	0	0	0	0	0	0	582	582	581	580	579	578	578	576	576	575	575	575	575	575	575	575	574	574	573	573	573	574	574	0	0	0	0	0	0	0	0	0	0	0	0	0	1272	1272	1272	1272	1272	0	1161	1161	1157	1157	1157	1153	1150	1146	1146	1142	1142	1142	1142	1146	1146	1150	1150	1150	1150	1146	1146	1150	1150	1150	1150	1150	1150	1153	1153	1150	1150	1150	1150	1150	1153	1153	1153	1153	1153	1157	1157	1157	1153	1153	1153	1153	1153	1153	1150	1153	1153	1153	1153	1153	1153	1157	1157	1157	0	0	0	0	0	0	0	0	0	0	0	0	0	0	0	0	0	0	0	0	0	0	0	0	0	0	0	0	0	0	0	0	0	0	0	0	0	0	0	0	0
0	0	0	0	0	0	0	0	0	0	0	0	0	0	1723	1723	1723	1723	1723	1732	1732	1732	1741	1732	1732	1732	1750	1768	1777	1786	1786	1795	1795	1814	1814	1814	1824	1824	1824	1833	1833	1863	1904	1915	1925	1925	1925	1947	1947	1958	1958	1969	1992	2003	2015	2015	2015	2015	2297	2312	2312	2312	2327	2327	2359	2359	2376	2392	2426	2443	2460	2460	2496	2514	2532	2532	2551	2570	2589	2589	2589	2609	2649	2669	2690	2690	2711	2711	2711	2711	2711	2711	2711	2733	2733	2733	0	3864	3864	3864	3864	3864	3864	3864	3864	3864	3864	3864	3864	3864	3864	3821	3821	3779	3779	3779	3738	3738	3738	3738	3738	3738	3738	3738	3738	3738	3738	3738	3738	3738	3738	3738	3738	3738	3738	3738	3738	3738	3779	3779	3779	3821	3821	3821	3821	3864	3864	3864	3864	3864	3864	3864	3864	3864	3864	3907	3907	3907	3907	3907	3907	3952	3952	3952	3998	3998	3998	3998	3998	4045	4243	4243	4243	4296	4296	4296	4296	4350	4296	4350	4350	4350	4350	4350	4350	4406	4406	4406	4406	4406	4406	4350	4350	4350	4296	4296	4243	4243	4142	4142	4093	4093	4463	4521	4521	4521	4463	4463	4463	4463	4463	4463	4521	4521	4521	4521	4521	4521	4521	4521	4521	4521	4521	4521	4521	4521	4521	4521	4521	4521	4521	4521	4581	4706	3510	3510	3475	3475	3475	3475	3475	3475	3510	3510	3546	3546	3546	3546	3546	3546	3546	3546	3546	3583	3583	3583	3583	3583	3583	3583	3583	3621	3621	3621	3621	3621	3621	3621	3583	3583	3583	3583	3583	3583	3583	3583	3583	3583	3546	3583	3583	3583	3546	3546	3546	3546	3546	3546	3546	3546	3546	3546	3546	3510	3510	4243	4243	4243	4243	4243	4243	4243	4243	4243	4243	4243	4243	4243	4243	4243	4243	4243	4243	4243	4243	4243	4243	4243	4243	4243	4243	4243	4243	4243	4243	4243	4243	4192	4243	4192	4243	4243	4243	4243	4243	4243	4243	4243	4243	4243	4243	4243	4243	4243	4243	4243	4243	4243	4243	4296	4243	4243	4243	4243	4243	4243	4243	4243	4243	4243	4296	4296	4296	4296	4296	4296	4350	4296	4296	4243	4243	4192	4192	4192	4142	4142	4142	4142	4142	4142	4142	4142	4142	4142	4142	4142	4142	4142	4142	4142	4093	4093	4045	3998	3998	3998	3998	3998	3952	3952	3998	3998	3952	3998	3952	3998	3998	4045	4045	4093	4142	4142	4142	4142	4142	4142	4142	4093	4045	3998	3998	3998	3952	3952	3952	3952	3952	3952	3952	3952	3952	3952	3952	3952	3952	3952	3998	3998	4243	4296	4296	4406	4463	4521	4521	4521	4581	6124	6124	6124	6124	6124	6124	6235	6349	6349	6349	6349	0	0	0	0	0	0	0	0	0	0	0	0	0	0	0	0	0	0	0	0	0	0	0	0	0	0	0	0	0	0	0	0	0	0	0	0	0	0	0	582	582	581	581	580	579	578	577	578	576	575	575	575	575	575	573	573	573	573	574	574	574	574	575	575	0	0	0	0	0	0	0	0	0	0	0	0	0	1272	1272	1272	1272	1272	1165	1161	1157	1157	1157	1157	1153	1150	1146	1146	1142	1142	1142	1142	1142	1146	1150	1150	1150	1150	1146	1146	1150	1146	1150	1150	1150	1153	1153	1153	1150	1150	1150	1153	1150	1153	1153	1153	1153	1153	1153	1153	1153	1150	1150	1150	1153	1153	1150	1150	1153	1153	1153	1153	1153	1153	1153	1157	1157	0	0	0	0	0	0	0	0	0	0	0	0	0	0	0	0	0	0	0	0	0	0	0	0	0	0	0	0	0	0	0	0	0	0	0	0	0	0	0	0	0
0	0	0	0	0	0	0	0	0	0	0	0	0	0	1732	1723	1732	1732	1732	1741	1741	1741	1741	1741	1741	1741	1759	1786	1795	1795	1814	1804	1804	1814	1824	1824	1833	1833	1833	1833	1833	1833	1904	1936	1936	1936	1925	1958	1958	1958	1969	1969	1969	2015	2015	2015	2015	2281	2297	2312	2312	2312	2327	2327	2343	2343	2376	2392	2409	2443	2443	2460	2460	2514	2532	2551	2570	2589	2589	2589	2589	2609	2649	2669	2690	2690	2711	2711	2733	2733	2733	2733	2733	2733	2733	2733	0	3864	3864	3864	3864	3864	3864	3864	3864	3864	3864	3864	3864	3864	3864	3821	3821	3779	3779	3779	3738	3738	3738	3738	3738	3738	3738	3738	3738	3738	3738	3738	3738	3738	3698	3738	3738	3738	3738	3738	3738	3738	3738	3779	3779	3821	3821	3821	3821	3864	3864	3864	3864	3864	3864	3864	3864	3864	3907	3907	3907	3864	3907	3907	3907	3952	3952	3998	3998	4045	4045	4045	4045	4192	4243	4243	4243	4296	4296	4296	4296	4296	4296	4350	4350	4350	4350	4350	4350	4406	4406	4406	4406	4406	4406	4406	4350	4350	4350	4296	4296	4243	4192	4142	4142	4142	4463	4521	4521	4521	4463	4463	4463	4463	4463	4521	4521	4521	4521	4521	4521	4521	4521	4521	4521	4521	4521	4521	4521	4521	4521	4521	4521	4521	4521	4521	4521	4521	3475	3475	3475	3475	3475	3475	3475	3475	3510	3510	3546	3546	3546	3546	3546	3546	3546	3583	3546	3583	3583	3583	3583	3583	3583	3583	3583	3583	3583	3583	3621	3621	3621	3621	3583	3583	3583	3583	3583	3546	3583	3583	3583	3583	3583	3583	3583	3583	3546	3546	3546	3546	3546	3546	3546	3546	3546	3546	3546	3546	4296	4243	4192	4243	4243	4243	4243	4243	4243	4243	4243	4243	4243	4243	4243	4243	4243	4243	4243	4243	4243	4243	4243	4243	4243	4243	4243	4243	4243	4243	4192	4192	4243	4192	4243	4192	4243	4243	4243	4243	4243	4243	4243	4243	4243	4243	4243	4243	4192	4243	4243	4243	4243	4243	4243	4296	4243	4243	4243	4243	4243	4243	4296	4296	4296	4296	4296	4296	4296	4296	4296	4296	4296	4296	4296	4243	4243	4192	4192	4142	4142	4142	4142	4142	4142	4142	4142	4142	4142	4142	4142	4142	4142	4142	4142	4142	4093	4093	3998	3998	3998	3952	3952	3998	3952	3952	3998	3998	3998	3998	3952	3998	3998	3998	4045	4093	4142	4192	4192	4192	4192	4142	4142	4093	4045	3998	3998	3998	3952	3952	3952	3952	3952	3952	3952	3952	3952	3952	3952	3907	3952	3952	3998	4045	4192	4296	4296	4350	4406	4463	4463	4521	4521	6124	6124	6124	6124	6124	6235	6235	6235	6349	6349	6349	0	0	0	0	0	0	0	0	0	0	0	0	0	0	0	0	0	0	0	0	0	0	0	0	0	0	0	0	0	0	0	0	0	0	0	0	0	0	0	582	582	581	581	580	578	578	576	576	575	573	573	573	573	573	573	573	573	573	574	574	574	574	575	575	0	0	0	0	0	0	0	0	0	0	0	0	0	1277	1272	1272	1272	1272	1165	1161	1157	1157	1157	1153	1153	1150	1146	1142	1142	1142	1142	1142	1142	1146	1150	1150	1150	1150	1146	1146	1146	1146	1150	1150	1150	1150	1150	1153	1150	1153	1153	1150	1150	1150	1153	1150	1153	1153	1153	1153	1153	1150	1153	1153	1153	1153	1150	1153	1153	1153	1153	1153	1153	1153	1157	1157	1157	0	0	0	0	0	0	0	0	0	0	0	0	0	0	0	0	0	0	0	0	0	0	0	0	0	0	0	0	0	0	0	0	0	0	0	0	0	0	0	0	0
0	0	0	0	0	0	0	0	0	0	0	0	0	0	1741	1732	1732	1741	1741	1741	1741	1750	1750	1750	1750	1833	1814	1814	1804	1814	1824	1824	1833	1833	1833	1843	1833	1833	1833	0	0	0	0	1947	1947	1947	1947	1958	1969	1980	1980	1980	1980	2281	2297	2297	2297	2281	2297	2297	2312	2312	2327	2327	2327	2343	2376	2376	2443	2443	2443	2460	2460	2460	2478	2532	2570	2589	2609	2609	2609	2629	2649	2649	2669	2690	2711	2711	2711	2733	2733	2754	2733	2733	2733	2733	0	3864	3864	3864	3864	3864	3864	3864	3864	3864	3864	3864	3864	3864	3864	3821	3821	3779	3779	3779	3779	3738	3738	3738	3738	3738	3738	3738	3738	3738	3738	3738	3738	3738	3698	3738	3738	3738	3738	3738	3738	3738	3738	3738	3779	3821	3821	3821	3821	3821	3864	3864	3907	3864	3907	3907	3864	3907	3907	3907	3907	3907	3907	3907	3952	3952	3952	3952	3952	3998	3998	4045	4045	4192	4243	4296	4243	4296	4296	4296	4296	4350	4296	4350	4350	4406	4406	4350	4406	4406	4406	4350	4406	4406	4406	4406	4350	4350	4350	4296	4296	4243	4192	4142	4142	4142	4142	4521	4521	4521	4463	4463	4463	4463	4463	4463	4521	4521	4521	4521	4521	4521	4521	4521	4521	4521	4521	4521	4521	4521	4521	4521	4521	4521	4521	4521	4581	4706	3510	3510	3475	3475	3475	3475	3475	3475	3510	3510	3510	3546	3546	3546	3546	3546	3546	3583	3546	3546	3583	3583	3583	3583	3583	3583	3583	3583	3583	3583	3583	3621	3583	3583	3583	3583	3583	3583	3583	3583	3583	3583	3583	3583	3583	3583	3583	3583	3546	3546	3546	3546	3546	3546	3546	3546	3546	3546	3546	3546	4243	4243	4192	4243	4243	4243	4243	4243	4243	4243	4243	4243	4243	4243	4243	4243	4192	4192	4243	4243	4243	4243	4243	4243	4243	4243	4243	4243	4243	4243	4243	4243	4243	4243	4243	4243	4243	4243	4243	4243	4243	4243	4243	4192	4192	4192	4192	4192	4192	4192	4243	4243	4243	4243	4243	4243	4243	4243	4243	4243	4243	4243	4296	4296	4296	4296	4296	4296	4296	4296	4296	4296	4296	4296	4296	4243	4243	4192	4192	4142	4142	4142	4142	4142	4142	4142	4142	4142	4142	4142	4142	4142	4142	4142	4142	4142	4093	4045	4045	3998	3998	3952	3952	3998	3998	3952	3998	3998	3952	3998	3952	3952	3998	3998	4045	4093	4142	4192	4192	4192	4192	4142	4142	4093	4045	4045	3998	3998	3952	3952	3952	3952	3952	3952	3952	3952	3952	3952	3952	3952	3952	3952	3952	3998	4142	4243	4296	4406	4463	4521	4521	4581	4643	4643	6124	6124	6124	6124	6124	6235	6349	6235	6235	6349	0	0	0	0	0	0	0	0	0	0	0	0	0	0	0	0	0	0	0	0	0	0	0	0	0	0	0	0	0	0	0	0	0	0	0	0	0	0	583	581	581	581	581	579	578	576	574	574	574	573	572	573	573	573	573	573	572	573	574	574	574	575	575	576	576	0	0	0	0	0	0	0	0	0	0	0	0	1272	1272	1272	1272	1272	1169	1165	1157	1157	1157	1153	1153	1153	1150	1142	1142	1142	1138	1142	1142	1146	1150	1150	1150	1150	1150	1146	1146	1146	1146	1146	1150	1150	1150	1153	1150	1150	1150	1150	1150	1150	1150	1150	1153	1150	1153	1153	1153	1153	1153	1153	1153	1153	1150	1150	1153	1153	1153	1153	1153	1153	1153	1153	1153	0	0	0	0	0	0	0	0	0	0	0	0	0	0	0	0	0	0	0	0	0	0	0	0	0	0	0	0	0	0	0	0	0	0	0	0	0	0	0	0	0
0	0	0	0	0	0	0	0	0	0	0	0	0	0	1741	1732	1741	1741	1741	1741	1750	1759	1759	1759	1750	1750	1750	1824	1824	1824	1843	1843	1843	1843	1843	1853	1843	1843	1833	0	0	0	0	1947	1947	1947	2266	1980	1980	1980	1980	1980	2281	2281	2297	2297	2297	2297	2297	2312	2312	2312	2327	2327	2327	2327	2359	2376	2426	2443	2443	2443	2443	2460	2478	2496	2570	2609	2609	2609	2609	2629	2629	2649	2669	2690	2711	2711	2733	2754	2754	2754	2754	2754	2733	2733	0	3864	3864	3864	3864	3864	3864	3864	3864	3864	3864	3821	3864	3864	3864	3821	3821	3779	3779	3779	3738	3738	3738	3738	3738	3738	3738	3738	3738	3738	3738	3738	3738	3738	3698	3698	3698	3698	3698	3738	3738	3738	3738	3738	3738	3779	3779	3821	3864	3864	3864	3864	3907	3864	3907	3907	3864	3907	3907	3907	3907	3907	3907	3952	3952	3952	3952	3952	3952	3998	3998	4045	4192	4192	4243	4243	4243	4243	4296	4296	4296	4350	4296	4350	4350	4350	4350	4350	4350	4406	4406	4350	4406	4406	4406	4406	4350	4350	4350	4296	4296	4243	4192	4142	4142	4142	4463	4521	4521	4463	4463	4463	4463	4463	4463	4463	4521	4521	4521	4521	4521	4521	4521	4521	4521	4521	4521	4521	4521	4521	4521	4521	4521	4521	4521	4521	4581	4643	4706	4706	3475	3475	3475	3475	3475	3475	3475	3510	3510	3510	3510	3546	3546	3546	3546	3546	3546	3583	3583	3583	3583	3583	3583	3583	3583	3583	3583	3583	3583	3583	3583	3583	3583	3583	3583	3583	3583	3583	3583	3583	3583	3583	3583	3583	3583	3583	3546	3546	3546	3546	3546	3546	3546	3546	3546	3546	3546	3546	4296	4243	4192	4243	4243	4243	4243	4243	4243	4243	4243	4243	4243	4243	4243	4243	4192	4192	4192	4243	4243	4243	4243	4243	4243	4243	4243	4243	4243	4243	4243	4243	4243	4243	4243	4243	4243	4243	4243	4243	4243	4243	4192	4192	4192	4192	4192	4192	4192	4192	4192	4243	4192	4192	4243	4243	4243	4243	4243	4243	4243	4296	4296	4296	4296	4296	4296	4296	4296	4296	4296	4296	4296	4296	4296	4243	4243	4192	4142	4142	4142	4142	4142	4142	4142	4142	4142	4142	4142	4142	4142	4142	4142	4142	4142	4142	4093	4093	4045	3998	3998	3952	3952	3998	3998	3952	3998	3998	3998	3998	3952	3952	3998	3998	4045	4093	4142	4142	4192	4192	4192	4142	4142	4093	4093	4045	3998	3998	3998	3952	3952	3952	3952	3952	3952	3952	3952	3952	3952	3952	3952	3952	3952	3998	4192	4296	4296	4406	4463	4463	4521	4581	4581	6124	6124	6124	6124	6124	6124	6235	6235	6235	6235	0	0	0	0	0	0	0	0	0	0	0	0	0	0	0	0	0	0	0	0	0	0	0	0	0	0	0	0	0	0	0	0	0	0	0	0	0	0	0	583	583	582	582	581	579	577	576	574	574	574	573	572	572	572	572	573	573	572	572	572	573	572	572	576	576	576	0	0	0	0	0	0	0	0	0	0	0	0	1268	1268	1272	1272	1272	1272	1165	1161	1157	1157	1153	1153	1153	1150	1142	1142	1138	1138	1142	1138	1142	1146	1150	1150	1150	1150	1146	1146	1146	1150	1146	1146	1146	1150	1150	1150	1150	1150	1150	1150	1150	1150	1150	1150	1150	1150	1153	1153	1153	1153	1153	1153	1153	1150	1150	1153	1153	1153	1153	1153	1153	1157	1157	1157	0	0	0	0	0	0	0	0	0	0	0	0	0	0	0	0	0	0	0	0	0	0	0	0	0	0	0	0	0	0	0	0	0	0	0	0	0	0	0	0	0
0	0	0	0	0	0	0	0	0	0	0	0	0	0	1750	1750	1750	1750	1750	1750	1750	1750	1750	1853	1853	1853	1833	1833	1833	1833	1873	1873	1873	1843	1843	1853	1843	1843	0	0	0	0	0	0	0	0	2266	2266	2266	2266	2266	2281	2281	2281	2297	2297	2297	2297	2297	2312	2312	2312	2327	2327	2327	2327	2359	2376	2426	2426	2443	2443	2443	2443	2460	2514	2570	2589	2589	2589	2609	2609	2649	2649	2669	2690	2690	2711	2733	2754	2754	2754	2754	2754	2754	2754	3864	3864	3864	3864	3864	3864	3864	3864	3864	3864	3864	3821	3821	3821	3821	3821	3779	3779	3779	3779	3738	3779	3779	3779	3738	3779	3738	3738	3738	3738	3738	3738	3738	3738	3698	3698	3738	3698	3698	3698	3698	3738	3738	3738	3779	3779	3821	3821	3821	3864	3864	3864	3864	3864	3864	3907	3864	3907	3907	3907	3907	3907	3907	3952	3952	3952	3952	3952	3952	3998	3998	4045	4192	4192	4243	4243	4243	4296	4296	4296	4296	4296	4296	4350	4350	4350	4350	4350	4350	4406	4406	4406	4350	4350	4350	4350	4350	4296	4296	4296	4243	4243	4192	4093	4142	4142	4463	4463	4521	4463	4463	4463	4463	4463	4463	4463	4521	4521	4521	4521	4521	4521	4521	4521	4521	4521	4521	4521	4521	4521	4521	4521	4521	4521	4521	4521	4581	4643	4706	3440	3440	3440	3475	3475	3475	3475	3475	3475	3475	3475	3475	3475	3510	3510	3546	3546	3546	3583	3583	3583	3583	3583	3583	3583	3583	3583	3583	3583	3583	3583	3583	3583	3583	3583	3583	3583	3583	3583	3583	3583	3583	3583	3583	3583	3583	3583	3583	3546	3546	3546	3546	3546	3546	3546	3546	3546	3546	3546	4243	4243	4192	4243	4192	4192	4192	4192	4243	4243	4243	4243	4243	4243	4243	4243	4192	4192	4243	4243	4243	4243	4243	4243	4243	4243	4243	4243	4243	4243	4243	4243	4192	4192	4243	4243	4243	4243	4192	4192	4192	4243	4192	4192	4192	4192	4192	4192	4192	4192	4192	4192	4192	4192	4243	4243	4243	4243	4243	4243	4243	4243	4296	4296	4296	4296	4296	4296	4296	4296	4296	4296	4296	4296	4296	4243	4243	4192	4192	4142	4142	4142	4142	4142	4142	4142	4192	4192	4142	4142	4142	4142	4142	4142	4142	4142	4093	4093	4093	3998	3998	3952	3952	3952	3998	3952	3952	3952	3952	3998	3952	3998	3998	3998	4045	4093	4142	4192	4192	4192	4192	4192	4142	4142	4093	4045	4045	3998	3998	3998	3952	3952	3952	3952	3952	3952	3952	3952	3952	3952	3952	3952	3998	3998	4192	4350	4350	4406	4463	4521	4581	4581	4581	4643	6235	6235	6235	6235	6235	6124	6124	6235	0	0	0	0	0	0	0	0	0	0	0	0	0	0	0	0	0	0	0	0	0	0	0	0	0	0	0	0	0	0	0	0	0	0	0	0	0	0	0	0	584	583	582	582	581	579	577	576	574	573	573	573	572	572	572	572	572	573	572	572	572	574	573	575	576	576	576	0	0	0	0	0	0	0	0	0	0	0	0	1268	1268	1268	1268	1268	1272	1157	1157	1157	1153	1153	1153	1153	1150	1142	1142	1142	1138	1142	1142	1146	1150	1150	1150	1150	1150	1146	1146	1146	1146	1146	1146	1150	1150	1150	1153	1150	1150	1150	1150	1150	1150	1150	1150	1150	1150	1153	1153	1153	1153	1153	1153	1153	1150	1150	1150	1153	1153	1153	1153	1153	1153	1157	1157	0	0	0	0	0	0	0	0	0	0	0	0	0	0	0	0	0	0	0	0	0	0	0	0	0	0	0	0	0	0	0	0	0	0	0	0	0	0	0	0	0
0	0	0	0	0	0	0	0	0	0	0	0	0	0	1750	1750	1750	1750	1759	1759	1759	1750	2297	1853	1853	1853	1843	1843	1843	1873	1873	1873	1873	0	0	0	0	0	0	0	0	0	0	0	0	0	2266	2266	2266	2281	2281	2281	2297	2297	2297	2297	2312	2312	2297	2312	2312	2312	2312	2327	2327	2327	2359	2376	2409	2409	2426	2426	2426	2443	2443	2460	2570	2589	2589	2609	2609	2609	2629	2649	2669	2669	2690	2690	2711	2754	2754	2754	2754	2754	2754	2754	3864	3864	3864	3864	3864	3864	3864	3864	3864	3864	3864	3821	3821	3821	3821	3821	3779	3779	3779	3779	3779	3779	3779	3779	3779	3779	3779	3779	3738	3738	3738	3738	3738	3738	3698	3698	3698	3698	3698	3698	3738	3738	3738	3738	3779	3779	3821	3821	3821	3864	3864	3864	3864	3864	3864	3907	3864	3864	3907	3907	3907	3907	3907	3952	3952	3998	3998	3998	3998	3998	3998	4045	4192	4192	4192	4243	4243	4296	4296	4296	4296	4296	4296	4350	4350	4350	4350	4350	4350	4350	4350	4350	4350	4350	4350	4406	4350	4350	4350	4296	4243	4192	4093	4045	4045	4045	4521	4521	4521	4521	4521	4521	4463	4463	4463	4463	4463	4521	4463	4521	4521	4521	4521	4521	4521	4521	4521	4521	4521	4521	4521	4521	4521	4521	4521	4521	4521	4581	4706	3440	3475	3440	3475	3475	3475	3475	3475	3475	3475	3475	3475	3510	3510	3510	3510	3546	3546	3583	3583	3583	3583	3583	3583	3583	3583	3583	3583	3583	3583	3583	3583	3583	3583	3583	3583	3583	3583	3583	3583	3583	3583	3583	3583	3583	3583	3583	3583	3546	3546	3546	3546	3546	3546	3546	3583	3546	3546	3546	3546	4243	4192	4243	4192	4192	4192	4243	4243	4243	4243	4243	4243	4243	4192	4192	4192	4192	4192	4243	4243	4243	4243	4243	4243	4243	4243	4243	4243	4243	4192	4192	4192	4192	4243	4192	4243	4192	4192	4192	4192	4192	4192	4192	4192	4192	4192	4192	4192	4192	4192	4192	4192	4192	4192	4192	4243	4243	4243	4243	4243	4296	4296	4296	4296	4296	4296	4296	4296	4296	4296	4296	4296	4296	4296	4243	4243	4243	4192	4142	4142	4142	4142	4142	4142	4142	4192	4192	4192	4142	4142	4142	4142	4142	4142	4142	4093	4093	4093	3998	3998	3952	3952	3998	3998	3952	3952	3952	3952	3998	3998	3952	3998	3998	4045	4093	4093	4142	4192	4192	4192	4192	4142	4142	4093	4045	4045	3998	3998	3998	3952	3952	3952	3952	3952	3952	3952	3952	3952	3952	3952	3952	3998	3998	4093	4350	4350	4406	4463	4521	4521	4581	4581	4581	4581	6235	6235	6235	6235	6235	6124	0	0	0	0	0	0	0	0	0	0	0	0	0	0	0	0	0	0	0	0	0	0	0	0	0	0	0	0	0	0	0	0	0	0	0	0	0	0	0	0	584	584	584	582	581	580	579	576	575	574	573	573	572	572	572	572	572	572	572	572	572	573	573	573	574	575	575	575	0	0	0	0	0	0	0	0	0	0	0	0	1272	1268	1268	1268	1268	1268	1268	1272	1153	1153	1153	1153	1150	1150	1146	1142	1142	1138	1142	1142	1142	1146	1146	1150	1150	1146	1146	1146	1146	1146	1146	1146	1150	1150	1150	1150	1150	1150	1150	1150	1150	1150	1150	1150	1150	1150	1153	1153	1153	1153	1153	1153	1153	1153	1150	1153	1153	1153	1153	1153	1153	1153	1157	1157	0	0	0	0	0	0	0	0	0	0	0	0	0	0	0	0	0	0	0	0	0	0	0	0	0	0	0	0	0	0	0	0	0	0	0	0	0	0	0	0	0
0	0	0	0	0	0	0	0	0	0	0	0	0	0	1750	1750	1750	1750	2281	2297	2297	2281	2297	1843	1843	1843	1843	1853	1863	1873	1873	1873	2281	2281	0	0	0	0	0	0	0	0	0	0	0	0	2281	2297	2281	2281	2297	2297	2297	2281	2297	2297	2297	2297	2297	2312	2312	2312	2327	2327	2327	2327	2359	2376	2392	2409	2409	2426	2443	2443	2443	2460	2496	2589	2609	2609	2609	2609	2629	2629	2649	2649	2669	2669	2690	2733	2733	2754	2754	2754	2754	3907	3907	3864	3864	3864	3864	3864	3864	3864	3864	3864	3864	3821	3821	3779	3779	3779	3779	3779	3738	3779	3779	3779	3779	3779	3738	3779	3779	3779	3738	3738	3738	3738	3779	3738	3698	3738	3738	3698	3698	3698	3738	3738	3738	3738	3779	3779	3821	3821	3821	3864	3864	3864	3864	3864	3864	3907	3864	3907	3864	3907	3907	3952	3952	3952	3952	3998	3998	3998	3998	3998	3998	4045	4093	4093	4243	4296	4296	4296	4296	4296	4296	4350	4350	4350	4350	4350	4350	4350	4350	4350	4350	4350	4350	4350	4350	4406	4350	4350	4296	4243	4243	4192	4142	4093	4093	4093	4463	4463	4521	4463	4463	4463	4463	4463	4463	4463	4463	4463	4463	4463	4521	4521	4521	4521	4521	4521	4521	4521	4521	4521	4521	4521	4521	4521	4521	4521	4521	4581	4581	4581	3475	3475	3475	3475	3475	3475	3475	3475	3475	3475	3475	3510	3510	3510	3510	3546	3546	3546	3583	3583	3583	3583	3583	3583	3583	3583	3583	3583	3583	3583	3583	3583	3583	3583	3583	3583	3583	3583	3583	3583	3583	3583	3583	3583	3583	3583	3583	3546	3546	3546	3546	3546	3546	3546	3546	3546	3546	3546	4243	4243	4243	4243	4192	4192	4192	4243	4243	4243	4243	4243	4243	4243	4192	4243	4192	4192	4243	4243	4243	4243	4243	4243	4243	4243	4243	4243	4243	4243	4243	4243	4192	4192	4243	4192	4192	4192	4192	4192	4192	4192	4192	4192	4192	4192	4192	4192	4192	4192	4192	4192	4192	4192	4192	4243	4243	4243	4296	4296	4296	4296	4296	4296	4296	4296	4296	4296	4296	4296	4296	4296	4296	4296	4296	4243	4243	4192	4142	4142	4142	4142	4142	4142	4142	4142	4192	4192	4142	4142	4142	4142	4142	4142	4142	4142	4142	4093	4093	4093	4045	3998	3952	3998	3998	3952	3998	3998	3998	3998	3998	3952	3998	3998	4045	4093	4093	4142	4192	4192	4192	4192	4142	4142	4093	4093	4045	3998	3998	3998	3998	3952	3952	3952	3952	3952	3952	3952	3952	3952	3952	3952	3998	3998	4045	4406	4350	4463	4463	4521	4521	4581	4581	4581	4581	6235	6235	6235	6235	6235	0	0	0	0	0	0	0	0	0	0	0	0	0	0	0	0	0	0	0	0	0	0	0	0	0	0	0	0	0	0	0	0	0	0	0	0	0	0	0	0	0	584	584	583	580	580	580	578	576	574	573	572	573	572	572	572	572	572	572	572	572	572	573	573	573	574	575	575	575	0	0	0	0	0	0	0	0	0	0	0	0	1268	1268	1268	1268	1268	1272	1268	1268	1157	1153	1153	1153	1150	1150	1146	1146	1142	1138	1138	1142	1142	1146	1146	1146	1146	1146	1146	1146	1146	1146	1146	1146	1146	1150	1150	1150	1150	1150	1150	1150	1150	1150	1150	1150	1150	1150	1153	1153	1153	1153	1153	1153	1153	1153	1153	1153	1153	1153	1153	1153	1153	1153	1157	1157	0	0	0	0	0	0	0	0	0	0	0	0	0	0	0	0	0	0	0	0	0	0	0	0	0	0	0	0	0	0	0	0	0	0	0	0	0	0	0	0	0
0	0	0	0	0	0	0	0	0	0	0	0	0	0	0	0	2281	2281	2281	2297	2297	2281	2281	2297	2312	1833	1833	1833	1863	2343	2297	2312	2281	2281	2297	2297	2297	0	0	0	0	0	0	0	2327	2312	2312	2312	2297	2297	2312	2297	2297	2297	2297	2297	2312	2312	2312	2312	2312	2327	2327	2327	2327	2327	2327	2392	2409	2409	2426	2426	2443	2443	2443	2460	2460	2570	2589	2609	2609	2609	2629	2629	2649	2669	2669	2669	2690	2733	2733	2733	2733	2733	2733	3907	3952	3907	3907	3864	3864	3864	3864	3864	3864	3864	3864	3821	3821	3779	3779	3779	3779	3738	3738	3779	3779	3779	3738	3738	3738	3738	3738	3738	3738	3738	3738	3779	3779	3779	3738	3738	3738	3698	3738	3738	3738	3738	3738	3738	3738	3779	3779	3779	3821	3821	3864	3864	3864	3864	3864	3864	3864	3864	3907	3907	3907	3952	3952	3952	3998	3998	3998	3998	3998	3998	3952	4045	4093	4093	4243	4243	4296	4296	4296	4296	4296	4296	4350	4350	4350	4350	4350	4350	4350	4350	4350	4350	4350	4350	4350	4406	4350	4350	4296	4243	4243	4192	4142	4045	4093	4142	4142	4463	4521	4521	4463	4463	4463	4463	4463	4463	4463	4463	4463	4463	4463	4521	4521	4521	4521	4521	4521	4521	4521	4521	4521	4521	4521	4521	4521	4521	4521	4521	4581	4581	3546	3546	3546	3510	3510	3475	3475	3475	3475	3475	3475	3475	3510	3510	3510	3510	3546	3546	3583	3583	3583	3583	3583	3583	3583	3583	3583	3583	3583	3583	3583	3583	3583	3583	3583	3583	3583	3583	3583	3583	3583	3583	3583	3583	3583	3583	3583	3546	3546	3546	3546	3546	3546	3583	3583	3583	3583	3583	4296	4243	4243	4243	4243	4243	4243	4243	4243	4243	4243	4243	4243	4192	4192	4192	4192	4243	4243	4243	4243	4243	4243	4243	4243	4243	4243	4243	4243	4243	4243	4243	4192	4192	4192	4192	4192	4192	4192	4192	4192	4192	4192	4192	4192	4192	4192	4192	4192	4192	4192	4192	4192	4192	4192	4243	4243	4243	4296	4296	4296	4296	4296	4296	4296	4296	4296	4296	4296	4296	4296	4296	4296	4296	4296	4243	4243	4192	4142	4142	4142	4142	4142	4142	4142	4142	4142	4192	4142	4142	4142	4142	4142	4142	4142	4142	4142	4093	4093	4093	4045	4045	3998	4045	4045	3998	3998	3998	3998	3998	3998	3952	3998	3998	4045	4093	4093	4142	4192	4192	4192	4192	4192	4142	4142	4093	4045	4045	4045	3998	3998	3998	3952	3952	3952	3952	3952	3952	3952	3952	3952	3952	3998	3998	4045	4463	4406	4463	4521	4521	4521	4521	4521	4521	4521	6235	6235	6235	6235	6235	0	0	0	0	0	0	0	0	0	0	0	0	0	0	0	0	0	0	0	0	0	0	0	0	0	0	0	0	0	0	0	0	0	0	0	0	0	0	0	0	0	584	584	583	583	579	579	578	575	573	573	572	572	572	572	572	572	572	572	573	572	572	573	573	573	573	573	573	575	0	0	0	0	0	0	0	0	0	0	0	1254	1263	1263	1263	1268	1268	1268	1268	1268	1157	1153	1153	1153	1150	1150	1146	1142	1142	1142	1142	1142	1142	1146	1146	1146	1146	1146	1146	1146	1146	1142	1142	1142	1146	1150	1150	1150	1150	1150	1150	1150	1146	1146	1146	1150	1150	1150	1153	1153	1153	1153	1153	1153	1153	1153	1153	1153	1153	1153	1153	1153	1153	1153	1157	1157	0	0	0	0	0	0	0	0	0	0	0	0	0	0	0	0	0	0	0	0	0	0	0	0	0	0	0	0	0	0	0	0	0	0	0	0	0	0	0	0	0
0	0	0	0	0	0	0	0	0	0	0	0	0	0	0	0	2281	2297	2312	2312	2312	2281	2281	2312	1795	1768	1768	1768	0	2343	2297	2312	2312	2281	2281	2281	2281	2281	0	0	0	2312	2312	2312	2312	2312	2312	2312	2297	2312	2312	2312	2297	2297	2297	2297	2312	2312	2312	2312	2312	2327	2327	2327	2327	2343	2359	2376	2392	2409	2426	2443	2443	2443	2460	2460	2496	2551	2589	2589	2609	2609	2629	2629	2649	2649	2669	2669	2690	2711	2733	2711	2711	2733	2733	3907	3907	3864	3864	3864	3864	3864	3864	3821	3864	3864	3864	3821	3821	3779	3821	3779	3738	3738	3738	3738	3738	3779	3738	3738	3738	3738	3779	3738	3738	3738	3738	3779	3779	3779	3738	3738	3738	3738	3738	3738	3738	3738	3738	3738	3779	3779	3779	3821	3821	3821	3864	3864	3864	3864	3864	3864	3864	3907	3907	3907	3952	3952	3952	3998	3998	3998	3998	3952	3952	3952	3907	3952	4045	4093	4192	4192	4296	4296	4296	4350	4350	4350	4350	4350	4350	4350	4350	4350	4350	4350	4350	4350	4350	4350	4350	4350	4296	4296	4296	4243	4243	4142	4093	4093	4142	4142	4463	4521	4521	4521	4521	4521	4463	4463	4463	4463	4463	4463	4463	4463	4463	4463	4521	4521	4521	4521	4521	4521	4521	4521	4521	4521	4521	4521	4521	4521	4521	4521	4581	4581	3546	3546	3546	3510	3510	3510	3475	3475	3475	3475	3475	3510	3510	3510	3510	3546	3546	3546	3583	3546	3583	3583	3583	3583	3583	3583	3583	3583	3583	3583	3583	3583	3583	3583	3583	3583	3583	3583	3583	3583	3583	3583	3583	3583	3583	3583	3583	3546	3546	3546	3546	3546	3546	3546	3583	3546	3546	3546	4296	4243	4243	4243	4243	4243	4243	4243	4243	4243	4243	4243	4243	4192	4192	4192	4192	4192	4243	4243	4243	4243	4243	4243	4243	4243	4243	4243	4243	4243	4243	4243	4192	4192	4192	4192	4192	4192	4192	4142	4142	4192	4192	4192	4192	4243	4243	4192	4192	4192	4192	4192	4192	4192	4192	4243	4243	4243	4296	4296	4243	4296	4296	4296	4296	4296	4296	4296	4296	4350	4350	4296	4296	4296	4296	4243	4243	4192	4142	4142	4142	4142	4142	4142	4142	4192	4192	4192	4142	4142	4142	4142	4142	4142	4142	4142	4142	4093	4093	4093	4045	4045	3998	3998	3998	3998	3998	3952	3998	3952	3952	3952	3998	3998	4045	4093	4093	4142	4192	4192	4192	4192	4192	4142	4142	4093	4093	4045	4045	4045	3998	3998	3952	3952	3952	3952	3952	3952	3952	3952	3952	3952	3998	3998	3998	4463	4406	4463	4463	4521	4521	4521	4521	4463	6235	6235	6235	6235	6235	6235	0	0	0	0	0	0	0	0	0	0	0	0	0	0	0	0	0	0	0	0	0	0	0	0	0	0	0	0	0	0	0	0	0	0	0	0	0	0	0	0	0	584	1301	1301	579	576	576	576	575	573	573	572	572	572	571	572	572	572	573	573	572	572	573	573	573	572	572	572	0	0	0	0	0	0	0	0	0	0	0	0	1254	1254	1254	1259	1263	1263	1263	1263	1157	1157	1153	1153	1153	1150	1150	1146	1142	1142	1138	1138	1142	1142	1146	1146	1146	1146	1146	1146	1146	1146	1142	1142	1142	1146	1150	1150	1150	1150	1150	1150	1150	1146	1150	1150	1150	1150	1150	1153	1153	1153	1153	1153	1153	1153	1153	1153	1153	1153	1153	1153	1153	1153	1153	1153	1153	0	0	0	0	0	0	0	0	0	0	0	0	0	0	0	0	0	0	0	0	0	0	0	0	0	0	0	0	0	0	0	0	0	0	0	0	0	0	0	0	0
0	0	0	0	0	0	0	0	0	0	0	0	0	0	0	0	2297	2312	2312	2312	2297	2266	2297	2312	2312	2327	2343	2327	2281	2343	2297	2297	2297	2281	2297	2297	2297	2297	2297	2297	2297	2312	2312	2312	2312	2312	2312	2312	2312	2312	2312	2312	2312	2297	2312	2312	2312	2312	2312	2312	2312	2327	2327	2327	2327	2343	2376	2392	2392	2409	2426	2443	2443	2443	2460	2478	2514	2532	2589	2589	2609	2609	2609	2629	2649	2669	2669	2690	2690	2711	2711	2711	2733	2733	2733	3907	3864	3864	3864	3864	3864	3821	3864	3821	3864	3821	3821	3821	3779	3779	3779	3779	3738	3738	3738	3738	3738	3738	3779	3779	3738	3779	3779	3779	3779	3738	3738	3738	3738	3738	3738	3738	3738	3738	3738	3738	3738	3738	3738	3738	3779	3779	3779	3779	3821	3821	3864	3864	3864	3864	3864	3864	3864	3907	3907	3907	3952	3952	3952	3998	3952	3952	3952	3952	3907	3907	3907	3952	3952	4093	4243	4243	4296	4296	4296	4350	4296	4350	4350	4350	4350	4350	4350	4350	4350	4350	4350	4350	4350	4350	4350	4350	4350	4296	4296	4243	4192	4142	4045	4093	4093	4093	4093	4521	4521	4521	4521	4521	4521	4521	4463	4463	4463	4463	4463	4463	4463	4521	4521	4521	4521	4521	4521	4521	4521	4521	4521	4521	4521	4521	4521	4521	4521	4521	4521	4521	3546	3546	3546	3510	3510	3475	3475	3475	3475	3475	3475	3510	3510	3510	3510	3510	3546	3546	3583	3546	3583	3583	3583	3583	3583	3583	3583	3621	3621	3583	3583	3583	3583	3583	3583	3583	3583	3583	3583	3583	3583	3583	3583	3583	3583	3583	3583	3546	3546	3546	3546	3546	3546	3546	3546	3546	3546	3546	4296	4243	4243	4243	4243	4243	4243	4243	4243	4243	4243	4243	4243	4192	4192	4243	4192	4192	4192	4243	4243	4243	4243	4243	4243	4243	4243	4243	4243	4243	4243	4243	4192	4192	4192	4192	4192	4192	4142	4142	4142	4192	4192	4192	4192	4192	4243	4192	4192	4192	4192	4192	4192	4192	4192	4243	4243	4243	4296	4296	4296	4296	4296	4296	4296	4296	4243	4296	4296	4350	4350	4350	4296	4296	4296	4243	4243	4192	4142	4142	4142	4142	4142	4142	4142	4192	4142	4142	4142	4142	4142	4142	4142	4142	4142	4142	4142	4093	4093	4093	4045	4045	3998	3998	3998	3998	3998	3998	3952	3952	3998	3952	3998	3998	4045	4093	4142	4142	4192	4243	4192	4192	4192	4192	4142	4093	4093	4045	4045	3998	3998	3998	3952	3952	3952	3952	3952	3952	3952	3952	3952	3952	3952	3952	3998	3998	4463	4463	4521	4521	4521	4521	4463	4463	6124	6124	6124	6235	6235	6235	0	0	0	0	0	0	0	0	0	0	0	0	0	0	0	0	0	0	0	0	0	0	0	0	0	0	0	0	0	0	0	0	0	0	0	0	0	0	0	0	0	0	1301	1296	579	579	576	576	575	573	573	572	572	572	571	571	571	571	572	572	572	572	573	573	573	574	574	574	0	0	0	0	0	0	0	0	0	0	0	0	1254	1254	1254	1259	1259	1259	1259	1263	1153	1153	1153	1153	1150	1150	1150	1146	1142	1142	1138	1138	1142	1142	1146	1146	1146	1146	1146	1146	1146	1146	1142	1146	1142	1146	1146	1146	1146	1146	1150	1146	1150	1146	1150	1150	1150	1150	1150	1153	1153	1153	1153	1153	1153	1153	1150	1150	1153	1153	1153	1150	1153	1153	1153	1153	1153	0	0	0	0	0	0	0	0	0	0	0	0	0	0	0	0	0	0	0	0	0	0	0	0	0	0	0	0	0	0	0	0	0	0	0	0	0	0	0	0	0
0	0	0	0	0	0	0	0	0	0	0	0	0	0	0	0	2312	2312	2312	2312	2312	2266	2312	2312	2312	2312	2327	2312	2281	2327	2297	2297	2281	2281	2281	2281	2281	2281	2281	2281	2297	2312	2312	2312	2312	2312	2312	2312	2312	2312	2312	2312	2312	2312	2312	2312	2312	2297	2312	2297	2312	2312	2312	2327	2327	2327	2359	2376	2376	2409	2409	2443	2443	2443	2460	2478	2532	2532	2589	2589	2609	2609	2629	2629	2669	2669	2690	2690	2711	2711	2711	2711	2733	2733	2733	2733	3864	3821	3864	3864	3864	3821	3821	3821	3821	3821	3821	3779	3779	3779	3779	3738	3738	3738	3738	3738	3738	3738	3738	3738	3738	3738	3738	3738	3738	3738	3738	3738	3738	3738	3738	3738	3738	3738	3738	3738	3738	3738	3779	3738	3738	3779	3779	3779	3821	3821	3864	3864	3864	3864	3864	3864	3864	3907	3907	3907	3907	3952	3952	3952	3952	3952	3952	3952	3952	3952	3952	3952	4045	4093	4243	4296	4296	4296	4296	4296	4296	4296	4350	4350	4350	4350	4350	4350	4350	4350	4350	4350	4350	4350	4350	4350	4350	4350	4296	4243	4192	4142	4093	4093	4093	4093	4093	4521	4521	4521	4521	4521	4521	4521	4521	4521	4521	4521	4521	4521	4521	4521	4521	4521	4521	4463	4521	4521	4521	4521	4521	4521	4521	4521	4521	4463	4521	4521	4521	4521	3510	3510	3510	3546	3510	3475	3475	3475	3475	3475	3475	3510	3510	3510	3510	3510	3546	3546	3546	3546	3583	3583	3583	3583	3621	3583	3583	3621	3583	3583	3583	3583	3583	3583	3583	3583	3583	3583	3583	3583	3583	3583	3583	3583	3583	3583	3583	3546	3583	3546	3546	3546	3546	3546	3546	3546	3510	3475	4296	4296	4296	4243	4243	4243	4243	4243	4243	4243	4243	4243	4243	4192	4192	4243	4192	4192	4192	4243	4243	4243	4192	4192	4243	4243	4243	4243	4243	4192	4192	4243	4243	4192	4192	4192	4192	4192	4142	4142	4142	4192	4192	4192	4192	4192	4192	4192	4192	4192	4192	4192	4192	4192	4192	4243	4243	4243	4296	4296	4243	4296	4296	4296	4243	4243	4243	4243	4296	4296	4296	4296	4296	4296	4296	4243	4243	4192	4142	4142	4142	4142	4142	4142	4142	4142	4142	4142	4142	4142	4142	4142	4142	4142	4142	4142	4093	4093	4093	4093	4045	4045	3998	3998	3998	3952	3998	3952	3952	3952	3952	3952	3998	3998	4045	4093	4142	4142	4192	4192	4192	4192	4192	4192	4192	4142	4093	4093	4045	4045	3998	3998	3998	3952	3952	3952	3952	3952	3952	3952	3952	3952	3952	3998	3998	4521	4463	4521	4521	4521	4521	4521	4521	4463	4463	6124	6124	6124	6124	6124	0	0	0	0	0	0	0	0	0	0	0	0	0	0	0	0	0	0	0	0	0	0	0	0	0	0	0	0	0	0	0	0	0	0	0	0	0	0	0	0	0	0	1282	580	579	579	576	576	575	575	572	572	572	572	571	571	571	571	571	572	572	572	573	573	573	574	575	575	0	0	0	0	0	0	0	0	0	0	0	0	1254	1254	1254	1254	1259	1259	1263	1263	1153	1153	1153	1153	1150	1150	1150	1146	1142	1142	1138	1138	1142	1142	1142	1146	1146	1146	1146	1146	1146	1146	1146	1146	1146	1146	1146	1146	1146	1146	1146	1146	1150	1146	1150	1150	1150	1150	1150	1153	1150	1153	1153	1153	1153	1153	1153	1153	1153	1153	1153	1153	1153	1153	1153	1153	1153	0	0	0	0	0	0	0	0	0	0	0	0	0	0	0	0	0	0	0	0	0	0	0	0	0	0	0	0	0	0	0	0	0	0	0	0	0	0	0	0	0
0	0	0	0	0	0	0	0	0	0	0	0	0	0	0	0	2312	2312	2312	2312	2297	2266	2297	2312	2312	2312	2312	2297	2281	2312	2297	2297	2297	2297	2297	2281	2281	2281	2281	2281	2297	2297	2312	2312	2312	2312	2312	2312	2312	2312	2312	2312	2312	2312	2312	2312	2312	2297	2297	2297	2297	2312	2312	2327	2327	2343	2359	2376	2376	2392	2409	2426	2443	2460	2478	2496	2514	2532	2589	2589	2609	2609	2629	2629	2669	2669	2690	2690	2711	2733	2711	2711	2733	2733	2733	2733	3907	3864	3864	3864	3821	3779	3779	3779	3779	3821	3779	3821	3821	3779	3779	3738	3738	3738	3738	3738	3738	3738	3738	3738	3738	3738	3738	3738	3738	3738	3738	3738	3738	3738	3738	3738	3738	3738	3738	3738	3738	3738	3779	3779	3779	3779	3779	3779	3821	3821	3864	3864	3864	3864	3864	3864	3864	3907	3907	3907	3907	3907	3907	3907	3907	3952	3952	3952	3952	3952	3952	3998	4045	4142	4243	4296	4296	4296	4350	4350	4296	4296	4350	4350	4350	4350	4350	4350	4350	4350	4350	4350	4350	4350	4350	4350	4350	4350	4296	4296	4243	4192	4093	4093	4093	4093	4521	4521	4521	4521	4521	4521	4521	4521	4521	4521	4521	4463	4521	4521	4521	4521	4521	4521	4521	4521	4521	4521	4521	4521	4521	4521	4521	4521	4521	4521	4521	4521	4521	4521	3546	3546	3546	3546	3510	3510	3475	3475	3475	3510	3510	3510	3510	3546	3546	3546	3546	3546	3546	3546	3583	3583	3583	3583	3583	3583	3583	3583	3583	3583	3583	3583	3583	3583	3583	3583	3583	3583	3583	3583	3583	3583	3583	3583	3546	3583	3546	3546	3546	3546	3546	3546	3546	3546	3546	3546	3510	3510	4296	4243	4243	4243	4243	4243	4243	4243	4243	4243	4243	4243	4243	4192	4192	4243	4192	4192	4192	4192	4192	4243	4192	4192	4192	4192	4243	4243	4243	4243	4243	4243	4243	4243	4192	4192	4192	4192	4192	4142	4192	4192	4142	4192	4192	4192	4192	4192	4192	4192	4192	4192	4192	4192	4192	4243	4243	4243	4296	4296	4296	4296	4296	4296	4296	4296	4243	4296	4296	4296	4296	4296	4296	4296	4296	4243	4243	4192	4142	4142	4142	4142	4142	4142	4142	4142	4142	4142	4142	4142	4142	4142	4142	4142	4142	4142	4093	4093	4093	4045	4045	3998	3998	3998	3998	3998	3998	3952	3952	3952	3952	3952	3998	3998	4045	4093	4142	4142	4142	4192	4192	4192	4192	4192	4142	4093	4093	4093	4045	4045	4045	3998	3998	3952	3952	3952	3952	3952	3952	3952	3952	3952	3952	3998	3998	3998	4463	4521	4521	4521	4521	4521	4463	4406	6124	6124	6124	6124	6124	6124	0	0	0	0	0	0	0	0	0	0	0	0	0	0	0	0	0	0	0	0	0	0	0	0	0	0	0	0	0	0	0	0	0	0	0	0	0	0	0	0	0	1291	1287	579	578	577	576	575	575	573	572	572	572	572	571	571	570	570	571	571	572	572	572	572	574	574	575	575	0	0	0	0	0	0	0	0	0	0	0	1254	1254	1254	1254	1259	1259	1259	1259	1263	1263	1153	1153	1153	1150	1150	1150	1146	1142	1142	1138	1142	1142	1142	1142	1142	1142	1142	1146	1146	1146	1146	1146	1146	1146	1146	1146	1146	1146	1146	1146	1146	1146	1146	1146	1150	1150	1150	1150	1153	1150	1150	1153	1153	1153	1150	1150	1153	1153	1153	1153	1153	1153	1153	1153	1153	1153	0	0	0	0	0	0	0	0	0	0	0	0	0	0	0	0	0	0	0	0	0	0	0	0	0	0	0	0	0	0	0	0	0	0	0	0	0	0	0	0	0
0	0	0	0	0	0	0	0	0	0	0	0	0	0	0	0	2312	2312	2312	2312	2297	2281	2297	2312	2312	2297	2297	2297	2297	2297	2297	2297	2297	2281	2281	2281	2266	2281	2281	2297	2297	2297	2297	2297	2312	2312	2312	2312	2312	2312	2312	2312	2312	2312	2312	2312	2312	2297	2312	2297	2312	2312	2327	2327	2327	2343	2359	2376	2376	2376	2409	2426	2460	2478	2478	2478	2532	2532	2570	2589	2609	2629	2629	2649	2669	2690	2690	2711	2711	2733	2733	2733	2733	2754	2733	2733	2754	2754	3821	3821	3779	3779	3821	3738	3779	3779	3779	3779	3779	3779	3738	3738	3738	3738	3738	3738	3738	3738	3738	3738	3738	3698	3698	3698	3698	3698	3698	3738	3738	3738	3738	3738	3738	3738	3738	3738	3738	3738	3738	3738	3779	3779	3779	3779	3821	3864	3821	3864	3864	3864	3864	3864	3864	3907	3907	3907	3907	3907	3907	3907	3907	3952	3952	3952	3952	3952	3952	4045	4093	4192	4296	4296	4296	4296	4296	4350	4296	4296	4296	4296	4350	4296	4296	4350	4296	4350	4350	4350	4350	4350	4350	4350	4350	4350	4296	4296	4243	4192	4142	4142	4093	4093	4521	4521	4521	4521	4521	4521	4521	4521	4521	4521	4521	4521	4521	4521	4521	4521	4521	4521	4521	4521	4521	4521	4521	4521	4521	4521	4521	4521	4521	4521	4521	4463	4521	4521	3546	3546	3546	3546	3510	3475	3475	3475	3475	3510	3510	3510	3510	3510	3546	3546	3546	3546	3546	3583	3583	3583	3583	3583	3583	3583	3583	3583	3583	3621	3583	3583	3583	3583	3583	3583	3583	3583	3583	3583	3583	3583	3583	3583	3583	3583	3546	3546	3546	3546	3546	3546	3546	3546	3546	3546	3510	3510	4296	4296	4296	4296	4243	4243	4243	4243	4243	4243	4243	4243	4243	4192	4192	4192	4192	4192	4192	4192	4192	4192	4192	4192	4192	4243	4243	4243	4243	4243	4243	4243	4243	4243	4243	4243	4243	4243	4192	4192	4192	4192	4192	4192	4192	4192	4192	4192	4192	4192	4192	4192	4192	4192	4192	4243	4243	4243	4296	4296	4296	4296	4296	4296	4296	4243	4243	4243	4296	4296	4296	4296	4296	4296	4296	4243	4243	4192	4192	4142	4142	4142	4142	4142	4142	4142	4142	4142	4142	4142	4142	4142	4142	4142	4142	4093	4093	4093	4093	4045	3998	4045	3998	3998	3998	3998	3998	3998	3998	3998	3998	3998	4045	4045	4093	4093	4142	4142	4142	4192	4192	4192	4142	4192	4142	4142	4093	4093	4045	4045	3998	3998	3998	3952	3952	3952	3952	3952	3952	3952	3952	3952	3952	3952	3952	3952	4521	4521	4521	4521	4521	4521	4463	6235	6124	6124	6124	6124	6124	6124	0	0	0	0	0	0	0	0	0	0	0	0	0	0	0	0	0	0	0	0	0	0	0	0	0	0	0	0	0	0	0	0	0	0	0	0	0	0	0	0	0	1287	1282	578	577	576	575	575	574	575	573	572	572	572	572	571	570	570	570	570	571	571	572	574	574	574	575	0	0	0	0	0	0	0	0	0	0	1254	1259	1259	1254	1254	1254	1259	1259	1259	1259	1259	1263	1153	1153	1153	1153	1150	1150	1146	1142	1142	1138	1142	1142	1142	1142	1142	1142	1142	1146	1146	1146	1146	1146	1146	1146	1146	1146	1146	1146	1146	1146	1146	1150	1146	1146	1146	1146	1150	1150	1150	1150	1150	1150	1150	1150	1150	1150	1150	1153	1153	1153	1153	1153	1153	1153	1153	1153	0	0	0	0	0	0	0	0	0	0	0	0	0	0	0	0	0	0	0	0	0	0	0	0	0	0	0	0	0	0	0	0	0	0	0	0	0	0	0	0	0
0	0	0	0	0	0	0	0	0	0	0	0	0	0	0	0	2312	2312	2312	2312	2297	2297	2297	2312	2312	2297	2297	2297	2297	2297	2297	2297	2297	2281	2281	2281	2266	2281	2281	2297	2297	2312	2312	2312	2312	2312	2312	2312	2312	2312	2312	2312	2312	2312	2312	2312	2312	2297	2312	2297	2297	2312	2312	2327	2327	2343	2343	2376	2376	2376	2409	2443	2460	2478	2478	2496	2532	2532	2570	2589	2609	2609	2629	2649	2669	2690	2711	2711	2733	2733	2733	2733	2733	2754	2754	2733	2754	2754	3864	3864	3779	3738	3779	3738	3779	3779	3779	3779	3779	3738	3738	3738	3738	3738	3738	3738	3738	3738	3738	3738	3738	3738	3738	3698	3698	3738	3698	3738	3698	3738	3738	3738	3738	3738	3738	3738	3738	3738	3738	3738	3738	3779	3779	3779	3821	3864	3821	3821	3864	3864	3864	3864	3907	3907	3907	3907	3907	3907	3907	3907	3907	3907	3952	3907	3907	3952	3952	3998	4045	4192	4296	4296	4296	4296	4296	4350	4296	4296	4296	4296	4350	4296	4296	4350	4296	4350	4350	4350	4350	4350	4350	4350	4350	4350	4296	4243	4243	4192	4142	4142	4093	4093	4463	4463	4521	4521	4521	4521	4521	4521	4521	4521	4521	4521	4521	4521	4521	4521	4521	4521	4521	4521	4521	4521	4521	4521	4521	4521	4521	4521	4521	4521	4521	4463	4521	4521	4521	3546	3546	3546	3510	3510	3475	3475	3475	3510	3510	3510	3510	3546	3546	3510	3546	3546	3546	3583	3583	3583	3583	3621	3621	3583	3583	3546	3583	3621	3583	3583	3583	3583	3583	3583	3583	3583	3583	3583	3583	3583	3583	3583	3583	3583	3546	3546	3546	3546	3546	3546	3546	3546	3546	3510	3510	3510	3510	4296	4296	4243	4243	4243	4243	4243	4243	4243	4243	4243	4243	4192	4192	4192	4192	4192	4192	4192	4192	4243	4243	4192	4192	4243	4243	4243	4243	4243	4243	4243	4243	4243	4243	4243	4243	4243	4243	4243	4243	4243	4192	4192	4192	4192	4192	4192	4192	4192	4192	4192	4192	4192	4192	4243	4243	4296	4296	4296	4296	4296	4296	4296	4296	4243	4243	4296	4296	4296	4296	4296	4296	4296	4296	4243	4243	4192	4192	4142	4142	4142	4142	4142	4142	4142	4142	4142	4142	4142	4142	4142	4142	4142	4142	4093	4093	4093	4093	4045	4045	3998	3998	3998	3998	3998	3998	3998	3998	3998	3998	3998	4045	4045	4093	4142	4142	4142	4142	4192	4192	4142	4142	4142	4142	4142	4093	4093	4045	4045	3998	3998	3952	3952	3952	3952	3952	3952	3952	3952	3952	3952	3952	3952	3952	3952	3952	4463	4463	4463	4463	4463	4463	6124	6124	6124	6124	6124	6124	6124	0	0	0	0	0	0	0	0	0	0	0	0	0	0	0	0	0	0	0	0	0	0	0	0	0	0	0	0	0	0	0	0	0	0	0	0	0	0	0	0	0	1287	576	576	576	575	574	574	573	574	572	572	572	571	571	571	570	570	570	570	571	572	573	575	575	0	0	0	0	0	0	0	0	0	0	0	0	1254	1259	1259	1254	1254	1254	1259	1254	1254	1254	1259	1259	1150	1153	1157	1153	1150	1150	1146	1142	1142	1138	1142	1142	1142	1142	1142	1142	1142	1146	1146	1146	1146	1146	1146	1146	1146	1146	1146	1150	1146	1150	1146	1150	1146	1146	1146	1146	1146	1146	1150	1150	1150	1150	1150	1150	1150	1150	1150	1153	1153	1153	1153	1153	1153	1153	1153	1153	0	0	0	0	0	0	0	0	0	0	0	0	0	0	0	0	0	0	0	0	0	0	0	0	0	0	0	0	0	0	0	0	0	0	0	0	0	0	0	0	0
0	0	0	0	0	0	0	0	0	0	0	0	0	0	0	0	2297	2312	2297	2297	2297	2297	2297	2297	2312	2297	2297	2297	2297	2297	2297	2297	2297	2297	2297	2297	2297	2297	2281	2297	2297	2312	2312	2312	2312	2312	2312	2312	2312	2312	2312	2297	2312	2312	2312	2312	2312	2297	2297	2297	2312	2312	2312	2327	2327	2343	2343	2376	2376	2376	2409	2443	2443	2478	2478	2478	2514	2532	2570	2570	2609	2609	2629	2649	2669	2690	2690	2711	2711	2733	2733	2754	2754	2754	2754	2754	2754	2754	3821	3864	3779	3738	3779	3738	3779	3779	3779	3779	3779	3779	3779	3738	3738	3738	3738	3738	3738	3738	3738	3738	3738	3738	3738	3738	3738	3738	3698	3698	3698	3738	3738	3738	3738	3738	3738	3738	3738	3738	3738	3738	3738	3779	3738	3779	3779	3821	3821	3864	3821	3864	3864	3864	3907	3907	3907	3907	3907	3907	3907	3907	3907	3907	3952	3907	3907	3998	3998	4045	4093	4243	4296	4350	4350	4296	4350	4350	4350	4296	4296	4350	4296	4350	4350	4350	4296	4350	4350	4350	4350	4350	4350	4350	4350	4296	4296	4243	4192	4142	4142	4093	4093	4093	4463	4521	4521	4521	4521	4521	4521	4521	4521	4521	4521	4521	4521	4521	4521	4521	4521	4521	4521	4521	4521	4521	4521	4521	4521	4521	4521	4521	4521	4521	4463	4463	4463	4463	4463	3546	3546	3546	3510	3510	3510	3475	3510	3510	3510	3475	3475	3510	3510	3510	3546	3583	3583	3583	3583	3583	3583	3621	3621	3583	3583	3583	3583	3583	3621	3583	3621	3621	3621	3583	3583	3583	3583	3583	3583	3583	3583	3583	3583	3583	3583	3583	3546	3546	3546	3546	3546	3546	3546	3510	3510	3510	3510	4296	4243	4243	4243	4243	4243	4243	4192	4192	4243	4243	4243	4243	4192	4243	4243	4243	4192	4192	4192	4243	4243	4192	4192	4243	4243	4243	4243	4243	4243	4243	4243	4243	4192	4243	4243	4243	4243	4243	4243	4243	4192	4192	4192	4192	4192	4192	4192	4192	4192	4192	4192	4192	4192	4243	4243	4243	4243	4296	4296	4296	4296	4296	4296	4296	4243	4296	4296	4296	4296	4296	4296	4296	4296	4296	4243	4243	4192	4192	4142	4142	4142	4142	4142	4142	4142	4142	4142	4142	4192	4142	4192	4142	4142	4142	4142	4093	4093	4045	4045	3998	3998	3998	3998	3998	3998	3998	3952	3998	3998	3998	4045	4045	4093	4142	4142	4142	4142	4142	4142	4142	4142	4142	4142	4142	4093	4093	4045	4045	4045	3998	3998	3952	3952	3952	3952	3952	3907	3907	3907	3907	3952	3952	3952	3998	4142	4463	4463	4463	4463	4463	4463	4406	6124	6018	6018	6018	6018	6124	0	0	0	0	0	0	0	0	0	0	0	0	0	0	0	0	0	0	0	0	0	0	0	0	0	0	0	0	0	0	0	0	0	0	0	0	0	0	0	0	0	1287	576	576	576	575	574	572	572	572	572	572	571	571	571	570	570	570	570	571	571	572	574	576	576	0	0	0	0	0	0	0	0	0	0	0	0	1254	1259	1259	1254	1254	1254	1259	1254	1254	1254	1259	1259	1153	1153	1153	1150	1150	1150	1146	1142	1142	1142	1142	1142	1142	1142	1142	1142	1142	1142	1146	1146	1146	1146	1146	1146	1146	1146	1146	1150	1146	1146	1146	1146	1146	1146	1146	1146	1150	1150	1150	1150	1150	1150	1150	1150	1150	1150	1150	1153	1153	1150	1153	1153	1153	1153	1153	1153	0	0	0	0	0	0	0	0	0	0	0	0	0	0	0	0	0	0	0	0	0	0	0	0	0	0	0	0	0	0	0	0	0	0	0	0	0	0	0	0	0
0	0	0	0	0	0	0	0	0	0	0	0	0	0	0	0	2312	2312	2297	2297	2297	2297	2297	2297	2297	2297	2297	2281	2297	2297	2297	2297	2297	2297	2297	2297	2297	2297	2281	2297	2297	2312	2312	2312	2312	2312	2312	2312	2312	2281	2297	2297	2312	2297	2297	2297	2312	2297	2297	2297	2312	2312	2312	2312	2327	2327	2327	2359	2376	2376	2409	2443	2460	2460	2478	2496	2514	2532	2551	2570	2609	2609	2609	2649	2649	2690	2711	2733	2754	2754	2754	2754	2754	2754	2754	2754	2754	2754	3821	3864	3779	3779	3779	3821	3779	3779	3779	3779	3779	3738	3738	3738	3738	3738	3738	3738	3738	3738	3738	3738	3738	3738	3738	3698	3698	3698	3698	3698	3698	3698	3698	3738	3738	3738	3738	3738	3738	3738	3738	3738	3738	3738	3738	3779	3779	3821	3821	3864	3821	3864	3864	3864	3864	3907	3907	3907	3907	3907	3907	3907	3907	3907	3952	3907	3907	3998	4045	4093	4192	4296	4350	4350	4350	4350	4350	4350	4350	4350	4350	4296	4296	4296	4296	4350	4296	4350	4350	4350	4350	4350	4350	4350	4350	4296	4243	4243	4192	4142	4142	4093	4093	4093	4463	4463	4463	4521	4521	4521	4521	4521	4521	4521	4521	4521	4521	4521	4521	4521	4521	4521	4521	4521	4521	4521	4521	4521	4521	4521	4521	4521	4521	4521	4463	4463	4463	4463	4463	3510	3510	3546	3510	3475	3510	3475	3475	3475	3475	3475	3475	3510	3510	3510	3546	3583	3583	3583	3583	3583	3583	3621	3621	3583	3583	3546	3546	4192	3583	3583	3583	3621	3621	3583	3583	3583	3583	3583	3583	3583	3583	3583	3583	3583	3583	3546	3546	3546	3546	3546	3546	3510	3510	3510	3475	3475	4350	4296	4243	4243	4243	4243	4243	4243	4192	4192	4243	4243	4243	4243	4243	4243	4243	4243	4192	4192	4192	4243	4243	4192	4192	4243	4243	4243	4243	4192	4192	4243	4243	4192	4192	4243	4243	4243	4243	4243	4243	4243	4243	4192	4192	4192	4192	4192	4192	4192	4192	4192	4192	4192	4192	4243	4243	4243	4296	4296	4296	4296	4296	4296	4296	4296	4243	4296	4296	4296	4296	4296	4296	4296	4296	4296	4243	4243	4192	4192	4142	4142	4142	4142	4142	4142	4142	4142	4142	4142	4142	4142	4192	4142	4142	4142	4093	4093	4093	4045	4045	3998	3998	3998	3998	3998	3998	3998	3952	3998	3998	3998	4045	4093	4093	4093	4142	4142	4192	4192	4142	4142	4142	4142	4142	4142	4093	4093	4045	4045	4045	3998	3998	3952	3952	3952	3952	3952	3952	3952	3952	3952	3952	3952	3952	3952	4463	4463	4463	4463	4463	4463	4463	6235	6124	6018	6018	6018	6018	0	0	0	0	0	0	0	0	0	0	0	0	0	0	0	0	0	0	0	0	0	0	0	0	0	0	0	0	0	0	0	0	0	0	0	0	0	0	0	0	0	1291	575	575	573	573	573	572	571	571	572	571	571	570	570	570	569	569	569	570	571	571	572	572	576	576	0	0	0	0	0	0	0	0	0	0	1259	1259	1254	1259	1259	1254	1254	1254	1259	1259	1254	1254	1259	1161	1150	1150	1157	1153	1150	1150	1146	1142	1142	1142	1142	1142	1142	1146	1142	1142	1142	1146	1146	1146	1146	1146	1146	1146	1146	1146	1146	1146	1146	1146	1146	1146	1146	1146	1146	1146	1150	1150	1150	1150	1150	1150	1150	1150	1150	1150	1150	1153	1153	1153	1153	1153	1153	1153	1153	1153	0	0	0	0	0	0	0	0	0	0	0	0	0	0	0	0	0	0	0	0	0	0	0	0	0	0	0	0	0	0	0	0	0	0	0	0	0	0	0	0	0
0	0	0	0	0	0	0	0	0	0	0	0	0	0	0	0	2312	2312	2297	2297	2297	2297	2297	2297	2297	2297	2297	2281	2297	2297	2297	2297	2297	2297	2297	2297	2297	2297	2281	2297	2297	2312	2312	2312	2312	2312	2312	2312	2297	2281	2297	2281	2297	2281	2297	2297	2297	2297	2297	2297	2297	2312	2312	2312	2327	2327	2343	2343	2359	2376	2376	2426	2426	2460	2460	2478	2514	2532	2551	2570	2570	2609	2609	2629	2669	2690	2733	2754	2754	2777	2754	2754	2754	2754	2754	2754	2754	3821	3864	3864	3779	3779	3779	3821	3779	3779	3779	3779	3779	3738	3738	3738	3738	3738	3738	3738	3738	3738	3738	3738	3738	3738	3698	3698	3698	3698	3698	3698	3698	3698	3698	3738	3738	3738	3738	3738	3738	3738	3738	3738	3738	3779	3738	3779	3779	3779	3779	3821	3821	3864	3864	3864	3907	3907	3907	3907	3907	3907	3907	3907	3907	3952	3952	3952	3952	3998	4045	4142	4142	4243	4350	4350	4350	4350	4296	4296	4296	4296	4296	4296	4296	4350	4350	4350	4350	4350	4350	4350	4350	4350	4296	4296	4296	4296	4243	4243	4192	4142	4142	4093	4093	4093	4406	4463	4463	4521	4463	4521	4521	4521	4521	4521	4521	4521	4521	4521	4521	4521	4521	4521	4521	4521	4521	4521	4521	4521	4521	4521	4521	4521	4521	4521	4463	4463	4463	4463	4463	3510	3510	3510	3510	3475	3510	3510	3510	3510	3475	3475	3475	3510	3546	3546	3546	3583	3583	3583	3583	3583	3583	3621	3583	3583	3583	3546	4192	4192	4192	3583	3583	3621	3621	3583	3583	3583	3583	3583	3583	3583	3583	3583	3583	3583	3546	3546	3546	3546	3546	3546	3546	3546	3510	3510	3475	3475	4350	4296	4243	4243	4243	4243	4243	4243	4192	4192	4243	4192	4243	4243	4243	4243	4243	4192	4192	4192	4192	4192	4192	4192	4192	4243	4243	4243	4192	4192	4243	4243	4192	4192	4192	4243	4243	4243	4243	4243	4243	4243	4192	4192	4192	4192	4192	4192	4192	4243	4192	4192	4192	4192	4192	4243	4243	4296	4296	4296	4296	4296	4296	4296	4296	4296	4296	4296	4296	4296	4296	4296	4296	4296	4296	4243	4243	4243	4192	4192	4142	4142	4142	4142	4142	4142	4142	4142	4142	4142	4142	4142	4142	4142	4142	4142	4093	4093	4093	4045	4045	3998	3998	3998	3998	3998	3998	3998	3998	3998	4045	4045	4093	4093	4093	4142	4142	4142	4142	4142	4142	4142	4142	4142	4142	4142	4142	4093	4045	4045	4045	3998	3998	3952	3952	3952	3952	3952	3952	3952	3952	3952	3952	3952	3952	3998	4142	4463	4463	4463	4463	4463	4463	4463	6124	6018	6018	6018	0	0	0	0	0	0	0	0	0	0	0	0	0	0	0	0	0	0	0	0	0	0	0	0	0	0	0	0	0	0	0	0	0	0	0	0	0	0	0	0	0	0	1291	575	573	572	572	572	571	570	570	570	570	570	569	569	569	569	569	569	569	571	571	572	572	0	0	0	0	0	0	0	0	0	0	0	0	1254	1254	1254	1259	1259	1254	1254	1254	1254	1259	1259	1259	1259	1259	1150	1157	1157	1153	1153	1150	1146	1142	1142	1142	1142	1142	1142	1142	1142	1142	1142	1142	1142	1142	1142	1142	1146	1146	1146	1146	1146	1146	1146	1146	1146	1146	1146	1146	1146	1146	1150	1150	1150	1150	1150	1150	1150	1150	1150	1150	1150	1153	1153	1153	1153	1153	1153	1153	1153	1153	0	0	0	0	0	0	0	0	0	0	0	0	0	0	0	0	0	0	0	0	0	0	0	0	0	0	0	0	0	0	0	0	0	0	0	0	0	0	0	0	0
0	0	0	0	0	0	0	0	0	0	0	0	0	0	0	0	2297	2297	2297	2281	2281	2281	2281	2281	2297	2281	2297	2281	2297	2297	2297	2297	2297	2297	2297	2297	2297	2297	2297	2297	2297	2312	2312	2312	2312	2312	2312	2312	2312	2297	2297	2312	2312	2297	2297	2297	2297	2297	2297	2297	2312	2312	2312	2312	2327	2327	2327	2343	2359	2376	2392	2426	2443	2460	2460	2478	2478	2532	2551	2551	2589	2609	2609	2609	2629	2690	2733	2754	2754	2754	2754	2777	2777	2754	2754	2754	2754	3821	3821	3821	3779	3779	3779	3779	3779	3779	3779	3779	3779	3779	3779	3779	3738	3738	3738	3738	3738	3738	3738	3738	3738	3738	3698	3698	3698	3698	3698	3698	3698	3698	3698	3698	3738	3738	3738	3738	3738	3738	3738	3738	3779	3779	3779	3779	3779	3779	3779	3821	3821	3864	3864	3864	3907	3907	3907	3907	3907	3907	3907	3907	3907	3952	3952	3952	3952	3998	4045	4142	4192	4243	4296	4350	4350	4350	4296	4296	4296	4296	4296	4296	4350	4350	4350	4350	4350	4350	4350	4350	4350	4350	4296	4296	4296	4296	4243	4192	4142	4142	4142	4093	4093	4093	4406	4463	4463	4521	4521	4521	4463	4463	4521	4521	4463	4463	4463	4463	4463	4463	4521	4521	4521	4521	4521	4463	4521	4521	4521	4521	4521	4521	4521	4521	4463	4463	4463	4463	4463	3510	3546	3546	3546	3510	3510	3510	3510	3510	3475	3475	3475	3510	3546	3546	3546	3583	3583	3583	3583	3583	3583	3583	3583	3583	3583	3546	4192	4192	4192	3621	3621	3621	3621	3583	3583	3583	3583	3583	3583	3583	3583	3583	3583	3583	3546	3546	3546	3546	3546	3546	3546	3546	3510	3510	3510	4296	4296	4243	4243	4243	4243	4243	4243	4192	4192	4192	4243	4192	4192	4192	4243	4192	4192	4192	4192	4192	4192	4192	4192	4192	4192	4243	4243	4243	4243	4192	4243	4192	4192	4192	4192	4192	4243	4243	4243	4243	4243	4243	4243	4192	4192	4192	4192	4192	4192	4192	4192	4243	4192	4192	4192	4296	4296	4296	4296	4296	4296	4296	4296	4296	4296	4296	4296	4296	4296	4296	4296	4296	4350	4296	4296	4296	4243	4243	4192	4192	4142	4142	4142	4142	4142	4142	4142	4142	4142	4142	4142	4142	4192	4142	4142	4142	4142	4093	4093	4093	4045	3998	3998	3998	3998	3998	3998	4045	4045	4045	4045	4093	4093	4093	4142	4142	4142	4192	4142	4142	4142	4142	4142	4142	4142	4142	4142	4093	4045	4045	4045	3998	3998	3952	3952	3952	3952	3952	3952	3952	3952	3952	3952	3952	3952	3998	4093	4350	4463	4463	4463	4463	4463	4463	6124	6018	6018	0	0	0	0	0	0	0	0	0	0	0	0	0	0	0	0	0	0	0	0	0	0	0	0	0	0	0	0	0	0	0	0	0	0	0	0	0	0	0	0	0	0	1291	1287	573	573	572	572	571	571	570	569	569	569	569	569	568	568	568	568	569	569	571	571	572	572	0	0	0	0	0	0	0	0	0	0	0	0	1259	1259	1254	1259	1259	1254	1259	1254	1254	1254	1259	1259	1259	1263	1153	1161	1161	1157	1153	1150	1146	1142	1142	1142	1146	1142	1142	1146	1146	1142	1142	1142	1142	1142	1142	1142	1142	1150	1142	1142	1142	1146	1146	1146	1146	1146	1146	1150	1146	1150	1150	1150	1150	1150	1150	1150	1150	1150	1150	1150	1150	1150	1153	1153	1153	1153	1153	1153	1153	1153	0	0	0	0	0	0	0	0	0	0	0	0	0	0	0	0	0	0	0	0	0	0	0	0	0	0	0	0	0	0	0	0	0	0	0	0	0	0	0	0	0
0	0	0	0	0	0	0	0	0	0	0	0	0	0	0	0	2281	2281	2281	2281	2266	2281	2281	2281	2297	2297	2297	2297	2297	2297	2297	2281	2297	2281	2297	2297	2297	2297	2297	2297	2297	2312	2312	2297	2312	2312	2327	2312	2312	2312	2312	2312	2312	2312	2312	2312	2312	2312	2312	2312	2312	2312	2312	2327	2327	2327	2343	2343	2376	2392	2392	2426	2426	2460	2460	2478	2496	2532	2551	2551	2570	2609	2589	2609	2609	2649	2733	2754	2754	2754	2754	2754	2754	2754	2754	3738	3779	3821	3779	3821	3821	3779	3821	3821	3779	3779	3779	3779	3779	3779	3779	3779	3738	3738	3738	3738	3738	3738	3738	3738	3738	3738	3738	3698	3698	3698	3698	3698	3698	3698	3698	3738	3738	3738	3738	3738	3738	3738	3738	3738	3779	3779	3779	3738	3738	3821	3779	3821	3821	3864	3864	3864	3864	3907	3907	3907	3907	3907	3907	3907	3952	3952	3952	3998	3952	4045	4142	4192	4192	4243	4296	4350	4350	4296	4296	4296	4296	4296	4296	4296	4350	4350	4350	4350	4296	4350	4350	4406	4350	4350	4296	4350	4296	4296	4243	4192	4192	4142	4142	4093	4093	4093	4093	4406	4463	4463	4463	4521	4463	4463	4463	4463	4463	4463	4463	4463	4463	4521	4521	4521	4521	4521	4521	4521	4521	4521	4521	4521	4521	4521	4521	4521	4463	4463	4521	4463	3546	3546	3546	3546	3546	3510	3510	3510	3510	3510	3510	3475	3475	3510	3510	3546	3546	3546	3583	3583	3583	3583	3583	3621	3583	3583	3583	3583	4192	4192	4192	3659	3659	3621	3621	3621	3583	3583	3583	3583	3583	3583	3583	3583	3583	3546	3546	3546	3546	3546	3546	3546	3546	3510	3510	3510	3510	4296	4296	4243	4243	4243	4243	4243	4243	4243	4243	4243	4243	4192	4243	4243	4243	4243	4243	4243	4243	4192	4192	4243	4243	4192	4192	4192	4192	4243	4192	4192	4243	4192	4192	4192	4192	4192	4243	4243	4243	4243	4243	4243	4243	4192	4192	4243	4192	4243	4243	4243	4243	4243	4192	4192	4243	4296	4296	4296	4296	4296	4296	4296	4296	4243	4296	4296	4296	4296	4296	4296	4350	4350	4350	4350	4296	4296	4243	4243	4192	4192	4142	4142	4142	4142	4142	4142	4142	4142	4142	4142	4142	4142	4142	4142	4142	4142	4142	4093	4093	4045	3998	3998	3998	3998	3998	3998	3998	4045	4045	4045	4045	4093	4093	4093	4142	4142	4142	4142	4142	4142	4142	4142	4142	4142	4142	4142	4142	4093	4045	4045	4045	3998	3952	3952	3952	3952	3952	3952	3952	3952	3952	3952	3952	3952	3952	3998	4093	4142	4463	4463	4463	4463	4463	4463	6124	6018	6018	0	0	0	0	0	0	0	0	0	0	0	0	0	0	0	0	0	0	0	0	0	0	0	0	0	0	0	0	0	0	0	0	0	0	0	0	0	0	0	0	0	1296	1291	575	573	572	572	571	571	571	570	569	569	569	569	569	569	569	569	570	570	570	571	571	572	572	0	0	0	0	0	0	0	0	0	0	0	0	1263	1263	1259	1259	1259	1254	1259	1254	1254	1254	1254	1254	1259	1161	1161	1157	1161	1157	1153	1150	1142	1142	1142	1142	1142	1142	1142	1142	1146	1146	1142	1142	1138	1142	1142	1142	1142	1142	1142	1142	1142	1142	1146	1146	1146	1146	1150	1150	1150	1150	1150	1150	1150	1150	1150	1150	1150	1150	1150	1150	1150	1150	1150	1150	1153	1153	1153	1153	1153	1153	0	0	0	0	0	0	0	0	0	0	0	0	0	0	0	0	0	0	0	0	0	0	0	0	0	0	0	0	0	0	0	0	0	0	0	0	0	0	0	0	0
0	0	0	0	0	0	0	0	0	0	0	0	0	0	0	0	2281	2281	2281	2281	2281	2281	2281	2281	2297	2297	2297	2281	2297	2297	2281	2281	2281	2281	2312	2312	2312	2312	2297	2297	2297	2312	2312	2297	2297	2297	2312	2312	2312	2312	2312	2312	2312	2312	2312	2312	2312	2312	2312	2312	2312	2327	2327	2327	2327	2327	2343	2343	2376	2392	2426	2443	2443	2460	2460	2478	2496	2532	2551	2551	2589	2570	2589	2609	2629	2690	2711	2733	2733	2754	2754	2754	2754	2754	2754	3779	3779	3779	3779	3821	3821	3779	3779	3821	3821	3779	3779	3779	3779	3779	3779	3738	3738	3738	3738	3738	3738	3738	3738	3738	3738	3738	3738	3698	3738	3698	3698	3698	3698	3698	3698	3698	3698	3698	3738	3738	3738	3738	3738	3698	3738	3738	3779	3738	3738	3821	3779	3821	3821	3864	3864	3864	3907	3907	3907	3907	3907	3907	3907	3907	3952	3952	3952	3952	3952	4045	4142	4192	4192	4243	4296	4296	4296	4296	4296	4296	4296	4350	4350	4296	4350	4350	4350	4350	4350	4350	4350	4406	4350	4350	4350	4350	4296	4296	4243	4192	4142	4142	4142	4093	4093	4093	4093	4406	4463	4463	4463	4463	4463	4463	4463	4463	4463	4463	4463	4463	4463	4521	4521	4521	4521	4521	4521	4463	4463	4463	4463	4463	4463	4521	4521	4521	4463	4463	4521	4521	3546	3546	3546	3546	3546	3510	3510	3510	3510	3510	3510	3510	3510	3510	3510	3510	3546	3546	3583	3583	3583	3583	3583	3583	3583	3583	3583	4192	4192	4192	4192	3659	3659	3621	3621	3621	3583	3583	3583	3583	3583	3583	3583	3583	3583	3583	3583	3546	3546	3546	3546	3546	3546	3510	3510	3475	3475	4296	4243	4243	4192	4243	4192	4243	4192	4192	4192	4192	4243	4192	4243	4243	4243	4243	4243	4243	4243	4192	4192	4192	4192	4192	4192	4192	4192	4192	4192	4192	4192	4192	4192	4192	4192	4192	4192	4192	4192	4243	4243	4243	4243	4243	4243	4243	4243	4243	4243	4243	4243	4243	4192	4192	4243	4296	4296	4296	4243	4243	4296	4296	4243	4296	4296	4296	4296	4296	4350	4296	4350	4350	4350	4350	4296	4243	4243	4192	4192	4142	4142	4142	4142	4142	4142	4142	4142	4142	4142	4142	4142	4142	4142	4142	4142	4142	4142	4093	4093	4045	4045	3998	3998	3998	3998	3998	3998	4045	4045	4045	4045	4045	4093	4093	4093	4142	4142	4142	4142	4192	4142	4142	4142	4142	4142	4142	4142	4093	4093	4045	4045	3998	3952	3952	3952	3952	3952	3952	3952	3952	3952	3952	3952	3952	3952	3998	4045	3998	3998	4463	4463	4463	4463	4463	6124	6124	6124	0	0	0	0	0	0	0	0	0	0	0	0	0	0	0	0	0	0	0	0	0	0	0	0	0	0	0	0	0	0	0	0	0	0	0	0	0	0	0	0	0	1296	575	574	573	572	572	572	571	570	570	569	569	568	568	568	568	569	569	569	569	570	570	570	570	572	0	0	0	0	0	0	0	0	0	0	0	1268	1259	1259	1259	1259	1259	1254	1259	1254	1254	1254	1254	1254	1259	1161	1157	1157	1157	1153	1153	1150	1142	1142	1142	1142	1142	1142	1142	1142	1146	1142	1138	1138	1138	1138	1142	1142	1142	1142	1142	1146	1146	1146	1146	1146	1146	1146	1150	1150	1150	1150	1150	1150	1150	1150	1150	1150	1150	1150	1150	1150	1146	1150	1150	1150	1153	1153	1153	1153	1153	1153	0	0	0	0	0	0	0	0	0	0	0	0	0	0	0	0	0	0	0	0	0	0	0	0	0	0	0	0	0	0	0	0	0	0	0	0	0	0	0	0	0
0	0	0	0	0	0	0	0	0	0	0	0	0	0	0	0	2281	2266	2281	2266	2266	2266	2281	2281	2297	2281	2281	2281	2281	2297	2281	2266	2266	2266	2312	2312	2312	2312	2312	2312	2312	2297	2312	2297	2312	2312	2312	2312	2312	2312	2312	2312	2312	2312	2312	2312	2312	2312	2312	2312	2312	2327	2327	2327	2343	2343	2359	2359	2376	2392	2409	2426	2443	2443	2460	2478	2514	2551	2570	2570	2589	2589	2589	2609	2629	2669	2711	2711	2733	2733	2754	2754	2754	2754	2777	2777	3779	3821	3779	3821	3821	3779	3779	3779	3821	3779	3779	3779	3779	3779	3779	3738	3738	3738	3738	3738	3738	3738	3738	3738	3738	3738	3738	3698	3698	3698	3698	3698	3698	3698	3698	3698	3698	3738	3738	3738	3738	3698	3738	3698	3698	3698	3779	3738	3779	3779	3821	3821	3821	3864	3864	3864	3864	3907	3907	3907	3907	3907	3907	3952	3952	3952	3952	3952	3998	4045	4045	4142	4142	4192	4192	4296	4296	4296	4296	4296	4296	4296	4350	4350	4350	4350	4350	4350	4350	4350	4350	4350	4350	4350	4350	4350	4296	4296	4243	4192	4142	4142	4093	4093	4093	4093	4093	4406	4463	4463	4463	4521	4463	4463	4463	4463	4463	4463	4463	4463	4521	4463	4463	4521	4463	4463	4463	4463	4463	4463	4463	4463	4463	4521	4521	4521	4521	4463	4521	4521	4463	3546	3546	3546	3546	3546	3510	3510	3510	3510	3510	3510	3510	3510	3510	3510	3546	3546	3583	3583	3583	3583	3583	3583	3583	3583	3583	4192	4192	4192	4192	4093	3659	3621	3621	3583	3583	3583	3583	3583	3583	3583	3583	3583	3583	3583	3583	3546	3546	3546	3546	3546	3546	3510	3510	3510	3510	4243	4243	4192	4192	4192	4192	4192	4192	4192	4192	4243	4243	4243	4243	4243	4243	4243	4243	4243	4243	4192	4192	4192	4192	4142	4142	4142	4142	4192	4192	4192	4192	4192	4192	4192	4192	4192	4192	4192	4192	4243	4243	4243	4243	4243	4243	4243	4243	4243	4243	4243	4243	4192	4192	4192	4243	4296	4243	4243	4243	4243	4243	4243	4243	4243	4296	4296	4296	4296	4296	4296	4350	4350	4350	4350	4296	4296	4243	4192	4192	4192	4142	4142	4142	4142	4142	4142	4142	4142	4142	4142	4142	4142	4142	4142	4142	4142	4142	4093	4093	4045	3998	3998	3998	3998	3998	3998	3998	4045	4045	4045	3998	4045	4045	4093	4093	4142	4142	4142	4142	4192	4142	4142	4142	4142	4142	4142	4142	4093	4093	4045	4045	3998	3952	3952	3952	3952	3952	3952	3952	3952	3952	3952	3952	3952	3952	3952	3952	3952	4521	4521	4521	4463	4463	4463	6124	6124	6124	0	0	0	0	0	0	0	0	0	0	0	0	0	0	0	0	0	0	0	0	0	0	0	0	0	0	0	0	0	0	0	0	0	0	0	0	0	0	0	0	1291	573	573	573	573	572	572	571	571	570	569	568	568	568	568	568	568	568	568	568	568	568	568	568	570	0	0	0	0	0	0	0	0	0	0	0	1277	1268	1268	1263	1259	1259	1259	1254	1254	1254	1254	1254	1254	1259	1259	1153	1153	1153	1153	1153	1150	1146	1142	1142	1142	1142	1142	1142	1142	1142	1146	1142	1138	1138	1138	1138	1142	1142	1138	1142	1142	1146	1146	1146	1146	1146	1146	1146	1150	1150	1150	1150	1150	1150	1150	1150	1150	1150	1146	1146	1150	1150	1146	1150	1150	1150	1153	1153	1153	1153	1153	1153	0	0	0	0	0	0	0	0	0	0	0	0	0	0	0	0	0	0	0	0	0	0	0	0	0	0	0	0	0	0	0	0	0	0	0	0	0	0	0	0	0
0	0	0	0	0	0	0	0	0	0	0	0	0	0	0	0	2281	2281	2281	2266	2266	2266	2266	2281	2281	2281	2266	2266	2266	2297	2281	2266	2266	2266	2266	2266	2266	2297	2297	2297	2297	2281	2312	2297	2312	2312	2312	2312	2312	2312	2312	2312	2312	2312	2312	2312	2312	2312	2312	2312	2312	2327	2327	2327	2343	2343	2359	2359	2376	2392	2409	2409	2443	2443	2460	2478	2514	2551	2570	2570	2570	2589	2589	2609	2629	2649	2690	2711	2711	2733	2733	2754	2733	2754	2754	2754	3779	3821	3779	3821	3821	3779	3779	3779	3779	3779	3779	3779	3779	3779	3779	3779	3738	3738	3738	3738	3738	3738	3738	3738	3738	3738	3738	3698	3738	3698	3698	3698	3698	3698	3698	3698	3698	3698	3698	3738	3738	3738	3738	3738	3738	3779	3779	3779	3779	3779	3821	3779	3821	3864	3864	3864	3864	3907	3907	3907	3952	3952	3952	3952	3952	3952	3998	3998	3998	3998	4045	4093	4142	4192	4243	4296	4296	4296	4296	4296	4350	4350	4350	4350	4350	4350	4350	4350	4350	4350	4350	4406	4406	4350	4406	4406	4350	4296	4243	4243	4192	4142	4142	4093	4093	4093	4093	4406	4463	4463	4463	4463	4463	4463	4463	4463	4463	4463	4463	4463	4463	4463	4463	4521	4463	4463	4463	4463	4463	4463	4463	4463	4463	4521	4521	4521	4521	4521	4521	4521	3546	3546	3546	3546	3546	3546	3510	3510	3510	3510	3510	3510	3510	3510	3510	3510	3546	3546	3546	3583	3583	3583	3583	3583	3583	3583	3583	4192	4192	4192	4192	4192	3698	3659	3621	3621	3583	3583	3583	3583	3583	3583	3583	3583	3583	3583	3546	3546	3546	3546	3546	3546	3546	3510	3510	3510	3510	4243	4192	4192	4192	4192	4192	4192	4192	4243	4243	4243	4243	4243	4243	4243	4243	4243	4243	4243	4243	4192	4192	4192	4192	4142	4142	4142	4142	4142	4142	4192	4192	4192	4192	4192	4192	4192	4192	4192	4192	4192	4243	4243	4243	4243	4243	4243	4243	4243	4243	4192	4192	4192	4192	4192	4192	4243	4243	4296	4243	4243	4243	4243	4243	4243	4243	4296	4296	4296	4296	4296	4350	4350	4350	4350	4296	4296	4243	4192	4192	4192	4142	4142	4142	4142	4142	4142	4142	4142	4142	4142	4142	4142	4142	4142	4142	4142	4093	4093	4093	4093	4045	3998	3998	3998	3998	3998	3998	4045	4045	4045	4045	4045	4045	4093	4093	4093	4142	4142	4142	4142	4142	4142	4142	4142	4142	4142	4142	4142	4093	4045	4045	3998	3998	3998	3952	3952	3952	3952	3952	3952	3952	3952	3952	3952	3952	3952	3907	3907	4521	4521	4521	4521	4463	4463	0	0	0	0	0	0	0	0	0	0	0	0	0	0	0	0	0	0	0	0	0	0	0	0	0	0	0	0	0	0	0	0	0	0	0	0	0	0	0	0	0	0	0	573	573	573	573	572	572	571	571	570	570	569	569	568	568	567	568	567	567	567	568	567	567	567	567	0	0	0	0	0	0	0	0	0	0	0	0	1277	1277	1268	1268	1263	1259	1259	1254	1254	1254	1254	1254	1254	1259	1259	1153	1153	1153	1153	1153	1150	1146	1142	1142	1142	1142	1142	1142	1142	1142	1142	1142	1142	1138	1138	1142	1142	1142	1142	1142	1142	1142	1142	1142	1142	1146	1146	1146	1150	1150	1150	1150	1150	1150	1150	1150	1146	1150	1150	1150	1150	1150	1150	1150	1150	1150	1153	1153	1153	1153	1153	1153	0	0	0	0	0	0	0	0	0	0	0	0	0	0	0	0	0	0	0	0	0	0	0	0	0	0	0	0	0	0	0	0	0	0	0	0	0	0	0	0	0
0	0	0	0	0	0	0	0	0	0	0	0	0	0	0	0	2266	2266	2266	2266	2266	2266	2266	2266	2281	2281	2281	2281	2281	2281	2281	2281	2266	2266	2266	2281	2281	2281	2297	2297	2312	2297	2312	2312	2312	2312	2297	2297	2312	2312	2312	2312	2312	2297	2297	2312	2312	2312	2312	2312	2327	2327	2327	2327	2343	2359	2359	2359	2376	2376	2392	2409	2426	2443	2460	2478	2514	2551	2570	2589	2589	2589	2589	2609	2629	2649	2690	2711	2711	2711	2733	2733	2733	2754	2754	2754	3821	3821	3821	3821	3779	3779	3779	3779	3779	3779	3779	3779	3779	3821	3779	3779	3738	3738	3738	3738	3738	3738	3738	3738	3738	3738	3738	3738	3738	3738	3698	3698	3698	3698	3698	3698	3698	3698	3698	3738	3738	3738	3738	3738	3779	3779	3779	3779	3779	3779	3821	3821	3821	3864	3864	3907	3864	3907	3907	3907	3952	3952	3952	3952	3952	3998	3998	3998	3998	4045	4045	4093	4142	4192	4296	4296	4350	4350	4296	4350	4350	4350	4350	4350	4350	4350	4350	4350	4350	4350	4350	4406	4406	4350	4406	4406	4350	4350	4296	4243	4093	4192	4142	4142	4093	4142	4296	4463	4463	4463	4463	4463	4463	4463	4463	4463	4463	4463	4463	4463	4521	4463	4463	4521	4521	4521	4463	4463	4463	4463	4463	4463	4463	4463	4521	4521	4521	4521	4521	4521	3546	3546	3546	3546	3546	3546	3510	3510	3510	3510	3510	3510	3510	3510	3546	3546	3546	3546	3546	3546	3583	3583	3583	3583	3583	3583	4243	4243	4142	4142	4142	4192	3698	3659	3621	3621	3621	3583	3583	3583	3583	3583	3583	3583	3583	3583	3583	3546	3546	3546	3546	3546	3546	3546	3546	3510	3510	4243	4192	4192	4192	4192	4192	4243	4243	4243	4243	4243	4243	4243	4243	4192	4243	4192	4243	4192	4192	4192	4192	4192	4192	4142	4142	4142	4142	4142	4192	4192	4243	4243	4192	4192	4192	4192	4192	4192	4192	4192	4243	4243	4243	4243	4243	4243	4243	4192	4192	4192	4192	4192	4192	4142	4192	4243	4243	4243	4296	4243	4243	4243	4243	4243	4243	4243	4296	4296	4296	4296	4350	4350	4350	4350	4296	4296	4243	4192	4192	4142	4142	4142	4142	4142	4142	4142	4142	4142	4142	4142	4142	4142	4142	4142	4142	4142	4093	4093	4093	4093	4045	3998	3998	3998	3998	3998	3998	3998	4045	4045	3998	4045	4045	4093	4093	4093	4142	4142	4142	4142	4142	4142	4142	4142	4142	4142	4142	4142	4093	4045	4045	3998	3952	3952	3952	3952	3952	3952	3952	3952	3952	3952	3952	3952	3952	3952	3907	3907	4521	4521	4521	4521	4463	4463	0	0	0	0	0	0	0	0	0	0	0	0	0	0	0	0	0	0	0	0	0	0	0	0	0	0	0	0	0	0	0	0	0	0	0	0	0	0	0	0	0	0	575	575	575	574	573	572	572	571	571	570	569	569	568	568	568	567	568	567	567	567	567	567	567	567	567	0	0	0	0	0	0	0	0	0	0	0	0	1268	1268	1263	1263	1259	1259	1259	1254	1254	1254	1254	1254	1254	1254	1259	1153	1153	1150	1150	1150	1150	1146	1142	1142	1142	1142	1142	1138	1138	1138	1142	1138	1138	1138	1138	1138	1142	1142	1138	1142	1142	1142	1142	1146	1142	1146	1146	1146	1150	1150	1150	1150	1150	1150	1150	1150	1146	1150	1150	1150	1150	1150	1150	1150	1150	1150	1150	1150	1150	1153	1153	1153	0	0	0	0	0	0	0	0	0	0	0	0	0	0	0	0	0	0	0	0	0	0	0	0	0	0	0	0	0	0	0	0	0	0	0	0	0	0	0	0	0
0	0	0	0	0	0	0	0	0	0	0	0	0	0	0	0	2281	2281	2266	2266	2281	2281	2281	2281	2281	2281	2281	2266	2281	2281	2281	2266	2266	2266	2281	2281	2281	2281	2297	2297	2297	2297	2312	2312	2312	2312	2297	2297	2312	2312	2312	2312	2312	2312	2312	2312	2312	2312	2312	2312	2312	2327	2327	2327	2343	2359	2359	2359	2376	2376	2392	2409	2443	2443	2460	2478	2514	2551	2570	2589	2589	2589	2609	2609	2629	2649	2690	2690	2711	2711	2711	2733	2733	2733	2754	2754	3864	3821	3821	3821	3821	3779	3738	3738	3738	3779	3779	3779	3779	3779	3779	3738	3738	3738	3738	3738	3738	3738	3738	3738	3738	3738	3738	3738	3738	3738	3738	3698	3698	3698	3698	3698	3698	3698	3698	3738	3738	3738	3738	3738	3779	3779	3779	3779	3779	3821	3821	3821	3864	3864	3864	3864	3864	3864	3864	3907	3907	3907	3907	3952	3952	3952	3998	3998	3998	4045	4045	4093	4142	4192	4296	4296	4350	4350	4350	4350	4406	4406	4406	4406	4350	4406	4406	4350	4350	4350	4350	4406	4406	4406	4406	4406	4406	4350	4296	4243	4142	4192	4093	4142	4142	4142	4406	4463	4463	4463	4463	4463	4463	4463	4463	4463	4463	4463	4521	4521	4521	4521	4521	4521	4521	4521	4463	4463	4463	4463	4463	4463	4463	4463	4521	4521	4521	4521	4521	4521	3546	3546	3546	3546	3546	3546	3510	3510	3510	3510	3510	3510	3510	3510	3510	3510	3546	3546	3546	3546	3583	3583	3583	3583	3583	3583	3583	4192	4192	4192	4192	3738	3698	3659	3621	3621	3583	3583	3583	3583	3583	3583	3583	3583	3583	3583	3546	3546	3546	3546	3546	3546	3546	3510	3510	3510	3510	4243	4192	4142	4192	4192	4192	4243	4243	4243	4243	4243	4243	4243	4243	4192	4192	4192	4192	4192	4192	4192	4192	4192	4192	4192	4142	4142	4142	4142	4192	4192	4243	4243	4192	4192	4192	4192	4192	4192	4192	4192	4243	4243	4243	4243	4243	4243	4243	4192	4192	4192	4192	4192	4142	4142	4192	4243	4243	4243	4243	4243	4243	4243	4243	4243	4243	4296	4296	4296	4350	4350	4350	4350	4350	4350	4296	4296	4243	4192	4192	4142	4142	4142	4142	4142	4142	4142	4142	4142	4142	4142	4142	4142	4142	4142	4142	4142	4093	4093	4093	4045	4045	3998	3998	3998	3998	3952	3998	3998	3998	3998	3998	3998	4045	4093	4093	4093	4142	4142	4142	4142	4142	4142	4142	4142	4142	4142	4142	4142	4093	4045	4045	4045	3998	3998	3952	3952	3952	3998	3952	3952	3952	3952	3952	3952	3952	3952	3907	3907	3952	4521	4521	4463	4463	4463	4463	0	0	0	0	0	0	0	0	0	0	0	0	0	0	0	0	0	0	0	0	0	0	0	0	0	0	0	0	0	0	0	0	0	0	0	0	0	0	0	0	0	575	575	575	574	573	573	572	571	571	570	569	569	568	568	568	568	568	568	568	568	568	567	567	567	567	0	0	0	0	0	0	0	0	0	0	0	0	1263	1263	1259	1259	1259	1259	1254	1254	1254	1254	1254	1254	1249	1254	1254	1150	1150	1150	1150	1150	1150	1146	1142	1142	1142	1142	1138	1138	1138	1138	1142	1138	1138	1138	1138	1138	1142	1142	1138	1142	1138	1138	1142	1142	1142	1146	1146	1146	1150	1146	1146	1150	1150	1146	1146	1146	1146	1146	1150	1150	1150	1150	1150	1150	1150	1150	1150	1150	1153	1153	1153	1153	0	0	0	0	0	0	0	0	0	0	0	0	0	0	0	0	0	0	0	0	0	0	0	0	0	0	0	0	0	0	0	0	0	0	0	0	0	0	0	0	0
0	0	0	0	0	0	0	0	0	0	0	0	0	0	0	0	2281	2297	2281	2266	2281	2266	2281	2281	2281	2281	2281	2266	2281	2281	2281	2281	2266	2281	2281	2266	2281	2281	2281	2281	2297	2281	2281	2281	2297	2297	2281	2312	2312	2312	2312	2312	2312	2297	2297	2312	2312	2312	2312	2312	2327	2327	2327	2327	2327	2359	2376	2376	2376	2376	2392	2409	2443	2443	2460	2496	2514	2514	2551	2570	2589	2609	2609	2609	2649	2649	2690	2690	2711	2711	2711	2711	2711	2711	2711	3864	3864	3821	3821	3821	3821	3779	3779	3738	3779	3779	3779	3779	3779	3779	3779	3738	3738	3738	3738	3738	3738	3738	3738	3738	3738	3738	3738	3738	3738	3738	3738	3738	3698	3698	3698	3698	3698	3698	3698	3738	3738	3738	3738	3738	3779	3779	3779	3779	3821	3821	3864	3821	3821	3821	3821	3864	3864	3864	3864	3907	3907	3907	3907	3952	3952	3952	3998	3998	3998	4045	4045	4093	4142	4192	4243	4296	4350	4350	4350	4406	4406	4406	4406	4406	4406	4406	4406	4406	4406	4350	4350	4406	4406	4406	4406	4406	4406	4406	4350	4296	4243	4243	4243	4243	4243	4296	4296	4521	4521	4463	4463	4463	4463	4463	4463	4463	4463	4521	4521	4521	4521	4521	4521	4521	4521	4521	4521	4463	4463	4463	4463	4463	4463	4463	4521	4521	4521	4521	4463	4521	4463	3546	3583	3546	3546	3546	3510	3510	3510	3510	3510	3510	3510	3510	3510	3510	3510	3510	3510	3546	3546	3583	3583	3583	3583	3621	3621	4142	4142	4142	4142	3738	3698	3659	3621	3621	3583	3583	3583	3583	3583	3583	3583	3583	3583	3546	3546	3546	3546	3546	3546	3546	3546	3510	3510	3510	3510	4192	4192	4142	4192	4192	4192	4243	4243	4243	4243	4243	4243	4243	4243	4243	4192	4192	4243	4192	4192	4192	4192	4192	4192	4192	4142	4142	4142	4192	4192	4192	4192	4192	4192	4192	4192	4192	4192	4192	4192	4192	4192	4192	4243	4243	4243	4243	4243	4243	4192	4192	4192	4192	4142	4142	4142	4243	4296	4243	4243	4243	4243	4296	4243	4243	4243	4296	4296	4296	4296	4296	4296	4350	4350	4350	4296	4243	4192	4192	4192	4142	4142	4142	4142	4142	4142	4142	4142	4142	4142	4142	4142	4142	4142	4142	4142	4142	4093	4093	4093	4045	4045	3998	3998	3998	3998	3998	3998	3998	3998	3998	3998	3998	3998	4045	4045	4093	4093	4142	4142	4142	4142	4142	4142	4142	4142	4142	4142	4142	4142	4045	4045	4045	3998	3998	3998	3952	3952	3998	3952	3952	3952	3952	3952	3952	3952	3952	3907	3907	3952	4581	4521	4521	4521	4521	4521	0	0	0	0	0	0	0	0	0	0	0	0	0	0	0	0	0	0	0	0	0	0	0	0	0	0	0	0	0	0	0	0	0	0	0	0	0	0	0	0	575	575	575	574	574	573	573	572	571	570	570	570	569	568	568	568	568	568	568	568	568	568	567	567	567	567	0	0	0	0	0	0	0	0	0	0	0	0	1259	1259	1259	1254	1254	1254	1254	1254	1254	1254	1254	1254	1254	1249	1254	1150	1150	1150	1150	1150	1150	1146	1142	1142	1142	1138	1138	1138	1138	1138	1138	1138	1138	1134	1138	1138	1142	1138	1138	1142	1142	1142	1146	1146	1146	1146	1146	1150	1150	1146	1146	1146	1146	1146	1146	1146	1146	1146	1146	1146	1146	1150	1150	1150	1150	1150	1150	1150	1150	1153	1153	1153	0	0	0	0	0	0	0	0	0	0	0	0	0	0	0	0	0	0	0	0	0	0	0	0	0	0	0	0	0	0	0	0	0	0	0	0	0	0	0	0	0
0	0	0	0	0	0	0	0	0	0	0	0	0	0	0	0	2281	2297	2297	2297	2281	2281	2281	2281	2281	2281	2281	2266	2281	2281	2281	2281	2266	2281	2281	2281	2281	2281	2281	2281	2281	2281	2281	2281	2281	2281	2281	2281	2281	2312	2297	2297	2297	2297	2297	2297	2312	2312	2312	2312	2327	2327	2327	2327	2343	2359	2376	2359	2392	2376	2392	2409	2443	2478	2478	2496	2514	2532	2551	2570	2609	2609	2629	2629	2649	2669	2690	2690	2690	2711	2711	2711	2690	2711	2711	3907	3864	3864	3821	3821	3821	3779	3779	3738	3779	3779	3779	3779	3779	3779	3779	3738	3738	3738	3738	3738	3738	3738	3738	3738	3738	3738	3738	3738	3738	3738	3738	3738	3698	3698	3698	3698	3698	3698	3698	3698	3738	3738	3738	3738	3779	3779	3779	3779	3779	3821	3821	3821	3864	3864	3864	3864	3864	3864	3907	3907	3952	3952	3952	3952	3952	3952	3998	3998	4045	4045	4045	4093	4093	4192	4296	4296	4350	4406	4350	4406	4406	4406	4406	4406	4463	4406	4406	4406	4406	4406	4406	4406	4406	4406	4406	4406	4406	4406	4350	4296	4296	4296	4243	4243	4243	4463	4521	4521	4521	4521	4463	4463	4463	4463	4463	4463	4463	4521	4521	4521	4521	4521	4521	4521	4521	4521	4521	4463	4463	4463	4463	4463	4463	4463	4521	4521	4521	4463	4463	4463	3583	3546	3583	3546	3546	3546	3510	3510	3510	3510	3510	3510	3510	3510	3510	3510	3510	3510	3546	3546	3546	3583	3583	3583	3583	3583	3583	4142	4142	4142	4142	3738	3698	3659	3621	3621	3583	3583	3583	3583	3583	3583	3583	3583	3583	3546	3546	3546	3546	3546	3546	3546	3546	3510	3510	3510	4243	4243	4192	4192	4192	4192	4192	4243	4243	4243	4243	4243	4243	4243	4243	4192	4192	4192	4192	4192	4192	4192	4192	4192	4192	4192	4142	4192	4192	4192	4192	4192	4192	4192	4192	4192	4192	4192	4192	4192	4192	4142	4192	4192	4192	4243	4243	4243	4243	4243	4192	4192	4142	4192	4192	4142	4142	4243	4243	4243	4243	4243	4243	4243	4243	4243	4243	4243	4296	4296	4296	4296	4296	4296	4296	4296	4296	4243	4192	4192	4192	4142	4142	4142	4142	4142	4142	4142	4142	4142	4142	4142	4142	4142	4142	4142	4142	4142	4093	4093	4093	4093	4045	3998	3998	3998	3998	3998	3998	3998	3998	3998	3952	3998	3952	3998	3998	4093	4093	4142	4142	4142	4142	4142	4142	4142	4142	4142	4142	4142	4142	4045	4045	3998	3998	3998	3952	3952	3952	3998	3952	3952	3952	3952	3952	3952	3952	3952	3907	3907	3952	4521	4521	4521	4521	4521	4521	0	0	0	0	0	0	0	0	0	0	0	0	0	0	0	0	0	0	0	0	0	0	0	0	0	0	0	0	0	0	0	0	0	0	0	0	0	0	0	0	575	575	575	574	574	573	572	572	571	570	569	570	569	568	568	568	568	568	568	567	567	568	568	568	568	568	0	0	0	0	0	0	0	0	0	0	0	0	1259	1259	1254	1254	1254	1254	1254	1254	1254	1254	1254	1254	1249	1249	1254	1150	1150	1150	1150	1150	1150	1146	1146	1142	1142	1138	1138	1138	1138	1134	1134	1134	1134	1134	1138	1138	1142	1142	1138	1142	1142	1142	1146	1146	1146	1146	1146	1150	1150	1146	1146	1146	1146	1146	1146	1146	1142	1146	1146	1150	1150	1150	1150	1150	1150	1150	1150	1150	1150	1153	1153	1153	0	0	0	0	0	0	0	0	0	0	0	0	0	0	0	0	0	0	0	0	0	0	0	0	0	0	0	0	0	0	0	0	0	0	0	0	0	0	0	0	0
0	0	0	0	0	0	0	0	0	0	0	0	0	0	0	0	2297	2297	2297	2297	2281	2281	2266	2266	2281	2281	2281	2266	2266	2281	2281	2281	2281	2281	2281	2281	2281	2281	2297	2281	2297	2281	2281	2281	2297	2297	2297	2281	2297	2297	2297	2297	2297	2297	2281	2297	2297	2297	2297	2297	2312	2312	2312	2327	2327	2343	2359	2359	2376	2376	2392	2392	2460	2478	2496	2514	2514	2532	2551	2570	2589	2609	2629	2629	2669	2669	2690	2690	2690	2690	2711	2711	2711	2711	2711	3907	3864	3864	3864	3821	3821	3779	3779	3779	3779	3779	3779	3779	3779	3779	3738	3738	3738	3738	3738	3738	3738	3738	3738	3738	3738	3738	3738	3738	3738	3738	3738	3738	3698	3698	3698	3698	3698	3698	3698	3738	3738	3738	3738	3738	3779	3779	3779	3779	3821	3821	3864	3821	3821	3821	3864	3864	3864	3864	3864	3907	3907	3907	3952	3952	3952	3952	3998	3998	4045	4045	4045	4093	4093	4142	4243	4296	4406	4406	4406	4463	4463	4463	4463	4463	4463	4463	4463	4463	4463	4406	4406	4406	4406	4406	4406	4406	4406	4406	4350	4350	4296	4296	4296	4350	4296	4521	4521	4521	4521	4521	4463	4463	4463	4463	4463	4463	4463	4463	4521	4521	4521	4521	4521	4521	4521	4521	4521	4521	4521	4463	4463	4521	4463	4463	4463	4521	4463	4463	4463	4463	3510	3583	3583	3546	3546	3546	3510	3510	3510	3510	3510	3510	3510	3510	3510	3510	3510	3510	3546	3546	3546	3546	3583	3546	3583	3583	4192	4142	4093	4093	4093	4093	3698	3659	3659	3621	3583	3583	3621	3583	3583	3583	3583	3583	3583	3546	3546	3546	3546	3546	3546	3546	3546	3510	3510	3510	4243	4243	4192	4192	4192	4192	4192	4192	4243	4243	4243	4243	4243	4243	4192	4192	4192	4192	4192	4192	4192	4192	4192	4142	4192	4142	4142	4192	4192	4192	4192	4192	4192	4192	4192	4192	4192	4192	4192	4142	4192	4192	4192	4192	4192	4192	4192	4192	4192	4192	4142	4142	4142	4192	4192	4142	4142	4243	4243	4243	4243	4243	4243	4296	4296	4243	4296	4296	4296	4296	4296	4296	4296	4296	4296	4296	4296	4243	4192	4192	4192	4142	4142	4142	4142	4142	4142	4142	4142	4142	4142	4142	4142	4142	4142	4142	4142	4142	4093	4093	4093	4093	4045	4045	3998	3952	3998	3952	3998	3998	3998	3952	3952	3952	3952	3952	3998	3998	4093	4142	4142	4142	4142	4142	4142	4142	4192	4142	4142	4142	4142	4045	4045	3998	3998	3998	3998	3998	3952	3998	3952	3952	3952	3952	3952	3952	3952	3952	3952	3952	4521	4521	4521	4521	4521	4521	4521	4521	0	0	0	0	0	0	0	0	0	0	0	0	0	0	0	0	0	0	0	0	0	0	0	0	0	0	0	0	0	0	0	0	0	0	0	0	0	0	575	575	575	574	574	574	573	573	572	571	570	569	569	568	568	568	567	567	568	568	567	568	568	569	569	569	569	0	0	0	0	0	0	0	0	0	0	0	0	1263	1259	1259	1254	1254	1254	1254	1254	1254	1254	1254	1254	1249	1249	1254	1249	1150	1150	1150	1150	1146	1146	1142	1142	1138	1138	1138	1138	1134	1134	1134	1134	1134	1134	1138	1138	1138	1138	1138	1142	1142	1142	1146	1146	1146	1146	1146	1146	1146	1142	1142	1142	1146	1142	1142	1142	1142	1146	1146	1150	1150	1150	1150	1150	1150	1150	1150	1150	1150	1150	1150	1150	0	0	0	0	0	0	0	0	0	0	0	0	0	0	0	0	0	0	0	0	0	0	0	0	0	0	0	0	0	0	0	0	0	0	0	0	0	0	0	0	0
0	0	0	0	0	0	0	0	0	0	0	0	0	0	0	0	2297	2297	2297	2297	2281	2281	2266	2266	2281	2281	2281	2266	2266	2281	2281	2281	2266	2266	2281	2281	2281	2281	2281	2281	2281	2281	2281	2281	2281	2297	2297	2312	2297	2312	2297	2297	2297	2297	2281	2297	2297	2297	2297	2297	2312	2312	2312	2327	2327	2359	2376	2376	2376	2392	2392	2392	2443	2478	2496	2514	2514	2532	2551	2570	2589	2589	2609	2629	2629	2669	2690	2690	2711	2711	2711	2711	2711	2711	2711	3864	3864	3864	3821	3821	3821	3821	3821	3779	3779	3779	3779	3738	3738	3738	3738	3738	3738	3738	3738	3738	3738	3738	3738	3738	3738	3738	3738	3738	3738	3738	3738	3738	3698	3698	3698	3698	3698	3698	3698	3738	3738	3738	3738	3779	3821	3821	3779	3821	3821	3864	3864	3821	3821	3864	3864	3864	3864	3864	3864	3907	3907	3907	3907	3907	3952	3952	3998	3998	3998	4045	4045	4093	4142	4192	4296	4406	4406	4463	4463	4463	4463	4463	4463	4463	4463	4463	4463	4463	4463	4463	4463	4406	4406	4406	4406	4406	4406	4406	4406	4350	4350	4296	4296	4296	4350	4463	4521	4521	4521	4521	4463	4463	4463	4463	4463	4463	4463	4463	4521	4521	4521	4463	4463	4521	4521	4521	4521	4521	4521	4521	4463	4521	4463	4463	4463	4521	4463	4463	4463	3510	3510	3546	3583	3546	3546	3546	3510	3510	3510	3510	3510	3510	3510	3510	3510	3510	3510	3510	3546	3546	3546	3546	3546	3546	3583	3583	4192	4142	4142	4142	4093	4093	3698	3659	3621	3621	3583	3583	3621	3583	3583	3583	3583	3583	3583	3546	3546	3546	3546	3546	3546	3546	3546	3510	3510	3510	4243	4243	4192	4192	4192	4192	4192	4243	4243	4243	4243	4243	4243	4243	4192	4192	4192	4192	4192	4192	4192	4192	4192	4142	4192	4192	4192	4192	4192	4243	4243	4192	4192	4192	4192	4192	4192	4142	4192	4142	4192	4192	4192	4192	4192	4192	4192	4192	4192	4192	4142	4142	4142	4142	4192	4192	4192	4192	4296	4296	4296	4243	4296	4296	4296	4296	4296	4296	4296	4296	4296	4296	4296	4296	4296	4296	4243	4243	4192	4192	4142	4142	4142	4142	4093	4093	4093	4142	4142	4142	4142	4142	4142	4142	4142	4142	4142	4142	4093	4093	4093	4045	4045	3998	3998	3952	3998	3952	3998	3952	3952	3952	3952	3952	3952	3998	4045	4093	4093	4142	4142	4142	4142	4142	4142	4192	4192	4192	4142	4142	4142	4093	4045	4045	3998	3998	3998	3998	3998	3998	3952	3952	3952	3952	3952	3952	3952	3952	3952	3952	4838	4521	4521	4521	4521	4521	4521	4521	0	0	0	0	0	0	0	0	0	0	0	0	0	0	0	0	0	0	0	0	0	0	0	0	0	0	0	0	0	0	0	0	0	0	0	0	0	575	575	575	575	575	574	574	573	572	571	570	569	568	569	568	568	568	567	567	568	568	567	568	568	569	569	569	569	0	0	0	0	0	0	0	0	0	0	0	1259	1259	1259	1254	1254	1254	1254	1254	1254	1254	1254	1254	1254	1249	1249	1249	1249	1150	1150	1150	1150	1146	1146	1138	1142	1138	1138	1138	1138	1138	1138	1138	1138	1138	1138	1138	1142	1138	1138	1138	1138	1138	1142	1142	1142	1142	1142	1142	1146	1146	1142	1142	1142	1146	1142	1142	1142	1142	1146	1146	1146	1150	1150	1150	1150	1150	1150	1150	1150	1150	1150	1150	1150	0	0	0	0	0	0	0	0	0	0	0	0	0	0	0	0	0	0	0	0	0	0	0	0	0	0	0	0	0	0	0	0	0	0	0	0	0	0	0	0	0
0	0	0	0	0	0	0	0	0	0	0	0	0	0	0	0	2297	2297	2297	2297	2281	2281	2281	2266	2266	2266	2266	2266	2266	2266	2266	2281	2266	2281	2281	2281	2281	2297	2297	2281	2297	2281	2281	2281	2281	2281	2297	2297	2297	2297	2297	2297	2297	2297	2297	2297	2297	2297	2297	2297	2297	2312	2312	2327	2327	2343	2376	2376	2376	2376	2392	2392	2443	2460	2496	2496	2514	2514	2514	2551	2570	2570	2609	2629	2669	2669	2690	2690	2711	2711	2711	2711	2690	2690	3864	3864	3864	3821	3821	3821	3821	3821	3779	3779	3779	3779	3738	3738	3738	3738	3738	3738	3738	3738	3738	3738	3738	3738	3738	3738	3738	3738	3738	3738	3738	3738	3738	3738	3698	3698	3698	3698	3698	3698	3698	3738	3738	3779	3779	3821	3864	3821	3821	3821	3864	3864	3864	3864	3864	3864	3864	3864	3864	3864	3864	3907	3907	3907	3907	3907	3952	3952	3998	3998	3998	4045	4045	4093	4142	4243	4406	4463	4463	4463	4463	4463	4521	4463	4521	4521	4463	4463	4463	4463	4463	4463	4463	4463	4406	4463	4406	4406	4406	4406	4406	4350	4350	4296	4350	4406	4350	4463	4521	4521	4521	4521	4463	4463	4463	4463	4521	4463	4463	4463	4521	4463	4463	4463	4463	4521	4521	4521	4521	4521	4521	4521	4521	4521	4521	4463	4463	4521	4463	4463	4463	3510	3510	3510	3583	3546	3546	3546	3546	3510	3510	3510	3510	3510	3510	3475	3510	3510	3510	3510	3510	3546	3546	3546	3583	3546	3583	3583	3583	4142	4142	4142	4093	4093	4093	3659	3621	3583	3583	3583	3583	3583	3583	3583	3583	3583	3583	3546	3546	3546	3546	3546	3546	3546	3546	3510	3510	3510	4243	4243	4243	4192	4192	4192	4192	4243	4243	4243	4243	4243	4243	4243	4192	4192	4192	4192	4142	4142	4142	4192	4192	4142	4192	4192	4192	4192	4192	4243	4243	4192	4192	4192	4192	4192	4192	4142	4192	4192	4192	4192	4192	4192	4192	4192	4192	4192	4192	4192	4142	4142	4142	4243	4243	4243	4243	4296	4296	4296	4243	4243	4296	4296	4296	4296	4296	4296	4296	4296	4296	4296	4296	4296	4296	4296	4243	4243	4192	4192	4142	4142	4142	4142	4093	4093	4093	4093	4093	4142	4142	4142	4142	4142	4142	4142	4142	4142	4093	4093	4093	4045	4045	3998	3998	3998	3998	3998	3998	3952	3952	3952	3952	3952	3952	3998	4045	4093	4093	4142	4142	4142	4142	4142	4142	4192	4142	4142	4142	4142	4142	4093	4045	4045	4045	3998	3998	3998	3998	3998	3952	3952	3952	3952	3952	3952	3952	3952	3952	3952	4838	4521	4521	4521	4521	4521	4521	4521	4521	0	0	0	0	0	0	0	0	0	0	0	0	0	0	0	0	0	0	0	0	0	0	0	0	0	0	0	0	0	0	0	0	0	0	0	0	576	576	576	575	575	574	574	573	572	571	570	569	568	569	568	568	567	567	567	567	567	567	567	568	569	569	569	569	0	0	0	0	0	0	0	0	0	0	0	1259	1259	1259	1254	1254	1254	1254	1254	1254	1254	1254	1254	1254	1249	1249	1249	1249	1150	1150	1150	1150	1146	1146	1146	1142	1138	1138	1138	1138	1138	1138	1138	1138	1138	1138	1138	1142	1142	1142	1138	1138	1138	1138	1142	1142	1142	1142	1142	1146	1146	1142	1142	1142	1146	1142	1142	1142	1142	1146	1142	1146	1146	1150	1150	1150	1150	1150	1150	1150	1150	1150	1150	1150	0	0	0	0	0	0	0	0	0	0	0	0	0	0	0	0	0	0	0	0	0	0	0	0	0	0	0	0	0	0	0	0	0	0	0	0	0	0	0	0	0
0	0	0	0	0	0	0	0	0	0	0	0	0	0	0	0	2297	2312	2297	2297	2297	2281	2281	2266	2266	2266	2266	2266	2266	2266	2266	2266	2266	2281	2281	2281	2297	2297	2297	2297	2297	2281	2281	2281	2281	2281	2297	2297	2297	2297	2297	2297	2297	2297	2297	2297	2297	2312	2312	2312	2312	2312	2312	2312	2327	2343	2359	2359	2376	2376	2392	2426	2443	2460	2478	2478	2496	2496	2514	2532	2570	2589	2629	2649	2669	2690	2690	2690	2711	2711	2711	2690	2690	2690	2690	3864	3821	3864	3821	3821	3821	3821	3821	3779	3779	3779	3738	3738	3738	3738	3738	3738	3738	3738	3738	3738	3738	3738	3738	3738	3738	3738	3738	3738	3738	3738	3698	3698	3698	3698	3698	3698	3698	3698	3698	3698	3738	3738	3779	3821	3821	3821	3821	3821	3821	3864	3864	3821	3821	3864	3864	3864	3864	3864	3864	3864	3907	3907	3907	3907	3907	3952	3952	3998	3998	3998	4045	4093	4142	4350	4463	4463	4463	4463	4463	4463	4463	4463	4463	4463	4463	4463	4463	4463	4463	4463	4463	4463	4463	4463	4463	4406	4406	4406	4350	4296	4296	4243	4243	4243	4243	4406	4463	4463	4463	4521	4463	4463	4463	4463	4521	4463	4463	4463	4463	4463	4521	4463	4463	4521	4521	4521	4521	4521	4521	4521	4521	4521	4463	4463	4463	4521	4463	4463	4463	4463	4463	3546	3546	3583	3583	3546	3546	3510	3546	3510	3510	3510	3510	3475	3510	3510	3510	3510	3546	3546	3546	3546	3546	3546	3546	3583	3583	4142	4142	4142	4093	4093	4093	3659	3621	3621	3583	3583	3583	3583	3583	3583	3583	3583	3583	3546	3546	3546	3546	3546	3546	3546	3546	3546	3510	3510	4243	4243	4243	4243	4192	4192	4192	4243	4243	4243	4243	4243	4243	4243	4192	4192	4192	4192	4142	4142	4142	4192	4192	4192	4192	4192	4192	4192	4192	4243	4243	4192	4192	4192	4192	4192	4192	4142	4192	4192	4192	4192	4192	4192	4192	4192	4192	4192	4192	4192	4192	4192	4243	4243	4243	4243	4243	4296	4296	4296	4243	4243	4296	4296	4296	4243	4243	4296	4296	4243	4296	4296	4296	4296	4296	4296	4243	4192	4192	4142	4142	4142	4142	4142	4093	4093	4093	4093	4142	4142	4142	4142	4142	4142	4142	4142	4142	4093	4093	4093	4045	4045	3998	3998	3998	3998	3998	3998	3998	3998	3952	3952	3952	3952	3998	3998	4045	4142	4142	4142	4142	4142	4142	4142	4142	4142	4142	4142	4142	4142	4142	4093	4045	4045	4045	3998	3998	3998	3998	3998	3952	3952	3952	3952	3952	3952	3952	3952	3952	3952	3998	4521	4463	4521	4521	4521	4521	4581	4581	0	0	0	0	0	0	0	0	0	0	0	0	0	0	0	0	0	0	0	0	0	0	0	0	0	0	0	0	0	0	0	0	0	0	0	0	575	575	575	576	575	574	573	573	572	570	570	569	568	568	568	568	567	566	567	567	567	567	567	568	569	569	569	569	0	0	0	0	0	0	0	0	0	0	0	0	1259	1254	1254	1254	1254	1254	1254	1254	1254	1254	1254	1249	1249	1249	1249	1249	1150	1150	1150	1150	1150	1146	1146	1142	1142	1138	1138	1138	1138	1138	1138	1138	1138	1138	1138	1138	1138	1142	1138	1142	1138	1142	1142	1142	1142	1142	1142	1142	1142	1142	1142	1142	1146	1142	1142	1142	1142	1146	1142	1146	1146	1146	1150	1150	1150	1150	1150	1150	1150	1150	1150	1150	0	0	0	0	0	0	0	0	0	0	0	0	0	0	0	0	0	0	0	0	0	0	0	0	0	0	0	0	0	0	0	0	0	0	0	0	0	0	0	0	0
0	0	0	0	0	0	0	0	0	0	0	0	0	0	0	0	0	2312	2297	2297	2297	2281	2281	2266	2281	2266	2266	2266	2266	2266	2266	2266	2281	2281	2281	2281	2297	2281	2297	2281	2281	2281	2266	2266	2266	2266	2281	2281	2266	2297	2297	2297	2297	2297	2297	2297	2281	2312	2297	2312	2297	2312	2312	2327	2327	2343	2359	2359	2376	2392	2392	2443	2443	2443	2478	2496	2496	2514	2514	2532	2551	2589	2649	2649	2669	2690	2711	2690	2711	2711	2711	2711	2690	2690	2690	3698	3738	3821	3821	3821	3821	3821	3821	3779	3779	3779	3738	3738	3738	3738	3779	3738	3738	3738	3738	3738	3738	3738	3738	3738	3738	3738	3738	3738	3738	3738	3698	3698	3698	3698	3698	3698	3698	3698	3698	3698	3738	3738	3779	3779	3821	3821	3821	3864	3864	3864	3864	3821	3821	3821	3864	3864	3864	3864	3864	3864	3907	3907	3907	3907	3952	3998	3998	3998	4045	4045	4045	4093	4093	4406	4463	4463	4463	4463	4463	4463	4463	4521	4521	4521	4521	4521	4521	4463	4521	4463	4463	4463	4463	4463	4463	4406	4406	4406	4406	4296	4296	4192	4142	4142	4142	4093	4463	4463	4463	4463	4463	4463	4463	4463	4463	4463	4463	4463	4463	4463	4463	4463	4463	4521	4521	4521	4521	4521	4521	4521	4521	4521	4521	4521	4521	4521	4521	4463	4463	4463	4463	3546	3546	3546	3546	3546	3546	3510	3510	3510	3510	3510	3510	3475	3510	3510	3510	3510	3510	3546	3546	3546	3546	3546	3546	3546	4142	4142	4093	4142	4093	4093	3621	3621	3621	3583	3583	3583	3583	3583	3583	3583	3583	3546	3546	3546	3546	3546	3546	3546	3546	3546	3546	3546	3546	4296	4243	4243	4243	4243	4192	4192	4192	4192	4192	4243	4243	4243	4243	4243	4192	4192	4192	4192	4192	4142	4142	4192	4192	4142	4192	4192	4192	4192	4192	4243	4192	4192	4192	4192	4192	4192	4142	4142	4192	4192	4192	4192	4192	4192	4192	4192	4192	4192	4192	4192	4192	4192	4243	4243	4243	4243	4243	4296	4296	4296	4296	4243	4296	4296	4296	4296	4296	4296	4296	4243	4243	4243	4296	4296	4296	4296	4243	4243	4192	4192	4142	4142	4142	4142	4093	4093	4093	4093	4142	4142	4142	4142	4142	4142	4142	4142	4142	4093	4093	4093	4045	4045	3998	3998	3998	3998	3998	3998	3998	3998	3952	3952	3952	3952	3998	3998	4093	4142	4142	4142	4142	4142	4142	4142	4142	4142	4142	4142	4142	4142	4142	4093	4045	4045	4045	4045	3998	3998	3998	3998	3998	3952	3952	3952	3952	3952	3952	3952	3952	3952	3952	4521	4521	4521	4521	4521	4581	4581	4581	0	0	0	0	0	0	0	0	0	0	0	0	0	0	0	0	0	0	0	0	0	0	0	0	0	0	0	0	0	0	0	0	0	0	0	0	575	575	576	575	575	574	573	572	571	571	569	568	568	568	568	567	566	565	566	566	567	567	567	568	569	569	569	0	0	0	0	0	0	0	0	0	0	0	0	0	1254	1254	1254	1254	1254	1254	1254	1254	1254	1254	1254	1254	1249	1249	1249	1249	1153	1153	1150	1150	1150	1150	1146	1142	1138	1138	1138	1138	1138	1138	1138	1138	1142	1142	1142	1142	1142	1142	1142	1142	1138	1142	1142	1142	1142	1142	1142	1142	1142	1142	1142	1146	1146	1142	1142	1142	1146	1146	1142	1146	1146	1150	1150	1150	1150	1150	1150	1146	1150	1150	1150	1150	0	0	0	0	0	0	0	0	0	0	0	0	0	0	0	0	0	0	0	0	0	0	0	0	0	0	0	0	0	0	0	0	0	0	0	0	0	0	0	0	0
0	0	0	0	0	0	0	0	0	0	0	0	0	0	0	0	0	2266	2266	2281	2281	2281	2281	2281	2281	2266	2266	2266	2266	2266	2281	2266	2266	2281	2281	2281	2297	2297	2297	2281	2281	2281	2266	2266	2266	2266	2281	2281	2266	2297	2297	2297	2297	2297	2297	2297	2281	2312	2297	2312	2312	2312	2327	2327	2327	2343	2359	2376	2376	2409	2443	2443	2443	2460	2478	2478	2496	2514	2514	2551	2551	2589	2649	2649	2669	2690	2711	2690	2711	2711	2711	2711	2690	2690	2690	3698	3698	3821	3821	3821	3821	3821	3821	3821	3821	3779	3779	3779	3779	3779	3738	3779	3779	3738	3738	3738	3738	3738	3738	3738	3738	3738	3738	3738	3738	3698	3698	3698	3698	3698	3698	3698	3698	3698	3698	3698	3738	3779	3779	3821	3864	3864	3864	3864	3864	3864	3864	3821	3821	3821	3821	3864	3864	3864	3864	3864	3907	3907	3907	3907	3952	3952	3998	3998	3998	4045	4045	4093	4142	4142	4406	4463	4463	4521	4521	4521	4521	4521	4521	4521	4521	4521	4521	4463	4463	4463	4463	4463	4463	4463	4463	4463	4406	4463	4350	4296	4243	4192	4142	4093	4093	4093	4406	4463	4463	4463	4463	4463	4463	4463	4463	4463	4463	4463	4463	4463	4463	4463	4463	4463	4521	4521	4521	4521	4521	4521	4521	4521	4521	4521	4521	4521	4463	4463	4463	4463	4463	4463	3546	3546	3546	3546	3546	3510	3510	3510	3510	3510	3475	3475	3510	3475	3510	3510	3546	3546	3546	3546	3546	3546	3546	3546	4142	4142	4093	4142	4093	4093	3621	3621	3583	3583	3583	3583	3583	3583	3583	3583	3583	3583	3583	3546	3546	3546	3546	3546	3546	3546	3546	3546	3546	4296	4243	4243	4243	4192	4192	4192	4192	4192	4192	4192	4243	4243	4243	4243	4192	4192	4192	4192	4142	4142	4142	4192	4192	4192	4192	4192	4192	4192	4192	4192	4192	4142	4142	4192	4192	4192	4142	4142	4142	4192	4192	4192	4192	4192	4192	4192	4192	4192	4192	4192	4192	4192	4243	4243	4243	4243	4243	4296	4296	4296	4296	4296	4296	4296	4296	4296	4296	4296	4296	4243	4296	4296	4296	4296	4296	4296	4243	4243	4192	4192	4142	4142	4142	4142	4142	4093	4093	4142	4142	4142	4142	4142	4142	4142	4192	4142	4142	4142	4093	4093	4045	4045	3998	3998	3998	3998	3998	3998	3998	3998	3952	3952	3998	3998	3998	4045	4093	4142	4142	4142	4142	4142	4142	4142	4142	4142	4142	4142	4142	4142	4093	4093	4045	4045	4045	4045	3998	3998	3998	3952	3952	3952	3952	3952	3952	3952	3952	3952	3952	3952	4581	4521	4521	4521	4521	4521	4581	4581	4581	0	0	0	0	0	0	0	0	0	0	0	0	0	0	0	0	0	0	0	0	0	0	0	0	0	0	0	0	0	0	0	0	0	0	0	0	575	575	575	575	575	575	572	572	571	569	569	568	568	567	567	567	565	565	566	566	566	567	567	568	568	569	569	0	0	0	0	0	0	0	0	0	0	0	1259	1259	1254	1254	1254	1254	1254	1249	1254	1254	1254	1254	1249	1249	1249	1249	1249	1249	1245	1150	1150	1150	1150	1150	1146	1142	1142	1138	1138	1138	1138	1138	1138	1138	1142	1142	1142	1142	1142	1142	1142	1142	1138	1142	1142	1138	1138	1138	1142	1142	1142	1142	1142	1142	1142	1142	1142	1142	1142	1142	1142	1146	1146	1146	1150	1150	1150	1150	1150	1146	1150	1150	1146	1146	0	0	0	0	0	0	0	0	0	0	0	0	0	0	0	0	0	0	0	0	0	0	0	0	0	0	0	0	0	0	0	0	0	0	0	0	0	0	0	0	0
