0	0	0	0	0	0	0	896	898	898	901	903	910	913	915	915	917	917	922	927	932	932	937	940	940	945	948	948	955	958	955	958	966	969	974	977	980	980	983	988	997	1003	1003	1006	1008	1008	1014	1023	1026	1030	1036	1036	1039	1042	1052	1058	1061	1064	1064	1064	1068	1071	1074	1074	1078	1078	1078	0	0	0	0	0	0	0	0	4706	4706	4643	4706	4706	4706	4706	4706	4771	4771	4771	4771	4706	4706	4706	4706	4706	4706	4706	4706	4771	4771	4771	4771	4771	4706	4706	4706	4706	4706	4706	4706	4706	4706	4706	4706	4706	4706	4706	4706	4706	4706	4706	4706	4706	4706	4706	4706	4706	4706	4706	4706	4706	4706	4706	4706	4706	4643	4643	4643	4643	4643	4643	4643	4643	4643	4643	4706	4771	4838	4906	4977	4977	4977	4977	4977	4977	4977	4977	6018	6018	6018	6124	6124	6124	6124	6124	6124	6124	6124	6124	6124	6124	6124	6124	6124	6235	6235	6235	6124	6235	6235	6124	6124	6124	6235	6235	6235	6235	0	0	0	0	0	5202	5202	5125	5125	5125	5125	5125	0	0	0	0	0	0	0	0	0	0	0	0	0	0	0	0	0	0	0	0	0	0	0	0	0	0	0	0	0	8550	8550	8550	8343	8146	7959	7959	7959	7959	7779	7779	7779	7779	7779	7779	7608	7608	7608	7608	7608	7608	7608	7608	7779	7608	7608	7608	7779	7779	7608	7608	7608	7608	7779	7608	7608	7608	7608	7608	7608	7608	7608	7608	0	0	0	0	3341	3341	3373	3341	3341	3341	3341	3341	3341	3341	3341	3341	3341	3373	3341	3341	3341	3341	3373	3373	4521	4581	4521	4581	4581	4581	4521	4581	4643	4643	3475	3475	3475	3440	3440	3406	3373	3373	3373	3341	3341	3341	3341	3341	3341	3309	3309	3341	3309	3309	3309	4706	4706	4706	4706	4706	4643	4643	4706	4643	4706	4706	4706	4706	4706	4706	4706	4706	4643	4643	4643	4643	4581	4581	4521	4521	4521	4521	4521	4521	4581	4643	4643	4706	4706	4706	4706	4706	4706	4706	4706	4706	4706	4706	4706	4706	4706	4706	4706	4706	4706	4706	4706	4706	4706	4706	4706	4706	4706	4706	4706	4706	4706	4771	4771	4771	4771	4706	4706	4706	4706	4706	4706	4706	4706	4706	4706	4706	4706	4706	4706	4706	4706	4706	4706	4706	4706	4706	4706	4706	4643	4706	4643	4581	4581	4521	4521	4463	4463	4463	4406	4406	4406	4406	4406	4406	4406	4463	4406	4406	4463	4406	4406	4463	4406	4406	4406	4406	4406	4406	4406	4406	4406	4406	4406	4406	4406	4463	4521	4581	4643	4706	4706	4706	4706	4706	4706	4706	4706	4581	4581	4581	4521	4463	4463	4463	4463	4406	4406	4350	4350	4350	4350	4406	4406	4406	4406	4406	4406	4406	4463	4463	4463	4463	4463	4463	4463	4406	4463	4521	4521	4581	4581	4581	4643	4643	4643	4643	4521	4521	4581	4581	0	0	0	0	0	0	0	0	0	0	0	0	0	0	0	0	0	2478	2496	2496	2496	2478	2478	2478	2478	2460	2460	2426	2426	2409	2409	2409	2409	2409	2409	2409	2409	2392	2392	2392	2409	2392	2392	2392	2392	2392	2376	2376	2376	2376	2359	2359	2359	2359	2359	2376	2359	2359	2359	2376	2376	2376	2376	2376	2376	2376	2376	2376	2376	2376	2376	2392	2392	2392	2376	2376	2376	2392	2392	2392	2392	2392	2376	2376	2609	2609	2609	2589	2570	2551	2551	2551	2532	2514	2514	2496	2478	2478	2460	2460	2460	0	0	0	0	0	0	0	0	0	0	0	0	0	0	0	0	0	0	0	0	0	0	0	0	0	0	0	0	0	0	0	0	0	0	0
0	0	0	0	0	0	0	894	894	896	898	903	910	915	917	915	917	917	922	927	932	935	937	940	942	945	948	950	955	958	958	958	966	969	974	977	980	980	983	991	1000	1000	1003	1006	1008	1011	1014	1026	1033	1033	1036	1036	1039	1039	1048	1058	1064	1064	1064	1068	1068	1071	1074	1078	1081	1085	1085	0	0	0	0	0	0	0	0	0	4706	4706	4706	4706	4706	4706	4706	4771	4771	4771	4771	4771	4706	4706	4706	4706	4706	4706	4706	4706	4771	4771	4838	4771	4706	4706	4706	4706	4706	4706	4706	4706	4706	4706	4643	4706	4706	4706	4706	4706	4706	4706	4706	4706	4643	4643	4706	4706	4706	4706	4706	4706	4706	4706	4706	4643	4643	4643	4643	4643	4643	4643	4643	4643	4643	4706	4706	4771	4838	4906	4906	4977	4977	5050	5050	5050	4977	4977	6018	6124	6124	6124	6124	6124	6124	6124	6124	6124	6124	6124	6018	6018	6018	6124	6124	6235	6235	6235	6235	6235	6235	6124	6124	6235	6124	6124	6124	6124	0	0	0	0	0	0	0	0	0	0	0	0	0	0	0	0	0	0	0	0	0	0	0	0	0	0	0	0	0	0	0	0	0	0	0	0	0	0	0	0	0	8146	8146	8146	7959	7959	7959	7959	7779	7779	7779	7779	7779	7779	7779	7779	7608	7608	7608	7608	7608	7608	7779	7608	7608	7608	7608	7608	7779	7779	7779	7608	7608	7608	7608	7608	7444	7608	7608	7608	7779	7779	7608	7608	0	0	0	0	3373	3373	3373	3373	3341	3341	3341	3341	3341	3341	3341	3341	3341	3373	3341	3341	3373	3373	3373	4521	4521	4521	4521	4521	4581	4521	4521	4581	4581	4581	3475	3475	3475	3440	3440	3406	3373	3373	3373	3341	3341	3373	3341	3341	3341	3309	3309	3309	3309	3309	4706	4706	4706	4706	4706	4706	4643	4643	4706	4643	4706	4706	4706	4706	4706	4706	4706	4706	4643	4643	4643	4643	4581	4521	4521	4463	4463	4463	4463	4521	4581	4643	4643	4706	4706	4706	4771	4706	4771	4706	4706	4706	4706	4706	4706	4706	4706	4706	4706	4706	4706	4706	4706	4706	4706	4706	4706	4706	4706	4706	4706	4706	4706	4771	4771	4771	4771	4771	4706	4706	4706	4706	4706	4706	4706	4706	4706	4706	4706	4706	4706	4706	4706	4706	4706	4706	4706	4706	4706	4706	4643	4643	4643	4521	4521	4463	4463	4463	4463	4463	4406	4406	4406	4406	4350	4406	4406	4406	4406	4406	4406	4406	4406	4406	4406	4406	4406	4406	4406	4406	4406	4406	4406	4406	4406	4406	4406	4463	4581	4581	4643	4706	4706	4706	4706	4706	4706	4706	4706	4581	4581	4581	4521	4521	4463	4463	4406	4406	4350	4350	4350	4350	4350	4350	4406	4406	4406	4406	4406	4406	4406	4406	4406	4406	4463	4521	4463	4463	4463	4521	4521	4581	4581	4581	4643	4581	4643	4581	4521	4521	4521	4521	0	0	0	0	0	0	0	0	0	0	0	0	0	0	0	0	0	0	2496	2496	2496	2496	2478	2478	2478	2478	2460	2426	2426	2409	2409	2409	2409	2392	2409	2409	2409	2392	2409	2392	2392	2392	2392	2392	2392	2392	2376	2376	2376	2359	2359	2359	2359	2359	2359	2376	2359	2359	2359	2376	2376	2376	2376	2376	2376	2376	2376	2376	2376	2376	2376	2392	2392	2392	2392	2392	2376	2392	2392	2392	2392	2409	2409	2409	2609	2609	2589	2570	2570	2551	2551	2551	2532	2514	2496	2496	2478	2478	2460	2460	2460	0	0	0	0	0	0	0	0	0	0	0	0	0	0	0	0	0	0	0	0	0	0	0	0	0	0	0	0	0	0	0	0	0	0	0
0	0	0	0	0	0	0	891	894	896	898	908	913	915	917	915	917	917	920	925	930	935	937	940	940	945	948	950	955	958	958	961	963	966	969	977	977	980	983	991	997	1000	1003	1006	1006	1008	1011	1033	1033	1033	1036	1039	1039	1039	1048	1055	1061	1061	1064	1064	1068	1071	1074	1078	1081	1081	1085	0	0	0	0	0	0	0	0	4706	4706	4706	4706	4706	4706	4706	4706	4706	4771	4771	4771	4771	4771	4771	4771	4706	4706	4706	4706	4706	4706	4706	4581	4581	4706	4706	4706	4706	4706	4706	4706	4706	4706	4706	4706	4706	4706	4706	4706	4706	4706	4706	4706	4706	4643	4643	4706	4706	4643	4706	4706	4706	4706	4706	4706	4706	4643	4643	4643	4643	4643	4643	4643	4643	4643	4643	4706	4771	4771	4838	4906	4977	4977	5050	5050	5050	0	0	0	6124	6124	6124	6124	6124	6124	6124	6124	6124	6124	6018	6018	6018	6018	6124	6124	6235	6235	6235	6124	6235	6235	6235	6124	6235	6235	6235	6235	6235	6349	6349	0	0	0	0	0	0	0	0	0	0	0	0	0	0	0	0	0	0	0	0	0	0	0	0	0	0	0	0	0	0	0	0	0	0	0	0	0	0	8146	8146	8146	7959	7959	7959	7779	7779	7779	7608	7779	7779	7779	7779	7779	7779	7608	7608	7608	7608	7608	7779	7779	7608	7608	7608	7608	7608	7608	7608	7779	7608	7608	7608	7608	7608	7444	7444	7608	7608	7779	7779	7779	7959	7959	7959	0	0	3373	3373	3373	3373	3341	3341	3341	3341	3341	3341	3341	3341	3341	3373	3341	3341	3373	3341	3341	4521	4521	4521	4521	4581	4581	4581	4581	4581	4643	4643	4643	4581	3475	3440	3406	3406	3373	3373	3373	3341	3341	3341	3341	3341	3341	3309	3309	3341	3309	3309	4706	4706	4706	4706	4706	4706	4706	4706	4706	4706	4706	4706	4706	4706	4706	4706	4706	4706	4643	4643	4643	4643	4581	4521	4521	4463	4463	4463	4463	4521	4581	4643	4643	4706	4706	4706	4771	4706	4706	4706	4706	4706	4706	4706	4706	4706	4706	4706	4706	4706	4706	4706	4706	4706	4706	4706	4706	4706	4706	4706	4706	4706	4706	4771	4771	4771	4771	4771	4706	4706	4706	4706	4706	4706	4706	4706	4706	4706	4706	4643	4706	4706	4706	4706	4706	4706	4706	4706	4706	4706	4643	4643	4581	4463	4463	4463	4463	4463	4463	4406	4406	4406	4406	4406	4350	4406	4406	4406	4406	4406	4406	4406	4406	4406	4406	4406	4406	4406	4406	4406	4406	4406	4406	4406	4406	4406	4406	4463	4581	4643	4643	4706	4706	4706	4706	4706	4706	4706	4643	4581	4581	4521	4521	4463	4521	4463	4406	4350	4350	4350	4350	4350	4350	4406	4406	4406	4406	4406	4406	4406	4406	4406	4406	4406	4463	4463	4406	4406	4406	4463	4463	4521	4581	4581	4581	4581	4581	4581	4581	4463	4463	4463	4463	0	0	0	0	0	4463	4463	4463	4463	4406	4406	4406	0	0	0	0	0	0	2496	2496	2496	2496	2478	2478	2478	2460	2443	2426	2409	2426	2426	2409	2409	2409	2409	2409	2392	2409	2392	2392	2392	2392	2392	2392	2392	2376	2376	2376	2359	2359	2359	2359	2359	2359	2376	2359	2376	2359	2376	2376	2376	2376	2376	2376	2376	2376	2376	2376	2376	2376	2392	2392	2392	2392	2392	2392	2392	2392	2392	2409	2409	2409	2589	2589	2609	2609	2570	2551	2551	2551	2532	2532	2514	2496	2496	2478	2478	2460	2460	2460	0	0	0	0	0	0	0	0	0	0	0	0	0	0	0	0	0	0	0	0	0	0	0	0	0	0	0	0	0	0	0	0	0	0	0
0	0	0	0	0	0	0	894	894	896	901	908	913	915	917	915	917	917	920	925	932	935	940	940	942	945	948	948	950	955	958	958	961	966	972	977	980	980	983	991	997	1000	1003	1006	1006	1011	1014	1033	1033	1036	1039	1039	1039	1042	1045	1052	1058	1061	1061	1064	1068	1068	1074	1078	1081	1081	0	0	0	0	0	0	0	0	0	4771	4706	4706	4706	4706	4706	4706	4706	4706	4706	4771	4771	4706	4706	4771	4706	4706	4706	4706	4643	4643	4643	4521	4521	4581	4643	4643	4706	4706	4706	4706	4706	4706	4706	4706	4706	4706	4706	4706	4706	4706	4706	4706	4706	4643	4643	4643	4643	4643	4643	4706	4706	4706	4706	4706	4706	4706	4643	4643	4643	4643	4643	4643	4643	4643	4643	4643	4706	4706	4771	4771	4838	4906	4906	4977	4977	5050	0	0	0	6124	6235	6235	6124	6124	6124	6124	6124	6124	6124	6018	6018	6018	6124	6124	6124	6235	6235	6349	6235	6235	6235	6235	6235	6235	6235	6235	6235	6235	6349	6349	6468	6468	0	0	0	0	0	0	0	0	0	0	0	0	0	0	0	0	0	0	0	0	0	0	0	0	0	0	0	0	0	0	0	0	0	7779	7779	7959	8146	7959	7959	7959	7959	7779	7779	7779	7608	7608	7608	7779	7608	7779	7779	7779	7779	7608	7608	7608	7608	7779	7779	7608	7608	7608	7608	7444	7608	7608	7608	7608	7608	7608	7779	7608	7444	7608	7608	7779	7779	7779	7779	7959	7959	7959	0	0	3373	3373	3373	3373	3341	3341	3341	3341	3341	3341	3341	3341	3341	3341	3341	3341	3373	3373	3373	4463	4463	4521	4521	4521	4521	4521	4581	4581	4581	4643	4643	4581	3440	3440	3406	3373	3373	3341	3341	3341	3341	3373	3373	3341	3373	3341	3309	3341	3341	4706	4706	4706	4706	4706	4643	4643	4706	4706	4706	4706	4706	4706	4706	4706	4706	4706	4706	4706	4706	4643	4643	4643	4581	4521	4521	4463	4463	4463	4463	4521	4581	4643	4706	4706	4706	4706	4706	4706	4706	4706	4706	4706	4706	4706	4706	4706	4706	4706	4706	4706	4706	4706	4706	4706	4706	4706	4706	4706	4706	4706	4706	4706	4771	4771	4771	4771	4771	4771	4706	4706	4706	4706	4706	4706	4706	4706	4706	4706	4706	4706	4706	4706	4706	4706	4706	4706	4706	4706	4706	4706	4706	4643	4581	4406	4406	4463	4463	4406	4406	4406	4406	4406	4406	4350	4350	4406	4406	4406	4406	4406	4406	4406	4406	4406	4406	4406	4406	4406	4406	4463	4406	4406	4463	4406	4406	4406	4406	4463	4521	4581	4643	4643	4706	4706	4706	4706	4706	4643	4643	4581	4521	4521	4463	4463	4463	4406	4406	4406	4406	4350	4350	4350	4350	4406	4406	4406	4406	4406	4406	4406	4406	4406	4406	4406	4463	4463	4406	4406	4406	4406	4463	4463	4521	4581	4581	4581	4581	4521	4463	4406	4406	4406	4350	4350	0	0	0	0	4406	4406	4463	4463	4406	4406	4406	4406	0	0	0	0	0	2514	2496	2496	2496	2478	2478	2460	2460	2460	2443	2426	2426	2443	2426	2409	2426	2409	2409	2392	2409	2392	2409	2392	2392	2392	2392	2392	2376	2376	2359	2359	2359	2343	2343	2359	2359	2359	2359	2359	2359	2376	2376	2376	2376	2376	2376	2376	2376	2376	2376	2376	2376	2392	2392	2392	2392	2392	2392	2392	2392	2392	2392	2392	2409	2589	2589	2589	2589	2570	2570	2551	2551	2551	2532	2514	2514	2496	2478	2478	2460	2460	2460	0	0	0	0	0	0	0	0	0	0	0	0	0	0	0	0	0	0	0	0	0	0	0	0	0	0	0	0	0	0	0	0	0	0	0
0	0	0	0	0	0	0	894	896	898	901	905	910	910	915	915	917	920	922	927	937	937	940	940	942	942	945	945	955	955	958	961	961	963	969	974	980	983	985	991	997	1000	1000	1006	1008	1011	1011	1026	1033	1036	1039	1039	1042	1042	1045	1052	1058	1061	1061	1064	1068	1068	1071	1078	1085	1085	0	0	0	0	0	0	0	0	0	4771	4706	4706	4706	4706	4706	4706	4706	4706	4706	4771	4771	4706	4706	4706	4706	4706	4706	4706	4643	4643	4581	4521	4521	4581	4643	4643	4706	4706	4706	4706	4706	4706	4706	4706	4706	4706	4706	4706	4706	4706	4706	4706	4706	4706	4643	4643	4643	4643	4643	4643	4706	4706	4706	4706	4706	4706	4643	4643	4643	4643	4643	4643	4643	4643	4643	4643	4643	4643	4706	4706	4706	4977	4977	4977	4977	5050	0	0	0	0	6235	6235	6124	6124	6124	6124	6124	6124	6124	6018	6018	6018	6018	6124	6124	6235	6235	6349	6235	6235	6235	6235	6124	6124	6124	6235	6235	6235	6349	6349	6468	6468	0	0	0	0	0	0	0	0	0	0	0	0	0	0	0	0	0	0	0	0	0	0	0	0	0	0	0	0	0	0	0	0	7779	7779	7959	7959	7959	7959	7959	7779	7959	7779	7779	7608	7444	7608	7608	7608	7608	7608	7608	7779	7608	7608	7608	7608	7608	7608	7608	7444	7608	7444	7444	7444	7444	7444	7608	7608	7608	7779	7779	7608	7608	7608	7779	7779	7779	7779	7779	7959	7959	7959	0	0	0	3341	3341	3341	3341	3341	3341	3341	3341	3341	3341	3341	3341	3341	3341	3341	3373	3373	3373	4463	4521	4521	4521	4521	4521	4521	4581	4581	4581	4643	4581	4581	3440	3406	3373	3373	3341	3341	3341	3341	3341	3341	3341	3341	3341	3309	3309	3309	3309	4706	4706	4706	4706	4706	4706	4706	4706	4706	4706	4706	4706	4706	4706	4706	4706	4706	4706	4706	4706	4706	4706	4643	4643	4581	4521	4463	4463	4463	4463	4521	4581	4643	4706	4706	4706	4706	4706	4706	4706	4706	4706	4706	4706	4706	4706	4706	4706	4706	4706	4706	4706	4706	4706	4706	4706	4706	4706	4706	4706	4706	4706	4706	4771	4771	4771	4771	4771	4771	4706	4706	4706	4706	4706	4706	4706	4706	4706	4706	4706	4706	4706	4706	4706	4706	4706	4706	4706	4706	4706	4706	4643	4581	4521	4463	4463	4463	4463	4463	4406	4463	4406	4406	4406	4350	4350	4406	4406	4406	4406	4406	4406	4406	4406	4406	4406	4406	4406	4406	4406	4463	4406	4463	4463	4406	4406	4406	4463	4463	4521	4521	4643	4643	4643	4706	4706	4706	4643	4643	4643	4521	4463	4463	4406	4406	4406	4406	4406	4350	4350	4350	4350	4350	4406	4406	4406	4406	4406	4406	4406	4406	4406	4406	4406	4406	4406	4406	4406	4406	4406	4406	4463	4463	4581	4581	4581	4581	4581	4521	4463	4406	4406	4406	4350	4350	0	0	0	0	4406	4406	4406	4463	4406	4406	4406	4406	0	0	0	0	0	2514	2496	2514	2496	2478	2478	2478	2460	2460	2443	2426	2426	2443	2426	2426	2426	2409	2409	2409	2409	2392	2392	2392	2392	2392	2392	2392	2392	2376	2376	2376	2359	2359	2359	2359	2359	2359	2376	2359	2359	2376	2376	2376	2376	2376	2376	2376	2392	2376	2376	2376	2376	2392	2392	2376	2392	2392	2392	2392	2392	2392	2392	2409	2409	2589	2589	2589	2570	2570	2551	2551	2551	2551	2532	2532	2514	2514	2496	2478	2460	2460	2460	0	0	0	0	0	0	0	0	0	0	0	0	0	0	0	0	0	0	0	0	0	0	0	0	0	0	0	0	0	0	0	0	0	0	0
0	0	0	0	0	0	0	894	896	901	903	905	908	910	913	915	917	920	922	925	932	932	932	940	942	945	948	950	953	958	958	961	961	963	969	972	977	980	983	994	1000	1000	1003	1006	1006	1011	1011	1023	1030	1036	1036	1039	1039	1039	1045	1048	1055	1058	1058	1064	1068	1068	1074	1081	1081	1088	1088	0	0	0	0	0	0	0	0	4771	4706	4706	4706	4706	4706	4706	4706	4706	4706	4706	4706	4706	4706	4771	4771	4706	4706	4706	4706	4706	4581	4521	4521	4581	4643	4643	4706	4706	4706	4706	4706	4706	4706	4706	4706	4706	4706	4706	4643	4706	4643	4706	4706	4706	4643	4643	4643	4643	4643	4643	4643	4706	4706	4706	4706	4706	4643	4643	4643	4643	4643	4643	4643	4643	4643	4643	4643	4706	4706	4771	4771	4977	4977	4977	4977	4977	0	0	0	0	6235	6235	6235	6235	6235	6124	6124	6124	6124	6018	6018	6018	6018	6018	6124	6235	6235	6349	6235	6235	6235	6235	6124	6124	6124	6124	6124	6235	6124	6124	6124	6468	0	0	0	0	0	0	0	0	0	0	0	0	0	0	0	0	0	0	0	0	0	0	0	0	0	0	0	0	0	0	0	0	7779	7608	7959	7959	7959	7959	7959	7959	7959	7779	7779	7608	7444	7444	7444	7444	7444	7444	7608	7608	7608	7608	7444	7444	7608	7444	7444	7287	7444	7444	7444	7287	7287	7287	7444	7959	7444	7779	7779	7608	7779	7779	7779	7959	7959	7959	7959	7959	7959	7959	0	0	3373	3341	3341	3341	3341	3341	3341	3341	3341	3341	3341	3341	3341	3341	3341	3341	3373	3373	3373	4463	4463	4521	4521	4581	4521	4521	4521	4521	4581	4581	4581	4521	3406	3406	3406	3373	3373	3373	3341	3373	3373	3341	3341	3341	3341	3309	3309	3309	3309	4706	4706	4706	4643	4706	4706	4706	4706	4706	4706	4706	4706	4706	4706	4706	4706	4706	4706	4706	4706	4706	4706	4706	4643	4643	4521	4463	4463	4406	4463	4581	4581	4643	4643	4706	4706	4706	4706	4643	4706	4706	4706	4706	4706	4706	4706	4706	4706	4706	4706	4706	4706	4706	4706	4706	4706	4706	4706	4706	4706	4706	4706	4706	4771	4771	4771	4771	4771	4771	4706	4706	4706	4706	4706	4706	4706	4706	4706	4706	4706	4706	4706	4706	4706	4706	4706	4706	4706	4706	4706	4643	4643	4581	4521	4463	4463	4463	4463	4463	4406	4406	4406	4406	4406	4350	4350	4406	4406	4406	4406	4406	4406	4406	4406	4406	4406	4406	4406	4406	4406	4463	4406	4463	4463	4406	4406	4406	4463	4463	4463	4581	4643	4643	4643	4643	4706	4706	4643	4581	4581	4406	4406	4350	4350	4350	4350	4350	4350	4350	4350	4350	4350	4350	4406	4406	4406	4406	4406	4406	4406	4406	4406	4406	4406	4406	4406	4406	4406	4406	4406	4406	4406	4463	4521	4521	4521	4521	4521	4521	4406	4406	4406	4406	4350	4406	4406	4406	4406	4406	4406	4406	4406	4463	4406	4406	4406	4350	4350	0	0	0	0	0	2514	2514	2496	2478	2478	2478	2460	2460	2443	2426	2426	2443	2426	2426	2426	2409	2409	2409	2409	2392	2392	2392	2392	2392	2392	2392	2392	2392	2392	2376	2359	2359	2359	2376	2359	2359	2376	2359	2359	2376	2376	2376	2376	2376	2392	2392	2392	2392	2376	2392	2376	2376	2392	2376	2392	2392	2392	2392	2392	2392	2392	2392	2392	2392	2609	2589	2589	2570	2570	2551	2551	2551	2551	2532	2532	2514	2514	2478	2460	2460	2460	0	0	0	0	0	0	0	0	0	0	0	0	0	0	0	0	0	0	0	0	0	0	0	0	0	0	0	0	0	0	0	0	0	0	0
0	0	0	0	0	0	0	894	896	901	903	905	908	910	913	910	915	917	920	922	932	935	940	940	942	942	945	953	953	958	958	961	963	963	969	969	977	980	985	994	1000	1000	1003	1006	1006	1011	1014	1023	1030	1036	1036	1039	1039	1039	1042	1048	1055	1058	1061	1064	1071	1068	1074	1078	1085	1085	1085	0	0	0	0	0	0	0	0	4771	4706	4706	4706	4706	4706	4643	4643	4643	4643	4706	4706	4706	4706	4771	4771	4706	4706	4706	4581	4581	4521	4521	4521	4581	4643	4643	4706	4706	4706	4706	4706	4706	4706	4706	4706	4706	4706	4706	4706	4706	4643	4706	4706	4706	4643	4643	4643	4643	4643	4643	4643	4643	4643	4643	4706	4706	4643	4643	4643	4643	4643	4643	4643	4643	4643	4643	4643	4706	4706	4771	4771	4906	4906	4977	4977	4977	0	0	0	6468	6349	6349	6235	6235	6235	6124	6124	6124	6124	6124	6018	6018	6124	6018	6124	6124	6124	6235	6124	6124	6124	6124	6124	6124	6124	6124	6124	6124	6124	6124	6124	0	0	0	0	0	0	0	0	0	0	0	0	0	0	0	0	0	0	0	0	0	0	0	0	0	0	0	0	0	0	0	0	7608	7779	7608	7959	7959	7959	7959	7959	7959	7959	7959	7779	7608	7444	7444	7444	7444	7444	7444	7608	7608	7608	7608	7608	7444	7444	7608	7444	7287	7444	7444	7287	7287	7287	7287	7444	7444	7444	7608	7779	7608	7779	7779	7779	7959	7959	7959	7779	7959	7959	7959	0	0	3373	3373	3373	3341	3341	3341	3341	3341	3341	3341	3341	3341	3341	3341	3341	3373	3373	3373	3373	4463	4463	4521	4521	4521	4521	4581	4521	4581	4521	4581	4521	4521	3406	3406	3406	3406	3373	3373	3373	3373	3373	3373	3341	3341	3373	3309	3309	3309	0	4706	4706	4706	4706	4706	4706	4706	4706	4706	4706	4706	4706	4706	4706	4706	4706	4706	4706	4706	4706	4706	4706	4706	4643	4581	4521	4463	4463	4406	4406	4581	4643	4643	4643	4706	4643	4643	4643	4643	4643	4643	4706	4706	4706	4706	4706	4706	4706	4706	4706	4706	4706	4706	4706	4706	4706	4706	4706	4706	4706	4771	4706	4706	4771	4771	4771	4771	4771	4771	4706	4706	4706	4706	4706	4706	4706	4706	4706	4706	4706	4643	4643	4643	4706	4706	4706	4706	4706	4706	4706	4643	4643	4581	4521	4463	4463	4463	4463	4463	4406	4406	4406	4406	4406	4350	4350	4350	4406	4406	4406	4406	4406	4406	4406	4406	4406	4406	4406	4406	4406	4406	4406	4463	4406	4406	4406	4406	4406	4463	4463	4521	4581	4643	4643	4643	4643	4643	4521	4521	4463	4406	4350	4350	4350	4350	4350	4350	4350	4350	4350	4350	4350	4350	4406	4406	4406	4406	4406	4406	4406	4406	4406	4406	4406	4406	4406	4406	4406	4406	4406	4406	4406	4463	4521	4521	4521	4463	4463	4463	4463	4406	4406	4406	4406	4406	4406	4406	4406	4406	4406	4406	4406	4406	4406	4406	4406	4350	4350	0	0	0	0	2551	2514	2496	2496	2478	2478	2478	2460	2460	2443	2426	2426	2426	2426	2426	2409	2409	2409	2409	2409	2392	2392	2392	2392	2392	2392	2392	2392	2392	2392	2376	2376	2376	2376	2376	2359	2359	2376	2359	2359	2359	2359	2376	2376	2376	2376	2376	2376	2376	2376	2376	2376	2376	2376	2376	2392	2392	2392	2392	2392	2392	2392	2392	2392	2392	2609	2589	2589	2570	2551	2551	2551	2551	2551	2532	2532	2514	2514	2496	2478	2460	2460	0	0	0	0	0	0	0	0	0	0	0	0	0	0	0	0	0	0	0	0	0	0	0	0	0	0	0	0	0	0	0	0	0	0	0
0	0	0	0	0	0	0	898	898	901	903	905	908	908	913	910	913	915	920	920	932	935	940	940	942	942	945	950	953	958	958	961	963	963	969	969	974	980	983	991	997	1000	1003	1003	1006	1011	1014	1020	1030	1033	1036	1039	1039	1039	1042	1048	1052	1061	1061	1064	1071	1068	1071	1074	1078	1081	1085	1085	0	0	0	0	0	0	0	0	4706	4706	4706	4643	4643	4643	4581	4581	4581	4643	4706	4706	4706	4706	4706	4706	4706	4643	4521	4463	4406	4463	4463	4521	4581	4643	4643	4706	4706	4706	4706	4706	4706	4643	4643	4643	4643	4706	4706	4643	4643	4643	4706	4706	4643	4643	4643	4643	4643	4643	4643	4643	4643	4643	4643	4643	4643	4643	4643	4643	4643	4643	4643	4643	4643	4643	4643	4706	4706	4771	4838	4906	4977	4977	4977	4977	0	0	0	6468	6468	6349	6349	6235	6235	6235	6124	6124	6124	6124	6018	6018	6018	6018	6124	6124	6124	6124	6124	6124	6124	6124	6124	6124	6124	6124	6124	6124	6124	6124	6124	0	0	0	0	0	0	0	0	0	0	0	0	0	0	0	0	0	0	0	0	0	0	0	0	0	0	0	0	0	0	0	7608	7608	7608	7608	7779	7959	7959	7959	7959	7959	7959	7779	7608	7608	7444	7444	7444	7444	7444	7444	7608	7779	7779	7608	7608	7608	7444	7444	7444	7287	7287	7444	7444	7444	7444	7444	7959	7959	7959	7608	7779	7779	7779	7779	7959	7959	7959	7959	7779	7959	7959	7959	0	0	3373	3373	3373	3373	3341	3341	3341	3341	3341	3341	3341	3341	3341	3341	3341	3341	3341	3373	3373	4463	4521	4581	4581	4581	4581	4581	4581	4581	4581	4581	4521	3277	3309	3373	3406	3406	3373	3373	3373	3373	3373	3373	3373	3341	3373	3341	3341	3341	3341	4706	4706	4706	4643	4706	4706	4706	4706	4706	4706	4706	4706	4706	4706	4706	4706	4706	4706	4706	4706	4706	4706	4706	4643	4643	4521	4463	4406	4406	4521	4581	4643	4643	4643	4643	4643	4643	4581	4581	4643	4643	4706	4706	4706	4706	4706	4706	4706	4706	4706	4706	4706	4706	4706	4706	4706	4706	4706	4706	4706	4706	4706	4706	4706	4706	4706	4771	4706	4706	4643	4706	4706	4706	4706	4706	4706	4706	4706	4706	4706	4643	4643	4643	4706	4706	4706	4706	4706	4706	4706	4643	4643	4581	4521	4463	4463	4463	4463	4463	4406	4406	4406	4406	4406	4350	4350	4350	4406	4406	4406	4406	4406	4406	4406	4406	4406	4406	4406	4406	4406	4463	4406	4463	4406	4406	4406	4406	4406	4406	4463	4521	4521	4521	4581	4581	4581	4521	4521	4463	4463	4350	4350	4296	4350	4296	4296	4350	4350	4350	4350	4406	4406	4406	4406	4406	4406	4406	4406	4406	4406	4406	4406	4406	4406	4463	4406	4406	4406	4406	4406	4406	4406	4406	4463	4463	4463	4463	4463	4463	4463	4406	4406	4463	4406	4463	4406	4406	4406	4406	4406	4406	4406	4406	4406	4406	4406	4350	4350	0	0	0	0	2551	2514	2496	2496	2478	2478	2478	2460	2460	2443	2443	2426	2443	2426	2426	2426	2409	2409	2409	2409	2409	2392	2392	2409	2392	2392	2392	2392	2392	2392	2392	2376	2376	2376	2376	2359	2359	2359	2359	2359	2359	2359	2376	2376	2376	2392	2392	2392	2392	2376	2376	2376	2376	2376	2376	2376	2392	2392	2392	2392	2392	2392	2392	2392	2392	2609	2609	2589	2570	2551	2551	2551	2551	2551	2532	2532	2514	2514	2496	2478	2460	2460	0	0	0	0	0	0	0	0	0	0	0	0	0	0	0	0	0	0	0	0	0	0	0	0	0	0	0	0	0	0	0	0	0	0	0
0	0	0	0	0	0	0	898	898	901	903	908	910	910	913	910	910	913	917	920	935	935	940	942	942	945	945	953	953	958	958	961	963	963	969	969	977	977	983	988	994	997	1003	1003	1006	1011	1014	1020	1033	1036	1036	1039	1042	1042	1042	1048	1052	1058	1058	1064	1071	1068	1071	1074	1074	1081	1085	1085	1085	0	0	0	0	0	0	0	4706	4706	4643	4643	4643	4463	4350	4296	4243	4243	4243	4243	4296	4643	4643	4643	4643	4521	4463	4406	4406	4406	4350	4406	4521	4581	4643	4706	4706	4706	4706	4706	4706	4706	4706	4643	4643	4643	4706	4643	4643	4643	4706	4706	4643	4643	4643	4643	4643	4643	4643	4643	4643	4643	4643	4643	4643	4643	4643	4643	4643	4643	4643	4643	4643	4643	4643	4643	4706	4771	4838	4906	4977	4977	5050	5050	0	0	0	0	6468	6349	6235	6235	6235	6235	6235	6124	6124	6124	6124	6124	6124	6124	6124	6124	6124	6124	6124	6124	6124	6124	6124	6124	6018	6124	6124	6124	6235	6235	6349	6349	0	0	0	0	7959	7959	7959	7779	7779	0	0	0	0	0	0	0	0	0	0	0	0	0	0	0	0	7959	7959	7959	0	7608	7608	7608	7608	7608	7779	7959	7959	7959	7959	7959	7959	7959	7779	7608	7444	7444	7608	7608	7444	7444	7608	7779	7608	7608	7608	7608	7444	7608	7444	7287	7444	7287	7287	7444	7444	7444	7959	7959	7959	7779	7779	7779	7779	7959	7959	7959	7959	7959	7779	7779	7959	7959	7959	0	0	3373	3373	3373	3341	3341	3341	3341	3341	3341	3341	3341	3341	3341	3341	3341	3341	3373	3373	4521	4521	4581	4581	4581	4581	4581	4581	4581	4581	4581	4521	4521	3341	3373	3406	3406	3373	3373	3373	3373	3373	3373	3373	3341	3373	3341	3341	3341	3341	4643	4706	4706	4643	4643	4706	4706	4706	4706	4706	4706	4706	4706	4706	4706	4706	4706	4706	4706	4706	4706	4706	4706	4706	4643	4581	4463	4463	4521	4643	4643	4643	4643	4643	4643	4643	4581	4581	4581	4581	4643	4643	4706	4706	4706	4706	4706	4706	4706	4706	4706	4706	4706	4643	4706	4706	4706	4706	4706	4706	4706	4706	4706	4706	4706	4706	4706	4706	4706	4643	4643	4643	4643	4643	4706	4706	4706	4706	4706	4643	4643	4643	4643	4643	4706	4706	4706	4706	4706	4706	4643	4643	4581	4521	4521	4521	4463	4463	4463	4463	4463	4406	4406	4406	4350	4350	4350	4350	4350	4350	4406	4406	4406	4406	4406	4406	4406	4406	4406	4406	4406	4406	4406	4406	4406	4406	4406	4406	4463	4463	4463	4463	4521	4521	4521	4521	4463	4463	4463	4406	4350	4296	4296	4296	4296	4296	4296	4350	4350	4350	4350	4350	4406	4406	4406	4406	4406	4406	4406	4406	4406	4406	4406	4406	4406	4406	4406	4406	4406	4406	4406	4406	4406	4463	4521	4463	4463	4463	4463	4406	4406	4406	4406	4406	4406	4406	4406	4463	4463	4463	4406	4406	4406	4406	4406	4406	0	0	0	0	0	0	0	2496	2496	2496	2478	2478	2478	2478	2460	2443	2443	2443	2443	2443	2426	2426	2426	2409	2409	2409	2409	2409	2409	2409	2392	2392	2392	2392	2392	2392	2392	2376	2376	2376	2376	2359	2359	2359	2359	2376	2376	2376	2376	2392	2376	2392	2392	2392	2392	2376	2376	2376	2376	2376	2376	2376	2392	2392	2392	2409	2409	2409	2409	2409	2409	2609	2589	2589	2570	2570	2551	2551	2551	2551	2532	2532	2514	2514	2496	2496	2478	2478	0	0	0	0	0	0	0	0	0	0	0	0	0	0	0	0	0	0	0	0	0	0	0	0	0	0	0	0	0	0	0	0	0	0	0
0	0	0	0	0	0	0	898	901	901	905	905	908	908	910	910	910	913	915	920	935	937	942	942	942	942	945	953	955	958	958	961	963	963	969	969	977	980	983	988	997	1000	1003	1003	1006	1008	1011	1017	1023	1036	1039	1042	1045	1045	1045	1048	1052	1058	1061	1064	1064	1064	1071	1074	1078	1085	1085	1085	1085	0	0	0	0	0	0	0	0	0	4463	4463	4463	4296	4243	4243	4243	4192	4243	4243	4296	4296	4296	4406	4406	4406	4406	4406	4350	4350	4350	4463	4521	4643	4643	4706	4706	4706	4706	4706	4706	4706	4706	4643	4643	4643	4706	4643	4643	4643	4706	4706	4643	4643	4643	4706	4706	4706	4706	4706	4643	4643	4643	4643	4643	4643	4643	4706	4706	4706	4643	4643	4706	4643	4643	4643	4706	4771	4771	4906	4906	4977	4977	4977	0	0	0	0	6349	6349	6235	6235	6235	6235	6235	6235	6235	6235	6124	6124	6124	6124	6124	6124	6124	6124	6018	6018	6124	6124	6124	6124	6018	6124	6124	6124	6235	6124	6124	6124	0	0	0	7959	7959	7959	7779	7779	7608	7608	0	0	0	0	0	0	0	0	0	0	0	0	0	0	0	7959	7779	7779	7608	7608	7608	7608	7608	7608	7779	7959	7959	7779	7779	7959	7959	7959	7779	7779	7608	7608	7608	7608	7444	7444	7608	7779	7779	7608	7608	7608	7444	7608	7444	7287	7444	7287	7287	7444	7444	7444	7779	7779	7779	7779	7779	7779	7779	7959	7959	7959	7959	7779	7779	7779	7779	7779	7779	0	0	3373	3373	3373	3341	3341	3341	3341	3341	3341	3341	3341	3341	3341	3341	3341	3341	3373	3373	4581	4581	4581	4581	4581	4581	4581	4581	4581	4521	4581	4521	4521	4521	3373	3406	3406	3373	3373	3373	3373	3373	3341	3341	3341	3341	3309	3341	3341	4581	4643	4706	4706	4643	4706	4706	4706	4706	4706	4706	4706	4706	4706	4706	4706	4706	4706	4706	4706	4706	4706	4706	4706	4706	4643	4581	4521	4521	4581	4643	4643	4643	4643	4643	4643	4643	4581	4581	4581	4643	4643	4706	4706	4706	4706	4706	4706	4706	4706	4706	4706	4706	4706	4643	4706	4643	4643	4706	4706	4706	4706	4706	4706	4706	4706	4706	4706	4706	4706	4643	4643	4643	4643	4706	4643	4706	4706	4643	4643	4643	4643	4643	4643	4643	4643	4706	4706	4706	4643	4643	4643	4643	4581	4581	4521	4521	4521	4463	4463	4463	4463	4463	4406	4406	4350	4350	4350	4350	4350	4350	4350	4406	4406	4406	4406	4406	4406	4406	4406	4406	4406	4406	4406	4406	4406	4406	4406	4463	4463	4463	4463	4463	4463	4521	4463	4463	4463	4463	4463	4406	4350	4296	4243	4243	4243	4243	4243	4350	4350	4350	4350	4350	4406	4406	4406	4406	4406	4406	4406	4406	4406	4406	4406	4406	4463	4406	4406	4406	4406	4406	4406	4463	4463	4643	4521	4521	4521	4463	4463	4406	4406	4406	4406	4406	4463	4463	4463	4521	4521	4463	4406	4406	4406	4406	4406	4406	4406	0	0	0	0	0	0	2496	2496	2496	2478	2478	2478	2478	2478	2460	2443	2426	2443	2443	2426	2426	2409	2409	2409	2409	2392	2392	2409	2409	2392	2392	2392	2392	2392	2392	2392	2392	2392	2392	2392	2359	2376	2376	2376	2376	2376	2376	2392	2392	2392	2392	2392	2392	2392	2376	2376	2376	2376	2376	2376	2376	2392	2392	2392	2409	2392	2409	2409	2409	2409	2409	2589	2570	2570	2551	2551	2551	2551	2532	2532	2532	2514	2514	2514	2496	2496	2478	2478	0	0	0	0	0	0	0	0	0	0	0	0	0	0	0	0	0	0	0	0	0	0	0	0	0	0	0	0	0	0	0	0	0	0
0	0	0	0	0	0	0	898	901	903	905	908	910	910	913	910	910	913	915	917	935	937	942	942	945	942	945	953	953	958	958	963	963	963	969	969	974	980	983	994	997	1000	1003	1003	1006	1011	1011	1014	1026	1036	1039	1042	1045	1045	1048	1048	1052	1061	1061	1064	1064	1064	1071	1074	1078	1078	1085	1085	1085	0	0	0	0	0	0	0	0	0	4296	4296	4243	4142	4142	4192	4192	4192	4192	4192	4243	4243	4296	4296	4296	4350	4350	4350	4350	4350	4350	4463	4521	4643	4643	4706	4706	4706	4706	4643	4643	4643	4643	4643	4643	4643	4643	4643	4643	4643	4643	4706	4643	4643	4643	4706	4706	4706	4706	4706	4643	4643	4643	4643	4643	4643	4643	4706	4706	4706	4643	4643	4643	4643	4643	4643	4706	4771	4838	4838	4906	4977	4977	4977	0	0	0	6349	6349	6349	6235	6235	6235	6235	6235	6235	6235	6235	6235	6124	6124	6124	6124	6124	6124	6124	6018	6124	6124	6124	6124	6124	6124	6124	6124	6235	6235	6235	6235	6349	6349	0	0	7959	7959	7959	7959	7779	7608	7779	7608	7608	0	0	0	0	0	0	0	0	0	0	0	0	0	7959	7779	7779	7608	7608	7608	7608	7608	7608	7444	7444	7779	7779	7959	7959	7959	7959	7959	7779	7779	7608	7608	7608	7444	7444	7444	7779	7608	7608	7608	7608	7444	7444	7444	7287	7287	7287	7287	7287	7444	7444	7287	7779	7608	7608	7779	7779	7779	7779	7779	7959	7779	7779	7779	7779	7608	7608	7608	0	0	3341	3341	3341	3373	3341	3341	3341	3341	3341	3341	3341	3341	3341	3341	3341	3373	3373	3373	4581	4581	4581	4581	4581	4581	4581	4581	4521	4581	4581	4521	4581	3373	3373	3406	3406	3373	3373	3373	3373	3373	3373	3341	3341	3341	3309	3309	3309	4643	4706	4706	4706	4643	4706	4706	4706	4706	4706	4706	4706	4706	4706	4706	4706	4706	4706	4706	4706	4706	4706	4706	4706	4706	4643	4581	4521	4521	4581	4643	4643	4643	4643	4643	4643	4643	4581	4581	4581	4643	4643	4706	4706	4706	4706	4706	4706	4706	4706	4706	4706	4706	4706	4643	4706	4706	4706	4706	4706	4706	4706	4706	4706	4706	4706	4706	4706	4706	4706	4643	4643	4643	4643	4706	4643	4706	4706	4643	4643	4643	4643	4643	4643	4643	4643	4706	4706	4706	4643	4643	4643	4643	4643	4581	4581	4581	4521	4463	4463	4463	4463	4463	4406	4406	4350	4350	4350	4350	4350	4350	4350	4350	4406	4406	4406	4406	4350	4350	4350	4350	4350	4350	4406	4406	4406	4463	4406	4406	4463	4463	4463	4463	4463	4463	4463	4463	4463	4463	4406	4406	4296	4296	4243	4243	4243	4243	4243	4296	4350	4350	4350	4350	4350	4406	4406	4406	4406	4406	4406	4406	4406	4406	4350	4406	4406	4406	4406	4406	4406	4463	4463	4463	4521	4521	4581	4521	4521	4521	4521	4463	4463	4406	4406	4406	4463	4463	4463	4521	4521	4463	4463	4406	4406	4406	4406	4406	4406	0	0	0	0	0	0	2496	2496	2496	2496	2478	2478	2478	2478	2460	2443	2443	2443	2443	2426	2409	2409	2409	2409	2409	2409	2392	2409	2392	2392	2392	2376	2376	2392	2392	2392	2392	2392	2392	2392	2392	2392	2409	2376	2376	2376	2392	2392	2392	2392	2392	2392	2392	2392	2376	2376	2376	2376	2376	2376	2376	2392	2392	2392	2409	2409	2409	2409	2409	2409	2409	2570	2570	2551	2551	2551	2551	2551	2532	2532	2532	2514	2514	2496	2496	2478	2478	2478	0	0	0	0	0	0	0	0	0	0	0	0	0	0	0	0	0	0	0	0	0	0	0	0	0	0	0	0	0	0	0	0	0	0
0	0	0	0	0	0	0	898	901	903	905	905	908	910	915	910	913	913	913	915	915	935	942	942	945	942	945	953	955	955	961	963	966	966	969	969	972	980	983	991	997	1000	1003	1003	1011	1014	1017	1020	1020	1026	1036	1039	1045	1048	1048	1052	1052	1061	1061	1064	1064	1064	1074	1074	1078	1078	1074	1068	1068	0	0	0	0	0	0	0	0	0	4243	4192	4192	4142	4142	4142	4192	4142	4192	4192	4192	4192	4243	4243	4243	4296	4296	4296	4350	4350	4350	4463	4521	4581	4643	4643	4643	4706	4643	4643	4643	4643	4643	4643	4643	4643	4643	4643	4643	4643	4643	4706	4643	4643	4643	4706	4706	4706	4643	4643	4643	4643	4643	4643	4643	4643	4643	4706	4706	4706	4643	4643	4643	4706	4706	4706	4706	4771	4771	4838	4838	4906	4906	4906	4977	4977	0	6349	6349	6349	6349	6349	6349	6349	6235	6235	6235	6235	6235	6124	6124	6124	6124	6124	6124	6124	6018	6124	6124	6124	6235	6235	6124	6124	6235	6235	6235	6235	6235	6235	6235	0	7959	7959	7959	7959	7959	7959	7779	7779	7779	7779	0	0	0	0	0	0	0	0	0	0	0	0	0	7959	7779	7608	7444	7444	7444	7608	7608	7608	7444	7779	7779	7779	7779	7959	7959	7959	7959	7779	7779	7779	7608	7608	7444	7444	7608	7779	7608	7608	7608	7608	7608	7444	7444	7287	7287	7287	7287	7287	7287	7287	7287	7608	7608	7608	7779	7779	7779	7779	7959	7959	7779	7779	7779	7608	7444	7444	7444	7287	7287	3341	3341	3373	3373	3341	3341	3341	3341	3341	3341	3341	3341	3341	3341	3341	3373	3373	4581	4581	4521	4521	4521	4521	4521	4581	4521	4521	4521	4521	4521	4521	4463	3406	3373	3373	3373	3373	3373	3341	3373	3341	3341	3341	3341	3309	3309	3309	4706	4706	4706	4706	4643	4643	4706	4706	4706	4706	4706	4706	4706	4706	4706	4643	4643	4643	4706	4706	4706	4706	4706	4706	4643	4643	4581	4521	4521	4581	4643	4643	4643	4643	4643	4643	4643	4581	4581	4581	4643	4643	4706	4706	4706	4706	4706	4706	4706	4706	4706	4706	4706	4706	4706	4706	4643	4643	4706	4706	4706	4706	4706	4706	4706	4706	4706	4706	4706	4706	4643	4643	4643	4643	4706	4643	4706	4643	4643	4643	4643	4643	4643	4643	4643	4706	4706	4706	4706	4643	4643	4643	4643	4643	4643	4581	4581	4521	4463	4463	4463	4463	4463	4406	4406	4350	4350	4350	4350	4350	4406	4406	4406	4406	4406	4406	4350	4350	4296	4350	4350	4350	4350	4406	4406	4406	4406	4406	4406	4463	4406	4463	4463	4463	4463	4463	4463	4463	4463	4463	4406	4350	4296	4296	4296	4296	4296	4243	4350	4350	4350	4350	4350	4406	4406	4406	4406	4406	4406	4406	4406	4406	4350	4350	4406	4406	4406	4406	4463	4463	4463	4521	4521	4581	4581	4581	4581	4581	4581	4521	4521	4463	4406	4406	4406	4463	4463	4463	4521	4521	4521	4463	4406	4406	4406	4406	4406	4406	0	0	0	0	0	0	0	2496	2478	2478	2478	2478	2478	2478	2460	2443	2426	2426	2426	2426	2409	2409	2409	2409	2409	2392	2392	2392	2392	2392	2376	2376	2392	2392	2392	2392	2392	2392	2392	2392	2392	2392	2392	2392	2392	2392	2392	2392	2392	2392	2392	2392	2376	2392	2376	2376	2376	2376	2392	2392	2392	2392	2392	2392	2409	2392	2409	2409	2409	2478	2478	2589	2589	2570	2551	2551	2551	2551	2532	2532	2532	2532	2514	2514	2496	2478	2478	2478	0	0	0	0	0	0	0	0	0	0	0	0	0	0	0	0	0	0	0	0	0	0	0	0	0	0	0	0	0	0	0	0	0	0
0	0	0	0	0	0	0	898	901	901	908	908	910	910	915	913	913	913	915	917	935	937	942	940	942	942	945	953	955	955	963	966	966	966	969	969	977	980	983	988	994	1000	1003	1008	1014	1014	1014	1017	1026	1030	1036	1039	1045	1048	1052	1052	1052	1058	1061	1064	1064	1068	1074	1074	1078	1078	1081	1081	1068	0	0	0	0	0	0	0	0	4192	4192	4192	4142	4142	4142	4142	4142	4142	4192	4142	4192	4192	4243	4243	4243	4243	4296	4296	4296	4350	4350	4406	4521	4581	4643	4643	4643	4643	4643	4643	4643	4643	4643	4643	4643	4643	4643	4643	4643	4643	4643	4706	4643	4643	4643	4706	4706	4706	4643	4643	4643	4643	4643	4643	4643	4643	4643	4706	4643	4643	4643	4643	4643	4643	4706	4706	4706	4771	4771	4838	4838	4906	4906	4977	4977	4977	6235	6235	6349	6349	6235	6235	6235	6235	6235	6235	6235	6349	6349	6235	6235	6235	6235	6124	6124	6124	6018	6018	6124	6124	6235	6235	6124	6235	6235	6235	6349	6235	6235	6468	6468	0	7959	7959	7959	7959	7959	7779	7779	7779	7779	7779	0	0	0	0	0	0	0	0	0	0	0	0	0	7779	7779	7608	7608	7608	7779	7779	7779	7608	7444	7608	7608	7608	7779	7959	7959	7959	7959	7959	7959	7779	7608	7608	7444	7444	7608	7608	7608	7608	7608	7608	7444	7444	7444	7287	7287	7287	7287	7287	7287	7444	7444	7608	7608	7608	7779	7779	7779	7779	7959	7959	7779	7779	7608	7608	7444	7444	7444	7287	7287	0	3373	3373	3373	3341	3341	3341	3341	3341	3341	3341	3341	3341	3341	3341	3341	3341	4581	4581	4581	4581	4581	4581	4581	4581	4521	4521	4521	4521	4521	4521	3373	3406	3373	3373	3373	3373	3373	3341	3373	3341	3341	3341	3341	3309	3309	3309	4706	4706	4706	4706	4706	4706	4706	4706	4706	4706	4706	4706	4706	4706	4643	4643	4643	4643	4643	4643	4706	4706	4643	4643	4643	4643	4581	4521	4581	4643	4643	4643	4643	4643	4643	4643	4643	4643	4643	4581	4643	4643	4706	4706	4706	4706	4706	4706	4706	4706	4706	4706	4706	4706	4706	4706	4706	4706	4706	4706	4706	4706	4706	4706	4706	4706	4706	4706	4706	4706	4643	4643	4643	4643	4643	4643	4643	4643	4643	4643	4643	4643	4643	4643	4706	4706	4706	4706	4706	4643	4706	4643	4643	4643	4643	4581	4581	4521	4463	4463	4463	4463	4463	4406	4406	4350	4350	4350	4350	4350	4350	4406	4406	4406	4406	4406	4350	4350	4296	4350	4350	4350	4350	4406	4406	4406	4406	4406	4406	4406	4406	4463	4463	4463	4463	4463	4463	4463	4463	4406	4406	4406	4350	4296	4296	4296	4296	4296	4350	4350	4350	4350	4350	4406	4406	4406	4406	4406	4406	4406	4350	4350	4350	4296	4296	4296	4296	4296	4406	4521	4521	4581	4581	4581	4581	4581	4581	4581	4581	4581	4521	4463	4406	4463	4406	4463	4463	4463	4463	4463	4463	4406	4406	4406	4350	4406	4463	4406	4406	0	0	0	0	0	0	0	2478	2478	2478	2478	2478	2478	2460	2443	2443	2426	2426	2426	2409	2409	2409	2409	2409	2392	2392	2392	2392	2392	2392	2376	2392	2376	2376	2392	2392	2392	2392	2392	2392	2392	2409	2392	2392	2392	2376	2392	2392	2376	2376	2376	2359	2376	2376	2376	2376	2376	2392	2392	2392	2392	2392	2392	2392	2392	2392	2409	2392	2392	2392	2589	2570	2570	2551	2551	2551	2551	2532	2532	2532	2532	2532	2514	2478	2478	2460	2460	0	0	0	0	0	0	0	0	0	0	0	0	0	0	0	0	0	0	0	0	0	0	0	0	0	0	0	0	0	0	0	0	0	0
0	0	0	0	0	0	0	898	901	901	908	908	913	915	915	913	913	915	915	917	922	937	937	937	942	942	945	950	955	958	961	966	966	969	969	972	977	980	983	988	994	1000	1003	1008	1014	1020	1020	1023	1026	1030	1033	1039	1045	1048	1048	1052	1052	1055	1058	1061	1064	1068	1074	1074	1078	1078	1074	1074	0	0	0	0	0	0	0	0	0	4192	4192	4142	4142	4142	4142	4142	4142	4142	4192	4142	4192	4192	4192	4192	4192	4243	4243	4296	4296	4296	4350	4406	4463	4521	4581	4643	4643	4643	4643	4643	4643	4643	4643	4643	4643	4643	4643	4643	4643	4643	4643	4643	4643	4643	4643	4643	4706	4706	4643	4643	4643	4643	4643	4643	4643	4643	4643	4643	4643	4643	4643	4643	4643	4643	4706	4706	4706	4771	4771	4838	4838	4906	4906	4977	4977	4977	6124	6018	6124	6124	6235	6235	6235	6349	6235	6235	6349	6349	6349	6235	6235	6235	6235	6124	6124	6124	6018	6124	6235	6124	6235	6235	6235	6235	6235	6235	6349	6235	6468	6468	6468	7779	7779	7959	7959	7959	7959	7779	7779	7779	7608	7608	0	0	0	0	0	0	0	0	0	0	0	0	0	7959	7779	7608	7608	7608	7779	7779	7608	7608	7608	7608	7608	7608	7608	7608	7959	7959	7959	7959	7959	7779	7608	7444	7608	7444	7608	7608	7608	7608	7608	7608	7608	7608	7608	7287	7287	7444	7287	7444	7287	7444	7444	7444	7608	7608	7779	7779	7779	7779	7779	7779	7779	7779	7608	7608	7444	7444	7444	7444	7444	0	3373	3373	3373	3341	3341	3341	3341	3341	3341	3341	3341	3341	3341	3341	3341	4581	4581	4581	4581	4521	4521	4521	4521	4521	4521	4521	4521	4521	4521	4521	3373	3373	3373	3373	3373	3373	3373	3341	3341	3341	3341	3341	3341	3309	3309	3309	4706	4706	4706	4706	4706	4706	4706	4706	4706	4706	4706	4706	4643	4643	4643	4643	4643	4643	4643	4643	4706	4706	4706	4643	4643	4643	4643	4521	4581	4643	4643	4643	4643	4643	4643	4643	4643	4643	4643	4643	4643	4643	4706	4706	4706	4706	4706	4706	4706	4706	4706	4706	4706	4706	4706	4706	4706	4706	4706	4706	4706	4706	4706	4706	4706	4771	4706	4706	4771	4706	4643	4643	4643	4643	4706	4643	4643	4643	4643	4643	4643	4643	4581	4643	4643	4706	4643	4706	4643	4643	4706	4706	4643	4643	4643	4581	4521	4463	4463	4463	4463	4463	4406	4406	4406	4406	4406	4406	4406	4406	4406	4406	4406	4406	4406	4350	4350	4350	4296	4296	4350	4350	4350	4406	4406	4406	4406	4406	4406	4463	4463	4463	4463	4463	4463	4463	4463	4463	4463	4406	4406	4406	4296	4296	4296	4296	4296	4296	4350	4350	4350	4350	4350	4350	4406	4406	4406	4406	4406	4406	4350	4350	4350	4350	4350	4350	4406	4406	4463	4463	4521	4581	4581	4581	4581	4643	4581	4581	4581	4521	4521	4463	4406	4406	4406	4463	4463	4463	4463	4406	4463	4406	4406	4406	4350	4350	4463	4463	4463	0	0	0	0	0	0	0	2478	2496	2478	2478	2478	2478	2460	2443	2443	2426	2426	2426	2409	2426	2426	2426	2409	2409	2409	2409	2392	2392	2392	2392	2392	2392	2392	2409	2409	2392	2409	2409	2392	2409	2409	2392	2392	2392	2392	2392	2392	2392	2376	2376	2376	2376	2376	2376	2376	2376	2392	2392	2392	2392	2392	2392	2392	2409	2409	2409	2392	2392	2392	2589	2570	2570	2551	2551	2551	2551	2532	2532	2532	2514	2514	2496	2478	2478	2460	2460	0	0	0	0	0	0	0	0	0	0	0	0	0	0	0	0	0	0	0	0	0	0	0	0	0	0	0	0	0	0	0	0	0	0
0	0	0	0	0	0	0	894	898	901	908	908	913	915	915	913	915	915	917	917	925	935	937	937	942	942	945	953	955	955	961	961	966	969	972	974	977	977	980	991	994	1000	1003	1008	1014	1020	1020	1023	1026	1030	1033	1039	1045	1048	1052	1052	1052	1052	1061	1064	1064	1064	1074	1074	1078	1078	1078	1078	0	0	0	0	0	0	0	0	0	4192	4192	4192	4192	4192	4192	4142	4142	4142	4192	4192	4142	4142	4192	4192	4192	4243	4243	4296	4296	4350	4350	4350	4463	4521	4643	4643	4643	4643	4643	4643	4643	4643	4643	4643	4643	4643	4643	4643	4643	4643	4643	4643	4643	4643	4643	4643	4706	4643	4643	4643	4643	4643	4643	4643	4581	4643	4643	4643	4643	4643	4643	4643	4643	4643	4643	4706	4706	4706	4771	4838	4838	4906	4906	4906	4906	6018	6018	6018	6018	6124	6124	6124	6235	6235	6235	6235	6349	6349	6349	6235	6235	6235	6235	6124	6124	6235	6124	6018	6124	6124	6235	6235	6124	6235	6235	6235	6349	6235	6235	6468	6468	7779	7779	7959	7779	7779	7779	7779	7608	7779	7608	7608	0	0	0	0	0	0	0	0	0	0	0	0	0	7959	7959	7444	7444	7608	7608	7608	7608	7608	7444	7444	7444	7444	7608	7608	7608	7959	7959	7959	7959	7779	7608	7608	7608	7608	7608	7444	7608	7608	7608	7608	7608	7608	7608	7444	7444	7444	7444	7444	7444	7444	7608	7608	7608	7608	7779	7779	7779	7779	7779	7779	7779	7779	7608	7608	7444	7444	7444	7287	7287	0	3373	3341	3341	3341	3341	3341	3341	3341	3341	3341	3341	3341	3341	3341	3341	4581	4581	4581	4521	4521	4521	4521	4521	4521	4521	4521	4521	4521	4521	4521	4463	3341	3341	3341	3341	3341	3341	3341	3341	3341	3341	3341	3341	3309	3309	3309	4771	4771	4706	4706	4706	4706	4706	4706	4706	4706	4706	4643	4643	4643	4643	4643	4643	4643	4643	4643	4706	4706	4643	4643	4643	4643	4581	4521	4581	4581	4581	4643	4643	4643	4706	4706	4643	4643	4643	4643	4643	4643	4706	4706	4706	4706	4706	4706	4706	4706	4771	4771	4706	4706	4706	4706	4706	4706	4706	4706	4706	4706	4706	4706	4706	4771	4771	4706	4771	4771	4706	4643	4643	4643	4706	4643	4643	4643	4643	4643	4643	4643	4643	4643	4643	4643	4643	4643	4643	4643	4643	4643	4643	4643	4643	4643	4463	4463	4406	4406	4406	4406	4406	4406	4406	4406	4406	4406	4406	4406	4406	4406	4406	4406	4406	4406	4350	4350	4296	4350	4350	4350	4350	4406	4406	4406	4406	4406	4406	4463	4406	4463	4463	4463	4463	4463	4463	4463	4406	4406	4406	4296	4296	4296	4350	4296	4296	4350	4350	4350	4350	4350	4350	4350	4350	4350	4406	4406	4406	4350	4350	4350	4350	4350	4350	4406	4406	4463	4463	4463	4521	4521	4521	4581	4581	4643	4643	4643	4643	4581	4521	4463	4406	4406	4406	4406	4406	4406	4406	4406	4406	4406	4406	4406	4350	4350	4463	4463	4463	0	0	0	0	0	0	0	2478	2496	2496	2496	2496	2478	2460	2460	2460	2443	2443	2426	2426	2426	2426	2409	2409	2409	2392	2409	2392	2392	2392	2392	2392	2392	2392	2409	2409	2409	2409	2409	2409	2409	2409	2392	2392	2392	2392	2392	2392	2392	2392	2376	2376	2392	2376	2376	2376	2376	2376	2392	2376	2392	2392	2392	2392	2392	2392	2392	2392	2392	2570	2570	2551	2551	2551	2551	2551	2551	2532	2532	2514	2514	2496	2478	2478	2478	2460	2460	0	0	0	0	0	0	0	0	0	0	0	0	0	0	0	0	0	0	0	0	0	0	0	0	0	0	0	0	0	0	0	0	0	0
0	0	0	0	0	0	0	894	898	903	908	908	910	913	915	913	915	917	917	920	925	927	935	937	945	945	948	953	955	955	958	961	961	966	966	977	980	983	988	991	994	1000	1003	1006	1011	1017	1020	1023	1023	1026	1030	1036	1045	1048	1052	1052	1052	1055	1055	1064	1064	1064	1071	1074	1078	1078	1078	1078	0	0	0	0	0	0	0	0	4142	4192	4192	4192	4142	4142	4142	4142	4142	4142	4192	4192	4192	4192	4192	4192	4192	4243	4243	4243	4296	4350	4406	4463	4521	4521	4643	4643	4643	4643	4643	4643	4643	4643	4643	4643	4643	4643	4643	4643	4643	4643	4643	4643	4643	4643	4643	4643	4643	4643	4643	4643	4643	4643	4643	4643	4643	4643	4643	4643	4643	4643	4643	4643	4643	4643	4643	4643	4706	4706	4706	4706	4906	4906	4906	4906	4906	6018	6018	6018	6018	6124	6124	6124	6235	6235	6235	6235	6235	6349	6349	6235	6235	6235	6235	6124	6124	6124	6018	6018	6124	6124	6235	6124	6124	6235	6235	6235	6349	6235	6235	6235	7444	7444	7779	7779	7779	7779	7779	7779	7779	7779	7608	7608	0	0	0	0	0	0	0	0	0	0	0	0	0	7959	7608	7444	7608	7608	7608	7608	7779	7608	7444	7444	7444	7444	7608	7444	7444	7608	7959	7959	7959	7779	7608	7608	7608	7444	7608	7444	7444	7608	7608	7608	7608	7608	7608	7608	7444	7444	7444	7444	7444	7444	7608	7608	7608	7779	7779	7779	7779	7779	7779	7779	7779	7779	7608	7608	7444	7287	7287	7287	7287	0	0	3341	3373	3341	3341	3341	3341	3341	3341	3341	3341	3341	3341	3341	3341	4521	4581	4521	4521	4521	4521	4521	4521	4521	4521	4521	4521	4521	4521	4521	4463	3341	3341	3341	3341	3341	3341	3341	3341	3341	3341	3341	3309	3277	3277	3277	4771	4771	4771	4706	4706	4706	4706	4706	4706	4706	4706	4643	4643	4643	4643	4643	4643	4643	4643	4643	4706	4706	4643	4643	4581	4581	4581	4521	4581	4581	4643	4643	4643	4643	4706	4706	4706	4706	4706	4643	4706	4706	4706	4706	4706	4706	4706	4706	4706	4706	4771	4771	4771	4706	4706	4706	4706	4706	4706	4706	4706	4706	4706	4706	4706	4771	4771	4706	4771	4771	4706	4706	4706	4643	4706	4643	4643	4643	4643	4643	4643	4643	4643	4643	4643	4643	4643	4643	4643	4643	4643	4643	4643	4643	4643	4643	4406	4406	4406	4406	4406	4406	4406	4406	4406	4406	4406	4406	4406	4406	4406	4406	4406	4406	4350	4350	4350	4350	4296	4350	4350	4350	4350	4406	4406	4406	4406	4406	4406	4406	4406	4406	4463	4463	4463	4463	4463	4406	4406	4406	4406	4296	4296	4296	4350	4350	4350	4350	4350	4350	4350	4350	4350	4350	4350	4406	4406	4406	4350	4350	4350	4350	4350	4350	4350	4350	4406	4463	4406	4463	4521	4521	4581	4581	4581	4643	4643	4581	4581	4581	4521	4406	4406	4406	4406	4406	4463	4406	4406	4406	4406	4406	4406	4350	4350	4406	4463	4463	4406	4406	0	0	0	0	0	0	2496	2496	2496	2496	2496	2478	2460	2460	2460	2460	2443	2443	2426	2426	2426	2409	2409	2409	2392	2392	2392	2392	2392	2392	2392	2392	2392	2409	2409	2409	2409	2409	2409	2409	2392	2392	2392	2392	2392	2392	2392	2392	2376	2376	2376	2376	2376	2376	2376	2359	2376	2376	2376	2376	2392	2392	2392	2392	2392	2392	2392	2392	2570	2570	2551	2551	2551	2551	2551	2551	2532	2532	2514	2514	2496	2478	2460	2460	2460	2460	0	0	0	0	0	0	0	0	0	0	0	0	0	0	0	0	0	0	0	0	0	0	0	0	0	0	0	0	0	0	0	0	0	0
0	0	0	0	0	0	0	891	894	903	908	908	910	913	915	913	915	917	920	922	927	925	932	935	942	942	948	948	955	955	958	958	961	969	972	974	980	983	988	991	994	1000	1003	1003	1011	1014	1020	1023	1026	1030	1030	1036	1039	1045	1048	1052	1052	1052	1061	1064	1064	1068	1074	1078	1078	1078	1078	1078	0	0	0	0	0	0	0	4142	4142	4142	4142	4142	4142	4142	4192	4142	4142	4142	4192	4192	4192	4192	4142	4142	4192	4192	4243	4243	4296	4350	4406	4463	4521	4581	4643	4643	4643	4643	4643	4643	4643	4643	4643	4643	4643	4643	4643	4643	4643	4643	4643	4643	4643	4643	4643	4643	4643	4643	4643	4643	4643	4643	4643	4643	4643	4643	4643	4706	4706	4706	4643	4643	4643	4643	4643	4643	4643	4706	4706	4906	4906	4977	4977	4977	4977	6018	6018	6018	6018	6124	6124	6124	6235	6235	6235	6235	6349	6349	6349	6349	6235	6235	6235	6235	6124	6124	6018	6124	6124	6124	6235	6235	6235	6235	6235	6349	6349	6349	6349	6349	7608	7608	7779	7959	7959	7959	7959	7959	7779	7779	7608	7608	0	0	0	0	0	0	0	0	0	0	0	0	0	0	7444	7608	7608	7608	7608	7608	7608	7444	7444	7444	7444	7608	7608	7608	7444	7608	7779	7779	7959	7779	7608	7608	7608	7608	7608	7444	7444	7608	7608	7608	7608	7608	7608	7608	7444	7444	7444	7444	7444	7444	7608	7608	7608	7779	7779	7779	7779	7779	7779	7779	7779	7779	7608	7608	7608	7444	7444	7287	7287	0	0	3341	3341	3341	3341	3341	3341	3341	3341	3341	3341	3341	3341	3341	3341	4521	4521	4521	4521	4521	4521	4521	4521	4521	4521	4463	4463	4521	4463	4463	4406	3341	3341	3341	3341	3341	3341	3341	3341	3341	3341	3341	3341	3277	3277	3277	4771	4771	4706	4706	4706	4706	4706	4643	4643	4643	4643	4643	4643	4643	4643	4643	4643	4643	4643	4643	4706	4706	4643	4643	4581	4581	4581	4521	4521	4581	4581	4581	4643	4643	4706	4706	4706	4706	4706	4706	4706	4706	4706	4706	4643	4706	4643	4706	4706	4706	4706	4771	4771	4771	4706	4706	4706	4706	4706	4706	4706	4706	4706	4706	4706	4771	4771	4771	4771	4771	4706	4643	4643	4643	4643	4643	4643	4643	4643	4643	4643	4643	4643	4643	4643	4706	4643	4643	4643	4643	4643	4643	4643	4643	4643	4643	4643	4406	4406	4406	4406	4406	4406	4406	4406	4406	4406	4406	4406	4406	4406	4406	4406	4406	4406	4350	4350	4350	4350	4350	4350	4350	4406	4406	4406	4406	4406	4406	4406	4406	4406	4406	4406	4406	4463	4463	4406	4406	4406	4406	4406	4406	4296	4350	4350	4350	4350	4350	4350	4350	4350	4350	4296	4350	4350	4350	4350	4350	4350	4350	4350	4350	4350	4350	4350	4350	4350	4406	4406	4406	4406	4521	4521	4581	4581	4643	4581	4581	4581	4581	4581	4463	4406	4406	4406	4406	4406	4406	4406	4406	4406	4406	4406	4406	4350	4406	4463	4463	4406	4406	0	0	0	0	0	0	2496	2514	2496	2496	2496	2478	2460	2460	2460	2460	2460	2443	2426	2426	2426	2409	2409	2409	2409	2409	2409	2409	2409	2409	2392	2392	2409	2409	2409	2409	2409	2409	2392	2392	2392	2392	2392	2392	2392	2392	2392	2392	2376	2376	2376	2376	2376	2359	2359	2359	2376	2376	2376	2376	2392	2392	2392	2392	2409	2409	2392	0	2570	2570	2570	2551	2551	2551	2551	2551	2532	2514	2514	2496	2478	2478	2460	2460	2460	2460	0	0	0	0	0	0	0	0	0	0	0	0	0	0	0	0	0	0	0	0	0	0	0	0	0	0	0	0	0	0	0	0	0	0
0	0	0	0	0	0	0	891	894	898	903	905	910	915	915	915	917	920	922	925	927	930	930	935	935	942	948	950	958	958	961	961	963	969	974	977	980	983	991	991	994	1000	1003	1003	1008	1014	1020	1023	1026	1030	1033	1036	1039	1042	1048	1052	1055	1055	1058	1064	1064	1068	1074	1078	1078	1078	1078	1078	0	0	0	0	0	0	0	4142	4142	4142	4142	4142	4142	4142	4192	4142	4142	4142	4192	4192	4192	4192	4142	4192	4243	4243	4243	4296	4296	4406	4463	4521	4643	4581	4643	4643	4643	4643	4643	4643	4643	4643	4643	4643	4643	4643	4643	4643	4643	4643	4643	4643	4643	4643	4643	4643	4643	4643	4643	4643	4643	4643	4643	4643	4643	4643	4643	4643	4643	4643	4643	4643	4706	4643	4643	4643	4643	4706	4771	4977	4977	4977	4977	4977	4977	5915	6018	6018	6018	6124	6124	6124	6235	6235	6235	6235	6235	6349	6235	6235	6235	6235	6235	6235	6018	6018	5915	5915	6124	6018	6124	6124	6124	6124	6235	6349	6468	6349	6349	7287	7287	7444	7444	7779	7779	7779	7959	7779	7779	7779	7779	7779	0	0	0	0	0	0	0	0	0	0	0	0	0	0	7444	7608	7779	7779	7608	7608	7444	7444	7444	7444	7444	7444	7608	7444	7444	7608	7444	7444	7959	7779	7779	7779	7608	7608	7608	7608	7444	7608	7608	7608	7608	7608	7608	7444	7444	7608	7608	7608	7444	7444	7608	7608	7779	7779	7779	7779	7779	7779	7779	7779	7779	7779	7608	7608	7444	7287	7287	7287	7287	0	0	3341	3341	3341	3341	3341	3341	3341	3341	3341	3341	3341	3309	3309	3309	4521	4521	4521	4521	4521	4521	4521	4521	4521	4521	4521	4521	4521	4463	4463	4406	4406	3341	3341	3341	3341	3341	3341	3341	3341	3341	3341	3309	3277	3277	3277	4706	4771	4706	4706	4643	4643	4643	4643	4643	4643	4643	4643	4643	4643	4643	4643	4643	4643	4643	4643	4706	4706	4643	4581	4581	4581	4581	4521	4521	4521	4581	4643	4643	4706	4706	4706	4706	4706	4706	4706	4706	4706	4706	4643	4643	4706	4643	4706	4706	4706	4706	4771	4771	4706	4706	4706	4706	4706	4706	4706	4706	4706	4706	4706	4706	4771	4771	4706	4771	4771	4643	4643	4643	4643	4643	4643	4643	4643	4643	4643	4643	4706	4706	4706	4706	4706	4706	4706	4643	4643	4643	4643	4643	4643	4643	4643	4581	4406	4406	4406	4406	4406	4406	4406	4406	4406	4406	4406	4406	4406	4406	4406	4406	4406	4406	4350	4350	4350	4350	4350	4350	4350	4406	4406	4406	4406	4406	4406	4406	4406	4406	4406	4406	4406	4463	4463	4463	4463	4406	4406	4406	4406	4296	4350	4350	4350	4350	4350	4350	4350	4350	4350	4296	4350	4350	4350	4350	4350	4350	4350	4350	4350	4350	4350	4350	4350	4350	4406	4406	4406	4406	4521	4521	4581	4581	4581	4581	4581	4581	4581	4581	4463	4406	4406	4406	4406	4406	4406	4406	4406	4406	4406	4406	4406	4406	4406	4463	4463	4463	4463	0	0	0	0	0	0	2514	2514	2496	2496	2496	2478	2460	2460	2460	2460	2460	2443	2443	2443	2426	2426	2409	2409	2409	2409	2409	2426	2426	2426	2409	2409	2409	2409	2409	2409	2409	2409	2392	2392	2392	2392	2392	2392	2392	2392	2392	2376	2376	2359	2359	2376	2359	2359	2359	2359	2359	2359	2359	2376	2392	2392	2392	2409	2409	2409	0	0	0	0	2589	2551	2551	2551	2551	2532	2532	2514	2496	2496	2478	2478	2478	2460	2460	2460	0	0	0	0	0	0	0	0	0	0	0	0	0	0	0	0	0	0	0	0	0	0	0	0	0	0	0	0	0	0	0	0	0	0
0	0	0	0	0	0	0	896	896	898	903	905	910	915	915	915	917	920	922	925	927	927	932	935	942	945	948	950	953	955	958	958	961	966	974	977	980	983	991	991	997	1000	1003	1003	1008	1011	1017	1023	1026	1026	1033	1036	1039	1045	1048	1052	1055	1055	1055	1061	1064	1068	1074	1078	1078	1078	1078	1078	0	0	0	0	0	0	0	0	4192	4192	4142	4142	4142	4142	4142	4142	4142	4192	4192	4192	4192	4192	4192	4192	4243	4243	4243	4296	4296	4406	4521	4581	4643	4581	4643	4643	4643	4643	4643	4643	4643	4643	4643	4643	4643	4643	4643	4643	4643	4643	4643	4643	4643	4643	4643	4643	4643	4643	4643	4643	4643	4643	4581	4643	4581	4581	4643	4706	4706	4706	4706	4706	4706	4643	4643	4643	4643	4706	4706	4977	4977	5125	5125	5125	5915	5915	5915	6018	6018	6018	6124	6124	6235	6235	6235	6235	6235	6349	6235	6235	6235	6235	6235	6124	6124	6124	6124	6018	6018	6018	6018	6124	6124	6124	6124	6349	6349	6468	6468	6992	7137	7287	7444	7444	7608	7608	7608	7779	7608	7608	7608	7608	0	0	0	0	0	0	0	0	0	0	0	0	7444	7444	7444	7444	7608	7608	7608	7608	7444	7444	7444	7608	7444	7608	7608	7608	7444	7608	7444	7444	7608	7608	7608	7608	7779	7779	7608	7608	7608	7608	7608	7444	7608	7608	7608	7444	7608	7608	7608	7608	7444	7444	7444	7608	7779	7779	7779	7779	7779	7779	7779	7779	7779	7779	7779	7608	7608	7444	7444	7287	7287	0	0	3341	3341	3341	3341	3341	3341	3341	3341	3341	3341	3341	3309	3309	3309	4521	4521	4521	4521	4521	4521	4581	4521	4521	4521	4521	4521	4521	4521	4463	4463	4521	3341	3341	3341	3341	3341	3341	3341	3341	3341	3341	3309	3277	3277	3277	4706	4706	4706	4643	4643	4643	4643	4581	4581	4581	4581	4643	4643	4643	4643	4643	4643	4643	4643	4706	4706	4706	4643	4643	4581	4581	4521	4521	4521	4581	4581	4643	4643	4706	4706	4706	4706	4706	4706	4706	4643	4706	4643	4643	4643	4643	4643	4643	4706	4706	4706	4771	4706	4706	4706	4706	4706	4706	4706	4706	4706	4706	4706	4706	4706	4771	4771	4706	4771	4771	4643	4643	4643	4643	4643	4643	4643	4643	4643	4643	4643	4643	4643	4643	4643	4643	4643	4643	4581	4643	4643	4643	4643	4643	4643	4643	4581	4463	4406	4406	4406	4406	4406	4406	4406	4406	4406	4406	4406	4406	4406	4406	4406	4406	4406	4350	4406	4350	4406	4406	4406	4406	4406	4406	4406	4406	4406	4406	4406	4406	4406	4406	4406	4406	4406	4406	4463	4406	4406	4406	4406	4406	4296	4350	4350	4350	4350	4350	4350	4350	4350	4350	4296	4350	4350	4350	4350	4350	4350	4350	4350	4350	4350	4350	4350	4350	4350	4406	4406	4406	4406	4463	4521	4581	4581	4581	4581	4581	4643	4581	4521	4463	4463	4406	4406	4406	4406	4406	4406	4406	4406	4406	4406	4350	4350	4406	4406	4406	4406	4406	0	0	0	0	0	2532	2532	2514	2496	2496	2496	2478	2460	2460	2460	2460	2460	2443	2443	2443	2426	2426	2409	2409	2409	2409	2409	2426	2426	2426	2426	2409	2409	2409	2409	2409	2409	2392	2392	2392	2392	2392	2392	2392	2376	2376	2376	2359	2359	2359	2359	2359	2359	2359	2359	2359	2376	2359	2376	2359	2376	2392	2392	2409	2409	0	0	0	0	0	2589	2551	2551	2551	2551	2532	2532	2514	2496	2496	2478	2478	2460	2460	2460	2460	0	0	0	0	0	0	0	0	0	0	0	0	0	0	0	0	0	0	0	0	0	0	0	0	0	0	0	0	0	0	0	0	0	0
0	0	0	0	0	0	0	896	896	901	903	905	913	917	917	915	917	920	922	925	927	927	930	935	942	945	948	950	950	950	958	958	961	969	974	980	983	988	991	991	997	1000	1003	1003	1008	1011	1017	1023	1026	1030	1033	1036	1039	1045	1048	1048	1052	1055	1055	1061	1068	1068	1068	1078	1078	1078	1078	1078	0	0	0	0	0	0	0	4192	4192	4192	4142	4142	4142	4142	4142	4142	4142	4192	4192	4192	4192	4192	4192	4192	4243	4243	4243	4243	4296	4350	4463	4643	4706	4643	4643	4643	4643	4643	4643	4643	4643	4643	4643	4643	4643	4643	4643	4643	4643	4643	4643	4643	4643	4643	4643	4643	4643	4643	4643	4643	4643	4643	4643	4643	4643	4643	4643	4643	4706	4706	4706	4706	4706	4643	4643	4643	4643	4643	4706	4977	5125	5125	5125	5125	5915	5915	5915	6018	6018	6124	6124	6235	6235	6349	6349	6349	6349	6349	6349	6235	6235	6235	6235	6124	6124	6124	6018	6018	6018	6018	6018	6018	6018	6018	6124	6235	6468	6468	6992	7287	7287	7287	7444	7444	7444	7444	7608	7608	7608	7444	7444	7444	0	0	0	0	0	0	0	0	0	0	0	7444	7444	7444	7444	7444	7444	7608	7608	7444	7444	7444	7444	7444	7444	7608	7608	7444	7608	7444	7444	7444	7444	7444	7444	7444	7779	7779	7608	7608	7608	7608	7608	7608	7608	7608	7779	7608	7608	7608	7608	7608	7608	7444	7444	7608	7608	7779	7779	7779	7779	7779	7779	7779	7608	7779	7608	7608	7444	7287	7287	7287	7287	0	0	3341	3341	3341	3341	3341	3341	3341	3341	3341	3341	3341	3309	3309	4463	4521	4521	4521	4521	4521	4521	4521	4521	4521	4521	4521	4521	4521	4521	4521	4521	4521	4521	3373	3341	3341	3341	3341	3341	3341	3341	3341	3309	3277	3277	4706	4706	4706	4706	4706	4643	4643	4643	4581	4581	4581	4643	4643	4643	4643	4706	4706	4706	4706	4706	4706	4706	4706	4643	4581	4581	4463	4463	4521	4521	4463	4581	4581	4643	4706	4706	4706	4706	4706	4706	4706	4643	4643	4643	4581	4581	4643	4643	4643	4706	4706	4706	4771	4706	4706	4706	4706	4706	4706	4706	4706	4706	4706	4706	4706	4706	4706	4771	4706	4771	4771	4643	4643	4643	4643	4643	4643	4643	4643	4643	4643	4643	4643	4643	4643	4643	4643	4643	4643	4581	4581	4581	4581	4643	4643	4643	4581	4581	4521	4406	4406	4406	4406	4406	4406	4406	4406	4406	4406	4406	4406	4406	4406	4406	4406	4406	4406	4406	4406	4406	4406	4406	4406	4406	4406	4406	4406	4406	4406	4350	4350	4350	4350	4406	4406	4406	4463	4406	4406	4406	4406	4406	4406	4296	4296	4350	4350	4350	4350	4350	4350	4350	4350	4296	4350	4350	4350	4350	4406	4350	4406	4406	4406	4406	4406	4350	4350	4406	4406	4406	4406	4406	4463	4521	4643	4581	4581	4581	4581	4581	4521	4521	4406	4406	4406	4406	4406	4406	4406	4406	4350	4406	4406	4406	4350	4406	4406	4406	4406	4406	4406	0	0	0	0	0	2532	2532	2514	2496	2496	2496	2478	2460	2443	2460	2460	2460	2460	2443	2443	2443	2443	2426	2409	2409	2409	2409	2426	2426	2426	2426	2409	2409	2409	2409	2409	2409	2392	2392	2392	2392	2376	2392	2392	2392	2392	2392	2376	2359	2376	2376	2376	2376	2376	2376	2376	2376	2376	2376	2376	2392	2392	2409	2409	2409	0	0	0	0	0	2570	2551	2551	2551	2532	2532	2514	2496	2496	2478	2478	2460	2460	2460	2460	2460	0	0	0	0	0	0	0	0	0	0	0	0	0	0	0	0	0	0	0	0	0	0	0	0	0	0	0	0	0	0	0	0	0	0
0	0	0	0	0	0	0	896	898	901	903	908	915	915	920	920	920	922	922	925	927	927	930	935	942	945	948	948	950	955	958	958	961	966	974	977	985	985	991	994	997	1000	1003	1003	1006	1008	1014	1017	1026	1033	1033	1036	1039	1045	1048	1048	1052	1055	1055	1061	1068	1068	1064	1064	1071	1071	1078	0	0	0	0	0	0	4243	4192	4192	4243	4192	4192	4192	4142	4142	4142	4142	4142	4192	4192	4192	4192	4192	4192	4192	4243	4243	4243	4243	4243	4406	4463	4706	4706	4643	4706	4706	4706	4706	4643	4706	4706	4706	4643	4643	4643	4643	4643	4643	4643	4643	4643	4643	4643	4643	4706	4706	4706	4643	4643	4643	4643	4643	4643	4643	4643	4643	4643	4706	4706	4706	4706	4706	4706	4643	4643	4706	4706	4706	4706	0	5125	5125	5125	5125	5915	5915	5915	6018	6124	6124	6235	6235	6349	6349	6349	6349	6349	6349	6349	6235	6235	6124	6124	6124	6124	6124	6018	6018	6018	6018	6018	6018	6018	6018	6018	6124	6124	6124	7287	7287	7287	7444	7444	7444	7444	7444	7444	7444	7444	7444	7444	7444	0	0	0	0	0	0	0	0	0	0	0	7444	7444	7444	7444	7444	7444	7444	7444	7444	7444	7444	7444	7444	7608	7444	7444	7444	7444	7444	7444	7444	7444	7444	7444	7779	7608	7779	7608	7608	7608	7608	7608	7608	7608	7608	7779	7608	7608	7608	7608	7608	7608	7444	7444	7608	7608	7608	7608	7779	7779	7779	7779	7779	7608	7608	7608	7444	7444	7287	7287	0	0	0	0	0	3341	3341	3341	3341	3341	3341	3309	3341	3341	3341	3341	3309	3309	4521	4521	4521	4521	4521	4521	4521	4521	4521	4521	4521	4521	4521	4521	4521	4521	4521	4521	3373	3373	3373	3373	3341	3341	3341	3341	3341	3309	3277	3277	4643	4706	4706	4706	4643	4643	4643	4581	4581	4581	4581	4643	4643	4643	4643	4643	4706	4643	4643	4706	4706	4706	4643	4643	4581	4581	4521	4521	4521	4521	4521	4521	4581	4643	4706	4706	4706	4706	4706	4706	4706	4643	4643	4643	4581	4581	4643	4581	4643	4706	4706	4706	4706	4706	4706	4706	4706	4706	4706	4643	4643	4643	4706	4706	4706	4706	4706	4706	4706	4706	4706	4643	4581	4581	4581	4581	4581	4643	4643	4643	4643	4643	4643	4643	4643	4581	4581	4581	4581	4521	4521	4521	4521	4581	4581	4581	4581	4521	4463	4463	4406	4406	4406	4406	4406	4406	4406	4406	4406	4406	4406	4406	4406	4406	4406	4406	4406	4406	4406	4406	4406	4406	4406	4406	4406	4406	4406	4406	4406	4350	4350	4350	4350	4406	4406	4406	4406	4406	4406	4406	4406	4406	4406	4350	4350	4350	4350	4350	4350	4350	4406	4350	4350	4350	4350	4350	4350	4350	4350	4406	4406	4406	4406	4406	4406	4406	4406	4406	4406	4406	4406	4406	4406	4521	4643	4643	4643	4581	4581	4581	4521	4521	4406	4406	4406	4406	4406	4406	4406	4406	4406	4406	4406	4406	4406	4406	4406	4463	4406	4406	4406	4406	0	0	0	0	2532	2514	2514	2496	2478	2478	2478	2443	2443	2460	2460	2460	2460	2460	2460	2443	2426	2426	2409	2409	2409	2409	2409	2426	2409	2426	2409	2409	2409	2409	2409	2409	2392	2392	2392	2392	2392	2392	2392	2392	2392	2392	2376	2376	2376	2376	2376	2359	2376	2376	2376	2376	2376	2376	2376	2392	2392	2409	2409	2409	0	0	0	0	0	2570	2551	2532	2532	2532	2532	2514	2496	2496	2478	2478	2478	2460	2460	2460	2460	0	0	0	0	0	0	0	0	0	0	0	0	0	0	0	0	0	0	0	0	0	0	0	0	0	0	0	0	0	0	0	0	0	0
0	0	0	0	0	0	0	898	898	898	905	908	915	915	920	920	922	922	925	927	927	927	930	935	942	945	948	948	950	950	955	953	958	963	974	977	988	988	991	994	997	1000	1003	1003	1006	1008	1011	1017	1020	1026	1030	1036	1042	1045	1048	1048	1052	1055	1055	1061	1061	1064	1064	1064	1071	1071	0	0	0	0	0	0	4243	4243	4192	4243	4192	4192	4142	4192	4142	4142	4142	4142	4142	4192	4192	4192	4243	4192	4243	4192	4192	4243	4243	4243	4296	4406	4463	4643	4706	4643	4643	4706	4706	4706	4706	4706	4706	4706	4706	4706	4706	4643	4643	4643	4643	4643	4643	4643	4643	4643	4643	4643	4643	4643	4643	4643	4643	4643	4643	4643	4643	4643	4643	4643	4706	4706	4706	4706	4706	4706	4706	4706	4706	4706	4706	4706	0	0	0	0	5815	5915	5815	6018	6124	6235	6349	6349	6349	6349	6349	6349	6349	6349	6349	6235	6235	6124	6124	6124	6124	6124	6124	6124	6018	6018	6018	6018	6018	6018	6018	6124	6124	6124	7287	7287	7287	7287	7287	7444	7444	7444	7444	7444	7444	7287	7287	7444	0	0	0	0	0	0	0	0	0	0	0	7444	7444	7444	7444	7444	7444	7608	7444	7608	7608	7444	7444	7444	7608	7608	7444	7608	7608	7444	7444	7444	7444	7608	7608	7779	7608	7779	7779	7608	7608	7608	7608	7608	7444	7608	7608	7444	7608	7444	7608	7608	7444	7444	7444	7608	7608	7608	7608	7779	7779	7779	7779	7608	7608	7608	7444	7444	7444	7287	7287	0	0	0	0	0	3341	3341	3341	3341	3341	3341	3309	3341	3341	3341	3341	3309	3309	4521	4521	4521	4521	4521	4521	4521	4521	4521	4521	4521	4521	4463	4521	4521	4521	4521	4521	3373	3341	3341	3341	3341	3341	3341	3341	3341	3341	3277	3277	4643	4706	4706	4706	4643	4643	4643	4581	4581	4581	4581	4581	4643	4643	4643	4643	4706	4643	4643	4643	4706	4706	4706	4643	4643	4643	4463	4463	4521	4521	4463	4463	4581	4643	4643	4706	4706	4706	4706	4706	4643	4643	4643	4581	4521	4581	4581	4581	4581	4643	4706	4706	4706	4706	4706	4706	4643	4643	4643	4643	4643	4643	4643	4643	4643	4643	4643	4706	4643	4643	4643	4581	4581	4581	4581	4581	4581	4581	4581	4581	4581	4581	4581	4581	4581	4581	4581	4581	4581	4521	4521	4521	4463	4521	4521	4521	4521	4521	4463	4463	4406	4406	4406	4406	4406	4406	4406	4406	4406	4406	4406	4406	4406	4406	4406	4406	4406	4406	4406	4406	4406	4406	4406	4406	4406	4406	4406	4406	4406	4406	4406	4350	4406	4406	4406	4406	4463	4406	4463	4463	4463	4463	4463	4350	4350	4350	4350	4350	4350	4406	4406	4350	4350	4350	4350	4350	4350	4350	4350	4406	4406	4406	4406	4406	4406	4350	4406	4406	4406	4406	4406	4406	4463	4581	4643	4643	4643	4581	4581	4581	4521	4521	4406	4406	4406	4463	4406	4406	4406	4406	4406	4406	4406	4406	4406	4406	4406	4463	4463	4463	4406	4406	0	0	0	0	2532	2514	2514	2496	2478	2478	2478	2443	2443	2443	2460	2460	2460	2443	2443	2426	2426	2409	2409	2409	2392	2409	2409	2426	2409	2426	2409	2409	2409	2409	2392	2392	2392	2392	2376	2376	2376	2392	2376	2376	2392	2392	2392	2376	2376	2376	2376	2359	2359	2376	2376	2376	2376	2376	2376	2392	2392	2409	2409	0	0	0	0	0	0	0	2570	2551	2551	2532	2532	2514	2496	2496	2496	2478	2460	2460	2460	2443	2443	0	0	0	0	0	0	0	0	0	0	0	0	0	0	0	0	0	0	0	0	0	0	0	0	0	0	0	0	0	0	0	0	0	0
0	0	0	0	0	0	0	898	898	901	908	910	913	915	915	915	917	922	925	927	927	927	930	935	942	945	948	950	953	955	958	958	961	966	977	980	985	985	988	991	997	1000	1003	1003	1008	1011	1011	1014	1020	1023	1026	1036	1042	1045	1048	1048	1048	1052	1058	1061	1064	1064	1064	1068	1068	0	0	0	0	0	0	0	4243	4296	4243	4243	4243	4243	4192	4192	4192	4142	4192	4192	4192	4192	4192	4192	4243	4192	4243	4243	4243	4243	4243	4243	4296	4406	4463	4521	4521	4463	4643	4706	4706	4706	4706	4706	4706	4706	4706	4706	4706	4643	4643	4643	4643	4643	4643	4643	4643	4643	4643	4643	4643	4643	4643	4643	4643	4643	4643	4643	4643	4643	4643	4643	4706	4706	4706	4706	4706	4706	4706	4706	4706	4771	4771	4706	0	0	0	0	5815	5915	5815	6018	6235	6349	6349	6349	6349	6349	6349	6349	6349	6349	6235	6124	6235	6124	6124	6124	6124	6235	6124	6124	6018	6124	6124	6018	6018	6018	6018	6018	5915	5915	0	7444	7444	7287	7287	7287	7287	7287	7287	7287	7287	7287	7287	0	0	0	0	0	0	0	0	0	0	0	0	7444	7444	7444	7444	7608	7444	7444	7444	7444	7444	7444	7444	7444	7608	7444	7444	7608	7608	7444	7444	7444	7444	7608	7779	7779	7779	7779	7779	7608	7608	7608	7608	7608	7444	7444	7608	7444	7444	7444	7444	7444	7444	7444	7444	7608	7608	7608	7608	7779	7779	7779	7779	7608	7779	7779	7444	7444	7287	7287	7287	7287	7287	0	0	0	0	3309	3309	3309	3309	3309	3309	3341	3309	3341	3341	3309	3309	4521	4521	4521	4521	4521	4521	4521	4521	4521	4521	4521	4463	4463	4521	4521	4521	4521	4521	3373	3373	3373	3341	3341	3341	3341	3341	3341	3341	3277	3277	4643	4706	4706	4706	4643	4643	4643	4581	4581	4581	4581	4581	4581	4643	4643	4643	4706	4643	4643	4643	4706	4706	4706	4643	4643	4643	4643	4521	4521	4521	4521	4521	4581	4581	4643	4643	4643	4643	4643	4643	4581	4581	4521	4521	4521	4521	4521	4521	4581	4581	4643	4643	4706	4643	4643	4643	4643	4581	4581	4521	4581	4581	4643	4643	4643	4643	4643	4643	4643	4643	4643	4521	4521	4521	4521	4521	4521	4521	4521	4581	4581	4581	4581	4581	4581	4581	4521	4521	4521	4521	4521	4463	4463	4463	4463	4463	4463	4463	4463	4463	4406	4406	4406	4406	4406	4406	4406	4406	4406	4406	4406	4406	4406	4406	4406	4406	4406	4406	4406	4406	4463	4406	4406	4406	4406	4406	4406	4406	4406	4406	4406	4406	4406	4406	4406	4463	4463	4463	4463	4463	4463	4463	4463	4350	4350	4350	4350	4350	4350	4406	4406	4406	4350	4350	4350	4350	4350	4350	4350	4350	4406	4406	4406	4406	4406	4350	4350	4406	4406	4406	4406	4406	4406	4521	4521	4643	4643	4581	4581	4581	4521	4521	4463	4406	4406	4463	4406	4406	4406	4406	4406	4406	4406	4406	4406	4406	4406	4463	4406	4406	4406	4406	0	0	0	0	0	2532	2514	2496	2496	2496	2478	2460	2460	2460	2460	2460	2460	2460	2443	2426	2426	2409	2409	2409	2409	2409	2409	2409	2409	2409	2409	2409	2409	2392	2392	2392	2392	2392	2376	2392	2392	2392	2392	2392	2392	2392	2359	2359	2376	2376	2376	2359	2376	2376	2392	2392	2376	2392	2392	2392	2409	2409	2409	0	0	0	0	0	0	0	2570	2551	2551	2532	2532	2514	2496	2496	2496	2478	2460	2460	2443	2443	2443	0	0	0	0	0	0	0	0	0	0	0	0	0	0	0	0	0	0	0	0	0	0	0	0	0	0	0	0	0	0	0	0	0	0
0	0	0	0	0	0	0	901	901	903	908	913	915	915	915	915	917	917	922	925	927	930	935	942	942	945	948	948	950	953	955	955	958	969	977	980	983	983	988	991	997	1003	1003	1003	1008	1011	1014	1017	1017	1023	1023	1036	1042	1042	1048	1052	1052	1055	1058	1061	1064	1064	1064	1064	1064	0	0	0	0	0	0	0	0	4296	4296	4243	4243	4243	4192	4243	4192	4192	4192	4192	4192	4192	4192	4243	4243	4243	4243	4243	4243	4243	4296	4296	4296	4406	4463	4521	4521	4643	4643	4706	4706	4706	4706	4706	4706	4706	4706	4706	4643	4643	4643	4643	4643	4643	4643	4643	4643	4706	4706	4706	4643	4643	4643	4643	4643	4643	4643	4643	4643	4643	4643	4643	4706	4643	4643	4643	4706	4706	4706	4706	4706	4706	4706	0	0	0	0	5915	5915	5915	5915	6124	6235	6349	6349	6349	6349	6349	6349	6349	6349	6235	6235	6124	6124	6124	6124	6124	6235	6235	6124	6018	6018	6018	6018	6018	6018	5915	5915	5915	5915	5915	5915	7444	7444	7287	7137	7287	7287	7287	7287	7137	7137	7287	7287	0	0	0	0	0	0	0	0	0	0	0	0	0	7444	7444	7444	7608	7608	7608	7608	7608	7444	7444	7444	7444	7444	7444	7444	7608	7608	7444	7444	7444	7444	7608	7608	7608	7608	7779	7779	7608	7608	7608	7608	7608	7608	7444	7608	7444	7444	7444	7608	7444	7444	7444	7444	7608	7608	7608	7608	7779	7779	7779	7779	7608	7608	7608	7287	7287	7287	7287	7287	7287	7287	0	0	0	0	3341	3341	3341	3341	3341	3309	3341	3341	3341	3341	3341	3341	4521	4521	4521	4521	4521	4521	4521	4521	4521	4521	4521	4463	4463	4521	4521	4521	4521	4463	3406	3373	3373	3373	3341	3341	3341	3341	3341	3341	3277	3277	4581	4581	4643	4643	4643	4643	4643	4643	4581	4581	4643	4643	4643	4643	4643	4643	4643	4643	4643	4706	4706	4706	4706	4643	4643	4643	4643	4581	4521	4463	4521	4521	4521	4521	4581	4581	4581	4581	4581	4521	4521	4463	4463	4463	4463	4463	4463	4463	4463	4521	4581	4643	4581	4581	4581	4521	4521	4521	4521	4521	4521	4521	4581	4581	4581	4581	4643	4581	4581	4521	4581	4463	4463	4463	4463	4463	4521	4463	4521	4521	4521	4521	4521	4521	4521	4521	4521	4463	4463	4463	4463	4463	4463	4463	4463	4463	4463	4463	4463	4463	4406	4406	4406	4406	4406	4406	4406	4406	4406	4406	4406	4406	4406	4463	4463	4463	4463	4406	4406	4406	4463	4406	4406	4406	4463	4406	4406	4406	4406	4406	4406	4406	4406	4463	4463	4463	4463	4463	4463	4463	4406	4463	4406	4350	4350	4350	4350	4350	4350	4406	4406	4406	4350	4350	4406	4350	4350	4350	4350	4350	4350	4350	4406	4406	4406	4406	4406	4406	4406	4406	4406	4406	4463	4581	4643	4706	4706	4643	4643	4581	4521	4521	4463	4463	4406	4463	4406	4406	4406	4406	4406	4406	4406	4406	4406	4406	4406	4463	4406	4406	4406	4406	0	0	0	0	0	2532	2514	2496	2496	2496	2478	2460	2460	2460	2460	2460	2460	2443	2443	2426	2426	2426	2409	2409	2409	2409	2409	2409	2409	2409	2409	2409	2392	2392	2392	2392	2392	2376	2376	2392	2392	2392	2392	2392	2392	2392	2359	2376	2376	2376	2376	2376	2392	2392	2392	2392	2392	2392	2392	2392	2392	2392	2392	0	0	0	0	0	0	0	2551	2551	2551	2532	2532	2514	2496	2496	2496	2478	2460	2443	2443	2426	2426	0	0	0	0	0	0	0	0	0	0	0	0	0	0	0	0	0	0	0	0	0	0	0	0	0	0	0	0	0	0	0	0	0	0
0	0	0	0	0	0	0	901	901	905	908	913	915	915	915	915	917	917	920	922	925	927	935	940	942	945	948	950	950	955	955	958	961	966	972	977	980	983	985	988	994	1000	1003	1008	1011	1011	1014	1014	1014	1014	1020	1036	1042	1045	1048	1052	1052	1052	1058	1061	1064	1064	1064	1064	1064	1064	0	0	0	0	0	0	0	4296	4243	4243	4243	4243	4192	4192	4192	4192	4192	4192	4192	4243	4192	4243	4243	4243	4243	4243	4243	4296	4296	4296	4296	4406	4463	4521	4521	4643	4643	4643	4643	4706	4706	4706	4706	4643	4643	4643	4643	4643	4643	4643	4643	4643	4643	4643	4643	4706	4643	4643	4643	4643	4643	4643	4643	4643	4643	4643	4643	4643	4643	4643	4643	4643	4643	4643	4706	4706	4706	4706	4706	4706	4706	0	0	0	6018	6018	5915	6018	6018	6124	6235	6349	6349	6349	6349	6349	6349	6349	6349	6349	6235	6124	6124	6018	6018	6124	6124	6124	6018	6018	6018	6018	6018	6018	5915	5915	5915	5915	5915	5915	5915	7444	7444	7287	7137	7137	7137	7287	7137	7137	7137	0	0	0	0	0	0	0	0	0	0	0	0	0	0	0	7444	7608	7444	7444	7608	7608	7608	7608	7444	7444	7444	7444	7444	7444	7444	7608	7608	7444	7444	7444	7444	7608	7608	7608	7444	7608	7608	7608	7608	7608	7608	7608	7608	7608	7608	7444	7444	7444	7444	7444	7444	7444	7444	7608	7608	7608	7608	7608	7779	7608	7608	7608	7444	7444	7287	7287	7287	7287	7287	0	0	0	0	0	0	3341	3341	3341	3341	3341	3309	3341	3309	3341	3341	3309	3309	4521	4521	4521	4521	4521	4521	4521	4521	4521	4521	4521	4521	4463	4521	4521	4521	4463	4463	3373	3373	3373	3373	3341	3341	3341	3309	3341	3341	3341	4581	4581	4581	4643	4643	4643	4581	4643	4643	4643	4643	4643	4643	4643	4643	4643	4706	4706	4643	4643	4643	4706	4706	4706	4643	4643	4643	4581	4581	4521	4463	4463	4463	4521	4521	4521	4521	4521	4521	4463	4463	4463	4463	4406	4463	4406	4463	4463	4406	4463	4463	4463	4521	4521	4521	4521	4521	4521	4521	4521	4463	4463	4463	4521	4521	4521	4521	4521	4521	4521	4521	4521	4463	4463	4463	4463	4463	4463	4463	4463	4463	4463	4463	4463	4463	4463	4463	4463	4463	4463	4463	4463	4463	4406	4406	4406	4463	4463	4463	4463	4406	4406	4406	4406	4406	4406	4406	4406	4406	4406	4406	4406	4406	4406	4463	4463	4463	4463	4406	4406	4406	4406	4406	4406	4406	4463	4406	4463	4406	4406	4406	4406	4406	4406	4463	4406	4463	4463	4463	4463	4463	4406	4406	4406	4350	4350	4350	4350	4350	4350	4406	4406	4406	4406	4406	4406	4406	4406	4350	4350	4350	4350	4406	4406	4406	4406	4406	4406	4406	4406	4406	4406	4406	4463	4581	4643	4706	4706	4643	4643	4581	4581	4521	4463	4463	4463	4463	4463	4463	4463	4463	4463	4463	4406	4406	4406	4406	4406	4463	4406	4406	4406	4406	4406	0	0	0	0	2514	2514	2496	2478	2496	2478	2460	2460	2460	2460	2460	2460	2443	2409	2409	2409	2426	2409	2409	2409	2409	2409	2409	2409	2409	2409	2392	2392	2392	2392	2392	2392	2376	2376	2392	2392	2392	2392	2392	2392	2392	2392	2392	2392	2392	2392	2392	2392	2392	2409	2409	2409	2392	2392	2392	2392	2392	2392	0	0	0	0	0	0	2551	2551	2532	2551	2532	2532	2514	2514	2514	2496	2478	2460	2460	2443	2443	2443	0	0	0	0	0	0	0	0	0	0	0	0	0	0	0	0	0	0	0	0	0	0	0	0	0	0	0	0	0	0	0	0	0	0
0	0	0	0	0	0	0	896	898	905	910	915	917	917	917	915	917	920	922	922	927	930	935	937	942	945	948	948	953	955	958	958	963	966	969	974	977	980	983	985	991	1000	1003	1003	1011	1014	1014	1017	1014	1017	1023	1033	1039	1045	1048	1052	1052	1055	1061	1061	1064	1064	1064	1064	1064	1064	0	0	0	0	0	0	0	0	4243	4243	4243	4243	4192	4192	4192	4192	4192	4192	4192	4192	4243	4243	4243	4243	4243	4243	4296	4296	4296	4296	4296	4350	4463	4521	4521	4643	4643	4643	4643	4643	4643	4643	4643	4643	4643	4643	4643	4643	4643	4643	4643	4643	4643	4643	4706	4706	4706	4643	4643	4643	4643	4643	4643	4643	4643	4643	4643	4643	4643	4643	4643	4643	4643	4643	4706	4706	4706	4706	4706	6235	6235	6235	6124	6018	6018	6018	6018	6124	6124	6235	6349	6349	6349	6349	6349	6349	6349	6349	6349	6349	6235	6235	6235	6124	6124	6124	6124	6235	6018	6018	6124	6018	6124	6018	6018	5915	5915	5815	5815	5815	0	0	7444	7444	7287	7287	7287	7287	7287	7137	0	0	0	0	0	0	0	0	0	0	0	0	0	0	0	0	0	7608	7444	7444	0	0	0	7608	7444	7444	7444	7444	7444	7444	7444	7608	7608	7779	7608	7608	7608	7608	7608	7608	7444	7608	7608	7444	7444	7444	7444	7444	7444	7608	7444	7444	7444	7444	7444	7444	7444	7444	7444	7608	7444	7444	7444	7444	7608	7608	7444	7608	7608	7444	0	0	0	0	0	0	0	0	0	0	0	3341	3341	3341	3341	3341	3341	3341	3309	3341	3341	3309	3309	4521	4521	4463	4463	4463	4521	4463	4463	4463	4463	4463	4463	4463	4463	4463	4463	4463	3341	3341	3341	3341	3341	3341	3341	3341	3341	3341	3341	3341	4581	4581	4643	4643	4643	4643	4643	4643	4643	4706	4706	4706	4643	4643	4643	4643	4643	4643	4643	4643	4643	4643	4706	4706	4643	4643	4643	4581	4581	4521	4463	4463	4463	4463	4463	4463	4463	4463	4463	4463	4463	4406	4463	4406	4406	4406	4406	4406	4406	4406	4406	4463	4463	4463	4463	4463	4463	4463	4463	4463	4463	4463	4463	4463	4463	4463	4463	4463	4463	4463	4463	4463	4406	4406	4406	4406	4406	4463	4463	4463	4463	4463	4463	4463	4463	4463	4463	4463	4406	4406	4463	4406	4406	4406	4406	4406	4406	4406	4406	4406	4406	4406	4406	4406	4406	4406	4406	4406	4406	4406	4406	4406	4406	4406	4463	4463	4463	4463	4463	4406	4463	4463	4406	4406	4406	4463	4406	4406	4406	4406	4406	4406	4406	4406	4406	4406	4463	4463	4463	4463	4406	4406	4406	4406	4350	4350	4350	4350	4406	4406	4406	4406	4406	4406	4406	4406	4406	4406	4406	4406	4406	4406	4406	4406	4406	4406	4406	4406	4406	4406	4406	4406	4406	4463	4581	4643	4706	4706	4643	4643	4581	4581	4521	4463	4463	4463	4463	4463	4463	4463	4463	4463	4463	4406	4463	4406	4406	4406	4406	4406	4406	4463	4406	4406	0	0	0	0	2514	2496	2496	2496	2496	2478	2460	2443	2443	2443	2443	2443	2409	2409	2409	2426	2409	2409	2409	2409	2409	2409	2409	2409	2409	2409	2392	2392	2392	2392	2392	2392	2392	2392	2392	2392	2392	2392	2392	2392	2409	2409	2392	2392	2409	2392	2392	2392	2392	2409	2409	2409	2392	2392	2392	2392	2392	2392	0	0	0	0	0	0	2551	2551	2532	2551	2532	2532	2514	2514	2514	2496	2478	2460	2460	2443	2443	2443	0	0	0	0	0	0	0	0	0	0	0	0	0	0	0	0	0	0	0	0	0	0	0	0	0	0	0	0	0	0	0	0	0	0
0	0	0	0	0	0	0	896	898	905	908	915	915	917	917	915	917	920	922	925	927	930	932	935	942	945	948	950	953	955	958	961	966	969	972	974	977	980	980	985	985	1000	1003	1006	1011	1014	1014	1017	1017	1023	1026	1030	1039	1048	1052	1052	1052	1058	1061	1061	1061	1064	1064	1064	1064	1064	0	0	0	0	0	0	0	0	4243	4243	4243	4192	4243	4243	4243	4142	4192	4192	4243	4192	4192	4243	4243	4243	4243	4243	4243	4296	4296	4296	4296	4350	4463	4463	4521	4521	4643	4706	4643	4643	4643	4643	4643	4643	4643	4643	4643	4643	4643	4643	4643	4643	4643	4643	4643	4706	4643	4643	4643	4643	4643	4643	4643	4581	4643	4643	4643	4643	4643	4643	4643	4643	4643	4643	4706	4706	4706	4706	4643	4643	6349	6235	6235	6124	6124	6235	6235	6235	6018	6349	6349	6349	6349	6349	6349	6349	6349	6349	6235	6235	6235	6235	6235	6124	6018	6124	6018	6018	5915	6018	6018	6018	6124	6124	6018	5915	5815	5719	5719	5719	0	0	0	7444	7287	7287	7287	7287	7287	0	0	0	0	0	0	0	0	0	0	0	0	0	0	0	0	0	0	0	0	0	0	0	0	0	0	0	0	7444	7444	7444	7444	7608	7779	7779	7779	7608	7608	7608	7608	7608	7444	7608	7608	7444	7444	7608	7608	7608	7608	7608	7608	7444	7444	7444	7444	7608	7444	7444	7444	7444	7444	7444	7608	7444	7608	7608	7444	7608	7608	0	0	0	0	0	0	0	0	0	0	0	0	3341	3341	3341	3341	3341	3341	3341	3309	3341	3309	3309	3309	3309	4463	4463	4463	4463	4463	4463	4463	4463	4463	4463	4463	4463	4463	4463	4463	3309	3341	3341	3341	3341	3341	3341	3341	3341	3341	3341	3341	3341	4581	4581	4643	4643	4643	4643	4643	4643	4706	4706	4706	4706	4643	4643	4643	4581	4643	4581	4643	4643	4643	4643	4643	4643	4643	4643	4643	4643	4643	4581	4521	4463	4463	4463	4463	4406	4406	4350	4350	4350	4350	4350	4406	4406	4406	4406	4406	4406	4406	4406	4406	4406	4463	4463	4463	4463	4463	4463	4463	4463	4463	4463	4463	4463	4463	4463	4463	4463	4463	4463	4463	4463	4406	4406	4406	4406	4406	4406	4406	4406	4406	4463	4463	4463	4463	4463	4463	4463	4463	4463	4463	4406	4406	4406	4406	4406	4406	4406	4406	4406	4406	4406	4406	4406	4406	4406	4406	4406	4406	4406	4406	4406	4406	4406	4406	4463	4463	4463	4463	4463	4463	4463	4463	4406	4406	4463	4406	4406	4406	4406	4406	4406	4406	4406	4463	4406	4463	4463	4463	4463	4406	4406	4406	4406	4350	4350	4350	4350	4406	4406	4406	4406	4406	4406	4406	4406	4406	4406	4406	4406	4406	4350	4406	4406	4406	4406	4406	4406	4406	4406	4406	4406	4406	4463	4521	4643	4643	4706	4706	4643	4643	4581	4521	4521	4463	4463	4463	4463	4463	4463	4463	4463	4463	4406	4463	4463	4406	4463	4406	4463	4463	4463	4406	4463	4463	0	0	0	2496	2496	2496	2496	2496	2478	2460	2443	2443	2443	2443	2426	2409	2409	2409	2409	2409	2392	2409	2409	2409	2409	2409	2409	2409	2392	2392	2392	2392	2392	2392	2392	2392	2392	2392	2392	2392	2392	2392	2392	2392	2392	2392	2392	2392	2392	2392	2392	2392	2409	2409	2392	2392	2392	2392	2392	2392	2392	0	0	0	0	0	0	2551	2551	2532	2551	2532	2532	2514	2514	2514	2514	2496	2478	2460	2460	2460	2460	0	0	0	0	0	0	0	0	0	0	0	0	0	0	0	0	0	0	0	0	0	0	0	0	0	0	0	0	0	0	0	0	0	0
0	0	0	0	0	0	0	894	896	903	908	913	915	917	917	915	917	917	925	925	930	930	932	935	942	945	948	950	953	955	958	961	963	966	969	969	977	980	983	985	991	994	1003	1006	1014	1014	1017	1020	1020	1023	1026	1030	1039	1048	1052	1055	1055	1061	1061	1064	1064	1064	1064	1064	1064	1064	1064	0	0	0	0	0	0	0	4243	4243	4192	4243	4243	4243	4243	4243	4243	4192	4243	4192	4192	4243	4243	4243	4243	4243	4243	4296	4296	4296	4296	4406	4463	4581	4581	4643	4706	4706	4643	4643	4643	4643	4643	4643	4643	4643	4643	4643	4643	4643	4643	4643	4706	4643	4706	4706	4643	4643	4643	4643	4643	4643	4643	4581	4643	4643	4643	4643	4643	4643	4643	4643	4581	4643	4643	4706	4706	4706	4643	4643	6235	6235	6124	6124	6124	6235	6235	6124	6018	6235	6349	6349	6349	6349	6349	6349	6349	6349	6349	6349	6235	6235	6235	6235	6124	6124	5915	5915	5915	5915	6018	5915	6018	6018	5915	5915	5815	5719	5719	5719	0	0	0	0	0	0	0	0	0	0	0	0	0	0	0	0	0	0	0	0	0	0	0	0	0	0	0	0	0	0	0	0	0	0	0	0	0	0	0	0	0	0	7959	7959	7779	7779	7608	7608	7608	7608	7444	7444	7444	7608	7444	7444	7444	7608	7608	7779	7608	7608	7444	7608	7608	7608	7444	7444	7444	7444	7444	7444	7444	7444	7444	7444	7444	7444	7608	0	0	0	0	0	0	0	0	0	0	0	0	3341	3341	3341	3341	3341	3341	3309	3309	3309	3309	3309	3309	3309	4463	4406	4406	4406	4463	4406	4463	4463	4463	4463	4463	4463	4463	4463	4463	3309	3341	3341	3341	3341	3341	3341	3341	3309	3309	3341	3341	3309	3309	4643	4643	4643	4643	4706	4706	4643	4706	4706	4706	4706	4706	4643	4706	4643	4643	4581	4643	4581	4643	4643	4643	4643	4643	4643	4643	4643	4643	4581	4521	4521	4463	4463	4406	4350	4350	4296	4350	4296	4350	4350	4406	4406	4406	4406	4406	4406	4406	4406	4406	4406	4406	4463	4463	4463	4463	4521	4521	4521	4463	4463	4463	4463	4463	4463	4463	4463	4463	4463	4463	4463	4406	4406	4406	4406	4406	4406	4406	4406	4406	4406	4406	4406	4406	4463	4463	4463	4463	4463	4463	4463	4406	4406	4406	4406	4406	4406	4406	4406	4406	4406	4406	4406	4406	4406	4406	4406	4406	4406	4406	4406	4406	4406	4463	4463	4463	4463	4463	4463	4463	4463	4463	4406	4406	4463	4406	4406	4406	4406	4406	4406	4406	4406	4406	4406	4463	4463	4463	4463	4463	4406	4406	4406	4350	4350	4350	4350	4350	4350	4350	4406	4406	4406	4406	4406	4406	4406	4406	4350	4406	4350	4350	4406	4406	4406	4406	4406	4406	4406	4406	4406	4406	4463	4521	4581	4581	4706	4706	4643	4581	4581	4521	4521	4521	4463	4463	4463	4463	4463	4463	4406	4406	4406	4463	4406	4406	4463	4406	4463	4463	4463	4521	4521	4521	4521	0	0	2496	2514	2514	2514	2496	2496	2460	2460	2443	2443	2443	2426	2426	2409	2409	2409	2409	2392	2409	2409	2409	2409	2409	2409	2409	2409	2392	2392	2392	2392	2392	2392	2392	2392	2392	2392	2392	2392	2392	2392	2392	2392	2392	2392	2392	2392	2392	2392	2392	2392	2392	2392	2376	2376	2376	2359	2359	0	0	0	0	0	0	0	0	2551	2532	2532	2551	2532	2532	2514	2514	2496	2478	2478	2460	2460	2460	2460	0	0	0	0	0	0	0	0	0	0	0	0	0	0	0	0	0	0	0	0	0	0	0	0	0	0	0	0	0	0	0	0	0	0
0	0	0	0	0	0	0	896	896	903	908	910	915	915	915	913	915	917	920	925	930	932	932	935	940	942	948	950	955	958	958	961	961	966	969	977	977	980	983	988	991	997	1003	1003	1014	1014	1017	1020	1020	1023	1026	1030	1036	1048	1052	1052	1055	1061	1061	1064	1064	1068	1068	1068	1068	1068	1064	0	0	0	0	0	0	0	4243	4192	4192	4192	4243	4192	4243	4192	4243	4243	4243	4192	4243	4243	4243	4243	4243	4243	4243	4296	4296	4296	4296	4406	4521	4581	4643	4643	4706	4643	4643	4643	4643	4643	4643	4643	4643	4643	4643	4643	4706	4706	4706	4706	4706	4706	4706	4706	4643	4643	4643	4643	4643	4643	4643	4643	4643	4643	4643	4643	4643	4643	4643	4643	4581	4581	4643	4643	4643	4643	4643	6349	6235	6235	6124	6124	6124	6235	6235	6018	6018	6018	6235	6235	6235	6235	6235	6235	6349	6235	6235	6235	6235	6235	6235	6235	6124	6124	5915	5915	5719	5815	5815	5915	6018	6018	5915	5915	0	0	0	0	0	0	0	0	0	0	0	0	0	0	0	0	0	0	0	0	0	0	0	0	0	0	0	0	0	0	0	0	0	0	0	0	0	0	0	0	0	0	0	0	0	0	7959	7959	7779	7444	7444	7444	7444	7444	7444	7444	7444	7444	7444	7444	7444	7444	7444	7779	7779	7779	7608	7608	7608	7608	7444	7444	7444	7444	7444	7444	7444	7444	7444	7608	7608	7444	0	0	0	0	0	0	0	0	0	0	0	0	0	3341	3341	3341	3341	3341	3341	3309	3309	3309	3309	3309	3309	3309	4463	4406	4406	4463	4463	4406	4463	4463	4463	4521	4521	4463	4463	4463	4463	3309	3341	3341	3341	3341	3341	3341	3341	3309	3341	3341	3341	3341	3341	4643	4643	4643	4643	4643	4643	4643	4643	4706	4706	4706	4643	4643	4706	4643	4643	4643	4643	4643	4643	4643	4643	4643	4643	4643	4643	4643	4643	4643	4521	4463	4406	4350	4350	4296	4350	4296	4350	4350	4350	4406	4406	4406	4406	4406	4406	4406	4406	4406	4406	4406	4406	4463	4463	4463	4463	4521	4521	4521	4463	4463	4463	4463	4463	4463	4463	4463	4463	4463	4463	4463	4406	4406	4406	4406	4406	4406	4406	4406	4406	4406	4406	4406	4406	4406	4406	4406	4406	4406	4463	4406	4406	4406	4406	4406	4406	4406	4406	4406	4406	4406	4406	4406	4406	4406	4406	4406	4406	4406	4406	4406	4406	4406	4406	4406	4463	4463	4463	4463	4463	4406	4406	4406	4406	4406	4406	4406	4406	4406	4406	4406	4406	4406	4406	4406	4406	4463	4463	4463	4406	4406	4406	4406	4350	4350	4350	4350	4350	4350	4406	4406	4406	4406	4406	4406	4406	4406	4406	4406	4406	4350	4406	4406	4406	4406	4406	4406	4406	4406	4406	4406	4406	4463	4463	4581	4581	4643	4643	4643	4581	4581	4521	4521	4521	4463	4463	4463	4463	4463	4463	4406	4406	4406	4406	4406	4406	4406	4406	4406	4406	4406	4406	4406	4406	4521	0	0	0	2514	2532	2514	2496	2496	2460	2460	2443	2443	2443	2426	2426	2409	2409	2409	2409	2392	2409	2409	2409	2409	2409	2409	2409	2409	2409	2392	2392	2392	2392	2392	2392	2392	2392	2392	2392	2392	2392	2392	2392	2392	2392	2392	2392	2392	2392	2392	2392	2392	2392	2392	2376	2376	2376	2359	2359	0	0	0	0	0	0	0	2551	2551	2532	2551	2551	2532	2532	2514	2514	2496	2496	2478	2460	2460	2460	2460	0	0	0	0	0	0	0	0	0	0	0	0	0	0	0	0	0	0	0	0	0	0	0	0	0	0	0	0	0	0	0	0	0	0
0	0	0	0	0	0	0	891	898	905	908	910	913	915	915	910	915	917	920	925	932	932	932	932	937	940	945	953	953	958	958	958	961	966	969	972	977	980	985	988	991	1000	1006	1006	1008	1011	1017	1020	1020	1026	1026	1030	1036	1045	1048	1052	1055	1061	1064	1064	1064	1068	1068	1068	1068	1068	0	0	0	0	0	0	0	0	4192	4192	4142	4192	4192	4192	4243	4192	4243	4243	4243	4243	4243	4243	4243	4243	4243	4243	4243	4296	4296	4296	4296	4406	4521	4581	4643	4643	4643	4643	4643	4643	4706	4706	4706	4706	4706	4706	4643	4643	4706	4706	4706	4706	4706	4706	4706	4706	4706	4643	4643	4643	4643	4643	4643	4643	4643	4706	4706	4643	4643	4581	4643	4581	4581	4581	4581	4643	4643	4643	4643	6235	6235	6235	6124	6124	6124	6124	6124	6124	6124	6124	6235	6235	6235	6235	6235	6349	6349	6349	6349	6349	6349	6349	6349	6124	6018	6018	5915	5915	5719	5535	5535	0	0	0	0	0	0	0	0	0	0	0	0	0	0	0	0	0	0	0	0	0	0	0	0	0	0	0	0	0	0	0	0	0	0	0	0	0	0	0	0	0	0	0	0	0	0	0	0	0	0	0	0	0	0	7444	7444	7444	7444	7608	7444	7444	7444	7608	7608	7444	7444	7444	7444	7779	7779	7779	7608	7608	7608	7608	7444	7287	7287	7287	7287	7287	7287	7287	7444	7444	7608	0	0	0	0	0	0	0	0	0	0	0	0	0	0	3341	3341	3341	3341	3341	3309	3309	3309	3309	3309	3309	3309	3309	4463	4406	4463	4463	4463	4463	4521	4463	4521	4521	4521	4463	4463	4463	4521	3309	3341	3341	3341	3341	3341	3341	3341	3309	3309	3341	3341	3341	3341	4643	4643	4643	4643	4643	4643	4643	4643	4706	4706	4706	4706	4643	4706	4643	4706	4643	4643	4643	4643	4643	4643	4643	4643	4643	4643	4643	4643	4643	4521	4463	4463	4406	4350	4350	4350	4296	4350	4350	4350	4406	4463	4463	4463	4406	4406	4406	4406	4406	4406	4406	4406	4463	4463	4463	4463	4463	4463	4521	4463	4463	4463	4463	4463	4463	4463	4463	4463	4463	4463	4463	4406	4406	4406	4406	4406	4406	4406	4406	4406	4406	4406	4406	4406	4406	4406	4406	4406	4406	4406	4406	4406	4406	4406	4406	4406	4406	4406	4406	4406	4406	4406	4406	4406	4406	4406	4406	4406	4406	4406	4406	4406	4406	4406	4406	4406	4406	4463	4463	4463	4406	4406	4406	4406	4406	4406	4406	4406	4406	4406	4406	4406	4406	4406	4406	4406	4406	4406	4406	4406	4406	4406	4406	4350	4350	4350	4350	4350	4350	4350	4406	4406	4406	4406	4406	4406	4406	4406	4406	4406	4350	4406	4406	4406	4406	4406	4406	4406	4406	4406	4406	4406	4463	4521	4581	4643	4643	4643	4643	4581	4581	4521	4521	4521	4463	4463	4463	4406	4406	4406	4406	4406	4406	4406	4406	4406	4406	4406	4406	4406	4406	4406	4406	4406	0	0	0	0	0	2532	2496	2478	2478	2460	2443	2443	2443	2443	2426	2426	2409	2409	2409	2409	2392	2409	2409	2409	2409	2409	2409	2409	2426	2426	2409	2409	2392	2392	2392	2392	2392	2392	2392	2392	2392	2392	2392	2392	2392	2376	2392	2392	2392	2392	2392	2392	2392	2392	2392	2376	2376	2376	2359	2359	0	0	0	0	0	0	0	2551	2551	2532	2551	2551	2532	2532	2514	2514	2496	2478	2478	2478	2460	2460	2460	0	0	0	0	0	0	0	0	0	0	0	0	0	0	0	0	0	0	0	0	0	0	0	0	0	0	0	0	0	0	0	0	0	0
0	0	0	0	0	0	0	894	894	901	908	910	915	915	915	910	915	917	920	925	932	935	935	935	935	940	945	953	955	958	958	961	963	966	969	972	974	977	985	988	991	994	1003	1006	1008	1011	1014	1017	1020	1026	1030	1030	1036	1045	1048	1052	1058	1061	1061	1064	1064	1068	1068	1068	1064	1068	1068	0	0	0	0	0	0	0	4192	4192	4142	4192	4192	4192	4192	4192	4192	4192	4243	4192	4243	4243	4243	4243	4243	4243	4243	4296	4296	4296	4296	4463	4643	4643	4706	4706	4706	4706	4643	4706	4706	4706	4643	4643	4643	4643	4643	4643	4706	4706	4706	4706	4706	4706	4706	4706	4706	4643	4643	4643	4643	4643	4643	4643	4643	4643	4706	4643	4643	4643	4643	4643	4581	4581	4643	4643	4643	4643	4643	6349	6349	6235	6124	6124	6124	6124	6124	6018	6018	6124	6235	6235	6235	6235	6235	6349	6349	6349	6349	6349	6349	6349	6349	6018	5915	5915	5815	5719	5535	5448	5448	0	0	0	0	0	0	0	0	0	0	0	0	0	0	0	0	0	0	0	0	0	0	0	0	0	0	0	0	0	0	0	0	0	0	0	0	0	0	0	0	0	0	0	0	0	0	0	0	0	0	0	0	0	0	0	0	0	7444	7608	7444	7444	7444	7608	7608	0	0	0	0	0	0	0	0	0	0	0	0	7287	7287	7287	7287	7287	7287	7287	7287	7444	0	0	0	0	0	0	0	0	0	0	0	0	0	0	3341	3309	3341	3309	3309	3309	3309	3309	3309	3309	3277	3277	3309	3309	4463	4463	4463	4463	4463	4463	4521	4521	4521	4521	4521	4463	4463	4406	4521	3341	3341	3341	3341	3341	3341	3309	3341	3341	3341	3341	3373	3373	3373	4706	4706	4643	4643	4643	4643	4643	4643	4706	4706	4706	4706	4643	4706	4706	4706	4643	4643	4643	4643	4643	4643	4643	4643	4643	4643	4643	4643	4643	4581	4521	4463	4406	4350	4350	4350	4296	4350	4350	4350	4406	4463	4463	4463	4406	4463	4463	4463	4406	4406	4406	4406	4463	4463	4463	4463	4463	4463	4521	4463	4463	4463	4463	4463	4463	4463	4463	4406	4406	4406	4463	4406	4406	4406	4406	4406	4406	4406	4406	4406	4406	4406	4406	4406	4406	4406	4406	4406	4406	4406	4406	4406	4406	4406	4406	4406	4406	4406	4406	4406	4406	4406	4406	4406	4406	4406	4406	4406	4406	4406	4406	4406	4406	4406	4406	4406	4406	4406	4406	4406	4406	4406	4406	4406	4406	4406	4406	4406	4406	4406	4406	4406	4350	4406	4406	4406	4463	4463	4463	4463	4463	4406	4406	4350	4350	4350	4350	4350	4350	4350	4350	4406	4406	4406	4406	4406	4406	4406	4406	4406	4406	4406	4406	4406	4406	4406	4406	4406	4406	4406	4406	4406	4463	4463	4521	4581	4643	4643	4643	4581	4581	4521	4521	4521	4463	4463	4406	4406	4406	4406	4406	4406	4406	4406	4406	4406	4406	4406	4406	4406	4406	4406	4406	4406	4406	0	0	0	0	0	2496	2478	2478	2460	2443	2443	2443	2443	2426	2426	2426	2409	2409	2409	2392	2409	2409	2409	2409	2409	2409	2409	2409	2409	2409	2409	2392	2392	2392	2392	2392	2392	2392	2392	2392	2392	2392	2392	2392	2376	2392	2392	2392	2392	2392	2392	2392	2392	2392	2392	2392	2392	2392	2392	0	0	0	0	0	0	0	2570	2551	2532	2551	2551	2532	2532	2514	2496	2496	2478	2478	2478	2460	2460	2460	0	0	0	0	0	0	0	0	0	0	0	0	0	0	0	0	0	0	0	0	0	0	0	0	0	0	0	0	0	0	0	0	0	0
0	0	0	0	0	0	0	894	894	901	903	903	905	910	915	910	915	920	920	930	930	935	935	935	937	940	942	948	953	958	958	961	963	966	969	969	972	977	988	988	994	997	1003	1003	1008	1011	1014	1017	1020	1026	1026	1030	1039	1042	1048	1052	1058	1061	1061	1064	1064	1068	1068	1068	1068	1064	1064	0	0	0	0	0	0	0	0	4192	4142	4093	4093	4192	4192	4192	4243	4243	4243	4243	4243	4243	4243	4243	4243	4243	4243	4296	4296	4296	4350	4643	4706	4706	4706	4643	4706	4643	4643	4706	4706	4706	4706	4706	4706	4706	4706	4706	4706	4706	4706	4706	4706	4706	4706	4706	4706	4643	4643	4643	4643	4643	4643	4643	4706	4706	4706	4706	4643	4643	4643	4643	4643	4581	4643	4643	4643	4643	4643	6468	6349	6349	6235	6124	6235	6124	6124	6124	6018	6235	6349	6349	6349	6235	6235	6349	6349	6235	6235	6349	6349	6349	6349	5915	5915	5915	5626	5535	5448	5364	5282	5282	0	0	0	0	0	0	0	0	0	0	0	0	0	0	0	0	0	0	0	0	0	0	0	0	0	0	0	0	0	0	0	0	0	0	0	0	0	0	0	0	0	0	0	0	0	0	0	0	0	0	0	0	0	0	0	0	0	0	0	0	0	0	0	0	0	0	0	0	0	0	0	0	0	0	0	0	0	7287	7287	7287	7287	7287	7287	0	0	0	0	0	0	0	0	0	0	0	0	0	0	0	3341	3309	3309	3309	3309	3309	3309	3309	3309	3309	3309	3309	3309	3309	3309	4463	4463	4463	4463	4463	4521	4521	4521	4521	4521	4463	4463	4406	4521	3341	3341	3341	3341	3341	3341	3309	3341	3341	3341	3341	3373	3373	4771	4706	4706	4706	4706	4706	4643	4643	4643	4706	4706	4706	4643	4643	4643	4706	4706	4643	4643	4706	4706	4643	4643	4643	4643	4643	4643	4643	4643	4643	4581	4521	4463	4406	4350	4350	4350	4296	4350	4350	4406	4406	4463	4463	4463	4406	4463	4406	4463	4406	4406	4406	4406	4463	4463	4463	4463	4463	4463	4463	4463	4463	4463	4463	4463	4406	4406	4463	4406	4406	4406	4463	4406	4406	4406	4406	4406	4406	4406	4406	4406	4406	4406	4406	4406	4406	4406	4406	4406	4463	4406	4406	4406	4406	4406	4406	4406	4406	4406	4406	4406	4406	4406	4406	4406	4406	4406	4406	4406	4406	4406	4406	4406	4406	4406	4406	4406	4406	4406	4406	4406	4406	4406	4406	4406	4406	4406	4406	4406	4406	4406	4406	4406	4406	4406	4406	4406	4463	4463	4463	4463	4463	4463	4406	4350	4350	4350	4350	4350	4350	4350	4350	4406	4406	4406	4406	4406	4406	4406	4406	4406	4406	4406	4406	4406	4406	4406	4406	4406	4406	4406	4406	4406	4463	4463	4463	4521	4581	4643	4581	4581	4521	4521	4521	4521	4463	4463	4406	4406	4406	4406	4406	4406	4406	4463	4463	4406	4406	4406	4406	4406	4406	4406	4406	4406	4406	0	0	0	0	0	0	2496	2496	2460	2460	2443	2443	2443	2426	2426	2426	2409	2409	2409	2392	2392	2409	2409	2409	2426	2409	2409	2409	2409	2409	2409	2392	2392	2392	2392	2392	2409	2392	2392	2392	2392	2392	2392	2376	2359	2376	2359	2376	2376	2392	2392	2392	2392	2392	2392	2392	2392	2392	2392	0	0	0	0	0	0	0	2570	2570	2551	2551	2551	2532	2514	2532	2514	2514	2478	2478	2478	2460	2460	2460	0	0	0	0	0	0	0	0	0	0	0	0	0	0	0	0	0	0	0	0	0	0	0	0	0	0	0	0	0	0	0	0	0	0
0	0	0	0	0	0	0	894	894	901	903	905	908	910	910	908	913	917	930	930	932	935	935	935	937	940	942	948	953	958	958	961	963	966	966	969	969	985	991	991	994	997	1003	1003	1006	1011	1014	1017	1020	1026	1033	1036	1039	1042	1048	1052	1061	1061	1061	1064	1064	1068	1068	1068	1068	1068	1064	0	0	0	0	0	0	0	4192	4192	4142	4142	4192	4192	4192	4192	4192	4243	4243	4243	4192	4192	4243	4243	4243	4243	4243	4243	4296	4296	4350	4706	4706	4706	4706	4643	4643	4643	4643	4643	4706	4706	4706	4706	4706	4706	4706	4706	4706	4771	4771	4771	4706	4771	4771	4706	4706	4643	4643	4643	4706	4643	4643	4643	4706	4706	4706	4643	4643	4643	4643	4643	4643	4581	4643	4643	4643	4643	4643	6592	6468	6349	6349	6235	6235	6124	6018	6124	6018	6018	6235	6235	6349	6235	6235	6235	6235	6235	6235	6349	6349	6349	6235	6235	5915	0	5626	5535	5364	5282	5282	5282	0	0	0	0	0	0	0	0	0	0	0	0	0	0	0	0	0	0	0	0	0	0	0	0	0	0	0	0	0	0	0	0	0	0	0	0	0	0	0	0	0	0	0	0	0	0	0	0	0	0	0	0	0	0	0	0	0	0	0	0	0	0	0	0	0	0	0	0	0	0	0	0	0	0	0	0	0	0	0	0	0	0	0	0	0	0	0	0	0	0	0	0	0	0	0	0	0	0	3309	3309	3309	3309	3309	3309	3309	3309	3309	3309	3309	3309	3277	3309	3309	4463	4463	4463	4463	4463	4521	4521	4521	4521	4521	4463	4463	4463	3309	3341	3341	3341	3341	3341	3341	3309	3309	3341	3341	3341	3373	3373	4771	4771	4706	4706	4706	4706	4706	4643	4643	4643	4643	4643	4643	4643	4706	4706	4706	4706	4706	4706	4706	4643	4643	4581	4643	4643	4643	4643	4643	4643	4581	4521	4463	4406	4406	4350	4350	4350	4406	4350	4350	4406	4463	4463	4463	4406	4463	4406	4406	4406	4406	4406	4406	4463	4463	4463	4463	4463	4463	4463	4463	4463	4463	4463	4406	4406	4463	4463	4463	4406	4463	4463	4406	4406	4406	4406	4406	4406	4406	4406	4406	4406	4406	4406	4406	4406	4406	4406	4406	4463	4406	4463	4463	4406	4406	4406	4406	4406	4406	4406	4406	4406	4406	4406	4406	4406	4406	4406	4406	4406	4406	4406	4406	4463	4463	4406	4406	4406	4406	4463	4463	4406	4406	4406	4406	4406	4406	4406	4406	4406	4406	4406	4406	4406	4406	4406	4406	4463	4463	4463	4463	4463	4463	4463	4350	4350	4350	4350	4350	4350	4350	4350	4406	4350	4406	4350	4406	4406	4406	4406	4406	4406	4406	4406	4406	4350	4350	4406	4406	4406	4406	4406	4406	4463	4463	4463	4521	4581	4581	4581	4581	4521	4521	4463	4463	4406	4406	4406	4406	4406	4406	4406	4406	4406	4406	4406	4406	4406	4406	4406	4406	4406	4406	4406	4406	4406	0	0	0	0	0	2496	2496	2496	2460	2460	2443	2443	2443	2443	2443	2426	2426	2409	2409	2392	2392	2409	2409	2409	2409	2409	2409	2409	2409	2409	2409	2392	2392	2392	2392	2392	2392	2392	2392	2392	2392	2392	2376	2376	2376	2376	2376	2376	2376	2392	2392	2392	2409	2392	2409	2409	2409	2409	2409	0	0	0	0	0	0	0	2570	2551	2551	2551	2551	2532	2532	2532	2532	2514	2496	2478	2478	2460	2460	2460	0	0	0	0	0	0	0	0	0	0	0	0	0	0	0	0	0	0	0	0	0	0	0	0	0	0	0	0	0	0	0	0	0	0
