0	0	0	0	0	0	0	0	0	0	0	0	0	0	1833	1843	1843	1853	1853	1863	1873	1873	1873	1883	1894	1894	1904	1904	1915	1915	1915	1925	1936	1936	1947	1947	1958	1980	1992	1992	2015	2015	2015	2015	2027	2027	2027	2039	2039	2051	2063	2063	2076	2076	2088	2088	2101	2101	2114	2127	2127	2140	2153	2167	2181	2181	2194	2194	2194	2223	2237	2237	2252	2252	2252	2252	2266	2266	2297	2312	2312	2327	2327	2343	2343	2359	2359	2376	2376	2392	2409	2426	2426	2443	2443	2478	2478	2496	2496	2514	2532	2532	2532	0	0	0	0	0	0	7779	7779	7959	8146	8146	8146	8146	8146	8146	8343	8343	8343	8146	8146	8146	8146	0	0	0	0	0	0	0	0	0	0	0	0	0	0	0	0	0	0	0	0	0	0	0	0	0	0	0	0	0	0	0	0	0	0	0	0	0	0	0	0	0	0	0	0	0	0	0	7608	7779	7779	7959	7959	7959	8146	7959	7959	7959	7959	7959	7779	7779	7608	7779	7779	7779	7779	8146	8146	8146	0	0	0	0	0	0	0	0	0	0	0	0	0	0	0	0	0	0	0	0	0	0	0	0	0	0	0	0	0	0	0	0	0	0	0	0	0	0	0	0	0	0	0	0	0	0	0	0	0	0	0	0	0	0	0	0	0	0	0	0	0	0	0	0	0	0	0	0	0	0	0	0	0	0	0	0	4296	4296	4350	4350	4350	4406	4406	4406	4406	4406	4350	4350	4350	4296	4296	4296	4296	4296	4296	4296	4296	4296	4243	4243	4243	4296	4243	4243	4243	4243	4243	4243	4243	4296	4243	4243	4296	4243	4296	4243	4243	4296	4296	4296	4350	4296	4350	4350	4350	4463	4463	4463	4406	4406	4406	4406	4406	4406	4350	4406	4350	4350	4296	8767	8767	8550	8343	8343	8343	8550	8550	8550	8550	8550	8550	8550	8343	8343	8343	8343	8343	8343	8343	8343	8343	8343	8343	8343	8343	8343	8550	8550	8343	8343	8343	8550	8343	8343	8343	8343	8343	8343	8343	8343	8343	8343	8146	8343	8343	8343	8343	8343	8343	8343	8343	8343	8343	8343	8343	8343	8343	8146	8146	8146	8343	8146	8343	8343	8343	8343	8343	8343	8146	8146	8146	8146	8343	8146	8146	8146	8146	8146	8146	8146	8146	8343	8550	8550	8343	8550	8343	8146	7959	7959	7959	7959	7959	7959	0	0	0	0	0	0	0	0	0	0	0	0	0	0	0	0	0	0	0	0	0	0	0	0	0	0	0	0	0	0	0	0	0	0	0	0	0	0	0	0	0	0	0	0	0	0	0	0	0	0	0	0	0	0	0	0	0	0	0	0	0	0	0	0	0	0	0	3129	3129	3129	3129	3129	3157	3157	3157	3157	3157	3157	3157	3157	3157	3186	3186	3186	3157	3186	3186	3186	3157	3157	3157	3157	3129	3129	3129	3129	3101	3101	3073	3073	0	0	0	0	0	2181	2181	2181	2181	2167	2167	2167	2167	2167	2153	2153	2153	2153	2153	2140	2140	2140	2127	2101	2063	2039	2039	2027	2015	2015	2003	1992	1992	1980	1980	1980	1969	1969	1969	1980	1980	1980	1969	1958	1958	1947	1947	1947	1947	1936	1947	1936	1936	1936	1936	1936	1936	1936	1936	1936	1936	1936	1936	1936	1936	1936	1936	1936	1936	1936	1936	1936	1936	1947	1947	0	0	0	0	0	0	0	0	0	0	0	0	0	0	0	0	0	0	0	0	0	0	0	0	0	0	0	0	0	0	0	0	0	0	0	0	0
0	0	0	0	0	0	0	0	0	0	0	0	0	0	1833	1843	1843	1853	1853	1863	1873	1873	1873	1883	1883	1894	1894	1904	1915	1925	1925	1925	1925	1936	1947	1947	1958	1980	1992	1992	2015	2015	2015	2027	2027	2027	2027	2039	2039	2051	2051	2063	2076	2088	2088	2088	2101	2101	2114	2127	2140	2153	2153	2167	2181	2181	2194	2208	2223	2223	2237	2237	2237	2252	2252	2252	2266	2281	2297	2312	2312	2327	2327	2327	2343	2359	2359	2376	2392	2392	2409	2409	2426	2426	2443	2478	2478	2496	2496	2514	2514	2514	2514	2514	0	0	0	0	0	7779	7779	7959	8146	8146	8146	8146	8146	8343	8343	8343	8146	8146	8146	8146	8343	8343	8343	8550	8550	0	0	0	0	0	0	0	0	0	0	0	0	0	0	0	0	0	0	0	0	0	0	0	0	0	0	0	0	0	0	0	0	0	0	0	0	0	0	0	0	0	0	0	7608	7779	7779	7779	7959	8146	8146	8146	7959	8146	7959	7959	7959	7779	7779	7779	7779	7779	7959	8146	8343	8343	0	0	0	0	0	0	0	0	0	0	0	0	0	0	0	0	0	0	0	0	0	0	0	0	0	0	0	0	0	0	0	0	0	0	0	0	0	0	0	0	0	0	0	0	0	0	0	0	0	0	0	0	0	0	0	0	0	0	0	0	0	0	0	0	0	0	0	0	0	0	0	0	0	0	0	0	4296	4296	4350	4350	4350	4350	4350	4350	4350	4350	4350	4296	4296	4296	4296	4296	4296	4296	4296	4296	4296	4296	4296	4243	4243	4243	4243	4243	4243	4243	4243	4243	4296	4296	4296	4296	4296	4296	4296	4296	4296	4243	4296	4296	4296	4296	4350	4350	4350	4406	4406	4463	4406	4406	4406	4406	4406	4406	4350	4350	4350	4350	4350	4350	8767	8550	8343	8343	8343	8343	8550	8550	8550	8343	8550	8550	8343	8343	8343	8343	8343	8343	8343	8343	8343	8343	8343	8146	8343	8343	8343	8343	8343	8343	8343	8550	8343	8343	8343	8343	8343	8550	8343	8343	8343	8343	8146	8146	8343	8343	8343	8343	8343	8343	8343	8343	8343	8343	8343	8343	8343	8343	8343	8343	8343	8343	8343	8343	8343	8343	8343	8343	8146	8343	8343	8343	8343	8146	8146	8146	8146	8146	8146	8146	8146	8343	8343	8550	8343	8550	8343	8146	7959	7959	7779	7779	7779	7779	0	0	0	0	0	0	0	0	0	0	0	0	0	0	0	0	0	0	0	0	0	0	0	0	0	0	0	0	0	0	0	0	0	0	0	0	0	0	0	0	0	0	0	0	0	0	0	0	0	0	0	0	0	0	0	0	0	0	0	0	0	0	0	0	0	0	0	3129	3129	3129	3129	3157	3157	3157	3157	3157	3157	3157	3157	3157	3157	3157	3186	3186	3157	3186	3157	3157	3157	3157	3157	3157	3129	3129	3101	3129	3101	3101	3073	3019	3019	0	0	0	0	2181	2194	2181	2181	2167	2167	2167	2167	2167	2153	2167	2153	2153	2153	2140	2127	2140	2127	2101	2076	2051	2039	2027	2027	2015	2003	1992	1992	1980	1980	1980	1969	1969	1969	1980	1980	1969	1969	1958	1958	1958	1947	1947	1947	1936	1947	1936	1936	1936	1936	1936	1936	1936	1936	1936	1936	1936	1936	1936	1936	1936	1936	1936	1936	1936	1936	1936	1936	1947	1947	0	0	0	0	0	0	0	0	0	0	0	0	0	0	0	0	0	0	0	0	0	0	0	0	0	0	0	0	0	0	0	0	0	0	0	0	0
0	0	0	0	0	0	0	0	0	0	0	0	0	0	1833	1843	1843	1843	1853	1853	1863	1863	1873	1873	1883	1894	1894	1894	1904	1925	1904	1915	1925	1936	1947	1947	1969	1980	1980	1992	2003	2015	2003	2003	2015	2015	2027	2027	2039	2051	2063	2063	2076	2076	2076	2088	2088	2101	2114	2127	2140	2140	2153	2153	2167	2167	2181	2208	2223	2237	2237	2237	2252	2252	2252	2252	2266	2281	2297	2297	2297	2312	2327	2327	2343	2359	2359	2376	2392	2392	2409	2409	2426	2426	2443	2478	2496	2496	2514	2514	2514	2514	2514	2514	0	0	0	7444	7444	7608	7608	7959	8146	8146	8146	8146	8146	8343	8343	8343	8146	8146	8146	8146	8343	8343	8343	8550	8767	8767	0	0	0	0	0	0	0	0	0	0	0	0	0	0	0	0	0	0	0	0	0	0	0	0	0	0	0	0	0	0	0	0	0	0	0	0	0	0	0	0	0	0	0	7779	7779	7779	8146	8146	8146	8146	8146	8146	7959	7959	7779	7779	7779	7779	7779	7779	7959	8146	8146	8146	0	0	0	0	0	0	0	0	0	0	0	0	0	0	0	0	0	0	0	0	0	0	0	0	0	0	0	0	0	0	0	0	0	0	0	0	0	0	0	0	0	0	0	0	0	0	0	0	0	0	0	0	0	0	0	0	0	0	0	0	0	0	0	0	0	0	0	0	0	0	0	0	0	0	0	0	4296	4296	4350	4350	4350	4350	4350	4350	4350	4350	4350	4296	4296	4296	4296	4296	4296	4296	4296	4296	4296	4296	4296	4243	4243	4243	4243	4243	4243	4243	4243	4243	4243	4243	4243	4296	4296	4243	4243	4243	4243	4243	4296	4243	4296	4296	4296	4296	4350	4406	4463	4406	4406	4463	4463	4463	4406	4406	4350	4350	4350	4350	4350	4350	8767	8550	8343	8343	8343	8343	8343	8343	8550	8343	8550	8550	8343	8343	8343	8343	8343	8343	8343	8343	8343	8343	8343	8146	8343	8146	8146	8343	8343	8343	8343	8343	8343	8343	8343	8343	8343	8343	8343	8550	8550	8550	8343	8343	8343	8343	8343	8343	8343	8550	8550	8343	8343	8343	8550	8343	8343	8343	8343	8343	8343	8343	8343	8343	8343	8343	8343	8343	8146	8343	8343	8343	8343	8146	8146	8146	8146	7959	7959	7959	8146	8146	8343	8550	8343	8343	8343	8146	7959	7959	7779	7779	7779	7779	0	0	0	0	0	0	0	0	0	0	0	0	0	0	0	0	0	0	0	0	0	0	0	0	0	0	0	0	0	0	0	0	0	0	0	0	0	0	0	0	0	0	0	0	0	0	0	0	0	0	0	0	0	0	0	0	0	0	0	0	0	0	0	0	0	0	3101	3129	3129	3129	3129	3129	3129	3129	3129	3129	3129	3157	3157	3157	3157	3186	3186	3186	3186	3186	3186	3186	3157	3129	3157	3157	3129	3101	3101	3101	3101	3073	3046	3019	3019	0	0	0	0	0	2194	2194	2181	2181	2167	2167	2167	2153	2153	2153	2153	2153	2153	2140	2140	2140	2127	2101	2076	2063	2051	2039	2027	2015	2003	1992	1992	1980	1980	1980	1969	1969	1969	1980	1969	1969	1958	1958	1958	1958	1947	1947	1947	1936	1947	1936	1936	1936	1936	1936	1925	1936	1936	1936	1936	1936	1936	1936	1936	1936	1936	1936	1936	1936	1936	1936	1947	1958	1958	0	0	0	0	0	0	0	0	0	0	0	0	0	0	0	0	0	0	0	0	0	0	0	0	0	0	0	0	0	0	0	0	0	0	0	0	0
0	0	0	0	0	0	0	0	0	0	0	0	0	0	1833	1843	1843	1843	1853	1853	1863	1863	1873	1873	1883	1883	1894	1894	1904	1904	1904	1915	1925	1936	1936	1947	1958	1980	1980	1992	2015	2015	2003	2003	2015	2015	2027	2027	2039	2039	2051	2063	2076	2076	2076	2076	2076	2101	2114	2127	2140	2140	2153	2153	2167	2181	2194	2208	2223	2237	2237	2237	2237	2252	2252	2252	2266	2281	2281	2297	2297	2312	2312	2327	2327	2359	2343	2359	2376	2392	2409	2426	2426	2443	2443	2478	2496	2514	2514	2514	2514	2514	2551	2570	2570	0	0	7444	7444	7444	7444	7779	8146	8146	8146	8146	8343	8343	8343	8343	8146	8146	8146	8146	8343	8343	8550	8767	8767	8995	8995	8995	0	0	0	0	0	0	0	0	0	0	0	0	0	0	0	0	0	0	0	0	0	0	0	0	0	0	0	0	0	0	0	0	0	0	0	0	0	0	0	0	0	7779	7779	7779	8146	8146	8146	8146	8146	8146	8146	7959	7779	7959	7779	7959	7779	7779	7959	8146	8146	8146	0	0	0	0	0	0	0	0	0	0	0	0	0	0	0	0	0	0	0	0	0	0	0	0	0	0	0	0	0	0	0	0	0	0	0	0	0	0	0	0	0	0	0	0	0	0	0	0	0	0	0	0	0	0	0	0	0	0	0	0	0	0	0	0	0	0	0	0	0	0	0	0	0	0	0	4243	4243	4296	4350	4296	4350	4350	4350	4350	4350	4350	4296	4296	4296	4296	4296	4296	4296	4296	4296	4296	4296	4296	4296	4243	4243	4243	4243	4243	4243	4243	4243	4243	4243	4243	4243	4296	4296	4243	4243	4243	4243	4243	4243	4243	4243	4296	4296	4350	4406	4406	4406	4406	4406	4521	4463	4463	4463	4406	4350	4350	4350	4350	4350	8767	8767	8550	8343	8550	8146	8343	8343	8343	8343	8343	8550	8550	8343	8343	8343	8343	8343	8343	8343	8343	8343	8343	8343	8146	8146	8146	8146	8343	8146	8146	8343	8146	8146	8146	8343	8343	8343	8550	8550	8550	8550	8343	8343	8343	8550	8550	8343	8343	8550	8550	8550	8550	8343	8550	8550	8550	8343	8343	8343	8146	8343	8146	8146	8343	8343	8343	8343	8343	8146	8343	8343	8343	8343	8146	8146	8146	7959	7959	7959	7959	7959	8146	8343	8343	8550	8550	8550	8550	8343	8146	8146	7779	0	0	0	0	0	0	0	0	0	0	0	0	0	0	0	0	0	0	0	0	0	0	0	0	0	0	0	0	0	0	0	0	0	0	0	0	0	0	0	0	0	0	0	0	0	0	0	0	0	0	0	0	0	0	0	0	0	0	0	0	0	0	0	0	0	0	0	0	3101	3101	3101	3101	3129	3129	3129	3129	3129	3129	3129	3157	3157	3157	3157	3186	3216	3186	3186	3186	3186	3157	3157	3129	3129	3129	3129	3101	3101	3101	3073	3073	3046	3019	3019	3019	0	0	0	2223	2208	2194	2181	2181	2167	2167	2167	2167	2153	2153	2153	2153	2153	2153	2140	2140	2127	2101	2088	2076	2051	2039	2027	2015	2003	1992	1992	1980	1980	1969	1969	1969	1969	1969	1969	1969	1958	1958	1958	1958	1947	1947	1947	1936	1947	1936	1936	1936	1936	1936	1936	1936	1936	1936	1936	1936	1936	1936	1936	1936	1936	1936	1936	1936	1947	1947	1947	1958	1958	0	0	0	0	0	0	0	0	0	0	0	0	0	0	0	0	0	0	0	0	0	0	0	0	0	0	0	0	0	0	0	0	0	0	0	0	0
0	0	0	0	0	0	0	0	0	0	0	0	0	0	1833	1843	1843	1843	1853	1853	1863	1863	1873	1883	1883	1894	1894	1894	1904	1904	1904	1915	1925	1936	1936	1947	1958	1969	1980	1992	1992	2003	2003	2003	2015	2015	2015	2027	2039	2039	2051	2051	2063	2076	2076	2076	2101	2101	2114	2127	2140	2140	2140	2167	2167	2167	2181	2208	2208	2223	2237	2237	2237	2252	2252	2252	2266	2281	2281	2297	2297	2312	2312	2327	2327	2359	2359	2376	2376	2392	2409	2426	2443	2443	2443	2478	2496	2496	2514	2514	2532	2532	2570	2570	2570	0	0	7444	7287	7608	7608	7959	7959	8146	8146	8146	8343	8343	8343	8343	8146	8146	8146	8146	8146	8343	8550	8550	8550	8767	8767	8767	0	0	0	0	0	0	0	0	0	0	0	0	0	0	0	0	0	0	0	0	0	0	0	0	0	0	0	0	0	0	0	0	0	0	0	0	0	0	0	0	0	7779	7779	7779	8146	8146	8146	8146	8146	8146	8146	7959	7959	7959	7959	7959	7779	7779	7959	7959	8146	0	0	0	0	0	0	0	0	0	0	0	0	0	0	0	0	0	0	0	0	0	0	0	0	0	0	0	0	0	0	0	0	0	0	0	0	0	0	0	0	0	0	0	0	0	0	0	0	0	0	0	0	0	0	0	0	0	0	0	0	0	0	0	0	0	0	0	0	0	0	0	0	0	0	0	0	4243	4243	4296	4296	4296	4296	4350	4350	4350	4350	4350	4350	4296	4296	4296	4296	4296	4296	4296	4296	4296	4296	4296	4296	4243	4243	4243	4243	4243	4243	4243	4243	4243	4243	4243	4243	4296	4296	4243	4243	4243	4243	4243	4296	4296	4296	4296	4296	4350	4406	4406	4406	4406	4406	4463	4463	4463	4406	4406	4350	4350	4350	4350	0	8767	8767	8550	8550	8550	8146	8343	8343	8343	8343	8343	8343	8343	8343	8343	8343	8343	8343	8343	8343	8343	8343	8343	8343	8146	8146	8146	8146	8146	8146	8146	8146	8146	8343	8343	8343	8550	8550	8550	8343	8550	8550	8550	8343	8343	8343	8343	8343	8343	8343	8550	8550	8550	8550	8550	8550	8550	8343	8343	8343	8146	8343	8146	8146	8343	8343	8343	8343	8343	8146	8343	8343	8343	8343	8146	8146	8146	7959	7959	7959	7959	7959	8146	8343	8343	8343	8343	8343	8343	8146	7959	7959	0	0	0	0	0	0	0	0	0	0	0	0	0	0	0	0	0	0	0	0	0	0	0	0	0	0	0	0	0	0	0	0	0	0	0	0	0	0	0	0	0	0	0	0	0	0	0	0	0	0	0	0	0	0	0	0	0	0	0	0	0	0	0	0	0	0	0	0	0	0	3073	3073	3129	3129	3129	3129	3129	3129	3129	3129	3129	3157	3157	3186	3186	3186	3186	3186	3186	3186	3157	3157	3129	3129	3129	3101	3101	3101	3073	3073	3046	3019	3019	3019	3019	0	0	0	2223	2223	2223	2194	2181	2181	2181	2167	2167	2167	2167	2153	2153	2167	2153	2153	2153	2140	2114	2101	2076	2063	2039	2027	2015	2003	1992	1992	1980	1980	1969	1969	1969	1969	1980	1969	1958	1958	1958	1958	1958	1947	1947	1947	1936	1936	1936	1936	1936	1936	1936	1936	1936	1936	1936	1936	1936	1936	1936	1936	1936	1936	1936	1936	1936	1936	1947	1947	1958	1958	0	0	0	0	0	0	0	0	0	0	0	0	0	0	0	0	0	0	0	0	0	0	0	0	0	0	0	0	0	0	0	0	0	0	0	0	0
0	0	0	0	0	0	0	0	0	0	0	0	0	0	1824	1833	1843	1843	1853	1863	1873	1873	1873	1883	1883	1894	1894	1894	1904	1904	1904	1925	1925	1947	1947	1969	1969	1969	1980	1980	1992	1992	1992	1992	1992	2015	2027	2027	2039	2051	2051	2051	2063	2076	2076	2088	2101	2101	2114	2127	2140	2153	2153	2167	2181	2181	2194	2194	2208	2223	2237	2237	2237	2252	2252	2252	2266	2281	2281	2297	2297	2312	2312	2327	2343	2359	2359	2376	2392	2392	2409	2426	2426	2443	2443	2443	2478	2496	2496	2514	2532	2570	2551	2532	2532	0	0	7444	7287	7608	7608	7959	7959	8146	8146	8146	8343	8343	8146	8146	8146	8146	8146	8146	8146	8343	8343	8550	8550	8767	8550	8550	0	0	0	0	0	0	0	0	0	0	0	0	0	0	0	0	0	0	0	0	0	0	0	0	0	0	0	0	0	0	0	0	0	0	0	0	0	0	0	0	0	0	0	0	8146	8146	8146	8146	8146	8146	8146	7959	7959	7959	7959	7959	7959	7959	7959	7959	8146	0	0	0	0	0	0	0	0	0	0	0	0	0	0	0	0	0	0	0	0	0	0	0	0	0	0	0	0	0	0	0	0	0	0	0	0	0	0	0	0	0	0	0	0	0	0	0	0	0	0	0	0	0	0	0	0	0	0	0	0	0	0	0	0	0	0	0	0	0	0	0	0	0	0	0	0	4243	4243	4243	4296	4296	4296	4350	4350	4350	4350	4350	4296	4296	4296	4296	4296	4296	4296	4296	4296	4296	4296	4296	4296	4243	4296	4296	4243	4243	4243	4243	4243	4243	4243	4243	4243	4243	4243	4243	4243	4243	4243	4243	4296	4296	4296	4296	4296	4406	4406	4406	4406	4406	4463	4463	4463	4463	4406	4406	4350	4350	4350	4350	0	8767	8550	8550	8343	8550	8343	8343	8343	8343	8343	8343	8343	8343	8343	8146	8343	8343	8343	8343	8343	8343	8343	8343	8343	8146	8146	8146	8146	8146	8146	8146	8146	8146	8343	8343	8343	8343	8343	8343	8343	8343	8550	8550	8550	8343	8343	8343	8343	8343	8343	8550	8550	8550	8550	8550	8550	8550	8550	8550	8343	8146	8343	8146	8146	8146	8146	8146	8146	8343	8146	8343	8343	8343	8343	8146	8146	8146	8146	7959	7959	7959	7959	7959	8343	8343	8550	8343	8343	8343	8146	7959	7959	0	0	0	0	0	0	0	0	0	0	0	0	0	0	0	0	0	0	0	0	0	0	0	0	0	0	0	0	0	0	0	0	0	0	0	0	0	0	0	0	0	0	0	0	0	0	0	0	0	0	0	0	0	0	0	0	0	0	0	0	0	0	0	0	0	0	0	0	0	0	3046	3046	3129	3129	3129	3129	3129	3129	3129	3129	3157	3157	3157	3186	3186	3186	3186	3186	3186	3186	3157	3157	3129	3129	3129	3101	3101	3101	3073	3073	3046	3019	3019	3019	0	0	2237	2223	2223	2223	2223	2208	2194	2181	2181	2167	2167	2167	2167	2167	2153	2153	2153	2153	2153	2140	2127	2114	2088	2063	2039	2027	2015	2003	1992	1992	1980	1980	1969	1969	1969	1958	1969	1969	1958	1958	1958	1947	1958	1947	1947	1947	1936	1936	1936	1936	1936	1936	1936	1936	1936	1936	1936	1936	1936	1936	1936	1936	1936	1936	1936	1936	1936	1947	1947	1958	1969	1969	0	0	0	0	0	0	0	0	0	0	0	0	0	0	0	0	0	0	0	0	0	0	0	0	0	0	0	0	0	0	0	0	0	0	0	0	0
0	0	0	0	0	0	0	0	0	0	0	0	0	0	1833	1843	1843	1853	1853	1853	1863	1863	1873	1883	1883	1894	1894	1894	1904	1904	1904	1915	1925	1947	1947	1947	1958	1969	1969	1980	1980	1980	1992	1992	2015	2015	2027	2027	2039	2051	2051	2063	2063	2076	2088	2088	2088	2088	2114	2127	2127	2153	2167	2167	2181	2181	2194	2194	2208	2223	2237	2237	2252	2252	2252	2252	2266	2281	2297	2312	2312	2312	2327	2327	2327	2359	2359	2376	2376	2392	2409	2426	2443	2443	2443	2460	2496	2496	2496	2514	2514	2532	2514	2532	2532	0	0	0	7444	7779	7779	8146	8146	8146	8343	8146	8146	8146	8146	8343	8146	8146	8146	8146	8343	8343	8343	8550	8550	8767	8550	8550	0	0	0	0	0	0	0	0	0	0	0	0	0	0	0	0	0	0	0	0	0	0	0	0	0	0	0	0	0	0	0	0	0	0	0	0	0	0	0	0	0	0	0	0	8146	8146	7779	8146	7959	7959	7959	7959	7959	7959	7959	7959	7959	7959	7959	7959	0	0	0	0	0	0	0	0	0	0	0	0	0	0	0	0	0	0	0	0	0	0	0	0	0	0	0	0	0	0	0	0	0	0	0	0	0	0	0	0	0	0	0	0	0	0	0	0	0	0	0	0	0	0	0	0	0	0	0	0	0	0	0	0	0	0	0	0	0	0	0	0	0	0	0	0	4243	4243	4243	4243	4296	4296	4296	4296	4296	4350	4350	4296	4350	4350	4296	4296	4296	4296	4296	4296	4296	4296	4296	4296	4296	4296	4243	4243	4243	4243	4243	4243	4243	4243	4243	4243	4243	4243	4243	4243	4243	4243	4243	4296	4296	4296	4296	4296	4296	4350	4406	4406	4406	4406	4406	4521	4406	4350	4350	4406	4350	4350	4350	4350	0	8550	8550	8343	8343	8343	8343	8343	8343	8343	8343	8343	8343	8343	8343	8146	8343	8343	8343	8343	8343	8343	8343	8343	8343	8146	8146	8146	8146	8146	8146	8146	8343	8146	8343	8146	8146	8146	8146	8343	8146	8343	8550	8550	8343	8343	8343	8146	8343	8343	8343	8343	8343	8343	8550	8550	8550	8550	8550	8550	8343	8146	8146	8146	8146	8146	8146	8146	8343	8343	8146	8146	8146	8343	8343	8146	8146	8146	8146	8146	7959	7959	7959	7959	8146	8146	8343	8343	8343	8343	8146	7959	7959	0	0	0	0	0	0	0	0	0	0	0	0	0	0	0	0	0	0	0	0	0	0	0	0	0	0	0	0	0	0	0	0	0	0	0	0	0	0	0	0	0	0	0	0	0	0	0	0	0	0	0	0	0	0	0	0	0	0	0	0	0	0	0	0	0	0	0	0	0	0	3046	3046	3046	3157	3157	3129	3129	3129	3129	3129	3157	3129	3157	3157	3186	3186	3186	3157	3157	3157	3157	3157	3129	3129	3129	3101	3101	3101	3101	3073	3046	3019	3019	3019	3019	0	2237	2223	2223	2223	2223	2208	2194	2194	2181	2167	2167	2167	2167	2153	2153	2153	2153	2153	2153	2153	2140	2127	2114	2088	2051	2039	2003	1992	1992	1980	1980	1980	1969	1969	1969	1958	1969	1969	1958	1947	1947	1947	1958	1947	1947	1947	1936	1936	1936	1936	1936	1936	1936	1936	1936	1936	1936	1936	1936	1936	1936	1936	1936	1936	1936	1936	1936	1947	1947	1958	1969	1969	0	0	0	0	0	0	0	0	0	0	0	0	0	0	0	0	0	0	0	0	0	0	0	0	0	0	0	0	0	0	0	0	0	0	0	0	0
0	0	0	0	0	0	0	0	0	0	0	0	0	0	1824	1833	1843	1843	1853	1853	1863	1873	1873	1883	1894	1894	1894	1894	1904	1904	1915	1915	1936	1936	1947	1958	1969	1969	1980	1980	1980	1980	1992	1992	2003	2015	2015	2027	2039	2051	2063	2063	2076	2088	2088	2088	2088	2088	2114	2140	2140	2153	2167	2181	2181	2181	2181	2194	2208	2237	2237	2237	2252	2252	2252	2252	2266	2281	2297	2312	2312	2312	2312	2327	2327	2359	2376	2376	2392	2409	2409	2426	2426	2443	2460	2460	2496	2496	2496	2514	2514	2532	2514	2532	2532	2532	0	0	7444	8146	8146	8146	8146	8343	8343	8146	8146	8146	8343	8146	8146	8146	8146	8146	8343	8343	8343	8550	8550	8550	8343	8343	0	0	0	0	0	0	0	0	0	0	0	0	0	0	0	0	0	0	0	0	0	0	0	0	0	0	0	0	0	0	0	0	0	0	0	0	0	0	0	0	0	0	0	0	8146	7959	7959	7959	7959	7959	7959	7959	7959	7959	8146	8146	8146	8146	8146	8146	0	0	0	0	0	0	0	0	0	0	0	0	0	0	0	0	0	0	0	0	0	0	0	0	0	0	0	0	0	0	0	0	0	0	0	0	0	0	0	0	0	0	0	0	0	0	0	0	0	0	0	0	0	0	0	0	0	0	0	0	0	0	0	0	0	0	0	0	0	0	0	0	0	0	0	0	4243	4243	4243	4296	4296	4296	4296	4296	4296	4350	4350	4350	4350	4350	4296	4296	4296	4296	4296	4296	4296	4296	4296	4296	4243	4243	4243	4243	4243	4243	4243	4243	4243	4243	4243	4243	4243	4243	4243	4243	4243	4243	4243	4243	4243	4243	4243	4296	4296	4350	4350	4350	4406	4350	4350	4406	4350	4350	4350	4350	4350	4350	4350	4350	4350	8550	8343	8550	8343	8343	8343	8343	8343	8343	8343	8343	8343	8343	8343	8146	8146	8343	8343	8343	8343	8343	8343	8343	8343	8343	8146	8146	8146	8146	8146	8146	8343	8146	8343	8146	8146	8146	8146	8146	8146	8343	8343	8343	8146	8343	8343	8146	8343	8146	8343	8343	8343	8343	8550	8550	8550	8550	8550	8550	8550	8343	8343	8343	8146	8146	8146	8146	8146	8146	8146	8146	8146	8343	8343	8146	8146	8146	8146	8146	8146	7959	7959	7959	8146	8146	8146	8146	8146	8146	0	0	0	0	0	0	0	0	0	0	0	0	0	0	0	0	0	0	0	0	0	0	0	0	0	0	0	0	0	0	0	0	0	0	0	0	0	0	0	0	0	0	0	0	0	0	0	0	0	0	0	0	0	0	0	0	0	0	0	0	0	0	0	0	3621	3621	3621	3621	3621	3621	3621	3621	0	0	3046	3046	3157	3157	3129	3129	3129	3129	3157	3157	3157	3157	3157	3157	3157	3157	3157	3157	3129	3129	3129	3129	3129	3129	3129	3101	3101	3073	3073	3046	3019	3019	3019	3019	0	2237	2237	2237	2237	2237	2223	2208	2208	2208	2194	2181	2181	2167	2167	2167	2153	2153	2153	2153	2153	2153	2140	2114	2088	2051	2027	2003	1992	1980	1980	1980	1969	1969	1969	1958	1958	1969	1958	1958	1958	1947	1947	1958	1958	1947	1947	1947	1936	1936	1936	1936	1936	1936	1936	1936	1936	1936	1936	1936	1936	1936	1936	1936	1936	1936	1936	1947	1947	1947	1969	1969	1969	0	0	0	0	0	0	0	0	0	0	0	0	0	0	0	0	0	0	0	0	0	0	0	0	0	0	0	0	0	0	0	0	0	0	0	0	0
0	0	0	0	0	0	0	0	0	0	0	0	0	0	1824	1833	1843	1853	1853	1853	1863	1873	1873	1873	1873	1894	1894	1894	1894	1925	1925	1925	1936	1947	1958	1958	1969	1969	1980	1980	1980	1980	1992	1992	2003	2015	2015	2027	2051	2063	2063	2063	2076	2076	2088	2076	2088	2088	2114	2127	2140	2153	2167	2167	2181	2181	2194	2194	2208	2223	2237	2237	2252	2252	2252	2252	2266	2281	2297	2297	2312	2327	2327	2327	2343	2359	2376	2376	2409	2409	2426	2426	2443	2443	2460	2478	2496	2496	2514	2514	2514	2532	2532	2532	2532	2532	0	0	0	8343	8343	8343	8343	8343	8343	8343	8343	8146	8146	8146	7959	7959	7959	7959	8146	8343	8146	8550	8550	8550	8550	8550	0	0	0	0	0	0	0	0	0	0	0	0	0	0	0	0	0	0	0	0	0	0	0	0	0	0	0	0	0	0	0	0	0	0	0	0	0	0	0	0	0	0	0	0	8146	7959	7959	7959	7959	7959	7959	7959	7959	8146	8146	8146	8146	8146	8146	8146	0	0	0	0	0	0	0	0	0	0	0	0	0	0	0	0	0	0	0	0	0	0	0	0	0	0	0	0	0	0	0	0	0	0	0	0	0	0	0	0	0	0	0	0	0	0	0	0	0	0	0	0	0	0	0	0	0	0	0	0	0	0	0	0	0	0	0	0	0	0	0	0	0	0	0	0	4243	4243	4243	4243	4296	4296	4296	4296	4296	4350	4350	4350	4296	4296	4296	4296	4296	4296	4296	4296	4296	4243	4243	4296	4243	4243	4243	4243	4243	4243	4243	4243	4243	4243	4243	4243	4243	4243	4243	4243	4243	4243	4243	4296	4296	4243	4243	4296	4296	4350	4350	4350	4350	4350	4350	4350	4350	4350	4350	4296	4296	4350	4350	4350	4350	0	8343	8550	8343	8550	8343	8343	8343	8146	8146	8146	8146	8343	8343	8146	8146	8343	8343	8343	8343	8343	8343	8343	8343	8146	8146	8146	8146	8146	8146	8146	8146	8146	8343	8146	8146	8146	8146	8146	8146	8146	8343	8343	7959	8146	8343	8146	8343	8343	8146	8343	8550	8343	8550	8550	8550	8550	8550	8550	8550	8343	8146	8146	8146	8146	8146	8146	8146	8146	8146	8146	8146	8146	8146	8146	8146	8146	8146	8146	8146	7959	7959	7959	8146	7959	8146	8146	8146	8146	8146	0	0	0	0	0	0	0	0	0	0	0	0	0	0	0	0	0	0	0	0	0	0	0	0	0	0	0	0	0	0	0	0	0	0	0	0	0	0	0	0	0	0	0	0	0	0	0	0	0	0	0	0	0	0	0	0	0	0	0	0	0	0	3583	3621	3621	3621	3583	3583	3583	3583	3583	3583	0	0	3129	3157	3157	3129	3129	3129	3129	3157	3157	3157	3157	3157	3157	3157	3129	3129	3129	3129	3129	3129	3129	3129	3129	3129	3101	3101	3073	3073	3046	3019	3019	3019	0	0	2237	2237	2237	2237	2223	2223	2223	2208	2208	2194	2194	2181	2167	2167	2153	2153	2153	2153	2153	2153	2153	2140	2127	2088	2039	2015	1992	1992	1980	1980	1980	1969	1969	1969	1969	1969	1969	1969	1958	1958	1947	1947	1947	1958	1947	1947	1947	1936	1936	1936	1936	1936	1936	1936	1936	1936	1936	1936	1936	1936	1936	1936	1936	1936	1936	1936	1947	1947	1947	1969	1969	1969	0	0	0	0	0	0	0	0	0	0	0	0	0	0	0	0	0	0	0	0	0	0	0	0	0	0	0	0	0	0	0	0	0	0	0	0	0
0	0	0	0	0	0	0	0	0	0	0	0	0	0	1824	1833	1843	1853	1853	1853	1853	1853	1873	1883	1894	1894	1894	1904	1915	1925	1925	1925	1936	1947	1947	1958	1969	1969	1980	1980	1980	1992	1992	2003	2015	2015	2015	2027	2039	2063	2063	2076	2076	2088	2088	2101	2101	2114	2114	2140	2140	2153	2167	2181	2181	2181	2194	2208	2208	2223	2237	2237	2252	2252	2252	2266	2281	2281	2297	2297	2312	2312	2327	2343	2343	2359	2376	2376	2392	2409	2426	2426	2443	2443	2460	2478	2478	2478	2496	2514	2514	2532	2514	2532	2514	2514	0	0	8343	8343	8343	8343	8146	8343	8343	8343	8343	8146	8146	8146	7959	7959	7959	8146	8146	8146	8146	8146	8343	8343	8550	8550	0	0	0	0	0	0	0	0	0	0	0	0	0	0	0	0	0	0	0	0	0	0	0	0	0	0	0	0	0	0	0	0	0	0	0	0	0	0	0	0	0	0	0	8146	8146	7959	7959	7959	7959	7959	7959	7959	7959	8146	8146	8146	8146	8146	8146	8146	0	0	0	0	0	0	0	0	0	0	0	0	0	0	0	0	0	0	0	0	0	0	0	0	0	0	0	0	0	0	0	0	0	0	0	0	0	0	0	0	0	0	0	0	0	0	0	0	0	0	0	0	0	0	0	0	0	0	0	0	0	0	0	0	0	0	0	0	0	0	0	0	0	0	0	0	0	4296	4243	4243	4296	4296	4296	4296	4296	4350	4350	4350	4296	4296	4296	4296	4296	4296	4296	4296	4296	4243	4296	4296	4243	4243	4243	4243	4243	4243	4243	4243	4243	4243	4243	4243	4243	4243	4243	4243	4243	4243	4243	4243	4296	4243	4296	4296	4296	4350	4350	4350	4350	4350	4350	4350	4350	4350	4350	4350	4350	4350	4296	4296	4350	8550	8343	8343	8343	8343	8343	8343	8343	8343	8146	8343	8343	8343	8343	8343	8343	8343	8343	8343	8146	8146	8343	8343	8343	7959	8146	8146	8146	8146	8343	8146	8146	8146	8343	8343	8146	8146	8146	8146	8146	8146	8343	8343	8550	8343	8550	8550	8343	8343	8146	8343	8550	8550	8550	8550	8550	8550	8550	8550	8550	8550	8343	8343	8343	8146	8146	8146	8146	8146	8146	8146	7959	8146	8146	8146	8146	8146	8146	8146	8146	8146	7959	7959	7959	7959	7959	8146	8146	8146	8146	0	0	0	0	0	0	0	0	0	0	0	0	0	0	0	0	0	0	0	0	0	0	0	0	0	0	0	0	0	0	0	0	0	0	0	0	0	0	0	0	0	0	0	0	0	0	0	0	0	0	0	0	0	0	0	0	0	0	0	0	3659	3659	3621	3621	3621	3621	3583	3583	3583	3583	3583	3583	3583	0	3073	3157	3157	3157	3157	3157	3157	3157	3157	3157	3157	3157	3157	3157	3129	3129	3129	3129	3129	3129	3129	3129	3129	3129	3101	3101	3073	3073	3046	3046	3019	3019	3019	0	2237	2237	2237	2237	2237	2223	2223	2223	2223	2208	2194	2181	2181	2167	2167	2153	2153	2153	2153	2153	2140	2140	2127	2127	2027	2015	1992	1980	1980	1980	1980	1969	1969	1969	1969	1969	1969	1969	1958	1958	1947	1947	1947	1947	1947	1947	1947	1936	1936	1936	1936	1936	1936	1936	1936	1936	1936	1936	1936	1936	1936	1936	1936	1936	1936	1947	1947	1958	1958	1958	1969	1969	0	0	0	0	0	0	0	0	0	0	0	0	0	0	0	0	0	0	0	0	0	0	0	0	0	0	0	0	0	0	0	0	0	0	0	0	0
0	0	0	0	0	0	0	0	0	0	0	0	0	0	1824	1833	1833	1853	1853	1853	1853	1863	1873	1873	1894	1894	1894	1894	1915	1925	1925	1925	1947	1947	1958	1958	1958	1969	1969	1980	1980	1992	1992	2003	2015	2015	2015	2027	2039	2051	2063	2076	2076	2088	2088	2101	2101	2114	2114	2140	2140	2167	2167	2181	2181	2181	2194	2208	2223	2237	2237	2237	2252	2252	2252	2266	2266	2281	2297	2297	2312	2312	2327	2343	2359	2376	2376	2376	2392	2392	2409	2409	2426	2443	2460	2460	2478	2478	2496	2514	2514	2532	2514	2514	2514	2514	0	0	8343	8550	8343	8343	8343	8343	8343	8343	8343	8146	8343	8146	8146	7959	7959	8146	8146	8343	8146	8146	8343	8343	0	0	0	0	0	0	0	0	0	0	0	0	0	0	0	0	0	0	0	0	0	0	0	0	0	0	0	0	0	0	0	0	0	0	0	0	0	0	0	0	0	0	0	0	8146	8146	8146	7959	7959	7959	7779	7779	7779	7779	7779	7959	7959	7959	7959	8146	7959	7959	0	0	0	0	0	0	0	0	0	0	0	0	0	0	0	0	0	0	0	0	0	0	0	0	0	0	0	0	0	0	0	0	0	0	0	0	0	0	0	0	0	0	0	0	0	0	0	0	0	0	0	0	0	0	0	0	0	0	0	0	0	0	0	0	0	0	0	0	0	0	0	0	0	0	0	0	0	4296	4243	4296	4296	4296	4296	4296	4296	4296	4350	4296	4296	4296	4296	4296	4296	4296	4296	4296	4296	4243	4243	4296	4243	4243	4243	4296	4243	4243	4243	4243	4243	4243	4243	4243	4243	4243	4243	4243	4243	4243	4243	4243	4296	4243	4243	4296	4296	4350	4350	4350	4406	4350	4350	4350	4406	4350	4350	4350	4350	4296	4296	4296	4296	8550	7959	8343	8550	8343	8343	8146	8343	8343	8146	8343	8343	8343	8343	8550	8343	8343	8343	8146	8146	8146	8146	8343	8343	8343	8343	8343	8343	8343	8146	8146	8146	8146	8146	8146	8146	8146	8146	8146	7959	8146	8146	8343	7959	7959	8343	8343	8550	8343	8343	8550	8550	8343	8343	8550	8343	8550	8550	8550	8550	8550	8343	8343	8343	8146	8146	8146	8146	8146	8146	8146	7959	7959	8146	8146	8146	8146	8146	8146	8146	8146	8146	8146	8146	7959	7959	8146	8146	8146	8146	0	0	0	0	0	0	0	0	0	0	0	0	0	0	0	0	0	0	0	0	0	0	0	0	0	0	0	0	0	0	0	0	0	0	0	0	0	0	0	0	0	0	0	0	0	0	0	0	0	0	0	0	0	0	0	0	0	0	0	0	3659	3659	3659	3621	3621	3621	3583	3621	3621	3583	3583	3583	3583	0	3157	3157	3157	3157	3157	3157	3157	3157	3157	3157	3157	3157	3157	3157	3129	3129	3129	3129	3129	3129	3129	3129	3129	3129	3101	3101	3101	3101	3073	3073	3046	3019	3019	0	2237	2237	2237	2237	2237	2223	2237	2223	2223	2223	2208	2194	2181	2167	2167	2167	2167	2153	2153	2153	2153	2140	2127	2063	2027	2015	2003	1980	1980	1969	1969	1969	1969	1969	1969	1969	1969	1969	1969	1969	1947	1947	1947	1958	1947	1947	1947	1936	1936	1936	1936	1936	1936	1936	1936	1936	1936	1936	1936	1936	1936	1936	1936	1936	1936	1947	1947	1958	1958	1969	1969	1969	0	0	0	0	0	0	0	0	0	0	0	0	0	0	0	0	0	0	0	0	0	0	0	0	0	0	0	0	0	0	0	0	0	0	0	0	0
0	0	0	0	0	0	0	0	0	0	0	0	0	0	1824	1833	1843	1853	1853	1853	1853	1863	1863	1873	1883	1883	1894	1894	1904	1925	1925	1925	1936	1947	1958	1958	1958	1969	1969	1980	1980	1992	2003	2003	2015	2027	2027	2027	2039	2051	2063	2076	2076	2088	2088	2088	2101	2114	2114	2140	2140	2167	2167	2181	2181	2194	2194	2223	2223	2237	2237	2252	2252	2252	2252	2266	2266	2281	2297	2297	2312	2312	2327	2327	2343	2376	2376	2376	2392	2409	2426	2426	2426	2443	2460	2460	2478	2478	2496	2496	2514	2514	2514	2514	2514	2514	0	0	8550	8550	8550	8343	8343	8343	8343	8343	8343	8343	8343	7959	7959	7959	8146	8146	8146	8146	8146	8146	0	0	0	0	0	0	0	0	0	0	0	0	0	0	0	0	0	0	0	0	0	0	0	0	0	0	0	0	0	0	0	0	0	0	0	0	0	0	0	0	0	0	0	0	0	0	8146	8146	8146	7959	7959	7959	7779	7779	7608	7608	7779	7779	7959	7959	7959	7959	8146	8146	0	0	0	0	0	0	0	0	0	0	0	0	0	0	0	0	0	0	0	0	0	0	0	0	0	0	0	0	0	0	0	0	0	0	0	0	0	0	0	0	0	0	0	0	0	0	0	0	0	0	0	0	0	0	0	0	0	0	0	0	0	0	0	0	0	0	0	0	0	0	0	0	0	0	0	0	0	4296	4296	4296	4296	4296	4296	4296	4350	4350	4296	4296	4296	4296	4296	4296	4296	4243	4296	4296	4243	4243	4296	4296	4243	4296	4296	4243	4243	4243	4243	4243	4243	4243	4243	4243	4243	4243	4243	4243	4243	4243	4243	4296	4296	4243	4296	4296	4296	4350	4350	4350	4406	4350	4350	4350	4350	4350	4350	4350	4350	4296	4296	4296	4296	8550	7959	8146	8550	8343	8343	8146	8343	8343	8146	8343	8343	8343	8550	8550	8343	8343	8343	8343	8146	8146	8146	8146	8343	8343	8343	8343	8343	8343	8343	8146	8146	8146	8146	8146	8146	8146	8146	8146	7959	8146	8146	7959	7959	8146	8146	8550	8343	8550	8343	8343	8343	8343	8343	8343	8343	8343	8343	8550	8550	8550	8343	8343	8343	8146	8146	8146	7959	7959	7959	7959	7959	7959	8146	8146	8146	8146	8146	8146	8146	8146	8146	8146	8146	7959	7959	7959	7959	7959	7959	7959	0	0	0	0	0	0	0	0	0	0	0	0	0	0	0	0	0	0	0	0	0	0	0	0	0	0	0	0	0	0	0	0	0	0	0	0	0	0	0	0	0	0	0	0	0	0	0	0	0	0	0	0	0	0	0	0	0	0	0	3659	3659	3659	3621	3621	3621	3621	3621	3621	3621	3583	3583	3583	3186	3186	3157	3157	3157	3157	3157	3157	3157	3157	3157	3157	3157	3157	3157	3129	3129	3129	3129	3129	3129	3129	3129	3129	3129	3101	3101	3101	3101	3073	3101	3101	3073	3073	0	2237	2223	2237	2223	2223	2223	2223	2223	2223	2223	2208	2194	2181	2181	2167	2167	2167	2153	2153	2153	2153	2153	2127	2114	2027	2015	1980	1980	1980	1969	1969	1969	1969	1969	1969	1969	1969	1980	1980	1980	1969	1947	1947	1958	1947	1947	1947	1947	1947	1947	1947	1947	1936	1947	1936	1936	1936	1936	1936	1936	1936	1936	1936	1936	1936	1947	1947	1958	1958	1969	1969	1969	0	0	0	0	0	0	0	0	0	0	0	0	0	0	0	0	0	0	0	0	0	0	0	0	0	0	0	0	0	0	0	0	0	0	0	0	0
0	0	0	0	0	0	0	0	0	0	0	0	0	0	1833	1843	1843	1843	1853	1853	1853	1863	1863	1873	1883	1883	1883	1894	1904	1915	1925	1925	1936	1947	1947	1958	1958	1980	1980	1980	1980	1992	2003	2015	2015	2015	2027	2027	2051	2051	2063	2076	2088	2088	2088	2088	2101	2114	2114	2140	2140	2153	2167	2181	2181	2194	2223	2237	2237	2237	2237	2252	2252	2252	2252	2252	2266	2266	2297	2297	2312	2312	2327	2327	2359	2376	2376	2376	2392	2409	2426	2426	2426	2443	2460	2478	2496	2496	2496	2514	2514	2514	2532	2532	2532	2532	0	0	8550	8550	8550	8343	8343	8343	8343	8146	8146	8146	8146	8146	8146	8146	8146	8146	8146	8146	8146	8146	0	0	0	0	0	0	0	0	0	0	0	0	0	0	0	0	0	0	0	0	0	0	0	0	0	0	0	0	0	0	0	0	0	0	0	0	0	0	0	0	0	0	0	0	0	0	8146	8343	8343	8146	8146	7959	7959	7608	7608	7608	7779	7779	7959	7959	7959	7959	8146	8146	0	0	0	0	0	0	0	0	0	0	0	0	0	0	0	0	0	0	0	0	0	0	0	0	0	0	0	0	0	0	0	0	0	0	0	0	0	0	0	0	0	0	0	0	0	0	0	0	0	0	0	0	0	0	0	0	0	0	0	0	0	0	0	0	0	0	0	0	0	0	0	0	0	0	0	0	0	4296	4350	4296	4296	4296	4296	4296	4296	4296	4296	4296	4296	4296	4296	4296	4296	4243	4296	4296	4243	4243	4243	4296	4243	4243	4243	4243	4243	4243	4243	4243	4243	4243	4243	4243	4243	4243	4243	4243	4243	4243	4243	4296	4296	4243	4296	4296	4296	4350	4350	4350	4406	4350	4350	4350	4350	4350	4350	4350	4350	4296	4350	4350	4350	0	7959	8146	8146	8343	8146	8146	8146	8343	8343	8343	8343	8343	8343	8550	8343	8343	8343	8343	8343	8146	8146	8146	8343	8343	8343	8343	8343	8343	8343	8146	8146	8146	8146	8146	8146	8343	8343	8146	7959	7959	7959	7959	7959	7959	8343	8343	8550	8550	8343	8343	8343	8146	8146	8146	8146	8146	8343	8343	8343	8343	8343	8343	8343	8343	8146	8343	8343	8146	7959	8146	7959	7959	8146	8146	8146	8146	8146	8146	8146	8146	8146	8146	8146	8146	7959	7959	7959	7959	7959	7959	0	0	0	0	0	0	0	0	0	0	0	0	0	0	0	0	0	0	0	0	0	0	0	0	0	0	0	0	0	0	0	0	0	0	0	0	0	0	0	0	0	0	0	0	0	0	0	0	0	0	0	0	0	0	0	0	0	0	0	3621	3621	3621	3621	3621	3621	3621	3621	3621	3621	3583	3583	3583	3186	3186	3157	3157	3157	3157	3129	3157	3157	3157	3157	3157	3157	3157	3157	3129	3129	3129	3129	3129	3129	3129	3129	3129	3129	3101	3101	3101	3101	3101	3101	3101	3101	3101	0	0	2223	2223	2223	2223	2223	2223	2223	2223	2223	2208	2194	2181	2181	2167	2167	2167	2167	2167	2153	2153	2153	2140	2140	2015	2003	1980	1980	1980	1969	1969	1969	1969	1969	1969	1969	1980	1980	1980	1980	1969	1958	1947	1947	1947	1947	1947	1947	1947	1947	1947	1947	1936	1936	1936	1936	1936	1936	1936	1936	1936	1936	1936	1936	1936	1947	1947	1958	1958	1958	1969	1969	0	0	0	0	0	0	0	0	0	0	0	0	0	0	0	0	0	0	0	0	0	0	0	0	0	0	0	0	0	0	0	0	0	0	0	0	0
0	0	0	0	0	0	0	0	0	0	0	0	0	0	1824	1833	1843	1843	1853	1853	1863	1863	1863	1873	1883	1883	1883	1894	1904	1925	1925	1925	1936	1947	1958	1958	1969	1980	1980	1992	1992	2003	2027	2027	2027	2027	2027	2039	2039	2039	2063	2076	2088	2088	2088	2088	2101	2114	2114	2140	2140	2153	2167	2181	2181	2194	2237	2237	2237	2237	2237	2237	2237	2237	2252	2252	2266	2281	2281	2297	2297	2312	2327	2343	2359	2376	2376	2392	2392	2409	2426	2426	2426	2443	2460	2478	2478	2496	2496	2496	2514	2514	2532	2532	2532	2532	0	8550	8343	8343	8343	8343	8343	8343	8343	8146	8146	8343	8343	8343	8343	8343	8343	8343	8343	8343	8343	8343	0	0	0	0	0	0	0	0	0	0	0	0	0	0	0	0	0	0	0	0	0	0	0	0	0	0	0	0	0	0	0	0	0	0	0	0	0	0	0	0	0	0	0	0	0	0	0	8343	8343	8146	8146	7959	7779	7608	7608	7608	7779	7779	7779	7779	7959	7779	7779	7779	0	0	0	0	0	0	0	0	0	0	0	0	0	0	0	0	0	0	0	0	0	0	0	0	0	0	0	0	0	0	0	0	0	0	0	0	0	0	0	0	0	0	0	0	0	0	0	0	0	0	0	0	0	0	0	0	0	0	0	0	0	0	0	0	0	0	0	0	0	0	0	0	0	0	0	4463	4406	4350	4296	4296	4296	4296	4296	4296	4350	4296	4296	4350	4296	4296	4296	4296	4296	4243	4296	4243	4243	4243	4243	4296	4243	4243	4243	4243	4243	4243	4243	4243	4243	4243	4243	4243	4243	4243	4243	4296	4243	4243	4296	4296	4296	4243	4296	4296	4296	4296	4350	4406	4406	4406	4350	4406	4350	4350	4350	4350	4350	4350	4350	4350	4350	0	7959	8146	8146	8146	8146	8146	8146	8343	8343	8343	8146	8146	8343	8550	8343	8343	8343	8146	8146	8146	7959	7959	8146	8146	8146	8146	8146	8146	8146	8146	8146	8146	8146	8146	8146	8146	8146	8146	7959	7959	7959	7959	7959	8146	8146	8343	8550	8550	8550	8343	8343	8343	8146	8146	8146	8146	8146	8343	8343	8343	8343	8343	8343	8343	8146	8343	8146	7959	7959	7959	7959	7959	8146	8146	8146	7959	7959	8146	8146	7959	7959	7959	7959	7959	7959	7959	7959	7959	7779	7779	0	0	0	0	0	0	0	0	0	0	0	0	0	0	0	0	0	0	0	0	0	0	0	0	0	0	0	0	0	0	0	0	0	0	0	0	0	0	0	0	0	0	0	0	0	0	0	0	0	0	0	0	0	0	0	0	0	0	3659	3621	3659	3621	3621	3621	3621	3621	3621	3621	3621	3621	3621	3621	3186	3186	3157	3157	3157	3157	3129	3129	3157	3129	3157	3157	3129	3157	3157	3129	3129	3129	3129	3129	3129	3129	3129	3129	3129	3101	3101	3101	3101	3101	3101	3101	3101	3101	0	0	2223	2223	2223	2223	2223	2223	2223	2223	2208	2208	2194	2194	2181	2181	2167	2167	2167	2167	2167	2153	2153	2140	2127	2003	1992	1980	1980	1980	1969	1969	1969	1969	1969	1969	1969	1980	1980	1980	1980	1980	1969	1947	1958	1947	1947	1947	1947	1947	1947	1947	1936	1936	1936	1936	1936	1936	1936	1936	1936	1936	1936	1936	1936	1947	1947	1958	1958	1958	1958	1969	1969	0	0	0	0	0	0	0	0	0	0	0	0	0	0	0	0	0	0	0	0	0	0	0	0	0	0	0	0	0	0	0	0	0	0	0	0	0
0	0	0	0	0	0	0	0	0	0	0	0	0	0	1833	1843	1843	1853	1853	1853	1863	1863	1863	1873	1873	1883	1883	1894	1894	1915	1925	1925	1936	1947	1947	1947	1958	1969	1980	1992	1992	2015	2015	2027	2027	2027	2027	2027	2039	2039	2063	2076	2088	2088	2088	2088	2101	2101	2114	2140	2140	2140	2153	2181	2181	2194	2194	2223	2237	2237	2237	2237	2237	2252	2252	2252	2266	2281	2281	2297	2297	2312	2312	2327	2359	2376	2376	2392	2392	2409	2409	2426	2426	2443	2460	2460	2496	2496	2496	2514	2514	2514	2514	2514	2532	0	0	8550	8343	8343	8343	8343	8343	8343	8343	8343	8146	8146	8146	8146	8343	8343	8343	8343	8343	8343	8343	8343	0	0	0	0	0	0	0	0	0	0	0	0	0	0	0	0	0	0	0	0	0	0	0	0	0	0	0	0	0	0	0	0	0	0	0	0	0	0	0	0	0	0	0	0	0	0	0	0	8343	8146	8146	7959	7779	7608	7608	7608	7779	7779	7959	7779	7779	7779	7779	7779	0	0	0	0	0	0	0	0	0	0	0	0	0	0	0	0	0	0	0	0	0	0	0	0	0	0	0	0	0	0	0	0	0	0	0	0	0	0	0	0	0	0	0	0	0	0	0	0	0	0	0	0	0	0	0	0	0	0	0	0	0	0	0	0	0	0	0	0	0	0	0	0	0	0	0	4463	4350	4350	4296	4296	4296	4296	4296	4296	4350	4350	4296	4350	4296	4296	4296	4296	4296	4296	4296	4296	4243	4243	4243	4243	4243	4243	4243	4243	4243	4243	4243	4243	4243	4243	4243	4243	4243	4243	4243	4243	4243	4243	4243	4243	4296	4243	4243	4296	4296	4406	4406	4406	4406	4406	4350	4406	4350	4350	4350	4350	4350	4350	4350	4350	4350	0	8146	8146	8146	8146	8146	8146	8146	8343	8343	8343	8343	8343	8343	8343	8343	8343	8146	8146	8146	8146	7959	7959	7959	7959	8146	8146	8146	8146	8146	8146	8146	8146	8146	8146	8146	8146	8146	8146	7959	7959	7959	7959	7959	8146	8146	8343	8343	8343	8343	8343	8343	8146	8146	8146	8146	8146	8146	8146	8146	8343	8343	8343	8343	8343	8146	8343	8146	7959	7959	7959	7959	7959	7959	7959	7959	7959	7959	8146	8146	8146	7959	8146	8146	8146	7959	7959	7959	7779	7779	7779	0	0	0	0	0	0	0	0	0	0	0	0	0	0	0	0	0	0	0	0	0	0	0	0	0	0	0	0	0	0	0	0	0	0	0	0	0	0	0	0	0	0	0	0	0	0	0	0	0	0	0	0	0	0	0	0	0	0	3698	3659	3659	3621	3621	3621	3621	3621	3621	3621	3621	3621	3659	3659	3157	3157	3129	3129	3129	3129	3129	3129	3129	3129	3129	3129	3129	3129	3157	3129	3129	3129	3129	3129	3129	3129	3129	3129	3101	3101	3101	3101	3101	3101	3101	3101	3073	3073	0	0	0	2223	2208	2208	2223	2223	2223	2208	2208	2208	2194	2194	2181	2181	2181	2167	2167	2167	2167	2153	2153	2140	2140	2015	2003	1980	1980	1980	1969	1980	1969	1969	1969	1969	1969	1980	1980	1980	1980	1969	1969	1947	1947	1947	1947	1947	1947	1947	1936	1936	1936	1936	1936	1936	1936	1936	1936	1936	1936	1936	1936	1936	1936	1947	1947	1958	1958	1947	1958	1958	1958	0	0	0	0	0	0	0	0	0	0	0	0	0	0	0	0	0	0	0	0	0	0	0	0	0	0	0	0	0	0	0	0	0	0	0	0	0
0	0	0	0	0	0	0	0	0	0	0	0	0	0	1833	1833	1843	1853	1853	1863	1863	1873	1873	1873	1883	1883	1883	1894	1894	1915	1915	1925	1936	1936	1947	1958	1958	1969	1969	1980	2003	2015	2015	2027	2027	2027	2027	2027	2039	2039	2063	2063	2076	2088	2088	2088	2088	2101	2127	2127	2140	2140	2153	2153	2181	2181	2223	2237	2237	2237	2237	2237	2237	2252	2252	2252	2266	2266	2281	2312	2297	2312	2312	2312	2343	2359	2376	2392	2392	2409	2409	2426	2426	2443	2460	2460	2478	2478	2496	2496	2496	2514	2514	2514	0	0	0	8343	8343	8343	8343	8343	8343	8343	8343	8343	8146	8146	8146	8146	8343	8343	8343	8343	8343	8343	8343	0	0	0	0	0	0	0	0	0	0	0	0	0	0	0	0	0	0	0	0	0	0	0	0	0	0	0	0	0	0	0	0	0	0	0	0	0	0	0	0	0	0	0	0	0	0	0	0	0	0	8146	7959	7779	7608	7608	7608	7608	7779	7779	7959	7959	7779	7959	7779	7779	0	0	0	0	0	0	0	0	0	0	0	0	0	0	0	0	0	0	0	0	0	0	0	0	0	0	0	0	0	0	0	0	0	0	0	0	0	0	0	0	0	0	0	0	0	0	0	0	0	0	0	0	0	0	0	0	0	0	0	0	0	0	0	0	0	0	0	0	0	0	0	0	0	0	4406	4406	4350	4350	4350	4350	4296	4296	4296	4296	4296	4296	4296	4296	4296	4296	4296	4296	4296	4296	4296	4296	4243	4243	4243	4243	4243	4296	4243	4243	4243	4243	4243	4243	4243	4243	4243	4243	4243	4243	4243	4243	4243	4243	4296	4296	4296	4296	4296	4296	4296	4350	4406	4406	4406	4406	4406	4406	4350	4350	4350	4350	4350	4296	4350	4350	4350	0	8146	8146	8146	8146	8146	8146	8146	8343	8343	8146	8146	8146	8146	8343	8343	8343	8343	8343	8343	8146	8146	8146	8146	8146	8146	7959	8146	8146	8146	8146	8146	8146	8146	8146	8146	8146	8146	8146	8146	7959	7959	7959	8146	8146	8146	8146	8343	8343	8343	8343	8146	8146	8146	7959	7959	7959	8146	8146	8146	8343	8343	8343	8146	8343	8146	8343	8343	8146	7959	7959	7959	7959	7959	7959	7959	7959	7959	7959	7959	7959	7959	8146	8343	8343	7959	7959	7959	7959	7779	0	0	0	0	0	0	0	0	0	0	0	0	0	0	0	0	0	0	0	0	0	0	0	0	0	0	0	0	0	0	0	0	0	0	0	0	0	0	0	0	0	0	0	0	0	0	0	0	0	0	0	0	0	0	0	0	0	0	3698	3698	3659	3659	3621	3621	3621	3621	3621	3621	3621	3659	3659	3659	3698	3157	3157	3129	3129	3129	3129	3129	3129	3129	3129	3129	3129	3129	3129	3129	3129	3129	3129	3129	3129	3129	3129	3129	3129	3129	3101	3101	3101	3101	3101	3101	3101	3101	3101	0	0	0	2208	2208	2208	2208	2208	2208	2208	2194	2194	2181	2181	2181	2181	2181	2167	2167	2167	2153	2153	2140	2127	2127	1980	1992	1992	1980	1980	1969	1969	1969	1969	1969	1969	1969	1980	1980	1980	1980	1980	1969	1958	1958	1947	1947	1947	1947	1936	1936	1936	1936	1936	1936	1936	1936	1936	1936	1936	1936	1947	1936	1936	1947	1947	1947	1947	1947	1958	1958	1969	1969	0	0	0	0	0	0	0	0	0	0	0	0	0	0	0	0	0	0	0	0	0	0	0	0	0	0	0	0	0	0	0	0	0	0	0	0	0
0	0	0	0	0	0	0	0	0	0	0	0	0	0	1824	1833	1843	1853	1853	1863	1863	1873	1873	1883	1883	1883	1883	1883	1894	1915	1915	1925	1936	1936	1947	1947	1958	1969	1969	1992	2003	2015	2015	2027	2027	2027	2027	2027	2027	2051	2063	2063	2076	2076	2088	2088	2088	2101	2101	2127	2140	2140	2140	2153	2167	2181	2223	2223	2237	2237	2237	2237	2237	2237	2252	2252	2266	2266	2281	2312	2312	2312	2343	2327	2343	2359	2376	2376	2392	2409	2409	2426	2426	2443	2443	2460	2460	2478	2496	2496	2496	2496	2496	2496	0	0	0	8146	8146	8146	8146	8146	8343	8343	8146	8343	8146	8146	8146	8343	8343	8343	8343	8343	8343	8343	8343	8343	0	0	0	0	0	0	0	0	0	0	0	0	0	0	0	0	0	0	0	0	0	0	0	0	0	0	0	0	0	0	0	0	0	0	0	0	0	0	0	0	0	0	0	0	0	0	0	0	0	7959	7779	7608	7608	7779	7779	7779	7779	7779	7959	7779	7779	7779	7779	7779	0	0	0	0	0	0	0	0	0	0	0	0	0	0	0	0	0	0	0	0	0	0	0	0	0	0	0	0	0	0	0	0	0	0	0	0	0	0	0	0	0	0	0	0	0	0	0	0	0	0	0	0	0	0	0	0	0	0	0	0	0	0	0	0	0	0	0	0	0	0	0	0	0	0	4406	4406	4350	4350	4350	4350	4296	4296	4296	4296	4296	4296	4296	4296	4296	4296	4296	4296	4296	4296	4296	4296	4243	4243	4243	4296	4243	4296	4296	4296	4243	4243	4243	4243	4243	4243	4243	4243	4243	4243	4243	4243	4243	4243	4296	4296	4296	4296	4296	4296	4296	4350	4350	4406	4406	4350	4350	4350	4350	4350	4350	4350	4350	4296	4296	4350	4350	4350	4350	8146	8146	8146	8146	8146	8146	8343	8343	8343	8146	8146	8146	8146	8146	8146	8146	8146	8146	8146	8146	8146	8146	8146	8146	8146	8146	8146	8146	8146	8146	8146	8146	8146	8146	8343	8146	8146	8146	7959	7959	7959	7959	8146	8146	8146	8343	8343	8343	8146	7959	7959	7959	7959	7959	7959	7959	7959	7959	8146	8146	8146	8146	8343	8343	8343	8343	8343	8146	8146	7959	7959	7779	7779	7779	7959	7959	8146	7959	7959	8146	8146	8343	8146	7959	7959	7779	7779	0	0	0	0	0	0	0	0	0	0	0	0	0	0	0	0	0	0	0	0	0	0	0	0	0	0	0	0	0	0	0	0	0	0	0	0	0	0	0	0	0	0	0	0	0	0	0	0	0	0	0	0	0	0	0	0	0	0	0	3698	3698	3659	3659	3621	3621	3621	3621	3621	3621	3621	3621	3659	3659	3659	3157	3157	3129	3129	3129	3129	3129	3129	3129	3129	3129	3129	3129	3129	3129	3129	3129	3129	3129	3129	3129	3129	3129	3129	3129	3101	3101	3101	3101	3101	3101	3101	3101	3101	0	0	0	2208	2194	2194	2208	2194	2194	2194	2194	2194	2181	2181	2181	2181	2181	2181	2167	2167	2167	2167	2153	2140	2140	1969	1980	1980	1980	1980	1969	1969	1969	1969	1969	1969	1969	1980	1980	1980	1980	1969	1969	1958	1958	1947	1947	1947	1936	1936	1936	1936	1936	1936	1936	1936	1936	1936	1947	1947	1947	1947	1947	1947	1947	1947	1958	1947	1958	1958	1958	1969	1969	0	0	0	0	0	0	0	0	0	0	0	0	0	0	0	0	0	0	0	0	0	0	0	0	0	0	0	0	0	0	0	0	0	0	0	0	0
0	0	0	0	0	0	0	0	0	0	0	0	0	0	1824	1833	1833	1843	1853	1853	1863	1883	1873	1883	1883	1883	1883	1894	1894	1904	1915	1925	1936	1936	1947	1947	1958	1969	1969	1992	2003	2003	2015	2027	2027	2027	2027	2027	2027	2051	2051	2063	2076	2088	2088	2101	2088	2101	2114	2127	2140	2140	2140	2140	2167	2167	2208	2208	2223	2223	2223	2237	2237	2237	2252	2252	2266	2281	2281	2312	2297	2312	2343	2312	2359	2359	2376	2376	2409	2409	2426	2426	2443	2443	2443	2460	2460	2478	2496	2496	2496	2496	2496	2496	0	0	7959	7959	8146	8146	8146	8343	8343	8343	8146	8343	8146	8146	8146	8146	8343	8343	8343	8343	8146	8146	8343	8343	0	0	0	0	0	0	0	0	0	0	0	0	0	0	0	0	0	0	0	0	0	0	0	0	0	0	0	0	0	0	0	0	0	0	0	0	0	0	0	0	0	0	0	0	0	0	0	0	0	7959	7779	7608	7608	7779	7779	7779	7779	7779	7959	7959	7608	7959	7959	7959	0	0	0	0	0	0	0	0	0	0	0	0	0	0	0	0	0	0	0	0	0	0	0	0	0	0	0	0	0	0	0	0	0	0	0	0	0	0	0	0	0	0	0	0	0	0	0	0	0	0	0	0	0	0	0	0	0	0	0	0	0	0	0	0	0	0	0	0	0	0	0	0	0	0	4406	4406	4350	4350	4296	4296	4296	4296	4296	4296	4296	4296	4296	4296	4296	4296	4296	4296	4296	4296	4296	4296	4296	4243	4296	4243	4296	4296	4243	4296	4243	4243	4243	4243	4243	4243	4243	4243	4243	4243	4243	4243	4296	4296	4296	4296	4296	4296	4296	4296	4296	4350	4350	4406	4406	4350	4350	4350	4350	4350	4350	4350	4350	4296	4296	4350	4350	4350	4350	8343	8343	8146	8146	8146	8146	8146	8343	8343	8146	8146	8146	8146	8146	8146	8146	8146	8146	8146	8146	8146	8146	8146	8146	8146	7959	8146	7959	8146	8146	8146	8146	8146	8343	8343	8146	8146	8146	7959	7959	7959	7959	8146	8146	8146	8343	8343	8146	8146	7959	7959	7959	7959	7959	7959	7959	7959	7959	7959	8146	8146	8146	8343	8343	0	0	8343	8146	7959	7959	7779	7779	7779	7959	7959	7959	7959	7959	7959	7959	8146	8146	8146	7959	7959	7779	7779	0	0	0	0	0	0	0	0	0	0	0	0	0	0	0	0	0	0	0	0	0	0	0	0	0	0	0	0	0	0	0	0	0	0	0	0	0	0	0	0	0	0	0	0	0	0	0	0	0	0	0	0	0	0	0	0	0	0	0	0	3698	3659	3659	3621	3621	3621	3583	3583	3583	3621	3621	3621	3659	3659	3157	3157	3129	3129	3129	3129	3129	3129	3129	3101	3129	3129	3129	3129	3129	3129	3129	3129	3129	3129	3129	3129	3129	3129	3129	3129	3101	3101	3101	3101	3101	3101	3101	3101	0	0	0	0	2194	2208	2208	2194	2194	2194	2194	2181	2181	2181	2181	2181	2181	2181	2167	2167	2167	2167	2153	2153	1980	1980	1980	1980	1980	1980	1969	1969	1969	1969	1969	1969	1969	1980	1969	1969	1958	1958	1958	1947	1947	1947	1947	1947	1947	1936	1936	1947	1936	1947	1936	1936	1947	1947	1947	1947	1947	1947	1947	1947	1947	1947	1958	1958	1958	1969	1969	1969	1969	0	0	0	0	0	0	0	0	0	0	0	0	0	0	0	0	0	0	0	0	0	0	0	0	0	0	0	0	0	0	0	0	0	0	0	0	0
0	0	0	0	0	0	0	0	0	0	0	0	0	0	1824	1824	1833	1843	1843	1853	1863	1873	1873	1883	1883	1883	1894	1894	1894	1915	1925	1925	1936	1936	1947	1947	1958	1969	1969	1980	1992	2003	2003	2015	2015	2027	2027	2027	2027	2039	2051	2076	2063	2088	2101	2101	2114	2101	2114	2127	2140	2140	2153	2153	2167	2167	2194	2208	2208	2223	2223	2237	2237	2252	2252	2266	2266	2281	2281	2281	2297	2312	2343	2327	2359	2359	2376	2392	2392	2409	2409	2426	2443	2443	2460	2478	2478	2496	2496	2496	2496	2496	2496	2496	2496	0	7959	7959	8146	8146	8146	8343	8343	8343	8343	8343	8343	8146	8146	8146	8343	8343	8146	8146	8146	8146	8146	8146	8146	0	0	0	0	0	0	0	0	0	0	0	0	0	0	0	0	0	0	0	0	0	0	0	0	0	0	0	0	0	0	0	0	0	0	0	0	0	0	0	0	0	0	0	0	0	0	0	0	0	7779	7608	7779	7779	7779	7779	7779	7779	7608	7608	7608	7608	7608	7608	0	0	0	0	0	0	0	0	0	0	0	0	0	0	0	0	0	0	0	0	0	0	0	0	0	0	0	0	0	0	0	0	0	0	0	0	0	0	0	0	0	0	0	0	0	0	0	0	0	0	0	0	0	0	0	0	0	0	0	0	0	0	0	0	0	0	0	0	0	0	0	0	0	0	4406	4406	4350	4350	4350	4350	4296	4296	4296	4296	4296	4296	4296	4296	4296	4296	4296	4296	4296	4296	4296	4243	4243	4243	4243	4243	4243	4243	4243	4296	4243	4243	4243	4243	4192	4243	4243	4243	4243	4243	4243	4243	4296	4296	4296	4296	4296	4243	4296	4296	4296	4350	4350	4350	4350	4350	4350	4350	4350	4350	4350	4350	4350	4296	4296	4350	4350	4350	8343	8343	8343	8343	8343	8343	8343	8343	8343	8343	8343	8146	8146	8146	8146	8146	8343	8343	8343	8343	8146	8146	8146	8146	8146	7959	7959	7959	7959	7959	7959	8146	8146	8146	8146	8146	8146	8146	7959	7959	7959	7959	8146	8146	8146	8146	8146	7959	8146	7959	7959	7959	7959	7959	7959	7959	7959	7959	7959	7959	7959	8146	8146	0	0	0	0	0	0	7959	7959	7779	7779	7779	7779	7959	7959	7959	7959	7959	8146	8146	8343	8146	7959	7959	0	0	0	0	0	0	0	0	0	0	0	0	0	0	0	0	0	0	0	0	0	0	0	0	0	0	0	0	0	0	0	0	0	0	0	0	0	0	0	0	0	0	0	0	0	0	0	0	0	0	0	0	0	0	0	0	0	0	0	0	0	0	3698	3659	3659	3621	3583	3583	3583	3583	3583	3621	3621	3621	3621	3621	3129	3129	3129	3129	3129	3101	3101	3129	3129	3101	3101	3101	3129	3129	3129	3129	3129	3129	3129	3129	3129	3129	3129	3129	3129	3129	3129	3101	3101	3101	3073	3101	3101	3101	3101	0	0	0	0	2208	2208	2194	2194	2181	2181	2181	2167	2167	2167	2167	2167	2167	2167	2167	2167	2167	2153	2153	1980	1980	1980	1980	1980	1969	1969	1969	1969	1969	1969	1969	1958	1969	1969	1969	1958	1958	1958	1947	1947	1947	1947	1947	1947	1936	1936	1947	1947	1947	1947	1947	1947	1947	1947	1947	1947	1947	1947	1947	1958	1958	1958	1969	1958	1969	1969	1969	1969	0	0	0	0	0	0	0	0	0	0	0	0	0	0	0	0	0	0	0	0	0	0	0	0	0	0	0	0	0	0	0	0	0	0	0	0	0
0	0	0	0	0	0	0	0	0	0	0	0	0	0	1824	1833	1833	1843	1843	1853	1853	1873	1873	1883	1883	1894	1894	1894	1894	1915	1925	1925	1936	1936	1936	1947	1958	1958	1969	1980	2003	2003	2015	2015	2027	2027	2027	2027	2027	2027	2051	2063	2063	2088	2088	2101	2101	2101	2114	2127	2140	2140	2153	2140	2167	2181	2194	2194	2208	2223	2223	2237	2237	2252	2252	2266	2266	2266	2266	2281	2297	2312	2327	2327	2359	2359	2376	2376	2392	2392	2409	2409	2426	2443	2460	2460	2478	2478	2496	2496	2496	2496	2496	2496	2496	4093	4093	0	0	0	0	0	0	0	8343	8343	8343	8146	8146	0	0	0	8146	8146	8146	8146	8146	8146	8146	8146	0	0	0	0	0	0	0	0	0	0	0	0	0	0	0	0	0	0	0	0	0	0	0	0	0	0	0	0	0	0	0	0	0	0	0	0	0	0	0	0	0	0	0	0	0	7608	7608	7779	7608	7779	7779	7779	7779	7779	7779	7779	7779	7608	7608	7608	7959	7959	0	0	0	0	0	0	0	0	0	0	0	0	0	0	0	0	0	0	0	0	0	0	0	0	0	0	0	0	0	0	0	0	0	0	0	0	0	0	0	0	0	0	0	0	0	0	0	0	0	0	0	0	0	0	0	0	0	0	0	0	0	0	0	0	0	0	0	0	0	0	0	0	0	0	4406	4463	4350	4350	4296	4296	4296	4296	4296	4296	4296	4296	4296	4296	4296	4296	4296	4296	4296	4296	4296	4243	4243	4243	4243	4243	4243	4296	4243	4243	4243	4243	4243	4243	4243	4243	4243	4243	4243	4243	4243	4243	4243	4243	4243	4296	4296	4243	4243	4296	4296	4350	4350	4350	4406	4350	4350	4350	4350	4350	4350	4350	4350	4350	4296	4350	4350	0	8343	8343	8343	8146	8343	8146	8146	8146	8146	8146	8146	8146	8146	8343	8146	8343	8343	8343	8343	8343	8146	8146	7959	7959	7959	7959	7959	7959	7959	7959	7959	7959	8146	8146	8146	8146	8146	7959	7959	7959	7959	7959	8146	8146	8146	8146	7959	8146	8146	8146	7959	7959	7959	7959	7959	7959	7959	7959	8146	8146	8146	7959	8146	8146	0	0	0	0	0	7959	7959	7959	7608	7608	7608	7959	7959	7959	7959	8146	8343	8343	8343	8343	7959	7959	0	0	0	0	0	0	0	0	0	0	0	0	0	0	0	0	0	0	0	0	0	0	0	0	0	0	0	0	0	0	0	0	0	0	0	0	0	0	0	0	0	0	0	0	0	0	0	0	0	0	0	0	0	0	0	0	0	0	0	0	0	0	3698	3659	3621	3583	3510	3440	3510	3475	3475	3475	3621	3621	3186	3129	3129	3129	3129	3129	3129	3129	3129	3129	3129	3101	3101	3101	3101	3129	3129	3129	3129	3129	3129	3129	3129	3129	3129	3129	3129	3129	3129	3101	3101	3101	3073	3073	3073	3073	3101	0	0	0	0	2208	2208	2194	2194	2181	2181	2181	2181	2181	2181	2181	2167	2167	2167	2167	2167	2167	2167	1992	1992	1992	1992	1992	1980	1980	1969	1969	1969	1969	1969	1969	1958	1969	1969	1958	1947	1958	1947	1947	1947	1947	1947	1947	1947	1936	1936	1936	1936	1936	1936	1947	1947	1947	1947	1947	1947	1947	1947	1958	1958	1958	1958	1969	1958	1958	1958	1958	1958	0	0	0	0	0	0	0	0	0	0	0	0	0	0	0	0	0	0	0	0	0	0	0	0	0	0	0	0	0	0	0	0	0	0	0	0	0
0	0	0	0	0	0	0	0	0	0	0	0	0	0	1824	1824	1833	1843	1843	1853	1853	1873	1873	1883	1883	1883	1894	1894	1894	1915	1915	1925	1925	1925	1936	1947	1947	1958	1969	1980	1992	2003	2015	2015	2027	2027	2027	2027	2027	2027	2051	2051	2063	2076	2076	2088	2088	2088	2114	2114	2127	2140	2153	2140	2167	2181	2194	2194	2194	2208	2223	2237	2237	2252	2252	2266	2266	2266	2266	2281	2312	2312	2327	2327	2359	2359	2376	2376	2392	2409	2409	2426	2443	2443	2460	2460	2460	2478	2478	2478	2496	2496	2496	2496	4093	4045	4045	4045	0	0	0	0	0	0	0	0	0	0	0	0	0	0	0	8146	8146	8146	8146	8146	8146	8146	0	0	0	0	0	0	0	0	0	0	0	0	0	0	0	0	0	0	0	0	0	0	0	0	0	0	0	0	0	0	0	0	0	0	0	0	0	0	0	0	0	0	0	0	7608	7608	7608	7608	7608	7779	7779	7779	7779	7779	7779	7779	7608	7608	7608	7608	7959	7959	7959	0	0	0	0	0	0	0	0	0	0	0	0	0	0	0	0	0	0	0	0	0	0	0	0	0	0	0	0	0	0	0	0	0	0	0	0	0	0	0	0	0	0	0	0	0	0	0	0	0	0	0	0	0	0	0	0	0	0	0	0	0	0	0	0	0	0	0	0	0	0	0	0	0	0	4463	4350	4296	4296	4296	4296	4243	4296	4296	4296	4296	4296	4296	4296	4296	4296	4296	4296	4243	4243	4243	4243	4243	4243	4243	4243	4296	4296	4296	4243	4243	4243	4243	4243	4243	4243	4243	4192	4243	4243	4243	4243	4243	4243	4243	4243	4243	4243	4296	4296	4350	4350	4350	4350	4350	4350	4350	4350	4350	4350	4350	4350	4350	4296	4350	4350	0	8550	8550	8343	8343	8343	8343	8343	8146	8343	8146	8343	8146	8146	8146	8146	8343	8343	8343	8146	8343	8146	8146	8146	7959	7959	7959	7959	7959	7959	7959	7959	7959	8146	8146	8146	7959	7959	7959	7959	7959	7959	7959	8146	8146	8146	8146	7959	7959	8146	8146	7959	7959	7959	7959	7959	7959	7959	8146	8146	8146	8146	8146	8146	8146	0	0	0	0	0	8146	8146	7779	7608	7779	7779	7959	7959	7959	7959	8146	8343	8343	8343	8343	7959	7959	0	0	0	0	0	0	0	0	0	0	0	0	0	0	0	0	0	0	0	0	0	0	0	0	0	0	0	0	0	0	0	0	0	0	0	0	0	0	0	0	0	0	0	0	0	0	0	0	0	0	0	0	0	0	0	0	0	0	0	0	0	0	0	3659	3659	3659	3440	3373	3373	3373	3341	3277	3246	3246	3186	3157	3129	3129	3129	3129	3129	3101	3101	3129	3101	3101	3101	3101	3101	3101	3101	3129	3129	3129	3129	3129	3129	3129	3129	3129	3129	3129	3129	3101	3101	3073	3073	3073	3046	3046	0	0	0	0	0	0	2208	2208	2194	2181	2181	2181	2167	2167	2167	2167	2167	2167	2167	2167	2167	2167	2167	1992	1992	1992	1992	1992	1980	1980	1969	1969	1969	1969	1969	1969	1958	1969	1958	1958	1947	1947	1947	1947	1947	1947	1947	1947	1947	1947	1936	1936	1936	1936	1936	1936	1947	1947	1947	1947	1947	1947	1947	1947	1958	1958	1958	1958	1958	1958	1958	1958	1958	0	0	0	0	0	0	0	0	0	0	0	0	0	0	0	0	0	0	0	0	0	0	0	0	0	0	0	0	0	0	0	0	0	0	0	0	0
0	0	0	0	0	0	0	0	0	0	0	0	0	0	1833	1833	1833	1843	1843	1843	1853	1863	1863	1873	1873	1894	1894	1894	1904	1915	1925	1925	1936	1925	1936	1947	1958	1969	1969	1980	2003	2015	2015	2015	2027	2027	2027	2027	2027	2027	2051	2039	2051	2076	2076	2088	2088	2101	2114	2114	2127	2140	2140	2140	2167	2181	2194	2194	2208	2223	2237	2237	2237	2252	2252	2266	2266	2266	2281	2297	2312	2312	2343	2312	2359	2359	2376	2376	2392	2409	2409	2409	2426	2443	2443	2460	2460	2478	2478	2496	2496	2496	2496	2496	4093	4093	4093	4093	0	0	0	0	0	0	0	0	0	0	0	0	0	0	0	0	8146	8146	8146	8146	8146	0	0	0	0	0	0	0	0	0	0	0	0	0	0	0	0	0	0	0	0	0	0	0	0	0	0	0	0	0	0	0	0	0	0	0	0	0	0	0	0	0	0	0	0	0	7608	7608	7608	7608	7608	7779	7779	7779	7779	7779	7779	7779	7779	7779	7779	7608	7608	7608	7608	0	0	0	0	0	0	0	0	0	0	0	0	0	0	0	0	0	0	0	0	0	0	0	0	0	0	0	0	0	0	0	0	0	0	0	0	0	0	0	0	0	0	0	0	0	0	0	0	0	0	0	0	0	0	0	0	0	0	0	0	0	0	0	0	0	0	0	0	0	0	0	0	0	0	0	0	4296	4296	4296	4296	4296	4296	4296	4296	4296	4296	4296	4296	4296	4296	4296	4296	4243	4243	4243	4243	4243	4296	4243	4296	4296	4296	4296	4243	4243	4243	4243	4243	4243	4243	4243	4243	4243	4243	4243	4243	4243	4243	4243	4243	4243	4243	4296	4296	4350	4350	4350	4350	4350	4350	4350	4350	4350	4350	4350	4350	4350	4296	4296	4296	0	8550	8550	8550	8343	8343	8343	8343	8146	8146	8146	8343	8343	8146	8146	8343	8343	8146	8146	8146	8343	8343	8343	8146	8146	8146	8146	7959	7959	7959	7959	7959	8146	8146	8146	8146	8146	8146	8146	7959	7959	7959	8146	8146	8146	8146	8146	7959	7959	8146	8146	7959	7959	7959	7959	7959	8146	7959	8146	8146	8146	8146	8146	8146	8146	0	0	0	0	8343	8146	8146	7779	7779	7779	7779	7779	7959	7959	8146	8146	8343	8343	8343	8343	0	0	0	0	0	0	0	0	0	0	0	0	0	0	0	0	0	0	0	0	0	0	0	0	0	0	0	0	0	0	0	0	0	0	0	0	0	0	0	0	0	0	0	0	0	0	0	0	0	0	0	0	0	0	0	0	0	0	0	0	0	0	0	0	0	3659	3659	3659	3373	3341	3341	3309	3277	3246	3246	3216	3186	3157	3129	3129	3129	3129	3129	3129	3129	3129	3129	3101	3101	3101	3101	3101	3101	3129	3129	3129	3129	3129	3129	3129	3129	3129	3129	3129	3129	3129	3101	3101	3046	3046	3019	3019	3019	0	0	0	0	0	0	2208	2194	2181	2181	2181	2167	2167	2167	2167	2167	2167	2167	2167	2167	2167	2003	2003	1992	1992	1980	1980	1980	1980	1969	1969	1969	1969	1958	1958	1958	1969	1958	1958	1947	1947	1947	1947	1947	1947	1947	1947	1947	1936	1936	1936	1936	1936	1936	1947	1936	1947	1947	1947	1947	1947	1947	1947	1958	1947	1958	1958	1958	1958	1958	1958	1958	0	0	0	0	0	0	0	0	0	0	0	0	0	0	0	0	0	0	0	0	0	0	0	0	0	0	0	0	0	0	0	0	0	0	0	0	0
0	0	0	0	0	0	0	0	0	0	0	0	0	0	1833	1833	1833	1833	1843	1843	1853	1853	1873	1873	1883	1894	1894	1904	1904	1915	1925	1925	1936	1936	1947	1947	1947	1958	1969	1980	1992	2015	2015	2015	2027	2027	2027	2027	2027	2027	2051	2039	2063	2076	2076	2088	2101	2101	2114	2127	2127	2140	2140	2140	2167	2181	2194	2181	2208	2223	2237	2237	2237	2252	2252	2266	2266	2281	2281	2281	2312	2312	2327	2327	2359	2359	2359	2376	2376	2376	2409	2426	2443	2443	2460	2478	2478	2478	2496	2496	2496	2496	2496	2496	0	4142	4093	4093	0	0	0	0	0	0	0	0	0	0	0	0	0	0	0	0	0	0	0	0	0	0	0	0	0	0	0	0	0	0	0	0	0	0	0	0	0	0	0	0	0	0	0	0	0	0	0	0	0	0	0	0	0	0	0	0	0	0	0	0	0	0	0	0	0	0	7608	7608	7608	7608	7779	7779	7779	7779	7779	7779	7779	7779	7779	7779	7608	7608	7608	7608	7608	0	0	0	0	0	0	0	0	0	0	0	0	0	0	0	0	0	0	0	0	0	0	0	0	0	0	0	0	0	0	0	0	0	0	0	0	0	0	0	0	0	0	0	0	0	0	0	0	0	0	0	0	0	0	0	0	0	0	0	0	0	0	0	0	0	0	0	0	0	0	0	0	0	0	0	0	0	4296	4296	4296	4243	4243	4296	4296	4296	4296	4296	4296	4296	4296	4296	4296	4243	4243	4243	4243	4243	4296	4296	4243	4296	4296	4243	4243	4243	4243	4243	4243	4243	4243	4192	4243	4243	4243	4243	4243	4243	4243	4296	4243	4243	4243	4296	4296	4350	4350	4350	4350	4350	4406	4350	4350	4350	4350	4350	4350	4350	8767	8767	8767	8767	8767	8550	8550	8343	8343	8343	8343	8343	8343	8343	8550	8343	8343	8343	8343	8343	8146	8146	8146	8146	8146	8146	8146	8146	7959	8146	8146	7959	7959	7959	7959	8146	8146	8146	8146	8146	8146	8146	7959	7959	7959	8146	8146	8146	8146	8146	8146	8146	8146	8146	8146	8146	8146	8146	8146	8146	8146	8146	8146	8146	8146	8146	8146	8146	0	0	0	8146	8343	7959	8146	7959	7779	7608	7608	7779	7959	7959	7959	8146	8146	8146	8146	8343	0	0	0	0	0	0	0	0	0	0	0	0	0	0	0	0	0	0	0	0	0	0	0	0	0	0	0	0	0	0	0	0	0	0	0	0	0	0	0	0	0	0	0	0	0	0	0	0	0	0	0	0	0	0	0	0	0	0	0	0	0	0	0	0	0	0	0	0	3373	3341	3309	3277	3277	3246	3216	3186	3186	3157	3129	3157	3157	3129	3129	3129	3129	3129	3129	3101	3101	3101	3129	3101	3101	3129	3129	3129	3129	3129	3129	3129	3129	3129	3129	3129	3129	3129	3101	3101	3046	3046	3046	3046	3019	3019	0	0	0	0	0	0	2208	2181	2181	2181	2167	2167	2167	2167	2167	2167	2167	2153	2153	1992	1992	1992	1992	1980	1980	1980	1980	1969	1969	1969	1969	1969	1958	1958	1958	1969	1958	1958	1947	1947	1947	1947	1947	1947	1947	1947	1947	1936	1936	1936	1936	1936	1936	1947	1947	1947	1947	1947	1947	1947	1947	1947	1958	1947	1958	1958	1958	1958	1958	1958	1958	0	0	0	0	0	0	0	0	0	0	0	0	0	0	0	0	0	0	0	0	0	0	0	0	0	0	0	0	0	0	0	0	0	0	0	0	0
0	0	0	0	0	0	0	0	0	0	0	0	0	0	1833	1833	1833	1843	1853	1843	1853	1863	1873	1873	1883	1894	1904	1904	1915	1915	1915	1925	1936	1936	1947	1947	1958	1958	1969	1980	1992	2003	2003	2015	2027	2027	2027	2027	2027	2039	2051	2051	2063	2076	2076	2088	2088	2101	2114	2127	2127	2140	2140	2140	2140	2181	2194	2181	2194	2223	2237	2237	2237	2252	2252	2266	2281	2281	2281	2281	2297	2312	2312	2343	2343	2359	2359	2376	2376	2392	2409	2426	2443	2443	2478	2478	2496	2478	2496	2496	2496	2496	2496	2496	0	4142	4142	4142	4142	0	0	0	0	0	0	0	0	0	0	0	0	0	0	0	0	0	0	0	0	0	0	0	0	0	0	0	0	0	0	0	0	0	0	0	0	0	0	0	0	0	0	0	0	0	0	0	0	0	0	0	0	0	0	0	0	0	0	0	0	0	0	0	0	0	7608	7779	7779	7608	7779	7779	7779	7779	7608	7608	7779	7779	7779	7779	7779	7608	7779	7608	7608	0	0	0	0	0	0	0	0	0	0	0	0	0	0	0	0	0	0	0	0	0	0	0	0	0	0	0	0	0	0	0	0	0	0	0	0	0	0	0	0	0	0	0	0	0	0	0	0	0	0	0	0	0	0	0	0	0	0	0	0	0	0	0	0	0	0	0	0	0	0	0	0	0	0	0	0	0	4296	4296	4243	4243	4296	4296	4296	4296	4296	4296	4296	4296	4296	4296	4296	4243	4243	4243	4243	4243	4243	4243	4243	4243	4296	4243	4243	4243	4243	4243	4243	4192	4243	4192	4243	4243	4243	4243	4243	4243	4243	4296	4243	4243	4296	4296	4296	4350	4350	4350	4350	4350	4350	4350	4350	4350	4350	4350	4350	4350	8767	8767	8550	8550	8550	8550	8550	8343	8343	8343	8343	8343	8343	8343	8343	8343	8343	8343	8343	8343	8343	8146	8146	8146	8146	8146	7959	7959	7959	8146	8146	7959	7959	7959	7959	7959	7959	7959	7959	7959	7959	8146	7959	7959	7959	7959	7959	8343	8343	8343	8343	8343	8343	8343	8343	8146	8343	8146	8343	8343	8343	8146	8146	8146	8146	8146	8146	8146	0	8343	8146	7959	8146	7959	7959	7959	7779	7608	7608	7779	7779	7779	7959	7959	8146	8146	8146	0	0	0	0	0	0	0	0	0	0	0	0	0	0	0	0	0	0	0	0	0	0	0	0	0	0	0	0	0	0	0	0	0	0	0	0	0	0	0	0	0	0	0	0	0	0	0	0	0	0	0	0	0	0	0	0	0	0	0	0	0	0	0	0	0	0	0	0	0	3373	3341	3341	3277	3277	3246	3216	3216	3186	3186	3157	3157	3129	3129	3129	3129	3129	3129	3129	3101	3101	3101	3129	3101	3101	3129	3129	3129	3129	3129	3129	3129	3129	3129	3129	3129	3129	3129	3101	3129	3073	3046	3046	3019	3019	3019	0	0	0	0	0	0	2208	2181	2181	2181	2167	2167	2167	2167	2167	2167	2153	2153	2153	1992	1992	2003	1992	1992	1992	1980	1980	1969	1969	1969	1969	1958	1958	1958	1947	1947	1947	1947	1947	1947	1947	1947	1947	1947	1947	1947	1947	1947	1936	1936	1936	1947	1947	1947	1947	1947	1947	1947	1947	1947	1947	1947	1958	1958	1958	1958	1958	1958	1969	1958	1958	0	0	0	0	0	0	0	0	0	0	0	0	0	0	0	0	0	0	0	0	0	0	0	0	0	0	0	0	0	0	0	0	0	0	0	0	0
0	0	0	0	0	0	0	0	0	0	0	0	0	0	1833	1833	1833	1843	1853	1843	1853	1853	1873	1873	1883	1894	1904	1915	1915	1915	1915	1936	1936	1936	1947	1947	1958	1969	1969	1980	1992	2003	2003	2015	2027	2027	2027	2027	2027	2039	2051	2051	2063	2076	2076	2088	2088	2101	2101	2114	2140	2140	2153	2153	2181	2181	2194	2181	2194	2223	2223	2223	2237	2252	2252	2266	2266	2266	2266	2281	2281	2312	2312	2343	2359	2359	2359	2376	2376	2392	2409	2426	2443	2460	2443	2496	2496	2496	2496	2496	2496	2514	2514	2514	2514	4142	4192	4192	4192	4192	0	0	0	0	0	0	0	0	0	0	0	0	0	0	0	0	0	0	0	0	0	0	0	0	0	0	0	0	0	0	0	0	0	0	0	0	0	0	0	0	0	0	0	0	0	0	0	0	0	0	0	0	0	0	0	0	0	0	0	0	0	0	0	0	7779	7779	7779	7779	7779	7779	7779	7779	7608	7608	7779	7779	7779	7779	7779	7779	7779	7779	7608	0	0	0	0	0	0	0	0	0	0	0	0	0	0	0	0	0	0	0	0	0	0	0	0	0	0	0	0	0	0	0	0	0	0	0	0	0	0	0	0	0	0	0	0	0	0	0	0	0	0	0	0	0	0	0	0	0	0	0	0	0	0	0	0	0	0	0	0	0	0	0	0	0	0	0	0	0	0	4296	4243	4243	4296	4296	4296	4296	4296	4296	4296	4296	4296	4296	4243	4243	4243	4243	4243	4243	4243	4243	4243	4243	4296	4243	4243	4243	4243	4243	4243	4243	4243	4243	4243	4243	4243	4243	4243	4243	4243	4296	4243	4243	4296	4296	4296	4296	4350	4350	4350	4350	4350	4350	4350	4350	4350	4350	4350	4350	8767	8550	8550	8550	8550	8550	8550	8343	8343	8343	8343	8343	8343	8343	8343	8343	8343	8343	8343	8343	8146	8146	8146	8146	0	0	7959	7959	7959	8146	8146	7959	7959	7959	7959	7959	7959	8146	7959	8146	8146	8343	8343	7959	7959	7959	8550	8343	8343	8343	8343	8343	8146	8146	8146	8146	8343	8343	8343	8343	8343	8146	8146	8146	8146	8146	8146	8146	7959	7959	7779	7959	7959	7959	7959	7779	7779	7608	7608	7608	7779	7779	7779	7959	7608	7608	0	0	0	0	0	0	0	0	0	0	0	0	0	0	0	0	0	0	0	0	0	0	0	0	0	0	0	0	0	0	0	0	0	0	0	0	0	0	0	0	0	0	0	0	0	0	0	0	0	0	0	0	0	0	0	0	0	0	0	0	0	0	0	0	0	0	0	0	0	0	3373	3341	3309	3277	3246	3216	3216	3186	3186	3157	3157	3129	3129	3129	3129	3129	3129	3129	3101	3101	3101	3101	3101	3101	3101	3129	3129	3129	3129	3129	3129	3129	3129	3129	3129	3129	3129	3129	3129	3129	3046	3046	3019	3019	3019	3019	0	0	0	0	0	0	2194	2181	2181	2181	2167	2167	2167	2167	2167	2167	2153	2153	2127	1992	1992	1992	1992	1992	1992	1980	1980	1980	1969	1969	1969	1958	1958	1958	1947	1958	1947	1947	1947	1947	1947	1947	1947	1947	1947	1947	1947	1936	1936	1936	1936	1936	1936	1947	1936	1947	1947	1947	1947	1947	1947	1947	1947	1958	1958	1947	1958	1958	1958	1958	1958	0	0	0	0	0	0	0	0	0	0	0	0	0	0	0	0	0	0	0	0	0	0	0	0	0	0	0	0	0	0	0	0	0	0	0	0	0
0	0	0	0	0	0	0	0	0	0	0	0	0	0	1833	1833	1833	1843	1853	1853	1853	1853	1873	1883	1883	1894	1915	1915	1915	1915	1925	1936	1936	1936	1947	1947	1947	1958	1969	1980	1980	2003	2003	2015	2027	2027	2027	2027	2027	2039	2039	2039	2051	2076	2076	2088	2088	2101	2101	2127	2140	2140	2153	2153	2181	2194	2194	2194	2208	2223	2223	2223	2237	2237	2237	2266	2281	2281	2281	2297	2312	2312	2327	2343	2359	2359	2359	2376	2376	2392	2409	2426	2443	2443	2443	2478	2496	2496	2496	2496	2496	2514	2514	2514	2514	2514	4192	4142	4192	4192	4192	0	0	0	0	0	0	4296	4296	4406	4406	4406	4463	4463	4463	0	0	0	0	0	0	0	0	0	0	0	0	0	0	0	0	0	0	0	0	0	0	0	0	0	0	0	0	0	0	0	0	0	0	0	0	0	0	0	0	0	0	0	0	0	0	0	0	0	7779	7779	7779	7779	7779	7779	7779	7779	7608	7608	7608	7779	7959	7779	7779	7779	7779	7779	7779	0	0	0	0	0	0	0	0	0	0	0	0	0	0	0	0	0	0	0	0	0	0	0	0	0	0	0	0	0	0	0	0	0	0	0	0	0	0	0	0	0	0	0	0	0	0	0	0	0	0	0	0	0	0	0	0	0	0	0	0	0	0	0	0	0	0	0	0	0	0	0	0	0	0	0	0	0	0	0	4243	4243	4296	4296	4350	4296	4296	4296	4296	4296	4296	4243	4243	4243	4243	4243	4243	4243	4243	4296	4296	4243	4296	4243	4243	4243	4243	4243	4243	4243	4243	4243	4243	4243	4243	4243	4243	4243	4296	4296	4296	4243	4296	4296	4296	4350	4350	4350	4350	4350	4350	4350	4350	4350	4350	4350	4350	8995	8767	8550	8550	8343	8343	8343	8550	8343	8343	8343	8343	8343	8343	8146	8146	8343	8343	8146	8343	8146	8146	8146	7959	7959	0	0	0	0	0	0	0	0	7959	7959	0	7959	7959	7959	7959	7959	8146	8343	8343	7959	7959	7959	8550	8343	8343	8343	8343	8343	8343	8343	8146	8343	8343	8343	8343	8343	8343	8146	8146	8146	7959	7959	7959	7608	7608	7608	7608	7608	7779	7779	7779	7779	7779	7608	7608	7608	7608	7608	7444	7779	7608	7444	7779	7959	7959	0	0	0	0	0	0	0	0	0	0	0	0	0	0	0	0	0	0	0	0	0	0	0	0	0	0	0	0	0	0	0	0	0	0	0	0	0	0	0	0	0	0	0	0	0	0	0	0	0	0	0	0	0	0	0	0	0	0	0	0	0	0	0	0	0	0	0	3341	3277	3277	3246	3216	3216	3216	3216	3186	3186	3157	3157	3129	3129	3129	3129	3129	3129	3129	3101	3129	3129	3129	3129	3129	3101	3129	3129	3129	3129	3129	3129	3129	3129	3129	3129	3129	3129	3129	3129	3129	3019	3019	3019	2993	2993	0	0	0	0	0	2208	2208	2181	2181	2181	2167	2167	2167	2167	2167	2153	2153	2140	2127	2003	1992	1992	1992	1992	1992	1980	1980	1980	1969	1969	1958	1958	1947	1947	1947	1958	1947	1947	1947	1947	1947	1947	1947	1947	1947	1947	1947	1936	1936	1936	1936	1936	1936	1947	1947	1947	1947	1947	1947	1947	1947	1947	1947	1947	1958	1947	1947	1958	1958	1958	1958	0	0	0	0	0	0	0	0	0	0	0	0	0	0	0	0	0	0	0	0	0	0	0	0	0	0	0	0	0	0	0	0	0	0	0	0	0
0	0	0	0	0	0	0	0	0	0	0	0	0	0	1824	1833	1833	1843	1853	1853	1853	1863	1873	1883	1894	1894	1915	1915	1925	1925	1925	1936	1936	1936	1947	1947	1958	1958	1969	1980	2003	2003	2015	2015	2027	2027	2027	2027	2027	2039	2051	2051	2063	2063	2076	2088	2088	2088	2114	2114	2140	2140	2153	2153	2167	2167	2194	2194	2194	2223	2237	2223	2237	2237	2252	2252	2266	2281	2281	2297	2312	2327	2327	2343	2343	2359	2376	2376	2376	2392	2409	2409	2443	2443	2443	2460	2496	2496	2496	2496	2496	2514	2514	2514	2514	2514	4192	4192	4192	4192	4192	4192	4192	4243	4243	4243	0	4296	4350	4406	4463	4463	4463	4521	4581	4581	0	0	0	0	0	0	0	0	0	0	0	0	0	0	0	0	0	0	0	0	0	0	0	0	0	0	0	0	0	0	0	0	0	0	0	0	0	0	0	0	0	0	0	0	0	0	0	0	7608	7779	7779	7779	7779	7779	7779	7608	7608	7608	7608	7779	7959	7779	7779	7779	7779	7779	7779	0	0	0	0	0	0	0	0	0	0	0	0	0	0	0	0	0	0	0	0	0	0	0	0	0	0	0	0	0	0	0	0	0	0	0	0	0	0	0	0	0	0	0	0	0	0	0	0	0	0	0	0	0	0	0	0	0	0	0	0	0	0	0	0	0	0	0	0	0	0	0	0	0	0	0	0	0	0	0	0	4243	4296	4296	4296	4296	4296	4296	4296	4296	4296	4243	4243	4243	4243	4243	4243	4243	4243	4296	4296	4296	4296	4243	4243	4243	4243	4243	4243	4243	4243	4243	4243	4243	4243	4243	4243	4243	4296	4296	4296	4243	4296	4296	4243	4350	4350	4350	4350	4350	4350	4350	4350	4350	4350	4350	4350	8767	8550	8550	8343	8343	8343	8343	8343	8343	8343	8343	8343	8343	8343	8343	8343	8343	8343	8343	8146	8146	8146	8146	8146	7959	0	0	0	0	0	0	0	0	0	0	0	0	7959	7959	7959	7959	0	0	0	0	0	0	8550	8343	8343	8343	8550	8343	8343	8343	8343	8146	8146	8146	8343	8343	8146	8146	8146	8146	7959	7959	7959	7287	7287	7444	7444	7608	7779	7779	7779	7779	7779	7608	7444	7444	7287	7287	7444	7444	7444	7444	7608	7608	7608	0	0	0	0	0	0	0	0	0	0	0	0	0	0	0	0	0	0	0	0	0	0	0	0	0	0	0	0	0	0	0	0	0	0	0	0	0	0	0	0	0	0	0	0	0	0	0	0	0	0	0	0	0	0	0	0	0	0	0	0	0	0	0	0	0	0	0	3341	3277	3277	3246	3246	3216	3216	3216	3186	3186	3157	3157	3129	3129	3129	3129	3129	3129	3129	3129	3129	3129	3129	3129	3129	3129	3129	3129	3129	3129	3129	3129	3129	3129	3129	3129	3129	3129	3129	3129	3129	3046	3019	3019	3019	3019	0	0	0	0	0	2208	2208	2194	2181	2181	2181	2167	2167	2167	2167	2153	2153	2140	2127	2003	2003	2003	1992	1992	1992	1980	1980	1980	1969	1969	1958	1958	1958	1958	1947	1958	1947	1947	1947	1947	1947	1947	1947	1947	1947	1947	1947	1936	1936	1936	1936	1936	1947	1947	1947	1947	1947	1947	1947	1947	1947	1947	1947	1947	1947	1947	1947	1958	1958	1958	1958	0	0	0	0	0	0	0	0	0	0	0	0	0	0	0	0	0	0	0	0	0	0	0	0	0	0	0	0	0	0	0	0	0	0	0	0	0
0	0	0	0	0	0	0	0	0	0	0	0	0	0	1824	1833	1833	1843	1853	1853	1853	1863	1873	1883	1894	1894	1915	1915	1915	1925	1925	1936	1936	1936	1947	1947	1947	1958	1969	1980	2003	2003	2015	2015	2015	2027	2027	2027	2027	2039	2051	2051	2063	2076	2076	2088	2088	2101	2101	2127	2127	2140	2140	2140	2167	2194	2194	2208	2223	2223	2237	2237	2237	2237	2252	2252	2281	2281	2297	2297	2327	2343	2343	2359	2359	2376	2376	2376	2392	2409	2409	2409	2426	2426	2426	2478	2496	2496	2496	2496	2514	2514	2514	2514	2514	0	4192	4192	4243	4192	4243	4192	4192	4243	4243	4243	4296	4296	4350	4406	4406	4463	4463	4463	4581	4581	0	0	0	0	0	0	0	0	0	0	0	0	0	0	0	0	0	0	0	0	0	0	0	0	0	0	0	0	0	0	0	0	0	0	0	0	0	0	0	0	0	0	0	0	7444	7444	7444	7608	7608	7608	7779	7779	7779	7779	7779	7779	7779	7608	7608	7779	7959	7959	7779	7779	7779	7608	7608	0	0	0	0	0	0	0	0	0	0	0	0	0	0	0	0	0	0	0	0	0	0	0	0	0	0	0	0	0	0	0	0	0	0	0	0	0	0	0	0	0	0	0	0	0	0	0	0	0	0	0	0	0	0	0	0	0	0	0	0	0	0	0	0	0	0	0	0	0	0	0	0	0	0	0	0	0	0	0	0	0	4350	4296	4296	4296	4296	4296	4296	4296	4296	4243	4243	4243	4243	4243	4243	4243	4243	4243	4296	4296	4296	4296	4243	4243	4243	4192	4192	4192	4192	4192	4243	4243	4243	4243	4243	4243	4243	4296	4296	4296	4296	4296	4243	4350	4350	4350	4350	4350	4350	4350	4350	4350	4350	4350	8767	8550	8550	8343	8343	8343	8343	8343	8343	8343	8343	8343	8343	8343	8343	8146	8343	8343	8343	8146	8146	8146	8146	8343	8343	0	0	0	0	0	0	0	0	0	0	0	0	0	7959	7959	7959	7959	0	0	0	0	0	0	8550	8343	8343	8343	8550	8343	8343	8146	8146	8146	8146	8146	8343	8343	8146	8146	8146	8146	8146	7959	7959	7287	7287	7444	7444	7444	7779	7779	7779	7779	7779	7608	7444	7444	7287	7287	7444	7444	7608	7608	7779	7779	7779	0	0	0	0	0	0	0	0	0	0	0	0	0	0	0	0	0	0	0	0	0	0	0	0	0	0	0	0	0	0	0	0	0	0	0	0	0	0	0	0	0	0	0	0	0	0	0	0	0	0	0	0	0	0	0	0	0	0	0	0	0	0	0	0	0	0	0	0	0	3277	3246	3246	3216	3216	3186	3186	3186	3157	3157	3129	3129	3129	3129	3129	3129	3129	3129	3129	3129	3129	3129	3129	3129	3129	3129	3129	3129	3129	3129	3129	3129	3129	3129	3129	3129	3129	3101	3101	3101	3019	3019	3019	3019	0	0	0	0	2223	2208	2208	2194	2181	2181	2181	2167	2167	2167	2153	2153	2153	2140	2003	2003	1992	1992	1992	1980	1980	1980	1980	1969	1969	1969	1958	1958	1958	1947	1947	1958	1947	1947	1947	1947	1947	1947	1947	1947	1947	1947	1947	1936	1936	1936	1947	1947	1947	1947	1947	1947	1947	1947	1947	1947	1947	1947	1947	1947	1947	1947	1947	1947	1947	1947	1958	0	0	0	0	0	0	0	0	0	0	0	0	0	0	0	0	0	0	0	0	0	0	0	0	0	0	0	0	0	0	0	0	0	0	0	0	0
0	0	0	0	0	0	0	0	0	0	0	0	0	0	1824	1833	1833	1843	1843	1853	1853	1863	1873	1883	1894	1894	1915	1915	1915	1925	1925	1925	1936	1936	1947	1947	1947	1958	1969	1980	2003	2015	2015	2015	2015	2027	2027	2027	2027	2039	2051	2063	2063	2076	2076	2076	2088	2088	2101	2114	2127	2140	2140	2153	2167	2181	2194	2194	2223	2223	2237	2237	2237	2237	2252	2252	2281	2297	2312	2312	2343	2343	2343	2359	2359	2359	2376	2376	2392	2392	2409	2426	2426	2426	2443	2478	2496	2496	2496	2496	2496	2514	2532	2532	2514	4243	4243	4243	4243	4243	4243	4243	4192	4243	4243	4243	4296	4296	4296	4350	4406	4406	4463	4521	4521	4521	0	0	0	0	0	0	0	0	0	0	0	0	0	0	0	0	0	0	0	0	0	0	0	0	0	0	0	0	0	0	0	0	0	0	0	0	0	0	0	0	0	0	0	0	7444	7444	7444	7444	7444	7608	7779	7779	7779	7779	7779	7779	7779	7779	7779	7779	7779	7779	7779	7779	7779	7779	7608	0	0	0	0	0	0	0	0	0	0	0	0	0	0	0	0	0	0	0	0	0	0	0	0	0	0	0	0	0	0	0	0	0	0	0	0	0	0	0	0	0	0	0	0	0	0	0	0	0	0	0	0	0	0	0	0	0	0	0	0	0	0	0	0	0	0	0	0	0	0	0	0	0	0	0	0	0	0	0	0	0	4350	4406	4350	4296	4296	4350	4296	4296	4296	4243	4243	4243	4243	4243	4243	4243	4296	4296	4296	4243	4296	4243	4243	4243	4243	4192	4192	4192	4192	4192	4192	4243	4243	4243	4243	4243	4296	4296	4296	4243	4243	4243	4243	4296	4296	4350	4350	4350	4350	4350	4350	4350	4350	0	8550	8550	8343	8343	8343	8343	8146	8343	8343	8343	8343	8343	8343	8343	8343	8343	8146	8343	8343	8146	8146	8146	8146	8343	8146	8146	0	0	0	0	0	0	0	0	0	0	0	0	0	0	7959	7959	0	0	0	0	0	0	8550	8343	8343	8343	8550	8343	8343	8146	8146	8146	8146	8146	8343	8343	8343	8146	8146	8146	7959	7959	7779	7287	7287	7444	7444	7444	7444	7608	7608	7779	7959	7779	7608	7444	7444	7444	7444	7608	7608	7608	7608	7608	7608	0	0	0	0	0	0	0	0	0	0	0	0	0	0	0	0	0	0	0	0	0	0	0	0	0	0	0	0	0	0	0	0	0	0	0	0	0	0	0	0	0	0	0	0	0	0	0	0	0	0	0	0	0	0	0	0	0	0	0	0	0	0	0	0	0	0	0	0	0	0	3277	3246	3246	3216	3216	3216	3157	3129	3129	3129	3129	3129	3129	3129	3129	3129	3129	3129	3129	3129	3129	3129	3129	3129	3129	3129	3129	3129	3129	3129	3129	3129	3129	3101	3129	3101	3073	3101	3073	3019	3019	3019	3019	0	0	0	2223	2223	2223	2208	2208	2181	2181	2181	2167	2167	2167	2153	2153	2153	2140	2003	2003	1992	1992	1980	1980	1980	1980	1980	1969	1969	1969	1958	1958	1958	1958	1958	1958	1958	1947	1947	1947	1947	1947	1947	1947	1947	1947	1947	1947	1936	1936	1947	1947	1947	1947	1947	1947	1947	1947	1947	1947	1947	1947	1947	1947	1947	1947	1947	1947	1947	1947	1947	0	0	0	0	0	0	0	0	0	0	0	0	0	0	0	0	0	0	0	0	0	0	0	0	0	0	0	0	0	0	0	0	0	0	0	0	0
0	0	0	0	0	0	0	0	0	0	0	0	0	0	1824	1824	1824	1833	1843	1843	1853	1853	1863	1873	1883	1894	1904	1904	1904	1915	1925	1925	1936	1936	1936	1947	1958	1958	1969	1980	2003	2003	2003	2015	2015	2027	2027	2027	2027	2039	2051	2051	2063	2063	2076	2088	2088	2101	2114	2114	2140	2140	2153	2153	2167	2181	2194	2194	2223	2223	2237	2237	2237	2237	2237	2252	2281	2281	2297	2312	2343	2343	2343	2359	2359	2359	2376	2376	2392	2409	2409	2426	2426	2443	2443	2460	2478	2496	2496	2496	2514	2514	2532	2514	2514	4243	4243	4243	4243	4243	4243	4243	4243	4243	4243	4243	4296	4296	4296	4296	4406	4463	4463	4521	4521	4581	4643	4643	4643	0	0	0	0	0	0	0	0	0	0	0	0	0	0	0	0	0	0	0	0	0	0	0	0	0	0	0	0	0	0	0	0	0	0	0	0	0	0	0	0	7444	7444	7444	7444	7444	7444	7608	7959	7779	7779	7779	7779	7779	7779	7779	7779	7779	7779	7779	7779	7779	7779	7608	7608	0	0	0	0	0	0	0	0	0	0	0	0	0	0	0	0	0	0	0	0	0	0	0	0	0	0	0	0	0	0	0	0	0	0	0	0	0	0	0	0	0	0	0	0	0	0	0	0	0	0	0	0	0	0	0	0	0	0	0	0	0	0	0	0	0	0	0	0	0	0	0	0	0	0	0	0	0	0	0	0	0	0	4406	4296	4350	4296	4296	4296	4296	4296	4243	4296	4243	4243	4243	4243	4243	4243	4243	4243	4243	4296	4243	4243	4243	4243	4243	4243	4192	4192	4192	4192	4192	4243	4243	4243	4243	4243	4243	4243	4243	4243	4243	4243	4350	4350	4350	4350	4350	4350	4350	4350	4350	4350	0	8550	8550	8550	8343	8343	8343	8343	8343	8343	8343	8343	8343	8343	8343	8343	8146	8146	8146	8146	8146	8146	8146	8146	8343	8146	8146	0	0	0	0	0	0	0	0	0	0	0	0	0	0	7959	7959	0	0	0	0	0	0	8550	8550	8550	8550	8550	8343	8146	8146	8146	8146	8146	8343	8343	8343	8343	8343	8343	8146	7959	7959	7959	7444	7287	7287	7287	7287	7444	7608	7779	7779	7779	7779	7444	7287	7287	7287	7444	7608	7608	7608	7608	7608	7608	0	0	0	0	0	0	0	0	0	0	0	0	0	0	0	0	0	0	0	0	0	0	0	0	0	0	0	0	0	0	0	0	0	0	0	0	0	0	0	0	0	0	0	0	0	0	0	0	0	0	0	0	0	0	0	0	0	0	0	0	0	0	0	0	0	0	0	0	0	0	3277	3246	3246	3216	3216	3186	3186	3157	3129	3129	3129	3129	3129	3129	3129	3129	3129	3129	3129	3129	3129	3129	3129	3129	3129	3129	3129	3129	3129	3129	3129	3129	3129	3101	3129	3101	3073	3101	3101	3046	3019	3019	3019	0	0	0	2237	2237	2223	2223	2208	2194	2181	2181	2167	2167	2167	2153	2153	2153	2153	2003	2003	1992	1992	1992	1980	1980	1980	1980	1969	1969	1969	1958	1958	1958	1958	1958	1958	1947	1947	1947	1947	1947	1947	1947	1936	1947	1947	1947	1947	1947	1947	1947	1947	1947	1947	1947	1947	1947	1947	1947	1947	1947	1947	1947	1958	1958	1947	1947	1958	1958	1947	1947	0	0	0	0	0	0	0	0	0	0	0	0	0	0	0	0	0	0	0	0	0	0	0	0	0	0	0	0	0	0	0	0	0	0	0	0	0
0	0	0	0	0	0	0	0	0	0	0	0	0	0	1824	1824	1824	1833	1843	1843	1853	1853	1863	1873	1883	1894	1915	1904	1915	1925	1925	1925	1936	1936	1936	1947	1958	1969	1980	1980	2003	2003	2003	2003	2015	2015	2015	2027	2039	2039	2051	2063	2063	2063	2076	2088	2101	2101	2114	2127	2140	2140	2153	2153	2167	2181	2194	2194	2223	2237	2237	2237	2237	2252	2252	2252	2281	2281	2297	2312	2343	2343	2343	2359	2359	2376	2376	2376	2392	2409	2409	2426	2426	2443	2443	2460	2478	2496	2496	2496	2496	2514	2514	2514	2514	0	4243	4243	4243	4243	4243	4243	4243	4296	4296	4296	4296	4296	4350	4406	4463	4463	4521	4521	4521	4521	4643	4643	4706	4706	4706	4706	4771	4771	0	0	0	0	0	0	0	0	0	0	0	0	0	0	0	0	0	0	0	0	0	0	0	0	0	0	0	0	0	0	0	0	0	0	0	7444	7444	7608	7608	7608	7444	7608	7608	7779	7779	7779	7779	7779	7779	7779	7779	7779	7779	7779	7779	7608	7608	7608	7779	7779	0	0	0	0	0	0	0	0	0	0	0	0	0	0	0	0	0	0	0	0	0	0	0	0	0	0	0	0	0	0	0	0	0	0	0	0	0	0	0	0	0	0	0	0	0	0	0	0	0	0	0	0	0	0	0	0	0	0	0	0	0	0	0	0	0	0	0	0	0	0	0	0	0	0	0	0	0	0	0	0	0	4406	4296	4296	4350	4296	4296	4296	4296	4243	4296	4243	4243	4243	4243	4296	4296	4296	4296	4243	4296	4243	4243	4243	4243	4243	4243	4192	4192	4192	4192	4192	4243	4243	4243	4243	4243	4243	4243	4243	4243	4243	4243	4296	4350	4350	4350	4350	4350	4350	4350	4350	4350	0	8550	8550	8343	8343	8343	8343	8146	8146	8343	8343	8343	8343	8146	8146	8146	8146	8146	8146	8343	8146	8146	8146	8146	8343	7959	7959	0	0	0	0	0	0	0	0	0	0	0	0	0	0	7959	7959	7959	8343	8343	8343	8550	8550	8550	8343	8343	8343	8343	8146	8146	8146	8146	8146	8146	8146	8343	8343	8343	8343	8343	8343	7959	7959	7779	7779	7444	7287	7444	7444	7959	7959	7959	7779	7779	7779	7444	7287	7287	7287	7444	7608	7779	7779	7608	7608	7608	7608	0	0	0	0	0	0	0	0	0	0	0	0	0	0	0	0	0	0	0	0	0	0	0	0	0	0	0	0	0	0	0	0	0	0	0	0	0	0	0	0	0	0	0	0	0	0	0	0	0	0	0	0	0	0	0	0	0	0	0	0	0	0	0	0	0	0	0	0	0	3246	3246	3216	3216	3216	3186	3157	3129	3129	3129	3129	3129	3129	3129	3129	3129	3129	3129	3129	3129	3129	3129	3129	3129	3129	3129	3129	3129	3129	3129	3129	3129	3129	3129	3129	3101	3101	3101	3073	3046	3019	2993	2993	0	0	2252	2237	2237	2237	2223	2208	2194	2181	2181	2167	2167	2167	2153	2153	2140	2127	2003	2003	1992	1992	1992	1980	1980	1980	1980	1969	1969	1969	1969	1958	1958	1958	1958	1958	1947	1947	1947	1947	1947	1947	1947	1936	1947	1947	1947	1947	1947	1947	1947	1947	1947	1947	1947	1936	1936	1936	1947	1947	1947	1947	1947	1958	1947	1947	1947	1958	1947	1958	1958	0	0	0	0	0	0	0	0	0	0	0	0	0	0	0	0	0	0	0	0	0	0	0	0	0	0	0	0	0	0	0	0	0	0	0	0	0
0	0	0	0	0	0	0	0	0	0	0	0	0	0	1824	1824	1824	1833	1843	1843	1853	1853	1863	1863	1873	1894	1894	1904	1925	1925	1936	1936	1936	1936	1936	1947	1947	1958	1969	1992	2003	2003	2015	2015	2015	2015	2027	2027	2027	2039	2039	2063	2063	2063	2076	2088	2101	2114	2114	2127	2140	2140	2153	2153	2167	2181	2194	2194	2194	2223	2237	2237	2237	2252	2252	2252	2266	2281	2297	2312	2343	2343	2343	2359	2359	2376	2376	2376	2392	2409	2409	2426	2426	2443	2443	2460	2478	2496	2496	2514	2514	2514	2514	2514	2514	0	4192	4192	4243	4243	4243	4296	4296	4296	4296	4296	4296	4350	4350	4406	4463	4463	4463	4521	4521	4581	4643	4643	4706	4706	4706	4706	4706	4706	0	0	0	0	0	0	0	0	0	0	0	0	0	0	0	0	0	0	0	0	0	0	0	0	0	0	0	0	0	0	0	0	0	0	0	7608	7608	7608	7779	7779	7608	7608	7608	7608	7779	7779	7779	7779	7779	7779	7779	7959	7779	7779	7779	7779	7779	7779	7959	7959	0	0	0	0	0	0	0	0	0	0	0	0	0	0	0	0	0	0	0	0	0	0	0	0	0	0	0	0	0	0	0	0	0	0	0	0	0	0	0	0	0	0	0	0	0	0	0	0	0	0	0	0	0	0	0	0	0	0	0	0	0	0	0	0	0	0	0	0	0	0	0	0	0	0	0	0	0	0	0	0	0	4463	4296	4296	4296	4296	4296	4296	4296	4243	4296	4243	4296	4296	4243	4243	4243	4243	4243	4243	4243	4243	4243	4243	4243	4192	4192	4192	4192	4192	4192	4192	4243	4243	4243	4243	4243	4243	4243	4243	4243	4243	4243	4296	4296	4350	4350	4350	4350	4350	4350	4350	4350	4350	8550	8550	8343	8343	8343	8343	8146	8146	8146	8146	8146	8146	8146	8343	8146	8146	8146	8146	8343	8343	8146	8146	8146	8343	8343	8343	0	0	0	0	0	0	0	0	0	0	0	0	0	0	7959	7959	7779	7779	8343	8343	8550	8550	8343	8343	8146	8146	8146	8146	8146	8146	8146	8146	8146	8146	8146	8146	8146	8146	8343	8146	8146	8146	7959	7959	7444	7287	7444	7287	7444	7444	7608	7779	7779	7779	7608	7608	7608	7608	7608	7779	7779	7779	7779	7779	7608	7608	0	0	0	0	0	0	0	0	0	0	0	0	0	0	0	0	0	0	0	0	0	0	0	0	0	5815	5915	5915	5915	5915	0	0	0	0	0	0	0	0	0	0	0	0	0	0	0	0	0	0	0	0	0	0	0	0	0	0	0	0	0	0	0	0	0	0	0	0	0	0	3277	3246	3246	3216	3216	3186	3186	3157	3129	3129	3129	3129	3129	3129	3129	3129	3129	3129	3129	3129	3129	3129	3129	3129	3129	3129	3129	3129	3129	3129	3129	3129	3129	3129	3129	3129	3101	3101	3073	3073	3046	3019	2993	2993	0	0	2237	2237	2223	2223	2223	2208	2194	2181	2181	2167	2167	2153	2153	2140	2140	2114	2015	2015	2003	1992	1992	1980	1980	1980	1980	1969	1969	1969	1969	1958	1958	1958	1958	1958	1947	1947	1947	1947	1947	1947	1947	1947	1947	1947	1947	1947	1947	1936	1947	1947	1936	1936	1947	1947	1947	1947	1947	1947	1947	1947	1947	1947	1947	1947	1947	1958	1958	1958	1958	0	0	0	0	0	0	0	0	0	0	0	0	0	0	0	0	0	0	0	0	0	0	0	0	0	0	0	0	0	0	0	0	0	0	0	0	0
0	0	0	0	0	0	0	0	0	0	0	0	0	0	1824	1824	1824	1824	1843	1843	1853	1853	1863	1873	1883	1894	1894	1904	1925	1925	1925	1936	1936	1936	1936	1936	1947	1947	1969	1980	2003	2015	2015	2015	2015	2015	2027	2027	2039	2039	2051	2063	2063	2063	2076	2088	2101	2114	2114	2127	2140	2140	2153	2153	2167	2167	2194	2194	2194	2208	2237	2237	2252	2252	2252	2266	2266	2281	2297	2312	2327	2343	2343	2359	2359	2376	2376	2376	2376	2409	2426	2426	2426	2443	2443	2460	2478	2478	2478	2496	2496	2496	2514	2514	2514	0	4192	4192	4243	4243	4243	4296	4296	4296	4296	4296	4243	4243	4350	4406	4463	4463	4521	4581	4643	4643	4643	4706	4706	4706	4706	4706	4706	4706	0	0	0	0	0	0	0	0	0	0	0	0	0	0	0	0	0	0	0	0	0	0	0	0	0	0	0	0	0	0	0	0	0	0	0	7608	7608	7608	7959	7779	7608	7608	7608	7779	7779	7779	7779	7779	7779	7779	7779	7779	7959	7779	7779	7779	7779	7779	7959	7959	0	0	0	0	0	0	0	0	0	0	0	0	0	0	0	0	0	0	0	0	0	0	0	0	0	0	0	0	0	0	0	0	0	0	0	0	0	0	0	0	0	0	0	0	0	0	0	0	0	0	0	0	0	0	0	0	0	0	0	0	0	0	0	0	0	0	0	0	0	0	0	0	0	0	0	0	0	0	0	0	0	4463	4296	4296	4296	4296	4296	4296	4296	4296	4296	4243	4243	4243	4243	4243	4243	4243	4243	4243	4243	4243	4243	4243	4243	4192	4192	4192	4192	4192	4192	4192	4243	4243	4243	4243	4243	4243	4243	4243	4243	4243	4243	4296	4296	4350	4350	4350	4350	4350	4350	4350	4350	4350	0	8343	8343	8343	8146	8146	8146	8343	8343	8343	8343	8146	8146	8343	8146	8146	8146	8343	8343	8343	8146	8146	8146	8343	7959	7959	0	0	0	0	0	0	0	0	0	0	0	0	0	0	7959	7959	7779	7779	0	0	8550	8343	8343	8146	8146	8146	8146	8146	7959	7959	7959	7959	7959	7959	8146	8146	8146	8146	8146	8146	8146	8146	7959	7959	0	0	7444	7287	7444	7444	7608	7959	7779	7779	7608	7608	7608	7779	7779	7779	7959	7959	7779	7779	7779	7608	0	0	0	0	0	0	0	0	0	0	0	0	0	0	0	0	0	0	0	0	0	0	0	0	6235	5915	5915	5915	5915	5915	0	0	0	0	0	0	0	0	0	0	0	0	0	0	0	0	0	0	0	0	0	0	0	0	0	0	0	0	0	0	0	0	0	0	0	0	3406	3373	3341	3246	3246	3216	3186	3186	3157	3157	3129	3129	3129	3129	3129	3129	3129	3129	3129	3129	3129	3129	3129	3129	3129	3129	3101	3129	3129	3129	3129	3129	3129	3129	3129	3129	3129	3129	3101	3101	3101	3073	3046	3019	2993	2993	0	0	2223	2223	2223	2223	2208	2208	2194	2181	2181	2167	2167	2153	2153	2140	2127	2101	2027	2015	2015	2003	1992	1980	1980	1980	1969	1969	1969	1969	1958	1958	1958	1947	1947	1958	1947	1947	1947	1947	1947	1947	1947	1947	1947	1947	1947	1947	1947	1936	1936	1947	1947	1947	1947	1936	1936	1947	1947	1947	1947	1947	1947	1947	1947	1947	1947	1958	1947	1958	1958	0	0	0	0	0	0	0	0	0	0	0	0	0	0	0	0	0	0	0	0	0	0	0	0	0	0	0	0	0	0	0	0	0	0	0	0	0
0	0	0	0	0	0	0	0	0	0	0	0	0	0	1814	1824	1824	1833	1843	1843	1853	1853	1873	1873	1883	1894	1894	1894	1904	1925	1925	1925	1936	1936	1936	1936	1947	1958	1969	1980	2003	2015	2015	2015	2015	2027	2027	2027	2027	2039	2051	2051	2063	2063	2076	2088	2114	2114	2127	2127	2140	2153	2153	2153	2167	2167	2181	2194	2194	2208	2237	2237	2237	2252	2252	2252	2266	2266	2281	2297	2312	2327	2343	2359	2376	2376	2376	2376	2376	2409	2426	2426	2426	2426	2443	2443	2478	2478	2496	2496	2496	2496	2514	2496	2496	0	4192	4192	4192	4243	4243	4296	4296	4243	4296	4296	4243	4243	4296	4406	4463	4463	4463	4521	4581	4643	4581	4643	4643	4643	4643	4706	4643	4643	0	0	0	0	0	0	0	0	0	0	0	0	0	0	0	0	0	0	0	0	0	0	0	0	0	0	0	0	0	0	0	0	0	0	0	0	0	0	7959	7779	7779	7608	7608	7779	7779	7779	7779	7779	7779	7959	7779	7779	7779	7779	7959	7779	7779	7959	7959	7959	0	0	0	0	0	0	0	0	0	0	0	0	0	0	0	0	0	0	0	0	0	0	0	0	0	0	0	0	0	0	0	0	0	0	0	0	0	0	0	0	0	0	0	0	0	0	0	0	0	0	0	0	0	0	0	0	0	0	0	0	0	0	0	0	0	0	0	0	0	0	0	0	0	0	0	0	0	0	0	0	0	4296	4296	4296	4296	4296	4296	4296	4296	4296	4296	4296	4296	4243	4243	4243	4243	4243	4243	4243	4243	4243	4243	4243	4243	4243	4192	4142	4142	4142	4192	4192	4243	4243	4243	4243	4243	4243	4243	4243	4243	4243	4243	4296	4296	4350	4350	4350	4350	4350	4350	4350	4350	4350	0	8343	8550	8343	8550	8343	8343	8343	8343	8343	8343	8146	8146	8146	8146	8146	8146	8343	8343	8343	8146	8146	8146	8146	7959	7779	7779	0	0	0	0	0	0	0	0	0	0	0	0	0	7959	7959	0	0	0	0	8550	8343	8343	8343	8146	8146	8146	7959	7959	7959	7959	7959	7959	7959	8146	8146	8146	8146	8146	8146	7959	7959	7959	7959	0	0	0	0	0	0	0	7959	7779	7608	7779	7608	7779	7779	7779	7959	7959	7959	7779	7779	7779	0	0	0	0	0	0	0	0	0	0	0	0	0	0	0	0	0	0	0	0	0	0	0	0	0	6235	6124	6018	6018	5915	5915	5915	0	0	0	0	0	0	0	0	0	0	0	0	0	0	0	0	0	0	0	0	0	0	0	0	0	0	0	0	0	0	0	0	0	0	0	3406	3373	3341	3277	3246	3216	3216	3186	3186	3157	3129	3129	3129	3129	3129	3129	3129	3129	3129	3129	3129	3129	3129	3129	3129	3101	3101	3129	3129	3129	3129	3129	3129	3129	3129	3129	3129	3129	3101	3101	3073	3073	3046	3019	2993	2967	2967	0	2223	2223	2223	2223	2208	2194	2194	2181	2167	2167	2167	2153	2153	2127	2114	2088	2027	2027	2015	2003	1992	1980	1980	1969	1969	1969	1969	1969	1969	1958	1958	1958	1958	1958	1958	1947	1947	1947	1947	1947	1947	1947	1947	1947	1936	1947	1947	1936	1947	1947	1936	1947	1947	1936	1936	1947	1947	1947	1947	1947	1947	1947	1947	1947	1947	1947	1947	1958	1958	0	0	0	0	0	0	0	0	0	0	0	0	0	0	0	0	0	0	0	0	0	0	0	0	0	0	0	0	0	0	0	0	0	0	0	0	0
0	0	0	0	0	0	0	0	0	0	0	0	0	0	1824	1824	1824	1833	1843	1843	1853	1853	1863	1863	1873	1883	1894	1894	1925	1925	1936	1936	1936	1936	1936	1936	1936	1958	1969	1980	2003	2015	2015	2015	2015	2027	2027	2027	2039	2039	2051	2063	2063	2063	2076	2101	2114	2114	2127	2127	2140	2140	2140	2140	2153	2167	2181	2194	2194	2208	2237	2237	2252	2252	2252	2266	2266	2266	2281	2297	2312	2327	2327	2343	2359	2376	2376	2359	2376	2392	2409	2409	2426	2443	2460	2460	2478	2478	2496	2496	2496	2496	2496	2496	2496	0	4192	4192	4192	4243	4243	4296	4296	4243	4243	4296	4243	4243	4243	4350	4463	4463	4463	4463	4521	4521	4521	4521	4521	4521	4581	4581	4521	4521	0	0	0	0	0	0	0	0	0	0	0	0	0	0	0	0	0	0	0	0	0	0	0	0	0	0	0	0	0	0	0	0	0	0	0	0	0	8146	8146	7959	7959	7779	7779	7779	7779	7779	7779	7779	7779	7959	7959	7959	7959	7959	7959	7779	7779	7779	7959	7779	7779	0	0	0	0	0	0	0	0	0	0	0	0	0	0	0	0	0	0	0	0	0	0	0	0	0	0	0	0	0	0	0	0	0	0	0	0	0	0	0	0	0	0	0	0	0	0	0	0	0	0	0	0	0	0	0	0	0	0	0	0	0	0	0	0	0	0	0	0	0	0	0	0	0	0	0	0	0	0	0	0	4296	4296	4296	4296	4296	4296	4296	4296	4296	4296	4296	4296	4243	4243	4243	4243	4243	4243	4243	4243	4243	4243	4243	4243	4243	4192	4142	4142	4142	4192	4192	4243	4243	4243	4243	4243	4243	4243	4243	4243	4243	4243	4296	4350	4350	4350	4350	4350	4350	4350	4350	4350	4350	0	8343	8550	8550	8550	8550	8550	8343	8343	8343	8343	8146	8146	8146	8146	8146	8146	8343	8343	8343	8343	8146	8343	8146	7959	7779	7779	7779	0	0	0	0	0	0	0	0	0	0	0	0	7959	7959	0	0	0	0	0	0	8343	8146	8146	8146	8146	7959	7959	7959	7959	7959	7959	7959	7959	8146	8146	8146	8146	8146	7959	7959	7959	0	0	0	0	0	0	0	0	0	0	7608	7779	7608	7779	7608	7959	7959	7959	8146	7959	7959	7959	0	0	0	0	0	7137	7137	6992	6992	0	0	0	0	0	0	0	0	0	0	0	0	0	0	0	0	6235	5915	6018	5915	5915	5915	5915	0	0	0	0	0	0	0	0	0	0	0	0	0	0	0	0	0	0	0	0	0	0	0	0	0	0	0	0	0	0	0	0	0	0	3440	3406	3373	3341	3277	3246	3216	3216	3186	3186	3157	3157	3129	3129	3129	3129	3129	3129	3129	3129	3129	3129	3129	3129	3129	3129	3129	3129	3129	3129	3129	3129	3129	3129	3157	3129	3129	3129	3129	3101	3101	3101	3073	3046	3019	3019	2993	2993	0	0	2223	2208	2223	2208	2194	2194	2181	2167	2167	2167	2153	2140	2127	2114	2088	2027	2027	2015	2003	1992	1980	1980	1980	1969	1969	1969	1969	1969	1958	1958	1958	1958	1958	1947	1947	1947	1947	1947	1947	1947	1947	1947	1947	1947	1947	1947	1947	1947	1947	1947	1947	1947	1936	1936	1947	1947	1947	1947	1947	1947	1947	1947	1947	1947	1947	1947	1947	1947	0	0	0	0	0	0	0	0	0	0	0	0	0	0	0	0	0	0	0	0	0	0	0	0	0	0	0	0	0	0	0	0	0	0	0	0	0
0	0	0	0	0	0	0	0	0	0	0	0	0	0	1824	1824	1824	1833	1843	1843	1843	1853	1863	1863	1873	1883	1904	1915	1925	1925	1925	1936	1936	1936	1947	1947	1958	1958	1969	1980	1992	2003	2015	2015	2015	2015	2027	2027	2039	2039	2051	2063	2063	2063	2076	2088	2101	2114	2127	2127	2153	2140	2140	2153	2153	2167	2181	2194	2194	2208	2237	2237	2252	2252	2252	2266	2266	2266	2281	2297	2297	2312	2327	2343	2359	2359	2376	2376	2376	2392	2409	2426	2426	2443	2460	2478	2478	2496	2496	2496	2496	2496	2496	2496	2496	0	4192	4192	4192	4243	4243	4296	4296	4296	4243	4296	4243	4296	4296	4350	4406	4463	4463	4463	4521	4521	4521	4521	4521	4521	4521	4521	4463	4463	0	0	0	0	0	0	0	0	0	0	0	0	0	0	0	0	0	0	0	0	0	0	0	0	0	0	0	0	0	0	0	0	0	0	0	0	0	8146	8146	7959	7959	7779	7779	7959	7779	7779	7779	7608	7779	7779	7779	7959	7959	7959	7959	7959	7608	7608	7779	7608	7608	0	0	0	0	0	0	0	0	0	0	0	0	0	0	0	0	0	0	0	0	0	0	0	0	0	0	0	0	0	0	0	0	0	0	0	0	0	0	0	0	0	0	0	0	0	0	0	0	0	0	0	0	0	0	0	0	0	0	0	0	0	0	0	0	0	0	0	0	0	0	0	0	0	0	0	0	0	0	0	4296	4296	4296	4296	4296	4296	4296	4296	4296	4296	4296	4296	4296	4243	4243	4243	4243	4243	4243	4243	4243	4243	4243	4243	4243	4243	4192	4142	4142	4142	4192	4192	4243	4243	4243	4243	4243	4243	4243	4243	4243	4243	4243	4243	4296	4350	4350	4350	4350	4350	4296	4350	4296	4296	4296	8343	8767	8343	8550	8343	8343	8343	8343	8343	8343	8146	8146	8146	8146	8146	8146	8343	8343	8343	8343	8343	8343	8146	7779	7779	7608	7608	0	0	0	0	0	0	0	0	0	0	0	0	0	0	0	0	0	0	0	0	8343	8343	8146	8146	8146	7959	7959	7959	7959	7959	7959	7779	7959	7959	7959	7959	7959	8146	7959	7959	0	0	0	0	0	0	0	0	0	0	0	0	0	7608	7959	7959	7959	8146	8146	8146	7959	7959	7959	7959	7779	6992	7137	7137	7287	7287	6992	7137	7137	0	0	0	0	0	0	0	0	0	0	0	0	6124	6124	6124	6235	6235	6018	6018	6018	5915	5915	5915	5915	5915	0	0	0	0	0	0	0	0	0	0	0	0	0	0	0	0	0	0	0	0	0	0	0	0	0	0	0	0	0	0	3440	3406	3373	3373	3341	3277	3246	3216	3216	3216	3186	3157	3157	3129	3129	3129	3129	3129	3129	3129	3129	3129	3129	3129	3101	3101	3101	3101	3101	3129	3129	3129	3129	3129	3129	3157	3129	3129	3129	3129	3101	3101	3101	3073	3073	3046	3019	2993	2993	0	0	0	2208	2208	2208	2194	2194	2181	2167	2167	2153	2153	2140	2127	2114	2101	2039	2027	2015	2003	1992	1980	1980	1969	1969	1969	1969	1969	1958	1958	1958	1947	1947	1958	1947	1947	1947	1947	1947	1947	1947	1936	1947	1947	1936	1947	1947	1947	1947	1947	1947	1947	1947	1947	1936	1947	1947	1947	1947	1947	1947	1947	1947	1947	1947	1947	1947	1958	1958	0	0	0	0	0	0	0	0	0	0	0	0	0	0	0	0	0	0	0	0	0	0	0	0	0	0	0	0	0	0	0	0	0	0	0	0	0
0	0	0	0	0	0	0	0	0	0	0	0	0	0	1824	1824	1833	1843	1853	1853	1853	1863	1873	1873	1883	1894	1904	1915	1925	1925	1925	1925	1936	1936	1947	1947	1947	1958	1969	1980	1992	2003	2015	2015	2015	2027	2027	2027	2039	2039	2051	2063	2063	2063	2088	2101	2114	2114	2127	2127	2153	2140	2140	2153	2153	2167	2181	2194	2194	2208	2223	2237	2252	2252	2252	2266	2266	2266	2281	2281	2297	2312	2327	2343	2359	2376	2376	2359	2376	2392	2409	2426	2443	2443	2443	2478	2478	2478	2496	2496	2496	2496	2496	2496	2496	0	4243	4243	4243	4243	4243	4243	4296	4296	4243	4296	4296	4296	4350	4350	4406	4463	4463	4463	4463	4463	4521	4521	4463	4463	4521	4521	4463	4463	0	0	0	0	0	0	0	0	0	0	0	0	0	0	0	0	0	0	0	0	0	0	0	0	0	0	0	0	0	0	0	0	0	0	0	0	0	0	8146	7959	7779	7779	7779	7959	7779	7779	7779	7779	7779	7779	7779	7779	7959	7779	7779	7779	7608	7608	7608	7444	7444	0	0	0	0	0	0	0	0	0	0	0	0	0	0	0	0	0	0	0	0	0	0	0	0	0	0	0	0	0	0	0	0	0	0	0	0	0	0	0	0	0	0	0	0	0	0	0	0	0	0	0	0	0	0	0	0	0	0	0	0	0	0	0	0	0	0	0	0	0	0	0	0	0	0	0	0	0	0	4350	4296	4296	4296	4296	4296	4296	4296	4296	4296	4296	4243	4243	4296	4243	4243	4243	4243	4243	4243	4243	4243	4243	4243	4243	4243	4243	4243	4192	4192	4192	4243	4243	4243	4243	4243	4243	4243	4243	4243	4243	4243	4243	4243	4296	4296	4296	4350	4350	4350	4350	4296	4350	4296	4296	4296	0	8343	8343	8343	8343	8146	8343	8343	8343	8343	8146	8146	8146	8146	8146	8343	8343	8343	8343	8343	8343	8343	8146	7959	7779	7779	7779	0	0	0	0	0	0	0	0	0	0	0	0	0	0	0	0	0	0	0	0	0	8343	8146	8146	8146	8146	7959	7959	7959	7959	7779	7779	7779	7959	7959	7959	7959	0	0	0	0	0	0	0	0	0	0	0	0	0	0	0	0	0	7779	7959	7959	7959	8146	8146	7959	7959	7959	7959	7779	7779	7287	7137	7137	7137	7137	7137	7137	7137	0	0	0	0	0	0	0	0	0	0	0	6124	6124	6124	6124	6124	6018	6018	5915	5915	5915	5915	5815	5915	5815	5815	6018	6018	0	0	0	0	0	0	0	0	0	0	0	0	0	0	0	0	0	0	0	0	0	0	0	0	0	0	3440	3406	3373	3373	3341	3277	3277	3246	3216	3216	3186	3157	3157	3129	3129	3129	3129	3129	3129	3129	3129	3129	3129	3129	3101	3101	3101	3101	3101	3129	3129	3129	3129	3129	3129	3129	3129	3129	3101	3101	3101	3101	3101	3073	3073	3046	3019	3019	3019	3019	3019	3019	0	2208	2194	2181	2181	2181	2167	2153	2153	2140	2140	2127	2114	2101	2076	2039	2027	2015	2003	1992	1980	1969	1969	1969	1969	1969	1958	1947	1947	1947	1936	1947	1947	1947	1947	1947	1947	1947	1947	1947	1947	1947	1936	1947	1947	1936	1947	1947	1936	1947	1947	1936	1936	1947	1947	1947	1947	1947	1936	1947	1947	1947	1947	1947	1947	1947	1947	0	0	0	0	0	0	0	0	0	0	0	0	0	0	0	0	0	0	0	0	0	0	0	0	0	0	0	0	0	0	0	0	0	0	0	0	0
0	0	0	0	0	0	0	0	0	0	0	0	0	0	1833	1833	1833	1843	1843	1843	1853	1853	1883	1883	1883	1894	1894	1894	1915	1925	1925	1936	1936	1936	1947	1947	1947	1958	1958	1969	1980	1992	1992	2003	2015	2027	2027	2027	2027	2051	2051	2063	2063	2076	2088	2101	2101	2114	2114	2114	2140	2140	2153	2153	2153	2167	2181	2194	2194	2208	2223	2237	2237	2252	2252	2266	2281	2281	2297	2297	2297	2312	2327	2343	2359	2376	2376	2376	2376	2392	2409	2426	2426	2443	2443	2460	2478	2496	2496	2514	2514	2514	2514	2496	2496	0	4243	4243	4243	4243	4243	4243	4296	4296	4296	4296	4296	4350	4350	4406	4406	4406	4463	4463	4463	4463	4463	4463	4463	4463	4521	4521	4463	4463	0	0	0	0	0	0	0	0	0	0	0	0	0	0	0	0	0	0	0	0	0	0	0	0	0	0	0	0	0	0	0	0	0	0	0	0	0	0	8146	7959	7779	7779	7779	7779	7779	7779	7779	7779	7959	7959	7779	7779	7779	7779	7959	7779	7608	7779	7959	7959	7444	0	0	0	0	0	0	0	0	0	0	0	0	0	0	0	0	0	0	0	0	0	0	0	0	0	0	0	0	0	0	0	0	0	0	0	0	0	0	0	0	0	0	0	0	0	0	0	0	0	0	0	0	0	0	0	0	0	0	0	0	0	0	0	0	0	0	0	0	0	0	0	0	0	0	0	0	0	0	4350	4350	4350	4296	4296	4296	4296	4296	4296	4296	4296	4296	4296	4296	4243	4243	4243	4243	4243	4243	4243	4243	4243	4243	4243	4243	4243	4243	4192	4243	4243	4243	4243	4243	4243	4243	4243	4243	4243	4243	4243	4243	4243	4243	4296	4296	4350	4350	4350	4350	4350	4296	4296	4296	4296	4296	0	8146	8146	8146	8146	7959	7959	8343	7959	8146	8146	8146	8146	8146	8146	8343	8343	8343	8343	8343	8343	8343	8146	7959	7959	7779	7779	0	0	0	0	0	0	0	0	0	0	0	0	0	0	0	0	0	0	0	0	0	8146	8146	8146	8146	7959	7959	7959	7959	7779	7779	7779	7779	0	0	0	0	0	0	0	0	0	0	0	0	0	0	0	0	0	0	0	0	0	7779	7779	7779	7959	7959	7959	7959	7959	7959	8146	7959	7779	7287	7287	7137	7137	7137	7287	7287	7137	0	0	0	0	0	0	0	0	0	0	0	6124	6124	6124	6124	6124	6018	6124	6124	6124	6018	6018	5915	6018	5915	5915	6018	6018	0	0	0	0	0	0	0	0	0	0	0	0	0	0	0	0	0	0	0	0	0	0	0	0	0	0	0	3406	3373	3373	3341	3341	3277	3246	3216	3186	3186	3157	3157	3129	3129	3129	3129	3129	3129	3129	3129	3129	3129	3129	3101	3101	3101	3101	3101	3129	3129	3129	3129	3129	3129	3129	3129	3101	3101	3101	3101	3101	3101	3073	3073	3073	3073	3046	3046	3019	3019	3019	0	2181	2181	2181	2181	2181	2167	2167	2153	2153	2140	2127	2127	2114	2101	2039	2027	2015	2003	1992	1980	1969	1980	1969	1969	1969	1969	1947	1947	1947	1947	1947	1947	1947	1947	1947	1947	1947	1947	1947	1947	1947	1947	1947	1947	1947	1947	1947	1936	1947	1947	1936	1936	1936	1936	1947	1947	1947	1947	1947	1947	1947	1947	1947	1947	1947	1947	0	0	0	0	0	0	0	0	0	0	0	0	0	0	0	0	0	0	0	0	0	0	0	0	0	0	0	0	0	0	0	0	0	0	0	0	0
0	0	0	0	0	0	0	0	0	0	0	0	0	0	1833	1833	1833	1843	1853	1843	1853	1863	1873	1873	1883	1883	1894	1904	1915	1925	1925	1936	1936	1947	1947	1947	1958	1958	1969	1969	1980	1980	2003	2015	2015	2027	2027	2027	2039	2039	2063	2063	2076	2076	2088	2101	2101	2114	2114	2114	2140	2140	2153	2153	2167	2167	2181	2181	2194	2208	2237	2237	2252	2252	2252	2266	2281	2281	2297	2297	2312	2327	2327	2343	2359	2359	2376	2376	2376	2392	2409	2426	2426	2443	2443	2460	2478	2496	2496	2514	2514	2514	2514	2496	2496	2496	4243	4243	4243	4243	4243	4243	4296	4296	4243	4243	4296	4296	4296	4350	4406	4406	4406	4406	4463	4463	4463	4463	4463	4463	4463	4463	4463	4463	4463	0	0	0	0	0	0	0	0	0	0	0	0	0	0	0	0	0	0	0	0	0	0	0	0	0	0	0	0	0	0	0	0	0	0	0	0	0	0	0	7779	7444	7608	7608	7608	7779	7779	7779	7779	7779	7779	7608	7959	7959	7959	7959	7608	7608	7608	7959	0	0	0	0	0	0	0	0	0	0	0	0	0	0	0	0	0	0	0	0	0	0	0	0	0	0	0	0	0	0	0	0	0	0	0	0	0	0	0	0	0	0	0	0	0	0	0	0	0	0	0	0	0	0	0	0	0	0	0	0	0	0	0	0	0	0	0	0	0	0	0	0	0	0	0	0	0	0	0	4296	4350	4350	4350	4350	4350	4296	4296	4296	4296	4296	4296	4296	4296	4296	4243	4243	4243	4243	4243	4243	4243	4243	4243	4243	4243	4243	4243	4243	4243	4296	4296	4296	4296	4296	4243	4243	4243	4243	4243	4243	4243	4243	4243	4296	4296	4350	4350	4350	4296	4296	4296	4350	4350	4350	4296	0	8146	8146	7959	8343	7959	8343	8146	8146	8146	8146	8146	8146	8146	8343	8343	8343	8343	8343	8343	8343	8343	8343	8343	8146	8146	7959	0	0	0	0	0	0	0	0	0	0	0	0	0	0	0	0	0	0	0	0	0	8343	8343	8146	8146	7959	7959	7779	7779	7779	7608	7608	0	0	0	0	0	0	0	0	0	0	0	0	0	0	0	0	0	0	0	0	0	7779	7779	7779	7779	7959	8146	7959	7959	7959	7959	8146	7959	7779	7287	7137	7137	7137	7137	7137	7287	0	0	0	0	0	0	0	0	0	0	0	0	6018	6018	5915	6018	6124	6018	6124	6124	6124	6018	5915	5915	5915	5915	5915	0	0	0	0	0	0	0	0	0	0	0	0	0	0	0	0	0	0	0	0	0	0	0	0	0	0	0	3475	3440	3406	3373	3373	3341	3341	3277	3246	3216	3186	3186	3157	3129	3129	3129	3129	3129	3129	3129	3129	3129	3129	3129	3129	3101	3101	3101	3101	3101	3129	3129	3129	3129	3129	3129	3129	3129	3101	3101	3101	3101	3101	3101	3101	3073	3073	3046	3046	3019	3046	3019	3019	0	2181	2194	2181	2181	2181	2181	2153	2153	2153	2140	2127	2127	2114	2101	2027	2015	2003	1992	1992	1980	1980	1980	1969	1969	1969	1969	1958	1958	1947	1947	1947	1947	1947	1947	1947	1947	1947	1947	1947	1947	1947	1947	1947	1947	1947	1947	1936	1936	1936	1936	1936	1936	1936	1936	1947	1947	1947	1947	1947	1947	1947	1947	1947	1947	1947	1947	0	0	0	0	0	0	0	0	0	0	0	0	0	0	0	0	0	0	0	0	0	0	0	0	0	0	0	0	0	0	0	0	0	0	0	0	0
