0	0	0	0	0	0	0	0	0	0	0	0	0	0	0	1715	1723	1723	1732	1750	1750	1759	1768	1786	1795	1804	1804	1814	1814	1814	1814	1814	1824	1843	1853	1863	1873	1873	1883	1883	1904	1915	1925	1936	1947	1947	1947	1958	1958	1969	1969	1969	1980	2003	2003	2015	2015	2039	2039	2051	2076	2101	2101	2101	2101	2114	2127	2140	2167	2167	2181	2194	2208	2208	2208	2208	2223	2237	2252	2266	2297	2297	2312	2327	2327	2343	2359	2376	2392	2409	2409	2409	2426	2443	2460	2478	2496	2514	2532	2551	2551	2570	2589	2609	2609	2629	2649	2669	2690	2711	2711	2733	2754	2777	2777	2777	2799	2799	2845	2869	2893	2917	2917	2942	2967	2967	2993	3046	3073	3101	3101	3101	3129	3129	3157	3157	3186	3216	3246	3246	3277	3309	3341	3406	3406	3373	3406	3406	3406	3406	3406	3406	3440	3440	3440	3440	3440	3440	3440	3406	3406	3406	3406	3406	3406	3440	3440	3440	3440	3440	3440	3440	3406	3406	3406	3406	3373	3373	3373	3373	3373	3373	3406	3406	3440	3406	3440	3440	3406	3406	3406	3406	3406	3373	3406	3406	3406	3406	3406	3406	3406	3406	3406	3406	3406	3406	3406	3440	3440	3440	3440	3440	3406	3406	3406	3406	3440	3440	3440	3440	3440	3440	3440	3440	3440	3440	3440	3440	3440	3406	3440	3406	3440	3440	3440	3440	3440	3440	3440	3440	3440	3440	3440	3440	3440	3406	3440	3440	3440	3440	3440	3440	3440	3475	3475	3475	3475	3475	3475	3475	3440	3440	3440	3440	3440	3440	3440	3440	3475	3440	3475	2917	2917	2917	2917	2917	2893	2893	2893	2917	2917	2917	2917	2942	2942	2967	2967	2967	2967	2993	2993	2993	2967	2942	2942	2967	2967	2993	2993	2993	2993	2993	2993	2993	2967	2967	2967	2942	2942	2942	2942	2917	2917	2917	2893	2893	2869	2869	2893	2893	3546	3546	3510	3510	3510	3510	3510	3510	3510	3546	3546	3546	3546	3546	3546	3546	3546	3546	3510	3546	3510	3546	3546	3510	3546	3510	3510	3510	3510	3510	3510	3510	3510	3510	3546	3546	3510	3546	3546	3546	3546	3546	3546	3546	3546	3546	3546	3546	3546	3546	3546	3546	3546	3546	3546	3546	3546	3546	3546	3546	3546	3546	3546	3546	3546	3546	3546	3546	3583	3583	3583	3583	3583	3583	3583	3583	3583	3583	3583	3546	3546	3546	3546	3546	3546	3546	3583	3583	3583	3583	3583	3583	3583	3583	3583	3583	3583	3583	3546	3546	3546	3583	3583	3583	3583	3583	3583	3583	3583	3546	3546	3546	3546	3546	3583	3583	3583	3583	3583	3583	3583	3583	3583	3583	3583	3583	3583	3621	3621	0	2223	2208	2208	2194	2181	2181	2167	2153	2140	2140	2114	2114	2101	2101	2088	2076	2063	2051	2039	2027	2015	2003	1992	1980	1969	1969	1958	1947	1947	1947	1936	1925	1915	1904	1894	1883	1863	1853	1843	1833	1833	1824	1814	1804	1795	1786	1786	1777	1777	1768	1759	1750	1750	1741	1732	1715	1715	1706	1698	1690	1690	1681	1681	1681	1673	1657	1649	1634	1626	1626	1618	1618	1611	1603	1596	1589	1581	1574	1574	1567	1560	1560	1553	1546	1539	1532	1525	1519	1512	1512	1506	1506	1506	1499	1486	1480	1480	1473	1467	1467	1467	1467	1461	1461	1461	1461	1467	1473	1480	1486	1486	1492	1492	1492	1492	1492	1492	1499	1492	1499	1499	1499	1499	1499	1499	1492	1499	1499	1499	1492	1499	1499	1499	1492	1492	1492	1492	1492	1492	1492	1492	1499	1492	1492	1492	1499	1499	1499	1499	1499	1499	1499	0	0	0	0	0	0	0	0	0	0	0	0	0	0	0	0	0	0	0	0	0	0	0	0	0	0	0	0	0	0	0	0	0	0	0	0	0	0
0	0	0	0	0	0	0	0	0	0	0	0	0	0	0	1723	1723	1732	1732	1750	1750	1759	1768	1777	1786	1795	1804	1804	1804	1814	1814	1814	1824	1843	1863	1873	1873	1883	1883	1894	1904	1915	1925	1936	1947	1947	1947	1958	1958	1969	1969	1969	1980	1992	2003	2003	2015	2027	2039	2063	2088	2088	2101	2101	2114	2114	2127	2127	2153	2167	2167	2194	2208	2208	2208	2208	2223	2237	2252	2266	2297	2297	2312	2327	2327	2343	2359	2376	2392	2409	2409	2426	2443	2460	2460	2478	2496	2514	2532	2551	2570	2570	2589	2589	2609	2629	2649	2669	2690	2711	2711	2733	2754	2777	2777	2799	2799	2799	2845	2869	2893	2917	2917	2917	2942	2967	2993	3046	3073	3101	3101	3101	3129	3129	3129	3157	3216	3216	3246	3246	3277	3309	3373	3373	3406	3373	3406	3406	3406	3406	3440	3440	3440	3440	3440	3440	3440	3440	3406	3406	3406	3440	3440	3440	3440	3440	3440	3440	3440	3440	3440	3440	3406	3406	3406	3373	3373	3373	3373	3373	3373	3373	3406	3406	3406	3406	3440	3440	3440	3440	3406	3406	3406	3406	3406	3406	3406	3406	3406	3406	3406	3373	3373	3406	3406	3406	3440	3440	3440	3440	3440	3440	3406	3406	3406	3406	3440	3440	3440	3440	3440	3440	3440	3440	3440	3440	3406	3406	3406	3406	3406	3406	3440	3406	3440	3440	3440	3440	3440	3440	3440	3440	3440	3440	3440	3440	3440	3440	3440	3440	3440	3440	3440	3475	3475	3475	3475	3475	3475	3475	3475	3440	3440	3440	3440	3440	3440	3440	3475	3475	3475	2917	2917	2942	2917	2917	2917	2917	2917	2917	2917	2917	2917	2942	2942	2967	2967	2967	2967	2967	2993	2967	2967	2942	2967	2967	2993	2993	2993	2993	2993	2993	2993	2993	2967	2967	2967	2942	2942	2942	2942	2917	2917	2917	2893	2869	2869	2869	2893	2893	3546	3546	3546	3510	3546	3510	3510	3510	3510	3546	3546	3546	3546	3546	3546	3546	3546	3546	3546	3546	3546	3546	3546	3546	3546	3546	3546	3510	3510	3510	3510	3510	3510	3510	3546	3546	3546	3546	3546	3546	3546	3546	3546	3546	3546	3546	3546	3546	3546	3546	3546	3546	3546	3546	3546	3546	3546	3546	3546	3546	3546	3546	3546	3546	3546	3546	3546	3546	3583	3583	3583	3583	3583	3583	3583	3583	3583	3583	3583	3546	3546	3546	3546	3546	3546	3546	3583	3583	3583	3583	3583	3583	3583	3583	3583	3583	3583	3583	3546	3546	3546	3546	3583	3583	3583	3583	3583	3583	3583	3546	3546	3546	3546	3546	3583	3583	3583	3583	3583	3583	3583	3583	3583	3583	3583	3583	3583	3583	3583	0	2237	2208	2208	2194	2194	2181	2167	2153	2140	2140	2114	2114	2101	2088	2088	2063	2063	2051	2039	2027	2015	2003	1992	1980	1969	1969	1958	1947	1947	1947	1936	1925	1915	1904	1894	1873	1863	1853	1853	1843	1833	1833	1824	1804	1804	1795	1786	1777	1777	1768	1759	1759	1750	1741	1732	1715	1715	1698	1698	1690	1690	1681	1681	1673	1657	1649	1641	1634	1626	1618	1618	1611	1611	1603	1596	1589	1589	1581	1581	1567	1567	1560	1553	1553	1539	1532	1525	1519	1512	1512	1506	1506	1506	1499	1486	1480	1480	1473	1467	1467	1467	1467	1467	1467	1467	1467	1473	1473	1480	1480	1486	1486	1492	1492	1492	1492	1492	1492	1492	1499	1499	1499	1499	1499	1499	1492	1499	1499	1499	1499	1499	1499	1499	1492	1492	1492	1492	1492	1492	1492	1492	1499	1492	1492	1492	1492	1492	1492	1492	1492	1492	1492	0	0	0	0	0	0	0	0	0	0	0	0	0	0	0	0	0	0	0	0	0	0	0	0	0	0	0	0	0	0	0	0	0	0	0	0	0	0
0	0	0	0	0	0	0	0	0	0	0	0	0	0	0	1723	1732	1732	1732	1750	1750	1759	1768	1777	1786	1795	1795	1804	1804	1814	1814	1814	1824	1833	1853	1863	1873	1873	1883	1894	1904	1915	1925	1925	1947	1947	1947	1958	1958	1969	1969	1969	1980	1992	2003	2003	2027	2027	2051	2063	2088	2101	2101	2101	2101	2114	2127	2127	2153	2153	2167	2194	2208	2208	2208	2223	2223	2237	2252	2281	2297	2312	2312	2327	2327	2343	2359	2376	2376	2392	2409	2426	2443	2460	2478	2478	2496	2514	2532	2551	2570	2589	2589	2589	2609	2629	2629	2669	2690	2711	2711	2733	2754	2777	2777	2777	2799	2799	2822	2869	2893	2917	2942	2942	2967	2967	2993	3046	3073	3073	3101	3101	3129	3129	3129	3157	3216	3246	3246	3246	3277	3309	3373	3406	3406	3406	3406	3406	3406	3406	3406	3440	3440	3440	3440	3440	3440	3440	3440	3440	3440	3440	3440	3440	3440	3440	3440	3440	3440	3440	3440	3440	3440	3406	3406	3406	3406	3406	3373	3373	3373	3406	3406	3406	3406	3406	3440	3440	3406	3406	3406	3406	3406	3406	3406	3406	3373	3406	3406	3406	3406	3373	3373	3373	3406	3406	3406	3440	3440	3440	3440	3440	3406	3406	3406	3440	3440	3440	3440	3440	3440	3440	3440	3440	3440	3406	3406	3406	3406	3406	3406	3406	3406	3406	3440	3440	3440	3440	3440	3440	3440	3440	3440	3440	3440	3440	3440	3440	3440	3440	3440	3440	3475	3475	3475	3475	3475	3475	3475	3475	3440	3440	3440	3440	3440	3440	3440	3440	3475	3475	3475	2917	2917	2942	2917	2917	2917	2893	2893	2917	2917	2917	2917	2917	2967	2967	2967	2967	2967	2967	2993	2967	2967	2942	2967	2967	2993	2993	2993	2993	2993	2993	2993	2993	2967	2967	2967	2942	2942	2942	2917	2917	2917	2917	2893	2869	2869	2869	2893	2893	3546	3546	3546	3546	3546	3510	3546	3510	3510	3510	3546	3546	3546	3546	3546	3546	3546	3546	3546	3546	3546	3546	3546	3546	3546	3546	3546	3510	3546	3546	3510	3510	3510	3546	3546	3546	3546	3546	3546	3546	3546	3546	3546	3546	3546	3546	3546	3546	3546	3546	3546	3546	3546	3546	3546	3546	3546	3546	3546	3546	3546	3546	3546	3546	3546	3546	3546	3583	3583	3583	3583	3583	3583	3583	3583	3583	3583	3583	3583	3546	3546	3546	3546	3546	3546	3546	3546	3583	3583	3583	3583	3546	3583	3546	3546	3583	3583	3583	3546	3546	3546	3546	3546	3583	3583	3583	3583	3583	3583	3546	3546	3546	3546	3546	3583	3583	3583	3583	3583	3583	3583	3583	3583	3583	3583	3583	3583	3583	3583	0	2237	2223	2208	2208	2194	2181	2167	2153	2140	2140	2114	2101	2101	2088	2088	2063	2051	2051	2039	2027	2015	2003	1992	1980	1969	1969	1958	1958	1947	1947	1936	1915	1915	1904	1894	1873	1873	1853	1853	1843	1833	1833	1824	1814	1804	1795	1786	1777	1777	1768	1759	1759	1750	1741	1732	1715	1715	1706	1698	1690	1681	1681	1681	1673	1665	1649	1649	1634	1626	1626	1618	1618	1611	1603	1596	1589	1589	1581	1581	1567	1567	1560	1553	1553	1539	1532	1525	1519	1519	1512	1506	1506	1499	1492	1486	1480	1480	1473	1467	1467	1467	1467	1467	1467	1467	1467	1473	1473	1480	1480	1486	1486	1492	1492	1492	1492	1492	1492	1492	1492	1492	1499	1492	1492	1492	1492	1499	1492	1499	1492	1492	1492	1492	1492	1492	1492	1492	1492	1492	1492	1492	1499	1492	1492	1492	1492	1492	1492	1486	1486	1492	1492	0	0	0	0	0	0	0	0	0	0	0	0	0	0	0	0	0	0	0	0	0	0	0	0	0	0	0	0	0	0	0	0	0	0	0	0	0	0
0	0	0	0	0	0	0	0	0	0	0	0	0	0	0	1723	1723	1732	1732	1732	1750	1759	1759	1768	1777	1795	1795	1804	1804	1814	1814	1824	1833	1843	1853	1853	1863	1873	1883	1894	1904	1915	1925	1925	1947	1947	1947	1958	1958	1969	1969	1969	1980	1980	2003	2015	2027	2051	2051	2063	2088	2101	2101	2101	2114	2127	2127	2140	2153	2167	2167	2194	2208	2208	2208	2223	2237	2252	2266	2281	2297	2312	2312	2327	2327	2343	2359	2376	2376	2392	2409	2426	2460	2460	2478	2478	2496	2514	2532	2551	2570	2570	2589	2609	2629	2649	2669	2690	2711	2711	2733	2733	2754	2777	2777	2777	2777	2799	2822	2845	2869	2893	2917	2942	2967	2993	2993	3046	3073	3073	3101	3101	3129	3129	3157	3186	3216	3246	3246	3246	3277	3309	3341	3406	3406	3373	3406	3406	3406	3406	3406	3406	3406	3440	3440	3440	3440	3440	3440	3440	3440	3440	3440	3440	3440	3440	3440	3440	3440	3440	3440	3440	3440	3406	3406	3406	3406	3406	3406	3373	3373	3406	3406	3406	3406	3406	3440	3440	3406	3440	3406	3406	3406	3406	3406	3406	3406	3373	3373	3373	3373	3373	3373	3406	3440	3440	3440	3440	3440	3440	3440	3440	3406	3406	3406	3440	3440	3440	3440	3440	3440	3440	3440	3440	3440	3406	3406	3440	3406	3373	3406	3373	3406	3406	3406	3440	3440	3406	3406	3406	3440	3440	3440	3440	3440	3440	3440	3440	3440	3440	3440	3440	3440	3475	3475	3475	3475	3475	3475	3475	3475	3440	3440	3440	3440	3440	3440	3440	3475	3475	3510	3510	2942	2942	2942	2917	2917	2917	2917	2917	2917	2917	2942	2942	2942	2967	2967	2967	2967	2967	2993	2967	2967	2967	2993	2993	3019	3019	3019	3019	2993	2993	2993	2993	2967	2967	2967	2967	2942	2942	2917	2917	2917	2917	2893	2869	2869	2893	2893	2893	3510	3546	3510	3510	3510	3510	3510	3510	3510	3510	3510	3510	3510	3546	3546	3546	3546	3546	3510	3546	3546	3546	3546	3546	3546	3546	3546	3546	3546	3546	3510	3510	3510	3510	3546	3546	3510	3510	3546	3510	3510	3510	3546	3546	3546	3546	3546	3546	3546	3546	3546	3546	3546	3546	3546	3546	3546	3546	3546	3546	3546	3546	3546	3546	3546	3546	3546	3583	3583	3583	3583	3583	3583	3583	3546	3546	3546	3583	3583	3546	3546	3546	3546	3546	3546	3546	3583	3583	3583	3583	3583	3583	3583	3546	3546	3546	3546	3546	3546	3546	3546	3546	3583	3583	3583	3583	3583	3583	3583	3583	3546	3546	3546	3546	3583	3583	3583	3583	3583	3583	3583	3583	3583	3583	3583	3583	3583	3583	0	0	2237	2208	2208	2208	2194	2181	2167	2153	2140	2140	2114	2101	2101	2088	2076	2063	2051	2051	2039	2027	2015	2003	1992	1980	1980	1969	1958	1958	1947	1947	1936	1925	1915	1904	1883	1873	1873	1863	1853	1843	1833	1833	1824	1814	1804	1795	1786	1777	1768	1768	1759	1750	1750	1741	1732	1715	1715	1706	1698	1690	1681	1681	1681	1673	1665	1649	1649	1641	1626	1626	1618	1618	1611	1603	1596	1589	1589	1581	1574	1567	1567	1560	1553	1553	1546	1532	1525	1519	1519	1512	1506	1506	1499	1492	1486	1480	1480	1473	1467	1467	1467	1467	1467	1467	1467	1467	1467	1473	1480	1480	1486	1486	1492	1486	1486	1492	1492	1492	1492	1492	1492	1499	1492	1499	1499	1492	1499	1499	1499	1499	1492	1492	1492	1492	1492	1492	1492	1492	1492	1492	1492	1492	1492	1492	1492	1492	1492	1492	1486	1486	1492	1492	0	0	0	0	0	0	0	0	0	0	0	0	0	0	0	0	0	0	0	0	0	0	0	0	0	0	0	0	0	0	0	0	0	0	0	0	0	0
0	0	0	0	0	0	0	0	0	0	0	0	0	0	0	1723	1723	1732	1732	1732	1732	1759	1759	1768	1777	1786	1795	1795	1804	1804	1814	1824	1833	1843	1853	1863	1863	1863	1883	1883	1904	1915	1925	1925	1936	1947	1947	1958	1958	1969	1969	1980	1992	2003	2003	2015	2027	2051	2051	2063	2088	2101	2101	2101	2101	2127	2127	2140	2167	2167	2181	2194	2208	2208	2208	2223	2237	2252	2266	2281	2297	2312	2312	2327	2327	2343	2359	2376	2392	2392	2409	2426	2460	2478	2496	2496	2496	2514	2514	2551	2570	2570	2589	2609	2629	2649	2669	2690	2690	2690	2711	2733	2754	2777	2777	2777	2777	2799	2822	2845	2893	2893	2917	2942	2967	2993	2993	3046	3073	3073	3101	3101	3129	3129	3157	3186	3216	3246	3246	3246	3246	3309	3341	3373	3373	3406	3406	3406	3406	3406	3406	3406	3440	3440	3440	3440	3440	3440	3440	3475	3440	3440	3440	3440	3440	3440	3440	3440	3440	3440	3440	3440	3440	3440	3440	3406	3406	3406	3406	3373	3373	3373	3406	3406	3406	3406	3440	3440	3440	3440	3440	3406	3406	3406	3406	3406	3373	3373	3373	3373	3373	3373	3406	3440	3440	3440	3440	3440	3440	3440	3440	3440	3440	3406	3406	3440	3440	3440	3440	3440	3440	3440	3440	3440	3440	3406	3406	3406	3406	3406	3406	3406	3406	3406	3406	3440	3440	3406	3406	3406	3440	3440	3440	3440	3440	3440	3440	3440	3440	3440	3440	3440	3475	3475	3475	3475	3475	3475	3475	3475	3440	3440	3440	3440	3440	3440	3440	3440	3475	3475	3510	3510	2942	2942	2942	2942	2917	2917	2917	2917	2917	2917	2917	2917	2942	2967	2967	2967	2967	2967	2993	2967	2967	2967	2993	2993	3019	2993	2993	2993	2993	2993	2993	2993	2993	2967	2967	2967	2942	2942	2917	2917	2893	2893	2893	2869	2869	2869	2869	3510	3510	3510	3510	3510	3510	3510	3510	3510	3510	3510	3510	3510	3510	3546	3546	3546	3510	3546	3546	3546	3546	3546	3546	3546	3546	3546	3546	3546	3510	3510	3510	3475	3510	3510	3510	3546	3510	3546	3546	3510	3510	3510	3510	3546	3546	3546	3546	3546	3546	3546	3546	3546	3546	3546	3546	3546	3546	3546	3546	3546	3546	3546	3546	3546	3546	3546	3583	3583	3583	3583	3583	3583	3583	3583	3546	3546	3546	3546	3546	3546	3546	3546	3546	3546	3546	3546	3546	3583	3546	3546	3546	3546	3546	3546	3546	3546	3583	3583	3546	3546	3583	3583	3583	3583	3583	3583	3583	3583	3583	3546	3546	3546	3546	3546	3583	3583	3583	3583	3583	3583	3583	3583	3583	3583	3583	3583	3583	3583	0	0	2237	2237	2208	2208	2194	2181	2167	2153	2140	2140	2114	2101	2101	2088	2076	2063	2051	2051	2039	2027	2015	2003	1992	1992	1980	1969	1958	1958	1947	1936	1925	1915	1915	1904	1894	1883	1873	1863	1853	1843	1833	1824	1814	1814	1804	1795	1777	1777	1768	1759	1759	1750	1750	1741	1732	1723	1715	1706	1698	1690	1681	1681	1681	1673	1665	1649	1649	1634	1626	1626	1618	1611	1603	1603	1596	1589	1589	1581	1574	1567	1567	1560	1553	1553	1539	1532	1525	1519	1519	1512	1512	1506	1499	1492	1486	1480	1480	1473	1467	1467	1467	1461	1461	1461	1461	1461	1467	1473	1473	1480	1486	1486	1492	1486	1486	1486	1492	1492	1492	1492	1492	1499	1492	1499	1492	1492	1492	1492	1499	1499	1492	1492	1492	1492	1492	1492	1492	1492	1492	1492	1492	1492	1492	1492	1492	1492	1492	1492	1486	1486	1492	1492	0	0	0	0	0	0	0	0	0	0	0	0	0	0	0	0	0	0	0	0	0	0	0	0	0	0	0	0	0	0	0	0	0	0	0	0	0	0
0	0	0	0	0	0	0	0	0	0	0	0	0	0	0	1723	1723	1732	1732	1732	1732	1750	1759	1768	1777	1786	1795	1795	1795	1804	1814	1824	1833	1843	1853	1853	1853	1863	1873	1883	1894	1915	1925	1925	1936	1936	1936	1958	1958	1969	1969	1980	2003	2003	2015	2015	2027	2039	2051	2063	2076	2088	2101	2101	2101	2127	2140	2153	2167	2167	2181	2194	2208	2208	2208	2223	2237	2252	2266	2281	2297	2312	2312	2327	2327	2359	2376	2392	2392	2392	2409	2426	2460	2460	2478	2478	2496	2514	2532	2551	2551	2570	2589	2609	2629	2649	2669	2669	2690	2690	2711	2711	2733	2754	2777	2777	2777	2799	2822	2845	2869	2893	2917	2942	2942	2993	2993	3046	3073	3073	3101	3101	3129	3157	3186	3186	3216	3246	3246	3246	3246	3309	3341	3373	3373	3406	3440	3406	3406	3406	3406	3406	3440	3440	3440	3440	3440	3440	3475	3475	3440	3440	3440	3440	3440	3440	3440	3440	3440	3440	3440	3440	3440	3440	3440	3406	3406	3406	3406	3406	3406	3406	3406	3406	3440	3406	3440	3440	3440	3440	3440	3406	3406	3406	3406	3406	3373	3373	3373	3406	3373	3406	3406	3440	3440	3440	3440	3440	3440	3440	3440	3440	3440	3406	3406	3440	3440	3440	3440	3440	3440	3440	3440	3440	3440	3440	3406	3406	3406	3406	3406	3406	3440	3440	3440	3440	3440	3440	3440	3406	3406	3440	3440	3440	3440	3440	3440	3440	3440	3440	3440	3440	3475	3475	3475	3475	3475	3475	3475	3475	3475	3440	3440	3440	3440	3440	3440	3440	3475	3475	3475	3510	2942	2942	2942	2917	2917	2917	2893	2893	2917	2917	2917	2942	2942	2967	2967	2967	2967	2967	2967	2967	2967	2967	2967	2967	2993	3019	3019	2993	2993	2993	2993	2993	2993	2967	2967	2967	2942	2942	2917	2917	2893	2893	2869	2869	2869	2869	3440	3475	3475	3475	3475	3475	3510	3510	3510	3510	3510	3510	3510	3510	3510	3510	3510	3510	3510	3510	3510	3510	3510	3546	3546	3546	3546	3546	3546	3546	3546	3510	3510	3510	3510	3510	3510	3510	3510	3510	3510	3510	3510	3510	3510	3510	3510	3546	3546	3546	3546	3546	3546	3546	3546	3546	3546	3546	3546	3546	3546	3546	3546	3546	3546	3546	3546	3546	3583	3583	3583	3583	3583	3583	3583	3583	3546	3546	3546	3546	3546	3546	3546	3546	3546	3546	3546	3546	3546	3546	3546	3546	3583	3546	3546	3546	3546	3546	3583	3583	3546	3546	3546	3583	3583	3583	3583	3583	3583	3583	3583	3583	3546	3546	3546	3546	3583	3583	3583	3583	3583	3583	3583	3583	3583	3583	3546	3583	3583	3583	0	0	2237	2223	2208	2208	2194	2181	2167	2153	2153	2140	2114	2101	2101	2088	2076	2063	2051	2051	2039	2039	2015	2003	2003	1992	1980	1969	1958	1958	1947	1936	1925	1915	1904	1904	1894	1883	1873	1853	1853	1843	1833	1824	1824	1814	1804	1795	1777	1777	1768	1759	1759	1750	1750	1741	1732	1723	1715	1706	1698	1690	1690	1681	1681	1673	1665	1657	1649	1641	1626	1626	1618	1618	1611	1603	1596	1589	1589	1589	1581	1574	1567	1560	1546	1546	1539	1532	1525	1519	1519	1512	1512	1506	1499	1492	1486	1480	1480	1473	1467	1467	1467	1461	1461	1461	1461	1461	1461	1467	1467	1473	1480	1486	1486	1486	1486	1486	1492	1492	1492	1492	1492	1499	1492	1499	1499	1492	1499	1499	1499	1499	1492	1492	1492	1492	1492	1492	1492	1486	1492	1492	1492	1492	1492	1492	1486	1486	1492	1492	1486	1486	1492	1492	0	0	0	0	0	0	0	0	0	0	0	0	0	0	0	0	0	0	0	0	0	0	0	0	0	0	0	0	0	0	0	0	0	0	0	0	0	0
0	0	0	0	0	0	0	0	0	0	0	0	0	0	0	1723	1723	1732	1732	1732	1732	1741	1741	1768	1786	1786	1795	1795	1795	1804	1814	1824	1833	1843	1843	1853	1853	1853	1873	1883	1894	1915	1915	1925	1925	1936	1947	1958	1958	1969	1969	1980	2003	2003	2015	2015	2027	2039	2051	2063	2076	2088	2088	2101	2101	2127	2140	2153	2153	2167	2181	2194	2208	2208	2223	2223	2237	2252	2266	2281	2297	2297	2297	2327	2343	2343	2376	2376	2376	2376	2392	2426	2443	2460	2478	2478	2496	2496	2514	2532	2551	2570	2589	2629	2629	2649	2669	2690	2690	2690	2711	2711	2733	2754	2777	2777	2777	2799	2822	2869	2893	2893	2917	2942	2967	2993	2993	3019	3046	3073	3101	3101	3129	3157	3186	3186	3216	3216	3246	3246	3246	3341	3373	3373	3373	3406	3406	3406	3406	3406	3406	3406	3406	3440	3440	3440	3440	3475	3475	3475	3475	3440	3440	3440	3440	3440	3440	3440	3440	3440	3440	3440	3440	3440	3440	3440	3440	3440	3406	3406	3406	3406	3406	3406	3440	3440	3406	3406	3440	3440	3440	3406	3406	3406	3406	3406	3373	3373	3373	3373	3373	3373	3406	3440	3440	3440	3440	3440	3440	3440	3440	3440	3440	3406	3406	3440	3440	3440	3440	3440	3440	3440	3440	3440	3440	3440	3406	3406	3440	3406	3440	3440	3440	3406	3440	3440	3440	3440	3406	3406	3440	3440	3440	3440	3440	3440	3440	3440	3440	3475	3440	3475	3475	3475	3475	3475	3475	3475	3475	3440	3440	3440	3440	3440	3440	3440	3440	3440	3440	3440	3475	3475	2942	2942	2942	2917	2917	2893	2893	2893	2893	2917	2917	2942	2942	2967	2967	2967	2967	2967	2967	2967	2967	2967	2967	2993	2993	2993	3019	2993	2993	2993	2993	2993	2993	2967	2967	2967	2942	2942	2917	2917	2893	2893	2869	2869	2869	2869	3440	3475	3475	3475	3475	3475	3475	3475	3510	3510	3510	3475	3510	3510	3510	3510	3510	3510	3510	3510	3510	3510	3510	3510	3510	3510	3510	3546	3546	3546	3546	3546	3546	3510	3510	3510	3510	3510	3510	3510	3510	3475	3475	3475	3510	3510	3510	3510	3546	3546	3546	3546	3546	3546	3546	3546	3546	3546	3546	3546	3546	3546	3546	3546	3546	3546	3546	3546	3583	3583	3583	3583	3583	3583	3583	3546	3546	3546	3546	3546	3546	3546	3546	3546	3546	3546	3546	3546	3546	3583	3546	3546	3583	3583	3546	3546	3546	3546	3583	3583	3546	3546	3583	3583	3583	3583	3583	3583	3583	3583	3583	3583	3583	3583	3546	3546	3583	3583	3583	3583	3583	3583	3583	3583	3583	3583	3583	3583	3583	3583	0	0	2237	2223	2208	2208	2194	2181	2167	2153	2153	2140	2127	2101	2101	2088	2076	2063	2051	2039	2039	2039	2015	2003	1992	1992	1980	1980	1958	1958	1947	1925	1915	1915	1904	1894	1883	1883	1873	1863	1853	1843	1833	1833	1824	1814	1804	1795	1777	1777	1768	1759	1759	1750	1750	1741	1732	1723	1715	1706	1698	1690	1690	1681	1681	1673	1673	1665	1649	1649	1626	1626	1618	1618	1611	1611	1596	1596	1589	1589	1581	1574	1567	1560	1553	1546	1539	1532	1525	1525	1519	1512	1512	1506	1499	1492	1486	1480	1480	1473	1473	1467	1467	1461	1461	1461	1461	1461	1461	1461	1467	1467	1480	1486	1486	1486	1486	1486	1492	1492	1492	1492	1492	1499	1499	1499	1499	1499	1499	1499	1499	1499	1499	1492	1492	1492	1492	1486	1486	1486	1486	1486	1486	1486	1492	1486	1486	1492	1492	1492	1492	1486	1486	1486	0	0	0	0	0	0	0	0	0	0	0	0	0	0	0	0	0	0	0	0	0	0	0	0	0	0	0	0	0	0	0	0	0	0	0	0	0	0
0	0	0	0	0	0	0	0	0	0	0	0	0	0	0	1723	1732	1732	1741	1732	1759	1759	1777	1786	1786	1786	1795	1795	1795	1804	1814	1824	1833	1843	1843	1853	1853	1853	1853	1883	1904	1915	1915	1925	1925	1936	1947	1947	1958	1969	1980	1992	2003	2003	2015	2015	2027	2039	2051	2063	2076	2088	2088	2101	2101	2114	2127	2153	2153	2167	2181	2194	2208	2208	2223	2223	2237	2252	2266	2281	2297	2297	2312	2327	2327	2343	2359	2359	2376	2392	2392	2426	2443	2460	2478	2496	2496	2496	2514	2551	2570	2570	2589	2609	2629	2649	2669	2690	2690	2690	2711	2711	2733	2754	2754	2777	2777	2799	2822	2845	2869	2893	2917	2942	2967	2967	2993	3019	3046	3073	3101	3101	3129	3157	3157	3186	3216	3246	3246	3246	3309	3341	3341	3373	3373	3406	3440	3406	3440	3440	3406	3440	3406	3406	3440	3440	3440	3475	3475	3475	3475	3440	3440	3440	3440	3440	3440	3440	3440	3440	3440	3440	3440	3440	3440	3440	3406	3406	3406	3406	3406	3406	3406	3406	3406	3440	3406	3440	3440	3440	3440	3440	3406	3440	3406	3406	3373	3373	3373	3373	3373	3373	3406	3440	3440	3440	3440	3440	3440	3440	3440	3406	3440	3406	3406	3440	3440	3440	3440	3440	3440	3440	3440	3440	3440	3440	3406	3406	3406	3406	3406	3406	3406	3406	3406	3440	3406	3440	3406	3406	3406	3406	3440	3440	3440	3406	3440	3440	3440	3475	3475	3475	3475	3475	3475	3475	3475	3475	3440	3440	3440	3440	3440	3440	3440	3440	3440	3440	3440	3440	3475	3475	2917	2917	2942	2917	2917	2917	2893	2893	2893	2917	2917	2917	2942	2942	2967	2967	2967	2967	2967	2967	2967	2967	2993	2993	2993	3019	3019	3019	2993	2993	2993	2993	2993	2967	2967	2967	2942	2942	2917	2917	2893	2893	2893	2869	2869	2869	3440	3475	3475	3475	3475	3475	3475	3475	3475	3510	3510	3510	3510	3510	3510	3510	3510	3510	3510	3475	3475	3475	3475	3510	3510	3510	3546	3546	3546	3546	3546	3546	3546	3510	3510	3510	3510	3510	3510	3475	3475	3475	3475	3475	3475	3510	3510	3510	3546	3546	3546	3546	3546	3546	3546	3546	3546	3546	3546	3546	3546	3546	3510	3546	3546	3546	3546	3546	3546	3583	3583	3583	3583	3583	3583	3583	3546	3546	3546	3546	3546	3546	3583	3583	3546	3546	3546	3546	3583	3583	3546	3546	3583	3583	3546	3546	3546	3546	3546	3546	3546	3546	3546	3546	3583	3583	3583	3583	3583	3583	3583	3583	3583	3583	3583	3583	3583	3583	3583	3583	3583	3583	3583	3583	3583	3583	3546	2443	2443	2443	2443	2443	2237	2223	2208	2208	2194	2181	2167	2153	2153	2140	2127	2114	2101	2088	2076	2063	2051	2051	2039	2039	2015	2003	2003	1992	1980	1969	1958	1958	1947	1925	1915	1915	1904	1894	1883	1883	1873	1853	1853	1843	1833	1833	1824	1814	1804	1795	1777	1777	1768	1759	1759	1750	1750	1741	1732	1723	1715	1715	1698	1690	1690	1681	1681	1673	1673	1665	1649	1641	1634	1626	1626	1618	1618	1611	1603	1596	1589	1581	1581	1574	1567	1560	1553	1553	1546	1532	1532	1525	1519	1512	1512	1506	1499	1492	1486	1480	1480	1473	1467	1467	1461	1461	1461	1461	1461	1461	1461	1461	1467	1467	1480	1480	1486	1486	1486	1486	1492	1492	1492	1492	1492	1499	1499	1499	1499	1499	1499	1499	1499	1492	1486	1492	1492	1486	1492	1486	1492	1486	1492	1492	1492	1492	1492	1492	1486	1492	1486	1486	1486	1486	1486	1486	0	0	0	0	0	0	0	0	0	0	0	0	0	0	0	0	0	0	0	0	0	0	0	0	0	0	0	0	0	0	0	0	0	0	0	0	0	0
0	0	0	0	0	0	0	0	0	0	0	0	0	0	0	1723	1732	1732	1732	1732	1759	1768	1777	1786	1795	1786	1795	1795	1795	1804	1824	1824	1833	1833	1843	1843	1853	1863	1873	1883	1894	1915	1915	1925	1925	1936	1947	1947	1958	1969	1980	1992	2003	2003	2015	2015	2027	2039	2051	2063	2076	2088	2088	2101	2101	2114	2127	2153	2153	2167	2181	2194	2208	2208	2223	2223	2237	2252	2266	2281	2297	2297	2297	2327	2343	2343	2359	2359	2376	2392	2392	2426	2443	2460	2478	2478	2478	2496	2514	2551	2551	2570	2589	2609	2629	2649	2669	2690	2690	2690	2711	2711	2733	2754	2754	2777	2777	2799	2799	2845	2845	2893	2942	2942	2967	2967	2993	3019	3073	3073	3073	3101	3129	3157	3186	3186	3216	3246	3246	3277	3309	3341	3373	3406	3373	3440	3440	3406	3440	3440	3406	3440	3406	3406	3440	3440	3440	3475	3475	3475	3475	3440	3440	3440	3440	3440	3440	3440	3440	3440	3440	3440	3440	3440	3440	3440	3406	3406	3406	3406	3406	3406	3406	3406	3440	3440	3406	3440	3440	3440	3440	3406	3406	3406	3406	3406	3373	3373	3373	3373	3373	3406	3406	3440	3440	3440	3440	3440	3440	3440	3440	3406	3406	3406	3406	3440	3440	3440	3440	3440	3440	3440	3440	3440	3440	3406	3406	3406	3406	3406	3406	3406	3406	3440	3440	3440	3440	3440	3440	3406	3406	3406	3440	3406	3406	3406	3406	3440	3440	3475	3475	3475	3475	3475	3475	3475	3475	3440	3440	3440	3440	3440	3440	3440	3440	3440	3440	3440	3440	3440	3475	3510	2917	2917	2942	2917	2917	2893	2893	2893	2893	2893	2893	2917	2942	2942	2967	2967	2967	2967	2967	2967	2967	2967	2993	2993	3019	3019	3019	3019	2993	2993	2993	2993	2993	2967	2967	2967	2967	2942	2917	2917	2893	2893	2869	2869	2869	2869	3440	3475	3475	3475	3475	3475	3475	3475	3475	3510	3510	3510	3510	3475	3510	3510	3475	3475	3475	3475	3475	3475	3475	3475	3475	3510	3510	3510	3546	3510	3510	3510	3510	3510	3510	3510	3475	3475	3475	3475	3475	3475	3475	3475	3475	3510	3510	3546	3546	3546	3546	3546	3546	3546	3546	3546	3546	3546	3546	3546	3546	3546	3546	3546	3546	3546	3546	3546	3546	3583	3546	3546	3583	3583	3583	3583	3546	3546	3546	3546	3546	3546	3583	3583	3546	3546	3546	3546	3546	3583	3546	3546	3583	3583	3546	3546	3546	3546	3546	3546	3546	3546	3546	3583	3546	3583	3583	3583	3583	3583	3583	3583	3583	3583	3583	3583	3583	3583	3583	3583	3583	3583	3583	3583	3583	3583	3546	2460	2443	2409	2409	2443	2252	2252	2223	2208	2194	2181	2167	2153	2153	2140	2127	2114	2101	2088	2076	2063	2051	2051	2039	2039	2027	2003	2003	1992	1980	1969	1958	1958	1947	1925	1915	1915	1904	1894	1894	1883	1873	1853	1853	1843	1833	1833	1824	1814	1804	1795	1777	1768	1768	1759	1759	1750	1750	1741	1732	1723	1723	1715	1706	1698	1690	1681	1681	1673	1665	1665	1657	1641	1634	1626	1626	1618	1618	1611	1603	1596	1589	1581	1574	1567	1567	1560	1553	1553	1546	1539	1532	1525	1519	1512	1512	1506	1499	1492	1486	1480	1473	1473	1467	1467	1461	1461	1461	1461	1461	1461	1461	1461	1467	1467	1480	1486	1486	1486	1486	1486	1492	1492	1492	1492	1492	1499	1499	1499	1499	1499	1499	1499	1499	1492	1492	1486	1486	1486	1492	1486	1492	1486	1492	1486	1486	1486	1486	1486	1486	1492	1492	1492	1492	1486	1486	1486	0	0	0	0	0	0	0	0	0	0	0	0	0	0	0	0	0	0	0	0	0	0	0	0	0	0	0	0	0	0	0	0	0	0	0	0	0	0
0	0	0	0	0	0	0	0	0	0	0	0	0	0	0	1723	1723	1732	1732	1741	1750	1768	1777	1786	1795	1795	1795	1795	1804	1814	1824	1824	1833	1843	1853	1853	1863	1873	1883	1894	1894	1915	1915	1915	1925	1936	1947	1947	1958	1969	1980	1992	2003	2003	2015	2015	2027	2039	2039	2063	2076	2088	2088	2101	2101	2114	2127	2153	2167	2167	2181	2194	2194	2208	2208	2223	2223	2252	2266	2266	2281	2297	2312	2327	2343	2359	2376	2376	2392	2392	2392	2409	2443	2460	2460	2478	2478	2496	2514	2551	2570	2570	2589	2609	2629	2649	2649	2669	2690	2690	2711	2711	2733	2754	2777	2777	2777	2777	2799	2822	2845	2893	2942	2967	2967	2993	2993	3019	3073	3073	3101	3101	3129	3157	3186	3186	3216	3246	3246	3277	3309	3341	3341	3373	3373	3406	3440	3406	3406	3406	3406	3440	3406	3406	3440	3440	3440	3440	3475	3475	3475	3440	3440	3440	3440	3440	3440	3440	3440	3440	3406	3406	3406	3406	3406	3406	3406	3406	3406	3406	3406	3406	3406	3406	3406	3406	3406	3440	3440	3440	3440	3440	3406	3406	3406	3406	3373	3373	3373	3373	3373	3406	3406	3440	3440	3440	3440	3440	3440	3406	3440	3406	3406	3406	3406	3440	3440	3440	3440	3440	3440	3440	3440	3440	3440	3440	3440	3406	3440	3440	3406	3406	3406	3406	3406	3406	3440	3440	3406	3440	3406	3406	3406	3406	3406	3406	3406	3406	3406	3440	3440	3440	3475	3440	3475	3475	3440	3440	3440	3440	3440	3440	3440	3440	3440	3440	3440	3440	3440	3440	3440	3475	2893	2893	2917	2917	2917	2893	2893	2893	2893	2917	2893	2917	2942	2942	2967	2967	2967	2993	2967	2967	2967	2993	3019	2993	3019	2993	3019	3019	2993	2993	2993	2993	2993	2967	2967	2967	2967	2942	2917	2917	2893	2893	2869	2869	2869	2869	3475	3475	3440	3440	3475	3475	3475	3475	3475	3475	3510	3510	3510	3510	3510	3510	3510	3510	3510	3475	3475	3475	3475	3475	3475	3475	3510	3510	3510	3546	3510	3510	3510	3510	3510	3510	3475	3475	3475	3475	3475	3440	3440	3440	3475	3510	3510	3546	3546	3546	3546	3546	3546	3546	3546	3546	3546	3546	3546	3546	3546	3546	3546	3546	3546	3546	3546	3546	3546	3546	3546	3546	3546	3583	3583	3583	3583	3583	3546	3546	3546	3546	3583	3583	3546	3546	3546	3546	3546	3583	3546	3546	3583	3583	3583	3546	3546	3546	3546	3546	3546	3546	3546	3583	3546	3583	3583	3583	3583	3583	3583	3583	3583	3583	3583	3583	3583	3583	3583	3583	3583	3583	3583	3546	3546	3546	2460	2460	2460	2392	2376	2359	2312	2266	2223	2208	2194	2181	2167	2153	2153	2140	2127	2114	2101	2088	2076	2063	2051	2039	2039	2039	2015	2003	1992	1980	1980	1969	1958	1958	1947	1925	1915	1915	1904	1894	1894	1883	1873	1873	1853	1843	1833	1824	1814	1814	1795	1795	1786	1768	1759	1759	1750	1750	1750	1741	1732	1723	1723	1715	1706	1698	1690	1681	1681	1673	1665	1657	1641	1634	1626	1626	1626	1618	1611	1611	1603	1596	1581	1581	1567	1567	1567	1560	1553	1546	1546	1539	1532	1519	1519	1512	1506	1506	1499	1492	1486	1486	1480	1473	1467	1467	1461	1461	1461	1461	1461	1461	1461	1461	1467	1467	1480	1480	1486	1486	1486	1486	1492	1492	1492	1492	1492	1499	1499	1499	1499	1499	1499	1499	1492	1492	1492	1486	1486	1486	1492	1486	1486	1486	1492	1486	1486	1486	1486	1486	1486	1492	1492	1492	1492	1486	1486	1486	0	0	0	0	0	0	0	0	0	0	0	0	0	0	0	0	0	0	0	0	0	0	0	0	0	0	0	0	0	0	0	0	0	0	0	0	0	0
0	0	0	0	0	0	0	0	0	0	0	0	0	0	0	1723	1723	1723	1732	1732	1732	1768	1777	1786	1795	1795	1795	1795	1804	1814	1824	1824	1833	1843	1853	1863	1863	1873	1883	1883	1894	1904	1915	1925	1925	1936	1936	1947	1958	1969	1980	1992	2003	2003	2015	2015	2027	2027	2039	2063	2076	2088	2101	2101	2101	2114	2127	2153	2153	2167	2181	2194	2194	2194	2208	2208	2223	2237	2266	2281	2281	2297	2312	2312	2327	2359	2376	2376	2392	2392	2392	2409	2426	2443	2460	2460	2460	2478	2532	2551	2570	2570	2589	2609	2609	2629	2649	2669	2669	2669	2690	2711	2733	2777	2777	2777	2799	2799	2799	2822	2845	2917	2942	2942	2993	2993	3019	3019	3073	3073	3101	3101	3129	3129	3157	3186	3216	3216	3246	3277	3309	3341	3373	3406	3406	3440	3440	3406	3406	3406	3406	3440	3406	3406	3440	3440	3440	3475	3440	3475	3475	3440	3440	3440	3440	3440	3440	3440	3406	3406	3406	3406	3406	3406	3406	3406	3406	3406	3406	3406	3406	3341	3406	3406	3440	3406	3406	3406	3440	3406	3440	3406	3406	3406	3406	3373	3373	3373	3373	3373	3373	3406	3406	3406	3440	3406	3406	3440	3440	3406	3406	3406	3406	3406	3406	3406	3406	3406	3406	3406	3406	3440	3440	3406	3440	3440	3440	3406	3440	3440	3440	3406	3406	3406	3406	3406	3440	3440	3406	3440	3406	3406	3406	3406	3406	3406	3406	3406	3440	3440	3440	3440	3440	3440	3475	3440	3440	3440	3440	3440	3440	3440	3440	3440	3440	3440	3440	3440	3440	3406	3406	3406	3475	2917	2917	2917	2917	2893	2893	2893	2893	2917	2917	2942	2942	2967	2967	2993	2967	2993	2967	2967	2967	2967	2993	2993	3019	3019	3019	3019	2993	2993	2993	2993	2967	2967	2967	2967	2942	2942	2917	2917	2893	2893	2869	2869	2869	3475	3440	3440	3440	3440	3440	3440	3440	3440	3475	3510	3510	3510	3546	3510	3510	3510	3510	3510	3510	3510	3475	3475	3475	3475	3475	3475	3510	3510	3510	3510	3510	3510	3510	3510	3510	3510	3510	3475	3475	3475	3475	3440	3440	3440	3475	3510	3510	3510	3546	3546	3546	3546	3546	3546	3546	3546	3546	3546	3546	3546	3546	3546	3546	3546	3546	3583	3546	3546	3546	3546	3546	3546	3546	3583	3583	3583	3583	3583	3583	3546	3546	3546	3583	3583	3546	3583	3583	3546	3546	3583	3546	3546	3583	3583	3583	3583	3546	3583	3546	3546	3546	3546	3546	3583	3546	3546	3583	3583	3583	3583	3583	3583	3583	3583	3583	3583	3583	3583	3583	3583	3583	3546	3546	3546	3546	3510	3510	2460	2443	2392	2376	2376	2359	2359	2266	2208	2194	2181	2167	2153	2153	2140	2127	2127	2101	2088	2076	2063	2051	2039	2039	2039	2027	2003	1992	1980	1980	1969	1958	1958	1947	1925	1915	1915	1904	1904	1894	1883	1873	1873	1853	1833	1833	1824	1814	1804	1795	1795	1786	1768	1759	1759	1750	1750	1750	1741	1732	1723	1723	1723	1706	1698	1690	1681	1681	1673	1673	1665	1641	1634	1626	1626	1626	1618	1611	1611	1603	1596	1581	1574	1567	1567	1567	1560	1553	1546	1539	1539	1532	1525	1519	1512	1506	1499	1499	1492	1486	1486	1480	1473	1467	1467	1461	1461	1455	1461	1461	1461	1461	1461	1467	1467	1480	1480	1486	1486	1486	1486	1486	1486	1492	1492	1492	1499	1499	1499	1499	1499	1492	1492	1492	1486	1486	1486	1486	1486	1486	1486	1486	1486	1486	1486	1486	1486	1486	1486	1486	1486	1486	1492	1492	1492	1486	1486	0	0	0	0	0	0	0	0	0	0	0	0	0	0	0	0	0	0	0	0	0	0	0	0	0	0	0	0	0	0	0	0	0	0	0	0	0	0
0	0	0	0	0	0	0	0	0	0	0	0	0	0	0	1723	1723	1723	1732	1732	1732	1732	1777	1786	1786	1795	1804	1804	1814	1814	1824	1833	1833	1843	1853	1863	1873	1873	1883	1883	1894	1904	1915	1915	1925	1936	1936	1936	1947	1958	1980	1992	2003	2003	2015	2015	2027	2027	2039	2051	2076	2088	2088	2101	2101	2114	2127	2127	2140	2153	2167	2181	2194	2208	2208	2208	2223	2237	2266	2281	2297	2297	2312	2312	2327	2343	2376	2376	2392	2392	2392	2409	2426	2443	2460	2460	2460	2478	2496	2514	2551	2570	2589	2609	2609	2629	2629	2649	2649	2669	2690	2690	2733	2754	2754	2777	2799	2799	2799	2799	2845	2893	2917	2967	2993	2993	3019	3019	3046	3073	3073	3101	3101	3129	3157	3186	3216	3246	3277	3309	3341	3373	3373	3406	3406	3440	3406	3406	3406	3406	3406	3440	3406	3406	3440	3440	3440	3440	3440	3440	3440	3440	3440	3440	3440	3440	3440	3440	3406	3406	3406	3406	3406	3373	3406	3406	3406	3406	3406	3406	3406	3406	3406	3406	3406	3406	3406	3406	3406	3406	3440	3440	3406	3406	3406	3406	3373	3406	3373	3373	3373	3406	3406	3406	3406	3406	3406	3406	3440	3406	3406	3406	3406	3406	3406	3406	3406	3406	3406	3440	3440	3440	3440	3440	3440	3440	3440	3406	3440	3440	3440	3406	3406	3406	3440	3440	3440	3440	3406	3406	3406	3440	3440	3406	3440	3440	3440	3440	3440	3475	3440	3440	3440	3440	3440	3440	3440	3440	3440	3440	3440	3440	3440	3440	3440	3440	3440	3440	3440	3440	3440	3475	2893	2893	2917	2893	2917	2893	2893	2893	2893	2917	2917	2917	2942	2942	2967	2967	2967	2993	2967	2967	2967	2967	2993	2993	2993	3019	3019	3019	2993	2993	2993	2993	2967	2967	2967	2967	2942	2917	2917	2893	2893	2893	2869	2869	3440	3440	3440	3440	3406	3440	3440	3440	3475	3440	3475	3510	3510	3510	3510	3510	3510	3510	3510	3510	3510	3510	3475	3475	3475	3475	3475	3510	3510	3510	3510	3546	3546	3546	3546	3510	3510	3510	3510	3475	3475	3475	3475	3475	3440	3475	3475	3510	3510	3546	3546	3546	3546	3546	3546	3546	3546	3546	3546	3546	3546	3546	3546	3546	3546	3546	3546	3546	3546	3546	3546	3546	3546	3546	3546	3583	3583	3583	3583	3546	3546	3546	3546	3546	3583	3583	3546	3546	3546	3546	3546	3583	3546	3546	3583	3583	3546	3546	3546	3546	3546	3546	3546	3546	3546	3546	3546	3546	3583	3583	3583	3583	3546	3583	3583	3583	3583	3583	3583	3583	3583	3583	3546	3546	3546	3546	3546	3510	3510	2460	2409	2392	2376	2376	2359	2359	2208	2208	2194	2181	2167	2153	2140	2140	2140	2127	2114	2088	2063	2063	2051	2039	2039	2039	2027	2003	1992	1980	1980	1969	1958	1958	1947	1925	1915	1915	1904	1894	1894	1883	1873	1873	1843	1833	1833	1824	1814	1814	1804	1795	1786	1777	1768	1759	1750	1750	1750	1741	1732	1723	1723	1723	1706	1698	1690	1681	1681	1673	1665	1665	1641	1641	1626	1626	1626	1618	1611	1611	1603	1596	1581	1574	1567	1567	1567	1560	1553	1546	1539	1539	1532	1525	1519	1512	1506	1499	1499	1492	1486	1486	1480	1473	1467	1467	1461	1461	1455	1461	1461	1461	1461	1461	1461	1467	1467	1480	1480	1486	1486	1486	1486	1486	1492	1486	1492	1492	1499	1499	1492	1499	1492	1492	1492	1486	1486	1486	1486	1486	1486	1486	1486	1486	1492	1486	1486	1486	1486	1486	1486	1486	1486	1486	1486	1486	1486	1486	1486	0	0	0	0	0	0	0	0	0	0	0	0	0	0	0	0	0	0	0	0	0	0	0	0	0	0	0	0	0	0	0	0	0	0	0	0	0
0	0	0	0	0	0	0	0	0	0	0	0	0	0	0	1723	1723	1723	1732	1732	1732	1732	1759	1768	1795	1795	1804	1804	1804	1814	1824	1824	1833	1843	1853	1863	1873	1883	1883	1883	1894	1904	1904	1915	1925	1936	1936	1936	1958	1969	1980	1992	2003	2003	2015	2015	2027	2039	2039	2051	2076	2088	2101	2101	2101	2114	2114	2114	2140	2153	2167	2194	2194	2208	2208	2208	2223	2237	2266	2266	2281	2297	2312	2312	2327	2343	2359	2376	2376	2392	2392	2409	2426	2443	2460	2478	2478	2496	2496	2532	2551	2570	2589	2609	2609	2629	2649	2669	2669	2669	2690	2690	2711	2711	2754	2754	2799	2799	2822	2822	2845	2869	2893	2942	2993	2993	3019	3019	3019	3073	3073	3101	3101	3129	3157	3186	3216	3246	3277	3309	3341	3373	3373	3406	3406	3406	3406	3373	3406	3406	3406	3440	3406	3406	3406	3406	3440	3440	3406	3406	3406	3406	3440	3406	3406	3406	3406	3406	3373	3373	3373	3373	3373	3373	3406	3406	3406	3406	3406	3406	3406	3406	3406	3406	3406	3406	3406	3406	3440	3440	3440	3440	3440	3406	3406	3406	3373	3406	3373	3373	3373	3373	3373	3406	3406	3406	3406	3406	3406	3406	3406	3406	3406	3440	3406	3440	3440	3406	3406	3406	3440	3440	3440	3406	3440	3440	3440	3406	3440	3440	3440	3406	3406	3406	3440	3440	3440	3440	3406	3406	3406	3406	3406	3406	3440	3406	3440	3440	3440	3440	3440	3440	3440	3440	3440	3440	3440	3440	3440	3440	3440	3440	3440	3440	3440	3440	3440	3440	3440	3440	3440	3475	2869	2869	2893	2893	2917	2893	2893	2893	2893	2917	2917	2917	2942	2942	2967	2967	2967	2993	2967	2967	2967	2967	2993	2993	2993	3019	3019	3019	2993	2993	2993	2993	2967	2967	2967	2967	2942	2917	2917	2917	2893	2893	2869	2869	3440	3475	3440	3440	3440	3440	3440	3440	3475	3440	3475	3510	3510	3510	3546	3510	3510	3510	3510	3510	3510	3510	3475	3440	3440	3475	3475	3475	3475	3510	3510	3510	3510	3510	3510	3510	3510	3510	3510	3475	3475	3475	3475	3475	3475	3440	3475	3475	3510	3510	3546	3546	3546	3546	3546	3546	3546	3546	3546	3546	3546	3546	3546	3546	3546	3546	3546	3546	3546	3546	3546	3546	3546	3546	3546	3546	3546	3583	3546	3546	3546	3546	3583	3546	3546	3583	3546	3546	3546	3546	3546	3546	3546	3546	3583	3583	3583	3546	3546	3546	3546	3546	3546	3546	3546	3546	3546	3546	3583	3583	3583	3583	3583	3583	3583	3583	3583	3583	3546	3546	3546	3546	3546	3546	3546	3546	3546	3546	3510	0	2409	2392	2376	2376	2359	2327	2327	2208	2194	2181	2167	2153	2140	2140	2140	2127	2114	2101	2076	2063	2051	2039	2039	2039	2027	2003	2003	1992	1980	1969	1958	1958	1947	1936	1925	1915	1904	1894	1894	1883	1873	1863	1843	1833	1833	1824	1824	1814	1804	1795	1786	1777	1768	1759	1750	1750	1750	1732	1723	1723	1723	1715	1706	1698	1690	1681	1681	1673	1665	1657	1649	1641	1626	1626	1626	1618	1611	1611	1603	1596	1589	1574	1567	1567	1567	1560	1553	1546	1539	1539	1539	1525	1519	1512	1506	1499	1499	1492	1486	1480	1480	1473	1461	1461	1461	1455	1455	1455	1455	1461	1461	1461	1467	1467	1480	1486	1486	1486	1486	1486	1486	1486	1492	1486	1492	1492	1499	1492	1492	1499	1492	1492	1492	1486	1486	1486	1486	1486	1486	1486	1486	1486	1492	1486	1486	1486	1486	1486	1486	1486	1486	1486	1486	1486	1486	1486	1486	0	0	0	0	0	0	0	0	0	0	0	0	0	0	0	0	0	0	0	0	0	0	0	0	0	0	0	0	0	0	0	0	0	0	0	0	0
0	0	0	0	0	0	0	0	0	0	0	0	0	0	0	1723	1723	1723	1741	1741	1732	1732	1750	1768	1795	1795	1804	1804	1814	1814	1824	1824	1833	1843	1853	1873	1873	1883	1883	1883	1894	1894	1904	1915	1925	1936	1947	1947	1958	1969	1980	1992	2003	2003	2015	2015	2027	2039	2039	2063	2076	2088	2088	2101	2101	2114	2114	2127	2140	2153	2167	2181	2194	2208	2208	2208	2223	2223	2252	2266	2281	2297	2312	2327	2327	2343	2359	2376	2376	2392	2392	2409	2426	2443	2460	2460	2478	2478	2496	2532	2551	2570	2589	2609	2609	2629	2649	2669	2649	2649	2669	2669	2711	2754	2754	2777	2799	2799	2822	2845	2845	2869	2869	2942	2993	2993	3019	3046	3019	3073	3073	3101	3101	3129	3157	3186	3186	3216	3277	3309	3341	3341	3373	3406	3406	3406	3406	3373	3373	3406	3406	3440	3406	3406	3406	3406	3406	3406	3373	3373	3406	3440	3406	3406	3440	3440	3406	3406	3373	3373	3373	3373	3373	3373	3373	3406	3406	3406	3373	3406	3406	3373	3373	3406	3406	3406	3406	3406	3406	3440	3440	3440	3440	3406	3406	3406	3373	3406	3373	3373	3373	3373	3373	3373	3373	3373	3373	3373	3406	3406	3406	3406	3406	3440	3440	3440	3440	3440	3440	3440	3440	3440	3440	3406	3440	3440	3440	3406	3440	3406	3406	3406	3406	3406	3440	3440	3440	3440	3440	3440	3440	3440	3440	3440	3440	3440	3440	3440	3440	3440	3440	3440	3440	3440	3440	3440	3440	3440	3440	3440	3440	3440	3440	3440	3440	3440	3440	3440	3440	3440	3440	3475	3510	2869	2917	2893	2917	2893	2917	2893	2893	2917	2893	2917	2917	2942	2942	2967	2967	2967	2967	2967	2967	2993	2993	2993	2993	2993	2993	2993	2993	2993	2993	2993	2967	2967	2967	2967	2942	2917	2917	2893	2893	2893	2869	2869	3440	3475	3440	3440	3440	3440	3440	3440	3475	3440	3475	3510	3510	3510	3546	3510	3510	3510	3510	3510	3510	3510	3475	3440	3475	3475	3475	3475	3475	3510	3510	3546	3546	3510	3510	3510	3510	3510	3510	3510	3475	3475	3510	3475	3475	3475	3475	3510	3510	3510	3546	3546	3546	3510	3510	3546	3546	3546	3546	3546	3546	3546	3546	3546	3546	3546	3546	3546	3546	3546	3546	3546	3546	3546	3546	3546	3546	3583	3546	3546	3546	3546	3583	3546	3546	3546	3546	3546	3546	3546	3546	3546	3546	3546	3583	3583	3546	3546	3546	3546	3546	3546	3546	3546	3546	3546	3546	3546	3546	3583	3583	3583	3583	3583	3583	3583	3583	3583	3583	3583	3583	3583	3546	3546	3546	3510	3510	3510	0	0	2392	2392	2376	2376	2359	2312	2252	2194	2181	2167	2167	2153	2140	2140	2140	2127	2114	2101	2076	2063	2051	2039	2039	2039	2027	2003	1992	1980	1969	1969	1958	1947	1947	1936	1925	1915	1904	1894	1883	1883	1873	1863	1853	1843	1833	1824	1824	1814	1804	1795	1786	1777	1768	1759	1750	1750	1750	1732	1723	1723	1723	1715	1706	1706	1690	1681	1673	1673	1665	1657	1649	1641	1634	1626	1626	1618	1618	1611	1603	1596	1574	1574	1567	1567	1567	1560	1553	1553	1546	1539	1539	1519	1512	1512	1506	1499	1499	1492	1486	1480	1480	1467	1461	1461	1461	1455	1455	1455	1461	1461	1461	1461	1467	1473	1480	1486	1486	1486	1486	1486	1486	1486	1492	1486	1492	1492	1499	1492	1492	1492	1486	1486	1486	1486	1486	1486	1486	1486	1486	1486	1486	1486	1486	1486	1486	1486	1486	1486	1486	1486	1486	1486	1486	1486	1486	1486	1486	0	0	0	0	0	0	0	0	0	0	0	0	0	0	0	0	0	0	0	0	0	0	0	0	0	0	0	0	0	0	0	0	0	0	0	0	0
0	0	0	0	0	0	0	0	0	0	0	0	0	0	0	1723	1723	1732	1741	1732	1732	1741	1750	1759	1786	1795	1804	1804	1804	1814	1824	1824	1833	1843	1863	1873	1873	1883	1883	1883	1883	1894	1894	1915	1925	1947	1947	1958	1958	1969	1969	1980	1992	1992	2015	2027	2027	2039	2039	2051	2051	2088	2088	2101	2101	2114	2114	2127	2140	2153	2167	2181	2194	2208	2208	2208	2223	2223	2252	2281	2297	2297	2327	2327	2343	2359	2376	2376	2392	2392	2409	2409	2426	2460	2460	2478	2478	2478	2496	2532	2551	2570	2589	2609	2609	2609	2629	2629	2649	2649	2669	2669	2711	2754	2777	2777	2799	2822	2822	2845	2845	2869	2893	2917	2967	2993	2993	3019	3019	3046	3073	3073	3101	3129	3157	3186	3186	3216	3277	3309	3309	3341	3341	3373	3373	3406	3373	3373	3373	3406	3406	3406	3406	3406	3406	3406	3440	3406	3373	3373	3406	3440	3406	3406	3440	3440	3406	3406	3373	3373	3373	3373	3373	3373	3373	3406	3406	3406	3373	3406	3406	3406	3406	3406	3406	3406	3406	3406	3406	3440	3440	3440	3440	3406	3406	3406	3406	3406	3406	3406	3406	3406	3373	3373	3373	3373	3373	3406	3406	3406	3406	3440	3440	3440	3440	3440	3440	3406	3406	3406	3440	3440	3440	3406	3440	3440	3440	3406	3440	3440	3440	3440	3406	3406	3406	3406	3440	3440	3440	3440	3440	3440	3440	3440	3440	3440	3440	3440	3440	3440	3440	3440	3440	3440	3440	3440	3440	3440	3440	3440	3440	3440	3440	3440	3440	3440	3440	3440	3440	3475	3440	3475	3510	3510	2917	2917	2917	2917	2917	2893	2893	2917	2917	2917	2917	2942	2942	2967	2967	2967	2967	2967	2967	2993	2993	2993	2993	2993	2993	2993	2993	2967	2967	2967	2967	2967	2942	2942	2917	2917	2893	2893	2893	2893	2869	2845	2845	3475	3475	3440	3440	3440	3440	3440	3475	3440	3475	3475	3510	3510	3546	3510	3546	3510	3510	3510	3510	3510	3475	3475	3475	3475	3475	3475	3475	3510	3510	3546	3546	3510	3510	3510	3510	3510	3510	3510	3510	3510	3510	3510	3510	3510	3510	3510	3546	3546	3546	3546	3546	3510	3510	3510	3510	3546	3546	3546	3546	3546	3546	3546	3546	3546	3546	3546	3546	3546	3546	3546	3546	3546	3546	3546	3546	3546	3546	3546	3546	3546	3583	3546	3546	3546	3583	3546	3546	3546	3546	3546	3546	3546	3583	3583	3546	3546	3546	3546	3546	3546	3546	3546	3583	3546	3583	3583	3583	3583	3583	3583	3583	3583	3583	3583	3583	3583	3583	3583	3546	3546	3546	3546	3546	3510	3510	3510	0	0	2392	2376	2376	2359	2359	2312	2312	2194	2181	2167	2153	2153	2140	2140	2127	2127	2127	2088	2076	2063	2051	2039	2039	2027	2027	2003	2003	1992	1980	1969	1958	1947	1947	1936	1925	1915	1904	1904	1883	1873	1863	1863	1853	1833	1833	1824	1824	1814	1804	1804	1795	1777	1759	1759	1750	1750	1741	1732	1723	1723	1723	1715	1706	1698	1690	1681	1673	1665	1657	1657	1649	1641	1634	1626	1626	1618	1618	1611	1603	1596	1574	1574	1567	1567	1560	1560	1560	1553	1546	1539	1532	1519	1512	1512	1506	1499	1492	1492	1486	1480	1480	1467	1461	1461	1461	1455	1455	1455	1455	1461	1461	1461	1461	1467	1480	1486	1486	1486	1486	1486	1486	1486	1492	1486	1492	1492	1492	1492	1486	1492	1486	1486	1486	1486	1486	1486	1486	1486	1486	1486	1486	1486	1486	1486	1486	1486	1486	1486	1486	1486	1486	1486	1486	1486	1486	1486	1486	0	0	0	0	0	0	0	0	0	0	0	0	0	0	0	0	0	0	0	0	0	0	0	0	0	0	0	0	0	0	0	0	0	0	0	0	0
0	0	0	0	0	0	0	0	0	0	0	0	0	0	0	1723	1723	1732	1741	1732	1732	1732	1741	1759	1786	1795	1804	1804	1814	1814	1824	1824	1833	1843	1863	1873	1883	1883	1883	1883	1883	1894	1894	1915	1925	1947	1947	1958	1958	1958	1969	1980	1980	1992	2003	2015	2015	2039	2039	2051	2063	2076	2088	2101	2101	2114	2114	2127	2140	2153	2167	2181	2194	2208	2208	2208	2223	2237	2252	2266	2297	2297	2312	2327	2327	2343	2359	2376	2376	2392	2392	2409	2443	2460	2478	2478	2478	2496	2496	2532	2551	2570	2589	2589	2609	2629	2629	2649	2649	2669	2669	2669	2711	2754	2777	2799	2799	2822	2845	2845	2869	2869	2869	2917	2942	2967	2993	3019	3019	3046	3073	3101	3101	3129	3157	3186	3216	3216	3277	3309	3341	3341	3341	3373	3373	3373	3373	3373	3341	3373	3373	3373	3373	3373	3406	3406	3406	3406	3373	3406	3406	3440	3406	3406	3440	3440	3406	3406	3373	3373	3373	3373	3373	3373	3373	3373	3373	3406	3373	3406	3406	3406	3406	3406	3440	3406	3406	3406	3406	3406	3406	3406	3406	3406	3406	3406	3406	3406	3406	3406	3406	3406	3406	3406	3373	3373	3373	3406	3406	3406	3406	3440	3440	3440	3440	3440	3440	3406	3406	3406	3440	3440	3440	3440	3440	3440	3440	3440	3440	3440	3440	3440	3406	3406	3406	3406	3406	3440	3440	3440	3440	3440	3440	3440	3440	3440	3440	3440	3440	3440	3440	3440	3440	3440	3440	3440	3440	3440	3440	3440	3440	3440	3440	3440	3440	3440	3440	3440	3440	3440	3440	3440	3475	3475	2917	2917	2917	2917	2917	2893	2893	2917	2917	2917	2917	2942	2942	2967	2967	2967	2967	2967	2993	2993	2993	2993	2993	2993	2993	2993	2967	2967	2967	2967	2967	2967	2942	2942	2917	2917	2893	2893	2893	2893	2869	2845	2845	3475	3475	3440	3440	3440	3440	3440	3475	3475	3475	3510	3510	3510	3510	3510	3546	3510	3510	3510	3510	3510	3475	3510	3475	3475	3510	3510	3510	3510	3510	3546	3546	3510	3510	3510	3510	3510	3510	3510	3510	3510	3510	3510	3546	3546	3546	3510	3546	3546	3546	3546	3546	3510	3546	3510	3510	3510	3510	3510	3510	3546	3546	3546	3546	3546	3546	3546	3546	3546	3546	3546	3546	3546	3546	3546	3546	3546	3546	3546	3546	3546	3546	3546	3546	3546	3546	3546	3546	3546	3546	3546	3546	3546	3583	3546	3546	3546	3546	3546	3546	3546	3546	3546	3583	3546	3546	3583	3583	3583	3583	3583	3583	3583	3583	3583	3583	3583	3583	3583	3583	3546	3546	3546	3546	3510	3510	0	0	0	2376	2376	2376	2359	2343	2312	2312	2208	2181	2167	2167	2153	2140	2140	2140	2127	2114	2101	2088	2076	2051	2039	2039	2027	2015	2003	1992	1992	1980	1969	1958	1947	1936	1925	1915	1915	1904	1904	1883	1873	1863	1863	1853	1833	1833	1824	1824	1814	1804	1804	1795	1786	1777	1759	1750	1750	1741	1732	1723	1723	1715	1715	1706	1698	1690	1681	1673	1665	1657	1657	1649	1634	1626	1626	1626	1618	1611	1611	1603	1596	1589	1574	1567	1567	1560	1553	1553	1546	1539	1539	1532	1519	1512	1512	1506	1492	1486	1486	1486	1480	1480	1467	1461	1461	1461	1455	1455	1455	1455	1455	1455	1461	1461	1473	1480	1486	1486	1486	1486	1486	1486	1486	1492	1486	1486	1492	1492	1492	1486	1486	1486	1486	1486	1486	1486	1480	1480	1480	1486	1486	1486	1486	1486	1486	1486	1486	1486	1486	1486	1486	1486	1492	1492	1492	1492	1492	1492	0	0	0	0	0	0	0	0	0	0	0	0	0	0	0	0	0	0	0	0	0	0	0	0	0	0	0	0	0	0	0	0	0	0	0	0	0
0	0	0	0	0	0	0	0	0	0	0	0	0	0	0	1723	1732	1732	1741	1732	1750	1741	1750	1759	1786	1795	1804	1804	1814	1814	1814	1824	1833	1833	1843	1873	1883	1883	1883	1883	1883	1894	1894	1915	1925	1947	1947	1958	1958	1958	1969	1969	1980	1980	2003	2015	2027	2039	2039	2063	2076	2076	2088	2101	2101	2101	2114	2114	2127	2153	2167	2167	2194	2208	2208	2223	2223	2237	2252	2266	2297	2297	2327	2327	2327	2343	2359	2376	2376	2392	2392	2409	2426	2460	2478	2478	2496	2496	2514	2532	2532	2551	2570	2609	2609	2629	2629	2649	2649	2649	2669	2690	2711	2754	2777	2799	2799	2822	2845	2869	2869	2869	2869	2893	2942	2967	2993	2993	3019	3046	3073	3101	3101	3129	3157	3186	3216	3216	3246	3309	3309	3341	3341	3341	3373	3373	3373	3373	3341	3373	3373	3406	3406	3406	3406	3440	3406	3406	3373	3406	3406	3406	3406	3406	3440	3440	3406	3406	3406	3373	3373	3406	3373	3373	3373	3406	3406	3406	3406	3406	3406	3406	3406	3406	3406	3440	3406	3406	3406	3406	3406	3440	3406	3406	3406	3406	3406	3440	3406	3406	3406	3406	3406	3373	3373	3373	3373	3373	3406	3406	3406	3440	3440	3440	3440	3440	3440	3406	3406	3406	3440	3440	3440	3406	3440	3440	3440	3440	3440	3440	3440	3440	3406	3406	3406	3406	3406	3440	3406	3440	3440	3440	3440	3440	3440	3440	3440	3475	3440	3440	3440	3440	3440	3440	3440	3440	3440	3440	3440	3440	3440	3440	3440	3440	3440	3440	3440	3440	3440	3475	3440	3440	3475	3475	2917	2917	2917	2917	2917	2893	2893	2893	2917	2917	2917	2942	2942	2967	2967	2967	2967	2967	2993	2993	2993	2993	2993	2993	2993	2993	2967	2967	2967	2967	2967	2967	2942	2942	2917	2917	2893	2893	2893	2893	2845	2845	2822	2822	3440	3440	3440	3440	3440	3440	3440	3475	3475	3510	3510	3510	3510	3510	3546	3510	3510	3510	3510	3510	3475	3475	3475	3475	3510	3510	3510	3546	3546	3546	3546	3510	3510	3510	3546	3510	3546	3546	3510	3546	3546	3546	3546	3546	3546	3510	3546	3546	3546	3546	3546	3510	3510	3510	3510	3510	3546	3510	3510	3546	3546	3546	3510	3510	3510	3546	3546	3546	3546	3546	3546	3546	3546	3546	3546	3546	3546	3546	3546	3546	3546	3546	3546	3546	3546	3546	3546	3546	3546	3546	3546	3546	3546	3546	3546	3546	3546	3546	3546	3546	3546	3546	3546	3546	3583	3583	3583	3583	3583	3583	3583	3583	3546	3583	3583	3583	3583	3583	3546	3546	3546	3546	3510	3510	3510	0	0	2392	2376	2376	2376	2359	2359	2359	2208	2208	2181	2167	2153	2153	2140	2140	2140	2127	2114	2088	2088	2076	2051	2039	2027	2027	2015	2003	1992	1992	1980	1958	1958	1947	1936	1925	1915	1904	1904	1894	1883	1873	1863	1863	1853	1833	1833	1824	1824	1814	1804	1804	1795	1786	1777	1759	1759	1750	1741	1732	1723	1723	1715	1715	1706	1698	1690	1681	1673	1665	1657	1657	1649	1641	1626	1626	1626	1618	1611	1611	1603	1596	1589	1574	1567	1567	1560	1553	1553	1546	1539	1532	1532	1532	1512	1512	1506	1492	1486	1486	1486	1480	1480	1473	1461	1461	1455	1455	1455	1455	1455	1455	1455	1461	1461	1467	1480	1486	1486	1486	1486	1486	1486	1486	1486	1486	1486	1486	1492	1486	1486	1486	1486	1486	1486	1486	1486	1480	1480	1480	1480	1480	1480	1486	1486	1486	1486	1486	1486	1486	1486	1486	1486	1486	1486	1486	1492	1492	1492	0	0	0	0	0	0	0	0	0	0	0	0	0	0	0	0	0	0	0	0	0	0	0	0	0	0	0	0	0	0	0	0	0	0	0	0	0
0	0	0	0	0	0	0	0	0	0	0	0	0	0	0	1732	1732	1741	1741	1741	1750	1759	1759	1759	1786	1786	1804	1804	1814	1814	1814	1824	1833	1833	1853	1873	1873	1883	1883	1883	1883	1894	1894	1915	1925	1936	1947	1947	1947	1958	1969	1969	1980	1980	1992	2015	2039	2039	2051	2063	2076	2076	2101	2101	2101	2114	2114	2127	2127	2153	2167	2167	2194	2208	2223	2223	2237	2237	2266	2281	2297	2312	2327	2327	2327	2343	2359	2376	2376	2392	2392	2409	2443	2460	2460	2478	2496	2514	2532	2532	2551	2551	2570	2609	2609	2629	2649	2649	2649	2669	2690	2711	2733	2754	2777	2777	2799	2822	2845	2869	2869	2869	2893	2893	2942	2967	2967	2993	3019	3046	3073	3101	3129	3157	3157	3186	3216	3216	3277	3309	3341	3341	3341	3341	3373	3373	3373	3373	3373	3373	3373	3373	3406	3406	3406	3406	3406	3373	3373	3373	3406	3440	3406	3406	3440	3440	3440	3406	3406	3406	3373	3406	3406	3406	3406	3406	3406	3406	3406	3406	3406	3406	3406	3406	3406	3406	3406	3406	3406	3406	3406	3406	3406	3406	3440	3440	3440	3440	3440	3440	3440	3440	3406	3406	3373	3373	3373	3373	3373	3406	3406	3440	3440	3440	3440	3440	3440	3440	3440	3440	3440	3440	3440	3440	3440	3440	3440	3440	3440	3440	3440	3440	3440	3406	3406	3406	3406	3440	3440	3440	3440	3440	3440	3440	3440	3440	3440	3440	3440	3440	3440	3440	3440	3440	3440	3440	3440	3440	3440	3440	3440	3440	3440	3440	3440	3440	3440	3440	3475	3475	3475	3440	3475	3475	3475	2917	2917	2917	2917	2893	2893	2893	2893	2917	2917	2917	2942	2967	2967	2967	2967	2967	2967	2993	2993	2993	2993	2993	2993	2967	2967	2967	2967	2967	2967	2967	2942	2942	2917	2917	2893	2893	2893	2893	2869	2845	2845	3440	3440	3440	3440	3440	3440	3440	3440	3475	3475	3475	3510	3510	3510	3510	3510	3510	3510	3510	3510	3510	3475	3475	3475	3475	3475	3475	3475	3475	3510	3510	3510	3510	3510	3510	3510	3510	3510	3546	3510	3546	3546	3546	3546	3546	3546	3546	3546	3546	3546	3546	3546	3510	3510	3510	3510	3510	3510	3510	3510	3546	3546	3546	3546	3546	3546	3546	3546	3546	3546	3546	3546	3546	3546	3546	3546	3546	3546	3546	3546	3546	3546	3546	3546	3546	3546	3546	3546	3546	3546	3546	3546	3546	3546	3546	3546	3546	3546	3546	3546	3546	3546	3546	3583	3546	3583	3583	3583	3583	3583	3546	3583	3583	3583	3583	3583	3583	3583	3583	3546	3546	3546	3546	3546	3510	3510	0	0	2392	2376	2376	2376	2376	2359	2359	2194	2194	2181	2167	2153	2153	2140	2140	2127	2127	2114	2101	2088	2088	2063	2039	2027	2027	2015	2003	1992	1992	1980	1958	1958	1947	1936	1925	1915	1904	1904	1894	1883	1873	1863	1853	1853	1833	1833	1824	1824	1824	1804	1804	1795	1786	1777	1768	1759	1750	1741	1732	1723	1715	1715	1715	1706	1690	1681	1681	1673	1665	1657	1657	1649	1649	1634	1626	1626	1618	1611	1611	1603	1596	1589	1574	1574	1567	1560	1553	1553	1546	1539	1532	1532	1532	1512	1512	1506	1492	1486	1486	1486	1480	1480	1473	1461	1461	1455	1455	1455	1455	1455	1455	1455	1455	1461	1467	1480	1486	1486	1486	1486	1486	1486	1486	1486	1486	1486	1486	1486	1486	1486	1486	1486	1486	1486	1486	1486	1486	1480	1480	1480	1486	1486	1486	1486	1486	1486	1486	1486	1486	1486	1486	1486	1486	1486	1486	1486	1486	1486	0	0	0	0	0	0	0	0	0	0	0	0	0	0	0	0	0	0	0	0	0	0	0	0	0	0	0	0	0	0	0	0	0	0	0	0	0
0	0	0	0	0	0	0	0	0	0	0	0	0	0	0	1723	1732	1741	1750	1750	1759	1768	1759	1768	1786	1795	1804	1804	1814	1814	1814	1824	1833	1843	1853	1873	1873	1883	1883	1883	1883	1894	1894	1915	1925	1925	1947	1958	1958	1958	1969	1969	1980	1992	2003	2015	2039	2051	2051	2063	2076	2088	2101	2101	2101	2114	2114	2127	2140	2153	2167	2194	2194	2208	2223	2223	2237	2252	2266	2266	2281	2297	2312	2327	2327	2343	2359	2359	2376	2376	2392	2392	2426	2460	2478	2496	2514	2514	2532	2532	2551	2551	2570	2609	2609	2629	2629	2629	2649	2669	2690	2754	2754	2777	2777	2799	2799	2845	2845	2869	2869	2893	2893	2893	2942	2967	2993	2993	3019	3046	3073	3101	3129	3157	3186	3186	3216	3246	3277	3277	3341	3341	3373	3373	3373	3373	3373	3373	3373	3373	3373	3373	3406	3406	3406	3440	3406	3406	3406	3406	3406	3440	3440	3440	3440	3440	3440	3406	3406	3406	3406	3406	3406	3406	3406	3406	3406	3406	3406	3406	3406	3406	3406	3406	3406	3406	3406	3406	3406	3406	3406	3406	3406	3406	3440	3440	3440	3440	3440	3440	3440	3440	3406	3406	3373	3373	3373	3373	3373	3373	3406	3406	3440	3440	3440	3440	3440	3406	3406	3406	3440	3440	3440	3440	3440	3440	3440	3440	3440	3440	3440	3440	3440	3440	3440	3406	3406	3406	3440	3440	3440	3440	3440	3440	3440	3440	3440	3440	3440	3440	3440	3440	3440	3440	3440	3440	3440	3440	3440	3440	3440	3440	3440	3440	3440	3440	3440	3440	3475	3475	3475	3440	3475	3475	3475	2893	2917	2893	2893	2893	2893	2893	2893	2893	2917	2917	2917	2942	2967	2967	2967	2967	2967	2967	2993	2993	2967	2993	2993	2967	2967	2967	2967	2967	2967	2967	2942	2942	2942	2917	2893	2893	2893	2869	2845	2845	2845	3440	3440	3440	3440	3440	3440	3440	3440	3440	3475	3475	3510	3510	3510	3510	3510	3510	3510	3510	3510	3510	3475	3475	3475	3475	3475	3475	3475	3510	3510	3510	3510	3510	3510	3510	3510	3475	3510	3546	3510	3510	3546	3546	3546	3546	3546	3510	3546	3546	3546	3546	3546	3510	3510	3510	3510	3510	3510	3510	3510	3546	3510	3546	3510	3510	3546	3546	3546	3546	3546	3546	3546	3546	3546	3546	3546	3546	3546	3546	3546	3546	3546	3546	3546	3546	3546	3546	3546	3546	3546	3546	3546	3546	3546	3546	3546	3546	3546	3546	3546	3546	3546	3546	3583	3546	3546	3583	3546	3583	3583	3583	3583	3583	3583	3583	3583	3583	3583	3583	3546	3546	3546	3546	3546	3546	3546	3546	0	2392	2376	2376	2376	2376	2359	2359	2194	2194	2167	2167	2153	2153	2140	2140	2127	2127	2114	2101	2088	2088	2076	2051	2027	2027	2015	2003	1992	1980	1969	1958	1958	1947	1947	1936	1915	1904	1904	1894	1883	1873	1863	1853	1843	1833	1833	1833	1824	1824	1814	1814	1804	1795	1786	1759	1759	1750	1741	1732	1723	1723	1715	1715	1706	1690	1681	1673	1665	1657	1657	1657	1649	1641	1634	1626	1626	1618	1611	1611	1611	1596	1596	1581	1574	1567	1560	1553	1553	1546	1539	1532	1532	1532	1512	1512	1506	1492	1492	1486	1486	1480	1480	1473	1461	1461	1461	1455	1455	1455	1455	1455	1455	1455	1461	1467	1473	1486	1486	1486	1486	1486	1486	1486	1486	1486	1486	1486	1486	1486	1486	1486	1486	1486	1486	1486	1486	1486	1486	1486	1486	1486	1486	1486	1486	1486	1486	1486	1486	1486	1486	1486	1486	1486	1486	1486	1486	1486	1486	0	0	0	0	0	0	0	0	0	0	0	0	0	0	0	0	0	0	0	0	0	0	0	0	0	0	0	0	0	0	0	0	0	0	0	0	0
0	0	0	0	0	0	0	0	0	0	0	0	0	0	0	1723	1732	1750	1750	1750	1759	1768	1759	1768	1777	1786	1795	1804	1804	1814	1814	1824	1833	1824	1853	1873	1873	1883	1883	1894	1894	1894	1904	1925	1936	1936	1947	1958	1958	1969	1969	1969	1980	1992	2003	2015	2039	2051	2051	2063	2076	2076	2101	2101	2101	2114	2114	2127	2140	2153	2167	2194	2194	2208	2223	2223	2237	2237	2266	2266	2281	2297	2312	2327	2327	2343	2343	2359	2376	2392	2409	2426	2443	2460	2478	2496	2514	2514	2532	2532	2551	2551	2570	2609	2609	2609	2629	2629	2629	2690	2711	2754	2777	2777	2777	2799	2799	2845	2869	2869	2893	2893	2893	2917	2942	2967	2993	3019	3046	3046	3073	3101	3129	3157	3157	3186	3216	3246	3277	3309	3341	3341	3373	3373	3406	3373	3406	3373	3373	3373	3373	3373	3373	3373	3406	3440	3406	3406	3406	3406	3406	3440	3406	3406	3440	3406	3406	3406	3373	3406	3406	3406	3406	3406	3406	3406	3406	3406	3406	3406	3406	3406	3406	3406	3406	3406	3406	3373	3373	3406	3406	3406	3406	3406	3406	3406	3440	3440	3406	3440	3440	3440	3406	3406	3373	3373	3373	3373	3373	3373	3373	3406	3406	3406	3406	3440	3440	3406	3406	3440	3440	3440	3440	3440	3440	3440	3440	3440	3440	3440	3440	3440	3440	3440	3440	3406	3406	3406	3440	3440	3440	3440	3440	3440	3440	3440	3440	3440	3440	3440	3440	3440	3440	3440	3440	3440	3440	3440	3440	3440	3440	3440	3440	3440	3440	3440	3440	3440	3440	3440	3440	3440	3440	3475	3475	2893	2893	2893	2893	2893	2893	2893	2893	2917	2917	2917	2942	2942	2967	2967	2967	2967	2967	2967	2993	2993	2967	2993	2967	2967	2967	2967	2967	2967	2967	2967	2942	2942	2917	2893	2893	2893	2869	2869	2845	2822	2822	3440	3440	3440	3440	3440	3440	3440	3440	3440	3475	3475	3510	3510	3510	3510	3510	3510	3510	3510	3510	3475	3475	3475	3475	3475	3475	3475	3510	3510	3510	3510	3510	3510	3510	3510	3510	3475	3510	3510	3510	3510	3510	3510	3546	3546	3546	3510	3546	3546	3546	3546	3510	3510	3475	3510	3475	3510	3510	3510	3510	3510	3510	3510	3510	3510	3510	3510	3510	3510	3510	3546	3546	3546	3546	3546	3546	3546	3546	3546	3546	3546	3546	3546	3546	3546	3546	3546	3546	3546	3546	3546	3546	3546	3546	3546	3546	3546	3546	3546	3546	3546	3546	3546	3546	3546	3546	3546	3546	3546	3546	3546	3583	3583	3583	3583	3583	3583	3583	3583	3583	3546	3546	3546	3546	3546	3546	3546	3546	2376	2376	2376	2376	2376	2359	2359	2223	2194	2167	2167	2153	2153	2140	2140	2127	2114	2101	2101	2088	2088	2076	2051	2027	2015	2015	2003	1992	1992	1980	1958	1958	1947	1947	1936	1925	1904	1904	1894	1883	1873	1863	1853	1843	1843	1833	1833	1824	1824	1814	1814	1804	1795	1777	1759	1759	1750	1741	1732	1723	1723	1715	1715	1706	1690	1681	1673	1665	1665	1657	1657	1649	1641	1626	1626	1626	1618	1618	1611	1611	1603	1596	1589	1574	1567	1560	1560	1553	1546	1539	1532	1532	1532	1512	1512	1506	1499	1486	1486	1486	1480	1480	1473	1461	1461	1461	1455	1455	1455	1455	1455	1455	1455	1455	1461	1473	1480	1486	1486	1486	1486	1486	1486	1486	1486	1486	1486	1486	1486	1486	1486	1486	1486	1486	1486	1486	1486	1486	1486	1480	1486	1486	1486	1486	1486	1486	1486	1486	1486	1486	1486	1486	1486	1486	1486	1486	1486	1486	0	0	0	0	0	0	0	0	0	0	0	0	0	0	0	0	0	0	0	0	0	0	0	0	0	0	0	0	0	0	0	0	0	0	0	0	0
0	0	0	0	0	0	0	0	0	0	0	0	0	0	0	1715	1732	1750	1750	1750	1759	1768	1768	1768	1786	1795	1795	1804	1814	1814	1824	1824	1824	1833	1863	1873	1883	1873	1873	1894	1894	1904	1915	1925	1936	1936	1947	1958	1958	1969	1969	1969	1980	1992	1992	2015	2039	2051	2051	2063	2076	2076	2101	2101	2101	2114	2114	2127	2140	2153	2167	2167	2194	2208	2208	2223	2237	2252	2266	2281	2281	2297	2312	2312	2327	2343	2359	2359	2376	2392	2409	2443	2443	2460	2478	2496	2514	2514	2532	2532	2551	2551	2570	2609	2609	2609	2629	2629	2649	2711	2733	2754	2754	2777	2777	2799	2799	2822	2845	2869	2893	2893	2893	2917	2942	2967	2993	3019	3046	3073	3073	3073	3129	3157	3186	3186	3216	3246	3277	3309	3341	3341	3373	3373	3406	3406	3406	3406	3373	3373	3373	3373	3373	3373	3406	3440	3406	3406	3406	3406	3406	3440	3440	3406	3440	3440	3440	3406	3406	3406	3406	3406	3406	3406	3406	3406	3406	3406	3406	3406	3406	3406	3406	3406	3406	3406	3406	3373	3373	3406	3406	3406	3406	3406	3440	3406	3440	3440	3406	3440	3440	3440	3406	3406	3373	3406	3373	3373	3373	3373	3373	3406	3406	3406	3406	3406	3406	3406	3406	3406	3440	3440	3440	3440	3440	3440	3440	3440	3440	3440	3440	3440	3440	3440	3440	3406	3406	3406	3406	3440	3406	3440	3440	3440	3440	3440	3440	3440	3440	3440	3440	3440	3440	3440	3440	3440	3440	3440	3440	3440	3440	3440	3440	3440	3440	3440	3440	3440	3440	3440	3440	3440	3440	3475	3475	2917	2893	2893	2917	2893	2893	2893	2893	2917	2917	2917	2917	2942	2967	2967	2967	2967	2993	2993	2993	2993	2967	2993	2967	2967	2967	2967	2967	2967	2967	2942	2942	2942	2917	2917	2893	2893	2893	2869	2845	2845	2822	2822	3440	3440	3440	3440	3440	3440	3440	3440	3475	3475	3510	3510	3510	3510	3510	3475	3510	3475	3475	3475	3475	3475	3475	3475	3475	3475	3510	3510	3510	3510	3510	3510	3510	3510	3510	3475	3510	3510	3510	3510	3510	3510	3510	3510	3546	3510	3546	3546	3546	3546	3546	3510	3475	3510	3475	3510	3510	3510	3510	3510	3510	3510	3510	3510	3510	3510	3510	3510	3510	3510	3510	3510	3546	3546	3546	3546	3546	3546	3546	3546	3546	3546	3546	3546	3546	3546	3546	3546	3546	3546	3546	3546	3546	3546	3546	3546	3546	3546	3546	3546	3546	3546	3546	3546	3546	3546	3546	3546	3546	3546	3546	3546	3546	3583	3583	3583	3583	3583	3583	3546	3546	3546	3546	3546	3546	3546	3546	2376	2376	2376	2376	2376	2359	2359	2223	2194	2167	2167	2153	2153	2140	2140	2127	2114	2101	2101	2088	2088	2076	2051	2039	2027	2015	2003	1992	1980	1969	1958	1958	1947	1947	1936	1925	1904	1904	1894	1883	1873	1863	1853	1843	1843	1833	1833	1824	1824	1814	1814	1795	1786	1777	1759	1759	1750	1750	1741	1732	1723	1715	1715	1698	1690	1681	1681	1673	1665	1665	1657	1649	1641	1626	1626	1626	1618	1611	1611	1611	1596	1596	1589	1574	1567	1560	1560	1553	1546	1539	1539	1532	1532	1525	1512	1506	1492	1492	1486	1486	1480	1480	1473	1473	1461	1461	1455	1455	1455	1455	1455	1455	1455	1455	1461	1467	1480	1480	1486	1486	1486	1486	1486	1486	1486	1486	1486	1486	1486	1486	1486	1486	1486	1486	1486	1480	1480	1480	1486	1480	1480	1486	1486	1486	1486	1486	1486	1486	1486	1486	1486	1486	1486	1486	1486	1486	1486	1486	0	0	0	0	0	0	0	0	0	0	0	0	0	0	0	0	0	0	0	0	0	0	0	0	0	0	0	0	0	0	0	0	0	0	0	0	0
0	0	0	0	0	0	0	0	0	0	0	0	0	0	0	1715	1723	1741	1750	1750	1768	1768	1768	1768	1777	1786	1795	1804	1804	1814	1824	1824	1833	1833	1863	1863	1873	1873	1883	1894	1894	1904	1915	1925	1936	1936	1947	1958	1958	1958	1958	1980	1980	1992	2003	2003	2039	2051	2051	2063	2088	2088	2101	2101	2114	2114	2114	2127	2140	2153	2167	2181	2194	2194	2208	2208	2237	2252	2266	2266	2281	2281	2312	2312	2327	2327	2343	2359	2376	2376	2392	2426	2443	2460	2478	2496	2514	2532	2532	2532	2551	2551	2570	2589	2609	2609	2649	2649	2669	2711	2754	2754	2754	2754	2777	2777	2799	2822	2845	2869	2893	2893	2893	2917	2942	2967	2993	3019	3019	3073	3073	3101	3129	3157	3186	3186	3216	3216	3246	3341	3341	3373	3406	3406	3406	3406	3406	3406	3406	3406	3373	3406	3406	3406	3440	3440	3406	3440	3440	3440	3440	3440	3406	3440	3440	3406	3406	3406	3406	3406	3406	3406	3406	3406	3406	3406	3406	3406	3406	3406	3406	3406	3406	3406	3406	3406	3406	3373	3373	3406	3406	3373	3406	3406	3406	3406	3406	3406	3406	3406	3440	3440	3406	3406	3406	3406	3373	3373	3373	3373	3373	3373	3406	3406	3406	3406	3406	3406	3406	3440	3440	3440	3440	3440	3440	3440	3440	3440	3440	3440	3440	3440	3440	3440	3440	3406	3406	3406	3406	3406	3406	3440	3440	3406	3406	3406	3406	3440	3440	3440	3440	3440	3440	3440	3440	3440	3440	3440	3440	3440	3440	3440	3440	3440	3440	3440	3440	3440	3440	3440	3440	3440	3440	3440	3475	2917	2917	2917	2917	2893	2893	2893	2893	2917	2917	2917	2917	2942	2967	2967	2967	2967	2993	2993	2993	2967	2967	2967	2967	2967	2967	2967	2967	2967	2967	2967	2942	2942	2942	2917	2893	2893	2893	2869	2845	2845	2845	3440	3440	3440	3440	3440	3440	3440	3440	3440	3440	3475	3475	3510	3510	3510	3510	3475	3475	3475	3475	3440	3475	3475	3475	3475	3475	3475	3510	3510	3510	3510	3510	3510	3510	3510	3475	3475	3475	3510	3510	3510	3510	3510	3510	3510	3510	3510	3510	3546	3546	3546	3546	3510	3510	3510	3510	3510	3510	3510	3510	3510	3510	3510	3510	3510	3510	3510	3510	3510	3510	3510	3510	3546	3546	3546	3546	3546	3546	3546	3546	3546	3546	3546	3546	3546	3546	3546	3546	3546	3546	3546	3546	3546	3546	3546	3546	3546	3546	3546	3546	3546	3546	3546	3546	3546	3546	3546	3546	3546	3546	3546	3546	3546	3546	3583	3583	3583	3583	3583	3583	3546	3546	3546	3546	3546	3546	3546	2376	2376	2392	2376	2376	2376	2376	2376	2223	2194	2167	2167	2153	2153	2140	2140	2127	2114	2101	2101	2088	2076	2063	2051	2039	2027	2015	2003	1992	1980	1969	1958	1958	1947	1947	1936	1925	1904	1904	1894	1883	1873	1863	1853	1843	1843	1833	1824	1824	1824	1814	1814	1804	1795	1777	1759	1759	1750	1750	1741	1732	1723	1715	1715	1698	1690	1681	1681	1673	1665	1665	1657	1649	1641	1634	1626	1626	1618	1611	1603	1603	1596	1589	1589	1581	1567	1560	1560	1553	1546	1539	1539	1532	1532	1525	1512	1506	1499	1492	1486	1486	1480	1480	1480	1473	1461	1461	1455	1455	1455	1455	1455	1455	1455	1455	1461	1461	1473	1480	1486	1486	1486	1486	1486	1486	1486	1486	1486	1486	1480	1480	1486	1486	1486	1486	1486	1480	1486	1486	1486	1480	1480	1486	1486	1486	1486	1486	1486	1486	1486	1486	1486	1486	1486	1486	1486	1486	1486	1486	0	0	0	0	0	0	0	0	0	0	0	0	0	0	0	0	0	0	0	0	0	0	0	0	0	0	0	0	0	0	0	0	0	0	0	0	0
0	0	0	0	0	0	0	0	0	0	0	0	0	0	0	1715	1723	1732	1741	1750	1759	1768	1768	1768	1786	1795	1795	1804	1804	1814	1804	1814	1814	1843	1863	1863	1873	1873	1873	1883	1894	1904	1915	1925	1936	1936	1947	1958	1969	1958	1969	1980	1992	2003	2003	2015	2039	2039	2051	2063	2088	2088	2101	2101	2101	2114	2114	2127	2140	2153	2167	2181	2194	2194	2208	2223	2223	2237	2252	2266	2281	2281	2297	2312	2327	2327	2343	2359	2376	2392	2409	2426	2443	2460	2478	2496	2514	2532	2532	2532	2551	2551	2570	2589	2609	2609	2649	2669	2690	2733	2754	2777	2754	2754	2777	2777	2799	2822	2845	2869	2893	2893	2893	2917	2917	2967	2993	3019	3046	3073	3101	3129	3129	3157	3186	3216	3216	3216	3246	3309	3341	3341	3406	3406	3406	3406	3440	3406	3406	3406	3406	3406	3406	3406	3440	3440	3440	3440	3440	3440	3440	3440	3440	3440	3440	3406	3406	3406	3406	3406	3406	3406	3406	3440	3440	3440	3406	3406	3406	3406	3406	3406	3406	3406	3406	3373	3373	3373	3373	3373	3406	3406	3406	3406	3440	3406	3406	3406	3406	3406	3440	3440	3440	3440	3406	3406	3373	3406	3406	3406	3373	3406	3406	3406	3406	3406	3406	3406	3406	3406	3440	3440	3440	3440	3406	3406	3406	3440	3440	3440	3440	3440	3440	3440	3440	3440	3406	3406	3406	3406	3406	3406	3406	3406	3406	3406	3406	3406	3406	3406	3440	3440	3440	3440	3440	3440	3440	3440	3440	3440	3440	3440	3440	3440	3440	3440	3440	3440	3440	3440	3475	3440	3440	3475	3475	3510	2917	2917	2917	2893	2893	2893	2893	2893	2917	2893	2917	2917	2942	2942	2967	2967	2967	2993	2993	2993	2967	2967	2967	2967	2967	2967	2967	2942	2942	2942	2942	2942	2942	2917	2893	2893	2893	2869	2845	2822	2822	3440	3440	3440	3406	3406	3440	3440	3440	3440	3440	3475	3475	3510	3510	3510	3510	3475	3475	3475	3440	3440	3475	3475	3475	3475	3475	3475	3475	3475	3510	3510	3510	3510	3510	3510	3510	3475	3475	3510	3510	3475	3510	3510	3510	3510	3510	3510	3510	3546	3546	3546	3546	3510	3510	3510	3510	3510	3510	3510	3510	3510	3510	3546	3546	3510	3510	3510	3510	3510	3510	3510	3510	3510	3510	3510	3546	3546	3546	3546	3546	3546	3546	3546	3546	3546	3546	3546	3546	3546	3546	3546	3546	3546	3546	3546	3546	3546	3546	3546	3546	3546	3546	3546	3546	3546	3546	3546	3546	3546	3546	3546	3546	3546	3546	3583	3583	3583	3583	3583	3546	3546	3546	3546	3546	3546	3546	2376	2376	2392	2392	2392	2392	2392	2376	2376	2208	2194	2181	2167	2153	2153	2140	2140	2127	2114	2101	2101	2088	2076	2076	2051	2039	2027	2015	2003	2003	1980	1980	1958	1958	1947	1947	1936	1925	1915	1904	1894	1883	1873	1863	1853	1843	1843	1833	1824	1824	1824	1814	1804	1795	1795	1777	1768	1759	1750	1741	1732	1723	1723	1715	1715	1698	1690	1681	1681	1673	1665	1665	1657	1649	1649	1641	1626	1626	1618	1611	1603	1603	1596	1589	1581	1581	1567	1560	1560	1553	1546	1539	1539	1532	1532	1525	1512	1506	1499	1492	1486	1486	1480	1480	1480	1473	1461	1461	1455	1455	1455	1455	1455	1455	1455	1461	1467	1467	1473	1480	1480	1486	1486	1486	1486	1480	1480	1480	1480	1480	1480	1486	1486	1486	1486	1486	1486	1486	1486	1486	1486	1480	1480	1480	1486	1486	1486	1486	1486	1486	1486	1480	1480	1486	1486	1486	1486	1486	1486	1486	0	0	0	0	0	0	0	0	0	0	0	0	0	0	0	0	0	0	0	0	0	0	0	0	0	0	0	0	0	0	0	0	0	0	0	0	0
0	0	0	0	0	0	0	0	0	0	0	0	0	0	0	1715	1723	1732	1741	1750	1759	1768	1768	1768	1777	1786	1786	1795	1795	1804	1804	1814	1843	1853	1863	1863	1873	1873	1873	1883	1904	1904	1925	1925	1936	1936	1947	1958	1969	1969	1969	1992	2003	2003	2015	2015	2039	2039	2051	2063	2088	2088	2101	2101	2114	2114	2114	2114	2127	2153	2167	2181	2194	2194	2223	2223	2223	2237	2252	2266	2266	2281	2297	2312	2327	2327	2343	2359	2376	2392	2409	2426	2443	2460	2478	2496	2496	2514	2532	2532	2551	2551	2570	2589	2609	2629	2649	2669	2690	2733	2754	2754	2754	2754	2777	2777	2777	2799	2845	2869	2869	2893	2917	2917	2942	2967	2993	3019	3046	3073	3101	3101	3129	3157	3186	3216	3216	3216	3246	3309	3309	3341	3406	3406	3406	3406	3406	3406	3440	3406	3406	3440	3440	3440	3440	3440	3440	3440	3440	3440	3440	3440	3440	3440	3440	3406	3406	3406	3406	3406	3406	3406	3406	3406	3406	3406	3406	3406	3406	3406	3406	3406	3406	3406	3406	3373	3373	3373	3373	3373	3373	3373	3373	3406	3406	3406	3406	3406	3406	3406	3440	3440	3440	3440	3406	3406	3406	3406	3406	3406	3406	3406	3406	3406	3406	3406	3406	3406	3406	3406	3440	3440	3406	3440	3406	3406	3406	3406	3440	3440	3440	3440	3440	3440	3440	3440	3406	3406	3406	3406	3406	3406	3406	3406	3406	3406	3406	3406	3406	3406	3406	3440	3440	3440	3440	3440	3440	3440	3440	3440	3440	3440	3440	3440	3440	3440	3440	3440	3440	3475	3440	3440	3475	3475	3475	3475	2917	2917	2917	2893	2893	2893	2893	2893	2893	2893	2893	2917	2942	2942	2967	2967	2993	2993	2993	2967	2967	2967	2967	2967	2967	2942	2967	2942	2942	2942	2942	2942	2917	2917	2893	2893	2893	2869	2845	2845	2845	3440	3440	3406	3406	3440	3406	3440	3440	3440	3440	3475	3475	3475	3475	3510	3475	3475	3475	3475	3440	3475	3475	3475	3475	3475	3475	3510	3510	3510	3510	3510	3510	3510	3510	3510	3510	3475	3475	3510	3475	3475	3475	3475	3475	3510	3510	3510	3510	3510	3510	3510	3546	3510	3510	3510	3510	3510	3546	3510	3510	3546	3546	3546	3546	3546	3510	3510	3510	3510	3510	3510	3510	3510	3510	3510	3510	3546	3546	3546	3546	3546	3546	3546	3546	3546	3546	3546	3546	3546	3546	3546	3546	3546	3546	3546	3546	3546	3546	3546	3546	3546	3546	3546	3546	3546	3546	3546	3546	3546	3546	3546	3546	3546	3546	3546	3583	3583	3583	3546	3546	3546	3546	3546	3546	3583	3546	2376	2376	2392	2392	2392	2392	2392	2376	2376	2194	2194	2181	2167	2153	2153	2140	2140	2127	2114	2101	2101	2088	2076	2076	2051	2039	2027	2015	2003	2003	1980	1980	1969	1958	1947	1947	1936	1925	1915	1904	1894	1883	1873	1863	1853	1843	1843	1833	1833	1824	1824	1814	1804	1795	1786	1777	1768	1759	1750	1741	1732	1723	1723	1715	1715	1698	1698	1681	1681	1673	1673	1665	1657	1649	1649	1641	1626	1626	1618	1611	1603	1596	1596	1589	1581	1581	1567	1560	1560	1553	1546	1539	1539	1532	1532	1525	1512	1506	1499	1492	1486	1486	1486	1480	1480	1473	1461	1461	1455	1455	1455	1455	1455	1455	1455	1461	1467	1467	1473	1473	1480	1480	1480	1480	1480	1480	1480	1480	1480	1480	1480	1480	1480	1480	1486	1486	1486	1486	1486	1486	1486	1480	1480	1480	1486	1480	1480	1486	1480	1486	1480	1480	1480	1486	1486	1486	1486	1486	1486	1486	0	0	0	0	0	0	0	0	0	0	0	0	0	0	0	0	0	0	0	0	0	0	0	0	0	0	0	0	0	0	0	0	0	0	0	0	0
0	0	0	0	0	0	0	0	0	0	0	0	0	0	0	1715	1723	1732	1741	1750	1759	1768	1768	1768	1777	1786	1786	1795	1795	1804	1804	1814	1843	1863	1863	1863	1873	1873	1873	1883	1894	1904	1925	1925	1936	1947	1947	1958	1969	1980	1992	1992	2003	2003	2015	2015	2027	2039	2051	2076	2088	2088	2101	2114	2114	2114	2114	2127	2140	2153	2153	2167	2194	2194	2208	2223	2237	2237	2252	2266	2266	2281	2297	2312	2327	2327	2343	2359	2376	2392	2409	2426	2443	2460	2478	2496	2496	2514	2532	2532	2551	2551	2570	2589	2609	2629	2649	2669	2690	2711	2733	2754	2754	2754	2754	2777	2777	2822	2845	2869	2893	2893	2893	2917	2942	2967	2993	3019	3046	3073	3101	3101	3129	3157	3186	3216	3216	3216	3246	3277	3309	3341	3373	3406	3406	3406	3406	3406	3406	3406	3406	3406	3406	3406	3440	3440	3440	3440	3440	3440	3440	3440	3440	3440	3406	3373	3373	3373	3373	3406	3406	3373	3373	3406	3406	3406	3373	3373	3406	3406	3406	3406	3406	3406	3406	3373	3373	3373	3341	3373	3373	3373	3373	3373	3406	3373	3373	3373	3373	3406	3406	3406	3440	3440	3440	3406	3373	3406	3406	3406	3406	3406	3406	3406	3406	3406	3406	3406	3406	3406	3406	3406	3406	3406	3406	3406	3406	3406	3440	3440	3440	3440	3440	3440	3440	3440	3406	3406	3406	3406	3406	3406	3406	3406	3406	3406	3406	3406	3406	3406	3406	3440	3440	3440	3440	3440	3440	3440	3440	3440	3440	3440	3440	3440	3440	3440	3440	3440	3440	3440	3440	3440	3475	3475	3475	3475	2917	2917	2917	2917	2917	2917	2893	2893	2893	2893	2893	2917	2942	2942	2942	2967	2967	2967	2967	2967	2967	2967	2967	2942	2942	2942	2942	2942	2942	2942	2942	2942	2917	2893	2893	2893	2893	2893	2845	2845	2845	3440	3440	3440	3440	3440	3406	3440	3440	3440	3440	3475	3475	3475	3475	3475	3475	3475	3440	3475	3440	3475	3475	3475	3475	3475	3475	3510	3510	3510	3510	3510	3510	3510	3510	3475	3475	3475	3475	3510	3475	3475	3475	3475	3510	3510	3510	3510	3510	3510	3510	3510	3510	3510	3510	3546	3510	3510	3546	3510	3510	3510	3546	3546	3546	3510	3510	3510	3510	3510	3475	3475	3475	3510	3510	3510	3510	3546	3546	3546	3546	3546	3546	3546	3546	3546	3546	3546	3546	3546	3546	3546	3546	3546	3546	3546	3546	3546	3546	3546	3546	3546	3546	3546	3546	3546	3546	3546	3546	3546	3546	3546	3546	3546	3546	3546	3546	3546	3546	3546	3546	3546	3546	3583	3583	3583	3583	2392	2392	2392	2392	2392	2392	2392	2376	2376	2194	2181	2181	2167	2153	2153	2140	2127	2114	2101	2101	2101	2088	2076	2076	2051	2039	2027	2015	2003	2003	1980	1980	1969	1958	1947	1947	1936	1936	1915	1904	1894	1883	1873	1863	1853	1853	1843	1833	1833	1824	1814	1814	1795	1786	1786	1768	1768	1759	1750	1741	1732	1723	1723	1715	1715	1706	1698	1690	1681	1673	1673	1665	1657	1649	1641	1634	1634	1618	1618	1611	1603	1596	1596	1589	1581	1574	1574	1560	1560	1553	1546	1539	1539	1532	1532	1525	1519	1506	1499	1492	1486	1486	1480	1480	1480	1473	1461	1461	1455	1455	1455	1455	1455	1455	1455	1461	1461	1467	1473	1480	1480	1480	1480	1480	1480	1480	1480	1480	1480	1480	1480	1480	1480	1480	1480	1486	1486	1486	1486	1486	1480	1480	1480	1480	1480	1480	1480	1480	1480	1480	1480	1480	1480	1480	1486	1486	1486	1486	1486	1486	0	0	0	0	0	0	0	0	0	0	0	0	0	0	0	0	0	0	0	0	0	0	0	0	0	0	0	0	0	0	0	0	0	0	0	0	0
0	0	0	0	0	0	0	0	0	0	0	0	0	0	0	1723	1723	1723	1732	1750	1759	1759	1759	1777	1777	1786	1786	1795	1804	1804	1804	1814	1824	1863	1863	1863	1873	1873	1873	1873	1883	1904	1925	1925	1936	1947	1947	1958	1969	1992	1992	2003	2003	2015	2015	2015	2027	2039	2051	2076	2088	2088	2101	2114	2114	2114	2114	2127	2140	2153	2153	2167	2181	2194	2208	2223	2237	2237	2266	2266	2281	2297	2312	2327	2327	2327	2343	2359	2376	2392	2409	2443	2443	2460	2478	2478	2496	2514	2514	2532	2551	2551	2570	2589	2609	2629	2649	2669	2690	2711	2733	2733	2733	2754	2754	2777	2777	2799	2822	2845	2869	2869	2893	2917	2942	2967	2993	3019	3046	3101	3129	3129	3129	3157	3186	3216	3216	3216	3246	3277	3309	3341	3406	3406	3406	3406	3406	3406	3406	3406	3406	3406	3406	3440	3440	3440	3440	3440	3440	3440	3406	3406	3406	3406	3406	3406	3406	3406	3406	3406	3406	3373	3373	3373	3373	3373	3373	3373	3406	3406	3406	3406	3406	3406	3406	3373	3373	3373	3373	3373	3373	3373	3373	3373	3373	3373	3373	3373	3373	3373	3373	3373	3406	3406	3406	3406	3406	3406	3406	3406	3406	3406	3406	3406	3406	3406	3406	3406	3406	3406	3406	3440	3406	3406	3406	3406	3406	3440	3440	3440	3440	3440	3440	3440	3440	3440	3406	3406	3406	3406	3406	3440	3440	3440	3406	3406	3406	3406	3406	3406	3406	3406	3440	3440	3440	3440	3440	3440	3440	3440	3440	3440	3440	3440	3440	3440	3440	3440	3440	3440	3440	3440	3475	3475	3475	3475	2942	2917	2917	2917	2917	2917	2917	2917	2917	2917	2893	2917	2917	2942	2967	2967	2967	2993	2993	2967	2967	2967	2967	2942	2942	2942	2942	2942	2942	2942	2917	2917	2917	2893	2893	2893	2893	2893	2845	2845	2845	3440	3440	3440	3440	3440	3440	3440	3440	3440	3440	3440	3440	3475	3475	3475	3475	3440	3440	3440	3440	3440	3475	3475	3475	3475	3475	3510	3510	3510	3475	3510	3510	3510	3510	3475	3475	3475	3475	3475	3475	3475	3475	3475	3475	3475	3475	3475	3475	3510	3510	3510	3510	3510	3510	3546	3510	3510	3546	3510	3510	3510	3510	3546	3546	3510	3510	3510	3510	3510	3475	3510	3510	3510	3510	3510	3510	3546	3546	3546	3546	3546	3546	3546	3546	3546	3546	3546	3546	3546	3546	3546	3510	3546	3546	3546	3546	3546	3546	3546	3546	3546	3546	3546	3546	3546	3546	3546	3546	3546	3546	3546	3546	3546	3546	3546	3546	3546	3546	3546	3546	3546	3546	3546	3546	3583	2392	2392	2392	2392	2392	2392	2392	2392	2392	2194	2194	2194	2181	2167	2153	2153	2140	2127	2114	2101	2101	2101	2088	2076	2076	2051	2039	2027	2015	2003	2003	1980	1980	1969	1958	1947	1947	1936	1936	1925	1904	1894	1883	1873	1873	1863	1853	1843	1833	1833	1824	1814	1804	1795	1786	1786	1768	1768	1750	1750	1741	1732	1723	1723	1715	1715	1706	1698	1690	1681	1673	1673	1665	1657	1649	1641	1634	1634	1618	1618	1618	1611	1596	1589	1589	1581	1574	1574	1560	1560	1553	1546	1539	1539	1532	1532	1525	1519	1506	1499	1492	1486	1486	1480	1480	1480	1473	1467	1461	1455	1455	1449	1449	1449	1449	1455	1455	1467	1467	1473	1473	1480	1480	1480	1480	1480	1480	1480	1480	1480	1480	1480	1480	1480	1480	1486	1486	1480	1486	1480	1480	1480	1480	1480	1480	1480	1480	1480	1480	1480	1480	1480	1480	1480	1480	1486	1486	1486	1486	1486	1486	0	0	0	0	0	0	0	0	0	0	0	0	0	0	0	0	0	0	0	0	0	0	0	0	0	0	0	0	0	0	0	0	0	0	0	0	0
0	0	0	0	0	0	0	0	0	0	0	0	0	0	0	1723	1723	1732	1732	1732	1750	1759	1768	1777	1786	1786	1795	1795	1804	1804	1804	1814	1824	1863	1863	1863	1873	1873	1873	1873	1883	1904	1925	1925	1936	1947	1947	1958	1969	1980	1992	2003	2003	2015	2015	2015	2027	2027	2051	2076	2088	2088	2088	2101	2114	2114	2127	2127	2140	2153	2153	2167	2194	2194	2208	2237	2237	2252	2266	2281	2281	2297	2312	2327	2327	2343	2359	2359	2376	2392	2409	2443	2443	2460	2478	2496	2496	2514	2532	2532	2551	2551	2570	2589	2609	2629	2649	2669	2669	2711	2733	2733	2754	2754	2777	2777	2777	2799	2822	2845	2869	2869	2893	2917	2942	2967	2967	2993	3046	3073	3101	3129	3129	3157	3186	3216	3216	3216	3246	3277	3309	3341	3406	3406	3406	3406	3406	3406	3406	3406	3406	3406	3440	3440	3440	3440	3440	3440	3440	3440	3406	3440	3440	3440	3406	3406	3406	3406	3406	3406	3406	3373	3373	3373	3406	3406	3373	3373	3406	3406	3406	3406	3406	3406	3406	3373	3406	3373	3373	3373	3373	3373	3373	3373	3373	3373	3373	3373	3373	3373	3373	3373	3373	3406	3406	3406	3406	3406	3406	3406	3406	3406	3406	3440	3440	3406	3440	3440	3406	3406	3406	3440	3406	3406	3406	3406	3406	3440	3440	3440	3440	3440	3440	3440	3406	3406	3406	3406	3406	3406	3406	3440	3440	3440	3440	3406	3406	3406	3406	3406	3406	3406	3440	3440	3440	3440	3440	3440	3440	3440	3440	3440	3440	3440	3440	3475	3440	3440	3440	3475	3475	3475	3475	3475	3510	2942	2917	2917	2917	2917	2917	2917	2917	2917	2917	2917	2893	2917	2917	2942	2942	2967	2967	2993	2993	2993	2993	2993	2967	2942	2942	2942	2942	2942	2942	2942	2942	2917	2917	2893	2893	2893	2893	2893	2869	2845	2845	3440	3440	3440	3440	3440	3440	3440	3440	3440	3440	3440	3440	3475	3475	3475	3475	3440	3440	3440	3440	3440	3440	3475	3475	3475	3475	3475	3510	3475	3475	3510	3510	3510	3510	3510	3510	3475	3475	3510	3475	3475	3475	3475	3510	3510	3510	3510	3510	3510	3510	3510	3510	3510	3510	3546	3546	3546	3546	3546	3510	3546	3510	3510	3510	3510	3510	3510	3510	3510	3510	3510	3510	3510	3510	3510	3510	3510	3546	3546	3546	3546	3546	3546	3546	3546	3546	3546	3546	3546	3546	3546	3546	3546	3546	3546	3546	3546	3546	3546	3546	3546	3546	3546	3546	3546	3546	3546	3546	3546	3546	3546	3546	3546	3546	3546	3546	3546	3546	3546	3546	3546	3546	3546	3546	3546	2392	2392	2392	2392	2392	2392	2392	2392	2392	2194	2194	2194	2194	2181	2153	2153	2140	2127	2114	2101	2101	2088	2088	2076	2063	2051	2039	2027	2015	2003	2003	1992	1980	1969	1958	1958	1947	1936	1936	1915	1915	1894	1894	1883	1873	1863	1853	1843	1843	1833	1824	1814	1804	1795	1786	1786	1777	1768	1750	1750	1741	1732	1723	1723	1715	1715	1706	1698	1690	1681	1673	1673	1665	1657	1649	1641	1634	1634	1626	1618	1618	1611	1596	1589	1589	1581	1574	1574	1560	1560	1553	1546	1539	1539	1532	1532	1525	1519	1506	1499	1492	1486	1486	1480	1480	1480	1473	1461	1455	1455	1455	1449	1449	1449	1449	1455	1455	1467	1467	1473	1473	1480	1480	1480	1480	1480	1480	1480	1480	1480	1480	1480	1480	1480	1480	1486	1486	1486	1486	1480	1480	1480	1480	1480	1480	1480	1480	1480	1480	1480	1480	1480	1480	1480	1480	1486	1486	1486	1486	1492	1492	0	0	0	0	0	0	0	0	0	0	0	0	0	0	0	0	0	0	0	0	0	0	0	0	0	0	0	0	0	0	0	0	0	0	0	0	0
0	0	0	0	0	0	0	0	0	0	0	0	0	0	0	1723	1723	1732	1732	1732	1750	1759	1768	1777	1786	1786	1795	1795	1795	1804	1804	1804	1814	1863	1863	1863	1873	1873	1883	1883	1894	1904	1925	1925	1936	1947	1947	1958	1958	1969	1992	1992	2003	2003	2015	2027	2027	2039	2051	2076	2076	2088	2101	2114	2114	2127	2127	2140	2153	2153	2153	2181	2194	2208	2208	2237	2237	2237	2266	2281	2281	2297	2327	2327	2343	2343	2359	2359	2376	2392	2409	2426	2443	2460	2478	2496	2496	2514	2532	2532	2551	2551	2570	2609	2609	2629	2649	2669	2690	2711	2733	2733	2754	2777	2777	2799	2799	2799	2822	2845	2869	2893	2917	2942	2942	2967	2967	2993	3046	3101	3129	3129	3129	3157	3216	3216	3246	3246	3277	3309	3309	3341	3406	3406	3406	3406	3406	3406	3406	3406	3406	3406	3440	3440	3440	3440	3440	3440	3440	3406	3406	3406	3440	3440	3406	3373	3373	3406	3406	3373	3373	3373	3373	3373	3406	3406	3373	3373	3406	3406	3406	3406	3406	3406	3406	3406	3406	3373	3373	3373	3373	3373	3373	3373	3373	3341	3341	3341	3341	3373	3373	3373	3406	3406	3406	3406	3373	3406	3406	3406	3406	3406	3406	3440	3440	3406	3440	3440	3406	3406	3406	3440	3406	3406	3406	3406	3406	3406	3406	3440	3440	3440	3440	3440	3406	3406	3406	3406	3406	3406	3406	3440	3440	3440	3406	3406	3406	3406	3440	3406	3406	3440	3440	3440	3440	3440	3440	3440	3440	3440	3440	3440	3440	3440	3440	3440	3440	3440	3440	3440	3475	3475	3475	3475	2893	2917	2917	2942	2917	2917	2917	2917	2917	2917	2917	2893	2893	2917	2917	2942	2942	2967	2967	2967	2967	2967	2967	2967	2942	2942	2942	2942	2942	2942	2917	2917	2917	2917	2917	2893	2893	2893	2893	2893	2869	2845	2845	3440	3440	3440	3440	3440	3440	3440	3440	3440	3440	3475	3440	3475	3440	3440	3475	3440	3440	3440	3440	3440	3475	3475	3475	3475	3475	3475	3475	3475	3475	3475	3510	3510	3510	3510	3510	3510	3510	3510	3510	3475	3510	3475	3475	3510	3510	3510	3510	3510	3510	3510	3510	3510	3510	3510	3510	3546	3546	3546	3546	3546	3510	3510	3510	3510	3510	3510	3510	3510	3510	3510	3510	3510	3510	3510	3510	3510	3546	3546	3546	3546	3546	3546	3546	3546	3546	3546	3546	3546	3546	3546	3546	3546	3546	3546	3546	3546	3546	3546	3546	3546	3546	3546	3546	3546	3546	3546	3546	3546	3546	3546	3546	3546	3546	3546	3546	3546	3546	3546	3546	3546	3546	3546	3546	3546	2392	2392	2409	2392	2392	2392	2392	2392	2392	2208	2194	2194	2181	2181	2153	2153	2140	2127	2114	2114	2101	2088	2076	2076	2063	2051	2039	2027	2015	2003	2003	1980	1980	1958	1958	1947	1947	1936	1925	1915	1915	1894	1894	1883	1873	1863	1853	1843	1833	1833	1824	1814	1804	1795	1786	1786	1777	1768	1759	1750	1741	1732	1723	1723	1715	1715	1706	1698	1690	1681	1673	1673	1665	1657	1649	1641	1634	1634	1618	1618	1618	1611	1603	1596	1589	1574	1574	1567	1560	1560	1553	1546	1539	1539	1532	1532	1525	1519	1506	1499	1492	1486	1486	1480	1480	1480	1473	1461	1461	1455	1449	1449	1449	1449	1449	1449	1455	1467	1467	1473	1480	1480	1480	1480	1480	1480	1480	1480	1480	1480	1480	1480	1480	1480	1480	1480	1486	1480	1480	1480	1480	1480	1480	1480	1480	1480	1480	1480	1480	1480	1480	1480	1480	1480	1480	1486	1486	1486	1486	1492	1492	0	0	0	0	0	0	0	0	0	0	0	0	0	0	0	0	0	0	0	0	0	0	0	0	0	0	0	0	0	0	0	0	0	0	0	0	0
0	0	0	0	0	0	0	0	0	0	0	0	0	0	0	1732	1732	1732	1732	1732	1750	1759	1768	1777	1786	1786	1795	1795	1795	1804	1804	1804	1824	1833	1843	1863	1873	1873	1883	1883	1894	1904	1915	1925	1936	1936	1947	1958	1958	1969	1992	2003	2003	2015	2015	2027	2027	2039	2051	2063	2063	2076	2101	2114	2127	2127	2140	2153	2153	2153	2167	2181	2194	2208	2223	2237	2237	2252	2266	2266	2281	2297	2312	2343	2343	2343	2359	2376	2376	2392	2392	2426	2460	2460	2478	2496	2496	2514	2532	2532	2532	2551	2551	2589	2629	2649	2649	2669	2690	2711	2733	2733	2733	2777	2777	2799	2799	2799	2822	2845	2869	2869	2917	2942	2942	2967	2967	2993	3073	3129	3157	3157	3157	3157	3186	3216	3246	3246	3277	3309	3309	3341	3406	3406	3406	3406	3406	3406	3406	3406	3406	3406	3406	3440	3440	3406	3440	3406	3406	3406	3406	3406	3406	3440	3406	3406	3406	3406	3406	3373	3373	3373	3373	3373	3406	3406	3406	3406	3440	3440	3440	3440	3440	3406	3406	3406	3373	3373	3373	3373	3373	3373	3373	3373	3373	3341	3341	3341	3373	3373	3373	3373	3406	3406	3406	3373	3373	3373	3373	3406	3406	3406	3406	3406	3440	3406	3406	3406	3406	3406	3406	3406	3406	3406	3406	3406	3406	3406	3406	3406	3406	3406	3406	3406	3406	3406	3406	3406	3406	3406	3440	3440	3440	3440	3440	3440	3440	3440	3440	3440	3440	3440	3440	3440	3440	3440	3440	3440	3440	3440	3440	3440	3440	3440	3440	3440	3440	3440	3440	3440	3475	3475	3475	2893	2917	2917	2917	2917	2917	2917	2917	2917	2917	2917	2917	2917	2917	2917	2917	2942	2942	2942	2942	2942	2967	2967	2967	2967	2942	2942	2942	2942	2942	2942	2917	2917	2917	2917	2893	2893	2893	2893	2893	2893	2845	2845	2845	3440	3440	3440	3440	3440	3440	3440	3440	3440	3440	3440	3440	3475	3440	3440	3475	3475	3440	3440	3440	3440	3475	3475	3475	3475	3475	3475	3475	3475	3475	3475	3475	3510	3510	3510	3510	3510	3510	3510	3510	3510	3510	3475	3510	3510	3510	3510	3510	3510	3475	3475	3510	3510	3510	3546	3510	3546	3546	3546	3510	3510	3510	3510	3510	3510	3510	3510	3510	3546	3510	3546	3546	3510	3510	3510	3510	3510	3546	3546	3546	3546	3546	3546	3546	3546	3546	3546	3546	3546	3546	3546	3546	3546	3546	3546	3546	3546	3546	3546	3546	3510	3510	3546	3546	3546	3546	3546	3546	3546	3546	3546	3546	3583	3546	3546	3546	3546	3546	3546	3546	3510	3546	3546	3510	3546	2409	2409	2409	2392	2392	2392	2392	2376	2392	2208	2194	2194	2194	2181	2167	2153	2140	2140	2114	2114	2101	2088	2088	2076	2063	2051	2039	2039	2027	2015	2003	2003	1980	1958	1958	1947	1947	1936	1925	1915	1915	1894	1883	1883	1873	1863	1863	1843	1843	1833	1824	1804	1804	1795	1786	1786	1768	1768	1759	1750	1741	1732	1723	1723	1715	1715	1706	1706	1698	1681	1673	1665	1665	1657	1649	1641	1634	1634	1626	1618	1618	1611	1596	1589	1589	1574	1574	1567	1560	1553	1553	1546	1539	1532	1532	1532	1525	1519	1506	1499	1492	1492	1486	1486	1480	1480	1467	1461	1455	1455	1449	1449	1449	1449	1449	1449	1455	1467	1467	1473	1480	1480	1480	1480	1480	1473	1480	1480	1480	1480	1480	1480	1480	1480	1480	1480	1486	1486	1486	1480	1480	1480	1486	1480	1480	1480	1480	1480	1480	1480	1480	1480	1480	1480	1480	1486	1486	1486	1486	1486	1486	0	0	0	0	0	0	0	0	0	0	0	0	0	0	0	0	0	0	0	0	0	0	0	0	0	0	0	0	0	0	0	0	0	0	0	0	0
0	0	0	0	0	0	0	0	0	0	0	0	0	0	0	1732	1732	1732	1732	1732	1750	1759	1768	1777	1786	1795	1795	1795	1804	1804	1804	1804	1824	1833	1843	1843	1873	1873	1883	1883	1904	1915	1925	1925	1936	1947	1947	1958	1958	1969	1992	1992	2003	2003	2027	2039	2039	2051	2051	2063	2076	2076	2101	2114	2127	2140	2140	2153	2153	2153	2167	2181	2194	2208	2223	2237	2237	2252	2266	2281	2281	2297	2312	2327	2343	2343	2359	2376	2376	2392	2409	2443	2460	2478	2478	2496	2496	2514	2514	2532	2551	2551	2570	2589	2629	2649	2649	2669	2690	2711	2711	2733	2733	2777	2777	2799	2799	2799	2822	2845	2845	2869	2917	2942	2942	2967	2967	2993	3046	3101	3157	3157	3157	3186	3216	3216	3216	3246	3277	3277	3309	3341	3406	3373	3406	3406	3406	3373	3406	3406	3406	3406	3406	3406	3406	3406	3406	3406	3406	3406	3406	3406	3406	3440	3406	3406	3406	3406	3406	3373	3373	3373	3373	3373	3373	3373	3373	3373	3406	3440	3440	3440	3406	3406	3406	3373	3373	3373	3373	3373	3373	3373	3373	3373	3373	3341	3341	3341	3341	3373	3373	3373	3373	3373	3406	3373	3373	3373	3373	3373	3406	3406	3373	3406	3406	3406	3406	3406	3406	3406	3406	3406	3406	3440	3406	3406	3406	3406	3406	3406	3406	3406	3440	3406	3406	3406	3406	3406	3406	3440	3440	3440	3440	3440	3440	3440	3440	3440	3440	3440	3440	3440	3440	3440	3440	3440	3440	3440	3440	3440	3440	3440	3440	3440	3440	3440	3440	3440	3440	3475	3475	2967	2967	2893	2917	2917	2917	2917	2917	2893	2917	2917	2917	2917	2917	2893	2893	2917	2917	2942	2942	2942	2942	2942	2967	2967	2967	2967	2967	2967	2942	2942	2942	2917	2917	2917	2893	2893	2893	2893	2893	2893	2893	2893	2869	2845	2845	3475	3440	3440	3440	3440	3440	3440	3440	3440	3440	3440	3440	3475	3440	3440	3475	3475	3440	3440	3440	3440	3475	3475	3440	3440	3440	3440	3475	3475	3475	3475	3475	3475	3510	3510	3510	3510	3510	3510	3510	3510	3510	3510	3510	3510	3510	3510	3510	3510	3475	3475	3510	3510	3510	3510	3510	3510	3510	3510	3510	3510	3510	3475	3475	3510	3510	3510	3510	3546	3546	3546	3546	3510	3510	3510	3510	3510	3546	3546	3546	3546	3546	3546	3546	3546	3546	3546	3546	3546	3546	3546	3546	3546	3546	3546	3546	3546	3546	3546	3546	3546	3510	3546	3546	3546	3546	3546	3546	3546	3546	3546	3546	3546	3546	3546	3546	3546	3546	3546	3546	3510	3546	3546	3546	3583	2409	2409	2409	2392	2392	2392	2376	2376	2376	2194	2194	2194	2181	2181	2153	2140	2140	2127	2114	2114	2101	2088	2088	2063	2051	2039	2039	2039	2027	2015	2003	1992	1980	1958	1958	1947	1947	1936	1925	1915	1915	1894	1894	1883	1873	1863	1863	1843	1843	1833	1814	1804	1804	1795	1786	1777	1768	1768	1759	1741	1741	1732	1723	1723	1715	1715	1706	1698	1690	1681	1681	1673	1665	1657	1649	1641	1634	1626	1618	1618	1618	1611	1603	1596	1589	1574	1574	1567	1560	1560	1553	1546	1539	1539	1532	1532	1525	1519	1512	1492	1492	1486	1486	1480	1480	1473	1467	1461	1455	1455	1449	1449	1449	1449	1449	1449	1455	1461	1467	1473	1473	1480	1480	1480	1480	1473	1480	1480	1480	1480	1480	1480	1480	1480	1480	1480	1480	1480	1486	1480	1486	1480	1486	1480	1480	1486	1480	1486	1486	1480	1480	1480	1480	1480	1480	1486	1486	1486	1486	1486	1486	0	0	0	0	0	0	0	0	0	0	0	0	0	0	0	0	0	0	0	0	0	0	0	0	0	0	0	0	0	0	0	0	0	0	0	0	0
0	0	0	0	0	0	0	0	0	0	0	0	0	0	0	1732	1732	1732	1732	1741	1759	1768	1768	1777	1786	1795	1795	1795	1804	1804	1814	1804	1824	1833	1843	1843	1873	1883	1883	1894	1915	1925	1925	1925	1936	1947	1947	1947	1958	1958	1992	1992	2003	2015	2027	2027	2039	2051	2063	2063	2063	2076	2088	2114	2127	2140	2140	2153	2153	2167	2167	2181	2194	2194	2208	2223	2237	2252	2266	2281	2281	2312	2327	2343	2343	2359	2359	2376	2376	2392	2409	2426	2443	2460	2460	2478	2496	2514	2532	2532	2551	2570	2570	2589	2629	2649	2669	2669	2690	2711	2711	2733	2733	2777	2777	2799	2799	2799	2845	2845	2869	2893	2942	2967	2967	2967	2993	2993	3019	3073	3129	3129	3129	3157	3186	3216	3216	3246	3246	3309	3309	3406	3406	3406	3406	3406	3373	3373	3373	3406	3406	3373	3406	3406	3406	3373	3373	3373	3373	3373	3373	3373	3373	3406	3406	3406	3406	3406	3406	3373	3373	3373	3373	3373	3373	3373	3373	3373	3406	3440	3440	3440	3440	3406	3406	3373	3373	3373	3373	3373	3373	3373	3373	3373	3373	3373	3373	3341	3373	3373	3373	3373	3373	3373	3373	3373	3373	3373	3373	3373	3406	3373	3373	3406	3406	3373	3406	3406	3406	3406	3406	3406	3440	3440	3440	3406	3406	3406	3440	3406	3406	3406	3406	3406	3373	3406	3406	3406	3406	3440	3440	3440	3440	3440	3440	3440	3440	3440	3440	3440	3440	3440	3440	3440	3440	3440	3440	3440	3440	3440	3440	3440	3440	3440	3440	3440	3440	3440	3440	3475	2967	2967	2967	2917	2917	2917	2917	2917	2917	2893	2917	2917	2917	2917	2917	2893	2917	2942	2917	2942	2942	2942	2942	2942	2942	2967	2967	2967	2942	2942	2942	2942	2942	2917	2917	2893	2893	2893	2893	2893	2893	2893	2893	2893	2845	2845	2845	2845	3475	3440	3440	3440	3440	3440	3440	3440	3440	3440	3440	3440	3440	3440	3440	3440	3440	3440	3440	3440	3440	3440	3440	3440	3440	3440	3475	3475	3475	3475	3475	3475	3510	3475	3510	3510	3510	3510	3510	3510	3546	3510	3510	3510	3510	3510	3510	3510	3475	3475	3510	3510	3510	3510	3510	3510	3510	3510	3510	3510	3475	3475	3475	3475	3510	3510	3510	3510	3510	3546	3546	3546	3546	3510	3546	3546	3546	3546	3546	3546	3546	3546	3546	3546	3546	3546	3546	3546	3546	3546	3546	3546	3546	3546	3546	3546	3546	3546	3546	3546	3510	3546	3546	3546	3546	3546	3546	3546	3546	3546	3546	3546	3546	3546	3546	3546	3546	3546	3546	3510	3546	3546	3546	3583	2409	2409	2409	2392	2392	2392	2376	2376	2376	2359	2208	2194	2194	2181	2153	2140	2140	2127	2114	2114	2101	2101	2088	2076	2051	2039	2039	2039	2015	2015	2003	1992	1969	1958	1958	1947	1947	1936	1925	1915	1915	1904	1894	1883	1873	1863	1863	1843	1833	1833	1814	1804	1804	1795	1786	1786	1777	1768	1759	1750	1741	1732	1723	1723	1715	1706	1706	1698	1690	1681	1673	1665	1665	1657	1641	1641	1634	1626	1626	1618	1611	1611	1603	1596	1589	1581	1574	1574	1567	1560	1553	1546	1539	1532	1532	1525	1519	1512	1512	1492	1492	1486	1486	1480	1480	1473	1467	1461	1455	1455	1455	1449	1449	1449	1449	1455	1455	1461	1461	1473	1473	1480	1480	1480	1480	1473	1480	1480	1480	1480	1480	1480	1480	1480	1480	1480	1480	1480	1480	1480	1480	1480	1480	1480	1480	1480	1480	1480	1480	1480	1480	1480	1480	1480	1480	1480	1486	1486	1486	1480	1480	0	0	0	0	0	0	0	0	0	0	0	0	0	0	0	0	0	0	0	0	0	0	0	0	0	0	0	0	0	0	0	0	0	0	0	0	0
