0	0	0	0	770	770	770	0	0	0	0	0	0	0	0	0	804	808	808	808	810	812	815	815	819	821	825	827	827	831	841	841	843	843	845	848	848	856	860	862	862	869	871	873	880	884	884	887	891	894	894	905	905	908	910	917	917	935	935	937	940	945	945	948	950	953	953	963	966	969	974	977	983	983	991	997	1000	1006	1011	1014	1017	1020	1026	1026	1030	1030	1033	1036	1039	1039	1039	0	0	0	0	0	0	0	0	0	4771	4706	4706	4706	4643	4706	4706	4706	4581	4643	4643	4643	4643	4643	4643	4643	4643	4643	4643	4643	4643	4643	4643	4643	4643	4643	4706	4643	4643	4643	4643	4643	4643	4643	4643	4643	4643	4643	4643	4643	4643	4643	4643	4643	4643	4643	4643	4581	4581	4581	4581	4581	4581	4581	4643	4706	4771	4906	4977	5050	5125	5125	5125	5125	5125	5125	5125	5125	5125	5125	5125	5125	5125	5050	5050	5050	5050	5050	5050	5050	5125	5125	5125	5125	5125	5125	5125	5125	5125	5050	5125	5125	5125	5125	5125	0	0	0	0	0	0	0	0	0	0	0	0	0	0	0	0	0	0	0	0	0	0	0	0	0	0	0	0	0	0	0	0	0	0	0	0	0	7959	7959	7959	7779	7779	7779	7779	7779	7779	7779	7779	7779	7608	7608	7608	7608	7608	7608	7779	7959	7959	7779	7779	7959	7959	7779	7779	7779	0	0	0	0	0	0	0	0	0	0	0	0	0	0	5202	5202	5202	5125	5125	0	0	0	0	0	0	0	3738	3698	3698	3698	3698	3698	3698	3698	3659	3659	3659	3659	3659	3659	3698	3698	3698	3698	3738	3738	3779	3779	3779	3779	0	0	0	0	3698	3698	3738	3738	3738	3738	3738	3698	3698	3738	3698	3698	3698	3698	3698	3659	3659	3659	3659	3698	3698	4581	4581	4581	4581	4581	4581	4581	4581	4581	4581	4581	4581	4581	4581	4581	4581	4581	4581	4581	4521	4521	4463	4463	4296	4243	4243	4296	4350	4406	4521	4521	4521	4521	4521	4521	4521	4521	4521	4521	4521	4521	4521	4521	4581	4581	4581	4581	4581	4581	4581	4581	4581	4581	4581	4643	4581	4581	4581	4581	4581	4581	4581	4581	4581	4581	4581	4581	4581	4581	4581	4581	4581	4581	4581	4581	4581	4581	4581	4581	4581	4581	4581	4581	4581	4581	4643	4643	4581	4581	4581	4581	4581	4521	4463	4463	4406	4406	4406	4406	4406	4521	4521	4581	4581	4581	4581	4521	4521	4521	4521	4581	4581	4581	4581	4581	4581	4581	4581	4521	4521	4521	4521	4521	4521	4521	4521	4521	4581	4581	4581	4581	4521	4521	4521	4521	4521	4521	4521	4521	4521	4463	4463	4463	4463	4463	4463	4463	4463	4463	4521	4521	4521	4581	4581	4581	4521	4521	4521	4463	4463	4463	4463	4463	4406	4406	4406	4406	4350	4296	4296	4350	4406	4406	4463	4521	4581	4581	4581	4581	4581	4643	4643	4706	0	0	0	0	0	0	0	0	0	0	0	0	0	0	0	0	0	0	0	0	0	0	0	0	0	0	0	0	0	0	0	0	0	0	0	0	0	0	0	0	5719	5719	5815	5815	0	0	0	0	0	0	0	0	0	5915	5915	5815	5915	6018	6018	5915	5915	5915	5915	5915	5915	5915	5915	5915	5915	5915	5915	0	0	0	0	0	0	0	0	0	0	0	0	0	0	0	0	0	0	0	0	0	0	0	0	0	0	0	0	0	0	0	0	0	0	0	0	0	0	0	0	0	0	0	0	0	0	0	0	0	0	0
0	0	0	0	0	0	0	0	0	0	0	0	0	0	0	802	804	806	808	808	808	812	814	815	817	823	825	827	827	831	833	835	835	843	845	848	850	858	860	860	862	869	869	875	880	880	884	884	891	894	894	905	908	910	913	915	915	935	940	937	940	940	940	948	950	953	958	963	966	969	974	980	983	988	991	994	1000	1006	1011	1014	1017	1020	1023	1026	1026	1030	1033	1036	1039	1039	1039	1039	0	0	0	0	0	0	0	0	4771	4706	4706	4643	4643	4706	4643	4643	4581	4581	4643	4643	4643	4643	4643	4643	4706	4643	4643	4643	4643	4643	4643	4643	4581	4581	4643	4643	4643	4643	4643	4643	4643	4643	4643	4643	4643	4643	4643	4643	4643	4643	4643	4643	4643	4643	4643	4581	4581	4581	4581	4581	4581	4643	4643	4706	4771	4906	4906	4977	5050	5050	5125	5125	5125	5125	5125	5125	5125	5125	5125	5125	5125	5050	5050	5050	5050	5050	5050	5050	5125	5050	5125	5125	5125	5125	5125	5125	5125	5050	5125	5125	5202	5125	5202	5202	0	0	0	0	0	0	0	0	0	0	0	0	0	0	0	0	0	0	0	0	0	0	0	0	0	0	0	0	0	0	0	0	0	0	0	0	7959	7779	7779	7779	7608	7608	7608	7779	7779	7779	7779	7779	7608	7608	7608	7608	7608	7608	7608	7779	7779	7779	7779	7959	7779	7779	7779	7779	8550	8550	8550	0	0	0	0	0	0	0	0	0	0	5202	5282	5202	5202	5125	5125	0	0	0	0	0	0	0	0	3659	3698	3698	3659	3659	3698	3698	3659	3659	3659	3659	3659	3659	3659	3698	3698	3698	3738	3738	3738	3779	3779	3779	0	0	0	0	3698	3698	3738	3738	3738	3738	3738	3738	3698	3698	3698	3659	3659	3698	3698	3698	3698	3698	3698	3698	4581	4581	4581	4581	4581	4581	4581	4581	4581	4581	4581	4581	4581	4581	4581	4521	4521	4521	4521	4521	4521	4521	4463	4463	4296	4296	4296	4296	4406	4463	4521	4521	4521	4521	4521	4521	4521	4521	4521	4521	4521	4521	4521	4521	4521	4581	4581	4581	4581	4581	4581	4581	4581	4581	4581	4581	4581	4581	4581	4581	4581	4581	4581	4581	4581	4581	4581	4581	4581	4581	4581	4581	4581	4581	4581	4581	4581	4581	4581	4581	4581	4581	4581	4581	4581	4581	4581	4581	4581	4581	4581	4581	4521	4521	4463	4406	4406	4406	4350	4406	4406	4463	4521	4521	4581	4581	4521	4521	4521	4463	4521	4581	4581	4581	4581	4581	4581	4581	4581	4521	4521	4521	4521	4521	4581	4521	4521	4521	4581	4581	4581	4581	4521	4521	4521	4521	4521	4521	4521	4521	4463	4463	4463	4463	4463	4463	4463	4463	4463	4463	4463	4521	4521	4581	4581	4521	4581	4521	4521	4463	4463	4463	4463	4463	4463	4406	4406	4350	4350	4296	4296	4350	4406	4406	4463	4521	4581	4581	4581	4581	4581	4581	4581	0	0	0	0	0	0	0	0	0	0	0	0	0	0	0	0	0	0	0	0	0	0	0	0	0	0	0	0	0	0	0	0	0	0	0	0	0	0	0	0	0	5815	5815	0	0	0	0	0	0	0	0	0	0	0	0	5915	5815	5915	6018	5915	5915	5915	5815	5815	5815	5915	0	0	0	0	0	0	0	0	0	0	0	0	0	0	0	0	0	0	0	0	0	0	0	0	0	0	0	0	0	0	0	0	0	0	0	0	0	0	0	0	0	0	0	0	0	0	0	0	0	0	0	0	0	0	0	0	0
0	0	0	0	0	0	0	0	0	780	782	782	0	0	0	802	804	806	808	810	810	812	814	815	819	823	825	827	829	831	833	835	835	843	845	848	850	858	860	860	862	867	867	873	878	878	884	887	889	894	894	908	908	910	913	913	920	920	940	937	940	940	940	948	950	953	958	963	966	969	974	977	980	983	988	991	991	1000	1006	1011	1017	1020	1023	1026	1026	1030	1033	1033	1039	1039	1042	1042	0	0	0	0	0	0	0	0	0	4643	4643	4643	4643	4643	4643	4643	4581	4581	4643	4643	4643	4643	4643	4643	4643	4643	4643	4581	4581	4581	4581	4581	4581	4581	4643	4643	4643	4643	4643	4643	4643	4643	4643	4643	4643	4643	4643	4643	4643	4643	4643	4643	4643	4643	4643	4643	4643	4581	4581	4581	4581	4643	4643	4706	4771	4838	4906	4977	5050	5050	5050	5125	5125	5125	5125	5125	5125	5125	5125	5125	5125	5050	5050	5050	5050	5050	5125	5125	5125	5125	5125	5125	5125	5125	5125	5125	5125	5050	5202	5202	5202	5125	5125	5125	0	0	0	0	0	0	0	0	0	0	0	0	0	0	0	0	0	0	0	0	0	0	0	0	0	0	0	0	0	0	0	0	0	0	0	0	7959	7779	7779	7779	7608	7608	7608	7779	7779	7779	7779	7779	7608	7608	7608	7608	7608	7608	7608	7779	7779	7779	7779	7959	7779	7779	7779	7779	8550	8550	8550	0	0	0	0	0	0	0	0	0	5282	5282	5282	5282	5282	5202	5202	0	0	0	0	0	0	0	0	3659	3698	3659	3659	3659	3659	3698	3698	3698	3659	3659	3698	3659	3698	3698	3698	3738	3738	3738	3738	3779	3779	3779	0	0	0	3738	3738	3738	3738	3738	3738	3738	3738	3738	3698	3698	3659	3659	3659	3698	3659	3698	3698	3698	3698	3738	4581	4581	4581	4581	4581	4581	4581	4581	4581	4581	4581	4581	4581	4581	4581	4581	4581	4521	4581	4521	4521	4521	4463	4463	4350	4350	4350	4350	4463	4463	4521	4521	4521	4521	4521	4521	4521	4521	4521	4521	4521	4521	4521	4521	4521	4521	4581	4581	4581	4643	4581	4643	4643	4581	4643	4643	4581	4581	4581	4581	4643	4581	4581	4581	4581	4643	4581	4581	4581	4581	4581	4581	4581	4581	4643	4581	4581	4581	4581	4581	4581	4581	4581	4581	4581	4581	4581	4581	4581	4581	4581	4581	4521	4521	4463	4463	4406	4406	4350	4406	4406	4463	4521	4521	4581	4581	4521	4521	4521	4463	4521	4581	4581	4581	4581	4581	4581	4521	4581	4581	4581	4521	4521	4521	4581	4581	4521	4521	4581	4581	4581	4581	4581	4581	4581	4521	4521	4463	4463	4463	4463	4463	4463	4463	4463	4463	4463	4463	4463	4463	4463	4463	4463	4521	4521	4581	4581	4581	4521	4581	4521	4521	4463	4463	4463	4463	4463	4406	4406	4350	4350	4350	4406	4406	4463	4521	4581	4581	4581	4581	4521	4521	4581	0	0	0	0	0	0	0	0	0	0	0	0	0	0	0	0	0	0	0	0	0	0	0	0	0	0	0	0	0	0	0	0	0	0	0	0	0	0	0	0	0	5815	5815	0	0	0	0	0	0	0	0	0	0	0	0	5915	5815	5915	5915	5915	5915	5815	5815	5815	5815	0	0	0	0	0	0	0	0	0	0	0	0	0	0	0	0	0	0	0	0	0	0	0	0	0	0	0	0	0	0	0	0	0	0	0	0	0	0	0	0	0	0	0	0	0	0	0	0	0	0	0	0	0	0	0	0	0	0
0	0	0	0	0	0	0	0	0	780	784	784	784	0	802	802	802	806	808	808	808	810	814	817	821	823	827	827	829	831	831	833	835	843	845	848	852	858	858	860	862	865	869	869	878	882	884	887	889	891	891	905	908	910	913	913	917	917	945	940	940	942	942	948	950	955	961	963	966	969	974	980	980	983	988	991	997	997	1006	1014	1017	1020	1023	1023	1026	1026	1033	1033	1039	1039	1042	1042	1042	0	0	0	0	0	0	0	0	4643	4643	4643	4643	4643	4643	4706	4643	4643	4643	4643	4643	4706	4643	4643	4643	4643	4581	4581	4581	4581	4581	4581	4581	4581	4643	4643	4643	4643	4643	4643	4581	4643	4643	4643	4643	4643	4643	4643	4581	4581	4643	4643	4643	4643	4643	4643	4643	4643	4581	4581	4581	4643	4643	4706	4706	4838	4906	4906	5050	5050	5125	5125	5125	5125	5125	5125	5125	5125	5125	5125	5125	5125	5125	5125	5050	5125	5125	5125	5125	5125	5125	5125	5125	5125	5125	5125	5125	5125	5202	5202	5202	5125	5202	5202	5202	0	0	0	0	0	0	0	0	0	0	0	0	0	0	0	0	0	0	0	0	0	0	0	0	0	0	0	0	0	0	0	0	0	0	0	7959	7779	7779	7779	7608	7608	7608	7608	7608	7779	7779	7608	7608	7608	7608	7608	7608	7608	7608	7779	7779	7779	7779	7959	7779	7779	7779	7779	7779	8550	0	0	0	0	0	0	0	0	0	0	5282	5282	5282	5282	5282	5202	5202	0	0	0	0	0	0	0	0	3698	3698	3698	3698	3698	3698	3698	3698	3698	3698	3698	3698	3698	3698	3698	3698	3738	3738	3738	3779	3779	3779	3779	0	0	0	3738	3738	3738	3779	3779	3779	3738	3738	3738	3698	3698	3659	3659	3698	3698	3698	3738	3738	3738	3738	3738	4643	4581	4581	4581	4581	4581	4581	4581	4581	4581	4581	4581	4581	4581	4581	4521	4521	4521	4581	4521	4521	4521	4463	4463	4463	4296	4296	4296	4406	4406	4463	4521	4521	4521	4521	4521	4521	4521	4521	4521	4521	4521	4521	4521	4521	4521	4581	4581	4581	4643	4581	4643	4643	4643	4643	4643	4581	4581	4581	4581	4643	4581	4581	4581	4643	4643	4581	4581	4581	4581	4581	4643	4643	4643	4643	4643	4581	4581	4581	4581	4581	4581	4581	4581	4581	4581	4581	4581	4581	4581	4581	4581	4463	4463	4463	4406	4350	4350	4350	4350	4406	4463	4521	4521	4581	4521	4521	4521	4521	4521	4521	4581	4581	4581	4581	4581	4581	4581	4581	4581	4581	4521	4521	4521	4581	4521	4521	4521	4581	4581	4643	4581	4581	4581	4581	4581	4521	4463	4521	4463	4463	4463	4463	4463	4463	4463	4463	4463	4463	4463	4463	4463	4463	4521	4521	4581	4581	4581	4521	4521	4521	4521	4463	4463	4463	4406	4463	4406	4406	4350	4350	4406	4406	4463	4463	4581	4581	4581	4643	4643	4581	4581	0	0	0	0	0	0	0	0	0	0	0	0	0	0	0	0	0	0	0	0	0	0	0	0	0	0	0	0	0	0	0	0	0	0	0	0	0	0	0	0	0	0	0	0	0	0	0	0	0	0	0	0	0	0	0	0	0	0	5915	5915	5915	5815	5815	5815	5815	0	0	0	0	0	0	0	0	0	0	0	0	0	0	0	0	0	0	0	0	0	0	0	0	0	0	0	0	0	0	0	0	0	0	0	0	0	0	0	0	0	0	0	0	0	0	0	0	0	0	0	0	0	0	0	0	0	0	0
0	0	0	0	0	0	0	0	0	0	786	786	786	804	802	802	804	806	808	808	808	810	810	819	821	823	825	825	829	831	833	835	837	837	845	850	854	854	862	862	865	869	871	875	878	880	882	887	889	891	891	905	908	910	915	915	917	917	945	942	940	945	948	950	950	955	961	963	966	969	977	980	983	985	991	991	997	997	1008	1014	1017	1017	1023	1026	1026	1026	1033	1033	1033	1036	1039	1045	1045	0	0	0	0	0	0	0	0	0	4706	4643	4643	4643	4706	4771	4706	4706	4706	4706	4706	4706	4643	4643	4643	4643	4643	4581	4581	4581	4581	4581	4581	4581	4643	4643	4643	4643	4643	4643	4581	4643	4581	4581	4643	4643	4643	4643	4581	4581	4643	4643	4643	4643	4643	4643	4643	4643	4581	4581	4581	4581	4643	4643	4706	4838	4906	5050	5125	5125	5125	5125	5125	5125	5125	5125	5125	5125	5125	5050	5125	5125	5125	5125	5125	5125	5125	5125	5125	5125	5125	5125	5125	5125	5125	5125	5125	5125	5202	5202	5202	5202	5202	5202	5202	5202	0	0	0	0	0	0	0	0	0	0	0	0	0	0	0	0	0	0	0	0	0	0	0	0	0	0	0	0	0	0	0	0	0	0	7959	7779	7779	7608	7608	7608	7608	7608	7608	7608	7608	7608	7608	7608	7608	7608	7608	7608	7608	7779	7779	7779	7779	7959	7779	7779	7779	7779	7779	0	0	0	0	0	0	0	0	0	0	0	5282	5282	5282	5282	5282	5282	5202	0	0	0	0	0	0	0	0	3698	3698	3659	3698	3659	3698	3659	3659	3698	3698	3698	3698	3698	3698	3698	3698	3698	3738	3738	3738	3779	3779	0	0	0	0	0	3738	3738	3779	3779	3738	3738	3738	3738	3698	3698	3698	3659	3698	3698	3698	3698	3738	3738	3738	3779	3738	4581	4581	4581	4581	4581	4581	4581	4581	4581	4581	4581	4581	4581	4581	4521	4521	4521	4581	4521	4521	4521	4463	4406	4406	4296	4296	4296	4350	4350	4406	4406	4463	4463	4463	4521	4521	4521	4521	4521	4521	4521	4521	4521	4521	4521	4643	4581	4581	4581	4643	4643	4643	4581	4581	4581	4581	4581	4581	4581	4581	4581	4581	4581	4581	4581	4581	4581	4581	4581	4581	4643	4643	4643	4643	4643	4581	4643	4581	4581	4581	4581	4581	4581	4581	4581	4581	4581	4581	4581	4581	4521	4521	4463	4406	4406	4350	4350	4350	4350	4406	4463	4521	4521	4521	4521	4521	4521	4521	4463	4521	4581	4581	4581	4581	4581	4581	4581	4581	4581	4581	4581	4521	4521	4581	4521	4521	4521	4581	4581	4643	4581	4581	4581	4581	4521	4521	4463	4463	4463	4463	4463	4463	4521	4521	4463	4463	4521	4521	4521	4521	4521	4521	4521	4581	4581	4581	4581	4581	4581	4521	4521	4463	4463	4406	4406	4406	4406	4350	4350	4350	4350	4406	4406	4463	4521	4581	4581	4581	4581	4581	4581	0	0	0	0	0	0	0	0	0	0	0	0	0	0	0	0	0	0	0	0	0	0	0	0	0	0	0	0	0	0	0	0	0	0	0	0	0	0	0	0	0	0	0	0	0	0	0	0	0	0	0	0	0	0	0	0	0	0	0	0	0	5815	5815	0	0	0	0	0	0	0	0	0	0	0	0	0	0	0	0	0	0	0	0	0	0	0	0	0	0	0	0	0	0	0	0	0	0	0	0	0	0	0	0	0	0	0	0	0	0	0	0	0	0	0	0	0	0	0	0	0	0	0	0	0
0	0	0	0	0	0	0	0	0	784	784	784	784	804	804	804	804	806	806	806	808	810	810	819	821	823	823	825	825	831	833	833	841	843	845	850	850	856	860	860	862	865	871	873	878	880	882	887	889	889	905	908	910	913	915	915	917	917	945	942	942	945	945	948	950	953	963	963	966	972	980	983	983	985	988	991	997	997	1008	1014	1017	1020	1023	1023	1023	1030	1030	1036	1042	1042	1045	1045	1045	0	0	0	0	0	0	0	0	0	4706	4706	4706	4706	4771	4771	4771	4771	4706	4706	4643	4643	4643	4581	4643	4643	4581	4581	4581	4581	4581	4581	4581	4581	4643	4643	4643	4643	4643	4643	4581	4581	4581	4581	4581	4643	4581	4643	4643	4581	4643	4643	4643	4643	4643	4643	4643	4643	4581	4581	4643	4643	4643	4643	4706	4838	4838	5050	5050	5125	5125	5125	5125	5125	5125	5125	5050	5050	5050	5050	5050	5050	5050	5125	5125	5125	5125	5125	5125	5125	5125	5125	5125	5125	5125	5125	5125	5125	5202	5202	5202	5202	5202	5202	5202	5202	5202	0	0	0	0	0	0	0	0	0	0	0	0	0	0	0	0	0	0	0	0	0	0	0	0	0	0	0	0	0	0	0	0	0	7959	7779	7779	7608	7608	7608	7608	7608	7608	7779	7779	7608	7608	7608	7608	7608	7444	7608	7608	7608	7779	7608	7608	7608	7959	7959	7959	7779	0	0	0	0	0	0	0	0	0	5282	5282	5202	5282	5202	5282	5202	5202	5282	0	0	0	0	0	0	0	0	3698	3698	3698	3659	3659	3659	3698	3659	3659	3698	3698	3698	3698	3698	3698	3698	3698	3698	3738	3738	3738	0	0	0	0	0	0	0	3738	3738	3779	3779	3738	3738	3738	3738	3738	3698	3659	3659	3659	3698	3698	3698	3738	3738	3738	3779	3738	4581	4581	4581	4581	4581	4581	4581	4581	4581	4581	4581	4581	4581	4581	4581	4581	4581	4581	4581	4521	4521	4521	4463	4350	4350	4350	4296	4350	4350	4350	4406	4463	4463	4463	4463	4521	4521	4521	4521	4521	4521	4521	4521	4521	4521	4643	4581	4581	4581	4581	4643	4581	4581	4581	4581	4581	4581	4581	4581	4581	4581	4581	4581	4581	4581	4581	4581	4581	4581	4581	4643	4581	4581	4581	4581	4581	4581	4581	4581	4581	4581	4581	4581	4581	4581	4581	4581	4581	4581	4521	4521	4463	4406	4406	4406	4350	4296	4296	4350	4406	4463	4521	4521	4521	4521	4521	4521	4521	4521	4521	4581	4581	4581	4581	4581	4581	4581	4581	4521	4581	4521	4521	4521	4521	4521	4521	4521	4581	4581	4643	4581	4581	4581	4581	4521	4521	4463	4463	4463	4463	4521	4521	4521	4521	4463	4463	4521	4521	4521	4521	4521	4521	4581	4581	4643	4643	4643	4581	4581	4521	4521	4463	4463	4406	4406	4406	4406	4350	4350	4350	4350	4406	4406	4463	4581	4581	4581	4581	4581	4581	4581	4581	0	0	0	0	0	0	0	0	0	0	0	0	0	0	0	0	0	0	0	0	0	0	0	0	0	0	0	0	0	0	0	0	0	0	0	0	0	0	0	0	0	0	0	0	0	0	0	0	0	0	0	0	0	0	0	0	0	0	0	0	0	0	0	0	0	0	0	0	0	0	0	0	0	0	0	0	0	0	0	0	0	0	0	0	0	0	0	0	0	0	0	0	0	0	0	0	0	0	0	0	0	0	0	0	0	0	0	0	0	0	0	0	0	0	0	0	0	0	0	0	0	0	0
0	0	0	0	0	0	0	0	0	784	784	788	791	791	804	802	804	806	806	808	808	810	810	819	819	823	823	825	829	831	831	837	839	843	845	845	850	858	862	862	862	867	871	873	875	880	880	887	887	891	905	908	913	915	917	917	917	917	917	940	942	945	948	948	950	953	961	963	963	974	980	983	985	988	991	991	997	1000	1008	1011	1011	1017	1017	1023	1030	1033	1039	1039	1042	1042	1045	1045	1045	0	0	0	0	0	0	0	0	4706	4706	4706	4706	4706	4771	4771	4771	4771	4706	4706	4643	4643	4643	4581	4643	4643	4581	4581	4581	4581	4581	4581	4581	4581	4643	4643	4643	4643	4643	4643	4581	4643	4581	4581	4581	4643	4643	4643	4643	4581	4643	4643	4643	4581	4643	4581	4643	4581	4581	4581	4643	4643	4643	4643	4706	4706	4906	5050	5050	5050	5125	5125	5125	5125	5125	5125	5125	5125	5125	5125	5125	5125	5125	5125	5125	5125	5125	5125	5125	5125	5125	5125	5125	5125	5125	5125	5125	5125	5202	5202	5202	5202	5202	5202	5202	5202	5282	5282	0	0	0	0	0	0	0	0	0	0	0	0	0	0	0	0	0	0	0	0	0	0	0	0	0	0	0	0	0	0	0	0	7779	7779	7779	7608	7608	7608	7608	7608	7608	7608	7608	7608	7608	7608	7608	7608	7608	7608	7608	7608	7608	7608	7779	7779	7959	7959	7959	0	0	0	0	0	0	0	0	0	0	5282	5282	5202	5202	5202	5202	5202	5202	0	0	0	0	0	0	0	0	0	3738	3698	3698	3698	3698	3698	3698	3698	3698	3698	3698	3698	3698	3698	3698	3698	3698	3698	3698	3698	3698	0	0	0	0	0	0	0	3779	3779	3779	3779	3738	3738	3738	3738	3738	3698	3698	3698	3698	3698	3698	3738	3738	3738	3779	3779	3779	4643	4643	4581	4581	4581	4581	4581	4581	4581	4581	4581	4581	4581	4581	4521	4581	4581	4581	4581	4521	4521	4521	4463	4350	4350	4350	4350	4350	4350	4406	4406	4463	4463	4463	4463	4463	4521	4463	4521	4521	4521	4521	4521	4521	4521	4581	4581	4581	4581	4581	4581	4581	4581	4581	4581	4581	4581	4581	4581	4581	4581	4581	4581	4581	4581	4581	4581	4581	4581	4581	4581	4581	4581	4581	4581	4581	4521	4521	4521	4521	4521	4521	4521	4521	4581	4521	4521	4521	4521	4521	4521	4463	4406	4406	4350	4350	4296	4296	4296	4350	4406	4463	4521	4521	4521	4521	4521	4581	4521	4521	4581	4581	4581	4581	4581	4581	4521	4581	4521	4521	4521	4521	4521	4521	4521	4521	4521	4581	4581	4643	4581	4521	4521	4521	4521	4521	4463	4463	4521	4521	4521	4521	4521	4521	4521	4521	4521	4521	4581	4581	4521	4581	4581	4581	4581	4643	4643	4581	4581	4581	4521	4521	4463	4406	4406	4406	4406	4350	4296	4350	4350	4406	4406	4463	4521	4581	4581	4581	4581	4581	4581	4581	0	0	0	0	0	0	0	0	0	0	0	0	0	0	0	0	0	0	0	0	0	0	0	0	0	0	0	0	0	0	0	0	0	0	0	0	0	0	0	0	0	0	0	0	0	0	0	0	0	0	0	0	0	0	0	0	0	0	0	0	0	0	0	0	0	0	0	0	0	0	0	0	0	0	0	0	0	0	0	0	0	0	0	0	0	0	0	0	0	0	0	0	0	0	0	0	0	0	0	0	0	0	0	0	0	0	0	0	0	0	0	0	0	0	0	0	0	0	0	0	0	0	0
0	0	0	0	0	0	0	0	782	784	786	788	791	791	802	802	804	804	804	804	806	810	810	819	819	823	823	825	829	829	835	837	837	839	843	848	848	858	862	862	862	862	867	871	875	880	880	887	887	891	905	908	910	915	917	917	917	920	920	940	940	942	945	948	948	950	958	963	963	977	980	983	985	988	991	994	1000	1000	1008	1014	1014	1017	1020	1023	1026	1033	1039	1039	1042	1042	1045	1045	0	0	0	0	0	0	0	0	0	4706	4706	4706	4771	4771	4771	4771	4771	4771	4771	4706	4643	4643	4643	4581	4643	4643	4581	4581	4581	4581	4581	4581	4581	4581	4643	4643	4643	4643	4643	4643	4643	4643	4643	4581	4643	4643	4643	4643	4643	4581	4643	4643	4643	4643	4643	4643	4643	4581	4581	4581	4581	4643	4643	4643	4643	4906	4906	4977	5050	5050	5125	5125	5125	5125	5125	5125	5125	5125	5125	5125	5125	5125	5125	5125	5125	5125	5125	5125	5125	5125	5125	5125	5125	5125	5125	5125	5125	5125	5202	5202	5202	5202	5202	5202	5202	5202	5282	5282	0	0	0	0	0	0	0	0	0	0	0	0	0	0	0	0	0	0	0	0	0	0	0	0	0	0	0	0	0	0	0	0	7779	7608	7608	7608	7608	7608	7608	7608	7608	7608	7608	7608	7608	7608	7608	7608	7608	7608	7608	7779	7779	7779	7779	7779	0	0	0	0	0	0	0	0	0	0	0	0	0	5282	5282	5202	5202	5202	5202	5125	5125	0	0	0	0	0	0	0	0	0	3698	3698	3698	3659	3659	3698	3698	3698	3698	3698	3698	3698	3698	3698	3698	3698	3698	3698	3698	3698	3698	0	0	0	0	0	0	0	3779	3738	3779	3779	3738	3738	3738	3738	3738	3698	3698	3659	3698	3698	3698	3698	3738	3738	3779	3779	3779	4643	4643	4581	4581	4581	4581	4581	4581	4581	4581	4581	4521	4521	4581	4521	4581	4581	4581	4581	4521	4521	4521	4463	4463	4350	4350	4350	4350	4350	4350	4406	4463	4463	4463	4406	4463	4406	4406	4406	4406	4406	4463	4463	4463	4521	4581	4581	4581	4521	4581	4581	4581	4521	4521	4581	4581	4581	4581	4581	4581	4581	4581	4581	4581	4581	4581	4581	4581	4581	4581	4521	4521	4521	4521	4521	4521	4463	4463	4463	4463	4463	4463	4463	4521	4521	4463	4463	4463	4521	4463	4463	4406	4406	4406	4350	4350	4296	4296	4350	4406	4463	4463	4521	4521	4521	4521	4521	4521	4521	4521	4581	4581	4581	4581	4581	4581	4581	4581	4581	4581	4581	4521	4521	4581	4521	4521	4521	4521	4521	4581	4581	4581	4581	4581	4521	4521	4463	4521	4521	4521	4521	4521	4521	4521	4521	4521	4521	4521	4581	4581	4521	4521	4521	4521	4581	4581	4581	4521	4521	4521	4463	4463	4406	4406	4406	4406	4350	4350	4350	4350	4350	4406	4406	4463	4581	4581	4581	4581	4581	4581	4581	0	0	0	0	0	0	0	0	0	0	0	0	0	0	0	0	0	0	0	0	0	0	0	0	0	0	0	0	0	0	0	0	0	0	0	0	0	0	0	0	0	0	0	0	0	0	0	0	0	0	0	0	0	0	0	0	0	0	0	0	0	0	0	0	0	0	0	0	0	0	0	0	0	0	0	0	0	0	0	0	0	0	0	0	0	0	0	0	0	0	0	0	0	0	0	0	0	0	0	0	0	0	0	0	0	0	0	0	0	0	0	0	0	0	0	0	0	0	0	0	0	0	0	0
0	0	0	0	763	765	765	0	782	784	786	786	789	789	791	800	800	804	804	806	806	808	814	814	819	821	823	825	827	827	835	837	837	839	843	845	845	854	862	862	862	865	869	873	875	880	880	887	887	894	903	905	910	910	917	917	917	920	922	937	937	942	945	948	948	948	950	963	963	974	977	983	983	988	994	997	1000	1003	1008	1014	1014	1017	1020	1023	1026	1030	1039	1036	1042	1042	1042	1045	0	0	0	0	0	0	0	0	0	4706	4706	4706	4771	4771	4771	4771	4838	4771	4771	4706	4643	4643	4581	4581	4581	4581	4581	4581	4581	4581	4581	4581	4581	4581	4643	4643	4643	4643	4643	4643	4643	4643	4643	4643	4643	4643	4643	4643	4643	4643	4643	4643	4643	4643	4643	4643	4643	4581	4581	4581	4581	4581	4643	4643	4643	4977	4977	4977	5050	5125	5125	5125	5125	5125	5125	5125	5125	5125	5125	5125	5125	5125	5125	5125	5125	5125	5125	5125	5125	5125	5125	5050	5050	5125	5125	5125	5125	5125	5202	5202	5202	5202	5202	5202	5202	5282	5282	5364	5364	0	0	0	0	0	0	0	0	0	0	0	0	0	0	0	0	0	0	0	0	0	0	0	0	0	0	0	0	0	0	0	7779	7608	7608	7608	7608	7608	7608	7608	7608	7608	7444	7608	7608	7608	7608	7608	7608	7608	7608	7779	7779	7779	7779	0	0	0	0	0	0	0	0	0	0	0	0	0	0	5282	5282	5202	5202	5202	5202	5202	5125	0	0	0	0	0	0	0	0	0	3698	3698	3698	3659	3659	3659	3659	3698	3698	3698	3698	3698	3698	3698	3698	3698	3698	3698	3698	3698	0	0	0	0	0	0	0	0	3779	3779	3779	3779	3738	3738	3738	3738	3738	3698	3698	3698	3698	3698	3698	3698	3738	3738	3738	3779	3779	3738	4643	4643	4581	4581	4581	4581	4581	4581	4581	4521	4521	4521	4521	4521	4521	4581	4581	4581	4581	4521	4521	4521	4463	4350	4350	4296	4296	4296	4296	4350	4350	4406	4350	4350	4350	4350	4350	4350	4296	4350	4406	4406	4406	4463	4521	4521	4521	4463	4521	4521	4521	4521	4463	4521	4581	4581	4581	4581	4581	4581	4581	4581	4581	4581	4581	4581	4521	4521	4521	4521	4521	4521	4521	4521	4463	4463	4463	4463	4463	4463	4463	4463	4463	4463	4463	4463	4463	4463	4463	4463	4406	4406	4406	4406	4350	4296	4350	4350	4463	4463	4463	4463	4521	4521	4463	4521	4521	4521	4521	4581	4581	4581	4581	4581	4521	4521	4581	4581	4581	4581	4581	4581	4581	4581	4581	4521	4521	4581	4581	4581	4581	4581	4581	4521	4521	4463	4521	4521	4521	4521	4521	4521	4521	4521	4521	4521	4581	4581	4581	4581	4581	4521	4521	4521	4581	4581	4521	4521	4521	4463	4463	4406	4406	4350	4406	4350	4350	4350	4350	4350	4406	4406	4463	4581	4581	4581	4581	4581	4581	4643	0	0	0	0	0	0	0	0	0	0	0	0	0	0	0	0	0	0	0	0	0	0	0	0	0	0	0	0	0	0	0	0	0	0	0	0	0	0	0	0	0	0	0	0	0	0	0	0	0	0	0	0	0	0	0	0	0	0	0	0	0	0	0	0	0	0	0	0	0	0	0	0	0	0	0	0	0	0	0	0	0	0	0	0	0	0	0	0	0	0	0	0	0	0	0	0	0	0	0	0	0	0	0	0	0	0	0	0	0	0	0	0	0	0	0	0	0	0	0	0	0	0	0	0
0	0	0	0	763	763	763	763	784	784	784	786	789	789	795	800	802	802	802	804	806	808	808	817	819	819	823	825	825	829	829	835	837	839	845	848	848	854	854	862	862	867	869	873	875	880	882	884	887	894	896	905	908	908	908	917	917	920	922	937	937	940	945	948	948	950	958	958	966	974	977	983	985	988	991	997	1000	1003	1006	1011	1014	1017	1020	1023	1030	1033	1039	1036	1039	1039	1039	0	0	0	0	0	0	0	0	0	0	4706	4706	4771	4771	4771	4771	4838	4838	4771	4771	4706	4706	4643	4581	4581	4581	4581	4581	4581	4581	4581	4581	4581	4581	4581	4643	4643	4643	4643	4643	4643	4643	4643	4643	4643	4643	4643	4643	4643	4643	4643	4643	4643	4643	4643	4643	4643	4643	4643	4643	4581	4643	4643	4643	4643	4906	4977	4977	5050	5050	5125	5125	5125	5125	5125	5125	5125	5125	5125	5125	5125	5125	5125	5125	5125	5125	5125	5125	5125	5125	5125	5125	5125	5125	5125	5125	5125	5125	5125	5202	5202	5202	5202	5202	5202	5202	5282	5282	5282	5364	0	0	0	0	0	0	0	0	0	0	0	0	0	0	0	0	0	0	0	0	0	0	0	0	0	0	0	0	0	0	0	7779	7608	7608	7608	7608	7608	7608	7608	7608	7608	7608	7608	7608	7608	7608	7608	7608	7779	7779	7959	7779	7779	7779	0	0	0	0	0	0	0	0	0	0	0	0	5282	5282	5282	5282	5202	5202	5202	5202	5202	0	0	0	0	0	0	0	0	0	0	3738	3698	3698	3659	3659	3698	3698	3698	3698	3698	3698	3698	3698	3698	3698	3698	3698	3698	3698	3698	0	0	0	0	0	0	0	0	3779	3738	3779	3779	3738	3738	3738	3738	3698	3698	3698	3698	3698	3698	3698	3738	3738	3738	3738	3779	3779	3738	4643	4643	4581	4581	4581	4581	4581	4581	4521	4521	4521	4521	4521	4521	4521	4581	4581	4581	4581	4521	4521	4521	4463	4350	4350	4296	4296	4296	4296	4296	4296	4296	4296	4296	4296	4296	4296	4296	4296	4296	4350	4350	4350	4406	4463	4463	4463	4463	4463	4463	4463	4463	4463	4521	4581	4581	4581	4581	4581	4581	4581	4521	4521	4521	4521	4521	4463	4463	4463	4463	4463	4463	4463	4463	4463	4406	4406	4406	4406	4406	4406	4406	4406	4406	4406	4406	4406	4406	4406	4406	4350	4350	4350	4350	4350	4296	4296	4296	4406	4406	4463	4463	4521	4521	4521	4521	4521	4521	4521	4581	4581	4581	4581	4581	4581	4581	4521	4521	4521	4521	4581	4581	4581	4581	4581	4521	4521	4581	4581	4581	4581	4581	4581	4521	4521	4521	4521	4521	4521	4521	4521	4521	4521	4521	4521	4521	4521	4581	4581	4581	4581	4521	4521	4581	4581	4581	4521	4463	4463	4463	4463	4406	4406	4406	4406	4406	4350	4350	4350	4350	4406	4406	4406	4521	4521	4521	4581	4581	4581	4643	0	0	0	0	0	0	0	0	0	0	0	0	0	0	0	0	4771	4771	0	0	0	0	0	0	0	0	0	0	0	0	0	0	0	0	0	0	0	0	0	0	0	0	0	0	0	0	0	0	0	0	0	0	0	0	0	0	0	0	0	0	0	0	0	0	0	0	0	0	0	0	0	0	0	0	0	0	0	0	0	0	0	0	0	0	0	0	0	0	0	0	0	0	0	0	0	0	0	0	0	0	0	0	0	0	0	0	0	0	0	0	0	0	0	0	0	0	0	0	0	0	0	0	0	0
0	0	0	0	761	763	761	761	782	782	784	786	786	789	802	802	800	804	802	804	806	810	810	817	819	819	823	825	825	829	829	835	837	841	845	845	845	850	850	860	860	860	869	873	875	880	882	884	887	891	901	903	908	908	908	917	920	922	925	935	935	937	942	942	945	948	958	972	974	977	980	983	985	988	991	994	1000	1003	1008	1011	1011	1014	1017	1020	1023	1023	1036	1036	1039	1039	1039	0	0	0	0	0	0	0	0	0	0	4643	4706	4706	4771	4771	4771	4771	4838	4771	4771	4706	4643	4643	4581	4581	4581	4581	4581	4581	4581	4581	4581	4581	4581	4581	4581	4643	4643	4643	4643	4643	4643	4643	4643	4643	4643	4643	4643	4643	4643	4643	4706	4643	4643	4643	4643	4643	4643	4581	4581	4581	4643	4643	4643	4643	4906	4906	4906	4977	5050	5050	5125	5125	5125	5125	5125	5125	5125	5125	5125	5125	5125	5125	5125	5125	5125	5125	5125	5125	5125	5125	5125	5125	5125	5125	5125	5125	5125	5125	5202	5202	5202	5202	5202	5202	5202	5282	5282	5282	5282	0	0	0	0	0	0	0	0	0	0	0	0	0	0	0	0	0	0	0	0	0	0	0	0	0	0	0	0	0	0	7608	7608	7608	7608	7608	7608	7608	7608	7608	7608	7608	7608	7608	7608	7779	7779	7608	7608	7779	7779	7779	7779	7608	7608	0	0	0	0	0	0	0	0	0	0	0	5282	5282	5282	5282	5282	5202	5202	5125	5125	0	0	0	0	0	0	0	0	0	0	0	3738	3698	3698	3659	3659	3698	3698	3698	3698	3698	3698	3698	3698	3698	3698	3698	3698	3698	3698	3698	3698	0	0	0	0	0	0	0	3738	3738	3779	3779	3738	3738	3738	3738	3698	3698	3698	3698	3698	3698	3738	3738	3738	3738	3738	3779	3779	3738	3738	3738	4643	4581	4581	4581	4581	4581	4581	4521	4521	4521	4521	4521	4581	4581	4581	4581	4581	4521	4521	4521	4463	4350	4350	4296	4296	4296	4243	4296	4243	4296	4243	4243	4243	4243	4243	4243	4243	4243	4296	4296	4350	4350	4406	4406	4406	4406	4406	4406	4406	4406	4406	4406	4463	4406	4463	4463	4463	4521	4521	4463	4521	4521	4521	4463	4463	4463	4406	4406	4406	4406	4406	4406	4406	4406	4350	4350	4350	4350	4406	4350	4406	4406	4406	4350	4350	4350	4350	4350	4350	4350	4350	4350	4296	4243	4243	4243	4243	4350	4406	4406	4463	4521	4521	4463	4521	4521	4521	4581	4581	4581	4581	4581	4521	4521	4521	4521	4521	4521	4521	4581	4581	4581	4581	4581	4521	4581	4581	4521	4521	4521	4581	4521	4521	4521	4521	4521	4521	4521	4521	4521	4521	4521	4521	4521	4521	4521	4521	4581	4581	4521	4521	4521	4521	4521	4521	4463	4463	4463	4463	4406	4406	4350	4350	4350	4296	4296	4296	4296	4296	4296	4406	4521	4521	4521	4521	4581	4581	0	0	0	0	0	0	0	0	0	0	0	0	0	0	0	0	0	4771	4771	0	0	0	0	0	0	0	0	0	0	0	0	0	0	0	0	0	0	0	0	0	0	0	0	0	0	0	0	0	0	0	0	0	0	0	0	0	0	0	0	0	0	0	0	0	0	0	0	0	0	0	0	0	0	0	0	0	0	0	0	0	0	0	0	0	0	0	0	0	0	0	0	0	0	0	0	0	0	0	0	0	0	0	0	0	0	0	0	0	0	0	0	0	0	0	0	0	0	0	0	0	0	0	0	0	0
0	0	0	0	763	768	772	772	782	782	784	784	784	795	797	798	800	800	802	804	806	806	810	817	819	819	819	825	825	829	829	835	837	841	841	845	845	850	854	854	860	860	869	873	878	882	882	884	889	898	901	905	908	908	917	917	920	920	925	935	935	937	940	942	945	955	961	966	969	977	980	983	983	985	991	994	1000	1003	1008	1014	1014	1014	1017	1020	1026	1026	1039	1036	1039	1039	1039	0	0	0	0	0	0	0	0	0	0	4643	4643	4706	4706	4706	4771	4771	4771	4771	4771	4706	4643	4643	4581	4581	4581	4581	4581	4581	4581	4581	4581	4581	4581	4581	4643	4643	4643	4643	4643	4643	4643	4643	4643	4643	4643	4643	4643	4643	4643	4643	4706	4643	4706	4643	4643	4643	4643	4581	4643	4643	4643	4643	4643	4643	4906	4906	4977	4977	5050	5125	5125	5125	5125	5125	5125	5125	5125	5125	5125	5125	5125	5125	5125	5125	5125	5125	5125	5125	5125	5125	5125	5125	5125	5050	5125	5125	5125	5125	5202	5202	5202	5202	5202	5202	5202	5282	5282	5364	5364	5364	0	0	0	0	0	0	0	0	0	0	0	0	0	0	0	0	0	0	0	0	0	0	0	0	0	0	0	0	0	7608	7608	7608	7608	7608	7608	7608	7608	7608	7608	7608	7608	7608	7779	7779	7779	7779	7779	7779	7779	7779	7779	7608	7608	7608	0	0	0	0	0	0	0	0	0	5282	5282	5364	5282	5282	5282	5282	5282	5125	5125	0	0	0	0	0	0	0	0	0	0	0	0	3698	3698	3659	3698	3698	3698	3698	3698	3698	3698	3698	3698	3698	3698	3698	3698	3698	3698	3698	3698	0	0	0	0	0	0	0	3738	3738	3779	3779	3738	3738	3738	3738	3738	3698	3698	3698	3698	3698	3738	3738	3738	3738	3738	3738	3779	3738	3738	4643	4706	4643	4581	4581	4581	4581	4581	4581	4581	4521	4581	4521	4581	4581	4581	4581	4581	4581	4581	4521	4463	4406	4350	4296	4350	4296	4296	4296	4243	4243	4243	4243	4192	4192	4243	4243	4243	4243	4296	4296	4296	4350	4406	4406	4406	4406	4406	4406	4406	4350	4350	4350	4406	4406	4463	4463	4463	4521	4463	4463	4463	4463	4463	4463	4406	4406	4406	4406	4406	4350	4406	4406	4350	4350	4350	4350	4350	4350	4350	4350	4350	4350	4350	4350	4350	4350	4350	4350	4350	4350	4350	4350	4350	4243	4243	4243	4243	4350	4350	4406	4463	4463	4463	4463	4463	4463	4463	4463	4581	4581	4581	4581	4521	4463	4463	4463	4463	4521	4463	4521	4521	4521	4521	4521	4521	4521	4521	4521	4521	4521	4521	4521	4521	4521	4521	4581	4521	4521	4521	4521	4521	4521	4521	4521	4521	4521	4521	4521	4581	4521	4521	4521	4521	4521	4521	4463	4463	4463	4463	4406	4406	4406	4406	4350	4296	4296	4296	4296	4296	4350	4350	4521	4521	4521	4521	4581	4581	0	0	0	0	0	0	0	0	0	0	0	0	0	0	0	0	0	4771	4771	0	0	0	0	0	0	0	0	0	0	0	0	0	0	0	0	0	0	0	0	0	0	0	0	0	0	0	0	0	0	0	0	0	0	0	0	0	0	0	0	0	0	0	0	0	2281	2281	2266	2252	2266	2266	2266	2266	0	0	0	0	0	0	0	0	0	0	0	0	0	0	0	0	0	0	0	0	0	0	0	0	0	0	0	0	0	0	0	0	0	0	0	0	0	0	0	0	0	0	0	0	0	0	0	0	0	0	0	0	0
0	0	0	0	768	768	773	773	780	782	782	784	784	793	798	802	800	804	802	806	806	806	812	817	819	819	819	825	825	827	827	835	837	841	843	848	848	850	854	854	858	862	862	869	875	880	880	882	887	896	891	898	901	903	903	922	925	930	930	935	935	940	945	945	948	953	958	963	974	977	980	983	983	988	991	994	1000	1003	1011	1014	1014	1017	1017	1020	1026	1026	1036	1033	1039	1039	1039	0	0	0	0	0	0	0	0	0	0	4643	4643	4706	4706	4706	4771	4771	4771	4771	4771	4706	4643	4643	4581	4581	4581	4581	4581	4643	4643	4643	4643	4643	4643	4581	4643	4643	4643	4643	4643	4643	4643	4643	4643	4643	4643	4643	4643	4706	4643	4643	4643	4643	4706	4706	4643	4643	4581	4581	4643	4643	4643	4643	4643	4643	4643	4977	4977	4977	5050	5050	5125	5125	5125	5125	5125	5125	5125	5125	5125	5125	5125	5125	5125	5125	5125	5125	5125	5125	5125	5125	5125	5125	5050	5050	5050	5125	5125	5125	5202	5202	5202	5202	5202	5282	5282	5282	5364	5364	5364	5364	0	0	0	0	0	0	0	0	0	0	0	0	0	0	0	0	0	0	0	0	0	0	0	0	0	0	0	0	0	7608	7444	7444	7608	7608	7608	7608	7608	7608	7608	7608	7608	7608	7779	7779	7779	7779	7779	7779	7779	7779	7779	7608	7608	7779	7779	0	0	0	0	0	0	0	5282	5282	5282	5282	5282	5282	5282	5282	5282	0	0	0	0	0	0	0	0	0	0	0	0	0	0	3698	3698	3698	3698	3698	3698	3738	3698	3698	3698	3698	3698	3698	3698	3698	3698	3698	3738	3698	3698	0	0	0	0	0	0	0	3738	3738	3779	3779	3738	3738	3738	3738	3698	3698	3698	3698	3738	3738	3738	3738	3738	3738	3738	3738	3738	3738	3738	4643	4643	4643	4643	4581	4581	4581	4581	4581	4581	4521	4581	4521	4581	4581	4581	4581	4581	4581	4581	4521	4463	4406	4350	4296	4296	4296	4296	4296	4296	4296	4296	4243	4243	4243	4243	4243	4243	4243	4296	4296	4296	4350	4406	4406	4406	4406	4406	4406	4350	4350	4350	4296	4406	4406	4463	4463	4463	4463	4463	4463	4463	4463	4463	4406	4406	4406	4406	4406	4406	4406	4406	4406	4350	4350	4350	4350	4350	4350	4350	4350	4350	4350	4350	4350	4350	4350	4350	4350	4350	4350	4350	4350	4350	4350	4296	4243	4296	4350	4350	4350	4406	4406	4406	4406	4406	4463	4463	4521	4521	4521	4521	4463	4463	4463	4463	4406	4406	4463	4463	4463	4463	4463	4463	4463	4521	4463	4463	4463	4521	4581	4521	4521	4521	4521	4521	4581	4521	4521	4521	4521	4521	4521	4463	4463	4521	4521	4521	4521	4581	4521	4521	4521	4521	4521	4463	4463	4463	4463	4463	4463	4463	4406	4406	4296	4296	4296	4296	4243	4296	4296	4350	4463	4521	4521	4521	4521	4581	0	0	0	0	0	0	0	0	0	0	0	0	0	0	0	0	4771	4771	4771	0	0	0	0	0	0	0	0	0	0	0	0	0	0	0	0	0	0	0	0	0	0	0	0	0	0	0	0	0	0	0	0	0	0	0	0	0	0	0	0	0	0	0	0	0	2266	2252	2252	2237	2237	2252	2252	2266	0	0	0	0	0	0	0	0	0	0	0	0	0	0	0	0	0	0	0	0	0	0	0	0	0	0	0	0	0	0	0	0	0	0	0	0	0	0	0	0	0	0	0	0	0	0	0	0	0	0	0	0	0
0	0	0	0	768	770	775	775	780	782	782	784	784	797	797	800	800	804	804	804	806	808	808	814	819	819	823	825	825	829	829	835	837	843	845	848	848	850	852	854	858	862	862	867	875	880	880	882	889	891	891	894	894	898	922	922	925	930	930	935	937	940	942	945	948	955	958	963	974	977	977	983	983	985	988	994	1000	1003	1011	1014	1014	1017	1017	1020	1023	1023	1033	1033	1036	1042	1042	0	0	0	0	0	0	0	0	0	0	4643	4643	4643	4706	4643	4706	4706	4771	4771	4771	4706	4643	4643	4643	4643	4643	4581	4581	4643	4643	4643	4643	4643	4581	4581	4643	4643	4643	4643	4643	4643	4643	4643	4643	4643	4643	4643	4643	4643	4643	4643	4643	4643	4706	4643	4643	4643	4581	4581	4643	4643	4643	4643	4643	4643	4906	4977	4977	4977	5050	5125	5125	5050	5050	5050	5125	5125	5125	5125	5125	5125	5125	5125	5125	5125	5125	5125	5125	5125	5125	5125	5125	5125	5050	5050	5050	5050	5050	5125	5202	5202	5202	5202	5202	5282	5282	5282	5364	5364	5364	0	0	0	0	0	0	0	0	0	0	0	0	0	0	0	0	0	0	0	0	0	0	0	0	0	0	0	0	0	0	0	7287	7444	7608	7608	7608	7608	7608	7608	7608	7779	7779	7959	7959	7959	7959	7779	7779	7608	7608	7608	7608	7608	7444	7779	7779	7959	7959	0	0	0	0	0	5282	5282	5282	5282	5282	5282	5282	5282	5364	0	0	0	0	0	0	0	0	0	0	0	0	0	0	3698	3698	3659	3698	3698	3698	3738	3738	3698	3698	3698	3698	3698	3698	3698	3698	3698	3698	3698	3698	0	0	0	0	0	0	0	3738	3738	3779	3779	3738	3738	3738	3738	3698	3698	3698	3698	3738	3738	3738	3738	3738	3738	3738	3738	3738	3738	4643	4643	4643	4581	4581	4581	4581	4581	4521	4521	4521	4521	4521	4521	4521	4521	4581	4581	4581	4581	4581	4581	4463	4350	4350	4296	4296	4296	4296	4243	4296	4296	4296	4296	4296	4296	4296	4296	4296	4296	4296	4296	4296	4350	4406	4463	4463	4463	4463	4406	4406	4406	4406	4350	4406	4406	4463	4463	4463	4463	4406	4463	4463	4463	4463	4406	4463	4406	4406	4406	4406	4350	4406	4406	4350	4350	4350	4350	4350	4296	4350	4350	4350	4350	4350	4350	4350	4350	4350	4350	4350	4406	4350	4350	4350	4296	4296	4243	4243	4243	4296	4350	4406	4406	4406	4406	4406	4406	4406	4463	4463	4463	4463	4463	4406	4406	4406	4350	4350	4406	4406	4406	4463	4406	4463	4463	4406	4406	4406	4406	4463	4521	4521	4521	4521	4521	4581	4581	4521	4463	4463	4463	4463	4463	4463	4463	4463	4463	4463	4521	4521	4463	4463	4463	4463	4463	4463	4463	4463	4463	4463	4463	4463	4406	4406	4350	4350	4296	4296	4243	4243	4296	4296	4463	4463	4521	4521	4521	0	0	0	0	0	0	0	0	0	0	0	0	0	0	0	0	0	4706	4706	4706	0	0	0	0	0	0	0	0	0	0	0	0	0	0	0	0	0	0	0	0	0	0	0	0	0	0	0	0	0	0	0	0	0	0	0	0	0	0	0	0	0	0	0	0	2252	2266	2252	2252	2252	2252	2252	2252	2252	0	0	0	0	0	0	0	0	0	0	0	0	0	0	2167	2167	2167	2167	0	0	0	0	0	0	0	0	0	0	0	0	0	0	0	0	0	0	0	0	0	0	0	0	0	0	0	0	0	0	0	0	0	0	0
0	0	0	0	768	770	770	777	779	780	782	784	791	797	797	802	802	804	806	802	806	808	810	810	817	819	823	825	825	829	829	835	837	843	848	850	850	850	852	854	856	856	860	867	878	878	880	882	889	891	891	896	898	898	920	920	922	930	932	935	935	940	942	942	950	955	961	963	972	974	977	983	983	985	988	994	997	1003	1014	1017	1017	1017	1020	1023	1023	1026	1033	1033	1036	1039	1039	0	0	0	0	0	0	0	0	0	0	4643	4643	4643	4643	4643	4643	4643	4643	4706	4706	4706	4643	4643	4643	4581	4581	4581	4581	4643	4643	4643	4581	4581	4581	4581	4643	4643	4643	4643	4643	4643	4643	4643	4643	4643	4643	4643	4643	4643	4643	4643	4643	4643	4643	4643	4643	4643	4643	4643	4643	4643	4643	4643	4643	4706	4906	5050	4906	4977	5050	5050	5050	5050	5050	5125	5125	5050	5125	5125	5125	5125	5125	5125	5125	5125	5125	5125	5125	5125	5125	5125	5125	5125	5050	5050	5050	5050	5050	5125	5202	5202	5202	5202	5282	5282	5282	5282	5364	5364	5364	0	0	0	0	0	0	0	0	0	0	0	0	0	0	0	0	0	0	0	0	0	0	0	0	0	0	0	0	0	0	0	7287	7444	7608	7608	7608	7608	7608	7608	7608	7779	7959	7959	7959	7959	7959	7779	7608	7608	7608	7608	7608	7608	7608	7779	7779	7779	7779	0	0	0	0	0	5202	5202	5282	5282	5282	5282	5282	5282	5282	0	0	0	0	0	0	0	0	0	0	0	0	0	3698	3698	3698	3698	3698	3698	3698	3738	3738	3698	3698	3698	3698	3698	3698	3698	3698	3698	3698	3698	3698	0	0	0	0	0	0	0	3738	3738	3738	3738	3738	3738	3738	3738	3738	3698	3698	3738	3738	3738	3738	3738	3738	3738	3738	3738	3738	3738	4771	4643	4643	4643	4581	4581	4581	4581	4581	4521	4521	4521	4521	4521	4521	4521	4581	4581	4581	4581	4581	4581	4521	4406	4350	4350	4350	4296	4296	4243	4296	4350	4350	4296	4296	4296	4296	4296	4296	4296	4350	4350	4406	4406	4463	4521	4521	4521	4521	4463	4406	4406	4463	4463	4406	4406	4463	4463	4463	4463	4463	4463	4463	4521	4521	4463	4463	4463	4463	4406	4406	4406	4406	4406	4406	4406	4350	4350	4350	4350	4350	4350	4350	4350	4350	4350	4350	4350	4350	4350	4350	4350	4350	4350	4296	4243	4296	4243	4243	4243	4296	4350	4350	4406	4406	4350	4350	4406	4406	4406	4463	4406	4350	4350	4350	4350	4350	4296	4296	4350	4350	4350	4350	4406	4406	4406	4406	4350	4350	4406	4463	4463	4521	4521	4521	4521	4521	4521	4521	4463	4463	4463	4463	4463	4463	4463	4463	4463	4463	4463	4406	4406	4406	4406	4406	4463	4406	4463	4463	4463	4463	4463	4463	4406	4406	4350	4350	4296	4296	4243	4243	4243	4296	4406	4406	4521	4521	4581	4581	0	0	0	0	0	0	0	0	0	0	0	0	0	0	0	0	4706	4581	4581	0	0	0	4296	4296	0	0	0	0	0	0	0	0	0	0	0	0	0	0	0	0	0	0	0	0	0	0	0	0	0	0	0	0	0	0	0	0	0	0	0	0	0	0	0	2252	2266	2266	2252	2252	2252	2252	2252	2252	2252	0	0	0	0	0	0	0	0	2153	2140	2153	2153	2153	2167	2153	2167	2167	0	0	0	0	0	0	0	0	0	0	0	0	0	0	0	0	0	0	0	0	0	0	0	0	0	0	0	0	0	0	0	0	0	0	0
0	0	0	0	0	772	775	775	779	780	782	784	784	797	798	802	802	806	806	804	806	808	810	812	817	819	823	825	825	827	829	839	841	843	845	850	850	852	852	852	856	860	865	867	875	880	882	887	889	891	894	896	898	901	917	920	920	927	930	935	935	937	942	942	950	955	958	961	972	977	980	985	985	985	985	994	997	1003	1014	1017	1017	1020	1020	1023	1026	1030	1036	1033	1036	1042	1042	0	0	0	0	0	0	0	0	0	0	4706	4643	4643	4643	4581	4581	4581	4706	4643	4706	4643	4643	4643	4643	4581	4581	4581	4581	4643	4643	4581	4581	4581	4581	4581	4643	4643	4643	4643	4643	4643	4643	4643	4643	4643	4643	4643	4643	4643	4643	4643	4643	4643	4643	4643	4643	4643	4643	4643	4643	4643	4643	4643	4643	4706	4771	4838	4838	4977	4977	5050	5050	5050	5050	5125	5125	5050	5050	5125	5125	5125	5125	5125	5125	5125	5125	5125	5125	5125	5125	5125	5125	5125	5125	5050	5050	5125	5050	5125	5202	5202	5202	5202	5282	5282	5282	5282	5282	5282	5282	0	0	0	0	0	0	0	0	0	0	0	0	0	0	0	0	0	0	0	0	0	0	0	0	0	0	0	0	0	0	0	7137	7287	7444	7444	7608	7608	7608	7608	7608	7779	7779	7779	7779	7779	7779	7779	7608	7608	7608	7608	7608	7608	7608	7779	7779	7779	7779	0	0	0	0	0	5282	5282	5282	5282	5282	5282	5282	5282	5282	5282	5282	5282	5364	5364	5202	5202	0	0	0	0	0	3738	3698	3698	3698	3698	3698	3698	3698	3698	3698	3698	3698	3698	3698	3698	3698	3738	3738	3738	3738	3738	3738	0	0	0	0	0	0	0	3738	3698	3738	3738	3738	3738	3738	3738	3738	3738	3698	3738	3738	3738	3738	3738	3738	3738	3698	3738	3698	3698	4643	4643	4643	4581	4581	4581	4581	4581	4581	4521	4521	4521	4521	4521	4521	4521	4581	4581	4581	4581	4581	4581	4521	4463	4406	4406	4350	4296	4296	4243	4296	4350	4350	4296	4463	4406	4406	4406	4406	4406	4350	4406	4463	4463	4521	4521	4521	4581	4521	4521	4463	4521	4521	4521	4521	4463	4463	4463	4463	4463	4406	4463	4463	4463	4521	4521	4521	4521	4463	4463	4463	4406	4406	4406	4406	4406	4406	4350	4350	4350	4350	4350	4350	4350	4350	4350	4350	4350	4350	4350	4406	4406	4350	4350	4350	4296	4296	4243	4243	4243	4296	4350	4350	4350	4350	4350	4350	4296	4296	4296	4350	4350	4243	4296	4296	4296	4296	4243	4243	4296	4296	4296	4296	4350	4350	4350	4350	4350	4350	4406	4463	4463	4463	4463	4463	4521	4521	4521	4463	4463	4406	4406	4406	4406	4406	4406	4406	4406	4406	4406	4350	4350	4350	4350	4350	4406	4406	4406	4406	4406	4406	4463	4463	4406	4406	4406	4296	4296	4243	4243	4243	4243	4243	4243	4243	4243	0	4581	4581	0	0	0	0	0	0	0	0	0	0	0	0	0	0	0	0	0	4406	4296	4296	4296	4296	4243	4243	4243	4243	4296	4296	0	0	0	0	0	0	0	0	0	0	0	0	0	7444	7444	0	0	0	0	0	0	0	0	0	0	0	0	0	0	0	0	0	0	0	2252	2252	2266	2266	2252	2252	2252	2252	2252	2252	2237	2223	2223	0	2181	2167	2167	2153	2153	2153	2153	2153	2167	2167	2167	2153	2167	2167	0	0	0	0	0	0	0	0	0	0	0	0	0	0	0	0	0	0	0	0	0	0	0	0	0	0	0	0	0	0	0	0	0	0	0
0	0	0	0	0	772	773	775	779	780	782	782	795	798	800	802	802	806	806	806	808	808	810	814	819	821	823	825	827	827	831	839	839	843	845	848	848	850	852	854	854	867	869	871	873	878	880	887	889	891	894	898	903	908	917	920	920	927	930	930	935	937	945	948	953	953	958	969	972	974	977	983	983	983	985	991	994	994	1020	1017	1017	1020	1020	1023	1026	1030	1036	1036	1036	1042	1042	0	0	0	0	0	0	0	0	0	0	4643	4643	4643	4643	4581	4581	4581	4581	4643	4643	4643	4581	4643	4643	4581	4581	4581	4581	4581	4643	4581	4581	4581	4581	4581	4643	4643	4643	4643	4643	4643	4643	4643	4643	4643	4643	4643	4643	4643	4643	4581	4581	4581	4643	4643	4643	4643	4643	4643	4643	4643	4643	4706	4706	4706	4771	4771	4771	5050	5050	5050	5050	5050	5050	5050	5050	5050	5050	5050	5050	5125	5125	5125	5125	5125	5125	5125	5125	5125	5125	5125	5125	5125	5125	5125	5125	5125	5050	5125	5202	5202	5202	5282	5282	5282	5282	5282	5282	5282	5282	0	0	0	0	0	0	0	0	0	0	0	0	0	0	0	0	0	0	0	0	0	0	0	0	0	0	0	0	0	0	0	7137	7287	7608	7608	7608	7608	7608	7608	7779	7779	7779	7779	7779	7779	7779	7779	7608	7608	7608	7608	7608	7608	7608	7608	7779	7779	7779	0	0	0	0	0	5282	5282	5202	5202	5282	5282	5282	5282	5282	5282	5282	5364	5282	5282	5202	5125	5125	0	0	0	0	3738	3738	3738	3698	3698	3698	3698	3698	3698	3698	3698	3698	3698	3698	3698	3698	3698	3698	3738	3738	3738	3698	3698	0	0	0	0	0	0	3698	3698	3738	3738	3738	3738	3738	3738	3738	3738	3738	3738	3738	3738	3738	3738	3738	3738	3698	3698	3698	4706	4643	4643	4643	4581	4581	4581	4581	4581	4581	4581	4521	4521	4521	4521	4581	4581	4581	4581	4581	4581	4581	4581	4521	4406	4350	4350	4350	4296	4296	4296	4406	4406	4463	4463	4463	4463	4463	4463	4463	4406	4406	4463	4463	4463	4521	4581	4581	4581	4581	4521	4521	4521	4581	4581	4581	4521	4463	4463	4463	4463	4406	4463	4463	4463	4581	4581	4581	4521	4521	4521	4521	4406	4463	4406	4406	4406	4406	4350	4350	4350	4350	4350	4350	4350	4350	4406	4406	4406	4463	4406	4406	4406	4406	4350	4350	4350	4350	4296	4296	4296	4296	4296	4296	4296	4350	4296	4296	4296	4243	4296	4296	4296	4243	4243	4243	4243	4296	4243	4243	4296	4296	4296	4296	4296	4296	4296	4296	4296	4296	4296	4296	4406	4463	4463	4463	4463	4521	4521	4463	4406	4406	4406	4406	4406	4350	4350	4350	4350	4406	4406	4350	4296	4296	4296	4296	4350	4350	4350	4406	4406	4406	4406	4463	4406	4406	4296	4296	4296	4243	4243	4192	4192	4192	4192	4192	4243	0	0	0	0	0	0	0	0	0	0	0	0	0	0	0	0	0	0	0	4296	4296	4243	4243	4243	4243	4192	4243	4243	4243	4296	4296	4296	0	0	0	0	0	0	0	0	0	0	0	7608	7608	7608	7608	0	0	0	0	0	0	0	0	0	0	0	0	0	0	0	0	0	0	2252	2252	2266	2252	2252	2237	2237	2252	2252	2237	2237	2223	2223	2208	2194	2181	2181	2181	2167	2167	2153	2167	2167	2167	2167	2153	2167	2167	0	0	0	0	0	0	0	0	0	0	0	0	0	0	0	0	0	0	0	0	0	0	0	0	0	0	0	0	0	0	0	0	0	0	0
0	0	0	0	0	0	773	775	779	780	782	784	793	798	798	802	802	804	806	806	810	810	812	814	815	821	819	825	827	829	835	839	839	843	843	848	848	850	852	854	865	869	869	871	875	878	880	887	889	896	896	901	903	908	915	920	920	927	930	932	935	937	945	945	950	950	955	963	972	974	977	980	983	983	985	991	994	1014	1014	1017	1017	1020	1020	1023	1023	1030	1030	1039	1039	1042	1042	0	0	0	0	0	0	0	0	0	4581	4643	4643	4643	4643	4581	4581	4581	4581	4581	4643	4643	4581	4581	4643	4581	4581	4581	4581	4643	4643	4581	4581	4581	4581	4581	4643	4643	4643	4643	4643	4643	4643	4643	4643	4643	4643	4643	4643	4643	4643	4581	4581	4581	4643	4643	4643	4643	4643	4706	4643	4643	4706	4706	4706	4706	4771	4771	4771	5050	5125	5125	5125	5050	5050	5050	5050	5050	5050	5050	5050	5050	5050	5050	5125	5125	5125	5125	5125	5125	5125	5125	5125	5125	5125	5125	5125	5125	5050	5050	5125	5202	5202	5202	5202	5282	5202	5202	5202	5282	5282	0	0	0	0	0	0	0	0	0	0	0	0	0	0	0	0	0	0	0	0	0	0	0	0	0	0	0	0	0	0	6992	6992	7137	7444	7608	7608	7608	7608	7608	7779	7959	7959	7779	7779	7608	7608	7608	7608	7444	7444	7608	7608	7608	7608	7779	7779	7779	7779	0	0	0	0	0	0	5282	5202	5202	5202	5202	5282	5282	5282	5282	5282	5282	5282	5282	5202	5125	5125	5125	0	0	3738	3738	3738	3738	3738	3698	3698	3698	3698	3698	3698	3698	3698	3698	3698	3738	3698	3698	3698	3698	3738	3738	3738	3738	0	0	0	0	0	3659	3698	3698	3738	3738	3738	3738	3738	3738	3738	3738	3738	3738	3738	3738	3738	3738	3738	3698	3698	3698	3659	4706	4706	4643	4643	4581	4581	4581	4581	4581	4581	4581	4581	4521	4581	4581	4581	4581	4581	4581	4581	4581	4581	4581	4521	4406	4350	4406	4406	4406	4406	4406	4463	4463	4521	4521	4521	4521	4521	4521	4521	4463	4463	4463	4521	4521	4581	4581	4581	4581	4581	4581	4581	4581	4581	4581	4581	4521	4521	4521	4521	4521	4521	4521	4521	4581	4581	4581	4581	4581	4581	4581	4521	4521	4521	4463	4463	4463	4406	4406	4406	4463	4463	4463	4463	4463	4463	4463	4463	4463	4521	4463	4463	4406	4406	4406	4350	4350	4350	4296	4296	4296	4350	4296	4296	4296	4296	4243	4243	4243	4243	4243	4243	4296	4243	4243	4243	4243	4243	4243	4243	4243	4243	4243	4243	4243	4243	4243	4243	4243	4243	4243	4243	4296	4350	4406	4406	4406	4406	4463	4463	4350	4350	4350	4350	4350	4350	4350	4350	4350	4350	4350	4296	4296	4243	4243	4243	4296	4296	4296	4350	4350	4350	4350	4406	4406	4406	4296	4296	4296	4243	4243	4192	4192	4192	4192	4192	0	0	0	0	0	0	0	0	0	0	0	0	0	0	0	0	0	0	0	0	4296	4296	4243	4243	4243	4243	4243	4243	4243	4192	4243	4296	4296	0	0	0	0	0	0	0	0	0	0	7608	7608	7608	7608	7444	7608	7608	0	0	0	0	0	0	0	0	0	0	0	0	0	0	0	0	2266	2252	2266	2266	2252	2237	2237	2252	2237	2237	2237	2223	2208	2208	2208	2194	2194	2181	2181	2167	2167	2167	2167	2167	2153	2153	2153	2153	0	0	0	0	0	0	0	0	0	0	0	0	0	0	0	0	0	0	0	0	0	0	0	0	0	0	0	0	0	0	0	0	0	0	0
0	0	0	0	0	0	772	773	777	777	782	782	797	798	798	800	802	804	806	806	810	812	812	814	815	819	819	819	827	831	835	837	837	841	843	845	850	852	854	856	867	869	869	871	873	875	878	884	889	896	896	901	903	905	915	920	922	930	930	932	935	937	948	948	953	953	955	958	969	972	974	980	983	983	985	997	1003	1011	1014	1014	1017	1020	1020	1023	1023	1026	1030	1039	1039	1039	1042	0	0	0	0	0	0	0	0	4581	4581	4643	4643	4643	4643	4581	4581	4643	4643	4581	4581	4581	4581	4581	4581	4581	4581	4581	4581	4581	4581	4581	4581	4581	4581	4581	4643	4643	4643	4643	4643	4643	4643	4643	4643	4643	4643	4643	4643	4643	4643	4581	4581	4581	4581	4581	4643	4643	4643	4643	4643	4643	4706	4706	4706	4771	4771	4771	4906	4906	5125	5125	5125	5125	5125	5125	5050	5050	5050	5050	5050	5050	5050	5050	5125	5125	5125	5125	5125	5125	5125	5125	5125	5202	5125	5125	5125	5125	5050	5050	5125	5202	5202	5282	5202	5202	5202	5202	5202	5282	0	0	0	0	0	0	0	0	0	0	0	0	0	0	0	0	0	0	0	0	0	0	0	0	0	0	0	0	0	0	0	6853	6992	7287	7444	7608	7608	7608	7608	7608	7779	7779	7779	7779	7779	7608	7444	7444	7444	7444	7444	7444	7444	7444	7444	7608	7608	7779	7779	0	0	0	0	0	0	0	0	5202	5282	5282	5282	5282	5282	5282	5282	5282	5282	5202	5202	5125	5125	5050	5050	5050	3738	3738	3738	3738	3738	3698	3698	3698	3698	3698	3698	3698	3698	3698	3698	3698	3698	3698	3698	3698	3738	3738	3738	3698	3698	0	0	0	0	3659	3659	3659	3698	3698	3738	3698	3738	3738	3738	3738	3738	3738	3738	3738	3738	3698	3698	3698	3698	3659	3659	4643	4643	4643	4581	4581	4581	4581	4581	4581	4581	4581	4521	4521	4581	4581	4581	4581	4581	4581	4581	4581	4581	4521	4463	4406	4350	4406	4463	4406	4463	4463	4521	4521	4521	4521	4521	4521	4521	4521	4521	4521	4521	4521	4521	4521	4521	4581	4581	4581	4581	4581	4581	4581	4581	4581	4581	4581	4581	4581	4581	4581	4581	4581	4581	4581	4581	4581	4581	4581	4581	4581	4581	4581	4581	4521	4521	4581	4581	4581	4521	4521	4521	4521	4521	4521	4521	4521	4521	4521	4521	4463	4463	4406	4406	4406	4350	4350	4350	4350	4350	4350	4350	4296	4296	4296	4296	4243	4243	4243	4243	4243	4243	4296	4243	4243	4243	4243	4243	4243	4243	4243	4243	4243	4243	4243	4243	4243	4243	4243	4243	4243	4243	4243	4296	4350	4350	4406	4406	4463	4463	4406	4350	4350	4350	4350	4296	4296	4350	4296	4350	4296	4296	4243	4243	4243	4243	4243	4243	4296	4296	4296	4350	4350	4406	4406	4406	4296	4296	4243	4243	4243	4192	4192	4192	4192	4192	0	0	0	0	0	0	4296	4296	0	0	0	0	0	4243	4243	4243	0	4296	4296	4296	4296	4296	4243	4243	4243	4243	4243	4192	4243	4192	4192	4243	4243	0	0	0	0	0	0	0	0	0	0	7444	7608	7608	7444	7444	7608	7608	7444	7444	0	0	0	0	0	0	0	0	0	0	0	0	0	0	2266	2266	2266	2266	2252	2252	2252	2237	2237	2237	2223	2223	2208	2208	2208	2194	2194	2181	2181	2181	2167	2167	2167	2167	2167	2153	2153	2153	0	0	0	0	0	0	0	0	0	0	0	0	0	0	0	0	0	0	0	0	0	0	0	0	0	0	0	0	0	0	0	0	0	0	0
0	0	0	0	0	0	772	773	775	775	779	779	798	800	800	802	802	806	806	806	810	812	812	814	817	819	821	827	829	833	835	837	837	841	841	845	852	854	856	865	867	869	869	871	875	878	878	884	887	896	896	901	903	905	915	920	922	927	930	930	935	937	945	948	950	950	961	963	969	972	974	977	983	983	985	994	1003	1008	1014	1020	1020	1023	1020	1023	1023	1026	1030	1036	1039	1039	0	0	0	0	0	0	0	0	0	4581	4581	4581	4581	4581	4581	4581	4581	4581	4581	4581	4581	4581	4581	4581	4581	4581	4581	4581	4581	4581	4581	4581	4581	4581	4581	4581	4643	4643	4643	4643	4643	4643	4643	4643	4643	4643	4643	4643	4643	4643	4581	4581	4581	4581	4581	4581	4643	4643	4643	4643	4643	4643	4706	4706	4771	4771	4838	4906	4906	4906	4977	5125	5125	5125	5125	5125	5050	5050	5050	5050	5050	5050	5050	5050	5125	5125	5125	5125	5125	5125	5125	5125	5125	5202	5125	5125	5125	5125	5125	5050	5125	5202	5202	5282	5202	5202	5202	5202	0	0	0	0	0	0	0	0	0	0	0	0	0	0	0	0	0	0	0	0	0	0	0	0	0	0	0	0	0	0	0	0	0	6853	7137	7287	7444	7608	7608	7608	7608	7608	7608	7608	7779	7608	7608	7444	7444	7444	7444	7444	7444	7444	7444	7444	7444	7444	7608	7779	7779	0	0	0	0	0	0	0	0	0	5282	5282	5282	5282	5282	5282	5282	5282	5282	5282	5202	5125	5125	5050	5050	5050	3779	3779	3779	3738	3738	3698	3698	3698	3659	3659	3698	3698	3698	3698	3698	3698	3698	3698	3698	3698	3738	3738	3738	3698	3698	0	0	0	0	0	3659	3659	3698	3698	3738	3738	3738	3738	3738	3738	3738	3738	3738	3738	3738	3738	3698	3698	3698	3659	3659	4643	4643	4643	4581	4581	4581	4581	4581	4581	4581	4521	4521	4521	4521	4521	4521	4581	4581	4581	4581	4581	4521	4521	4406	4350	4350	4406	4463	4463	4463	4463	4521	4521	4521	4521	4521	4521	4521	4521	4521	4521	4521	4521	4521	4521	4521	4581	4581	4581	4581	4581	4581	4581	4581	4643	4643	4643	4581	4581	4581	4581	4581	4581	4581	4581	4581	4581	4581	4581	4581	4581	4581	4581	4581	4581	4581	4581	4581	4581	4581	4581	4521	4581	4581	4581	4581	4581	4581	4521	4521	4521	4463	4406	4406	4406	4350	4350	4350	4350	4350	4350	4350	4296	4296	4296	4296	4243	4243	4243	4243	4296	4296	4296	4243	4243	4243	4243	4243	4243	4243	4243	4243	4243	4243	4243	4243	4243	4243	4243	4243	4243	4243	4243	4243	4243	4350	4350	4350	4406	4406	4406	4350	4350	4350	4296	4296	4296	4296	4296	4296	4296	4243	4243	4192	4243	4243	4243	4243	4243	4296	4296	4350	4350	4406	4406	4406	4406	4296	4296	4243	4192	4192	4192	4192	4296	4243	4296	4296	4350	4350	4350	4296	4296	4243	4243	0	0	0	0	4243	4243	4296	4296	4296	4296	4296	4296	4296	4296	4243	4243	4243	4243	4243	4243	4142	4142	4243	4243	0	0	0	0	0	6592	6853	6853	7137	7287	7287	7444	7444	7444	7444	7444	7444	7444	7444	7444	0	0	0	0	0	0	0	0	0	0	0	0	2266	2266	2266	2266	2266	2266	2252	2252	2237	2237	2237	2223	2223	2208	2223	2208	2194	2194	2194	2181	2181	2181	2167	2167	2167	2167	2153	2167	2167	0	0	0	0	0	0	0	0	0	0	0	0	0	0	0	0	0	0	0	0	0	0	0	0	0	0	0	0	0	0	0	0	0	0	0
0	0	0	0	0	768	770	772	772	777	777	779	798	800	800	800	804	804	806	806	808	812	814	815	815	819	819	827	829	833	835	837	837	839	839	843	850	856	862	865	867	869	869	873	878	878	878	880	889	896	898	905	905	908	913	917	922	927	930	932	935	937	942	942	950	950	961	963	969	974	977	980	983	983	988	1000	1003	1006	1011	1017	1020	1020	1020	1023	1023	1026	1030	1036	1039	1039	0	0	0	0	0	0	0	0	0	4581	4581	4581	4643	4643	4581	4581	4581	4581	4581	4581	4581	4521	4521	4581	4581	4581	4581	4581	4581	4581	4581	4581	4581	4581	4581	4581	4643	4643	4643	4643	4643	4643	4643	4643	4643	4643	4643	4643	4643	4643	4581	4581	4581	4581	4581	4581	4643	4643	4643	4643	4643	4643	4706	4771	4771	4771	4838	4906	4906	4977	4977	5050	5050	5125	5125	5125	5050	5050	5050	5050	5050	5050	5050	5125	5125	5125	5125	5125	5202	5125	5125	5125	5202	5202	5202	5202	5125	5125	5125	0	0	0	0	0	0	0	0	0	0	0	0	0	0	0	0	0	0	0	0	0	0	0	0	0	0	0	0	0	0	0	0	0	0	0	0	0	0	0	0	0	0	6853	7287	7444	7608	7608	7608	7608	7608	7608	7608	7608	7608	7444	7444	7287	7444	7444	7444	7444	7444	7444	7444	7287	7287	7444	0	7779	7779	0	0	0	0	0	0	0	0	0	0	5282	5282	5282	5282	5282	5282	5282	5282	5282	0	5125	5125	0	0	3821	3779	3779	3779	3738	3738	3698	3698	3698	3659	3698	3698	3698	3698	3698	3698	3698	3698	3698	3698	3698	3738	3738	3738	3738	3738	0	0	0	0	0	3621	3659	3698	3738	3738	3738	3738	3738	3738	3738	3738	3738	3698	3698	3698	3698	3698	3698	3698	3659	3659	3659	4581	4581	4581	4581	4581	4581	4581	4581	4581	4521	4521	4521	4581	4521	4581	4581	4581	4581	4581	4581	4521	4463	4406	4406	4350	4406	4463	4463	4463	4521	4521	4521	4521	4521	4521	4521	4521	4521	4521	4521	4521	4521	4521	4521	4521	4581	4581	4581	4581	4581	4581	4581	4643	4643	4643	4643	4643	4581	4581	4581	4581	4581	4521	4521	4521	4581	4581	4581	4581	4581	4581	4581	4581	4581	4581	4581	4581	4581	4581	4581	4581	4581	4581	4581	4581	4581	4581	4521	4521	4463	4463	4406	4406	4406	4350	4350	4350	4350	4350	4350	4350	4296	4296	4243	4243	4243	4243	4243	4243	4296	4296	4296	4243	4243	4243	4243	4243	4243	4243	4243	4243	4243	4243	4243	4243	4243	4243	4243	4243	4243	4192	4192	4192	4243	4350	4296	4350	4406	4406	4350	4296	4296	4296	4296	4296	4296	4296	4296	4243	4243	4243	4243	4192	4192	4192	4243	4243	4243	4243	4296	4350	4406	4406	4406	4406	4406	4350	4296	4243	4192	4192	4192	4192	4296	4243	4296	4296	4296	4243	4243	4243	4296	4296	4296	0	0	0	0	4243	4243	4296	4296	4296	4296	4296	4296	4296	4296	4296	4296	4296	4243	4243	4243	4192	4192	0	0	0	0	0	0	6853	6720	6853	6992	7137	7287	7287	7444	7444	7444	7444	7444	7444	7444	7444	7287	7287	7287	0	0	0	0	0	0	0	0	0	0	2266	2266	2266	2266	2266	2252	2252	2252	2237	2237	2223	2223	2208	2208	2208	2208	2194	2194	2194	2194	2181	2181	2181	2167	2167	2167	2153	2153	2153	0	0	0	0	0	0	0	0	0	0	0	0	0	0	0	0	0	0	0	0	0	0	0	0	0	0	0	0	0	0	0	0	0	0	0
0	0	0	0	0	768	770	772	772	772	772	0	0	802	800	800	802	804	804	804	806	812	814	817	815	819	819	827	829	835	835	837	837	841	839	843	848	862	862	865	867	869	871	873	878	878	878	880	889	898	901	905	905	908	913	915	920	925	927	930	932	935	940	942	950	950	955	969	969	974	977	980	983	985	991	1000	1003	1006	1008	1014	1017	1020	1020	1023	1023	1026	1030	1036	1039	1045	1045	0	0	0	0	0	0	0	0	4581	4581	4581	4643	4643	4581	4581	4581	4581	4581	4581	4581	4521	4521	4581	4581	4581	4581	4581	4581	4643	4643	4581	4581	4581	4581	4581	4643	4643	4643	4643	4643	4643	4643	4643	4643	4643	4643	4643	4643	4643	4643	4581	4581	4581	4581	4643	4643	4643	4643	4643	4643	4643	4706	4706	4771	4771	4838	4906	4906	4977	4977	5050	5050	5050	5125	5125	5050	5050	5125	5125	5125	5050	5050	5125	5125	5125	5125	5125	5202	5125	5125	5125	5202	5202	5202	5202	5125	5125	0	0	0	0	0	0	0	0	0	0	0	0	0	0	0	0	0	0	0	0	0	0	0	0	0	0	0	0	0	0	0	0	0	0	0	0	0	0	0	0	0	0	0	0	7444	7444	7608	7608	7779	7779	7608	7608	7608	7608	7444	7287	7287	7287	7444	7444	7444	7444	7444	7444	7287	7287	7287	0	0	7779	7779	0	0	0	0	0	0	0	0	0	0	0	0	0	5282	5282	5282	5282	0	0	0	0	0	0	0	3779	3779	3779	3779	3738	3738	3698	3698	3698	3659	3698	3698	3698	3698	3698	3698	3698	3698	3698	3698	3698	3698	3698	3698	3698	3698	3698	0	0	0	0	3621	3659	3698	3738	3738	3738	3738	3738	3738	3738	3738	3738	3698	3698	3698	3698	3698	3698	3698	3698	3698	3621	3621	4521	4521	4521	4521	4521	4521	4521	4521	4521	4521	4521	4521	4521	4581	4581	4581	4581	4581	4581	4521	4463	4406	4350	4350	4406	4463	4463	4463	4521	4521	4521	4521	4521	4521	4521	4521	4521	4521	4521	4521	4521	4521	4521	4521	4581	4581	4581	4581	4581	4581	4581	4643	4643	4643	4643	4581	4581	4581	4581	4581	4581	4521	4521	4581	4581	4581	4581	4581	4581	4581	4581	4643	4581	4581	4581	4581	4581	4581	4581	4581	4581	4581	4581	4581	4581	4521	4521	4521	4463	4463	4406	4406	4406	4350	4350	4350	4350	4350	4350	4350	4243	4243	4243	4243	4243	4192	4192	4192	4243	4243	4243	4243	4243	4243	4243	4243	4243	4243	4243	4243	4243	4243	4243	4243	4243	4243	4243	4243	4243	4192	4192	4192	4192	4243	4296	4350	4350	4350	4296	4296	4296	4296	4296	4296	4296	4296	4243	4243	4243	4243	4243	4192	4192	4192	4243	4243	4243	4243	4296	4350	4350	4406	4406	4406	4406	4296	4296	4243	4243	4192	4192	4243	4243	4296	4296	4296	4296	4243	4243	4296	4296	4296	4243	4243	4192	4192	4192	4243	4243	4243	4296	4243	4243	4243	4296	4296	4243	4243	4243	4296	4243	4243	4296	4296	4192	0	0	0	0	0	6992	6992	6853	6853	6992	7137	7287	7287	7444	7444	7444	7444	7287	7444	7287	7444	7287	7287	7444	7444	0	0	0	0	0	0	0	0	0	0	2281	2281	2281	2266	2266	2252	2252	2237	2237	2223	2223	2208	2208	2208	2208	2208	2194	2194	2194	2194	2181	2181	2167	2167	2167	2153	2153	2153	0	0	0	0	0	0	0	0	0	0	0	0	0	0	0	0	0	0	0	0	0	0	0	0	0	0	0	0	0	0	0	0	0	0	0
0	0	0	0	0	768	770	772	772	772	772	0	0	802	802	800	802	804	802	804	806	814	815	817	815	819	819	825	827	833	835	837	837	839	841	843	845	862	862	865	867	871	871	873	878	878	878	880	887	898	903	905	908	908	913	915	920	925	927	930	932	935	935	945	945	950	966	969	972	974	977	977	983	985	997	997	1000	1006	1008	1011	1014	1017	1017	1020	1020	1026	1030	1036	1039	1039	1045	0	0	0	0	0	0	0	0	4581	4581	4581	4643	4643	4643	4643	4581	4581	4581	4581	4521	4521	4521	4521	4581	4581	4581	4581	4581	4643	4643	4643	4643	4581	4581	4581	4581	4643	4643	4643	4643	4643	4643	4643	4643	4643	4643	4643	4643	4643	4643	4581	4581	4581	4643	4643	4643	4643	4643	4643	4643	4643	4706	4706	4706	4771	4771	4906	4906	4977	4977	4977	4977	5050	5125	5125	5050	5050	5125	5125	5125	5125	5050	5125	5125	5125	0	0	0	0	0	0	0	0	0	0	0	0	0	0	0	0	0	0	0	0	0	0	0	0	0	0	0	0	0	0	0	0	0	0	0	0	0	0	0	0	0	0	0	0	0	0	0	0	0	0	0	0	0	0	0	0	7444	7444	7444	7608	7779	7779	7779	7608	7608	7608	7444	7287	7287	7287	7287	7444	7444	7444	7608	7608	7287	7287	0	0	0	0	0	0	0	0	0	0	0	0	0	0	0	0	0	0	0	0	0	0	0	0	0	0	0	0	0	3821	3779	3779	3779	3738	3738	3698	3698	3659	3659	3698	3698	3698	3698	3698	3698	3698	3698	3698	3698	3698	3698	3698	3698	3698	3698	3698	0	0	0	3583	3621	3659	3698	3738	3738	3738	3738	3738	3738	3738	3738	3738	3698	3698	3698	3698	3659	3659	3698	3698	3621	3621	3621	4521	4521	4521	4521	4521	4521	4521	4521	4521	4521	4521	4521	4521	4521	4581	4581	4581	4581	4581	4521	4406	4350	4350	4350	4406	4463	4463	4463	4521	4521	4521	4521	4521	4521	4521	4521	4521	4521	4521	4521	4521	4521	4521	4521	4581	4581	4581	4581	4581	4581	4581	4581	4581	4581	4643	4581	4581	4581	4581	4581	4581	4581	4581	4581	4581	4581	4581	4581	4581	4581	4581	4643	4581	4581	4581	4581	4581	4581	4581	4581	4581	4581	4581	4581	4581	4581	4521	4521	4521	4463	4406	4406	4406	4350	4350	4350	4350	4350	4350	4350	4296	4243	4243	4243	4243	4192	4192	4243	4243	4296	4243	4243	4243	4243	4243	4243	4243	4192	4192	4192	4192	4192	4243	4243	4243	4243	4243	4243	4243	4192	4192	4192	4192	4192	4243	4296	4243	4350	4350	4296	4296	4296	4296	4350	4296	4296	4296	4243	4243	4243	4243	4192	4192	4243	4243	4243	4243	4243	4296	4350	4350	4406	4406	4406	4406	4350	4296	4243	4243	4243	4243	4243	4296	4296	4296	4296	4296	4243	4243	4243	4296	4243	4243	4243	4243	4243	4192	4243	4243	4243	4243	4243	4243	4243	4243	4296	4243	4243	4243	4296	4296	4296	4296	4296	0	0	0	0	0	7287	7137	7137	6992	6992	7137	7287	7287	7444	7608	7608	7444	7444	7444	7444	7444	7444	7287	7287	7287	7137	7287	7287	0	0	0	0	0	0	0	0	2281	2281	2281	2266	2266	2252	2252	2252	2237	2223	2223	2208	2208	2208	2208	2208	2194	2194	2194	2194	2181	2167	2167	2167	2167	2153	2167	2167	0	0	0	0	0	0	0	0	0	0	0	0	0	0	0	0	0	0	0	0	0	0	0	0	0	0	0	0	0	0	0	0	0	0	0
0	0	0	0	0	767	767	768	772	0	0	0	0	802	800	800	804	804	804	808	810	812	814	815	815	817	819	821	829	833	835	835	837	839	837	843	848	862	862	865	867	871	871	875	878	878	878	880	882	894	898	905	908	908	913	917	925	925	927	927	932	935	940	940	948	950	966	969	972	974	977	977	983	991	1000	1000	1003	1006	1008	1011	1014	1017	1017	1020	1020	1026	1033	1036	1036	1039	1039	0	0	0	0	0	0	0	0	4581	4581	4581	4643	4706	4643	4643	4581	4581	4581	4521	4521	4521	4521	4521	4581	4581	4581	4581	4581	4581	4643	4643	4581	4581	4581	4581	4643	4643	4643	4643	4643	4643	4643	4643	4643	4643	4643	4643	4643	4643	4643	4643	4581	4581	4643	4643	4643	4643	4643	4643	4643	4643	4706	4706	4706	4706	4771	4838	4906	4906	4977	4977	4977	0	0	0	0	0	0	5125	5125	5125	0	0	0	0	0	0	0	0	0	0	0	0	0	0	0	0	0	0	0	0	0	0	0	0	0	0	0	0	0	0	0	0	0	0	0	0	0	0	0	0	0	0	0	0	0	0	0	0	0	0	0	0	0	0	0	0	0	0	6992	6992	7137	7287	7287	7287	7608	7779	7608	7608	7608	7444	7444	7287	7287	7287	7287	7444	7444	7444	7444	7608	0	0	0	0	0	0	0	0	0	0	0	0	0	0	0	0	0	0	0	0	0	0	0	0	0	0	0	0	0	0	0	3821	3821	3738	3738	3738	3738	3698	3698	3659	3659	3698	3698	3698	3698	3698	3698	3698	3698	3698	3698	3698	3698	3698	3698	3698	3698	3698	0	0	0	3583	3659	3698	3738	3738	3738	3738	3738	3738	3738	3738	3738	3738	3698	3698	3698	3698	3698	3698	3698	3698	3659	3659	3659	4463	4463	4521	4521	4521	4521	4521	4521	4521	4521	4521	4521	4521	4521	4521	4521	4521	4521	4521	4521	4406	4350	4350	4350	4406	4463	4463	4521	4521	4521	4521	4521	4521	4521	4521	4521	4521	4521	4521	4521	4521	4521	4521	4521	4581	4581	4581	4581	4581	4581	4581	4581	4581	4643	4643	4581	4581	4581	4581	4581	4581	4581	4581	4581	4581	4581	4581	4581	4581	4581	4581	4643	4581	4581	4581	4581	4581	4581	4581	4581	4581	4581	4581	4581	4581	4521	4521	4521	4521	4463	4406	4406	4350	4350	4350	4350	4350	4350	4350	4350	4296	4296	4243	4243	4243	4192	4192	4192	4243	4243	4243	4243	4243	4243	4243	4243	4243	4243	4192	4192	4192	4192	4243	4243	4243	4243	4243	4243	4243	4192	4192	4192	4192	4192	4192	4243	4243	4296	4296	4296	4296	4350	4296	4350	4296	4296	4296	4243	4243	4243	4243	4192	4192	4192	4243	4243	4243	4243	4296	4350	4350	4350	4406	4406	4406	4350	4296	4296	4296	4296	4243	4243	4350	4350	4350	4350	4350	4243	4243	4296	4243	4243	4243	4243	4243	4243	4243	4243	4243	4243	4243	4243	4243	4243	4243	4243	4243	4296	4296	4296	4296	4296	0	0	0	0	8146	7959	7779	7444	7287	7137	7137	7137	7137	7137	7137	7444	7608	7444	7444	7444	7287	7287	7287	7287	7287	7287	7287	7137	7137	7137	0	0	0	0	0	0	0	2281	2281	2281	2281	2266	2266	2252	2252	2252	2237	2223	2223	2208	2208	2208	2208	2208	2194	2194	2194	2194	2181	2181	2167	2167	2167	2153	2153	2153	0	0	0	0	0	0	0	0	0	0	0	0	0	0	0	0	0	0	0	0	0	0	0	0	0	0	0	0	0	0	0	0	0	0	0
0	0	0	0	0	767	768	768	0	0	0	0	0	0	802	802	804	804	806	808	810	812	814	815	815	817	819	823	827	831	833	833	835	837	837	845	852	860	862	862	865	869	871	873	878	878	880	880	882	891	894	898	903	908	915	915	922	927	927	930	932	935	940	942	950	955	966	969	972	974	977	977	983	991	994	997	1000	1003	1008	1011	1014	1017	1017	1020	1020	1026	1033	1036	1036	1036	1036	0	0	0	0	0	0	0	0	0	4643	4581	4643	4706	4643	4643	4581	4581	4581	4521	4521	4521	4521	4521	4581	4581	4581	4581	4581	4643	4581	4581	4581	4581	4581	4581	4643	4643	4643	4643	4643	4643	4643	4643	4643	4643	4643	4643	4643	4643	4643	4643	4643	4643	4643	4643	4643	4643	4643	4643	4643	4643	4643	4643	4706	4706	4771	4838	4906	4906	4906	4906	4906	0	0	0	0	0	0	0	0	0	0	0	0	0	0	0	0	0	0	0	0	0	0	0	0	0	0	0	0	0	0	0	0	0	0	0	0	0	0	0	0	0	0	0	0	0	0	0	0	0	0	0	0	0	0	0	0	0	0	0	0	0	0	0	0	0	0	6992	6992	6992	7137	7137	7137	7444	7608	7779	7608	7608	7444	7444	7444	7287	7287	7287	7287	7287	7444	7444	7444	7444	0	0	0	0	0	0	0	0	0	0	0	0	0	0	0	0	0	0	0	0	0	0	0	0	0	0	0	0	0	0	0	0	3821	3779	3738	3738	3738	3698	3698	3698	3659	3698	3698	3698	3698	3698	3698	3698	3698	3698	3698	3698	3698	3698	3698	3659	3659	3698	0	0	0	0	3659	3698	3738	3738	3738	3738	3738	3738	3738	3738	3738	3738	3698	3698	3698	3698	3659	3698	3659	3698	3659	3659	3659	4463	4463	4463	4521	4463	4463	4521	4521	4521	4521	4521	4521	4521	4521	4521	4521	4521	4521	4521	4463	4406	4350	4350	4350	4406	4463	4463	4521	4521	4521	4521	4521	4521	4521	4521	4521	4521	4521	4521	4521	4521	4521	4521	4521	4581	4581	4581	4581	4581	4581	4581	4581	4581	4581	4581	4581	4581	4581	4581	4581	4581	4581	4581	4581	4581	4581	4581	4581	4581	4581	4581	4643	4581	4581	4581	4581	4581	4581	4581	4581	4581	4581	4581	4581	4521	4521	4521	4463	4463	4463	4406	4406	4350	4350	4350	4350	4350	4350	4350	4296	4243	4243	4243	4243	4243	4192	4192	4243	4243	4243	4243	4243	4243	4243	4243	4243	4243	4192	4192	4192	4192	4192	4243	4243	4243	4296	4243	4243	4243	4192	4243	4243	4243	4192	4192	4192	4192	4243	4243	4243	4296	4296	4350	4296	4296	4296	4296	4243	4243	4243	4243	4192	4192	4192	4192	4192	4243	4243	4243	4350	4350	4406	4406	4406	4406	4350	4296	4296	4296	4243	4243	4243	4350	4350	4350	4296	4296	4243	4296	4350	4243	4243	4243	4243	4243	4243	4243	4243	4243	4243	4243	4243	4243	4243	4243	4243	4243	4296	4296	4296	4296	4296	0	0	0	0	8146	7959	7779	7444	7444	7287	7137	7137	7137	7137	7287	7287	7287	7287	7287	7287	7287	7287	7287	7287	7287	7287	7287	7137	7137	7137	0	0	0	0	0	0	0	2281	2281	2281	2266	2266	2266	2252	2252	2237	2237	2223	2223	2208	2208	2208	2208	2208	2194	2194	2194	2194	2181	2181	2167	2167	2167	2153	2153	2153	0	0	0	0	0	0	0	0	0	0	0	0	0	0	0	0	0	0	0	0	0	0	0	0	0	0	0	0	0	0	0	0	0	0	0
0	0	0	0	0	768	770	770	0	0	782	782	0	0	802	802	804	804	804	806	810	812	812	814	815	817	819	821	827	831	833	833	835	837	839	850	854	862	862	862	865	867	867	873	875	878	878	880	880	880	891	894	894	894	917	917	920	925	927	930	932	935	940	945	948	953	966	969	972	972	974	977	980	988	994	994	997	1003	1006	1008	1011	1014	1017	1017	1020	1026	1033	1036	1036	1036	1036	0	0	0	0	0	0	0	0	0	4643	4643	4643	4706	4643	4643	4581	4581	4581	4581	4581	4521	4521	4581	4581	4643	4581	4581	4581	4643	4581	4581	4581	4581	4581	4581	4643	4643	4643	4643	4643	4643	4643	4643	4643	4643	4643	4643	4643	4643	4643	4643	4643	4643	4643	4643	4643	4643	4643	4643	4643	4643	4643	4706	4706	4771	4771	4838	4906	4906	4906	4838	4838	4906	0	0	0	0	0	0	0	0	0	6018	6018	0	0	0	0	0	0	0	0	0	0	0	0	0	0	0	0	0	0	0	0	0	0	0	0	0	0	0	0	0	0	0	0	0	0	0	0	0	0	0	0	0	0	0	0	0	0	0	0	0	0	0	0	0	0	6992	6992	6992	7137	7137	7137	7137	7608	7779	7608	7608	7444	7444	7444	7287	7287	7287	7444	7444	7444	7444	7444	7444	7444	0	0	0	0	0	0	0	0	0	0	0	0	0	0	0	0	0	0	0	0	0	0	0	0	0	0	0	0	0	0	0	0	3738	3738	3698	3698	3698	3698	3659	3659	3698	3698	3698	3698	3698	3698	3698	3698	3698	3698	3659	3698	3659	3659	3659	3659	0	0	0	0	0	3698	3698	3738	3738	3779	3779	3779	3779	3738	3738	3738	3738	3698	3698	3698	3698	3698	3698	3659	3698	3659	3659	3659	4406	4463	4463	4463	4463	4521	4521	4521	4521	4521	4521	4521	4521	4521	4521	4521	4521	4521	4463	4350	4350	4350	4296	4350	4406	4463	4463	4521	4521	4521	4581	4581	4521	4521	4521	4521	4521	4521	4521	4521	4521	4521	4521	4521	4581	4581	4581	4581	4581	4581	4581	4581	4581	4581	4581	4581	4581	4581	4581	4581	4581	4581	4581	4581	4581	4581	4581	4581	4581	4581	4581	4581	4581	4581	4581	4581	4581	4581	4581	4521	4521	4521	4581	4581	4521	4521	4463	4463	4463	4463	4406	4406	4350	4350	4296	4350	4296	4350	4296	4296	4243	4296	4243	4192	4192	4192	4192	4192	4243	4243	4243	4243	4243	4243	4243	4243	4243	4243	4243	4243	4192	4243	4243	4243	4243	4243	4243	4243	4243	4192	4192	4192	4192	4192	4192	4192	4192	4243	4243	4243	4296	4296	4296	4296	4296	4296	4243	4243	4243	4243	4192	4192	4192	4192	4192	4243	4243	4243	4243	4296	4350	4350	4350	4350	4350	4296	4296	4243	4243	4243	4243	4243	4296	4350	4350	4296	4350	4243	4243	4350	4296	4243	4243	4243	4243	4243	4243	4243	4243	4296	4243	4243	4243	4243	4243	4243	4243	4243	4296	4296	0	0	0	0	0	0	7959	7779	7608	7444	7444	7287	7287	7287	7137	7137	7287	7444	7444	7287	7287	7287	7287	7287	7287	7287	7287	7287	7137	7137	7137	7137	0	0	0	0	0	0	0	0	2281	2281	2281	2266	2266	2266	2252	2252	2237	2223	2223	2208	2208	2208	2208	2194	2194	2194	2194	2194	2181	2181	2167	2167	2167	2167	2153	2153	0	0	0	0	0	0	0	0	0	0	0	0	0	0	0	0	0	0	0	0	0	0	0	0	0	0	0	0	0	0	0	0	0	0	0
0	0	0	0	0	767	768	768	0	782	782	782	782	797	802	800	802	802	802	804	808	810	810	814	815	819	819	825	827	831	831	833	835	837	845	848	852	860	862	862	862	865	865	871	875	875	878	878	882	891	891	891	894	894	915	917	922	922	925	927	930	935	940	945	948	950	958	963	972	972	974	977	983	991	994	994	997	1003	1006	1006	1008	1014	1017	1020	1023	1033	1036	1036	1036	1036	1039	1039	0	0	0	0	0	0	0	0	4643	4581	4643	4706	4643	4643	4581	4581	4581	4581	4581	4581	4581	4581	4581	4581	4643	4643	4581	4643	4643	4581	4581	4581	4581	4581	4643	4643	4643	4643	4643	4643	4643	4643	4643	4643	4643	4643	4643	4643	4643	4643	4643	4643	4643	4643	4643	4643	4643	4643	4643	4643	4706	4706	4706	4771	4771	4838	4838	4906	4906	4838	4838	4906	0	0	0	6124	6124	6018	6235	6124	6018	6124	6018	6018	0	0	0	0	0	0	0	0	0	0	0	0	0	0	0	0	0	0	0	0	0	0	0	0	0	0	0	0	0	0	0	0	0	0	0	0	0	0	0	0	0	0	0	0	0	0	0	0	0	0	0	0	7137	6992	6992	6992	6992	7137	7137	7137	7287	7608	7608	7608	7444	7444	7287	7287	7137	7287	7287	7287	7287	7444	7444	7444	7444	7444	0	0	0	0	0	0	7608	7444	7444	7287	7287	0	0	0	7959	7959	0	0	0	0	0	0	0	0	0	0	0	0	0	0	0	3738	3738	3738	3698	3698	3698	3698	3659	3698	3698	3698	3698	3698	3698	3698	3698	3698	3698	3698	3698	3698	3659	3659	0	0	0	0	0	3698	3698	3698	3738	3779	3738	3779	3779	3779	3738	3738	3738	3738	3698	3698	3698	3698	3659	3659	3621	3659	3659	3659	3659	4406	4406	4406	4463	4406	4406	4406	4406	4463	4463	4463	4463	4463	4463	4521	4521	4463	4463	4406	4350	4350	4296	4296	4350	4406	4463	4463	4521	4521	4521	4521	4521	4521	4521	4521	4521	4521	4521	4521	4521	4521	4521	4521	4521	4581	4581	4581	4581	4581	4581	4521	4581	4581	4581	4581	4581	4581	4581	4581	4581	4581	4581	4581	4581	4581	4581	4581	4581	4581	4581	4581	4581	4581	4581	4581	4581	4521	4521	4581	4521	4521	4521	4581	4581	4521	4521	4463	4463	4406	4406	4406	4406	4350	4350	4296	4296	4296	4296	4296	4296	4243	4243	4243	4192	4192	4192	4192	4192	4243	4243	4243	4243	4243	4243	4192	4243	4192	4192	4192	4243	4192	4243	4243	4243	4243	4243	4243	4243	4243	4192	4192	4192	4243	4192	4192	4192	4192	4243	4243	4243	4296	4296	4350	4296	4243	4243	4243	4243	4243	4243	4192	4192	4192	4192	4192	4192	4243	4243	4243	4296	4296	4350	4296	4296	4296	4296	4296	4243	4243	4243	4243	4243	4296	4350	4350	4296	4350	4243	4296	4296	4296	4243	4243	4243	4243	4243	4243	4243	4243	4296	4296	4243	4243	4243	4243	4243	4243	4243	0	0	0	0	0	0	0	0	7959	7779	7608	7444	7444	7287	7287	7287	7137	7137	7287	7444	7287	7287	7287	7287	7137	7287	7287	7287	7137	7287	7137	7137	7137	7137	7137	7137	0	0	0	0	0	0	2281	2281	2266	2266	2266	2266	2266	2252	2237	2237	2223	2208	2208	2208	2208	2208	2194	2194	2194	2194	2181	2181	2167	2167	2167	2167	2153	2153	0	0	0	0	0	0	0	0	0	0	0	0	0	0	0	0	0	0	0	0	0	0	0	0	0	0	0	0	0	0	0	0	0	0	0
0	0	0	0	0	768	772	772	777	777	782	782	798	798	800	800	802	804	804	806	808	810	810	814	815	819	819	823	829	831	833	835	837	839	839	845	854	858	860	860	862	862	862	865	873	878	878	880	887	891	891	891	891	891	915	917	922	925	925	930	932	942	945	948	948	950	950	966	969	972	974	974	980	988	994	997	997	1003	1006	1008	1008	1014	1017	1020	1026	1036	1036	1036	1036	1036	1039	1039	0	0	0	0	0	0	0	0	0	4581	4643	4643	4643	4581	4581	4581	4581	4581	4581	4581	4581	4581	4581	4581	4581	4581	4581	4581	4581	4581	4581	4581	4581	4581	4643	4643	4643	4643	4643	4643	4643	4643	4643	4643	4643	4643	4643	4643	4643	4643	4643	4643	4643	4643	4643	4643	4643	4643	4643	4643	4643	4643	4643	4706	4771	4838	4906	4906	4906	4838	4838	0	6124	6124	6124	6124	6124	6124	6124	6235	6124	6124	6124	6124	6124	0	0	0	0	0	0	0	0	0	0	0	0	0	0	0	0	0	0	0	0	0	0	0	0	0	0	0	0	0	0	0	0	0	0	0	0	0	0	0	0	0	0	0	0	0	0	0	0	0	0	0	7137	6992	6992	6992	7137	7137	7137	7137	7444	7608	7608	7444	7444	7444	7444	7287	7287	7287	7287	7287	7287	7444	7444	7608	7608	7444	0	0	0	0	0	0	7608	7444	7444	7444	7444	7444	0	7959	7779	7779	7779	7779	0	0	0	0	0	0	0	0	0	0	0	0	0	3738	3738	3738	3698	3698	3698	3659	3659	3698	3698	3698	3698	3698	3698	3698	3698	3698	3698	3698	3698	3698	3659	3659	0	0	0	0	0	3698	3738	3738	3738	3779	3738	3738	3738	3738	3738	3738	3738	3738	3738	3738	3698	3698	3698	3659	3621	3659	3621	3621	3621	4406	4406	4406	4406	4406	4350	4350	4350	4406	4406	4406	4406	4463	4463	4463	4463	4406	4350	4350	4350	4350	4296	4296	4350	4350	4463	4463	4521	4521	4521	4521	4521	4521	4521	4521	4521	4521	4521	4521	4521	4521	4521	4521	4521	4581	4581	4581	4581	4581	4581	4521	4581	4581	4581	4581	4581	4581	4581	4581	4581	4581	4581	4581	4581	4581	4581	4581	4581	4581	4581	4581	4581	4581	4581	4581	4581	4521	4521	4521	4521	4521	4521	4521	4521	4521	4521	4463	4463	4406	4406	4406	4406	4350	4350	4296	4296	4296	4296	4296	4243	4243	4243	4243	4192	4192	4192	4192	4192	4243	4243	4243	4192	4192	4192	4192	4192	4192	4192	4192	4243	4243	4243	4243	4243	4243	4243	4243	4243	4243	4192	4192	4243	4243	4243	4243	4192	4192	4243	4243	4243	4243	4243	4296	4296	4243	4243	4243	4243	4243	4243	4192	4192	4192	4192	4192	4192	4192	4243	4243	4243	4296	4296	4296	4296	4296	4296	4243	4243	4243	4243	4243	4243	4296	4350	4350	4296	4296	4243	4296	4296	4243	4243	4243	4243	4243	4243	4243	4243	4243	4296	4243	4243	4243	4243	4192	4192	4192	4243	0	0	0	0	0	0	0	0	0	7779	7608	7444	7444	0	0	0	0	0	0	7287	7287	7137	7137	7137	7137	7287	7287	7287	7137	7287	7137	7137	7137	7137	7137	7137	0	0	0	0	0	0	2281	2281	2281	2266	2266	2266	2266	2252	2252	2237	2237	2223	2208	2208	2208	2208	2194	2181	2181	2194	2181	2181	2167	2167	2167	2167	2167	2167	0	0	0	0	0	0	0	0	0	0	0	0	0	0	0	0	0	0	0	0	0	0	0	0	0	0	0	0	0	0	0	0	0	0	0
0	0	0	0	0	770	770	772	775	777	784	789	793	797	798	798	802	804	804	808	810	812	812	814	817	821	821	823	827	831	833	835	837	839	843	843	852	854	856	860	860	862	862	869	873	875	878	880	887	891	891	891	891	891	915	917	925	925	927	930	932	945	945	948	948	950	953	966	969	972	974	977	983	988	994	994	997	1000	1003	1006	1008	1014	1017	1020	1023	1033	1036	1036	1036	1036	1036	1039	0	0	0	0	0	0	0	0	4581	4581	4643	4643	4643	4643	4643	4643	4581	4581	4581	4581	4521	4521	4521	4521	4581	4581	4581	4581	4581	4581	4581	4581	4581	4581	4643	4643	4643	4643	4643	4643	4643	4643	4643	4643	4643	4643	4643	4643	4643	4643	4706	4643	4643	4643	4643	4643	4643	4643	4643	4643	4643	4706	4706	4771	4771	4906	4906	4906	4977	4977	4906	4906	6018	6124	6018	6124	6124	6018	6124	6124	6124	6124	6018	6124	6124	0	0	0	0	0	0	0	0	0	0	0	0	0	0	0	0	0	0	0	0	0	0	0	0	0	0	0	0	0	0	0	0	0	0	0	0	0	0	0	0	0	0	0	0	0	0	0	0	0	0	7137	7137	6992	6992	6992	7137	7137	7287	7287	7444	7444	7444	7444	7444	7444	7444	7444	7287	7444	7444	7287	7444	7444	7608	7608	7608	7444	7444	0	0	0	0	0	7608	7608	7444	7608	7608	7779	7779	7779	7779	7779	7779	7779	7779	0	0	0	0	0	0	0	0	0	0	0	0	0	3738	3738	3738	3698	3698	3698	3659	3698	3698	3698	3698	3698	3698	3698	3698	3698	3698	3698	3698	3698	3698	3698	0	0	0	0	0	0	3738	3738	3738	3779	3738	3738	3738	3738	3738	3738	3698	3738	3738	3738	3698	3698	3659	3659	3621	3621	3583	3546	3546	4406	4406	4406	4406	4350	4350	4350	4350	4350	4350	4350	4350	4406	4406	4406	4350	4350	4296	4296	4243	4243	4296	4296	4350	4406	4463	4463	4463	4521	4521	4521	4521	4521	4521	4521	4521	4521	4521	4521	4521	4521	4521	4521	4521	4581	4581	4581	4581	4581	4581	4521	4581	4581	4581	4581	4581	4581	4581	4581	4581	4581	4581	4581	4581	4581	4581	4581	4581	4581	4581	4581	4581	4581	4581	4581	4581	4521	4521	4521	4521	4521	4521	4521	4521	4521	4521	4463	4463	4406	4406	4406	4406	4350	4350	4296	4296	4296	4296	4296	4243	4243	4243	4243	4192	4192	4192	4192	4192	4243	4243	4243	4243	4192	4192	4192	4192	4192	4192	4243	4243	4243	4243	4243	4243	4243	4243	4243	4243	4243	4243	4243	4243	4243	4192	4192	4192	4192	4192	4192	4243	4243	4243	4296	4243	4243	4243	4243	4243	4243	4192	4192	4192	4192	4192	4192	4192	4192	4192	4243	4243	4243	4243	4243	4243	4296	4243	4243	4243	4243	4243	4243	4243	4296	4296	4296	4296	4243	4243	4296	4296	4243	4243	4243	4243	4243	4243	4243	4243	4243	4296	4243	4243	4243	4243	4192	4192	4243	4243	4243	4243	4243	0	0	0	0	0	0	0	0	0	0	0	0	0	0	7137	7137	7137	7287	7137	7137	7137	7137	7287	7287	7287	7137	7287	7137	7137	7137	7137	7137	0	0	0	0	0	0	0	2281	2281	2281	2281	2266	2281	2266	2266	2252	2252	2237	2223	2223	2208	2208	2208	2194	2194	2194	2181	2181	2181	2167	2167	2167	2167	2167	2167	0	0	0	0	0	0	0	0	0	0	0	0	0	0	0	0	0	0	0	0	0	0	0	0	0	0	0	0	0	0	0	0	0	0	0
0	0	0	0	0	770	770	772	777	780	786	788	791	795	798	800	806	806	806	808	810	812	812	815	817	821	821	825	827	829	833	835	837	839	841	845	845	852	856	860	862	862	862	869	871	875	878	880	889	891	894	894	894	894	910	915	917	927	930	932	937	945	945	948	950	950	953	966	969	969	972	974	983	988	994	994	997	997	1000	1006	1008	1014	1017	1020	1023	1030	1030	1033	1033	1036	1036	0	0	0	0	0	0	0	0	0	4581	4581	4581	4643	4643	4643	4643	4643	4643	4643	4581	4581	4581	4521	4521	4521	4581	4581	4581	4581	4581	4581	4581	4581	4581	4581	4643	4581	4581	4643	4643	4643	4643	4643	4643	4643	4643	4643	4643	4643	4706	4706	4706	4643	4643	4643	4643	4643	4643	4643	4581	4643	4643	4706	4771	4771	4838	4906	4906	4906	4977	4977	4977	4977	6018	6124	6018	6124	6124	6018	6124	6124	6018	6018	6018	6018	6018	0	0	0	0	0	0	0	0	0	0	0	0	0	0	0	0	0	0	0	0	0	0	0	0	0	0	0	0	0	0	0	0	0	0	0	0	0	0	0	0	0	0	0	0	0	0	0	0	0	0	6992	7137	6992	6992	6992	7137	7287	7287	7287	7444	7444	7444	7444	7444	7444	7444	7444	7287	7444	7444	7444	7444	7444	7608	7608	7444	7444	7444	0	0	0	0	0	7779	7779	7608	7608	7608	7779	7779	7779	7779	7779	7779	7779	7779	7779	0	0	0	0	0	0	0	0	0	0	0	0	0	3738	3738	3738	3698	3698	3698	3698	3698	3698	3698	3698	3698	3698	3698	3698	3698	3698	3698	3698	3779	3779	0	0	0	0	0	0	3738	3738	3738	3779	3738	3738	3738	3738	3738	3738	3738	3738	3738	3738	3698	3698	3659	3659	3621	3583	3583	3583	3583	4406	4350	4350	4350	4350	4350	4296	4296	4296	4296	4296	4296	4350	4296	4296	4296	4296	4296	4243	4243	4243	4296	4296	4350	4350	4463	4463	4463	4521	4521	4521	4521	4521	4521	4521	4521	4521	4581	4581	4581	4581	4521	4521	4521	4581	4581	4581	4581	4581	4581	4581	4581	4581	4581	4581	4581	4581	4581	4581	4581	4581	4581	4581	4581	4581	4581	4581	4581	4581	4581	4581	4581	4581	4581	4581	4521	4521	4521	4521	4521	4521	4521	4521	4521	4521	4521	4463	4463	4406	4463	4406	4406	4350	4350	4350	4296	4296	4296	4296	4296	4243	4243	4192	4192	4192	4192	4192	4192	4243	4243	4243	4192	4192	4192	4192	4192	4192	4192	4192	4243	4243	4243	4243	4243	4243	4243	4243	4243	4296	4243	4243	4243	4243	4243	4243	4243	4243	4243	4243	4243	4243	4243	4243	4243	4243	4243	4243	4243	4243	4192	4192	4192	4192	4192	4192	4192	4192	4192	4192	4192	4243	4243	4243	4243	4296	4243	4296	4243	4243	4243	4243	4243	4296	4296	4296	4296	4296	4296	4296	4296	4296	4243	4243	4243	4192	4192	4243	4243	4243	4296	4243	4243	4243	4243	4243	4243	4243	4243	4243	4243	4243	0	0	0	0	0	0	0	0	0	0	0	0	0	0	7287	7287	7137	7287	7137	7137	7137	7137	7137	7137	7287	7137	7287	7137	7137	7137	7137	7137	6992	6992	0	0	0	0	0	0	2281	2281	2281	2266	2281	2266	2266	2252	2237	2252	2223	2223	2208	2208	2208	2194	2208	2194	2194	2194	2181	2181	2181	2167	2167	2167	2167	0	0	0	0	0	0	0	0	0	0	0	0	0	0	0	0	0	0	0	0	0	0	0	0	0	0	0	0	0	0	0	0	0	0	0
0	0	0	0	0	770	772	773	777	780	784	788	795	797	798	800	802	806	806	810	810	812	812	814	819	821	821	825	827	829	829	835	839	841	841	843	845	852	856	860	862	865	865	869	871	873	875	880	889	894	896	896	898	901	908	913	925	927	932	937	940	945	945	948	950	950	955	966	969	972	972	974	980	985	991	994	1000	997	1003	1008	1014	1017	1017	1023	1023	1030	1030	1033	1033	1033	1033	0	0	0	0	0	0	0	0	0	4581	4581	4581	4581	4581	4643	4643	4643	4643	4643	4581	4581	4521	4521	4521	4521	4581	4581	4581	4581	4581	4581	4581	4581	4581	4581	4643	4643	4643	4643	4643	4643	4643	4643	4643	4643	4643	4643	4643	4643	4706	4706	4706	4643	4643	4643	4643	4643	4643	4643	4581	4643	4643	4643	4771	4771	4838	4906	4977	4977	4977	4977	4977	5815	5915	6124	6124	6124	6124	6018	6124	6124	6018	6018	6018	6018	6018	0	0	0	0	0	0	0	0	0	0	0	0	0	0	0	0	0	0	0	0	0	0	0	0	0	0	0	0	0	0	0	0	0	0	0	0	0	0	0	0	0	0	0	0	0	0	0	0	0	0	7137	7137	6992	6992	7137	7137	7287	7287	7287	7444	7444	7444	7444	7444	7444	7444	7444	7287	7608	7444	7444	7444	7444	7608	7608	7444	7444	7444	0	0	0	0	0	7779	7779	7608	7608	7608	7779	7779	7779	7779	7608	7779	7608	7608	7608	0	0	0	0	0	0	0	0	0	0	0	0	0	3738	3738	3738	3698	3698	3698	3698	3698	3698	3698	3698	3698	3698	3698	3698	3698	3698	3698	3698	3698	3907	3907	0	0	0	0	0	3738	3738	3738	3779	3738	3738	3738	3738	3738	3738	3738	3738	3738	3738	3738	3698	3659	3659	3621	3621	3621	3583	3583	4350	4350	4350	4296	4296	4296	4296	4296	4243	4296	4296	4296	4243	4243	4296	4243	4243	4243	4243	4243	4243	4296	4296	4350	4350	4463	4463	4463	4521	4521	4521	4521	4521	4521	4521	4521	4521	4521	4581	4581	4581	4521	4521	4521	4581	4581	4581	4581	4581	4581	4581	4581	4581	4581	4581	4581	4581	4581	4581	4581	4581	4581	4581	4581	4581	4581	4581	4581	4581	4581	4581	4581	4581	4581	4581	4521	4463	4463	4463	4463	4463	4521	4521	4521	4521	4521	4521	4521	4463	4463	4463	4406	4350	4350	4350	4350	4296	4296	4296	4296	4192	4192	4142	4192	4192	4192	4142	4192	4192	4192	4243	4192	4192	4192	4192	4192	4192	4192	4243	4243	4243	4243	4243	4243	4243	4243	4243	4243	4243	4296	4243	4243	4243	4243	4243	4243	4243	4243	4243	4243	4243	4243	4243	4243	4243	4243	4243	4192	4243	4192	4192	4192	4192	4192	4192	4192	4192	4192	4192	4192	4192	4243	4243	4296	4296	4296	4296	4296	4243	4243	4243	4243	4296	4296	4296	4296	4296	4296	4296	4296	4243	4243	4243	4243	4192	4192	4192	4243	4243	4296	4243	4243	4296	4296	4243	4296	4296	4243	4243	4243	0	0	0	0	0	0	0	0	0	0	0	0	0	0	0	7287	7287	7287	7287	7137	7137	7137	7137	7137	7137	7137	7137	7287	7137	7287	7137	7137	7287	6992	6992	6992	0	0	0	0	0	0	2281	2281	2266	2266	2266	2266	2252	2223	2237	2223	2223	2223	2208	2208	2208	2208	2194	2194	2194	2181	2181	2181	2181	2167	2167	2167	0	0	0	0	0	0	0	0	0	0	0	0	0	0	0	0	0	0	0	0	0	0	0	0	0	0	0	0	0	0	0	0	0	0	0
0	0	0	0	0	770	770	772	777	780	782	786	795	797	797	798	802	806	804	806	810	812	812	819	819	821	821	823	827	829	833	841	843	841	843	843	845	845	858	860	862	869	869	869	871	873	875	889	889	894	896	896	898	901	908	910	915	927	935	940	942	945	948	950	953	953	958	963	969	969	972	974	980	985	991	994	997	997	1000	1011	1014	1017	1023	1023	1023	1030	1030	1033	1033	1033	1033	0	0	0	0	0	0	0	0	0	4581	4581	4581	4581	4581	4581	4581	4643	4643	4581	4581	4521	4521	4521	4521	4521	4581	4581	4581	4643	4643	4581	4581	4581	4581	4581	4643	4643	4643	4643	4643	4643	4643	4643	4643	4643	4643	4643	4643	4706	4643	4643	4643	4643	4643	4643	4643	4643	4643	4643	4581	4643	4643	4643	4771	4771	4838	4977	4977	4977	5050	4977	4977	4977	5915	6124	6124	6124	6124	6124	6018	6124	6018	6018	6018	6018	6018	0	0	0	0	0	0	0	0	0	0	0	0	0	0	0	0	0	0	0	0	0	0	0	0	0	0	0	0	0	0	0	0	0	0	0	0	0	0	0	0	0	0	0	0	0	0	0	0	0	0	7137	7287	7137	7137	7137	7287	7444	7444	7444	7444	7444	7608	7608	7608	7608	7444	7444	7444	7444	7444	7444	7444	7444	7444	7608	7444	7444	7444	7608	7608	7608	0	7608	7608	7608	7779	7779	7779	7779	7779	7779	7779	7608	7608	7608	7608	7608	7608	0	0	0	0	0	0	0	0	0	0	0	0	0	3738	3738	3698	3698	3698	3698	3698	3698	3698	3698	3698	3698	3698	3698	3698	3698	3698	3698	3698	3907	3907	0	0	0	0	0	3738	3738	3738	3779	3738	3738	3738	3738	3698	3698	3698	3738	3738	3698	3698	3698	3659	3659	3621	3583	3621	3621	4296	4296	4296	4296	4296	4296	4296	4296	4296	4243	4243	4243	4243	4243	4243	4243	4243	4243	4243	4243	4243	4243	4296	4350	4350	4406	4463	4463	4463	4521	4521	4521	4521	4521	4521	4521	4521	4521	4521	4581	4581	4581	4521	4521	4521	4581	4581	4581	4581	4581	4581	4521	4581	4581	4581	4581	4581	4581	4581	4581	4581	4581	4581	4581	4581	4581	4581	4581	4581	4581	4581	4581	4581	4581	4581	4581	4521	4463	4463	4521	4521	4463	4521	4463	4521	4521	4521	4521	4521	4463	4463	4463	4406	4350	4350	4350	4296	4296	4296	4243	4192	4192	4142	4142	4192	4192	4192	4142	4192	4192	4192	4243	4192	4192	4192	4192	4192	4192	4192	4192	4192	4243	4243	4243	4243	4243	4243	4243	4243	4296	4296	4296	4243	4243	4243	4243	4243	4243	4243	4243	4243	4243	4243	4243	4243	4243	4243	4243	4192	4243	4243	4192	4192	4192	4192	4192	4142	4192	4192	4192	4192	4192	4243	4243	4243	4243	4296	4296	4296	4243	4243	4243	4192	4243	4243	4243	4243	4243	4243	4243	4243	4243	4243	4243	4243	4192	4192	4243	4243	4243	4243	4243	4243	4296	4296	4296	4296	4296	4243	4296	4192	4192	0	0	0	0	0	0	0	0	0	0	0	0	0	0	7287	7287	7287	7287	7287	7137	7137	7137	7137	7137	7137	7137	7287	7137	7287	7287	7287	7287	7137	6992	6992	0	0	0	0	0	0	0	2281	2281	2281	2266	2266	2252	2237	2252	2237	2237	2223	2208	2208	2208	2208	2194	2194	2181	2181	2181	2181	2181	2167	2167	2167	0	0	0	0	0	0	0	0	0	0	0	0	0	0	0	0	0	0	0	0	0	0	0	0	0	0	0	0	0	0	0	0	0	0	0
0	0	0	0	0	770	772	772	777	779	782	786	797	798	797	798	802	804	802	804	810	812	812	821	823	821	823	823	827	829	831	839	841	841	843	843	845	848	852	856	862	867	867	869	871	873	878	880	887	896	896	898	901	903	908	910	913	925	937	942	945	948	950	950	953	953	958	963	966	969	972	972	977	977	997	1000	1003	1000	1008	1011	1014	1017	1023	1026	1026	1030	1030	1033	1033	1033	1033	0	0	0	0	0	0	0	0	4581	4581	4581	4581	4581	4581	4581	4581	4643	4581	4581	4581	4521	4521	4521	4521	4581	4581	4643	4643	4643	4643	4643	4581	4581	4581	4581	4643	4643	4581	4643	4643	4643	4643	4643	4643	4706	4643	4643	4706	4706	4643	4643	4643	4643	4643	4643	4643	4643	4643	4643	4643	4643	4643	4643	4706	4706	4838	4906	4977	4977	5050	4977	4977	6235	6235	6124	6124	6124	6124	6018	6018	6018	6018	6018	6018	5915	5915	0	0	0	0	0	0	0	0	0	0	0	0	0	0	0	0	0	0	0	0	0	0	0	0	0	0	0	0	0	0	0	0	0	0	0	0	0	0	0	0	0	0	0	0	0	0	0	0	0	0	7287	7287	7287	7137	7287	7287	7444	7444	7444	7608	7608	7608	7608	7608	7444	7444	7444	7444	7444	7444	7444	7444	7444	7444	7444	7444	7444	7444	7608	7608	7444	7444	7608	7608	7608	7779	7779	7779	7779	7779	7779	7779	7608	7608	7608	7608	7608	7608	7608	0	0	0	0	0	0	0	0	0	0	0	3738	3738	3738	3698	3698	3698	3698	3698	3698	3698	3698	3698	3698	3698	3698	3698	3698	3698	3698	3698	0	0	0	0	0	0	0	3738	3779	3738	3779	3738	3738	3738	3738	3738	3738	3738	3738	3738	3738	3698	3698	3698	3659	3621	3621	3621	3621	4350	4296	4296	4296	4296	4296	4296	4296	4296	4243	4243	4243	4243	4243	4243	4243	4243	4243	4243	4243	4243	4296	4296	4350	4350	4406	4463	4463	4463	4521	4521	4521	4521	4521	4521	4521	4521	4521	4581	4581	4581	4581	4521	4521	4521	4581	4581	4581	4581	4581	4581	4521	4581	4581	4581	4581	4581	4581	4581	4581	4643	4581	4581	4581	4581	4581	4521	4521	4521	4581	4581	4581	4581	4581	4581	4581	4521	4521	4521	4521	4521	4521	4521	4521	4521	4581	4521	4521	4521	4521	4463	4463	4406	4350	4350	4350	4350	4296	4296	4192	4192	4192	4192	4142	4192	4192	4192	4192	4192	4243	4192	4243	4192	4192	4192	4192	4192	4192	4192	4192	4192	4243	4243	4243	4243	4243	4243	4243	4296	4296	4296	4296	4243	4243	4243	4243	4192	4192	4192	4192	4243	4243	4243	4243	4243	4243	4243	4243	4192	4192	4243	4243	4243	4243	4192	4192	4192	4192	4192	4192	4192	4192	4243	4243	4243	4243	4243	4296	4296	4243	4243	4243	4243	4243	4296	4243	4243	4243	4243	4243	4243	4243	4243	4243	4192	4192	4243	4192	4192	4192	4243	4243	4243	4296	4296	4243	4243	4296	4243	4296	4243	4243	0	0	0	0	0	0	0	0	0	7608	7608	0	0	0	7287	7287	7287	7287	7287	7287	7137	7137	7287	7137	7287	7137	7444	7287	7444	7287	7287	7287	7137	7137	7137	6992	6992	0	0	0	0	0	0	2297	2281	2281	2266	2252	2237	2252	2237	2223	2223	2208	2208	2208	2208	2208	2208	2194	2194	2181	2181	2181	2167	2167	2167	0	0	0	0	0	0	0	0	0	0	0	0	0	0	0	0	0	0	0	0	0	0	0	0	0	0	0	0	0	0	0	0	0	0	0
0	0	0	0	0	770	772	772	777	779	782	784	784	797	797	797	798	798	800	806	812	814	815	821	823	823	823	823	827	829	831	837	839	839	841	843	848	850	852	854	856	867	869	871	871	873	875	880	891	896	896	898	901	903	905	908	913	930	937	942	942	945	948	950	950	953	961	966	966	966	969	972	974	974	1000	1000	1003	1000	1011	1014	1014	1017	1023	1023	1023	1030	1033	1033	1033	1033	0	0	0	0	0	0	0	0	0	4581	4581	4581	4581	4581	4581	4643	4643	4643	4643	4581	4581	4521	4521	4521	4521	4521	4581	4643	4706	4706	4706	4643	4581	4581	4581	4581	4643	4643	4581	4643	4643	4643	4643	4643	4643	4706	4643	4643	4706	4706	4706	4643	4643	4643	4643	4643	4643	4643	4643	4643	4643	4643	4643	4706	4706	4771	4838	4906	4977	5050	5050	4977	4977	6235	6235	6124	6124	6124	6124	6124	6124	6124	6018	6018	6018	6018	6018	0	0	0	0	0	0	0	0	0	0	0	0	0	0	0	0	0	0	0	0	0	0	0	0	0	0	0	0	0	0	0	0	0	0	7959	7779	7779	7779	0	0	0	0	0	0	0	0	0	0	0	0	7137	7287	7137	7137	7287	7444	7444	7444	7608	7608	7608	7608	7608	7608	7608	7444	7608	7444	7608	7444	7444	7444	7444	7444	7444	7444	7444	7444	7608	7608	7608	7608	7608	7608	7608	7779	7779	7779	7779	7779	7779	7779	7608	7608	7608	7608	7608	7608	7779	7779	7608	7608	7444	7444	7287	7444	7444	0	0	0	3738	3698	3698	3698	3698	3698	3698	3698	3698	3698	3698	3698	3698	3698	3698	3698	3698	3698	3659	3659	0	0	0	0	0	0	0	0	3779	3779	3779	3779	3738	3738	3738	3738	3738	3738	3738	3738	3738	3738	3698	3698	3698	3659	3621	3621	4350	4350	4350	4350	4296	4296	4296	4296	4296	4296	4243	4243	4243	4243	4243	4243	4243	4243	4243	4296	4243	4296	4296	4296	4350	4350	4406	4463	4463	4463	4521	4521	4521	4521	4521	4521	4521	4521	4521	4581	4581	4581	4581	4521	4521	4521	4581	4581	4581	4581	4581	4521	4521	4521	4521	4581	4581	4581	4581	4643	4581	4581	4581	4581	4581	4581	4581	4521	4521	4521	4581	4581	4581	4581	4581	4581	4581	4581	4521	4521	4521	4521	4521	4521	4521	4521	4521	4521	4521	4521	4463	4521	4463	4463	4350	4350	4350	4296	4243	4192	4192	4142	4142	4142	4142	4192	4192	4192	4192	4192	4192	4192	4192	4192	4192	4192	4192	4192	4192	4192	4192	4243	4243	4243	4243	4243	4243	4243	4296	4296	4296	4350	4296	4296	4243	4243	4243	4192	4192	4192	4192	4192	4243	4243	4243	4243	4243	4243	4243	4192	4192	4192	4192	4192	4192	4192	4192	4192	4192	4192	4192	4192	4192	4243	4243	4243	4243	4296	4296	4296	4296	4243	4243	4243	4243	4296	4243	4243	4243	4243	4243	4243	4243	4243	4243	4243	4243	4296	4296	4243	4243	4243	4243	4243	4296	4296	4296	4296	4296	4296	4296	4243	4243	0	0	0	0	0	0	0	0	0	7608	7608	7608	7444	7444	7444	7608	7608	7444	7444	7287	7137	7287	7287	7137	7287	7137	7444	7444	7444	7444	7444	7444	7287	7137	7137	6992	6992	6992	0	0	0	0	0	2297	2297	2297	2266	2252	2223	2237	2223	2223	2223	2208	2208	2208	2223	2208	2194	2194	2194	2181	2181	2181	2167	2167	2167	0	0	0	0	0	0	0	0	0	0	0	0	0	0	0	0	0	0	0	0	0	0	0	0	0	0	0	0	0	0	0	0	0	0	0
0	0	0	0	0	770	773	773	775	779	782	784	789	791	791	795	797	800	798	800	812	812	814	819	823	819	819	819	827	829	829	835	839	839	843	845	848	850	850	854	856	869	869	871	873	873	875	880	891	896	896	901	903	903	905	910	915	927	937	940	940	945	945	945	950	950	961	966	966	969	972	974	977	969	1000	1000	1003	1003	1011	1014	1014	1017	1023	1023	1023	1026	1030	1030	1033	1033	0	0	0	0	0	0	0	0	0	4581	4581	4581	4581	4581	4581	4643	4643	4643	4643	4581	4581	4521	4521	4521	4521	4521	4643	4706	4706	4706	4706	4643	4643	4581	4581	4581	4643	4643	4643	4643	4643	4643	4643	4643	4643	4706	4706	4643	4706	4706	4643	4643	4643	4643	4643	4643	4643	4643	4643	4643	4643	4643	4706	4771	4838	4838	4838	4906	4977	5050	5050	4977	4977	6235	6235	6124	6235	6124	6124	6124	6124	6018	6018	6018	6018	5915	5915	0	0	0	0	0	0	0	0	0	0	0	0	0	0	0	0	0	0	0	0	0	0	0	0	0	0	0	0	0	0	0	0	0	0	7959	7779	7779	7779	7779	7608	7608	0	0	0	0	0	7608	7287	7287	7444	7444	7444	7137	7137	7287	7444	7444	7444	7444	7608	7608	7608	7608	7608	7608	7608	7608	7608	7608	7444	7444	7444	7444	7444	7444	7444	7444	7444	7608	7608	7608	7608	7608	7608	7608	7779	7779	7779	7779	7779	7779	7779	7608	7608	7608	7608	7608	7608	7608	7608	7608	7608	7608	7444	7444	7608	7444	7444	0	0	0	3698	3698	3698	3698	3698	3698	3698	3698	3698	3698	3698	3698	3698	3698	3698	3698	3698	3659	3659	0	0	0	0	0	0	0	0	3779	3738	3779	3779	3738	3738	3738	3738	3738	3738	3738	3698	3698	3698	3698	3698	3698	3698	3698	3659	4296	4296	4296	4296	4296	4296	4296	4296	4296	4243	4243	4243	4243	4243	4243	4192	4296	4243	4296	4296	4296	4296	4350	4350	4350	4350	4406	4463	4463	4521	4521	4521	4521	4521	4521	4521	4521	4521	4521	4521	4581	4521	4521	4521	4521	4521	4581	4581	4581	4581	4581	4521	4521	4521	4581	4581	4581	4581	4581	4643	4581	4643	4581	4581	4581	4581	4581	4581	4581	4521	4581	4581	4581	4581	4581	4581	4581	4521	4521	4463	4521	4521	4521	4463	4463	4521	4521	4521	4521	4521	4521	4521	4521	4406	4406	4350	4350	4296	4243	4192	4192	4142	4192	4192	4192	4192	4192	4192	4192	4192	4243	4192	4192	4192	4192	4192	4192	4192	4192	4192	4192	4243	4243	4243	4243	4243	4243	4243	4296	4296	4350	4406	4350	4296	4296	4243	4243	4192	4192	4192	4192	4243	4243	4243	4243	4243	4243	4243	4192	4192	4192	4192	4192	4192	4192	4192	4192	4192	4192	4192	4192	4142	4192	4243	4243	4243	4243	4296	4296	4350	4296	4243	4243	4243	4296	4296	4296	4243	4243	4243	4243	4243	4243	4243	4243	4296	4296	4296	4296	4296	4243	4243	4243	4296	4296	4350	4350	4350	4296	4296	4296	4243	4243	4243	0	0	0	0	0	0	0	0	7444	7608	7608	7608	7444	7444	7608	7608	7444	7444	7444	7287	7287	7287	7287	7287	7287	7608	7444	7608	7444	7444	7444	7137	7137	7137	7137	7137	7137	0	0	0	0	0	2297	2297	2297	2266	2252	2223	2237	2223	2223	2223	2208	2208	2208	2208	2208	2194	2181	2181	2181	2181	2181	2167	2167	2167	0	0	0	0	0	0	0	0	0	0	0	0	0	0	0	0	0	0	0	0	0	0	0	0	0	0	0	0	0	0	0	0	0	0	0
0	0	0	0	0	770	773	773	777	779	779	786	789	791	791	797	798	800	798	800	810	812	814	819	821	821	821	823	827	829	829	835	837	839	843	845	848	848	850	854	867	869	869	871	873	873	875	878	887	896	898	903	903	905	908	913	920	930	937	937	940	940	945	950	950	953	963	966	966	969	972	974	969	966	1003	1003	1003	1006	1011	1014	1014	1017	1023	1023	1023	1026	1030	1033	1033	1033	0	0	0	0	0	0	0	0	0	4581	4581	4581	4581	4581	4581	4643	4643	4643	4643	4581	4581	4521	4463	4463	4463	4706	4906	4906	4838	4706	4706	4643	4581	4581	4581	4581	4643	4643	4643	4643	4643	4643	4643	4643	4643	4706	4643	4643	4643	4643	4643	4643	4643	4643	4643	4643	4643	4643	4643	4643	4643	4643	4643	4706	4771	4838	4838	4838	4977	4977	4977	4906	4906	6235	6235	6235	6235	6124	6124	6124	6124	6018	6018	6018	6018	6018	5915	0	0	0	0	0	0	0	0	0	0	0	0	0	0	0	0	0	0	0	0	0	0	0	0	0	0	0	0	0	0	0	0	0	0	7959	7779	7608	7779	7779	7608	7608	7444	7444	0	7444	7608	7608	7444	7444	7444	7444	7444	7137	7137	7287	7287	7287	7287	7444	7444	7608	7608	7608	7608	7608	7608	7608	7608	7608	7444	7444	7444	7444	7444	7444	7444	7444	7444	7608	7608	7608	7608	7608	7608	7779	7779	7779	7779	7779	7779	7779	7608	7608	7608	7608	7608	7608	7779	7779	7779	7779	7608	7608	7608	7608	7608	7608	7608	0	0	0	3659	3698	3698	3698	3698	3698	3698	3698	3698	3698	3698	3698	3698	3698	3698	3698	3659	3659	3659	0	0	0	0	0	0	3440	3440	3738	3738	3779	3738	3738	3738	3738	3738	3738	3698	3698	3698	3698	3659	3698	3698	3698	3698	3659	3659	4296	4296	4296	4296	4296	4296	4296	4243	4296	4243	4243	4243	4243	4243	4243	4192	4243	4243	4296	4296	4296	4350	4350	4350	4350	4406	4406	4463	4463	4521	4521	4521	4521	4521	4521	4521	4521	4521	4521	4521	4581	4521	4521	4521	4521	4521	4521	4581	4581	4581	4581	4581	4581	4521	4581	4521	4581	4581	4581	4581	4581	4643	4581	4581	4581	4581	4581	4581	4581	4521	4581	4581	4581	4581	4581	4581	4581	4521	4463	4463	4463	4463	4463	4463	4463	4521	4521	4521	4521	4521	4521	4521	4521	4463	4406	4350	4296	4243	4243	4192	4192	4192	4192	4192	4192	4192	4192	4192	4192	4192	4192	4192	4192	4192	4192	4192	4192	4192	4192	4192	4192	4243	4243	4243	4243	4243	4243	4296	4296	4296	4350	4406	4350	4296	4296	4243	4243	4192	4192	4192	4192	4243	4243	4243	4243	4243	4243	4243	4192	4192	4192	4192	4192	4192	4192	4192	4192	4192	4192	4192	4192	4142	4192	4243	4243	4243	4243	4296	4296	4296	4296	4296	4296	4296	4296	4296	4296	4296	4296	4296	4296	4243	4296	4296	4296	4296	4296	4296	4296	4296	4243	4243	4243	4243	4296	4350	4350	4406	4350	4350	4350	4296	4296	4296	0	0	0	0	0	0	0	0	7608	7608	7608	7608	7608	7608	7608	7608	7608	7608	7608	7444	7444	7444	7287	7444	7444	7444	7444	7444	7444	7444	7444	7287	7287	7137	7137	7137	7137	0	0	0	0	0	2312	2297	2281	2266	2252	2223	2237	2223	2223	2223	2208	2208	2208	2208	2208	2194	2181	2181	2181	2194	2181	2181	2167	2167	0	0	0	0	0	0	0	0	0	0	0	0	0	0	0	0	0	0	0	0	0	0	0	0	0	0	0	0	0	0	0	0	0	0	0
