0	0	0	0	789	788	791	793	797	798	798	798	798	823	823	825	825	825	835	835	835	837	837	835	837	837	839	839	841	843	843	843	845	850	852	858	860	862	865	867	869	871	871	875	880	882	882	882	884	884	884	0	1052	1052	1052	1052	1055	1061	1061	1064	1064	1064	1061	1064	1064	1064	1064	1068	1064	1068	1068	1068	1071	1071	1071	1071	1071	1071	1068	1068	1068	1068	1068	1064	1064	1064	1068	1068	1068	1071	1068	1078	1081	1078	1078	1081	1081	0	0	0	0	0	0	0	0	0	0	5915	5915	5815	5915	5815	5815	5815	5815	5815	5815	5915	5815	5815	5815	5815	5815	5815	5815	5815	5815	5815	5815	5915	5915	5915	5915	5915	5915	5915	5815	5815	5815	5815	5815	5815	5915	5815	5815	5815	5915	5915	5915	5915	5915	5915	5915	5815	5815	5815	5815	5815	5815	5915	5915	5915	5915	5915	5815	5815	5815	5815	5815	5815	5815	0	0	0	0	0	0	0	0	0	0	0	0	0	0	0	0	0	6018	6018	5915	5915	6018	6018	0	0	0	0	0	0	0	0	5915	5915	5815	5815	5815	5815	5815	5815	5815	5815	5915	5815	5815	5815	5815	5815	5815	5815	5815	5815	5815	5815	5815	5815	5815	5815	5815	5815	5815	5815	5915	5915	5915	5815	5815	5815	5815	5719	5719	5719	5719	5719	5815	5815	5815	5815	5815	5815	5915	6018	6018	6018	6018	6018	6018	6018	5915	5915	5915	5915	5815	5719	5815	5815	5815	5815	5815	5815	5815	5915	5915	5915	5915	5915	5915	5915	5915	5815	5915	5915	5915	5915	5915	5815	5815	5719	5719	5815	5815	5719	5719	0	0	0	3186	3186	3157	3157	3157	3129	3129	3101	3101	3101	3073	3073	3073	3073	3073	3073	3073	3101	3101	3101	3101	3101	3129	3129	3129	3129	3157	3157	3157	3157	3186	3216	3216	3216	0	0	0	0	0	0	5815	5815	5815	5815	5815	0	0	0	0	0	0	0	0	0	0	0	0	6124	6124	6018	6018	6018	0	0	0	0	0	0	0	0	0	5815	5915	5815	5719	5815	5815	5815	5815	5815	5815	5815	5815	5915	5915	5915	5815	5815	5815	5815	5815	5815	5815	5915	5915	5915	5915	5915	5915	5915	5915	5815	5815	5915	5915	5815	5815	5815	5915	5915	5915	5915	5915	5915	5915	5915	5915	5915	5915	5915	5915	5815	5815	5815	5815	5719	5719	5719	5719	5719	5719	5815	5815	5815	5915	5915	5915	5815	5815	5815	5915	5815	5815	5915	5815	5815	5815	5915	5915	5915	5915	5915	5915	5915	5915	5915	5915	5815	5815	5815	5815	5915	5915	5915	5915	5915	5915	5915	5815	5815	5815	5815	5815	5915	5915	5915	5915	5915	5915	5915	5915	5815	5915	5815	5815	5815	5815	5815	0	0	0	0	0	0	0	0	0	0	0	0	0	0	0	0	0	0	0	0	0	5915	6018	6018	6018	6018	6124	6124	6124	6124	0	0	0	0	0	0	0	6124	6018	6018	6018	6018	6018	5915	5915	5815	5815	5815	5815	5815	5815	6018	5915	5915	5915	6018	5915	6018	6018	6018	6018	6018	6018	6018	5915	5915	5815	5815	5719	5719	5719	5719	5719	5719	5719	5719	5719	5626	5719	5719	5719	5719	5719	5719	5719	5719	5719	5719	5719	5719	5815	5719	5815	5815	5815	5815	5815	5915	5915	5915	6018	6124	6124	6124	6124	0	0	0	0	0	0	0	0	0	0	0	0	0	0	0	0	0	0	0	0	0	0	0	0	0	0	0	0	0	0	0	0	0	0	0	0	0	0	0	0	0	0	0	0	0	0	0	0	0	0	0
0	0	0	0	788	786	789	791	793	795	798	798	798	798	804	804	804	825	860	860	860	862	858	837	837	837	839	841	843	843	843	845	848	850	852	856	858	862	865	867	869	871	873	875	880	882	882	884	887	887	887	0	0	1071	940	940	940	1061	1064	1064	1068	1064	1064	1064	1061	1064	1064	1064	1064	1068	1068	1068	1071	1071	1071	1071	1071	1068	1068	1068	1068	1064	1064	1064	1064	1064	1068	1068	1068	1071	1074	1078	1081	1081	1078	1081	1081	0	0	0	0	0	0	0	0	0	0	5915	5915	5915	5915	5915	5915	5915	5815	5815	5815	5915	5815	5815	5815	5815	5815	5915	5815	5815	5815	5815	5915	5915	5915	5915	5915	5915	5915	5915	5915	5915	5915	5915	5915	5915	5915	5915	5915	5915	5915	5915	5915	5915	5915	5815	5915	5815	5815	5815	5815	5815	5815	5915	5915	5915	5915	5915	5815	5815	5815	5719	5719	5815	5815	0	0	0	0	0	0	0	0	0	0	0	0	0	0	0	0	0	6018	6018	5915	5915	6018	6018	6018	0	0	0	0	0	0	0	6124	5915	5915	5915	5815	5915	5815	5815	5815	5915	5915	5915	5815	5815	5815	5815	5815	5815	5815	5815	5815	5815	5815	5815	5815	5815	5915	5915	5915	5915	5915	5915	5915	5915	5915	5815	5815	5815	5815	5719	5815	5719	5815	5815	5815	5815	5815	5815	5815	5915	5915	6018	6018	6018	6018	6018	5915	5915	5915	5915	5915	5815	5815	5815	5815	5815	5815	5815	5915	5915	5915	6018	6018	6018	5915	5915	5915	5915	5915	5915	5915	5915	5915	5915	5815	5815	5815	5815	5815	5815	5815	0	0	0	3186	3157	3157	3157	3157	3129	3101	3101	3101	3101	3073	3073	3073	3073	3073	3073	3073	3129	3101	3101	3129	3129	3129	3129	3129	3129	3157	3157	3157	3157	3186	3186	3186	3216	6124	6018	6018	0	0	5915	5915	5915	5815	5815	5815	5815	0	0	0	0	0	0	0	5815	5815	5815	6018	6018	6018	6018	6018	6018	0	5815	5815	0	0	0	0	6018	5915	5815	5915	5815	5815	5815	5815	5815	5815	5815	5815	5915	5815	5915	5915	5915	5915	5915	5815	5915	5915	5915	5915	5915	5915	5915	5915	5915	5915	5915	5915	5915	5815	5915	5915	5915	5815	5815	5915	5915	5915	5915	5915	5915	5915	5915	5915	5915	5915	5915	5915	5915	5915	5915	5815	5815	5719	5719	5719	5719	5719	5815	5815	5815	5815	5815	5815	5815	5815	5815	5915	5815	5915	5815	5815	5915	5815	5915	5915	6018	5915	5915	5915	5915	5915	5915	5915	5915	5915	5815	5915	5915	5915	5915	5915	5915	5915	5915	5915	5915	5915	5915	5915	5915	5915	6018	6018	6018	6018	6018	5915	5915	5815	5815	5815	5815	5719	5719	0	0	0	0	0	0	0	0	0	0	6018	6018	6018	6018	6018	0	0	0	0	0	5915	5915	6018	6018	6124	6124	6124	6124	6124	6124	6124	6124	6124	0	0	0	6124	6124	6124	6018	6018	6124	6018	5915	5915	5915	5915	5915	5915	5915	5915	6018	6018	6018	6018	6018	5915	6018	5915	5915	6018	6018	5915	6018	5915	5915	5915	5915	5815	5815	5815	5815	5815	5815	5815	5815	5719	5719	5719	5719	5719	5719	5719	5719	5719	5719	5719	5626	5815	5719	5719	5719	5719	5815	5815	5815	5915	6018	6124	6018	6124	6124	6124	6124	6124	6124	0	0	0	0	0	0	0	0	0	0	0	0	0	0	0	0	0	0	0	0	0	0	0	0	0	0	0	0	0	0	0	0	0	0	0	0	0	0	0	0	0	0	0	0	0	0	0	0	0	0
0	0	0	0	786	786	791	793	795	795	797	798	798	798	804	804	804	860	860	860	858	862	858	858	860	858	856	843	843	845	845	848	850	852	852	856	858	860	862	865	869	871	873	878	880	882	882	884	884	887	887	0	0	1068	1068	937	937	1068	1068	1061	1064	1061	1058	1061	1058	1061	1064	1064	1068	1068	1068	1071	1071	1071	1071	1071	1068	1068	1068	1068	1064	1064	1064	1064	1064	1064	1068	1068	1068	1071	1074	1074	1078	1078	1081	1081	1081	1081	0	0	0	0	0	0	0	0	0	5915	5915	5915	5915	5915	5915	5915	5815	5915	5915	5915	5915	5915	5815	5815	5815	5915	5915	5915	5915	5915	5915	5915	5915	5915	5915	5915	5915	5915	5915	5915	5915	5915	5915	5915	5915	5915	5915	5915	5915	5915	5815	5815	5815	5815	5815	5815	5815	5815	5815	5815	5815	5915	5915	5915	5915	5815	5815	5815	5815	5815	5719	5815	5815	5815	5815	5815	0	5915	5915	5815	5915	5915	5915	0	0	0	0	0	0	6124	6018	6018	6018	5915	6018	6018	6018	6018	0	6124	6124	0	0	6124	6124	6018	5915	5915	5915	5915	5815	5815	5815	5815	5915	5915	5815	5815	5915	5815	5815	5815	5815	5815	5815	5815	5815	5815	5815	5815	5915	6018	6018	6018	6018	5915	5915	5915	5915	5915	5915	5815	5815	5815	5815	5815	5815	5815	5815	5915	5815	5815	5815	6018	6018	6018	6018	6018	6018	6018	5915	5915	5915	5915	5815	5815	5815	5815	5815	5815	5815	5915	5915	5915	5915	5915	6018	6018	5915	6018	6018	6018	6018	6018	5915	6018	5915	5915	5815	5815	5815	5815	5815	5815	5815	5815	0	0	3186	3157	3157	3157	3129	3129	3101	3101	3101	3101	3073	3101	3073	3073	3073	3073	3101	3129	3129	3129	3129	3129	3129	3129	3129	3129	3157	3157	3157	3129	3129	3129	3186	6124	6124	6018	5915	5915	5915	5915	5915	5915	5915	5815	5915	5915	5915	0	0	5915	6018	6018	5915	5915	5915	6018	6018	6018	6018	6018	6018	6018	6018	5815	5815	5815	5815	5815	5815	5815	5815	5815	5915	5815	5815	5915	5815	5815	5815	5815	5915	5915	5915	5915	6018	6018	5915	5915	5915	5915	5915	5915	5915	5915	5915	5915	5915	5915	5915	5915	5915	5915	5915	5915	5915	5915	5915	5915	5915	5915	5915	5915	5915	5915	5915	5915	5915	5915	5915	5915	5915	5915	5915	5915	5915	5815	5815	5815	5815	5815	5815	5815	5815	5815	5815	5815	5815	5815	5815	5815	5815	5815	5915	5815	5815	5815	5815	5915	6018	6018	5915	5915	6018	5915	6018	5915	5915	5915	5915	5915	5915	5915	5915	5915	5915	5915	5915	5915	5915	5915	5915	5915	5915	5915	5915	6018	6018	6018	6018	6018	5915	5915	5915	5815	5815	5815	5815	5719	0	0	0	0	0	0	0	6018	6018	6018	6018	6018	6018	6018	6018	6018	6018	6018	5915	6018	5915	5915	6018	6124	6124	6124	6124	6124	6124	6124	6124	6124	6124	6124	0	0	6124	6124	6124	6018	6124	6124	6018	6018	6018	6018	6018	6018	6018	6018	6018	6018	6018	5915	5915	6018	6018	6018	6018	6018	6018	6018	5915	5915	5915	5915	5915	5815	5815	5815	5815	5915	5915	5915	5815	5815	5815	5815	5815	5815	5719	5719	5719	5719	5719	5719	5719	5626	5815	5719	5719	5719	5719	5815	5815	5915	5915	6018	6124	6124	6124	6124	6124	6124	6124	6124	0	0	0	0	0	0	0	0	0	0	0	0	0	0	0	0	0	0	0	0	0	0	0	0	0	0	0	0	0	0	0	0	0	0	0	0	0	0	0	0	0	0	0	0	0	0	0	0	0	0
0	0	0	0	784	784	789	791	793	795	798	798	800	800	804	804	804	860	860	860	858	862	858	858	860	858	856	858	845	848	848	848	850	852	852	856	858	860	862	865	869	871	875	878	880	882	882	884	884	889	889	0	0	1068	1068	935	935	1068	1068	1064	1064	1061	1058	1058	1058	1061	1064	1064	1068	1068	1068	1071	1071	1071	1071	1071	1068	1068	1068	1068	1064	1064	1064	1061	1064	1064	1068	1068	1068	1068	1068	1074	1078	1078	1078	1078	1078	1078	0	0	0	0	0	0	0	0	0	0	5915	5915	5915	5915	5915	5915	5815	5815	5815	5815	5915	5915	5915	5815	5815	5915	5915	5915	5915	5915	5915	5915	5915	5915	5915	5915	5915	5915	5915	5915	5915	5915	5915	5915	5915	5915	5915	5915	5915	5915	5915	5815	5815	5815	5915	5815	5815	5815	5815	5815	5815	5915	5915	5915	5915	5915	5815	5815	5815	5815	5815	5915	5815	5915	5815	5915	5915	5915	5915	5915	5915	5915	5915	6018	6018	6018	6018	6018	6018	6124	6018	6018	6018	6018	6018	6018	6018	6018	6018	6124	6124	6124	6124	6124	6124	6018	5915	5915	5915	5915	5915	5815	5815	5915	5915	5915	5915	5915	5915	5915	5815	5815	5815	5815	5815	5815	5815	5915	5915	5915	6018	6018	6018	6018	6018	5915	5915	5915	5915	5915	5915	5815	5915	5815	5915	5915	5915	5915	5915	5915	5915	5915	5915	6018	6018	6018	6018	6018	6018	6018	5915	5915	5915	5915	5915	5915	5915	5915	5915	5915	5915	5915	5915	6018	6018	6018	6018	6018	6018	6018	6018	6018	6018	6018	6018	6018	5915	5915	5815	5915	5815	5815	5815	5719	5719	5815	0	0	3186	3186	3157	3157	3157	3129	3129	3101	3101	3073	3073	3101	3073	3073	3073	3101	3101	3129	3129	3129	3157	3129	3157	3157	3157	3157	3157	3157	3157	3129	3129	3129	0	6124	6018	6018	5915	5915	5915	5915	5915	5915	5915	5915	5915	5915	5915	5915	5915	5915	5915	5915	5915	5915	5915	6018	6018	6018	6018	5915	5915	5915	5915	5815	5815	5815	5815	5815	5815	5815	5815	5815	5915	5815	5815	5915	5915	5915	5815	5915	5915	5915	5915	6018	6018	6018	6018	5915	5915	5915	5915	5915	5915	5915	5915	5915	5915	5915	5915	5915	5915	5915	5915	5915	5915	5915	5915	5915	5915	5915	5915	5915	5915	5915	5915	5915	5915	5915	5915	5915	5915	5915	5915	5915	5915	5915	5915	5815	5915	5815	5815	5815	5815	5815	5815	5815	5915	5815	5815	5815	5815	5815	5915	5815	5915	5915	5815	5915	6018	6018	6018	6018	6018	6018	6018	6018	5915	6018	5915	5915	5915	5915	5915	5915	5915	5915	5915	5915	5915	5915	5915	5915	5915	5915	5915	6018	5915	5915	5915	5915	5915	5915	5815	5815	5815	5719	5719	0	0	0	0	0	0	0	0	6124	6018	6124	6018	6018	6018	6018	6018	6018	6018	6018	6018	6018	6018	6018	6018	6124	6124	6124	6124	6124	6124	6124	6124	6124	6018	6018	0	0	6124	6124	6124	6124	6124	6124	6018	6018	6018	6018	6018	6124	6124	6124	6124	6018	6018	6018	6018	6018	6018	6018	6018	6018	6018	6018	5915	5915	5915	5915	5915	5915	5915	5915	5915	5915	5915	5915	5915	5915	5815	5815	5815	5815	5815	5915	5915	5815	5915	5815	5719	5719	5815	5719	5815	5815	5815	5815	5815	5915	6018	6018	6124	6124	6124	6124	6124	6124	6124	6124	0	0	0	0	0	0	0	0	0	0	0	0	0	0	0	0	0	0	0	0	0	0	0	0	0	0	0	0	0	0	0	0	0	0	0	0	0	0	0	0	0	0	0	0	0	0	0	0	0	0
0	0	775	775	784	784	789	791	793	795	797	798	798	798	800	804	804	804	858	858	860	860	860	860	860	858	856	858	852	852	852	850	854	854	854	858	858	860	860	867	869	873	875	878	882	882	882	884	887	891	903	910	910	910	935	932	932	935	937	937	1064	1058	1058	1058	1055	1064	1064	1064	1068	1064	1068	1068	1068	1068	1068	1071	1068	1068	1068	1068	1064	1064	1064	1064	1064	1064	1068	1068	1068	1068	1068	1071	1074	1074	1074	1078	1078	1078	1078	0	0	0	0	0	0	0	0	0	5915	5915	5915	5915	5915	5915	5815	5915	5815	5915	5915	5915	5915	5915	5915	6018	6018	5915	5915	5915	6018	5915	5915	5915	5915	5915	5915	6018	5915	5915	5915	5915	5915	5915	5915	5915	5915	5915	5915	5915	5915	5915	5915	5915	5915	5915	5915	5915	5815	5915	5915	5915	5915	5915	5915	5915	5915	5915	5915	5915	5915	5915	5915	5915	5915	5915	5915	5915	5915	5915	5915	5915	5915	6018	6018	6018	6018	6018	5915	6018	6018	6018	6018	6018	6018	6018	6018	6018	6018	6018	6018	6124	6124	6124	6124	6018	6018	6018	5915	5915	5915	5915	5915	5915	5915	5915	5915	5915	5915	5915	5815	5815	5815	5815	5815	5815	5815	5915	5915	5915	6018	6018	6018	6018	6018	5915	5915	5915	5915	5915	5915	5915	5915	5915	5915	5915	5915	5915	5915	5915	5915	5915	5915	6018	6018	6018	6018	6018	6018	6018	5915	5915	5915	5915	5915	5915	5915	5915	6018	6018	6018	6018	6018	6124	6124	6124	6124	6124	6018	6018	6018	6018	6018	6018	6018	6018	6018	6018	5915	5915	6018	5915	5815	5815	5915	5915	0	0	3186	3186	3186	3157	3129	3129	3101	3101	3101	3073	3073	3073	3073	3073	3073	3073	3073	3129	3129	3129	3129	3129	3129	3129	3157	3157	3157	3157	3157	3129	3129	3129	6124	6124	6018	5915	5915	5915	5915	5915	5915	5915	5915	5915	5915	5915	6018	6018	5915	5915	6018	5915	5915	5915	5915	6018	6018	6018	6018	6018	5915	5915	5915	5915	5815	5815	5815	5815	5815	5815	5815	5815	5915	5815	5815	5915	5915	5915	5915	5915	5915	5915	5915	6018	6018	6018	6018	5915	5915	5915	5915	5915	5915	5915	5915	5915	5915	5915	5915	5915	5915	5915	5915	5915	5915	6018	5915	5915	5915	5915	5915	5915	5915	6018	5915	6018	5915	5915	6018	5915	5915	5915	5915	5915	5915	5915	5915	5915	5915	5915	5915	5915	5815	5915	5915	5915	5915	5815	5815	5915	5915	5915	5915	5915	5915	5915	5915	6018	6124	6018	6018	6018	6018	6018	6018	6018	6018	6018	6018	5915	6018	6018	5915	5915	5915	5915	6018	5915	5915	5915	5915	5915	5915	5915	5915	6018	6018	6018	6018	6018	5915	5915	5915	5815	5815	5719	5719	0	0	0	0	0	0	0	0	6124	6018	6124	6018	6124	6018	6124	6018	6018	6018	6018	6018	6124	6018	6018	6018	6124	6124	6124	6124	6124	6235	6124	6124	6124	6124	6124	6124	6124	6124	6124	6124	6124	6124	6124	6018	6018	6018	6018	6124	6124	6124	6124	6124	6124	6018	6018	6124	6124	6018	6018	6018	6018	6018	6018	5915	5915	5815	5915	5915	5915	5915	5915	5915	5915	5915	5915	5915	5915	5815	5815	5815	5915	5815	5915	6018	6018	6018	6018	5915	5719	5815	5719	5719	5719	5719	5915	6018	6018	6124	6124	6124	6124	6124	6124	6018	6018	6018	6018	6018	0	5719	5719	0	0	0	0	0	0	0	0	0	0	0	0	0	0	0	0	0	0	0	0	0	0	0	0	0	0	0	0	0	0	0	0	0	0	0	0	0	0	0	0	0	0	0	0	0	0
0	0	775	775	782	786	789	791	791	795	797	798	798	798	800	804	806	806	806	860	860	860	860	860	860	860	858	858	856	854	854	852	854	854	854	858	860	860	862	867	871	873	875	878	880	882	882	884	889	898	905	908	908	908	908	927	927	927	937	937	1064	1058	1058	1055	1055	1055	1064	1064	1068	1064	1068	1068	1068	1068	1071	1071	1071	1071	1068	1068	1064	1064	1064	1064	1061	1061	1064	1064	1064	1064	1068	1068	1068	1074	1078	1078	0	1078	1078	0	0	0	0	0	0	0	0	0	5915	5915	5915	6018	5915	5915	5915	5915	5815	5915	5815	5915	5915	5915	5915	6018	6018	6018	6018	6018	6018	6018	6018	6018	6018	6018	6018	6018	5915	5915	5915	5915	5915	5915	5915	5915	5915	6018	5915	5915	5915	5915	5915	5915	5915	5915	5915	5915	5915	5915	5915	5915	5915	5915	5915	5915	5915	5815	5815	5815	5815	5915	5915	5915	5915	5915	5915	5915	5915	5915	5915	5915	6018	6018	6018	6018	6018	6018	6018	6124	6018	6018	6018	6018	6018	6018	6018	6018	6018	6018	6018	6124	6124	6124	6124	6124	6018	6018	6018	6018	6018	6018	5915	6018	5915	5915	5915	5915	5915	5915	5915	5815	5915	5915	5815	5815	5915	5915	5915	6018	6018	6018	6018	6018	6018	5915	5915	5915	5915	5915	5915	5915	5915	5915	5915	5915	5915	5915	5915	5915	5915	5915	5915	6018	6018	6018	6018	6018	6018	6018	5915	5915	5915	5915	5915	5915	5915	5915	6018	6018	6018	6018	6018	6124	6124	6124	6124	6124	6018	6018	6018	6018	6018	6018	6018	6124	6018	6124	6018	6018	6018	5915	5915	5915	5915	5915	0	0	3186	3186	3186	3157	3129	3129	3129	3129	3101	3101	3101	3101	3101	3073	3073	3073	3101	3129	3129	3129	3157	3157	3157	3157	3157	3157	3157	3129	3129	3129	3129	6124	6124	6124	6018	6018	6018	5915	5915	5915	5915	5915	5915	5915	6018	6018	6018	6018	6018	6018	6018	6018	5915	6018	5915	6018	6018	6018	6018	5915	5915	5915	5915	5915	5915	5815	5815	5915	5915	5915	5915	5915	5915	5915	5915	5915	5915	5915	5915	5915	5915	6018	5915	6018	6018	6018	6018	6018	6018	5915	5915	5915	5915	6018	5915	5915	5915	5915	5915	5915	5915	6018	6018	6018	6018	6018	5915	5915	5915	5915	5915	5915	5915	6018	6018	6018	6018	5915	6018	5915	5915	5915	5915	5915	5915	6018	6018	6018	6018	6018	6018	6018	5915	5915	5915	5915	5915	5815	5915	5915	5915	5915	5915	5915	5915	5915	5915	6018	6124	6124	6018	6018	6124	6124	6018	6018	6018	6018	6018	6018	6018	6018	6018	6018	5915	6018	6018	5915	6018	6018	6018	6018	6018	6018	6018	6018	6018	6018	6018	6018	6018	5915	5915	5815	5815	5815	5719	0	0	0	0	0	0	0	0	6124	6124	6124	6018	6124	6018	6124	6018	6018	6018	6124	6124	6124	6018	6018	6018	6124	6124	6124	6235	6235	6349	6235	6235	6235	6235	6235	6235	6235	6235	6124	6124	6124	6124	6124	6018	6018	6018	6018	6018	6124	6124	6124	6124	6124	6124	6124	6124	6124	6124	6124	6018	6018	6018	6018	5915	5915	5915	6018	6018	6018	6018	6018	6018	6018	6018	6018	6018	5915	5915	5915	5915	5915	6018	6018	6018	6018	6018	5915	5815	5815	5815	5719	5719	5719	5815	6018	6018	6124	6124	6124	6124	6124	6124	6124	6018	6018	6018	6018	6018	6018	5719	5719	5719	0	0	0	0	0	0	0	0	0	0	0	0	0	0	0	0	0	0	0	0	0	0	0	0	0	0	0	0	0	0	0	0	0	0	0	0	0	0	0	0	0	0	0	0	0
0	0	775	775	784	784	784	789	793	795	797	797	798	798	800	804	806	806	806	862	860	860	860	860	860	860	860	860	858	856	856	856	858	856	856	858	860	860	862	867	871	875	875	878	880	880	882	889	894	894	903	908	908	910	920	917	917	927	0	0	0	0	0	1055	1055	1064	1061	1061	1071	1064	1064	1068	1068	1068	1068	1068	1068	1068	1068	1068	1064	1064	1064	1064	1064	1064	1064	1064	1064	1064	1064	1068	1071	1074	1078	1078	0	0	0	0	0	0	0	0	0	0	0	0	0	0	0	6018	5915	6018	5915	5915	5915	5915	5915	5915	6018	5915	5915	6018	6124	6018	6018	6018	6018	6018	6018	6018	6018	6018	6018	6018	6018	5915	5915	5915	6018	6018	5915	5915	6018	6018	6018	6018	6018	6018	6018	6018	6018	6018	5915	5915	5915	5915	5915	5915	5915	5915	5915	5915	5915	5915	5915	5915	5915	5915	5915	5915	5915	5915	5915	5915	5915	5915	5915	5915	6018	6018	6018	6018	6018	6018	6018	6124	6124	6018	6018	6018	6018	6018	6018	6018	6018	6018	6018	6124	6124	6124	6235	6124	6124	6018	6018	6124	6018	6018	6018	6018	6018	5915	5915	5915	5915	5915	5915	5915	5915	5915	5915	5915	5915	5915	6018	6018	6018	6018	6018	6018	6018	6018	5915	5915	5915	5915	5915	5915	5915	5915	5915	5915	5915	5915	5915	5915	5915	5815	5915	6018	6018	6018	6018	6018	6018	6018	6018	5915	5915	6018	5915	5915	5915	6018	6018	6018	6018	6124	6124	6124	6124	6124	6124	6124	6018	6018	6018	6018	6018	6018	6018	6124	6124	6124	6124	6018	6018	5915	5915	5915	5915	5915	0	0	3186	3157	3186	3157	3157	3157	3129	3129	3129	3101	3101	3101	3101	3101	3101	3101	3101	3129	3129	3129	3129	3129	3129	3157	3157	3157	3157	3129	3129	3129	0	6124	6124	6018	6018	6018	6018	5915	5915	5915	5915	5915	5915	5915	6018	6018	6018	6018	6018	6018	6018	6018	6018	6018	6018	6018	6124	6018	6018	5915	5915	6018	6018	6018	5915	5915	6018	5915	5915	5915	5915	5915	5915	5915	5915	6018	5915	5915	5915	5915	5915	5915	5915	6018	6018	6018	6124	6018	6018	5915	6018	6018	6018	6018	5915	5915	6018	6018	6018	6018	6018	6018	6018	6018	6018	6018	6018	6018	5915	5915	5915	5915	5915	6018	6018	6018	6018	6018	6018	6018	5915	5915	5915	5915	6018	6018	6018	6124	6124	6124	6124	6124	5915	6018	5915	5915	5915	5915	5915	5915	5915	5915	5915	5915	5915	5915	5915	6124	6124	6124	6124	6124	6124	6124	6124	6018	6018	6124	6018	6018	6018	6018	6018	6018	6018	6018	6018	6018	6018	6018	6018	6018	6018	6018	6018	6018	6018	6018	6018	6018	6018	5915	5915	5815	5815	5815	0	0	0	0	0	0	0	0	6235	6235	6124	6124	6124	6124	6124	6124	6124	6124	6124	6124	6235	6124	6018	6018	6018	6235	6124	6124	6235	6235	6349	6349	6235	6235	6235	6235	6235	6235	6124	6124	6124	6124	6124	6124	6124	6018	6018	6018	6124	6124	6124	6124	6235	6124	6124	6124	6124	6124	6124	6124	6124	6124	6018	6018	6018	6018	6018	6018	6018	6018	6018	6018	6018	6018	6018	6018	6018	6018	5915	6018	6018	6124	6124	6018	6018	6018	6018	5915	5915	5915	5915	5815	5719	6018	5915	6018	6018	6124	6124	6235	6124	6124	6124	6124	6018	6018	6018	6018	5915	5915	5719	5719	5719	0	0	0	0	0	0	0	0	0	0	0	0	0	0	0	0	0	0	0	0	0	0	0	0	0	0	0	0	0	0	0	0	0	0	0	0	0	0	0	0	0	0	0	0	0
0	775	775	775	777	784	784	789	793	793	795	797	798	798	800	804	806	812	812	812	860	860	860	862	860	860	860	860	860	858	856	856	858	858	858	858	860	862	865	869	873	875	875	878	880	882	884	889	894	894	903	908	908	910	910	913	913	0	0	0	0	0	0	0	0	1064	1064	1064	1061	1064	1068	1068	1068	1068	1071	1071	1071	1071	1068	1068	1068	1068	1064	1064	1064	1064	1064	1064	1064	1064	1064	1068	1068	1071	1071	1071	0	0	0	0	0	0	0	0	0	0	0	0	0	0	0	6018	5915	6018	6018	6018	5915	5915	5915	5915	5915	5915	5915	6018	6018	6018	6018	6018	6124	6018	6124	6124	6124	6124	6124	6124	6018	6018	6018	5915	6018	6018	5915	6018	6018	6018	6018	6018	6018	6018	6124	6018	6018	6018	6018	6018	5915	6018	6018	5915	5915	5915	5915	5915	5915	5915	5915	5915	5815	5915	5915	5915	5915	5915	5915	5915	5915	5915	5915	5915	6018	6018	6018	6018	6018	6018	6018	6018	6018	6018	6018	6124	6018	6018	6018	6018	6018	6018	6018	6018	6018	6124	6124	6124	6124	6124	6124	6124	6018	6018	6018	6018	6018	5915	5915	5915	5915	5915	5915	5915	5915	5915	5915	5915	5915	5915	6018	6018	6018	6018	6018	6018	6018	6018	6018	5915	5915	5915	5915	5915	5915	5915	5915	5915	5915	5915	5915	5915	5915	5815	5915	6018	6018	6018	6018	6018	6124	6018	6018	6018	6018	6018	6018	6018	6018	6018	6018	6018	6018	6124	6124	6124	6124	6124	6124	6124	6124	6018	6018	6018	6018	6124	6124	6124	6124	6124	6124	6124	6018	6018	5915	5915	5915	5915	0	0	0	3157	3186	3157	3129	3129	3129	3129	3129	3101	3101	3101	3101	3101	3101	3101	3101	3129	3129	3129	3157	3157	3157	3157	3157	3157	3157	3101	3101	3129	6124	6124	6124	6018	6018	6018	6018	6018	6018	6018	6018	5915	6018	6018	6018	6018	6124	6124	6018	6018	6124	6018	6018	6018	6018	6124	6124	6018	6018	5915	6018	6018	6018	6018	6018	6018	6018	6018	6018	6018	5915	6018	6018	6018	5915	6018	5915	5915	5915	5915	5915	5915	6018	6124	6124	6124	6124	6124	6124	6018	6018	6018	6018	6124	6018	6018	6018	6018	6018	6018	6018	6018	6124	6124	6124	6124	6018	6018	5915	6018	6018	6018	6018	6018	6018	6018	6018	6018	6018	6018	5915	5915	5915	6018	6018	6124	6235	6235	6124	6124	6124	6124	6018	6018	5915	5915	5915	5915	5915	5915	5915	5915	5915	5915	6018	6018	6018	6124	6235	6235	6124	6235	6124	6124	6124	6124	6018	6124	6018	6018	6018	6018	6018	6018	6018	6018	6018	6018	6018	6018	6018	6018	6018	6018	6018	6018	6018	6018	6018	6124	6018	6018	6018	5815	5815	0	0	0	0	0	0	0	0	0	6235	6235	6235	6235	6124	6235	6349	6235	6124	6124	6018	6018	6124	6018	6018	6018	6018	6235	6124	6235	6235	6349	6349	6349	6349	6349	6235	6235	6235	6235	6235	6235	6235	6235	6124	6124	6124	6124	6124	6124	6124	6124	6124	6124	6235	6124	6124	6124	6124	6124	6124	6124	6124	6124	6124	6124	6018	6018	6018	6018	6018	6018	6018	6018	6018	6018	6018	6124	6124	6124	6018	6124	6124	6124	6124	6018	6018	6018	6018	6018	6018	5915	5915	6018	6018	6018	6018	6018	6124	6124	6124	6124	6124	6124	6018	6018	5915	5915	5915	5915	5915	5815	5815	5815	0	0	0	0	0	0	0	0	0	0	0	0	0	0	0	0	0	0	0	0	0	0	0	0	0	0	0	0	0	0	0	0	0	0	0	0	0	0	0	0	0	0	0	0	0	0
0	775	775	775	777	784	784	789	791	791	795	797	797	798	800	800	808	812	812	812	862	862	862	862	862	860	860	860	860	860	860	862	862	862	860	860	860	862	867	869	871	871	875	878	882	887	887	891	894	896	901	905	905	910	910	913	913	0	0	0	0	0	0	0	0	950	950	1061	1061	1061	1064	1068	1068	1068	1068	1068	1068	1071	1068	1068	1068	1068	1064	1064	1064	1064	1068	1064	1064	1061	1064	1064	1068	1068	1071	1071	0	0	0	0	0	0	0	0	0	0	0	0	0	0	0	6018	6018	6018	6018	6018	6018	6018	6018	6018	6018	5915	6018	6124	6124	6124	6124	6124	6124	6124	6124	6124	6235	6235	6235	6124	6124	6124	6018	6018	6018	6018	6018	6018	6018	6018	6018	6018	6018	6018	6124	6124	6018	6124	6018	6018	6018	6124	6124	6018	6018	6018	6018	6018	5915	5915	5915	5915	5915	5915	5915	5915	5915	5915	6018	6018	6018	5915	5915	5915	6018	6018	6018	6018	6018	6018	6018	6124	6124	6124	6124	6124	6018	6018	6018	6018	6018	6018	6018	6018	6018	6124	6124	6124	6124	6235	6124	6124	6018	6018	6018	6018	6018	6018	6018	5915	6018	6018	5915	5915	6018	6018	6018	5915	5915	6018	6018	6018	6018	6018	6018	6018	6018	6018	6018	6018	6018	6018	6018	6018	6018	6018	6018	6018	5915	5915	5915	5915	5915	5815	5815	6018	6018	6018	6018	6018	6124	6124	6018	6018	6018	6124	6018	6018	6018	6018	6018	6018	6018	6124	6124	6124	6124	6124	6124	6124	6018	6124	6018	6018	6018	6124	6124	6124	6124	6124	6124	6124	6124	6018	6018	6018	5815	5815	0	0	0	0	3186	3157	3157	3157	3129	3129	3129	3101	3101	3101	3101	3101	3101	3101	3101	3129	3129	3129	3157	3157	3157	3157	3157	3157	3157	3101	3101	0	6124	6124	6124	6124	6124	6124	6124	6124	6124	6018	6018	6018	6018	6018	6124	6124	6124	6018	6018	6018	6124	6124	6018	6124	6124	6124	6124	6018	6018	6018	6018	6018	6018	6018	6018	6018	6018	6018	6018	6018	6018	5915	5915	5915	5915	5915	5915	5915	5915	5915	5915	6018	6018	6124	6124	6235	6124	6124	6124	6018	6124	6018	6018	6124	6018	6018	6018	6018	6124	6124	6124	6124	6124	6124	6124	6124	6018	6018	6018	6018	6018	6018	6018	6124	6018	6124	6018	6018	6018	6018	5915	5915	5915	6018	6124	6235	6235	6235	6124	6124	6124	6018	6018	6018	5915	5915	5915	5915	5915	5915	5915	5915	6018	6018	6124	6124	6124	6235	6235	6235	6235	6235	6235	6124	6124	6124	6124	6124	6124	6018	6124	6124	6124	6124	6124	6124	6124	6124	6018	6018	6018	6018	6018	6018	6018	6018	6018	6018	6018	6124	6124	6124	6018	0	0	0	0	0	0	0	0	0	6018	6124	6235	6235	6235	6349	6349	6468	6349	6349	6235	6124	6124	6124	6124	6124	6018	6018	6124	6235	6235	6235	6349	6349	6349	6349	6349	6349	6349	6349	6349	6349	6235	6235	6235	6235	6124	6124	6124	6124	6124	6124	6124	6124	6124	6124	6235	6124	6124	6124	6124	6235	6235	6235	6235	6235	6235	6235	6124	6124	6018	6018	6018	6018	6018	6018	6018	6018	6018	6124	6124	6235	6124	6124	6124	6124	6124	6018	6018	6018	6018	6018	6018	5915	5915	6018	6018	6018	6018	6124	6124	6124	6124	6124	6124	6124	6018	6018	5915	5915	6124	6018	5915	5915	5815	5815	0	0	0	0	0	0	0	0	0	0	0	0	0	0	0	0	0	0	0	0	0	0	0	0	0	0	0	0	0	0	0	0	0	0	0	0	0	0	0	0	0	0	0	0	0	0
0	0	0	0	0	0	0	791	791	793	793	797	797	798	798	804	804	808	808	810	810	810	823	823	823	860	860	860	860	860	869	865	865	865	869	871	873	871	873	873	875	878	878	878	880	884	889	891	894	896	901	903	905	908	908	913	913	0	0	0	0	0	950	950	950	950	955	958	961	961	1064	1064	1068	1068	1068	1068	1068	1068	1068	1068	1064	1064	1064	1064	1064	1064	1068	1064	1064	1061	1064	1068	1071	1071	1071	1071	0	0	0	0	0	0	0	0	0	0	0	0	0	6235	6235	6124	6018	6124	6018	6018	6018	6018	5915	6018	5915	5915	5915	6018	6018	6018	6124	6124	6124	6124	6235	6124	6235	6235	6235	6235	6235	6124	6018	6018	6018	6018	6018	6018	6018	6018	6018	6018	6018	6124	6124	6124	6124	6124	6018	6018	6018	6124	6124	6018	6018	6124	6124	6018	6018	5915	5915	5915	5915	5915	5915	5915	6018	6018	6018	6018	6018	6018	5915	5915	5915	6018	6018	6018	6018	6018	6018	6018	6124	6124	6124	6235	6235	6235	6124	6124	6124	6018	6018	6124	6124	6124	6124	6124	6124	6124	6124	6124	6018	6018	6018	6018	6018	6018	6018	6018	6018	6018	6018	6018	6018	6018	6018	5915	6018	6018	6018	6018	6018	6018	6124	6124	6018	6018	6018	6018	6018	6018	6018	6018	6018	6018	6124	6018	5915	5915	5915	6018	5915	5915	5915	6018	6124	6124	6018	6018	6124	6124	6124	6018	6124	6124	6018	6018	6018	6124	6018	6124	6124	6124	6124	6124	6124	6124	6124	6124	6018	6018	6018	6018	6018	6124	6124	6124	6124	6124	6124	6124	6124	6018	6124	5915	5915	5815	0	0	0	0	3186	3157	3157	3157	3157	3129	3129	3101	3101	3101	3101	3101	3073	3073	3073	3129	3129	3129	3129	3129	3157	3157	3186	3157	3157	3157	3157	0	6124	6124	6124	6124	6124	6124	6124	6124	6124	6124	6124	6124	6124	6124	6124	6124	6124	6124	6018	6018	6018	6018	6018	6124	6124	6124	6124	6124	6018	6018	6018	6018	6018	6018	6018	6018	6124	6018	6018	6018	6018	6018	6018	6018	6018	6018	5915	5915	5915	5915	5915	5915	6018	6124	6124	6235	6235	6124	6235	6124	6124	6124	6124	6124	6018	6018	6124	6124	6124	6124	6124	6124	6235	6124	6124	6124	6124	6124	6018	6018	6124	6124	6124	6124	6124	6124	6124	6018	6018	6018	5915	5915	5915	6018	6124	6235	6235	6235	6124	6124	6124	6124	6018	6018	6018	5915	5915	5915	5915	5915	5915	6018	6018	6018	6124	6124	6124	6235	6235	6235	6235	6235	6235	6235	6124	6124	6124	6124	6124	6124	6124	6124	6124	6124	6124	6124	6124	6124	6018	6018	6018	6018	6018	6018	6018	6018	6018	6018	6018	6124	6124	6124	0	0	0	0	0	0	0	0	0	6124	6018	6124	6124	6349	6349	6468	6468	6468	6468	6349	6235	6235	6235	6124	6124	6124	6018	6018	6018	6235	6235	6349	6349	6349	6349	6349	6349	6349	6349	6349	6349	6349	6235	6235	6235	6235	6124	6124	6124	6124	6124	6124	6124	6124	6124	6124	6235	6124	6124	6124	6124	6235	6235	6235	6235	6349	6349	6235	6235	6235	6124	6018	6018	6018	6018	6018	6018	6018	6018	6124	6124	6235	6235	6235	6235	6235	6468	6124	6124	6124	6018	6018	6018	5915	5915	6018	6018	6124	6124	6124	6124	6124	6124	6124	6124	6124	6018	6124	5915	5915	6124	6124	5815	5815	5815	5815	0	0	0	0	0	0	0	0	0	0	0	0	0	0	0	0	0	0	0	0	0	0	0	0	0	0	0	0	0	0	0	0	0	0	0	0	0	0	0	0	0	0	0	0	0	0
0	0	0	0	0	0	791	791	793	793	795	797	797	798	798	804	806	810	812	814	815	819	823	823	823	0	0	0	0	0	875	875	873	873	873	875	875	875	873	875	875	878	878	878	878	884	889	891	896	896	898	901	903	908	908	913	913	0	927	927	0	0	950	950	950	953	958	958	961	966	966	1064	1068	1068	1068	1068	1064	1068	1064	1068	1064	1064	1064	1064	1068	1064	1068	1064	1064	1061	1061	1068	1074	1071	1074	1074	0	0	0	0	0	0	0	0	0	0	0	6235	6235	6235	6235	6235	6124	6124	6124	6124	6124	6018	6018	6018	6018	5915	5915	5915	6124	6124	6124	6124	6235	6235	6235	6235	6235	6235	6235	6235	6235	6235	6124	6124	6124	6124	6018	6018	6124	6124	6124	6124	6124	6235	6235	6235	6124	6235	6124	6124	6124	6124	6124	6124	6124	6124	6235	6124	6124	6018	6018	5915	5915	5915	6018	6018	6018	6018	6124	6018	6124	6018	6018	5915	5915	5915	6018	6018	6018	6018	6018	6235	6235	6235	6235	6349	6235	6235	6235	6124	6124	6124	6124	6124	6124	6235	6235	6235	6235	6235	6235	6124	6124	6018	6018	6018	6018	6018	6018	6018	6018	6018	6018	6018	6018	6018	6018	6018	6018	6018	6018	6018	6018	6018	6124	6124	6124	6018	6018	6018	6018	6018	6018	6018	6018	6018	6124	6018	6018	5915	6018	6018	6018	5915	5915	6124	6124	6124	6018	6124	6124	6124	6124	6124	6124	6124	6124	6124	6124	6124	6124	6018	6124	6124	6124	6124	6124	6124	6124	6124	6018	6124	6018	6018	6018	6124	6124	6124	6124	6124	6124	6124	6124	6124	6124	6124	6124	6124	0	0	0	0	3186	3157	3157	3157	3129	3129	3101	3101	3101	3101	3101	3101	3073	3073	3073	3129	3129	3129	3129	3157	3157	3186	3186	3157	3157	3157	3157	0	6124	6124	6124	6124	6124	6124	6124	6124	6124	6124	6124	6124	6124	6124	6124	6124	6124	6124	6124	6124	6124	6124	6124	6124	6124	6124	6124	6124	6124	6018	6018	6018	6018	6018	6018	6124	6124	6124	6124	6124	6124	6124	6124	6124	6018	6124	6018	5915	5915	6018	6018	6018	6018	6235	6235	6235	6235	6235	6235	6235	6124	6124	6124	6124	6124	6018	6124	6124	6235	6235	6124	6235	6235	6124	6124	6124	6124	6124	6124	6124	6124	6124	6235	6235	6235	6124	6018	6018	6018	6018	6018	5915	6018	6124	6124	6235	6235	6235	6124	6124	6124	6124	6018	6018	6018	5915	5915	5915	5915	6018	6018	6018	6018	6018	6124	6124	6124	6235	6235	6349	6235	6235	6124	6124	6124	6124	6124	6124	6124	6124	6124	6124	6124	6124	6124	6124	6124	6124	6018	6018	6018	6018	6018	6018	6018	6018	6018	6124	6018	6124	6124	0	0	0	0	0	0	0	0	0	0	6235	6124	6235	6349	6468	6468	6468	6468	6468	6468	6349	6349	6235	6235	6235	6235	6124	6018	6018	6124	6235	6235	6349	6349	6349	6349	6349	6349	6349	6349	6349	6349	6349	6349	6349	6235	6235	6235	6124	6124	6124	6124	6124	6124	6124	6124	6124	6235	6124	6124	6124	6124	6235	6235	6235	6235	6349	6349	6349	6349	6235	6124	6124	6124	6124	6018	6018	6018	6124	6124	6124	6235	6349	6235	6235	6349	6349	6468	6235	6124	6124	6124	6018	6018	5915	6124	6018	6018	6124	6018	6124	6124	6235	6124	6124	6235	6124	6018	6124	6018	6124	6124	6124	6124	5915	5815	5815	0	0	0	0	0	0	0	0	0	0	0	0	0	0	0	0	0	0	0	0	0	0	0	0	0	0	0	0	0	0	0	0	0	0	0	0	0	0	0	0	0	0	0	0	0	0
0	0	0	0	0	0	784	786	791	791	795	795	797	798	802	802	804	808	812	814	815	821	823	823	823	0	0	0	0	0	878	880	878	878	878	880	878	878	875	875	878	880	880	878	880	887	889	891	894	896	898	901	903	905	905	910	910	910	930	932	935	945	950	950	953	953	955	958	963	963	963	1064	1064	1064	1064	1064	1064	1064	1064	1064	1064	1064	1064	1064	1064	1064	1068	1064	1058	1058	1055	1068	1074	1074	1074	1074	0	0	0	0	0	0	0	0	0	0	0	6235	6235	6235	6349	6235	6235	6235	6124	6124	6124	6124	6018	6018	6018	5915	5915	6124	6124	6124	6235	6235	6235	6235	6349	6349	6349	6349	6349	6349	6349	6349	6235	6124	6124	6124	6124	6124	6124	6235	6235	6235	6235	6235	6235	6235	6235	6235	6235	6124	6124	6235	6235	6124	6124	6235	6235	6235	6235	6124	6018	6018	6018	6018	6018	6018	6018	6018	6124	6124	6124	6124	6018	6018	6018	6124	6124	6018	6018	6018	6124	6235	6235	6235	6349	6349	6349	6349	6235	6235	6235	6124	6124	6235	6235	6235	6235	6349	6349	6349	6235	6235	6124	6124	6124	6018	6018	6018	6018	6018	6124	6018	6018	6018	6018	6018	6018	6018	6018	6018	6018	6018	6018	6124	6124	6124	6124	6124	6124	6124	6124	6124	6124	6018	6018	6018	6018	6018	6018	6018	6018	6018	6018	6018	6018	6124	6124	6124	6124	6124	6124	6124	6124	6124	6124	6124	6124	6124	6124	6124	6124	6124	6124	6124	6349	6349	0	6124	6124	6124	6124	6124	6018	6018	6124	6124	6124	6124	6124	6124	6124	6124	6124	6124	6235	6235	6235	6235	0	0	0	0	3186	3157	3157	3157	3157	3129	3129	3129	3101	3101	3101	3101	3101	3073	3101	3101	3129	3129	3157	3157	3157	3186	3186	3157	3157	3157	3157	0	6235	6124	6124	6124	6124	6124	6235	6235	6124	6124	6124	6124	6124	6124	6124	6124	6235	6124	6124	6124	6124	6124	6124	6124	6124	6124	6235	6124	6124	6124	6124	6124	6124	6124	6124	6124	6124	6124	6124	6124	6124	6124	6124	6124	6018	6018	6018	5915	6018	6018	6018	6124	6124	6235	6235	6235	6235	6235	6235	6235	6124	6124	6124	6124	6124	6018	6124	6235	6235	6235	6235	6235	6235	6235	6124	6124	6124	6124	6124	6124	6235	6235	6235	6235	6235	6124	6124	6124	6124	6124	6124	6018	6124	6124	6235	6235	6235	6235	6235	6235	6124	6124	6124	6124	6018	6018	6018	6124	6124	6018	6018	6018	6018	6018	6124	6124	6124	6235	6349	6349	6349	6235	6235	6124	6124	6124	6124	6124	6124	6124	6124	6124	6124	6124	6124	6124	6235	6235	6235	6124	6124	6124	6124	6124	6124	6018	6124	6124	6124	6124	6124	0	0	0	0	0	0	0	0	6349	6349	6349	6349	6235	6349	6468	6468	6468	6468	6468	6468	6349	6349	6349	6235	6235	6235	6235	6124	6235	6235	6349	6349	6349	6349	6349	6349	6468	6468	6468	6468	6349	6349	6349	6349	6349	6349	6349	6235	6235	6235	6124	6124	6124	6124	6124	6124	6124	6235	6235	6124	6124	6124	6235	6235	6235	6235	6235	6235	6349	6349	6235	6124	6124	6124	6018	6018	6124	6018	6124	6124	6235	6235	6349	6235	6235	6349	6349	6349	6235	6124	6018	6018	6018	6018	6018	6235	6124	6124	6124	6124	6124	6124	6235	6235	6235	6235	6235	6124	6124	6018	6124	6124	6124	6235	6235	5815	5815	0	0	0	0	0	0	0	0	0	0	0	0	0	0	0	0	0	0	0	0	0	0	0	0	0	0	0	0	0	0	0	0	0	0	0	0	0	0	0	0	0	0	0	0	0	0
0	0	0	0	0	0	784	788	789	791	793	797	793	798	800	802	802	810	814	815	821	825	827	829	831	831	0	0	0	0	884	884	884	880	878	880	882	880	878	878	878	880	880	880	880	889	889	891	891	894	898	898	901	903	908	910	910	910	930	935	937	940	948	948	950	953	953	958	963	963	963	0	1064	1064	1064	1068	1068	1064	1064	1064	1064	1064	1064	1064	1064	1064	1068	1061	1058	1055	1055	1058	1074	1071	1074	1074	0	0	0	0	0	0	0	0	0	0	6468	6235	6235	6235	6235	6235	6235	6235	6235	6235	6124	6124	6018	6018	6018	6018	6018	6124	6124	6235	6235	6235	6235	6349	6349	6349	6349	6349	6349	6349	6349	6349	6235	6124	6124	6124	6124	6124	6124	6124	6124	6235	6235	6235	6235	6235	6235	6235	6235	6235	6124	6235	6235	6235	6235	6235	6235	6235	6235	6235	6124	6124	6124	6018	6018	6018	6124	6235	6235	6235	6235	6124	6124	6124	6018	6018	6018	6018	6018	6018	6124	6235	6349	6349	6349	6349	6349	6349	6349	6235	6235	6124	6235	6235	6235	6349	6235	6349	6349	6349	6235	6235	6124	6124	6124	6124	6018	6018	6124	6124	6124	6124	6018	6018	6124	6018	6018	6018	6018	6018	6018	6018	6018	6124	6124	6124	6235	6235	6124	6124	6124	6124	6018	6018	6018	6018	6018	6018	6018	6018	6018	6124	6018	6018	6018	6018	6124	6124	6235	6235	6235	6124	6124	6124	6124	6124	6124	6124	6124	6124	6124	6349	6235	6349	6349	6349	0	6124	6124	6124	6124	6124	6124	6018	6124	6124	6124	6124	6124	6124	6235	6235	6235	6235	6235	6235	6349	6349	0	0	0	0	3186	3157	3157	3157	3157	3129	3129	3129	3129	3129	3129	3101	3101	3101	3101	3129	3157	3157	3157	3157	3186	3186	3186	3186	3157	3157	3157	6235	6235	6235	6235	6235	6235	6235	6235	6235	6235	6235	6235	6124	6124	6124	6124	6235	6235	6235	6235	6235	6235	6235	6124	6124	6124	6124	6235	6124	6124	6124	6124	6124	6124	6124	6124	6124	6124	6124	6124	6124	6124	6124	6124	6124	6018	6018	6018	6018	6018	6124	6124	6124	6124	6235	6235	6235	6235	6235	6235	6235	6124	6124	6124	6124	6124	6124	6235	6235	6235	6235	6235	6235	6235	6235	6124	6124	6124	6124	6235	6235	6235	6235	6235	6235	6235	6124	6124	6124	6124	6124	6124	6124	6124	6124	6235	6235	6235	6235	6235	6235	6235	6124	6124	6124	6124	6018	6124	6124	6124	6124	6124	6124	6124	6124	6124	6124	6124	6235	6349	6349	6349	6235	6235	6124	6124	6124	6124	6124	6124	6124	6124	6124	6124	6124	6124	6235	6235	6235	6235	6235	6124	6124	6124	6124	6124	6018	6124	6124	6124	6124	6124	0	0	0	0	0	6349	6349	6349	6349	6349	6349	6349	6349	6349	6468	6468	6468	6468	6468	6468	6349	6349	6349	6235	6349	6235	6235	6124	6235	6349	6468	6349	6349	6349	6349	6349	6468	6349	6468	6468	6349	6349	6349	6349	6349	6349	6349	6349	6349	6349	6349	6349	6235	6235	6235	6235	6235	6235	6235	6235	6235	6124	6235	6235	6235	6235	6349	6349	6235	6349	6235	6235	6124	6124	6124	6124	6124	6018	6124	6124	6124	6349	6349	6235	6235	6349	6235	6349	6235	6235	6124	6124	6018	6124	6124	6235	6235	6235	6235	6235	6235	6235	6235	6235	6235	6235	6235	6124	6124	6235	6124	6235	6235	6235	6235	6235	0	0	0	0	0	0	0	0	0	0	0	0	0	0	0	0	0	0	0	0	0	0	0	0	0	0	0	0	0	0	0	0	0	0	0	0	0	0	0	0	0	0	0	0	0	0	0
0	777	777	777	777	779	784	788	791	793	793	797	793	800	800	802	802	810	815	817	819	827	829	829	831	833	835	835	835	0	884	884	884	880	880	880	880	882	882	880	882	887	884	884	887	891	894	891	894	894	896	898	898	905	908	910	910	910	930	935	940	948	948	948	950	953	953	953	961	963	963	963	1064	1064	1064	1068	1064	1064	1064	1064	1064	1064	1064	1064	1064	1064	1061	1061	1058	1055	1055	1061	1074	1074	1078	1078	1078	1078	0	0	0	0	0	0	0	0	6468	6235	6235	6235	6349	6349	6235	6349	6235	6235	6124	6124	6124	6124	6018	6018	6018	6124	6235	6235	6235	6235	6235	6349	6349	6349	6349	6349	6349	6349	6349	6349	6235	6235	6235	6235	6235	6124	6235	6235	6235	6235	6235	6235	6235	6235	6235	6235	6235	6235	6235	6235	6235	6235	6235	6235	6235	6235	6235	6235	6235	6235	6235	6349	6235	6235	6235	6235	6235	6235	6235	6235	6124	6124	6124	6124	6018	6018	6018	6018	6124	6349	6349	6349	6349	6349	6349	6235	6235	6235	6235	6124	6235	6235	6235	6349	6349	6349	6349	6349	6349	6235	6235	6235	6124	6124	6018	6018	6124	6124	6124	6124	6124	6124	6124	6018	6018	6018	6018	6018	6018	6124	6124	6235	6235	6235	6235	6235	6124	6124	6124	6124	6124	6018	6018	6018	6018	6018	6018	6018	6018	6018	6124	6124	6124	6235	6235	6235	6235	6235	6235	6124	6124	6124	6235	6235	6235	6235	6235	6235	6235	6235	6235	6349	6349	6349	6349	6349	6124	6124	6124	6124	6124	6124	6124	6235	6124	6124	6124	6235	6235	6235	6235	6235	6235	6235	6235	6235	6235	0	0	0	0	0	3157	3157	3157	3129	3129	3129	3129	3129	3129	3129	3129	3129	3129	3157	3157	3157	3157	3157	3186	3186	3186	3186	3186	3157	6235	6349	6349	6349	6235	6235	6235	6235	6235	6235	6235	6235	6235	6235	6235	6235	6235	6235	6235	6235	6235	6235	6235	6235	6235	6235	6124	6124	6235	6235	6124	6124	6124	6124	6124	6124	6124	6124	6124	6124	6124	6124	6124	6124	6124	6124	6018	6124	6018	6018	6018	6124	6124	6124	6124	6235	6235	6235	6235	6235	6235	6235	6124	6124	6124	6124	6124	6124	6235	6235	6235	6235	6235	6235	6235	6235	6235	6124	6235	6235	6235	6235	6235	6235	6235	6235	6235	6124	6124	6124	6124	6124	6124	6124	6124	6235	6235	6235	6235	6235	6235	6235	6235	6235	6124	6124	6124	6124	6124	6124	6124	6124	6124	6124	6124	6235	6235	6235	6235	6235	6349	6349	6349	6235	6235	6124	6124	6124	6124	6124	6235	6235	6124	6124	6124	6235	6235	6235	6235	6235	6235	6235	6124	6124	6124	6124	6124	6124	6124	6124	6018	6124	6124	0	0	0	6468	6468	6349	6349	6349	6349	6349	6349	6349	6349	6349	6468	6468	6468	6468	6468	6468	6349	6349	6235	6235	6349	6349	6349	6235	6235	6235	6349	6349	6349	6349	6349	6349	6349	6349	6468	6349	6468	6468	6468	6468	6468	6468	6468	6468	6468	6468	6468	6349	6349	6349	6349	6349	6349	6235	6235	6235	6235	6124	6235	6235	6235	6235	6235	6235	6235	6349	6349	6235	6235	6235	6124	6124	6124	6124	6235	6235	6235	6349	6349	6235	6235	6235	6235	6235	6235	6235	6124	6124	6124	6124	6124	6235	6235	6124	6235	6235	6235	6235	6235	6235	6235	6235	6235	6235	6235	6235	6235	6235	6235	6349	6349	6235	0	0	0	0	0	0	0	0	0	0	0	0	0	0	0	0	0	0	0	0	0	0	0	0	0	0	0	0	0	0	0	0	0	0	0	0	0	0	0	0	0	0	0	0	0	0	0
0	779	777	777	777	784	784	788	793	793	795	797	797	800	802	804	804	814	814	815	819	825	827	829	831	833	835	835	837	837	884	884	887	884	894	894	889	882	889	889	889	889	887	889	891	896	896	894	896	898	898	898	901	905	910	910	910	910	927	935	940	948	948	948	950	953	958	958	961	963	963	963	0	1064	1064	1064	1064	1064	1064	1064	1064	1064	1064	1064	1068	1064	1068	1061	1058	1058	1058	1064	1074	1074	1078	1078	1078	1078	0	0	0	0	0	0	0	0	0	6124	6124	6124	6235	6349	6235	6349	6235	6235	6235	6235	6018	6124	6124	6018	6018	0	6235	6235	6349	6349	6349	6349	6349	6349	6349	6468	6349	6349	6468	6349	6349	6349	6235	6235	6235	6235	6235	6235	6235	6235	6235	6235	6349	6235	6235	6349	6235	6235	6235	6235	6235	6235	6235	6235	6349	6349	6349	6349	6235	6349	6349	6349	6235	6235	6235	6235	6235	6235	6235	6235	6235	6235	6124	6124	6124	6018	6124	6124	6124	6349	6349	6349	6349	6349	6349	6235	6235	6235	6235	6235	6349	6349	6349	6349	6349	6349	6349	6349	6349	6349	6235	6235	6235	6124	6124	6124	6235	6235	6235	6235	6235	6235	6124	6124	6124	6018	6018	6018	6124	6124	6235	6235	6235	6349	6349	6349	6235	6124	6124	6124	6124	6018	6018	6018	6018	6018	6018	6018	6018	6124	6124	6124	6124	6235	6235	6235	6235	6235	6235	6235	6235	6124	6235	6235	6235	6235	6235	6235	6235	6235	6235	6235	6235	6349	6349	6235	6235	6124	6235	6124	6124	6124	6235	6235	6124	6124	6235	6235	6235	6235	6235	6235	6349	6349	6235	6235	6235	0	0	0	0	0	3129	3129	3157	3157	3129	3157	3157	3157	3157	3129	3129	3129	3129	3157	3157	3157	3157	3157	3186	3186	3186	3186	3186	0	6235	6235	6235	6235	6235	6235	6235	6235	6235	6235	6235	6235	6235	6235	6235	6235	6235	6235	6235	6235	6235	6235	6235	6235	6235	6235	6235	6235	6235	6235	6124	6124	6124	6124	6124	6124	6124	6124	6124	6124	6124	6124	6124	6124	6124	6124	6124	6124	6124	6018	6124	6124	6124	6124	6124	6235	6235	6235	6235	6235	6235	6235	6235	6235	6235	6235	6235	6235	6235	6235	6349	6235	6235	6235	6235	6235	6235	6235	6235	6235	6235	6235	6235	6349	6235	6235	6235	6235	6235	6235	6235	6235	6124	6124	6124	6235	6235	6235	6235	6235	6235	6235	6235	6235	6124	6124	6124	6124	6124	6124	6124	6235	6235	6235	6235	6235	6235	6235	6235	6349	6349	6349	6349	6235	6235	6235	6235	6235	6124	6124	6235	6235	6124	6124	6124	6235	6235	6235	6235	6235	6235	6235	6124	6235	6235	6235	6124	6124	6124	6124	6124	6349	6349	6349	6349	6349	6468	6349	6349	6349	6349	6349	6349	6349	6349	6349	6468	6468	6468	6468	6468	6468	6468	6349	6349	6349	6349	6349	6349	6349	6349	6349	6349	6468	6468	6468	6349	6468	6468	6468	6468	6468	6468	6468	6468	6468	6468	6468	6468	6468	6468	6468	6468	6468	6468	6349	6349	6349	6349	6349	6235	6235	6235	6235	6235	6235	6235	6235	6349	6349	6349	6349	6349	6349	6349	6349	6235	6235	6235	6468	6124	6235	6235	6235	6235	6235	6235	6235	6235	6235	6235	6235	6235	6124	6124	6124	6124	6124	6235	6235	6124	6235	6235	6235	6235	6235	6235	6235	6235	6235	6235	6235	6235	6235	6349	6349	6349	6349	6349	0	0	0	0	0	0	0	0	0	0	0	0	0	0	0	0	0	0	0	0	0	0	0	0	0	0	0	0	0	0	0	0	0	0	0	0	0	0	0	0	0	0	0	0	0	0	0
0	777	777	777	777	779	784	788	791	793	795	795	797	800	802	804	806	812	814	815	819	827	829	829	831	833	835	835	835	835	835	835	889	887	887	894	896	896	896	896	894	894	894	891	894	896	896	896	896	898	901	898	901	908	913	910	913	920	927	930	940	948	948	950	950	953	953	953	963	966	966	963	969	969	1064	1064	1064	1064	1064	1064	1064	1064	1064	1064	1068	1064	1064	1061	1061	1068	1074	1074	1078	1078	1078	1078	1078	1078	0	0	0	0	0	0	0	0	6124	6124	6124	6124	6235	6235	6235	6235	6235	6349	6235	6235	6018	6124	6124	0	0	0	6235	6349	6349	6349	6349	6349	6349	6349	6349	6468	6468	6468	6468	6468	6349	6468	6349	6349	6349	6349	6349	6349	6235	6349	6349	6349	6349	6349	6349	6349	6349	6349	6235	6235	6349	6235	6235	6349	6349	6349	6349	6349	6235	6349	6349	6349	6349	6349	6349	6349	6349	6349	6235	6235	6235	6235	6235	6235	6124	6124	6124	6124	6235	6349	6349	6349	6349	6349	6349	6235	6349	6349	6349	6349	6349	6349	6349	6349	6349	6349	6349	6349	6349	6349	6349	6349	6349	6349	6235	6349	6349	6349	6349	6349	6235	6235	6235	6124	6124	6124	6124	6124	6124	6235	6349	6349	6349	6349	6349	6349	6235	6235	6124	6124	6124	6018	6018	6018	6124	6018	6018	6124	6124	6124	6124	6124	6124	6235	6235	6235	6235	6235	6235	6235	6235	6124	6235	6235	6235	6235	6235	6235	6235	6235	6235	6235	6349	6349	6349	6349	6349	6235	6235	6235	6235	6235	6235	6235	6124	6124	6235	6235	6235	6235	6235	6235	6349	6349	6349	6235	6235	6235	0	0	0	3157	3157	3157	3157	3157	3157	3157	3157	3157	3157	3157	3129	3129	3129	3157	3157	3157	3157	3186	3186	3186	3186	3186	3186	0	6235	6349	6349	6349	6235	6235	6235	6235	6235	6235	6235	6235	6235	6235	6235	6235	6235	6235	6235	6235	6235	6235	6235	6235	6124	6235	6235	6235	6235	6235	6235	6235	6124	6124	6124	6235	6235	6235	6235	6235	6235	6124	6124	6235	6235	6124	6124	6124	6124	6124	6124	6124	6124	6124	6124	6349	6235	6235	6235	6235	6235	6235	6235	6235	6235	6235	6124	6124	6235	6235	6235	6235	6235	6235	6235	6235	6235	6235	6235	6235	6235	6235	6235	6349	6349	6235	6235	6235	6235	6235	6235	6235	6235	6235	6235	6235	6235	6235	6235	6235	6235	6235	6235	6235	6235	6124	6124	6124	6124	6235	6235	6235	6235	6235	6235	6235	6235	6235	6235	6349	6349	6349	6235	6235	6235	6235	6235	6235	6124	6124	6124	6124	6018	6018	6124	6235	6235	6235	6235	6235	6235	6235	6235	6349	6349	6349	6349	6349	6349	6349	6349	6349	6468	6349	6349	6468	6349	6349	6349	6349	6349	6349	6349	6349	6349	6349	6468	6468	6349	6349	6349	6349	6349	6349	6349	6349	6349	6349	6349	6349	6349	6349	6349	6468	6468	6468	6468	6468	6468	6468	6468	6468	6468	6468	6592	6592	6592	6468	6592	6592	6468	6468	6468	6468	6468	6468	6468	6468	6349	6349	6235	6349	6349	6349	6349	6349	6349	6349	6349	6349	6349	6349	6349	6349	6349	6349	6349	6349	6349	6468	6349	6468	6468	6468	6235	6349	6349	6235	6349	6235	6349	6235	6235	6235	6235	6235	6235	6124	6349	6235	6235	6235	6235	6235	6235	6235	6235	6235	6235	6235	6235	6235	6235	6349	6349	6349	6349	6349	6349	0	0	0	0	0	0	0	0	0	0	0	0	0	0	0	0	0	0	0	0	0	0	0	0	0	0	0	0	0	0	0	0	0	0	0	0	0	0	0	0	0	0	0	0	0	0	0
0	777	777	777	777	779	784	791	789	795	795	797	797	798	800	804	806	814	814	817	821	827	829	829	831	831	835	835	837	837	845	845	850	850	898	898	898	898	898	896	896	896	898	894	896	898	898	898	898	903	901	901	903	910	913	913	917	920	925	925	945	948	948	950	950	953	953	953	963	966	966	969	969	969	1064	1064	1061	1061	1061	1061	1061	1061	1061	1064	1064	1064	1061	1058	1058	1064	1068	1074	1074	1078	1078	1078	1078	0	0	0	0	0	0	0	0	0	6124	6124	6124	6235	6235	6349	6349	6349	6349	6349	6235	6235	0	0	0	0	0	0	6235	6349	6349	6349	6349	6349	6349	6349	6349	6468	6468	6349	6349	6349	6349	6349	6349	6349	6349	6349	6349	6349	6349	6349	6349	6349	6349	6349	6349	6349	6349	6349	6349	6349	6349	6235	6349	6349	6349	6349	6349	6349	6349	6349	6349	6349	6349	6349	6349	6349	6349	6349	6349	6349	6235	6235	6235	6235	6124	6124	6124	6235	6235	6349	6349	6349	6349	6349	6349	6235	6349	6349	6349	6349	6349	6349	6349	6349	6349	6349	6349	6349	6349	6349	6349	6349	6349	6349	6349	6349	6349	6349	6349	6349	6235	6235	6235	6235	6124	6124	6124	6124	6235	6235	6349	6349	6349	6468	6349	6349	6235	6235	6235	6124	6124	6124	6018	6018	6124	6018	6018	6124	6124	6124	6124	6124	6124	6349	6349	6349	6349	6235	6235	6235	6235	6235	6235	6235	6235	6235	6235	6235	6235	6235	6235	6235	6349	6349	6349	6349	6349	6349	6349	6349	6235	6349	6349	6349	6235	6235	6235	6235	6235	6235	6235	6349	6349	6349	6349	6349	6349	6349	6349	6349	0	3157	3157	3157	3157	3157	3157	3157	3157	3157	3157	3157	3157	3157	3129	3157	3157	3157	3186	3186	3186	3186	3186	3186	3186	0	6235	6349	6349	6349	6235	6349	6349	6235	6235	6235	6235	6235	6235	6235	6235	6235	6235	6349	6349	6349	6235	6235	6235	6235	6235	6235	6235	6235	6235	6235	6235	6235	6124	6235	6235	6235	6235	6235	6235	6235	6235	6235	6235	6235	6235	6235	6235	6124	6124	6124	6124	6124	6124	6235	6235	6349	6349	6349	6235	6349	6235	6235	6235	6235	6235	6235	6235	6235	6235	6235	6235	6235	6235	6235	6349	6235	6235	6349	6349	6349	6349	6235	6349	6349	6349	6349	6235	6235	6235	6235	6235	6235	6235	6235	6235	6235	6235	6235	6235	6235	6235	6235	6235	6235	6235	6235	6235	6235	6235	6235	6235	6349	6235	6235	6235	6235	6235	6235	6235	6349	6349	6349	6235	6235	6235	6235	6235	6235	6124	6124	6124	6124	6018	6018	6124	6235	6235	6235	6235	6235	6349	6349	6349	6349	6468	6468	6468	6349	6349	6349	6349	6468	6468	6468	6349	6468	6349	6349	6349	6349	6349	6349	6468	6349	6468	6349	6468	6468	6468	6468	6349	6349	6349	6349	6349	6349	6349	6349	6349	6349	6349	6349	6349	6468	6468	6468	6468	6468	6468	6468	6592	6468	6468	6592	6592	6592	6592	6468	6468	6468	6468	6468	6468	6468	6468	6468	6468	6468	6468	6468	6468	6468	6468	6468	6349	6349	6349	6349	6349	6349	6349	6349	6349	6349	6349	6468	6468	6468	6468	6592	6592	6592	6592	6592	0	6349	6349	6235	6349	6349	6349	6235	6235	6235	6235	6235	6235	6235	6349	6349	6349	6349	6235	6235	6124	6124	0	0	6235	6235	6235	6235	6235	6349	6468	6349	6349	6349	0	0	0	0	0	0	0	0	0	0	0	0	0	0	0	0	0	0	0	0	0	0	0	0	0	0	0	0	0	0	0	0	0	0	0	0	0	0	0	0	0	0	0	0	0	0	0	0
0	775	777	777	779	779	784	788	789	793	793	797	797	798	802	804	808	814	815	819	823	827	827	829	831	833	835	837	841	843	845	845	850	850	858	858	901	901	901	898	901	901	901	901	901	901	901	901	898	903	901	901	903	908	913	910	917	920	922	922	945	948	948	950	950	953	953	961	963	966	969	969	969	0	0	0	1064	1061	1061	1061	1061	1064	1064	1064	1064	1064	1064	1058	1061	1064	1068	1068	1074	1074	1081	1081	1081	0	0	0	0	0	0	0	0	0	6124	6124	6124	6124	6235	6349	6349	6468	6468	6468	6349	6349	0	0	0	0	0	0	0	6349	6349	6349	6349	6349	6349	6349	6349	6349	6349	6349	6349	6349	6349	6468	6349	6349	6349	6349	6468	6349	6349	6349	6349	6349	6349	6349	6349	6349	6349	6349	6235	6349	6349	6349	6349	6349	6349	6349	6349	6349	6349	6349	6349	6349	6349	6349	6349	6349	6349	6349	6349	6349	6349	6235	6235	6235	6235	6235	6235	6235	6235	6349	6349	6349	6349	6349	6349	6349	6349	6349	6349	6349	6349	6349	6349	6349	6349	6349	6468	6349	6349	6349	6349	6349	6349	6349	6349	6349	6349	6349	6349	6349	6235	6235	6235	6235	6235	6235	6235	6235	6235	6349	6349	6349	6468	6468	6349	6349	6349	6349	6235	6235	6124	6124	6124	6124	6124	6124	6124	6124	6124	6124	6124	6124	6124	6349	6349	6349	6349	6349	6235	6235	6235	6235	6235	6235	6235	6349	6235	6235	6235	6235	6235	6235	6349	6468	6468	6468	6468	6349	6349	6349	6349	6349	6349	6468	6349	6349	6349	6349	6349	6349	6349	6349	6349	6349	6349	6349	6349	6349	6235	6235	0	3157	3157	3157	3186	3157	3157	3157	3157	3157	3157	3157	3157	3157	3129	3157	3157	3157	3186	3186	3186	3186	3186	3186	3186	6349	6349	6349	6468	6468	6349	6349	6349	6235	6235	6235	6235	6235	6235	6235	6124	6235	6235	6349	6349	6349	6235	6235	6235	6235	6235	6235	6235	6235	6235	6235	6235	6235	6235	6235	6235	6235	6235	6235	6124	6235	6235	6235	6235	6235	6349	6349	6349	6235	6235	6235	6235	6235	6235	6235	6235	6349	6349	6349	6235	6349	6235	6235	6235	6235	6235	6235	6235	6235	6235	6349	6349	6349	6235	6235	6349	6235	6235	6349	6349	6349	6349	6349	6349	6349	6349	6349	6349	6349	6235	6235	6235	6235	6235	6235	6235	6235	6235	6235	6235	6235	6235	6349	6349	6349	6349	6235	6235	6349	6349	6349	6349	6349	6349	6349	6349	6349	6235	6235	6235	6235	6349	6349	6235	6235	6235	6349	6349	6349	6235	6235	6235	6235	6124	6018	6124	6235	6349	6349	6235	6349	6349	6349	6349	6349	6468	6468	6349	6349	6349	6349	6349	6468	6468	6468	6468	6468	6468	6349	6349	6349	6349	6349	6468	6468	6468	6468	6468	6468	6468	6468	6468	6349	6349	6349	6349	6349	6349	6349	6349	6349	6349	6349	6349	6468	6468	6468	6468	6468	6468	6592	6592	6468	6468	6592	6592	6592	6592	6468	6592	6468	6468	6468	6468	6468	6468	6468	6468	6468	6468	6468	6468	6592	6592	6468	6468	6468	6349	6349	6468	6468	6349	6349	6349	6349	6349	6468	6468	6468	6468	6592	6592	6592	6720	6720	0	0	0	0	6349	6349	6235	6235	6235	6235	6235	6235	6235	6235	6349	6235	6235	6468	6349	6235	6235	6124	0	0	0	0	0	6235	6235	6349	6592	6592	6349	6349	0	0	0	0	0	0	0	0	0	0	0	0	0	0	0	0	0	0	0	0	0	0	0	0	0	0	0	0	0	0	0	0	0	0	0	0	0	0	0	0	0	0	0	0	0	0	0	0
0	775	777	777	779	779	786	789	791	793	797	797	797	797	800	806	808	814	814	817	821	825	827	829	831	831	835	839	841	843	848	848	850	850	858	860	860	903	903	903	903	903	903	903	905	905	903	905	905	905	905	905	905	913	913	913	917	920	920	920	942	948	945	950	950	950	953	961	963	966	969	972	972	0	0	0	1064	1061	1061	1061	1061	1061	1061	1064	1064	1061	1061	1061	1061	1064	1064	1068	1068	1074	1081	1081	1081	0	0	0	0	0	0	0	0	0	6235	6235	6124	6124	6235	6349	6349	6349	6468	6468	6592	6468	6468	0	0	0	0	0	0	6349	6349	6349	6468	6349	6349	6349	6349	6349	6349	6349	6349	6349	6349	6468	6349	6349	6349	6468	6468	6349	6349	6349	6349	6349	6349	6349	6349	6349	6349	6349	6235	6349	6349	6349	6349	6349	6349	6349	6349	6349	6349	6468	6349	6349	6349	6349	6349	6349	6235	6349	6349	6349	6349	6349	6235	6235	6235	6235	6235	6235	6235	6349	6349	6349	6349	6349	6349	6349	6349	6349	6349	6349	6349	6349	6349	6349	6349	6349	6468	6349	6349	6349	6349	6349	6349	6349	6349	6349	6349	6349	6349	6349	6349	6349	6349	6235	6235	6235	6349	6349	6349	6349	6349	6349	6349	6468	6349	6468	6349	6349	6349	6235	6124	6124	6124	6124	6124	6124	6124	6124	6124	6124	6235	6124	6235	6349	6349	6349	6349	6349	6349	6349	6349	6235	6349	6349	6349	6349	6349	6349	6235	6349	6349	6349	6349	6468	6468	6468	6468	6468	6468	6468	6349	6468	6468	6468	6468	6349	6349	6349	6349	6349	6349	6349	6349	6349	6349	6349	6349	6349	6124	6124	0	3157	3186	3186	3186	3186	3186	3186	3157	3157	3157	3157	3157	3157	3129	3157	3157	3186	3186	3186	3186	3186	3186	3186	3186	6349	6349	6468	6468	6468	6468	6349	6349	6349	6349	6235	6235	6235	6235	6235	6235	6235	6235	6235	6349	6349	6349	6349	6235	6349	6235	6235	6235	6235	6235	6235	6235	6235	6235	6235	6235	6235	6235	6235	6124	6235	6235	6235	6235	6349	6349	6349	6235	6235	6235	6235	6235	6235	6235	6235	6235	6349	6349	6349	6235	6349	6349	6235	6235	6235	6235	6235	6349	6349	6349	6349	6349	6349	6349	6349	6349	6349	6349	6349	6349	6349	6349	6349	6349	6349	6349	6349	6349	6349	6349	6349	6349	6349	6349	6235	6235	6349	6349	6349	6349	6349	6349	6349	6349	6349	6349	6349	6349	6349	6349	6349	6349	6349	6349	6349	6349	6349	6349	6235	6235	6349	6349	6349	6349	6349	6349	6349	6349	6349	6349	6349	6349	6349	6235	6124	6235	6349	6349	6349	6349	6349	6349	6349	6349	6349	6468	6468	6468	6349	6349	6349	6468	6468	6468	6468	6468	6468	6468	6468	6349	6349	6349	6349	6468	6468	6468	6468	6468	6468	6349	6349	6349	6349	6349	6349	6349	6349	6349	6349	6349	6349	6349	6349	6349	6468	6468	6468	6468	6592	6592	6592	6592	6592	6592	6592	6592	6592	6592	6592	6592	6592	6468	6468	6468	6468	6468	6468	6468	6592	6592	6592	6592	6592	6592	6592	6468	6468	6468	6468	6468	6468	6468	6468	6349	6468	6468	6468	6468	6468	6468	6592	6592	6592	6592	6592	6592	0	0	0	0	0	6235	6235	6235	6235	6235	0	0	6235	6349	6235	6235	6468	6349	6235	6235	0	0	0	0	0	0	0	0	0	6592	6720	6468	6468	0	0	0	0	0	0	0	0	0	0	0	0	0	0	0	0	0	0	0	0	0	0	0	0	0	0	0	0	0	0	0	0	0	0	0	0	0	0	0	0	0	0	0	0	0	0	0	0
0	0	0	0	777	777	788	789	791	791	795	797	797	797	802	810	810	814	815	817	817	823	825	829	831	831	835	841	841	845	848	850	852	858	858	860	860	860	903	903	903	903	905	905	905	908	908	908	908	908	908	908	917	917	917	917	920	920	927	935	942	948	948	950	950	950	955	958	963	966	969	972	972	972	0	0	1061	1061	1061	1061	1061	1061	1061	1061	1064	1061	1061	1061	1064	1064	1068	1068	1071	1074	1078	1078	1078	0	0	0	0	0	0	0	0	0	6235	6235	6235	6235	6235	6349	6349	6235	6349	6349	6349	6349	6349	0	0	0	0	0	0	6468	6349	6468	6468	6468	6468	6349	6468	6468	6349	6349	6349	6349	6468	6468	6468	6468	6468	6468	6468	6349	6349	6349	6349	6349	6349	6349	6349	6349	6349	6349	6235	6349	6235	6349	6349	6349	6349	6349	6349	6349	6349	6349	6349	6349	6349	6349	6349	6349	6235	6349	6349	6349	6349	6349	6235	6235	6235	6235	6235	6235	6349	6468	6349	6349	6349	6349	6349	6349	6349	6349	6349	6349	6349	6349	6349	6349	6349	6468	6468	6349	6349	6349	6349	6349	6468	6468	6468	6468	6468	6468	6349	6349	6349	6349	6349	6349	6349	6349	6349	6349	6349	6349	6349	6349	6468	6468	6349	6468	6349	6349	6349	6349	6235	6235	6235	6235	6235	6124	6124	6235	6235	6235	6235	6235	6235	6349	6349	6349	6349	6349	6349	6349	6349	6349	6349	6349	6349	6468	6349	6349	6349	6349	6349	6349	6468	6468	6468	6468	6468	6468	6468	6468	6468	6468	6468	6468	6349	6349	6349	6349	6349	6349	6349	6349	6349	6468	6349	6349	6349	6349	6349	6124	0	0	3186	3186	3186	3186	3186	3186	3186	3157	3157	3157	3157	3157	3157	3157	3157	3186	3186	3186	3186	3186	3186	3186	3186	0	6349	6349	6468	6468	6468	6349	6468	6349	6349	6349	6235	6235	6235	6235	6235	6235	6235	6349	6349	6349	6235	6349	6235	6349	6349	6349	6349	6349	6349	6349	6235	6235	6235	6235	6235	6235	6235	6235	6235	6235	6235	6235	6235	6349	6349	6349	6349	6349	6349	6349	6349	6349	6235	6235	6235	6349	6349	6349	6349	6349	6349	6349	6349	6349	6349	6349	6349	6349	6349	6349	6349	6349	6349	6349	6349	6349	6349	6349	6349	6349	6349	6349	6349	6349	6349	6349	6349	6349	6349	6349	6349	6349	6235	6349	6235	6349	6349	6349	6349	6349	6349	6349	6349	6349	6349	6349	6349	6349	6349	6349	6349	6349	6349	6349	6349	6349	6349	6235	6235	6349	6349	6349	6349	6349	6349	6468	6468	6349	6349	6349	6349	6349	6235	6235	6235	6349	6349	6349	6349	6349	6349	6349	0	0	0	6468	6468	6349	6349	6468	6468	6468	6468	6468	6592	6468	6468	6468	6349	6349	6349	6468	6468	6468	6468	6468	6468	6468	6468	6468	6349	6349	6349	6349	6468	6468	6349	6349	6349	0	0	0	0	6592	6592	6592	6468	6592	6592	6592	6720	6592	6720	6720	6720	6592	6720	6592	6592	6592	6592	6468	6468	6468	6468	6468	6592	6592	6592	6592	6592	6592	6592	6592	6592	6592	6592	6592	6468	6468	6468	6468	6468	6468	6468	6468	6468	6468	6468	6592	6592	6592	6592	6592	6592	0	0	0	0	0	0	0	0	0	0	0	0	0	0	0	0	0	6235	6235	6235	0	0	0	0	0	0	0	0	0	0	6720	6468	6468	0	0	0	0	0	0	0	0	0	0	0	0	0	0	0	0	0	0	0	0	0	0	0	0	0	0	0	0	0	0	0	0	0	0	0	0	0	0	0	0	0	0	0	0	0	0	0	0
0	0	0	0	779	779	793	789	791	795	795	797	797	798	804	810	812	814	814	815	815	821	823	825	827	831	835	839	841	845	848	850	854	858	860	860	865	865	865	903	903	905	905	908	908	910	908	910	915	913	910	913	920	920	920	920	920	922	927	935	940	945	945	948	950	950	953	961	963	966	969	972	972	972	0	0	1061	1064	1064	1064	1061	1064	1064	1064	1064	1061	1061	1061	1064	1064	1064	1068	1068	1074	1074	1078	1081	1081	1085	0	0	0	0	0	0	0	6235	6235	6235	6235	6235	6349	6349	6235	6235	6235	6349	6349	6349	0	0	0	0	0	0	6468	6349	6592	6468	6468	6468	6468	6468	6468	6468	6468	6468	6468	6468	6468	6468	6349	6468	6468	6468	6468	6349	6349	6349	6349	6349	6349	6349	6349	6349	6349	6349	6349	6349	6235	6349	6349	6349	6349	6349	6349	6349	6349	6349	6349	6349	6349	6235	6235	6235	6349	6349	6349	6349	6349	6235	6235	6235	6349	6235	6349	6349	6468	6468	6468	6349	6468	6349	6349	6349	6349	6349	6349	6349	6349	6349	6349	6349	6468	6468	6468	6468	6349	6468	6468	6468	6468	6468	6468	6468	6468	6349	6349	6349	6349	6349	6349	6349	6349	6349	6349	6349	6349	6468	6349	6468	6468	6349	6468	6349	6349	6349	6349	6349	6349	6235	6349	6349	6349	6349	6349	6235	6349	6349	6235	6235	6468	6468	6468	6468	6349	6349	6349	6349	6349	6349	6349	6349	6349	6349	6468	6349	6349	6349	6349	6468	6468	6468	6468	6468	6468	6468	6468	6468	6468	6468	6468	6468	6349	6349	6349	6468	6468	6468	6468	6468	6468	6468	6468	6468	6468	6468	0	0	3186	3186	3186	3186	3186	3186	3186	3157	3157	3157	3157	3157	3157	3157	3157	3186	3186	3186	3186	3186	3186	3186	3186	3186	3186	3186	6349	6468	6468	6468	6349	6349	6349	6349	6349	6235	6235	6235	6235	6235	6235	6235	6349	6349	6349	6349	6349	6235	6349	6349	6349	6349	6349	6349	6349	6235	6235	6235	6235	6235	6235	6349	6349	6235	6235	6235	6235	6235	6349	6349	6349	6349	6349	6349	6349	6349	6349	6349	6349	6349	6468	6468	6349	6349	6349	6468	6468	6468	6349	6349	6349	6349	6349	6349	6349	6349	6349	6349	6349	6349	6349	6349	6349	6349	6349	6349	6349	6349	6349	6468	6468	6349	6349	6349	6468	6349	6349	6235	6349	6349	6349	6349	6349	6349	6349	6349	6349	6349	6349	6349	6349	6349	6349	6349	6349	6349	6349	6349	6349	6349	6468	6349	6349	6349	6468	6468	6468	6468	6468	6468	6468	6468	6349	6349	6349	6349	6349	6349	6349	6349	6349	6349	6349	6349	6349	6349	6349	0	0	0	6468	6468	6349	6349	6349	6468	6468	6468	6468	6468	6468	6468	6468	6349	6349	6349	6468	6468	6468	6468	6468	6468	6468	6468	6468	6468	6349	6349	6349	6468	6468	6468	6349	0	0	0	0	0	6592	6592	6592	6592	6592	6720	6720	6720	6592	6853	6853	6720	6720	6720	6592	6592	6592	6592	6592	6468	6468	6468	6592	6592	6592	6592	6592	6592	6592	6853	6592	6592	6592	6592	6592	6468	6468	6468	6468	6468	6349	6349	6349	6468	6468	6468	6468	6468	6592	6592	6592	6592	0	0	0	0	0	0	0	0	0	0	0	0	0	0	0	0	0	6235	6235	0	0	0	0	0	0	0	0	0	0	0	0	0	0	0	0	0	0	0	0	0	0	0	0	0	0	0	0	0	0	0	0	0	0	0	0	0	0	0	0	0	0	0	0	0	0	0	0	0	0	0	0	0	0	0	0	0	0	0	0	0	0
0	0	0	0	779	779	789	788	789	789	795	795	795	797	810	812	812	814	814	814	815	823	823	825	827	829	835	839	841	843	845	850	854	858	860	862	869	869	869	905	905	908	908	910	910	913	913	920	920	917	917	920	920	922	920	920	922	922	927	932	940	942	945	948	950	950	958	961	966	966	969	972	972	972	972	991	991	1068	1068	1068	1061	1064	1064	1064	1064	1061	1061	1061	1061	1061	1064	1064	1064	1071	1078	1078	1081	1081	1085	0	0	0	0	0	0	0	0	6349	6349	6349	6349	6349	6349	6235	6235	6349	6349	6349	6349	6235	6235	0	0	0	0	0	0	6592	6592	6592	6468	6468	6468	6468	6468	6468	6468	6468	0	6349	6349	6468	6468	6468	6468	6468	6349	6349	6349	6349	6349	6349	6468	6468	6468	6349	6349	6349	6349	6349	6349	6349	6349	6468	6349	6349	6349	6349	6349	6349	6349	6235	6235	6235	6235	6349	6349	6349	6349	6349	6349	6349	6235	6349	6349	6349	6349	6468	6468	6468	6468	6468	6468	6468	6468	6349	6349	6349	6349	6349	6349	6349	6468	6468	6468	6468	6468	6349	6468	6468	6468	6468	6468	6468	6468	6468	6468	6349	6349	6349	6349	6349	6349	6349	6468	6349	6468	6349	6468	6468	6468	6468	6349	6468	6349	6349	6349	6349	6349	6349	6349	6349	6349	6349	6349	6349	6349	6349	6349	6349	6349	6468	6468	6468	6468	6468	6468	6468	6468	6468	6468	6468	6349	6468	6349	6468	6349	6349	6468	6468	6468	6468	6468	6468	6468	6468	6592	6592	6468	6468	6468	6468	6468	6349	6349	6349	6468	6468	6468	6468	6468	6468	6468	6468	6468	6468	6468	0	0	3216	3186	3186	3186	3186	3157	3186	3157	3157	3157	3157	3157	3157	3157	3157	3186	3186	3186	3186	3186	3186	3186	3186	3186	3186	3186	3186	6468	6349	6349	6349	6349	6349	6468	6468	6349	6349	6349	6349	6349	6349	6349	6349	6349	6468	6349	6468	6349	6349	6349	6349	6349	6349	6349	6349	6349	6235	6235	6349	6349	6349	6349	6349	6349	6349	6235	6235	6235	6349	6349	6349	6349	6349	6349	6349	6349	6349	6468	6468	6468	6468	6468	6468	6468	6468	6468	6468	6468	6468	6468	6468	6468	6468	6468	6468	6468	6468	6468	6349	6349	6349	6349	6349	6349	6349	6349	6349	6349	6349	6468	6468	6468	6349	6349	6468	6468	6349	6349	6349	6349	6349	6349	6349	6349	6349	6349	6349	6349	6349	6349	6349	6349	6349	6349	6468	6468	6468	6349	6349	6468	6468	6349	6349	6349	6468	6468	6468	6468	6468	6468	6468	6468	6468	6349	6349	6349	6349	6349	6349	6349	6349	6349	6349	6349	6349	6349	6349	0	0	0	0	6468	6349	6349	6349	6468	6468	6468	6468	6468	6468	6468	6468	6468	6468	6468	6468	6468	6468	6468	6468	6468	6468	6468	6468	6468	6349	6349	6349	6349	6468	6468	0	0	0	0	0	0	0	6592	6592	6592	6720	6853	6853	6853	6720	6853	6992	6853	6720	6720	6592	6592	6592	6592	6592	6468	6468	6468	6468	6592	6592	6592	6592	6720	6720	6720	6592	6592	6592	6592	6592	6468	6468	6468	6468	6349	6349	6349	6349	6468	6468	6468	6468	6468	6468	6592	6592	6592	0	0	0	0	0	0	0	0	0	0	0	0	0	0	0	0	0	0	0	0	0	0	0	0	0	0	0	0	0	0	0	0	0	0	0	0	0	0	0	0	0	0	0	0	0	0	0	0	0	0	0	0	0	0	0	0	0	0	0	0	0	0	0	0	0	0	0	0	0	0	0	0	0	0	0	0	0	0	0	0	0
0	0	0	0	0	0	784	786	789	789	797	797	797	797	800	812	814	814	815	817	821	825	825	827	827	827	831	837	841	845	848	852	858	858	862	862	869	869	871	871	871	913	913	913	913	922	927	927	927	927	930	927	927	925	922	925	927	927	927	932	940	942	945	948	950	950	958	961	963	966	969	972	972	974	991	991	991	991	1068	1064	1061	1061	1061	1061	1061	1061	1061	1061	1061	1061	1064	1064	1068	1071	1074	1078	1081	1081	0	0	0	0	0	0	0	0	0	6349	6349	6235	6349	6349	6349	6235	6235	6349	6349	6349	6349	6349	6349	0	0	0	0	0	6468	6468	6592	6592	6592	6592	6468	6592	6592	0	0	0	0	6468	6468	6468	6468	6468	6468	6468	6349	6349	6468	6349	6468	6468	6468	6592	6468	6468	6349	6349	6349	6349	6349	6349	6349	6349	6349	6349	6349	6349	6349	6349	6235	6235	6235	6349	6349	6349	6349	6349	6349	6349	6349	6349	6349	6349	6349	6349	6349	6468	6468	6468	6468	6468	6468	6468	6468	6468	6349	6349	6349	6349	6349	6468	6468	6468	6592	6468	6468	6468	6468	6468	6468	6468	6468	6468	6468	6468	6468	6349	6468	6349	6468	6349	6349	6349	6468	6468	6468	6468	6468	6468	6468	6468	6349	6349	6349	6468	6468	6468	6349	6349	6349	6349	6349	6349	6349	6349	6468	6349	6349	6349	6349	6468	6592	6592	6468	6468	6468	6468	6468	6468	6349	6468	6349	6468	6468	6468	6349	6468	6468	6468	6468	6468	6468	6592	6592	6592	6592	6592	6592	6468	6468	6468	6468	6349	6349	6349	6468	6468	6468	6468	6468	6468	6468	6468	6468	6468	6468	0	0	3216	3186	3186	3186	3186	3157	3157	3157	3157	3157	3157	3157	3157	3157	3157	3186	3186	3186	3186	3186	3186	3186	3186	3186	3186	3186	3186	3186	6235	6349	6349	6592	6468	6468	6592	6468	6468	6468	6468	6468	6468	6468	6349	6468	6468	6468	6468	6468	6468	6468	6468	6468	6468	6468	6468	6468	6349	6349	6349	6349	6349	6349	6468	6468	6349	6349	6349	6349	6349	6349	6349	6349	6349	6349	6349	6349	6349	6349	6468	6468	6468	6468	6468	6468	6468	6468	6468	6468	6468	6468	6592	6592	6592	6468	6468	6468	6468	6468	6349	6349	6349	6349	6349	6349	6349	6349	6349	6349	6349	6468	6468	6468	6468	6468	6468	6468	6349	6349	6349	6349	6349	6349	6349	6349	6349	6349	6349	6349	6349	6349	6468	6349	6468	6349	6468	6468	6468	6349	6349	6349	6349	6349	6349	6349	6592	6468	6592	6592	6592	6468	6468	6468	6468	6349	6349	6349	6349	6349	6349	6349	6349	6468	6468	6468	6349	6349	0	0	0	0	0	0	6349	6349	0	0	0	0	0	6468	6468	6468	6468	6468	6468	6468	6592	6592	6592	6468	6468	6468	6468	6468	6468	6468	6349	6349	6349	6349	6468	0	0	0	0	0	0	0	0	6592	6592	6592	6592	6853	6853	6853	6853	6853	6853	6720	6720	6720	6592	6592	6592	6468	6468	6468	6468	6468	6592	6592	6592	6720	6720	6720	6720	6720	6592	6592	6592	6592	6592	6592	6468	6468	6468	6468	6468	6349	6349	6468	6468	6468	6468	6468	6468	6592	6592	6592	0	0	0	0	0	0	0	0	0	0	0	0	0	0	0	0	0	0	0	0	0	0	0	0	0	0	0	0	0	0	0	0	0	0	0	0	0	0	0	0	0	0	0	0	0	0	0	0	0	0	0	0	0	0	0	0	0	0	0	0	0	0	0	0	0	0	0	0	0	0	0	0	0	0	0	0	0	0	0	0	0
0	0	0	0	0	0	786	788	789	789	795	795	797	797	798	814	814	815	817	817	821	823	825	827	829	829	831	837	841	843	845	854	858	858	862	865	865	869	871	871	873	873	873	913	915	922	925	927	930	930	930	930	930	927	927	927	930	927	927	930	937	937	940	945	950	950	958	961	961	961	961	972	994	991	994	994	991	991	0	1064	1061	1061	1061	1061	1061	1061	1061	1061	1061	1061	1064	1064	1068	1074	1071	1074	1074	1074	0	0	0	0	0	0	0	0	0	6349	6349	6235	6235	6235	6235	6235	6235	6235	6349	6235	6349	6349	6349	0	0	6592	6592	6592	6592	6592	6592	6592	6592	6592	6592	6720	6720	0	0	0	0	6468	6468	6592	6468	6468	6468	6468	6349	6349	6468	6468	6468	6468	6592	6592	6468	6468	6349	6349	6349	6349	6349	6349	6349	6349	6468	6349	6349	6349	6349	6235	6235	6235	6235	6235	6349	6349	6349	6349	6349	6349	6349	6349	6349	6349	6349	6349	6349	6468	6468	6468	6468	6592	6468	6592	6592	6468	6349	6349	6349	6349	0	6468	6592	6592	6592	6592	6592	6592	6468	6468	6468	6468	6468	6468	6468	6468	6468	6468	6468	6468	6468	6349	6349	6349	6468	6468	6468	6468	6468	6468	6468	6468	6349	6349	6468	6468	6468	6468	6468	6468	6349	6349	6349	6349	6349	6349	6468	6468	6468	6468	6468	6592	6592	6592	6468	6468	6468	6468	6468	6468	6468	6468	6468	6468	6468	6468	6468	6468	6468	6592	6592	6468	6468	6468	6468	6592	6592	6592	6468	6468	6468	6468	6468	6349	6349	6349	6349	6468	6468	6468	6468	6468	6468	6468	6468	6468	6468	0	3186	3186	3186	3186	3186	3186	3157	3157	3157	3157	3157	3157	3157	3157	3157	3157	3186	3186	3186	3186	3186	3186	3186	3186	3186	3186	3186	3186	3186	3186	6349	6349	6592	6468	6592	6592	6592	6592	6468	6468	6468	6468	6468	6468	6468	6468	6468	6468	6468	6468	6468	6592	6592	6468	6468	6468	6592	6468	6468	6468	6468	6349	6349	6349	6349	6349	6349	6349	6349	6349	6349	6349	6349	6349	6349	6349	6349	6349	6349	6349	6349	6468	6468	6468	6468	6468	6592	6592	6592	6592	6592	6592	6592	6592	6468	6468	6592	6468	6468	6468	6468	6349	6349	6349	6349	6349	6468	6349	6349	6468	6468	6468	6592	6468	6468	6592	6592	6468	6349	6349	6349	6349	6349	6349	6349	6349	6349	6349	6349	6349	6349	6349	6349	6468	6349	6468	6468	6468	6349	6349	6349	6349	6349	6349	6468	6592	6592	6592	6592	6592	6592	6592	6592	6468	6349	6349	6349	6349	6349	6468	6468	6468	6468	6468	6349	6349	6349	0	0	0	0	0	0	0	0	0	0	0	0	0	0	0	0	0	0	6468	6468	6592	6592	6592	6468	6468	6468	6468	6468	6468	6468	6349	6349	6349	0	0	0	0	0	0	0	0	0	0	0	6592	6592	6592	6853	6853	6853	6853	6853	6853	6720	6720	6720	6592	6592	6592	6468	6468	6468	6468	6468	6592	6720	6720	6720	6720	6720	6720	6720	6592	6592	6720	6592	6592	6592	6468	6468	6468	6468	6468	6349	6349	6468	6468	6468	6468	6468	6468	6468	6468	0	0	0	0	0	0	0	0	0	0	0	0	0	0	0	0	0	0	0	0	0	0	0	0	0	0	0	0	0	0	0	0	0	0	0	0	0	0	0	0	0	0	0	0	0	0	0	0	0	0	0	0	0	0	0	0	0	0	0	0	0	0	0	0	0	0	0	0	0	0	0	0	0	0	0	0	0	0	0	0	0	0
0	0	0	0	0	0	786	788	789	789	791	793	793	797	797	815	815	815	817	819	821	823	825	829	829	829	833	837	841	843	845	854	858	858	862	862	865	865	871	873	873	873	873	873	925	927	927	930	930	930	932	930	930	930	927	930	930	930	930	932	937	937	940	942	950	950	958	958	958	958	961	974	991	994	994	994	994	994	0	0	1058	1058	1061	1061	1058	1058	1058	1061	1058	1061	1061	1064	1068	1068	1071	1071	1071	1071	0	0	0	0	0	0	0	0	0	6349	6235	6235	6235	6235	6235	6235	6235	6235	6349	6235	6349	6349	6349	0	0	6592	6592	6592	6592	6468	6592	6592	6592	6720	6720	6720	6720	0	0	0	0	6468	6592	6592	6468	6468	6468	6468	6468	6468	6468	6592	6592	6592	6592	6592	6592	6468	6349	6349	6349	6349	6349	6349	6349	6349	6468	6349	6349	6349	6349	6235	6235	6235	6235	6349	6349	6349	6349	6468	6468	6349	6468	6468	6349	6349	6349	6349	6349	6468	6468	6592	6592	6592	6468	6592	6592	0	0	0	6349	6349	0	0	6592	6592	6720	6720	6720	6592	6468	6468	6468	6468	6468	6592	6468	6468	6468	6468	6468	6468	6468	6468	6468	6468	6468	6468	6468	6468	6468	6468	6468	6468	6349	6468	6468	6468	6468	6468	6349	6349	6349	6349	6349	6349	6468	6468	6468	6468	6468	6468	6468	6592	6592	6592	6592	6592	6468	6468	6468	6468	6468	6468	6468	6592	6592	6592	6592	6592	6592	6592	6592	6592	6468	6468	6468	6592	6592	6592	6468	6468	6468	6468	3157	3157	3157	3157	3157	3186	3186	3186	3186	3186	6468	6468	6468	6468	3216	3186	3186	3186	3186	3186	3186	3157	3157	3157	3157	3157	3157	3157	3157	3157	3157	3157	3186	3186	3186	3186	3186	3186	3186	3186	3186	3186	3186	3186	3186	3186	3186	3186	6592	6592	6592	6592	6592	6592	6592	6592	6592	6592	6592	6592	6720	6720	6720	6720	6720	0	6592	6592	6592	6592	6592	6592	6592	6592	6592	6592	6592	6349	6349	6349	6349	6349	6349	6349	6349	6349	6349	6349	6349	6349	6349	6349	6349	6349	6468	6468	6468	6592	6592	6592	6592	6592	6592	6592	6592	6592	6592	6592	6592	6592	6592	6592	6592	6468	6468	6468	6349	6349	6349	6349	6349	6349	6468	6468	6349	6468	6468	6592	6592	6468	6468	6468	6468	6349	6349	6349	6349	6349	6349	6349	6349	6349	6349	6349	6349	6349	6349	6349	6349	6468	6468	6468	6468	6468	6468	6349	6468	6468	6468	6468	6468	6592	6592	6592	6592	6592	6468	6592	6592	6468	6468	6349	6349	6468	6468	6468	6468	6468	6468	6468	6468	6468	0	0	0	0	0	0	0	0	0	0	0	0	0	0	0	0	0	0	0	0	0	0	6592	6592	6468	6468	6468	6468	6468	6468	6468	0	0	0	0	0	0	0	0	0	0	0	0	0	0	0	6720	6720	6853	6853	6720	6720	6720	6720	6720	6592	6592	6592	6592	6592	6592	6592	6592	6592	6592	6720	6720	6720	6720	6720	6720	6720	6720	6720	6720	6720	6720	6592	6592	6592	6592	6592	6468	6468	6468	6468	6468	6592	6468	6468	6468	6592	6592	6468	0	0	0	0	0	0	0	0	0	0	0	0	0	0	0	0	0	0	0	0	0	0	0	0	0	0	0	0	0	0	0	0	0	0	0	0	0	0	0	0	0	0	0	0	0	0	0	0	0	0	0	0	0	0	0	0	0	0	0	0	0	0	0	0	0	0	0	0	0	0	0	0	0	0	0	0	0	0	0	0	0	0
0	0	0	0	0	784	786	786	789	789	791	791	793	795	795	814	814	815	817	817	819	821	825	829	829	829	833	835	839	839	843	854	854	858	862	865	867	867	869	871	871	873	875	875	927	932	935	935	935	935	932	932	932	930	930	930	932	930	930	932	940	940	945	948	955	955	958	958	958	958	969	994	991	994	994	994	994	994	994	997	997	1058	1058	1058	1055	1058	1061	1061	1061	1061	1064	1068	1068	1068	1068	1068	1068	1068	0	0	0	0	0	0	0	0	0	6235	6235	6235	6235	6235	6235	6235	6235	6235	6235	6235	6235	6349	6468	6468	6468	6592	6592	6592	6468	6468	6592	6592	6592	6720	6720	6720	6720	0	0	0	0	0	6592	6592	6468	6468	6468	6468	6468	6468	6468	6592	6592	6592	6592	6720	6592	6592	6349	6349	6349	6349	6349	6349	6349	6349	6468	6349	6349	6349	6349	0	0	0	6235	6349	6349	6349	6349	6468	6468	6468	6468	6468	0	6349	6349	6349	6349	6468	6592	6592	6592	6592	0	0	0	0	0	0	0	0	0	0	0	6592	6720	6720	6720	0	0	0	0	0	0	6592	6592	6468	6468	6468	6468	6468	6468	6468	6468	6592	6592	6592	6468	6468	6468	6468	6468	6468	6468	6468	6468	6468	6468	6468	6468	6468	6468	6468	6468	6468	6468	6468	6468	6468	6468	6468	6468	6592	6592	6592	6592	6592	6592	6592	6468	6468	6592	6592	6592	6592	6720	6720	6720	6720	6592	6592	6592	6592	6468	6468	6468	6468	6592	6468	6468	6468	0	3157	3157	3157	3157	3157	3157	3186	3186	3186	3186	3186	3216	3216	3186	3186	3186	3186	3186	3186	3186	3157	3186	3157	3157	3157	3157	3157	3157	3157	3157	3157	3157	3157	3157	3186	3186	3186	3186	3186	3186	3186	3186	3186	3186	3186	3186	3186	3186	3186	3186	3186	6592	6720	6592	6592	6592	6592	6592	6592	6592	6592	6592	6720	6720	6720	6720	6592	6592	6592	6592	6592	6592	6592	6720	6592	6592	6592	6592	0	0	0	0	0	6349	6349	6349	6468	6468	6468	6468	6468	6468	6468	6468	6468	6468	6468	6468	6468	6592	6592	6592	6592	6720	6720	6720	6720	6720	6720	6720	6592	6592	6592	6592	6592	6592	6468	6468	6468	6468	6349	6349	6468	6468	6468	6349	6468	6468	6468	6468	6468	6468	6468	6468	6349	6349	6349	6468	6349	6349	6349	6349	6349	6349	6349	6349	6349	6349	6468	6468	6468	6468	6468	6468	6468	6468	6468	6468	6468	6468	6468	6468	6592	6592	6592	6592	6592	6468	6592	6468	6468	6468	6468	6468	6468	6468	6468	6468	6468	6468	6468	6468	6468	0	0	0	0	0	0	0	0	0	0	0	0	0	0	0	0	0	0	0	0	0	0	0	0	0	0	0	0	0	0	0	0	0	0	0	0	0	0	0	0	0	0	0	0	0	0	6720	6853	6853	6853	6720	6720	6853	6720	6592	6592	6592	6592	6592	6592	6592	6592	6592	6592	6720	6720	6720	6720	6720	6853	6853	6853	6853	6720	6720	6720	6720	6720	6592	6592	6592	6592	6468	6468	6468	6468	6468	6592	6349	6468	6468	6592	6592	0	0	0	0	0	0	0	0	0	0	0	0	0	0	0	0	0	0	0	0	0	0	0	0	0	0	0	0	0	0	0	0	0	0	0	0	0	0	0	0	0	0	0	0	0	0	0	0	0	0	0	0	0	0	0	0	0	0	0	0	0	0	0	0	0	0	0	0	0	0	0	0	0	0	0	0	0	0	0	0	0	0	0
0	0	0	0	0	784	784	786	789	793	795	793	793	795	797	797	815	817	819	821	823	825	825	825	829	831	833	835	835	839	845	854	858	860	862	865	867	869	869	871	871	873	873	875	875	875	935	935	935	935	935	935	937	937	937	937	937	935	935	942	945	942	948	953	958	958	961	958	958	958	972	988	991	994	994	994	994	997	997	997	997	1058	1055	1055	1055	1058	1061	1061	1058	1061	1064	1068	1068	1068	1071	1074	1074	1074	0	0	0	0	0	0	0	0	0	6235	6235	6235	6235	6124	6235	6235	6235	6235	6235	6235	6235	6349	6468	6468	6468	6592	6592	6592	6592	6592	6592	6592	6720	6720	6720	6720	6720	0	0	0	0	0	6592	6592	6592	6468	6468	6468	6468	6468	6592	6592	6720	6720	6720	6720	6720	6592	6468	6349	6349	6468	6468	6349	6349	6468	6468	6349	6349	0	0	0	0	0	0	6468	6468	6468	6349	6349	6349	6468	6468	0	0	0	0	0	0	6468	6592	6720	6720	6720	6720	0	0	0	0	0	0	0	0	0	0	0	6720	6720	0	0	0	0	0	0	0	0	6592	6468	6468	6468	6468	6468	6468	6468	6468	6592	6592	6592	6592	6592	6468	6468	6468	6468	6468	6468	6468	6468	6468	6468	6468	6468	6468	6468	6468	6468	6468	6468	6468	6468	6468	6468	6592	6592	6720	6720	6720	6720	6720	6720	6720	6720	6720	6720	6720	6720	6720	6720	6720	6720	6720	6720	6592	6592	6468	6468	6468	6468	6468	6468	6468	0	3186	3157	3157	3186	3186	3186	3157	3186	3186	3186	3186	3186	3216	3216	3186	3186	3186	3186	3186	3186	3157	3157	3157	3157	3157	3157	3157	3157	3157	3157	3157	3157	3157	3157	3186	3186	3186	3186	3186	3186	3186	3186	3186	3186	3186	3186	3186	3186	3186	3186	3186	3186	3186	3186	3216	3216	3216	3216	3216	3216	3216	6592	3216	3216	6720	6720	0	6592	6592	6592	6720	6720	6720	6720	6720	6720	6720	6720	0	0	0	0	0	6592	6468	6468	6468	6468	6468	6468	6468	6468	6592	6592	6468	6468	6468	6468	6468	6468	6592	6592	6592	6592	6720	6720	6720	6720	6720	6720	6720	6720	6592	6592	6592	6592	6592	6468	6468	6468	6468	6349	6349	6468	6468	6468	6349	6349	6349	6468	6468	6349	6468	6468	6468	6349	6349	6349	6468	6468	6468	6349	6468	6349	6349	6349	6349	6349	6349	6468	6468	6592	6468	6592	6468	6592	6468	6468	6468	6468	6468	6468	6468	6592	6592	6592	6468	6592	6468	6592	6592	6592	6592	6592	6592	6592	6592	6592	6592	6592	6468	6468	6468	6468	0	0	0	0	0	0	0	0	0	0	0	0	0	0	0	0	0	0	0	0	0	0	0	0	0	0	0	0	0	0	0	0	0	0	0	0	0	0	0	0	0	0	0	0	0	6720	6720	6853	6853	6853	6853	6853	6853	6720	6720	6720	6592	6592	6592	6592	6592	6592	6592	6592	6592	6720	6720	6720	6720	6853	6853	6853	6853	6720	6720	6720	6720	6720	6720	6720	6592	6592	6592	6468	6468	6468	6468	6468	6349	6468	6468	0	0	0	0	0	0	0	0	0	0	0	0	0	0	0	0	0	0	0	0	0	0	0	0	0	0	0	0	0	0	0	0	0	0	0	0	0	0	0	0	0	0	0	0	0	0	0	0	0	0	0	0	0	0	0	0	0	0	0	0	0	0	0	0	0	0	0	0	0	0	0	0	0	0	0	0	0	0	0	0	0	0	0	0	0
0	0	0	0	0	0	784	788	791	791	795	795	795	797	798	798	817	819	821	823	823	825	825	829	831	831	835	837	841	839	848	854	858	858	862	865	865	869	869	871	871	873	875	875	884	884	935	940	940	940	940	940	942	942	940	942	940	937	940	948	948	942	950	958	961	958	961	963	963	961	969	980	988	991	991	991	994	994	997	997	997	997	1052	1052	1052	1055	1061	1061	1058	1061	1064	1064	1068	1064	1071	1071	1071	1074	0	0	0	0	0	0	0	0	6235	6235	6235	6235	6235	6235	6235	6124	6235	6235	6349	6235	6349	6468	6468	6592	6468	6720	6720	6720	6592	6592	6592	6720	6720	6720	6720	6720	0	0	0	6720	6720	6720	6720	6720	6592	6592	6468	6592	6468	6468	6592	6592	6720	6720	6720	6720	6720	6720	6592	6592	6468	6592	6592	6592	6468	6468	6468	6468	6349	0	0	0	0	0	0	6853	6853	6853	6720	6720	6720	6720	0	0	0	0	0	0	0	0	6592	6720	6720	6720	6853	6853	6853	0	0	0	0	0	0	0	0	0	0	0	0	0	0	0	0	0	0	0	0	6468	6592	6592	6592	6592	6592	6592	6592	6592	6720	6592	6720	6720	6592	6592	6592	6468	6468	6468	6468	6468	6468	6468	6468	6468	6468	6468	6468	6468	6592	6592	6592	6592	6592	6592	6592	6853	6853	6853	6720	6720	6720	6720	6720	6853	6853	6853	6853	6720	6720	6720	6720	6720	6720	6720	6592	6592	6592	6468	6468	6468	6468	6468	0	0	3186	3216	3186	3186	3186	3186	3186	3186	3186	3186	3186	3186	3186	3186	3186	3186	3186	3186	3186	3157	3157	3157	3157	3157	3157	3157	3157	3157	3157	3157	3157	3157	3157	3157	3186	3186	3157	3186	3186	3186	3186	3186	3186	3186	3186	3186	3186	3186	3186	3186	3186	3186	3186	3216	3216	3216	3216	3216	3216	3216	3216	3216	3216	3216	3216	3216	0	6592	6592	6720	6720	6720	6720	6720	6720	6720	6720	6720	0	0	0	0	0	6592	6468	6592	6592	6592	6592	6592	6592	6592	6592	6592	6592	6592	6592	6468	6468	6468	6592	6592	6592	6592	6592	6592	6720	6720	6720	6720	6720	6720	6592	6592	6592	6592	6592	6468	6468	6468	6468	6468	6349	6349	6468	6468	6468	6468	6468	6468	6592	6468	6468	6468	6468	6349	6349	6468	6468	6468	6468	6468	6468	6468	6468	6468	6468	6349	6468	6468	6592	6592	6468	6592	6592	6592	6468	6468	6468	6468	6468	6468	6468	6592	6592	6592	6592	6592	6592	6592	6592	6592	6592	6592	6720	6720	6592	6592	6720	6592	6592	6468	0	0	0	0	0	0	0	0	0	0	0	0	0	0	0	0	0	0	0	0	0	0	0	0	0	0	0	0	0	0	0	0	0	0	0	0	0	0	0	0	0	0	0	0	0	0	6592	6592	6720	6853	6853	6853	6853	6853	6853	6720	6592	6592	6592	6720	6592	6720	6720	6592	6592	6720	6720	6720	6720	6720	6720	6853	6853	6853	6853	6853	6853	6720	6853	6720	6720	6592	6592	6592	6592	6468	6468	6592	6592	6468	0	0	0	0	0	0	0	0	0	0	0	0	0	0	0	0	0	0	0	0	0	0	0	0	0	0	0	0	0	0	0	0	0	0	0	0	0	0	0	0	0	0	0	0	0	0	0	0	0	0	0	0	0	0	0	0	0	0	0	0	0	0	0	0	0	0	0	0	0	0	0	0	0	0	0	0	0	0	0	0	0	0	0	0	0	0	0	0
0	0	0	0	0	0	0	791	795	797	797	797	797	797	798	798	798	819	821	823	823	823	823	829	829	831	833	837	839	848	848	854	858	860	862	865	867	869	871	871	873	875	882	884	884	894	898	889	889	940	940	942	945	945	942	945	942	942	945	948	958	948	961	961	961	958	961	963	963	961	972	980	988	991	991	991	997	997	1000	997	997	1030	1048	1048	1048	1052	1055	1058	1055	1061	1064	1068	1068	1068	1068	1068	1068	0	0	0	0	0	0	0	0	0	6124	6235	6235	6235	6235	6235	6235	6235	6235	6235	6349	6349	6349	6468	6468	6592	6468	6720	6720	6720	6592	6592	6592	6592	6720	6720	6720	0	0	0	6853	6720	6720	6720	6720	6720	6592	6592	6592	6592	6468	6592	6592	6720	6720	6720	6720	6720	6720	6720	6592	6592	6592	6592	6592	6592	6592	6592	6592	6592	0	0	0	0	0	0	0	6853	6853	6853	6720	6720	6720	6853	6853	0	0	0	0	0	0	0	0	6853	6853	6853	6853	6992	6992	0	0	0	0	0	0	0	0	0	0	0	0	0	0	0	0	0	0	0	0	0	6592	6592	6592	6592	6592	6592	6592	6720	6720	6720	6720	6720	6720	6592	6592	6592	6468	6468	6468	6468	6468	6468	6468	6468	6468	6468	6468	6592	6592	6720	6720	6720	6720	6720	6720	6720	6853	6720	6720	6720	6720	6720	6720	6720	6720	6720	6853	6853	6720	6720	6720	6720	6720	6720	6592	6592	6468	6468	6468	6468	6468	0	0	3216	3186	3186	3186	3186	3186	3186	3157	3186	3186	3157	3186	3186	3186	3186	3186	3186	3186	3186	3157	3157	3157	3129	3129	3129	3157	3157	3157	3157	3157	3157	3157	3157	3157	3157	3186	3186	3157	3157	3157	3157	3157	3157	3186	3186	3186	3186	3186	3186	3186	3186	3186	3186	3186	3216	3216	3216	3216	3216	3216	3216	3216	3216	3216	3216	3216	3216	0	6592	6592	6720	6720	6720	6720	6720	6720	6720	6720	6720	6720	0	0	0	6720	6592	6592	6592	6592	6592	6592	6592	6592	6592	6592	6592	6592	6592	6592	6592	6468	6592	6592	6720	6592	6468	6592	6592	6592	6592	6720	6592	6720	6592	6592	6592	6592	6592	6592	6592	6592	6592	6592	6468	6468	6592	6592	6592	6468	6468	6592	6592	6592	6468	6592	6468	6468	6468	6592	6592	6592	6592	6592	6592	6592	6468	6468	6468	6468	6468	6468	6592	6592	6592	6592	6592	6592	6592	6468	6468	6468	6468	6468	6468	6468	6468	6592	6592	6592	6592	6592	6720	6720	6592	6720	6720	6720	6720	6720	6592	6720	6720	6592	0	0	0	0	0	0	0	0	0	0	0	0	0	0	0	0	0	0	0	0	0	0	0	0	0	0	0	0	0	0	0	0	0	0	0	0	0	0	0	0	0	0	0	0	0	0	0	6592	6592	6720	6853	6853	6853	6853	6853	6853	6720	6720	6720	6720	6720	6720	6720	6720	6720	6720	6720	6720	6720	6720	6720	6720	6853	6853	6853	6720	6853	6853	6853	6853	6720	6720	6720	6720	6720	6592	6592	6592	6592	6592	0	0	0	0	0	0	0	0	0	0	0	0	0	0	0	0	0	0	0	0	0	0	0	0	0	0	0	0	0	0	0	0	0	0	0	0	0	0	0	0	0	0	0	0	0	0	0	0	0	0	0	0	0	0	0	0	0	0	0	0	0	0	0	0	0	0	0	0	0	0	0	0	0	0	0	0	0	0	0	0	0	0	0	0	0	0	0	0	0
0	0	0	0	0	0	0	793	795	797	797	797	797	797	798	798	814	817	819	819	821	821	821	827	829	831	835	837	839	839	839	852	854	858	862	865	867	869	871	873	875	880	887	889	894	894	898	889	889	889	950	950	950	950	955	955	950	948	948	958	961	961	961	961	963	961	961	963	966	969	972	980	985	988	991	991	994	997	1000	997	997	1030	1030	1042	1039	1045	1045	1058	1055	1061	1068	1068	1068	1068	1068	1068	1068	0	0	0	0	0	0	0	0	0	6124	6124	6124	6124	6124	6124	6235	6124	6235	6235	6349	6349	6349	6468	6592	6592	6592	6720	6720	6720	6592	6592	6592	6592	6720	6720	6720	0	0	0	6853	6853	6853	6853	6720	6720	6592	6592	6592	6592	6592	6592	6720	6720	6853	6720	6720	6720	6720	6720	6720	6592	6592	6720	6720	6720	6592	6592	6592	6592	0	0	0	0	0	0	0	6853	6853	6853	6720	6720	6720	6853	6853	0	0	0	0	0	0	0	6468	6468	6853	6992	6992	6992	6992	6992	0	0	0	0	0	0	0	0	0	0	0	0	0	0	0	0	0	0	0	0	0	6592	6592	6592	6592	6592	6592	6720	6720	6720	6720	6720	6720	6720	6592	6592	6592	6592	6592	6592	6592	6468	6468	6468	6592	6592	6720	6720	6720	6720	6720	6720	6720	6720	6720	6720	6853	6853	6720	6720	6720	6853	6853	6853	6853	6853	6853	6853	6720	6720	6720	6720	6720	6720	6592	6592	6468	6468	6468	6468	0	3216	3186	3186	3186	3186	3186	3186	3186	3186	3157	3186	3186	3186	3186	3186	3186	3186	3186	3186	3186	3157	3157	3129	3129	3129	3129	3129	3129	3129	3157	3157	3157	3157	3157	3157	3157	3157	3186	3157	3157	3157	3157	3157	3157	3157	3186	3186	3186	3186	3186	3186	3186	3186	3186	3186	3186	3216	3216	3216	3216	3216	3216	3216	3216	3216	3216	3216	3216	3216	3216	6592	6720	6720	6853	6853	6720	6720	6720	6720	6720	6720	6720	0	6720	6720	6720	6720	6592	6592	6592	6592	6592	6720	6720	6720	6720	6720	6720	6720	6592	6592	6592	6592	6592	6720	6592	6592	6592	6720	6720	6720	6720	6720	6720	6720	6720	6720	6720	6720	6720	6720	6720	6720	6720	6720	6720	6592	6592	6592	6468	6468	6592	6592	6468	6468	6468	6468	6468	6468	6592	6592	6720	6592	6592	6592	6592	6592	6592	6592	6592	6592	6468	6592	6592	6720	6592	6720	6592	6592	6592	6592	6592	6592	6592	6468	6592	6720	6720	6592	6592	6720	6720	6720	6720	6720	6720	6720	6720	6720	6720	6720	6720	6720	0	0	0	0	0	0	0	0	0	0	0	0	0	0	0	0	0	0	0	0	0	0	0	0	0	0	0	0	0	0	0	0	0	0	0	0	0	0	0	0	0	0	0	0	0	0	6468	6468	6720	6720	6853	6853	6853	6853	6853	6853	6853	6853	6853	6720	6720	6853	6853	6853	6853	6853	6853	6853	6720	6853	6720	6720	6720	6853	6853	6853	6853	6853	6853	6853	6853	6720	6720	6720	6720	6720	6720	6592	6592	6592	6592	0	0	0	0	0	0	0	0	0	0	0	0	0	0	0	0	0	0	0	0	0	0	0	0	0	0	0	0	0	0	0	0	0	0	0	0	0	0	0	0	0	0	0	0	0	0	0	0	0	0	0	0	0	0	0	0	0	0	0	0	0	0	0	0	0	0	0	0	0	0	0	0	0	0	0	0	0	0	0	0	0	0	0	0	0	0	0	0	0
0	0	0	0	0	0	0	793	797	797	797	797	798	798	798	800	812	817	819	819	821	823	823	827	829	833	835	837	839	839	839	850	852	856	862	865	869	871	873	873	878	880	882	887	889	896	896	896	896	896	896	955	955	955	961	961	961	961	961	963	963	963	963	963	963	961	963	966	969	969	972	977	983	988	991	994	997	1000	1003	1003	1023	1030	1033	1039	1033	1033	1048	1055	1058	1061	1064	1068	1068	1068	1068	1071	1071	1071	0	0	0	0	0	0	0	0	6124	6124	6124	6124	6124	6124	6124	6124	6235	6235	6349	6349	6349	6592	6592	6592	6592	6720	6720	6720	6720	6720	6592	6592	6720	6720	0	0	0	0	0	6853	6853	6853	6720	6720	6468	6468	6468	6592	6592	6592	6720	6853	6853	6853	6853	6853	6853	6853	6720	6720	6720	6720	6720	6720	6720	6720	6720	0	0	0	0	0	0	0	0	6853	6853	6853	6720	6720	6853	6853	6853	0	0	0	0	0	0	0	6853	6992	6992	6992	6992	6992	6992	6992	6992	0	0	0	0	0	0	0	0	0	0	0	0	6853	6853	6853	6853	0	0	0	0	6592	6468	6468	6592	6592	6592	6720	6720	6592	6720	6720	6720	6592	6592	6592	6592	6592	6592	6592	6592	6592	6592	6592	6592	6592	6720	6720	6853	6720	6853	6720	6720	6720	6720	6720	6853	6853	6720	6720	6853	6853	6992	6992	6853	6853	6853	6853	6720	6720	6720	6720	6720	6720	6592	6592	6468	6468	6468	0	3216	3186	3186	3186	3186	3186	3186	3186	3186	3186	3157	3186	3186	3157	3186	3186	3186	3186	3186	3157	3157	3157	3157	3129	3129	3101	3129	3129	3129	3129	3157	3129	3157	3157	3129	3157	3157	3157	3157	3157	3129	3129	3157	3157	3157	3157	3157	3157	3186	3186	3186	3186	3186	3186	3186	3186	3186	3216	3216	3216	3216	3216	3216	3216	3216	3216	3216	3216	3186	3186	3216	3216	6720	6853	6853	6853	6720	6720	6720	6853	6853	6720	6720	6720	6853	6853	6720	6720	6720	6592	6720	6720	6720	6720	6720	6720	6720	6720	6720	6720	6720	6592	6592	6592	6720	6720	6720	6720	6720	6720	6720	6720	6720	6720	6720	6720	6720	6720	6720	6720	6720	6720	6853	6853	6853	6720	6720	6720	6720	0	0	0	0	0	6468	6468	6592	6592	6720	6720	0	6720	6720	6720	6720	6720	6720	6720	6720	6720	6720	6720	6592	6592	6720	6720	6592	6720	6720	6720	6592	6592	6720	6720	6720	6720	6592	6720	6720	6720	6720	6720	6720	6720	6720	6720	6853	6853	6720	6720	6853	6853	6853	6720	0	0	0	0	0	0	0	0	0	0	0	0	0	0	0	0	0	0	0	0	0	0	0	0	0	0	0	0	0	0	0	0	0	0	0	0	0	0	0	0	0	0	0	0	0	6468	6468	6468	6720	6720	6853	6853	6992	6992	6992	6992	6853	6992	6853	6853	6853	6853	6853	6992	6992	6853	6853	6853	6853	6853	6853	6720	6720	6853	6853	6853	6992	6992	6992	6992	6992	6720	6720	6720	6720	6720	6720	6592	6592	0	0	0	0	0	0	0	0	0	0	0	0	0	0	0	0	0	0	0	0	0	0	0	0	0	0	0	0	0	0	0	0	0	0	0	0	0	0	0	0	0	0	0	0	0	0	0	0	0	0	0	0	0	0	0	0	0	0	0	0	0	0	0	0	0	0	0	0	0	0	0	0	0	0	0	0	0	0	0	0	0	0	0	0	0	0	0	0	0	0	0
0	0	0	0	0	0	0	797	797	797	797	797	798	798	800	806	814	817	819	819	821	823	823	825	827	831	835	837	839	841	843	850	852	856	862	865	869	871	871	873	875	882	887	889	891	896	896	898	898	898	898	898	958	958	961	963	963	963	966	969	966	966	966	966	966	963	963	969	969	969	972	977	980	985	988	991	997	1000	1003	1008	1030	1030	1030	1036	1030	1036	1045	1055	1058	1061	1064	1068	1068	1068	1068	1071	1071	1071	0	0	0	0	0	0	0	0	0	6235	6235	6124	6235	6235	6235	6235	6235	6235	6349	6349	6468	6592	6592	6592	6592	6720	6720	6720	6720	6720	6720	6592	0	0	0	0	0	0	0	0	0	0	0	6720	6720	6720	6853	6720	6853	6720	6853	6992	6992	6853	6853	6853	6853	6853	6853	6853	6720	6720	6853	6720	6720	6720	6720	0	0	0	0	0	0	0	0	6853	6853	6853	6720	6720	6720	6853	6853	0	0	0	0	0	0	6720	6992	6992	6992	6992	6992	6992	6992	6992	6992	6992	0	0	0	0	0	0	0	0	0	0	6853	6853	6853	6853	6853	6853	6853	0	6592	6592	6592	6592	6592	6720	6720	6720	6853	6720	6720	6853	6720	6720	6720	6720	6720	6592	6592	6592	6592	6592	6592	6592	6592	6592	6720	6720	6853	6720	6853	6720	6853	6853	6853	6720	6853	6853	6853	6853	6853	6992	6992	6992	6992	6992	6992	6853	6853	6720	6720	6720	6720	6720	6592	6592	0	0	0	3186	3186	3186	3186	3186	3186	3186	3186	3186	3186	3186	3157	3157	3157	3157	3157	3157	3157	3157	3157	3157	3157	3129	3129	3129	3129	3101	3129	3129	3129	3129	3129	3129	3129	3129	3129	3129	3129	3157	3157	3157	3157	3157	3157	3157	3157	3157	3157	3157	3157	3186	3186	3157	3186	3186	3186	3186	3186	3216	3216	3216	3216	3216	3216	3186	3186	3186	3186	3186	3216	3216	3216	3216	0	6992	6853	6853	6853	6853	6720	6853	6853	6720	6720	6720	6720	6720	6720	6720	6720	6720	6720	6720	6720	6720	6720	6720	6720	6720	6720	6720	6720	6592	6592	6592	6720	6720	6720	6720	6720	6720	6720	6720	6720	6720	6720	6720	6720	6720	6720	6720	6720	6853	6853	6853	6853	6853	6853	6853	6853	0	0	0	0	0	6592	6592	6720	6720	6720	6720	0	6720	6720	6720	6720	6720	6720	6720	6720	6720	6720	6720	6720	6720	6720	6720	6720	6720	6720	6720	6720	6720	6720	6720	6720	6720	6720	6853	6853	6720	6853	6853	6853	6853	6853	6992	6853	6853	6853	6853	6853	6853	6853	0	0	0	0	0	0	0	0	0	0	0	0	0	0	0	0	0	0	0	0	0	0	0	0	0	0	0	0	0	0	0	0	0	0	0	0	0	0	0	0	0	0	0	0	0	0	6468	6468	6592	6853	6853	6992	6992	6992	6992	6992	6992	6992	6992	6992	6992	6992	6992	6992	6992	6992	6992	6992	6853	6853	6853	6853	6720	6720	6992	6853	6992	6992	6992	6992	6992	6992	6992	6992	6853	6992	6992	6720	6592	6592	0	0	0	0	0	0	0	0	0	0	0	0	0	0	0	0	0	0	0	0	0	0	0	0	0	0	0	0	0	0	0	0	0	0	0	0	0	0	0	0	0	0	0	0	0	0	0	0	0	0	0	0	0	0	0	0	0	0	0	0	0	0	0	0	0	0	0	0	0	0	0	0	0	0	0	0	0	0	0	0	0	0	0	0	0	0	0	0	0	0	0
0	0	0	0	0	0	0	797	797	797	797	797	798	798	800	804	812	814	817	817	819	821	821	823	827	831	835	839	841	843	845	850	850	854	860	862	867	869	871	871	880	884	887	889	891	896	898	898	901	901	901	901	901	963	963	966	966	969	969	972	972	972	972	972	969	966	966	972	972	972	974	980	983	983	988	991	994	1000	1003	1008	1023	1030	1030	1030	1030	1033	1036	1055	1058	1061	1064	1068	1068	1068	1068	1071	1071	1071	0	0	0	0	0	0	0	0	0	6235	6235	6235	6235	6235	6235	6235	6235	6235	6235	6468	6592	6592	6592	6592	6592	6720	6720	6720	6720	6853	6853	0	0	0	0	0	0	0	0	0	0	0	6853	6853	6720	6853	6853	6853	6853	6853	6992	6992	6992	6853	6853	6853	6853	6853	6853	6853	6853	6853	6853	6853	6720	6720	6720	0	0	0	0	0	0	0	0	6853	6853	6853	6853	6720	6720	6853	6853	0	0	0	0	0	0	6992	6992	6992	6992	6992	6992	6992	6992	6853	6992	6992	6992	6992	6992	0	0	0	0	0	0	0	6853	6853	6853	6853	6853	6853	6853	0	6592	6592	6592	6592	6592	6720	6720	6720	6853	6853	6853	6853	6853	6720	6720	6720	6720	6720	6720	6592	6592	6592	6592	6592	6592	6592	6720	6720	6720	6853	6853	6853	6853	6853	6853	6720	6853	6853	6853	6853	6853	6992	6992	6992	6992	6992	6992	6992	6992	6853	6592	6720	6853	6853	6592	6592	0	0	3186	3186	3186	3186	3186	3186	3157	3157	3157	3157	3157	3157	3157	3157	3157	3157	3157	3157	3157	3157	3157	3157	3129	3129	3129	3101	3129	3101	3129	3101	3129	3101	3129	3129	3129	3129	3129	3129	3129	3129	3157	3157	3157	3129	3157	3157	3157	3157	3157	3157	3157	3186	3157	3157	3157	3186	3186	3186	3186	3186	3186	3186	3186	3186	3186	3186	3186	3216	3216	3216	3216	3216	3216	3216	3216	3216	6853	6853	6853	6853	6853	6853	6853	6720	6720	6720	6720	6720	6720	6720	6720	6720	6720	6720	6720	6720	6720	6720	6720	6720	6720	6720	6720	6720	6720	6720	6853	6853	6853	6853	6853	6853	6853	6853	6853	6720	6720	6720	6720	6720	6720	6853	6853	6853	6853	6853	6853	6853	6853	6853	6853	0	0	0	0	0	6853	6853	6853	6720	6720	6853	6853	6720	6720	6720	6720	6720	6720	6720	6720	6720	6720	6720	6720	6720	6720	6720	6720	6720	6720	6720	6720	6720	6720	6720	6720	6720	6720	6853	6853	6853	6853	6853	6992	6992	6853	6853	6853	6853	6853	6853	6853	6853	0	0	0	0	0	0	0	0	0	0	0	0	0	0	0	0	0	0	0	0	0	0	0	0	0	0	0	0	0	0	0	0	0	0	0	0	0	0	0	0	0	0	0	0	0	0	6853	6720	6592	6720	6720	6853	6853	6992	6992	6992	6992	6992	6992	7137	7137	7137	6992	6992	6992	6992	6992	6853	6853	6853	6853	6853	6853	6720	6853	6992	6992	6992	6992	6992	7137	7137	6992	6992	6992	6992	6992	6992	0	0	0	0	0	0	0	0	0	0	0	0	0	0	0	0	0	0	0	0	0	0	0	0	0	0	0	0	0	0	0	0	0	0	0	0	0	0	0	0	0	0	0	0	0	0	0	0	0	0	0	0	0	0	0	0	0	0	0	0	0	0	0	0	0	0	0	0	0	0	0	0	0	0	0	0	0	0	0	0	0	0	0	0	0	0	0	0	0	0	0	0	0	0
0	0	0	0	0	0	0	797	798	797	797	798	798	798	802	806	812	814	814	815	819	821	821	825	827	831	833	839	841	843	848	850	852	854	858	860	865	869	871	875	887	887	889	891	894	896	898	898	901	903	903	903	917	917	917	969	969	969	972	977	977	977	977	977	974	972	974	977	974	974	977	980	983	985	988	988	991	994	1000	1006	1020	1026	1026	1030	1026	1030	1036	1052	1055	1058	1064	1068	1068	1068	1068	1071	1074	1074	0	0	0	0	0	0	0	0	0	6349	6235	6235	6235	6235	6235	6235	6235	6235	6468	6468	6468	6592	6592	6592	6592	6592	6592	6720	6720	6720	6720	6853	0	0	0	0	0	0	0	0	0	0	6853	6853	6720	6720	6992	6992	6992	6853	7137	7137	7137	6992	6853	6853	6853	6853	6853	6853	6853	6853	6853	6853	6853	6853	6720	0	0	0	0	0	0	0	0	6853	6853	6853	6853	6853	6720	6853	6853	0	0	0	0	0	0	6992	6992	6992	6992	6992	6853	6992	6992	6992	6853	6853	6992	6992	6992	6992	6992	0	0	0	0	0	6853	6853	6853	6853	6853	6853	6853	6853	6853	6853	6720	6853	6853	6853	6853	6853	6853	6720	6853	6853	6720	6720	6720	6720	6720	6720	6720	6720	6720	6720	6592	6592	6592	6592	6592	6720	6853	6853	6853	6853	6853	6853	6853	6720	6853	6992	6992	6992	6992	6992	6992	6992	6992	6992	6992	6992	6992	6992	6592	6592	6853	6853	0	0	0	0	3216	3186	3186	3186	3186	3186	3157	3157	3157	3157	3157	3157	3157	3157	3157	3157	3157	3157	3157	3129	3129	3129	3129	3101	3101	3101	3129	3101	3101	3101	3101	3101	3129	3101	3101	3101	3101	3129	3129	3129	3157	3129	3157	3129	3157	3157	3157	3157	3157	3157	3157	3157	3157	3157	3157	3157	3157	3186	3186	3186	3186	3186	3186	3186	3186	3186	3186	3186	3186	3186	3186	3216	3216	3216	3216	3216	0	6992	6853	6853	6853	6853	6853	6720	6720	6720	6592	6720	6720	6720	6720	6720	6720	6720	6720	6720	6720	6720	6720	6720	6720	6720	6720	6720	6720	6720	6853	6853	6853	6853	6853	6853	6853	6853	6853	6853	6720	6720	6720	6720	6853	6853	6853	6853	6853	6853	6853	6853	6853	6853	6853	0	0	0	0	0	6853	6992	6992	6853	6853	6853	6853	6720	6720	6720	6720	6720	6720	6720	6720	6720	6720	6720	6720	6720	6720	6720	6720	6720	6720	6720	6720	6853	6853	6853	6853	6720	6720	6853	6853	6853	6853	6853	6992	6853	6992	6992	6853	6853	6853	6853	6853	6853	0	0	0	0	0	0	0	0	0	0	0	0	0	0	0	0	0	0	0	0	0	0	0	0	0	0	0	0	0	0	0	0	0	0	0	0	0	0	0	0	0	0	0	0	0	6992	6853	6853	6853	6853	6992	6992	6992	6992	6992	6992	6992	7137	6992	7137	7137	7137	7137	7137	7137	6992	7137	6992	6992	6853	6853	6853	6853	6853	6853	6992	6853	6992	6992	6992	7137	7137	7137	7137	6992	6992	6992	6992	0	0	0	0	0	0	0	0	0	0	0	0	0	0	0	0	0	0	0	0	0	0	0	0	0	0	0	0	0	0	6992	6992	7137	7137	7137	7137	6992	6992	6992	0	0	0	0	0	0	0	0	0	0	0	0	0	0	0	0	0	0	0	0	0	0	0	0	0	0	0	0	0	0	0	0	0	0	0	0	0	0	0	0	0	0	0	0	0	0	0	0	0	0	0	0	0	0	0
