0	0	0	0	0	0	0	817	819	819	821	823	825	827	827	827	825	825	827	827	827	829	829	831	831	831	833	833	835	835	837	839	845	845	845	867	867	867	867	867	869	869	871	871	871	0	0	0	0	0	0	0	0	1064	1064	1064	1064	1064	1064	1064	1064	1064	1064	1058	1064	1064	1064	1068	1071	1071	1071	1071	1071	1071	1071	1071	1071	1071	1071	1068	1068	1068	1068	1068	1068	1068	1068	1068	1068	1068	1068	1071	1071	1074	1074	1074	1078	1078	0	0	0	0	0	0	0	0	0	0	0	5719	5719	5719	5719	5719	5719	5719	5719	5719	5719	5719	5719	5719	5719	5815	5815	5815	5815	5815	5815	5815	5815	5815	5815	5815	5815	5815	5719	5719	5719	5719	5719	5815	5815	5815	5915	5915	5915	5815	5815	0	0	0	0	0	0	0	0	0	0	0	0	0	0	0	0	0	0	0	0	0	0	0	0	0	0	0	0	0	0	0	0	0	0	0	0	0	0	0	0	0	0	0	0	0	0	0	0	0	0	0	0	0	5815	5815	5815	5815	5815	5815	5815	5815	5815	5815	5815	5815	5815	5815	5815	5815	5719	5719	5719	5719	5815	5719	5719	5719	5626	5626	5626	5626	5626	5626	5626	5626	5626	5626	5626	5626	5626	5626	5626	5626	5626	5626	5719	5719	5719	5719	5719	5626	5626	5719	5719	5719	5719	5719	5719	5719	5719	5719	5719	5719	5719	5719	5719	5719	5719	5719	5719	5719	5719	5719	5719	5719	5719	5719	5719	5719	5719	5719	5719	5719	5719	5719	5719	5719	5719	5719	5719	5719	5719	0	0	0	0	0	0	3157	3157	3157	3129	3157	3157	3129	3129	3101	3101	3101	3073	3073	3073	3073	3073	3073	3101	3101	3129	3129	3129	3129	3129	3157	3157	3157	3157	3186	3216	3216	0	0	0	0	0	0	0	0	0	0	0	0	0	0	0	0	0	0	0	0	0	0	0	0	0	0	0	0	0	0	0	0	0	0	0	0	0	0	0	0	0	0	5719	5719	5719	5719	5719	5719	5719	5719	5719	5815	5815	5815	5815	5815	5815	5815	5815	5815	5815	5815	5815	5815	5815	5815	5815	5719	5815	5719	5719	5719	5719	5719	5719	5719	5719	5719	5719	5719	5719	5719	5719	5719	5719	5719	5719	5719	5719	5719	5719	5719	5719	5719	5719	5719	5719	5719	5719	5719	5719	5719	5719	5719	5719	5719	5719	5626	5719	5719	5719	5719	5719	5719	5719	5915	5815	5815	5815	5815	5815	5815	5815	5815	5815	5815	5815	5719	5815	5719	5815	5815	5815	5815	5719	5815	5815	5815	5815	5815	5815	5815	5815	5815	5815	5915	5915	5915	5915	5915	5915	5815	5815	5815	5815	5815	5815	5815	5815	0	0	0	0	0	0	0	0	0	0	0	0	0	0	0	0	0	0	0	0	0	0	0	0	0	0	0	0	0	0	0	0	0	0	0	0	0	0	0	0	0	0	0	0	0	0	0	0	0	0	0	0	0	5719	5719	5815	5815	5815	5815	5815	6018	6018	6018	6018	5719	5719	5719	5719	5626	5626	5626	5626	5535	5626	5626	5626	5626	5626	5719	5719	5626	5719	5719	5719	5626	5719	5626	5535	5448	5626	5719	5626	5719	5719	5719	5815	5815	5815	5815	5815	5815	5815	5719	5719	5719	5719	5719	0	0	0	0	0	0	0	0	0	0	0	0	0	0	0	0	0	0	0	0	0	0	0	0	0	0	0	0	0	0	0	0	0	0	0	0	0	0	0	0	0	0	0	0	0	0
0	0	0	0	0	0	0	0	819	821	823	825	827	829	827	829	829	827	827	827	831	833	833	833	833	833	835	835	837	837	845	845	845	848	848	867	867	867	867	867	869	869	871	873	875	882	882	0	0	0	0	0	1061	1061	1064	1061	1061	1061	1061	1064	1064	1064	1064	1058	1064	1064	1064	1068	1068	1071	1068	1071	1071	1071	1071	1071	1071	1071	1071	1071	1071	1068	1068	1068	1068	1064	1068	1068	1064	1068	1068	1078	1078	1071	1074	1078	1078	1078	0	0	0	0	0	0	0	0	0	0	0	5815	5815	5719	5719	5719	5719	5719	5719	5719	5719	5719	5719	5719	5719	5815	5815	5815	5815	5815	5815	5815	5815	5815	5815	5815	5815	5815	5815	5719	5719	5719	5719	5815	5815	5815	5815	5815	5815	5815	5815	5815	0	0	0	0	0	0	0	0	0	0	0	0	0	0	0	0	0	0	0	0	0	0	0	0	0	0	0	0	0	0	0	0	0	0	0	0	0	0	0	0	5815	5915	5915	0	0	0	0	0	0	0	0	0	5815	5815	5915	5915	5915	5915	5815	5915	5915	5915	5915	5815	5815	5915	5915	5815	5719	5719	5815	5815	5815	5719	5719	5719	5719	5719	5626	5626	5626	5626	5626	5719	5719	5719	5719	5719	5626	5626	5626	5626	5626	5719	5719	5719	5815	5815	5719	5719	5719	5719	5815	5815	5815	5719	5719	5719	5719	5719	5719	5719	5719	5719	5719	5719	5719	5719	5719	5719	5719	5719	5719	5719	5719	5719	5719	5719	5719	5719	5719	5719	5719	5719	5719	5719	5719	5815	5815	5719	5719	0	0	0	0	0	0	3157	3157	3157	3157	3157	3129	3129	3129	3101	3101	3073	3073	3073	3073	3073	3073	3101	3101	3101	3129	3129	3129	3129	3157	3157	3157	3186	3186	3186	3216	3216	3216	0	0	0	0	0	0	0	0	0	0	0	0	0	0	0	0	0	0	0	0	0	0	0	0	0	0	0	0	0	0	0	0	0	0	0	0	0	0	0	0	0	5719	5719	5719	5719	5719	5719	5719	5719	5719	5815	5815	5815	5815	5815	5815	5815	5815	5815	5815	5815	5815	5815	5815	5815	5815	5815	5719	5719	5719	5719	5719	5719	5719	5719	5719	5719	5719	5719	5815	5815	5815	5815	5815	5719	5719	5719	5719	5719	5719	5719	5719	5719	5719	5719	5719	5719	5719	5719	5719	5719	5719	5719	5719	5719	5626	5626	5719	5719	5815	5719	5719	5815	5815	5915	5815	5815	5815	5815	5815	5815	5815	5815	5815	5815	5815	5815	5915	5915	5815	5915	5915	5915	5915	5815	5815	5915	5915	5915	5915	5915	5915	5915	5915	5915	5915	5915	5915	5915	5915	5915	5915	5815	5915	5815	5815	5815	0	0	0	0	0	0	0	0	0	0	0	0	0	0	0	0	0	0	0	0	0	0	0	0	0	0	0	0	0	0	0	0	0	0	0	0	0	0	0	0	0	0	0	0	0	0	0	0	0	0	0	0	0	0	5719	5719	5719	5815	5815	5815	5815	6018	6018	6018	5815	5719	5719	5719	5719	5626	5626	5626	5626	5626	5626	5626	5626	5626	5626	5626	5719	5626	5719	5719	5719	5626	5719	5626	5535	5448	5626	5719	5719	5719	5719	5815	5815	5915	5915	5815	5815	5815	5815	5815	5719	5719	5719	5719	0	0	0	0	0	0	0	0	0	0	0	0	0	0	0	0	0	0	0	0	0	0	0	0	0	0	0	0	0	0	0	0	0	0	0	0	0	0	0	0	0	0	0	0	0	0
0	0	0	0	0	0	0	0	0	827	827	829	829	829	827	833	831	831	831	829	829	833	833	833	833	835	837	837	837	841	845	848	848	848	854	869	867	867	867	867	867	869	869	871	873	882	882	0	884	884	0	0	1061	1061	1061	1061	1061	1061	1061	1061	1061	1061	1058	1058	1061	1064	1064	1068	1068	1068	1068	1068	1071	1071	1071	1071	1071	1074	1071	1071	1071	1071	1068	1068	1068	1064	1068	1068	1068	1071	1074	1078	1078	1078	1078	1078	1078	1078	0	0	0	0	0	0	0	0	0	5915	5915	5915	5815	5815	5815	5815	5815	5815	5719	5815	5719	5815	5719	5719	5719	5815	5815	5815	5815	5815	5815	5815	5815	5815	5815	5815	5815	5815	5719	5626	5719	5719	5719	5719	5815	5719	5815	5815	5815	5815	5815	5815	0	0	0	0	0	0	0	0	0	0	0	0	0	0	0	5815	5815	0	0	0	0	0	0	0	0	0	0	0	0	0	0	0	0	0	0	0	0	0	0	5915	5915	5915	5915	0	0	0	0	0	0	0	0	0	0	0	5915	6018	5915	5915	5815	5915	5915	5915	5915	5815	5815	5815	5915	5815	5815	5815	5815	5815	5815	5719	5719	5719	5719	5719	5719	5719	5719	5719	5719	5719	5719	5719	5719	5719	5626	5626	5626	5719	5719	5719	5719	5719	5719	5815	5815	5815	5815	5815	5915	5915	5815	5815	5815	5815	5815	5815	5815	5815	5815	5719	5719	5719	5719	5719	5719	5719	5719	5719	5719	5719	5719	5719	5719	5719	5719	5719	5719	5719	5719	5719	5815	5719	5719	5815	5815	5719	5815	5815	0	0	0	0	0	3157	3157	3157	3157	3129	3129	3129	3101	3101	3101	3073	3073	3073	3073	3073	3073	3101	3101	3101	3101	3129	3129	3129	3129	3157	3157	3186	3186	3186	3216	3216	3216	3216	0	0	0	0	0	0	0	0	0	0	0	0	0	0	0	0	0	0	0	0	0	0	0	0	0	0	0	0	0	0	0	0	0	0	0	0	0	0	0	5815	5815	5815	5815	5815	5815	5815	5719	5719	5719	5815	5815	5815	5815	5815	5815	5815	5815	5815	5815	5815	5815	5815	5815	5815	5815	5815	5815	5719	5719	5719	5815	5815	5719	5719	5719	5719	5719	5719	5719	5815	5815	5815	5815	5815	5815	5815	5815	5815	5815	5815	5815	5815	5719	5719	5719	5719	5815	5815	5815	5815	5815	5815	5815	5719	5719	5719	5719	5719	5815	5815	5719	5815	5815	5815	5815	5815	5815	5815	5815	5815	5815	5815	5815	5815	5815	5815	5915	5915	5915	5915	5915	5915	5915	5915	5915	5915	5915	5915	5915	5915	5915	5915	5915	5915	5915	5915	5915	5915	5915	5915	5915	5915	5915	5915	5815	0	0	0	0	0	0	0	0	0	0	0	0	0	0	0	0	0	0	0	0	0	0	0	0	0	0	0	0	0	0	0	0	0	0	0	0	0	0	0	0	0	0	0	5448	5535	5535	5626	5626	0	0	0	0	0	0	0	5719	5719	5719	5719	5719	5719	5915	6018	6124	6018	6018	5719	5719	5719	5719	5626	5626	5626	5626	5626	5626	5626	5719	5719	5719	5719	5719	5719	5719	5626	5719	5626	5719	5626	5719	5719	5719	5815	5719	5719	5719	5815	6018	6018	6018	5815	5815	5815	5815	5815	5815	5815	5719	5719	0	0	0	0	0	0	0	0	0	0	0	0	0	0	0	0	0	0	0	0	0	0	0	0	0	0	0	0	0	0	0	0	0	0	0	0	0	0	0	0	0	0	0	0	0	0
0	0	0	0	0	0	0	0	0	827	795	795	827	827	827	833	831	831	835	835	835	835	835	835	835	835	837	839	839	841	845	848	848	852	856	862	865	865	865	867	869	869	871	873	878	882	884	884	884	884	884	0	0	1071	1064	1058	1058	1061	1061	1058	1064	1061	1061	1061	1061	1064	1064	1068	1068	1068	1068	1068	1068	1071	1071	1071	1071	1071	1071	1071	1071	1068	1068	1068	1068	1068	1068	1068	1068	1071	1074	1078	1078	1081	1078	1078	1078	1078	0	0	0	0	0	0	0	0	0	5915	5915	5815	5815	5815	5815	5815	5815	5815	5815	5815	5815	5815	5815	5815	5719	5815	5815	5815	5815	5815	5815	5815	5915	5915	5915	5915	5915	5815	5815	5626	5719	5719	5719	5719	5815	5815	5815	5815	5815	5815	5815	5719	5719	0	0	0	0	0	0	0	0	0	0	0	0	5915	5815	5815	5719	5719	5719	5815	5815	5815	5915	5915	5915	5915	0	0	0	0	0	0	0	0	0	0	0	0	0	6018	5915	5915	0	0	0	0	0	0	0	0	0	0	0	5915	5915	6018	5915	5915	5915	5915	5915	5915	5915	5815	5915	5815	5915	5815	5815	5815	5815	5719	5815	5719	5719	5815	5815	5815	5815	5815	5815	5815	5815	5815	5719	5719	5719	5719	5719	5626	5626	5719	5719	5719	5719	5719	5815	5815	5815	5815	5815	5815	5915	5915	5915	5915	5915	5815	5815	5815	5815	5815	5815	5719	5815	5815	5719	5815	5719	5719	5719	5815	5815	5815	5815	5719	5719	5719	5719	5719	5719	5719	5719	5815	5815	5815	5815	5815	5815	5815	5815	5815	0	0	0	0	0	3157	3157	3157	3157	3129	3129	3129	3101	3101	3101	3101	3073	3073	3073	3073	3073	3101	3101	3101	3129	3129	3129	3129	3157	3157	3157	3186	3186	3186	3216	3216	3216	3216	3216	0	0	0	0	0	0	0	0	0	0	0	0	0	0	0	0	0	0	0	0	0	0	0	6124	6124	0	0	0	5815	5815	0	0	0	0	0	0	0	0	5915	5915	5815	5815	5815	5815	5815	5815	5719	5719	5815	5915	5815	5815	5815	5815	5815	5815	5815	5815	5815	5915	5915	5815	5815	5915	5815	5815	5815	5815	5815	5815	5815	5815	5815	5815	5815	5815	5815	5815	5815	5815	5815	5815	5815	5815	5815	5815	5815	5815	5815	5815	5815	5815	5719	5719	5815	5815	5815	5815	5815	5815	5815	5815	5815	5815	5815	5815	5815	5815	5815	5815	5815	5815	5915	5915	5915	5815	5815	5815	5815	5815	5815	5815	5815	5915	5915	5915	5915	5915	5915	5915	5915	5915	5915	5915	5915	5915	6018	5915	5915	5915	5915	5915	5915	5915	5915	5915	5915	6018	6018	6018	6018	5915	5915	0	0	0	0	0	0	0	0	0	0	0	0	0	0	0	0	0	0	0	0	0	0	0	0	0	0	6124	6124	6124	6124	0	0	0	0	0	0	0	0	0	0	0	0	0	0	5626	5535	5626	5719	5719	5719	5626	5626	0	0	5719	5719	5719	5719	5719	5719	5719	5719	5915	6018	6124	6018	6018	5815	5815	5815	5719	5719	5719	5626	5626	5626	5719	5719	5719	5719	5719	5719	5719	5719	5719	5719	5719	5719	5815	5719	5719	5815	5719	5815	5815	5719	5719	5815	6018	6018	6018	6018	5915	5815	5815	5815	5815	5719	5719	5719	0	0	0	0	0	0	0	0	0	0	0	0	0	0	0	0	0	0	0	0	0	0	0	0	0	0	0	0	0	0	0	0	0	0	0	0	0	0	0	0	0	0	0	0	0	0
0	0	784	784	782	782	791	791	795	795	795	798	798	798	798	808	808	808	837	837	837	837	837	835	835	837	837	839	841	843	843	845	850	854	856	860	862	862	865	867	869	871	873	875	878	882	882	884	884	884	884	0	0	1071	1071	937	937	1064	1061	1061	1064	1064	1061	1061	1061	1064	1064	1068	1068	1068	1068	1071	1071	1071	1071	1071	1071	1071	1071	1068	1068	1068	1068	1064	1064	1064	1068	1064	1071	1068	1068	1081	1081	1081	1078	1078	1081	1081	0	0	0	0	0	0	0	0	0	5915	5915	5815	5915	5815	5915	5815	5815	5815	5815	5815	5815	5815	5815	5815	5815	5915	5815	5815	5815	5815	5815	5915	5915	5915	5915	5915	5915	5915	5815	5719	5815	5815	5815	5815	5815	5815	5815	5815	5815	5815	5815	5719	5719	5815	5815	5719	5719	0	0	0	0	0	5915	6018	5915	5915	5815	5815	5719	5719	5719	5719	5719	5815	5815	5815	5815	5815	0	0	0	0	0	0	0	0	0	0	0	0	0	6018	5915	5915	0	0	0	0	0	0	0	0	0	0	0	5915	6018	6018	5915	5915	5915	5915	5915	5915	5915	5915	5915	5915	5915	5815	5815	5815	5815	5719	5815	5815	5815	5815	5815	5815	5815	5815	5815	5815	5815	5815	5719	5719	5719	5719	5719	5626	5719	5719	5719	5719	5719	5815	5815	5815	5815	5815	5915	5915	5915	5915	5915	5915	5915	5815	5815	5815	5815	5815	5815	5815	5815	5815	5815	5815	5815	5815	5815	5815	5815	5815	5815	5719	5719	5719	5719	5719	5719	5719	5815	5815	5815	5815	5815	5815	5815	5815	5815	5719	5719	0	0	0	0	3157	3157	3157	3157	3157	3129	3129	3101	3101	3101	3101	3073	3073	3073	3073	3073	3101	3101	3129	3129	3129	3129	3157	3157	3157	3186	3186	3186	3186	3216	3216	3216	3216	3216	0	5815	5815	5815	5815	5815	5815	5815	5815	5815	0	0	0	0	0	0	0	0	0	0	0	0	0	6018	6018	6018	6018	0	5815	5815	0	0	0	0	0	0	0	0	5915	5915	5815	5815	5815	5815	5815	5815	5815	5719	5815	5915	5915	5915	5815	5815	5815	5815	5815	5815	5915	5915	5915	5915	5915	5915	5815	5815	5815	5815	5815	5815	5815	5815	5815	5815	5815	5815	5815	5815	5815	5915	5915	5915	5915	5915	5815	5815	5815	5815	5815	5815	5815	5815	5719	5815	5815	5815	5815	5915	5915	5915	5815	5815	5815	5815	5815	5815	5815	5815	5815	5815	5815	5815	5915	5915	5915	5915	5915	5915	5815	5915	5915	5815	5815	5915	5915	5915	5915	5915	5915	5915	5915	5915	5915	5915	5915	5915	6018	6018	6018	6018	5915	6018	6018	6018	6018	6018	5915	6018	5915	5915	5915	5915	5915	0	0	0	0	0	0	0	0	6018	6018	6018	6018	6018	6018	6018	6018	6018	0	0	0	0	6124	6124	6235	6235	6124	6124	6124	6235	6235	6235	6235	6235	0	0	0	0	0	6018	6018	6018	0	0	5915	5915	5626	5719	5719	5719	5719	5719	5719	5719	5719	5719	5815	5815	5815	5815	5815	5815	5815	5815	6018	6124	6124	6124	5815	5815	5915	5719	5719	5719	5719	5719	5719	5815	5719	5719	5719	5719	5719	5719	5719	5719	5719	5719	5719	5815	5815	5815	5815	5815	5815	5815	5815	5815	5815	5915	5915	5915	5915	5915	5915	5815	5815	5815	5815	5719	5719	0	0	0	0	0	0	0	0	0	0	0	0	0	0	0	0	0	0	0	0	0	0	0	0	0	0	0	0	0	0	0	0	0	0	0	0	0	0	0	0	0	0	0	0	0	0
0	0	784	784	782	784	788	791	791	797	800	798	798	798	798	808	808	808	837	837	862	862	837	839	839	837	839	839	841	845	845	845	850	852	854	858	860	862	862	867	869	871	873	875	878	882	884	884	891	896	896	0	0	1064	1068	937	937	1068	1058	1058	1064	1061	1058	1058	1061	1061	1064	1068	1068	1068	1068	1071	1071	1071	1071	1071	1071	1071	1068	1068	1068	1068	1064	1064	1064	1064	1068	1068	1071	1071	1071	1078	1081	1081	1078	1078	1078	1081	0	0	0	0	0	0	0	0	0	5915	5915	5915	5915	5915	5915	5915	5815	5815	5815	5815	5815	5815	5815	5815	5815	5915	5815	5815	5815	5815	5815	5915	5915	5915	6018	6018	5915	5915	5915	5915	5815	5815	5915	5815	5815	5815	5815	5815	5815	5815	5815	5719	5815	5815	5815	5815	5815	0	0	5915	5915	5915	5915	6018	5915	6018	5815	5815	5815	5719	5719	5815	5815	5815	5815	5815	5815	5815	0	0	0	0	0	0	0	0	0	0	0	0	6018	6018	5915	6018	6018	6018	6018	0	0	0	0	0	0	0	6124	6018	6018	6018	5915	5915	5915	5915	5915	5915	5915	5915	5915	5915	5915	5915	5915	5815	5815	5815	5815	5815	5815	5815	5815	5915	5915	5915	5915	5915	5915	5815	5815	5719	5815	5815	5719	5719	5719	5719	5719	5719	5719	5815	5815	5815	5815	5815	5815	5915	5915	6018	5915	5915	5915	5915	5815	5915	5915	5915	5915	5815	5815	5815	5815	5815	5815	5815	5815	5915	6018	5915	5915	5915	5815	5815	5815	5815	5815	5815	5815	5915	5915	5815	5815	5815	5815	5815	5815	5815	5815	0	0	0	0	3186	3157	3157	3157	3157	3129	3129	3101	3101	3073	3073	3073	3073	3073	3073	3073	3129	3101	3129	3129	3129	3129	3157	3157	3157	3186	3186	3186	3186	3216	3246	3246	3216	6124	6018	5915	5915	5815	5815	5815	5915	5815	5815	5815	5815	0	0	0	0	0	0	0	0	0	0	0	6018	6018	6018	5915	5915	5719	5815	5815	5815	0	0	0	5815	5815	0	0	5915	5915	5915	5815	5815	5815	5815	5815	5815	5815	5915	5915	5915	5915	5815	5915	5915	5915	5815	5915	5915	5915	5915	5915	5915	5915	5815	5815	5815	5815	5815	5815	5815	5815	5815	5815	5815	5815	5815	5815	5915	5915	5915	5915	5915	5915	5915	5915	5915	5815	5815	5815	5815	5815	5815	5815	5815	5815	5915	5915	5915	5915	5815	5815	5815	5815	5815	5815	5815	5915	5815	5915	5915	5915	5915	5915	6018	5915	5915	5915	5815	5915	5915	5815	5915	5915	5915	5915	5915	5915	5915	5915	6018	6018	6018	6018	6018	6018	6018	6018	6018	6018	6018	6018	6018	6018	6018	6018	6018	6018	5915	5915	5915	5915	0	0	0	0	0	0	0	0	6018	6018	6018	6018	6018	6018	6018	6018	6018	6018	0	0	0	6124	6124	6018	6124	6124	6124	6124	6124	6235	6235	6235	6235	6235	6124	6124	0	0	6235	6124	6124	6124	6124	6124	6018	6018	5915	5915	5915	5815	5815	5815	5815	5815	5815	5815	5815	5815	5915	5815	5815	5815	5815	5815	6018	6018	6124	5915	5915	5915	6018	5915	5815	5815	5719	5719	5719	5815	5719	5719	5815	5815	0	0	5719	5719	5719	0	0	0	5815	5815	5815	5815	5915	5915	5815	5815	5915	5915	5915	5915	5915	5915	5915	5915	5815	5815	5815	0	0	0	0	0	0	0	0	0	0	0	0	0	0	0	0	0	0	0	0	0	0	0	0	0	0	0	0	0	0	0	0	0	0	0	0	0	0	0	0	0	0	0	0	0	0	0	0
0	0	784	784	784	784	789	793	793	795	798	798	798	798	802	802	808	808	0	858	862	862	862	860	854	854	854	843	843	845	845	845	850	852	854	858	858	860	862	865	869	871	875	878	878	882	884	887	889	896	896	0	0	1064	1068	935	935	935	935	1058	1061	1058	1058	1058	1055	1058	1064	1071	1068	1068	1068	1071	1071	1071	1071	1071	1071	1071	1068	1068	1068	1068	1064	1064	1064	1064	1068	1068	1071	1071	1074	1078	1081	1081	1081	1078	1078	0	0	0	0	0	0	0	0	0	0	6018	5915	5915	5915	5915	5915	5915	5915	5815	5815	5915	5815	5815	5815	5815	5815	5915	5915	5915	5915	5915	5915	5915	5915	5915	6018	6018	6018	6018	6018	5915	5915	5915	5915	5915	5815	5815	5815	5815	5815	5815	5815	5815	5815	5815	5815	5815	5815	5815	5915	5915	5915	5915	5915	6018	5915	5915	5815	5815	5815	5815	5815	5815	5815	5815	5815	5815	5915	5915	0	5915	5915	5915	0	0	0	0	0	0	0	0	6018	6018	5915	5915	6018	6018	6018	6018	6018	6018	6018	6018	6018	6018	6018	6018	6018	6018	5915	5915	5915	5915	5915	5915	5915	5915	5915	5915	5915	5915	5915	5815	5815	5815	5719	5719	5719	5815	5815	5915	5915	6018	5915	6018	5915	5915	5915	5815	5815	5815	5815	5815	5719	5815	5815	5815	5815	5815	5915	5915	5915	5915	5915	5915	6018	6018	6018	6018	6018	5915	5915	5915	5915	5815	5815	5815	5815	5815	5815	5815	5915	5915	5915	5915	6018	6018	6018	6018	5915	5915	5915	5815	5815	5815	5915	5915	5915	5815	5815	5815	5815	5815	5815	5719	5719	0	0	0	3186	3186	3157	3157	3157	3157	3129	3129	3101	3101	3073	3101	3101	3073	3101	3101	3101	3129	3129	3101	3129	3129	3129	3129	3157	3186	3186	3186	3186	3186	3216	3216	3246	6235	6124	6124	6018	5915	5915	5915	5915	5915	5915	5915	5915	5915	0	0	0	0	6124	6018	6018	6018	6018	6018	6018	6018	6018	5915	5915	5915	5815	5815	5815	5815	0	0	5815	5815	5815	5815	5915	5915	5915	5915	5815	5915	5915	5915	5915	5815	5815	5915	5915	5915	5915	5915	5915	5915	5915	5915	5915	5915	5915	5915	5915	5915	6018	6018	5915	5915	5915	5915	5915	5915	5815	5915	5815	5815	5815	5915	5915	5915	5915	5915	5915	5915	5915	5915	5915	5915	5915	5915	5815	5815	5815	5815	5815	5815	5915	5915	5915	5915	5915	5915	5815	5815	5915	5915	5915	5815	5915	5815	5915	5915	5915	5915	5915	6018	5915	5915	5915	5815	5915	5915	5915	5915	5915	5915	5915	6018	5915	5915	6018	6018	6018	6018	6018	6018	6018	6018	6018	6018	6018	6018	6018	6018	6018	6018	6018	5915	6018	5915	5915	5915	5915	0	0	0	0	0	0	0	6018	6018	6018	6018	6018	6018	6018	6018	6018	6018	6018	6018	6018	6124	6018	6018	6018	6124	6124	6124	6124	6124	6235	6124	6235	6235	6235	6124	6349	6349	0	6235	6124	6124	6124	6124	6124	6018	6018	6018	6018	6018	6018	6018	6018	5915	5915	5915	5815	5915	5915	5915	5915	5915	5915	5915	5915	6018	6018	6018	6018	6018	6018	6018	5915	5815	5815	5815	5719	5719	5815	5719	5719	5815	5815	0	0	0	0	0	0	0	0	0	5915	5915	5915	5915	6018	5915	5915	5915	5815	5915	5915	5915	5915	5915	5915	5915	5815	0	0	0	0	0	0	0	0	0	0	0	0	0	0	0	0	0	0	0	0	0	0	0	0	0	0	0	0	0	0	0	0	0	0	0	0	0	0	0	0	0	0	0	0	0	0	0	0	0
0	0	784	784	784	784	789	793	795	795	798	798	798	800	802	808	808	808	858	858	858	862	860	860	854	854	858	852	845	848	848	848	852	854	854	858	858	860	862	865	869	873	875	878	878	882	884	887	889	896	896	0	0	1068	1071	932	932	1071	935	935	1064	1061	1058	1058	1055	1058	1064	1064	1064	1064	1068	1071	1071	1071	1071	1071	1071	1071	1068	1068	1064	1064	1064	1064	1064	1064	1068	1068	1068	1071	1071	1074	1078	1078	1081	1081	1081	0	0	0	0	0	0	0	0	0	0	6018	5915	5915	5915	5915	5915	5915	5815	5815	5815	5815	5815	5815	5815	5815	5815	5815	5915	5915	5915	5915	5915	5915	6018	6018	6018	6018	6018	6018	5915	5915	5915	5915	5815	5915	5915	5915	5915	5915	5915	5915	5915	5915	5915	5815	5815	5815	5815	5915	5915	5915	5915	6018	5915	6018	6018	6018	5915	5915	5915	5815	5815	5815	5815	5915	5915	5915	5915	5915	5915	5915	5915	5915	5915	5915	0	0	0	0	0	0	6018	6018	5915	5915	6018	6018	6018	6018	6018	6018	6018	6018	6018	6018	6018	6018	6018	6018	6018	6018	5915	5915	5915	5915	5915	5915	6018	5915	6018	5915	5915	5915	5915	5815	5815	5815	5815	5915	5915	6018	6018	6018	6018	6018	6018	5915	5915	5815	5815	5815	5815	5815	5719	5815	5915	5815	5915	5915	5915	5915	5915	5915	5915	5915	6018	6018	6018	6018	6018	6018	5915	5915	5915	5915	5815	5915	5815	5815	5815	5915	5915	5915	5915	6018	6018	6018	6018	6018	6018	6018	6018	5915	5915	5915	5915	6018	5915	5915	5815	5915	5815	5815	5815	5815	5815	0	0	0	3186	3186	3157	3157	3157	3157	3129	3129	3101	3101	3073	3101	3101	3101	3101	3101	3101	3129	3129	3129	3129	3129	3129	3157	3157	3186	3186	3186	3186	3186	3216	3216	0	6235	6124	6124	6018	6018	5915	5815	5815	5915	5915	5915	5915	5915	0	0	0	0	6018	6018	6018	5915	6018	5915	5915	5915	5915	5915	5915	5815	5815	5815	5815	5815	5815	5815	5815	5815	5815	5815	5915	5915	5915	5915	5815	5815	5915	5915	5915	5815	5815	5915	6018	6018	5915	5915	5915	5915	5915	5915	5915	5915	5915	5915	5915	5915	5915	5915	5915	5915	5915	5915	5915	5915	5915	5915	5915	5915	5915	5915	5915	5915	5915	5915	5915	5915	5915	5915	5915	5915	5915	5915	5915	5915	5915	5915	5915	5915	5915	5915	5915	5915	5915	5915	5915	5915	5915	5915	5915	5815	5915	5915	5915	5915	5915	6018	6018	6018	5915	5915	5915	5915	5915	5915	5915	5915	5915	5915	5915	6018	5915	6018	6018	6018	6018	6018	6018	6018	6018	6018	6018	6018	6018	6018	6018	6018	6018	6018	6018	6018	6018	6018	5915	5915	0	0	0	0	0	0	0	0	6018	6124	6018	6018	6018	6018	6018	6018	6018	6018	6018	6018	6018	6018	6018	6018	6018	6124	6124	6124	6124	6124	6124	6124	6124	6235	6124	6124	6235	6235	6235	6235	6124	6124	6235	6124	6124	6124	6124	6124	6124	6124	6018	6018	6018	6018	6018	5915	5915	6018	6018	6018	5915	5915	5915	5915	5915	5915	5915	6018	6018	6018	6124	6018	5915	5815	5815	5815	5719	5719	5719	5719	5719	5719	5815	0	0	0	0	0	0	0	0	5915	5915	6018	5915	6018	6018	5915	5915	5915	5915	5915	5915	5915	5915	5915	5815	5815	0	0	0	0	0	0	0	0	0	0	0	0	0	0	0	0	0	0	0	0	0	0	0	0	0	0	0	0	0	0	0	0	0	0	0	0	0	0	0	0	0	0	0	0	0	0	0	0	0	0
0	0	0	784	784	786	789	791	793	795	797	798	798	798	800	808	808	808	858	858	860	860	862	862	860	858	858	852	852	850	852	850	854	854	856	858	858	860	860	862	867	875	878	878	880	882	884	887	891	898	898	0	0	1068	1071	930	930	930	932	932	932	1061	1055	1055	1052	1055	1061	1064	1064	1064	1068	1068	1068	1068	1068	1071	1071	1068	1068	1068	1068	1068	1064	1064	1064	1064	1068	1068	1068	1068	1068	1074	1074	1074	1074	1078	1078	0	0	0	0	0	0	0	0	0	0	5915	5915	5915	5915	5915	5915	6018	5915	5915	5915	5915	5915	5915	5915	5915	6018	5915	6018	6018	6018	5915	6018	5915	6018	5915	5915	5915	6018	5915	5915	5915	5915	5915	5915	5915	5915	5915	5915	5915	5915	5915	5915	5915	6018	5915	5915	5915	5915	5915	5915	5915	6018	6018	5915	6018	6018	6018	5915	5915	5915	5915	5915	5915	5915	5915	6018	5915	5915	5915	5915	5915	5915	5915	5915	5915	5915	5915	6018	5915	5915	5915	6018	6018	5915	5915	6018	6018	6018	6018	6018	6018	6018	6018	6018	6018	6018	6018	6018	6124	6018	6018	6018	6018	6018	5915	5915	5915	6018	6018	6018	6018	5915	5915	5915	5915	5815	5915	5915	5915	6018	6018	6018	6018	6018	6018	6018	5915	5915	5815	5915	5915	5815	5815	5815	5815	5915	5915	5915	5915	5915	5915	5915	5915	5915	5915	6018	6018	6018	6018	6018	6018	6018	5915	5915	5915	5915	5915	5815	5915	5915	6018	6018	6018	6018	6124	6124	6124	6124	6018	6018	6018	6018	6018	6018	6018	6018	6018	6018	6018	5915	5915	6018	5915	5915	5915	5915	0	0	0	3186	3186	3186	3157	3157	3157	3129	3129	3101	3101	3101	3101	3101	3101	3101	3101	3101	3129	3129	3129	3129	3129	3129	3129	3157	3157	3157	3186	3186	3186	3186	3216	6124	6124	6124	6124	6018	5915	5915	5815	5815	5915	5915	5915	5915	6018	6018	6018	6018	6018	6018	6018	6018	5915	5915	5915	5915	5915	5915	5915	5915	5915	5815	5815	5815	5815	5815	5815	5815	5815	5815	5815	5815	5815	5815	5915	5815	5915	5915	5915	5915	5915	5915	5915	6018	6018	6018	5915	5915	5915	5915	5915	5915	6018	5915	5915	5915	5915	6018	5915	5915	5915	5915	5915	5915	5915	5915	5915	5915	5915	5915	5915	5915	6018	6018	6018	6018	6018	6018	6018	5915	6018	5915	5915	5915	5915	5915	5915	5915	5915	5915	6018	5915	6018	5915	5915	5915	5915	5915	5915	5915	5915	5915	5915	5915	5915	5915	6018	6018	6018	6018	6018	5915	5915	6018	5915	5915	6018	5915	6018	6018	6018	6018	6018	6018	6018	6018	6018	6018	6018	6018	6018	6018	6018	6018	6018	6018	6018	6018	6018	6018	6018	6018	6018	6018	5915	0	0	0	0	0	0	0	0	6018	6018	6018	6018	6018	6018	6018	6018	6018	6018	6018	6018	6018	6018	6018	6018	6018	6124	6124	6124	6124	6124	6124	6124	6235	6235	6235	6124	6235	6235	6235	6235	6124	6235	6235	6235	6235	6124	6124	6124	6124	6124	6018	6018	6018	6018	6018	5915	6018	6018	6018	6018	6018	6018	5915	5915	5915	5915	5915	6018	6018	6124	6124	6124	6018	5815	5815	5719	5719	5719	5719	5719	5719	5815	5815	0	0	0	0	0	0	0	0	5915	6018	6018	5915	6018	6018	6018	6018	5915	5915	6018	6018	6018	5915	5915	5915	5815	5815	0	0	0	0	0	0	0	0	0	0	0	0	0	0	0	0	0	0	0	0	0	0	0	0	0	0	0	0	0	0	0	0	0	0	0	0	0	0	0	0	0	0	0	0	0	0	0	0	0
0	0	0	782	782	782	791	793	793	795	797	798	798	798	800	804	804	804	804	860	860	860	862	862	860	860	858	858	856	854	854	852	856	856	856	858	860	860	860	862	875	875	878	878	880	882	884	891	896	901	901	908	908	908	1071	927	927	930	930	930	930	0	1055	1055	1052	1052	1064	1064	1064	1064	1064	1068	1068	1068	1068	1071	1071	1068	1068	1068	1068	1068	1064	1064	1064	1064	1064	1064	1064	1068	1068	1071	1071	1074	1078	1078	1078	1078	0	0	0	0	0	0	0	0	0	5915	6018	6018	6018	6018	6018	6018	6018	6018	5915	5915	5915	5915	5915	5915	6018	5915	6018	6018	6018	6018	6018	5915	6018	6018	6018	6018	6018	6018	5915	5915	5915	5915	5915	5915	5915	5915	5915	5915	6018	6018	6018	6124	6124	5915	5915	5915	5915	5915	5915	5915	5915	5915	5915	6018	5915	6018	5915	5915	5915	5915	5915	5915	5915	5915	6018	5915	5915	5915	5915	5915	5915	5915	5915	6018	6018	6018	6018	6018	5915	5915	6018	6018	6018	6018	6018	6018	6018	6018	6018	5915	6018	6018	6018	6018	6018	6018	6018	6124	6018	6018	6018	6018	6018	6018	6018	6018	6018	6018	6018	6018	6018	6018	5915	5915	5915	5915	5915	6018	6018	6018	6018	6018	6018	6018	6018	6018	5915	5915	5915	5915	5915	5815	5815	5815	5915	5915	5915	5915	5915	5915	5915	5915	5915	5915	6018	6018	6018	6018	6018	6018	6018	6018	6018	6018	5915	5915	5915	5915	6018	6018	6124	6018	6018	6124	6124	6124	6124	6124	6018	6018	6018	6018	6018	6018	6018	6124	6018	6018	6018	6018	6018	6018	5915	5915	5915	5915	3186	3186	3186	3186	3186	3157	3157	3157	3157	3129	3129	3101	3101	3101	3101	3101	3101	3101	3101	3129	3129	3129	3129	3129	3129	3157	3157	3157	3157	3186	3157	3157	3186	6124	6124	6124	6124	6124	6018	6018	5915	5915	5915	5915	5915	5915	6018	6018	6018	6018	6018	6124	6018	6018	6018	6018	6018	6018	5915	5915	5915	5915	5915	5915	5915	5915	5815	5815	5815	5815	5815	5815	5815	5815	5915	5915	5915	5915	5915	5915	5915	5915	5915	5915	5915	6018	6018	6018	6018	6018	6018	5915	5915	5915	5915	5915	5915	5915	5915	6018	6018	6018	5915	5915	5915	5915	5915	5915	5915	5915	5915	5915	5915	5915	5915	5915	5915	6018	6018	6018	6018	6018	6018	6018	6018	5915	5915	5915	5915	5915	5915	5915	6018	6018	6018	5915	5915	5915	5915	5915	5915	5915	5915	5915	5915	5915	5915	5915	5915	6018	6018	6018	6018	6018	6018	5915	6018	5915	5915	6018	6018	6018	6018	6018	6018	6018	6018	6018	6018	6018	6018	6018	6018	6018	6018	6018	6018	6018	6018	6018	6018	6018	6018	6018	6018	6018	6018	0	0	0	0	0	0	0	0	0	6018	6018	6018	6018	6018	6018	6124	6018	6018	6018	6018	6018	6018	6018	6018	6018	6018	6124	6124	6124	6235	6124	6235	6124	6235	6235	6235	6235	6235	6349	6349	6235	6124	6235	6235	6235	6124	6124	6124	6124	6124	6124	6018	6124	6018	6018	6018	6018	6018	6018	6018	6124	6124	6124	6018	6018	6018	6018	6018	6018	6018	6124	6124	6124	6018	5815	5915	5719	5719	5719	5815	5719	5719	5815	5815	0	0	0	0	0	0	5815	5815	5915	5915	6018	6018	6018	6018	6018	6018	6018	5915	6018	5915	5915	5815	5815	5815	5815	5815	0	0	0	0	0	0	0	0	0	0	0	0	0	0	0	0	0	0	0	0	0	0	0	0	0	0	0	0	0	0	0	0	0	0	0	0	0	0	0	0	0	0	0	0	0	0	0	0	0
0	0	0	782	784	786	786	789	793	795	797	798	798	798	800	804	804	804	860	862	860	860	862	862	860	860	860	860	858	856	856	854	858	858	858	858	860	860	862	867	867	875	878	878	880	882	884	894	894	898	905	908	908	910	920	917	917	927	930	930	930	0	1055	1055	1055	1068	1068	1068	1064	1068	1068	1068	1068	1064	1068	1068	1071	1068	1068	1068	1064	1064	1064	1064	1064	1064	1064	1064	1064	1064	1064	1068	1071	1071	1074	1074	1074	1078	0	0	0	0	0	0	0	0	0	0	6124	6124	6124	6018	6018	6018	6018	6018	6018	6018	5915	5915	5915	6018	6018	6018	6124	6018	6018	6018	6018	6018	6018	6018	6018	6018	6124	6018	6018	5915	5915	5915	5915	5915	5915	5915	5915	6018	6018	6018	6124	6124	6124	6018	6018	5915	5915	5915	5915	5915	5915	5915	5915	5915	6018	6018	5915	5915	5915	5915	5915	5915	5915	5915	5915	6018	6018	6018	5915	5915	5915	5915	5915	6018	6018	6018	6018	6018	6018	6018	6018	6018	6018	6018	6018	6018	6018	6018	6018	6018	6018	6018	6018	6018	6018	6018	6018	6124	6124	6124	6018	6018	6018	6018	6018	6018	6018	6018	6018	6018	6018	6018	6018	6018	5915	6018	6018	6018	6018	6018	6018	6018	6018	6018	6018	5915	5915	5915	5915	5915	5915	5915	5915	5915	5915	5915	5915	6018	6018	6018	5915	5915	5915	5915	6018	6018	6018	6018	6124	6018	6018	6018	6018	6018	6018	5915	5915	5915	6018	6018	6124	6124	6124	6124	6124	6124	6124	6018	6018	6018	6018	6018	6018	6124	6124	6124	6124	6124	6018	6124	6124	6018	6018	6018	6018	6018	3186	3186	3186	3186	3186	3157	3157	3157	3129	3129	3129	3101	3101	3101	3101	3101	3101	3101	3101	3129	3129	3129	3129	3129	3129	3157	3157	3157	3157	3157	3157	3157	6018	6124	6124	6018	6018	6018	6018	6018	5915	5915	5915	5915	5915	6018	6018	6018	6124	6124	6124	6124	6124	6124	6018	6018	6018	6018	6018	6018	6018	6018	5915	5915	5915	5915	5915	5915	5915	5915	5915	5915	5915	5915	5915	5915	5915	6018	5915	5915	5915	5915	5915	5915	5915	6018	6018	6018	6124	6018	6018	5915	6018	6018	6018	6018	6018	6018	6018	6018	6018	6018	5915	6018	6018	6018	6018	6018	5915	6018	5915	5915	5915	5915	5915	5915	6018	6018	6018	6018	6018	6018	6018	6018	5915	5915	5915	5915	5915	6018	6018	6018	6018	6018	5915	5915	5915	5915	5915	5915	5915	5915	5915	5915	5915	5915	5915	5915	5915	6018	6018	6018	6018	6018	6018	6018	6018	6018	6018	6018	6018	6018	6018	6018	6018	6018	6018	6018	6124	6018	6018	6018	6124	6124	6018	6018	6018	6018	6124	6124	6124	6018	6124	6018	6018	6018	6018	0	0	0	0	0	0	0	0	0	6124	6235	6124	6124	6124	6124	6124	6124	6124	6018	6018	6018	6018	6018	6018	6018	6018	6124	6124	6124	6235	6124	6235	6124	6124	6235	6235	6235	6235	6349	6349	6349	6235	6235	6235	6235	6235	6124	6124	6124	6124	6124	6124	6124	6124	6018	6018	6018	6018	6124	6124	6124	6124	6235	6124	6124	6018	6018	6018	6018	6018	6018	6018	6018	6018	5815	5915	5815	5815	5815	5815	5815	5815	5815	5815	0	0	0	0	0	0	5815	5915	5915	5915	6018	6018	6018	6018	6018	5915	5915	5915	5915	5915	5915	5815	5815	5815	5915	5915	0	0	0	0	0	0	0	0	0	0	0	0	0	0	0	0	0	0	0	0	0	0	0	0	0	0	0	0	0	0	0	0	0	0	0	0	0	0	0	0	0	0	0	0	0	0	0	0	0
0	0	0	773	779	779	788	789	793	793	795	797	798	798	800	804	806	810	810	862	862	862	862	862	862	860	862	860	860	858	858	856	858	858	858	858	860	862	862	869	869	875	878	878	878	882	887	894	894	898	905	908	908	910	910	913	915	915	925	925	930	927	927	927	1055	1064	1064	1064	1064	1068	1068	1068	1068	1068	1068	1068	1068	1071	1068	1068	1068	1068	1064	1064	1064	1068	1068	1068	1064	1064	1064	1068	1068	1064	1064	1058	1058	0	0	0	0	0	0	0	0	0	0	0	6124	6124	6124	6124	6124	6018	6018	6018	6018	6018	5915	6018	5915	6018	6018	6018	6124	6124	6018	6018	6018	6018	6018	6018	6018	6124	6124	6018	6018	5915	5915	5915	5915	5915	5915	6018	6018	6018	6018	6124	6124	6235	6124	6018	6124	6018	6018	6018	5915	5915	6018	5915	6018	6018	6018	6018	6018	5915	5915	5915	5915	5915	5915	5915	6018	6018	6018	6018	6018	6018	6018	5915	6018	6018	6018	6018	6018	6018	6018	6018	6124	6018	6124	6124	6018	6018	6018	6018	6018	6018	6018	6018	6018	6018	6018	6018	6124	6235	6235	6235	6124	6124	6018	6018	6018	6018	6018	6018	6018	6018	6018	6018	6018	6018	5915	5915	6018	6018	6018	6018	6018	6018	6018	6018	6018	6018	5915	5915	6018	5915	5915	5915	6018	5915	6018	6018	6018	6018	6018	6018	6018	6018	6018	6018	6124	6018	6018	6124	6124	6124	6018	6018	6018	6018	6018	6018	5915	5915	5915	6018	6018	6018	6124	6124	6124	6124	6124	6124	6018	6018	6018	6018	6018	6124	6124	6124	6124	6124	6124	6124	6124	6018	6018	6018	6018	6018	0	0	3186	3186	3186	3157	3157	3157	3129	3129	3101	3101	3101	3101	3101	3101	3101	3101	3101	3129	3129	3129	3129	3129	3129	3157	3157	3157	3157	3157	3157	0	6124	6124	6124	6018	6018	6018	6018	6018	6018	6018	6018	6018	6018	6018	6124	6124	6124	6124	6124	6124	6124	6124	6124	6018	6124	6018	6018	6018	6018	6018	6018	6018	6018	6018	6018	6018	6018	5915	5915	5915	5915	5915	5915	5915	5915	6018	5915	5915	5915	5915	5915	5915	6018	6124	6124	6124	6124	6124	6124	6018	6018	6018	6018	6018	6018	6018	6018	6124	6124	6124	6018	6018	6124	6018	6018	6018	6018	6018	6018	5915	5915	5915	5915	5915	6018	6018	6018	6018	6018	6018	6018	6018	5915	5915	5915	5915	6018	6018	6018	6018	6018	6018	5915	5915	5915	5915	5915	6018	5915	5915	5915	5915	5915	5915	5915	5915	6018	6018	6124	6124	6018	6124	6018	6018	6018	6018	6018	6018	6018	6018	6018	6018	6018	6018	6018	6018	6124	6018	6018	6018	6124	6124	6124	6124	6124	6124	6124	6124	6124	6124	6124	6124	6124	0	0	0	0	0	0	0	0	0	6018	6018	6124	6124	6124	6124	6124	6124	6235	6124	6124	6018	6018	6018	6018	6018	6018	6018	6018	6235	6235	6235	6349	6235	6235	6235	6235	6235	6349	6235	6235	6349	6349	6349	6235	6235	6235	6235	6235	6124	6124	6124	6124	6124	6124	6124	6124	6124	6018	6018	6124	6124	6124	6235	6124	6235	6124	6124	6124	6124	6124	6124	6124	6124	6018	6018	6018	5915	5915	5915	5915	5915	5915	5915	5815	5815	0	0	0	0	0	0	0	5815	5915	5915	5915	6018	5915	6018	5915	5915	5915	5915	5915	5915	5915	5915	5815	5815	5815	5815	5915	5915	0	0	0	0	0	0	0	0	0	0	0	0	0	0	0	0	0	0	0	0	0	0	0	0	0	0	0	0	0	0	0	0	0	0	0	0	0	0	0	0	0	0	0	0	0	0	0	0
0	0	0	773	779	779	789	791	793	793	795	797	798	798	802	804	808	812	812	812	862	862	862	865	862	860	862	860	860	858	858	858	860	862	860	860	862	862	865	869	873	873	875	878	880	880	884	891	896	898	903	905	905	910	910	910	913	913	925	925	932	932	948	948	948	1064	1064	1064	1064	1064	1064	1068	1064	1064	1068	1068	1068	1068	1068	1068	1068	1068	1064	1064	1068	1068	1068	1068	1068	1064	1064	1068	1064	1061	1058	1058	1058	0	0	0	0	0	0	0	0	0	0	0	6124	6124	6124	6124	6124	6124	6124	6124	6124	6124	6018	6124	6018	6124	6124	6124	6235	6235	6235	6124	6018	6018	6018	6018	6124	6124	6124	6018	6018	6018	5915	5915	5915	5915	5915	6018	6018	6018	6124	6124	6235	6235	6235	6018	6124	6124	6018	6018	6018	6018	6018	6018	6018	6018	6124	6018	6018	6018	5915	6018	5915	5915	5915	5915	6018	6018	6018	6018	5915	6018	5915	5915	6018	6018	6018	6018	6124	6124	6124	6124	6124	6124	6124	6124	6018	6018	6124	6018	6018	6018	6018	6018	6018	6018	6018	6124	6124	6235	6235	6235	6124	6124	6124	6124	6018	6018	6018	6018	6018	6018	6018	6018	6018	6018	6018	6018	6018	6018	6018	6018	6018	6018	6018	6018	6018	6018	6018	6018	6018	6018	6018	6018	6018	6018	6124	6018	6018	6124	6124	6124	6018	6018	6018	6018	6124	6124	6018	6018	6124	6124	6124	6124	6124	6124	6018	6018	6018	5915	5915	6018	6018	6018	6018	6124	6124	6124	6018	6018	6018	6018	6018	6018	6018	6018	6124	6124	6124	6124	6124	6124	6124	6124	6018	6124	6124	6018	0	0	0	3186	3186	3157	3157	3157	3129	3101	3101	3073	3101	3101	3101	3073	3101	3101	3101	3129	3129	3129	3129	3129	3129	3157	3157	3157	3157	3129	3129	0	6124	6124	6124	6018	6018	6124	6124	6124	6124	6018	6018	6018	6124	6124	6124	6124	6124	6124	6124	6124	6124	6124	6124	6124	6124	6124	6124	6018	6018	6018	6018	6018	6018	6018	6018	6018	6018	5915	5915	5915	5915	5915	5915	5915	5915	6018	5915	5915	5915	5915	5915	6018	6018	6124	6124	6235	6124	6124	6124	6018	6018	6018	6018	6124	6018	6018	6124	6124	6235	6124	6124	6124	6124	6124	6018	6018	6018	6018	6018	6018	6018	6018	6018	6018	6018	6018	6018	6018	6018	6018	5915	5915	5915	5915	6018	6124	6124	6124	6124	6018	6018	6018	5915	5915	5915	5915	5915	6018	5915	6018	5915	5915	5915	5915	6018	6018	6018	6124	6124	6124	6124	6235	6124	6018	6018	6018	6018	6018	6018	6018	6018	6018	6124	6124	6124	6018	6018	6018	6018	6018	6124	6124	6018	6018	6124	6124	6124	6124	6124	6124	6235	6235	6124	0	0	0	0	0	0	0	0	6018	6018	6018	6124	6235	6235	6349	6349	6349	6349	6235	6235	6124	6235	6018	6018	6018	6018	6018	6018	6124	6124	6235	6235	6235	6235	6235	6235	6235	6349	6235	6235	6349	6349	6349	6235	6235	6235	6124	6124	6124	6124	6124	6124	6124	6124	6124	6124	6124	6124	6124	6124	6124	6235	6235	6235	6349	6235	6235	6124	6124	6124	6124	6124	6124	6018	6018	6018	6018	6018	6018	6018	6124	6124	6124	0	0	0	0	0	0	0	0	0	0	0	0	0	5915	5915	5915	5915	5915	5915	5915	5915	5915	5915	5815	5815	5815	5815	5815	5915	5915	0	0	0	0	0	0	0	0	0	0	0	0	0	0	0	0	0	0	0	0	0	0	0	0	0	0	0	0	0	0	0	0	0	0	0	0	0	0	0	0	0	0	0	0	0	0	0	0
0	0	0	0	779	779	789	791	793	793	793	797	798	800	800	804	804	808	808	810	812	812	821	821	862	862	862	860	860	0	0	867	867	867	869	871	871	871	873	873	875	878	878	878	878	878	887	891	896	898	901	905	905	908	910	910	915	922	922	930	932	932	948	948	955	955	955	1064	1064	1064	1064	1064	1064	1064	1068	1068	1068	1068	1064	1068	1064	1064	1064	1064	1064	1068	1068	1068	1068	1064	1064	1068	1068	1064	1064	1078	1078	0	0	0	0	0	0	0	0	0	0	6124	6124	6124	6124	6124	6124	6124	6124	6124	6124	6124	6018	6018	6018	6124	6124	6124	6235	6235	6235	6124	6124	6124	6124	6124	6124	6124	6124	6018	6018	6124	5915	5915	5915	5915	6018	6124	6018	6018	6124	6235	6235	6235	6235	6124	6124	6124	6018	6018	6018	6018	6018	6018	6018	6018	6124	6018	6018	6018	5915	6018	6018	5915	6018	6018	6018	6018	6018	6018	6018	5915	5915	5915	5915	6018	6124	6124	6124	6124	6124	6124	6124	6124	6235	6235	6235	6235	6235	6124	6124	6018	6018	6124	6018	6124	6124	6124	6124	6235	6235	6235	6235	6124	6124	6124	6018	6018	6018	6018	6018	6018	6018	6018	6018	6018	6018	6018	6018	6018	6018	6018	6018	6018	6018	6018	6018	6018	6018	6018	6018	6018	6018	6018	6018	6018	6124	6018	6018	6124	6124	6124	6018	6018	6018	6018	6124	6124	6124	6124	6124	6124	6124	6124	6124	6124	6124	6124	6018	5915	5915	6018	6018	6018	6018	6124	6124	6124	6018	6018	6018	6018	5915	5915	6018	6018	6018	6018	6124	6124	6018	6124	6124	6124	6124	6124	6018	6018	0	0	0	0	3186	3157	3157	3129	3129	3129	3101	3101	3101	3101	3101	3101	3101	3101	3101	3129	3129	3129	3129	3129	3129	3157	3157	3157	3157	3157	3157	0	6124	6124	6124	6018	6124	6124	6124	6124	6124	6018	6018	6018	6018	6124	6124	6124	6124	6124	6124	6124	6124	6124	6124	6124	6124	6124	6124	6124	6124	6124	6124	6124	6018	6018	6018	6018	6018	6018	6018	6018	5915	5915	6018	6018	6018	5915	5915	5915	6018	6018	6018	6018	6018	6124	6124	6235	6235	6124	6124	6018	6018	6124	6018	6018	6018	6018	6124	6124	6124	6124	6124	6124	6124	6124	6018	6124	6018	6018	6018	6018	6018	6018	6018	6018	6018	6018	6018	6018	6018	6018	6018	6018	6018	6124	6124	6124	6235	6235	6124	6124	6018	6018	6018	5915	5915	5915	6018	6018	6018	6018	6018	6018	6018	6018	6018	6018	6018	6124	6235	6235	6235	6235	6124	6124	6124	6018	6018	6018	6018	6018	6018	6124	6124	6124	6124	6124	6124	6018	6124	6124	6124	6124	6124	6018	6124	6124	6124	6124	6124	6124	6124	6235	0	0	0	0	0	0	0	0	0	6124	6018	6018	6235	6349	6235	6349	6349	6468	6468	6349	6235	6235	6349	6235	6235	6124	6124	6349	6018	6235	6124	6235	6235	6235	6235	6235	6235	6235	6349	6235	6235	6349	6235	6235	6235	6235	6235	6235	6124	6124	6124	6124	6124	6124	6124	6124	6124	6124	6124	6124	6235	6235	6235	6349	6349	6468	6349	6349	6235	6235	6124	6124	6124	6124	6018	6018	6018	6018	6018	6124	6235	6235	6235	6124	0	0	0	0	0	0	0	0	0	0	0	0	0	6018	6018	6018	5915	5915	5915	6018	5915	5915	5915	5915	5815	5815	5915	5915	5915	5915	0	0	0	0	0	0	0	0	0	0	0	0	0	0	0	0	0	0	0	0	0	0	0	0	0	0	0	0	0	0	0	0	0	0	0	0	0	0	0	0	0	0	0	0	0	0	0	0
0	0	0	0	0	0	789	793	793	793	797	795	797	798	802	802	804	808	812	814	814	819	821	823	823	862	862	0	0	0	873	873	873	871	871	873	875	873	873	873	875	878	878	878	878	878	887	891	896	898	901	903	905	905	910	913	913	917	925	932	932	935	950	950	955	955	958	958	958	1064	1064	1064	1064	1064	1064	1064	1064	1064	1064	1064	1064	1064	1064	1064	1068	1068	1068	1068	1068	1064	1061	1071	1074	1071	1074	1078	1078	0	0	0	0	0	0	0	0	0	0	6124	6124	6124	6235	6124	6124	6124	6124	6124	6124	6124	6018	6018	6018	6018	6124	6124	6235	6235	6235	6235	6235	6124	6124	6235	6235	6235	6235	6124	6124	6124	6018	5915	5915	6018	6018	6124	6018	6124	6124	6235	6235	6235	6235	6124	6124	6124	6124	6124	6018	6124	6124	6124	6124	6124	6124	6124	6124	6018	5915	6018	6018	5915	6018	5915	6018	6018	6018	6018	5915	5915	5915	6018	5915	5915	6018	6124	6124	6124	6124	6124	6235	6235	6349	6235	6235	6235	6235	6124	6124	6018	6124	6124	6124	6124	6235	6235	6235	6349	6349	6235	6235	6124	6124	6124	6018	6018	6018	6018	6018	6018	6018	6018	6018	6018	6018	6018	6018	6018	6018	6018	6018	6018	6018	6018	6018	6018	6018	6018	6018	6018	6018	6018	6018	6018	6124	6018	6018	6124	6018	6124	6018	6018	6018	6018	6124	6124	6124	6124	6124	6124	6124	6124	6124	6235	6124	6124	6124	6018	6018	6018	6018	6018	6018	6124	6124	6124	6018	6018	6018	6018	6018	6018	6018	6018	6018	6124	6124	6124	6124	6124	6124	6124	6124	6124	6124	6124	0	0	0	0	3186	3129	3157	3129	3129	3101	3101	3101	3101	3101	3101	3101	3101	3101	3101	3129	3129	3129	3129	3129	3157	3157	3157	3157	3157	3157	3157	0	6124	6124	6124	6124	6124	6124	6124	6124	6124	6124	6018	6018	6124	6124	6124	6124	6124	6124	6124	6124	6124	6124	6124	6124	6124	6124	6124	6124	6124	6124	6124	6124	6018	6124	6124	6124	6124	6018	6018	6124	6018	6018	6124	6124	6124	6124	6124	6124	6018	6124	6018	6018	6124	6124	6124	6235	6235	6235	6235	6124	6124	6124	6124	6124	6124	6124	6124	6124	6124	6124	6124	6124	6124	6124	6018	6124	6124	6124	6124	6018	6018	6124	6018	6018	6018	6018	6124	6124	6018	6018	6018	6018	6018	6124	6124	6235	6235	6235	6124	6124	6124	6018	6018	5915	5915	5915	6018	6018	6018	6018	6018	6018	6018	6018	6018	6018	6018	6124	6235	6235	6235	6235	6124	6124	6124	6018	6124	6124	6124	6124	6124	6124	6124	6124	6124	6018	6124	6124	6124	6124	6124	6124	6124	6124	6124	6124	6235	6124	6124	6124	6235	6235	0	0	0	0	0	0	0	0	0	6124	6124	6124	6349	6349	6349	6349	6468	6468	6468	6349	6349	6349	6349	6349	6349	6124	6349	6349	6018	6124	6124	6235	6235	6235	6235	6235	6235	6349	6349	6349	6235	6349	6235	6235	6235	6235	6235	6235	6124	6124	6124	6235	6124	6124	6124	6124	6235	6124	6124	6235	6235	6349	6235	6349	6349	6468	6349	6349	6235	6235	6124	6124	6124	6124	6124	6124	6018	6124	6124	6235	6349	6349	6349	0	0	0	0	0	0	0	0	0	0	0	0	0	0	6018	6018	6018	5915	6018	6018	6018	5915	6018	5915	6018	6018	6018	6018	6018	6018	5915	0	0	0	0	0	0	0	0	0	0	0	0	0	0	0	0	0	0	0	0	0	0	0	0	0	0	0	0	0	0	0	0	0	0	0	0	0	0	0	0	0	0	0	0	0	0	0	0
0	0	0	0	0	0	0	793	791	791	797	797	798	800	802	802	804	810	812	814	814	819	823	823	823	0	0	0	0	0	873	882	880	880	878	878	878	878	875	875	878	880	880	878	878	884	889	891	896	896	901	901	905	905	910	910	910	917	927	932	935	937	950	953	955	955	958	958	958	958	1068	1068	1064	1064	1068	1064	1064	1064	1064	1064	1064	1064	1064	1064	1068	1068	1068	1068	1064	1061	1064	1068	1071	1071	1071	1078	1078	0	0	0	0	0	0	0	0	0	6235	6235	6235	6235	6235	6235	6124	6124	6124	6124	6124	6018	6018	6018	6018	6018	6124	6124	6235	6235	6235	6235	6235	6235	6235	6235	6235	6235	6235	6124	6124	6235	6124	6018	6018	6124	6124	6124	6124	6124	6235	6235	6235	6235	6235	6235	6235	6235	6235	6235	6124	6124	6235	6124	6124	6124	6124	6124	6124	6124	6018	6349	6018	6018	6018	5915	6018	6018	6018	6018	5915	5915	5915	5915	5915	5915	6018	6124	6124	6235	6124	6235	6349	6349	6349	6235	6235	6349	6235	6235	6235	6124	6124	6124	6124	6124	6235	6349	6349	6349	6349	6235	6235	6235	6124	6124	6018	6018	6018	6018	6124	6018	6124	6124	6124	6018	6018	6018	6018	6018	6018	6018	6018	6018	6018	6018	6018	6018	6018	6018	6018	6018	6018	6018	6018	6018	6124	6018	6018	6124	6124	6124	6018	6018	6018	6124	6124	6124	6124	6124	6124	6235	6235	6235	6235	6235	6124	6124	6124	6018	6018	6018	6018	6018	6018	6124	6124	6124	6018	6018	6018	6018	6018	6018	6124	6124	6124	6124	6124	6124	6124	6124	6124	6124	6124	6124	6124	6124	6124	0	0	0	0	3129	3157	3129	3129	3129	3101	3101	3101	3101	3101	3101	3101	3101	3101	3101	3129	3157	3157	3157	3157	3186	3186	3157	3157	3157	3157	0	6124	6124	6124	6124	6124	6124	6124	6124	6124	6124	6124	6124	6124	6124	6124	6124	6124	6124	6124	6124	6124	6124	6124	6124	6124	6124	6124	6124	6124	6124	6124	6124	6124	6124	6124	6124	6124	6124	6124	6124	6124	6124	6124	6124	6124	6124	6124	6124	6124	6124	6124	6124	6124	6235	6235	6235	6235	6235	6235	6124	6124	6124	6124	6124	6124	6124	6235	6235	6235	6124	6124	6124	6235	6124	6124	6124	6124	6124	6124	6124	6124	6124	6124	6124	6124	6018	6124	6124	6124	6124	6018	6018	6018	6124	6124	6124	6235	6235	6124	6124	6124	6018	6018	6018	6018	6018	6018	6124	6124	6124	6018	6018	6018	6018	6018	6018	6018	6124	6235	6235	6235	6235	6235	6124	6124	6124	6124	6124	6124	6018	6124	6124	6124	6124	6124	6124	6124	6235	6235	6235	6235	6235	6235	6235	6235	6235	6235	6235	6235	6235	6235	6235	0	0	0	0	0	0	0	6235	6235	6235	6235	6124	6235	6235	6349	6349	6349	6468	6468	6349	6349	6349	6468	6468	6349	6235	6235	6349	6468	6235	6235	6235	6349	6235	6235	6235	6349	6349	6468	6468	6349	6349	6349	6349	6349	6235	6235	6124	6124	6124	6124	6235	6235	6124	6124	6235	6235	6235	6124	6124	6235	6349	6349	6349	6349	6349	6349	6349	6235	6235	6124	6124	6124	6124	6124	6124	6124	6235	6235	6235	6235	6235	6349	0	0	0	0	0	0	0	0	0	0	0	0	0	0	6018	6018	6018	5915	5915	6018	6124	6124	6018	6124	6124	6018	6018	6124	6018	6124	6124	0	0	0	0	0	0	0	0	0	0	0	0	0	0	0	0	0	0	0	0	0	0	0	0	0	0	0	0	0	0	0	0	0	0	0	0	0	0	0	0	0	0	0	0	0	0	0	0
0	0	0	0	0	0	789	789	791	791	793	797	798	800	800	800	800	810	814	814	821	823	825	827	827	827	0	0	0	0	0	884	884	882	880	882	882	880	878	878	878	880	880	878	880	884	889	891	891	896	898	901	905	908	910	910	910	920	927	935	937	940	948	950	953	955	958	958	961	961	961	1068	1068	1068	1068	1068	1068	1064	1064	1064	1064	1064	1064	1064	1064	1064	1068	1064	1061	1061	1064	1068	1071	1068	1068	1078	1078	0	0	0	0	0	0	0	0	0	6235	6235	6235	6235	6235	6235	6124	6124	6124	6124	6124	6018	6018	6018	6018	6018	6018	6124	6235	6235	6349	6235	6235	6235	6235	6235	6235	6235	6235	6235	6235	6235	6124	6018	6018	6124	6124	6235	6124	6124	6235	6235	6235	6235	6235	6235	6124	6235	6235	6235	6124	6235	6124	6124	6124	6235	6235	6235	6235	6235	6124	6124	6124	6018	6018	6018	6018	6018	6018	6018	5915	5915	5915	5915	5915	0	0	6124	6124	6235	6235	6235	6349	6349	6349	6349	6349	6349	6349	6235	6235	6235	6124	6235	6124	6235	6235	6349	6349	6349	6349	6349	6349	6235	6124	6124	6018	6018	6018	6018	6124	6124	6124	6124	6124	6018	6018	6018	6018	6018	6018	6018	6018	6018	6018	6018	6124	6124	6124	6018	6018	6018	6018	6018	6018	6018	6018	6018	6018	6124	6124	6124	6124	6018	6018	6124	6124	6124	6235	6124	6235	6235	6235	6235	6235	6235	6124	6124	6124	6018	6018	6018	6018	6124	6124	6124	6124	6124	6018	6018	6124	6124	6124	6124	6124	6124	6124	6124	6124	6124	6124	6124	6124	6124	6124	6124	6124	6124	6124	6124	0	0	0	3129	3157	3129	3129	3129	3101	3101	3101	3101	3101	3101	3101	3129	3129	3157	3157	3157	3157	3157	3157	3157	3157	3157	3157	3157	3157	6235	6235	6235	6235	6235	6235	6235	6124	6124	6235	6124	6124	6124	6124	6124	6124	6124	6124	6124	6124	6124	6124	6124	6124	6235	6124	6124	6124	6124	6124	6124	6124	6124	6124	6124	6124	6124	6124	6124	6124	6124	6124	6124	6124	6124	6124	6124	6124	6124	6124	6124	6124	6124	6124	6235	6235	6235	6235	6235	6235	6124	6124	6124	6124	6124	6124	6124	6235	6235	6235	6235	6235	6235	6235	6124	6124	6124	6124	6124	6124	6124	6124	6124	6124	6124	6124	6124	6124	6124	6124	6124	6018	6018	6018	6018	6018	6124	6124	6235	6124	6124	6124	6018	6018	6018	6018	6018	6018	6124	6124	6124	6124	6124	6124	6124	6124	6124	6124	6124	6235	6235	6235	6235	6235	6235	6124	6124	6124	6124	6124	6018	6018	6018	6018	6018	6124	6124	6124	6235	6235	6235	6235	6235	6235	6124	6124	6124	6235	6235	6235	6235	6235	6235	0	0	0	0	0	6349	6349	6349	6349	6235	6235	6235	6349	6349	6349	6349	6349	6468	6468	6349	6349	6349	6468	6468	6468	6349	6349	6468	6468	6349	6349	6349	6349	6349	6235	6349	6349	6349	6468	6468	6468	6468	6349	6349	6349	6349	6235	6235	6235	6235	6235	6349	6235	6235	6235	6349	6349	6349	6349	6349	6349	6349	6349	6235	6235	6349	6349	6349	6235	6235	6124	6124	6124	6235	6235	6235	6235	6349	6349	6349	6349	6349	0	0	0	0	0	0	0	0	0	6468	6468	6349	6349	0	0	6124	6018	6124	6018	6124	6124	6124	6124	6124	6124	6124	6124	6124	6124	6124	6235	6235	6235	0	0	0	0	0	0	0	0	0	0	0	0	0	0	0	0	0	0	0	0	0	0	0	0	0	0	0	0	0	0	0	0	0	0	0	0	0	0	0	0	0	0	0	0	0	0	0
0	0	0	0	0	0	795	791	791	793	793	797	793	800	800	800	800	810	814	819	823	825	827	829	827	833	835	833	833	0	884	884	884	880	880	884	887	882	882	882	882	887	884	882	882	891	894	891	894	898	898	898	903	908	910	910	913	920	925	935	937	940	948	950	953	953	955	955	961	961	961	961	1068	1068	1068	1064	1064	1064	1064	1064	1064	1064	1064	1064	1068	1068	1064	1064	1061	1061	1064	1068	1071	1068	1071	1078	1078	0	0	0	0	0	0	0	0	0	6124	6124	6124	6124	6235	6235	6124	6235	6124	6124	6124	6124	6124	6124	6124	6018	6124	6124	6235	6349	6349	6235	6235	6235	6235	6235	6235	6235	6235	6235	6235	6235	6235	6235	6235	6235	6235	6235	6235	6235	6235	6235	6235	6235	6235	6235	6235	6235	6235	6235	6235	6235	6235	6235	6235	6235	6235	6235	6235	6235	6235	6235	6235	6235	6124	6124	6124	6124	6124	6018	6018	6018	6018	6018	0	0	0	6124	6124	6235	6235	6235	6349	6349	6349	6235	6349	6349	6349	6235	6235	6124	6124	6235	6124	6235	6235	6349	6349	6349	6349	6349	6349	6235	6235	6124	6124	6124	6124	6124	6349	6124	6124	6124	6124	6124	6124	6018	6018	6018	6018	6018	6018	6018	6018	6018	6124	6235	6124	6124	6124	6124	6018	6018	6018	6018	6018	6018	6018	6018	6124	6124	6018	6018	6018	6124	6124	6235	6235	6235	6235	6235	6235	6235	6235	6235	6235	6124	6124	6124	6124	6124	6124	6124	6124	6235	6124	6124	6124	6124	6124	6124	6124	6124	6235	6235	6235	6235	6235	6235	6124	6124	6124	6124	6124	6235	6124	6124	6124	6124	0	0	0	3101	3129	3129	3129	3129	3101	3101	3101	3129	3129	3129	3129	3129	3129	3157	3157	3157	3157	3157	3157	3186	3157	3157	3157	3157	0	6235	6235	6235	6235	6235	6235	6235	6235	6235	6235	6235	6124	6124	6124	6124	6124	6124	6124	6235	6124	6235	6235	6235	6235	6235	6235	6124	6124	6124	6124	6124	6124	6124	6124	6124	6124	6124	6124	6124	6124	6124	6124	6124	6124	6124	6124	6124	6124	6124	6124	6124	6124	6124	6124	6235	6235	6235	6235	6235	6235	6124	6124	6124	6124	6124	6124	6124	6235	6235	6235	6235	6235	6235	6235	6124	6124	6124	6235	6235	6235	6124	6235	6235	6235	6124	6124	6124	6235	6235	6124	6124	6124	6124	6124	6124	6124	6124	6124	6235	6124	6124	6124	6124	6018	6018	6018	6018	6018	6124	6124	6124	6124	6124	6124	6124	6124	6124	6124	6235	6235	6349	6349	6349	6349	6235	6235	6124	6124	6124	6124	6018	6018	6124	6124	6124	6124	6124	6124	6235	6235	6235	6235	6235	6235	6235	6235	6235	6235	6235	6235	6235	6235	6349	6349	0	6468	6468	6468	6349	6349	6349	6349	6235	6235	6235	6235	6235	6235	6349	6349	6349	6349	6349	6349	6349	6349	6349	6468	6349	6349	6468	6468	6349	6349	6349	6349	6349	6235	6235	6349	6349	6468	6468	6468	6468	6468	6349	6349	6349	6235	6235	6235	6235	6235	6349	6349	6235	6349	6349	6468	6468	6468	6349	6349	6349	6235	6235	6349	6349	6349	6349	6235	6235	6235	6235	6235	6235	6235	6349	6235	6349	6349	6349	6349	6349	0	0	0	6124	6124	6124	6124	6235	6235	6349	6468	6235	6349	6235	6124	6124	6124	6124	6124	6235	6235	6235	6235	6235	6235	6235	6235	6235	6235	6235	6235	6235	6235	0	0	0	0	0	0	0	0	0	0	0	0	0	0	0	0	0	0	0	0	0	0	0	0	0	0	0	0	0	0	0	0	0	0	0	0	0	0	0	0	0	0	0	0	0	0	0
0	0	0	0	0	0	795	795	793	797	797	797	798	800	800	800	800	817	814	817	821	825	827	829	827	833	835	835	835	835	884	884	884	884	882	889	889	884	884	894	889	889	887	887	898	894	896	894	896	901	898	901	903	908	910	910	913	920	925	935	937	942	948	950	953	953	955	958	961	961	961	961	1068	1068	1068	1064	1064	1064	1064	1064	1064	1064	1064	1064	1068	1068	1068	1064	1061	1064	1068	1071	1078	1074	1078	1078	1078	1078	0	0	0	0	0	0	0	0	6124	6124	6124	6124	6235	6124	6124	6235	6124	6235	6124	6124	6124	6124	6124	6124	6124	6349	6349	6349	6349	6235	6235	6235	6235	6235	6235	6235	6235	6235	6235	6349	6235	6235	6235	6235	6349	6349	6235	6235	6235	6235	6235	6235	6235	6235	6235	6235	6235	6235	6235	6235	6235	6235	6235	6349	6349	6349	6235	6235	6235	6235	6235	6235	6124	6124	6124	6124	6124	6124	6018	6018	6018	6018	0	0	0	6235	6235	6235	6235	6235	6349	6349	6349	6235	6235	6235	6349	6235	6235	6235	6235	6235	6235	6235	6235	6349	6349	6349	6349	6349	6349	6349	6235	6235	6349	6349	6349	6349	6468	6349	6349	6235	6235	6124	6124	6018	6018	6018	6018	6018	6018	6124	6124	6124	6124	6235	6124	6124	6124	6124	6018	6018	6018	6018	6018	6018	6018	6124	6124	6124	6018	6018	6018	6124	6124	6235	6235	6235	6235	6235	6235	6235	6235	6235	6235	6124	6124	6124	6124	6124	6124	6124	6124	6235	6124	6124	6124	6124	6124	6124	6124	6124	6235	6235	6235	6235	6235	6124	6235	6124	6124	6124	6235	6235	6124	6124	6124	6124	0	0	0	3101	3101	3101	3129	3129	3101	3129	3129	3129	3129	3129	3129	3129	3129	3157	3157	3157	3157	3157	3186	3186	3186	3186	3186	3157	6124	6235	6235	6235	6235	6235	6235	6235	6235	6235	6235	6235	6124	6235	6124	6124	6235	6124	6124	6235	6235	6235	6235	6235	6235	6235	6235	6235	6124	6124	6124	6124	6124	6124	6124	6124	6124	6124	6124	6124	6124	6124	6124	6124	6124	6124	6124	6235	6235	6124	6124	6124	6235	6124	6124	6235	6235	6235	6235	6235	6235	6235	6235	6124	6124	6124	6124	6124	6235	6235	6235	6235	6235	6235	6235	6124	6124	6235	6235	6235	6235	6235	6235	6235	6235	6235	6235	6124	6235	6235	6235	6124	6124	6124	6124	6124	6124	6124	6124	6124	6124	6124	6124	6124	6018	6018	6018	6018	6124	6124	6235	6235	6124	6124	6235	6124	6124	6124	6124	6235	6349	6349	6349	6349	6349	6349	6235	6124	6124	6124	6124	6018	6018	6124	6124	6124	6124	6124	6124	6124	6235	6235	6235	6235	6235	6235	6235	6235	6235	6235	6235	6235	6349	6349	6468	6468	6468	6468	6349	6349	6349	6349	6349	6235	6235	6235	6235	6349	6349	6349	6349	6349	6349	6349	6349	6349	6349	6349	6468	6349	6468	6468	6592	6592	6468	6349	6349	6349	6349	6349	6349	6468	6468	6468	6592	6592	6592	6468	6468	6349	6349	6349	6235	6235	6235	6349	6349	6349	6349	6468	6468	6468	6468	6349	6349	6349	6349	6349	6349	6349	6349	6349	6349	6349	6349	6349	6349	6349	6349	6349	6349	6349	6235	6235	0	0	0	0	0	6124	6124	6124	6235	6349	6349	6468	6349	6235	6349	6235	6235	6235	6124	6124	6235	6235	6235	6235	6235	6235	6235	6235	6235	6235	6349	6349	6349	6349	6235	0	0	0	0	0	0	0	0	0	0	0	0	0	0	0	0	0	0	0	0	0	0	0	0	0	0	0	0	0	0	0	0	0	0	0	0	0	0	0	0	0	0	0	0	0	0	0
0	0	0	0	0	0	795	791	791	793	793	795	797	800	802	804	804	814	814	815	821	827	827	829	831	833	835	835	835	835	835	887	887	889	891	894	894	894	894	896	894	894	891	894	898	896	898	896	898	901	901	901	903	908	913	913	913	920	927	932	937	948	948	950	953	953	955	955	963	963	961	0	969	969	1068	1064	1061	1061	1061	1061	1061	1064	1064	1064	1068	1068	1064	1064	1068	1068	1074	1074	1078	1078	1078	1081	1078	1078	0	0	0	0	0	0	0	0	0	6124	6124	6124	6124	6124	6124	6235	6235	6235	6124	6124	6124	6235	6124	6124	6124	6349	6349	6349	6349	6235	6235	6235	6235	6235	6235	6235	6235	6235	6349	6349	6349	6349	6349	6349	6349	6349	6349	6349	6235	6235	6349	6235	6235	6235	6235	6235	6235	6235	6235	6235	6235	6235	6235	6349	6349	6235	6235	6235	6235	6235	6235	6235	6235	6235	6235	6235	6235	6235	6124	6124	6124	0	0	0	0	6235	6235	6235	6235	6235	6349	6349	6349	6349	6349	6235	6349	6349	6235	6235	6235	6235	6235	6235	6349	6349	6349	6349	6349	6468	6468	6349	6349	6349	6349	6468	6468	6468	6468	6468	6349	6349	6235	6235	6124	6124	6124	6124	6018	6124	6124	6124	6235	6235	6235	6235	6235	6235	6124	6124	6018	6018	6018	6018	6018	6124	6124	6124	6124	6124	6124	6018	6018	6124	6235	6235	6235	6349	6349	6349	6349	6235	6235	6235	6235	6235	6235	6235	6235	6235	6235	6124	6235	6235	6124	6124	6124	6124	6124	6124	6124	6124	6124	6235	6235	6235	6235	6235	6235	6124	6124	6124	6235	6235	6235	6235	6235	6235	0	0	0	3101	3129	3157	3157	3157	3129	3157	3157	3157	3157	3129	3129	3129	3157	3157	3157	3186	3186	3186	3186	3186	3186	3186	3186	0	6235	6235	6235	6235	6235	6235	6235	6235	6235	6235	6235	6235	6235	6235	6235	6235	6235	6235	6235	6235	6235	6235	6235	6235	6235	6235	6235	6124	6124	6124	6124	6124	6124	6124	6124	6235	6235	6235	6235	6124	6124	6124	6124	6124	6124	6124	6235	6235	6235	6235	6235	6124	6235	6124	6124	6235	6235	6235	6235	6235	6235	6235	6235	6124	6124	6124	6018	6124	6124	6124	6124	6235	6124	6124	6235	6124	6124	6235	6235	6235	6235	6235	6235	6235	6235	6235	6235	6235	6235	6235	6235	6235	6124	6124	6124	6124	6124	6124	6124	6124	6124	6124	6124	6124	6124	6124	6018	6018	6124	6124	6124	6235	6124	6124	6235	6235	6235	6235	6235	6349	6349	6349	6349	6349	6349	6349	6235	6235	6235	6124	6124	6124	6018	6124	6124	6124	6124	0	0	6235	6349	6349	6349	6349	6349	6349	6349	6349	6349	6235	6349	6349	6349	6349	6468	6468	6468	6468	6349	6349	6349	6349	6349	6235	6235	6235	6235	6235	6235	6349	6349	6349	6349	6349	6349	6349	6349	6468	6468	6468	6468	6468	6592	6592	6349	6349	6349	6349	6349	6349	6468	6468	6468	6592	6592	6592	6592	6468	6468	6468	6349	6349	6349	6349	6349	6468	6349	6349	6349	6468	6468	6468	6468	0	6349	6349	6349	6349	6349	6349	6468	6349	6468	6468	6468	6468	6468	6468	6468	6468	6468	6468	6468	6235	0	0	0	0	0	6124	6235	6235	6235	6349	6349	6349	6349	6235	6349	6235	6235	6235	6235	6235	6235	6235	6235	6235	6235	6235	6235	6235	6349	6349	6349	6349	6349	6349	0	0	0	0	0	0	0	0	0	0	0	0	0	0	0	0	0	0	0	0	0	0	0	0	0	0	0	0	0	0	0	0	0	0	0	0	0	0	0	0	0	0	0	0	0	0	0	0
0	0	0	0	0	0	0	793	793	795	797	797	797	798	800	802	804	812	814	817	823	827	827	829	831	833	835	835	837	837	843	843	889	889	889	896	896	896	896	896	896	896	896	898	903	898	901	901	901	905	901	901	903	910	913	913	917	920	925	927	940	948	948	950	953	953	955	958	963	966	966	966	969	969	0	0	1061	1061	1058	1058	1058	1061	1061	1064	1064	1064	1064	1064	1064	1068	1071	1074	1078	1078	1081	1081	1081	1081	0	0	0	0	0	0	0	0	0	6124	6124	6124	6124	6124	6124	6235	6235	6235	6235	6235	6235	6235	6235	6235	6235	6235	6349	6349	6349	6235	6235	6235	6235	6235	6235	6349	6349	6349	6349	6349	6349	6349	6349	6349	6349	6349	6349	6349	6349	6349	6349	6349	6349	6349	6349	6349	6349	6349	6349	6235	6349	6349	6349	6349	6349	6349	6349	6349	6349	6349	6349	6235	6235	6235	6235	6235	6235	6235	6235	6235	6235	0	0	0	0	6235	6235	6235	6235	6235	6349	6349	6349	6349	6349	6235	6349	6349	6235	6235	6235	6235	6235	6235	6349	6349	6349	6349	6349	6468	6468	6349	6349	6349	6349	6468	6468	6468	6468	6468	6468	6468	6349	6235	6235	6124	6124	6124	6124	6124	6124	6235	6235	6235	6349	6235	6235	6235	6124	6124	6124	6018	6018	6018	6124	6124	6124	6235	6124	6124	6124	6124	6124	6124	6235	6235	6349	6349	6349	6349	6349	6235	6235	6235	6235	6235	6235	6235	6349	6349	6349	6235	6235	6349	6235	6124	6124	6124	6124	6124	6124	6124	6235	6349	6349	6235	6235	6235	6235	6235	6235	6235	6235	6235	6235	6235	6349	6349	6468	6468	0	0	3129	3157	3157	3157	3157	3157	3157	3157	3157	3129	3129	3157	3157	3157	3186	3186	3186	3186	3186	3186	3186	3186	3186	0	6235	6235	6235	6235	6235	6349	6349	6235	6235	6235	6235	6235	6235	6235	6235	6235	6235	6235	6235	6235	6235	6235	6235	6235	6235	6235	6235	6235	6124	6124	6124	6124	6124	6124	6235	6235	6235	6235	6235	6235	6124	6124	6124	6235	6235	6235	6235	6235	6235	6235	6235	6235	6235	6235	6235	6349	6349	6235	6235	6235	6235	6235	6235	6124	6124	6124	6124	6124	6124	6124	6124	6124	6235	6235	6235	6235	6235	6235	6235	6235	6235	6235	6235	6235	6235	6235	6235	6235	6235	6235	6235	6235	6235	6235	6235	6124	6124	6124	6124	6124	6124	6124	6124	6124	6124	6124	6124	6124	6124	6235	6235	6235	6235	6235	6235	6235	6235	6235	6235	6349	6349	6349	6349	6349	6349	6349	6349	6235	6235	6124	6124	6018	6018	6018	6124	6124	6124	0	0	6235	6349	6349	6349	6349	6349	6349	6349	6349	6349	6349	6349	6468	6468	6468	6468	6468	6349	6349	6349	6349	6349	6349	6349	6349	6349	6235	6349	6349	6349	6349	6349	6349	6349	6349	6349	6349	6349	6349	6468	6468	6468	6468	6468	6592	6468	6468	6468	6468	6468	6468	6468	6468	6468	6592	6592	6592	6592	6468	6468	6468	6468	6349	6349	6349	6468	6468	6349	6468	6468	6468	6468	6468	6349	6349	6349	6349	6349	6349	6349	6349	6468	6468	6468	6468	6468	6468	6468	6468	6468	6468	6468	6468	6468	0	0	0	0	0	0	6235	6235	6235	6349	6349	6349	6468	6349	6235	6349	6235	6235	6235	6235	6235	6235	6235	6235	6235	6235	6235	6235	6235	6349	6468	6468	6468	6468	6468	0	0	0	0	0	0	0	0	0	0	0	0	0	0	0	0	0	0	0	0	0	0	0	0	0	0	0	0	0	0	0	0	0	0	0	0	0	0	0	0	0	0	0	0	0	0	0	0
0	0	0	0	0	0	0	789	791	795	797	797	795	797	798	806	810	814	814	819	823	827	827	829	829	833	835	835	837	837	843	843	848	848	898	898	898	901	898	901	901	898	903	903	903	901	903	903	901	905	901	901	905	915	915	913	917	920	927	935	942	948	948	950	950	953	958	961	963	966	969	969	974	974	0	1064	1061	1061	1061	1061	1058	1058	1061	1064	1064	1064	1064	1058	1064	1064	1068	1071	1078	1074	1081	1081	1081	1081	0	0	0	0	0	0	0	0	6124	6124	6124	6124	6124	6124	6124	6235	6235	6235	6235	6235	6235	6235	6235	6235	6235	6235	6349	6349	6349	6235	6235	6235	6235	6235	6235	6349	6349	6349	6349	6349	6349	6349	6349	6349	6349	6349	6349	6349	6349	6349	6349	6349	6349	6349	6349	6349	6349	6349	6349	6349	6349	6349	6349	6349	6349	6349	6349	6349	6349	6349	6349	6349	6235	6235	6235	6235	6235	6235	6235	6235	6235	6235	6235	6235	6235	6235	6235	6235	6235	6235	6349	6349	6349	6349	6349	6349	6349	6349	6349	6349	6349	6349	6235	6349	6349	6349	6349	6349	6349	6468	6468	6349	6349	6349	6349	6349	6349	6349	6468	6468	6468	6468	6349	6349	6235	6235	6235	6235	6124	6235	6235	6349	6349	6349	6349	6349	6235	6235	6235	6124	6124	6124	6124	6124	6124	6124	6124	6235	6235	6124	6124	6124	6235	6235	6349	6349	6468	6468	6468	6349	6349	6349	6349	6349	6349	6349	6349	6349	6349	6349	6349	6349	6349	6349	6235	6235	6235	6235	6235	6235	6235	6235	6349	6468	6349	6349	6349	6349	6349	6349	6235	6235	6349	6349	6235	6235	6349	6349	6349	6468	0	0	3157	3157	3157	3157	3157	3157	3157	3157	3157	3157	3157	3157	3157	3157	3186	3186	3186	3186	3186	3186	3186	3186	3186	0	6235	6235	6235	6349	6235	6349	6349	6235	6235	6235	6235	6235	6235	6235	6235	6235	6235	6235	6235	6235	6235	6235	6235	6235	6235	6235	6235	6235	6235	6235	6235	6124	6124	6124	6235	6235	6235	6124	6124	6235	6124	6124	6124	6235	6235	6235	6235	6349	6235	6235	6235	6235	6235	6235	6235	6349	6349	6349	6235	6349	6235	6235	6235	6235	6235	6235	6235	6235	6235	6235	6235	6235	6235	6235	6235	6235	6235	6235	6235	6235	6235	6235	6235	6235	6235	6235	6235	6235	6235	6349	6349	6235	6235	6235	6235	6124	6124	6124	6124	6124	6124	6124	6124	6124	6124	6124	6124	6124	6124	6235	6235	6235	6235	6235	6235	6235	6235	6235	6235	6349	6349	6349	6349	6349	6349	6349	6349	6349	6235	6124	6124	6124	6018	6018	6018	0	0	0	0	0	6349	6349	6349	6468	6349	6468	6468	6349	6349	6468	6468	6468	6468	6468	6468	6468	6468	6468	6349	6349	6349	6349	6349	6349	6349	6349	6349	6349	6349	6349	6349	6349	6349	6349	6349	6349	6349	6349	6468	6468	6468	6468	6468	6468	6468	6468	6468	6468	6468	6468	6468	6468	6468	6592	6592	6592	6592	6468	6468	6468	6468	6349	6349	6468	6468	6468	6468	6468	6468	6468	6468	6468	6349	6349	6349	6468	6349	6468	6468	6468	6468	6468	6468	6468	6468	6468	6468	6592	6468	6468	6468	6468	6468	6468	0	0	0	0	0	6235	6235	6235	6235	6349	6349	6349	6349	6235	6349	6235	6349	6349	6235	6235	6235	6235	6235	6235	6235	6235	0	6235	6349	6468	6720	6720	6592	6592	0	0	0	0	0	0	0	0	0	0	0	0	0	0	0	0	0	0	0	0	0	0	0	0	0	0	0	0	0	0	0	0	0	0	0	0	0	0	0	0	0	0	0	0	0	0	0	0
0	0	0	0	0	0	0	797	791	797	797	797	797	797	798	806	810	814	814	819	823	827	827	829	831	833	835	837	839	841	845	848	848	858	862	862	901	901	901	903	903	901	903	905	905	903	905	905	905	905	905	903	905	915	915	915	917	920	927	935	940	945	945	950	950	953	955	961	966	969	969	974	974	974	0	1064	1064	1061	1061	1061	1061	1061	1061	1064	1064	1064	1061	1061	1061	1064	1068	1071	1078	1078	1081	1081	1081	0	0	0	0	0	0	0	0	0	6124	6124	6124	6124	6124	6124	6124	6235	6235	6235	6349	6349	6349	6349	6235	6235	6235	6235	0	0	0	0	0	0	6235	6235	6349	6349	6349	6349	6349	6349	6349	6349	6349	6349	6349	6349	6349	6349	6349	6349	6349	6349	6349	6349	6349	6349	6235	6349	6349	6349	6349	6349	6349	6349	6349	6349	6349	6349	6349	6349	6349	6349	6349	6235	6235	6235	6235	6235	6235	6235	6235	6235	6235	6235	6235	6235	6235	6235	6235	6235	6349	6349	6349	6349	6349	6349	6349	6349	6349	6349	6349	6349	6349	6349	6349	6349	6468	6349	6468	6468	6468	6468	6468	6468	6468	6468	6468	6468	6468	6468	6468	6468	6349	6349	6235	6235	6235	6235	6235	6235	6349	6349	6349	6349	6349	6349	6349	6235	6235	6124	6124	6124	6124	6124	6124	6124	6235	6235	6235	6124	6235	6235	6235	6235	6349	6349	6468	6468	6468	6468	6468	6468	6468	6468	6468	6468	6468	6468	6468	6468	6349	6349	6349	6349	6349	6349	6349	6349	6349	6349	6349	6349	6349	6468	6468	6349	6349	6349	6349	6349	6235	6349	6349	6349	6349	6349	6349	6349	6349	0	0	0	3186	3186	3186	3157	3157	3157	3157	3157	3157	3157	3157	3157	3157	3157	3186	3186	3186	3186	3186	3186	3186	3186	3186	0	6235	6235	6349	6349	6349	6349	6349	6349	6349	6349	6349	6235	6235	6235	6235	6235	6235	6235	6235	6235	6235	6235	6235	6235	6235	6349	6235	6235	6235	6235	6235	6235	6235	6235	6235	6235	6235	6235	6124	6124	6124	6124	6124	6235	6235	6235	6349	6349	6349	6235	6235	6235	6235	6235	6235	6349	6349	6349	6235	6349	6349	6235	6235	6235	6235	6235	6235	6235	6235	6235	6235	6349	6349	6235	6235	6235	6235	6235	6235	6235	6235	6235	6235	6235	6349	6349	6349	6349	6349	6349	6349	6349	6235	6235	6235	6235	6235	6235	6235	6235	6235	6235	6235	6235	6235	6235	6235	6235	6235	6235	6349	6235	6235	6235	6349	6349	6349	6349	6349	6468	6468	6468	6468	6468	6468	6349	6349	6349	6235	6235	6124	6124	6124	6124	6018	0	0	0	0	0	6349	6349	6349	6468	6349	6468	6468	6468	6468	6468	6468	6468	6468	6468	6349	6349	6349	6468	6349	6349	6349	6349	6349	6349	6349	6349	6349	6349	6349	6349	6349	6349	6349	6349	6349	6349	6349	6468	6468	6468	6468	6468	6468	6468	6468	6468	6468	6468	6468	6468	6592	6468	6592	6592	6720	6720	6592	6468	6592	6468	6468	6468	6349	6468	6468	6468	6468	6468	6468	6468	6468	6468	6468	6468	6349	6468	6468	6468	6592	6468	6468	6468	6468	6592	6592	6592	6468	6592	6468	6468	6468	6468	6468	6468	0	0	0	0	0	0	0	6235	6235	0	6349	6349	6235	6235	6349	6235	6349	6349	6349	6235	6235	6235	6235	6235	0	0	0	0	0	0	6992	6853	6853	6592	0	0	0	0	0	0	0	0	0	0	0	0	0	0	0	0	0	0	0	0	0	0	0	0	0	0	0	0	0	0	0	0	0	0	0	0	0	0	0	0	0	0	0	0	0	0	0	0
0	0	0	0	0	0	0	795	795	795	795	797	795	795	800	810	812	814	814	815	821	825	825	829	831	831	835	839	839	843	845	848	856	858	862	860	860	860	901	903	903	903	905	905	905	905	908	908	910	910	908	910	917	917	917	917	920	920	927	932	940	945	948	950	953	953	958	961	963	966	969	972	972	974	0	1064	1061	1061	1061	1061	1061	1064	1061	1064	1064	1061	1061	1055	1064	1064	1068	1071	1074	1074	1078	1081	1081	1081	0	0	0	0	0	0	0	0	6124	6124	6124	6124	6124	6124	6235	6235	6235	6349	6349	6468	6349	6349	6349	6349	6349	6349	6349	0	0	6468	6349	6349	6349	0	6349	6349	6349	6349	6349	6349	6349	6349	6349	6349	6349	6468	6468	6349	6349	6349	6349	6349	6349	6349	6349	6349	6349	6349	6349	6349	6349	6349	6349	6349	6349	6349	6349	6349	6349	6349	6349	6349	6235	6235	6235	6235	6235	6235	6235	6235	6235	6235	6235	6349	6235	6349	6349	6349	6349	6235	6349	6349	6349	6349	6349	6349	6349	6349	6349	6349	6349	6349	6349	6349	6349	6468	6468	6468	6468	6468	6468	6468	6468	6468	6468	6468	6468	6468	6468	6468	6468	6468	6468	6349	6349	6349	6349	6235	6349	6349	6349	6349	6349	6349	6349	6349	6349	6349	6349	6235	6235	6349	6349	6235	6235	6235	6235	6349	6235	6235	6235	6235	6349	6349	6468	6468	6468	6468	6468	6468	6468	6468	6468	6468	6468	6468	6468	6468	6468	6468	6468	6468	6349	6468	6468	6468	6468	6468	6468	6468	6468	6468	6468	6468	6468	6349	6349	6349	6468	6349	6349	6468	6468	6468	6349	6349	6349	6468	6468	3277	3277	0	3186	3186	3186	3186	3157	3157	3157	3157	3157	3157	3157	3157	3157	3157	3186	3186	3186	3186	3186	3186	3186	3186	3186	0	6349	6349	6349	6349	6349	6235	6349	6349	6349	6349	6235	6235	6235	6235	6235	6235	6235	6235	6235	6349	6235	6349	6235	6349	6349	6349	6349	6235	6235	6349	6235	6235	6235	6235	6235	6235	6235	6235	6124	6124	6124	6124	6235	6235	6235	6349	6349	6468	6349	6349	6349	6349	6235	6235	6235	6349	6349	6349	6349	6349	6349	6349	6349	6349	6349	6349	6349	6349	6349	6349	6349	6349	6349	6349	6235	6235	6235	6235	6235	6349	6235	6235	6349	6349	6349	6349	6349	6349	6349	6349	6349	6349	6349	6349	6235	6235	6235	6235	6235	6235	6235	6235	6235	6349	6235	6235	6235	6235	6235	6235	6349	6235	6235	6235	6349	6349	6349	6349	6349	6468	6468	6468	6468	6468	6468	6468	6349	6349	6349	6235	6235	6235	6235	6235	6235	6235	6235	0	0	0	0	0	0	0	0	0	0	6468	6468	6468	6468	6468	6468	6468	6349	6349	6468	6468	6349	6349	6349	6349	6349	6349	6349	6349	6349	6349	6349	6349	6468	6349	6349	6349	6468	6468	6349	6349	6468	6468	6468	6468	6468	6468	6468	6468	6468	6468	6468	6468	6592	6592	6592	6592	6720	6720	6720	6592	6592	6592	6592	6468	6468	6468	6468	6468	6468	6468	6468	6468	6468	6468	6468	6468	6468	6592	6592	6592	6592	6592	6592	6592	6592	6592	6592	6592	6468	6468	6468	6468	6468	6468	6468	6468	0	0	0	0	0	0	0	0	0	0	0	6349	6235	6124	6235	6235	6349	6235	6235	6235	6235	6235	6235	0	0	0	0	0	0	0	7137	6992	6992	6992	0	0	0	0	0	0	0	0	0	0	0	0	0	0	0	0	0	0	0	0	0	0	0	0	0	0	0	0	0	0	0	0	0	0	0	0	0	0	0	0	0	0	0	0	0	0	0	0
0	0	0	0	0	0	0	797	797	797	797	797	797	798	804	812	812	814	814	814	814	827	827	829	831	831	837	837	841	843	845	850	858	860	862	862	865	865	865	905	905	905	905	908	908	908	910	913	915	913	913	917	920	920	920	920	922	922	927	932	940	945	945	950	953	953	958	961	966	969	972	974	977	977	985	985	985	1064	1064	1064	1061	1064	1064	1064	1064	1061	1061	1061	1064	1064	1068	1068	1074	1074	1074	1078	1078	1078	1081	0	0	0	0	0	0	0	0	6124	6124	6124	6235	6235	6235	6349	6349	6349	6349	6349	6349	6349	6349	6349	6349	6349	6468	6468	0	6468	6468	6468	6468	0	6349	6349	6349	6349	6349	6349	6349	6349	6349	6349	6349	6468	6468	6468	6349	6349	6349	6349	6349	6349	6349	6349	6349	6349	6349	6349	6349	6349	6349	6349	6349	6349	6349	6349	6349	6349	6349	6235	6235	6235	6235	6235	6235	6235	6235	6235	6235	6235	6235	6349	6349	6349	6349	6349	6349	6349	6349	6349	6349	6349	6349	6349	6349	6349	6468	6468	6349	6349	6468	6468	6468	6468	6468	6468	6468	6468	6468	6468	6468	6468	6468	6468	6468	6468	6468	6468	6468	6468	6468	6349	6349	6349	6349	6235	6349	6349	6349	6349	6349	6349	6349	6349	6349	6349	6349	6349	6349	6468	6468	6349	6349	6349	6349	6349	6349	6349	6349	6349	6349	6349	6468	6468	6468	6468	6468	6468	6468	6468	6468	6468	6468	6468	6468	6468	6468	6468	6468	6468	6468	6468	6468	6468	6468	6468	6468	6468	6468	6468	6468	6468	6468	6468	6468	6349	6468	6468	6468	6468	6468	6468	6468	6468	6468	3277	3277	3277	3277	3277	3216	3186	3186	3186	3157	3157	3157	3157	3157	3157	3157	3157	3157	3157	3186	3186	3186	3186	3186	3186	3186	3186	3186	3186	6349	6349	6235	6349	6349	6235	6235	6235	6235	6235	6235	6235	6235	6235	6235	6235	6235	6235	6349	6349	6349	6349	6349	6349	6349	6468	6349	6235	6235	6349	6235	6235	6235	6235	6349	6235	6235	6235	6235	6235	6235	6235	6235	6235	6235	6349	6349	6349	6349	6349	6349	6349	6349	6349	6235	6468	6349	6349	6349	6349	6468	6468	6468	6349	6349	6349	6349	6349	6349	6349	6349	6349	6349	6349	6349	6235	6235	6349	6235	6349	6349	6349	6349	6349	6468	6468	6468	6349	6349	6349	6349	6349	6349	6349	6349	6349	6349	6349	6349	6349	6349	6349	6349	6349	6349	6349	6349	6349	6349	6349	6349	6349	6349	6349	6349	6349	6349	6349	6349	6468	6468	6468	6468	6468	6468	6468	6468	6468	6468	6349	6349	6349	6349	6349	6349	6349	6349	0	0	0	0	0	0	0	0	0	0	0	6468	6468	6468	6468	6468	6468	6349	6349	6349	6349	6349	6349	6349	6349	6349	6468	6468	6349	6468	6349	6349	6468	6468	6468	6468	6468	6468	6468	6349	6349	6349	6468	6468	0	0	0	0	0	0	0	0	0	6592	6592	6592	6592	6720	6720	6720	6592	6592	6592	6592	6592	6468	6468	6468	6592	6468	6468	6468	6468	6468	6468	6468	6468	6468	6468	6592	6592	6592	6592	6592	6592	6592	6720	6592	6592	6592	6592	6592	6468	6468	6468	6468	6468	6468	0	0	0	0	0	0	0	0	0	0	0	0	6124	6235	6235	6349	6235	6235	6235	6235	6235	0	0	0	0	0	0	0	0	7137	6992	6992	6992	0	0	0	0	0	0	0	0	0	0	0	0	0	0	0	0	0	0	0	0	0	0	0	0	0	0	0	0	0	0	0	0	0	0	0	0	0	0	0	0	0	0	0	0	0	0	0	0
0	0	0	0	0	0	0	795	795	795	797	797	797	797	808	812	812	812	814	814	814	827	827	829	831	829	835	837	841	843	845	850	856	858	862	862	865	865	865	908	905	908	908	908	910	910	910	915	917	915	915	917	920	920	920	920	922	922	927	932	937	942	945	950	953	955	958	963	966	969	972	974	977	977	985	985	991	991	1064	1064	1064	1064	1061	1061	1064	1061	1061	1058	1061	1061	1064	1068	1068	1074	1078	1081	1081	1085	1085	0	0	0	0	0	0	0	0	0	6235	6235	6235	6235	6235	6349	6349	6349	6349	6235	6349	6235	6235	6235	6349	6349	6468	6468	6468	6468	6468	6468	6468	0	0	0	0	6349	6349	6349	6349	6349	6349	6349	6349	6468	6468	6468	6468	6468	6468	6468	6349	6349	6468	6349	6349	6349	6349	6349	6349	6349	6349	6349	6349	6349	6349	6349	6349	6349	6349	6235	6235	6349	6235	6235	6235	6235	6235	6235	6235	6235	6235	6349	6349	6349	6349	6349	6349	6349	6468	6468	6468	6349	6349	6349	6349	6468	6468	6468	6468	6468	6468	6468	6592	6592	6592	6468	6592	6468	6592	6592	6592	6468	6468	6468	6468	6468	6468	6468	6468	6468	6468	6468	6349	6349	6349	6349	6349	6349	6349	6349	6349	6349	6349	6349	6349	6349	6349	6349	6349	6468	6468	6468	6468	6468	6468	6468	6468	6349	6349	6349	6468	6349	6468	6468	6592	6592	6592	6468	6468	6592	6468	6468	6468	6468	6468	6468	6468	6468	6468	6468	6468	6468	6468	6468	6468	6468	6468	6592	6468	6468	6468	6468	6468	6468	6468	6468	6468	6468	6468	6468	6468	6468	6468	6468	6468	3246	3246	3246	3216	3216	3216	3186	3186	3186	3157	3157	3157	3157	3157	3157	3157	3157	3157	3157	3186	3186	3186	3186	3186	3186	3186	3186	3186	3186	0	6235	6235	6235	6235	6235	6235	6235	6349	6349	6349	6235	6349	6349	6349	6349	6349	6235	6349	6468	6349	6468	6349	6349	6468	6468	6349	6349	6235	6235	6349	6235	6235	6235	6235	6235	6235	6235	6235	6235	6235	6235	6235	6235	6349	6349	6349	6468	6349	6349	6349	6349	6349	6349	6349	6349	6468	6468	6468	6468	6468	6468	6468	6468	6349	6349	6349	6349	6349	6349	6349	6468	6468	6349	6349	6349	6349	6349	6349	6349	6349	6349	6349	6349	6468	6468	6468	6468	6468	6468	6468	6349	6349	6349	6349	6349	6349	6349	6349	6349	6349	6349	6349	6349	6349	6349	6349	6349	6349	6349	6349	6349	6349	6349	6349	6349	6349	6349	6349	6468	6468	6468	6468	6468	6468	6468	6468	6468	6468	6468	6468	6468	6349	6349	6349	6349	6349	6468	6468	0	0	0	0	0	0	0	0	0	0	0	0	6468	6468	6468	6349	6349	6349	6468	6349	6349	6468	6468	6468	6468	6468	6468	6468	6468	6468	6468	6468	6468	6468	6468	6468	6468	6468	6349	6349	0	0	0	0	0	0	0	0	0	0	0	6592	6592	6592	6720	6720	6720	6592	6592	6468	6592	6592	6592	6592	6592	6592	6592	6592	6592	6468	6468	6592	6592	6592	6468	6468	6468	6592	6592	6592	6592	6592	6592	6592	6592	6592	6592	6592	6592	6592	6468	6468	6468	6468	6468	6468	0	0	0	0	0	0	0	0	0	0	0	0	0	0	0	0	0	6235	6235	0	0	0	0	0	0	0	0	0	0	0	0	0	0	0	0	0	0	0	0	0	0	0	0	0	0	0	0	0	0	0	0	0	0	0	0	0	0	0	0	0	0	0	0	0	0	0	0	0	0	0	0	0	0	0	0	0	0	0	0	0	0
0	0	0	0	0	0	0	789	789	795	797	797	797	797	798	812	814	814	815	815	819	825	825	825	827	827	831	835	841	845	848	852	858	860	862	862	867	869	869	869	869	908	910	913	913	920	920	925	925	922	925	922	925	925	920	920	927	927	927	932	940	942	945	950	953	955	958	963	966	969	969	974	977	977	988	988	988	988	988	1068	1061	1061	1061	1064	1061	1061	1061	1061	1061	1061	1064	1064	1071	1078	1071	1071	1071	1071	1085	0	0	0	0	0	0	0	0	6235	6235	6124	6235	6235	6235	6235	6349	6349	6349	6349	6235	6235	6235	6349	6349	6349	6592	6592	6592	6720	6592	6592	6592	0	0	0	0	0	0	6349	6349	6349	6468	6468	6468	6468	6468	6468	6468	6468	6468	6468	6468	6468	6468	6468	6468	6468	6349	6349	6349	6349	6349	6349	6349	6349	6349	6349	6349	6235	6235	6235	6235	6235	6235	6235	6235	6235	6235	6235	6235	6235	6235	6349	6349	6349	6349	6468	6349	6349	6468	6468	6468	6468	6349	6349	6468	6468	6468	6468	6468	6349	6349	6592	6720	6720	6720	6592	6592	6468	6592	6592	6592	6468	6468	6468	6468	6468	6468	6468	6468	6468	6468	6468	6349	6349	6349	6349	6349	6349	6349	6349	6349	6349	6349	6349	6349	6349	6349	6468	6468	6592	6592	6592	6592	6592	6468	6468	6468	6468	6468	6468	6468	6468	6592	6592	6592	6592	6592	6592	6592	6592	6592	6592	6592	6592	6592	6468	6468	6468	6468	6468	6468	6468	6468	6468	6468	6468	6468	6592	6592	6468	6468	6468	6468	6468	6468	6468	6468	6468	6468	6468	6468	6468	6468	6468	6349	3246	3246	3246	3216	3216	3186	3186	3186	3186	3157	3157	3157	3157	3157	3157	3157	3157	3157	3157	3186	3186	3186	3186	3186	3186	3186	3186	3186	3186	3186	3186	3186	6235	6235	6235	6235	6349	6349	6468	6468	6349	6349	6349	6349	6349	6349	6349	6349	6468	6468	6468	6349	6349	6720	6468	6468	6468	6349	6349	6349	6349	6349	6349	6349	6349	6349	6235	6349	6349	6235	6235	6349	6349	6349	6349	6349	6468	6349	6349	6349	6349	6349	6349	6349	6468	6468	6468	6468	6468	6592	6592	6592	6468	6468	6468	6468	6349	6349	6349	6468	6468	6468	6468	6349	6349	6349	6349	6349	6349	6349	6349	6349	6468	6592	6592	6592	6592	6592	6592	6468	6468	6349	6349	6349	6349	6349	6349	6349	6349	6349	6349	6349	6349	6349	6349	6349	6349	6349	6349	6349	6349	6468	6349	6349	6349	6349	6349	6468	6468	6468	6468	6468	6592	6468	6468	6468	6468	6468	6349	6468	6468	6468	6349	6349	6349	6468	6468	6468	0	0	0	0	0	0	0	0	0	0	0	0	0	0	0	0	6349	6349	6468	6349	6468	6468	6468	6468	6468	6468	6468	6468	6349	6349	6468	6349	6349	6468	6468	6468	6468	6468	0	0	0	0	0	0	0	0	0	0	0	0	0	6592	6592	6592	6720	6720	6592	6592	6592	6592	6592	6592	6592	6592	6592	6592	6592	6592	6592	6592	6592	6592	6592	6592	6468	6468	6468	6592	6592	6592	6592	6592	6592	6592	6720	6592	6592	6592	6592	6592	6592	6468	6468	6468	6592	6592	0	0	0	0	0	0	0	0	0	0	0	0	0	0	0	0	0	6235	6235	0	0	0	0	0	0	0	0	0	0	0	0	0	0	0	0	0	0	0	0	0	0	0	0	0	0	0	0	0	0	0	0	0	0	0	0	0	0	0	0	0	0	0	0	0	0	0	0	0	0	0	0	0	0	0	0	0	0	0	0	0	0
0	0	0	0	0	0	789	789	789	791	797	797	797	797	797	814	814	814	815	817	821	825	825	827	829	829	831	835	841	843	848	854	858	860	862	862	865	867	869	871	871	871	871	913	917	922	922	925	927	925	927	927	927	925	922	927	930	930	930	935	937	940	942	945	950	950	958	961	963	961	966	974	983	991	991	991	991	994	994	1068	1061	1064	1064	1064	1061	1061	1061	1061	1061	1061	1064	1064	1068	1074	1074	1071	1071	1071	0	0	0	0	0	0	0	0	0	6124	6124	6124	6124	6235	6235	6235	6235	6349	6349	6235	6349	6235	6349	6349	6349	6468	6592	6720	6720	6720	6720	6592	6592	6592	6592	0	0	0	0	0	6349	6468	6468	6468	6468	6592	6592	6592	6468	6468	6468	6468	6468	6468	6468	6592	6592	6468	6468	6349	6349	6349	6349	6349	6349	6349	6468	6349	6349	6235	6235	6235	6235	6235	6235	6235	6235	6235	6235	6235	6235	6235	6235	6349	6349	6349	6468	6468	6468	6349	6468	6468	6468	6468	6468	6468	6468	6468	6468	6468	6468	6468	6468	6592	6592	6720	6720	6592	6720	6592	6720	6592	6592	6468	6468	6468	6468	6468	6468	6468	6468	6468	6468	6468	6349	6349	6349	6349	6349	6349	6349	6349	6349	6349	6349	6349	6349	6349	6349	6468	6592	6720	6720	6592	6592	6592	6468	6468	6468	6468	6468	6468	6468	6468	6592	6592	6592	6592	6592	6592	6592	6592	6592	6592	6592	6592	6592	6592	6592	6592	6468	6468	6468	6468	6468	6468	6468	6468	6468	6468	6592	6592	6468	6468	6468	6468	6468	6468	6468	6468	6468	6468	6468	3157	3186	3186	3186	3186	3246	3246	3186	3186	3186	3186	3186	3186	3157	3157	3157	3157	3157	3157	3157	3157	3157	3157	3186	3186	3186	3186	3186	3186	3186	3186	3186	3186	3186	3186	3186	3186	6235	6235	6349	6468	6468	6592	6468	6349	6349	6349	6349	6349	6349	6349	6349	6468	6468	6468	6468	6468	6468	6468	6468	6468	6468	6592	6592	6468	6468	6468	6592	6349	6349	6349	6349	6349	6349	6349	6349	6349	6468	6349	6468	6468	6349	6349	6349	6349	6349	6349	6349	6592	6592	6592	6468	6592	6592	6592	6592	6592	6468	6592	6468	6468	6468	6349	6468	6468	6468	6349	6349	6349	6349	6349	6349	6349	6349	6349	6468	6468	6592	6592	6720	6592	6592	6720	6592	6592	6468	6468	6468	6468	6468	6468	6349	6349	6349	6349	6349	6349	6349	6349	6349	6349	6349	6349	6349	6468	6468	6349	6349	6349	6349	6349	6468	6592	6592	6468	6592	6592	6592	6592	6592	6592	6592	6468	6468	6468	6468	6468	6468	6468	6468	6468	6349	6349	0	0	0	0	0	0	0	0	0	0	0	0	0	0	0	0	0	0	0	6468	6468	6468	6592	6592	6468	6468	6468	6468	6349	6349	6349	6349	6468	6468	0	0	0	0	0	0	0	0	0	0	0	0	0	0	0	0	6592	6592	6592	6592	6720	6720	6592	6592	6592	6592	6592	6592	6468	6592	6592	6720	6720	6720	6720	6720	6720	6592	6592	6468	6468	6468	6592	6592	6592	6592	6592	6720	6592	6720	6592	6592	6592	6592	6592	6468	6468	6592	6468	6592	6592	0	0	0	0	0	0	0	0	0	0	0	0	0	0	0	0	0	0	0	0	0	0	0	0	0	0	0	0	0	0	0	0	0	0	0	0	0	0	0	0	0	0	0	0	0	0	0	0	0	0	0	0	0	0	0	0	0	0	0	0	0	0	0	0	0	0	0	0	0	0	0	0	0	0	0	0	0	0	0	0	0
0	0	0	0	0	0	789	791	791	791	797	797	795	797	797	815	815	815	815	817	819	823	825	829	829	829	833	835	841	843	848	856	858	860	862	862	865	867	869	871	873	873	873	873	925	925	925	927	930	927	930	930	927	927	925	927	927	930	930	935	940	940	942	945	953	953	958	958	958	961	963	974	988	991	991	991	991	994	994	0	0	1058	1058	1058	1058	1061	1058	1061	1058	1061	1064	1064	1071	1071	1071	1071	1071	1071	0	0	0	0	0	0	0	0	0	6235	6235	6124	6235	6235	6235	6235	6235	6349	6349	6349	6349	6349	6468	6468	6468	6468	6720	6720	6720	6592	6592	6592	6592	6592	6592	6592	6592	0	0	0	0	6468	6468	6592	6592	6592	6592	6592	6592	6592	6592	6468	6468	6468	6468	6592	6592	6468	6468	6349	6349	6468	6468	6468	6349	6468	6468	6349	6235	6235	6235	6235	6235	6235	6235	6235	6235	6235	6235	6235	6235	6349	6349	6349	6349	6468	6592	6468	6468	6468	6468	6592	6720	6592	6592	6592	6468	6468	6592	6468	6468	6468	6592	6720	6720	6720	6720	6720	6720	6720	6720	6720	6720	6468	6468	6592	6592	6592	6468	6468	6592	6592	6592	6468	6468	6468	6468	6349	6349	6349	6349	6349	6349	6349	6349	6349	6349	6349	6349	6468	6592	6720	6720	6592	6592	6592	6468	6468	6468	6468	6468	6468	6468	6468	6592	6592	6592	6592	6592	6592	6592	6592	6592	6592	6592	6592	6592	6592	6592	6592	6468	6468	6468	6468	6468	6468	6468	6468	6468	6592	6592	6592	6592	3186	3186	3186	3186	3186	6468	6468	6468	3157	3157	3157	3186	3186	3186	3186	3186	3216	3186	3186	3186	3186	3186	3186	3157	3157	3157	3157	3157	3157	3157	3157	3157	3157	3186	3186	3186	3186	3186	3186	3186	3186	3186	3186	3186	3186	3186	3186	3186	0	6349	6468	6592	6592	6468	6468	6349	6349	6349	6349	6592	6592	6349	6592	6592	6592	6592	6592	6592	6592	6592	6592	6592	6592	6592	6468	6592	6592	6720	6720	6720	6592	6349	6349	6349	6349	6468	6468	6349	6349	6349	6468	6468	6349	6349	6349	6468	6468	6468	6592	6592	6592	6592	6592	6592	6592	6592	6592	6592	6592	6592	6468	6468	6468	6468	6468	6468	6468	6468	6349	6349	6349	6349	6349	6468	6468	6468	6592	6592	6720	6720	6592	6592	6592	6592	6468	6349	6349	6349	6349	6349	6349	6349	6349	6349	6349	6349	6349	6349	6349	6349	6349	6468	6349	6349	6468	6468	6349	6349	6349	6349	6468	6468	6592	6592	6592	6592	6592	6592	6592	6592	6592	6592	6592	6720	6720	6592	6468	6468	6468	6468	6468	6349	6349	0	0	0	0	0	0	0	0	0	0	0	0	0	0	0	0	0	0	0	0	0	0	6592	6592	6468	6468	6468	6468	6349	6349	6349	0	0	0	0	0	0	0	0	0	0	0	0	0	0	0	0	0	0	6720	6592	6592	6592	6592	6720	6720	6720	6720	6592	6720	6592	6592	6592	6592	6592	6720	6720	6720	6720	6720	6720	6592	6592	6592	6592	6592	6592	6592	6720	6720	6720	6720	6720	6720	6592	6592	6592	6592	6468	6468	6468	6468	6468	6468	6592	0	0	0	0	0	0	0	0	0	0	0	0	0	0	0	0	0	0	0	0	0	0	0	0	0	0	0	0	0	0	0	0	0	0	0	0	0	0	0	0	0	0	0	0	0	0	0	0	0	0	0	0	0	0	0	0	0	0	0	0	0	0	0	0	0	0	0	0	0	0	0	0	0	0	0	0	0	0	0	0	0
0	0	0	0	0	0	789	791	791	791	793	793	793	795	795	814	814	814	815	815	815	819	825	829	829	831	833	835	837	839	845	854	858	860	862	862	867	867	869	871	871	871	873	873	927	930	927	927	932	932	932	930	930	930	930	930	932	930	932	937	942	942	945	948	955	955	958	963	963	961	969	974	988	991	994	991	994	994	994	997	997	1058	1058	1058	1058	1058	1061	1061	1058	1061	1064	1068	1071	1071	1071	1068	1068	1071	0	0	0	0	0	0	0	0	6124	6124	6124	6124	6235	6235	6235	6235	6235	6349	6349	6349	6349	6349	6468	6468	6468	6592	6720	6720	6720	6592	6592	6592	6592	6592	6592	6592	6592	6592	0	0	0	0	0	6592	6592	6592	6592	6592	6592	6592	6592	6592	6592	6468	6592	6592	6592	6468	6468	6468	6349	6468	6468	6468	6468	6592	6592	6468	6349	6235	6235	6235	6235	6235	6235	6349	6349	6349	6235	6235	6235	6235	6349	0	0	6349	6592	6468	6592	6468	6468	6592	6592	6592	6720	6592	6592	6468	6592	6468	6468	6468	6592	6720	6720	6720	6853	6720	6720	6720	6720	6720	6720	0	0	6592	6592	6592	6592	6592	6720	6592	6592	6468	6468	6468	6468	6349	6349	6349	6468	6468	6468	6349	6349	6349	6468	6468	6468	6468	6592	6720	6720	6720	6592	6592	6468	6468	6468	6468	6468	6468	6468	6468	6592	6592	6592	6592	6592	6592	6592	6592	6592	6592	6592	6592	6592	6592	6592	6592	6468	6468	6468	6468	6468	6468	6468	6592	6468	6468	6592	3186	3186	3186	3186	3186	3157	3157	3186	3186	3186	3157	3157	3186	3186	3186	3186	3186	3186	3186	3186	3186	3186	3186	3186	3186	3157	3157	3157	3157	3157	3157	3157	3157	3157	3157	3157	3186	3186	3186	3186	3186	3186	3216	3186	3186	3186	3186	3186	3186	3186	3216	3216	6468	6720	6720	3186	3186	3186	6349	6349	6349	6592	6592	6720	6720	6720	6720	6720	6592	6592	6468	6592	6592	6720	6592	6592	6592	6592	6592	6720	6592	6592	6592	6592	6468	6468	6468	6468	6468	6468	6468	6468	6468	6468	6349	6468	6468	6468	6468	6468	6468	6592	6592	6592	6592	6592	6592	6720	6720	6592	6720	6720	6592	6592	6592	6592	6468	6468	6468	6468	6468	6468	6349	6349	6468	6468	6468	6468	6592	6592	6592	6592	6592	6592	6468	6592	6592	6468	6468	6468	6468	6468	6468	6468	6349	6349	6349	6349	6349	6349	6349	6349	6349	6468	6468	6468	6468	6468	6468	6468	6349	6468	6468	6468	6592	6592	6592	6592	6720	6592	6720	6720	6592	6720	6853	6720	6720	6720	6592	6592	6468	6468	6468	6349	6349	0	0	0	0	0	0	0	0	0	0	0	0	0	0	0	0	0	0	0	0	0	0	0	0	0	0	0	0	0	0	0	0	0	0	0	0	0	0	0	0	0	0	0	0	0	0	0	0	0	6720	6720	6592	6592	6720	6720	6720	6720	6720	6720	6720	6592	6592	6592	6720	6720	6720	6853	6853	6853	6720	0	0	6592	6592	6592	6592	6592	6720	6720	6853	6853	6720	6720	6720	6720	6592	6592	6592	6468	6468	6468	6468	6468	6468	0	0	0	0	0	0	0	0	0	0	0	0	0	0	0	0	0	0	0	0	0	0	0	0	0	0	0	0	0	0	0	0	0	0	0	0	0	0	0	0	0	0	0	0	0	0	0	0	0	0	0	0	0	0	0	0	0	0	0	0	0	0	0	0	0	0	0	0	0	0	0	0	0	0	0	0	0	0	0	0	0	0
0	0	0	0	0	0	791	791	791	791	793	793	793	795	797	797	797	815	817	819	821	823	825	825	829	831	831	835	835	839	845	854	858	860	862	865	867	869	869	871	871	873	873	878	878	878	935	935	935	935	935	935	932	932	935	935	937	937	937	945	948	942	948	953	958	958	961	963	963	961	969	974	988	991	991	991	994	997	997	997	997	0	0	1058	1055	1055	1058	1061	1058	1061	1064	1068	1068	1068	1068	1068	1068	0	0	0	0	0	0	0	0	0	6124	6124	6124	6124	6124	6235	6235	6235	6235	6349	6349	6349	6349	6349	6468	6468	6468	6592	6720	6720	6720	6592	6592	6592	6592	6592	6592	6592	6720	6720	6720	0	6720	6720	0	6720	6720	6720	6592	6592	6592	6592	6720	6720	6720	6592	6720	6720	6720	6592	6468	6468	6468	6468	6468	6468	6468	6592	6592	6468	6349	6349	6235	0	6235	6235	6235	6349	6349	6349	6235	6235	6235	6235	0	0	0	6349	6592	6468	6592	6349	6592	6592	6592	6592	6720	6720	6720	6720	0	0	0	0	0	0	0	6720	6853	6720	6853	6853	0	0	0	0	0	0	6592	6468	6468	6468	6592	6592	6592	6468	6468	6592	6592	6468	6468	6468	6468	6468	6468	6468	6468	6468	6468	6468	6468	6468	6592	6720	6720	6720	6720	6592	6592	6468	6468	6468	6468	6468	6468	6468	6468	6592	6592	6592	6592	6592	6592	6592	6592	6592	6720	6592	6592	6592	6592	6592	6592	6468	6468	6468	6468	6468	6468	6468	6468	3246	3186	3186	3186	3186	3186	3186	3186	3186	3186	3186	3186	3186	3186	3186	3186	3186	3186	3186	3186	3186	3186	3186	3186	3157	3157	3157	3157	3157	3157	3157	3157	3157	3157	3157	3157	3157	3186	3186	3186	3186	3186	3216	3216	3216	3186	3186	3186	3186	3186	3186	3186	3216	3186	3186	3186	3186	3186	3186	3186	3186	3186	0	0	0	6720	6720	6720	6720	6720	6720	6592	6592	6720	6720	6720	6720	6592	6592	6592	6720	6720	6592	6592	6592	6592	6592	6592	6592	6592	6592	6468	6468	6468	6468	6468	6468	6468	6468	6592	6468	6468	6468	6592	6592	6592	6592	6592	6592	6720	6720	6720	6720	6720	6592	6592	6592	6592	6468	6468	6468	6468	6468	6468	6349	6349	6468	6592	6468	6468	6468	6592	6592	6853	6592	6468	6468	6592	6592	6468	6468	6468	6468	6468	6468	6468	6349	6349	6349	6349	6349	6349	6349	6468	6468	6468	6468	6468	6468	6468	6468	6468	6349	6468	6468	6468	6592	6592	6592	6592	6720	6720	6720	6853	6853	6853	6853	6853	6853	6720	6720	6720	6592	6468	6468	6349	6349	0	0	0	0	0	0	0	0	0	0	0	0	0	0	0	0	0	0	0	0	0	0	0	0	0	0	0	0	0	0	0	0	0	0	0	0	0	0	0	0	0	0	0	0	0	0	6720	6720	6720	6720	6720	6720	6720	6720	6720	6720	6720	6720	6720	6720	6592	6592	6592	6592	6592	6720	6720	6720	6853	0	0	0	0	0	6592	6592	6592	6720	6592	6720	6720	6720	6592	6720	6592	6592	6592	6468	6468	6468	6468	0	0	0	0	0	0	0	0	0	0	0	0	0	0	0	0	0	0	0	0	0	0	0	0	0	0	0	0	0	0	0	0	0	0	0	0	0	0	0	0	0	0	0	0	0	0	0	0	0	0	0	0	0	0	0	0	0	0	0	0	0	0	0	0	0	0	0	0	0	0	0	0	0	0	0	0	0	0	0	0	0	0	0	0	0
0	0	0	0	0	0	793	791	791	791	795	795	795	795	797	798	817	819	821	821	821	823	823	833	833	833	835	837	837	839	848	854	858	858	862	862	865	867	869	871	873	873	878	878	878	878	935	935	937	937	937	948	948	945	940	940	940	942	942	945	948	945	948	958	961	958	961	961	963	963	963	972	983	988	991	991	994	994	997	997	997	0	1042	1042	1048	1048	1048	1061	1055	1061	1061	1068	1068	1064	1064	1064	1068	0	0	0	0	0	0	0	0	6124	6124	6124	6124	6124	6124	6235	6235	6235	6235	6235	6349	6235	6349	6349	6349	6468	6468	6592	6720	6720	6720	6720	6720	6720	6720	6720	6720	6720	6720	6720	6720	6720	6720	6720	6720	6720	6720	6720	6720	6720	6592	6720	6720	6720	6720	6592	6592	6720	6592	6592	6468	6468	6468	6592	6592	6592	6592	6592	6720	6720	6720	6349	0	0	0	0	0	0	0	0	0	0	0	0	0	0	0	0	0	0	0	6468	6468	6720	6720	6720	6853	6853	6853	6720	0	0	0	0	0	0	0	0	0	0	6853	6853	0	0	0	0	0	0	0	6468	6592	6592	6720	6592	6592	6592	6468	6592	6592	6468	6468	6592	6592	6592	6468	6468	6468	6468	6468	6468	6468	6468	6592	6720	6720	6720	6720	6592	6592	6592	6468	6468	6468	6468	6592	6592	6720	6720	6592	6592	6592	6592	6592	6592	6592	6592	6720	6592	6592	6592	6592	6592	6592	6468	6468	6468	6468	6468	6468	6468	6468	3246	3216	3216	3186	3186	3186	3186	3186	3186	3186	3186	3186	3186	3186	3186	3186	3186	3186	3186	3186	3186	3186	3186	3157	3157	3157	3157	3157	3157	3157	3157	3157	3157	3157	3157	3157	3157	3186	3186	3186	3186	3186	3186	3216	3186	3186	3186	3186	3186	3186	3186	3186	3216	3186	3216	3186	3186	3186	3186	3186	3186	3216	3216	3216	0	0	6720	3216	3216	6720	6468	6468	6720	6720	6720	6720	6720	6720	6592	6720	6720	6592	6592	6592	6592	6592	6592	6592	6592	6592	6592	6592	6592	6592	6592	6592	6592	6592	6592	6592	6592	6468	6592	6592	6592	6592	6592	6592	6592	6592	6720	6720	6720	6720	6592	6592	6592	6592	6592	6592	6468	6468	6592	6468	6468	6468	6468	6592	6592	6592	6592	6592	6720	6720	6592	6592	6592	6592	6720	6592	6468	6468	6468	6468	6468	6468	6349	6468	6468	6468	6468	6468	6468	6592	6592	6592	6592	6468	6468	6468	6468	6468	6468	6468	6468	6468	6592	6592	6592	6592	6720	6720	6720	6720	6720	6853	6853	6853	6853	6720	6720	6720	6720	6468	6468	0	0	0	0	0	0	0	0	0	0	0	0	0	0	0	0	0	0	0	0	0	0	0	0	0	0	0	0	0	0	0	0	0	0	0	0	0	0	0	0	0	0	0	0	0	0	0	6720	6720	6720	6720	6720	6720	6720	6720	6853	6853	6853	6720	6720	6720	6720	6720	6592	6592	6592	6592	6720	6720	6853	6853	0	0	0	0	0	0	6592	6592	6720	6720	6720	6720	6720	6720	6720	6592	6592	6592	6592	6592	0	0	0	0	0	0	0	0	0	0	0	0	0	0	0	0	0	0	0	0	0	0	0	0	0	0	0	0	0	0	0	0	0	0	0	0	0	0	0	0	0	0	0	0	0	0	0	0	0	0	0	0	0	0	0	0	0	0	0	0	0	0	0	0	0	0	0	0	0	0	0	0	0	0	0	0	0	0	0	0	0	0	0	0	0	0	0
0	0	0	0	0	0	795	791	793	795	797	795	797	797	797	798	798	819	821	821	821	823	823	829	831	833	835	835	837	837	848	854	858	858	862	862	865	869	871	871	873	878	880	880	894	894	898	896	896	896	950	950	948	948	942	942	942	945	942	948	955	948	961	961	961	961	961	963	963	963	969	974	977	988	991	991	994	997	1000	1003	1003	1026	1042	1042	1042	1045	1042	1058	1055	1064	1064	1068	1068	1064	1064	1064	0	0	0	0	0	0	0	0	0	6124	6124	6124	6124	6124	6124	6235	6235	6235	6235	6235	6349	6349	6349	6468	6468	6592	6468	6592	6720	6720	6720	6592	6592	6720	6720	6720	6720	6720	6720	6720	6720	6720	6720	6720	6720	6720	6720	6720	6720	6720	6720	6720	6720	6720	6720	6720	6720	6720	6720	6592	6592	6592	6592	6592	6592	6592	6592	6592	6720	6720	6720	0	0	0	0	0	0	0	0	0	0	0	6720	6720	0	0	0	0	0	0	0	6592	6592	6720	6853	6720	6853	6853	6853	6853	0	0	0	0	0	0	0	0	0	0	0	0	0	0	0	0	0	0	0	0	6592	6720	6720	6720	6720	6592	6592	6720	6720	6720	6720	6720	6720	6720	6592	6592	6592	6468	6468	6468	6468	6468	6592	6592	6592	6592	6592	6592	6592	6592	6468	6592	6592	6592	6592	6592	6853	6853	6720	6592	6592	6592	6592	6592	6592	6592	6720	6720	6720	6720	6720	6720	0	0	6468	6468	6468	6468	6468	6592	3246	3246	3216	3186	3186	3186	3186	3186	3186	3157	3186	3186	3186	3157	3186	3186	3186	3186	3186	3186	3186	3186	3157	3157	3157	3157	3157	3157	3157	3157	3157	3157	3157	3157	3157	3157	3157	3157	3186	3186	3186	3186	3186	3186	3186	3186	3186	3186	3186	3186	3186	3186	3186	3216	3216	3216	3216	3186	3186	3186	3186	3186	3216	3216	3216	0	0	3216	3216	3216	0	6468	6468	6592	6720	6720	6720	6720	6720	6592	6720	6720	6592	6592	6592	6720	6720	6720	6720	6720	6592	6592	6592	6592	6592	6592	6592	6592	6592	6592	6592	6592	6592	6592	6720	6592	6592	6592	6592	6592	6592	6720	6720	6720	6720	6592	6592	6592	6592	6592	6592	6468	6468	6592	6592	6468	6468	6592	6720	6592	6592	6592	6592	6720	6720	6592	6592	6592	6592	6592	6720	6468	6592	6468	6468	6468	6468	6468	6468	6468	6468	6468	6468	6592	6592	6592	6592	6592	6468	6468	6468	6468	6468	6468	6468	6468	6468	6468	6592	6592	6720	6720	6720	6720	6720	6720	6853	6853	6853	6853	6853	6720	6720	6720	0	0	0	0	0	0	0	0	0	0	0	0	0	0	0	0	0	0	0	0	0	0	0	0	0	0	0	0	0	0	0	0	0	0	0	0	0	0	0	0	0	0	0	0	0	0	0	0	0	6720	6720	6720	6720	6720	6720	6720	6720	6853	6992	6992	6853	6992	6992	6853	6720	6720	6720	6720	6720	6853	6853	6992	6992	6992	0	0	0	0	0	6592	6720	6853	6720	6720	6720	6720	6720	6720	6720	6592	6592	6592	6592	0	0	0	0	0	0	0	0	0	0	0	0	0	0	0	0	0	0	0	0	0	0	0	0	0	0	0	0	0	0	0	0	0	0	0	0	0	0	0	0	0	0	0	0	0	0	0	0	0	0	0	0	0	0	0	0	0	0	0	0	0	0	0	0	0	0	0	0	0	0	0	0	0	0	0	0	0	0	0	0	0	0	0	0	0	0	0
0	0	0	0	0	0	797	793	793	795	797	797	797	797	798	798	810	815	819	819	821	821	821	829	831	833	835	837	837	837	839	850	854	856	860	862	865	869	871	873	875	880	889	889	894	894	898	896	896	896	953	953	950	950	950	948	948	948	948	958	961	961	961	963	963	961	963	966	966	969	972	977	980	988	991	991	994	994	1000	1006	1014	1026	1026	1039	1036	1039	1039	1055	1055	1058	1068	1068	1068	1064	1064	1064	0	0	0	0	0	0	0	0	0	6124	6124	6124	6124	6124	6235	6235	6235	6235	6235	6349	6349	6349	6349	6468	6592	6592	6468	6592	6720	6720	6592	6592	6592	6720	6720	6720	6720	6720	6720	6720	6720	6720	6720	6720	6720	6720	6720	6720	6720	6720	6720	6720	6720	6720	6720	6720	6720	6720	6720	6720	6592	6592	6592	6720	6720	6720	6720	6720	6720	6720	0	0	0	0	0	0	0	0	6992	6853	6853	6720	6720	6853	6853	0	0	0	0	0	0	6592	6592	6853	6853	6853	6853	6853	6853	6853	6853	0	0	0	0	0	0	0	0	0	0	0	0	0	0	0	0	0	0	0	0	6720	6720	6592	6592	6592	6592	6720	6720	6592	6592	6720	6720	6720	6592	6592	6592	6592	6592	6592	6468	6592	6592	6592	6592	6720	6592	6592	6592	6592	6592	6592	6592	6592	6720	6720	6853	6853	6720	6720	6720	6720	6720	6720	6592	6720	6720	6720	6720	6720	6720	6720	0	0	0	0	0	0	6468	3216	3216	3216	3186	3186	3186	3186	3186	3186	3186	3186	3186	3186	3186	3186	3186	3186	3186	3186	3186	3157	3157	3186	3157	3157	3157	3157	3157	3157	3157	3157	3157	3157	3157	3157	3157	3157	3157	3157	3186	3186	3186	3186	3186	3186	3186	3186	3186	3186	3186	3186	3186	3186	3216	3216	3216	3216	3216	3216	3186	3186	3186	3186	3216	3216	3216	3216	3216	3216	3216	3216	3216	6468	6720	6720	6720	6720	6720	6720	6720	6720	6720	6592	6592	6592	6592	6720	6592	6720	6720	6720	6720	6592	6592	6720	6720	6720	6720	6720	6720	6720	6720	6720	6592	6592	6720	6720	6592	6592	6592	6592	6720	6720	6720	6720	6720	6592	6592	6592	6592	6592	6592	6592	6592	6720	6720	6720	6720	6720	6720	6720	6720	6592	6592	6592	6592	6592	6468	6468	6468	6592	6592	6592	6592	6592	6592	6592	6592	6468	6592	6592	6592	6592	6592	6592	6720	6720	6720	6720	6592	6592	6592	6592	6592	6468	6468	6468	6592	6720	6592	6592	6720	6720	6720	6720	6720	6720	6853	6853	6853	6853	6853	6853	6853	6853	0	0	0	0	0	0	0	0	0	0	0	0	0	0	0	0	0	0	0	0	0	0	0	0	0	0	0	0	0	0	0	0	0	0	0	0	0	0	0	0	0	0	0	0	0	0	0	0	0	6720	6592	6592	6720	6720	6853	6853	6992	6992	6992	6992	6992	6992	6992	6992	6853	6853	6853	6853	6853	6853	6992	6853	6853	6992	0	0	0	0	0	6592	6720	6720	6720	6720	6720	6720	6720	6720	6853	6720	6720	0	0	0	0	0	0	0	0	0	0	0	0	0	0	0	0	0	0	0	0	0	0	0	0	0	0	0	0	0	0	0	0	0	0	0	0	0	0	0	0	0	0	0	0	0	0	0	0	0	0	0	0	0	0	0	0	0	0	0	0	0	0	0	0	0	0	0	0	0	0	0	0	0	0	0	0	0	0	0	0	0	0	0	0	0	0	0	0	0
