0	0	0	0	0	0	0	0	0	0	0	0	0	0	0	0	0	0	0	0	0	0	0	0	0	0	0	0	0	0	0	0	0	0	0	0	0	0	0	0	0	0	0	0	0	0	0	0	0	0	0	0	0	0	0	0	0	0	0	0	0	0	0	0	0	0	0	0	0	0	0	0	0	0	0	0	0	0	0	0	0	0	0	0	0	0	0	4463	4463	4463	4463	4463	4406	4406	4406	4350	4350	4350	4350	4350	4406	4350	4350	4350	4406	4406	4463	4463	4463	4463	4463	4463	4463	4463	4521	4521	4521	4643	4643	4581	4643	4643	4643	0	0	0	0	0	5125	5125	5125	5125	5125	5125	5125	5125	5125	5125	5125	5125	5125	5125	5125	5125	5125	5202	5202	5202	5282	5202	5282	5202	5202	5202	5202	5202	5202	5282	5364	5364	5448	5535	5535	5535	5626	5626	5719	5719	5815	5719	5719	5719	5815	5815	5815	5815	5815	5815	5815	5815	5815	5815	5815	5915	5915	5915	5915	5915	5815	5815	5815	5815	5815	5815	5815	5815	5815	5719	5815	5815	5815	5815	5915	5915	6018	6018	5915	5915	5915	5915	5915	5915	5915	5915	5915	6018	6018	5915	5915	6018	6018	5915	5915	5915	5915	5915	6018	6018	6018	6018	6018	6018	6018	6018	6018	6018	6018	6018	5915	5915	5915	5815	5815	5815	5915	5915	5915	5915	5915	5915	5915	5915	5915	5915	5915	5915	5815	5815	5915	5915	5915	5915	5915	6018	5915	5915	5915	5915	5815	5915	5815	6018	6018	6018	6124	6124	6124	6124	6018	6018	6018	6018	6018	6018	6018	6018	6018	6018	6018	6018	6018	6018	6018	6018	6018	5915	5915	5915	5915	5915	5915	5915	5915	5915	5915	5915	5915	5915	5915	5915	5915	5915	5915	5915	6018	6018	5915	6018	6018	6018	6018	6018	6018	6018	6124	6018	6018	6018	6018	6018	6018	6018	6018	6018	6018	6018	6018	6018	5915	6018	6018	6018	6124	6124	6018	6018	6018	6018	6018	5915	5915	5915	6018	5915	6018	5915	6018	6018	6018	6018	5915	6018	6018	5915	5915	5915	5915	6018	6018	5915	5915	5915	6018	6018	6018	6018	6124	6124	6124	6124	6124	6124	6124	6124	6018	6018	6018	6124	6124	6235	6124	6124	6124	6124	6124	6018	5915	5915	5915	5915	5915	6018	6018	6018	6018	6018	6018	6124	6124	6018	6018	6018	6018	6018	6018	6018	6018	6124	6018	6124	6124	6018	6018	6018	6018	6018	6018	6124	6124	6235	6235	6235	6349	6349	6349	6235	6349	6235	6235	6124	6124	6124	6124	6124	6018	6124	6124	6124	6124	6124	6124	6124	6124	6124	6124	6124	6124	6018	6018	6018	6018	6018	6124	6124	6124	6124	6235	6349	6235	6349	6349	6349	6349	6349	6349	6349	6235	6235	6235	6235	6235	6349	6235	6124	6124	6349	6349	6349	6349	6235	6349	6349	6235	6235	6235	6235	6235	6235	6235	6235	6235	6235	6349	6235	6235	6349	6349	6349	6349	6235	6349	6349	6349	6349	6349	6349	6349	6349	6349	6349	6235	6235	6235	6124	6235	6124	6235	6235	6349	6349	6349	6235	6349	6349	6349	6349	6235	6235	6235	6124	6124	6124	6235	6235	6235	6235	6235	6349	6349	6235	6235	6349	6349	6349	6349	6235	6349	6235	6349	6349	6235	6235	6235	6349	6349	6349	6468	6349	6349	6349	6235	6235	6235	6235	6235	6235	6349	6349	6349	6349	6349	6349	6235	6235	6235	6124	6124	6124	6124	6124	6124	6124	6124	6124	6124	6124	6018	6124	5915	5915	6018	5915	5915	6124	6235	6235	0	0	0	0	0	0	0	0	0	0	0	0	0	0	0	0	0	0	0	0	0	0	0	0	0	0	0	0	0	0	0	0	0	0
0	0	0	0	0	0	0	0	0	0	0	0	0	0	0	0	0	0	0	0	0	0	0	0	0	0	0	0	0	0	0	0	0	0	0	0	0	0	0	0	0	0	0	0	0	0	0	0	0	0	0	0	0	0	0	0	0	0	0	0	0	0	0	0	0	0	0	0	0	0	0	0	0	0	0	0	0	0	0	0	0	0	0	0	0	0	0	4463	4463	4463	4463	4463	4406	4406	4406	4406	4350	4350	4350	4350	4406	4406	4406	4406	4463	4463	4463	4463	4463	4521	4463	4463	4463	4463	4521	4521	4521	0	4581	4581	4581	4581	0	0	0	0	0	0	5125	5125	5125	5125	5125	5125	5125	5125	5125	5125	5125	5125	5125	5125	5125	5125	5125	5202	5202	5202	5202	5202	5282	5202	5202	5202	5202	5202	5202	5282	5282	5364	5364	5448	5535	5535	5626	5719	5719	5815	5815	5815	5815	5815	5915	5915	5915	5915	5815	5815	5915	5815	5815	5815	5815	5915	5915	5915	5915	5915	5915	5915	5815	5815	5815	5815	5815	5815	5815	5719	5815	5815	5815	5815	5915	6018	6018	6018	6018	6018	6018	6018	6018	6018	6018	5915	6018	6018	6018	6018	6018	6018	6018	6018	5915	5915	5915	5915	6018	6018	6018	6018	6018	6018	6018	6018	6018	6018	6018	6018	6018	6018	5915	5915	5915	5915	5915	5915	5915	5915	5915	5915	5915	5915	5915	5915	5915	5915	5815	5915	6018	6018	6018	6018	6018	6018	6018	5915	5915	5915	5915	5915	5915	6018	6018	6018	6124	6124	6124	6124	6018	6018	6018	6018	6018	6018	6018	6018	6018	6018	6018	6018	6018	6018	6018	6018	6018	6018	6018	6018	6018	6018	6018	5915	6018	5915	5915	5915	5915	5915	5915	5915	5915	5915	6018	5915	6018	6018	6018	6018	6124	6018	6018	6018	6018	6018	6124	6018	6018	6018	6018	6018	6018	6018	6018	6018	6018	6018	6018	6018	6018	6018	6018	6018	6124	6124	6124	6018	6124	6124	6018	6018	5915	5915	5915	5915	5915	5915	6018	6018	6018	6018	6018	6018	6018	6018	5915	6018	5915	6018	6018	6018	6018	6018	6124	6124	6018	6124	6124	6124	6124	6124	6235	6124	6124	6124	6124	6124	6124	6124	6235	6235	6124	6124	6124	6124	6124	6124	6124	6124	6018	6018	6018	6018	6018	6018	6018	6018	6018	6124	6124	6124	6018	6018	6018	6018	6124	6124	6124	6124	6124	6124	6124	6124	6018	6018	6018	6018	6124	6124	6235	6235	6349	6349	6349	6349	6349	6349	6349	6349	6349	6235	6235	6235	6235	6235	6124	6235	6124	6124	6124	6235	6124	6124	6124	6124	6124	6235	6124	6124	6018	6018	6018	6124	6124	6124	6235	6235	6349	6349	6349	6349	6349	6349	6349	6349	6349	6349	6349	6235	6349	6349	6124	6349	6349	6124	6235	6468	6468	6349	6468	6349	6349	6349	6235	6235	6349	6349	6349	6349	6349	6235	6235	6349	6349	6349	6349	6349	6349	6468	6468	6349	6468	6468	6468	6349	6349	6349	6349	6349	6349	6349	6235	6235	6235	6124	6235	6124	6349	6235	6349	6468	6349	6235	6349	6235	6349	6349	6349	6349	6349	6235	6235	6235	6349	6349	6349	6235	6349	6349	6349	6235	6235	6349	6349	6349	6349	6235	6349	6349	6349	6349	6349	6349	6349	6349	6349	6349	6468	6349	6349	6235	6235	6235	6235	6235	6235	6235	6349	6349	6349	6349	6349	6349	6235	6235	6235	6124	6124	6124	6124	6124	6124	6124	6124	6124	6124	6124	6124	6124	6018	5915	6018	5915	5915	6124	6235	6235	0	0	0	0	0	0	0	0	0	0	0	0	0	0	0	0	0	0	0	0	0	0	0	0	0	0	0	0	0	0	0	0	0	0
0	0	0	0	0	0	0	0	0	0	0	0	0	0	0	0	0	0	0	0	0	0	0	0	0	0	0	0	0	0	0	0	0	0	0	0	0	0	0	0	0	0	0	0	0	0	0	0	0	0	0	0	0	0	0	0	0	0	0	0	0	0	0	0	0	0	0	0	0	0	0	0	0	0	0	0	0	0	0	0	0	0	0	0	0	0	0	4406	4406	4406	4406	4406	4350	4350	4350	4350	4350	4350	4350	4406	4406	4406	4406	4406	4463	4463	4463	4463	4463	4521	4521	4463	4463	4463	4521	4521	4521	4581	4581	4581	4643	4643	0	0	0	0	0	0	5125	5125	5125	5125	5125	5202	5125	5125	5125	5125	5125	5125	5125	5125	5125	5125	5125	5202	5202	5202	5202	5202	5282	5202	5202	5202	5202	5202	5202	5202	5282	5282	5364	5448	5535	5535	5626	5719	5815	5815	5815	5815	5815	5815	5915	5915	5915	5915	5915	5915	5915	5815	5915	5915	5815	5915	5915	5915	5915	5915	5915	5915	5915	5815	5815	5815	5815	5815	5815	5815	5815	5815	5815	5815	5915	6018	6018	6018	6018	6018	6018	6018	6018	6018	6018	6018	6018	6018	6018	6018	6018	6018	6018	6018	6018	6018	6018	6018	6018	6018	6018	6018	6124	6124	6018	6018	6018	6018	6018	6018	6018	6018	6018	5915	5915	5915	5915	5915	5915	5915	5915	5915	6018	6018	5915	5915	5915	5915	5915	5915	6018	6018	6018	6018	6018	6018	6018	6018	6018	6018	6018	6018	6018	6018	6018	6018	6124	6124	6124	6124	6124	6018	6018	6018	6018	6018	5915	6018	6018	6018	6018	6018	6018	6124	6018	6018	6018	6018	6018	6018	6018	6018	6018	6018	6018	5915	5915	5915	5915	5915	5915	5915	5915	5915	5915	5915	6018	6124	6018	6124	6124	6124	6018	6124	6018	6018	6124	6018	6018	6018	6018	6018	6018	6018	6124	6124	6018	6018	6018	6018	6018	6018	6124	6124	6124	6124	6124	6124	6124	6124	6124	6018	6018	5915	6018	5915	5915	5915	6018	6018	6018	6124	6018	6018	6018	6018	5915	5915	5915	6018	6018	5915	5915	5915	6124	6124	6018	6124	6124	6124	6124	6124	6124	6124	6235	6235	6235	6235	6124	6124	6235	6235	6124	6124	6235	6235	6235	6235	6235	6235	6124	6124	6124	6124	6018	6018	6018	6018	6124	6124	6124	6124	6018	6018	6018	6018	6124	6124	6124	6124	6124	6124	6124	6124	6018	6018	6018	6018	6124	6124	6349	6349	6349	6349	6349	6468	6349	6349	6349	6349	6349	6235	6235	6235	6235	6235	6235	6235	6124	6235	6124	6235	6235	6235	6235	6235	6235	6235	6124	6124	6018	6018	6018	6018	6124	6235	6235	6349	6349	6349	6349	6349	6349	6349	6349	6349	6349	6349	6349	6235	6235	6349	6018	6349	6124	6124	6235	6468	6468	6349	6468	6349	6349	6349	6349	6235	6349	6349	6349	6349	6349	6349	6349	6468	6468	6349	6349	6468	6468	6468	6468	6468	6468	6468	6468	6468	6468	6349	6349	6349	6349	6468	6468	6235	6468	6468	6468	6349	6468	6349	6349	6468	6349	6235	6349	6235	6349	6235	6349	6349	6349	6235	6235	6349	6468	6468	6349	6349	6468	6468	6468	6349	6349	6349	6349	6349	6235	6235	6349	6349	6349	6349	6349	6349	6349	6468	6468	6468	6468	6349	6349	6349	6349	6349	6349	6235	6349	6349	6349	6349	6349	6349	6349	6349	6235	6235	6235	6235	6235	6124	6124	6124	6235	6124	6124	6124	6124	6124	6124	6124	6018	5915	6349	6235	6235	6235	6235	6235	0	0	0	0	0	0	0	0	0	0	0	0	0	0	0	0	0	0	0	0	0	0	0	0	0	0	0	0	0	0	0	0	0	0
0	0	0	0	0	0	0	0	0	0	0	0	0	0	0	0	0	0	0	0	0	0	0	0	0	0	0	0	0	0	0	0	0	0	0	0	0	0	0	0	0	0	0	0	0	0	0	0	0	0	0	0	0	0	0	0	0	0	0	0	0	0	0	0	0	0	0	0	0	0	0	0	0	0	0	0	0	0	0	0	0	0	0	0	0	0	0	4406	4406	4350	4406	4350	4350	4350	4350	4350	4350	4350	4406	4406	4406	4406	4406	4463	4463	4521	4463	4463	4521	4521	4521	4463	4463	4463	4521	4521	4521	4581	4581	4581	4581	4581	0	0	0	0	5050	5050	5050	5125	5125	5125	5125	5202	5125	5202	5125	5202	5125	5125	5125	5125	5125	5125	5125	5202	5202	5282	5202	5282	5282	5282	5282	5282	5202	5202	5282	5282	5282	5282	5364	5364	5535	5535	5626	5719	5815	5815	5815	5815	5815	5815	5815	5815	5915	5915	5915	5915	5915	5915	5915	5915	5915	5915	5915	5915	5915	6018	5915	5915	5915	5915	5915	5915	5915	5815	5815	5815	5815	5815	5815	5915	5915	6018	6018	6124	6018	6124	6124	6018	6018	6018	6018	6018	6018	6018	6018	6018	6018	6018	6018	6018	6018	6018	6018	6018	6018	6018	6124	6124	6124	6124	6124	6124	6018	6018	6018	6018	6018	6018	6018	6018	6018	6018	6018	6018	6018	6018	6018	6018	6018	6018	6018	6018	5915	5915	5915	5915	6018	6018	6018	6018	6018	6018	6018	6018	6018	6018	6018	6018	6018	6018	6018	6018	6124	6124	6124	6124	6124	6124	6018	6018	6018	6018	5915	6018	6018	6018	6018	6018	6018	6124	6018	6018	6018	6018	6018	6018	6018	6018	6018	6018	6018	6018	5915	5915	6018	6018	5915	5915	5915	5915	6018	5915	5915	6124	6018	6124	6124	6124	6124	6124	6018	6018	6124	6018	6018	6018	6018	6124	6124	6124	6124	6124	6124	6124	6124	6124	6124	6124	6124	6124	6235	6235	6235	6124	6235	6235	6235	6124	6018	5915	6018	5915	5915	5915	5915	5915	5915	6018	6018	6018	6018	6018	5915	6018	5915	6018	6018	6018	6018	6018	6124	6124	6124	6124	6124	6124	6235	6235	6235	6235	6235	6235	6235	6235	6124	6235	6235	6235	6235	6124	6235	6235	6235	6235	6235	6235	6235	6124	6124	6124	6124	6124	6018	6018	6124	6124	6124	6124	6124	6124	6124	6018	6124	6124	6124	6124	6124	6124	6124	6018	6018	6018	6124	6124	6124	6124	6349	6235	6349	6349	6349	6349	6349	6349	6349	6349	6349	6235	6235	6235	6235	6235	6235	6235	6235	6235	6235	6235	6235	6235	6235	6235	6235	6235	6235	6124	6124	6124	6124	6124	6124	6235	6235	6349	6349	6349	6349	6349	6349	6349	6349	6349	6235	6349	6349	6235	6235	6235	6235	6349	6124	6124	6235	6468	6468	6468	6468	6349	6468	6468	6349	6349	6349	6349	6349	6468	6349	6349	6349	6468	6349	6468	6468	6468	6468	6592	6468	6468	6468	6468	6468	6468	6468	6349	6349	6349	6349	6468	6468	6468	6468	6468	6468	6468	6468	6468	6468	6468	6349	6349	6349	6349	6349	6349	6349	6349	6349	6349	6349	6349	6468	6468	6468	6468	6468	6468	6468	6468	6349	6349	6349	6349	6349	6235	6349	6468	6468	6468	6468	6592	6468	6468	6468	6468	6592	6468	6349	6349	6349	6349	6468	6349	6468	6349	6349	6349	6349	6235	6235	6235	6235	6235	6235	6235	6235	6124	6124	6124	6124	6235	6235	6235	6124	6235	6124	6235	6124	6124	6349	6349	6235	6235	6235	6235	0	0	0	0	0	0	0	0	0	0	0	0	0	0	0	0	0	0	0	0	0	0	0	0	0	0	0	0	0	0	0	0	0	0
0	0	0	0	0	0	0	0	0	0	0	0	0	0	0	0	0	0	0	0	0	0	0	0	0	0	0	0	0	0	0	0	0	0	0	0	0	0	0	0	0	0	0	0	0	0	0	0	0	0	0	0	0	0	0	0	0	0	0	0	0	0	0	0	0	0	0	0	0	0	0	0	0	0	0	0	0	0	0	0	0	0	0	0	0	0	0	4350	4350	4350	4350	4350	4350	4350	4350	4296	4296	4350	4350	4406	4406	4406	4406	4406	4463	4463	4463	4463	4463	4521	4521	4463	4463	4463	4521	4521	4521	4463	4521	4521	4581	4581	0	0	0	0	5050	5050	5050	5125	5125	5202	5202	5202	5202	5202	5202	5202	5202	5202	5125	5125	5125	5125	5125	5202	5202	5282	5282	5282	5282	5282	5282	5282	5202	5202	5202	5202	5282	5282	5364	5448	5535	5535	5626	5719	5815	5815	5815	5815	5815	5815	5815	5915	5915	5915	5915	5915	5915	5915	5915	5915	5915	6018	6018	6018	6018	6018	6018	5915	6018	5915	5915	5915	5915	5915	5915	5815	5915	5915	5915	5915	6018	6018	6124	6124	6124	6124	6124	6018	6018	6018	6018	6018	6018	6018	6124	6124	6124	6124	6124	6018	6018	6018	6018	6018	6018	6124	6124	6124	6124	6124	6124	6124	6018	6124	6124	6124	6018	6124	6124	6124	6124	6018	6018	6018	6018	6018	6018	6018	6018	6018	6018	6018	5915	5915	5915	5915	6018	6018	6018	6018	6018	6018	6018	6018	6018	6018	6018	6018	6018	6018	6018	6018	6018	6124	6124	6124	6124	6124	6124	6018	6018	6018	6018	6018	6018	6018	6018	6018	6018	6124	6018	6018	6124	6018	6124	6124	6018	6018	6124	6018	6018	6018	5915	5915	6018	5915	5915	5915	5815	5915	5915	5915	5915	6124	6124	6124	6124	6124	6124	6124	6018	6018	6124	6018	6018	6124	6124	6124	6124	6124	6124	6124	6124	6124	6124	6124	6124	6124	6124	6124	6235	6235	6124	6124	6124	6235	6124	6124	6124	6018	6018	6018	6018	6018	6018	6018	5915	6018	6018	6018	6018	6018	6018	6018	6018	6018	6018	6018	6018	6018	6124	6124	6124	6235	6235	6235	6235	6235	6235	6235	6235	6235	6235	6235	6124	6235	6235	6235	6235	6235	6235	6235	6235	6235	6235	6235	6235	6235	6124	6124	6124	6124	6124	6018	6124	6124	6235	6124	6124	6124	6124	6124	6124	6124	6124	6124	6018	6124	6124	6124	6124	6124	6124	6124	6124	6124	6349	6349	6349	6349	6349	6349	6349	6349	6349	6349	6349	6349	6349	6349	6235	6235	6235	6235	6235	6235	6235	6235	6349	6349	6349	6349	6235	6235	6235	6235	6235	6235	6124	6124	6235	6235	6235	6349	6349	6349	6349	6349	6349	6349	6349	6349	6235	6235	6349	6235	6235	6235	6124	6349	6235	6124	6124	6468	6468	6468	6468	6468	6468	6468	6349	6349	6468	6349	6349	6349	6349	6349	6349	6468	6349	6468	6468	6468	6468	6468	6468	6468	6468	6468	6468	6468	6468	6468	6468	6468	6349	6468	6468	6468	6468	6468	6468	6468	6468	6468	6468	6468	6468	6349	6349	6349	6349	6349	6349	6349	6349	6349	6349	6349	6468	6592	6592	6468	6592	6592	6468	6468	6349	6349	6349	6349	6468	6468	6468	6592	6592	6592	6592	6592	6592	6468	6468	6468	6468	6468	6349	6349	6349	6349	6468	6468	6468	6349	6468	6349	6349	6235	6235	6235	6349	6349	6235	6235	6235	6235	6235	6124	6124	6124	6124	6124	6124	6124	6124	6235	6124	6124	6349	6349	6349	6235	6235	6235	0	0	0	0	0	0	0	0	0	0	0	0	0	0	0	0	0	0	0	0	0	0	0	0	0	0	0	0	0	0	0	0	0	0
0	0	0	0	0	0	0	0	0	0	0	0	0	0	0	0	0	0	0	0	0	0	0	0	0	0	0	0	0	0	0	0	0	0	0	0	0	0	0	0	0	0	0	0	0	0	0	0	0	0	0	0	0	0	0	0	0	0	0	0	0	0	0	0	0	0	0	0	0	0	0	0	0	0	0	0	0	0	0	0	0	0	0	0	0	0	0	4350	4406	4406	4406	4350	4350	4350	4350	4350	4350	4350	4406	4406	4406	4406	4406	4406	4463	4463	4463	4463	4521	4521	4521	4521	4463	4463	4521	4521	4463	4463	4521	4521	4581	4581	4581	0	4771	4838	5050	5050	5050	5125	5125	5125	5202	5202	5202	5202	5202	5202	5202	5202	5125	5125	5125	5125	5125	5202	5202	5202	5202	5202	5282	5282	5282	5282	5202	5202	5202	5282	5282	5364	5364	5448	5535	5535	5626	5626	5719	5815	5815	5815	5815	5815	5915	5915	5915	5915	5915	5915	5915	5915	5915	6018	5915	6018	6018	6124	6018	6018	6018	6018	6124	6018	6124	6124	6124	6124	6124	6018	5915	6018	6018	5915	6124	6124	6124	6235	6235	6124	6124	6124	6124	6124	6124	6124	6124	6124	6124	6124	6124	6124	6124	6124	6124	6124	6124	6124	6124	6124	6124	6124	6235	6235	6235	6124	6124	6124	6124	6124	6124	6124	6124	6124	6124	6124	6018	6018	6018	6018	6018	6018	6018	6018	6018	6018	6018	5915	6018	5915	6018	6018	6018	6018	6018	6018	6018	6018	6018	6018	6018	6018	6018	6018	6018	6018	6018	6018	6124	6124	6124	6124	6124	6124	6018	6018	6018	6018	6018	6018	6018	6018	6018	6018	6018	6018	6018	6018	6124	6124	6124	6124	6124	6124	6018	6018	6018	6018	6018	5915	5915	5915	5915	5915	6018	6018	6018	6124	6124	6124	6124	6124	6124	6018	6018	6018	6124	6018	6018	6124	6124	6124	6124	6124	6124	6124	6124	6124	6124	6124	6124	6124	6124	6235	6235	6235	6235	6124	6235	6235	6235	6124	6124	6018	6124	6018	6018	6018	6018	6018	6018	6124	6124	6124	6124	6124	6018	6124	6018	6018	6018	6124	6018	6124	6124	6235	6235	6235	6235	6235	6235	6349	6235	6235	6235	6235	6235	6235	6235	6235	6124	6235	6124	6124	6235	6235	6235	6235	6235	6235	6235	6235	6235	6235	6124	6124	6124	6124	6235	6235	6235	6235	6235	6124	6124	6124	6124	6124	6235	6124	6124	6124	6124	6124	6124	6124	6124	6124	6124	6235	6349	6349	6349	6235	6349	6349	6349	6349	6235	6349	6349	6349	6349	6349	6235	6235	6235	6235	6235	6349	6349	6349	6349	6349	6349	6349	6349	6349	6349	6349	6235	6235	6235	6124	6235	6235	6235	6349	6349	6349	6349	6349	6349	6349	6349	6349	6349	6349	6349	6235	6235	6235	6124	6235	6124	6124	6124	6468	6468	6468	6468	6468	6468	6468	6468	6349	6468	6468	6468	6468	6468	6468	6468	6468	6468	6468	6468	6468	6468	6468	6468	6468	6349	6468	6468	6468	6468	6468	6468	6468	6468	6349	6468	6468	6592	6468	6468	6468	6468	6592	6468	6468	6468	6349	6349	6468	6349	6349	6349	6349	6349	6349	6349	6349	6592	6592	6592	6592	6592	6592	6592	6468	6468	6468	6468	6468	6468	6592	6592	6592	6592	6592	6592	6592	6592	6592	6592	6592	6468	6468	6468	6349	6349	6468	6468	6468	6468	6468	6468	6468	6468	6349	6349	6349	6349	6349	6349	6235	6235	6235	6235	6124	6124	6235	6124	6235	6124	6235	6235	6235	6235	6235	6349	6349	6349	6235	6235	6235	0	0	0	0	0	0	0	0	0	0	0	0	0	0	0	0	0	0	0	0	0	0	0	0	0	0	0	0	0	0	0	0	0	0
0	0	0	0	0	0	0	0	0	0	0	0	0	0	0	0	0	0	0	0	0	0	0	0	0	0	0	0	0	0	0	0	0	0	0	0	0	0	0	0	0	0	0	0	0	0	0	0	0	0	0	0	0	0	0	0	0	0	0	0	0	0	0	0	0	0	0	0	0	0	0	0	0	0	0	0	0	0	0	0	0	0	0	0	0	0	0	0	4406	4406	4350	4350	4350	4350	4350	4350	4350	4350	4350	4406	4406	4406	4406	4463	4521	4521	4521	4521	4521	4521	4521	4521	4463	4463	4521	4521	4521	4521	4521	4581	4581	4581	4581	4643	4771	4838	4977	5050	5050	5125	5125	5125	5202	5202	5202	5202	5202	5202	5125	5125	5125	5125	5125	5125	5125	5202	5202	5202	5202	5202	5282	5282	5282	5282	5202	5282	5282	5282	5282	5364	5448	5448	5535	5535	5535	5626	5719	5719	5719	5815	5815	5815	5915	5915	5915	5915	5915	5915	5915	5915	5915	5915	5915	5915	6018	6018	6124	6124	6018	6235	6235	6124	6124	6124	6124	6124	6124	6018	6018	6018	6018	6018	6124	6124	6235	6235	6235	6124	6124	6124	6124	6124	6124	6124	6124	6124	6124	6124	6124	6235	6124	6124	6124	6124	6124	6124	6124	6124	6124	6235	6235	6235	6124	6124	6124	6124	6124	6124	6018	6124	6018	6124	6124	6124	6124	6124	6124	6124	6124	6018	6018	6018	6018	6018	6018	5915	6018	5915	5915	6018	6124	6124	6124	6124	6124	6124	6018	6018	6018	6018	6124	6018	6018	6018	6018	6018	6124	6124	6124	6124	6124	6018	6018	6018	6018	6018	6018	5915	6018	6018	6018	6124	6018	6018	6018	6018	6124	6124	6124	6124	6124	6124	6018	6018	6018	6018	6018	6018	6018	6018	6018	6018	6018	6018	6018	6124	6124	6124	6124	6124	6124	6124	6124	6124	6124	6124	6124	6124	6124	6235	6235	6235	6235	6235	6235	6124	6124	6124	6124	6124	6124	6235	6235	6235	6235	6124	6235	6235	6235	6124	6124	6124	6124	6018	6018	6018	6018	6018	6018	6124	6124	6124	6124	6124	6124	6124	6124	6124	6124	6124	6124	6124	6349	6349	6349	6349	6349	6349	6349	6349	6235	6349	6235	6235	6235	6235	6235	6235	6235	6235	6235	6235	6235	6235	6235	6235	6235	6235	6235	6235	6235	6235	6124	6235	6235	6124	6235	6235	6235	6235	6235	6235	6235	6235	6235	6235	6235	6235	6124	6235	6124	6124	6124	6124	6124	6124	6124	6124	6349	6235	6349	6349	6349	6349	6349	6349	6349	6235	6235	6235	6349	6349	6235	6235	6235	6235	6349	6349	6349	6349	6349	6349	6349	6349	6349	6349	6349	6349	6349	6235	6235	6124	6235	6235	6349	6349	6349	6349	6349	6349	6349	6349	6349	6349	6349	6349	6235	6235	6235	6235	6124	6235	6235	6124	0	0	6468	6468	6468	6468	6468	6468	6468	6468	6468	6468	6468	6468	6468	6468	6468	6468	6468	6468	6468	6468	6468	6468	6468	6468	6468	6468	6468	6468	6468	6468	6468	6468	6468	6468	6468	6468	6468	6468	6592	6592	6592	6592	6468	6468	6468	6468	6468	6468	6349	6349	6349	6349	6349	6349	6349	6468	6592	6592	6592	6592	6592	6592	6592	6592	6468	6468	6468	6592	6592	6592	6592	6592	6592	6592	6592	6592	6592	6592	6592	6592	6592	6468	6468	6468	6468	6468	6468	6349	6349	6349	6468	6468	6468	6349	6349	6468	6349	6468	6349	6349	6349	6349	6349	6235	6235	6235	6235	6235	6235	6235	6235	6235	6235	6235	6349	6349	6349	6235	6235	6235	0	0	0	0	0	0	0	0	0	0	0	0	0	0	0	0	0	0	0	0	0	0	0	0	0	0	0	0	0	0	0	0	0	0
0	0	0	0	0	0	0	0	0	0	0	0	0	0	0	0	0	0	0	0	0	0	0	0	0	0	0	0	0	0	0	0	0	0	0	0	0	0	0	0	0	0	0	0	0	0	0	0	0	0	0	0	0	0	0	0	0	0	0	0	0	0	0	0	0	0	0	0	0	0	0	0	0	0	0	0	0	0	0	0	0	0	0	0	0	0	0	0	0	4406	4406	4406	4406	4406	4406	4350	4350	4350	4406	4406	4406	4406	4406	4406	4463	4463	4463	4521	4521	4521	4521	4521	4521	4521	4521	4521	4521	4521	4521	4581	4581	4581	4581	4643	4771	4838	5050	5050	5050	5125	5125	5202	5202	5202	5202	5202	5202	5202	5202	5125	5125	5125	5125	5125	5125	5202	5202	5202	5202	5202	5282	5282	5282	5282	5202	5282	5282	5282	5282	5364	5448	5448	5535	5535	5535	5535	5626	5719	5719	5815	5815	5815	5915	5915	5915	5915	5915	5915	5915	5915	5915	6018	6018	6124	6124	6124	6124	6124	6124	6235	6235	6235	6235	6235	6124	6124	6124	6018	6018	6018	6018	6018	6235	6124	6235	6349	6235	6235	6235	6124	6235	6124	6124	6124	6124	6124	6235	6235	6124	6235	6235	6124	6124	6124	6124	6124	6124	6124	6124	6235	6235	6235	6235	6124	6124	6124	6124	6018	6018	6124	6018	6018	6124	6124	6124	6124	6124	6124	6124	6124	6018	6018	6018	6018	6018	6018	6018	6018	6124	6124	6124	6124	6124	6124	6124	6124	6124	6124	6124	6124	6124	6124	6018	6124	6018	6124	6124	6124	6124	6124	6124	6124	6018	6018	6018	6018	5915	5915	6018	6018	6018	6124	6018	6018	6124	6124	6124	6124	6124	6124	6124	6124	6124	6018	6018	6018	6018	6018	6018	6018	6018	6018	6018	6018	6018	6018	6124	6235	6235	6235	6235	6235	6124	6124	6124	6124	6124	6124	6235	6235	6235	6235	6235	6235	6235	6235	6124	6124	6124	6124	6235	6235	6235	6235	6235	6235	6235	6235	6235	6235	6235	6235	6124	6124	6124	6124	6124	6124	6124	6124	6124	6235	6235	6124	6124	6124	6124	6124	6124	6124	6124	6124	6349	6349	6349	6349	6349	6349	6349	6349	6349	6349	6349	6349	6349	6235	6235	6235	6235	6235	6235	6235	6235	6235	6235	6235	6235	6235	6349	6349	6235	6235	6235	6235	6235	6235	6235	6235	6235	6235	6235	6235	6235	6235	6235	6235	6235	6235	6124	6235	6124	6235	6235	6235	6124	6124	6124	6124	6349	6235	6349	6349	6349	6349	6349	6349	6349	6349	6349	6349	6349	6349	6349	6349	6349	6349	6349	6349	6349	6349	6349	6349	6349	6349	6349	6349	6349	6349	6349	6349	6349	6235	6349	6349	6349	6349	6349	6349	6468	6468	6468	6468	6468	6349	6349	6349	6235	6235	6235	6235	6018	6018	6235	0	0	0	6468	6468	4045	3907	3907	6468	6468	6468	6468	6468	6592	6468	6468	6468	6468	6592	6468	6592	6592	6592	6592	6592	6592	6468	6468	6468	6468	6468	6468	6468	6468	6468	6468	6468	6468	6592	6592	6592	6592	6592	6592	6592	6468	6468	6468	6468	6349	6468	6349	6349	6349	6468	6349	6468	6468	6468	6592	6592	6592	6592	6592	6592	6592	6468	6468	6468	6468	6592	6592	6592	6592	6592	6592	6592	6592	6592	6592	6592	6592	6592	6592	6592	6592	6468	6468	6468	6468	6468	6349	6349	6349	6349	6349	6235	6235	6349	6349	6468	6468	6468	6468	6468	6349	6349	6235	6235	6235	6349	6235	6235	6235	6235	6235	6235	6349	6349	6349	6349	6349	6349	0	0	0	0	0	0	0	0	0	0	0	0	0	0	0	0	0	0	0	0	0	0	0	0	0	0	0	0	0	0	0	0	0	0
0	0	0	0	0	0	0	0	0	0	0	0	0	0	0	0	0	0	0	0	0	0	0	0	0	0	0	0	0	0	0	0	0	0	0	0	0	0	0	0	0	0	0	0	0	0	0	0	0	0	0	0	0	0	0	0	0	0	0	0	0	0	0	0	0	0	0	0	0	0	0	0	0	0	0	0	0	0	0	0	0	0	0	0	0	0	0	0	0	0	4406	4406	4406	4406	4406	4350	4350	4350	4406	4406	4406	4406	4406	4406	4406	4406	4463	4463	4463	4521	4521	4463	4463	4463	4521	4521	4521	4521	4521	4521	4581	4581	4581	4643	4706	4706	5050	5050	5050	5125	5202	5202	5202	5202	5202	5202	5202	5202	5125	5125	5125	5125	5125	5125	5125	5202	5202	5202	5202	5202	5282	5282	5202	5202	5202	5282	5282	5282	5282	5364	5448	5448	5535	5535	5535	5626	5719	5719	5815	5815	5915	5915	5915	5915	5915	5915	5915	5915	5915	5915	5915	5915	6018	6018	6018	6124	6124	6124	6124	6235	6235	6235	6235	6235	6124	6124	6124	6018	6018	6018	6018	6124	6124	6235	6235	6349	6349	6235	6235	6235	6235	6124	6124	6124	6235	6124	6235	6235	6124	6235	6124	6124	6235	6124	6124	6124	6124	6235	6124	6235	6235	6235	6235	6235	6124	6124	6124	6124	6124	6124	6124	6124	6235	6235	6235	6235	6235	6235	6235	6235	6124	6124	6124	6124	6349	6018	6018	6018	6124	6124	6124	6124	6124	6124	6124	6124	6124	6124	6124	6124	6124	6124	6124	6124	6124	6124	6124	6124	6124	6124	6124	6124	6018	6018	6018	6018	6018	5915	6018	6018	6018	0	0	6018	6124	6124	6124	6124	6124	6235	6124	6124	6124	6124	6124	6124	6124	6018	6018	6124	6018	6018	6018	6124	6124	6235	6235	6235	6235	6235	6235	6235	6235	6235	6235	6235	6235	6235	6235	6235	6235	6235	6235	6235	6235	6235	6235	6235	6235	6235	6235	6235	6235	6235	6235	6235	6235	6235	6235	6235	6235	6235	6235	6124	6124	6124	6124	6124	6124	6124	6235	6235	6235	6235	6235	6235	6235	6124	6124	6124	6124	6235	6349	6349	6349	6349	6349	6349	6349	6349	6349	6349	6349	6349	6349	6235	6235	6235	6235	6235	6235	6235	6235	6349	6235	6349	6349	6349	6349	6349	6235	6235	6235	6235	6235	6235	6235	6235	6235	6235	6235	6235	6235	6235	6235	6235	6235	6235	6235	6235	6235	6235	6235	6235	6235	6235	6124	6124	6349	6235	6349	6349	6349	6349	6349	6349	6349	6349	6349	6349	6349	6349	6349	6349	6349	6349	6349	6349	6468	6468	6468	6468	6468	6468	6468	6349	6349	6349	6349	6349	6349	6349	6349	6349	6349	6349	6349	6349	6468	6349	6468	6468	6468	6468	6349	6349	6349	6235	6235	6235	6018	6018	0	0	0	0	0	4045	4045	3907	3907	3864	3864	6592	6592	6592	6592	6592	6468	6468	6468	6592	6592	6592	6592	6592	6592	6592	6592	6592	6468	6592	6468	6592	6468	6468	6468	6592	6592	6592	6592	6592	6592	6592	6592	6592	6592	6592	6592	6592	6592	6592	6468	6468	6468	6468	6468	6468	6468	6468	6468	6468	6720	6592	6592	6592	6592	6592	6592	6592	6468	6592	6592	6592	6592	6592	6592	6592	6592	6592	6592	6592	6592	6592	6592	6592	6592	6592	6592	6592	6592	6592	6592	6468	6468	6468	6468	6468	6468	6349	6468	6468	6468	6468	6468	6592	6468	6468	6349	6349	6235	6235	6235	6235	6235	6235	6235	6235	6235	6235	6349	6349	6349	6349	6349	6349	0	0	0	0	0	0	0	0	0	0	0	0	0	0	0	0	0	0	0	0	0	0	0	0	0	0	0	0	0	0	0	0	0	0
0	0	0	0	0	0	0	0	0	0	0	0	0	0	0	0	0	0	0	0	0	0	0	0	0	0	0	0	0	0	0	0	0	0	0	0	0	0	0	0	0	0	0	0	0	0	0	0	0	0	0	0	0	0	0	0	0	0	0	0	0	0	0	0	0	0	0	0	0	0	0	0	0	0	0	0	0	0	0	0	0	0	0	0	0	0	0	0	0	4521	4463	4463	4463	4463	4463	4406	4406	4406	4463	4406	4406	4406	4406	4406	4406	4463	4463	4463	4463	4521	4463	4463	4463	4463	4463	4521	4521	4521	4521	4581	4581	4581	4643	4643	4706	4706	4977	4977	5050	5125	5202	5202	5202	5202	5202	5202	5202	5202	5125	5125	5125	5125	5202	5125	5125	5202	5202	5202	5202	5202	5202	5282	5282	5282	5202	5282	5282	5282	5282	5364	5448	5448	5448	5535	5535	5535	5626	5719	5719	5915	5915	5915	5915	5915	6018	6018	5915	5915	5915	5915	6018	6018	6018	6018	6124	6124	6235	6235	6235	6235	6235	6235	6235	6124	6124	6124	6018	6018	6018	6018	6018	6124	6235	6235	6349	6349	6349	6349	6235	6235	6235	6124	6235	6235	6235	6235	6235	6235	6235	6235	6124	6235	6235	6235	6235	6124	6235	6235	6235	6235	6235	6235	6235	6235	6235	6124	6124	6124	6124	6124	6124	6124	6235	6235	6235	6235	6235	6235	6235	6235	6235	6235	6235	6349	6349	6349	6018	6124	6235	6124	6124	6124	6124	6124	6235	6235	6235	6235	6235	6235	6235	6124	6124	6124	6124	6124	6124	6124	6124	6124	6124	6124	6124	6124	6124	6018	6018	0	0	0	0	0	0	0	0	0	0	0	6124	6124	6124	6124	6124	6124	6124	6124	6124	6124	6124	6124	6124	6124	6124	6124	6124	6235	6235	6235	6235	6235	6235	6235	6235	6235	6235	6235	6235	6235	6235	6235	6235	6235	6235	6235	6235	6235	6235	6235	6235	6235	6235	6235	6235	6235	6235	6235	6235	6235	6235	6235	6235	6235	6235	6235	6124	6235	6235	6235	6124	6235	6349	6349	6349	6235	6235	6235	6235	6235	6124	6235	6124	6235	6349	6349	6349	6349	6349	6349	6349	6349	6349	6349	6349	6349	6349	6349	6349	6349	6235	6349	6235	6349	6349	6349	6349	6349	6349	6349	6349	6349	6349	6349	6349	6349	6349	6349	6235	6235	6235	6235	6235	6235	6235	6235	6235	6235	6235	6235	6235	6235	6235	6235	6235	6235	6235	6235	6235	6235	6349	6349	6349	6349	6349	6349	6349	6468	6468	6349	6349	6349	6349	6349	6349	6349	6349	6468	6468	6468	6468	6468	6468	6468	6468	6468	6468	6468	6468	6468	6468	6349	6468	6349	6349	6349	6349	6349	6349	6349	6468	6468	6468	6468	6468	6468	6468	6349	6349	6235	6235	6235	6018	6018	0	0	0	0	3998	3952	3952	3907	3907	3864	3864	3864	6592	6592	6592	6592	6592	6592	6592	6592	6592	6592	6592	6720	6592	6720	6592	6592	6468	6592	6468	6592	6592	6592	6592	6592	6592	6592	6592	6592	6592	6592	6592	6592	6720	6592	6592	6592	6592	6592	6592	6468	6468	6468	6349	6468	6468	6468	6468	6468	6592	6592	6592	6592	6592	6592	6592	6592	6592	6592	6592	6592	6720	6720	6720	6720	6592	6592	6592	6592	6592	6592	6592	6592	6592	6592	6720	6592	6592	6592	6592	6468	6468	6468	6468	6468	6468	6468	6468	6592	6592	6592	6592	6592	6592	6592	6468	6349	6349	6349	6349	6349	6235	6235	6124	6235	6235	6124	6235	6235	6349	6235	6235	0	0	0	0	0	0	0	0	0	0	0	0	0	0	0	0	0	0	0	0	0	0	0	0	0	0	0	0	0	0	0	0	0	0	0
0	0	0	0	0	0	0	0	0	0	0	0	0	0	0	0	0	0	0	0	0	0	0	0	0	0	0	0	0	0	0	0	0	0	0	0	0	0	0	0	0	0	0	0	0	0	0	0	0	0	0	0	0	0	0	0	0	0	0	0	0	0	0	0	0	0	0	0	0	0	0	0	0	0	0	0	0	0	0	0	0	0	0	0	0	0	0	0	4521	4521	4463	4463	4463	4463	4521	4463	4406	4406	4463	4406	4406	4406	4406	4406	4463	4463	4463	4521	4521	4521	4463	4463	4463	4463	4463	4463	4521	4521	4521	4581	4581	4581	4643	4643	4706	4706	4977	4977	5050	5125	5125	5202	5202	5202	5202	5202	5202	5202	5202	5125	5125	5125	5202	5125	5125	5202	5202	5202	5202	5202	5282	5282	5282	5282	5202	5202	5282	5282	5282	5282	5448	5448	5535	5535	5535	5626	5719	5719	5815	5915	5915	5915	6018	6018	6018	6018	6018	6018	6018	6018	6124	6124	6124	6124	6124	6124	6235	6235	6235	6235	6235	6235	6235	6124	6124	6124	6124	6018	6018	6018	6124	6124	6235	6349	6349	6349	6349	6349	6349	6349	6349	6235	6235	6349	6349	6235	6349	6349	6235	6235	6235	6235	6235	6235	6235	6235	6235	6235	6235	6235	6349	6349	6349	6349	6235	6235	6124	6124	6124	6235	6235	6235	6235	6349	6235	6235	6235	6235	6235	6235	6235	6349	6235	6349	6349	6349	6124	6124	6235	6235	6235	6235	6235	6235	6235	6235	6235	6235	6235	6235	6235	6124	6124	6124	6124	6124	6124	6124	6124	6124	6124	6124	6124	6124	6124	0	0	3583	3583	0	0	0	0	0	0	0	0	0	6124	6124	3659	3659	6124	6124	6235	6349	6235	6235	6235	6235	6124	6124	6124	6124	6124	6235	6235	6349	6349	6349	6235	6235	6235	6235	6235	6235	6235	6235	6235	6349	6349	6349	6349	6235	6349	6349	6349	6235	6235	6235	6235	6235	6235	6235	6235	6349	6235	6235	6235	6235	6235	6235	6235	6235	6235	6235	6235	6235	6349	6349	6349	6468	6468	6349	6349	6235	6235	6235	6235	6124	6124	6235	6235	6349	6349	6349	6349	6349	6349	6349	6349	6349	6349	6349	6349	6349	6349	6349	6349	6349	6349	6349	6349	6349	6349	6349	6349	6349	6349	6349	6349	6349	6349	6349	6349	6349	6235	6235	6235	6349	6349	6349	6235	6349	6349	6349	6235	6235	6235	6235	6235	6235	6235	6235	6235	6235	6235	6235	6349	6349	6349	6349	6349	6349	6349	6468	6468	6349	6468	6349	6468	6468	6468	6468	6468	6468	6468	6468	6592	6468	6468	6468	6468	6468	6468	6468	6468	6468	6468	6468	6468	6468	6468	6468	6468	6349	6468	6468	6468	6468	6468	6468	6468	6468	6468	6349	6349	6235	6235	0	0	0	0	0	0	3952	3998	3998	3998	3952	3952	3952	3952	3952	3952	6592	6592	6592	6592	6592	6592	6592	6592	6592	6592	6592	6592	6720	6720	6592	6592	6720	6592	6720	6592	6720	6592	6720	6720	6720	6720	6720	6720	6720	6720	6720	6720	6720	6720	6720	6592	6592	6592	6592	6468	6468	6468	6468	6468	6468	6468	6592	6720	6720	6720	6592	6592	6592	6592	6592	6592	6592	6592	6592	6720	6720	6720	6720	6592	6592	6592	6592	6592	6592	6592	6592	6720	6720	6720	6592	6592	6592	6592	6468	6468	6468	6468	6468	6592	6592	6592	6592	6592	6592	6592	6592	6592	6468	6468	6349	6349	6349	6349	6349	6235	6235	6124	6235	6235	6124	6235	6235	6349	6235	6235	0	0	0	0	0	0	0	0	0	0	0	0	0	0	0	0	0	0	0	0	0	0	0	0	0	0	0	0	0	0	0	0	0	0	0
0	0	0	0	0	0	0	0	0	0	0	0	0	0	0	0	0	0	0	0	0	0	0	0	0	0	0	0	0	0	0	0	0	0	0	0	0	0	0	0	0	0	0	0	0	0	0	0	0	0	0	0	0	0	0	0	0	0	0	0	0	0	0	0	0	0	0	0	0	0	0	0	0	0	0	0	0	0	0	0	0	0	0	0	0	0	0	0	4521	4463	4463	4463	4521	4463	4521	4463	4463	4463	4463	4350	4406	4350	4406	4406	4406	4463	4463	4521	4521	4521	4463	4463	4463	4463	4463	4463	4521	4521	4521	4581	4581	4643	4643	4643	4706	4771	4906	4906	5050	5125	5125	5125	5202	5202	5202	5202	5202	5202	5202	5125	5125	5125	5125	5125	5125	5202	5202	5202	5202	5202	5202	5282	5282	5282	5282	5282	5282	5282	5282	5448	5448	5448	5535	5535	5626	5626	5626	5719	5815	5915	5915	5915	6018	6018	6124	6124	6018	6018	6124	6124	6124	6124	6124	6124	6235	6235	6235	6235	6235	6235	6349	6235	6235	6235	6124	6124	6124	6124	6124	6018	6124	6124	6349	6349	6468	6468	6468	6468	6349	6349	6349	6349	6349	6349	6349	6349	6349	6349	6349	6349	6235	6235	6349	6349	6235	6235	6349	6349	6235	6349	6349	6349	6349	6349	6235	6235	6235	6235	6235	6235	6349	6349	6349	6349	6349	6349	6349	6349	6349	6349	6349	6349	6349	6349	6349	6349	6235	6235	6349	6235	6235	6235	6235	6349	6235	6235	6235	6235	6235	6235	6235	6235	6124	6124	6124	6124	6124	6124	6124	6124	6018	6018	6124	0	0	3583	3583	3583	3583	3583	3583	0	0	0	0	0	0	0	0	3659	3659	3621	3583	3583	6235	6349	6235	6235	6235	6235	6235	6124	6124	6124	6124	6235	6235	6349	6349	6349	6349	6349	6349	6349	6349	6349	6349	6235	6235	6349	6349	6349	6349	6235	6349	6349	6349	6349	6349	6349	6349	6235	6235	6235	6235	6349	6235	6349	6235	6349	6349	6235	6235	6235	6235	6349	6349	6349	6349	6468	6468	6592	6468	6468	6349	6349	6349	6349	6235	6235	6235	6235	6349	6349	6349	6349	6349	6468	6468	6349	6349	6349	6349	6468	6468	6349	6349	6349	6349	6349	6349	6349	6349	6349	6349	6349	6349	6349	6349	6349	6349	6349	6468	6349	6349	6349	6349	6349	6349	6349	6349	6349	6235	6349	6349	6349	6349	6349	6235	6349	6235	6235	6349	6349	6349	6349	6349	6235	6349	6349	6349	6349	6349	6349	6468	6468	6468	6468	6468	6468	6468	6468	6468	6468	6468	6468	6468	6468	6468	6468	6468	6468	6468	6468	6468	6468	6468	6592	6592	6592	6592	6468	6468	6468	6468	6468	6468	6468	6468	6468	6468	6468	6468	6468	6468	0	0	0	0	0	0	0	0	0	0	3952	3998	3998	3998	3952	3952	3952	3998	3952	3952	3952	6592	6592	6592	6592	6592	6592	6592	6592	6592	6592	6592	6720	6720	6720	6592	6720	6720	6720	6720	6720	6720	6720	6720	6720	6720	6853	6853	6720	6853	6720	6853	6853	6720	6720	6720	6720	6720	6592	6592	6468	6468	6468	6468	6468	6592	6592	6720	6720	6720	6720	6592	6592	6592	6592	6592	6592	6592	6592	6720	6720	6720	6720	6592	6592	6592	6592	6720	6592	6592	6592	6720	6720	6720	6592	6592	6592	6592	6468	6468	6592	6592	6592	6592	6592	6592	6592	6592	6592	6592	0	0	6468	6349	6349	6235	6235	0	0	0	6235	6235	6235	6235	6235	6349	6349	6349	6235	6235	0	0	0	0	0	0	0	0	0	0	0	0	0	0	0	0	0	0	0	0	0	0	0	0	0	0	0	0	0	0	0	0	0	0	0
0	0	0	0	0	0	0	0	0	0	0	0	0	0	0	0	0	0	0	0	0	0	0	0	0	0	0	0	0	0	0	0	0	0	0	0	0	0	0	0	0	0	0	0	0	0	0	0	0	0	0	0	0	0	0	0	0	0	0	0	0	0	0	0	0	0	0	0	0	0	0	0	0	0	0	0	0	0	0	0	0	0	0	0	0	0	0	0	4463	4463	4463	4463	4463	4463	4463	4463	4463	4463	4463	4406	4406	4406	4406	4406	4406	4406	4463	4463	4463	4463	4463	4406	4406	4406	4406	4463	4463	4521	4521	4581	4643	4643	4643	4643	4706	4706	4838	4906	5050	5125	5125	5125	5202	5125	5125	5125	5202	5202	5125	5125	5125	5125	5125	5125	5125	5202	5202	5202	5202	5202	5282	5282	5282	5282	5282	5282	5282	5282	5282	5364	5448	5448	5535	5535	5626	5719	5719	5719	5719	5815	5915	5915	6018	6018	6018	6018	6018	6018	6124	6235	6235	6124	6124	6235	6235	6235	6235	6235	6235	6235	6235	6235	6235	6235	6124	6235	6124	6124	6124	6124	6235	6235	6349	6349	6468	6468	6468	6468	6468	6349	6349	6349	6349	6349	6349	6349	6349	6349	6349	6349	6349	6349	6349	6349	6349	6349	6349	6349	6235	6349	6349	6349	6349	6349	6349	6349	6349	6349	6349	6349	6349	6349	6349	6349	6349	6349	6349	6349	6349	6349	6349	6349	6349	6468	6468	6349	6349	6349	6349	6349	6349	6349	6468	6349	6349	6349	6349	6349	6349	6349	6349	6235	6235	6235	6235	6124	6124	6124	6124	6124	6018	6018	0	0	3583	3583	3583	3583	3583	3583	3583	3546	3583	3583	3621	3621	3621	3659	3659	3659	3659	3621	3583	3583	3583	6349	6349	6349	6235	6235	6235	6235	6124	6124	6235	6349	6349	6349	6349	6468	6349	6349	6349	6349	6349	6349	6349	6349	6349	6349	6349	6235	6349	6349	6349	6349	6349	6349	6349	6349	6349	6235	6235	6349	6349	6349	6349	6349	6349	6349	6468	6349	6235	6235	6235	6349	6349	6349	6349	6349	6349	6468	6468	6468	6349	6349	6349	6349	6349	6349	6235	6235	6349	6349	6349	6349	6349	6468	6468	6468	6349	6468	6468	6468	6468	6468	6468	6468	6349	6349	6349	6349	6349	6349	6349	6349	6468	6349	6468	6468	6468	6468	6468	6468	6468	6349	6349	6349	6235	6349	6349	6349	6349	6349	6349	6349	6349	6349	6349	6349	6349	6349	6349	6349	6349	6349	6235	6235	6349	6349	6349	6349	6349	6349	6468	6468	6468	6468	6468	6468	6468	6468	6468	6468	6468	6468	6468	6468	6468	6468	6468	6468	6468	6592	6592	6468	6468	6592	6592	6592	6592	6468	6468	6468	6468	6468	6468	6468	6468	6468	6468	6468	6468	0	0	0	0	0	0	0	0	0	0	0	3952	3952	3952	3952	3998	3952	3952	3952	3998	3998	3998	4093	4093	6592	6592	6592	6592	6592	6592	6592	6720	6720	6720	6720	6720	6720	6853	6853	6853	6853	6720	6720	6720	6853	6853	6853	6853	6853	6853	6720	6720	6720	6720	6720	6720	6720	6720	6720	6720	6720	6592	6592	6468	6592	6468	6592	6592	6592	6720	6720	6853	6720	6720	6720	6720	6720	6592	6592	6592	6720	6720	6720	6720	6720	6720	6720	6720	6720	6720	6720	6720	6720	6720	6720	6720	6592	6592	6592	6592	6592	6592	6592	6592	6468	6468	6468	6468	6592	6592	6592	6592	0	0	0	6349	6349	6349	6349	0	0	0	0	6235	6235	6235	6235	6349	6349	6349	6349	6235	0	0	0	0	0	0	0	0	0	0	0	0	0	0	0	0	0	0	0	0	0	0	0	0	0	0	0	0	0	0	0	0	0	0	0
0	0	0	0	0	0	0	0	0	0	0	0	0	0	0	0	0	0	0	0	0	0	0	0	0	0	0	0	0	0	0	0	0	0	0	0	0	0	0	0	0	0	0	0	0	0	0	0	0	0	0	0	0	0	0	0	0	0	0	0	0	0	0	0	0	0	0	0	0	0	0	0	0	0	0	0	0	0	0	0	0	0	0	0	0	0	0	0	4406	4406	4406	4406	4463	4463	4463	4463	4463	4463	4463	4406	4350	4350	4406	4406	4406	4406	4406	4463	4463	4463	4406	4406	4406	4406	4406	4350	4350	4521	4581	4581	4643	4643	4643	4643	4706	4706	4838	4838	5050	5125	5125	5125	5125	5125	5125	5125	5125	5125	5202	5202	5202	5202	5125	5125	5125	5202	5202	5202	5202	5282	5282	5282	5282	5282	5282	5282	5282	5282	5282	5364	5448	5535	5719	5626	5719	5719	5815	5815	5815	5815	5915	5915	6018	6124	6124	6124	6124	6124	6235	6235	6235	6235	6235	6235	6235	6235	6235	6235	6235	6235	6349	6349	6235	6235	6235	6235	6235	6124	6124	6124	6235	6235	6349	6349	6468	6349	6468	6349	6349	6349	6349	6349	6349	6349	6349	6349	6349	6349	6349	6349	6349	6349	6349	6349	6349	6349	6349	6349	6349	6349	6349	6349	6349	6349	6349	6349	6349	6349	6349	6349	6349	6349	6349	6349	6349	6349	6349	6349	6349	6349	6349	6349	6468	6468	6468	6468	6468	6468	6468	6468	6468	6468	6468	6468	6468	6349	6349	6349	6349	6349	6349	6349	6349	6235	6235	6124	6124	6124	6124	6124	6124	6018	0	0	3583	3583	3583	3583	3583	3583	3583	3583	3583	3583	3583	3621	3621	3621	3659	3659	3659	3621	3621	3621	3621	0	6468	6349	6349	6235	6235	6235	6235	6235	6235	6349	6349	6349	6349	6468	6349	6349	6349	6468	6468	6468	6468	6349	6349	6349	6349	6235	6235	6235	6349	6349	6592	6349	6349	6468	6349	6349	6349	6349	6349	6349	6349	6349	6349	6468	6468	6349	6349	6349	6349	6349	6349	6349	6349	6349	6349	6468	6349	6468	6349	6349	6349	6349	6349	6349	6349	6349	6468	6468	6468	6468	6349	6468	6468	6468	6468	6468	6468	6468	6468	6468	6468	6468	6349	6468	6349	6349	6349	6349	6349	6468	6468	6468	6468	6468	6468	6468	6592	6468	6468	6468	6349	6349	6349	6349	6349	6349	6349	6349	6468	6468	6468	6468	6349	6349	6349	6349	6349	6349	6349	6349	6349	6349	6349	6349	6468	6349	6349	6468	6468	6468	6592	6468	6468	6468	6468	6592	6468	6468	6468	6468	6468	6468	6468	6468	6468	6592	6468	6592	6592	6592	6592	6592	6720	6720	6592	6592	6468	6592	6468	6468	6468	6468	6468	6468	6468	6468	0	0	0	0	0	0	0	0	0	0	0	0	3952	3952	3952	3952	3998	3952	3952	3907	3952	3998	4045	4045	4045	6592	6592	6592	6592	6592	6592	6592	6720	6720	6853	6853	6853	6853	6853	6853	6853	6853	6853	6853	6853	6853	6992	6992	6992	6992	6853	6853	6720	6853	6853	6853	6853	6853	6853	6853	6853	6720	6592	6592	6592	6592	6468	6592	6592	6592	6853	6853	6853	6720	6720	6720	6720	6720	6720	6720	6720	6720	6720	6720	6720	6720	6720	6720	6720	6720	6720	6720	6720	6720	6720	6720	6720	6720	6720	6592	6592	6592	6592	6592	6592	6592	6592	6592	6592	6592	0	0	0	0	0	6720	6720	6349	6349	6349	0	0	0	0	0	0	0	6235	6349	6349	6349	6349	0	0	0	0	0	0	0	0	0	0	0	0	0	0	0	0	0	0	0	0	0	0	0	0	0	0	0	0	0	0	0	0	0	0	0	0
0	0	0	0	0	0	0	0	0	0	0	0	0	0	0	0	0	0	0	0	0	0	0	0	0	0	0	0	0	0	0	0	0	0	0	0	0	0	0	0	0	0	0	0	0	0	0	0	0	0	0	0	0	0	0	0	0	0	0	0	0	0	0	0	0	0	0	0	0	0	0	0	0	0	0	0	0	0	0	0	0	0	0	0	0	0	0	4406	4406	4406	4463	4463	4463	4463	4463	4463	4463	4463	4463	4463	4406	4350	4350	4406	4406	4406	4406	4406	4406	4406	4406	4350	4406	4406	4350	4350	4350	4581	4581	4581	4581	4643	4643	4643	4643	4643	4643	4977	4977	5125	5125	5125	5202	5125	5125	5202	5202	5202	5202	5202	5202	5202	5125	5125	5125	5202	5202	5202	5202	5282	5282	5282	5282	5282	5282	5282	5282	5282	5364	5448	5535	5626	5719	5719	5815	5815	5815	5815	5815	5915	5915	5915	6018	6124	6124	6124	6124	6235	6235	6235	6235	6235	6235	6235	6235	6235	6235	6235	6235	6349	6349	6349	6235	6235	6235	6235	6235	6235	6124	6124	6235	6235	6349	6349	6468	6468	6468	6468	6468	6349	6349	6349	6468	6349	6349	6349	6349	6349	6349	6349	6349	6349	6349	6349	6349	6349	6349	6349	6349	6349	6349	6349	6349	6349	6349	6349	6349	6349	6349	6349	6468	6468	6468	6468	6468	6468	6349	6349	6349	6349	6349	6349	6349	6468	6468	6468	6468	6468	6468	6592	6592	6592	6592	6468	6468	6468	6349	6349	6349	6349	6349	6349	6349	6235	6235	6235	6235	6124	6124	6124	6124	0	0	3583	3583	3583	3583	3583	3583	3583	3583	3583	3583	3583	3583	3583	3583	3583	3621	3621	3621	3621	3583	3583	3583	3583	6468	6349	6349	6235	6235	6235	6235	6235	6235	6349	6349	6349	6468	6468	6468	6468	6468	6468	6468	6468	6468	6349	6349	6349	6235	6235	6235	6235	6349	6349	6592	6349	6468	6468	6468	6349	6349	6349	6349	6349	6349	6349	6349	6468	6468	6468	6349	6349	6349	6349	6349	6349	6349	6349	6349	6349	6349	6349	6349	6349	6468	6468	6468	6468	6349	6468	6468	6468	6468	6468	6468	6349	6468	6468	6468	6468	6468	6468	6468	6468	6468	6468	6468	6468	6468	6468	6468	6468	6468	6468	6592	6468	6468	6468	6592	6592	6592	6468	6468	6468	6349	6349	6349	6349	6349	6349	6349	6468	6468	6468	6468	6468	6468	6468	6349	6349	6349	6349	6468	6468	6349	6349	6468	6468	6468	6468	6468	6468	6468	6468	6592	6592	6468	6468	6468	6468	6468	6468	6468	6468	6468	6468	6468	6468	6468	6468	6468	6592	6592	6592	6592	6592	6592	6592	6592	6592	6592	6592	6468	6468	6468	6468	6468	0	0	0	0	0	0	0	0	0	0	0	0	0	0	0	3952	3952	3952	3998	3998	3952	3952	3952	3952	3952	3998	4093	4093	4093	6720	6592	6720	6720	6720	6720	6720	6720	6853	6853	6853	6853	6853	6992	6853	6853	6853	6853	6853	6992	6992	6992	6992	6992	6853	6592	6720	6720	6853	6853	6853	6853	6853	6853	6853	6853	6720	6720	6592	6592	6592	6592	6720	6853	6992	6853	6853	6853	6853	6853	6853	6720	6720	6720	6720	6720	6853	6853	6853	6853	6853	6720	6720	6720	6720	6720	6720	6720	6720	6720	6720	6720	6720	6592	6720	6592	6592	6720	6720	6592	6592	6592	6592	6592	0	0	0	0	0	6720	6349	6349	6349	6349	0	0	0	0	0	0	0	0	0	0	0	0	0	0	0	0	0	0	0	0	0	0	0	0	0	0	0	0	0	0	0	0	0	0	0	0	0	0	0	0	0	0	0	0	0	0	0	0
0	0	0	0	0	0	0	0	0	0	0	0	0	0	0	0	0	0	0	0	0	0	0	0	0	0	0	0	0	0	0	0	0	0	0	0	0	0	0	0	0	0	0	0	0	0	0	0	0	0	0	0	0	0	0	0	0	0	0	0	0	0	0	0	0	0	0	0	0	0	0	0	0	0	0	0	0	0	0	0	0	0	0	0	0	0	0	4406	4406	4406	4406	4406	4463	4463	4463	4463	4463	4463	4463	4463	4406	4406	4406	4406	4406	4406	4406	4406	4406	4406	4350	4350	4350	4350	4350	4350	4350	4521	4581	4581	4643	4643	4706	4643	4643	4643	5050	5050	5125	5125	5125	5125	5125	5125	5125	5202	5202	5202	5202	5202	5202	5202	5125	5125	5125	5202	5202	5202	5202	5282	5282	5282	5282	5282	5282	5282	5282	5282	5448	5535	5719	5719	5815	5815	5815	5815	5815	5815	5815	5915	5915	5915	6018	6018	6124	6124	6235	6235	6349	6349	6349	6235	6235	6235	6235	6235	6235	6235	6235	6235	6349	6349	6349	6349	6349	6349	6235	6235	6235	6235	6235	6235	6468	6468	6468	6468	6468	6468	6468	6468	6468	6468	6468	6349	6349	6349	6349	6349	6349	6468	6468	6468	6468	6349	6349	6349	6349	6349	6349	6349	6349	6349	6349	6349	6349	6349	6349	6349	6349	6349	6468	6468	6468	6468	6468	6468	6468	6349	6349	6349	6349	6349	6349	6468	6468	6468	6468	6468	6468	6592	6592	6592	6592	6468	6468	6468	6349	6349	6349	6349	6349	6468	6349	6349	6349	6235	6235	6235	6235	6124	0	0	3583	3583	3583	3583	3583	3583	3583	3583	3583	3583	3583	3583	3583	3583	3583	3621	3621	3621	3659	3659	3621	3621	3621	3621	0	6468	6468	6349	6235	6235	6235	6235	6235	6349	6349	6468	6468	6468	6468	6468	6468	6468	6468	6468	6468	6349	6349	6349	6349	6349	6349	6349	6468	6468	6468	6468	6468	6468	6468	6468	6468	6468	6468	6468	6468	6468	6468	6592	6592	6468	6468	6468	6468	6349	6349	6349	6468	6468	6349	6349	6349	6349	6349	6349	6468	6468	6468	6468	6468	6468	6592	6468	6468	6468	6468	6468	6468	6468	6468	6468	6468	6468	6468	6468	6468	6468	6592	6468	6468	6468	6468	6468	6468	6468	6592	6468	6468	6468	6592	6592	6592	6468	6592	6468	6468	6468	6468	6468	6468	6592	6592	6592	6592	6592	6592	6592	6468	6468	6468	6468	6468	6468	6468	6468	6468	6468	6468	6468	6468	6468	6468	6468	6468	6468	6468	6468	6468	6468	6468	6468	6468	6468	6468	6468	6468	6592	6468	6468	6468	6468	6468	6592	6592	6592	6592	6592	6720	6592	6592	6592	6592	6592	6468	6468	6468	6468	0	0	0	0	0	0	0	0	0	0	0	0	0	0	0	0	3952	3952	3998	3998	3998	3952	3952	3952	3952	3952	3952	3998	4045	4045	6720	6592	6720	6720	6720	6720	6720	6720	6992	6992	6853	6992	6853	6992	6853	6853	6853	6992	6992	6992	7137	7137	7137	6992	6720	6720	6853	6853	6853	6853	6853	6853	6853	6853	6853	6853	6720	6720	6592	6592	6592	6720	6720	6853	6853	6853	6853	6853	6853	6853	6853	6853	6720	6720	6853	6853	6853	6853	6992	6992	6992	6853	6853	6720	6853	6853	6720	6720	6720	6720	6720	6720	6720	6720	6720	6592	6592	6592	6720	6592	6592	6592	6592	6592	0	0	0	0	0	6349	6349	6235	6235	6349	0	0	0	0	0	0	0	0	0	0	0	0	0	0	0	0	0	0	0	0	0	0	0	0	0	0	0	0	0	0	0	0	0	0	0	0	0	0	0	0	0	0	0	0	0	0	0	0
0	0	0	0	0	0	0	0	0	0	0	0	0	0	0	0	0	0	0	0	0	0	0	0	0	0	0	0	0	0	0	0	0	0	0	0	0	0	0	0	0	0	0	0	0	0	0	0	0	0	0	0	0	0	0	0	0	0	0	0	0	0	0	0	0	0	0	0	0	0	0	0	0	0	0	0	0	0	0	0	0	0	0	0	0	0	0	4406	4406	4406	4406	4406	4463	4463	4463	4463	4463	4463	4463	4463	4406	4406	4350	4350	4350	4350	4350	4350	4406	4350	4350	4350	4350	4350	4350	4350	4350	4521	4581	4581	4581	4581	4581	4581	4581	5125	5125	5125	5125	5125	5125	5125	5125	5125	5125	5125	5125	5125	5202	5202	5202	5125	5125	5125	5125	5202	5202	5202	5202	5282	5282	5282	5282	5282	5282	5282	5282	5364	5448	5535	5535	5626	5719	5719	5719	5719	5815	5915	5915	5915	5915	5915	6018	6018	6124	6124	6235	6235	6235	6349	6349	6349	6349	6349	6349	6235	6235	6235	6235	6235	6235	6349	6349	6349	6349	6349	6349	6235	6235	6235	6235	6349	6468	6468	6468	6468	6468	6468	6468	6468	6468	6468	6468	6468	6468	6468	6468	6468	6468	6468	6468	6468	6468	6349	6349	6349	6349	6349	6349	6349	6349	6468	6468	6468	6468	6468	6468	6468	6468	6468	6468	6468	6468	6468	6468	6468	6468	6349	6349	6349	6349	6349	6349	6349	6349	6349	6468	6468	6468	6592	6592	6592	6468	6468	6468	6468	6349	6349	6349	6349	6468	6468	6468	6349	6349	6349	6349	6235	6124	6124	0	3621	3583	3583	3583	3583	3583	3583	3621	3583	3583	3583	3583	3583	3583	3583	3583	3583	3659	3621	3659	3659	3621	3621	3621	3621	3621	6592	6468	6349	6349	6349	6349	6235	6349	6468	6468	6468	6468	6468	6592	6592	6468	6592	6468	6468	6468	6349	6349	6349	6349	6349	6349	6349	6349	6468	6468	6468	6468	6468	6592	6592	6468	6468	6468	6468	6468	6468	6468	6592	6592	6592	6468	6468	6468	6468	6349	6349	6468	6468	6468	6349	6349	6468	6468	6468	6468	6468	6468	6592	6468	6468	6592	6592	6592	6592	6592	6468	6468	6592	6468	6468	6468	6468	6592	6592	6592	6592	6592	6592	6592	6468	6468	6468	6468	6468	6592	6468	6468	6592	6592	6592	6592	6592	6592	6468	6592	6592	6720	6592	6592	6720	6720	6720	6592	6592	6592	6592	6592	6592	6468	6468	6468	6468	6468	6468	6468	6468	6592	6592	6592	6468	6592	6592	6720	6592	6592	6592	6592	6468	6468	6468	6468	6468	6468	6468	6468	6468	6468	6468	6468	6468	6592	6592	6720	6720	6720	6720	6720	6720	6720	6720	6592	6592	6592	6592	6720	6720	0	0	0	0	0	0	0	0	0	0	0	0	0	0	0	0	3998	3998	3998	3998	3998	3998	3952	3952	3952	3952	3952	3998	4045	4045	6720	6720	6720	6720	6720	6720	6720	6720	6853	6853	6853	6853	6853	6992	6992	6992	6853	6992	6992	6992	7137	6992	7137	6992	6992	6720	6853	6853	6853	6853	6853	6992	6853	6853	6853	6853	6853	6853	6720	6720	6720	6720	6853	6853	6992	6992	6992	6853	6992	6992	6853	6720	6720	6720	6853	6853	6853	6853	6992	6992	6992	6992	6853	6853	6853	6853	6720	6720	6853	6720	6720	6720	6720	6720	6720	6592	6592	6720	6720	6592	6592	6592	6592	0	0	0	0	0	0	6349	6468	6349	6349	0	0	0	0	0	0	0	0	0	0	0	0	0	0	0	0	0	0	0	0	0	0	0	0	0	0	0	0	0	0	0	0	0	0	0	0	0	0	0	0	0	0	0	0	0	0	0	0	0
0	0	0	0	0	0	0	0	0	0	0	0	0	0	0	0	0	0	0	0	0	0	0	0	0	0	0	0	0	0	0	0	0	0	0	0	0	0	0	0	0	0	0	0	0	0	0	0	0	0	0	0	0	0	0	0	0	0	0	0	0	0	0	0	0	0	0	0	0	0	0	0	0	0	0	0	0	0	0	0	0	0	0	0	0	0	0	4406	4406	4406	4406	4406	4406	4406	4406	4463	4463	4463	4406	4406	4406	4406	4350	4406	4350	4350	4350	4350	4350	4350	4350	4350	4350	4350	4406	4406	4463	4521	4581	4581	4581	4581	4581	4581	4643	4643	5202	5202	5125	5125	5125	5125	5125	5125	5125	5125	5125	5125	5125	5125	5125	5125	5125	5125	5125	5202	5202	5202	5202	5202	5282	5282	5282	5282	5282	5364	5364	5448	5448	5448	5535	5535	5719	5719	5719	5719	5815	5915	5915	5915	5915	5915	6018	6018	6018	6124	6235	6235	6235	6235	6349	6349	6235	6349	6235	6235	6235	6235	6235	6235	6349	6349	6349	6349	6349	6349	6349	6235	6235	6235	6235	6235	6468	6468	6468	6468	6468	6468	6468	6468	6468	6468	6468	6468	6468	6468	6468	6468	6468	6468	6468	6468	6468	6349	6349	6349	6349	6349	6349	6349	6468	6468	6468	6468	6468	6468	6468	6468	6349	6468	6468	6468	6468	6468	6468	6468	6468	6349	6349	6349	6349	6235	6235	6349	6349	6349	6468	6468	6468	6592	6592	6592	6592	6468	6468	6468	6468	6468	6468	6468	6468	6468	6468	6468	6349	6349	6349	6235	6124	6124	0	3621	3621	3583	3583	3583	3583	3621	3621	3621	3621	3621	3621	3583	3621	3583	3583	3583	3621	3621	3659	3659	3621	3659	3621	3583	3583	6592	6592	6468	6349	6468	6349	6349	6349	6468	6468	6468	6592	6592	6592	6592	6468	6592	6592	6468	6468	6468	6468	6349	6349	6349	6349	6592	6592	6468	6468	6468	6592	6592	6592	6592	6592	6592	6468	6592	6592	6592	6468	6592	6592	6592	6468	6468	6468	6468	6349	6349	6468	6468	6468	6349	6468	6468	6468	6468	6468	6592	6592	6592	6468	6592	6720	6592	6592	6592	6592	6592	6592	6592	6592	6592	6592	6592	6720	6592	6592	6592	6592	6592	6592	6592	6592	6468	6592	6592	6592	6468	6592	6592	6592	6592	6592	6592	6592	6592	6592	6720	6720	6720	6720	6720	6720	6720	6592	6720	6720	6720	6592	6592	6592	6592	6592	6592	6592	6592	6592	6468	6720	6720	6720	6592	6720	6720	6720	6720	6720	6720	6592	6592	6592	6592	6592	6592	6592	6592	6592	6592	6468	6468	6592	6592	6720	6720	6720	6853	6853	6720	6720	6720	6720	6720	6720	6720	6720	6720	6720	6720	0	0	0	0	0	0	0	0	0	0	0	0	0	0	0	0	4045	4045	3998	3998	3998	3952	3952	3952	3952	3952	3952	3952	3907	3952	3952	6853	6853	6853	6853	6853	6720	6720	6853	6992	6853	6992	6853	6992	6992	6992	6992	6853	6992	6992	6992	6992	7137	6992	6992	6853	6853	6853	6853	6853	6992	6992	6992	6853	6853	6853	6992	6992	6853	6853	6720	6853	6853	6853	6992	6853	6853	6853	6720	6992	6853	6853	6720	6853	6853	6853	6853	6853	6992	6992	6992	6992	6992	6992	6992	6992	6853	6853	6853	6853	6853	6853	6853	6720	6720	6720	6720	6720	6720	6592	6592	6592	6468	6592	6592	6468	6349	6349	6349	6468	6468	6468	6349	0	0	0	0	0	0	0	0	0	0	0	0	0	0	0	0	0	0	0	0	0	0	0	0	0	0	0	0	0	0	0	0	0	0	0	0	0	0	0	0	0	0	0	0	0	0	0	0	0
0	0	0	0	0	0	0	0	0	0	0	0	0	0	0	0	0	0	0	0	0	0	0	0	0	0	0	0	0	0	0	0	0	0	0	0	0	0	0	0	0	0	0	0	0	0	0	0	0	0	0	0	0	0	0	0	0	0	0	0	0	0	0	0	0	0	0	0	0	0	0	0	0	0	0	0	0	0	0	0	0	0	0	0	0	0	0	4350	4350	4406	4406	4406	4406	4406	4463	4463	4463	4463	4463	4463	4463	4406	4406	4406	4350	4350	4350	4350	4350	4350	4350	4350	4350	4350	4406	4406	4406	4406	4581	4581	4581	4581	4581	4581	4581	5125	5202	5202	5125	5202	5125	5125	5125	5125	5125	5125	5125	5125	5125	5125	5125	5125	5125	5125	5125	5202	5202	5202	5202	5282	5282	5282	5282	5202	5282	5282	5282	5364	5364	5535	5626	5626	0	0	0	0	0	5815	5915	5915	5915	5915	6018	6124	6124	6124	6235	6235	6235	6235	6349	6349	6349	6349	6349	6349	6349	6235	6349	6349	6349	6349	6349	6468	6468	6468	6349	6349	6235	6235	6235	6235	6468	6468	6468	6468	6468	6468	6468	6468	6468	6468	6468	6468	6468	6468	6468	6468	6468	6468	6468	6468	6468	6349	6349	6349	6349	6349	6349	6349	6349	6468	6468	6468	6468	6468	6468	6468	6468	6468	6468	6468	6468	6468	6468	6468	6468	6468	6349	6349	6349	6349	6235	6349	6349	6349	6468	6468	6468	6592	6592	6592	6592	6592	6592	6468	6468	6468	6468	6468	6592	6592	6468	6468	6468	6349	6349	6349	0	0	0	0	3583	3621	3621	3621	3621	3621	3621	3621	3621	3621	3621	3621	3621	3583	3583	3621	3621	3621	3621	3621	3621	3659	3621	3621	3621	3621	6592	6468	6468	6468	6468	6468	6468	6592	6468	6592	6592	6592	6592	6592	6468	6592	6468	6468	6468	6349	6349	6349	6468	6468	6468	6468	6592	6468	6592	6592	6592	6592	6592	6592	6592	6592	6468	6592	6592	6592	6592	6592	6592	6592	6592	6592	6468	6468	6468	6468	6468	6468	6468	6468	6468	6468	6592	6468	6592	6592	6592	6592	6592	6592	6720	6720	6720	6720	6720	6592	6720	6720	6720	6720	6592	6720	6720	6592	6592	6592	6720	6720	6592	6592	6468	6468	6468	6468	6592	6592	6592	6592	6592	6720	6592	6592	6720	6720	6720	6720	6853	6720	6720	6720	6720	6720	6720	6720	6720	6720	6592	6592	6592	6592	6720	6592	6592	6592	6592	6592	6720	6720	6720	6720	6853	6853	6853	6853	6720	6720	6720	6720	6592	6720	6720	6720	6592	6592	6592	6592	6592	6592	6720	6720	6720	6720	6853	6853	6853	6853	6720	6720	6720	6720	6720	6720	6720	6720	6720	6720	0	0	0	0	0	0	0	0	0	0	0	0	0	0	0	3998	4045	4045	3998	3952	3998	3952	3952	3952	3952	3952	3952	3952	3907	3907	6992	6992	6992	6853	6992	6992	6853	6853	6992	6992	6992	6992	6992	7137	6992	6992	6992	6992	6992	6992	7137	6992	7137	6992	6992	6853	6853	6853	6853	6992	6992	6992	6992	6992	6992	6992	6992	6992	6992	6853	6853	6853	6992	6992	6992	6992	6992	6992	7137	6992	6853	6853	6853	6853	6992	6992	6853	6853	6992	6992	6992	6992	6992	6992	6992	6992	6992	6992	6992	6992	6853	6853	6853	6720	6720	6720	6720	6720	6720	6592	6592	6592	6592	6592	6592	6468	6468	6592	6592	6592	6592	6592	0	0	0	0	0	0	0	0	0	0	0	0	0	0	0	0	0	0	0	0	0	0	0	0	0	0	0	0	0	0	0	0	0	0	0	0	0	0	0	0	0	0	0	0	0	0	0	0	0	0
0	0	0	0	0	0	0	0	0	0	0	0	0	0	0	0	0	0	0	0	0	0	0	0	0	0	0	0	0	0	0	0	0	0	0	0	0	0	0	0	0	0	0	0	0	0	0	0	0	0	0	0	0	0	0	0	0	0	0	0	0	0	0	0	0	0	0	0	0	0	0	0	0	0	0	0	0	0	0	0	0	0	0	0	0	0	0	4350	4463	4406	4406	4406	4406	4406	4463	4463	4463	4463	4463	4463	4463	4463	4406	4406	4406	4406	4350	4350	4350	4350	4350	4350	4406	4406	4521	4463	4521	4521	4581	4581	4581	4581	4581	4581	4581	5202	5202	5202	5202	5202	5125	5125	5125	5125	5125	5125	5202	5125	5125	5125	5125	5125	5125	5125	5125	5202	5202	5202	5202	5282	5282	5282	5282	5202	5282	5364	5364	5448	5535	5535	5626	5626	0	0	0	0	0	5815	5915	5915	5915	5915	6018	6124	6124	6235	6235	6235	6235	6349	6349	6349	6349	6349	6349	6349	6349	6235	6349	6349	6349	6349	6349	6468	6468	6468	6468	6468	6468	6349	6349	6349	6468	6468	6468	6468	6468	6468	6468	6468	6468	6468	6468	6468	6468	6468	6468	6468	6468	6468	6468	6468	6468	6468	6349	6349	6349	6349	6349	6349	6468	6468	6468	6468	6468	6468	6468	6468	6468	6468	6468	6468	6468	6468	6468	6468	6468	6468	6349	6349	6349	6349	6349	6349	6349	6349	6468	6468	6468	6592	6592	6592	6592	6592	6592	6592	6592	6592	6592	6592	6592	6592	6468	6468	6468	6468	6349	6349	0	0	0	0	3621	3621	3621	3621	3621	3659	3621	3621	3621	3621	3621	3621	3621	3583	3583	3621	3659	3659	3659	3659	3659	3659	3659	3659	3659	3659	6720	6592	6468	6592	6468	6468	6468	6592	6592	6592	6592	6592	6592	6592	6592	6592	6592	6592	6592	6468	6468	6468	6468	6468	6468	6468	6592	6592	6592	6592	6592	6592	6592	6592	6592	6592	6592	6592	6592	6592	6592	6592	6592	6592	6592	6592	6468	6468	6468	6349	6468	6468	6468	6468	6468	6592	6592	6592	6592	6592	6720	6592	6592	6592	6592	6720	6720	6720	6720	6720	6720	6720	6720	6720	6720	6720	6720	6720	6720	6720	6720	6720	6592	6592	6592	6592	6592	6592	6592	6592	6592	6592	6592	6720	6592	6720	6720	6720	6853	6853	6853	6720	6720	6720	6720	6720	6720	6720	6720	6720	6720	6720	6720	6720	6720	6720	6720	6720	6720	6592	6720	6720	6720	6720	6853	6853	6853	6853	6853	6720	6720	6720	6720	6720	6720	6720	6720	6720	6720	6720	6592	6720	6720	6720	6853	6853	6853	6853	6853	6853	6853	6720	6853	6853	6853	6853	6853	6853	6853	0	0	0	0	0	0	0	0	0	0	0	0	0	0	0	3998	3998	4045	4045	3952	3952	3952	3952	3952	3952	3952	3952	3952	3907	3907	3907	7137	6992	6992	6992	6992	6992	6853	6853	6992	6992	6992	6992	6992	7137	7137	6992	6992	6992	6992	6992	6992	6992	6992	6992	6992	6853	6992	6853	6992	6992	6992	7137	6992	6992	6992	6992	6992	6992	6992	6992	6853	6992	6992	6992	6992	6992	7137	7137	7137	7137	7137	7137	6992	6992	6992	6992	6992	6992	7137	7137	7137	6992	6992	6992	7137	7137	7137	6992	6992	6992	6992	6992	6992	6853	6720	6720	6720	6720	6720	6592	6592	6592	6592	6592	6592	6468	6592	6592	6592	6720	6720	6720	0	0	0	0	0	0	0	0	0	0	0	0	0	0	0	0	0	0	0	0	0	0	0	0	0	0	0	0	0	0	0	0	0	0	0	0	0	0	0	0	0	0	0	0	0	0	0	0	0	0
0	0	0	0	0	0	0	0	0	0	0	0	0	0	0	0	0	0	0	0	0	0	0	0	0	0	0	0	0	0	0	0	0	0	0	0	0	0	0	0	0	0	0	0	0	0	0	0	0	0	0	0	0	0	0	0	0	0	0	0	0	0	0	0	0	0	0	0	0	0	0	0	0	0	0	0	0	0	0	0	0	0	0	0	0	0	0	0	4521	4463	4406	4406	4406	4406	4463	4463	4463	4463	4463	4463	4521	4463	4463	4406	4406	4406	4406	4350	4406	4406	4406	4350	4406	4406	4521	4463	4521	4521	0	0	4581	4581	0	0	0	5125	5202	5202	5202	5202	5125	5125	5125	5125	5125	5125	5125	5125	5125	5125	5125	5125	5125	5125	5125	5202	5202	5202	5202	5202	5202	5282	5282	5202	5282	5364	5535	5448	5535	5535	5626	5626	0	0	0	0	0	5815	5915	5915	5915	6018	6018	6124	6235	6235	6349	6349	6349	6349	6349	6468	6468	6468	6349	6468	6349	6349	6349	6349	6349	6349	6468	6468	6468	6468	6468	6468	6468	6349	6468	6468	6592	6592	6592	6592	6468	6592	6468	6468	6468	6468	6468	6468	6468	6468	6468	6468	6468	6468	6468	6468	6468	6468	6468	6468	6468	6468	6468	6468	6468	6468	6468	6468	6468	6468	6468	6468	6468	6468	6468	6468	6468	6468	6468	6592	6592	6592	6468	6468	6468	6349	6349	6349	6349	6349	6468	6468	6468	6592	6592	6592	6592	6592	6592	6592	6592	6592	6592	6592	6592	6592	6592	6468	6468	6468	6468	6349	0	0	0	0	3621	3621	3659	3621	3621	3621	3621	3621	3583	3583	3621	3621	3621	3583	3583	3621	3621	3621	3659	3621	3621	3659	3659	3659	3659	3659	6720	6592	6592	6592	6592	6468	6468	6592	6592	6592	6592	6592	6592	6592	6592	6592	6592	6592	6592	6468	6468	6468	6468	6592	6592	6592	6592	6720	6720	6720	6720	6720	6592	6720	6720	6592	6592	6720	6720	6720	6592	6592	6592	6592	6592	6592	6592	6592	6468	6468	6592	6592	6468	6468	6592	6592	6592	6592	6592	6720	6720	6720	6592	6720	6720	6720	6720	6720	6720	6720	6720	6720	6720	6720	6720	6720	6720	6720	6720	6720	6720	6720	6720	6720	6592	6592	6592	6592	6592	6592	6592	6592	6592	6592	6592	6720	6720	6853	6853	6853	6853	6853	6720	6720	6720	6720	6720	6720	6720	6720	6720	6720	6720	6720	6720	6720	6720	6720	6720	6592	6720	6720	6720	6853	6853	6853	6853	6853	6853	6853	6853	6853	6853	6853	6853	6853	6853	6853	6853	6853	6720	6720	6720	6720	6720	6720	6853	6853	6853	6853	6853	6853	6853	6853	6853	6853	6853	6853	6853	0	0	0	0	0	0	0	0	0	0	0	0	0	3998	4045	3998	3998	4045	4045	3952	3952	3952	3952	3952	3952	3952	3952	3952	3907	3864	3864	7137	6992	6992	6992	6992	6992	6853	6853	6992	6992	6992	6992	7137	7137	7137	6992	6992	6992	6992	6992	6992	6992	6992	6992	6992	6992	6992	6853	6992	6992	7137	7137	7137	6992	6992	6992	6992	6992	6992	6853	6853	6992	6992	6992	6992	6992	7137	7137	7137	7137	7137	7137	7137	7137	7137	7137	7137	7137	7137	7137	7137	6992	7137	7137	7137	7137	7137	6992	6992	7137	6992	7137	6992	6853	6853	6720	6720	6720	6720	6720	6592	6592	6592	6592	6592	6592	6592	6592	6592	6720	6720	6720	0	0	0	0	0	0	0	0	0	0	0	0	0	0	0	0	0	0	0	0	0	0	0	0	0	0	0	0	0	0	0	0	0	0	0	0	0	0	0	0	0	0	0	0	0	0	0	0	0	0
0	0	0	0	0	0	0	0	0	0	0	0	0	0	0	0	0	0	0	0	0	0	0	0	0	0	0	0	0	0	0	0	0	0	0	0	0	0	0	0	0	0	0	0	0	0	0	0	0	0	0	0	0	0	0	0	0	0	0	0	0	0	0	0	0	0	0	0	0	0	0	0	0	0	0	0	0	0	0	0	0	0	0	0	0	0	0	0	4521	4463	4406	4406	4406	4406	4406	4406	4463	4406	4406	4463	4463	4463	4406	4406	4406	4406	4406	4406	4406	4406	4406	4406	4406	4406	4463	4463	4521	4521	0	0	0	0	0	0	0	5050	5125	5202	5125	5125	5125	5125	5125	5125	5125	5125	5125	5125	5125	5125	5125	5125	5125	5125	5125	5202	5202	5202	5202	5202	5202	5282	5282	5282	5282	5364	5364	5448	5535	5535	5535	5535	5535	0	0	0	0	0	0	5915	6018	6018	6018	6124	6235	6235	6349	6235	6349	6349	6349	6468	6468	6468	6468	6468	6349	6349	6349	6349	6349	6349	6468	6468	6468	6468	6468	6468	6468	6349	6468	6468	6592	6592	6592	6592	6592	6720	6592	6592	6592	6592	6592	6592	6468	6468	6468	6468	6468	6468	6468	6468	6468	6468	6468	6468	6468	6468	6468	6468	6468	6468	6468	6468	6468	6468	6468	6468	6468	6468	6468	6468	6468	6592	6592	6592	6592	6592	6468	6468	6468	6468	6349	6349	6349	6349	6349	6468	6468	6468	6720	6720	6592	6592	6592	6592	6592	6592	6592	6592	6592	6592	6592	6468	6468	6468	6468	0	0	0	0	0	0	3621	3621	3621	3621	3621	3621	3621	3583	3583	3621	3621	3621	3583	3583	3621	3621	3621	3659	3659	3659	3659	3659	3698	3698	3698	0	6592	6592	6592	6592	6592	6468	6592	6592	6592	6720	6720	6720	6720	6720	6720	6592	6592	6592	6592	6592	6592	6592	6592	6592	6592	6720	6720	6720	6720	6720	6720	6592	6592	6592	6592	6592	6720	6720	6720	6720	6592	6592	6592	6592	6592	6592	6592	6592	6592	6592	6592	6592	6592	6592	6592	6720	6720	6592	6720	6720	6720	6720	6720	6853	6853	6853	6853	6720	6720	6853	6853	6853	6720	6720	6720	6720	6720	6720	6720	6720	6720	6720	6720	6720	6720	6720	6592	6592	6592	6592	6592	6592	6592	6592	6720	6720	6853	6853	6853	6853	6853	6720	6720	6720	6720	6720	6720	6720	6720	6720	6720	6720	6720	6720	6720	6720	6720	6720	6592	6720	6720	6853	6853	6853	6853	6853	6853	6853	6853	6853	6853	6853	6853	6853	6853	6853	6853	6853	6853	6720	6720	6853	6720	6720	6853	6853	6853	6853	6853	6853	6853	6853	6853	6853	6853	6853	6853	6853	0	0	0	0	0	0	0	0	0	0	0	4045	4045	3998	3998	3998	3998	4045	4045	4045	3907	3907	3907	3952	3952	3952	3907	3907	3907	3864	3864	7137	6992	6992	6992	6992	6992	6853	6992	6992	7137	7137	6992	7137	7137	7137	7137	6992	6992	7137	7137	6992	6992	6992	6992	6992	6992	6992	6992	6992	6992	7137	7137	7137	6992	6992	6992	6992	6992	6992	6992	6992	6992	6992	6992	6992	6992	7137	7137	7137	7137	7137	7137	7137	7137	7137	7137	7137	7137	7287	7137	7137	7137	7137	7137	7137	7137	7137	7137	6992	7137	7137	7137	6992	6992	6992	6853	6853	6720	6720	6720	6592	6592	6592	6592	6592	6592	6592	6592	6592	0	0	0	0	0	0	0	0	0	0	0	0	0	0	0	0	0	0	0	0	0	0	0	0	0	0	0	0	0	0	0	0	0	0	0	0	0	0	0	0	0	0	0	0	0	0	0	0	0	0	0	0	0
0	0	0	0	0	0	0	0	0	0	0	0	0	0	0	0	0	0	0	0	0	0	0	0	0	0	0	0	0	0	0	0	0	0	0	0	0	0	0	0	0	0	0	0	0	0	0	0	0	0	0	0	0	0	0	0	0	0	0	0	0	0	0	0	0	0	0	0	0	0	0	0	0	0	0	0	0	0	0	0	0	0	0	0	0	0	0	0	4521	4463	4463	4406	4406	4406	4406	4406	4406	4406	4406	4406	4463	4406	4406	4406	4406	4406	4406	4406	4406	4463	4406	4406	4406	4406	4463	4463	4521	4521	0	0	0	0	0	0	0	5050	5125	5125	5125	5125	5125	5125	5125	5125	5125	5125	5125	5125	5125	5125	5125	5125	5125	5125	5125	5202	5202	5202	5202	5282	5202	5282	5282	5282	5282	5364	5364	5448	5448	5535	5535	5535	5535	0	0	0	0	5815	5815	5915	5915	6018	6124	6124	6235	6235	6235	6349	6349	6349	6349	6468	6468	6468	6468	6468	6349	6349	6349	6349	6349	6349	6468	6468	6468	6468	6468	6468	6468	6468	6468	6468	6592	6592	6592	6592	6592	6592	6592	6592	6592	6592	6592	6592	6592	6592	6468	6468	6468	6468	6468	6468	6468	6468	6468	6468	6468	6468	6468	6468	6468	6468	6468	6468	6468	6468	6468	6468	6468	6468	6468	6468	6592	6592	6592	6592	6592	6592	6592	6468	6468	6468	6468	6468	6468	6468	6468	6468	6592	6720	6720	6720	6720	6592	6592	6592	6592	6592	6592	6592	6720	6592	6592	6468	6468	6468	6468	0	0	0	0	0	3698	3659	3621	3621	3621	3621	3621	3583	3583	3583	3583	3583	3583	3583	3583	3621	3621	3621	3621	3621	3659	3659	3659	3698	3698	3698	6592	6592	6592	6592	6592	6592	6592	6720	6592	6592	6720	6720	6720	6720	6720	6720	6720	6592	6592	6592	6592	6592	6592	6592	6592	6720	6720	6720	6720	6720	6720	6720	6592	6592	6592	6592	6592	6720	6720	6720	6720	6720	6592	6592	6720	6720	6592	6592	6592	6592	6592	6592	6592	6592	6592	6592	6720	6720	6720	6720	6720	6720	6720	6720	6853	6853	6853	6853	6720	6853	6853	6853	6853	6853	6720	6853	6720	6720	6720	6720	6720	6720	6720	6720	6720	6720	6720	6720	6720	6592	6592	6592	6592	6592	6592	6592	6720	6853	6853	6853	6853	6720	6720	6720	6720	6720	6720	6720	6720	6720	6720	6720	6720	6720	6720	6720	6720	6720	6720	6720	6592	6853	6853	6853	6853	6853	6853	6992	6853	6853	6853	6853	6853	6853	6853	6853	6853	6853	6853	6853	6853	6853	6853	6853	6992	6992	6992	6992	6853	6853	6853	6853	6853	6853	6853	6853	6853	6853	6853	0	0	0	0	0	0	0	0	0	0	4045	4045	4045	3998	3998	3998	3998	3998	3952	3907	3907	3907	3907	3907	3952	3952	3907	3907	3907	3864	3864	6992	6992	6992	6992	7137	6992	6992	7137	7137	7137	7137	7137	7137	7287	7137	7137	6992	7137	7137	7137	7137	7137	7137	6992	6992	6992	7137	7137	7137	7137	7137	7137	7137	6992	6992	6992	6992	6992	6992	6992	6992	6992	6992	6992	6992	7137	7137	7137	7137	7137	7137	7137	7137	7137	7137	7137	7137	7137	7137	7137	7137	7137	7137	7137	7137	7137	7137	7137	6992	7137	7137	7137	7137	6992	6853	6853	6853	6853	6720	6592	6592	6592	6592	6592	6592	6592	6592	6592	6592	0	0	0	0	0	0	0	0	0	0	0	0	0	0	0	0	0	0	0	0	0	0	0	0	0	0	0	0	0	0	0	0	0	0	0	0	0	0	0	0	0	0	0	0	0	0	0	0	0	0	0	0	0
0	0	0	0	0	0	0	0	0	0	0	0	0	0	0	0	0	0	0	0	0	0	0	0	0	0	0	0	0	0	0	0	0	0	0	0	0	0	0	0	0	0	0	0	0	0	0	0	0	0	0	0	0	0	0	0	0	0	0	0	0	0	0	0	0	0	0	0	0	0	0	0	0	0	0	0	0	0	0	0	0	0	0	0	0	0	0	0	4463	4463	4463	4406	4406	4406	4406	4463	4463	4406	4406	4406	4463	4406	4406	4463	4406	4406	4406	4406	4406	4406	4406	4350	4406	4406	4463	4463	4463	4463	0	0	0	0	0	0	0	5050	5050	5125	5125	5125	5125	5125	5125	5125	5125	5125	5125	5125	5125	5125	5125	5125	5125	5125	5125	5202	5202	5202	5282	5282	5282	5282	5282	5282	5282	5364	5364	5448	5448	5535	5535	5535	5535	0	0	0	0	5815	5915	5915	5915	6018	6124	6235	6235	6349	6349	6349	6349	6349	6349	6468	6468	6468	6468	6468	6349	6349	6349	6349	6349	6349	6468	6468	6468	6468	6468	6468	6468	6468	6468	6592	6592	6720	6592	6592	6592	6720	6592	6720	6720	6720	6592	6592	6592	6468	6468	6468	6468	6468	6468	6468	6468	6468	6468	6468	6468	6468	6468	6468	6468	6592	6468	6468	6592	6468	6468	6468	6468	6592	6592	6468	6592	6592	6592	6592	6592	6592	6592	6592	6592	6592	6592	6592	6468	6468	6468	6592	6592	6853	6720	6720	6720	6720	6720	6592	6592	6592	6592	6592	6720	6720	6592	6592	6592	6468	6468	0	0	0	0	0	3659	3659	3621	3621	3583	3583	3583	3583	3583	3583	3583	3583	3583	3583	3583	3583	3621	3583	3621	3621	3621	3659	3621	3659	3698	3698	3738	6592	6592	6592	6592	6592	6592	6720	6720	6720	6720	6720	6720	6720	6720	6720	6720	6720	6592	6592	6592	6592	6592	6592	6592	6720	6853	6853	6720	6720	6720	6720	6720	6592	6592	6592	6592	6720	6720	6720	6720	6720	6720	6720	6720	6720	6720	6592	6592	6592	6592	6592	6592	6720	6720	6720	6720	6720	6720	6720	6720	6720	6720	6720	6853	6853	6853	6853	6853	6853	6853	6853	6853	6853	6853	6853	6720	6720	6720	6720	6720	6720	6720	6720	6720	6720	6720	6720	6720	6720	6592	6592	6592	6592	6592	6592	6592	6853	6853	6853	6853	6853	6720	6720	6720	6720	6720	6720	6720	6853	6853	6853	6853	6853	6853	6853	6720	6720	6720	6720	6720	6853	6853	6853	6853	6853	6992	6992	6992	6992	6853	6853	6853	6853	6853	6992	6853	6853	6853	6992	6992	6853	6853	6853	6992	6992	6992	6853	6853	6853	6853	6853	6853	6853	6853	6853	6853	0	0	0	0	0	0	0	0	0	0	0	0	4045	4045	4045	3998	3952	3952	3952	3998	3952	3907	3907	3907	3907	3907	3952	3952	3952	3907	3907	3864	3864	6992	6992	6992	6992	7137	6992	6992	7137	7137	7137	7137	7137	7287	7287	7137	7287	7137	6992	7137	7137	6992	6992	6992	7137	7137	6992	7137	7137	7137	7137	7137	7137	7137	7137	6992	6992	6992	6992	6992	6992	6992	6992	6992	6992	7137	7137	7137	7137	7137	7137	7137	7137	7137	7137	7137	7137	7137	7137	7287	7137	7287	7137	7137	7137	7137	7137	7137	7137	6992	7137	6992	6992	6992	6992	6853	6853	6853	6853	6720	6720	6720	6720	6720	6592	6592	6592	6592	0	0	0	0	0	0	0	0	0	0	0	0	0	0	0	0	0	0	0	0	0	0	0	0	0	0	0	0	0	0	0	0	0	0	0	0	0	0	0	0	0	0	0	0	0	0	0	0	0	0	0	0	0	0	0
0	0	0	0	0	0	0	0	0	0	0	0	0	0	0	0	0	0	0	0	0	0	0	0	0	0	0	0	0	0	0	0	0	0	0	0	0	0	0	0	0	0	0	0	0	0	0	0	0	0	0	0	0	0	0	0	0	0	0	0	0	0	0	0	0	0	0	0	0	0	0	0	0	0	0	0	0	0	0	0	0	0	0	0	0	0	0	0	4463	4463	4406	4406	4406	4406	4406	4406	4463	4406	4406	4406	4406	4406	4463	4463	4463	4463	4406	4406	4406	4406	4406	4406	4406	4406	4463	4463	4463	4463	0	0	0	0	0	0	0	5050	5050	5125	5125	5125	5125	5125	5125	5125	5125	5125	5125	5125	5125	5125	5125	5125	5125	5125	5125	5202	5282	5202	5282	5282	5282	5282	5282	5282	5282	5364	5364	5448	5448	5448	5535	5535	0	0	0	0	5915	5915	5915	5915	6018	6018	6018	6018	6235	6349	6349	6349	6349	6349	6468	6468	6592	6468	6468	6592	6468	6468	6349	6468	6349	6349	6349	6468	6468	6468	6468	6468	6468	6592	6592	6592	6720	6720	6720	6720	6720	6720	6592	6720	6720	6720	6592	6468	6592	6468	6468	6468	6468	6468	6468	6468	6468	6468	6468	6592	6468	6592	6592	6592	6468	6468	6468	6468	6468	6468	6468	6468	6468	6468	6468	6468	6468	6592	6592	6592	6592	6720	6592	6592	6592	6592	6720	6592	6592	6592	6592	6720	6720	6853	6853	6853	6720	6720	6720	6720	6592	6592	6592	6592	6720	6720	6592	6592	6592	6592	6592	0	0	0	0	3659	3659	3659	3621	3583	3583	3583	3583	3583	3583	3583	3583	3583	3583	3583	3583	3583	3583	3583	3583	3583	3583	3621	3621	3659	3698	3738	3738	6592	6592	6592	6592	6592	6592	6720	6720	6720	6720	6720	6720	6720	6720	6720	6720	6720	6720	6720	6720	6720	6720	6720	6720	6720	6853	6853	6853	6720	6720	6720	6720	6592	6592	6592	6592	6592	6720	6720	6720	6720	6720	6720	6720	6720	6720	6720	6592	6720	6720	6720	6720	6720	6720	6720	6720	6720	6720	6720	6853	6720	6720	6720	6853	6853	6853	6853	6720	6853	6853	6853	6853	6853	6853	6853	6853	6720	6720	6720	6720	6720	6720	6720	6720	6720	6720	6720	6720	6720	6720	6720	6592	6592	6592	6720	6853	6853	6853	6853	6853	6853	6720	6720	6720	6720	6720	6720	6720	6853	6853	6853	6853	6853	6853	6853	6853	6853	6720	6720	6720	6853	6992	6992	6853	6853	6992	6992	6992	6853	6853	6853	6853	6853	6992	6992	6853	6992	6992	6992	6992	6853	6853	6853	6992	6992	6853	6853	6853	6853	6853	6853	6853	6853	6853	6853	0	0	0	0	0	0	0	0	0	0	0	0	3998	3998	3998	3998	3998	3952	3952	3952	3952	3952	3907	3907	3907	3907	3907	3907	3952	3952	3952	3907	3907	3907	7137	7137	7137	7137	7137	7137	7137	7137	7137	7137	7287	7137	7287	7137	7137	7137	7137	6992	6992	7137	7137	7137	7137	7137	7137	7137	7137	7137	7137	7137	7137	7137	7137	7137	7137	7137	6992	6992	7137	6992	6992	6992	6992	6992	7137	7137	7137	7137	7137	7287	7137	7137	7137	7137	7137	7137	7137	7287	7287	7287	7287	7287	7287	7287	7137	7137	7137	7137	7137	7137	7137	7137	7137	6992	7137	6992	6992	6992	6992	6720	6720	6720	6720	0	0	0	0	0	0	0	0	0	0	0	0	0	0	0	0	0	0	0	0	0	0	0	0	0	0	0	0	0	0	0	0	0	0	0	0	0	0	0	0	0	0	0	0	0	0	0	0	0	0	0	0	0	0	0	0	0	0	0
0	0	0	0	0	0	0	0	0	0	0	0	0	0	0	0	0	0	0	0	0	0	0	0	0	0	0	0	0	0	0	0	0	0	0	0	0	0	0	0	0	0	0	0	0	0	0	0	0	0	0	0	0	0	0	0	0	0	0	0	0	0	0	0	0	0	0	0	0	0	0	0	0	0	0	0	0	0	0	0	0	0	0	0	0	0	0	0	4463	4406	4406	4406	4406	4406	4406	4406	4406	4406	4406	4406	4406	4406	4406	4463	4463	4463	4463	4406	4406	4406	4406	4406	4406	4463	4463	4463	4521	4521	0	0	0	0	0	0	0	5050	5050	5125	5125	5125	5125	5125	5125	5125	5125	5125	5125	5125	5125	5125	5125	5125	5125	5125	5125	5202	5202	5202	5202	5282	5282	5282	5282	5282	5282	5364	5364	5448	5535	5535	0	0	0	0	0	0	5915	5915	5915	5915	5815	6018	5915	6124	6235	6349	6349	6349	6468	6468	6468	6592	6592	6468	6592	6592	6468	6468	6468	6468	6468	6349	6349	6468	6349	6468	6468	6468	6468	6592	6592	6592	6720	6720	6720	6720	6720	6720	6592	6720	6720	6592	6592	6468	6468	6468	6468	6468	6468	6468	6468	6468	6468	6468	6468	6592	6592	6720	6720	6592	6592	6592	6592	6592	6592	6468	6468	6468	6468	6468	6592	6468	6592	6592	6592	6592	6592	6592	6592	6592	6592	6592	6592	6592	6592	6592	6592	6592	6720	6853	6853	6853	6720	6720	6720	6720	6592	6592	6720	6592	6720	6720	6592	6592	6592	6592	6592	0	0	0	3621	3621	3621	3621	3621	3583	3583	3583	3583	3583	3583	3583	3583	3583	3583	3583	3546	3546	3583	3583	3583	3583	3621	3621	3621	3698	3698	3738	3738	3738	6592	6592	6468	6592	6592	6720	6720	6720	6720	6720	6720	6720	6720	6720	6720	6720	6720	6853	6720	6720	6720	6720	6720	6720	6720	6853	6853	6720	6720	6720	6720	6720	6592	6592	6592	6720	6720	6720	6720	6720	6720	6720	6720	6720	6720	6720	6720	6720	6720	6720	6720	6720	6720	6720	6720	6720	6720	6853	6720	6720	6720	6720	6853	6853	6853	6853	6853	6853	6853	6853	6853	6853	6853	6853	6853	6853	6853	6720	6720	6853	6853	6720	6853	6853	6853	6853	6853	6720	6853	6720	6720	6720	6720	6853	6853	6853	6853	6853	6853	6853	6853	6853	6853	6853	6853	6853	6853	6853	6853	6853	6853	6853	6853	6853	6853	6853	6720	6720	6720	6853	6992	6992	6853	6992	6992	6992	6992	6992	6853	6853	6853	6853	6992	6992	6853	6992	6992	6992	6992	6992	6853	6853	6992	6853	6853	6853	6853	6853	6853	6853	6853	6853	6853	0	0	0	0	0	0	0	0	0	0	0	0	0	3998	3998	3998	3998	3998	3952	3952	3907	3952	3952	3907	3907	3907	3907	3907	3907	3907	3907	3907	3907	3907	3907	7137	7137	7137	7137	7137	7137	7137	7137	7137	7137	7444	7287	7287	7137	7137	7287	7287	7287	7137	7137	7137	7137	7137	7137	7137	7137	7137	7137	7137	7287	7137	7137	7137	7137	7137	7137	7137	6992	7137	7137	7137	7137	7137	7137	7287	7137	7137	7137	7137	7287	7137	7137	7137	7137	7137	7137	7287	7287	7287	7287	7287	7287	7287	7137	7137	7137	7137	7137	7137	7137	7137	7137	7137	7137	7137	6992	6992	6992	6992	0	0	0	0	0	0	0	0	0	0	0	0	0	0	0	0	0	0	0	0	0	0	0	0	0	0	0	0	0	0	0	0	0	0	0	0	0	0	0	0	0	0	0	0	0	0	0	0	0	0	0	0	0	0	0	0	0	0	0	0	0	0	0
0	0	0	0	0	0	0	0	0	0	0	0	0	0	0	0	0	0	0	0	0	0	0	0	0	0	0	0	0	0	0	0	0	0	0	0	0	0	0	0	0	0	0	0	0	0	0	0	0	0	0	0	0	0	0	0	0	0	0	0	0	0	0	0	0	0	0	0	0	0	0	0	0	0	0	0	0	0	0	0	0	0	0	0	0	0	0	4350	4406	4406	4406	4350	4406	4406	4406	4350	4406	4406	4406	4406	4406	4406	4406	4463	4406	4463	4463	4406	4463	4463	4406	4406	4406	4463	4463	4463	4521	4521	4521	4521	0	0	0	0	0	5050	5050	5125	5125	5050	5050	5125	5125	5125	5125	5125	5125	5125	5125	5125	5125	5125	5125	5125	5125	5125	5202	5202	5202	5202	5282	5282	5282	5282	5364	5448	5448	5448	5448	5448	0	0	0	0	0	0	5915	5915	5915	5815	5915	6018	5915	6124	6235	6349	6349	6349	6468	6468	6592	6592	6592	6592	6592	6592	6468	6592	6468	6468	6468	6349	6349	6349	6349	6349	6349	6468	6468	6592	6592	6592	6720	6720	6720	6720	6720	6720	6720	6720	6720	6592	6592	6468	6468	6468	6468	6468	6468	6468	6468	6468	6468	6468	6468	6592	6592	6720	6720	6720	6592	6592	6592	6592	6592	6592	6592	6468	6468	6468	6592	6468	6592	6592	6592	6592	6720	6720	6720	6720	6592	6592	6720	6592	6592	6592	6592	6592	6592	6720	6720	6720	6720	6720	6720	6720	6592	6592	6720	6592	6720	6720	6592	6592	6592	6592	0	0	3698	3659	3659	3659	3659	3621	3621	3583	3583	3583	3583	3583	3583	3583	3583	3583	3583	3583	3583	3583	3546	3546	3583	3583	3583	3621	3659	3698	3738	3738	3779	3779	3779	6592	6592	6592	6592	6720	6720	6720	6720	6720	6720	6720	6720	6720	6720	6853	6853	6853	6853	6720	6720	6720	6720	6720	6720	6853	6720	6720	6720	6720	6720	6720	6720	6592	6720	6720	6720	6720	6720	6720	6853	6853	6720	6853	6720	6720	6720	6720	6853	6853	6720	6720	6720	6720	6720	6720	6720	6853	6853	6853	6853	6853	6853	6853	6853	6853	6853	6853	6853	6853	6853	6853	6853	6853	6853	6853	6853	6853	6853	6853	6853	6853	6853	6853	6853	6853	6853	6853	6853	6853	6853	6853	6853	6992	6992	6992	6853	6992	6853	6853	6853	6853	6853	6853	6853	6853	6853	6853	6853	6720	6853	6853	6853	6853	6853	6853	6853	6853	6853	6992	6992	6992	6992	6992	6992	6992	6992	6992	6992	6992	6992	6992	6992	6992	6992	6992	7137	6992	6992	6992	6992	6853	6992	6992	6992	6853	6853	6853	6853	6853	6853	6853	0	0	0	0	0	0	0	0	0	0	0	0	0	0	3998	3952	3952	3952	3952	3952	3952	3952	3952	3952	3907	3907	3907	3907	3907	3907	3907	3907	3907	3864	3864	3864	7137	7137	7137	7137	7137	7137	7287	7137	7137	7137	7287	7287	7287	7137	7137	7287	7287	7287	7137	7137	7137	7137	7137	7137	7137	7137	7287	7287	7287	7137	7137	7287	7287	7137	0	0	7137	7137	7287	7287	7137	7137	7137	7137	7287	7287	7287	7287	7287	7287	7137	7137	7137	7137	7137	7137	7287	7287	7287	7287	7287	7444	7287	7287	7287	7287	7287	7287	7137	7287	7287	7287	7287	7287	7287	7287	7287	7287	0	0	0	0	0	0	0	0	0	0	0	0	0	0	0	2609	2609	2589	2589	0	0	0	0	0	0	0	0	0	0	0	0	0	0	0	0	0	0	0	0	0	0	0	0	0	0	0	0	0	0	0	0	0	0	0	0	0	0	0	0	0	0	0	0	0
0	0	0	0	0	0	0	0	0	0	0	0	0	0	0	0	0	0	0	0	0	0	0	0	0	0	0	0	0	0	0	0	0	0	0	0	0	0	0	0	0	0	0	0	0	0	0	0	0	0	0	0	0	0	0	0	0	0	0	0	0	0	0	0	0	0	0	0	0	0	0	0	0	0	0	0	0	0	0	0	0	0	0	0	0	4296	4350	4296	4406	4350	4350	4350	4350	4350	4350	4350	4350	4350	4350	4350	4406	4350	4406	4463	4406	4463	4406	4406	4406	4406	4406	4406	4406	4463	4463	4463	4463	4463	4521	4521	0	0	0	0	0	4977	5050	5050	5125	5050	5125	5125	5125	5125	5125	5125	5125	5202	5125	5125	5125	5125	5125	5125	5125	5202	5202	5202	5282	5282	5282	5282	5282	5282	5364	5448	5448	5448	5535	5535	0	0	0	0	0	5915	5915	5915	5915	5915	5915	6018	5915	6018	6235	6235	6349	6349	6468	6468	6592	6592	6720	6468	6592	6592	6468	6468	6468	6468	6349	6349	6349	6349	6349	6349	6349	6349	6468	6592	6592	6592	6720	6720	6720	6720	6720	6720	6720	6720	6720	6720	6592	6468	6468	6468	6468	6468	6468	6468	6468	6468	6468	6468	6592	6592	6592	6592	6592	6592	6592	6592	6592	6592	6592	6592	6592	6592	6468	6468	6592	6468	6468	6592	6592	6592	6592	6592	6592	6592	6592	6592	6592	6592	6592	6592	6592	6592	6592	6720	6720	6720	6720	6720	6720	6720	6720	6720	6720	6720	6720	6720	6720	6592	6592	6592	0	3698	3698	3659	3659	3659	3659	3659	3621	3583	3583	3583	3583	3583	3583	3583	3583	3583	3583	3583	3546	3546	3546	3546	3583	3583	3621	3621	3659	3698	3738	3738	3779	3779	3779	6592	6592	6720	6720	6853	6720	6720	6720	6720	6720	6720	6720	6720	6720	6853	6853	6853	6853	6853	6853	6853	6720	6720	6720	6720	6720	6720	6720	6720	6720	6720	6720	6720	6720	6720	6720	6720	6720	6720	6720	6720	6720	6720	6720	6720	6720	6720	6720	6720	6720	6720	6720	6720	6720	6720	6853	6853	6853	6853	6853	6853	6992	6992	6853	6853	6853	6853	6853	6853	6853	6853	6853	6853	6853	6853	6853	6853	6853	6853	6853	6853	6853	6853	6992	6992	6992	6992	6992	6992	6992	6992	6992	6992	7137	7137	6992	7137	6992	7137	6992	6992	6992	6992	6992	6853	6853	6853	6853	6720	6853	6853	6853	6853	6853	6853	6853	6853	6720	6992	6992	6992	6992	6992	6992	6992	6992	6992	7137	7137	7137	7137	7137	6992	6992	6992	7137	6992	7137	6992	6992	6992	7137	6992	6992	6992	6853	6853	6853	6853	6853	0	0	0	0	0	0	0	0	0	0	0	0	0	0	0	3907	3907	3907	3952	3952	3952	3952	3952	3998	3952	3907	3864	3864	3864	3907	3907	3907	3907	3907	3864	3821	3821	7287	7287	7287	7287	7287	7287	7287	7287	7287	7287	7287	7287	7444	7444	7444	7444	7287	7287	7287	7137	7137	7137	7137	7137	7137	7137	7287	7287	7287	7287	7287	7287	7287	0	0	0	0	7137	7287	7444	7444	7287	7287	7287	7444	7287	7287	7287	7287	7287	7137	7137	7137	7137	7137	7287	7287	7287	7287	7287	7287	7444	7287	7287	7287	7287	7287	7287	7287	7287	7137	7137	7287	7287	7287	7287	7287	7287	0	0	0	0	0	0	0	0	0	0	0	0	0	2629	2629	2609	2609	2609	2589	2589	2570	2589	2589	0	0	0	0	0	0	0	0	0	0	0	0	0	0	0	0	0	0	0	0	0	0	0	0	0	0	0	0	0	0	0	0	0	0	0	0	0	0	0	0	0
0	0	0	0	0	0	0	0	0	0	0	0	0	0	0	0	0	0	0	0	0	0	0	0	0	0	0	0	0	0	0	0	0	0	0	0	0	0	0	0	0	0	0	0	0	0	0	0	0	0	0	0	0	0	0	0	0	0	0	0	0	0	0	0	0	0	0	0	0	0	0	0	0	0	0	0	0	0	0	0	0	0	0	0	0	4296	4350	4350	4406	4350	4350	4350	4350	4350	4350	4350	4350	4350	4350	4350	4350	4350	4350	4406	4406	4406	4406	4406	4406	4406	4406	4406	4350	4406	4463	4463	4463	4463	0	0	0	0	0	0	0	4977	5125	5125	5125	5125	5125	5125	5202	5202	5125	5125	5125	5202	5125	5125	5125	5125	5125	5125	5125	5202	5202	5202	5202	5282	5282	5282	5364	5364	5364	5448	5448	5448	5448	5448	0	0	0	0	0	5915	5915	5915	5915	5915	5915	5915	6018	6018	6124	6124	6349	6349	6468	6592	6592	6592	6592	6592	6592	6592	6468	6468	6468	6349	6349	6349	6349	6349	6349	6349	6349	6468	6468	6592	6592	6592	6720	6720	6720	6720	6720	6720	6720	6720	6720	6592	6592	6468	6468	6468	6468	6468	6468	6468	6468	6468	6468	6468	6468	6592	6592	6468	6468	6592	6592	6592	6592	6592	6592	6592	6592	6592	6468	6468	6592	6468	6468	6720	6592	6720	6720	6720	6592	6592	6592	6592	6592	6592	6592	6468	6468	6592	6592	6720	6720	6720	6720	6720	6720	6720	6720	6720	6720	6720	6720	6720	6592	6592	6592	6592	0	3698	3698	3659	3621	3621	3621	3621	3621	3583	3583	3583	3583	3583	3583	3583	3583	3583	3583	3583	3546	3546	3546	3583	3583	3583	3621	3621	3659	3698	3738	3738	3779	3821	3821	6592	6592	6592	6720	6853	6720	6720	6720	6720	6720	6720	6720	6720	6720	6853	6853	6853	6853	6853	6853	6853	6720	6720	6720	6720	6720	6592	6720	6720	6720	6720	6720	6720	6720	6720	6720	6720	6720	6720	6720	6720	6720	6720	6720	6720	6720	6720	6720	6853	6720	6853	6853	6720	6853	6853	6853	6853	6853	6853	6853	6853	6992	6992	6992	6992	6853	6992	6992	6853	6992	6853	6992	6853	6853	6853	6853	6853	6853	6853	6853	6853	6992	6992	7137	7137	7137	7137	7137	7137	6992	7137	6992	6992	7137	7137	6992	7287	7137	7137	6992	6992	6992	6853	6992	6853	6853	6853	6853	6853	6853	6853	6853	6853	6853	6853	6853	6853	6853	6992	6992	6992	6992	6992	6992	6992	6992	6992	7137	7287	7287	7287	7287	7137	6992	7137	7137	7137	7137	6992	7137	7137	7137	6992	6992	6992	6992	6853	6853	6853	6853	0	0	0	0	0	0	0	0	0	0	0	0	0	0	0	3907	3907	3907	3907	3952	3952	3952	3952	3952	3907	3907	3864	3864	3864	3907	3907	3907	3907	3907	3907	3907	7287	7137	7137	7287	7287	7287	7287	7287	7287	7287	7287	7287	7444	7444	7444	7608	7608	7444	7444	7444	7287	7287	7137	7287	7137	7137	7137	7287	7287	7287	7287	7287	7287	7287	7287	0	0	0	0	7444	7444	7287	7287	7444	7287	7287	7287	7287	7444	7287	7287	7287	7137	7287	7137	7137	7287	7287	7287	7287	7444	7444	7444	7287	7287	7287	7287	7287	7287	7287	7287	7287	7287	7287	7287	7287	7287	7287	7287	0	0	0	0	0	0	0	0	0	0	0	0	2629	2629	2609	2609	2589	2589	2589	2589	2570	2570	2570	0	0	0	0	0	0	0	0	0	0	0	0	0	0	0	0	0	0	0	0	0	0	0	0	0	0	0	0	0	0	0	0	0	0	0	0	0	0	0	0	0
0	0	0	0	0	0	0	0	0	0	0	0	0	0	0	0	0	0	0	0	0	0	0	0	0	0	0	0	0	0	0	0	0	0	0	0	0	0	0	0	0	0	0	0	0	0	0	0	0	0	0	0	0	0	0	0	0	0	0	0	0	0	0	0	0	0	0	0	0	0	0	0	0	0	0	0	0	0	0	0	0	0	0	0	0	4296	4296	4350	4350	4350	4350	4350	4350	4350	4350	4350	4350	4350	4350	4350	4350	4350	4350	4406	4406	4406	4350	4350	4406	4406	4406	4406	4406	4406	4463	4463	4463	4463	0	0	0	0	0	0	0	0	5125	5125	5125	5125	5125	5202	5202	5202	5125	5202	5125	5202	5202	5125	5125	5125	5125	5125	5125	5202	5202	5202	5202	5282	5282	5282	5282	5282	5364	5448	5448	5448	5448	5448	0	0	0	0	0	5815	5915	5915	5915	5915	5915	5915	5915	6018	6018	6124	6235	6349	6468	6592	6720	6720	6592	6468	6592	6592	6468	6468	6468	6468	6468	6349	6349	6349	6349	6468	6468	6468	6592	6592	6592	6592	6592	6720	6720	6720	6720	6720	6720	6592	6720	6592	6592	6468	6468	6468	6468	6468	6468	6468	6468	6468	6468	6468	6468	6468	6468	6468	6468	6468	6468	6592	6592	6468	6592	6468	6468	6468	6468	6468	6468	6468	6468	6720	6720	6720	6720	6720	6720	6592	6592	6592	6720	6592	6592	6468	6468	6468	6468	6592	6592	6592	6592	6592	6720	6720	6720	6720	6720	6720	6720	6720	6592	6592	6592	0	0	0	3698	3659	3621	3621	3621	3621	3621	3583	3583	3583	3583	3583	3583	3583	3583	3583	3583	3583	3546	3546	3546	3583	3583	3583	3621	3659	3659	3698	3698	3738	3738	3779	3779	6592	6592	6720	6720	6853	6720	6853	6853	6853	6720	6720	6720	6853	6853	6853	6992	7137	6992	6992	6992	6992	6853	6720	6720	6592	6592	6592	6592	6720	6720	6720	6720	6720	6720	6720	6720	6720	6853	6720	6720	6720	6720	6720	6720	6720	6720	6720	6720	6853	6720	6853	6853	6853	6853	6853	6853	6992	6853	6853	6992	6853	6992	6992	6992	6992	6992	6992	6853	6853	6853	6853	6853	6853	6853	6853	6853	6853	6853	6853	6853	6992	6992	7137	7137	7137	7137	7137	7137	7137	7137	7137	6992	7137	7137	7137	7137	7137	7137	7137	7137	7137	7137	6992	7137	6992	6853	6853	6853	6853	6853	6853	6853	6853	6992	6853	6853	6853	6853	6853	6992	6992	6992	6992	7137	6992	6992	6992	0	7137	7137	7137	7137	7137	6992	7137	7287	7137	7137	7137	7287	7287	7287	7137	6992	6992	6992	6853	6853	6853	6853	0	0	0	0	0	0	0	0	0	0	0	0	0	0	3864	3864	3864	3864	3907	3952	3952	3952	3952	3952	3952	3907	3864	3864	3864	3864	3907	3907	3907	3907	3907	3907	7137	7137	7137	7137	7137	7287	7137	7287	7287	7287	7444	7444	7444	7444	7444	7608	7608	7444	7608	7444	7444	7444	7287	7287	7287	7287	7287	7287	7287	7287	7287	7287	7287	7287	7287	0	0	0	0	7444	7444	7287	7287	7287	7444	7444	7444	7287	7444	7287	7287	7287	7287	7287	7287	7287	7287	7444	7444	7444	7444	7608	7444	7444	7444	7287	7287	7287	7287	7287	7287	7137	7137	7137	7287	7287	7287	7287	7287	0	0	0	0	0	0	0	0	0	2629	2629	2629	2629	2609	2609	2609	2589	2589	2589	2589	2570	2589	2609	2609	2589	2570	2570	0	0	0	0	0	0	0	0	0	0	0	0	0	0	0	0	0	0	0	0	0	0	0	0	0	0	0	0	0	0	0	0	0	0	0	0	0
0	0	0	0	0	0	0	0	0	0	0	0	0	0	0	0	0	0	0	0	0	0	0	0	0	0	0	0	0	0	0	0	0	0	0	0	0	0	0	0	0	0	0	0	0	0	0	0	0	0	0	0	0	0	0	0	0	0	0	0	0	0	0	0	0	0	0	0	0	0	0	0	0	0	0	0	0	0	0	0	0	0	0	0	0	4296	4296	4296	4350	4350	4350	4350	4350	4350	4350	4350	4350	4350	4350	4350	4350	4350	4350	4406	4406	4406	4350	4350	4350	4350	4406	4406	4406	4406	4463	4463	4521	4521	4521	0	0	0	0	0	0	0	5125	5202	5202	5202	5202	5202	5202	5202	5202	5202	5202	5202	5202	5202	5202	5125	5125	5125	5125	5202	5202	5202	5202	5202	5202	5202	5282	5282	5364	5364	5448	5448	5448	5448	0	0	0	0	0	5815	5815	5815	5815	5915	5915	5915	5915	5915	6018	6018	6235	6349	6592	6720	6720	6720	6592	6468	6592	6468	6468	6468	6468	6468	6468	6349	6349	6349	6349	6468	6592	6592	6592	6720	6720	6720	6720	6720	6720	6720	6720	6720	6720	6592	6592	6592	6592	6468	6468	6468	6468	6468	6592	6592	6592	6468	6468	6468	6468	6468	6468	6468	6468	6468	6468	6468	6592	6468	6592	6468	6468	6468	6468	6468	6468	6468	6468	6720	6592	6720	6720	6720	6720	6592	6592	6592	6592	6468	6468	6468	6468	6468	6468	6592	6592	6592	6592	6592	6720	6720	6592	6720	6720	6720	6720	6720	6592	6592	6592	0	0	0	3698	3583	3621	3621	3621	3583	3621	3583	3583	3621	3583	3583	3583	3583	3583	3583	3546	3583	3546	3546	3583	3583	3583	3621	3621	3659	3659	3698	3698	3738	3738	3779	3779	3779	6592	6720	6720	6853	6720	6853	6853	6853	6853	6853	6853	6853	6853	6853	6992	7137	6992	6992	6992	6992	6853	6720	6592	6592	6592	6592	6592	6592	6720	6720	6720	6720	6720	6720	6720	6853	6853	6853	6853	6853	6720	6720	6720	6720	6720	6720	6853	6853	6853	6853	6853	6853	6853	6853	6992	6992	6992	6992	6992	6853	6992	6992	6853	6992	6992	6992	6853	6853	6853	6992	6992	6992	6853	6853	6853	6992	6853	6992	6992	6992	7137	7137	7137	7137	7137	7137	7137	7137	6992	7137	7137	7137	7137	7287	7287	7287	7287	7137	7137	7137	7137	7137	7137	6992	6992	6992	6992	6853	6853	6853	6853	6853	6992	6992	6853	6853	6992	6992	6992	6992	6992	7137	7137	7137	7137	7137	0	7287	7287	7137	7137	7137	7137	7137	7287	7137	7287	7137	7287	7287	7287	7137	6992	6992	6992	6992	6992	6853	0	0	0	0	0	0	0	0	0	0	0	0	0	0	0	3864	3864	3864	3907	3907	3952	3952	3952	3952	3952	3907	3907	3821	3821	3821	3821	3864	3907	3907	3907	3907	3907	7137	7137	7137	7137	7287	7287	7137	7444	7287	7287	7444	7444	7608	7608	7779	7608	7608	7608	7608	7608	7608	7608	7444	7444	7608	7608	7444	7444	7444	7287	7287	7287	7287	0	0	0	0	0	0	0	0	7444	7444	7444	7444	7444	7444	7444	7444	7444	7444	7287	7287	7287	7287	7444	7444	7444	7608	7608	7608	7608	7444	7444	7444	7444	7287	7287	7287	7287	7287	7137	7287	7137	7287	7287	7287	7287	7287	0	0	0	0	0	0	0	0	2629	2629	2629	2629	2629	2609	2609	2609	2589	2589	2589	2570	2570	2570	2609	2589	2589	2570	2570	0	0	0	0	0	0	0	0	0	0	0	0	0	0	0	0	0	0	0	0	0	0	0	0	0	0	0	0	0	0	0	0	0	0	0	0	0
0	0	0	0	0	0	0	0	0	0	0	0	0	0	0	0	0	0	0	0	0	0	0	0	0	0	0	0	0	0	0	0	0	0	0	0	0	0	0	0	0	0	0	0	0	0	0	0	0	0	0	0	0	0	0	0	0	0	0	0	0	0	0	0	0	0	0	0	0	0	0	0	0	0	0	0	0	0	0	0	0	0	0	0	0	4296	4296	4350	4406	4350	4350	4350	4350	4350	4350	4350	4350	4350	4350	4350	4350	4350	4350	4350	4350	4350	4350	4350	4350	4350	4350	4406	4406	4406	4463	4521	4521	4521	4521	0	0	0	0	0	0	0	0	5202	5202	5202	5202	5202	5202	5202	5202	5202	5125	5202	5202	5202	5202	5125	5125	5125	5125	5202	5202	5202	5202	5202	5282	5282	5282	5282	5364	5364	5448	5448	5448	5448	0	0	0	0	0	5719	5815	5815	5815	5815	5915	5915	5915	5915	6018	6018	6018	6349	6468	6720	6720	6720	6592	6468	6592	6592	6468	6468	6468	6468	6468	6349	6349	6349	6349	6468	6592	6592	6592	6720	6592	6592	6592	6720	6720	6720	6720	6720	0	6592	6592	6592	6592	6468	6468	6468	6468	0	6592	6592	6592	6468	6468	0	0	0	0	6468	6468	6468	6468	6468	0	0	0	0	0	0	6468	6468	6468	6468	6468	0	6592	6720	6720	6720	6720	6592	6468	6468	6592	6468	6468	6468	6468	6592	6592	6592	6592	6592	6592	6592	6720	6720	6592	6592	6720	6720	6720	6720	6720	6592	0	0	0	0	0	3583	3583	3583	3621	3583	3621	3621	3583	3621	3583	3583	3583	3583	3583	3583	3546	3546	3546	3546	3583	3583	3583	3621	3659	3698	3698	3698	3738	3738	3738	3779	3779	3779	3779	6720	6720	6853	6720	6853	6853	6853	6853	6853	6853	0	0	0	0	0	0	0	0	0	0	0	6592	6592	6592	6468	6592	6592	6592	6592	6720	6720	6720	6720	6720	6853	6853	6853	6853	6853	6853	6720	6720	6720	6720	6720	6720	6853	6720	6720	6720	6720	6720	6853	6853	6992	6992	6992	6992	6992	7137	7137	6992	7137	6992	6992	6992	6992	6992	6992	6992	6992	6992	6992	6992	6992	6992	6992	6992	6992	7137	7137	7137	7137	7137	7137	7137	7137	6992	7137	7137	7137	7287	7137	7287	7287	7287	7287	7287	7137	7137	7137	7137	7137	6992	6992	6992	6853	6853	6853	6992	6992	6992	6992	6992	6992	6992	7137	7137	7137	7137	7137	7137	7137	7137	7137	0	7137	7137	7137	7137	7137	7137	7137	7137	7137	7287	7287	7287	7287	7287	7287	7137	6992	6992	6992	6992	0	0	0	0	0	0	0	0	0	0	0	0	0	0	0	0	0	3864	3907	3907	3952	3952	3952	3952	3952	3952	3907	3864	3821	3779	3779	3779	3821	3864	3864	3864	3864	3864	7137	7137	7137	7137	7444	7444	7444	7444	7444	7444	7444	7608	7608	7608	7779	7779	7779	7608	7608	7608	7608	7608	7608	7608	7608	7608	7608	7444	7444	7444	7444	7444	7444	0	0	0	0	7608	7608	7608	7608	7608	7444	7444	7444	7444	7444	7444	7444	7444	7608	7444	7444	7444	7444	7608	7608	7608	7779	7779	7608	7779	7608	7444	7444	7444	7444	7444	7287	7287	7444	7287	7287	7287	7287	7287	0	0	0	0	0	0	0	0	0	0	0	2629	2629	2649	2629	2629	2609	2609	2609	2609	2609	2609	2570	2570	2589	2609	2589	2589	2570	2570	0	0	0	0	0	0	0	0	0	0	0	0	0	0	0	0	0	0	0	0	0	0	0	0	0	0	0	0	0	0	0	0	0	0	0	0	0
0	0	0	0	0	0	0	0	0	0	0	0	0	0	0	0	0	0	0	0	0	0	0	0	0	0	0	0	0	0	0	0	0	0	0	0	0	0	0	0	0	0	0	0	0	0	0	0	0	0	0	0	0	0	0	0	0	0	0	0	0	0	0	0	0	0	0	0	0	0	0	0	0	0	0	0	0	0	0	0	0	0	0	0	0	0	4350	4350	4406	4406	4350	4350	4350	4350	4350	4350	4350	4350	4350	4350	4350	4350	4350	4350	4350	4350	4350	4350	4350	4350	4406	4406	4350	4406	4463	4521	4521	4521	4521	0	4581	4581	0	0	0	0	0	5125	5202	5282	5202	5202	5202	5202	5202	5202	5125	5202	5202	5202	5202	5125	5125	5125	5125	5202	5202	5202	5202	5282	5202	5202	5202	5202	5282	5364	5364	5364	5448	5448	0	0	0	0	0	5719	5815	5815	5815	5915	5915	5915	5915	6018	6018	6124	6235	6349	6592	6720	6720	6592	6468	6468	6468	6468	6468	6468	6468	6349	6349	6349	6349	6349	6349	6468	6592	6592	6592	6720	6720	6592	6592	6592	6592	6720	0	0	0	0	0	0	0	6468	6468	0	0	0	0	0	0	0	0	0	0	0	0	6468	6468	6349	6349	0	0	0	0	0	0	0	0	0	0	0	0	0	0	6720	6720	6720	6720	6592	6468	6468	6592	6468	6468	6468	6468	6592	6592	6592	6592	6592	6592	6592	6720	6720	6592	6592	6592	6592	6720	6720	6720	0	0	0	0	0	0	3583	3583	3583	3621	3621	3621	3621	3621	3621	3583	3583	3583	3583	3583	3583	3546	3583	3583	3583	3583	3583	3583	3621	3659	3698	3698	3698	3698	3738	3738	3779	3779	3779	6592	6592	6720	6853	6853	6853	6853	6853	0	0	0	0	0	0	0	0	0	0	0	0	0	0	0	0	0	6468	6592	6468	6592	6592	6720	6720	6720	6720	6720	0	0	0	6853	6853	6853	6720	6720	6720	6720	6720	6720	6853	6720	6720	6720	6720	6853	6853	6853	6992	6992	6992	6992	6992	7137	7137	7137	7137	6992	6992	6992	6992	6992	6992	6992	6992	6992	6992	6992	6992	6992	6992	7137	7137	7137	7137	7137	7137	7137	7137	7137	7137	6992	6992	7137	7137	7287	7287	7287	7287	7287	7287	7287	7287	7287	7287	7287	7137	7137	7137	6992	6992	6992	6992	6992	6992	6992	6992	6992	6992	7137	7137	7287	7287	7137	7287	7287	7137	7137	7287	7287	7287	7287	7287	7137	7287	7137	7137	7287	7287	7287	7287	7287	7444	7287	7287	7287	7137	6992	6992	7137	7137	0	0	0	0	0	0	0	0	0	0	0	0	0	0	3864	3864	3864	3864	3907	3907	3907	3907	3907	3907	3952	3907	3821	3779	3779	3779	3779	3779	3821	3864	3864	3864	6853	6992	6992	7444	7444	7444	7608	7444	7444	7444	7444	7608	7608	7608	7608	7779	7779	7779	7608	7608	7779	7608	7608	7608	7608	7608	7608	7608	7608	7608	7444	7444	7444	7608	7608	7608	7608	7608	7608	7608	7608	7608	7608	7444	7444	7444	7444	7608	7608	7608	7608	7608	7608	7608	7608	7608	7608	7779	7608	7779	7779	7608	7779	7779	7608	7608	7608	7608	7608	7444	7444	7444	7444	7287	7287	7287	7287	0	0	0	0	0	0	0	0	0	0	2609	2609	2609	2629	2629	2629	2609	2609	2609	2609	2609	2609	2551	2551	2570	2609	2609	2589	2570	2570	0	0	0	0	0	0	0	0	0	0	0	0	0	0	0	0	0	0	0	0	0	0	0	0	0	0	0	0	0	0	0	0	0	0	0	0	0
0	0	0	0	0	0	0	0	0	0	0	0	0	0	0	0	0	0	0	0	0	0	0	0	0	0	0	0	0	0	0	0	0	0	0	0	0	0	0	0	0	0	0	0	0	0	0	0	0	0	0	0	0	0	0	0	0	0	0	0	0	0	0	0	0	0	0	0	0	0	0	0	0	0	0	0	0	0	0	0	0	0	0	0	0	0	4350	4406	4406	4406	4350	4350	4350	4350	4350	4350	4350	4350	4350	4350	4350	4350	4350	4350	4406	4406	4406	4350	4350	4350	4406	4406	4406	4406	4463	4521	4521	4521	4581	4581	4581	4581	0	0	0	0	0	5125	5202	5282	5202	5202	5202	5202	5202	5202	5125	5202	5202	5202	5202	5125	5125	5125	5125	5202	5202	5202	5202	5202	5202	5202	5202	5202	5282	5282	5364	5364	5448	5448	0	0	0	0	0	0	5815	5815	5815	5915	5915	5915	5915	6018	6018	6018	6235	6235	6468	6592	6592	6592	6468	6468	6468	6468	6468	6468	6468	6349	6349	6349	6349	6349	6349	6468	6468	6592	6720	6592	6720	6592	6592	6592	6720	6720	0	0	0	0	0	0	0	6468	6468	0	0	0	0	0	0	0	0	0	0	0	0	0	0	6349	6349	0	0	0	0	0	0	0	0	0	0	0	0	0	0	0	0	0	0	0	0	0	0	0	0	0	0	0	0	0	0	0	0	0	0	6592	6592	6592	6592	6592	0	0	0	0	0	0	0	0	0	3583	3583	3621	3621	3621	3621	3621	3621	3621	3583	3583	3583	3583	3583	3583	3583	3583	3583	3583	3583	3583	3621	3621	3659	3659	3698	3698	3659	3698	3738	3738	3779	3738	3738	6592	6720	6853	6853	0	0	0	0	0	0	0	0	0	0	0	0	0	0	0	0	0	0	0	0	0	0	6468	6592	6592	6720	6720	6720	0	0	0	0	0	0	0	0	6720	6720	6720	6720	0	0	0	0	0	6853	6853	6853	6853	6992	6992	6992	6992	6992	6992	7137	7137	7137	7137	7137	7137	6992	7137	6992	6992	6992	7137	6992	7137	6992	7137	7137	7137	7137	7137	7287	7287	7287	7287	7287	7287	7287	7287	7137	7137	7137	7287	7287	7287	7287	7287	7287	7287	7287	7287	7287	7287	7287	7137	7137	7137	7137	7137	7137	7137	7137	7137	7137	7137	7137	7137	7137	7287	7287	7287	7137	7137	7137	7137	7287	7287	7287	7444	7287	7287	7287	7287	7287	7287	7287	7287	7444	7444	7444	7444	7444	7444	7287	7287	7137	7137	7137	7137	0	0	0	0	0	0	0	0	0	0	0	0	0	3821	3821	3864	3864	3864	3864	3907	3907	3907	3907	3907	3907	3864	3779	3738	3738	3738	3738	3738	3738	3738	3779	3864	6853	6992	6992	7444	7444	7444	7608	7608	7444	7444	7608	7608	7608	7608	7779	7779	7779	7779	7779	7779	7779	7779	7779	7608	7608	7608	7608	7608	7608	7608	7444	7608	7608	7608	7608	7608	7608	7608	7608	7608	7608	7608	7608	7444	7444	7444	7444	7608	7608	7779	7779	7779	7608	7608	7608	7608	7608	7779	7779	7779	7779	7779	7779	7779	7608	7608	7608	7608	7608	7444	7444	7444	7444	0	0	0	0	0	0	0	0	0	0	0	0	0	2629	2609	2609	2609	2629	2609	2609	2609	2609	2609	2629	2629	2551	2570	2570	2570	2609	2589	2589	2570	2570	0	0	0	0	0	0	0	0	0	0	0	0	0	0	0	0	0	0	0	0	0	0	0	0	0	0	0	0	0	0	0	0	0	0	0	0	0
0	0	0	0	0	0	0	0	0	0	0	0	0	0	0	0	0	0	0	0	0	0	0	0	0	0	0	0	0	0	0	0	0	0	0	0	0	0	0	0	0	0	0	0	0	0	0	0	0	0	0	0	0	0	0	0	0	0	0	0	0	0	0	0	0	0	0	0	0	0	0	0	0	0	0	0	0	0	0	0	0	0	0	0	0	0	0	4406	4406	4406	4406	4350	4350	4350	4350	4350	4350	4350	4350	4406	4406	4406	4406	4406	4406	4406	4406	4406	4350	4350	4406	4406	4406	4406	4406	4521	4521	4521	4581	4581	4581	4581	0	0	0	0	0	5125	5202	5202	5202	5202	5202	5202	5202	5202	5125	5125	5125	5125	5202	5125	5125	5125	5125	5202	5202	5202	5202	5202	5202	5202	5202	5202	5202	5282	5364	5364	5448	5448	0	0	0	0	0	0	5719	5815	5815	5815	5915	5915	5915	6018	6018	6018	6235	6349	6468	6468	6468	6468	6468	6468	6468	6468	6468	6468	6468	6468	6349	6349	6349	6349	6468	6468	6592	6592	6592	6592	6592	6592	6468	6468	6468	6720	0	0	0	0	0	0	0	0	0	0	0	0	0	0	0	0	0	0	0	0	0	0	0	0	0	0	0	0	0	0	0	0	0	0	0	0	0	0	0	0	0	0	0	0	0	0	0	0	0	0	0	0	0	0	0	0	0	0	0	6592	6592	6592	6592	6592	0	0	0	0	0	0	0	0	0	0	3583	3621	3621	3621	3621	3621	3621	3621	3583	3583	3583	3583	3583	3583	3583	3583	3583	3583	3583	3621	3621	3621	3621	3621	3659	3659	3659	3698	3698	3738	3738	3738	3738	0	0	0	0	0	0	0	0	0	0	0	0	0	0	0	0	0	0	0	0	0	0	0	0	0	0	0	0	0	0	0	0	0	0	0	0	0	0	0	0	0	0	0	0	0	0	0	0	0	6853	6992	6992	6992	7137	7137	6992	7137	7137	7137	7137	7287	7287	7287	7137	7137	7137	7137	7137	7137	7137	7137	7137	7137	7137	7137	7137	7137	7287	7287	7287	7287	7287	7287	7287	7287	7287	7287	7287	7287	7287	7287	7287	7287	7287	7287	7287	7287	7287	7287	7287	7287	7287	7137	7137	7137	7137	7137	7137	7137	7137	7137	7137	7287	7137	7287	7287	7444	7444	7287	7287	7287	7287	7137	7287	7444	7287	7444	7287	7287	7287	7287	7287	7287	7287	7287	7444	7444	7444	7444	7444	7444	7287	7287	7287	7287	7287	7287	0	0	0	0	0	0	0	0	0	0	0	0	0	3821	3821	3864	3864	3864	3864	3864	3864	3864	3864	3864	3907	3864	3779	3738	3738	3738	3738	3738	3738	3738	3738	0	6992	6992	7137	7608	7444	7608	7608	7608	7444	7444	7444	7608	7608	7608	7779	7779	7779	7779	7779	7779	7779	7779	7779	7608	7608	7608	7608	7608	7608	7608	7608	7608	7608	7608	7779	7779	7779	7608	7608	7608	7608	7608	7608	7444	7444	7444	7444	7608	7608	7608	7779	7779	7779	7779	7779	7779	7779	7779	7779	7779	7779	7779	7779	7779	7608	7608	7608	7608	7608	7608	7444	0	0	0	0	0	0	0	0	0	0	0	0	0	0	0	2629	2609	2609	2609	2609	2609	2609	2609	2629	2629	2629	2629	2629	2589	2589	2609	2609	2589	2570	2570	2570	2570	0	0	0	0	0	0	0	0	0	0	0	0	0	0	0	0	0	0	0	0	0	0	0	0	0	0	0	0	0	0	0	0	0	0	0	0
