0	0	0	0	0	0	0	0	0	0	1331	1331	1326	1331	1336	1342	1347	1352	1358	1368	1368	1374	1374	1379	1390	1390	1390	1499	1467	1467	1486	1467	1467	1467	1473	1480	1480	1480	1480	1480	1480	1473	1480	1480	1486	1480	1486	1499	1512	1519	1525	1525	1525	1532	1532	0	2409	2392	2392	2409	2409	2409	2409	2409	2426	2426	2426	2426	2426	2443	2478	2478	2478	2496	2496	2496	2514	2532	2514	2532	2532	2532	2532	2532	2496	2551	2551	2551	2551	2551	2551	2551	2551	2514	2496	2514	2514	2532	2532	2532	2532	2551	2551	2551	2551	2551	2532	2551	2551	2551	2551	2551	2551	2532	2532	2532	2514	2532	2532	2514	2532	2532	2532	2532	2496	2496	2496	2514	2514	2514	2514	2532	2532	2532	2532	2514	2514	2514	2532	2551	2551	2551	2551	2551	2551	2514	2514	2532	2551	2570	2551	2551	2551	2570	2570	2570	2570	2570	2570	2570	2570	2570	2589	2570	2570	2570	3440	3440	3440	3440	3440	3475	3475	3475	3475	3475	3440	3440	3440	3440	3440	3440	3440	3475	3510	3510	3546	3546	3583	3583	3583	3583	3621	3621	3659	3621	3621	3621	3621	3621	3583	3583	3546	3546	3546	3546	3583	3583	3583	3621	3659	3659	3659	3659	3659	3659	3659	3659	3698	3659	3659	3698	3659	3659	3698	3659	3659	3659	3659	3698	3698	3698	3698	3698	3698	3698	3698	3698	3698	3659	3659	3659	3698	3698	3698	3698	3698	3698	3698	3698	3698	3698	3698	3698	3659	3621	3621	3621	3621	3621	3621	3659	3659	3659	3698	3698	3698	3698	3698	3698	3698	3698	3698	3698	3698	3659	3698	3698	3659	3698	3659	3659	3698	3659	3659	3659	3659	3659	3659	3659	2967	2942	2942	2917	2942	2942	2942	2917	2893	2917	2893	2893	2917	2893	2893	2893	2893	2893	2893	2869	2869	2869	2845	2869	2869	2869	2869	2845	2845	2845	2845	2822	2822	2799	2799	2799	2799	2799	2799	2799	2799	2799	2777	2777	2777	2777	2777	2754	2777	2777	2777	2777	2754	2777	2777	2777	2777	2777	2777	2777	2777	2799	2799	2799	2799	2799	2799	2799	2822	2822	2845	2845	2869	2845	2869	2869	2845	2845	2845	2869	2869	2917	2917	2917	2942	2917	2917	2893	2893	2893	2893	2893	2893	2893	2893	2893	2893	3621	3621	3621	3621	3621	3621	3621	3621	3621	3621	3583	3583	3621	3583	3621	3621	3621	3659	3621	3621	3621	3621	3659	3659	3659	3659	3659	3659	3659	3659	3659	3659	3659	3621	3621	3621	3621	3621	3621	3621	3621	3621	3621	3621	3621	3621	3621	3621	3621	3621	3621	3621	3621	3621	3621	3621	3583	3583	3583	3583	3583	3583	3546	3583	3583	3583	3583	3583	3621	3583	3583	3583	3583	3546	3546	3546	3546	3583	3583	3583	3583	3583	3583	3583	3583	3583	3621	3583	3583	3583	3583	3583	3583	3546	3546	3546	3546	3546	3546	3546	3546	3621	3583	3583	3621	3583	3621	3583	3583	3583	3583	3583	3546	3583	3546	3546	3546	3583	3583	3583	3583	3583	3583	3583	3583	3583	3583	3583	3583	3583	3583	3583	3583	3583	3546	3546	3546	3546	3583	3546	3546	3546	3583	3583	3583	3583	3583	3583	3583	3583	3546	3546	3546	3546	3546	3546	3546	2076	2076	2051	2027	2027	2027	2015	2015	2003	2003	1992	2003	1992	1992	1750	1750	1741	1723	1723	1715	1706	1706	1706	1706	1690	1690	1681	1673	1673	1673	1665	1657	1657	1657	1649	1649	1649	1641	1641	1634	1618	1618	1618	1603	1596	1596	1589	1581	1581	1567	1567	1546	1539	1532	1532	1532	0	0	0	0	0	0	0	0	0	0	0	0	0	0	0	0	0	0	0	0	0	0	0	0	0	0	0	0	0	0	0	0	0	0	0	0	0	0	0	0
0	0	0	0	0	0	0	0	0	0	1336	1342	1342	1352	1352	1342	1347	1347	1363	1368	1374	1374	1374	1385	1390	1396	1396	1396	1396	1461	1467	1467	1467	1467	1467	1473	1473	1473	1480	1480	1480	1480	1480	1480	1480	1486	1486	1486	1499	1512	1519	1525	1532	1532	0	0	2409	2392	2392	2409	2409	2409	2409	2409	2426	2426	2426	2426	2426	2443	2478	2460	2478	2496	2496	2496	2514	2514	2514	2532	2532	2532	2551	2551	2551	2551	2551	2551	2551	2551	2551	2551	2551	2551	2532	2532	2532	2532	2551	2551	2532	2551	2551	2551	2551	2551	2551	2551	2551	2551	2551	2551	2551	2532	2532	2532	2514	2532	2532	2532	2551	2551	2532	2551	2532	2532	2532	2551	2551	2551	2551	2551	2551	2551	2551	2551	2532	2532	2532	2551	2551	2551	2570	2570	2570	2570	2570	2570	2570	2570	2570	2570	2570	2570	2570	2551	2570	2551	2570	2570	2570	2570	2570	2589	2589	2589	3440	3440	3475	3475	3475	3475	3475	3475	3475	3475	3440	3440	3440	3440	3440	3440	3440	3475	3510	3510	3546	3546	3583	3583	3621	3583	3621	3621	3621	3621	3621	3621	3659	3621	3583	3583	3583	3583	3583	3546	3583	3583	3583	3621	3583	3583	3621	3659	3659	3659	3659	3659	3698	3659	3698	3659	3659	3659	3659	3659	3659	3659	3659	3698	3698	3698	3698	3698	3698	3698	3698	3698	3659	3659	3659	3659	3659	3659	3659	3698	3698	3698	3698	3698	3698	3698	3698	3659	3659	3659	3659	3659	3659	3659	3659	3659	3659	3698	3698	3698	3698	3698	3698	3698	3698	3698	3698	3698	3659	3659	3659	3659	3659	3659	3659	3659	3659	3659	3659	3659	3659	3659	3659	3659	3659	2942	2942	2917	2942	2942	2942	2917	2893	2893	2893	2893	2893	2893	2893	2893	2893	2893	2893	2869	2869	2869	2869	2869	2869	2869	2869	2845	2845	2845	2822	2822	2799	2799	2799	2799	2799	2799	2799	2799	2799	2799	2777	2777	2777	2777	2777	2754	2777	2777	2777	2777	2777	2777	2777	2777	2777	2777	2777	2777	2777	2777	2799	2799	2799	2799	2799	2799	2799	2822	2845	2845	2845	2845	2845	2845	2845	2845	2845	2845	2845	2917	2917	2917	2917	2917	2917	2893	2893	2869	2869	2869	2869	2893	2893	2893	3621	3621	3621	3621	3621	3621	3621	3621	3621	3621	3621	3583	3621	3621	3621	3659	3621	3621	3659	3621	3621	3621	3659	3659	3659	3659	3659	3659	3659	3659	3659	3659	3659	3659	3621	3621	3621	3621	3621	3621	3621	3621	3621	3621	3621	3621	3621	3621	3621	3621	3621	3621	3621	3621	3621	3621	3621	3621	3583	3583	3583	3583	3583	3546	3546	3583	3583	3583	3583	3583	3583	3583	3583	3583	3583	3583	3583	3583	3583	3583	3583	3583	3583	3583	3583	3583	3583	3583	3583	3621	3583	3583	3583	3583	3583	3546	3546	3546	3546	3546	3546	3546	3621	3583	3583	3583	3583	3583	3583	3583	3583	3583	3583	3583	3583	3583	3583	3583	3583	3583	3583	3583	3583	3583	3583	3583	3583	3583	3583	3583	3583	3583	3583	3583	3583	3546	3546	3546	3546	3546	3546	3546	3546	3546	3583	3583	3583	3583	3546	3583	3583	3583	3583	3546	3546	3546	3546	2051	2051	2051	2039	2027	2027	2027	2027	2015	2003	2003	1992	1992	1992	2003	1759	1759	1741	1723	1723	1715	1715	1706	1706	1706	1698	1690	1681	1673	1681	1673	1665	1657	1657	1657	1657	1649	1649	1649	1641	1634	1618	1618	1611	1603	1596	1596	1589	1581	1581	1567	1567	1546	1539	1532	1532	1532	0	0	0	0	0	0	0	0	0	0	0	0	0	0	0	0	0	0	0	0	0	0	0	0	0	0	0	0	0	0	0	0	0	0	0	0	0	0	0	0
0	0	0	0	0	0	0	0	0	0	1347	1347	1347	1352	1352	1358	1363	1363	1368	1368	1374	1374	1374	1385	1396	1396	1402	1413	1413	1419	1419	1467	1467	1467	1467	1467	1473	1473	1480	1480	1480	1480	1480	1480	1486	1486	1486	1486	1499	1512	1512	1532	1532	1532	0	0	2392	2392	2409	2409	2409	2409	2426	2426	2426	2426	2426	2426	2426	2443	2443	2460	2478	2496	2496	2496	2514	2532	2514	2532	2532	2532	2551	2551	2551	2551	2551	2551	2551	2551	2551	2551	2551	2551	2551	2551	2532	2551	2551	2532	2532	2551	2551	2551	2551	2551	2551	2551	2570	2551	2551	2551	2551	2532	2532	2532	2532	2532	2551	2551	2551	2551	2551	2551	2551	2551	2551	2551	2551	2551	2570	2570	2570	2551	2551	2551	2551	2551	2551	2551	2570	2570	2570	2570	2570	2570	2570	2570	2570	2570	2570	2570	2570	2551	2570	2551	2551	2551	2551	2551	2570	2570	2570	2589	2589	2589	2589	3440	3475	3440	3440	3440	3440	3440	3440	3475	3440	3440	3475	3440	3475	3440	3440	3475	3510	3510	3546	3546	3583	3583	3621	3583	3583	3621	3621	3621	3621	3621	3621	3621	3621	3583	3583	3583	3583	3583	3583	3583	3583	3621	3583	3583	3583	3659	3659	3659	3659	3659	3659	3659	3659	3659	3659	3659	3659	3659	3659	3659	3659	3698	3698	3698	3698	3698	3698	3698	3698	3698	3659	3659	3659	3659	3659	3659	3659	3659	3698	3698	3698	3698	3698	3698	3698	3698	3659	3659	3659	3659	3659	3659	3659	3659	3698	3698	3698	3698	3698	3698	3698	3698	3698	3698	3698	3698	3659	3659	3698	3659	3621	3659	3659	3659	3659	3659	3659	3659	3659	3659	3659	3659	2942	2942	2942	2917	2917	2942	2917	2917	2893	2893	2893	2869	2893	2893	2893	2893	2893	2893	2869	2869	2869	2869	2845	2869	2869	2869	2869	2845	2845	2822	2822	2799	2799	2799	2799	2799	2799	2799	2799	2799	2799	2777	2777	2777	2777	2777	2777	2777	2777	2754	2777	2777	2777	2777	2777	2777	2777	2777	2777	2777	2777	2777	2777	2799	2799	2799	2799	2799	2799	2822	2822	2845	2845	2845	2845	2845	2845	2845	2822	2845	2845	2917	2917	2917	2917	2917	2917	2893	2893	2869	2869	2869	2869	2869	2869	2869	3621	3621	3621	3621	3621	3621	3621	3621	3621	3621	3621	3583	3621	3621	3621	3659	3659	3621	3659	3621	3621	3621	3621	3659	3659	3659	3659	3659	3659	3659	3659	3659	3621	3621	3621	3621	3621	3621	3621	3621	3621	3621	3621	3621	3621	3621	3621	3621	3621	3621	3621	3621	3621	3621	3621	3621	3621	3583	3583	3583	3583	3583	3583	3546	3583	3583	3583	3583	3583	3583	3583	3583	3583	3583	3583	3546	3546	3583	3583	3583	3583	3583	3583	3583	3583	3583	3583	3621	3621	3621	3583	3621	3583	3583	3583	3583	3583	3583	3546	3546	3546	3546	3621	3583	3583	3583	3546	3583	3583	3546	3546	3583	3583	3583	3583	3583	3583	3583	3583	3583	3583	3583	3583	3583	3583	3583	3546	3583	3583	3583	3583	3583	3546	3583	3583	3583	3546	3546	3546	3583	3546	3546	3546	3546	3583	3583	3546	3546	3546	3546	3583	3583	3583	3583	3583	3546	2051	2051	2051	2039	2027	2027	2015	2027	2027	2015	2003	2003	1992	1992	2015	1750	1759	1759	1750	1732	1723	1715	1715	1715	1706	1706	1706	1698	1690	1681	1681	1673	1673	1665	1665	1657	1657	1657	1649	1649	1641	1634	1618	1618	1611	1603	1596	1596	1589	1589	1581	1574	1567	1560	1539	1532	1532	1532	0	0	0	0	0	0	0	0	0	0	0	0	0	0	0	0	0	0	0	0	0	0	0	0	0	0	0	0	0	0	0	0	0	0	0	0	0	0	0	0
0	0	0	0	0	0	0	0	0	0	1352	1352	1352	1358	1358	1368	1368	1368	1374	1374	1374	1374	1374	1374	1385	1396	1396	1413	1407	1419	1419	1461	1461	1461	1467	1467	1473	1473	1473	1480	1480	1480	1480	1480	1486	1486	1486	1486	1506	1512	1512	1519	1525	1525	0	0	2392	2392	2392	2392	2409	2409	2409	2409	2426	2426	2426	2426	2426	2426	2460	2460	2478	2496	2496	2514	2514	2532	2532	2532	2532	2532	2551	2551	2551	2551	2551	2551	2551	2551	2551	2551	2551	2551	2551	2570	2570	2551	2570	2570	2570	2551	2551	2551	2551	2570	2551	2570	2570	2570	2551	2551	2551	2551	2551	2551	2551	2551	2551	2551	2551	2551	2551	2551	2551	2551	2551	2551	2551	2551	2570	2551	2551	2551	2551	2551	2551	2551	2551	2551	2570	2570	2570	2570	2570	2570	2570	2570	2570	2570	2570	2570	2570	2551	2570	2551	2551	2551	2551	2551	2551	2551	2570	2570	2589	2589	2589	3440	3475	3440	3440	3440	3440	3440	3440	3440	3440	3440	3440	3440	3475	3440	3440	3475	3510	3510	3546	3546	3546	3583	3621	3583	3583	3621	3621	3621	3621	3621	3621	3621	3621	3583	3583	3583	3583	3583	3621	3621	3621	3621	3583	3621	3659	3659	3659	3659	3659	3659	3659	3659	3659	3659	3659	3659	3659	3659	3659	3659	3659	3698	3698	3698	3698	3698	3698	3698	3698	3659	3659	3659	3659	3659	3659	3659	3659	3659	3698	3698	3698	3698	3698	3698	3698	3698	3698	3659	3659	3659	3659	3659	3659	3659	3659	3659	3698	3698	3698	3698	3698	3698	3698	3698	3698	3698	3659	3659	3659	3659	3621	3659	3659	3659	3659	3659	3659	3659	3659	3659	3659	3659	2942	2942	2942	2917	2917	2917	2917	2893	2893	2893	2869	2869	2869	2869	2893	2893	2893	2869	2869	2869	2869	2869	2845	2869	2869	2869	2845	2845	2822	2822	2799	2799	2799	2799	2799	2799	2799	2799	2777	2799	2777	2777	2777	2777	2777	2777	2777	2777	2777	2754	2777	2777	2777	2777	2777	2754	2777	2754	2754	2777	2777	2777	2777	2777	2799	2799	2799	2799	2799	2799	2822	2822	2822	2822	2822	2845	2822	2822	2822	2845	2845	0	2917	2917	2917	2893	2893	2893	2893	2869	2869	2869	2869	2869	2869	2869	3621	3621	3621	3621	3621	3621	3621	3621	3621	3621	3621	3621	3621	3621	3621	3659	3659	3659	3659	3659	3659	3659	3659	3659	3659	3659	3659	3659	3659	3621	3659	3621	3621	3621	3621	3621	3621	3621	3621	3621	3621	3621	3621	3621	3621	3621	3621	3621	3621	3621	3621	3621	3621	3621	3621	3621	3621	3621	3583	3583	3583	3583	3583	3546	3583	3583	3583	3583	3583	3621	3583	3583	3583	3583	3583	3546	3546	3583	3583	3546	3583	3583	3583	3583	3583	3583	3583	3621	3621	3621	3583	3583	3583	3583	3583	3583	3583	3583	3583	3583	3583	3583	3621	3621	3583	3583	3583	3583	3583	3546	3546	3546	3546	3546	3583	3546	3546	3583	3583	3583	3583	3583	3583	3583	3583	3583	3546	3546	3546	3583	3583	3583	3583	3583	3583	3583	3546	3546	3546	3583	3546	3546	3546	3546	3546	3546	3546	3546	3546	3546	3583	3583	3621	3659	3659	0	2051	2039	2039	2039	2027	2027	2015	2027	2027	2015	2015	2015	2015	2027	1777	1768	1768	1759	1759	1741	1732	1723	1715	1715	1715	1706	1706	1698	1698	1681	1681	1681	1673	1665	1665	1657	1657	1649	1649	1641	1634	1626	1618	1611	1611	1603	1596	1596	1589	1589	1581	1574	1574	1560	1539	1532	1525	1525	0	0	0	0	0	0	0	0	0	0	0	0	0	0	0	0	0	0	0	0	0	0	0	0	0	0	0	0	0	0	0	0	0	0	0	0	0	0	0	0
0	0	0	0	0	0	0	0	0	0	1347	1347	1347	1347	1363	1363	1368	1374	1374	1379	1374	1374	1374	1374	1390	1396	1396	1402	1407	1419	1419	1419	1455	1455	1455	1467	1467	1467	1473	1480	1480	1480	1480	1480	1486	1486	1486	1492	1512	1512	1512	1519	1519	1519	0	0	2392	2392	2409	2409	2409	2409	2409	2409	2426	2426	2426	2426	2426	2426	2460	2478	2478	2496	2514	2532	2532	2532	2532	2551	2551	2551	2551	2551	2551	2551	2551	2551	2551	2551	2551	2551	2551	2570	2570	2570	2570	2570	2570	2570	2570	2551	2551	2570	2551	2551	2570	2551	2570	2551	2551	2551	2551	2532	2551	2551	2551	2551	2551	2551	2551	2570	2551	2570	2551	2551	2551	2551	2551	2551	2551	2551	2551	2551	2551	2551	2551	2551	2551	2551	2570	2570	2570	2570	2570	2570	2570	2570	2570	2570	2570	2570	2570	2570	2570	2551	2551	2551	2551	2551	2551	2551	2551	2570	2589	2589	2589	3440	3440	3440	3440	3440	3440	3406	3440	3440	3440	3440	3440	3440	3475	3440	3440	3475	3510	3510	3546	3546	3546	3583	3621	3583	3583	3583	3621	3621	3621	3621	3621	3621	3621	3621	3621	3621	3621	3583	3621	3621	3659	3621	3583	3621	3659	3659	3659	3659	3659	3659	3659	3659	3659	3659	3659	3659	3659	3659	3659	3659	3659	3698	3698	3698	3698	3698	3698	3698	3659	3659	3659	3659	3659	3659	3659	3659	3659	3698	3698	3698	3698	3698	3698	3698	3698	3698	3698	3659	3659	3659	3659	3698	3659	3659	3659	3659	3698	3698	3698	3698	3698	3659	3698	3698	3659	3698	3659	3659	3659	3659	3621	3659	3659	3659	3659	3659	3659	3659	3659	3659	3659	3659	3698	2942	2942	2917	2917	2917	2917	2893	2869	2869	2869	2869	2869	2869	2869	2869	2869	2869	2869	2869	2869	2845	2845	2869	2869	2845	2845	2845	2822	2822	2799	2799	2799	2777	2799	2777	2777	2777	2777	2777	2777	2777	2777	2777	2777	2777	2777	2754	2777	2754	2777	2777	2777	2777	2777	2754	2777	2754	2754	2777	2777	2777	2777	2777	2777	2799	2799	2799	2799	2799	2799	2822	2822	2822	2822	2822	2822	2822	2822	2799	2799	0	0	2893	2893	2893	2893	2893	2869	2869	2869	2869	2869	2869	2869	2869	3621	3621	3621	3621	3621	3621	3621	3621	3621	3621	3621	3621	3621	3621	3621	3659	3659	3659	3659	3659	3659	3621	3621	3659	3659	3621	3621	3659	3659	3621	3621	3621	3659	3621	3621	3621	3621	3621	3621	3621	3621	3621	3621	3621	3621	3583	3621	3621	3621	3621	3621	3621	3621	3621	3621	3621	3621	3621	3583	3621	3621	3583	3583	3546	3546	3583	3583	3583	3583	3583	3583	3583	3583	3546	3546	3546	3546	3546	3546	3546	3583	3583	3583	3583	3583	3583	3583	3583	3583	3583	3583	3583	3583	3583	3583	3583	3583	3583	3583	3583	3583	3583	3621	3583	3583	3583	3546	3546	3546	3546	3546	3546	3546	3546	3583	3546	3546	3546	3583	3583	3583	3583	3546	3583	3546	3546	3546	3546	3546	3546	3583	3583	3546	3583	3583	3583	3546	3546	3546	3583	3583	3546	3546	3546	3546	3546	3546	3546	3546	3546	3583	3583	3621	3621	3659	0	2051	2051	2039	2039	2027	2015	2015	2015	2015	2027	2015	2015	1795	1786	1777	1768	1768	1759	1759	1750	1741	1732	1723	1715	1715	1715	1706	1706	1698	1690	1690	1681	1673	1673	1665	1665	1657	1657	1649	1641	1634	1626	1618	1611	1611	1603	1596	1596	1596	1589	1581	1581	1574	1560	1539	1532	1532	1532	0	0	0	0	0	0	0	0	0	0	0	0	0	0	0	0	0	0	0	0	0	0	0	0	0	0	0	0	0	0	0	0	0	0	0	0	0	0	0	0
0	0	0	0	0	0	0	0	0	0	1342	1342	1347	1358	1363	1379	1379	1385	1379	1385	1385	1374	1385	1390	1390	1396	1402	1402	1407	1413	1419	1419	1419	1443	1455	1461	1467	1467	1467	1480	1480	1473	1480	1480	1486	1486	1492	1492	1512	1519	1512	1519	1519	1519	0	0	2409	2409	2409	2409	2409	2409	2409	2409	2426	2426	2426	2426	2426	2443	2460	2460	2478	2514	2514	2532	2532	2551	2551	2551	2551	2551	2551	2551	2551	2551	2551	2551	2551	2551	2551	2551	2551	2570	2570	2570	2570	2570	2570	2570	2570	2570	2551	2570	2570	2570	2570	2570	2570	2570	2551	2551	2551	2551	2551	2551	2551	2551	2570	2570	2570	2570	2570	2570	2551	2551	2551	2551	2551	2551	2551	2551	2551	2551	2551	2551	2551	2551	2551	2551	2570	2570	2570	2570	2570	2570	2570	2570	2570	2570	2570	2570	2551	2551	2570	2551	2551	2551	2532	2551	2551	2551	2570	2570	2589	2609	2609	3475	3475	3440	3440	3440	3440	3406	3406	3440	3440	3440	3440	3440	3475	3440	3440	3475	3510	3510	3546	3546	3546	3583	3583	3583	3583	3583	3621	3621	3621	3621	3621	3621	3621	3621	3621	3621	3621	3583	3621	3621	3659	3621	3583	3621	3621	3659	3659	3659	3621	3659	3659	3659	3659	3659	3659	3659	3659	3659	3659	3659	3659	3698	3698	3698	3698	3698	3698	3698	3659	3659	3659	3659	3659	3659	3659	3659	3659	3698	3698	3698	3698	3698	3698	3698	3698	3698	3659	3659	3659	3659	3659	3659	3698	3698	3698	3698	3698	3698	3698	3698	3659	3659	3659	3659	3659	3659	3659	3659	3659	3659	3621	3659	3621	3659	3659	3659	3659	3659	3659	3659	3659	3659	3698	3698	2917	2893	2893	2917	2917	2893	2869	2869	2869	2869	2869	2869	2869	2869	2869	2869	2869	2869	2869	2845	2845	2845	2869	2845	2845	2822	2822	2822	2799	2799	2799	2799	2799	2799	2799	2777	2777	2777	2777	2777	2777	2777	2777	2777	2754	2754	2754	2754	2754	2754	2754	2754	2754	2754	2754	2754	2754	2777	2777	2777	2777	2777	2777	2799	2799	2799	2799	2799	2799	2799	2799	2799	2799	2799	2799	2799	2799	2799	2799	0	0	2893	2893	2869	2869	2869	2869	2869	2869	2869	2869	2869	2869	2869	3621	3621	3621	3621	3621	3621	3621	3621	3621	3621	3621	3621	3621	3621	3621	3659	3659	3659	3659	3659	3659	3659	3621	3659	3659	3621	3621	3621	3621	3621	3621	3621	3659	3621	3621	3621	3621	3659	3621	3621	3621	3621	3621	3621	3583	3583	3583	3583	3621	3583	3621	3621	3621	3621	3621	3621	3621	3621	3583	3621	3621	3583	3583	3546	3583	3583	3583	3583	3583	3621	3583	3583	3583	3583	3546	3583	3546	3583	3546	3546	3583	3583	3583	3583	3583	3583	3583	3583	3583	3583	3583	3583	3583	3583	3583	3583	3583	3621	3583	3583	3583	3583	3621	3621	3621	3583	3546	3583	3583	3546	3546	3546	3546	3546	3546	3546	3546	3583	3583	3583	3583	3583	3546	3546	3546	3546	3546	3546	3546	3546	3583	3583	3546	3546	3583	3583	3583	3546	3546	3583	3583	3546	3546	3546	3546	3583	3583	3546	3546	3546	3621	3621	3621	3621	2051	2051	2039	2039	2039	2039	2027	2015	2015	2015	2027	2027	2015	2039	1795	1786	1777	1768	1768	1759	1759	1750	1741	1732	1723	1723	1715	1715	1706	1706	1706	1698	1698	1681	1681	1681	1673	1665	1665	1657	1649	1649	1641	1626	1618	1611	1603	1603	1596	1596	1596	1589	1581	1574	1574	1560	1539	1532	1525	1525	0	0	0	0	0	0	0	0	0	0	0	0	0	0	0	0	0	0	0	0	0	0	0	0	0	0	0	0	0	0	0	0	0	0	0	0	0	0	0	0
0	0	0	0	0	0	0	0	0	0	1342	1342	1347	1358	1368	1379	1385	1385	1385	1385	1385	1390	1390	1390	1396	1396	1402	1402	1407	1413	1419	1419	1425	1437	1443	1455	1455	1461	1467	1467	1473	1473	1473	1480	1486	1492	1492	1499	1512	1519	1512	1519	1519	1519	0	0	2409	2409	2409	2409	2409	2409	2409	2426	2426	2443	2426	2426	2443	2443	2460	2478	2478	2496	2514	2532	2532	2532	2532	2551	2551	2551	2551	2551	2551	2551	2551	2551	2551	2551	2551	2551	2551	2570	2570	2570	2570	2570	2570	2570	2570	2570	2570	2570	2570	2570	2570	2551	2551	2551	2551	2551	2551	2551	2551	2551	2551	2551	2551	2570	2570	2570	2570	2570	2570	2551	2551	2551	2551	2551	2551	2551	2551	2551	2551	2551	2551	2551	2551	2551	2570	2570	2570	2570	2570	2570	2570	2570	2570	2570	2570	2570	2570	2570	2570	2551	2551	2551	2532	2532	2551	2551	2551	2589	2609	2609	2609	2609	3475	3440	3440	3440	3440	3406	3440	3440	3440	3440	3440	3440	3475	3475	3475	3510	3510	3510	3546	3546	3546	3546	3583	3583	3583	3583	3621	3621	3621	3621	3621	3621	3621	3621	3621	3621	3621	3583	3621	3621	3621	3621	3583	3621	3621	3659	3659	3659	3659	3659	3659	3659	3659	3659	3659	3659	3659	3659	3659	3659	3659	3698	3698	3698	3698	3698	3659	3659	3659	3659	3659	3659	3659	3659	3659	3659	3659	3659	3659	3698	3698	3698	3659	3659	3659	3698	3659	3659	3659	3659	3659	3659	3698	3698	3698	3698	3698	3698	3698	3698	3659	3659	3659	3659	3659	3659	3659	3659	3659	3659	3621	3659	3659	3659	3659	3659	3659	3659	3659	3659	3659	3659	3698	3698	2917	2893	2893	2917	2893	2893	2869	2869	2869	2869	2869	2869	2869	2869	2869	2869	2869	2845	2845	2845	2845	2845	2845	2845	2822	2822	2822	2799	2799	2799	2799	2777	2777	2777	2777	2777	2777	2777	2777	2777	2777	2777	2777	2754	2754	2754	2754	2754	2754	2754	2754	2754	2754	2754	2754	2754	2754	2754	2777	2777	2777	2777	2777	2799	2799	2799	2799	2799	2799	2799	2799	2799	2799	2799	2799	2799	2799	2799	2799	0	0	0	0	2845	2869	2869	2869	2845	2845	2869	2869	2869	2869	2869	3621	3621	3621	3621	3621	3621	3621	3621	3621	3621	3621	3621	3621	3621	3621	3659	3659	3659	3659	3659	3659	3659	3621	3621	3621	3621	3621	3621	3621	3621	3621	3621	3659	3659	3621	3621	3621	3621	3621	3621	3621	3621	3621	3621	3583	3583	3583	3583	3583	3583	3583	3583	3583	3583	3583	3621	3621	3583	3583	3621	3621	3583	3583	3546	3583	3583	3583	3583	3583	3583	3583	3583	3583	3583	3546	3583	3546	3583	3583	3583	3583	3583	3583	3583	3583	3583	3583	3583	3583	3583	3583	3583	3583	3583	3583	3583	3583	3583	3583	3583	3583	3583	3621	3621	3621	3583	3546	3583	3583	3546	3546	3546	3546	3546	3546	3546	3546	3546	3546	3546	3546	3546	3546	3583	3546	3546	3546	3546	3583	3546	3583	3583	3546	3546	3546	3546	3546	3546	3546	3583	3583	3546	3546	3546	3546	3546	3546	3546	3546	3546	3546	3546	3698	2051	2051	2051	2039	2039	2039	2039	2027	2027	2015	2015	2027	2027	1804	1804	1795	1786	1777	1777	1777	1768	1759	1750	1741	1732	1723	1723	1715	1715	1715	1706	1706	1698	1706	1706	1690	1681	1681	1665	1665	1657	1649	1649	1634	1626	1618	1603	1603	1596	1596	1589	1596	1589	1581	1574	1567	1560	1539	1532	1532	1532	0	0	0	0	0	0	0	0	0	0	0	0	0	0	0	0	0	0	0	0	0	0	0	0	0	0	0	0	0	0	0	0	0	0	0	0	0	0	0	0
0	0	0	0	0	0	0	0	0	0	1342	1342	1342	1352	1368	1385	1385	1390	1385	1390	1390	1390	1390	1390	1396	1396	1402	1402	1402	1407	1413	1419	1425	1437	1437	1443	1449	1455	1455	1467	1467	1473	1473	1480	1486	1492	1492	1499	1512	1519	1512	1512	1519	1519	1519	0	2409	2392	2409	2409	2409	2409	2409	2409	2426	2443	2426	2443	2443	2460	2460	2478	2478	2496	2514	2532	2532	2532	2551	2551	2551	2570	2551	2570	2551	2551	2551	2551	2551	2532	2532	2532	2551	2570	2570	2570	2570	2570	2570	2570	2570	2570	2570	2570	2570	2570	2570	2551	2551	2551	2551	2551	2551	2551	2551	2551	2551	2551	2551	2551	2570	2570	2570	2570	2570	2570	2551	2551	2551	2551	2551	2551	2551	2551	2551	2551	2551	2551	2551	2570	2589	2589	2589	2589	2589	2589	2570	2570	2570	2570	2570	2570	2570	2551	2551	2551	2532	2551	2532	2532	2551	2551	2570	2589	2629	2629	2629	2629	3475	3440	3440	3440	3440	3440	3440	3440	3440	3440	3440	3440	3440	3475	3475	3475	3510	3546	3546	3546	3546	3546	3583	3583	3583	3583	3621	3621	3621	3583	3621	3621	3621	3621	3621	3621	3621	3621	3583	3583	3583	3583	3583	3621	3621	3659	3659	3659	3659	3659	3659	3659	3659	3659	3659	3659	3659	3659	3659	3659	3659	3698	3698	3698	3659	3659	3659	3659	3621	3621	3621	3659	3621	3621	3659	3659	3659	3659	3659	3659	3659	3659	3659	3659	3698	3698	3698	3698	3698	3698	3698	3698	3698	3698	3698	3698	3698	3698	3698	3698	3659	3659	3659	3659	3659	3659	3659	3659	3659	3621	3621	3621	3621	3621	3621	3621	3659	3659	3659	3659	3659	3659	3698	3698	2917	2893	2893	2917	2893	2893	2869	2869	2869	2869	2869	2869	2869	2869	2869	2869	2869	2869	2845	2845	2845	2845	2845	2845	2822	2822	2822	2799	2799	2799	2799	2777	2777	2777	2777	2777	2777	2777	2777	2777	2777	2777	2777	2754	2754	2754	2754	2754	2754	2754	2754	2754	2754	2733	2754	2754	2754	2754	2777	2777	2777	2777	2777	2777	2777	2777	2777	2777	2799	2799	2799	2799	2777	2799	2799	2799	2799	2799	2799	0	0	0	0	2845	2845	2869	2845	2845	2845	2845	2869	2869	2869	2869	3621	3621	3621	3621	3621	3621	3621	3621	3621	3621	3621	3621	3621	3621	3621	3659	3659	3659	3659	3659	3659	3659	3659	3659	3621	3621	3621	3621	3621	3621	3621	3621	3659	3659	3621	3621	3621	3621	3621	3621	3621	3621	3621	3621	3583	3583	3583	3583	3583	3583	3583	3583	3583	3583	3621	3621	3621	3621	3621	3621	3583	3583	3583	3583	3583	3583	3583	3583	3583	3583	3583	3583	3546	3546	3546	3583	3546	3583	3546	3583	3583	3583	3583	3583	3583	3583	3583	3583	3583	3583	3546	3546	3583	3583	3583	3546	3583	3583	3583	3583	3583	3583	3621	3621	3621	3583	3583	3583	3583	3583	3546	3546	3546	3546	3546	3546	3546	3546	3583	3546	3546	3546	3546	3546	3546	3546	3546	3546	3546	3546	3583	3583	3546	3546	3583	3546	3546	3546	3546	3583	3583	3546	3546	3546	3546	3546	3546	3583	3546	3583	3583	3546	2076	2051	2051	2039	2039	2027	2039	2027	2027	2015	2015	2027	2027	1804	1804	1804	1795	1786	1777	1777	1777	1768	1768	1768	1750	1741	1732	1732	1715	1715	1715	1715	1706	1706	1706	1706	1690	1681	1681	1665	1665	1657	1657	1649	1641	1626	1618	1603	1603	1596	1596	1589	1596	1589	1581	1574	1567	1560	1546	1539	1532	1532	0	0	0	0	0	0	0	0	0	0	0	0	0	0	0	0	0	0	0	0	0	0	0	0	0	0	0	0	0	0	0	0	0	0	0	0	0	0	0	0
0	0	0	0	0	0	0	0	0	0	1336	1336	1336	1352	1385	1385	1390	1390	1390	1390	1390	1390	1396	1396	1396	1402	1402	1402	1407	1413	1419	1419	1425	1437	1437	1443	1443	1449	1455	1461	1467	1467	1467	1480	1492	1492	1499	1499	1519	1519	1519	1519	1519	1519	1519	0	0	2409	2409	2409	2409	2409	2409	2409	2426	2426	2426	2443	2443	2460	2478	2478	2478	2496	2514	2532	2532	2551	2551	2551	2551	2551	2551	2551	2551	2551	2551	2551	2551	2551	2551	2532	2551	2551	2570	2570	2570	2570	2570	2570	2570	2570	2570	2570	2570	2570	2551	2551	2551	2551	2551	2551	2551	2551	2551	2551	2551	2551	2551	2551	2551	2570	2551	2551	2551	2551	2551	2551	2551	2551	2551	2551	2570	2551	2570	2551	2551	2551	2551	2570	2589	2589	2589	2589	2570	2589	2570	2570	2570	2570	2551	2570	2570	2570	2570	2551	2532	2551	2551	2532	2551	2551	2570	2589	2609	2629	2629	2629	2629	3440	3406	3406	3406	3440	3440	3440	3440	3440	3440	3440	3475	3475	3475	3475	3510	3546	3546	3546	3546	3546	3546	3583	3546	3583	3583	3621	3621	3583	3583	3621	3583	3583	3583	3583	3583	3583	3583	3583	3583	3621	3621	3621	3659	3659	3659	3659	3659	3659	3659	3659	3659	3659	3659	3659	3621	3659	3659	3659	3659	3698	3698	3698	3659	3659	3659	3659	3621	3621	3621	3621	3621	3621	3621	3659	3659	3659	3659	3659	3698	3698	3698	3698	3698	3698	3698	3698	3698	3698	3698	3698	3698	3698	3698	3698	3698	3698	3659	3698	3659	3659	3659	3659	3659	3659	3659	3659	3659	3659	3621	3621	3621	3621	3621	3621	3659	3659	3659	3659	3659	3659	3698	3659	2917	2893	2893	2893	2893	2893	2869	2869	2869	2869	2869	2869	2869	2869	2869	2869	2845	2845	2845	2822	2822	2845	2845	2822	2822	2822	2822	2799	2799	2799	2799	2777	2777	2777	2777	2777	2777	2777	2777	2777	2777	2754	2754	2754	2754	2754	2754	2733	2733	2733	2733	2754	2733	2733	2733	2754	2754	2754	2777	2777	2777	2777	2777	2777	2777	2777	2777	2777	2777	2777	2799	2777	2777	2799	2799	2799	2799	2799	2799	2799	2799	0	0	2845	2845	2845	2845	2845	2845	2845	2845	2869	2869	2869	3621	3621	3621	3621	3621	3621	3621	3621	3621	3621	3621	3621	3621	3621	3621	3621	3659	3659	3659	3659	3659	3659	3621	3659	3621	3621	3621	3621	3621	3621	3621	3621	3659	3659	3659	3621	3621	3621	3621	3621	3621	3621	3621	3621	3621	3583	3583	3583	3583	3583	3583	3583	3583	3583	3621	3621	3621	3621	3621	3621	3621	3583	3583	3583	3583	3583	3583	3583	3583	3583	3583	3583	3583	3546	3546	3583	3546	3546	3546	3546	3546	3583	3583	3583	3546	3583	3583	3583	3583	3546	3546	3546	3583	3546	3546	3546	3583	3583	3583	3583	3583	3583	3621	3621	3621	3621	3583	3583	3583	3583	3583	3546	3546	3546	3546	3546	3546	3546	3546	3546	3546	3546	3546	3546	3546	3546	3546	3546	3546	3546	3546	3546	3546	3546	3583	3583	3583	3583	3583	3583	3583	3546	3546	3546	3546	3546	3583	3583	3583	3583	3583	2076	2051	2051	2039	2039	2039	2027	2027	2027	2003	2003	2015	1814	1804	1814	1804	1804	1795	1786	1777	1777	1777	1768	1768	1768	1768	1750	1741	1732	1723	1715	1715	1715	1706	1706	1706	1698	1690	1681	1681	1665	1657	1649	1649	1641	1634	1626	1626	1603	1603	1596	1596	1589	1589	1589	1581	1574	1567	1560	1553	1539	1539	1539	0	0	0	0	0	0	0	0	0	0	0	0	0	0	0	0	0	0	0	0	0	0	0	0	0	0	0	0	0	0	0	0	0	0	0	0	0	0	0	0
0	0	0	0	0	0	0	0	0	0	1331	1331	1331	1331	1385	1385	1385	1390	1390	1390	1390	1396	1396	1396	1396	1402	1407	1407	1413	1413	1419	1419	1425	1425	1437	1437	1443	1443	1449	1455	1461	1467	1473	1480	1492	1499	1499	1499	1519	1519	1519	1519	1525	1525	1525	0	0	2409	2409	2409	2409	2409	2409	2409	2426	2426	2426	2443	2460	2478	2478	2478	2478	2496	2514	2532	2551	2551	2551	2551	2551	2551	2551	2551	2551	2551	2551	2551	2551	2551	2551	2551	2551	2570	2570	2570	2570	2570	2570	2570	2570	2570	2570	2570	2570	2570	2570	2551	2551	2551	2551	2551	2551	2551	2551	2551	2551	2551	2551	2551	2551	2570	2570	2570	2551	2551	2551	2551	2551	2551	2551	2551	2551	2551	2551	2551	2551	2551	2551	2570	2589	2589	2589	2589	2570	2570	2570	2570	2570	2570	2551	2570	2570	2570	2570	2551	2551	2551	2551	2532	2551	2551	2570	2589	2609	2609	2649	2649	2649	3440	3406	3440	3440	3440	3440	3440	3440	3440	3440	3440	3440	3475	3475	3475	3510	3546	3546	3546	3546	3546	3583	3583	3583	3583	3621	3621	3621	3583	3583	3583	3583	3583	3583	3583	3583	3583	3583	3583	3621	3621	3621	3659	3659	3659	3659	3659	3659	3659	3659	3659	3659	3659	3659	3659	3621	3621	3659	3659	3659	3698	3698	3698	3698	3659	3659	3621	3621	3621	3621	3659	3659	3659	3659	3659	3659	3659	3659	3659	3698	3698	3698	3698	3698	3698	3698	3659	3698	3698	3659	3659	3698	3698	3698	3698	3698	3698	3659	3659	3659	3659	3659	3659	3659	3659	3659	3659	3659	3621	3621	3621	3621	3621	3621	3621	3659	3659	3659	3659	3698	3698	3698	3698	2893	2893	2893	2893	2893	2893	2869	2869	2893	2893	2869	2869	2869	2869	2869	2869	2845	2845	2845	2822	2822	2845	2845	2822	2822	2822	2822	2799	2799	2799	2799	2777	2777	2777	2777	2777	2777	2777	2777	2777	2777	2754	2754	2754	2754	2754	2733	2733	2733	2733	2733	2733	2733	2733	2733	2754	2754	2754	2777	2777	2777	2777	2777	2777	2777	2777	2777	2777	2777	2777	2777	2777	2777	2777	2777	2799	2799	2777	2799	2799	2799	0	0	2845	2845	2869	2869	2845	2845	2845	2845	2869	2869	2869	3621	3621	3621	3621	3621	3621	3621	3621	3621	3621	3621	3621	3621	3621	3621	3659	3659	3659	3659	3659	3659	3659	3621	3659	3621	3621	3621	3621	3621	3621	3621	3659	3659	3659	3659	3659	3621	3621	3621	3621	3621	3621	3621	3621	3621	3621	3621	3583	3583	3583	3583	3583	3583	3583	3621	3621	3621	3621	3621	3621	3621	3621	3621	3621	3583	3583	3583	3583	3583	3583	3583	3583	3583	3583	3583	3583	3583	3583	3583	3546	3583	3583	3546	3546	3546	3583	3546	3546	3546	3546	3546	3546	3546	3546	3583	3583	3583	3583	3583	3583	3583	3583	3621	3621	3621	3621	3583	3621	3583	3583	3583	3583	3546	3546	3546	3546	3546	3546	3546	3546	3546	3546	3546	3546	3546	3546	3546	3546	3546	3546	3546	3546	3546	3546	3583	3583	3583	3546	3546	3546	3546	3546	3546	3546	2127	2114	2114	2114	2114	3583	2076	2051	2039	2039	2039	2027	2027	2015	2027	2027	2003	2003	1814	1814	1814	1814	1814	1804	1795	1786	1786	1777	1777	1768	1768	1768	1750	1750	1741	1732	1723	1715	1715	1715	1706	1706	1706	1698	1681	1681	1673	1657	1657	1649	1641	1641	1634	1626	1626	1603	1603	1596	1596	1589	1589	1589	1581	1574	1567	1560	1553	1539	1539	1539	0	0	0	0	0	0	0	0	0	0	0	0	0	0	0	0	0	0	0	0	0	0	0	0	0	0	0	0	0	0	0	0	0	0	0	0	0	0	0	0
0	0	0	0	0	0	0	0	0	0	1331	1331	1336	1342	1358	1385	1385	1390	1390	1390	1390	1396	1396	1402	1407	1407	1413	1413	1419	1419	1425	1425	1425	1425	1437	1437	1443	1443	1443	1449	1455	1467	1467	1480	1492	1499	1499	1506	1519	1519	1519	1519	1519	1525	1525	0	0	2392	2392	2392	2409	2392	2392	2409	2426	2443	2426	2443	2460	2478	2478	2496	2496	2514	2514	2514	2551	2551	2551	2570	2551	2551	2551	2551	2551	2570	2551	2551	2551	2551	2551	2551	2551	2570	2570	2570	2570	2570	2570	2570	2570	2570	2570	2570	2570	2570	2551	2551	2551	2551	2551	2551	2551	2551	2551	2551	2551	2551	2551	2551	2551	2570	2551	2570	2551	2551	2551	2551	2551	2551	2551	2551	2551	2551	2551	2551	2551	2551	2551	2551	2570	2589	2589	2589	2570	2589	2570	2570	2570	2551	2551	2570	2551	2551	2570	2551	2551	2551	2551	2532	2532	2551	2570	2570	2649	2669	2669	2690	2711	2733	2733	3440	3440	3440	3440	3440	3440	3440	3440	3440	3440	3475	3475	3475	3510	3546	3546	3546	3546	3546	3583	3583	3583	3583	3621	3621	3621	3621	3621	3583	3583	3583	3583	3583	3546	3583	3583	3583	3583	3583	3621	3621	3621	3659	3659	3659	3659	3659	3659	3659	3659	3621	3621	3659	3621	3621	3659	3659	3659	3698	3698	3698	3698	3659	3659	3621	3621	3621	3621	3659	3659	3659	3659	3659	3659	3659	3659	3659	3698	3698	3698	3698	3698	3698	3698	3659	3659	3659	3659	3659	3698	3698	3698	3698	3698	3659	3659	3659	3659	3659	3659	3698	3659	3698	3659	3659	3659	3659	3621	3621	3621	3621	3621	3621	3659	3659	3659	3659	3659	3659	3698	2917	2893	2893	2893	2893	2893	2893	2893	2893	2893	2893	2893	2869	2869	2869	2869	2869	2845	2845	2822	2822	2822	2822	2822	2822	2822	2822	2799	2799	2799	2799	2777	2777	2777	2777	2777	2777	2777	2777	2777	2777	2777	2754	2754	2754	2754	2754	2733	2733	2733	2733	2733	2733	2733	2733	2754	2754	2754	2777	2777	2777	2777	2777	2777	2777	2777	2777	2777	2777	2777	2777	2777	2777	2777	2777	2777	2777	2799	2777	2799	2799	2777	2777	0	2845	2845	2869	2869	2869	2869	2845	2869	2869	2893	2893	3621	3621	3621	3621	3621	3621	3621	3621	3621	3621	3621	3621	3621	3621	3621	3659	3659	3659	3659	3659	3659	3621	3621	3659	3621	3621	3621	3621	3621	3621	3621	3621	3659	3659	3621	3621	3621	3621	3621	3621	3621	3621	3621	3621	3621	3621	3621	3583	3583	3583	3583	3621	3583	3583	3621	3621	3621	3621	3621	3621	3621	3621	3621	3583	3583	3583	3583	3583	3583	3583	3583	3583	3583	3583	3583	3583	3583	3583	3583	3546	3583	3583	3583	3583	3546	3583	3583	3583	3546	3546	3546	3546	3546	3546	3546	3546	3583	3583	3583	3583	3583	3583	3621	3621	3621	3621	3583	3583	3583	3583	3583	3583	3583	3583	3546	3546	3546	3546	3546	3546	3546	3546	3546	3546	3546	3546	3583	3546	3546	3546	3546	3546	3546	3546	3546	3546	3546	3546	3546	3546	3546	3546	3546	2127	2127	2114	2114	2114	2101	2088	2076	2051	2039	2039	2027	2027	2027	2027	2027	2027	2015	1824	1824	1824	1814	1814	1814	1804	1804	1786	1786	1786	1777	1777	1768	1768	1750	1750	1741	1732	1723	1723	1723	1715	1706	1706	1706	1698	1681	1681	1673	1657	1657	1649	1649	1641	1634	1626	1626	1603	1603	1596	1596	1589	1589	1581	1581	1574	1567	1560	1553	1546	1539	1539	0	0	0	0	0	0	0	0	0	0	0	0	0	0	0	0	0	0	0	0	0	0	0	0	0	0	0	0	0	0	0	0	0	0	0	0	0	0	0	0
0	0	0	0	0	0	0	0	0	0	1331	1331	1331	1342	1352	1374	1379	1385	1390	1390	1396	1396	1402	1402	1407	1413	1413	1419	1419	1425	1425	1425	1431	1431	1437	1437	1443	1443	1443	1449	1455	1461	1467	1480	1492	1492	1499	1499	1519	1519	1519	1519	1525	1525	1525	0	0	2392	2392	2392	2409	2409	2409	2409	2426	2443	2426	2443	2460	2460	2478	2478	2496	2496	2514	2532	2551	2551	2551	2570	2570	2551	2551	2551	2551	2570	2551	2551	2551	2551	2551	2551	2551	2551	2570	2570	2570	2570	2570	2570	2570	2570	2570	2551	2570	2570	2551	2551	2551	2532	2551	2551	2551	2551	2551	2551	2551	2551	2551	2551	2551	2551	2551	2551	2551	2551	2551	2551	2551	2551	2551	2551	2570	2551	2551	2551	2551	2551	2551	2570	2589	2589	2589	2589	2589	2589	2570	2570	2551	2551	2551	2551	2551	2551	2551	2551	2551	2551	2551	2532	2551	2551	2570	2609	2649	2690	2690	2690	2711	2733	2733	2733	3475	3475	3440	3440	3440	3440	3440	3440	3440	3475	3475	3475	3510	3546	3546	3546	3546	3546	3546	3546	3546	3583	3583	3621	3621	3583	3583	3583	3583	3583	3583	3546	3546	3583	3546	3583	3583	3621	3621	3621	3659	3659	3659	3659	3659	3659	3659	3621	3621	3621	3621	3621	3621	3621	3659	3659	3659	3698	3698	3698	3698	3659	3659	3659	3659	3659	3659	3659	3659	3659	3659	3659	3659	3659	3659	3659	3659	3659	3659	3659	3659	3659	3698	3659	3659	3659	3659	3698	3698	3698	3698	3698	3698	3659	3659	3659	3659	3659	3659	3659	3659	3698	3698	3659	3659	3659	3659	3659	3621	3621	3621	3621	3621	3659	3621	3659	3659	3659	2917	2917	2893	2893	2893	2893	2893	2893	2893	2893	2893	2893	2893	2869	2869	2869	2869	2845	2845	2845	2822	2799	2799	2822	2822	2799	2799	2799	2799	2799	2777	2777	2777	2777	2777	2777	2777	2777	2777	2777	2777	2777	2777	2754	2754	2754	2754	2754	2733	2733	2733	2733	2733	2733	2733	2733	2754	2754	2754	2754	2777	2777	2777	2777	2777	2777	2777	2777	2777	2777	2777	2777	2777	2777	2777	2777	2777	2777	2777	2777	2777	2777	2777	2777	2869	2869	2869	2869	2869	2869	2869	2869	2869	2869	2893	2893	3621	3621	3621	3621	3621	3621	3621	3621	3621	3621	3621	3621	3621	3621	3621	3659	3659	3659	3659	3621	3621	3621	3621	3621	3621	3621	3621	3621	3621	3621	3621	3621	3659	3659	3621	3621	3621	3621	3621	3621	3621	3621	3621	3621	3621	3621	3621	3621	3583	3583	3583	3583	3583	3621	3621	3621	3621	3621	3621	3621	3621	3621	3621	3621	3621	3583	3621	3583	3583	3583	3583	3583	3583	3583	3583	3583	3583	3583	3546	3546	3583	3583	3583	3546	3546	3546	3546	3546	3546	3546	3510	3546	3546	3546	3546	3583	3546	3583	3583	3583	3583	3583	3621	3621	3621	3621	3583	3583	3583	3583	3583	3583	3583	3583	3583	3546	3546	3546	3546	3546	3546	3546	3546	3546	3546	3546	3546	3546	3546	3546	3546	3546	3546	3546	3546	3546	3546	3546	3546	3546	3546	3546	3546	2127	2127	2114	2101	2101	2088	2088	2063	2051	2039	2039	2027	2027	2027	2015	2027	2027	2027	1833	1833	1824	1824	1814	1814	1804	1804	1786	1786	1786	1786	1777	1777	1768	1750	1750	1741	1732	1723	1723	1723	1715	1706	1706	1706	1698	1690	1681	1673	1657	1657	1649	1649	1641	1634	1626	1626	1618	1603	1596	1596	1589	1589	1589	1581	1574	1567	1560	1560	1546	1539	1539	0	0	0	0	0	0	0	0	0	0	0	0	0	0	0	0	0	0	0	0	0	0	0	0	0	0	0	0	0	0	0	0	0	0	0	0	0	0	0	0
0	0	0	0	0	0	0	0	0	0	1331	1331	1331	1336	1347	1352	1358	1368	1379	1390	1390	1396	1402	1407	1413	1419	1419	1419	1425	1425	1431	1431	1431	1431	1437	1437	1443	1443	1443	1449	1455	1461	1467	1473	1486	1492	1492	1499	1512	1519	1519	1519	1525	1525	1525	0	0	2359	2359	2376	2376	2392	2392	2392	2409	2409	2426	2443	2460	2460	2478	2478	2496	2496	2514	2514	2551	2551	2570	2570	2570	2551	2551	2551	2551	2570	2570	2570	2570	2570	2551	2551	2551	2551	2551	2570	2551	2570	2570	2570	2570	2570	2570	2551	2570	2570	2551	2551	2551	2532	2551	2551	2551	2551	2551	2551	2551	2551	2551	2551	2551	2551	2551	2551	2551	2551	2551	2551	2551	2551	2551	2551	2570	2551	2551	2551	2551	2551	2551	2551	2570	2589	2570	2589	2589	2589	2570	2570	2551	2551	2551	2570	2551	2551	2570	2570	2570	2570	2551	2551	2551	2551	2570	2609	2649	2711	2711	2711	2733	2733	2733	2733	3475	3475	3440	3440	3440	3440	3440	3440	3440	3475	3475	3510	3510	3546	3546	3546	3546	3546	3583	3546	3546	3583	3583	3583	3583	3583	3583	3583	3583	3583	3583	3546	3546	3583	3546	3583	3583	3621	3621	3621	3659	3659	3659	3659	3659	3659	3659	3621	3621	3621	3621	3659	3621	3621	3621	3659	3659	3698	3698	3698	3698	3698	3698	3659	3659	3659	3659	3659	3659	3659	3659	3659	3659	3659	3621	3659	3659	3659	3659	3659	3659	3698	3698	3698	3698	3698	3698	3698	3698	3698	3698	3698	3698	3698	3659	3659	3659	3659	3659	3698	3698	3698	3698	3659	3659	3659	3659	3659	3621	3621	3621	3659	3659	3659	3621	3659	3659	3659	2917	2917	2893	2893	2893	2893	2893	2893	2869	2893	2893	2893	2893	2869	2869	2869	2869	2845	2845	2845	2822	2822	2799	2822	2822	2799	2799	2799	2799	2799	2777	2777	2777	2777	2777	2777	2777	2777	2777	2777	2777	2777	2754	2754	2754	2754	2754	2754	2754	2733	2733	2733	2733	2733	2733	2733	2754	2754	2754	2777	2777	2777	2777	2777	2777	2777	2777	2777	2777	2777	2777	2777	2777	2777	2777	2777	2777	2777	2777	2777	2777	2799	2799	2845	2869	2869	2869	2869	2869	2869	2869	2869	2869	2869	2869	2893	3621	3621	3621	3621	3621	3621	3621	3621	3621	3621	3621	3621	3621	3583	3583	3659	3621	3621	3621	3621	3621	3621	3621	3621	3621	3621	3621	3621	3621	3621	3621	3621	3659	3621	3621	3621	3621	3621	3621	3621	3621	3621	3621	3621	3621	3621	3621	3621	3621	3583	3583	3583	3583	3583	3621	3621	3621	3621	3621	3621	3621	3583	3621	3621	3621	3621	3583	3583	3583	3583	3583	3583	3583	3583	3583	3583	3583	3583	3546	3546	3583	3583	3583	3546	3546	3546	3546	3546	3546	3546	3510	3510	3546	3546	3546	3583	3546	3583	3546	3546	3583	3583	3583	3583	3621	3621	3583	3583	3583	3583	3583	3583	3583	3583	3583	3546	3546	3546	3546	3546	3546	3546	3546	3546	3546	3546	3546	3546	3546	3546	3546	3546	3546	3546	3546	3546	3546	3546	3546	3546	3510	3510	3510	2127	2127	2114	2101	2088	2088	2076	2063	2051	2039	2039	2027	2027	2027	2015	2027	2027	2027	1833	1833	1833	1824	1814	1814	1804	1795	1804	1795	1795	1786	1786	1777	1777	1768	1750	1741	1741	1732	1723	1723	1715	1706	1706	1715	1698	1690	1681	1673	1657	1657	1649	1649	1641	1634	1626	1626	1618	1603	1596	1596	1589	1589	1589	1581	1574	1567	1560	1553	1553	1539	1539	0	0	0	0	0	0	0	0	0	0	0	0	0	0	0	0	0	0	0	0	0	0	0	0	0	0	0	0	0	0	0	0	0	0	0	0	0	0	0	0
0	0	0	0	0	0	0	0	0	0	1331	1331	1331	1336	1347	1347	1352	1358	1368	1374	1374	1385	1396	1407	1413	1419	1425	1425	1431	1431	1431	1431	1437	1437	1437	1443	1443	1449	1449	1455	1455	1461	1467	1473	1486	1486	1492	1499	1512	1519	1525	1525	1525	1525	1525	0	2312	2327	2327	2376	2376	2392	2392	2409	2409	2426	2426	2443	2443	2460	2478	2478	2496	2496	2514	2514	2551	2551	2570	2570	2570	2570	2551	2570	2570	2570	2570	2570	2570	2570	2570	2551	2551	2551	2551	2570	2551	2551	2570	2570	2570	2570	2551	2551	2570	2570	2551	2551	2551	2532	2551	2551	2551	2551	2551	2551	2551	2551	2551	2551	2551	2551	2551	2551	2551	2551	2551	2551	2551	2570	2551	2551	2570	2551	2551	2551	2551	2551	2551	2551	2551	2570	2570	2570	2570	2570	2570	2570	2551	2551	2551	2551	2551	2551	2551	2570	2551	2551	2551	2551	2551	2551	2570	2570	2629	2711	2711	2733	2733	2733	2754	2754	3475	3475	3440	3440	3440	3406	3440	3440	3440	3440	3440	3475	3510	3546	3546	3546	3546	3546	3583	3546	3546	3546	3546	3583	3583	3583	3583	3583	3583	3583	3583	3546	3546	3546	3546	3583	3583	3621	3621	3659	3659	3659	3659	3659	3659	3621	3621	3621	3621	3621	3621	3659	3621	3659	3659	3659	3659	3698	3698	3698	3698	3698	3698	3659	3659	3659	3659	3659	3659	3659	3659	3659	3659	3621	3621	3621	3659	3659	3659	3659	3659	3659	3698	3659	3698	3698	3698	3698	3698	3698	3698	3698	3659	3659	3659	3659	3659	3659	3698	3698	3698	3698	3659	3659	3659	3659	3659	3659	3659	3659	3659	3659	3621	3659	3659	3659	3659	3659	2917	2917	2893	2917	2893	2893	2893	2893	2869	2893	2893	2893	2893	2869	2869	2869	2869	2845	2845	2845	2822	2799	2799	2799	2799	2799	2799	2799	2799	2799	2777	2777	2777	2777	2777	2777	2777	2777	2777	2777	2777	2754	2754	2754	2754	2754	2754	2754	2754	2754	2733	2733	2733	2733	2733	2733	2754	2754	2754	2754	2777	2777	2777	2777	2777	2777	2777	2777	2777	2777	2777	2777	2777	2777	2777	2777	2777	2777	2799	2777	2799	2799	2822	2845	2869	2869	2869	2869	2869	2869	2845	2845	2869	2869	2869	3621	3621	3621	3621	3621	3621	3621	3621	3621	3621	3621	3621	3621	3621	3583	3621	3659	3621	3621	3621	3621	3621	3621	3621	3621	3621	3621	3621	3621	3621	3621	3621	3621	3621	3621	3621	3621	3621	3621	3621	3621	3621	3621	3621	3621	3621	3621	3621	3621	3583	3583	3583	3583	3583	3583	3621	3621	3621	3621	3621	3621	3621	3621	3621	3621	3621	3621	3583	3583	3583	3583	3583	3546	3546	3546	3583	3583	3583	3583	3546	3546	3546	3546	3546	3546	3546	3546	3546	3546	3510	3510	3510	3510	3546	3546	3546	3546	3546	3546	3546	3546	3583	3546	3583	3583	3621	3621	3583	3583	3583	3583	3583	3583	3583	3583	3583	3546	3546	3546	3546	3546	3546	3546	3546	3546	3546	3546	3546	3546	3546	3546	3546	3546	3546	3546	3546	3546	3546	3546	3546	3546	3546	3510	3546	2127	2127	2114	2101	2088	2088	2076	2063	2051	2039	2027	2027	2027	2015	1863	1863	1863	1843	1843	1843	1833	1824	1824	1814	1814	1814	1814	1804	1804	1795	1786	1777	1768	1759	1750	1741	1741	1732	1723	1723	1715	1706	1706	1715	1698	1681	1673	1665	1657	1657	1649	1641	1641	1626	1626	1626	1618	1603	1603	1589	1589	1589	1589	1581	1574	1567	1560	1560	1553	1532	1532	0	0	0	0	0	0	0	0	0	0	0	0	0	0	0	0	0	0	0	0	0	0	0	0	0	0	0	0	0	0	0	0	0	0	0	0	0	0	0	0
0	0	0	0	0	0	0	0	0	0	1326	1331	1331	1336	1347	1347	1352	1352	1363	1368	1374	1379	1385	1396	1407	1419	1425	1425	1431	1431	1437	1437	1437	1437	1437	1443	1443	1443	1449	1449	1455	1461	1467	1473	1473	1486	1492	1492	1512	1525	1525	1525	1525	1525	0	0	2312	2343	2359	2376	2376	2392	2392	2409	2409	2426	2426	2443	2443	2460	2478	2478	2496	2496	2496	2514	2532	2551	2570	2570	2570	2570	2570	2570	2570	2570	2570	2570	2570	2570	2570	2551	2551	2551	2551	2551	2551	2551	2570	2570	2570	2551	2551	2551	2551	2551	2551	2551	2551	2532	2532	2532	2551	2551	2551	2551	2551	2551	2551	2551	2551	2551	2551	2551	2551	2551	2551	2570	2570	2570	2570	2551	2570	2551	2551	2551	2551	2551	2551	2551	2551	2551	2551	2551	2551	2551	2551	2551	2551	2551	2551	2551	2551	2551	2570	2570	2551	2551	2551	2551	2551	2551	2570	2609	2609	2669	2711	2733	2733	2754	2754	2754	2754	2754	3440	3440	3440	3406	3440	3440	3440	3440	3440	3475	3510	3510	3546	3583	3583	3583	3583	3546	3546	3546	3546	3583	3546	3583	3583	3583	3583	3583	3583	3546	3546	3546	3546	3583	3583	3621	3621	3659	3659	3659	3659	3659	3621	3621	3621	3621	3621	3621	3621	3659	3659	3659	3659	3659	3659	3698	3698	3698	3698	3698	3698	3698	3698	3659	3659	3659	3659	3659	3659	3659	3659	3659	3659	3659	3659	3659	3659	3659	3659	3698	3698	3698	3698	3698	3698	3698	3698	3698	3698	3698	3659	3659	3659	3659	3659	3659	3659	3659	3659	3659	3659	3659	3659	3659	3659	3659	3659	3659	3659	3659	3659	3659	3659	3659	3659	3659	2917	2917	2893	2893	2893	2893	2893	2893	2869	2893	2893	2893	2893	2869	2869	2869	2869	2845	2845	2845	2822	2799	2799	2799	2799	2799	2799	2799	2799	2799	2777	2777	2777	2777	2777	2777	2777	2777	2777	2777	2777	2754	2754	2754	2754	2754	2754	2754	2754	2733	2733	2733	2733	2733	2733	2733	2754	2754	2754	2754	2777	2777	2777	2777	2777	2777	2777	2777	2777	2777	2777	2777	2777	2777	2777	2777	2777	2799	2799	2799	2799	2799	2822	2845	2845	2845	2869	2869	2869	2869	2845	2845	2845	3583	3583	3621	3621	3621	3621	3583	3621	3621	3621	3621	3621	3621	3621	3583	3583	3583	3583	3621	3621	3621	3621	3621	3621	3621	3621	3621	3621	3621	3621	3621	3621	3621	3621	3621	3621	3621	3621	3621	3583	3583	3583	3583	3583	3621	3621	3621	3621	3621	3621	3621	3583	3621	3583	3583	3583	3621	3621	3621	3621	3621	3621	3621	3583	3583	3621	3621	3621	3621	3583	3583	3583	3583	3546	3546	3546	3546	3583	3583	3583	3546	3546	3546	3546	3546	3546	3546	3546	3546	3546	3546	3510	3510	3510	3510	3510	3510	3546	3546	3546	3546	3546	3546	3546	3583	3583	3583	3583	3583	3583	3583	3583	3583	3583	3583	3583	3621	3583	3583	3583	3546	3546	3546	3510	3510	3510	3510	3510	3546	3546	3546	3546	3546	3546	3546	3546	3546	3546	3546	3546	3546	3546	3546	3546	0	3546	2127	2127	2114	2101	2088	2088	2076	2063	2051	2039	2039	2039	2027	1873	1863	1863	1863	1853	1853	1843	1843	1824	1824	1814	1814	1814	1814	1814	1814	1804	1786	1777	1768	1759	1750	1741	1741	1732	1723	1723	1715	1706	1706	1715	1698	1681	1673	1665	1657	1657	1649	1649	1641	1626	1626	1626	1618	1603	1596	1589	1589	1589	1589	1581	1574	1567	1560	1560	1553	1539	1539	0	0	0	0	0	0	0	0	0	0	0	0	0	0	0	0	0	0	0	0	0	0	0	0	0	0	0	0	0	0	0	0	0	0	0	0	0	0	0	0
0	0	0	0	0	0	0	0	0	0	1326	1331	1331	1342	1347	1347	1352	1352	1363	1368	1374	1379	1379	1396	1407	1425	1425	1431	1437	1437	1437	1437	1443	1443	1443	1449	1449	1449	1455	1455	1461	1467	1473	1480	1486	1486	1492	1499	1512	1519	1519	1525	1525	1525	1525	0	2312	2343	2359	2376	2376	2392	2409	2409	2409	2426	2426	2443	2443	2443	2460	2478	2496	2496	2514	2514	2532	2551	2570	2551	2570	2570	2570	2570	2570	2570	2570	2570	2570	2570	2551	2551	2551	2551	2551	2551	2551	2551	2570	2570	2570	2570	2551	2551	2570	2551	2551	2551	2551	2551	2551	2551	2551	2551	2551	2551	2551	2551	2551	2551	2551	2551	2551	2551	2551	2551	2551	2551	2551	2551	2551	2551	2551	2551	2551	2551	2551	2551	2551	2532	2551	2551	2551	2532	2532	2551	2551	2551	2551	2551	2551	2551	2551	2551	2570	2570	2551	2551	2551	2551	2570	2551	2570	2589	2589	2589	2733	2754	2754	2754	2754	2754	2754	2754	2754	3440	3406	3406	3406	3406	3406	3406	3440	3440	3510	3546	3583	3621	3583	3621	3583	3583	3546	3546	3546	3546	3546	3546	3583	3583	3583	3583	3546	3546	3546	3546	3546	3583	3621	3621	3659	3659	3659	3659	3659	3659	3621	3621	3621	3659	3659	3659	3659	3659	3659	3659	3659	3659	3659	3698	3698	3698	3698	3698	3698	3698	3698	3659	3659	3659	3698	3659	3659	3659	3659	3659	3659	3659	3659	3659	3659	3659	3659	3659	3698	3659	3659	3698	3698	3698	3698	3698	3698	3659	3659	3659	3659	3659	3659	3659	3659	3698	3698	3698	3659	3659	3659	3659	3659	3659	3659	3659	3659	3659	3659	3659	3659	3659	3659	3659	2917	2917	2893	2893	2893	2893	2893	2869	2869	2869	2869	2869	2869	2869	2869	2869	2869	2845	2845	2822	2799	2799	2799	2799	2799	2799	2799	2799	2799	2799	2777	2777	2777	2777	2777	2777	2777	2777	2777	2777	2754	2754	2754	2754	2754	2754	2754	2754	2754	2754	2733	2733	2733	2754	2754	2754	2754	2754	2754	2754	2754	2754	2754	2777	2777	2777	2777	2777	2777	2777	2777	2777	2777	2777	2777	2777	2777	2799	2799	2799	2799	2799	2822	2822	2845	2869	2845	2845	2845	2845	2822	2822	2822	3583	3583	3583	3621	3621	3621	3583	3621	3621	3621	3621	3621	3621	3583	3583	3583	3583	3583	3621	3621	3621	3621	3621	3621	3621	3621	3621	3621	3621	3621	3621	3621	3621	3621	3621	3621	3621	3621	3621	3621	3583	3583	3583	3583	3621	3621	3621	3621	3621	3621	3621	3583	3583	3583	3583	3583	3621	3621	3621	3621	3621	3621	3621	3583	3583	3583	3583	3621	3621	3621	3583	3583	3583	3583	3546	3546	3546	3583	3583	3583	3546	3546	3546	3546	3583	3546	3546	3546	3546	3546	3546	3510	3510	3510	3510	3510	3546	3546	3546	3546	3546	3546	3546	3546	3546	3583	3583	3583	3583	3621	3583	3583	3583	3583	3621	3621	3621	3583	3583	3583	3546	3546	3546	3510	3510	3510	3546	3546	3546	3546	3546	3546	3546	3546	3546	3546	3546	3510	3510	3510	3510	3510	3510	3510	0	0	2127	2127	2114	2101	2088	2088	2076	2063	2051	2039	2027	2039	2027	1873	1873	1863	1863	1863	1853	1853	1843	1833	1833	1824	1814	1814	1814	1814	1814	1804	1786	1777	1768	1759	1750	1741	1741	1732	1732	1723	1715	1715	1706	1715	1706	1690	1673	1665	1657	1657	1649	1649	1641	1626	1626	1626	1626	1603	1596	1596	1589	1589	1589	1581	1574	1567	1560	1560	1553	1539	1539	0	0	0	0	0	0	0	0	0	0	0	0	0	0	0	0	0	0	0	0	0	0	0	0	0	0	0	0	0	0	0	0	0	0	0	0	0	0	0	0
0	0	0	0	0	0	0	0	0	0	1326	1331	1336	1347	1347	1352	1352	1358	1363	1368	1374	1374	1379	1390	1390	1402	1407	1413	1425	1431	1431	1437	1443	1449	1449	1461	1461	1461	1461	1461	1461	1467	1467	1473	1480	1486	1486	1499	1512	1519	1519	1519	1525	1525	1525	1525	0	2343	2312	2359	2359	2376	2409	2426	2426	2426	2426	2443	2443	2460	2460	2478	2496	2496	2514	2514	2532	2551	2570	2551	2570	2570	2570	2570	2570	2570	2551	2570	2570	2551	2551	2551	2532	2532	2551	2551	2551	2570	2570	2570	2570	2570	2551	2551	2551	2551	2551	2551	2551	2551	2532	2551	2551	2551	2551	2551	2551	2551	2551	2551	2551	2551	2551	2551	2551	2551	2551	2551	2551	2551	2551	2551	2551	2551	2551	2551	2551	2551	2532	2532	2551	2551	2551	2532	2532	2551	2551	2551	2551	2551	2551	2570	2551	2551	2551	2551	2551	2551	2551	2551	2551	2551	2551	2570	2570	2777	2777	2777	2777	2754	2754	2754	2754	2754	2754	3406	3440	3440	3406	3406	3440	3406	3440	3440	3510	3546	3583	3621	3621	3621	3583	3583	3583	3546	3546	3546	3546	3546	3546	3583	3546	3583	3583	3583	3583	3583	3583	3583	3621	3621	3621	3621	3621	3659	3659	3621	3621	3621	3621	3621	3659	3659	3659	3659	3659	3659	3659	3659	3659	3698	3698	3698	3698	3698	3698	3659	3698	3659	3659	3698	3698	3659	3659	3659	3659	3659	3659	3659	3659	3659	3659	3659	3659	3659	3659	3659	3659	3698	3698	3698	3698	3698	3698	3659	3659	3659	3659	3659	3659	3659	3659	3698	3659	3659	3659	3659	3659	3659	3659	3659	3659	3659	3659	3659	3659	3659	3659	3659	3659	3621	2917	2893	2893	2893	2893	2893	2869	2869	2869	2869	2869	2869	2869	2869	2869	2845	2845	2845	2822	2822	2799	2799	2799	2799	2799	2799	2799	2799	2777	2777	2777	2777	2777	2777	2777	2777	2777	2777	2777	2777	2754	2754	2754	2754	2754	2754	2754	2754	2754	2754	2754	2733	2733	2733	2733	2754	2754	2754	2754	2754	2754	2777	2754	2777	2777	2777	2777	2777	2777	2777	2777	2777	2777	2754	2777	2777	2777	2777	2777	2799	2799	2799	2822	2822	2822	2822	2822	2822	2822	2822	2822	2822	2822	3583	3583	3583	3621	3621	3621	3621	3621	3621	3621	3621	3621	3621	3621	3583	3621	3583	3583	3659	3621	3621	3621	3621	3621	3621	3621	3621	3621	3621	3621	3621	3621	3621	3621	3621	3621	3621	3621	3621	3583	3583	3583	3583	3583	3621	3621	3583	3621	3621	3621	3583	3583	3583	3583	3583	3583	3583	3583	3583	3583	3583	3583	3583	3583	3583	3583	3583	3621	3621	3621	3583	3583	3583	3546	3546	3546	3510	3546	3546	3546	3546	3546	3546	3546	3546	3546	3546	3546	3546	3546	3546	3546	3510	3510	3510	3510	3546	3546	3546	3546	3546	3546	3546	3546	3546	3583	3583	3583	3583	3583	3583	3583	3583	3583	3621	3621	3583	3583	3583	3546	3546	3546	3546	3510	3546	3510	3546	3546	3546	3546	3546	3546	3546	3546	3546	3510	3546	3510	3510	3510	3510	3510	3510	3510	0	2140	2127	2127	2114	2101	2088	2088	2076	2076	2051	2039	2027	2027	1904	1894	1883	1873	1863	1863	1853	1853	1853	1833	1833	1824	1814	1814	1814	1814	1814	1804	1795	1777	1768	1759	1750	1750	1741	1741	1732	1723	1715	1715	1715	1723	1706	1698	1681	1673	1657	1657	1649	1649	1641	1634	1626	1626	1626	1618	1603	1596	1589	1589	1581	1574	1574	1567	1560	1560	1553	1539	1539	0	0	0	0	0	0	0	0	0	0	0	0	0	0	0	0	0	0	0	0	0	0	0	0	0	0	0	0	0	0	0	0	0	0	0	0	0	0	0	0
0	0	0	0	0	0	0	0	0	0	1326	1331	1336	1342	1347	1347	1352	1358	1363	1363	1368	1368	1374	1374	1385	1396	1402	1407	1413	1419	1431	1437	1443	1455	1449	1467	1467	1467	1461	1461	1461	1467	1473	1473	1480	1486	1486	1492	1506	1512	1519	1525	1525	1525	1525	1525	0	0	2297	2343	2343	2376	2409	2426	2426	2426	2426	2443	2460	2460	2478	2478	2478	2496	2514	2514	2514	2532	2551	2551	2551	2570	2570	2570	2570	2570	2570	2570	2570	2551	2551	2551	2551	2551	2551	2551	2551	2570	2570	2570	2570	2570	2551	2551	2551	2551	2551	2551	2551	2551	2532	2551	2551	2551	2551	2551	2551	2551	2551	2551	2551	2551	2551	2551	2551	2551	2551	2551	2551	2551	2551	2551	2551	2551	2551	2551	2532	2551	2532	2532	2551	2551	2551	2532	2532	2551	2551	2551	2551	2551	2551	2551	2551	2551	2551	2551	2551	2551	2551	2551	2551	2551	2551	2551	2609	2609	2822	2799	2799	2799	2799	2799	2777	2777	2777	2777	3406	3406	3406	3406	3406	3406	3440	3440	3475	3546	3583	3621	3621	3621	3621	3583	3546	3546	3546	3546	3546	3546	3546	3546	3546	3546	3546	3546	3583	3583	3583	3583	3621	3621	3621	3621	3621	3659	3659	3621	3621	3621	3621	3621	3621	3659	3659	3659	3659	3659	3659	3659	3659	3698	3698	3698	3659	3659	3698	3659	3698	3659	3659	3659	3659	3659	3659	3659	3659	3659	3659	3659	3659	3659	3659	3659	3659	3659	3659	3698	3698	3698	3698	3698	3698	3698	3698	3698	3659	3659	3659	3698	3659	3659	3659	3659	3659	3659	3659	3659	3659	3659	3659	3659	3659	3659	3659	3659	3659	3659	3659	3659	3659	3659	2893	2893	2893	2893	2893	2893	2869	2869	2869	2869	2869	2869	2869	2869	2845	2845	2845	2822	2822	2799	2799	2777	2777	2799	2799	2799	2799	2799	2777	2777	2777	2777	2777	2777	2777	2777	2777	2777	2777	2777	2754	2754	2754	2754	2754	2754	2754	2754	2754	2733	2754	2733	2733	2754	2754	2754	2754	2754	2754	2754	2754	2754	2754	2777	2777	2777	2777	2777	2777	2777	2777	2754	2754	2754	2754	2754	2777	2777	2799	2799	2799	2799	2822	2822	2822	2822	2822	2822	2822	2822	2799	2799	3583	3583	3583	3583	3583	3621	3621	3621	3621	3621	3621	3621	3621	3621	3583	3583	3621	3583	3583	3621	3621	3621	3621	3621	3621	3621	3621	3621	3621	3621	3621	3621	3621	3621	3621	3621	3621	3621	3621	3621	3583	3583	3621	3583	3621	3621	3621	3621	3621	3621	3621	3583	3583	3583	3583	3583	3583	3583	3583	3583	3583	3583	3583	3583	3583	3583	3583	3583	3621	3621	3583	3583	3583	3546	3546	3546	3510	3546	3546	3546	3546	3546	3510	3546	3546	3546	3546	3546	3546	3546	3546	3546	3546	3510	3510	3546	3510	3546	3546	3546	3546	3546	3546	3546	3546	3546	3583	3583	3583	3583	3583	3583	3583	3583	3583	3583	3583	3583	3546	3546	3546	3546	3546	3510	3510	3510	3510	3546	3546	3546	3546	3546	3546	3546	3546	3510	3510	3510	3510	3510	3510	3510	3546	3546	0	2127	2127	2127	2127	2114	2101	2088	2076	2063	2051	2051	2039	2039	1904	1904	1894	1883	1873	1863	1863	1853	1853	1843	1843	1843	1833	1824	1824	1814	1814	1814	1804	1795	1777	1768	1759	1750	1750	1741	1741	1732	1732	1723	1715	1715	1723	1715	1698	1681	1681	1657	1657	1657	1649	1649	1634	1634	1626	1626	1618	1603	1596	1589	1589	1581	1574	1567	1567	1560	1560	1539	1539	1539	0	0	0	0	0	0	0	0	0	0	0	0	0	0	0	0	0	0	0	0	0	0	0	0	0	0	0	0	0	0	0	0	0	0	0	0	0	0	0	0
0	0	0	0	0	0	0	0	0	0	1326	1326	1336	1336	1342	1342	1352	1358	1363	1363	1368	1374	1374	1379	1385	1390	1396	1402	1413	1419	1437	1437	1449	1461	1461	1467	1467	1467	1467	1467	1467	1467	1473	1480	1480	1486	1486	1492	1506	1512	1519	1525	1532	1532	1532	1539	1546	1546	2297	2343	2327	2359	2409	2426	2426	2426	2426	2443	2443	2460	2478	2478	2496	2496	2496	2496	2514	2514	2551	2551	2551	2570	2570	2570	2570	2570	2570	2570	2551	2551	2551	2551	2551	2551	2551	2570	2570	2570	2570	2589	2570	2570	2551	2551	2551	2551	2551	2551	2551	2551	2532	2551	2551	2551	2551	2551	2551	2551	2551	2551	2551	2551	2551	2551	2551	2551	2551	2551	2551	2551	2532	2551	2551	2551	2551	2551	2551	2551	2551	2532	2551	2551	2551	2551	2532	2551	2551	2551	2551	2551	2551	2551	2551	2551	2551	2551	2551	2551	2551	2551	2551	2551	2551	2551	2609	2609	2822	2822	2822	2799	2799	2799	2799	2799	2822	2822	2822	3406	3406	3406	3406	3406	3440	3475	3510	3546	3583	3583	3621	3621	3621	3583	3583	3583	3546	3546	3546	3546	3546	3546	3546	3546	3546	3583	3583	3583	3583	3583	3621	3621	3621	3621	3621	3621	3659	3621	3621	3621	3621	3621	3659	3659	3659	3659	3659	3659	3659	3659	3659	3698	3659	3659	3659	3659	3698	3659	3659	3659	3659	3659	3659	3659	3659	3659	3659	3659	3659	3659	3659	3659	3659	3659	3659	3659	3698	3698	3698	3698	3698	3698	3698	3698	3698	3698	3659	3659	3659	3698	3698	3698	3698	3698	3659	3659	3659	3621	3659	3659	3621	3659	3659	3659	3659	3659	3659	3659	3659	3659	3659	3621	2893	2893	2893	2893	2869	2893	2869	2869	2869	2869	2869	2869	2869	2869	2845	2845	2845	2822	2822	2799	2799	2777	2777	2799	2799	2799	2799	2799	2799	2777	2777	2777	2777	2777	2777	2777	2777	2777	2777	2777	2754	2754	2754	2754	2754	2754	2754	2754	2754	2733	2754	2733	2733	2733	2733	2733	2754	2733	2754	2754	2754	2754	2754	2754	2754	2777	2777	2777	2777	2754	2754	2754	2754	2754	2754	2777	2777	2777	2777	2799	2822	2799	2822	2822	2822	2822	2799	2799	2799	2799	2799	2799	3583	3583	3583	3583	3583	3621	3621	3621	3621	3621	3621	3621	3621	3583	3583	3583	3583	3583	3583	3621	3621	3621	3621	3621	3621	3621	3621	3621	3621	3621	3621	3621	3621	3621	3621	3621	3621	3621	3621	3621	3621	3621	3621	3621	3621	3621	3621	3583	3621	3621	3621	3583	3583	3583	3583	3583	3583	3583	3583	3583	3583	3583	3583	3583	3583	3583	3583	3583	3583	3583	3583	3583	3583	3546	3583	3546	3546	3546	3546	3546	3546	3546	3546	3546	3546	3546	3546	3546	3546	3546	3546	3546	3546	3510	3510	3546	3510	3546	3546	3546	3583	3546	3546	3546	3546	3546	3583	3583	3583	3583	3583	3583	3583	3583	3583	3583	3583	3583	3546	3546	3546	3546	3546	3510	3510	3510	3510	3546	3546	3546	3546	3546	3510	3510	3546	3510	3510	3510	3510	3510	3510	3510	3546	3546	0	2127	2127	2127	2127	2114	2114	2088	2076	2051	2027	2027	1915	1915	1904	1904	1894	1883	1873	1873	1863	1863	1853	1853	1843	1843	1833	1824	1824	1814	1814	1814	1804	1795	1777	1768	1759	1759	1741	1741	1741	1732	1723	1715	1715	1706	1715	1715	1698	1681	1673	1673	1657	1657	1649	1649	1634	1634	1626	1626	1618	1596	1596	1581	1581	1574	1567	1567	1567	1560	1560	1553	1539	1539	0	0	0	0	0	0	0	0	0	0	0	0	0	0	0	0	0	0	0	0	0	0	0	0	0	0	0	0	0	0	0	0	0	0	0	0	0	0	0	0
0	0	0	0	0	0	0	0	0	0	1331	1336	1336	1342	1342	1347	1352	1352	1363	1363	1368	1374	1374	1379	1385	1390	1396	1402	1407	1413	1425	1431	1443	1461	1461	1467	1467	1467	1461	1467	1467	1467	1473	1486	1486	1486	1486	1492	1499	1506	1519	1525	1532	1532	1532	1546	1553	1553	1560	1567	1567	2359	2409	2426	2426	2426	2426	2443	2443	2460	2478	2478	2496	2496	2496	2496	2514	2514	2551	2551	2551	2570	2570	2570	2570	2570	2551	2570	2551	2551	2551	2551	2532	2551	2551	2570	2570	2570	2570	2570	2570	2570	2551	2551	2551	2551	2532	2551	2551	2551	2551	2551	2551	2551	2551	2551	2551	2551	2551	2551	2551	2551	2532	2551	2551	2551	2551	2532	2532	2532	2532	2532	2532	2551	2551	2551	2551	2551	2551	2551	2570	2570	2551	2551	2532	2532	2551	2551	2551	2551	2551	2570	2570	2551	2570	2551	2551	2551	2551	2551	2570	2570	2570	2570	2570	2845	2845	2845	2845	2822	2822	2822	2822	2822	2822	2822	2822	2869	2869	3440	3440	3406	3406	3440	3510	3546	3583	3621	3621	3621	3621	3583	3583	3583	3546	3510	3510	3546	3546	3546	3546	3546	3583	3546	3583	3583	3546	3583	3583	3621	3621	3621	3621	3621	3621	3621	3621	3621	3621	3621	3621	3621	3659	3659	3659	3659	3659	3659	3659	3659	3659	3659	3659	3659	3659	3659	3659	3659	3659	3659	3659	3659	3659	3659	3659	3659	3659	3659	3659	3659	3659	3659	3659	3659	3659	3659	3698	3698	3698	3698	3698	3698	3659	3659	3659	3659	3659	3698	3698	3698	3698	3698	3659	3659	3659	3621	3659	3659	3621	3659	3659	3659	3659	3659	3659	3659	3659	3659	3621	3621	3621	2893	2893	2893	2869	2893	2869	2869	2869	2869	2869	2869	2869	2845	2845	2845	2822	2822	2822	2799	2799	2777	2777	2799	2799	2799	2799	2799	2777	2777	2777	2777	2777	2777	2777	2754	2754	2754	2754	2754	2754	2754	2754	2754	2754	2754	2754	2733	2754	2733	2733	2733	2733	2733	2733	2733	2754	2733	2754	2754	2754	2754	2754	2754	2754	2754	2754	2754	2754	2754	2754	2754	2754	2733	2754	2754	2777	2777	2777	2799	2822	2799	2822	2822	2822	2799	2799	2799	2799	2799	2799	2799	3583	3583	3583	3583	3583	3621	3621	3621	3621	3621	3621	3621	3621	3583	3583	3583	3621	3583	3621	3621	3621	3621	3621	3621	3621	3621	3621	3621	3621	3621	3621	3621	3621	3621	3621	3621	3621	3621	3621	3621	3621	3621	3621	3621	3621	3621	3621	3621	3621	3621	3621	3621	3583	3583	3583	3583	3583	3583	3546	3583	3583	3546	3583	3583	3583	3546	3583	3546	3546	3583	3583	3583	3546	3546	3546	3546	3510	3546	3546	3546	3546	3546	3510	3546	3546	3546	3546	3546	3546	3546	3546	3546	3546	3510	3510	3546	3510	3546	3546	3583	3546	3546	3546	3546	3546	3546	3583	3583	3583	3583	3583	3583	3583	3583	3583	3583	3583	3583	3583	3546	3546	3546	3546	3546	3546	3546	3546	3546	3546	3546	3546	3546	3546	3510	3546	3510	3510	3510	3510	3510	3510	3510	3510	3546	3546	2127	2127	2127	2127	2127	2127	2088	2063	2003	1992	1958	1947	1925	1915	1915	1904	1894	1883	1873	1873	1863	1863	1853	1853	1843	1833	1824	1824	1814	1814	1814	1804	1786	1777	1768	1759	1750	1741	1741	1741	1732	1723	1715	1715	1706	1706	1706	1698	1690	1673	1665	1657	1649	1649	1641	1634	1626	1626	1626	1618	1596	1596	1581	1581	1574	1574	1567	1567	1560	1560	1553	1532	1532	0	0	0	0	0	0	0	0	0	0	0	0	0	0	0	0	0	0	0	0	0	0	0	0	0	0	0	0	0	0	0	0	0	0	0	0	0	0	0	0
0	0	0	0	0	0	0	0	0	0	1331	1336	1336	1342	1342	1347	1352	1352	1358	1368	1368	1374	1374	1385	1385	1390	1396	1402	1407	1413	1425	1425	1437	1449	1455	1461	1461	1461	1461	1467	1467	1467	1473	1486	1486	1486	1492	1492	1499	1506	1512	1519	1532	1539	1539	1553	1553	1553	1560	1567	1567	1567	0	2426	2426	2426	2426	2443	2443	2460	2478	2478	2496	2496	2496	2496	2514	2514	2551	2532	2551	2570	2570	2570	2570	2570	2570	2570	2570	2551	2551	2551	2551	2551	2551	2551	2570	2570	2570	2570	2551	2551	2551	2551	2532	2532	2532	2551	2551	2551	2551	2551	2551	2551	2551	2551	2551	2551	2551	2551	2551	2551	2532	2551	2551	2551	2532	2532	2532	2532	2532	2532	2532	2551	2551	2551	2551	2551	2551	2551	2551	2570	2551	2551	2532	2532	2532	2551	2551	2551	2551	2551	2551	2570	2570	2551	2551	2551	2551	2551	2570	2570	2551	2551	2551	2869	2869	2869	2869	2845	2845	2845	2845	2845	2845	2845	2869	2893	2893	2893	3440	3440	3440	3475	3510	3510	3546	3621	3621	3621	3621	3621	3583	3583	3546	3510	3510	3546	3546	3546	3546	3546	3546	3546	3546	3583	3546	3546	3583	3583	3621	3621	3621	3621	3621	3621	3621	3621	3621	3583	3621	3621	3659	3659	3659	3659	3659	3659	3659	3659	3659	3659	3659	3659	3659	3659	3659	3659	3621	3621	3659	3659	3659	3659	3659	3659	3659	3659	3659	3659	3659	3659	3659	3698	3698	3698	3698	3698	3698	3698	3698	3698	3659	3659	3659	3659	3659	3698	3698	3698	3698	3698	3698	3659	3659	3659	3659	3659	3621	3659	3659	3659	3659	3659	3659	3659	3659	3659	3621	3583	3621	2893	2893	2893	2869	2893	2869	2869	2869	2869	2869	2869	2845	2845	2845	2822	2822	2822	2799	2799	2799	2777	2777	2799	2799	2799	2799	2799	2777	2777	2777	2777	2777	2777	2777	2754	2754	2754	2754	2754	2754	2754	2754	2754	2754	2754	2754	2754	2754	2733	2733	2733	2733	2733	2733	2733	2733	2733	2754	2754	2754	2754	2733	2733	2733	2754	2754	2754	2754	2754	2754	2754	2754	2754	2754	2754	2777	2777	2777	2799	2822	2822	2822	2822	2822	2799	2799	2799	2777	2799	2777	2777	3583	3583	3583	3621	3583	3621	3621	3621	3621	3621	3621	3621	3621	3621	3583	3621	3621	3621	3583	3583	3621	3621	3621	3621	3621	3621	3621	3621	3621	3621	3621	3621	3621	3621	3621	3621	3621	3621	3621	3621	3583	3621	3621	3621	3621	3621	3621	3621	3621	3621	3621	3621	3583	3583	3583	3583	3583	3546	3546	3546	3546	3546	3546	3583	3583	3583	3583	3583	3583	3583	3583	3583	3583	3546	3546	3546	3546	3510	3510	3510	3546	3546	3510	3546	3546	3546	3546	3546	3546	3546	3546	3546	3546	3546	3546	3546	3546	3546	3546	3583	3546	3546	3546	3546	3546	3546	3583	3583	3583	3583	3583	3583	3583	3583	3583	3583	3583	3583	3546	3546	3546	3546	3546	3510	3546	3546	3546	3546	3546	3546	3546	3546	3546	3510	3510	3510	3510	3510	3510	3510	3510	3475	3510	3546	3546	2127	2127	2114	2114	1992	2027	2027	2003	1992	1969	1947	1936	1936	1925	1925	1915	1894	1894	1883	1873	1873	1863	1863	1853	1853	1833	1833	1824	1814	1814	1804	1804	1786	1777	1759	1759	1750	1741	1741	1741	1732	1723	1715	1706	1706	1706	1706	1690	1690	1673	1665	1657	1649	1649	1641	1634	1626	1626	1626	1618	1603	1596	1581	1581	1574	1574	1567	1567	1560	1560	1553	1532	1532	0	0	0	0	0	0	0	0	0	0	0	0	0	0	0	0	0	0	0	0	0	0	0	0	0	0	0	0	0	0	0	0	0	0	0	0	0	0	0	0
0	0	0	0	0	0	0	0	0	0	1331	1331	1336	1336	1342	1342	1352	1352	1358	1368	1368	1374	1379	1385	1385	1390	1396	1402	1407	1413	1419	1425	1431	1443	1449	1461	1461	1461	1461	1467	1467	1467	1473	1480	1486	1486	1486	1492	1499	1499	1506	1519	1532	1539	1546	1553	1553	1560	1560	1560	1567	1567	1567	1567	1567	2426	2426	2443	2460	2460	2478	2478	2496	2496	2514	2514	2514	2532	2532	2532	2551	2551	2570	2570	2570	2570	2551	2551	2570	2551	2551	2551	2551	2551	2551	2570	2570	2570	2570	2570	2570	2551	2551	2551	2532	2532	2532	2551	2551	2551	2551	2551	2551	2570	2570	2551	2551	2551	2551	2551	2551	2551	2532	2532	2551	2551	2532	2532	2532	2532	2532	2532	2532	2551	2551	2551	2551	2551	2551	2551	2570	2570	2551	2551	2532	2532	2532	2532	2551	2551	2551	2551	2551	2551	2570	2570	2551	2551	2551	2551	2570	2570	2570	2570	2570	2893	2893	2893	2869	2869	2869	2893	2869	2893	2893	2893	2917	2893	2917	2917	2917	3440	3440	3475	3510	3510	3546	3583	3583	3583	3621	3583	3546	3583	3546	3546	3546	3546	3546	3546	3546	3546	3583	3583	3583	3583	3546	3546	3583	3583	3621	3621	3621	3659	3659	3621	3621	3621	3621	3621	3621	3621	3621	3659	3659	3621	3659	3659	3621	3659	3659	3659	3659	3659	3659	3659	3659	3659	3621	3621	3659	3659	3659	3659	3659	3659	3659	3659	3659	3659	3659	3659	3659	3659	3659	3659	3698	3698	3698	3698	3698	3698	3659	3659	3659	3659	3698	3698	3698	3698	3698	3698	3698	3659	3659	3659	3621	3659	3659	3659	3659	3659	3659	3659	3659	3659	3659	3659	3621	3621	3621	2869	2869	2869	2869	2869	2869	2869	2869	2869	2869	2845	2845	2845	2822	2822	2822	2799	2799	2799	2799	2777	2777	2799	2799	2799	2799	2799	2777	2777	2777	2777	2777	2777	2754	2754	2754	2754	2754	2754	2754	2754	2777	2754	2754	2754	2754	2733	2733	2733	2733	2733	2733	2733	2733	2733	2733	2733	2733	2754	2754	2733	2733	2733	2733	2754	2754	2754	2754	2754	2754	2754	2754	2733	2733	2754	2754	2754	2777	2799	2822	2799	2822	2822	2799	2799	2799	2777	2777	2777	2799	2799	3583	3583	3621	3621	3621	3621	3621	3621	3621	3621	3621	3621	3621	3621	3621	3583	3621	3621	3621	3659	3621	3621	3621	3621	3621	3621	3621	3621	3621	3621	3621	3621	3621	3621	3621	3621	3621	3621	3583	3621	3583	3621	3621	3621	3621	3621	3621	3621	3621	3621	3621	3621	3583	3583	3583	3583	3583	3583	3546	3546	3546	3546	3583	3583	3583	3583	3583	3583	3583	3583	3583	3583	3583	3546	3546	3546	3546	3510	3510	3510	3546	3546	3510	3546	3546	3546	3546	3546	3546	3546	3546	3546	3546	3546	3510	3546	3510	3546	3546	3583	3546	3546	3546	3546	3546	3546	3583	3583	3583	3583	3583	3583	3583	3583	3583	3583	3546	3546	3546	3546	3546	3510	3510	3510	3546	3546	3546	3546	3546	3546	3546	3546	3546	3546	3546	3510	3510	3510	3510	3510	3510	3510	3510	3510	3510	3510	2127	2114	2114	1992	1992	1992	1992	1980	1969	1947	1947	1936	1936	1936	1925	1915	1904	1894	1883	1883	1873	1873	1863	1853	1843	1833	1824	1814	1814	1804	1795	1786	1777	1759	1759	1750	1750	1741	1741	1732	1723	1715	1715	1706	1706	1706	1690	1690	1673	1665	1657	1649	1649	1641	1634	1626	1626	1618	1618	1596	1596	1581	1581	1574	1574	1567	1567	1560	1560	1553	1532	1532	0	0	0	0	0	0	0	0	0	0	0	0	0	0	0	0	0	0	0	0	0	0	0	0	0	0	0	0	0	0	0	0	0	0	0	0	0	0	0	0
0	0	0	0	0	0	0	0	0	0	1331	1331	1336	1336	1336	1342	1347	1352	1358	1368	1368	1374	1379	1390	1390	1396	1402	1402	1407	1413	1419	1419	1425	1425	1443	1455	1461	1461	1461	1467	1467	1467	1473	1480	1486	1486	1492	1492	1499	1506	1506	1519	1532	1539	1546	1553	1553	1560	1560	1567	1567	1567	1567	1567	1581	1581	0	2443	2443	2443	2478	2478	2496	2496	2514	2514	2514	2532	2532	2551	2551	2551	2551	2570	2570	2551	2551	2570	2551	2551	2551	2551	2551	2532	2551	2551	2570	2570	2551	2551	2551	2551	2551	2532	2514	2532	2532	2532	2551	2551	2551	2551	2551	2551	2570	2551	2551	2551	2551	2551	2551	2551	2532	2532	2551	2532	2532	2532	2532	2532	2532	2532	2532	2532	2532	2551	2551	2551	2551	2551	2570	2570	2551	2551	2551	2551	2551	2551	2551	2551	2551	2551	2551	2551	2570	2570	2551	2551	2551	2551	2551	2570	2570	2570	2570	2942	2917	2917	2917	2893	2917	2917	2893	2917	2917	2917	2917	2917	2942	2942	2942	2942	3510	3510	3510	3510	3546	3583	3546	3583	3583	3583	3546	3583	3546	3546	3546	3546	3546	3546	3546	3583	3583	3583	3583	3583	3546	3583	3583	3583	3621	3621	3621	3659	3659	3621	3621	3621	3621	3621	3621	3621	3621	3659	3621	3621	3621	3621	3583	3583	3621	3621	3621	3659	3659	3659	3659	3659	3621	3621	3621	3621	3659	3659	3659	3659	3659	3659	3659	3659	3659	3659	3659	3659	3698	3698	3698	3698	3698	3698	3698	3698	3698	3659	3698	3659	3698	3698	3698	3659	3659	3659	3659	3621	3621	3621	3621	3621	3621	3659	3659	3659	3659	3659	3659	3659	3659	3659	3621	3621	3621	3583	2869	2869	2869	2869	2869	2869	2869	2869	2869	2845	2845	2845	2822	2799	2799	2799	2799	2777	2777	2777	2777	2799	2799	2799	2799	2777	2777	2777	2777	2777	2777	2777	2754	2754	2754	2754	2754	2754	2754	2754	2777	2754	2754	2754	2754	2754	2754	2733	2733	2733	2733	2733	2733	2733	2733	2733	2733	2754	2733	2733	2733	2733	2733	2733	2733	2733	2733	2733	2754	2733	2754	2733	2733	2733	2733	2754	2777	2777	2799	2799	2799	2799	2799	2777	2777	2777	2777	2777	2799	2799	3583	3621	3621	3621	3583	3621	3621	3621	3621	3621	3621	3621	3621	3621	3621	3621	3621	3621	3621	3659	3621	3621	3621	3621	3621	3621	3621	3621	3621	3621	3621	3621	3621	3621	3621	3621	3621	3621	3583	3583	3583	3621	3621	3621	3621	3621	3621	3621	3621	3621	3621	3621	3621	3583	3583	3583	3583	3583	3546	3583	3546	3583	3583	3583	3583	3583	3583	3546	3583	3583	3583	3583	3546	3546	3546	3546	3546	3510	3510	3510	3546	3546	3510	3546	3546	3546	3546	3546	3546	3546	3546	3546	3546	3546	3546	3546	3546	3546	3546	3583	3546	3546	3546	3546	3546	3546	3583	3583	3546	3546	3583	3583	3546	3583	3583	3583	3546	3546	3546	3546	3546	3510	3510	3510	3546	3546	3546	3546	3546	3546	3546	3546	3546	3546	3546	3510	3510	3510	3510	3510	3510	3475	3510	3510	3510	3510	0	0	0	2003	1992	1980	1980	1969	1958	1947	1947	1936	1925	1936	1925	1915	1904	1894	1883	1883	1873	1873	1863	1863	1843	1833	1824	1814	1814	1804	1786	1777	1777	1759	1759	1750	1750	1741	1741	1732	1723	1715	1706	1706	1706	1706	1698	1690	1673	1665	1657	1657	1649	1641	1634	1626	1626	1618	1618	1596	1596	1589	1581	1574	1574	1567	1567	1560	1560	1532	1532	1532	0	0	0	0	0	0	0	0	0	0	0	0	0	0	0	0	0	0	0	0	0	0	0	0	0	0	0	0	0	0	0	0	0	0	0	0	0	0	0	0
0	0	0	0	0	0	0	0	0	0	1331	1331	1336	1336	1336	1342	1347	1352	1352	1368	1368	1379	1379	1390	1390	1396	1402	1407	1407	1413	1419	1419	1425	1425	1437	1443	1455	1455	1461	1461	1467	1467	1473	1480	1486	1486	1492	1492	1499	1506	1506	1519	1532	1546	1546	1560	1560	1560	1560	1567	1567	1567	1574	1567	1581	1581	1596	1603	1618	1618	2478	2478	2496	2496	2496	2514	2514	2514	2532	2532	2551	2551	2570	2551	2570	2551	2551	2551	2570	2551	2551	2551	2551	2551	2551	2551	2570	2551	2551	2551	2551	2551	2551	2551	2514	2532	2532	2551	2551	2551	2551	2551	2551	2551	2570	2551	2551	2551	2551	2551	2551	2551	2532	2532	2551	2532	2532	2532	2532	2532	2532	2532	2532	2532	2532	2551	2551	2551	2551	2551	2570	2570	2551	2551	2551	2551	2551	2551	2551	2551	2551	2551	2532	2532	2551	2570	2551	2551	2570	2551	2570	2570	2570	2551	2551	2942	2942	2917	2917	2917	2917	2917	2917	2917	2917	2917	2917	2917	2942	2942	2942	2942	2942	3510	3510	3510	3546	3546	3546	3583	3583	3583	3546	3583	3583	3546	3546	3546	3546	3583	3546	3583	3583	3583	3583	3583	3546	3583	3583	3583	3621	3621	3621	3659	3621	3621	3621	3621	3621	3621	3621	3621	3621	3659	3659	3621	3621	3621	3583	3621	3621	3621	3659	3659	3659	3659	3659	3659	3621	3621	3621	3621	3659	3659	3659	3659	3659	3659	3659	3659	3659	3659	3659	3659	3698	3698	3698	3698	3698	3698	3698	3698	3698	3659	3659	3659	3659	3659	3698	3659	3659	3659	3659	3621	3621	3621	3621	3621	3621	3621	3659	3659	3659	3659	3659	3659	3659	3659	3621	3583	3621	3583	2845	2869	2869	2869	2869	2869	2869	2869	2869	2845	2845	2845	2822	2799	2799	2799	2799	2777	2777	2777	2777	2799	2799	2799	2777	2777	2777	2777	2777	2777	2777	2777	2754	2754	2754	2754	2754	2754	2754	2754	2754	2754	2754	2754	2754	2733	2733	2733	2733	2733	2733	2733	2733	2711	2733	2733	2733	2733	2733	2733	2733	2733	2733	2733	2733	2733	2733	2733	2733	2733	2733	2733	2733	2733	2733	2754	2754	2754	2777	2777	2754	2777	2754	2777	2777	2777	2777	2777	0	0	0	3621	3621	3621	3583	3583	3621	3621	3621	3621	3621	3621	3621	3621	3621	3621	3621	3621	3621	3659	3621	3621	3621	3621	3621	3621	3621	3621	3621	3621	3621	3621	3621	3621	3621	3621	3583	3583	3583	3583	3583	3583	3583	3583	3583	3583	3621	3583	3583	3621	3583	3621	3621	3583	3583	3583	3583	3583	3583	3583	3583	3583	3583	3583	3583	3546	3546	3546	3583	3583	3583	3583	3546	3546	3546	3546	3546	3546	3510	3510	3546	3546	3510	3546	3546	3546	3546	3546	3546	3546	3546	3510	3546	3546	3546	3546	3510	3546	3546	3546	3546	3546	3546	3546	3546	3546	3583	3546	3546	3546	3546	3583	3546	3583	3583	3583	3546	3546	3546	3546	3546	3510	3510	3510	3546	3546	3546	3546	3546	3546	3546	3546	3546	3546	3546	3546	3510	3510	3510	3510	3510	3475	3475	3475	3510	0	0	0	2003	1992	1992	1980	1980	1969	1958	1947	1947	1936	1936	1936	1936	1915	1904	1894	1883	1883	1873	1873	1863	1863	1843	1833	1824	1814	1814	1804	1795	1786	1777	1759	1759	1750	1750	1741	1741	1732	1723	1715	1715	1706	1706	1698	1690	1690	1673	1673	1665	1657	1649	1641	1634	1626	1626	1618	1618	1596	1596	1581	1581	1574	1574	1567	1567	1560	1553	1553	1532	1532	0	0	0	0	0	0	0	0	0	0	0	0	0	0	0	0	0	0	0	0	0	0	0	0	0	0	0	0	0	0	0	0	0	0	0	0	0	0	0	0
0	0	0	0	0	0	0	0	0	0	1331	1331	1336	1336	1342	1347	1347	1352	1352	1363	1368	1379	1385	1390	1390	1396	1402	1407	1407	1413	1419	1419	1425	1425	1437	1443	1455	1455	1461	1461	1467	1467	1473	1480	1486	1486	1486	1492	1499	1499	1506	1525	1546	1546	1553	1560	1560	1560	1560	1560	1567	1567	1574	1581	1581	1596	1603	1611	1626	1626	1649	1649	1649	2496	2496	2514	2532	2532	2532	2551	2551	2551	2570	2551	2570	2551	2551	2551	2570	2551	2551	2551	2551	2551	2551	2551	2570	2551	2551	2551	2551	2551	2532	2532	2514	2532	2532	2551	2551	2551	2551	2551	2551	2551	2570	2551	2551	2551	2551	2551	2551	2551	2532	2532	2551	2532	2532	2532	2532	2532	2532	2532	2532	2532	2532	2551	2551	2551	2551	2551	2570	2570	2551	2551	2551	2551	2551	2551	2551	2551	2551	2532	2532	2551	2551	2551	2551	2551	2551	2551	2551	2551	2551	2551	2551	2967	2942	2942	2942	2942	2942	2942	2942	2942	2942	2942	2942	2942	2942	2942	2942	2942	2942	2942	3510	3510	3546	3546	3546	3546	3583	3546	3546	3583	3546	3546	3546	3546	3546	3583	3546	3583	3583	3583	3583	3583	3583	3583	3583	3583	3621	3659	3659	3659	3659	3621	3621	3621	3621	3621	3621	3621	3659	3659	3659	3621	3659	3621	3621	3621	3621	3621	3621	3621	3621	3659	3621	3659	3621	3621	3621	3621	3659	3659	3659	3659	3659	3659	3659	3659	3659	3659	3659	3659	3698	3698	3698	3698	3698	3698	3698	3698	3698	3659	3698	3659	3659	3659	3659	3659	3659	3659	3659	3621	3621	3621	3621	3621	3659	3659	3659	3659	3659	3659	3659	3659	3659	3621	3621	3621	3621	3583	2845	2869	2869	2869	2869	2869	2869	2869	2869	2869	2845	2822	2822	2799	2799	2799	2777	2777	2777	2777	2777	2799	2799	2799	2777	2777	2777	2777	2777	2777	2777	2777	2754	2754	2754	2754	2754	2754	2754	2754	2754	2754	2754	2733	2733	2733	2733	2733	2733	2733	2733	2733	2711	2711	2733	2711	2733	2733	2733	2733	2733	2733	2733	2733	2733	2733	2733	2733	2733	2733	2733	2733	2733	2733	2733	2754	2754	2754	2754	2777	2754	2777	2777	2754	2754	2754	0	0	0	0	0	3621	3621	3621	3583	3621	3583	3621	3621	3583	3621	3583	3583	3583	3583	3583	3583	3583	3583	3621	3621	3621	3621	3621	3621	3621	3621	3621	3621	3621	3621	3621	3621	3621	3621	3583	3583	3583	3583	3583	3583	3583	3621	3621	3621	3621	3621	3621	3583	3621	3583	3621	3621	3621	3583	3621	3583	3583	3583	3583	3583	3583	3583	3583	3583	3546	3583	3546	3546	3546	3583	3583	3583	3546	3546	3546	3546	3546	3546	3546	3546	3546	3546	3546	3546	3546	3546	3546	3546	3546	3546	3510	3510	3510	3510	3510	3510	3510	3510	3510	3510	3546	3546	3546	3546	3546	3583	3546	3546	3546	3546	3546	3546	3583	3583	3583	3546	3546	3546	3546	3546	3546	3510	3546	3546	3546	3546	3546	3546	3546	3546	3546	3546	3546	3546	3546	3510	3510	3510	3546	3510	3510	3510	3475	0	0	0	0	2003	1992	1980	1980	1969	1958	1958	1947	1947	1936	1936	1936	1936	1925	1904	1894	1883	1883	1883	1873	1863	1853	1843	1833	1824	1814	1814	1804	1795	1777	1768	1759	1759	1750	1750	1741	1741	1732	1723	1715	1706	1706	1698	1698	1690	1690	1681	1673	1665	1657	1649	1641	1634	1626	1618	1618	1611	1596	1589	1589	1581	1581	1574	1567	1567	1567	1553	1553	1532	1532	0	0	0	0	0	0	0	0	0	0	0	0	0	0	0	0	0	0	0	0	0	0	0	0	0	0	0	0	0	0	0	0	0	0	0	0	0	0	0	0
0	0	0	0	0	0	0	0	0	0	1331	1336	1336	1342	1342	1347	1347	1352	1352	1363	1363	1374	1385	1390	1390	1396	1407	1407	1413	1413	1419	1419	1425	1425	1437	1443	1455	1455	1455	1461	1467	1467	1473	1473	1480	1486	1486	1492	1499	1506	1506	1539	1553	1553	1553	1560	1560	1560	1560	1567	1567	1574	1581	1589	1596	1596	1603	1611	1618	1634	1641	1649	1649	1649	0	2514	2532	2532	2532	2551	2551	2551	2551	2551	2551	2551	2551	2551	2570	2551	2551	2551	2551	2551	2570	2551	2551	2551	2551	2551	2551	2551	2532	2532	2532	2532	2551	2551	2551	2551	2551	2551	2551	2551	2570	2551	2551	2551	2551	2551	2551	2551	2532	2532	2551	2532	2532	2532	2532	2532	2532	2532	2532	2532	2532	2532	2532	2551	2551	2551	2551	2551	2551	2551	2551	2551	2551	2551	2551	2551	2551	2532	2532	2532	2551	2551	2532	2532	2532	2551	2551	2551	2532	2532	2532	2993	2967	2942	2942	2942	2942	2942	2942	2942	2967	2942	2942	2942	2942	2967	2942	2942	2942	2942	3546	3546	3546	3546	3546	3546	3546	3546	3546	3583	3546	3546	3546	3546	3546	3583	3583	3583	3583	3583	3583	3583	3583	3583	3621	3621	3621	3659	3659	3659	3659	3621	3621	3621	3621	3621	3621	3621	3621	3659	3659	3621	3621	3621	3621	3621	3621	3659	3659	3659	3659	3659	3659	3659	3659	3659	3659	3659	3659	3659	3698	3659	3659	3659	3659	3659	3659	3659	3659	3659	3659	3698	3659	3659	3698	3698	3698	3659	3659	3659	3659	3659	3659	3659	3659	3659	3659	3659	3659	3621	3621	3621	3621	3621	3659	3659	3659	3659	3659	3659	3659	3659	3659	3621	3621	3621	3621	2845	2869	2869	2869	2869	2869	2869	2869	2869	2845	2845	2845	2822	2822	2799	2799	2777	2777	2777	2777	2777	2777	2799	2799	2799	2777	2777	2777	2777	2777	2777	2777	2777	2777	2754	2754	2754	2754	2754	2754	2754	2754	2754	2733	2733	2733	2733	2733	2733	2733	2733	2733	2733	2711	2711	2733	2711	2733	2733	2733	2733	2733	2733	2733	2733	2733	2733	2711	2733	2733	2733	2733	2733	2733	2733	2733	2754	2754	2754	2754	2754	2754	2777	2733	2733	2733	2754	0	0	0	0	0	0	3621	3621	3621	3621	3583	3621	3621	3583	3583	3583	3621	3583	3583	3583	3583	3583	3583	3621	3621	3621	3621	3621	3621	3621	3621	3621	3621	3621	3621	3621	3621	3621	3621	3583	3621	3583	3546	3583	3546	3583	3583	3583	3583	3583	3583	3621	3621	3621	3621	3621	3621	3621	3621	3621	3583	3583	3583	3583	3583	3583	3583	3583	3583	3583	3583	3583	3583	3546	3583	3546	3583	3546	3546	3546	3546	3546	3546	3510	3510	3546	3546	3546	3546	3546	3510	3510	3510	3510	3510	3510	3510	3510	3510	3510	3510	3510	3510	3510	3546	3546	3546	3546	3546	3546	3583	3546	3546	3546	3546	3546	3546	3546	3583	3583	3583	3583	3546	3546	3546	3546	3546	3546	3546	3546	3546	3546	3546	3546	3546	3546	3546	3546	3546	3546	3546	3546	3546	3546	3546	3510	3510	0	0	0	2015	2003	1992	1992	1992	1980	1969	1969	1958	1958	1947	1947	1936	1936	1936	1936	1915	1904	1894	1883	1883	1883	1863	1853	1843	1833	1824	1814	1814	1804	1795	1777	1768	1759	1759	1750	1750	1741	1732	1732	1715	1715	1706	1698	1698	1698	1690	1690	1681	1665	1657	1649	1649	1641	1634	1626	1626	1618	1611	1596	1589	1589	1581	1581	1574	1567	1574	1567	1560	1553	1532	1532	0	0	0	0	0	0	0	0	0	0	0	0	0	0	0	0	0	0	0	0	0	0	0	0	0	0	0	0	0	0	0	0	0	0	0	0	0	0	0	0
0	0	0	0	0	0	0	0	0	0	1331	1336	1336	1336	1342	1347	1352	1352	1358	1363	1368	1374	1379	1385	1385	1396	1407	1407	1407	1413	1419	1419	1425	1425	1431	1437	1449	1449	1455	1461	1467	1467	1473	1473	1480	1486	1486	1492	1499	1499	1506	1506	1553	1567	1560	1567	1567	1567	1574	1574	1581	1581	1589	1596	1596	1596	1603	1611	1618	1626	1641	1649	1649	1649	0	0	2532	2532	2532	2551	2551	2551	2551	2551	2551	2551	2551	2551	2570	2551	2551	2551	2551	2551	2551	2551	2551	2551	2551	2551	2551	2551	2551	2551	2532	2551	2551	2551	2551	2551	2532	2551	2551	2551	2570	2551	2551	2551	2551	2551	2551	2551	2532	2532	2551	2532	2532	2551	2551	2532	2532	2532	2532	2532	2532	2532	2532	2532	2514	2514	2532	2551	2551	2551	2551	2551	2551	2551	2551	2532	2532	2532	2532	2532	2532	2532	2514	2514	2532	2532	2532	2532	2532	2532	3019	2993	2967	2967	2967	2967	2967	2967	2967	2967	2993	2967	2967	2967	2967	2967	2967	2967	2993	2993	2993	3510	3546	3546	3546	3546	3546	3546	3546	3583	3583	3546	3546	3546	3546	3583	3583	3583	3583	3583	3583	3583	3583	3583	3583	3583	3583	3659	3659	3659	3659	3621	3621	3621	3659	3621	3621	3621	3621	3621	3621	3621	3621	3621	3583	3621	3621	3659	3659	3659	3659	3659	3659	3659	3659	3659	3659	3659	3698	3698	3659	3659	3659	3659	3659	3659	3659	3659	3659	3659	3698	3698	3698	3659	3698	3659	3659	3659	3659	3659	3659	3659	3659	3659	3659	3659	3621	3659	3621	3621	3621	3621	3621	3621	3621	3659	3659	3659	3659	3659	3659	3659	3659	3659	3621	3621	3621	2869	2869	2869	2869	2869	2869	2845	2869	2845	2845	2845	2845	2822	2799	2799	2799	2777	2777	2777	2777	2777	2777	2799	2799	2799	2777	2777	2777	2777	2777	2754	2754	2777	2777	2754	2754	2754	2754	2733	2733	2754	2754	2754	2754	2733	2733	2733	2733	2733	2733	2733	2733	2733	2711	2711	2711	2711	2711	2733	2733	2733	2733	2733	2733	2733	2733	2733	2711	2733	2733	2733	2733	2733	2733	2733	2733	2754	2754	2754	2754	2754	2754	2777	2754	2754	2733	0	0	0	0	0	0	0	3621	3621	3621	3621	3583	3621	3621	3621	3621	3583	3583	3583	3583	3583	3583	3583	3583	3621	3621	3621	3621	3621	3621	3621	3621	3621	3621	3621	3621	3621	3621	3621	3621	3583	3621	3583	3583	3583	3546	3583	3583	3583	3583	3583	3621	3583	3621	3621	3583	3621	3621	3621	3621	3621	3583	3621	3583	3583	3583	3583	3583	3583	3583	3583	3583	3546	3546	3546	3546	3546	3546	3546	3546	3546	3546	3546	3510	3510	3510	3546	3546	3546	3546	3546	3546	3510	3510	3510	3510	3510	3510	3510	3510	3510	3510	3510	3510	3510	3510	3546	3546	3546	3546	3546	3546	3546	3546	3546	3546	3546	3546	3546	3583	3583	3583	3583	3546	3546	3546	3546	3546	3546	3546	3546	3546	3546	3546	3546	3546	3546	3546	3546	3546	3546	3546	3546	3546	3510	3510	3510	3510	0	2039	2027	2015	2003	1992	1992	1992	1980	1980	1969	1969	1969	1958	1947	1947	1947	1947	1936	1925	1904	1894	1883	1883	1873	1863	1853	1843	1843	1833	1824	1814	1804	1795	1777	1768	1759	1750	1750	1750	1741	1732	1732	1715	1715	1706	1698	1698	1698	1690	1690	1681	1665	1657	1657	1649	1641	1634	1626	1626	1618	1611	1596	1596	1589	1581	1581	1581	1567	1567	1567	1560	1553	1532	1532	0	0	0	0	0	0	0	0	0	0	0	0	0	0	0	0	0	0	0	0	0	0	0	0	0	0	0	0	0	0	0	0	0	0	0	0	0	0	0	0
0	0	0	0	0	0	0	0	0	0	1331	1331	1336	1336	1347	1347	1352	1358	1358	1368	1368	1374	1379	1385	1385	1390	1396	1407	1407	1413	1419	1419	1425	1425	1431	1437	1449	1455	1455	1461	1467	1467	1467	1473	1480	1480	1486	1486	1492	1506	1506	1506	1567	1574	1567	1567	1574	1574	1574	1574	1581	1589	1596	1589	1596	1603	1611	1611	1618	1634	1641	1641	1649	1657	1657	0	2532	2551	2551	2551	2551	2551	2551	2551	2551	2551	2551	2551	2551	2551	2551	2551	2551	2551	2551	2551	2551	2551	2551	2551	2551	2551	2551	2551	2532	2551	2551	2551	2551	2551	2532	2551	2551	2551	2551	2551	2551	2551	2551	2551	2551	2551	2551	2532	2551	2551	2551	2551	2551	2551	2551	2532	2532	2532	2532	2532	2532	2514	2514	2514	2532	2551	2551	2551	2570	2570	2551	2551	2551	2532	2532	2532	2514	2514	2532	2514	2514	2514	2514	2514	2532	2514	2514	2532	3046	3019	3019	2993	3019	2993	2993	2993	2993	2993	2993	2967	2967	2993	2993	2993	2993	2993	2993	3019	3019	3546	3546	3546	3546	3546	3583	3546	3583	3583	3583	3583	3583	3546	3546	3583	3583	3583	3583	3546	3546	3583	3583	3583	3583	3621	3621	3659	3659	3659	3659	3659	3659	3659	3659	3621	3621	3621	3659	3659	3621	3621	3621	3621	3621	3621	3621	3621	3621	3621	3621	3659	3659	3659	3621	3659	3659	3659	3659	3698	3659	3659	3659	3659	3659	3659	3659	3659	3659	3659	3659	3659	3659	3659	3659	3659	3659	3659	3659	3659	3659	3659	3659	3659	3659	3659	3621	3621	3621	3621	3621	3621	3621	3621	3621	3659	3659	3659	3659	3659	3659	3659	3659	3659	3659	3659	3659	2869	2869	2869	2869	2869	2869	2845	2869	2845	2845	2845	2845	2822	2822	2799	2799	2777	2777	2777	2777	2777	2777	2799	2799	2777	2777	2777	2777	2754	2754	2754	2777	2777	2777	2754	2754	2754	2754	2754	2754	2754	2754	2754	2733	2733	2733	2733	2733	2733	2733	2711	2733	2711	2711	2711	2711	2711	2711	2733	2733	2733	2733	2733	2733	2733	2733	2733	2711	2733	2733	2733	2733	2733	2733	2733	2754	2754	2733	2733	2754	2754	2754	2777	2754	2754	0	0	0	0	0	0	0	0	3621	3621	3621	3621	3621	3621	3621	3621	3621	3583	3583	3583	3583	3583	3583	3583	3583	3621	3621	3621	3621	3621	3621	3621	3621	3621	3621	3621	3621	3621	3621	3621	3583	3621	3621	3583	3546	3546	3546	3583	3583	3583	3583	3583	3621	3621	3621	3621	3621	3621	3621	3621	3621	3583	3583	3583	3583	3583	3583	3583	3583	3583	3583	3583	3583	3546	3546	3546	3546	3546	3546	3546	3546	3546	3546	3546	3546	3510	3546	3546	3510	3510	3546	3546	3510	3510	3510	3546	3510	3510	3510	3510	3510	3510	3510	3510	3510	3510	3510	3546	3510	3546	3546	3546	3546	3546	3546	3546	3546	3546	3546	3546	3583	3583	3583	3546	3546	3546	3546	3546	3546	3546	3546	3546	3546	3546	3546	3546	3546	3546	3546	3546	3546	3546	3546	3546	3546	3546	3546	3510	3510	2027	2027	2015	2015	2003	1992	1992	1992	1992	1980	1980	1969	1969	1969	1958	1947	1947	1947	1936	1925	1904	1894	1883	1883	1873	1863	1853	1843	1833	1833	1814	1814	1804	1786	1777	1768	1759	1759	1750	1750	1741	1741	1732	1723	1715	1706	1706	1706	1698	1690	1690	1681	1665	1657	1657	1649	1649	1641	1626	1626	1618	1611	1596	1589	1589	1581	1574	1574	1567	1567	1560	1560	1553	1546	1532	1532	0	0	0	0	0	0	0	0	0	0	0	0	0	0	0	0	0	0	0	0	0	0	0	0	0	0	0	0	0	0	0	0	0	0	0	0	0	0	0
0	0	0	0	0	0	0	0	0	0	1331	1336	1336	1342	1347	1352	1352	1358	1363	1368	1368	1374	1379	1379	1385	1390	1396	1402	1407	1413	1413	1419	1419	1425	1431	1437	1437	1455	1455	1461	1461	1467	1467	1473	1480	1486	1486	1486	1492	1499	1499	1499	1574	1581	1574	1574	1581	1581	1581	1581	1589	1596	1596	1596	1603	1603	1611	1618	1626	1634	1641	1649	1649	1657	1657	0	0	2532	2551	2551	2551	2551	2551	2551	2551	2551	2551	2551	2551	2551	2551	2551	2551	2551	2551	2551	2551	2551	2551	2532	2551	2551	2551	2551	2551	2551	2551	2551	2551	2551	2532	2551	2551	2551	2551	2551	2551	2551	2551	2551	2551	2551	2532	2532	2532	2532	2532	2551	2551	2551	2551	2551	2532	2532	2532	2514	2514	2514	2514	2514	2532	2551	2532	2532	2570	2551	2551	2551	2551	2532	2532	2514	2514	2514	2514	2514	2514	2514	2514	2514	2514	2514	2514	2532	2532	3046	3019	3019	3019	2993	2993	2993	2993	2993	3019	2993	2993	2993	2993	2993	2993	2993	3019	3019	3046	3546	3546	3546	3546	3546	3583	3583	3583	3583	3583	3583	3583	3546	3546	3546	3546	3583	3583	3583	3583	3583	3583	3583	3583	3621	3621	3621	3659	3659	3659	3659	3659	3659	3659	3621	3621	3621	3621	3659	3621	3621	3659	3621	3621	3659	3621	3659	3659	3659	3659	3659	3698	3659	3659	3659	3659	3659	3659	3698	3659	3659	3698	3659	3659	3659	3659	3659	3659	3659	3659	3659	3659	3659	3659	3659	3659	3659	3659	3659	3659	3621	3621	3621	3659	3659	3621	3621	3621	3621	3621	3621	3621	3621	3621	3659	3659	3621	3659	3659	3659	3659	3621	3621	3659	3659	3659	2869	2869	2869	2845	2845	2845	2845	2845	2845	2845	2845	2845	2822	2822	2799	2799	2777	2777	2777	2777	2777	2777	2777	2799	2777	2777	2777	2777	2754	2754	2754	2777	2777	2777	2777	2777	2754	2754	2754	2754	2754	2754	2754	2733	2733	2733	2733	2733	2733	2733	2711	2711	2711	2711	2711	2711	2711	2711	2733	2733	2733	2754	2733	2733	2733	2733	2733	2711	2733	2733	2733	2733	2733	2733	2733	2733	2733	2733	2733	2754	2754	2754	2754	2754	2754	0	0	0	0	0	0	3583	3583	3583	3621	3621	3621	3621	3621	3621	3621	3621	3583	3583	3583	3583	3583	3583	3583	3583	3621	3621	3621	3621	3621	3621	3621	3621	3621	3621	3621	3621	3621	3621	3621	3583	3621	3583	3583	3546	3546	3583	3583	3583	3621	3583	3621	3621	3621	3621	3621	3621	3621	3621	3621	3621	3621	3583	3583	3583	3583	3583	3583	3583	3583	3583	3583	3546	3546	3546	3546	3546	3546	3546	3546	3546	3546	3546	3546	3546	3510	3510	3546	3510	3510	3510	3510	3510	3546	3546	3546	3510	3510	3510	3510	3510	3510	3510	3475	3510	3510	3510	3510	3510	3546	3546	3546	3583	3583	3546	3546	3546	3546	3546	3546	3583	3583	3583	3546	3546	3546	3546	3546	3546	3546	3546	3546	3546	3546	3546	3546	3546	3546	3546	3546	3546	3546	3510	3510	3546	3546	2003	2003	2015	2015	2027	2015	2015	2003	1992	1992	1992	1992	1992	1980	1980	1980	1969	1969	1947	1947	1936	1936	1915	1904	1894	1894	1883	1873	1863	1853	1843	1833	1833	1814	1814	1804	1795	1786	1768	1759	1750	1750	1750	1741	1741	1732	1723	1715	1706	1706	1706	1698	1698	1690	1681	1665	1665	1657	1657	1649	1641	1634	1634	1626	1611	1596	1589	1589	1581	1574	1574	1567	1567	1567	1560	1553	1546	1539	1539	0	0	0	0	0	0	0	0	0	0	0	0	0	0	0	0	0	0	0	0	0	0	0	0	0	0	0	0	0	0	0	0	0	0	0	0	0	0	0
0	0	0	0	0	0	0	0	0	0	1331	1336	1336	1342	1347	1352	1352	1358	1358	1363	1368	1368	1379	1379	1385	1390	1396	1402	1407	1407	1413	1413	1419	1425	1437	1437	1449	1455	1455	1461	1461	1467	1467	1473	1480	1486	1486	1486	1492	1499	1499	1499	1574	1574	1574	1574	1581	1581	1589	1589	1596	1603	1603	1603	1603	1603	1618	1626	1634	1634	1641	1649	1649	1657	1665	1665	1665	2532	2551	2551	2551	2551	2551	2551	2551	2551	2551	2551	2551	2551	2551	2551	2551	2551	2551	2551	2551	2551	2551	2532	2551	2551	2551	2551	2551	2551	2551	2551	2551	2551	2551	2551	2551	2551	2551	2551	2551	2551	2551	2551	2532	2532	2532	2532	2532	2532	2532	2551	2551	2551	2551	2551	2532	2532	2532	2514	2514	2514	2514	2514	2532	2532	2532	2532	2551	2551	2551	2551	2532	2532	2532	2514	2514	2514	2514	2514	2514	2514	2514	2514	2514	2514	2514	2532	2532	3046	3046	3019	3019	3019	3019	3019	3019	3019	3019	3019	2993	3019	3019	3019	3019	3019	3019	3046	3046	3046	3546	3546	3546	3546	3546	3546	3546	3583	3546	3546	3546	3546	3546	3546	3546	3546	3546	3546	3583	3546	3583	3583	3583	3621	3621	3621	3659	3659	3659	3659	3659	3621	3621	3621	3621	3621	3621	3659	3659	3659	3659	3659	3621	3659	3659	3659	3659	3659	3659	3659	3698	3698	3659	3659	3659	3659	3659	3698	3659	3659	3698	3659	3659	3659	3659	3659	3659	3659	3659	3659	3659	3659	3659	3659	3621	3621	3621	3659	3621	3621	3621	3621	3659	3659	3659	3621	3621	3621	3621	3621	3621	3621	3621	3621	3621	3621	3621	3621	3621	3621	3621	3621	3659	3659	3659	2869	2869	2869	2869	2845	2845	2845	2845	2845	2845	2845	2845	2822	2822	2799	2799	2777	2777	2777	2777	2777	2777	2799	2799	2777	2777	2777	2777	2754	2777	2754	2777	2777	2777	2777	2754	2754	2754	2754	2754	2733	2733	2733	2733	2733	2733	2711	2711	2711	2711	2711	2711	2711	2711	2711	2711	2711	2711	2733	2733	2733	2733	2733	2733	2733	2733	2733	2733	2733	2733	2733	2733	2733	2733	2733	2733	2733	2733	2733	2754	2754	2754	2754	2754	2754	0	0	0	0	0	0	3583	3583	3583	3621	3621	3621	3583	3621	3583	3583	3583	3583	3583	3583	3583	3583	3583	3583	3583	3621	3621	3621	3621	3621	3621	3621	3621	3621	3621	3621	3621	3621	3621	3621	3621	3621	3621	3583	3583	3583	3583	3583	3583	3621	3583	3583	3621	3583	3621	3621	3621	3621	3583	3621	3621	3583	3583	3546	3583	3583	3583	3583	3583	3583	3583	3583	3583	3546	3546	3546	3546	3546	3546	3546	3546	3546	3546	3546	3510	3510	3510	3510	3510	3510	3510	3546	3546	3546	3546	3546	3510	3510	3510	3510	3510	3510	3510	3475	3510	3510	3510	3510	3510	3510	3546	3546	3546	3583	3546	3546	3546	3546	3546	3546	3546	3583	3583	3546	3546	3546	3546	3546	3546	3546	3546	3546	3546	3546	3546	3546	3546	3546	3546	3546	3546	3510	2076	2076	3510	2015	2003	2003	2015	2027	2027	2015	2003	2003	1992	1992	1992	1992	1992	1980	1980	1980	1969	1969	1947	1947	1936	1936	1925	1915	1894	1883	1883	1873	1863	1853	1843	1833	1833	1824	1814	1804	1795	1786	1777	1768	1759	1750	1750	1741	1741	1732	1723	1715	1706	1706	1706	1698	1690	1681	1681	1665	1657	1657	1657	1649	1649	1641	1641	1626	1618	1603	1589	1589	1581	1574	1574	1567	1567	1567	1560	1553	1546	1539	1539	0	0	0	0	0	0	0	0	0	0	0	0	0	0	0	0	0	0	0	0	0	0	0	0	0	0	0	0	0	0	0	0	0	0	0	0	0	0	0
0	0	0	0	0	0	0	0	0	0	1336	1336	1336	1342	1347	1352	1352	1358	1363	1363	1363	1368	1374	1374	1385	1390	1390	1396	1407	1407	1413	1419	1425	1431	1437	1443	1449	1455	1455	1461	1461	1467	1467	1473	1480	1486	1486	1486	1492	1499	1506	1506	1567	1574	1574	1574	1581	1589	1589	1596	1603	1611	1611	1611	1611	1611	1626	1626	1634	1641	1649	1649	1649	1657	1665	1665	1665	0	0	2570	2570	2551	2551	2551	2551	2551	2551	2551	2551	2551	2551	2551	2551	2551	2551	2551	2551	2551	2551	2532	2532	2551	2551	2551	2551	2551	2551	2551	2551	2551	2551	2551	2551	2551	2551	2551	2551	2551	2551	2551	2551	2532	2532	2532	2532	2532	2532	2551	2551	2551	2551	2551	2551	2551	2532	2532	2514	2514	2514	2514	2532	2532	2532	2532	2551	2551	2551	2551	2532	2532	2532	2514	2514	2514	2514	2514	2514	2514	2514	2514	2514	2514	2514	2532	2551	3046	3046	3046	3046	3019	3019	3019	3019	3019	3019	3019	2993	3019	3019	3019	3019	3019	3019	3046	3046	3046	3046	3046	3546	3546	3546	3546	3546	3546	3546	3546	3546	3546	3546	3546	3546	3546	3546	3546	3546	3546	3546	3583	3583	3621	3621	3659	3659	3659	3659	3659	3659	3659	3659	3621	3621	3621	3621	3621	3621	3659	3659	3659	3621	3659	3659	3659	3659	3659	3659	3659	3698	3698	3659	3659	3698	3659	3698	3698	3698	3698	3698	3659	3659	3659	3659	3659	3659	3659	3659	3659	3659	3659	3659	3621	3621	3621	3621	3621	3621	3621	3621	3621	3659	3659	3659	3659	3659	3621	3659	3621	3621	3621	3621	3621	3621	3621	3621	3621	3621	3621	3621	3621	3659	3659	2869	2869	2869	2869	2869	2845	2845	2845	2845	2845	2845	2845	2822	2822	2822	2799	2799	2777	2777	2777	2777	2777	2777	2777	2799	2777	2777	2777	2754	2754	2754	2754	2777	2777	2777	2754	2754	2754	2754	2754	2754	2754	2754	2733	2733	2733	2733	2711	2711	2711	2711	2711	2711	2711	2711	2711	2711	2711	2711	2711	2733	2733	2733	2733	2733	2733	2733	2733	2711	2733	2733	2733	2733	2733	2733	2733	2733	2733	2733	2733	2754	2754	2754	2777	2777	2777	0	0	0	0	0	3583	3583	3583	3583	3583	3621	3583	3583	3583	3583	3583	3583	3583	3583	3583	3583	3583	3583	3583	3583	3621	3621	3621	3621	3621	3621	3621	3621	3621	3621	3621	3621	3621	3621	3621	3621	3621	3621	3621	3583	3583	3583	3583	3621	3621	3621	3621	3621	3621	3621	3621	3621	3583	3583	3621	3621	3583	3583	3546	3546	3546	3583	3546	3583	3583	3583	3583	3583	3583	3546	3546	3546	3546	3546	3546	3546	3546	3546	3546	3546	3510	3510	3510	3510	3510	3546	3546	3546	3546	3546	3546	3510	3510	3510	3510	3510	3510	3510	3475	3510	3510	3510	3510	3510	3510	3546	3546	3546	3583	3546	3546	3546	3546	3546	3546	3546	3546	3546	3546	3546	3546	3546	3546	3546	3546	3546	3546	3546	3546	3546	3546	3546	3546	3510	3510	3546	3546	3546	2076	2076	2027	2015	2015	2027	2027	2027	2015	2015	2003	1992	1992	1992	1992	1992	1980	1980	1980	1969	1969	1947	1947	1936	1936	1925	1894	1894	1883	1873	1863	1863	1853	1843	1833	1833	1833	1814	1804	1795	1786	1777	1768	1759	1750	1750	1750	1741	1732	1732	1715	1706	1706	1706	1698	1690	1681	1673	1665	1657	1657	1657	1649	1641	1634	1634	1626	1618	1603	1589	1581	1574	1574	1574	1567	1567	1567	1560	1553	1546	1539	1539	0	0	0	0	0	0	0	0	0	0	0	0	0	0	0	0	0	0	0	0	0	0	0	0	0	0	0	0	0	0	0	0	0	0	0	0	0	0	0
