0	0	0	0	0	0	0	0	0	0	1311	1331	1326	1316	1331	1326	1326	1326	1331	1342	1342	1347	1352	1358	1368	1363	1363	1363	1363	1358	1352	1347	1352	1352	1352	1352	1358	1358	1358	1358	1363	1368	1374	1374	1374	1379	1379	1385	1385	1385	1390	1390	1396	1396	1425	1425	1425	0	0	0	0	0	0	0	0	0	0	0	0	0	0	0	0	0	0	0	0	0	0	0	0	0	0	0	0	0	0	0	0	1925	1925	1915	1925	1936	1936	1947	1992	1992	1980	1980	1980	1980	0	0	0	0	0	0	0	2114	2114	2127	2127	2127	2114	2114	2114	2114	2101	2114	2127	2127	2127	2127	2127	2127	2127	2127	2127	2127	2127	2127	2127	2127	2127	2127	2127	2114	2114	2114	2114	2114	2114	2127	2127	2127	2127	2127	2127	2127	2127	2114	2127	2127	2127	2127	2127	2127	2127	2127	2127	2127	2127	2114	2101	2101	2101	2114	2101	2101	2101	2101	2101	2114	2114	2127	2140	2167	2181	2181	2194	2208	2208	2237	2237	2252	2252	2297	2297	2343	2359	2376	2392	2409	2426	2426	2426	2443	2460	2460	2496	2496	0	0	0	0	0	0	0	0	0	0	0	0	0	0	0	0	0	6592	6853	6720	6853	6853	6853	6853	6853	6853	6992	6853	6992	6992	6992	6992	6992	6992	6992	6992	6853	6853	6720	6720	6592	6720	6592	6720	6720	6720	6853	6853	6720	6853	6853	6853	6853	6853	6853	6992	6992	6992	6992	6992	6853	6853	6992	6992	6992	6720	0	0	6992	7137	7137	6992	6992	6992	6992	6992	6992	6992	6992	6992	6992	6853	6853	6853	6992	6853	6853	6992	6853	6853	6853	6720	6592	6592	0	6853	6853	6992	6992	7137	6992	6992	6853	6992	6992	6853	6853	6853	6853	6992	6853	6853	6853	3779	3738	3738	3738	3738	3738	3738	3698	3698	3659	3698	3698	3698	3698	3738	3738	3738	3738	3698	3698	3738	3738	3738	6853	6853	6853	6853	6853	6853	6720	6720	6853	6853	6992	6992	6992	6853	6853	6853	6853	6720	6720	6720	6853	6853	6720	6720	6853	6720	6853	6720	6720	6720	6720	6720	6720	6720	6720	6720	6720	6720	6720	6853	0	0	0	0	0	0	0	0	0	0	0	0	0	0	0	0	0	0	0	0	0	0	0	0	0	0	0	0	0	0	0	0	0	0	0	0	0	0	0	0	0	0	0	0	0	920	915	913	913	908	908	908	903	903	903	898	896	894	894	889	887	884	884	882	882	878	875	875	873	873	871	869	867	867	865	862	858	858	858	856	856	852	852	852	852	850	850	852	850	848	848	848	848	848	848	848	848	848	845	845	845	845	845	845	841	0	0	0	0	0	0	0	0	0	0	0	0	0	839	837	837	835	833	827	823	821	821	819	817	817	815	808	808	804	804	802	802	802	800	798	797	793	789	789	789	788	786	784	784	784	784	782	780	779	775	775	775	775	775	773	772	772	770	767	768	768	767	767	767	765	765	763	763	761	761	761	761	760	761	761	760	761	761	763	761	763	763	761	761	761	760	760	758	760	758	756	755	755	756	756	755	755	758	760	761	760	760	760	760	760	761	761	761	0	0	0	0	0	0	0	0	0	0	0	0	0	0	0	0	0	0	0	0	0	0	0	0	0	0	0	0	0	0	0	0	0	0	0	0	0	0	0	0	0	0	0	0	0	0	0	0	0
0	0	0	0	0	0	0	0	0	0	0	1331	1326	1331	1336	1331	1331	1326	1331	1342	1347	1352	1352	1363	1368	1368	1363	1363	1363	1368	1358	1358	1358	1358	1363	1363	1363	1363	1368	1368	1368	1368	1374	1374	1374	1374	1379	1379	1379	1379	1390	1396	1396	1402	1425	1425	1425	1425	0	0	0	0	0	0	0	0	0	0	0	0	0	0	0	0	0	0	0	0	0	0	0	0	0	0	0	0	0	0	1925	1925	1925	1925	1925	1936	1936	1947	1980	1980	1980	1969	1969	1969	0	0	0	0	0	0	0	2114	2127	2127	2127	2127	2114	2114	2114	2114	2114	2114	2127	2127	2127	2127	2127	2127	2127	2127	2114	2127	2127	2127	2127	2127	2127	2127	2127	2127	2114	2114	2114	2114	2114	2127	2127	2127	2127	2127	2114	2127	2127	2114	2127	2127	2127	2127	2127	2127	2127	2127	2127	2127	2127	2114	2114	2101	2101	2114	2101	2101	2101	2101	2101	2114	2127	2127	2140	2153	2181	2181	2181	2208	2208	2237	2252	2252	2266	2297	2312	2343	2359	2376	2392	2409	2409	2426	2426	2443	2460	2478	2496	2496	0	0	0	0	0	0	0	0	0	0	0	0	0	0	0	0	0	6592	6992	6853	6853	6853	6992	6992	6992	6992	6992	6992	6992	6992	6992	6992	6992	6992	6992	6992	6853	6853	6853	6720	6720	6720	6720	6720	6720	6720	6853	6853	6853	6992	6992	6992	6992	6853	6720	6853	6992	6992	6992	6992	6992	6992	6992	6992	6992	6992	0	0	0	7137	7137	7137	7137	7137	7137	6992	7137	7137	6992	6992	6992	6992	6853	6853	6853	6853	6853	6853	6853	6853	6853	0	6592	6592	0	6853	6992	6992	7137	7137	7137	7137	6992	6992	6992	6992	6992	6853	6853	6992	6992	6853	6853	3779	3779	3779	3738	3738	3738	3738	3698	3698	3698	3698	3738	3738	3738	3738	3738	3738	3738	3698	3698	3738	3738	3738	6992	6992	6992	6992	6853	6992	6720	6720	6853	6853	6992	6992	6992	6853	6853	6853	6853	6720	6720	6720	6853	6853	6853	6720	6853	6720	6853	6853	6720	6720	6720	6720	6720	6720	6720	6720	6853	6853	7137	7137	0	0	0	0	0	0	0	0	0	0	0	0	0	0	0	0	0	0	0	0	0	0	0	0	0	0	0	0	0	0	0	0	0	0	0	0	0	0	0	0	0	0	930	930	925	920	917	915	913	910	908	905	905	903	903	898	896	896	891	891	887	884	884	882	882	880	875	875	875	873	871	871	867	867	865	862	858	858	858	856	856	854	852	852	852	852	850	850	850	848	848	848	848	848	848	848	848	848	848	845	845	845	845	841	841	0	0	0	0	0	0	0	0	0	0	0	0	0	839	837	837	835	833	827	823	821	819	819	817	815	814	808	806	804	804	802	800	798	798	797	797	795	791	789	788	786	786	786	784	784	784	784	780	777	775	775	775	775	775	773	773	772	770	768	768	768	767	767	767	765	765	763	763	761	761	761	760	760	760	760	760	760	760	761	761	761	763	763	761	761	761	760	760	760	760	760	758	758	756	758	758	755	758	760	761	761	761	760	760	760	761	761	761	0	0	0	0	0	0	0	0	0	0	0	0	0	0	0	0	0	0	0	0	0	0	0	0	0	0	0	0	0	0	0	0	0	0	0	0	0	0	0	0	0	0	0	0	0	0	0	0	0
0	0	0	0	0	0	0	0	0	0	0	1331	1331	1336	1336	1326	1326	1326	1331	1331	1347	1347	1358	1358	1368	1368	1368	1368	1368	1368	1358	1358	1363	1363	1368	1368	1368	1374	1374	1368	1368	1374	1374	1374	1374	1379	1379	1385	1379	1385	1385	1396	1396	1402	1425	1425	1425	1437	1443	1449	1443	1443	0	0	0	0	0	0	0	0	0	0	0	0	0	0	0	0	0	0	0	0	0	0	0	0	0	1915	1915	1915	1915	1925	1925	1936	1936	1947	1947	1969	1969	1969	1969	1969	0	0	0	0	0	0	0	0	2114	2114	2127	2114	2114	2114	2114	2114	2101	2114	2127	2127	2127	2127	2127	2127	2127	2127	2114	2127	2140	2140	2140	2127	2127	2127	2127	2127	2114	2114	2114	2114	2114	2127	2127	2114	2114	2114	2114	2114	2114	2114	2114	2127	2127	2127	2127	2127	2127	2127	2127	2114	2114	2114	2114	2101	2101	2101	2101	2101	2088	2088	2101	2101	2127	2127	2140	2167	2181	2181	2194	2208	2208	2237	2252	2252	2266	2281	2297	2343	2359	2376	2392	2409	2409	2426	2426	2443	2460	2460	2496	2496	0	0	0	0	0	0	0	0	0	0	0	0	0	0	0	0	0	0	6992	6853	6992	6853	6992	6992	6992	6992	7137	6992	7137	6992	6992	6992	6992	6992	6992	6992	6992	6992	6853	6853	6720	6720	6720	6720	6853	6853	6853	6992	6992	6992	6992	6992	6992	6992	6992	7137	7137	7137	6992	6992	6992	6992	6992	6992	6992	6992	0	0	0	7137	7137	7137	7137	6992	7137	6992	6992	7137	6992	6992	6992	6992	6992	6853	6853	6853	6853	6853	6853	0	0	0	0	0	0	0	6992	6992	7137	7137	7137	7137	7137	6992	6992	6992	6992	6992	6992	6992	6992	0	0	3779	3779	3779	3738	3738	3738	3738	3738	3738	3698	3738	3738	3738	3738	3738	3779	3779	3738	3738	3738	3738	3738	0	6992	6853	6992	6853	6853	6992	6720	6720	6853	6853	6992	6992	6992	6992	6992	6992	6992	6853	6720	6720	6853	6853	6853	6853	6853	6853	6992	6992	6853	6853	6853	6853	6853	6720	6720	6853	6853	6992	7287	7287	0	0	0	0	0	0	0	0	0	0	0	0	0	0	0	0	0	0	0	0	0	0	0	0	0	0	0	0	0	0	0	0	0	0	0	0	0	0	0	0	0	0	930	930	927	922	917	915	913	910	910	908	905	903	901	898	896	896	891	889	887	884	884	882	882	880	875	875	875	873	873	871	869	869	867	865	858	858	856	854	854	852	852	852	852	850	850	850	850	848	848	848	845	848	848	850	850	850	848	848	845	848	845	841	843	843	0	0	0	0	0	0	0	0	0	0	843	841	839	837	837	837	833	829	825	821	821	819	817	815	812	806	806	804	804	802	800	798	798	797	797	795	793	789	789	788	788	786	786	786	784	784	782	779	775	775	775	775	775	773	773	772	773	773	770	768	767	767	765	765	765	763	763	761	763	761	761	760	760	760	760	761	761	761	761	763	763	763	761	761	761	760	761	760	761	761	760	760	760	760	760	760	760	761	761	761	761	760	760	760	761	761	761	0	0	0	0	0	0	0	0	0	0	0	0	0	0	0	0	0	0	0	0	0	0	0	0	0	0	0	0	0	0	0	0	0	0	0	0	0	0	0	0	0	0	0	0	0	0	0	0	0
0	0	0	0	0	0	0	0	0	0	0	1331	1331	1336	1326	1326	1326	1331	1336	1347	1352	1358	1363	1374	1374	1374	1374	1374	1374	1379	1374	1374	1374	1368	1374	1374	1374	1374	1374	1368	1374	1374	1374	1374	1379	1379	1379	1385	1379	1385	1390	1402	1396	1402	1425	1431	1431	1437	1443	1449	1443	1443	0	0	0	0	0	0	0	0	0	0	0	0	0	0	0	0	0	0	0	0	0	0	0	1925	1925	1925	1915	1915	1915	1925	1936	1936	1936	1947	1969	1969	1980	1980	1980	0	0	0	0	0	0	0	0	0	2114	2127	2114	2114	2114	2114	2114	2114	2101	2114	2127	2127	2127	2127	2114	2127	2127	2114	2114	2127	2127	2127	2127	2127	2127	2127	2127	2127	2127	2114	2127	2114	2114	2114	2114	2114	2114	2114	2101	2127	2114	2101	2101	2114	2114	2127	2127	2127	2127	2127	2114	2114	2114	2114	2114	2101	2101	2101	2101	2088	2088	2088	2101	2101	2127	2140	2153	2167	2181	2181	2194	2208	2208	2223	2237	2252	2252	2281	2297	2359	2359	2359	2376	2392	2409	2426	2443	2443	2460	2460	2496	2496	0	0	0	0	0	0	0	0	0	0	0	0	0	0	0	0	0	0	0	6992	6853	6992	6992	6992	6992	6992	7137	7137	7137	6992	6992	6992	6992	6992	6992	6992	6992	6992	6853	6853	6853	6853	6853	6853	6853	6992	6992	6992	6992	6992	6992	6992	6992	7137	6992	7137	7137	7137	6992	6992	6992	6992	6992	6992	6992	6992	0	0	0	7137	7287	7137	7137	7137	7137	6992	6992	7137	6992	6992	6992	0	6992	6992	6853	6853	0	0	0	0	0	0	0	0	0	0	0	0	0	0	7137	7137	7137	6992	7137	6992	6992	6992	6992	6992	6992	0	0	0	3779	3779	3738	3738	3738	3738	3738	3738	3738	3738	3738	3738	3738	3779	3779	3779	3779	3738	3738	3779	3779	0	7137	7137	6992	6992	6992	6992	6992	6992	6992	6992	6992	6992	6992	6992	6992	6992	6992	6853	6720	6720	6853	6853	6853	6853	6992	6992	7137	6992	6992	6992	6992	6992	6992	6853	6853	6992	6992	6992	7287	7137	7137	0	0	0	0	0	0	0	0	0	0	0	0	0	0	0	0	0	0	0	0	0	0	0	0	0	0	0	0	0	0	0	0	0	0	0	0	0	0	0	0	0	930	930	930	925	920	917	913	910	910	910	905	901	901	898	896	896	894	891	887	884	884	884	882	882	875	875	875	873	873	871	869	867	867	865	858	858	858	856	856	854	854	852	852	850	850	850	848	848	848	845	845	848	848	848	848	848	848	848	848	850	848	843	845	850	850	0	0	0	0	0	0	0	0	843	843	839	839	835	837	835	833	829	825	821	817	817	815	814	808	806	804	802	802	800	798	798	797	797	795	795	793	791	789	788	788	788	786	786	786	784	782	780	777	775	775	775	775	773	775	775	775	773	772	768	768	767	767	765	765	765	763	763	763	763	761	761	760	760	760	761	760	761	761	761	761	761	761	761	761	761	761	761	761	761	761	761	760	760	761	760	760	761	761	761	761	760	760	760	761	761	761	0	0	0	0	0	0	0	0	0	0	0	0	0	0	0	0	0	0	0	0	0	0	0	0	0	0	0	0	0	0	0	0	0	0	0	0	0	0	0	0	0	0	0	0	0	0	0	0	0
0	0	0	0	0	0	0	0	0	0	0	0	1326	1326	1326	1326	1326	1326	1331	1347	1352	1358	1368	1379	1379	1379	1379	1379	1379	1379	1379	1385	1385	1379	1379	1385	1379	1379	1374	1374	1374	1374	1374	1379	1379	1379	1379	1385	1385	1390	1396	1402	1402	1407	1425	1431	1431	1437	1443	1449	1443	1443	0	0	0	0	0	0	0	0	0	0	0	0	0	0	0	0	0	0	0	0	0	0	1863	1883	1883	1894	1904	1915	1915	1925	1936	1936	1947	1958	1958	1969	1969	1969	1980	1980	0	0	0	0	0	0	0	0	2114	2114	2114	2114	2114	2114	2114	2101	2101	2101	2127	2127	2114	2114	2114	2114	2127	2114	2114	2114	2127	2127	2127	2127	2127	2127	2127	2127	2127	2114	2114	2114	2114	2114	2114	2114	2114	2114	2101	2114	2114	2101	2101	2114	2127	2127	2127	2127	2127	2127	2114	2114	2114	2114	2101	2088	2088	2088	2088	2088	2088	2088	2101	2101	2127	2140	2140	2167	2181	2181	2194	2208	2208	2223	2237	2252	2266	2281	2297	2359	2359	2359	2376	2392	2426	2443	2443	2460	2460	2478	2496	2496	0	0	0	0	0	0	0	0	0	0	0	0	0	0	0	0	0	0	0	6853	6992	6992	6992	6992	6992	6992	7137	7137	6992	6992	6992	6992	6992	6992	6992	6992	6992	6992	6853	6853	6853	6853	6853	6992	6992	6992	6992	6992	6992	6992	6992	6992	6992	6992	6992	7137	7137	7137	6992	6992	6992	6992	6992	6992	6992	0	0	0	0	0	7287	7287	7137	7137	7137	6992	6992	6992	6992	6992	6992	6992	6992	6992	6992	6853	0	0	0	0	0	0	0	0	0	0	0	0	0	0	0	0	0	6992	7137	7137	7137	7137	7137	7137	6992	0	0	0	3779	3779	3779	3779	3738	3738	3738	3738	3738	3738	3738	3779	3779	3779	3779	3779	3779	3779	3779	3779	3779	3779	7137	7137	7137	7137	7137	6992	6992	6992	6992	6992	6992	6992	6992	6992	6992	6992	6992	6853	6720	6992	7137	6992	6992	6992	6992	6992	7137	7137	6992	7137	6992	6992	6992	6992	6992	6992	6992	7137	7287	7287	7137	0	0	0	0	0	0	0	0	0	0	0	0	0	0	0	0	0	0	0	0	0	0	0	0	0	0	0	0	0	0	0	0	0	0	0	0	958	958	958	0	0	930	930	927	922	920	917	915	910	910	910	905	903	901	898	896	896	894	889	887	884	884	884	882	882	878	875	873	873	873	871	867	867	865	865	858	858	858	856	856	854	854	852	852	850	850	850	848	845	845	848	848	848	848	848	848	848	848	850	848	850	848	845	845	850	850	0	0	0	0	0	0	0	845	843	843	839	839	835	835	835	833	827	825	821	817	817	815	812	810	806	804	802	802	800	798	798	797	797	795	797	795	793	791	789	789	788	786	786	786	784	782	780	779	777	777	775	777	775	775	775	775	773	772	770	768	768	768	767	767	765	765	765	763	763	763	761	761	760	761	761	761	761	761	761	761	761	761	761	761	763	761	763	763	763	761	761	760	761	761	761	761	761	763	763	763	760	760	761	761	761	761	0	0	0	0	0	0	0	0	0	0	0	0	0	0	0	0	0	0	0	0	0	0	0	0	0	0	0	0	0	0	0	0	0	0	0	0	0	0	0	0	0	0	0	0	0	0	0	0	0
0	0	0	0	0	0	0	0	0	0	0	1331	1326	1326	1326	1326	1326	1331	1331	1342	1347	1358	1363	1374	1374	1379	1379	1379	1385	1385	1390	1390	1396	1396	1396	1396	1385	1385	1385	1379	1379	1379	1379	1379	1385	1385	1385	1390	1390	1396	1402	1407	1407	1413	1425	1431	1431	1437	1443	1449	1443	1449	1455	1455	0	0	0	0	0	0	0	0	0	0	0	0	0	0	0	0	0	0	0	0	1863	1873	1883	1883	1894	1904	1915	1925	1936	1947	1947	1958	1969	1969	1969	1969	1980	1980	0	0	0	0	0	0	0	0	2114	2114	2114	2114	2101	2114	2114	2101	2101	2101	2114	2127	2114	2114	2114	2114	2127	2114	2114	2114	2127	2127	2140	2127	2127	2127	2127	2127	2127	2114	2114	2101	2101	2114	2114	2114	2114	2101	2101	2114	2114	2114	2114	2114	2127	2127	2127	2127	2127	2127	2114	2101	2114	2114	2101	2101	2088	2101	2101	2088	2088	2088	2101	2101	2127	2127	2140	2153	2181	2181	2181	2194	2208	2208	2223	2237	2266	2266	2281	2359	2359	2376	2376	2392	2426	2443	2460	2460	2460	2478	2496	2496	0	0	0	0	0	0	0	0	0	0	0	0	0	0	0	0	0	0	0	6992	6992	6992	6992	6992	6992	6992	6992	7137	7137	7137	6992	6992	7137	7137	6992	6992	6992	6992	6992	7137	6992	6992	6992	6992	6992	6992	6992	6992	6992	6992	6992	6992	7137	7137	7137	7137	7137	7137	6992	7137	6992	6992	6992	6992	6992	0	0	0	0	0	7287	7444	7287	7287	7137	6992	6992	6992	6992	0	0	6992	6992	6992	6992	0	0	0	0	0	0	0	0	0	0	0	0	0	0	0	0	0	0	7137	7137	6992	7137	7137	7137	7137	0	0	0	0	3864	3821	3779	3779	3779	3779	3738	3779	3738	3738	3779	3779	3779	3779	3779	3779	3779	3779	3779	3779	3779	3779	7137	7137	7137	7137	7137	7137	7137	6992	6992	6992	6992	6992	6992	6992	6992	6992	6992	6992	6853	6992	7137	7137	6992	7137	7137	7137	7137	7137	6992	7137	6992	6992	6992	6992	6992	7137	6992	7137	7287	7287	0	0	0	0	0	0	0	0	0	0	0	0	0	0	0	0	0	0	0	0	0	0	0	0	0	0	0	0	0	0	0	0	0	0	0	0	0	950	950	950	950	930	927	925	925	920	920	915	913	913	910	910	908	903	901	898	896	894	891	889	887	887	884	884	882	882	880	875	875	873	873	871	869	869	867	865	862	860	858	858	856	856	854	854	852	850	850	848	848	845	848	848	848	848	848	848	848	848	848	848	848	850	848	845	845	848	848	0	0	0	0	0	0	845	845	843	841	839	837	835	835	835	827	825	823	821	819	819	815	814	812	806	806	804	804	800	798	798	797	797	795	795	795	793	791	789	788	788	788	786	786	784	782	780	779	779	779	777	777	777	775	775	775	775	775	772	772	770	770	768	767	765	767	765	763	763	765	763	763	761	761	761	761	763	763	761	761	763	763	763	763	763	763	765	765	765	763	763	761	761	761	760	760	761	763	763	763	761	761	761	763	763	763	0	0	0	0	0	0	0	0	0	0	0	0	0	0	0	0	0	0	0	0	0	0	0	0	0	0	0	0	0	0	0	0	0	0	0	0	0	0	0	0	0	0	0	0	0	0	0	0	0
0	0	0	0	0	0	0	0	0	0	0	1331	1331	1331	1326	1331	1331	1331	1336	1347	1352	1358	1363	1374	1374	1379	1385	1385	1385	1390	1390	1396	1396	1396	1396	1396	1396	1390	1390	1385	1385	1385	1385	1390	1390	1396	1396	1402	1402	1413	1419	1419	1419	1419	1425	1431	1431	1437	1449	1455	1449	1461	1467	1467	1467	1467	0	0	0	0	0	0	0	0	0	0	0	0	0	0	0	0	0	1873	1863	1863	1873	1883	1883	1904	1915	1925	1936	1947	1947	1947	1958	1969	1980	1980	1992	1992	0	0	0	0	0	0	0	0	0	2114	2114	2114	2114	2114	2114	2101	2101	2101	2114	2114	2114	2114	2114	2114	2127	2127	2127	2127	2127	2127	2140	2127	2127	2127	2127	2127	2114	2101	2101	2101	2101	2101	2101	2101	2101	2114	2114	2114	2114	2114	2114	2114	2114	2127	2127	2127	2127	2114	2114	2101	2114	2114	2101	2101	2101	2088	2088	2088	2088	2088	2101	2114	2127	2127	2140	2153	2167	2181	2181	2194	2194	2194	2223	2237	2266	2266	2281	2297	2312	2376	2376	2443	2443	2460	2460	2460	2460	2478	2496	2532	2532	0	0	0	0	0	0	0	0	0	0	0	0	0	0	0	0	0	0	7137	6992	6992	6992	7137	6992	7137	6992	7137	6992	6992	6992	6992	6992	6992	6992	6992	6992	7137	7137	7137	7137	7137	7137	7137	7137	7137	7137	7137	7137	7137	7137	7137	7137	7137	7137	7137	7137	7137	7137	7137	7137	6992	6992	6992	6992	0	0	0	0	0	7287	7287	7287	7137	6992	6992	6992	6992	7137	7137	0	0	0	0	0	0	0	0	0	0	0	0	0	0	7137	7137	0	0	0	0	0	0	0	6992	6992	6992	6992	6992	6992	6992	0	0	0	3779	3821	3821	3779	3779	3779	3779	3779	3779	3738	3779	3779	3779	3779	3821	3821	3821	3821	3779	3779	3779	3779	3779	0	7287	7287	7287	7137	7137	7137	7137	6992	6992	6992	6992	7137	7137	7137	7137	7137	7137	7137	7137	7137	7137	7137	7137	7137	7137	7137	7137	7137	7137	6992	6992	6992	6992	6992	7137	7137	7137	7287	7287	0	0	0	0	0	0	0	0	0	0	0	0	0	0	0	0	0	0	0	0	0	0	0	0	0	0	0	0	0	0	0	0	0	0	0	0	0	953	953	953	940	935	930	925	922	920	915	915	913	910	910	910	908	905	901	898	896	894	894	889	889	889	887	884	882	882	880	875	873	873	873	873	871	869	867	865	860	860	858	858	856	858	856	856	850	848	848	848	848	848	848	848	848	848	848	848	848	848	848	850	850	850	850	848	848	850	856	856	0	0	858	858	843	845	843	843	841	839	837	835	833	831	827	825	823	821	819	821	817	814	812	808	806	804	804	802	800	798	797	797	795	795	795	793	793	789	789	789	788	788	786	784	784	782	782	780	780	777	777	777	775	775	777	775	775	775	773	772	773	772	770	767	768	768	765	768	767	767	767	767	767	765	763	763	763	761	765	763	763	763	763	765	763	765	765	765	763	763	761	763	761	761	761	761	763	763	763	763	763	763	765	765	765	0	0	0	0	0	0	0	0	0	0	0	0	0	0	0	0	0	0	0	0	0	0	0	0	0	0	0	0	0	0	0	0	0	0	0	0	0	0	0	0	0	0	0	0	0	0	0	0	0
0	0	0	0	0	0	0	0	0	0	0	1331	1331	1331	1331	1331	1331	1352	1352	1358	1363	1358	1363	1368	1374	1379	1385	1385	1390	1396	1396	1402	1402	1402	1402	1402	1402	1396	1396	1390	1390	1390	1396	1402	1402	1407	1407	1407	1407	1413	1419	1419	1419	1419	1425	1431	1431	1431	1449	1455	1455	1461	1473	1473	1480	1480	1486	1486	0	0	0	0	0	0	0	0	0	0	0	0	0	0	0	1863	1853	1863	1873	1883	1894	1915	1925	1936	1947	1947	1947	1958	1958	1969	1980	1980	2015	2015	2027	2027	0	0	0	0	0	0	0	2114	2101	2114	2101	2101	2114	2101	2101	2101	2114	2114	2114	2114	2114	2114	2127	2127	2127	2127	2127	2140	2140	2127	2127	2127	2127	2127	2114	2101	2101	2101	2101	2127	2114	2114	2114	2114	2114	2114	2114	2114	2114	2114	2114	2127	2114	2114	2114	2114	2101	2114	2114	2114	2114	2101	2101	2101	2101	2088	2088	2088	2101	2114	2127	2127	2140	2153	2167	2181	2181	2194	2194	2194	2208	2252	2266	2281	2297	2297	2312	2312	2359	2443	2443	2443	2460	2460	2460	2478	2514	2514	2532	0	0	0	0	0	0	0	0	0	0	0	0	0	0	0	0	0	7287	7137	7137	7137	7137	7137	7137	7137	7137	7137	7137	7137	7137	6992	6992	7137	6992	6992	7137	7137	7137	7137	7137	7137	7137	7137	7137	7137	7137	7137	7137	7137	7137	7137	7137	7287	7287	7287	7287	7137	7137	7137	7137	6992	6992	6992	6992	0	0	7287	7287	0	7287	7287	7287	7287	7137	7137	7137	7137	7137	7137	0	0	7137	7137	0	0	0	6992	6992	6992	7137	7137	0	0	7137	7137	0	0	0	0	0	0	0	6992	6992	6992	6992	7137	7137	7137	7137	7137	0	3821	3821	3821	3779	3779	3779	3779	3779	3779	3779	3779	3779	3779	3821	3821	3821	3864	3864	3821	3821	3821	3821	3821	3821	3821	7287	7287	7287	7287	7287	7137	7287	7137	7137	7137	7137	7137	7137	7137	7137	7137	7137	7137	7137	7137	7137	7137	7137	7137	7137	7137	7137	7137	6992	7137	7137	7137	7137	7137	7137	7137	7287	7137	7137	0	0	0	0	0	0	0	0	0	0	0	0	0	0	0	0	0	0	0	0	0	0	0	0	0	0	0	0	0	0	0	0	0	0	0	0	950	950	950	940	935	930	927	922	920	915	915	913	910	910	910	908	903	901	896	896	894	891	891	889	889	884	884	882	882	880	875	873	873	873	873	871	869	867	867	865	860	858	856	856	856	856	852	850	848	848	848	848	848	848	848	848	848	848	848	848	848	850	850	850	850	850	848	850	854	856	858	862	860	858	856	852	845	843	841	841	837	835	833	831	829	825	825	823	821	819	819	815	814	812	806	806	804	804	802	800	798	797	797	797	795	795	795	793	791	789	789	788	788	788	786	788	786	784	784	782	780	777	777	777	777	777	777	777	775	775	775	775	773	772	772	770	772	772	772	770	770	770	772	772	772	768	768	768	765	767	765	763	765	763	765	763	765	765	765	765	763	761	765	763	763	763	763	765	765	765	770	768	768	768	770	770	0	0	0	0	0	0	0	0	0	0	0	0	0	0	0	0	0	0	0	0	0	0	0	0	0	0	0	0	0	0	0	0	0	0	0	0	0	0	0	0	0	0	0	0	0	0	0	0	0
0	0	0	0	0	0	0	0	0	0	0	1331	1336	1331	1331	1331	1336	1336	1342	1352	1352	1358	1358	1368	1374	1374	1385	1385	1390	1396	1402	1402	1407	1407	1407	1407	1407	1413	1413	1419	1419	1407	1407	1419	1413	1413	1419	1413	1419	1419	1425	1425	1425	1425	1431	1431	1431	1437	1449	1461	1455	1467	1473	1473	1480	1480	1480	1480	1480	1480	0	0	0	0	0	0	0	0	0	0	0	0	1863	1873	1863	1873	1883	1894	1894	1904	1915	1925	1936	1947	1947	1958	1958	1980	1980	2003	2015	2015	2015	2015	2015	2015	0	0	0	0	0	2114	2101	2101	2101	2114	2114	2101	2101	2101	2127	2114	2127	2114	2114	2114	2114	2127	2127	2127	2127	2127	2127	2127	2127	2127	2127	2114	2114	2114	2101	2101	2101	2127	2114	2114	2114	2114	2114	2114	2114	2114	2114	2114	2114	2114	2114	2114	2127	2114	2114	2114	2114	2114	2114	2101	2101	2101	2101	2088	2088	2088	2101	2101	2114	2127	2140	2153	2167	2181	2181	2194	2194	2194	2208	2208	2252	2281	2297	2312	2312	2359	2359	2426	2443	2443	2460	2460	2460	2496	2496	2496	0	0	0	0	0	0	0	0	0	0	0	0	0	0	0	0	0	6992	6992	7137	7137	7137	7137	7287	7287	7287	7137	7137	7137	7137	7137	7137	7137	7137	7137	7137	7137	7137	7137	7137	7137	7137	7137	7137	7137	7137	7137	7137	7137	7137	7137	7137	7287	7287	7287	7287	7287	7137	7137	7137	7137	7137	7137	7137	7137	0	7287	7287	7287	7287	7287	7287	7287	7287	7287	7137	7287	7287	7137	7137	7287	7287	7137	7137	6992	6992	6992	6992	6992	7137	7137	7137	7137	7287	7137	7137	7137	6992	6992	6992	6992	6992	6992	6992	6992	6992	6992	6992	7137	7137	7137	7137	3821	3821	3821	3821	3779	3779	3779	3779	3779	3779	3779	3779	3779	3779	3821	3821	3821	3821	3821	3821	3821	3821	3779	3779	3779	3779	0	7444	7287	7444	7287	7287	7287	7137	7137	7137	7137	7137	7137	7137	7137	7137	7137	7137	7137	7137	7137	7137	7137	7137	7137	7137	7137	7137	7137	7137	7137	7137	7137	7137	7137	7137	7137	7137	7287	7287	7287	0	0	0	0	0	0	0	0	0	0	0	0	0	0	0	0	0	0	0	0	0	0	0	0	0	0	0	0	0	0	0	0	0	0	950	948	942	937	935	932	927	922	920	915	915	913	910	910	910	908	903	901	898	896	894	894	891	889	889	887	884	882	882	880	875	873	873	873	871	869	867	867	867	865	862	860	858	858	858	856	854	850	848	850	850	850	848	850	850	850	848	848	848	848	848	850	850	850	850	848	848	848	852	858	858	860	858	858	856	854	848	843	841	837	835	833	831	829	827	823	823	821	821	819	817	815	814	812	808	806	804	804	802	800	798	797	797	797	795	795	795	793	791	791	791	789	789	789	788	788	788	786	786	782	782	780	780	780	780	780	779	779	779	779	777	775	775	773	773	773	773	773	773	773	773	773	773	775	775	768	770	768	767	767	765	765	765	763	763	763	765	765	765	767	765	763	767	765	765	765	765	767	767	770	770	770	768	770	770	770	0	0	0	0	0	0	0	0	0	0	0	0	0	0	0	0	0	0	0	0	0	0	0	0	0	0	0	0	0	0	0	0	0	0	0	0	0	0	0	0	0	0	0	0	0	0	0	0	0
0	0	0	0	0	0	0	0	0	0	0	1331	1336	1331	1331	1336	1336	1336	1342	1358	1358	1358	1363	1368	1368	1374	1379	1385	1396	1402	1407	1407	1407	1407	1407	1419	1413	1419	1425	1425	1419	1425	1425	1425	1419	1419	1419	1425	1425	1425	1425	1425	1425	1431	1431	1431	1431	1437	1449	1449	1449	1461	1467	1473	1473	1473	1473	1480	1480	1480	0	0	0	0	0	0	0	0	0	0	0	0	1863	1863	1863	1873	1883	1883	1883	1894	1904	1925	1936	1947	1947	1958	1969	1980	1992	2003	2015	2015	2015	2015	2015	2003	2003	0	0	0	0	2088	2088	2088	2088	2101	2101	2088	2088	2101	2101	2114	2114	2114	2114	2127	2127	2127	2127	2127	2127	2127	2127	2127	2127	2127	2127	2114	2114	2114	2127	2127	2127	2101	2114	2101	2101	2114	2114	2114	2114	2114	2114	2114	2114	2114	2114	2114	2127	2114	2114	2114	2114	2114	2114	2101	2114	2101	2101	2088	2088	2088	2101	2101	2114	2127	2140	2153	2181	2181	2181	2194	2194	2208	2208	2237	2252	2281	2297	2312	2312	2312	2426	2426	2426	2443	2443	2443	2460	2478	2514	2514	0	0	0	0	0	0	0	0	0	0	0	6992	6992	6992	0	0	6992	7137	7287	7287	7137	7137	7287	7287	7287	7287	7137	7137	7137	7137	7137	7137	7137	7137	7137	7137	7137	7137	6992	6992	7137	7137	7137	7137	7137	7137	7137	7137	7137	7137	7137	7137	7287	7287	7287	7287	7287	7137	7137	7137	7137	7137	7287	7287	7444	7444	7287	7287	7287	7287	7287	7287	7287	7287	7287	7287	7444	7287	7287	7137	7137	7287	7137	7137	7137	6992	6992	6992	7137	7137	7137	7137	7137	7287	7137	7137	7137	6992	7137	6992	6992	6992	6992	6992	6992	6992	6992	6992	6992	6992	3864	3864	3864	3821	3821	3821	3821	3779	3779	3779	3779	3779	3779	3779	3779	3779	3821	3821	3821	3821	3821	3821	3779	3779	3779	3779	3779	3779	0	7287	7287	7137	7137	7287	7287	7137	7137	7137	7287	7137	7137	7137	7137	7137	7137	7137	7137	7137	7137	7137	7137	7137	7137	7137	7137	7137	7137	7137	7137	7137	7137	7137	7137	7137	7137	7137	7137	7287	7287	0	0	0	0	0	0	0	0	0	0	0	0	0	0	0	0	0	0	0	0	0	0	0	0	0	0	0	0	0	0	0	0	0	0	948	945	940	940	935	932	927	922	920	917	915	913	913	910	910	908	903	901	898	896	896	894	891	891	889	889	887	884	884	882	875	873	873	871	869	869	867	867	865	865	862	860	860	858	858	856	854	852	850	850	848	848	848	848	850	850	848	848	848	848	848	850	848	850	850	848	848	848	852	858	856	858	858	858	854	852	848	841	839	837	833	833	831	827	827	823	823	821	821	819	817	817	814	812	810	808	806	804	802	800	800	798	797	797	795	795	795	795	793	791	793	789	791	789	789	789	789	788	788	786	786	786	782	782	782	780	780	779	779	779	777	777	777	775	775	775	775	775	775	775	775	775	775	775	777	775	773	770	768	768	767	767	767	765	765	763	765	765	765	765	765	765	767	767	768	768	767	767	770	770	770	770	768	772	772	773	0	0	0	0	0	0	0	0	0	0	0	0	0	0	0	0	0	0	0	0	0	0	0	0	0	0	0	0	0	0	0	0	0	0	0	0	0	0	0	0	0	0	0	0	0	0	0	0	0
0	0	0	0	0	0	0	0	0	0	0	1347	1342	1336	1336	1342	1342	1342	1347	1358	1358	1358	1358	1363	1368	1374	1379	1385	1396	1402	1407	1407	1407	1407	1407	1407	1413	1419	1425	1425	1425	1437	1437	1431	1431	1425	1431	1431	1431	1431	1431	1431	1431	1431	1437	1437	1437	1437	1449	1449	1455	1467	1467	1473	1473	1473	1473	1473	1480	1480	0	0	0	0	0	0	0	0	0	0	0	0	0	1863	1863	1873	1873	1883	1894	1904	1925	1947	1947	1947	1958	1958	1969	1980	1992	2003	2015	2015	2015	2015	2015	2015	2015	0	2076	2076	2076	2076	2076	2088	2088	2088	2101	2101	2101	2101	2114	2114	2127	2127	2127	2127	2140	2140	2127	2127	2127	2127	2127	2127	2127	2127	2127	2127	2114	2114	2127	2127	2127	2101	2101	2114	2114	2114	2127	2127	2127	2127	2127	2127	2114	2114	2114	2114	2127	2114	2114	2114	2127	2114	2114	2114	2114	2101	2101	2101	2101	2101	2114	2101	2127	2140	2140	2153	2181	2181	2181	2194	2194	2208	2223	2237	2252	2281	2297	2312	2327	2359	2376	2426	2426	2426	2443	2443	2460	2478	2478	2514	0	0	0	0	0	0	7444	7444	7444	7137	6992	6992	7137	7137	7137	6992	7137	7137	7287	7287	7287	7287	7287	7287	7287	7287	7287	7137	7137	7287	7287	7287	7137	7287	7137	7137	7137	7137	7137	6992	7137	7137	7137	7137	7137	7137	7137	7137	7137	7137	7137	7287	7287	7444	7444	7287	7287	7287	7287	7287	7287	7287	7287	7444	7444	7444	7287	7287	7137	7137	7137	7137	7137	7137	7137	7137	7137	7287	7444	7287	7287	7287	7137	7137	7137	7137	6992	6992	7137	7137	7137	7137	7137	7287	7137	7137	7137	7137	7137	7137	7137	7137	7137	7137	7137	6992	6992	7137	7137	3907	3907	3864	3907	3864	3821	3821	3821	3821	3821	3779	3779	3779	3779	3779	3779	3779	3779	3779	3779	3779	3779	3779	3779	3779	3779	3779	3779	3779	3779	3779	3779	3779	3779	3779	7287	7137	7137	7137	7137	7137	7137	7137	7137	7137	7137	7137	7137	7137	7137	7137	7137	7137	7137	7137	7137	7137	7137	7137	7137	7137	7137	7137	7137	7137	7287	7137	7137	7287	7287	0	0	0	0	0	0	0	0	0	0	0	0	0	0	0	0	0	0	0	0	0	0	0	0	0	0	0	0	0	0	0	0	0	0	948	945	940	940	935	930	930	922	920	917	915	913	913	910	910	908	903	901	898	896	894	894	891	891	889	889	887	884	882	882	875	873	871	871	871	869	867	867	865	862	862	862	860	860	858	858	856	852	852	852	850	850	850	850	850	850	848	848	848	848	848	848	848	850	850	848	848	850	854	856	856	858	856	856	854	850	848	843	839	835	833	831	829	827	825	823	823	823	821	821	819	817	815	814	812	808	806	804	802	802	800	798	797	797	795	795	795	793	795	793	793	793	793	791	789	789	789	789	788	788	786	786	784	782	782	780	780	780	780	780	779	779	779	777	775	775	775	775	775	775	775	775	775	775	777	775	775	772	770	768	768	768	768	767	767	765	767	767	767	767	765	765	767	768	768	768	767	768	770	770	770	770	770	773	773	773	0	0	0	0	0	0	0	0	0	0	0	0	0	0	0	0	0	0	0	0	0	0	0	0	0	0	0	0	0	0	0	0	0	0	0	0	0	0	0	0	0	0	0	0	0	0	0	0	0
0	0	0	0	0	0	0	0	0	0	0	1347	1347	1347	1347	1347	1347	1347	1352	1358	1363	1363	1363	1363	1368	1374	1379	1385	1396	1407	1407	1407	1413	1407	1413	1407	1419	1419	1425	1425	1425	1437	1437	1437	1437	1431	1437	1437	1437	1437	1437	1437	1437	1437	1437	1437	1443	1443	1449	1455	1455	1461	1467	1467	1467	1467	1473	1473	1473	1473	0	0	1525	1525	1525	1525	0	0	0	0	0	0	0	1873	1873	1873	1873	1894	1894	1904	1925	1958	1958	1958	1958	1958	1980	1992	1992	2003	2003	2003	2015	2015	2015	2015	2015	2015	2076	2088	2088	2076	2088	2088	2088	2088	2101	2101	2101	2101	2127	2127	2127	2127	2127	2140	2140	2140	2127	2127	2127	2127	2127	2127	2127	2127	2127	2127	2114	2101	2127	2127	2127	2127	2114	2114	2114	2127	2127	2127	2127	2114	2127	2127	2114	2114	2114	2114	2127	2127	2114	2127	2127	2114	2114	2114	2114	2101	2101	2101	2101	2101	2114	2114	2127	2127	2140	2140	2167	2181	2181	2194	2194	2208	2237	2237	2266	2281	2312	2312	2327	2376	2409	2426	2426	2443	2443	2443	2460	2460	2478	0	0	0	0	0	7444	7444	7444	7444	7287	7287	7137	6992	7137	7137	7137	7287	7137	7287	7444	7287	7287	7287	7287	7287	7287	7444	7287	7287	7287	7287	7287	7287	7287	7137	7287	7287	7287	7137	7137	6992	7137	7137	7137	7137	7137	7137	7137	7137	7137	7137	7137	7287	7287	7444	7444	7444	7444	7287	7444	7444	7444	7444	7444	7444	7444	7444	7287	7287	7137	7137	7137	7137	7137	7137	7137	7287	7287	7444	7444	7287	7444	7444	7287	7287	7137	7137	7137	7137	7137	7137	7137	7137	7287	7287	7287	7287	7137	7137	7137	7137	7137	7137	7137	7137	7137	6992	6992	7137	7137	3907	3864	3864	3907	3864	3864	3821	3821	3821	3821	3779	3779	3779	3779	3779	3779	3779	3779	3779	3779	3779	3779	3779	3779	3779	3779	3779	3779	3779	3779	3779	3779	3779	3779	3779	3779	3738	3738	7137	7137	7137	7137	7137	7137	7137	7137	7137	7137	7137	7287	7287	7137	7287	7287	7287	7137	7137	7137	7137	7137	7137	7137	7137	7287	7137	7287	7137	7137	7137	7137	0	0	0	0	0	0	0	0	0	0	0	0	0	0	0	0	0	0	0	0	0	0	0	0	0	0	0	0	0	0	0	0	0	0	0	0	0	942	940	935	932	930	920	915	915	913	913	910	910	905	903	903	901	896	896	894	891	891	889	889	884	884	882	880	878	873	873	873	871	869	869	867	865	862	862	862	858	860	858	858	856	852	852	852	852	850	850	850	850	850	848	848	848	848	848	848	848	850	850	848	848	850	856	856	856	856	854	856	852	850	845	843	839	835	833	831	829	827	825	823	823	823	821	821	819	819	817	814	812	814	806	804	804	802	802	798	798	797	797	795	795	797	795	793	793	793	793	791	791	789	789	789	788	788	788	788	784	782	782	780	780	780	780	780	779	779	779	777	777	777	775	775	775	773	773	773	775	775	775	775	775	773	772	770	768	768	768	768	767	767	767	767	767	767	767	767	767	768	768	768	768	770	772	772	772	770	770	772	773	773	0	0	0	0	0	0	0	0	0	0	0	0	0	0	0	0	0	0	0	0	0	0	0	0	0	0	0	0	0	0	0	0	0	0	0	0	0	0	0	0	0	0	0	0	0	0	0	0	0
0	0	0	0	0	0	0	0	0	0	0	1352	1352	1352	1352	1352	1352	1352	1352	1363	1363	1363	1363	1368	1374	1374	1374	1390	1390	1402	1407	1413	1413	1413	1413	1419	1425	1425	1431	1431	1437	1443	1443	1443	1443	1437	1437	1437	1437	1437	1437	1443	1437	1443	1443	1443	1449	1449	1455	1449	1455	1461	1461	1467	1467	1467	1473	1473	1486	1486	1486	1512	1525	1525	1525	1525	1525	0	0	0	0	0	0	1863	1863	1863	1863	1883	1883	1904	1936	1947	1947	1958	1958	1969	1980	1992	1992	2003	2003	2003	2015	2015	2015	2015	2039	2063	2076	2076	2076	2076	2088	2088	2101	2101	2101	2114	2101	2101	2127	2127	2127	2127	2127	2140	2140	2140	2140	2127	2127	2127	2127	2127	2127	2127	2127	2127	2114	2114	2127	2114	2114	2114	2114	2114	2114	2127	2127	2127	2127	2127	2127	2127	2127	2127	2127	2127	2127	2127	2114	2127	2127	2127	2114	2114	2114	2114	2114	2101	2101	2114	2114	2114	2127	2127	2140	2140	2181	2181	2181	2194	2194	2208	2237	2252	2266	2281	2312	2312	2327	2376	2409	2426	2426	2426	2426	2443	2443	2460	2460	0	0	0	0	0	7444	7444	7444	7444	7287	7137	7137	6992	6992	7137	7137	7137	7137	7287	7444	7444	7444	7444	7444	7444	7444	7444	7444	7287	7287	7444	7444	7444	7287	7287	7287	7287	7137	7137	6992	6992	7137	7137	7137	7137	7137	7137	7287	7287	7287	7287	7287	7287	7444	7444	7444	7444	7444	7287	7444	7287	7444	7444	7444	7444	7444	7444	7444	7287	7287	7137	7137	7137	7137	7137	7137	7287	7444	7444	7444	7444	7444	7444	7287	7287	7137	7137	7137	7137	7137	7137	7137	7287	7287	7287	7287	7287	7137	7137	7137	7137	7137	6992	7137	7137	7137	6992	6992	7137	3864	3864	3864	3864	3907	3864	3864	3821	3821	3821	3821	3779	3779	3779	3779	3779	3779	3779	3779	3779	3779	3779	3779	3779	3779	3779	3779	3779	3779	3779	3779	3779	3779	3779	3779	3779	3779	3779	3738	3738	3738	3738	7137	7137	7137	7137	7287	7287	7287	7287	7287	7287	7287	7287	7287	7287	7137	7137	7137	7137	7137	7137	7287	7137	7287	7137	7137	7137	7137	7137	7137	7137	0	0	0	0	0	0	0	0	0	0	0	0	0	0	0	0	0	0	0	0	0	0	0	0	0	0	0	0	0	0	0	0	0	0	0	0	937	935	935	932	930	927	917	917	913	913	910	908	905	903	901	901	898	896	894	894	891	889	889	887	884	884	882	880	875	875	873	873	869	867	865	865	862	860	860	860	860	858	858	856	854	852	852	852	850	850	850	850	850	850	848	848	848	848	848	848	848	850	848	848	850	850	856	854	856	854	856	850	850	848	843	841	839	833	831	829	827	825	823	823	823	821	821	819	819	817	815	815	814	810	806	804	802	800	798	798	797	798	798	797	797	795	795	795	795	795	795	793	793	791	791	791	791	789	788	786	784	784	782	780	780	780	780	780	780	780	779	779	777	775	775	775	773	773	773	775	775	775	775	775	773	772	770	768	768	768	768	768	768	768	768	768	768	768	768	768	770	770	770	770	770	772	772	772	772	770	772	773	773	0	0	0	0	0	0	0	0	0	0	0	0	0	0	0	0	0	0	0	0	0	0	0	0	0	0	0	0	0	0	0	0	0	0	0	0	0	0	0	0	0	0	0	0	0	0	0	0	0
0	0	0	0	0	0	0	0	0	0	0	1347	1352	1352	1352	1352	1352	1352	1358	1363	1368	1363	1368	1374	1379	1374	1379	1385	1390	1396	1407	1419	1419	1413	1419	1419	1425	1425	1431	1431	1443	1449	1449	1449	1449	1449	1443	1449	1449	1449	1443	1449	1449	1455	1455	1449	1455	1455	1461	1455	1455	1461	1461	1467	1467	1473	1473	1480	1486	1492	1512	1512	1525	1525	1525	1525	1539	1539	0	0	0	0	0	1863	1873	1873	1883	1894	1894	1915	1925	1958	1947	1958	1969	1980	1980	1992	1992	2003	2003	2003	2015	2015	2015	2027	2039	2063	2063	2076	2076	2076	2063	2088	2088	2114	2114	2114	2114	2114	2127	2127	2140	2127	2140	2140	2140	2140	2127	2127	2127	2127	2127	2127	2127	2127	2127	2127	2127	2114	2127	2114	2114	2114	2114	2114	2127	2127	2127	2127	2127	2127	2127	2127	2127	2127	2127	2127	2127	2127	2127	2127	2127	2127	2114	2114	2114	2114	2101	2101	2101	2114	2114	2114	2127	2127	2140	2140	2181	2181	2181	2194	2208	2223	2237	2252	2266	2297	2297	2312	2327	2376	2376	2426	2426	2426	2426	2443	2443	2443	2443	0	0	0	0	0	7444	7444	7444	7444	7287	7137	7137	6992	7137	7137	7137	7287	7287	7287	7444	7444	7444	7444	7444	7444	7287	7444	7444	7287	7287	7444	7444	7444	7287	7287	7287	7287	7287	7137	7137	6992	6992	7287	7287	7137	7137	7287	7287	7287	7287	7287	7287	7444	7444	7444	7444	7444	7444	7287	7444	7287	7444	7444	7444	7444	7444	7444	7608	7444	7444	7444	7287	7287	7444	7287	7287	7444	7444	7444	7608	7444	7444	7444	7444	7287	7287	7137	7137	7287	7137	7137	7137	7287	7287	7287	7287	7287	7137	7137	7137	7137	7137	7137	7137	7137	3821	3821	3864	3864	3864	3864	3864	3821	3864	3864	3821	3821	3779	3779	3821	3779	3821	3779	3779	3779	3779	3779	3779	3779	3779	3779	3779	3779	3779	3779	3779	3779	3779	3779	3779	3779	3779	3779	3779	3779	3779	3779	3779	3738	3738	3738	3738	7137	7137	7137	7287	7287	7287	7287	7287	7287	7287	7287	7287	7287	7137	7287	7137	7137	7287	7137	7287	7287	7287	7287	7137	7137	7137	7137	7287	7287	0	0	0	0	0	0	0	0	0	0	0	0	0	0	0	0	0	0	0	0	0	0	0	0	0	0	0	0	0	0	0	0	0	0	0	0	937	937	935	932	930	927	920	917	915	913	910	908	905	903	903	901	898	896	896	894	891	891	889	884	884	884	882	880	875	875	873	871	869	867	865	865	862	862	862	860	860	858	858	856	854	854	852	852	850	850	850	850	850	850	850	850	848	848	848	848	848	848	848	848	850	850	854	854	852	852	854	850	848	848	843	841	841	833	831	829	827	827	825	825	823	823	823	821	819	817	817	815	815	810	808	804	804	802	800	802	800	798	798	798	798	797	797	797	797	795	795	795	793	793	793	791	791	789	788	786	784	784	782	782	780	780	780	780	780	780	779	779	777	777	775	775	773	773	773	773	775	775	775	775	773	772	772	770	770	770	768	768	768	768	770	770	770	770	772	772	772	772	772	772	772	772	772	772	772	770	770	770	773	0	0	0	0	0	0	0	0	0	0	0	0	0	0	0	0	0	0	0	0	0	0	0	0	0	0	0	0	0	0	0	0	0	0	0	0	0	0	0	0	0	0	0	0	0	0	0	0	0
0	0	0	0	0	0	0	0	0	0	0	1347	1352	1352	1352	1352	1352	1352	1358	1363	1368	1368	1368	1374	1379	1379	1379	1385	1385	1396	1402	1413	1413	1413	1419	1419	1419	1419	1425	1431	1443	1449	1455	1455	1455	1455	1449	1455	1455	1455	1455	1455	1455	1461	1455	1455	1455	1455	1461	1455	1455	1461	1461	1467	1467	1473	1480	1486	1492	1506	1506	1506	1519	1525	1525	1532	1539	1539	1546	1546	0	0	0	0	1883	1883	1883	1894	1904	1915	1915	1958	1947	1958	1969	1980	1992	1992	1992	2003	2003	2003	2015	2015	2015	2027	2027	2051	2063	2063	2063	2063	2101	2114	2114	2114	2114	2114	2114	2114	2127	2127	2140	2140	2140	2140	2140	2140	2127	2127	2127	2127	2127	2127	2127	2127	2127	2127	2127	2114	2127	2127	2114	2114	2114	2114	2127	2127	2127	2127	2127	2127	2127	2127	2127	2127	2127	2127	2127	2127	2127	2127	2127	2127	2127	2127	2114	2114	2114	2114	2114	2114	2114	2114	2127	2140	2140	2140	2153	2167	2181	2194	2194	2223	2237	2252	2252	2297	2297	2312	2343	2343	2376	2409	2426	2426	2426	2443	2443	2443	2443	0	0	0	0	0	7444	7444	7444	7444	7287	7137	7137	7137	7137	7137	7287	7444	7444	7287	7444	7444	7444	7444	7444	7444	7444	7444	7444	7287	7287	7444	7444	7444	7444	7444	7444	7444	7444	7287	7137	7137	7137	7287	7444	7287	7287	7287	7287	7444	7444	7287	7287	7444	7444	7444	7444	7444	7444	7444	7444	7444	7444	7444	7608	7608	7444	7608	7608	7444	7444	7444	7287	7287	7287	7287	7287	7444	7444	7444	7444	7287	7444	7444	7287	7287	7287	7287	7137	7287	7137	7137	7137	7287	7287	7287	7287	7287	7287	7137	7137	7137	7137	7137	3864	3864	3821	3821	3821	3864	3864	3864	3821	3821	3864	3821	3821	3779	3779	3779	3821	3779	3779	3779	3779	3779	3779	3779	3779	3779	3779	3738	3779	3738	3779	3779	3738	3779	3779	3779	3779	3779	3779	3779	3779	3779	3779	3779	3779	3779	3779	3738	3738	3738	7137	6992	7137	7287	7444	7444	7444	7287	7287	7287	7287	7287	7287	7287	7287	7287	7287	7287	7287	7287	7287	7287	7287	7137	7287	7287	7287	7287	0	0	0	0	0	0	0	0	0	0	0	0	0	0	0	0	0	0	0	0	0	0	0	0	0	0	0	0	0	0	0	0	0	0	0	0	0	937	935	932	930	922	920	917	915	913	910	908	905	903	901	901	898	896	896	894	891	891	887	884	884	884	884	882	880	875	875	873	869	869	865	865	862	862	862	862	860	860	858	858	856	856	854	852	850	850	850	850	850	850	850	850	848	848	848	848	848	848	848	848	850	850	854	854	852	850	854	850	848	845	843	841	841	835	833	831	827	827	827	825	825	823	823	821	821	817	817	815	815	812	810	806	810	808	806	804	808	812	808	806	804	800	800	800	800	797	797	797	795	793	793	793	791	789	788	786	784	784	782	782	782	780	780	780	780	780	780	780	779	777	777	775	773	773	773	773	773	773	773	772	770	772	770	770	770	770	768	770	768	768	768	770	770	770	770	770	772	772	773	773	772	773	773	772	772	768	768	768	768	0	0	0	0	0	0	0	0	0	0	0	0	0	0	0	0	0	0	0	0	0	0	0	0	0	0	0	0	0	0	0	0	0	0	0	0	0	0	0	0	0	0	0	0	0	0	0	0	0
0	0	0	0	0	0	0	0	0	0	0	0	1352	1352	1352	1352	1352	1352	1358	1368	1374	1379	1379	1379	1385	1385	1385	1385	1390	1396	1402	1413	1413	1413	1419	1419	1419	1425	1431	1431	1449	1455	1461	1461	1461	1461	1455	1461	1461	1461	1461	1467	1461	1473	1473	1467	1467	1461	1461	1461	1461	1461	1467	1467	1467	1473	1480	1486	1499	1506	1512	1512	1519	1525	1525	1539	1546	1546	1553	1553	0	1560	1567	1567	1883	1894	1894	1894	1904	1915	1925	1958	1958	1969	1980	1980	1992	1992	1992	1992	2003	2003	2015	2015	2015	2027	2051	2063	2076	2101	2088	2088	2101	2114	2114	2114	2114	2114	2114	2114	2127	2127	2127	2127	2127	2140	2127	2127	2127	2127	2127	2127	2127	2127	2127	2127	2127	2127	2127	2114	2114	2114	2114	2114	2114	2114	2127	2127	2127	2127	2127	2127	2127	2127	2127	2127	2127	2127	2127	2127	2127	2127	2127	2127	2127	2127	2127	2114	2114	2114	2114	2114	2127	2127	2127	2127	2140	2140	2153	2167	2167	2194	2208	2223	2252	2266	2281	2297	2297	2312	2343	2359	2376	2409	2426	2426	2426	2443	2443	2443	2532	2551	2551	0	0	0	7444	7444	7444	7444	7287	7287	7287	7137	7137	7287	7444	7444	7444	7444	7444	7608	7608	7444	7444	7444	7444	7444	7444	7287	7444	7444	7444	7444	7444	7444	7444	7444	7444	7287	7444	7444	7608	7608	7444	7444	7444	7444	7287	7444	7444	7287	7444	7444	7444	7444	7444	7444	7444	7444	7444	7444	7444	7608	7608	7608	7444	7444	7608	7444	7444	7444	7287	7287	7287	7287	7287	7444	7444	7444	7608	7444	7444	7444	7444	7287	7287	7287	7287	7287	7137	7287	7287	7287	7287	7444	7444	7444	7287	7287	3864	3907	3907	3864	3864	3864	3821	3821	3821	3821	3864	3821	3821	3779	3779	3821	3779	3779	3779	3779	3779	3779	3779	3779	3779	3779	3779	3779	3779	3779	3779	3738	3779	3779	3779	3779	3779	3779	3779	3779	3779	3779	3779	3779	3779	3779	3779	3779	3779	3779	3779	3779	3779	3779	3779	3779	3779	7287	7608	7444	7444	7287	7287	7287	7287	7287	7287	7287	7287	7444	7444	7444	7444	7444	7444	7444	7444	7287	7287	7444	7444	7444	0	0	0	0	0	0	0	0	0	0	0	0	0	0	0	0	0	0	0	0	0	0	0	0	0	0	0	0	0	0	0	0	0	0	0	0	0	0	935	932	930	922	920	917	915	913	913	910	905	903	903	901	901	898	896	894	891	887	887	884	884	884	882	882	880	878	878	875	871	871	865	865	862	862	862	860	860	860	858	858	856	856	854	852	852	850	850	850	850	850	850	848	848	848	848	848	848	848	848	848	850	850	854	852	852	852	852	850	848	845	843	841	841	835	835	833	831	829	829	827	827	827	825	823	823	819	819	817	817	815	814	812	812	810	808	808	808	808	810	808	806	802	802	802	802	798	798	797	795	793	793	793	793	789	788	788	786	784	782	782	780	780	779	779	780	780	780	780	780	779	777	775	775	773	773	773	773	773	773	773	772	770	772	770	770	770	770	770	770	770	770	770	770	770	772	772	772	772	772	773	772	772	772	772	772	768	768	768	768	0	0	0	0	0	0	0	0	0	0	0	0	0	0	0	0	0	0	0	0	0	0	0	0	0	0	0	0	0	0	0	0	0	0	0	0	0	0	0	0	0	0	0	0	0	0	0	0	0
0	0	0	0	0	0	0	0	0	0	0	0	1352	1352	1352	1352	1352	1347	1352	1352	1352	1425	1413	1402	1390	1390	1390	1390	1396	1396	1402	1413	1413	1413	1419	1419	1419	1419	1425	1431	1449	1461	1467	1467	1467	1467	1461	1461	1461	1461	1467	1473	1473	1486	1486	1486	1480	1480	1480	1473	1467	1467	1467	1467	1473	1473	1486	1492	1499	1506	1512	1512	1519	1525	1532	1539	1546	1546	1553	1560	1560	1560	1567	1567	0	1894	1894	1894	1915	1915	1925	1936	1958	1969	1980	1980	1992	1992	1992	1992	2003	2003	2015	2015	2015	2027	2039	2076	2088	2101	2101	2101	2114	2114	2114	2114	2127	2127	2114	2114	2127	2127	2127	2127	2127	2127	2127	2127	2127	2127	2127	2127	2114	2127	2127	2127	2127	2127	2114	2114	2114	2114	2114	2114	2114	2114	2127	2127	2127	2127	2127	2127	2127	2127	2127	2127	2127	2127	2127	2127	2127	2127	2127	2127	2127	2127	2127	2114	2114	2114	2127	2127	2127	2127	2127	2127	2127	2140	2140	2181	2181	2194	2208	2237	2252	2281	2281	2297	2297	2312	2343	2359	2376	2409	2426	2426	2426	2443	2443	2478	2532	2551	2551	2551	0	0	7444	7444	7444	7444	7444	7444	7287	7287	7287	7444	7444	7444	7444	7608	7444	7608	7608	7608	7608	7608	7608	7608	7608	7444	7608	7608	7608	7444	7444	7444	7444	7444	7444	7287	7444	7444	7444	7444	7608	7608	7444	7444	7444	7444	7444	7287	7444	7444	7444	7444	7444	7444	7444	7444	7444	7444	7444	7608	7608	7608	7444	7444	7608	7608	7444	7444	7287	7287	7287	7287	7287	7287	7444	7444	7444	7137	7444	7444	7444	7444	7287	7287	7287	7287	7287	7287	7287	7444	7444	7444	7444	7444	7444	3907	3864	3864	3864	3821	3821	3821	3821	3821	3821	3821	3821	3821	3779	3779	3779	3779	3779	3779	3779	3779	3779	3779	3779	3779	3779	3779	3779	3779	3779	3779	3779	3738	3738	3738	3738	3779	3779	3779	3779	3779	3779	3779	3779	3779	3779	3779	3779	3779	3779	3779	3779	3779	3779	3779	3779	3779	3779	3779	7608	7608	7444	7287	7287	7287	7287	7287	7287	7444	7444	7608	7608	7608	7608	7608	7444	7444	7444	7444	7444	7444	7608	7608	0	0	0	0	0	0	0	0	0	0	0	0	0	0	0	0	0	0	0	0	0	0	0	0	0	0	0	0	0	0	0	0	0	0	0	0	0	0	932	930	927	922	920	917	915	913	913	910	905	903	901	898	898	896	896	894	891	887	887	884	884	884	882	882	882	880	880	878	873	871	867	865	862	862	862	860	860	858	858	858	856	856	856	854	852	850	850	850	850	848	848	848	848	848	848	848	848	848	848	848	850	850	852	852	852	852	852	850	848	845	843	843	843	841	839	835	833	833	831	829	829	829	827	825	823	821	819	817	819	817	815	815	815	812	812	812	810	810	808	808	806	804	804	802	802	798	797	797	795	793	793	793	793	789	788	788	786	784	782	780	780	780	779	779	780	780	780	780	780	779	780	777	773	773	773	773	773	773	773	772	772	770	772	772	770	770	770	770	770	770	770	770	770	770	772	772	772	772	773	773	773	773	773	772	772	770	770	770	0	0	0	0	0	0	0	0	0	0	0	0	0	0	0	0	0	0	0	0	0	0	0	0	0	0	0	0	0	0	0	0	0	0	0	0	0	0	0	0	0	0	0	0	0	0	0	0	0	0
0	0	0	0	0	0	0	0	0	0	0	0	1352	1352	1352	1352	1512	1506	1492	1486	1486	1419	1413	1413	1396	1396	1396	1396	1396	1402	1402	1413	1419	1419	1419	1419	1425	1425	1425	1431	1455	1461	1461	1467	1467	1467	1467	1467	1473	1473	1486	1492	1492	1492	1499	1492	1492	1486	1486	1480	1473	1467	1467	1473	1480	1486	1499	1499	1506	1512	1512	1512	1519	1525	1532	1539	1539	1546	1560	1560	1567	1567	1574	1574	0	1894	1894	1894	1904	1904	1925	1947	1947	1969	1980	1980	1992	1992	1992	2003	2003	2003	2015	2015	2015	2027	2027	2063	2088	2101	2101	2101	2127	2127	2127	2127	2127	2127	2114	2114	2127	2127	2140	2127	2127	2127	2127	2127	2127	2127	2127	2127	2127	2127	2127	2127	2127	2114	2114	2114	2114	2114	2114	2114	2114	2114	2127	2127	2127	2127	2127	2127	2127	2127	2127	2127	2127	2127	2127	2127	2127	2114	2114	2114	2114	2114	2114	2114	2114	2114	2114	2114	2127	2127	2127	2127	2127	2127	2140	2167	2167	2181	2208	2223	2252	2266	2281	2297	2297	2312	2312	2327	2376	2409	2426	2426	2443	2443	2460	2496	2532	2532	2532	2551	0	0	7444	7444	7444	7444	7444	7444	7444	7444	7287	7444	7444	7608	7608	7608	7444	7608	7608	7608	7608	7608	7608	7608	7608	7608	7608	7608	7608	7608	7444	7608	7608	7444	7444	7444	7608	7608	7608	7608	7608	7608	7608	7608	7444	7608	7608	7444	7444	7444	7444	7287	7287	7287	7444	7444	7287	7444	7444	7608	7608	7608	7444	7444	7608	7608	7608	7444	7444	7444	7444	7287	7444	7444	7444	7444	7444	7444	7444	7444	7444	7444	7444	7444	7444	7444	7287	7444	7287	7444	7444	7608	7608	7608	7608	3907	3907	3864	3779	3779	3779	3779	3779	3779	3779	3779	3779	3779	3779	3738	3779	3779	3779	3779	3738	3779	3779	3779	3779	3779	3779	3779	3779	3779	3779	3779	3779	3738	3738	3738	3738	3779	3779	3779	3779	3779	3779	3779	3779	3779	3779	3779	3779	3779	3779	3779	3779	3779	3779	3779	3779	3779	3779	3779	3779	7608	7608	7444	7444	7287	7287	7287	7287	7444	7608	7608	7608	7608	7608	7608	7608	7608	7444	7444	7444	7444	7608	7444	7444	0	0	0	0	0	0	0	0	0	0	0	0	0	0	0	0	0	0	0	0	0	0	0	0	0	0	0	0	0	0	0	0	0	0	0	940	937	935	927	927	922	920	917	915	913	913	910	905	905	901	901	901	898	896	894	889	887	887	884	884	884	882	882	882	880	878	875	875	873	869	867	865	865	862	860	860	858	858	858	856	856	856	854	852	850	850	850	850	850	850	850	848	848	848	848	848	848	848	848	848	852	852	852	850	852	852	850	848	848	848	843	843	841	841	841	835	835	833	831	831	831	827	825	821	821	821	819	821	819	819	817	817	815	812	812	812	810	808	806	806	804	804	802	798	798	797	795	793	793	793	793	791	789	788	788	784	784	780	780	780	779	779	779	780	780	780	780	780	780	780	777	773	773	773	773	773	773	773	772	773	772	772	772	772	770	770	772	772	772	772	772	772	772	772	772	773	773	773	773	773	773	773	773	772	770	772	770	770	0	0	0	0	0	0	0	0	0	0	0	0	0	0	0	0	0	0	0	0	0	0	0	0	0	0	0	0	0	0	0	0	0	0	0	0	0	0	0	0	0	0	0	0	0	0	0	0	0
0	0	0	0	0	0	0	0	0	0	0	1331	1331	1336	1336	1512	1512	1506	1492	1480	1480	1486	1413	1413	1407	1396	1396	1396	1396	1396	1402	1407	1413	1419	1419	1425	1425	1425	1431	1443	1455	1467	1467	1467	1467	1467	1473	1473	1473	1480	1492	1499	1499	1499	1499	1499	1499	1492	1492	1492	1486	1473	1473	1480	1492	1499	1506	1506	1512	1512	1512	1512	1519	1525	1532	1539	1546	1553	1560	1567	1567	1574	1574	1574	0	1894	1894	1904	1904	1904	1925	1936	1936	1958	1969	1969	1980	1980	1980	1992	2003	2003	2015	2015	2015	2015	2027	2027	2027	2114	2114	2127	2127	2127	2127	2127	2127	2127	2114	2114	2127	2127	2127	2127	2127	2127	2127	2127	2127	2127	2127	2127	2114	2127	2127	2114	2114	2114	2114	2114	2114	2114	2114	2114	2127	2114	2127	2127	2127	2127	2127	2127	2127	2127	2127	2127	2127	2127	2127	2127	2114	2114	2114	2127	2127	2114	2114	2114	2114	2127	2114	2114	2127	2127	2127	2127	2127	2140	2140	2167	2167	2181	2208	2237	2237	2266	2281	2297	2297	2312	2312	2343	2359	2392	2409	2426	2443	2443	2460	2478	2532	2532	2532	0	0	0	7444	7444	7444	7444	7444	7608	7444	7608	7444	7444	7608	7608	7608	7608	7608	7608	7779	7779	7608	7608	7608	7608	7608	7608	7608	7608	7608	7608	7608	7608	7608	7608	7608	7608	7608	7608	7608	7608	7608	7608	7608	7608	7444	7608	7608	7444	7444	7444	7444	7287	7287	7287	7444	7444	7444	7444	7608	7608	7608	7608	7608	7608	7608	7608	7608	7608	7444	7444	7444	7444	7444	7444	7608	7608	7608	7444	7444	7444	7444	7444	7444	7444	7444	7444	7444	7444	7287	7444	7608	7608	7608	7608	3779	3779	3779	3779	3779	3779	3779	3779	3779	3779	3779	3779	3779	3779	3779	3779	3779	3779	3779	3779	3738	3738	3779	3779	3779	3779	3779	3779	3779	3779	3779	3779	3779	3738	3779	3779	3779	3779	3779	3779	3779	3779	3779	3779	3779	3779	3779	3779	3779	3779	3779	3779	3779	3779	3779	3779	3779	3779	3779	3779	3779	3779	7608	7444	7444	7287	7287	7287	7444	7444	7608	7608	7779	7779	7779	7779	7608	7608	7608	7608	7608	7608	7608	7608	7608	7608	0	0	0	0	0	0	0	0	0	0	0	0	0	0	0	0	0	0	0	0	0	0	0	0	0	0	0	0	0	0	0	0	0	942	940	937	935	930	927	925	920	920	917	915	913	913	905	903	903	901	901	898	896	894	891	889	889	887	884	884	884	882	882	880	878	875	875	873	871	867	865	865	862	860	860	858	858	858	858	858	856	854	852	850	850	850	850	850	850	850	848	848	848	848	848	848	848	848	848	850	852	852	852	850	850	850	850	848	850	850	845	843	843	841	839	837	835	835	835	837	833	835	835	825	825	823	823	823	821	819	817	817	814	814	812	812	810	808	804	804	802	802	802	798	798	797	795	793	793	793	793	789	789	789	784	784	782	780	780	779	779	779	780	780	780	780	780	779	780	775	775	773	773	773	772	772	772	773	773	772	772	772	772	770	770	772	773	773	772	772	772	773	773	773	773	773	775	773	773	773	773	773	772	772	772	770	770	0	0	0	0	0	0	0	0	0	0	0	0	0	0	0	0	0	0	0	0	0	0	0	0	0	0	0	0	0	0	0	0	0	0	0	0	0	0	0	0	0	0	0	0	0	0	0	0	0
0	0	0	0	0	0	0	0	0	0	0	1326	1331	1331	1519	1512	1506	1499	1486	1492	1492	1512	1512	1413	1413	1402	1402	1402	1402	1402	1407	1407	1413	1419	1419	1425	1425	1431	1431	1443	1449	1455	1467	1467	1467	1467	1473	1473	1480	1486	1492	1499	1499	1499	1506	1506	1506	1506	1499	1499	1499	1486	1492	1499	1506	1506	1512	1512	1512	1512	1519	1519	1519	1525	1532	1539	1546	1553	1560	1567	1574	1574	1574	1574	0	1904	1904	1904	1915	1915	1925	1925	1936	1936	1947	1958	1969	1980	1980	2003	2003	2003	2015	2015	2015	2015	2015	2015	2015	2114	2114	2127	2127	2127	2127	2127	2127	2127	2114	2114	2127	2127	2127	2127	2127	2127	2127	2127	2127	2127	2127	2127	2114	2114	2114	2114	2114	2114	2114	2114	2114	2114	2114	2114	2114	2114	2127	2127	2127	2114	2114	2114	2127	2127	2127	2127	2127	2127	2127	2114	2114	2114	2114	2114	2127	2114	2127	2114	2114	2127	2127	2114	2127	2127	2127	2127	2140	2140	2140	2167	2167	2194	2223	2237	2252	2266	2281	2297	2297	2312	2312	2343	2359	2376	2409	2426	2443	2443	2460	2496	2532	2532	2532	2532	0	0	7444	7444	7444	7608	7608	7608	7608	7779	7608	7444	7608	7779	7608	7608	7608	7779	7779	7779	7608	7608	7608	7608	7608	7608	7608	7608	7608	7444	7608	7608	7608	7608	7608	7608	7779	7779	7608	7608	7608	7608	7608	7608	7608	7608	7608	7608	7608	7444	7444	7444	7287	7444	7608	7608	7444	7608	7608	7608	7608	7608	7608	7608	7608	7608	7608	7608	7444	7608	7608	7608	7608	7608	7608	7608	7608	7444	7444	7444	7444	7608	7608	7608	7608	7608	7608	7608	7444	7444	7608	7608	7608	7608	3821	3779	3779	3779	3779	3779	3779	3779	3779	3779	3779	3779	3821	3779	3779	3779	3779	3779	3779	3779	3779	3779	3779	3779	3779	3779	3779	3779	3779	3779	3779	3779	3779	3738	3738	3738	3738	3779	3779	3779	3779	3779	3779	3779	3779	3779	3779	3779	3779	3779	3779	3779	3779	3821	3779	3779	3779	3779	3779	3821	3821	3821	3821	7444	7444	7287	7444	7287	7444	7444	7608	7608	7779	7779	7779	7779	7779	7608	7608	7608	7608	7608	7608	7608	7608	7608	0	0	0	0	0	0	0	0	0	0	0	0	0	0	0	0	0	0	0	0	0	0	0	0	0	0	0	0	0	0	0	0	942	940	940	937	935	930	927	925	922	920	917	915	915	913	910	908	903	901	901	898	896	896	891	889	887	887	884	884	882	882	882	882	878	875	875	873	871	867	869	865	865	862	860	858	858	858	858	858	856	854	850	850	850	850	850	850	850	850	848	848	848	848	848	848	848	848	848	848	852	852	852	852	852	852	850	850	850	850	845	845	843	843	841	839	837	837	837	839	837	835	835	827	827	825	825	823	823	821	817	817	814	814	812	812	810	808	808	804	802	800	800	802	798	797	795	795	793	793	793	791	789	788	786	784	784	782	780	779	779	779	779	779	779	779	780	779	777	777	775	775	773	773	772	772	772	772	772	772	772	772	772	770	770	772	773	773	772	772	772	773	773	772	773	773	775	773	773	775	773	773	773	772	773	772	772	0	0	0	0	0	0	0	0	0	0	0	0	0	0	0	0	0	0	0	0	0	0	0	0	0	0	0	0	0	0	0	0	0	0	0	0	0	0	0	0	0	0	0	0	0	0	0	0	0
0	0	0	0	0	0	0	0	0	0	0	1519	1512	1512	1512	1506	1506	1506	1499	1492	1492	1560	1560	1560	1402	1402	1402	1407	1407	1407	1407	1413	1419	1419	1425	1425	1431	1431	1437	1443	1449	1455	1461	1467	1467	1473	1473	1480	1486	1492	1499	1499	1506	1506	1506	1506	1512	1512	1506	1506	1512	1506	1512	1512	1512	1512	1512	1519	1512	1519	1519	1519	1519	1525	1539	1546	1546	1553	1560	1567	1574	1581	1581	1581	0	1925	1925	1904	1915	1925	1925	1925	1936	1936	1947	1947	1958	1969	1980	2003	2015	2015	2015	2015	2003	2003	2015	2015	2114	2114	2114	2114	2127	2127	2127	2127	2114	2127	2114	2114	2127	2127	2127	2127	2127	2127	2127	2127	2127	2127	2127	2127	2114	2114	2114	2114	2114	2114	2114	2114	2114	2114	2114	2114	2114	2114	2114	2127	2127	2127	2127	2127	2127	2127	2127	2127	2127	2127	2114	2114	2114	2114	2114	2127	2127	2114	2127	2127	2127	2127	2114	2114	2127	2127	2127	2127	2140	2140	2153	2167	2167	2194	2208	2237	2252	2266	2281	2297	2297	2297	2312	2327	2327	2376	2409	2426	2443	2443	2460	2514	2532	2532	2496	2496	0	0	0	7608	7608	7608	7608	7779	7608	7608	7608	7444	7608	7779	7608	7608	7608	7779	7779	7779	7608	7608	7608	7608	7608	7608	7608	7608	7608	7608	7608	7779	7779	7608	7779	7779	7779	7779	7779	7608	7608	7608	7608	7608	7608	7608	7608	7608	7608	7608	7444	7444	7444	7444	7608	7608	7608	7608	7779	7779	7608	7608	7608	7608	7608	7608	7608	7608	7608	7608	7608	7608	7608	7608	7608	7608	7608	7444	7444	7444	7608	7608	7608	7608	7608	7608	7608	7608	7444	7444	7444	7444	7608	3821	3821	3779	3779	3779	3779	3779	3779	3779	3779	3779	3779	3779	3779	3779	3779	3738	3779	3779	3779	3779	3779	3779	3779	3779	3779	3779	3779	3779	3779	3779	3779	3779	3779	3779	3779	3779	3779	3779	3779	3779	3779	3779	3779	3779	3779	3779	3779	3779	3779	3779	3779	3779	3779	3779	3779	3779	3779	3779	3821	3821	3821	3821	3821	7287	7287	7287	7444	7444	7608	7608	7779	7779	7779	7779	7779	7779	7779	7779	7779	7608	7779	7608	7608	7608	7608	7608	7608	7608	0	0	0	0	0	0	0	0	0	0	0	0	0	0	0	0	0	0	0	0	0	0	0	0	0	0	0	0	0	0	942	940	940	937	935	932	927	925	922	922	920	920	915	915	910	910	908	903	901	898	896	894	894	891	887	887	884	882	882	880	880	880	875	875	873	873	871	871	869	869	867	865	862	860	858	858	858	858	858	856	852	850	850	850	850	850	850	850	848	848	848	848	848	848	848	848	845	852	852	852	852	852	852	854	852	850	852	850	848	845	843	843	841	839	841	841	841	841	841	841	841	829	829	827	827	827	825	823	821	817	814	814	814	812	810	808	808	804	802	802	802	800	798	797	795	795	793	793	791	791	789	788	786	784	782	782	780	779	779	779	779	779	779	779	779	779	777	777	775	775	773	773	772	773	773	773	773	772	773	773	772	770	772	772	773	773	772	772	773	773	773	772	773	773	775	775	775	777	775	775	773	773	775	773	773	0	0	0	0	0	0	0	0	0	0	0	0	0	0	0	0	0	0	0	0	0	0	0	0	0	0	0	0	0	0	0	0	0	0	0	0	0	0	0	0	0	0	0	0	0	0	0	0	0
0	0	0	0	0	0	0	0	0	0	0	1519	1512	1519	1519	1519	1512	1512	1512	1553	1519	1560	1560	1560	1553	1402	1402	1413	1413	1419	1419	1419	1425	1425	1431	1437	1437	1437	1443	1449	1455	1455	1455	1461	1461	1467	1467	1473	1486	1492	1499	1506	1506	1512	1512	1512	1519	1519	1519	1512	1519	1519	1519	1519	1519	1519	1519	1519	1519	1525	1525	1525	1525	1525	1539	1546	1553	1553	1560	1567	1574	1581	1589	1589	1589	1925	1925	1904	1915	1925	1925	1925	1936	1936	1947	1947	1958	1980	1980	2003	2015	2015	2003	2003	1992	1992	1992	1992	2114	2114	2114	2114	2127	2114	2114	2114	2114	2114	2114	2114	2127	2127	2127	2127	2127	2127	2127	2127	2127	2127	2127	2127	2114	2114	2114	2114	2114	2114	2101	2101	2114	2114	2114	2114	2114	2114	2114	2127	2114	2114	2127	2127	2127	2127	2127	2127	2127	2114	2127	2114	2114	2114	2114	2127	2114	2114	2114	2127	2114	2114	2114	2114	2127	2127	2127	2127	2140	2140	2153	2167	2181	2194	2223	2237	2252	2266	2281	2297	2297	2297	2312	2327	2359	2376	2409	2426	2443	2443	2443	2496	2514	2496	2496	2496	0	0	0	7608	7608	7608	7608	7779	7779	7779	7608	7608	7608	7779	7608	7608	7608	7779	7779	7779	7779	7608	7779	7779	7959	7779	7779	7779	7779	7608	7779	7779	7779	7779	7779	7779	7779	7779	7779	7779	7779	7779	7608	7608	7608	7608	7608	7608	7608	7608	7608	7444	7444	7444	7608	7608	7608	7608	7608	7608	7608	7608	7608	7608	7608	7608	7608	7608	7608	7608	7608	7608	7608	7608	7779	7608	7779	7608	7608	7608	7608	7608	7608	7608	7608	7608	7608	7608	3738	3738	7608	3738	3779	3779	3779	3779	3779	3779	3779	3779	3779	3779	3779	3779	3779	3779	3779	3779	3779	3738	3779	3779	3779	3779	3779	3779	3779	3779	3779	3779	3779	3779	3779	3779	3779	3779	3779	3779	3779	3779	3779	3779	3779	3779	3779	3779	3779	3779	3821	3779	3779	3779	3779	3779	3779	3779	3779	3779	3779	3779	3779	3821	3821	3821	3821	3864	3864	7137	7287	7287	7444	7608	7608	7779	7779	7779	7779	7779	7779	7779	7779	7779	7779	7779	7779	7779	7608	7608	7608	7608	7608	7608	0	0	0	0	0	0	0	0	0	0	0	0	0	0	0	0	0	0	0	0	0	0	0	0	0	974	972	972	972	0	0	940	940	935	935	932	930	927	925	922	922	920	915	915	910	910	908	903	901	901	898	896	894	891	887	887	884	884	882	882	882	882	878	875	875	873	871	871	869	869	867	865	862	858	860	860	858	858	856	856	852	850	850	850	850	850	850	850	850	850	850	848	848	848	845	845	845	850	852	852	852	854	856	856	854	854	852	850	850	850	850	848	845	841	843	843	843	843	841	841	841	841	833	833	831	829	827	825	821	817	815	815	814	812	810	810	808	806	804	802	800	800	798	797	795	793	793	791	791	789	789	789	786	786	784	780	780	779	779	779	779	779	779	780	780	780	779	777	775	775	775	775	773	773	773	773	773	773	773	773	773	772	772	773	773	773	773	773	773	773	773	772	773	773	775	775	775	775	775	775	775	773	775	775	775	0	0	0	0	0	0	0	0	0	0	0	0	0	0	0	0	0	0	0	0	0	0	0	0	0	0	0	0	0	0	0	0	0	0	0	0	0	0	0	0	0	0	0	0	0	0	0	0	0
0	0	0	0	0	0	0	0	0	0	0	0	0	1553	1553	1546	1525	1525	1525	1553	1553	1560	1553	1553	1553	1553	1553	1413	1413	1419	1419	1419	1425	1431	1431	1443	1443	1449	1449	1461	1461	1455	1455	1461	1461	1467	1467	1486	1492	1492	1499	1506	1512	1512	1512	1519	1525	1525	1525	1525	1525	1525	1525	1532	1532	1525	1525	1525	1525	1532	1525	1525	1525	1532	1546	1553	1560	1560	1567	1574	1574	1581	1581	1589	1603	1611	1626	1626	1915	1915	1925	1936	1936	1936	1947	1947	1947	1947	1969	2003	2015	2015	1992	1992	1992	1992	2003	2003	2114	2114	2114	2114	2114	2114	2114	2114	2114	2114	2114	2114	2127	2127	2127	2127	2127	2127	2127	2127	2127	2127	2127	2127	2114	2114	2114	2114	2114	2114	2114	2114	2114	2114	2114	2114	2114	2114	2114	2127	2114	2114	2127	2127	2127	2127	2127	2127	2114	2114	2114	2114	2114	2101	2114	2114	2114	2101	2114	2127	2114	2114	2114	2114	2127	2127	2127	2127	2140	2140	2153	2167	2181	2194	2223	2237	2252	2281	2297	2297	2297	2312	2312	2343	2359	2376	2409	2426	2443	2443	2443	2460	2496	2496	2496	2496	0	0	7444	7444	7444	7444	7608	7779	7779	7779	7608	7608	7608	7608	7608	7608	7608	7608	7959	7959	7779	7779	7779	7959	7959	7779	7779	7779	7779	7779	7779	7779	7779	7779	7779	7959	7959	7779	7779	7779	7779	7779	7608	7608	7608	7608	7608	7608	7608	7608	7608	7444	7444	7444	7608	7608	7608	7608	7608	7608	7608	7608	7608	7608	7608	7608	7608	7608	7608	7608	7608	7608	7779	7779	7779	7779	7779	7608	7608	7608	7608	7608	7608	7608	7608	7608	7608	7608	3738	3738	3738	3738	3779	3779	3779	3779	3779	3738	3738	3779	3738	3738	3738	3779	3779	3738	3738	3738	3738	3738	3779	3779	3779	3779	3779	3779	3779	3779	3779	3779	3779	3779	3779	3779	3779	3779	3779	3779	3779	3779	3779	3779	3779	3779	3779	3779	3779	3779	3779	3779	3779	3779	3779	3779	3779	3779	3779	3779	3779	3779	3779	3779	3779	3821	3821	3821	3821	7287	7444	7444	7608	7779	7779	7779	7779	7779	7779	7779	7779	7779	7779	7779	7779	7779	7779	7779	7608	7608	7608	7779	7779	7608	7608	0	0	0	0	0	0	0	0	0	0	0	0	0	0	0	0	0	0	0	0	0	0	0	0	974	972	972	969	969	0	940	940	937	937	932	930	927	925	925	922	922	920	915	910	910	908	905	903	901	898	896	894	894	891	889	887	884	882	882	880	882	878	875	875	873	873	871	871	869	867	865	860	858	858	858	858	856	856	854	852	850	848	850	850	850	850	850	848	848	848	848	845	845	845	845	845	850	850	850	850	858	858	858	856	856	856	852	852	850	850	850	850	843	848	845	845	845	845	845	845	841	833	833	831	831	829	827	823	819	817	815	814	812	810	810	808	806	802	802	800	798	797	795	795	793	791	791	789	789	789	789	788	786	784	782	780	780	779	779	779	780	780	780	780	780	779	777	775	775	773	773	773	773	773	775	773	773	773	773	773	772	773	773	773	775	773	773	773	773	773	772	773	773	773	775	775	775	777	775	775	775	775	775	775	0	0	0	0	0	0	0	0	0	0	0	0	0	0	0	0	0	0	0	0	0	0	0	0	0	0	0	0	0	0	0	0	0	0	0	0	0	0	0	0	0	0	0	0	0	0	0	0	0
0	0	0	0	0	0	0	0	0	0	0	0	1560	1560	1553	1546	1532	1539	1546	1539	1539	1546	1546	1546	1553	1553	1553	1553	1553	1419	1419	1419	1431	1431	1443	1455	1449	1455	1455	1461	1461	1455	1455	1455	1461	1461	1467	1480	1492	1492	1499	1506	1512	1512	1519	1519	1525	1525	1525	1532	1532	1532	1539	1539	1539	1532	1532	1532	1532	1539	1532	1539	1539	1539	1553	1553	1560	1560	1560	1567	1567	1581	1581	1589	1603	1611	1618	1626	1626	1626	1925	1936	1936	1936	1947	1947	1947	1947	1947	1980	2015	1992	1992	1992	1992	1992	2003	2015	2015	2101	2101	2101	2114	2114	2114	2114	2114	2114	2114	2114	2114	2140	2140	2127	2127	2127	2127	2140	2127	2127	2127	2127	2127	2127	2127	2127	2114	2114	2114	2114	2114	2114	2114	2114	2114	2114	2114	2127	2114	2114	2114	2127	2127	2127	2127	2114	2114	2114	2114	2101	2101	2101	2114	2114	2114	2114	2114	2114	2114	2114	2114	2114	2127	2127	2127	2127	2140	2140	2153	2167	2181	2208	2223	2237	2252	2281	2297	2297	2297	2312	2312	2327	2359	2376	2409	2426	2443	2443	2443	2460	2496	2478	2478	0	0	0	7444	7444	7444	7444	7608	7779	7779	0	0	7608	7608	7779	7779	7779	7608	7959	7959	8146	7959	7779	7959	7959	7959	7779	7779	7779	7779	7779	7779	7779	7779	7779	7959	7959	7959	7959	7959	7959	7959	7779	7608	7779	7779	7779	7779	7608	7608	7779	7608	7608	7608	7608	7608	7608	7608	7608	7779	7779	7608	7608	7608	7608	7608	7608	7608	7608	7608	7779	7779	7779	7959	7959	7959	7959	7779	7779	7779	7779	7779	7779	7779	7779	7608	7608	7608	7608	3738	3738	3779	3779	3821	3821	3821	3779	3779	3779	3779	3779	3738	3738	3738	3738	3738	3738	3738	3738	3738	3738	3779	3779	3779	3779	3779	3779	3779	3779	3779	3779	3779	3779	3779	3779	3779	3779	3779	3779	3779	3779	3779	3779	3779	3779	3779	3779	3779	3779	3779	3779	3779	3779	3779	3779	3779	3779	3779	3779	3779	3779	3779	3779	3779	3821	3821	3864	3864	3864	7287	7608	7608	7779	7779	7779	7779	7779	7779	7779	7779	7779	7779	7608	7608	7608	7779	7608	7608	7608	7608	7608	7779	7608	7608	0	0	0	0	0	0	0	0	0	0	0	0	0	0	0	0	0	0	0	0	0	0	0	0	0	969	966	966	961	961	948	942	937	937	935	932	930	927	925	922	922	917	915	913	910	908	908	903	903	901	901	898	898	891	889	887	884	884	882	880	878	875	873	875	875	873	873	871	871	869	867	860	860	858	858	858	856	856	854	852	852	850	850	850	850	850	848	848	848	848	848	845	845	845	848	845	850	850	850	858	858	858	858	858	856	858	858	858	856	856	852	850	850	848	848	848	845	845	845	831	833	833	833	831	829	827	825	823	821	817	817	814	814	812	810	810	808	806	802	802	798	797	797	795	793	791	791	789	789	789	789	788	786	786	782	780	780	779	779	779	779	780	780	780	780	777	775	775	773	773	773	772	773	773	775	773	773	773	773	773	773	773	773	773	775	773	773	773	773	773	773	773	773	773	775	775	775	775	777	775	775	775	775	775	0	0	0	0	0	0	0	0	0	0	0	0	0	0	0	0	0	0	0	0	0	0	0	0	0	0	0	0	0	0	0	0	0	0	0	0	0	0	0	0	0	0	0	0	0	0	0	0	0
0	0	0	0	0	0	0	0	0	0	0	1560	1567	1567	1560	1553	1546	1553	1560	1553	1546	1546	1546	1553	1553	1553	1553	1553	1553	1419	1419	1419	1443	1443	1443	1461	1455	1461	1461	1467	1461	1455	1455	1455	1461	1461	1467	1486	1492	1492	1499	1506	1512	1512	1519	1525	1525	1532	1532	1539	1532	1532	1539	1539	1539	1532	1532	1532	1532	1539	1539	1546	1546	1546	1553	1560	1560	1560	1567	1567	1574	1581	1581	1589	1603	1611	1618	1618	1618	1626	1626	1936	1936	1936	1947	1947	1947	1947	1958	1980	2015	2003	1992	1992	2003	1992	2003	2015	2015	2088	2101	2101	2101	2114	2114	2114	2114	2114	2127	2114	2140	2140	2140	2140	2140	2140	2127	2140	2127	2127	2127	2127	2127	2127	2127	2127	2114	2114	2114	2114	2114	2114	2114	2114	2114	2114	2114	2114	2114	2114	2114	2127	2127	2127	2127	2114	2114	2114	2114	2114	2114	2114	2114	2114	2114	2114	2114	2114	2114	2114	2114	2114	2127	2127	2127	2127	2140	2140	2153	2167	2181	2208	2237	2237	2266	2281	2297	2297	2297	2312	2327	2343	2359	2376	2409	2426	2426	2443	2443	2460	2496	2478	2478	0	0	0	0	0	0	0	0	0	0	0	0	7608	7608	7779	7779	7779	7779	7959	8146	8146	7959	7959	7959	7959	7959	7959	7779	7779	7779	7779	7779	7779	7779	7779	7779	7959	7959	7959	7959	7959	7959	0	7779	7779	7779	7779	7779	7779	7779	7779	7779	7608	7779	7608	7779	7779	7779	7779	7779	7779	7779	7608	7608	7608	7608	7608	7608	7608	7779	7779	7779	7779	7779	7959	8146	7959	7959	7779	7779	7779	7779	7779	7779	7779	7608	7779	7608	7608	3738	3738	3779	3779	3779	3779	3779	3779	3779	3779	3738	3779	3738	3738	3738	3738	3738	3738	3738	3738	3738	3738	3779	3779	3779	3779	3779	3779	3779	3738	3779	3779	3779	3779	3779	3779	3779	3738	3738	3738	3738	3738	3779	3738	3779	3779	3779	3779	3779	3779	3779	3779	3779	3779	3779	3779	3779	3779	3738	3779	3779	3779	3779	3779	3779	3821	3821	3821	3864	3864	7287	7608	7779	7779	7779	7779	7779	7779	7779	7779	7779	7779	7779	7608	7608	7608	7608	7779	7608	7779	7779	7779	7779	7779	7779	0	0	0	0	0	0	0	0	0	0	0	0	0	0	0	0	0	0	0	0	0	0	0	0	0	966	966	963	963	950	950	945	940	937	937	935	930	930	927	922	922	920	915	913	910	908	905	903	903	901	901	898	898	891	891	889	884	882	880	880	878	875	873	873	873	873	873	873	871	869	867	860	860	858	858	858	856	856	854	852	852	850	850	850	850	850	850	848	848	848	848	845	845	845	848	845	848	850	852	854	856	856	858	858	858	862	860	858	860	858	856	854	852	852	850	850	850	850	0	831	831	833	833	833	831	827	825	825	823	819	817	815	814	812	810	810	808	806	802	802	800	797	797	795	793	793	791	791	789	789	789	788	788	786	782	780	780	780	779	779	779	780	780	780	779	775	775	775	775	775	775	773	775	775	775	773	773	773	773	773	773	773	773	775	775	773	773	775	773	773	772	772	772	773	773	775	775	777	777	777	775	777	777	777	0	0	0	0	0	0	0	0	0	0	0	0	0	0	0	0	0	0	0	0	0	0	0	0	0	0	0	0	0	0	0	0	0	0	0	0	0	0	0	0	0	0	0	0	0	0	0	0	0
0	0	0	0	0	0	0	0	0	0	0	1567	1574	1574	1567	1560	1560	1560	1560	1567	1546	1546	1553	1553	1560	1560	1553	1553	1589	1589	1589	1589	1443	1443	1467	1467	1461	1461	1467	1467	1467	1455	1461	1461	1467	1467	1473	1486	1492	1499	1499	1506	1512	1519	1519	1525	1525	1532	1532	1539	1539	1539	1539	1539	1539	1539	1539	1539	1539	1546	1546	1546	1546	1546	1553	1560	1560	1560	1560	1567	1567	1581	1581	1596	1603	1611	1611	1611	1618	1626	1634	1634	1936	1936	1936	1947	1958	1958	1980	1992	1992	2003	2003	2003	2003	2003	2015	2051	2063	2063	2076	2088	2101	2101	2114	2114	2127	2127	2127	2114	2140	2140	2140	2140	2127	2127	2127	2140	2127	2127	2127	2127	2127	2127	2127	2127	2127	2127	2127	2114	2114	2114	2114	2114	2114	2114	2114	2114	2114	2114	2114	2114	2114	2114	2114	2114	2114	2114	2114	2101	2114	2114	2114	2114	2114	2114	2127	2127	2127	2114	2114	2114	2127	2127	2127	2140	2140	2153	2153	2167	2181	2208	2237	2252	2266	2281	2297	2297	2312	2312	2327	2343	2359	2376	2409	2426	2426	2426	2460	2460	2496	2496	2478	2478	0	0	0	0	0	0	0	0	0	0	0	7608	7779	7779	7779	7959	7779	7959	8146	8146	7959	7959	7959	8146	7959	7959	7779	7779	7779	7779	7779	7779	7779	7779	7959	7959	7959	7959	7959	8343	8343	0	7779	7779	7779	7779	7959	7779	7779	7779	7779	7779	7779	7779	7779	7779	7779	7779	7779	7779	7779	7779	7608	7779	7608	7608	7608	7608	7779	7779	7779	7779	8146	8146	8146	7959	7959	7959	7779	7779	7779	7779	7779	7779	7779	7779	7779	3738	3738	3738	3779	3779	3779	3779	3779	3779	3779	3779	3779	3779	3738	3738	3738	3738	3738	3738	3738	3738	3738	3738	3779	3779	3779	3779	3779	3738	3738	3738	3779	3738	3738	3738	3738	3779	3779	3738	3738	3738	3738	3738	3779	3738	3779	3779	3779	3779	3779	3779	3779	3779	3779	3779	3779	3738	3779	3738	3738	3738	3779	3779	3779	3779	3779	3779	3821	3821	3821	3821	0	7608	7779	7779	7959	7779	7779	7779	7779	7779	7779	7779	7608	7444	7444	7608	7779	7779	7779	7779	7779	7779	7779	7779	7779	0	0	0	0	0	0	0	0	0	0	0	0	0	0	0	0	0	0	0	0	0	0	0	0	0	963	963	963	961	958	953	948	942	940	937	935	932	930	927	922	922	920	915	913	910	908	905	903	903	901	898	896	896	894	891	887	884	884	882	882	882	875	875	873	873	871	871	871	867	867	865	860	860	858	858	858	856	854	852	852	852	850	850	850	850	850	850	850	848	848	848	845	848	845	848	848	848	848	850	852	856	858	860	860	860	862	860	860	860	860	858	856	854	854	852	852	850	850	0	833	833	833	833	833	831	827	825	825	825	819	817	815	814	812	812	810	808	808	804	802	800	798	797	795	795	793	791	791	789	789	789	789	788	786	782	780	779	779	779	779	779	780	780	780	779	777	775	775	775	775	775	775	775	775	775	773	773	773	775	773	773	773	773	775	775	773	773	775	775	773	773	773	773	773	773	773	777	777	780	777	777	777	777	777	0	0	0	0	0	0	0	0	0	0	0	0	0	0	0	0	0	0	0	0	0	0	0	0	0	0	0	0	0	0	0	0	0	0	0	0	0	0	0	0	0	0	0	0	0	0	0	0	0
0	0	0	0	0	0	0	0	0	0	0	1567	1574	1574	1574	1567	1567	1574	1567	1560	1553	1553	1560	1560	1560	1560	1560	1560	1589	1589	1589	1596	1603	1603	1603	1467	1461	1467	1467	1467	1467	1467	1461	1467	1473	1473	1480	1492	1499	1499	1506	1506	1512	1519	1519	1525	1525	1532	1532	1539	1539	1539	1546	1553	1546	1546	1546	1546	1546	1553	1553	1553	1553	1553	1560	1560	1560	1560	1560	1567	1574	1581	1589	1596	1611	1611	1611	1618	1618	1626	1634	1634	1641	1690	1690	1958	1969	1969	1969	1980	1980	2003	1992	1992	2027	2027	2039	2051	2063	2076	2076	2088	2101	2101	2101	2114	2114	2114	2114	2114	2127	2127	2140	2127	2140	2140	2127	2127	2127	2127	2127	2127	2127	2127	2127	2127	2127	2127	2127	2127	2127	2127	2114	2114	2127	2114	2127	2114	2127	2114	2114	2114	2114	2114	2114	2114	2114	2114	2114	2101	2114	2114	2114	2114	2114	2114	2127	2127	2114	2114	2114	2114	2127	2127	2127	2140	2140	2153	2167	2167	2181	2194	2223	2237	2266	2281	2297	2312	2312	2312	2343	2359	2376	2392	2392	2409	2426	2443	2460	2478	2496	2478	2478	2478	0	0	0	0	0	0	0	0	0	0	0	7608	7779	7779	7779	7779	7779	7959	8146	8146	7959	7959	7959	8146	8146	7959	7959	7779	7959	7959	7959	7959	7959	8146	8146	8146	8146	8343	8343	8343	8343	0	0	7779	7959	7959	7959	7959	7779	7959	7959	7779	7779	7779	7779	7779	7779	7779	7779	7779	7779	7779	7608	7779	7779	7779	7779	7779	7779	7959	7959	8146	8146	8146	8146	7959	7959	7959	7959	7959	7779	7779	7779	7779	7779	7608	7608	3698	3738	3738	3779	3779	3821	3779	3779	3779	3779	3738	3738	3779	3738	3738	3738	3738	3738	3738	3738	3738	3738	3738	3779	3779	3779	3779	3779	3738	3738	3738	3779	3738	3779	3738	3779	3779	3779	3738	3738	3738	3779	3779	3779	3779	3779	3779	3779	3779	3779	3779	3779	3779	3779	3738	3738	3738	3738	3738	3738	3738	3779	3779	3779	3779	3779	3779	3779	3821	3821	3821	0	7608	7959	7959	7959	7779	7779	7779	7779	7779	7779	7608	7608	7608	7608	7779	7779	7779	7779	7779	7779	7779	7779	7779	7779	0	0	0	0	0	0	0	0	0	0	0	0	0	0	0	0	0	0	0	0	0	0	0	0	0	963	966	963	961	958	953	950	942	940	940	937	932	930	927	925	922	920	915	913	910	908	905	903	903	901	901	898	898	891	891	884	884	884	882	882	880	880	875	875	873	873	871	871	867	867	865	862	860	860	860	858	856	856	856	852	852	850	852	850	852	850	850	850	848	848	848	848	848	845	845	845	845	848	850	852	854	858	860	862	862	862	862	862	862	860	860	856	856	854	854	852	852	852	852	852	833	835	835	833	833	829	827	827	825	821	819	815	814	812	810	810	808	804	802	800	798	797	797	795	793	793	791	791	789	789	789	789	788	788	782	780	779	779	779	779	779	780	780	780	780	779	777	777	775	777	777	775	775	777	777	775	775	773	775	775	775	775	775	775	775	775	775	775	775	775	773	773	773	773	773	775	777	777	777	777	779	779	780	780	0	0	0	0	0	0	0	0	0	0	0	0	0	0	0	0	0	0	0	0	0	0	0	0	0	0	0	0	0	0	0	0	0	0	0	0	0	0	0	0	0	0	0	0	0	0	0	0	0
0	0	0	0	0	0	0	0	0	0	0	0	1574	1574	1574	1567	1574	1589	1574	1574	1560	1560	1560	1567	1567	1567	1567	1567	1603	1603	1596	1596	1603	1603	1603	1467	1467	1461	1467	1473	1473	1473	1467	1473	1473	1480	1486	1499	1506	1506	1512	1512	1512	1519	1519	1519	1525	1525	1539	1546	1546	1546	1553	1553	1553	1553	1553	1553	1560	1560	1567	1560	1560	1560	1567	1567	1567	1567	1567	1574	1574	1581	1589	1596	1603	1603	1611	1611	1618	1626	1626	1634	1641	1657	1657	1958	1992	1980	1980	1980	1992	1992	1992	1992	2027	2027	2051	2076	2076	2088	2088	2101	2101	2101	2114	2114	2114	2114	2114	2114	2140	2140	2140	2140	2140	2127	2127	2127	2127	2127	2127	2127	2127	2127	2127	2127	2127	2127	2127	2127	2127	2127	2114	2114	2114	2114	2114	2114	2127	2114	2114	2114	2114	2114	2114	2114	2101	2101	2114	2101	2114	2114	2114	2114	2114	2114	2127	2127	2114	2114	2114	2114	2114	2114	2127	2127	2140	2153	2167	2167	2181	2194	2208	2237	2281	2281	2297	2297	2312	2312	2343	2359	2376	2392	2409	2409	2409	2426	2460	2496	2514	2496	2496	2496	0	0	0	0	0	0	0	0	0	0	7608	7779	7779	7959	7959	7959	7959	8146	8343	8146	8146	8146	8146	8146	8146	7959	7959	7959	8146	8146	8146	8146	7959	8146	8343	8343	8146	8343	8343	8343	8343	8343	8343	0	7959	7959	7959	7959	7779	7779	7779	7779	7779	7779	7779	7779	7779	7779	7779	7779	7779	7779	7779	7779	7779	7779	7779	7779	7959	7959	7959	8146	8146	8146	8146	7959	7959	7959	7959	7959	7959	7959	7959	7779	7779	7608	7608	3738	3779	3779	3821	3821	3821	3821	3821	3779	3779	3779	3779	3779	3738	3738	3738	3738	3738	3738	3738	3738	3738	3738	3779	3779	3779	3738	3779	3738	3738	3738	3738	3738	3779	3738	3738	3738	3738	3738	3738	3738	3738	3779	3779	3779	3779	3779	3779	3779	3779	3779	3779	3779	3738	3738	3738	3738	3738	3738	3738	3738	3738	3738	3779	3779	3779	3779	3779	3821	3821	3821	3821	7608	7959	7959	7959	7779	7779	7779	7779	7779	7779	7779	7779	7608	7779	7779	7779	7779	7779	7959	7779	7779	7779	7779	7779	7779	0	0	0	0	0	0	0	0	0	0	0	0	0	0	0	0	0	0	0	0	0	0	0	0	963	966	969	958	953	953	948	942	940	940	937	935	930	930	927	922	920	917	915	910	908	905	903	901	901	898	896	896	891	891	889	887	884	884	882	880	880	875	875	873	873	871	871	869	869	867	862	862	860	860	858	856	856	856	854	854	850	852	852	852	850	850	850	850	848	848	848	848	845	848	848	848	848	850	850	850	854	854	865	865	865	867	865	865	862	860	858	856	854	852	852	852	852	852	845	835	835	835	833	833	829	827	827	825	821	823	823	823	810	810	810	808	804	802	798	798	797	797	795	795	793	791	791	791	791	791	789	789	788	780	779	779	779	779	780	780	780	780	780	780	779	779	777	777	777	775	775	777	777	775	775	775	775	777	777	775	775	775	775	775	775	775	775	775	775	775	775	775	775	775	775	775	777	777	780	780	780	782	782	0	0	0	0	0	0	0	0	0	0	0	0	0	0	0	0	0	0	0	0	0	0	0	0	0	0	0	0	0	0	0	0	0	0	0	0	0	0	0	0	0	0	0	0	0	0	0	0	0
0	0	0	0	0	0	0	0	0	0	0	0	1574	1581	1581	1574	1589	1589	1581	1581	1574	1574	1574	1574	1574	1574	1574	1603	1603	1603	1596	1596	1603	1603	1603	1603	1603	1467	1467	1473	1473	1473	1473	1473	1480	1480	1492	1506	1512	1512	1512	1519	1519	1525	1525	1525	1525	1532	1539	1546	1553	1553	1560	1560	1560	1560	1560	1560	1567	1574	1574	1567	1567	1560	1567	1574	1574	1567	1567	1574	1581	1589	1596	1596	1603	1603	1611	1611	1626	1626	1634	1634	1641	1665	1673	1673	1992	1980	1969	1969	1980	1980	1980	2015	2051	2051	2063	2076	2076	2088	2088	2101	2101	2101	2101	2101	2101	2114	2114	2114	2127	2127	2140	2127	2127	2127	2127	2127	2127	2127	2127	2127	2127	2127	2127	2127	2127	2127	2127	2127	2127	2127	2127	2114	2114	2114	2114	2114	2127	2114	2114	2127	2127	2114	2114	2114	2114	2114	2114	2101	2114	2114	2114	2114	2114	2114	2127	2127	2114	2114	2114	2114	2114	2114	2114	2127	2140	2140	2153	2167	2181	2194	2194	2237	2281	2297	2297	2297	2312	2327	2343	2359	2376	2392	2392	2392	2409	2443	2460	2532	2514	2514	2514	2496	0	0	0	0	0	0	0	7959	7959	0	7959	7959	7959	7959	7959	8146	7959	8146	8343	8146	7959	7959	7959	7959	7959	7959	7959	7959	8146	8146	8146	8146	7959	7959	8146	8146	8146	8343	8343	8550	8550	8343	8343	8343	8146	8146	8146	7959	7959	7959	7959	7779	7779	7779	7959	7959	7959	7779	7959	7959	7779	7959	7959	7959	7959	7779	7779	7779	7959	7959	7959	8343	8343	8343	8146	8146	7959	7959	7959	7959	7959	7959	7779	7779	7779	7779	3821	3821	3821	3821	3821	3821	3821	3821	3779	3779	3779	3738	3779	3779	3738	3738	3738	3738	3738	3738	3738	3738	3738	3738	3779	3738	3779	3738	3738	3738	3738	3738	3738	3738	3738	3738	3738	3738	3738	3738	3738	3738	3738	3738	3779	3738	3779	3779	3779	3779	3738	3738	3779	3738	3738	3738	3738	3738	3738	3738	3738	3738	3738	3738	3779	3779	3779	3779	3779	3779	3779	3779	3738	3738	7959	8146	8146	7959	7959	7959	7959	7779	7959	7959	7779	7779	7779	7779	7779	7779	7779	7959	7959	7779	7959	7959	7959	7959	0	0	0	0	0	0	0	0	0	0	0	0	0	0	0	0	0	0	0	0	0	0	0	0	0	0	969	958	953	953	950	942	942	940	937	935	932	930	930	927	922	922	915	913	908	905	903	901	901	898	896	894	891	889	887	887	887	884	882	880	880	875	875	875	873	873	871	871	869	867	862	862	860	860	858	856	856	856	854	854	854	850	852	852	850	850	850	848	848	848	848	848	848	848	848	848	848	850	850	850	850	850	865	865	869	869	869	867	862	860	860	858	856	854	852	852	852	850	845	843	835	835	833	829	829	827	827	825	825	823	823	823	810	808	808	806	804	802	798	798	797	797	795	795	795	793	791	791	791	793	791	789	789	788	780	780	780	780	782	782	780	780	786	782	780	779	777	777	779	775	775	775	777	775	775	775	775	777	777	775	777	775	775	775	779	777	779	779	777	777	777	777	775	775	775	775	777	780	780	782	784	782	782	0	0	0	0	0	0	0	0	0	0	0	0	0	0	0	0	0	0	0	0	0	0	0	0	0	0	0	0	0	0	0	0	0	0	0	0	0	0	0	0	0	0	0	0	0	0	0	0	0
0	0	0	0	0	0	0	0	0	0	0	1603	1596	1596	1589	1589	1589	1596	1589	1589	1589	1596	1596	1589	1581	1581	1603	1603	1603	1603	1596	1603	1603	1603	1603	1603	1603	1611	1473	1473	1473	1467	1473	1473	1486	1492	1499	1506	1512	1512	1512	1519	1519	1525	1525	1525	1532	1539	1546	1546	1553	1553	1560	1560	1567	1567	1574	1574	1574	1581	1581	1574	1574	1574	1581	1596	1596	1589	1596	1596	1596	1596	1603	1603	1603	1611	1611	1618	1626	1634	1634	1634	1641	1649	1665	1673	1681	1690	1690	1980	1698	1698	1698	2015	2015	2051	2051	2076	2088	2088	2088	2101	2101	2101	2101	2101	2101	2101	2114	2114	2127	2127	2127	2127	2127	2127	2127	2127	2127	2127	2127	2127	2127	2127	2127	2127	2127	2127	2127	2127	2127	2127	2127	2127	2127	2127	2127	2114	2127	2114	2114	2114	2114	2114	2114	2114	2114	2114	2114	2101	2114	2114	2114	2114	2114	2114	2127	2127	2114	2114	2114	2101	2101	2101	2101	2101	2140	2153	2167	2167	2181	2194	2223	2237	2266	2281	2281	2297	2312	2327	2343	2359	2376	2392	2392	2392	2409	2443	2496	2514	2514	2532	2532	0	0	0	8343	8146	8146	8146	8146	8146	8146	7779	7779	8146	8146	8146	8146	8146	8146	8146	8343	8146	8146	7959	7959	7959	7959	7959	7959	7959	8146	8146	8343	8343	8343	8343	8343	8343	8343	8343	8343	8343	8343	8343	8343	8146	8146	8146	8146	8146	8146	8146	8146	8146	8146	8146	8146	8146	8146	7959	8146	7959	7959	7959	7959	7959	7959	7959	7959	7779	7959	8146	8146	8550	8550	8550	8146	8146	7959	7959	7959	7959	7779	7779	7779	7779	7608	7608	3821	3821	3821	3821	3821	3821	3821	3779	3779	3779	3779	3738	3738	3738	3738	3738	3738	3738	3738	3738	3738	3738	3738	3738	3779	3738	3779	3738	3779	3779	3738	3738	3738	3738	3738	3738	3738	3738	3738	3738	3738	3738	3738	3738	3779	3738	3779	3779	3738	3779	3738	3738	3738	3738	3738	3738	3738	3738	3779	3779	3779	3738	3738	3738	3779	3779	3779	3779	3779	3779	3779	3738	3738	3738	7959	8343	8146	8146	8146	7959	7959	7959	7959	7959	7959	7959	7959	7959	7959	7959	7959	7959	7959	7959	7959	7959	7959	7959	0	0	0	0	0	0	0	0	0	0	0	0	0	0	0	0	0	0	0	0	0	0	0	0	0	0	0	0	953	953	950	945	942	940	937	935	932	932	930	930	930	922	922	917	913	905	905	903	901	898	896	894	891	891	887	887	884	884	882	882	880	875	875	875	873	873	873	871	871	869	867	865	865	862	860	858	858	856	856	854	854	852	852	852	850	850	850	848	848	848	848	848	848	848	848	848	848	850	848	848	848	848	845	873	873	873	871	869	867	862	860	858	856	854	852	852	852	850	845	843	835	831	833	829	829	827	827	827	825	825	825	825	0	806	806	804	804	804	800	798	798	797	795	795	795	793	791	793	793	795	791	789	789	788	788	786	782	782	784	784	784	786	786	782	780	779	779	780	780	780	777	777	777	777	779	779	779	779	777	777	779	777	777	777	779	779	780	780	779	779	779	779	779	775	775	777	777	777	779	782	780	782	782	0	0	0	0	0	0	0	0	0	0	0	0	0	0	0	0	0	0	0	0	0	0	0	0	0	0	0	0	0	0	0	0	0	0	0	0	0	0	0	0	0	0	0	0	0	0	0	0	0
0	0	0	0	0	0	0	0	0	0	0	1618	1618	1603	1603	1603	1603	1603	1596	1596	1603	1611	1611	1603	1603	1596	1611	1611	1603	1603	1603	1596	1603	1603	1596	1603	1603	1611	1611	1473	1473	1473	1480	1486	1499	1499	1506	1512	1519	1512	1512	1519	1519	1525	1525	1525	1532	1532	1539	1546	1546	1553	1553	1567	1567	1574	1581	1581	1581	1589	1589	1589	1589	1581	1589	1603	1611	1603	1603	1603	1603	1603	1603	1603	1611	1611	1611	1618	1626	1626	1634	1634	1641	1649	1657	1673	1681	1690	1698	1698	1698	1698	1698	1698	2051	2051	2063	2076	2088	2088	2101	2101	2101	2101	2101	2101	2101	2101	2114	2101	2127	2127	2127	2127	2127	2127	2127	2127	2127	2127	2127	2127	2127	2127	2127	2127	2127	2127	2127	2127	2140	2127	2127	2127	2127	2127	2127	2114	2114	2114	2127	2127	2114	2114	2114	2114	2114	2114	2114	2101	2114	2127	2114	2114	2114	2114	2114	2127	2114	2101	2101	2101	2101	2101	2101	2127	2140	2153	2167	2167	2181	2194	2208	2223	2266	2281	2297	2297	2312	2327	2343	2359	2376	2376	2392	2392	2409	2460	2478	2514	2514	2532	2532	0	0	0	8343	8343	8146	7959	7959	7959	7779	7779	7779	7959	8146	8343	8146	8146	8146	8343	8343	8343	8146	7959	7959	8146	8146	7959	7959	8146	8146	8343	8343	8343	8343	8343	8343	8343	8343	8550	8343	8550	8343	8343	8343	8343	8146	8146	8146	8343	8146	8146	8343	8343	8343	8146	8146	8146	8146	8146	8146	8146	7959	7959	7959	8146	7959	7959	7959	7959	8146	7959	7959	8550	8550	8550	8146	7959	7959	7959	7959	7959	7959	7959	7959	7959	7959	3864	3864	3864	3821	3864	3821	3821	3821	3821	3779	3779	3779	3779	3779	3779	3738	3738	3738	3738	3738	3738	3738	3738	3738	3738	3738	3738	3779	3738	3779	3779	3738	3738	3738	3738	3738	3738	3738	3738	3738	3738	3738	3738	3738	3738	3738	3738	3738	3738	3738	3738	3738	3738	3738	3738	3738	3779	3779	3779	3779	3779	3779	3738	3738	3779	3779	3779	3738	3738	3779	3779	3779	3738	3738	3738	3738	8343	8343	8146	8146	7959	7959	7959	8146	8146	7959	8146	7959	7959	7959	7959	7959	8146	8146	7959	7959	8146	8146	8146	0	0	0	0	0	0	0	0	0	0	0	0	0	0	0	0	0	0	0	0	0	0	0	0	0	0	0	0	0	953	950	945	942	942	940	937	932	932	930	930	925	922	920	917	913	908	908	908	901	894	894	891	891	889	887	884	884	882	882	882	880	875	875	875	875	873	873	873	871	871	869	867	865	865	860	858	858	856	856	856	854	854	852	852	852	852	850	850	850	848	848	848	848	848	848	848	848	848	848	845	845	845	845	873	873	875	873	871	869	862	862	858	856	854	852	852	852	850	848	843	833	831	833	831	829	829	827	825	825	821	821	821	0	808	806	806	804	804	800	800	798	797	797	795	795	795	793	795	793	795	791	789	789	789	788	782	782	786	786	786	786	788	788	786	784	782	782	784	784	784	784	788	780	780	780	780	780	780	780	779	780	780	779	779	782	782	782	782	780	780	779	779	779	788	788	788	780	779	779	782	784	784	784	0	0	0	0	0	0	0	0	0	0	0	0	0	0	0	0	0	0	0	0	0	0	0	0	0	0	0	0	0	0	0	0	0	0	0	0	0	0	0	0	0	0	0	0	0	0	0	0	0
0	0	0	0	0	0	0	0	0	0	0	1618	1618	1611	1611	1603	1611	1603	1603	1603	1618	1626	1626	1618	1618	1611	1618	1618	1611	1611	1603	1603	1603	1603	1603	1603	1611	1611	1611	1634	1480	1480	1480	1499	1512	1506	1506	1519	1519	1519	1519	1519	1525	1525	1532	1532	1539	1539	1539	1546	1553	1560	1567	1567	1574	1581	1589	1589	1589	1589	1589	1596	1603	1596	1603	1611	1626	1618	1618	1611	1611	1611	1611	1618	1611	1618	1618	1626	1626	1626	1634	1634	1634	1641	1649	1665	1681	1690	1706	1698	1698	1698	1698	1698	2051	2051	2063	2076	2088	2088	2101	2101	2101	2114	2114	2114	2101	2101	2114	2101	2127	2127	2127	2127	2127	2127	2127	2127	2114	2127	2127	2127	2127	2127	2127	2127	2127	2127	2127	2140	2140	2140	2127	2127	2127	2127	2127	2114	2114	2114	2114	2127	2114	2114	2114	2127	2127	2127	2114	2114	2114	2114	2114	2114	2114	2114	2114	2127	2114	2101	2101	2101	2101	2101	2101	2127	2140	2153	2167	2167	2181	2194	2208	2237	2252	2266	2281	2297	2312	2327	2343	2359	2376	2376	2392	2392	2409	2460	2478	2496	2514	2514	2514	2514	0	0	8343	8550	8343	8146	7959	7959	7959	7959	7959	8146	8146	8343	8343	8146	8146	8343	8550	8343	8343	8146	8146	8146	8146	8146	8146	8146	8343	8343	8343	8343	8343	8343	8343	8343	8343	8550	8343	8343	8343	8343	8343	8343	8343	8343	8343	8343	8343	8343	8343	8343	8343	8343	8343	8343	8343	8146	8146	8146	8146	7959	7959	8146	7959	7959	7959	7959	7959	8146	8146	8550	8343	8343	8146	8146	7959	7959	7959	7959	7959	7959	7779	7779	7779	7779	3864	3864	3864	3864	3864	3821	3821	3821	3779	3779	3779	3779	3779	3779	3779	3779	3738	3738	3738	3738	3738	3738	3738	3738	3779	3738	3738	3738	3779	3779	3738	3738	3738	3738	3738	3738	3738	3738	3738	3738	3738	3738	3738	3738	3738	3738	3738	3738	3738	3738	3738	3738	3738	3779	3779	3779	3779	3779	3779	3779	3779	3738	3738	3779	3779	3779	3779	3738	3779	3779	3738	3738	3738	3738	3738	0	8343	8343	8146	8146	8146	8146	8146	8146	8146	8146	8146	8146	7959	7959	8146	8146	8146	8146	8146	8343	8343	8343	0	0	0	0	0	0	0	0	0	0	0	0	0	0	0	0	0	0	0	0	0	0	0	0	0	0	0	0	0	953	950	948	945	942	940	937	932	932	930	930	927	925	922	920	920	920	901	901	901	896	894	894	891	889	887	887	884	884	882	882	880	878	875	875	875	873	873	873	871	871	869	865	865	862	860	858	856	856	856	856	856	854	854	852	852	852	852	850	850	850	848	848	848	850	848	848	848	848	848	845	843	843	845	845	0	875	873	873	869	867	865	860	856	854	852	852	850	850	845	841	835	833	833	831	829	827	827	825	823	821	821	815	815	815	808	806	806	804	802	800	798	798	797	797	795	795	795	795	795	795	791	789	789	789	788	786	786	786	786	786	786	788	788	788	786	784	784	788	788	788	788	788	788	782	782	782	782	780	780	780	782	780	779	786	784	786	784	786	786	788	788	788	789	788	788	788	784	784	782	782	784	784	784	0	0	0	0	0	0	0	0	0	0	0	0	0	0	0	0	0	0	0	0	0	0	0	0	0	0	0	0	0	0	0	0	0	0	0	0	0	0	0	0	0	0	0	0	0	0	0	0	0
0	0	0	0	0	0	0	0	0	0	0	1626	1626	1618	1618	1611	1618	1611	1611	1611	1611	1626	1634	1634	1634	1626	1626	1626	1618	1618	1618	1611	1611	1611	1611	1611	1618	1618	1626	1641	1641	1649	1673	1512	1673	1519	1512	1525	1525	1525	1525	1525	1532	1532	1539	1539	1539	1539	1539	1546	1553	1553	1560	1567	1574	1581	1589	1596	1596	1596	1603	1603	1611	1611	1618	1618	1626	1626	1618	1611	1618	1618	1618	1618	1618	1626	1626	1634	1634	1626	1634	1634	1641	1641	1657	1673	1673	1690	1698	1698	1698	1698	1698	1698	1992	1992	2076	2076	2088	2101	2101	2101	2114	2114	2114	2114	2114	2101	2114	2114	2114	2127	2127	2127	2127	2127	2127	2127	2114	2127	2127	2127	2127	2127	2127	2127	2127	2114	2127	2127	2127	2127	2127	2127	2127	2127	2127	2114	2114	2114	2127	2127	2127	2114	2114	2114	2127	2127	2114	2114	2114	2114	2114	2114	2114	2114	2114	2114	2114	2101	2101	2101	2101	2101	2101	2114	2140	2153	2167	2167	2181	2194	2194	2223	2237	2281	2281	2297	2312	2327	2343	2359	2359	2376	2376	2392	2409	2443	2478	2496	2514	2514	2514	2514	0	0	0	8343	8343	8146	8146	8146	8146	8146	7959	8146	8146	8343	8146	8146	8146	8343	8550	8343	8343	8146	8146	8146	8146	8146	8343	8343	8343	8343	8343	8343	8343	8343	8343	8343	8343	8343	8343	8343	8343	8343	8343	8343	8343	8343	8343	8343	8343	8343	8343	8343	8343	8343	8343	8343	8343	8146	8146	8146	8146	7959	7959	8146	8146	8146	7959	7959	8146	8146	8146	8343	8343	8343	8146	8146	7959	7959	7959	7959	7959	7959	7779	7779	7779	7779	7779	3864	3864	3864	3864	3864	3864	3821	3821	3779	3779	3779	3779	3779	3738	3738	3738	3738	3738	3738	3738	3698	3698	3698	3738	3738	3738	3738	3779	3779	3779	3738	3779	3738	3738	3738	3738	3738	3738	3738	3738	3738	3738	3738	3738	3738	3738	3738	3738	3738	3738	3738	3738	3779	3779	3779	3779	3779	3779	3779	3779	3738	3738	3779	3779	3779	3779	3779	3779	3779	3738	3738	3738	3738	3738	3738	8343	8343	8343	8146	8146	8343	8343	8343	8146	8146	8146	8146	7959	7959	7959	8146	8343	8146	8146	8343	8343	8343	0	0	0	0	0	0	0	0	0	0	0	0	0	0	0	0	0	0	0	0	0	0	0	0	0	0	0	0	0	953	950	948	945	942	940	937	932	932	930	930	927	925	922	922	920	917	913	913	898	898	896	896	894	891	889	887	887	884	882	882	880	878	875	875	875	873	873	873	873	871	871	869	865	865	860	858	858	856	856	856	856	854	854	852	852	852	852	850	850	850	848	848	850	850	848	848	845	848	848	845	843	845	845	845	0	0	873	873	869	867	865	860	856	852	852	852	850	845	843	841	835	833	833	831	829	827	827	825	821	819	817	815	815	812	808	806	806	806	802	800	798	798	797	797	797	795	795	797	795	795	791	788	788	786	788	786	786	786	788	788	788	789	788	788	788	788	788	789	789	788	788	788	788	788	784	784	782	782	782	780	782	780	780	788	789	789	789	789	789	789	789	789	789	789	788	788	786	786	786	786	784	786	786	0	0	0	0	0	0	0	0	0	0	0	0	0	0	0	0	0	0	0	0	0	0	0	0	0	0	0	0	0	0	0	0	0	0	0	0	0	0	0	0	0	0	0	0	0	0	0	0	0
0	0	0	0	0	0	0	0	0	0	0	1626	1626	1626	1626	1626	1626	1618	1618	1618	1618	1634	1634	1641	1641	1634	1634	1634	1626	1626	1626	1626	1618	1618	1634	1634	1641	1634	1634	1641	1657	1665	1665	1673	1665	1525	1519	1525	1525	1525	1532	1532	1532	1539	1539	1539	1546	1546	1546	1546	1553	1553	1553	1560	1567	1581	1596	1596	1603	1603	1611	1611	1626	1618	1634	1634	1641	1634	1626	1618	1634	1634	1626	1626	1626	1634	1634	1634	1634	1634	1641	1641	1641	1649	1665	1673	1673	1681	1690	1690	1698	1698	1698	1698	2003	2003	2003	2003	2101	2101	2101	2114	2114	2114	2114	2114	2101	2101	2101	2101	2101	2114	2114	2114	2127	2127	2127	2127	2127	2127	2127	2127	2127	2127	2127	2127	2114	2114	2114	2127	2127	2127	2127	2127	2127	2127	2127	2127	2114	2114	2127	2127	2114	2114	2114	2127	2114	2114	2114	2114	2114	2114	2114	2114	2101	2114	2114	2114	2114	2101	2101	2101	2101	2088	2101	2114	2140	2140	2167	2167	2181	2194	2194	2208	2237	2281	2281	2312	2312	2327	2343	2359	2359	2376	2376	2392	2409	2426	2443	2478	2478	2514	2514	2514	0	0	8343	8343	8343	8146	8146	8146	8146	8146	8146	8146	8146	8343	8146	8146	8146	8343	8550	8343	8343	8343	8343	8343	8343	8343	8343	8343	8343	8343	8343	8343	8343	8343	8343	8343	8343	8343	8343	8343	8343	8343	8343	8343	8343	8343	8343	8343	8343	8343	8343	8343	8343	8343	8343	8343	8343	8343	8146	8146	8146	8146	8146	8146	8146	8146	8146	8146	8146	8343	8343	8343	8343	8343	8343	8146	7959	7959	7959	7959	7959	7959	7779	7779	7779	3821	3821	3864	3864	3864	3864	3864	3821	3821	3779	3779	3779	3779	3779	3779	3738	3779	3738	3738	3738	3738	3738	3698	3698	3698	3738	3738	3738	3738	3738	3779	3738	3738	3738	3738	3738	3738	3738	3738	3738	3738	3738	3738	3738	3738	3738	3738	3738	3738	3738	3738	3738	3738	3738	3738	3738	3779	3779	3779	3779	3779	3779	3738	3779	3779	3779	3779	3779	3779	3779	3779	3738	3738	3738	3738	3738	3738	8343	8343	8343	8343	8343	8343	8343	8343	8146	8343	8343	8343	8146	8146	8146	8146	8146	8146	8146	8343	8343	8343	0	0	0	0	0	0	0	0	0	0	0	0	0	0	0	0	0	0	0	0	0	0	0	0	0	0	0	0	0	953	953	948	948	945	942	940	935	932	930	930	927	925	922	922	920	915	913	913	903	901	896	896	894	891	891	889	887	884	884	882	882	880	878	875	875	875	873	873	871	871	869	867	865	865	862	860	858	858	856	856	856	854	854	852	852	852	852	850	850	850	850	850	850	850	848	848	848	848	848	845	843	845	845	0	0	0	0	0	0	0	0	862	856	856	852	852	848	845	843	841	835	833	833	831	829	827	825	825	823	819	819	815	814	810	808	808	804	804	802	802	798	800	800	797	797	797	795	795	795	795	791	789	788	788	786	786	788	788	788	788	788	789	789	789	788	788	788	789	789	788	788	788	788	788	786	784	782	782	782	780	780	782	782	782	789	791	791	793	791	791	789	789	789	789	789	788	788	786	786	786	784	784	784	0	0	0	0	0	0	0	0	0	0	0	0	0	0	0	0	0	0	0	0	0	0	0	0	0	0	0	0	0	0	0	0	0	0	0	0	0	0	0	0	0	0	0	0	0	0	0	0	0
0	0	0	0	0	0	0	0	0	0	0	1634	1634	1626	1634	1634	1634	1626	1634	1641	1634	1641	1641	1657	1657	1649	1641	1641	1641	1641	1641	1641	1634	1626	1641	1641	1641	1641	1641	1657	1665	1665	1673	1673	1673	1673	1673	1673	1532	1539	1546	1539	1539	1546	1546	1546	1553	1546	1546	1553	1553	1553	1553	1560	1567	1581	1589	1596	1603	1603	1611	1618	1626	1626	1634	1634	1641	1649	1641	1641	1641	1649	1641	1634	1634	1641	1649	1641	1641	1641	1641	1641	1641	1649	1665	1673	1681	1681	1690	1698	1698	1698	1698	1698	2003	2003	2003	2003	2039	2101	2101	2114	2114	2114	2114	2114	2114	2114	2114	2114	2114	2127	2114	2127	2127	2127	2127	2127	2114	2114	2127	2127	2127	2127	2127	2114	2114	2114	2114	2114	2114	2114	2114	2127	2127	2127	2127	2127	2114	2114	2127	2127	2114	2114	2114	2127	2114	2114	2114	2114	2114	2114	2114	2114	2114	2114	2114	2114	2114	2101	2101	2101	2101	2088	2101	2127	2140	2140	2167	2167	2181	2181	2194	2223	2237	2266	2281	2297	2312	2327	2343	2359	2359	2376	2376	2392	2409	2426	2443	2460	2478	2496	2496	2496	0	0	8343	8343	8343	8343	8146	8146	8343	8146	8146	8146	8146	8343	8146	8146	8146	8550	8550	8343	8343	8343	8343	8343	8343	8343	8343	8343	8343	8343	8343	8343	8343	8343	8343	8343	8343	8343	8343	8343	8343	8343	8343	8343	8343	8343	8343	8343	8343	8343	8343	8343	8343	8343	8343	8343	8343	8343	8343	8146	8146	8146	8146	8146	8146	8146	8146	8146	8343	8343	8343	8343	8343	8343	8343	8343	8146	7959	7959	7959	7959	7779	7779	7779	7779	3821	3864	3821	3864	3864	3864	3864	3821	3779	3779	3779	3779	3738	3738	3738	3738	3779	3738	3738	3738	3738	3738	3698	3698	3698	3738	3738	3738	3738	3738	3738	3738	3738	3738	3738	3738	3738	3738	3738	3738	3738	3738	3738	3738	3738	3738	3738	3738	3738	3738	3738	3738	3738	3738	3738	3738	3779	3779	3779	3779	3779	3779	3779	3779	3779	3779	3779	3779	3779	3779	3779	3779	3738	3738	3738	3738	3738	8146	8146	8146	8146	8146	8146	8146	8146	8146	8343	8146	8146	8146	8146	8146	8343	8146	8146	8146	8146	8146	8146	0	0	0	0	0	0	0	0	0	0	0	0	0	0	0	0	0	0	0	0	0	0	0	0	0	0	0	0	0	0	953	948	945	942	942	942	940	935	932	930	927	925	922	922	920	920	915	910	905	901	901	898	896	894	891	891	889	887	884	884	882	880	878	878	875	875	873	873	873	871	869	867	865	865	862	860	858	858	856	856	856	856	852	852	852	850	852	850	850	850	850	850	850	850	848	848	848	848	848	845	845	845	845	0	0	0	0	0	0	0	0	858	856	854	852	852	848	845	843	841	835	833	833	829	827	827	825	823	823	819	817	815	814	810	808	808	804	804	802	802	800	800	800	798	798	797	797	797	795	795	793	789	789	788	788	788	788	789	789	789	789	789	789	789	789	789	789	789	789	789	789	789	788	788	788	786	784	782	782	782	782	782	793	791	791	791	791	791	791	791	789	789	789	789	789	788	788	788	788	788	784	784	784	0	0	0	0	0	0	0	0	0	0	0	0	0	0	0	0	0	0	0	0	0	0	0	0	0	0	0	0	0	0	0	0	0	0	0	0	0	0	0	0	0	0	0	0	0	0	0	0	0
