0	0	0	0	0	0	0	0	0	1581	1596	1596	1596	1596	1596	1596	1596	1603	1596	1596	1596	1596	1589	1589	1603	1603	1618	1626	1634	1634	1634	1626	1634	1641	1634	1634	0	2181	2167	2167	2167	2153	2153	2153	2153	2153	2153	2153	2153	2153	2153	2153	2140	2140	2140	2140	2140	2153	2153	2153	2167	2167	2140	2140	2140	2140	2140	2140	2153	2153	2153	2153	2153	2167	2167	2167	2167	2153	2153	2153	2153	2153	2140	2140	2153	2167	2167	2167	2167	2167	2167	2167	2167	2167	2167	2167	2167	2181	2181	2181	2181	2194	2208	2208	2223	2208	2208	2208	2208	2754	2711	2711	2711	2711	2711	2711	2711	2711	2711	2711	2711	2711	2711	2690	2690	2711	2711	2690	2690	2690	2690	2690	2690	2690	2690	2690	2690	2690	2690	2711	2711	2690	2690	2711	2711	2733	2711	2711	2733	2711	2711	2733	2733	2733	2711	2711	2733	2754	2754	2845	2869	2917	2893	2917	2893	2893	2893	2893	3779	3698	3698	3659	3659	3621	3583	3583	3621	3583	3583	3621	3621	3621	3621	3621	3621	3621	3659	3659	3659	3659	3659	3659	3659	3621	3621	3621	3621	3621	3621	3621	3659	3698	3738	3738	3821	3864	3952	3952	3952	3952	3907	3907	3907	3907	3907	3907	3907	3952	3952	3907	3907	3907	3864	3864	3864	3907	3907	3864	3864	3864	3864	3864	3864	3864	3864	3864	3864	3864	3864	3864	3864	3864	3864	3864	3864	3864	3864	3864	3864	3864	3864	3864	3907	3864	3864	3864	3864	3907	3907	3864	3864	3864	3864	3907	3864	3907	3864	3907	3907	3907	3907	3864	3907	3864	3864	3864	3864	3864	3864	3864	3864	3864	3864	3864	3864	3864	3864	3864	3864	3864	3864	3864	3864	3864	3864	3864	3821	3821	3821	3821	3821	3821	3821	3821	3864	3821	3821	3864	3864	3864	3864	3864	3864	0	0	3821	3821	3821	3821	3821	3821	3821	3779	3779	0	3864	3864	3864	0	0	0	3779	3779	3821	3821	3821	3821	3821	3821	3821	3821	3821	3779	3779	3779	3779	3779	3779	3779	3779	3779	3779	3779	3779	3779	3779	3779	3779	3779	3779	3779	3779	3779	3779	3779	3738	3738	3738	3738	3821	3821	3821	3821	3821	3821	3821	3821	3821	3821	3821	3779	3821	3821	3779	3779	3821	3821	3821	3821	3821	3821	3821	3821	3821	3821	3821	3821	3821	3779	3779	3779	3779	3779	3779	3779	3779	3779	3779	3779	3779	3779	3779	3779	3779	3779	3779	3779	3779	3779	3779	3779	3779	3779	3779	3779	3821	3821	3821	3821	3821	3821	3821	3821	3821	3821	3821	3821	3779	3779	3779	3779	3779	3779	3779	3779	3779	3779	3779	3821	3821	3821	3821	3821	3821	3821	3821	3821	3821	3821	3779	3779	3779	3779	3779	3738	3779	3738	3779	3779	3779	3779	3779	3779	3779	3821	3821	3821	3779	3779	3779	3779	3779	3779	3779	3738	3779	3779	3779	3779	3779	3779	3779	3779	3779	3779	3738	3738	3738	3738	3738	3738	3738	3738	3738	3738	3738	3738	3738	0	0	0	0	0	0	0	0	0	0	0	0	0	0	0	0	0	0	0	0	0	0	0	0	0	0	0	0	0	0	0	0	0	0	0	0	0	0	0	0	0	0	0	0	0	0	0	0	0	0	0	0	0	0	0	0	0	0	0	0	0	0	0	0	0	0	0	0	0	0	0	0	0	0	0	0	0	0	0	0	0	0	0	0	0	0	0	0	0	0	0	0	0	0	0	0	0	0	0	0	0	0	0	0	0	0	0	0	0	0	0	0	0	0	0	0	0	0	0	0	0	0	0	0	0	0	0	0	0	0	0	0
0	0	0	0	0	0	0	0	1574	1574	1581	1596	1603	1603	1603	1596	1596	1603	1596	1596	1596	1596	1596	1589	1603	1603	1618	1626	1634	1634	1634	1626	1626	1634	1634	1634	0	2194	2181	2167	2167	2167	2167	2167	2167	2194	2167	2167	2153	2194	2194	2194	2153	2153	2167	2167	2181	2167	2153	2167	2181	2181	2153	2153	2153	2153	2153	2153	2153	2167	2194	2194	2167	2167	2167	2167	2153	2153	2153	2153	2153	2153	2153	2153	2153	2181	2181	2167	2167	2167	2167	2167	2181	2181	2181	2167	2181	2181	2181	2181	2181	2194	2208	2208	2208	2208	2208	2208	2208	2777	2711	2711	2711	2711	2711	2711	2711	2711	2711	2711	2690	2711	2690	2690	2690	2669	2711	2711	2690	2690	2690	2690	2690	2690	2690	2690	2690	2690	2690	2690	2690	2690	2690	2711	2711	2733	2733	2711	2711	2711	2711	2711	2733	2711	2711	2711	2733	2754	2754	2869	2893	2917	2893	2917	2893	2893	2893	2893	2869	2869	3698	3698	3659	3621	3621	3621	3621	3621	3583	3583	3621	3621	3621	3621	3621	3659	3659	3659	3659	3659	3659	3659	3659	3659	3659	3659	3621	3659	3659	3659	3659	3698	3698	3698	3738	3779	3779	3907	3952	3907	3907	3907	3907	3907	3907	3907	3907	3907	3907	3907	3907	3907	3907	3864	3864	3907	3907	3864	3864	3864	3864	3864	3864	3864	3864	3864	3864	3864	3864	3864	3821	3864	3864	3864	3864	3864	3821	3821	3821	3864	3864	3864	3864	3864	3864	3864	3864	3907	3864	3864	3864	3864	3864	3864	3864	3907	3864	3907	3907	3907	3907	3864	3864	3864	3864	3864	3864	3864	3864	3864	3864	3864	3864	3864	3864	3864	3864	3864	3821	3864	3864	3864	3864	3864	3821	3821	3821	3821	3821	3821	3821	3779	3779	3864	3864	3864	3821	3864	3864	3864	3864	3864	3864	0	0	0	0	0	0	0	0	0	0	0	0	0	0	0	0	0	0	0	3779	3779	3779	3779	3821	3821	3821	3779	3779	3779	3779	3779	3779	3779	3779	3779	3779	3779	3779	3779	3779	3779	3779	3779	3779	3779	3779	3779	3779	3779	3779	3779	3779	3738	3738	3738	3779	3821	3821	3779	3821	3821	3821	3821	3821	3821	3821	3821	3779	3821	3821	3821	3821	3821	3821	3821	3821	3821	3821	3821	3821	3821	3821	3821	3821	3779	3779	3779	3779	3779	3779	3738	3779	3779	3779	3779	3779	3779	3779	3779	3779	3779	3779	3779	3779	3779	3779	3779	3779	3779	3779	3779	3779	3821	3821	3821	3821	3821	3821	3821	3779	3821	3821	3821	3821	3779	3779	3779	3779	3779	3738	3738	3779	3779	3779	3779	3821	3821	3821	3821	3821	3821	3821	3821	3821	3821	3821	3779	3779	3779	3779	3779	3779	3779	3779	3779	3779	3779	3779	3779	3779	3779	3779	3779	3821	3779	3779	3779	3738	3779	3779	3779	3779	3779	3779	3779	3779	3779	3779	3779	3779	3779	3779	3779	3779	3779	3779	3779	3779	3779	3779	3738	3738	3738	3698	3698	0	0	0	0	0	0	0	0	0	0	0	0	0	0	0	0	0	0	0	0	0	0	0	0	0	0	0	0	0	0	0	0	0	0	0	0	0	0	0	0	0	0	0	0	0	0	0	0	0	0	0	0	0	0	0	0	0	0	0	0	0	0	0	0	0	0	0	0	0	0	0	0	0	0	0	0	0	0	0	0	0	0	0	0	0	0	0	0	0	0	0	0	0	0	0	0	0	0	0	0	0	0	0	0	0	0	0	0	0	0	0	0	0	0	0	0	0	0	0	0	0	0	0	0	0	0	0	0	0	0	0	0
0	0	0	0	0	0	0	0	1574	1574	1581	1581	1596	1603	1596	1596	1596	1596	1596	1596	1589	1581	1589	1589	1611	1611	1618	1626	1634	1634	1634	1626	1634	1634	1618	1618	0	2194	2181	2181	2181	2167	2167	2167	2194	2194	2194	2194	2194	2208	2194	2208	2194	2194	2194	2194	2208	2194	2194	2194	2194	2194	2194	2181	2167	2153	2167	2208	2167	2167	2194	2194	2167	2167	2167	2181	2167	2167	2167	2167	2167	2181	2167	2181	2181	2194	2181	2181	2181	2167	2181	2181	2181	2181	2181	2181	2181	2181	2181	2181	2181	2194	2208	2208	2208	2208	2208	2208	2208	2208	2711	2711	2733	2711	2711	2711	2711	2711	2711	2711	2690	2711	2711	2690	2690	2690	2690	2690	2690	2690	2690	2690	2690	2690	2690	2690	2690	2690	2690	2690	2690	2690	2690	2711	2711	2733	2711	2711	2711	2711	2711	2711	2711	2711	2711	2711	2733	2733	2733	2869	2893	2917	2917	2917	2893	2893	2893	2893	2869	2942	2942	3738	3698	3659	3659	3621	3621	3621	3621	3621	3659	3659	3659	3659	3659	3659	3659	3659	3659	3659	3659	3659	3659	3659	3659	3659	3659	3659	3621	3621	3659	3659	3698	3698	3738	3738	3864	3907	3907	3907	3907	3907	3907	3907	3907	3907	3907	3907	3907	3907	3907	3907	3907	3864	3864	3864	3864	3864	3864	3864	3864	3864	3864	3864	3864	3864	3864	3864	3864	3864	3864	3864	3864	3864	3864	3821	3821	3821	3821	3821	3821	3864	3864	3864	3864	3864	3864	3864	3864	3864	3864	3864	3864	3864	3907	3907	3907	3907	3907	3907	3907	3864	3864	3864	3864	3864	3864	3864	3864	3864	3864	3864	3864	3864	3864	3864	3864	3864	3821	3821	3864	3864	3864	3864	3821	3821	3821	3821	3821	3821	3821	3779	3821	3864	3864	3821	3821	3864	2777	2777	2754	2711	2711	0	0	0	0	0	0	0	0	0	0	0	0	0	0	0	0	0	0	0	0	3779	3779	3779	3821	3821	3821	3779	3779	3779	3779	3779	3779	3779	3779	3779	3779	3779	3779	3779	3779	3779	3779	3779	3779	3779	3779	3779	3779	3738	3779	3779	3779	3738	3738	3738	3738	3779	3779	3779	3779	3821	3821	3821	3821	3821	3821	3821	3779	3821	3821	3821	3821	3821	3821	3821	3821	3821	3821	3821	3821	3821	3821	3821	3821	3779	3779	3779	3779	3779	3779	3738	3779	3779	3779	3779	3779	3779	3779	3779	3779	3779	3779	3779	3779	3779	3779	3779	3779	3779	3779	3779	3779	3821	3821	3821	3821	3821	3821	3821	3779	3821	3779	3779	3779	3779	3779	3779	3779	3779	3779	3738	3779	3779	3779	3779	3779	3779	3779	3821	3779	3821	3821	3779	3779	3779	3779	3779	3779	3779	3779	3779	3779	3779	3779	3779	3779	3779	3738	3738	3779	3738	3779	3779	3779	3779	3779	3738	3738	3779	3779	3779	3779	3779	3779	3779	3738	3779	3738	3738	3779	3779	3779	3821	3779	3779	3779	3779	3779	3779	3779	3779	3738	3738	3738	3738	0	0	0	0	0	0	0	0	0	0	0	0	0	0	0	0	0	0	0	0	0	0	0	0	0	0	0	0	0	0	0	0	0	0	0	0	0	0	0	0	0	0	0	0	0	0	0	0	0	0	0	0	0	0	0	0	0	0	0	0	0	0	0	0	0	0	0	0	0	0	0	0	0	0	0	0	0	0	0	0	0	0	0	0	0	0	0	0	0	0	0	0	0	0	0	0	0	0	0	0	0	0	0	0	0	0	0	0	0	0	0	0	0	0	0	0	0	0	0	0	0	0	0	0	0	0	0	0	0	0	0	0
0	0	0	0	0	0	0	0	0	1574	1574	1589	1596	1596	1596	1596	1596	1603	1596	1596	1596	1596	1589	1589	1603	1611	1618	1626	1634	1634	1634	1634	1641	1641	1618	1618	0	2194	2181	2181	2181	2181	2181	2181	2208	2208	2208	2208	2208	2208	2208	2208	2194	2194	2194	2194	2208	2194	2194	2194	2194	2194	2194	2194	2181	2194	2208	2181	2181	2181	2208	2208	2194	2194	2194	2194	2181	2181	2181	2181	2181	2194	2181	2181	2181	2194	2194	2181	2181	2181	2208	2208	2208	2208	2181	2181	2194	2208	2194	2194	2194	2194	2208	2208	2208	2208	2208	2208	2208	2208	2733	2733	2733	2711	2711	2711	2711	2711	2711	2711	2690	2690	2690	2690	2690	2690	2690	2711	2690	2690	2690	2690	2690	2690	2690	2690	2690	2690	2690	2690	2690	2690	2711	2733	2711	2733	2711	2711	2711	2711	2711	2711	2711	2711	2711	2711	2711	2733	2733	2845	2893	2917	2917	2917	2917	2893	2917	2893	2893	2942	2967	2967	3698	3659	3659	3659	3659	3659	3659	3659	3659	3698	3698	3698	3698	3698	3659	3659	3659	3659	3659	3659	3659	3621	3621	3659	3621	3621	3659	3659	3659	3698	3698	3738	3738	3738	3821	3864	3907	3864	3864	3907	3907	3864	3907	3907	3864	3907	3907	3907	3907	3907	3907	3864	3864	3864	3864	3864	3864	3864	3864	3864	3907	3864	3864	3864	3864	3864	3864	3864	3864	3864	3864	3864	3864	3821	3821	3821	3821	3821	3659	3864	3864	3864	3821	3864	3821	3864	3864	3864	3864	3864	3864	3864	3907	3907	3907	3907	3907	3907	3907	3864	3864	3907	3907	3907	3907	3864	3864	3864	3864	3864	3864	3864	3864	3864	3864	3864	3821	3821	3821	3821	3821	3821	3821	3821	3821	3821	3821	3821	3779	3821	3821	3864	3864	3821	3821	3864	2777	2777	2754	2711	2711	2711	2711	0	0	0	0	0	0	0	0	0	0	0	0	0	0	0	0	0	0	0	0	3779	3779	3821	3779	3779	3779	3779	3779	3779	3779	3738	3738	3738	3738	3779	3738	3779	3779	3779	3779	3779	3779	3779	3779	3779	3779	3738	3738	3779	3738	3738	3738	3738	3738	3821	3779	3821	3779	3821	3779	3821	3821	3821	3821	3821	3821	3821	3821	3821	3821	3821	3821	3821	3821	3821	3821	3821	3821	3821	3821	3821	3821	3821	3821	3821	3779	3779	3779	3779	3779	3779	3779	3779	3779	3779	3779	3779	3779	3779	3779	3779	3779	3738	3779	3779	3779	3779	3779	3779	3779	3821	3821	3821	3821	3821	3821	3821	3821	3821	3821	3821	3779	3779	3779	3779	3779	3779	3779	3738	3779	3779	3779	3738	3779	3779	3779	3779	3779	3779	3779	3821	3821	3821	3821	3779	3779	3779	3779	3779	3779	3779	3779	3779	3698	3698	3698	3698	3738	3738	3738	3779	3779	3779	3779	3779	3779	3779	3779	3779	3779	3779	3779	3738	3738	3738	3738	3738	3738	3779	3779	3738	3779	3779	3779	3779	3779	3779	3779	3779	3738	3698	3659	3621	3621	0	0	0	0	0	0	0	0	0	0	0	0	0	0	0	0	0	0	0	0	0	0	0	0	0	0	0	0	0	0	0	0	0	0	0	0	0	0	0	0	0	0	0	0	0	0	0	0	0	0	0	0	0	0	0	0	0	0	0	0	0	0	0	0	0	0	0	0	0	0	0	0	0	0	0	0	0	0	0	0	0	0	0	0	0	0	0	0	0	0	0	0	0	0	0	0	0	0	0	0	0	0	0	0	0	0	0	0	0	0	0	0	0	0	0	0	0	0	0	0	0	0	0	0	0	0	0	0	0	0	0
0	0	0	0	0	0	0	0	0	1574	1589	1589	1596	1596	1603	1596	1596	1603	1596	1596	1589	1596	1596	1603	1611	1611	1618	1626	1634	1641	1634	1634	1641	1641	1618	1618	0	2181	2194	2181	2181	2181	2181	2194	2208	2208	2208	2208	2208	2208	2208	2208	2208	2208	2208	2208	2208	2208	2208	2208	2208	2194	2194	2194	2194	2181	2194	2181	2181	2181	2208	2208	2208	2208	2194	2194	2194	2181	2181	2181	2194	2194	2194	2194	2194	2208	2208	2194	2208	2208	2208	2208	2208	2208	2181	2181	2194	2194	2194	2194	2194	2208	2208	2208	2208	2208	2208	2208	2223	2181	2181	2733	2733	2733	2711	2711	2711	2690	2690	2690	2690	2690	2690	2690	2690	2690	2669	2690	2690	2690	2690	2690	2690	2690	2690	2690	2690	2690	2690	2690	2690	2690	2690	2690	2711	2711	2711	2711	2711	2711	2711	2711	2711	2711	2711	2711	2711	2733	2754	2754	2893	2917	2917	2917	2917	2917	2917	2967	2967	2967	2993	2993	3698	3659	3659	3659	3659	3659	3698	3698	3698	3738	3738	3738	3698	3698	3698	3659	3698	3659	3659	3659	3659	3698	3698	3698	3659	3698	3698	3698	3698	3738	3698	3698	3698	3738	3779	3821	3821	3864	3864	3907	3907	3907	3907	3907	3907	3907	3907	3907	3907	3907	3907	3907	3864	3864	3864	3864	3864	3864	3907	3864	3864	3864	3864	3864	3864	3864	3864	3864	3864	3864	3864	3864	3864	3821	3821	3821	3659	3659	3659	3864	3821	3821	3821	3821	3821	3864	3864	3864	3864	3864	3864	3864	3864	3864	3907	3907	3907	3907	3907	3864	3864	3864	3864	3864	3864	3864	3864	3864	3864	3864	3864	3864	3864	3864	3864	3864	3821	3821	3821	3821	3821	3821	3821	3821	3821	3821	3821	3821	3779	3821	3779	3821	3821	3821	3821	3821	3821	2777	2777	2733	2733	2733	2754	2754	2733	2733	2711	2711	2711	0	2690	2690	2711	2690	2711	2690	2690	0	0	0	0	0	0	0	3779	3779	3779	3779	3779	3779	3779	3779	3779	3738	3738	3738	3779	3779	3779	3779	3821	3821	3821	3779	3779	3779	3779	3779	3779	3738	3738	3738	3738	3738	3738	3738	3738	3779	3821	3821	3779	3779	3821	3821	3821	3821	3821	3821	3821	3779	3821	3821	3821	3821	3821	3821	3821	3821	3821	3821	3821	3821	3821	3821	3821	3821	3821	3779	3779	3779	3779	3779	3779	3779	3779	3779	3779	3779	3779	3779	3779	3779	3738	3779	3738	3738	3779	3779	3779	3779	3779	3779	3779	3821	3821	3821	3821	3821	3821	3821	3821	3821	3821	3821	3779	3779	3779	3779	3779	3779	3779	3738	3779	3779	3779	3738	3779	3779	3779	3821	3779	3779	3779	3779	3821	3821	3779	3779	3779	3779	3779	3779	3779	3779	3779	3779	3779	3779	3698	3738	3738	3738	3779	3779	3821	3779	3779	3738	3779	3779	3779	3779	3779	3779	3738	3738	3738	3779	3738	3738	3738	3738	3738	3779	3738	3779	3779	3779	3779	3779	3779	3779	3738	3698	3659	3659	3659	0	0	0	0	0	0	0	0	0	0	0	0	0	0	0	0	0	0	0	0	0	0	0	0	0	0	0	0	0	0	0	0	0	0	0	0	0	0	0	0	0	0	0	0	0	0	0	0	0	0	0	0	0	0	0	0	0	0	0	0	0	0	0	0	0	0	0	0	0	0	0	0	0	0	0	0	0	0	0	0	0	0	0	0	0	0	0	0	0	0	0	0	0	0	0	0	0	0	0	0	0	0	0	0	0	0	0	0	0	0	0	0	0	0	0	0	0	0	0	0	0	0	0	0	0	0	0	0	0	0	0
0	0	0	0	0	0	0	0	0	1589	1589	1596	1596	1596	1603	1603	1596	1596	1596	1596	1596	1596	1596	1596	1603	1603	1618	1618	1626	1641	1641	1626	1641	1641	1626	1626	0	2194	2194	2194	2194	2194	2194	2194	2194	2208	2208	2208	2208	2208	2223	2223	2223	2223	2237	2223	2223	2208	2208	2208	2223	2194	2194	2194	2194	2194	2194	2194	2181	2194	2208	2208	2208	2181	2208	2208	2194	2194	2194	2194	2208	2194	2194	2194	2194	2208	2208	2194	2194	2208	2208	2208	2208	2208	2208	2194	2194	2208	2208	2208	2194	2208	2208	2208	2208	2208	2208	2208	2208	2194	2208	2208	2733	2733	2711	2690	2690	2690	2711	2690	2690	2690	2690	2690	2690	2690	2690	2690	2690	2690	2711	2711	2711	2711	2711	2711	2690	2690	2690	2690	2690	2690	2690	2690	2711	2733	2733	2711	2733	2711	2733	2711	2711	2711	2711	2711	2711	2733	2733	2733	2917	2917	2917	2917	2917	2917	2967	2967	2993	2993	2993	2993	2993	2993	3698	3659	3659	3698	3698	3698	3738	3738	3738	3738	3738	3698	3698	3698	3698	3659	3659	3698	3698	3698	3698	3698	3698	3738	3738	3698	3698	3738	3698	3698	3698	3738	3779	3779	3821	3821	3864	3907	3907	3864	3907	3907	3864	3907	3907	3907	3907	3907	3907	3907	3907	3907	3907	3907	3907	3864	3864	3864	3864	3864	3864	3864	3864	3864	3864	3864	3864	3864	3864	3864	3821	3821	3821	3698	3659	3659	3659	3698	3821	3821	3821	3864	3821	3864	3864	3864	3864	3864	3864	3864	3864	3864	3864	3907	3907	3907	3907	3864	3864	3907	3864	3864	3864	3864	3864	3864	3864	3864	3864	3864	3864	3821	3821	3864	3821	3821	3779	3821	3821	3821	3821	3821	3821	3821	3821	3821	3821	3821	3779	3821	3864	3821	3821	2754	2777	2777	2754	2733	2733	2733	2754	2754	2733	2711	2711	2711	2711	2711	2690	2711	2711	2711	2711	2690	2690	0	0	0	0	0	0	0	0	3821	3821	3779	3779	3779	3779	3779	3779	3738	3738	3738	3779	3779	3779	3738	3738	3779	3779	3779	3779	3779	3779	3779	3779	3738	3738	3738	3738	3738	3738	3738	3779	3779	3779	3779	3779	3821	3779	3821	3821	3821	3821	3821	3779	3779	3779	3779	3779	3779	3779	3821	3779	3821	3821	3821	3821	3779	3779	3821	3821	3821	3821	3821	3779	3779	3779	3779	3779	3779	3779	3779	3779	3779	3779	3779	3779	3779	3779	3779	3738	3779	3779	3779	3779	3779	3779	3779	3779	3821	3821	3821	3821	3821	3821	3821	3821	3821	3821	3821	3779	3779	3779	3779	3779	3779	3779	3779	3779	3779	3779	3738	3738	3738	3738	3779	3779	3779	3779	3779	3821	3821	3779	3779	3779	3779	3779	3779	3779	3779	3779	3779	3779	3779	3738	3738	3738	3738	3738	3779	3821	3738	3779	3738	3779	3779	3779	3779	3779	3779	3779	3738	3779	3779	3779	3779	3738	3738	3779	3738	3738	3779	3738	3738	3779	3779	3821	3779	3779	3821	3738	3738	3659	0	0	0	0	0	0	0	0	0	0	0	0	0	0	0	0	0	0	0	0	0	0	0	0	0	0	0	0	0	0	0	0	0	0	0	0	0	0	0	0	0	0	0	0	0	0	0	0	0	0	0	0	0	0	0	0	0	0	0	0	0	0	0	0	0	0	0	0	0	0	0	0	0	0	0	0	0	0	0	0	0	0	0	0	0	0	0	0	0	0	0	0	0	0	0	0	0	0	0	0	0	0	0	0	0	0	0	0	0	0	0	0	0	0	0	0	0	0	0	0	0	0	0	0	0	0	0	0	0	0	0
0	0	0	0	0	0	0	0	0	1581	1589	1589	1581	1596	1603	1596	1596	1603	1596	1596	1596	1596	1596	1596	1596	1596	1611	1618	1626	1634	1626	1626	1626	1626	1626	1626	0	2194	2194	2194	2194	2194	2194	2194	2194	2208	2223	2223	2223	2237	2237	2237	2237	2237	2237	2223	2223	2223	2194	2194	2194	2194	2194	2194	2194	2194	2194	2194	2194	2194	2223	2208	2194	2194	2208	2208	2181	2181	2181	2194	2223	2208	2208	2208	2208	2223	2208	2223	2208	2223	2223	2208	2208	2208	2208	2194	2208	2223	2208	2208	2208	2208	2208	2208	2208	2208	2208	2208	2208	2194	2194	2194	2733	2711	2690	2690	2690	2690	2711	2690	2690	2690	2690	2690	2690	2690	2690	2690	2690	2690	2711	2711	2711	2711	2711	2711	2711	2711	2690	2690	2690	2690	2690	2690	2711	2733	2733	2711	2711	2711	2711	2711	2711	2711	2733	2711	2733	2733	2733	2733	2893	2917	2917	2917	2967	2917	2967	2967	2967	2993	2993	2993	2993	2993	3101	3101	3101	3698	3738	3738	3738	3779	3779	3779	3738	3738	3738	3698	3698	3698	3698	3698	3698	3698	3698	3698	3698	3738	3738	3738	3738	3738	3698	3698	3738	3779	3779	3779	3821	3821	3864	3864	3907	3864	3907	3907	3864	3907	3907	3907	3907	3907	3907	3907	3907	3907	3907	3907	3864	3864	3864	3864	3864	3864	3864	3864	3864	3864	3864	3864	3864	3864	3864	3864	3821	3821	3779	3698	3659	3659	3659	3698	3738	3779	3821	3821	3821	3864	3864	3864	3864	3864	3864	3864	3864	3864	3864	3864	3907	3907	3907	3864	3907	3907	3864	3864	3864	3864	3864	3864	3864	3864	3864	3864	3864	3821	3864	3821	3779	3779	3779	3779	3779	3779	3779	3864	3821	3821	3821	3821	3779	3821	3821	3821	3864	3864	3821	2754	2754	2733	2754	2733	2754	2733	2754	2754	2733	2733	2733	2711	2733	2733	2711	2711	2733	2711	2711	2711	2711	2733	2733	0	2777	2777	2777	2777	0	3779	3779	3779	3779	3779	3779	3779	3779	3779	3738	3738	3779	3779	3738	3738	3738	3779	3779	3779	3779	3779	3779	3779	3779	3738	3738	3738	3738	3738	3738	3738	3738	3821	3779	3821	3821	3821	3821	3821	3821	3821	3821	3821	3779	3821	3779	3779	3779	3779	3821	3779	3779	3821	3779	3779	3779	3779	3779	3779	3821	3821	3821	3821	3779	3779	3779	3779	3779	3779	3779	3779	3779	3779	3779	3779	3779	3779	3779	3779	3738	3738	3738	3779	3779	3779	3779	3779	3779	3779	3821	3821	3821	3821	3821	3821	3779	3821	3821	3779	3779	3779	3779	3779	3779	3779	3779	3779	3779	3779	3779	3738	3738	3738	3738	3779	3779	3779	3779	3779	3779	3779	3779	3779	3779	3779	3779	3779	3779	3821	3821	3821	3821	3779	3779	3779	3738	3738	3698	3738	3738	3738	3738	3738	3779	3779	3779	3779	3779	3779	3738	3738	3738	3779	3779	3779	3738	3738	3779	3779	3738	3738	3779	3779	3779	3821	3821	3779	3821	3821	3779	3779	0	0	0	0	0	0	0	0	0	0	0	0	0	0	0	0	0	0	0	0	0	0	0	0	0	0	0	0	0	0	0	0	0	0	0	0	0	0	0	0	0	0	0	0	0	0	0	0	0	0	0	0	0	0	0	0	0	0	0	0	0	0	0	0	0	0	0	0	0	0	0	0	0	0	0	0	0	0	0	0	0	0	0	0	0	0	0	0	0	0	0	0	0	0	0	0	0	0	0	0	0	0	0	0	0	0	0	0	0	0	0	0	0	0	0	0	0	0	0	0	0	0	0	0	0	0	0	0	0	0	0	0
0	0	0	0	0	0	0	0	0	1567	1567	1589	1574	1581	1581	1581	1581	1581	1596	1596	1589	1596	1589	1596	1596	1596	1611	1618	1626	1626	1626	1626	1626	1626	1626	1626	2181	2194	2194	2194	2194	2194	2194	2194	2194	2223	2223	2237	2237	2237	2252	2237	2252	2237	2237	2237	2223	2223	2208	2208	2208	2208	2208	2208	2194	2194	2194	2194	2194	2208	2223	2194	2208	2208	2194	2208	2194	2181	2194	2208	2237	2237	2237	2237	2237	2252	2252	2237	2237	2223	2223	2208	2223	2223	2223	2223	2208	2223	2208	2208	2208	2208	2208	2208	2208	2208	2208	2208	2223	2223	2208	2223	2208	2208	2690	2690	2690	2690	2690	2690	2690	2690	2690	2690	2690	2690	2690	2690	2690	2711	2711	2711	2711	2711	2711	2711	2711	2690	2690	2690	2690	2690	2690	2669	2690	2711	2733	2711	2711	2711	2711	2711	2711	2711	2733	2733	2733	2733	2733	2733	2893	2942	2942	2942	2993	2967	2967	2967	2967	2967	2967	2967	2993	2993	3019	3101	3101	3738	3738	3779	3779	3779	3779	3779	3779	3738	3779	3779	3738	3698	3698	3698	3698	3698	3738	3738	3738	3779	3738	3779	3738	3738	3738	3738	3738	3738	3821	3821	3821	3864	3907	3907	3907	3864	3907	3907	3907	3907	3907	3907	3907	3907	3907	3907	3864	3864	3907	3907	3907	3864	3864	3864	3907	3864	3864	3864	3864	3864	3864	3864	3864	3864	3864	3864	3864	3821	3779	3698	3659	3659	3698	3698	3738	3821	3821	3821	3821	3821	3864	3864	3864	3864	3864	3864	3864	3864	3864	3864	3864	3864	3907	3864	3907	3907	3907	3864	3864	3864	3864	3864	3864	3864	3864	3864	3864	3864	3864	3821	3821	3821	3779	3779	3821	3779	3779	3821	3864	3821	3821	3779	3779	3779	3779	3779	3864	3864	0	0	2754	2754	2754	2754	2754	2754	2754	2777	2754	2754	2754	2733	2733	2733	2711	2733	2733	2733	2733	2754	2733	2733	2754	2777	2777	2777	2777	2777	0	3779	3779	3779	3738	3779	3779	3779	3779	3779	3738	3738	3779	3779	3738	3738	3738	3738	3779	3779	3779	3738	3738	3738	3738	3738	3738	3738	3738	3738	3738	3779	3779	3821	3779	3821	3779	3821	3779	3821	3821	3821	3821	3821	3779	3821	3779	3779	3779	3821	3779	3779	3779	3779	3779	3821	3821	3779	3779	3779	3821	3779	3779	3779	3779	3779	3779	3779	3779	3779	3779	3779	3779	3779	3779	3821	3779	3779	3779	3779	3738	3738	3779	3779	3779	3779	3779	3779	3779	3779	3779	3821	3821	3821	3821	3779	3821	3821	3821	3779	3779	3779	3779	3821	3779	3779	3779	3779	3779	3779	3779	3738	3738	3738	3738	3779	3779	3779	3779	3779	3779	3779	3779	3779	3779	3821	3821	3821	3821	3821	3821	3779	3779	3779	3779	3779	3738	3738	3698	3738	3738	3738	3738	3738	3738	3738	3779	3779	3779	3779	3738	3738	3738	3779	3779	3779	3738	3779	3779	3779	3738	3738	3779	3779	3779	3779	3779	3779	3821	3821	3821	3821	0	0	0	0	0	0	0	0	0	0	0	0	0	0	0	0	0	0	0	0	0	0	0	0	0	0	0	0	0	0	0	0	0	0	0	0	0	0	0	0	0	0	0	0	0	0	0	0	0	0	0	0	0	0	0	0	0	0	0	0	0	0	0	0	0	0	0	0	0	0	0	0	0	0	0	0	0	0	0	0	0	0	0	0	0	0	0	0	0	0	0	0	0	0	0	0	0	0	0	0	0	0	0	0	0	0	0	0	0	0	0	0	0	0	0	0	0	0	0	0	0	0	0	0	0	0	0	0	0	0	0	0
0	0	0	0	0	0	0	0	0	1589	1589	1589	1596	1596	1581	1581	1581	1581	1581	1581	1589	1589	1589	1589	1596	1596	1611	1618	1618	1626	1626	1618	1626	1626	1626	2181	2194	2194	2208	2208	2208	2208	2208	2208	2237	2223	2237	2237	2237	2252	2252	2252	2252	2237	2237	2237	2237	2223	2237	2208	2252	2223	2208	2208	2208	2208	2208	2194	2194	2208	2208	2208	2208	2208	2208	2208	2208	2194	2208	2208	2237	2237	2237	2252	2252	2252	2252	2237	2237	2237	2223	2223	2223	2223	2237	2237	2237	2223	2208	2223	2208	2223	2223	2223	2208	2223	2223	2223	2208	2208	2237	2223	2223	2223	2223	2690	2690	2690	2690	2690	2690	2690	2690	2690	2690	2690	2690	2690	2690	2690	2690	2711	2711	2711	2711	2711	2711	2690	2690	2690	2690	2669	2690	2690	2690	2711	2733	2711	2711	2711	2711	2711	2733	2733	2733	2733	2733	2733	2733	2733	2942	2942	2967	2993	2993	2993	2967	2993	2993	2993	2993	2993	2993	3019	3046	3046	3738	3738	3738	3779	3779	3779	3779	3821	3821	3821	3779	3779	3738	3738	3738	3698	3698	3779	3779	3779	3779	3779	3779	3779	3779	3779	3738	3738	3738	3738	3779	3864	3821	3864	3907	3907	3907	3864	3907	3907	3864	3907	3907	3907	3907	3907	3907	3907	3907	3864	3907	3907	3864	3864	3864	3864	3864	3864	3864	3864	3864	3864	3864	3864	3864	3864	3864	3907	3821	3821	3779	3698	3659	3698	3698	3738	3779	3821	3821	3821	3821	3864	3864	3864	3864	3864	3864	3864	3864	3864	3864	3864	3864	3864	3864	3864	3864	3864	3864	3864	3864	3864	3864	3864	3864	3864	3864	3864	3864	3864	3864	3821	3821	3821	3779	3779	3779	3779	3779	3821	3821	3821	3821	3779	3779	3779	3779	3779	3779	3864	0	0	2754	2754	2754	2754	2777	2754	2777	2777	2754	2754	2754	2754	2754	2733	2733	2733	2733	2733	2733	2754	2733	2733	2754	2754	2754	2754	2777	2777	2777	2777	3779	3779	3779	3779	3779	3779	3779	3779	3738	3738	3738	3738	3738	3738	3738	3779	3779	3779	3738	3738	3738	3738	3738	3738	3738	3738	3779	3779	3779	3779	3779	3821	3779	3779	3779	3779	3779	3779	3779	3779	3779	3821	3821	3821	3821	3779	3779	3821	3779	3779	3779	3779	3779	3779	3779	3779	3779	3779	3779	3779	3779	3779	3779	3779	3779	3779	3779	3779	3779	3779	3779	3779	3779	3779	3779	3779	3779	3779	3738	3779	3779	3779	3779	3779	3779	3779	3779	3738	3779	3779	3779	3821	3779	3779	3779	3821	3821	3779	3779	3779	3779	3779	3779	3779	3779	3779	3779	3779	3779	3738	3738	3738	3738	3738	3779	3738	3779	3779	3779	3779	3779	3779	3779	3821	3821	3821	3779	3821	3821	3779	3779	3779	3779	3779	3738	3698	3698	3698	3698	3698	3738	3738	3738	3779	3779	3779	3821	3779	3779	3738	3779	3779	3779	3738	3738	3738	3779	3738	3738	3738	3779	3779	3779	3779	3779	3738	3779	3779	3779	3779	0	0	0	0	0	0	0	0	0	0	0	0	0	0	0	0	0	0	0	0	0	0	0	0	0	0	0	0	0	0	0	0	0	0	0	0	0	0	0	0	0	0	0	0	0	0	0	0	0	0	0	0	0	0	0	0	0	0	0	0	0	0	0	0	0	0	0	0	0	0	0	0	0	0	0	0	0	0	0	0	0	0	0	0	0	0	0	0	0	0	0	0	0	0	0	0	0	0	0	0	0	0	0	0	0	0	0	0	0	0	0	0	0	0	0	0	0	0	0	0	0	0	0	0	0	0	0	0	0	0	0	0
0	0	0	0	0	0	0	0	0	1589	1589	1589	1596	1596	1581	1581	1581	1581	1581	1596	1589	1589	1589	1596	1596	1596	1603	1603	1618	1626	1626	1618	1618	1626	2153	2181	2194	2208	2208	2208	2223	2223	2208	2237	2237	2237	2237	2252	2252	2252	2266	2252	2252	2252	2237	2252	2208	2208	2208	2223	2252	2237	2252	2208	2208	2208	2208	2194	2194	2208	2208	2208	2208	2223	2223	2223	2208	2208	2208	2223	2237	2237	2237	2252	2252	2252	2252	2223	2223	2237	2237	2237	2237	2237	2252	2252	2252	2252	2237	2223	2223	2223	2223	2223	2223	2223	2237	2237	2237	2223	2237	2223	2237	2223	2223	2223	2690	2690	2690	2690	2690	2690	2690	2690	2690	2690	2690	2690	2690	2690	2669	2690	2733	2711	2711	2711	2690	2690	2690	2690	2690	2669	2690	2669	2690	2711	2711	2711	2711	2711	2733	2733	2733	2733	2733	2733	2733	2733	2733	2869	2869	2967	2993	2993	2993	2993	2993	2993	2993	2993	2993	3019	3019	3019	2993	2993	2993	3738	3779	3779	3779	3779	3779	3821	3821	3821	3779	3779	3779	3779	3779	3738	3738	3779	3779	3738	3779	3779	3779	3821	3779	3821	3821	3821	3779	3821	3821	3864	3864	3864	3907	3864	3864	3907	3907	3907	3864	3907	3907	3907	3907	3907	3907	3907	3907	3864	3864	3864	3864	3864	3864	3864	3864	3864	3864	3864	3864	3864	3864	3864	3864	3864	3864	3821	3821	3779	3779	3698	3698	3698	3738	3779	3821	3821	3821	3821	3821	3864	3864	3864	3864	3864	3864	3864	3864	3864	3864	3864	3864	3864	3864	3864	3864	3864	3864	3864	3864	3864	3864	3864	3864	3864	3864	3864	3864	3864	3864	3821	3821	3821	3779	3779	3779	3779	3779	3821	3821	3821	3779	3779	3738	3738	3738	3738	3738	0	0	2777	2754	2754	2754	2777	2777	2777	2777	2777	2754	2754	2754	2754	2754	2733	2733	2733	2733	2733	2733	2733	2733	2733	2733	2754	2754	2754	2754	2777	2777	2777	3779	3779	3738	3779	3779	3779	3779	3779	3738	3738	3738	3738	3738	3738	3738	3738	3738	3738	3738	3738	3738	3738	3738	3738	3738	3779	3779	3779	3779	3779	3779	3821	3779	3779	3779	3779	3779	3779	3779	3821	3821	3821	3779	3779	3779	3779	3779	3779	3779	3779	3779	3779	3779	3779	3779	3779	3779	3821	3779	3779	3779	3779	3779	3779	3779	3779	3779	3779	3779	3779	3779	3779	3779	3821	3779	3779	3779	3779	3738	3738	3779	3779	3779	3738	3738	3738	3779	3738	3779	3779	3779	3779	3779	3779	3779	3779	3779	3779	3779	3738	3779	3779	3779	3779	3779	3779	3779	3779	3779	3779	3738	3738	3738	3738	3738	3738	3738	3738	3779	3779	3779	3779	3779	3821	3821	3821	3779	3779	3821	3779	3779	3779	3779	3738	3738	3738	3698	3698	3698	3698	3698	3698	3698	3738	3779	3779	3821	3779	3779	3779	3779	3779	3779	3779	3738	3738	3738	3738	3738	3738	3738	3738	3738	3738	3779	3738	3779	3779	3779	3779	0	0	0	0	0	0	0	0	0	0	0	0	0	0	0	0	0	0	0	0	0	0	0	0	0	0	0	0	0	0	0	0	0	0	0	0	0	0	0	0	0	0	0	0	0	0	0	0	0	0	0	0	0	0	0	0	0	0	0	0	0	0	0	0	0	0	0	0	0	0	0	0	0	0	0	0	0	0	0	0	0	0	0	0	0	0	0	0	0	0	0	0	0	0	0	0	0	0	0	0	0	0	0	0	0	0	0	0	0	0	0	0	0	0	0	0	0	0	0	0	0	0	0	0	0	0	0	0	0	0	0	0
0	0	0	0	0	0	0	0	0	1567	1567	1574	1574	1574	1574	1581	1581	1596	1596	1596	1589	1589	1589	1589	1589	1589	1603	1596	1618	1626	1626	1618	1618	0	2181	2194	2194	2208	2208	2208	2223	2223	2223	2208	2237	2237	2237	2252	2252	2252	2266	2266	2266	2252	2252	2223	2208	2223	2208	2223	2252	2223	2266	2208	2266	2252	2252	2252	2223	2223	2237	2223	2223	2223	2223	2223	2223	2208	2223	2223	2252	2252	2252	2252	2252	2266	2252	2223	2223	2252	2252	2252	2252	2266	2266	2266	2252	2252	2223	2223	2223	2223	2223	2237	2223	2237	2252	2252	2237	2237	2252	2237	2252	2252	2252	2252	2690	2690	2711	2690	2690	2690	2690	2690	2690	2690	2690	2690	2690	2690	2690	2711	2733	2733	2711	2711	2690	2690	2690	2690	2690	2669	2669	2669	2690	2690	2690	2690	2690	2711	2711	2733	2733	2733	2733	2733	2733	2754	2777	2869	2967	3019	2993	2993	2993	2993	2967	2993	2993	2993	2993	3019	2993	3019	2993	2993	2993	3738	3779	3779	3779	3779	3779	3821	3821	3779	3779	3821	3779	3779	3779	3779	3779	3779	3779	3779	3779	3779	3779	3779	3779	3821	3821	3821	3821	3821	3864	3864	3864	3864	3907	3907	3864	3907	3907	3907	3907	3907	3952	3907	3952	3952	3952	3907	3907	3864	3864	3864	3907	3864	3864	3864	3864	3864	3864	3864	3864	3864	3864	3864	3864	3864	3864	3864	3779	3779	3779	3738	3738	3738	3779	3779	3821	3821	3864	3821	3821	3864	3864	3864	3864	3864	3864	3864	3864	3864	3864	3864	3864	3864	3864	3864	3864	3864	3864	3864	3864	3864	3864	3864	3821	3864	3864	3864	3864	3864	3864	3864	3821	3821	3779	3779	3779	3779	3779	3821	3821	3821	3821	3779	3738	3738	3738	3738	3738	0	0	2777	2754	2754	2754	2777	2777	2777	2777	2777	2754	2754	2754	2733	2754	2733	2733	2733	2733	2733	2733	2754	2733	2733	2754	2754	2754	2733	2754	2777	2777	2777	2777	2777	3779	3779	3738	3779	3779	3738	3738	3738	3738	3738	3738	3738	3738	3738	3738	3738	3738	3738	3738	3738	3779	3738	3779	3779	3779	3779	3779	3779	3779	3779	3779	3779	3779	3779	3779	3779	3779	3821	3821	3821	3821	3821	3779	3779	3779	3779	3779	3779	3779	3779	3779	3779	3779	3779	3779	3821	3779	3779	3779	3779	3779	3779	3779	3779	3779	3779	3779	3779	3779	3779	3779	3779	3779	3779	3779	3779	3738	3779	3779	3779	3779	3779	3779	3738	3779	3738	3779	3779	3738	3779	3779	3779	3779	3779	3821	3779	3779	3779	3779	3779	3779	3779	3779	3779	3779	3779	3779	3779	3738	3738	3738	3738	3738	3738	3779	3738	3779	3779	3779	3779	3779	3821	3821	3821	3779	3779	3779	3779	3779	3779	3779	3738	3738	3738	3738	3738	3738	3698	3698	3698	3698	3738	3738	3738	3779	3779	3779	3779	3779	3779	3779	3779	3738	3738	3779	3738	3738	3738	3738	3779	3779	3738	3779	3738	3779	3738	3779	3779	3779	0	0	0	0	0	0	0	0	0	0	0	0	0	0	0	0	0	0	0	0	0	0	0	0	0	0	0	0	0	0	0	0	0	0	0	0	0	0	0	0	0	0	0	0	0	0	0	0	0	0	0	0	0	0	0	0	0	0	0	0	0	0	0	0	0	0	0	0	0	0	0	0	0	0	0	0	0	0	0	0	0	0	0	0	0	0	0	0	0	0	0	0	0	0	0	0	0	0	0	0	0	0	0	0	0	0	0	0	0	0	0	0	0	0	0	0	0	0	0	0	0	0	0	0	0	0	0	0	0	0	0
0	0	0	0	0	0	0	0	0	1567	1574	1574	1574	1574	1574	1581	1581	1581	1581	1581	1589	1581	1589	1589	1596	1596	1603	1603	1611	1618	1618	1611	1611	0	2194	2208	2208	2208	2208	2208	2223	2223	2237	2237	2237	2237	2252	2252	2252	2266	2266	2266	2266	2266	2266	2252	2252	2252	2252	2252	2266	2266	2266	2281	2266	2266	2266	2281	2252	2237	2237	2252	2252	2252	2252	2252	2223	2252	2237	2237	2237	2237	2237	2252	2252	2266	2237	2237	2237	2266	2266	2252	2266	2266	2281	2266	2266	2266	2266	2237	2252	2237	2237	2252	2237	2252	2252	2252	2252	2252	2252	2252	2252	2252	2266	2266	2266	2733	2711	2711	2711	2690	2690	2690	2690	2690	2690	2690	2690	2690	2669	2711	2733	2733	2711	2690	2690	2690	2690	2690	2690	2669	2669	2669	2690	2690	2690	2690	2711	2711	2711	2711	2711	2711	2733	2733	2733	2754	2754	2942	2993	2993	2993	2993	2993	2993	2993	2993	2993	3019	2993	3019	3019	3019	3019	2993	2993	3779	3779	3821	3821	3779	3779	3821	3821	3821	3821	3821	3821	3821	3821	3821	3821	3779	3779	3779	3779	3779	3738	3779	3779	3821	3821	3821	3821	3821	3864	3821	3864	3864	3864	3864	3864	3864	3907	3907	3907	3952	3952	3952	3907	3907	3907	3907	3864	3864	3864	3864	3864	3864	3864	3864	3864	3864	3864	3864	3864	3864	3864	3864	3864	3864	3864	3864	3779	3779	3738	3779	3738	3779	3779	3821	3821	3864	3864	3821	3821	3864	3864	3864	3864	3864	3864	3864	3864	3864	3864	3864	3864	3864	3864	3864	3864	3864	3864	3864	3864	3821	3821	3821	3821	3864	3864	3864	3864	3864	3821	3821	3779	3821	3779	3779	3821	3779	3779	3821	3821	3821	3821	3821	3821	3738	3738	3738	2777	2777	0	2754	2754	2754	2754	2777	2777	2777	2777	2777	2754	2754	2754	2711	2733	2733	2733	2733	2733	2733	2733	2733	2733	2733	2733	2733	2733	2733	2733	2733	2733	2733	2733	3779	3779	3779	3738	3779	3779	3779	3779	3738	3738	3738	3779	3738	3738	3779	3779	3738	3738	3738	3738	3738	3779	3738	3779	3738	3779	3779	3779	3779	3779	3821	3779	3779	3779	3779	3779	3779	3779	3821	3821	3821	3821	3821	3821	3821	3821	3821	3779	3779	3779	3779	3779	3779	3779	3779	3779	3779	3779	3779	3779	3779	3779	3821	3779	3821	3779	3779	3779	3779	3779	3779	3779	3779	3779	3779	3779	3779	3738	3779	3779	3738	3779	3779	3779	3738	3779	3738	3779	3779	3738	3779	3779	3738	3779	3779	3779	3779	3779	3779	3779	3779	3779	3779	3779	3779	3779	3779	3738	3738	3738	3698	3698	3738	3698	3738	3738	3738	3738	3779	3779	3779	3779	3821	3821	3821	3779	3821	3779	3779	3779	3779	3779	3779	3738	3738	3738	3738	3738	3698	3738	3698	3698	3738	3738	3738	3779	3738	3779	3779	3779	3779	3779	3779	3738	3738	3779	3738	3738	3738	3738	3738	3779	3738	3738	3738	3738	3738	3779	3779	3779	0	0	0	0	0	0	0	0	0	0	0	0	0	0	0	0	0	0	0	0	0	0	0	0	0	0	0	0	0	0	0	0	0	0	0	0	0	0	0	0	0	0	0	0	0	0	0	0	0	0	0	0	0	0	0	0	0	0	0	0	0	0	0	0	0	0	0	0	0	0	0	0	0	0	0	0	0	0	0	0	0	0	0	0	0	0	0	0	0	0	0	0	0	0	0	0	0	0	0	0	0	0	0	0	0	0	0	0	0	0	0	0	0	0	0	0	0	0	0	0	0	0	0	0	0	0	0	0	0	0	0
0	0	0	0	0	0	0	0	0	1567	1574	1574	1574	1574	1581	1581	1581	1581	1581	1581	1589	1589	1589	1589	1589	1596	1603	1603	1611	1618	1618	1611	1611	0	2208	2223	2223	2223	2223	2223	2237	2237	2237	2252	2252	2252	2266	2266	2266	2266	2266	2266	2266	2266	2266	2266	2252	2252	2252	2252	2266	2252	2281	2281	2281	2266	2266	2281	2266	2266	2252	2266	2266	2266	2252	2252	2237	2252	2252	2252	2252	2252	2266	2266	2266	2266	2252	2252	2266	2266	2266	2266	2266	2266	2281	2281	2266	2266	2266	2237	2252	2252	2237	2252	2252	2266	2266	2252	2252	2252	2252	2252	2252	2252	2266	2266	2266	2266	2711	2711	2711	2711	2690	2690	2690	2690	2690	2690	2690	2690	2669	2669	2669	2669	2690	2690	2690	2690	2690	2690	2669	2669	2669	2669	2690	2690	2690	2690	2690	2711	2711	2711	2711	2711	2711	2733	2733	2733	2733	2967	2993	3019	3019	2993	2993	2993	2993	2993	2993	3019	2993	3019	3019	3019	3019	2993	2993	3779	3821	3821	3821	3779	3779	3821	3821	3821	3821	3821	3821	3821	3821	3821	3821	3779	3779	3779	3779	3779	3779	3779	3779	3821	3821	3821	3821	3821	3864	3821	3821	3821	3864	3864	3864	3864	3864	3864	3907	3864	3907	3907	3907	3907	3907	3864	3864	3864	3864	3864	3864	3864	3864	3864	3864	3864	3864	3864	3864	3864	3864	3864	3864	3864	3864	3864	3821	3779	3779	3779	3779	3779	3779	3821	3821	3864	3864	3821	3821	3864	3864	3864	3864	3864	3864	3864	3864	3864	3864	3864	3864	3864	3864	3864	3864	3864	3864	3864	3864	3821	3821	3821	3821	3821	3864	3864	3864	3821	3821	3821	3779	3779	3779	3779	3821	3821	3821	3821	3821	3821	3821	3779	3779	3738	3779	3779	2777	2845	2754	2754	2754	2777	2777	2799	2777	2777	2777	2777	2754	2754	2754	2711	2754	2733	2733	2733	2733	2733	2733	2733	2733	2733	2754	2754	2754	2733	2733	2733	2733	2733	2777	2777	2777	3779	3779	3779	3779	3779	3779	3738	3779	3738	3779	3779	3738	3738	3779	3738	3738	3738	3738	3738	3738	3738	3779	3738	3738	3779	3779	3779	3779	3779	3779	3779	3779	3779	3779	3779	3821	3821	3821	3821	3821	3821	3821	3821	3821	3821	3779	3779	3779	3779	3779	3779	3779	3779	3779	3779	3779	3779	3779	3779	3779	3779	3779	3779	3779	3779	3779	3779	3779	3779	3779	3779	3779	3779	3779	3779	3738	3779	3779	3738	3779	3779	3779	3738	3779	3738	3779	3779	3738	3779	3779	3738	3779	3779	3779	3779	3779	3779	3779	3779	3779	3779	3779	3779	3779	3779	3738	3738	3738	3698	3738	3738	3738	3738	3738	3738	3779	3779	3779	3779	3779	3821	3821	3821	3779	3779	3779	3779	3779	3779	3779	3738	3738	3738	3738	3738	3738	3698	3738	3698	3698	3738	3738	3738	3779	3779	3779	3779	3779	3779	3779	3779	3738	3738	3779	3738	3738	3738	3738	3738	3779	3779	3738	3738	3738	3698	3738	3738	3738	0	0	0	0	0	0	0	0	0	0	0	0	0	0	0	0	0	0	0	0	0	0	0	0	0	0	0	0	0	0	0	0	0	0	0	0	0	0	0	0	0	0	0	0	0	0	0	0	0	0	0	0	0	0	0	0	0	0	0	0	0	0	0	0	0	0	0	0	0	0	0	0	0	0	0	0	0	0	0	0	0	0	0	0	0	0	0	0	0	0	0	0	0	0	0	0	0	0	0	0	0	0	0	0	0	0	0	0	0	0	0	0	0	0	0	0	0	0	0	0	0	0	0	0	0	0	0	0	0	0	0
0	0	0	0	0	0	0	0	0	1567	1574	1574	1574	1574	1574	1581	1581	1581	1581	1589	1589	1589	1589	1589	1589	1589	1596	1603	1603	1618	1618	1611	1611	0	2223	2237	2237	2237	2237	2252	2252	2252	2266	2266	2266	2266	2266	2266	2266	2266	2266	2266	2266	2237	2237	2237	2237	2237	2237	2252	2252	2266	2281	2252	2266	2266	2266	2281	2266	2266	2266	2252	2266	2266	2266	2266	2266	2266	2266	2266	2252	2252	2266	2266	2266	2266	2281	2266	2281	2266	2266	2266	2281	2266	2281	2281	2281	2281	2281	2266	2252	2266	2252	2266	2252	2266	2266	2252	2252	2252	2252	2252	2252	2252	2266	2266	2266	2266	2733	2733	2711	2711	2711	2690	2690	2690	2690	2669	2669	2669	2669	2669	2669	2669	2669	2669	2690	2690	2669	2669	2669	2669	2669	2669	2690	2690	2690	2690	2711	2711	2711	2711	2711	2711	2711	2733	2733	2733	2754	2967	3019	3019	3019	3019	3019	3019	3019	3019	3019	3019	3019	3019	3019	3019	3019	3019	3019	3779	3821	3821	3821	3821	3821	3821	3821	3821	3821	3821	3821	3821	3821	3821	3821	3821	3779	3779	3779	3779	3779	3779	3779	3821	3821	3821	3821	3864	3864	3821	3821	3864	3864	3864	3864	3864	3864	3864	3907	3907	3907	3907	3907	3864	3864	3864	3864	3864	3864	3864	3864	3821	3821	3821	3864	3864	3864	3864	3864	3864	3864	3864	3864	3864	3864	3864	3821	3821	3821	3779	3779	3821	3821	3821	3864	3864	3864	3821	3821	3864	3864	3864	3864	3864	3864	3864	3864	3864	3864	3864	3821	3864	3864	3864	3864	3864	3864	3864	3821	3821	3821	3821	3821	3821	3821	3821	3821	3779	3779	3779	3779	3779	3738	3738	3779	3779	3821	3821	3821	3821	3821	3821	3821	3821	3821	3821	2777	2845	2777	2777	2754	2777	2777	2799	2777	2777	2754	2754	2754	2754	2711	2711	2733	2733	2711	2733	2733	2733	2733	2733	2733	2733	2754	2754	2754	2733	2754	2733	2754	2754	2777	2777	2777	2777	3779	3779	3779	3779	3779	3738	3738	3738	3738	3779	3738	3779	3779	3779	3779	3738	3738	3738	3738	3779	3779	3738	3779	3779	3779	3779	3779	3779	3779	3779	3779	3779	3821	3779	3821	3821	3821	3821	3821	3821	3821	3821	3821	3821	3779	3779	3779	3779	3779	3779	3779	3779	3738	3779	3779	3779	3779	3779	3779	3779	3779	3779	3779	3779	3779	3779	3779	3779	3779	3779	3779	3779	3779	3779	3738	3779	3738	3738	3779	3779	3779	3738	3779	3738	3738	3738	3738	3738	3779	3738	3779	3779	3779	3779	3779	3779	3779	3779	3779	3779	3779	3821	3779	3779	3779	3738	3738	3738	3738	3698	3698	3698	3698	3698	3738	3738	3738	3779	3779	3779	3821	3821	3779	3779	3779	3779	3779	3779	3738	3738	3738	3738	3738	3738	3738	3738	3738	3698	3698	3738	3738	3738	3738	3738	3738	3738	3779	3738	3779	3738	3738	3738	3738	3738	3738	3738	3779	3738	3779	3779	3779	3738	3738	3738	3738	3738	3738	0	0	0	0	0	0	0	0	0	0	0	0	0	0	0	0	0	0	0	0	0	0	0	0	0	0	0	0	0	0	0	0	0	0	0	0	0	0	0	0	0	0	0	0	0	0	0	0	0	0	0	0	0	0	0	0	0	0	0	0	0	0	0	0	0	0	0	0	0	0	0	0	0	0	0	0	0	0	0	0	0	0	0	0	0	0	0	0	0	0	0	0	0	0	0	0	0	0	0	0	0	0	0	0	0	0	0	0	0	0	0	0	0	0	0	0	0	0	0	0	0	0	0	0	0	0	0	0	0	0	0
0	0	0	0	0	0	0	0	0	1560	1567	1567	1567	1574	1574	1581	1581	1589	1581	1589	1589	1589	1589	1589	1589	1589	1596	1596	1596	1611	1618	1618	1618	0	2252	2252	2252	2252	2252	2266	2252	2266	2252	2281	2266	2266	2266	2266	2266	2266	2266	2281	2281	2252	2252	2252	2252	2252	2252	2252	2252	2266	2266	2252	2266	2266	2266	2266	2266	2266	2266	2281	2281	2281	2266	2266	2266	2266	2266	2266	2252	2252	2252	2252	2266	2266	2266	2266	2266	2281	2281	2281	2281	2281	2281	2281	2281	2281	2266	2281	2266	2266	2266	2266	2266	2266	2266	2266	2252	2252	2252	2266	2266	2266	2266	2281	2281	2297	2312	2312	2754	2733	2711	2711	2690	2690	2690	2669	2669	2669	2669	2669	2669	2669	2669	2669	2669	2669	2669	2669	2669	2669	2669	2669	2690	2690	2690	2711	2711	2711	2711	2711	2711	2711	2711	2711	2711	2733	2733	2993	3046	3019	3019	3019	3019	3019	3019	3046	3046	3046	3019	3046	3046	3046	3019	3019	3019	3019	3019	3864	3821	3779	3821	3821	3821	3821	3821	3779	3821	3821	3821	3821	3821	3821	3821	3779	3821	3779	3779	3779	3821	3821	3864	3864	3864	3864	3864	3821	3864	3864	3864	3864	3864	3864	3864	3907	3864	3907	3907	3864	3864	3864	3864	3864	3864	3864	3864	3864	3864	3864	3864	3821	3864	3864	3864	3864	3864	3864	3864	3864	3864	3864	3864	3864	3821	3821	3779	3821	3821	3821	3821	3821	3864	3864	3864	3864	3821	3821	3864	3864	3864	3864	3864	3864	3864	3864	3864	3864	3864	3821	3821	3864	3864	3821	3864	3821	3821	3779	3821	3821	3821	3821	3821	3821	3821	3821	3821	3779	3779	3779	3779	3779	3779	3821	3821	3821	3821	3864	3864	3821	3821	3821	3738	3738	2777	2845	2777	2777	2777	2777	2754	2799	2777	2777	2754	2754	2754	2733	2733	2711	2733	2711	2711	2733	2733	2733	2733	2733	2733	2733	2754	2733	2754	2733	2754	2733	2754	2754	2777	2777	2777	2777	3779	3779	3779	3779	3779	3779	3779	3779	3779	3779	3779	3779	3779	3779	3779	3738	3738	3738	3779	3779	3779	3779	3779	3779	3779	3779	3738	3779	3779	3779	3779	3779	3779	3779	3821	3821	3821	3821	3821	3779	3779	3779	3821	3821	3779	3779	3779	3779	3779	3779	3779	3738	3779	3779	3779	3779	3779	3738	3738	3779	3779	3779	3779	3779	3779	3779	3779	3779	3779	3779	3779	3738	3738	3738	3738	3738	3738	3738	3779	3779	3779	3779	3779	3738	3738	3738	3738	3738	3738	3738	3779	3779	3779	3779	3738	3779	3779	3738	3779	3779	3779	3821	3779	3779	3779	3738	3738	3698	3698	3698	3698	3698	3738	3698	3738	3738	3738	3779	3779	3779	3779	3821	3779	3779	3738	3738	3738	3738	3738	3738	3738	3738	3738	3738	3738	3738	3738	3698	3698	3738	3738	3738	3738	3738	3738	3738	3779	3738	3738	3738	3738	3738	3738	3738	3738	3738	3738	3738	3779	3779	3738	3738	3738	3738	3738	3738	3738	0	0	0	0	0	0	0	0	0	0	0	0	0	0	0	0	0	0	0	0	0	0	0	0	0	0	0	0	0	0	0	0	0	0	0	0	0	0	0	0	0	0	0	0	0	0	0	0	0	0	0	0	0	0	0	0	0	0	0	0	0	0	0	0	0	0	0	0	0	0	0	0	0	0	0	0	0	0	0	0	0	0	0	0	0	0	0	0	0	0	0	0	0	0	0	0	0	0	0	0	0	0	0	0	0	0	0	0	0	0	0	0	0	0	0	0	0	0	0	0	0	0	0	0	0	0	0	0	0	0	0
0	0	0	0	0	0	0	0	0	1553	1560	1567	1567	1567	1574	1589	1589	1589	1589	1589	1589	1589	1589	1589	1589	1589	1596	1596	1596	1618	1618	1618	1618	1618	2252	2266	2252	2252	2252	2266	2266	2266	2297	2297	2281	2281	2281	2281	2252	2252	2252	2266	2266	2252	2252	2252	2252	2252	2252	2252	2266	2266	2266	2266	2281	2266	2266	2281	2297	2297	2281	2297	2297	2281	2281	2281	2266	2266	2266	2266	2252	2252	2252	2252	2266	2266	2281	2281	2266	2281	2281	2281	2281	2281	2281	2281	2281	2281	2281	2281	2281	2281	2266	2266	2281	2281	2266	2266	2252	2266	2266	2266	2281	2281	2281	2281	2297	2297	2297	2297	2777	2777	2733	2711	2711	2690	2690	2669	2669	2669	2669	2669	2669	2690	2690	2669	2690	2690	2690	2690	2669	2669	2690	2690	2690	2711	2711	2711	2711	2711	2711	2711	2711	2711	2711	2711	2711	2711	2711	3046	3073	3073	3019	3046	3019	3046	3046	3046	3046	3101	3046	3073	3046	3046	3046	3046	3046	3046	3046	3864	3821	3821	3821	3779	3821	3821	3821	3821	3821	3821	3821	3821	3821	3821	3821	3821	3821	3779	3779	3779	3821	3821	3864	3864	3864	3864	3864	3821	3864	3864	3864	3864	3864	3864	3864	3907	3864	3864	3864	3864	3907	3864	3864	3864	3864	3864	3864	3864	3864	3821	3864	3864	3864	3864	3864	3864	3864	3864	3864	3864	3864	3864	3864	3864	3821	3821	3821	3821	3821	3864	3821	3821	3864	3864	3864	3864	3821	3821	3864	3864	3864	3864	3864	3864	3864	3864	3864	3864	3864	3821	3821	3864	3864	3821	3864	3864	3864	3779	3779	3779	3779	3821	3821	3821	3821	3779	3779	3779	3779	3779	3779	3738	3821	3821	3864	3864	3864	3864	3864	3821	3821	3821	3779	3779	2777	2777	2777	2777	2777	2777	2754	2777	2777	2777	2754	2754	2754	2733	2711	2711	2733	2711	2711	2711	2711	2711	2711	2711	2733	2733	2754	2733	2754	2754	2733	2733	2733	2754	2777	2777	2777	2777	3779	3779	3779	3779	3779	3779	3779	3779	3779	3779	3779	3779	3779	3779	3779	3779	3779	3779	3779	3779	3779	3779	3779	3738	3779	3779	3738	3779	3779	3779	3779	3779	3779	3779	3779	3821	3821	3821	3779	3779	3779	3779	3821	3779	3779	3779	3779	3779	3779	3779	3738	3779	3779	3779	3779	3779	3779	3779	3779	3779	3779	3779	3779	3779	3779	3779	3738	3779	3779	3779	3779	3779	3738	3738	3738	3738	3738	3738	3738	3779	3779	3738	3779	3738	3738	3738	3738	3738	3738	3738	3738	3779	3779	3779	3738	3738	3738	3738	3779	3779	3779	3779	3779	3779	3738	3738	3698	3698	3698	3698	3698	3698	3738	3738	3738	3738	3738	3738	3738	3779	3779	3779	3779	3738	3779	3738	3779	3779	3738	3738	3738	3738	3779	3779	3779	3738	3738	3698	3698	3738	3738	3738	3738	3738	3738	3779	3779	3738	3738	3738	3738	3738	3738	3738	3738	3738	3779	3738	3738	3738	3738	3738	3738	3738	3738	3698	3698	0	0	0	0	0	0	0	0	0	0	0	0	0	0	0	0	0	0	0	0	0	0	0	0	0	0	0	0	0	0	0	0	0	0	0	0	0	0	0	0	0	0	0	0	0	0	0	0	0	0	0	0	0	0	0	0	0	0	0	0	0	0	0	0	0	0	0	0	0	0	0	0	0	0	0	0	0	0	0	0	0	0	0	0	0	0	0	0	0	0	0	0	0	0	0	0	0	0	0	0	0	0	0	0	0	0	0	0	0	0	0	0	0	0	0	0	0	0	0	0	0	0	0	0	0	0	0	0	0	0	0
0	0	0	0	0	0	0	0	0	1553	1560	1567	1567	1581	1581	1589	1589	1589	1589	1589	1589	1589	1581	1589	1589	1589	1596	1603	1603	1618	1618	1618	1618	1618	0	2266	2266	2266	2266	2266	2266	2297	2297	2297	2281	2281	2281	2252	2252	2266	2252	2266	2266	2266	2266	2266	2266	2266	2266	2266	2266	2281	2281	2281	2281	2281	2281	2281	2297	2297	2281	2281	2297	2297	2281	2281	2281	2281	2266	2266	2266	2266	2266	2266	2266	2266	2281	2281	2281	2281	2297	2297	2297	2281	2281	2281	2297	2281	2281	2281	2281	2281	2281	2266	2281	2281	2281	2281	2266	2266	2281	2281	2281	2281	2281	2297	2297	2297	2297	2297	2297	2777	2733	2711	2711	2711	2690	2690	2690	2669	2669	2669	2669	2669	2669	2669	2669	2669	2669	2669	2669	2669	2690	2690	2711	2711	2711	2711	2711	2711	2711	2711	2711	2711	2711	2711	2711	2711	2711	3073	3101	3101	3073	3073	3046	3101	3073	3073	3073	3073	3073	3073	3073	3073	3046	3073	3046	3046	3046	3046	3046	3821	3821	3779	3821	3779	3821	3779	3821	3821	3821	3821	3821	3821	3821	3821	3821	3779	3779	3779	3821	3864	3864	3864	3864	3864	3864	3864	3821	3864	3864	3864	3864	3864	3864	3864	3864	3864	3864	3864	3907	3864	3864	3864	3864	3864	3864	3864	3864	3864	3864	3821	3864	3864	3821	3864	3864	3864	3864	3864	3864	3864	3864	3864	3821	3821	3821	3821	3821	3864	3864	3821	3864	3864	3864	3864	3864	3864	3864	3864	3907	3907	3907	3907	3907	3864	3864	3864	3864	3821	3821	3821	3864	3864	3864	3864	3864	3821	3821	3821	3821	3821	3821	3821	3821	3821	3821	3821	3821	3821	3821	3821	3821	3821	3821	3821	3821	3821	3864	3821	3821	3821	3821	3821	0	2777	2777	2777	2777	2777	2754	2777	2777	2754	2733	2733	2733	2711	2711	2711	2733	2711	2711	2711	2711	2733	2733	2711	2733	2733	2733	2733	2733	2733	2733	2733	2754	2733	2733	2777	3779	3779	3779	3779	3779	3779	3779	3779	3779	3779	3779	3779	3779	3779	3779	3779	3779	3779	3738	3779	3779	3779	3779	3779	3738	3738	3738	3738	3738	3779	3779	3779	3779	3779	3779	3779	3779	3779	3779	3779	3779	3779	3779	3779	3779	3779	3779	3779	3779	3779	3779	3779	3779	3779	3779	3779	3779	3779	3779	3779	3779	3779	3779	3779	3779	3779	3779	3738	3738	3779	3779	3779	3779	3779	3779	3738	3738	3738	3738	3779	3779	3779	3779	3738	3738	3738	3738	3738	3738	3738	3738	3738	3738	3738	3779	3738	3738	3738	3738	3738	3779	3779	3779	3779	3779	3779	3779	3738	3698	3698	3698	3698	3698	3698	3738	3738	3738	3738	3738	3738	3738	3738	3738	3738	3738	3738	3738	3738	3779	3779	3779	3738	3738	3738	3779	3779	3779	3738	3738	3698	3698	3738	3738	3738	3738	3738	3738	3738	3738	3738	3738	3738	3738	3738	3738	3738	3738	3738	3738	3738	3738	3738	3738	3738	3738	3738	3698	3659	3659	0	0	0	0	0	0	0	0	0	0	0	0	0	0	0	0	0	0	0	0	0	0	0	0	0	0	0	0	0	0	0	0	0	0	0	0	0	0	0	0	0	0	0	0	0	0	0	0	0	0	0	0	0	0	0	0	0	0	0	0	0	0	0	0	0	0	0	0	0	0	0	0	0	0	0	0	0	0	0	0	0	0	0	0	0	0	0	0	0	0	0	0	0	0	0	0	0	0	0	0	0	0	0	0	0	0	0	0	0	0	0	0	0	0	0	0	0	0	0	0	0	0	0	0	0	0	0	0	0	0	0
0	0	0	0	0	0	0	0	0	1553	1553	1560	1567	1581	1581	1589	1581	1589	1589	1589	1589	1589	1581	1581	1589	1589	1603	1603	1603	1618	1626	1618	1618	1618	0	2266	2252	2312	2312	2312	2312	2312	2312	2297	2266	2266	2266	2266	2266	2266	2266	2281	2312	2281	2281	2281	2281	2281	2266	2266	2266	2281	2281	2281	2312	2297	2297	2297	2297	2297	2297	2297	2297	2297	2297	2297	2281	2281	2281	2266	2266	2266	2266	2266	2281	2297	2312	2312	2312	2312	2312	2312	2312	2312	2312	2312	2312	2297	2297	2281	2297	2297	2281	2281	2281	2297	2281	2281	2281	2297	2281	2281	2281	2281	2281	2297	2297	2297	2297	2281	2281	2281	2733	2711	2711	2711	2690	2690	2690	2690	2669	2669	2669	2669	2669	2669	2649	2669	2669	2669	2690	2669	2690	2690	2711	2711	2711	2711	2711	2711	2711	2711	2711	2711	2711	2711	2711	2711	2711	2711	3101	3101	3101	3101	3046	3101	3101	3101	3073	3101	3073	3101	3101	3101	3073	3101	3073	3073	3073	3073	3073	3821	3821	3821	3821	3779	3779	3779	3821	3821	3821	3821	3821	3821	3821	3821	3821	3779	3779	3779	3821	3864	3864	3864	3864	3864	3864	3864	3821	3864	3864	3864	3864	3864	3907	3907	3864	3864	3864	3864	3864	3864	3864	3864	3864	3864	3864	3864	3821	3821	3821	3821	3864	3864	3821	3864	3864	3864	3864	3864	3821	3821	3864	3864	3821	3821	3821	3821	3821	3821	3821	3864	3864	3864	3864	3864	3864	3864	3864	3907	3907	3907	3907	3907	3864	3864	3864	3864	3821	3821	3864	3864	3864	3864	3864	3864	3864	3821	3821	3821	3821	3864	3821	3821	3821	3821	3821	3821	3821	3821	3821	3821	3821	3821	3821	3821	3821	3821	3821	3821	3821	3864	3864	3864	0	0	2777	2777	2777	2777	2777	2777	2777	2754	2733	2733	2733	2733	2711	2711	2733	2711	2711	2711	2711	2733	2711	2733	2733	2733	2733	2754	2754	2754	2733	2733	2733	2733	2733	2777	3779	3779	3779	3779	3779	3779	3779	3779	3779	3779	3779	3779	3779	3738	3738	3779	3779	3779	3738	3738	3738	3779	3779	3779	3738	3738	3738	3738	3738	3779	3779	3779	3779	3779	3779	3779	3779	3779	3779	3779	3779	3779	3779	3779	3779	3779	3821	3779	3779	3779	3779	3779	3779	3779	3779	3779	3779	3779	3779	3779	3779	3779	3779	3779	3779	3779	3779	3738	3738	3779	3779	3779	3779	3779	3779	3779	3779	3779	3779	3779	3779	3779	3779	3779	3779	3779	3779	3738	3738	3738	3738	3738	3738	3738	3738	3738	3738	3738	3738	3738	3738	3779	3738	3779	3779	3779	3738	3738	3698	3698	3698	3698	3698	3698	3738	3779	3779	3738	3779	3738	3738	3738	3738	3738	3738	3738	3779	3779	3779	3779	3779	3738	3738	3738	3779	3779	3779	3738	3738	3738	3698	3738	3738	3738	3738	3738	3738	3738	3738	3738	3738	3738	3738	3738	3738	3738	3738	3738	3738	3738	3738	3738	3738	3738	3698	3698	3698	3659	3659	3659	0	0	0	0	0	0	0	0	0	0	0	0	0	0	0	0	0	0	0	0	0	0	0	0	0	0	0	0	0	0	0	0	0	0	0	0	0	0	0	0	0	0	0	0	0	0	0	0	0	0	0	0	0	0	0	0	0	0	0	0	0	0	0	0	0	0	0	0	0	0	0	0	0	0	0	0	0	0	0	0	0	0	0	0	0	0	0	0	0	0	0	0	0	0	0	0	0	0	0	0	0	0	0	0	0	0	0	0	0	0	0	0	0	0	0	0	0	0	0	0	0	0	0	0	0	0	0	0	0	0
0	0	0	0	0	0	0	0	0	1553	1560	1560	1560	1581	1581	1589	1581	1589	1581	1589	1581	1581	1581	1581	1589	1596	1611	1611	1618	1618	1626	1626	1618	1618	0	2266	2266	2312	2312	2312	2327	2312	2312	2312	2312	2312	2312	2266	2266	2266	2266	2281	2281	2281	2281	2281	2297	2297	2281	2297	2281	2281	2297	2297	2297	2297	2297	2297	2297	2312	2312	2312	2312	2312	2297	2312	2297	2297	2297	2281	2266	2266	2281	2281	2297	2297	2312	2327	2312	2327	2327	2327	2312	2312	2312	2312	2312	2297	2297	2297	2297	2297	2297	2297	2297	2312	2297	2281	2281	2297	2297	2297	2297	2297	2297	2297	2312	2312	2297	2312	2312	2312	2733	2711	2711	2690	2690	2690	2690	2690	2690	2669	2669	2669	2669	2669	2669	2669	2669	2669	2690	2669	2690	2690	2711	2711	2711	2711	2711	2711	2711	2711	2711	2711	2711	2711	2711	2711	2690	2690	3129	3101	3101	3101	3101	3101	3101	3101	3101	3101	3101	3101	3101	3101	3101	3101	3073	3073	3073	3101	3101	3101	3821	3821	3821	3821	3779	3779	3779	3821	3821	3821	3821	3821	3821	3821	3821	3821	3821	3779	3821	3864	3864	3864	3864	3821	3821	3864	3864	3864	3864	3864	3907	3907	3864	3864	3864	3864	3864	3864	3864	3864	3864	3864	3864	3864	3864	3864	3821	3821	3821	3821	3821	3821	3821	3821	3864	3864	3821	3821	3821	3821	3864	3821	3821	3821	3821	3821	3821	3821	3821	3821	3821	3821	3821	3864	3864	3864	3864	3907	3907	3907	3907	3907	3907	3864	3864	3821	3821	3821	3821	3821	3864	3864	3821	3821	3864	3864	3821	3821	3821	3864	3821	3821	3864	3864	3864	3821	3864	3821	3821	3821	3821	3779	3779	3779	3779	3779	3821	3779	3779	3779	3821	3821	0	0	0	2777	2754	2777	2777	2754	2754	2754	2733	2733	2733	2733	2711	2711	2733	2711	2711	2711	2711	2711	2711	2711	2733	2733	2733	2733	2733	2754	2754	2754	2754	2754	0	0	3779	3779	3779	3779	3779	3779	3779	3779	3779	3779	3779	3738	3738	3738	3738	3738	3738	3738	3738	3738	3779	3779	3738	3738	3738	3738	3738	3738	3738	3779	3779	3779	3779	3779	3779	3779	3779	3779	3779	3779	3779	3779	3779	3779	3779	3779	3779	3779	3821	3779	3779	3738	3738	3738	3779	3779	3779	3779	3779	3779	3779	3779	3779	3779	3779	3779	3779	3738	3738	3779	3779	3779	3779	3779	3779	3779	3779	3779	3779	3779	3779	3779	3779	3738	3738	3738	3738	3738	3738	3738	3738	3738	3738	3738	3738	3738	3698	3698	3738	3738	3738	3779	3779	3779	3779	3779	3738	3738	3698	3698	3698	3698	3698	3738	3738	3738	3738	3738	3779	3738	3738	3738	3738	3738	3738	3738	3738	3738	3779	3738	3738	3738	3738	3779	3779	3779	3779	3779	3738	3738	3698	3738	3738	3738	3738	3738	3738	3738	3738	3738	3738	3738	3738	3738	3738	3738	3738	3738	3738	3738	3738	3738	3738	3738	3738	3738	3738	3698	3698	3698	3698	0	0	0	0	0	0	0	0	0	0	0	0	0	0	0	0	0	0	0	0	0	0	0	0	0	0	0	0	0	0	0	0	0	0	0	0	0	0	0	0	0	0	0	0	0	0	0	0	0	0	0	0	0	0	0	0	0	0	0	0	0	0	0	0	0	0	0	0	0	0	0	0	0	0	0	0	0	0	0	0	0	0	0	0	0	0	0	0	0	0	0	0	0	0	0	0	0	0	0	0	0	0	0	0	0	0	0	0	0	0	0	0	0	0	0	0	0	0	0	0	0	0	0	0	0	0	0	0	0
0	0	0	0	0	0	0	0	0	1539	1539	1546	1553	1560	1581	1581	1581	1581	1581	1581	1589	1589	1581	1581	1589	1589	1589	1603	1618	1618	1618	1626	1626	1618	0	2297	2312	2312	2312	2312	2312	2327	2327	2312	2312	2312	2297	2281	2281	2281	2281	2297	2297	2312	2312	2312	2312	2312	2312	2312	2312	2297	2312	2312	2312	2312	2312	2312	2312	2312	2312	2312	2312	2312	2312	2312	2297	2297	2312	2297	2281	2281	2281	2281	2297	2312	2327	2327	2327	2327	2327	2327	2327	2327	2312	2312	2312	2312	2297	2297	2297	2312	2297	2327	2312	2312	2312	2297	2297	2312	2312	2312	2312	2312	2312	2312	2327	2312	2312	2312	2327	2327	2327	2711	2711	2711	2690	2690	2669	2690	2669	2669	2669	2690	2669	2669	2669	2669	2690	2690	2690	2690	2690	2690	2711	2711	2711	2711	2711	2711	2711	2711	2711	2711	2711	2711	2711	2711	2711	2690	3129	3129	3101	3101	3129	3129	3129	3101	3101	3129	3101	3129	3101	3101	3101	3101	3101	3101	3101	3101	3101	3101	3101	3821	3821	3779	3779	3779	3821	3821	3821	3821	3821	3821	3821	3821	3821	3821	3821	3821	3821	3821	3864	3864	3864	3864	3864	3864	3864	3864	3864	3864	3907	3907	3864	3907	3864	3907	3907	3864	3864	3864	3864	3864	3864	3864	3864	3864	3864	3864	3864	3864	3864	3821	3821	3821	3864	3864	3821	3821	3821	3821	3864	3821	3821	3821	3779	3821	3821	3821	3821	3821	3821	3821	3821	3821	3821	3864	3864	3907	3907	3907	3907	3907	3907	3907	3864	3864	3864	3821	3821	3821	3864	3864	3864	3864	3864	3864	3864	3864	3864	3864	3864	3821	3864	3864	3864	3864	3821	3821	3821	3821	3821	3821	3779	3779	3779	3779	3779	3779	3779	3779	3779	3779	0	0	0	0	2754	2777	2754	2754	2754	2754	2733	2754	2733	2733	2711	2711	2733	2711	2711	2711	2711	2711	2711	2711	2711	2733	2733	2733	2733	2754	2754	2754	2754	2777	2777	2845	2845	3738	3738	3821	3779	3779	3779	3779	3779	3738	3738	3738	3738	3738	3738	3738	3738	3738	3738	3738	3738	3738	3738	3738	3738	3738	3738	3738	3738	3779	3779	3779	3779	3779	3779	3779	3779	3779	3779	3779	3779	3779	3779	3779	3779	3779	3779	3779	3779	3779	3779	3779	3779	3779	3779	3779	3779	3779	3779	3779	3779	3779	3779	3779	3779	3779	3779	3779	3779	3779	3779	3779	3779	3779	3779	3779	3779	3779	3779	3779	3779	3738	3738	3738	3738	3738	3738	3738	3779	3738	3738	3738	3698	3738	3698	3698	3698	3698	3698	3738	3738	3779	3738	3779	3779	3779	3779	3738	3738	3738	3738	3698	3738	3738	3779	3779	3738	3738	3779	3738	3738	3738	3738	3738	3738	3738	3738	3738	3738	3738	3738	3738	3738	3779	3779	3779	3779	3779	3738	3738	3738	3738	3738	3738	3738	3738	3738	3738	3738	3738	3738	3738	3738	3738	3738	3738	3738	3779	3738	3738	3738	3738	3738	3738	3738	3738	3738	3698	3698	3698	3698	0	0	0	0	0	0	0	0	0	0	0	0	0	0	0	0	0	0	0	0	0	0	0	0	0	0	0	0	0	0	0	0	0	0	0	0	0	0	0	0	0	0	0	0	0	0	0	0	0	0	0	0	0	0	0	0	0	0	0	0	0	0	0	0	0	0	0	0	0	0	0	0	0	0	0	0	0	0	0	0	0	0	0	0	0	0	0	0	0	0	0	0	0	0	0	0	0	0	0	0	0	0	0	0	0	0	0	0	0	0	0	0	0	0	0	0	0	0	0	0	0	0	0	0	0	0	0	0	0
0	0	0	0	0	0	0	0	0	1539	1539	1546	1553	1553	1581	1581	1581	1581	1581	1589	1589	1589	1589	1589	1589	1596	1603	1611	1618	1626	1626	1618	1618	0	0	2297	2312	2327	2327	2343	2343	2327	2327	2327	2327	2312	2312	2297	2297	2281	2281	2312	2312	2312	2312	2327	2327	2327	2327	2327	2312	2312	2312	2312	2312	2327	2312	2312	2312	2327	2312	2312	2312	2312	2312	2312	2312	2297	2297	2297	2297	2297	2297	2312	2312	2312	2327	2327	2327	2327	2327	2327	2327	2327	2327	2327	2327	2312	2312	2312	2312	2312	2312	2327	2327	2327	2327	2297	2312	2327	2327	2312	2312	2312	2312	2312	2327	2312	2327	2327	2327	2343	2343	2711	2711	2711	2690	2690	2690	2690	2669	2669	2669	2690	2669	2669	2669	2669	2669	2669	2690	2690	2690	2690	2711	2711	2711	2711	2711	2690	2690	2711	2711	2711	2711	2711	2711	2733	2711	2690	3129	3129	3101	3101	3129	3129	3129	3129	3101	3129	3101	3129	3101	3101	3101	3101	3101	3129	3129	3129	3129	3129	3129	3821	3821	3821	3821	3821	3821	3821	3821	3821	3821	3779	3779	3779	3779	3821	3821	3821	3821	3864	3864	3864	3864	3864	3864	3864	3864	3864	3864	3864	3907	3907	3864	3864	3864	3864	3864	3864	3864	3864	3864	3907	3864	3864	3864	3864	3864	3864	3864	3864	3864	3864	3864	3864	3864	3864	3864	3821	3821	3821	3864	3821	3821	3821	3779	3821	3779	3779	3779	3821	3821	3821	3821	3821	3821	3821	3864	3864	3907	3907	3907	3907	3907	3864	3864	3864	3864	3821	3821	3821	3864	3864	3864	3864	3864	3864	3864	3864	3864	3864	3864	3864	3864	3821	3864	3864	3864	3864	3864	3864	3821	3821	3779	3779	3779	3779	3821	3779	3779	3779	3779	3779	0	0	0	0	0	2777	2754	2754	2754	2733	2733	2733	2733	2733	2711	2733	2733	2711	2711	2711	2711	2711	2711	2733	2733	2733	2733	2754	2754	2754	2754	2754	2777	2777	2777	2845	2845	2845	3738	3738	3779	3779	3779	3779	3779	3738	3738	3738	3779	3738	3738	3779	3779	3779	3779	3738	3779	3738	3738	3738	3738	3738	3738	3738	3738	3779	3779	3779	3779	3779	3779	3779	3779	3779	3779	3779	3779	3779	3779	3779	3779	3821	3779	3779	3821	3779	3779	3779	3779	3779	3779	3779	3779	3779	3779	3779	3779	3779	3779	3779	3779	3779	3779	3779	3779	3779	3779	3779	3779	3779	3779	3779	3779	3779	3738	3738	3738	3738	3738	3738	3779	3779	3779	3779	3779	3779	3738	3738	3738	3738	3698	3698	3698	3698	3698	3738	3738	3738	3738	3779	3779	3779	3738	3738	3738	3738	3738	3698	3738	3738	3738	3738	3738	3738	3779	3738	3738	3738	3738	3738	3738	3738	3738	3738	3738	3738	3738	3738	3738	3779	3779	3779	3779	3738	3779	3738	3738	3738	3738	3738	3738	3738	3738	3738	3738	3738	3738	3738	3738	3738	3738	3738	3779	3779	3738	3738	3738	3738	3738	3738	3738	3738	3738	3698	3659	3659	0	0	0	0	0	0	0	0	0	0	0	0	0	0	0	0	0	0	0	0	0	0	0	0	0	0	0	0	0	0	0	0	0	0	0	0	0	0	0	0	0	0	0	0	0	0	0	0	0	0	0	0	0	0	0	0	0	0	0	0	0	0	0	0	0	0	0	0	0	0	0	0	0	0	0	0	0	0	0	0	0	0	0	0	0	0	0	0	0	0	0	0	0	0	0	0	0	0	0	0	0	0	0	0	0	0	0	0	0	0	0	0	0	0	0	0	0	0	0	0	0	0	0	0	0	0	0	0	0	0
0	0	0	0	0	0	0	0	0	1539	1539	1546	1553	1560	1581	1581	1581	1589	1589	1589	1589	1589	1589	1589	1589	1596	1611	1611	1618	1626	1641	1618	1618	0	0	2297	2312	2312	2312	2327	2359	2327	2327	2327	2327	2327	2327	2312	2312	2297	2297	2312	2327	2327	2327	2327	2327	2327	2327	2327	2312	2312	2312	2312	2327	2327	2327	2312	2327	2327	2327	2327	2312	2312	2327	2312	2312	2297	2312	2312	2312	2312	2327	2327	2327	2327	2327	2343	2327	2327	2327	2327	2343	2343	2327	2327	2327	2327	2327	2327	2327	2327	2327	2327	2343	2343	2343	2327	2327	2327	2327	2327	2312	2327	2327	2327	2327	2327	2327	2327	2343	2343	2327	2327	2711	2711	2690	2690	2690	2690	2669	2669	2669	2690	2669	2669	2669	2669	2669	2669	2690	2690	2690	2690	2711	2711	2711	2711	2711	2690	2690	2690	2690	2690	2711	2711	2690	2733	2711	2690	3129	3129	3129	3129	3129	3129	3129	3129	3129	3129	3129	3129	3129	3101	3101	3101	3101	3129	3129	3129	3129	3129	3157	3157	3821	3821	3821	3821	3821	3821	3821	3821	3779	3779	3821	3779	3779	3821	3821	3779	3821	3864	3864	3864	3864	3821	3821	3864	3864	3864	3864	3864	3907	3907	3864	3907	3864	3864	3864	3864	3864	3864	3864	3907	3864	3907	3864	3864	3864	3864	3864	3864	3864	3864	3821	3864	3864	3864	3864	3864	3821	3821	3864	3821	3821	3821	3821	3821	3821	3779	3779	3821	3779	3821	3821	3821	3821	3821	3864	3864	3907	3907	3864	3907	3907	3864	3864	3864	3864	3864	3821	3821	3864	3864	3864	3864	3864	3864	3864	3864	3864	3864	3864	3864	3864	3864	3864	3864	3864	3864	3864	3864	3821	3821	3779	3779	3779	3779	3779	3779	3779	3779	3779	3779	0	0	0	2799	2777	2777	2754	2754	2754	2754	2754	2754	2754	2754	2733	2733	2733	2711	2711	2711	2711	2711	2711	2711	2733	2733	2733	2754	2754	2754	2754	2754	2777	2799	2822	2822	2822	3779	3738	3738	3779	3779	3779	3779	3779	3779	3738	3738	3779	3738	3738	3738	3738	3779	3738	3738	3738	3738	3738	3738	3738	3738	3738	3738	3738	3779	3779	3779	3779	3779	3779	3779	3779	3779	3779	3779	3779	3779	3779	3779	3779	3821	3779	3779	3779	3779	3779	3779	3779	3779	3779	3738	3779	3779	3779	3779	3779	3779	3779	3779	3779	3779	3779	3779	3779	3779	3779	3779	3779	3779	3779	3779	3779	3779	3779	3738	3738	3779	3738	3779	3779	3779	3779	3779	3779	3779	3738	3738	3738	3738	3698	3698	3698	3698	3698	3698	3738	3738	3738	3738	3779	3779	3738	3738	3738	3738	3738	3698	3738	3698	3779	3738	3738	3738	3779	3738	3738	3738	3738	3738	3738	3738	3738	3738	3738	3738	3738	3738	3738	3738	3738	3738	3779	3738	3738	3738	3738	3738	3738	3738	3738	3738	3738	3738	3738	3738	3738	3738	3738	3738	3738	3738	3738	3779	3738	3738	3738	3738	3738	3738	3698	3738	3738	3698	3659	3659	0	0	0	0	0	0	0	0	0	0	0	0	0	0	0	0	0	0	0	0	0	0	0	0	0	0	0	0	0	0	0	0	0	0	0	0	0	0	0	0	0	0	0	0	0	0	0	0	0	0	0	0	0	0	0	0	0	0	0	0	0	0	0	0	0	0	0	0	0	0	0	0	0	0	0	0	0	0	0	0	0	0	0	0	0	0	0	0	0	0	0	0	0	0	0	0	0	0	0	0	0	0	0	0	0	0	0	0	0	0	0	0	0	0	0	0	0	0	0	0	0	0	0	0	0	0	0	0	0	0
0	0	0	0	0	0	0	0	0	1539	1539	1546	1553	1553	1581	1589	1589	1589	1589	1581	1581	1581	1589	1589	1596	1596	1596	1611	1618	1626	1641	1641	1618	0	2266	2297	2312	2312	2312	2327	2327	2327	2327	2327	2327	2327	2327	2327	2312	2312	2376	2359	2327	2327	2327	2343	2343	2343	2327	2327	2327	2327	2327	2327	2327	2327	2327	2327	2327	2327	2327	2327	2327	2327	2327	2327	2312	2312	2312	2312	2327	2327	2327	2327	2327	2327	2343	2343	2343	2343	2343	2343	2343	2343	2343	2343	2343	2343	2343	2343	2343	2343	2343	2327	2327	2343	2327	2327	2327	2343	2327	2327	2327	2327	2327	2327	2327	2327	2327	2343	2343	2343	2343	2343	2343	2690	2690	2690	2690	2690	2669	2669	2690	2690	2669	2669	2669	2669	2669	2669	2669	2690	2690	2690	2711	2711	2711	2711	2711	2690	2690	2690	2690	2711	2690	2711	2690	2711	2711	2711	3157	3129	3129	3129	3129	3129	3157	3129	3129	3129	3129	3129	3129	3129	3101	3129	3101	3129	3129	3129	3129	3129	3157	3157	3821	3821	3821	3821	3821	3821	3821	3779	3779	3779	3779	3779	3779	3821	3779	3779	3821	3864	3864	3864	3821	3821	3821	3864	3864	3864	3864	3864	3907	3907	3864	3907	3864	3864	3864	3864	3864	3864	3864	3864	3907	3864	3864	3864	3864	3864	3864	3864	3864	3864	3821	3864	3864	3864	3821	3821	3821	3821	3821	3821	3821	3821	3821	3821	3821	3779	3779	3821	3779	3779	3821	3821	3821	3821	3864	3864	3864	3864	3907	3907	3907	3907	3864	3864	3864	3864	3864	3821	3864	3864	3864	3864	3864	3864	3864	3864	3864	3864	3864	3864	3864	3864	3864	3864	3864	3864	3864	3821	3821	3779	3779	3779	3779	3779	3779	3779	3779	3779	3779	3738	3738	0	0	2799	2777	2754	2733	2733	2733	2754	2754	2754	2754	2754	2711	2711	2711	2711	2711	2711	2711	2711	2711	2733	2733	2733	2733	2733	2733	2733	2754	2754	2777	2799	2799	2799	2799	3738	3738	3738	3698	3738	3738	3738	3738	3738	3738	3738	3779	3738	3738	3779	3738	3779	3779	3738	3738	3738	3738	3738	3738	3738	3738	3738	3738	3738	3779	3779	3779	3779	3779	3779	3779	3779	3779	3779	3779	3779	3779	3779	3779	3779	3779	3779	3779	3779	3779	3779	3779	3779	3779	3738	3779	3779	3779	3779	3779	3779	3779	3779	3779	3779	3779	3779	3779	3779	3779	3779	3779	3779	3779	3738	3738	3738	3738	3738	3738	3738	3738	3779	3779	3779	3779	3779	3779	3779	3779	3738	3738	3738	3738	3698	3698	3698	3698	3698	3698	3738	3738	3738	3738	3738	3738	3738	3738	3738	3738	3738	3738	3698	3698	3698	3738	3738	3779	3779	3779	3738	3738	3738	3779	3738	3738	3738	3738	3738	3738	3738	3738	3738	3738	3738	3779	3738	3738	3738	3738	3779	3738	3738	3738	3738	3738	3738	3738	3738	3738	3738	3738	3738	3738	3738	3738	3738	3738	3738	3738	3738	3738	3738	3698	3698	3738	3738	3659	3659	0	0	0	0	0	0	0	0	0	0	0	0	0	0	0	0	0	0	0	0	0	0	0	0	0	0	0	0	0	0	0	0	0	0	0	0	0	0	0	0	0	0	0	0	0	0	0	0	0	0	0	0	0	0	0	0	0	0	0	0	0	0	0	0	0	0	0	0	0	0	0	0	0	0	0	0	0	0	0	0	0	0	0	0	0	0	0	0	0	0	0	0	0	0	0	0	0	0	0	0	0	0	0	0	0	0	0	0	0	0	0	0	0	0	0	0	0	0	0	0	0	0	0	0	0	0	0	0	0	0
0	0	0	0	0	0	0	0	0	1539	1546	1553	1553	1553	1581	1581	1567	1589	1589	1581	1589	1589	1596	1596	1596	1603	1603	1611	1618	1626	1634	1641	1641	0	2266	2297	2312	2327	2327	2327	2343	2343	2327	2327	2327	2327	2327	2327	2312	2312	2312	2376	2327	2327	2343	2343	2343	2343	2343	2343	2327	2327	2327	2327	2327	2327	2327	2327	2327	2327	2327	2327	2327	2327	2327	2327	2312	2312	2312	2327	2327	2327	2343	2327	2327	2327	2343	2343	2343	2343	2343	2343	2359	2359	2359	2359	2359	2359	2359	2359	2343	2343	2343	2343	2343	2343	2343	2343	2343	2359	2359	2343	2343	2359	2343	2343	2343	2343	2343	2343	2343	2359	2359	2359	2343	2343	2690	2690	2690	2690	2669	2669	2690	2669	2669	2669	2669	2669	2669	2669	2669	2669	2669	2669	2690	2690	2690	2690	2690	2690	2690	2690	2690	2711	2690	2711	2711	2711	2711	2690	3157	3157	3129	3129	3157	3129	3157	3157	3129	3157	3129	3157	3129	3129	3129	3129	3129	3157	3157	3157	3157	3186	3186	3186	3821	3821	3821	3821	3821	3821	3779	3779	3779	3779	3779	3779	3779	3821	3779	3779	3779	3864	3864	3864	3821	3821	3821	3864	3864	3864	3864	3864	3907	3907	3864	3864	3864	3864	3864	3864	3864	3864	3864	3907	3907	3907	3907	3864	3864	3864	3864	3821	3821	3821	3821	3821	3821	3864	3864	3864	3864	3821	3821	3821	3821	3821	3821	3821	3821	3779	3821	3821	3779	3779	3779	3779	3821	3821	3821	3864	3864	3907	3907	3907	3907	3907	3864	3864	3864	3864	3864	3821	3864	3864	3864	3864	3864	3864	3864	3864	3864	3864	3864	3821	3821	3821	3821	3864	3864	3864	3864	3821	3821	3821	3779	3779	3779	3779	3821	3779	3779	3821	3779	3779	3738	0	0	0	0	2733	2711	2711	2733	2733	2711	2711	2711	2733	2711	2711	2711	2711	2711	2711	2711	2711	2711	2711	2711	2733	2733	2733	2733	2733	2733	2733	2777	2777	2799	2799	2799	2799	3738	3738	3738	3738	3738	3779	3738	3738	3779	3779	3738	3738	3738	3738	3738	3738	3738	3738	3738	3738	3738	3738	3738	3738	3738	3738	3738	3779	3779	3779	3779	3779	3779	3779	3779	3779	3779	3779	3779	3779	3779	3779	3779	3779	3779	3779	3779	3779	3779	3779	3779	3779	3779	3779	3779	3779	3779	3779	3779	3779	3779	3779	3779	3779	3779	3779	3779	3779	3779	3779	3779	3779	3738	3738	3738	3738	3738	3738	3738	3738	3738	3738	3738	3738	3779	3779	3779	3779	3779	3779	3779	3779	3738	3738	3738	3738	3698	3698	3738	3738	3738	3738	3738	3738	3738	3738	3738	3738	3738	3738	3698	3698	3698	3698	3738	3698	3738	3779	3738	3738	3738	3738	3738	3738	3738	3738	3738	3738	3738	3738	3738	3738	3738	3698	3738	3738	3738	3738	3738	3738	3738	3738	3738	3738	3738	3738	3738	3738	3738	3738	3738	3738	3738	3738	3738	3738	3738	3738	3738	3738	3738	3738	3698	3738	3738	3698	3698	3698	0	0	0	0	0	0	0	0	0	0	0	0	0	0	0	0	0	0	0	0	0	0	0	0	0	0	0	0	0	0	0	0	0	0	0	0	0	0	0	0	0	0	0	0	0	0	0	0	0	0	0	0	0	0	0	0	0	0	0	0	0	0	0	0	0	0	0	0	0	0	0	0	0	0	0	0	0	0	0	0	0	0	0	0	0	0	0	0	0	0	0	0	0	0	0	0	0	0	0	0	0	0	0	0	0	0	0	0	0	0	0	0	0	0	0	0	0	0	0	0	0	0	0	0	0	0	0	0	0	0
0	0	0	0	0	0	0	0	0	1546	1546	1553	1553	1553	1560	1567	1560	1574	1574	1581	1581	1589	1596	1596	1596	1603	1603	1611	1611	1618	1618	1626	1626	1626	0	2297	2327	2327	2327	2343	2343	2343	2343	2343	2343	2343	2327	2327	2327	2312	2327	2327	2327	2343	2343	2343	2343	2359	2359	2343	2327	2343	2327	2343	2343	2343	2327	2343	2343	2343	2343	2327	2327	2327	2327	2327	2327	2327	2343	2343	2359	2359	2359	2359	2343	2343	2359	2359	2343	2343	2343	2359	2359	2359	2359	2359	2359	2359	2359	2359	2359	2359	2343	2343	2343	2359	2343	2343	2343	2376	2376	2343	2359	2359	2359	2343	2343	2343	2343	2343	2359	2359	2359	2359	2359	2359	2359	2690	2690	2669	2669	2669	2690	2669	2669	2669	2669	2669	2669	2669	2669	2669	2669	2669	2690	2690	2690	2690	2690	2690	2690	2690	2690	2711	2711	2711	2711	2711	2711	2711	3186	3157	3157	3157	3157	3157	3157	3157	3157	3157	3157	3157	3157	3129	3157	3186	3186	3186	3186	3186	3186	3186	3186	3186	3821	3821	3821	3821	3821	3821	3779	3779	3779	3779	3779	3779	3779	3779	3779	3779	3779	3821	3864	3864	3821	3821	3821	3864	3864	3864	3864	3864	3907	3864	3864	3864	3864	3864	3864	3864	3864	3864	3864	3864	3907	3864	3864	3864	3864	3864	3864	3864	3821	3864	3864	3864	3821	3864	3864	3864	3821	3821	3821	3821	3779	3779	3779	3779	3779	3779	3779	3821	3779	3779	3779	3779	3779	3779	3821	3864	3864	3907	3907	3907	3907	3907	3864	3864	3864	3821	3821	3821	3821	3821	3821	3821	3821	3821	3864	3864	3821	3821	3821	3821	3821	3821	3821	3821	3821	3821	3864	3821	3821	3779	3779	3821	3779	3779	3779	3779	3779	3821	3779	3738	3738	0	0	0	2777	2754	2754	2711	2711	2711	2711	2711	2711	2711	2711	2711	2711	2711	2711	2711	2711	2711	2711	2711	2711	2733	2733	2733	2733	2733	2733	2733	2754	2777	2799	2799	2799	3738	3738	3738	3738	3738	3738	3779	3738	3738	3779	3779	3779	3738	3738	3738	3738	3738	3738	3738	3738	3738	3738	3738	3738	3738	3738	3738	3738	3779	3779	3779	3779	3779	3779	3779	3779	3779	3779	3779	3779	3779	3779	3779	3779	3779	3779	3779	3779	3779	3779	3738	3779	3779	3779	3738	3779	3779	3779	3738	3779	3779	3779	3779	3779	3738	3738	3738	3738	3738	3738	3779	3738	3738	3738	3738	3738	3738	3738	3738	3738	3738	3738	3738	3659	3659	3738	3779	3779	3779	3779	3779	3779	3779	3779	3779	3738	3738	3738	3698	3738	3738	3738	3738	3738	3738	3738	3738	3738	3738	3738	3738	3738	3738	3738	3698	3698	3698	3738	3738	3738	3738	3738	3738	3738	3738	3738	3738	3738	3738	3738	3698	3698	3698	3738	3698	3738	3738	3738	3738	3738	3779	3738	3738	3738	3738	3738	3738	3738	3738	3738	3738	3738	3738	3738	3738	3738	3738	3738	3738	3738	3738	3738	3738	3698	3698	3738	3738	3738	3738	0	0	0	0	0	0	0	0	0	0	0	0	0	0	0	0	0	0	0	0	0	0	0	0	0	0	0	0	0	0	0	0	0	0	0	0	0	0	0	0	0	0	0	0	0	0	0	0	0	0	0	0	0	0	0	0	0	0	0	0	0	0	0	0	0	0	0	0	0	0	0	0	0	0	0	0	0	0	0	0	0	0	0	0	0	0	0	0	0	0	0	0	0	0	0	0	0	0	0	0	0	0	0	0	0	0	0	0	0	0	0	0	0	0	0	0	0	0	0	0	0	0	0	0	0	0	0	0	0	0
0	0	0	0	0	0	0	0	0	1553	1553	1553	1560	1560	1581	1581	1589	1589	1589	1589	1589	1589	1596	1596	1603	1603	1603	1611	1611	1618	1611	1618	1618	1618	0	0	2359	2359	2359	2359	2359	2343	2343	2343	2343	2343	2343	2327	2343	2327	2343	2343	2376	2376	2376	2359	2359	2359	2376	2376	2343	2343	2343	2343	2343	2359	2343	2343	2359	2343	2343	2343	2343	2327	2343	2327	2343	2343	2359	2359	2376	2359	2376	2359	2359	2359	2359	2376	2359	2376	2376	2376	2376	2376	2376	2376	2376	2376	2376	2392	2359	2359	2359	2359	2359	2359	2343	2359	2343	2376	2376	2359	2359	2376	2359	2359	2343	2359	2359	2359	2359	2376	2376	2359	2376	2376	2376	2376	2690	2669	2649	2649	2669	2669	2649	2669	2669	2669	2669	2669	2669	2649	2649	2649	2669	2669	2690	2690	2690	2690	2690	2690	2690	2690	2690	2711	2711	2711	2711	2711	3216	3186	3157	3157	3157	3157	3157	3157	3157	3157	3186	3186	3186	3186	3186	3216	3216	3216	3216	3216	3216	3216	3186	3186	3186	3821	3821	3821	3821	3821	3779	3779	3779	3779	3779	3779	3779	3779	3779	3779	3779	3821	3821	3821	3821	3821	3821	3821	3821	3864	3864	3864	3907	3864	3864	3864	3864	3864	3864	3864	3864	3864	3864	3864	3907	3864	3864	3864	3864	3864	3864	3864	3864	3864	3864	3864	3864	3821	3864	3821	3821	3821	3821	3779	3779	3779	3779	3779	3779	3779	3779	3821	3779	3779	3779	3779	3779	3779	3821	3864	3864	3907	3907	3907	3907	3907	3864	3864	3864	3864	3864	3821	3864	3821	3821	3821	3821	3821	3864	3821	3821	3821	3821	3821	3821	3821	3821	3821	3821	3821	3821	3821	3779	3779	3779	3779	3779	3779	3821	3779	3821	3821	3779	3779	3738	0	0	2777	2754	2754	2733	2733	2711	2711	2711	2711	2711	2711	2711	2711	2733	2733	2711	2711	2711	2711	2711	2711	2711	2711	2711	2711	2711	2711	2711	2733	2754	2777	2799	2799	2799	3738	3738	3738	3738	3738	3738	3738	3738	3738	3779	3738	3738	3738	3738	3738	3738	3738	3738	3738	3738	3738	3738	3738	3738	3738	3738	3738	3738	3779	3779	3779	3779	3779	3779	3779	3779	3779	3779	3779	3779	3779	3779	3779	3779	3779	3779	3779	3779	3779	3779	3738	3779	3779	3779	3738	3738	3738	3738	3738	3738	3738	3738	3738	3738	3738	3738	3738	3779	3738	3738	3738	3738	3738	3738	3738	3738	3738	3738	3738	3738	3738	3738	3698	3698	3659	3738	3779	3779	3779	3779	3779	3779	3779	3779	3779	3738	3738	3738	3738	3738	3738	3738	3738	3738	3738	3738	3738	3738	3738	3738	3738	3698	3738	3698	3698	3698	3659	3698	3738	3738	3738	3738	3738	3738	3738	3738	3738	3738	3738	3698	3698	3698	3698	3738	3698	3738	3738	3738	3738	3738	3779	3779	3738	3738	3738	3738	3738	3738	3738	3738	3738	3738	3738	3738	3738	3738	3738	3738	3738	3738	3738	3738	3738	3698	3698	3738	3738	3738	3738	0	0	0	0	0	0	0	0	0	0	0	0	0	0	0	0	0	0	0	0	0	0	0	0	0	0	0	0	0	0	0	0	0	0	0	0	0	0	0	0	0	0	0	0	0	0	0	0	0	0	0	0	0	0	0	0	0	0	0	0	0	0	0	0	0	0	0	0	0	0	0	0	0	0	0	0	0	0	0	0	0	0	0	0	0	0	0	0	0	0	0	0	0	0	0	0	0	0	0	0	0	0	0	0	0	0	0	0	0	0	0	0	0	0	0	0	0	0	0	0	0	0	0	0	0	0	0	0	0	0
0	0	0	0	0	0	0	0	0	1553	1560	1560	1560	1567	1581	1581	1581	1589	1589	1589	1589	1589	1596	1596	1596	1603	1603	1611	1611	1618	1611	1618	1618	1618	0	0	2392	2376	2359	2359	2343	2359	2343	2343	2343	2343	2343	2343	2376	2376	2376	2376	2376	2376	2376	2376	2359	2376	2359	2376	2359	2359	2359	2359	2359	2359	2359	2359	2359	2359	2359	2359	2359	2343	2359	2343	2359	2376	2376	2376	2376	2376	2376	2376	2359	2359	2376	2376	2376	2376	2392	2376	2376	2392	2392	2392	2392	2392	2392	2392	2392	2359	2359	2359	2359	2359	2359	2392	2376	2392	2392	2392	2376	2392	2376	2376	2359	2359	2359	2359	2359	2376	2376	2376	2376	2392	2392	2392	2392	2629	2629	2669	2649	2649	2649	2649	2649	2669	2649	2649	2629	2649	2649	2649	2669	2669	2690	2690	2690	2690	2690	2690	2690	2690	2690	2690	2711	2711	2711	2711	3216	3216	3186	3186	3216	3216	3216	3216	3216	3216	3186	3186	3186	3216	3216	3216	3216	3216	3216	3216	3216	3216	3186	3216	3216	3821	3821	3821	3821	3821	3821	3821	3821	3779	3779	3779	3779	3779	3779	3779	3779	3821	3821	3864	3821	3821	3821	3821	3821	3864	3864	3864	3907	3907	3864	3864	3864	3864	3864	3864	3864	3864	3864	3864	3864	3864	3864	3864	3864	3864	3864	3864	3821	3864	3864	3864	3864	3864	3864	3864	3821	3821	3821	3821	3779	3779	3779	3779	3779	3779	3779	3779	3779	3779	3779	3779	3779	3779	3821	3864	3864	3864	3864	3907	3907	3864	3864	3864	3864	3864	3864	3821	3821	3821	3864	3864	3864	3821	3821	3821	3821	3821	3821	3821	3821	3821	3821	3821	3821	3821	3821	3779	3779	3779	3779	3779	3779	3821	3821	3779	3821	3821	3738	3738	0	0	2777	2754	2754	2754	2754	2733	2733	2711	2711	2711	2711	2711	2711	2711	2733	2733	2711	2711	2711	2711	2711	2711	2711	2711	2733	2711	2711	2711	2711	2733	2754	2777	2799	2799	2799	0	3738	3738	3738	3779	3779	3779	3738	3738	3779	3738	3738	3738	3738	3738	3738	3738	3738	3738	3738	3738	3738	3738	3738	3738	3738	3738	3738	3779	3779	3779	3779	3779	3779	3779	3779	3779	3779	3779	3779	3779	3779	3779	3779	3779	3779	3779	3779	3779	3779	3779	3779	3779	3779	3779	3779	3779	3738	3738	3738	3698	3659	3738	3659	3659	3738	3659	3698	3698	3698	3698	3698	3698	3698	3698	3698	3738	3738	3698	3698	3738	3698	3698	3659	3659	3738	3738	3779	3779	3779	3779	3779	3779	3779	3779	3738	3738	3738	3698	3698	3698	3698	3738	3738	3738	3738	3738	3738	3738	3738	3698	3698	3738	3698	3698	3698	3659	3698	3738	3698	3698	3738	3738	3738	3738	3738	3738	3738	3738	3698	3698	3698	3698	3738	3698	3738	3738	3738	3738	3738	3779	3738	3738	3738	3738	3738	3738	3738	3738	3738	3738	3738	3738	3738	3738	3738	3738	3738	3738	3738	3738	3738	3738	3698	3698	3698	3698	3698	3698	0	0	0	0	0	0	0	0	0	0	0	0	0	0	0	0	0	0	0	0	0	0	0	0	0	0	0	0	0	0	0	0	0	0	0	0	0	0	0	0	0	0	0	0	0	0	0	0	0	0	0	0	0	0	0	0	0	0	0	0	0	0	0	0	0	0	0	0	0	0	0	0	0	0	0	0	0	0	0	0	0	0	0	0	0	0	0	0	0	0	0	0	0	0	0	0	0	0	0	0	0	0	0	0	0	0	0	0	0	0	0	0	0	0	0	0	0	0	0	0	0	0	0	0	0	0	0	0	0	0
0	0	0	0	0	0	0	0	0	1560	1560	1567	1567	1581	1581	1581	1581	1589	1589	1589	1589	1589	1589	1596	1596	1603	1603	1611	1618	1618	1618	1626	1626	1626	1626	0	2392	2376	2359	2359	2359	2359	2343	2343	2359	2359	2359	2343	2359	2376	2376	2376	2376	2376	2376	2392	2376	2376	2376	2376	2376	2376	2376	2376	2376	2376	2376	2376	2376	2359	2359	2359	2359	2359	2376	2359	2376	2376	2376	2376	2392	2376	2376	2376	2376	2359	2392	2376	2392	2392	2392	2392	2392	2392	2392	2392	2392	2392	2392	2392	2392	2376	2376	2359	2359	2376	2359	2392	2392	2392	2392	2392	2392	2392	2376	2376	2376	2376	2392	2409	2409	2376	2392	2392	2392	2392	2392	2392	2392	2392	2629	2629	2649	2629	2649	2649	2669	2669	2669	2649	2649	2629	2649	2629	2649	2669	2669	2669	2690	2669	2669	2690	2690	2690	2690	2690	2711	2690	2690	3246	3246	3246	3216	3216	3216	3216	3216	3216	3216	3216	3186	3186	3216	3216	3246	3246	3216	3246	3246	3246	3216	3216	3216	3216	3216	3821	3821	3821	3821	3821	3821	3821	3779	3779	3779	3779	3779	3779	3779	3779	3779	3821	3864	3864	3821	3821	3821	3821	3821	3821	3864	3821	3864	3864	3864	3864	3864	3864	3864	3864	3864	3864	3864	3864	3864	3864	3864	3864	3864	3864	3864	3864	3864	3864	3864	3864	3864	3864	3864	3864	3864	3821	3821	3821	3779	3779	3821	3779	3779	3779	3779	3779	3779	3779	3779	3779	3821	3821	3864	3864	3864	3864	3864	3864	3864	3864	3864	3864	3864	3864	3864	3864	3821	3821	3821	3864	3821	3821	3821	3821	3821	3821	3821	3821	3821	3779	3821	3821	3821	3821	3821	3779	3779	3779	3779	3821	3821	3821	3821	3821	3821	3821	3738	3738	0	0	2777	2754	2754	2754	2733	2733	2733	2711	2711	2711	2711	2711	2711	2733	2733	2733	2711	2711	2711	2711	2711	2733	2711	2711	2733	2711	2711	2711	2733	2733	2754	2777	2799	2799	2799	0	3779	3738	3738	3779	3779	3779	3738	3779	3779	3779	3738	3738	3738	3738	3738	3738	3738	3738	3738	3738	3738	3738	3738	3738	3738	3738	3738	3779	3779	3779	3779	3779	3779	3779	3779	3779	3779	3779	3779	3779	3779	3779	3779	3779	3779	3779	3779	3779	3779	3779	3779	3779	3779	3779	3779	3738	3738	3738	3738	3738	3738	3738	3659	3659	3738	3698	3698	3698	3698	3698	3698	3698	3698	3738	3738	3738	3738	3738	3738	3738	3698	3698	3659	3659	3738	3738	3779	3779	3821	3821	3779	3821	3779	3779	3779	3738	3738	3698	3698	3698	3698	3738	3738	3738	3738	3738	3738	3738	3738	3738	3698	3698	3698	3698	3698	3698	3698	3738	3698	3698	3738	3738	3738	3698	3698	3698	3698	3698	3698	3698	3698	3698	3738	3698	3698	3698	3698	3698	3698	3738	3738	3738	3738	3738	3738	3738	3738	3738	3698	3738	3738	3738	3738	3738	3738	3738	3738	3738	3738	3738	3738	3698	3698	3698	3698	3698	3698	3698	0	0	0	0	0	0	0	0	0	0	0	0	0	0	0	0	0	0	0	0	0	0	0	0	0	0	0	0	0	0	0	0	0	0	0	0	0	0	0	0	0	0	0	0	0	0	0	0	0	0	0	0	0	0	0	0	0	0	0	0	0	0	0	0	0	0	0	0	0	0	0	0	0	0	0	0	0	0	0	0	0	0	0	0	0	0	0	0	0	0	0	0	0	0	0	0	0	0	0	0	0	0	0	0	0	0	0	0	0	0	0	0	0	0	0	0	0	0	0	0	0	0	0	0	0	0	0	0	0	0
0	0	0	0	0	0	0	0	0	1560	1567	1567	1581	1581	1581	1581	1581	1589	1589	1581	1581	1581	1589	1589	1589	1596	1596	1611	1611	1618	1618	1626	1626	1626	1626	0	2376	2376	2376	2376	2359	2359	2359	2359	2376	2343	2343	2343	2343	2343	2376	2376	2392	2392	2392	2392	2392	2392	2392	2392	2376	2376	2376	2376	2376	2376	2376	2376	2376	2376	2376	2376	2376	2376	2376	2376	2376	2376	2376	2392	2376	2376	2392	2376	2392	2392	2392	2392	2392	2392	2392	2392	2392	2392	2392	2392	2392	2392	2392	2392	2392	2376	2392	2376	2376	2376	2376	2376	2376	2392	2392	2392	2392	2392	2392	2392	2376	2392	2409	2392	2409	2392	2392	2392	2392	2392	2392	2392	2392	2392	2392	2629	2629	2629	2649	2649	2669	2669	2669	2669	2669	2629	2629	2629	2649	2669	2669	2669	2669	2669	2669	2690	2690	2690	2690	2690	2690	2690	2690	2690	3216	3216	3216	3216	3216	3216	3216	3216	3216	3216	3216	3186	3216	3216	3246	3246	3216	3246	3246	3246	3216	3216	3216	3216	3216	3216	3821	3821	3821	3821	3821	3821	3821	3779	3779	3779	3779	3779	3779	3779	3779	3821	3864	3864	3864	3821	3821	3821	3821	3821	3821	3821	3864	3864	3864	3821	3821	3864	3864	3864	3864	3864	3864	3864	3864	3864	3864	3864	3864	3821	3864	3821	3864	3864	3864	3864	3864	3864	3864	3864	3864	3821	3821	3821	3821	3821	3821	3779	3779	3779	3821	3821	3821	3821	3821	3821	3821	3821	3864	3864	3864	3864	3864	3864	3864	3864	3864	3864	3864	3864	3864	3864	3821	3779	3864	3864	3821	3821	3821	3821	3821	3821	3821	3821	3821	3821	3821	3821	3821	3821	3821	3779	3779	3779	3779	3821	3821	3821	3821	3821	3821	3821	3821	3738	0	0	2777	2777	2754	2754	2733	2733	2754	2711	2711	2711	2711	2711	2733	2733	2733	2733	2733	2711	2711	2733	2733	2733	2733	2733	2733	2711	2711	2711	2733	2733	2754	2777	2799	2799	2799	0	3738	3738	3779	3779	3779	3779	3779	3779	3779	3779	3738	3738	3738	3738	3738	3738	3738	3738	3738	3738	3738	3738	3738	3738	3738	3738	3738	3779	3779	3779	3779	3779	3779	3779	3779	3779	3779	3779	3779	3779	3779	3779	3779	3779	3779	3779	3779	3779	3779	3779	3779	3779	3738	3738	3779	3738	3738	3698	3738	3659	3698	3698	3659	3698	3659	3659	3698	3698	3698	3698	3698	3738	3738	3738	3738	3738	3738	3738	3738	3738	3698	3698	3698	3698	3738	3738	3779	3779	3821	3821	3821	3821	3821	3779	3779	3738	3738	3698	3698	3698	3698	3738	3738	3738	3738	3738	3738	3738	3738	3738	3698	3698	3698	3698	3698	3698	3738	3738	3698	3698	3698	3698	3698	3698	3698	3698	3698	3738	3698	3698	3698	3698	3698	3698	3698	3698	3698	3698	3698	3738	3738	3738	3738	3738	3738	3738	3738	3738	3698	3738	3738	3738	3738	3738	3738	3738	3738	3738	3738	3738	3738	3698	3698	3698	3698	3659	3659	3698	0	0	0	0	0	0	0	0	0	0	0	0	0	0	0	0	0	0	0	0	0	0	0	0	0	0	0	0	0	0	0	0	0	0	0	0	0	0	0	0	0	0	0	0	0	0	0	0	0	0	0	0	0	0	0	0	0	0	0	0	0	0	0	0	0	0	0	0	0	0	0	0	0	0	0	0	0	0	0	0	0	0	0	0	0	0	0	0	0	0	0	0	0	0	0	0	0	0	0	0	0	0	0	0	0	0	0	0	0	0	0	0	0	0	0	0	0	0	0	0	0	0	0	0	0	0	0	0	0	0
0	0	0	0	0	0	0	0	0	1560	1567	1567	1567	1581	1581	1581	1581	1581	1581	1581	1581	1581	1581	1581	1589	1596	1596	1611	1611	1618	1618	1626	1618	1618	0	0	2359	2376	2359	2359	2359	2359	2359	2359	2359	2343	2359	2359	2359	2343	2376	2376	2392	2392	2376	2392	2392	2392	2392	2392	2392	2392	2392	2376	2376	2376	2376	2392	2392	2392	2376	2392	2392	2392	2392	2376	2392	2392	2392	2392	2392	2392	2392	2376	2409	2409	2409	2409	2409	2409	2392	2409	2392	2392	2392	2392	2392	2392	2409	2392	2392	2392	2392	2392	2392	2392	2392	2392	2392	2392	2392	2392	2392	2409	2392	2392	2392	2392	2392	2392	2409	2392	2409	2409	2409	2409	2392	2392	2409	2426	2426	2443	2478	2478	2478	2629	2649	2669	2690	2669	2669	2649	2649	2649	2669	2690	2669	2669	2669	2669	2669	2690	2669	2669	2690	2690	2690	2690	2690	3246	3246	3246	3216	3216	3246	3216	3246	3216	3216	3216	3216	3216	3216	3216	3246	3246	3246	3246	3246	3246	3246	3246	3216	3246	3216	3216	3821	3821	3821	3821	3779	3821	3821	3821	3821	3779	3779	3779	3779	3779	3821	3864	3864	3864	3864	3821	3821	3821	3821	3821	3821	3821	3864	3864	3864	3864	3864	3864	3864	3864	3864	3864	3864	3864	3864	3864	3821	3821	3864	3821	3821	3821	3821	3864	3864	3864	3864	3864	3864	3864	3821	3821	3821	3779	3779	3779	3779	3779	3738	3779	3779	3821	3821	3821	3821	3821	3821	3821	3864	3864	3864	3864	3864	3864	3864	3864	3864	3821	3864	3779	3821	3779	3779	3779	3821	3821	3821	3821	3821	3821	3821	3821	3821	3821	3821	3821	3821	3821	3821	3821	3779	3779	3779	3779	3779	3779	3779	3821	3864	3821	3821	3821	3821	0	0	2777	2777	2777	2777	2754	2754	2733	2754	2733	2733	2733	2733	2733	2733	2733	2733	2733	2733	2733	2733	2733	2733	2733	2733	2733	2733	2711	2711	2711	2733	2733	2754	2777	2799	2799	2799	0	3779	3779	3779	3779	3779	3779	3779	3779	3779	3779	3779	3779	3738	3738	3738	3738	3738	3738	3738	3738	3738	3738	3738	3738	3738	3738	3738	3779	3779	3779	3779	3779	3779	3779	3779	3779	3779	3779	3779	3779	3779	3779	3779	3779	3779	3779	3779	3779	3779	3779	3779	3779	3779	3779	3779	3779	3738	3698	3738	3659	3659	3659	3659	3659	3659	3659	3698	3698	3698	3698	3698	3738	3698	3738	3738	3738	3738	3738	3698	3738	3698	3698	3698	3698	3738	3738	3779	3779	3821	3821	3821	3779	3779	3779	3779	3738	3738	3738	3738	3698	3698	3738	3738	3738	3738	3738	3738	3738	3738	3738	3698	3698	3698	3698	3698	3698	3698	3698	3698	3698	3698	3698	3698	3698	3698	3698	3698	3698	3698	3698	3698	3698	3698	3698	3698	3698	3698	3698	3698	3738	3738	3738	3738	3738	3738	3738	3738	3738	3738	3738	3738	3738	3738	3738	3738	3738	3738	3738	3738	3738	3698	3698	3698	3698	3698	3659	3659	3659	0	0	0	0	0	0	0	0	0	0	0	0	0	0	0	0	0	0	0	0	0	0	0	0	0	0	0	0	0	0	0	0	0	0	0	0	0	0	0	0	0	0	0	0	0	0	0	0	0	0	0	0	0	0	0	0	0	0	0	0	0	0	0	0	0	0	0	0	0	0	0	0	0	0	0	0	0	0	0	0	0	0	0	0	0	0	0	0	0	0	0	0	0	0	0	0	0	0	0	0	0	0	0	0	0	0	0	0	0	0	0	0	0	0	0	0	0	0	0	0	0	0	0	0	0	0	0	0	0	0
0	0	0	0	0	0	0	0	0	1567	1567	1574	1574	1581	1581	1581	1581	1581	1581	1581	1581	1581	1581	1581	1581	1589	1596	1603	1611	1618	1626	1626	1626	1626	0	2376	2376	2376	2376	2376	2376	2376	2376	2376	2376	2392	2359	2359	2376	2359	2392	2392	2409	2392	2409	2392	2392	2409	2392	2392	2392	2392	2392	2392	2392	2392	2392	2392	2392	2392	2409	2409	2409	2392	2409	2409	2392	2392	2392	2392	2392	2392	2392	2409	2409	2409	2426	2426	2409	2409	2409	2409	2392	2392	2409	2392	2409	2409	2409	2409	2409	2409	2409	2409	2392	2409	2392	2409	2409	2409	2392	2409	2392	2409	2392	2392	2392	2409	2409	2409	2409	2409	2409	2409	2409	2409	2409	2409	2409	2443	2460	2460	2478	2478	2478	2609	2629	2649	2649	2669	2649	2649	2649	2649	2669	2690	2669	2669	2669	2669	2669	2669	2669	2669	2690	2690	2690	2690	2690	2690	3246	3216	3246	3246	3246	3246	3246	3216	3216	3216	3216	3216	3246	3246	3246	3246	3246	3246	3246	3246	3246	3246	3246	3246	3246	3246	3277	3277	3821	3821	3779	3779	3821	3821	3779	3779	3779	3779	3779	3779	3779	3821	3864	3821	3864	3821	3821	3821	3821	3821	3821	3821	3864	3864	3864	3864	3821	3864	3864	3864	3864	3864	3864	3864	3864	3864	3864	3821	3864	3864	3864	3821	3864	3864	3864	3864	3864	3864	3864	3864	3821	3821	3821	3821	3821	3821	3821	3821	3779	3779	3779	3821	3821	3821	3821	3821	3821	3821	3864	3864	3821	3864	3864	3864	3864	3864	3821	3821	3821	3779	3821	3779	3779	3821	3821	3821	3821	3779	3779	3821	3821	3821	3821	3779	3821	3821	3821	3821	3821	3821	3779	3779	3779	3779	3779	3821	3821	3821	3821	3821	3779	3779	3779	0	0	2777	2777	2777	2777	2754	2754	2733	2754	2754	2754	2733	2711	2733	2733	2733	2733	2733	2733	2733	2733	2733	2733	2754	2733	2733	2733	2733	2733	2733	2733	2733	2777	2799	2799	2799	2799	0	3738	3779	3779	3779	3779	3779	3779	3779	3779	3779	3779	3779	3738	3738	3738	3738	3738	3738	3738	3738	3738	3738	3738	3738	3738	3738	3738	3779	3779	3779	3779	3779	3779	3779	3779	3779	3779	3779	3779	3779	3779	3779	3779	3779	3779	3779	3779	3779	3779	3779	3779	3779	3738	3779	3779	3738	3738	3698	3738	3659	3698	3698	3659	3659	3659	3659	3698	3698	3698	3698	3698	3698	3698	3738	3738	3738	3738	3738	3698	3738	3698	3698	3698	3698	3738	3738	3738	3779	3779	3779	3779	3779	3779	3779	3738	3738	3738	3698	3698	3698	3698	3738	3738	3738	3738	3738	3738	3738	3738	3698	3698	3698	3698	3698	3698	3698	3698	3698	3698	3698	3698	3698	3698	3698	3698	3698	3698	3698	3698	3698	3698	3698	3698	3698	3698	3698	3698	3698	3698	3738	3738	3738	3698	3698	3738	3738	3738	3738	3738	3738	3738	3738	3738	3738	3738	3738	3738	3738	3738	3738	3698	3698	3698	3698	3698	3659	3659	3659	0	0	0	0	0	0	0	0	0	0	0	0	0	0	0	0	0	0	0	0	0	0	0	0	0	0	0	0	0	0	0	0	0	0	0	0	0	0	0	0	0	0	0	0	0	0	0	0	0	0	0	0	0	0	0	0	0	0	0	0	0	0	0	0	0	0	0	0	0	0	0	0	0	0	0	0	0	0	0	0	0	0	0	0	0	0	0	0	0	0	0	0	0	0	0	0	0	0	0	0	0	0	0	0	0	0	0	0	0	0	0	0	0	0	0	0	0	0	0	0	0	0	0	0	0	0	0	0	0	0
0	0	0	0	0	0	0	0	0	1567	1567	1567	1574	1581	1581	1581	1581	1581	1581	1581	1574	1581	1581	1581	1581	1589	1596	1603	1611	1618	1626	1626	1626	1626	0	2376	2392	2376	2376	2376	2376	2359	2376	2376	2392	2392	2392	2392	2392	2392	2409	2409	2409	2409	2409	2409	2409	2409	2392	2392	2392	2392	2392	2392	2392	2392	2392	2392	2392	2409	2409	2409	2409	2409	2392	2392	2409	2409	2409	2392	2392	2392	2392	2426	2426	2426	2443	2443	2443	2426	2426	2426	2409	2409	2409	2409	2409	2409	2409	2409	2409	2426	2409	2409	2409	2409	2409	2426	2409	2409	2409	2409	2409	2409	2409	2409	2392	2409	2409	2426	2426	2409	2409	2409	2426	2426	2426	2426	2426	2443	2460	2460	2478	2478	2478	2609	2629	2649	2649	2649	2629	2629	2649	2649	2669	2669	2669	2669	2669	2669	2669	2669	2669	2669	2669	2690	2690	2690	2690	2690	3246	3216	3246	3246	3246	3246	3246	3216	3246	3216	3246	3246	3246	3246	3246	3246	3246	3246	3246	3246	3246	3246	3246	3246	3246	3246	3277	3277	3277	3907	3864	3821	3821	3821	3821	3779	3779	3779	3779	3779	3779	3821	3821	3864	3864	3821	3821	3821	3821	3821	3821	3821	3864	3864	3864	3864	3864	3864	3864	3821	3821	3821	3821	3821	3821	3821	3821	3821	3821	3821	3864	3864	3864	3864	3864	3864	3864	3864	3864	3821	3864	3864	3821	3821	3821	3821	3821	3779	3779	3779	3821	3821	3821	3821	3821	3821	3821	3821	3864	3864	3864	3864	3864	3864	3864	3864	3821	3821	3821	3821	3821	3821	3821	3821	3779	3821	3779	3821	3779	3821	3821	3864	3821	3821	3821	3821	3821	3779	3779	3779	3779	3779	3779	3821	3779	3821	3821	3821	3864	3821	3821	3821	3821	0	0	2777	2799	2777	2777	2777	2754	2754	2777	2754	2754	2754	2711	2754	2754	2733	2733	2733	2733	2733	2733	2733	2733	2733	2733	2733	2733	2733	2733	2733	2754	2754	2777	2799	2799	2777	2777	0	3738	3738	3779	3779	3779	3779	3779	3779	3779	3779	3779	3779	3779	3738	3738	3738	3738	3738	3738	3738	3738	3738	3738	3779	3738	3738	3738	3779	3779	3779	3779	3779	3779	3779	3779	3779	3779	3779	3779	3779	3779	3779	3779	3738	3779	3779	3779	3779	3779	3779	3779	3738	3738	3738	3738	3738	3698	3698	3738	3659	3659	3659	3659	3659	3659	3659	3698	3698	3698	3698	3698	3698	3698	3698	3698	3738	3738	3738	3698	3738	3698	3698	3698	3698	3738	3738	3738	3779	3821	3821	3821	3779	3779	3779	3779	3738	3738	3738	3738	3698	3698	3738	3738	3738	3738	3738	3738	3738	3738	3698	3698	3698	3698	3698	3698	3698	3698	3698	3698	3698	3698	3698	3698	3698	3698	3698	3698	3698	3698	3698	3698	3698	3698	3698	3698	3698	3698	3698	3698	3738	3738	3738	3738	3738	3738	3738	3738	3738	3738	3738	3738	3738	3738	3738	3738	3738	3738	3738	3738	3738	3698	3698	3698	3698	3698	3659	3621	3621	0	0	0	0	0	0	0	0	0	0	0	0	0	0	0	0	0	0	0	0	0	0	0	0	0	0	0	0	0	0	0	0	0	0	0	0	0	0	0	0	0	0	0	0	0	0	0	0	0	0	0	0	0	0	0	0	0	0	0	0	0	0	0	0	0	0	0	0	0	0	0	0	0	0	0	0	0	0	0	0	0	0	0	0	0	0	0	0	0	0	0	0	0	0	0	0	0	0	0	0	0	0	0	0	0	0	0	0	0	0	0	0	0	0	0	0	0	0	0	0	0	0	0	0	0	0	0	0	0	0
0	0	0	0	0	0	0	0	0	1560	1567	1567	1567	1574	1574	1581	1581	1581	1581	1574	1574	1581	1574	1574	1581	1589	1596	1611	1618	1626	1634	1634	1634	1626	2392	2392	2392	2392	2392	2392	2376	2359	2376	2376	2376	2359	2376	2392	2392	2392	2392	2409	2409	2409	2409	2409	2409	2409	2409	2409	2409	2426	2392	2392	2392	2392	2392	2409	2409	2409	2426	2426	2426	2409	2409	2409	2409	2409	2409	2409	2409	2409	2426	2443	2443	2443	2460	2460	2443	2443	2426	2443	2426	2443	2426	2426	2426	2426	2426	2409	2409	2426	2426	2426	2426	2426	2426	2426	2426	2426	2426	2426	2426	2426	2426	2426	2426	2426	2426	2426	2426	2409	2409	2409	2426	2426	2426	2426	2460	2460	2460	2460	2460	2460	2478	2478	2629	2629	2649	2649	2629	2629	2649	2649	2669	2669	2669	2649	2669	2669	2649	2669	2669	2669	2690	2690	2711	2711	2711	2711	3246	3246	3246	3246	3246	3246	3246	3246	3246	3246	3246	3246	3246	3246	3246	3246	3246	3246	3246	3246	3246	3246	3277	3246	3246	3246	3277	3277	3277	3277	3864	3821	3821	3821	3821	3779	3779	3779	3779	3779	3779	3821	3864	3864	3864	3821	3821	3821	3821	3821	3821	3821	3821	3864	3864	3864	3864	3864	3864	3864	3864	3821	3821	3821	3821	3821	3821	3821	3864	3864	3864	3821	3864	3864	3864	3864	3864	3821	3821	3821	3864	3864	3821	3821	3821	3821	3821	3821	3779	3779	3821	3779	3821	3821	3821	3821	3821	3821	3864	3821	3864	3821	3864	3864	3821	3821	3821	3821	3821	3821	3821	3821	3821	3821	3821	3821	3821	3821	3821	3864	3864	3864	3821	3821	3779	3779	3779	3779	3779	3779	3779	3779	3779	3821	3821	3821	3821	3821	3864	3821	3821	3779	3779	3779	0	2799	2777	2777	2777	2777	2754	2754	2777	2754	2754	2754	2733	2754	2754	2733	2733	2733	2733	2733	2733	2733	2733	2754	2733	2754	2754	2733	2754	2733	2754	2754	2754	2777	2777	2799	2799	3779	3779	3779	3779	3779	3779	3779	3779	3779	3779	3779	3738	3779	3779	3738	3738	3738	3738	3738	3738	3738	3738	3738	3779	3738	3738	3738	3738	3779	3779	3779	3779	3779	3779	3779	3779	3779	3779	3779	3779	3779	3779	3779	3779	3779	3779	3779	3779	3738	3738	3779	3779	3779	3738	3738	3738	3779	3698	3698	3738	3738	3738	3738	3659	3659	3698	3659	3698	3698	3698	3698	3698	3698	3698	3698	3738	3738	3738	3738	3738	3738	3698	3698	3698	3698	3698	3738	3779	3779	3821	3821	3779	3779	3779	3779	3738	3738	3698	3698	3738	3698	3698	3738	3698	3738	3738	3738	3738	3738	3738	3698	3698	3698	3698	3698	3698	3698	3698	3698	3698	3698	3698	3698	3698	3698	3698	3698	3698	3698	3698	3698	3698	3698	3698	3698	3698	3698	3698	3659	3698	3738	3738	3738	3698	3698	3738	3738	3738	3738	3738	3738	3738	3738	3738	3738	3738	3738	3738	3738	3738	3738	3698	3698	3698	3698	3698	3698	3621	3621	0	0	0	0	0	0	0	0	0	0	0	0	0	0	0	0	0	0	0	0	0	0	0	0	0	0	0	0	0	0	0	0	0	0	0	0	0	0	0	0	0	0	0	0	0	0	0	0	0	0	0	0	0	0	0	0	0	0	0	0	0	0	0	0	0	0	0	0	0	0	0	0	0	0	0	0	0	0	0	0	0	0	0	0	0	0	0	0	0	0	0	0	0	0	0	0	0	0	0	0	0	0	0	0	0	0	0	0	0	0	0	0	0	0	0	0	0	0	0	0	0	0	0	0	0	0	0	0	0	0
0	0	0	0	0	0	0	0	0	1567	1567	1567	1567	1567	1567	1574	1581	1581	1581	1574	1574	1581	1581	1581	1581	1589	1596	1611	1618	1634	1634	1634	1634	0	2392	2409	2409	2392	2392	2392	2392	2359	2376	2376	2376	2376	2392	2409	2409	2409	2409	2409	2409	2409	2409	2426	2409	2426	2426	2426	2443	2443	2409	2409	2409	2409	2409	2426	2409	2426	2443	2443	2443	2443	2426	2426	2426	2426	2426	2426	2409	2409	2409	2443	2443	2443	2460	2460	2460	2460	2443	2460	2443	2443	2426	2426	2426	2426	2426	2409	2409	2443	2443	2443	2443	2443	2443	2460	2460	2460	2443	2460	2443	2426	2443	2443	2426	2426	2426	2426	2426	2426	2409	2426	2426	2426	2426	2426	2443	2460	2460	2460	2460	2460	2478	2478	2478	2629	2649	2649	2690	2690	2690	2690	2690	2669	2669	2669	2649	2649	2649	2649	2669	2669	2669	2669	2733	2711	2711	2711	3277	3246	3277	3246	3246	3246	3246	3246	3246	3246	3246	3277	3277	3277	3246	3246	3246	3246	3246	3246	3246	3246	3309	3277	3277	3277	3277	3277	3277	3277	3779	3821	3779	3779	3779	3779	3779	3779	3779	3779	3779	3821	3821	3821	3821	3821	3821	3821	3821	3821	3821	3821	3821	3864	3864	3864	3864	3864	3864	3864	3864	3864	3821	3821	3821	3821	3821	3821	3821	3821	3864	3864	3864	3864	3864	3821	3821	3821	3821	3821	3821	3821	3821	3821	3821	3821	3821	3821	3779	3779	3779	3779	3821	3821	3821	3821	3821	3821	3821	3821	3821	3821	3864	3821	3821	3821	3821	3779	3821	3779	3821	3821	3821	3821	3821	3821	3821	3821	3821	3821	3821	3864	3821	3864	3864	3821	3821	3779	3779	3779	3779	3779	3779	3821	3821	3821	3821	3821	3821	3821	3821	3779	3779	3821	3821	2799	2799	2777	2777	2777	2754	2754	2777	2754	2754	2754	2733	2733	2733	2733	2733	2733	2733	2733	2733	2733	2733	2754	2733	2754	2754	2733	2754	2733	2754	2754	2777	2777	2777	3779	3779	3779	3779	3779	3779	3779	3738	3738	3779	3779	3779	3779	3738	3779	3779	3738	3738	3738	3738	3738	3738	3738	3738	3738	3738	3779	3738	3738	3738	3779	3779	3779	3779	3779	3779	3779	3779	3779	3779	3779	3779	3779	3779	3779	3779	3779	3779	3779	3779	3779	3779	3779	3738	3738	3738	3738	3738	3738	3698	3698	3738	3738	3738	3738	3659	3738	3738	3659	3698	3698	3698	3659	3698	3698	3698	3698	3698	3738	3738	3738	3738	3738	3738	3738	3698	3698	3738	3698	3779	3779	3821	3821	3779	3779	3779	3779	3738	3738	3738	3698	3738	3698	3698	3738	3738	3738	3738	3738	3738	3738	3738	3698	3698	3698	3698	3698	3698	3698	3698	3698	3698	3698	3698	3698	3698	3698	3698	3698	3698	3698	3698	3698	3698	3698	3698	3698	3698	3698	3698	3659	3698	3738	3738	3738	3738	3738	3738	3738	3738	3738	3738	3738	3738	3738	3738	3738	3738	3698	3738	3738	3738	3738	3698	3698	3738	3698	3698	3698	3659	3659	0	0	0	0	0	0	0	0	0	0	0	0	0	0	0	0	0	0	0	0	0	0	0	0	0	0	0	0	0	0	0	0	0	0	0	0	0	0	0	0	0	0	0	0	0	0	0	0	0	0	0	0	0	0	0	0	0	0	0	0	0	0	0	0	0	0	0	0	0	0	0	0	0	0	0	0	0	0	0	0	0	0	0	0	0	0	0	0	0	0	0	0	0	0	0	0	0	0	0	0	0	0	0	0	0	0	0	0	0	0	0	0	0	0	0	0	0	0	0	0	0	0	0	0	0	0	0	0	0	0
