0	0	0	0	0	0	1026	1030	1030	1030	1036	1039	1042	1042	1045	1048	1052	1052	1052	1052	1052	1055	1055	1058	1058	0	0	0	0	1750	1741	1741	1732	1732	1732	0	0	0	1732	1732	1732	1732	1732	1732	1732	1732	1732	0	0	0	0	0	0	0	0	0	0	0	0	0	0	0	0	0	0	0	0	0	0	0	0	0	0	0	1732	1732	1732	1732	1732	1741	1741	1741	1741	1741	0	0	0	0	0	0	0	1768	1759	1759	1759	1768	1768	1768	1768	1768	1768	1768	1777	1777	1777	1786	1795	1795	1795	1795	1795	1795	1795	1795	1786	1786	0	0	0	0	0	7959	7959	7959	7959	7959	7959	8146	8146	8343	8343	8343	8343	8343	8343	8343	8343	8343	8146	8146	8146	8146	8146	8146	8146	8146	8146	8146	8146	8146	8146	7959	7959	7959	7959	7959	7959	7959	7959	8146	8146	8146	8146	8343	8343	8343	8343	8343	8343	8343	8343	8343	8146	8146	8146	8146	8343	8343	8343	8343	8343	8343	8343	8343	8343	8146	8146	8146	8146	8343	8146	8343	8146	8343	8146	8146	8146	8146	8146	8146	8146	8146	8343	8343	8343	8343	8146	8146	8146	8146	8146	0	0	0	0	0	0	3373	3373	3373	3341	3341	3341	3341	3341	3341	3341	3341	3341	3309	3309	3309	3277	3277	3246	3246	3246	3246	3277	3246	3277	3277	3246	3246	3246	3246	3246	3246	3246	3246	3246	3246	3246	3246	3246	3246	3246	3246	3246	3277	3277	3277	3277	3277	3277	3277	3309	3309	3309	3309	3309	3309	3341	3341	3341	3341	3341	3341	3341	3309	3309	3341	3341	3341	3309	3309	3309	3309	8343	8343	8343	8146	8146	8146	8146	8146	8146	8146	8146	8343	8343	8146	8146	8146	8146	8146	8146	8146	8146	8146	8146	8146	8146	8146	8146	8146	8146	8343	8550	8550	8550	8550	8550	8550	8550	8343	8343	8343	8550	8550	8550	8550	8343	8343	8343	8343	8343	8343	8343	8343	8343	8343	8343	8343	8343	8343	8343	8343	8343	8343	8343	8343	8343	8343	8343	8343	8343	8343	8343	8343	8343	8343	8343	8343	8343	8343	8146	8146	8343	8343	8343	8343	8343	8343	8343	8146	8146	8343	8343	8343	8550	8550	8550	8550	8343	8343	8343	8343	8146	8146	8146	8146	8146	8343	8343	8343	8343	8343	8343	8343	8343	8343	8343	8146	8146	8146	8146	8146	8146	8146	7959	8146	8146	8146	8146	8146	8146	8146	8146	8146	8146	8146	8146	8146	8146	8146	8146	8146	8146	8146	8146	8146	8146	8146	8146	8146	8146	7959	7959	7959	7959	7959	7959	8146	8146	8146	8146	8146	8146	8146	8146	8146	8146	8146	8146	8146	8146	8146	8146	8146	8146	8146	7959	7959	7959	7959	7959	7959	7959	7959	8146	8146	8146	8146	8146	8146	8146	8146	8146	8146	8146	8146	8146	8146	8146	8146	8146	8146	8343	8343	8343	8343	8343	8343	8343	8343	8343	8343	8343	8343	8343	8343	8343	8343	8343	8343	8343	8146	8343	8146	8146	8146	8146	8146	8146	8146	8146	8146	8146	8146	8146	8146	8146	8146	8146	8343	8343	8343	8146	8343	8343	8343	8343	8146	8343	8343	8146	8146	8146	8146	8343	8343	8146	8343	8343	8343	8343	8343	8550	8550	8550	0	0	0	0	0	2609	2609	2589	2589	2609	2589	2589	2589	2570	2570	2570	2551	2551	2551	2532	2532	2514	2496	2496	2478	2478	2460	2460	2443	2443	2426	2409	2409	2392	2392	2392	2392	2376	2359	2359	2343	2327	2327	2327	2312	2312	2252	2208	2237	2237	2237	2237	0	0	0	0	0	0	0	0	0	0	0	0	0	0	0	0	0	0	0	0	0	0	0	0	0	0	0	0	0	0	0	0	0	0	0	0	0
0	0	0	0	0	0	1026	1030	1030	1033	1036	1039	1042	1042	1042	1045	1048	1052	1052	1052	1052	1055	1055	1055	1055	0	0	0	0	1750	1741	1741	1732	1732	1732	0	0	0	1732	1732	1732	1741	1741	1741	1732	0	0	0	0	0	0	0	0	0	0	0	0	0	0	0	0	0	0	0	0	0	0	0	0	0	0	0	0	0	1732	1732	1732	1732	1732	0	1741	1741	0	0	0	0	0	0	0	0	0	1768	1759	1759	1759	1768	1777	1777	1777	1777	1777	1786	1795	1786	1786	1795	1795	1795	1795	1795	1795	1795	1795	1795	1786	1786	0	0	0	0	0	7779	7779	7959	7959	7959	7959	8146	8146	8343	8343	8343	8343	8550	8550	8550	8550	8343	8343	8146	8146	8146	8146	8146	7959	7959	8146	8146	8146	7959	7959	7959	7959	7959	7959	7959	7959	7959	8146	8146	8146	8146	8146	8343	8343	8343	8343	8146	8343	8343	8343	8343	8146	8146	8146	8146	8343	8146	8343	8343	8343	8343	8343	8343	8343	8146	8146	8146	8146	8343	8146	8146	8146	8146	8146	8146	8146	8146	8146	8146	8146	8146	8146	8146	8343	8343	8343	8343	8343	8146	8146	0	0	0	0	0	0	3373	3373	3373	3341	3341	3373	3341	3341	3341	3341	3341	3341	3309	3309	3309	3277	3277	3246	3246	3246	3246	3277	3277	3277	3277	3277	3246	3246	3246	3246	3246	3246	3246	3216	3216	3246	3216	3246	3246	3246	3246	3246	3277	3277	3277	3277	3277	3277	3277	3309	3309	3309	3309	3309	3309	3341	3341	3341	3341	3341	3341	3341	3309	3309	3309	3341	3309	3309	3309	3277	3277	0	8343	8146	8146	8343	8343	8343	8146	8343	8146	8146	8343	8146	8146	8146	8146	8146	8146	8146	8146	8146	8146	8146	8146	8146	8146	8146	8146	8146	8550	8550	8550	8550	8550	8550	8550	8550	8343	8343	8343	8343	8343	8550	8550	8550	8343	8343	8343	8343	8146	8146	8146	8146	7959	8146	8146	8146	8343	8343	8343	8550	8343	8343	8343	8343	8343	8343	8343	8343	8343	8550	8343	8343	8343	8343	8343	8343	8343	8146	8343	8343	8343	8343	8343	8343	8343	8343	8343	8146	8343	8343	8343	8343	8343	8343	8343	8343	8343	8343	8343	8146	8146	8146	8146	8146	8343	8343	8343	8343	8343	8343	8343	8146	8343	8146	8146	8146	8146	8146	8146	8146	8146	8146	8146	8146	8146	8146	8146	8146	8146	8146	8146	8146	8146	8146	8146	8146	8146	8146	8146	8146	8146	8146	8146	8146	8146	8146	8146	8146	7959	7959	7959	7959	7959	7959	8146	8146	8146	8146	8146	8146	8146	8146	8146	8146	8146	8146	8146	8146	8146	8146	8146	8146	7959	7959	7959	7959	7959	7959	7959	7959	7959	8146	8146	8146	8146	8146	8146	8146	8146	8146	8146	8146	8146	8146	8146	8146	8146	8343	8343	8343	8343	8343	8343	8343	8343	8343	8343	8343	8343	8343	8343	8343	8343	8343	8343	8343	8343	8146	8146	8146	8343	8146	8146	8146	8146	8146	8146	8146	8146	8146	8146	8146	8146	8146	8146	8343	8343	8343	8343	8343	8343	8343	8343	8343	8343	8146	8146	8146	8146	8146	8146	8343	8343	8146	8343	8343	8343	8343	8343	8550	8550	8550	0	0	0	0	0	2609	2609	2589	2609	2609	2589	2589	2589	2589	2570	2570	2570	2551	2551	2532	2532	2514	2514	2496	2496	2478	2460	2460	2443	2443	2101	2426	2409	2392	2392	2392	2392	2376	2359	2343	2343	2327	2327	2327	2312	2312	2167	2167	2153	2153	2208	2208	0	0	0	0	0	0	0	0	0	0	0	0	0	0	0	0	0	0	0	0	0	0	0	0	0	0	0	0	0	0	0	0	0	0	0	0	0
0	0	0	0	0	0	1030	1030	1033	1033	1036	1039	1042	1042	1042	1042	1045	1048	1052	1052	1052	1055	1055	1055	1055	0	0	0	0	1750	1741	1732	1723	1723	0	0	0	0	1732	1732	1732	1741	1741	1741	0	0	0	0	0	0	0	0	0	0	0	0	0	0	0	0	0	0	0	0	0	0	0	0	0	0	0	0	0	0	0	0	0	0	0	0	0	0	0	0	0	0	0	0	0	0	0	0	0	0	0	1768	1777	1777	1777	1777	1777	1786	1795	1786	1795	1795	1795	1795	1795	1795	1795	1795	1795	1795	1795	1795	0	0	0	0	0	7959	7959	7959	7959	7959	7959	8146	8146	8146	8146	8343	8146	8343	8550	8550	8550	8550	8550	8343	8343	8146	8146	8146	7959	7959	7959	7959	7959	8146	8146	8146	8146	8146	7959	8146	8146	8146	8146	8146	8146	8146	8146	8343	8343	8146	8146	8146	8146	8146	8146	8146	8146	8146	8146	8146	8343	8146	8343	8343	8343	8343	8343	8343	8343	8146	8146	8146	8146	8146	8146	8146	8146	8146	8146	8146	8146	8146	8146	8146	8146	8146	8146	8146	8343	8343	8343	8343	8343	8343	8343	0	0	0	0	0	0	3373	3373	3341	3341	3341	3373	3341	3341	3341	3341	3341	3341	3309	3309	3309	3277	3246	3246	3246	3246	3246	3277	3277	3277	3277	3277	3277	3246	3277	3246	3246	3246	3246	3246	3246	3246	3246	3246	3246	3246	3246	3246	3277	3277	3277	3277	3277	3277	3277	3309	3309	3309	3309	3309	3309	3341	3341	3341	3341	3341	3341	3341	3341	3309	3309	3309	3309	3309	3309	3277	3277	0	8343	8343	8146	8343	8343	8343	8146	8343	8343	8146	8343	8146	8146	8146	8146	8146	8146	8146	8146	8146	8146	8146	8146	8146	8146	8146	8146	8146	8343	8550	8550	8550	8550	8550	8550	8550	8343	8343	8343	8343	8343	8343	8550	8343	8343	8343	8343	8343	8146	8146	8146	8146	8146	8146	8146	8343	8343	8343	8343	8343	8343	8343	8343	8343	8550	8550	8343	8343	8343	8343	8343	8343	8343	8343	8343	8343	8343	8146	8343	8343	8343	8343	8343	8343	8343	8343	8146	8146	8343	8343	8343	8343	8343	8343	8550	8343	8550	8550	8343	8343	8146	8343	8343	8343	8343	8343	8550	8343	8343	8343	8343	8146	8343	8343	8146	8146	8146	8146	8146	8146	8146	8146	8146	8146	8146	8146	8146	8146	8146	8146	8146	8146	8146	8146	8146	8146	8146	8146	8146	8146	8146	8146	8146	8146	8146	7959	8146	8146	7959	7959	7959	7959	7959	8146	8146	8146	8146	8146	8146	8146	8146	8146	8146	8146	8146	8146	8146	8146	8146	8146	8146	7959	7959	7959	7959	7959	7959	7959	7959	7959	7959	8146	8343	8343	8146	8146	8146	8146	8146	8146	8146	8146	8146	8146	8146	8146	8146	8146	8146	8343	8343	8343	8343	8343	8343	8343	8343	8343	8343	8343	8343	8343	8343	8343	8343	8343	8343	8146	8146	8343	8343	8343	8146	8146	8146	8146	8146	8146	8146	8146	8146	8146	8146	8146	8146	8343	8343	8343	8343	8343	8343	8343	8343	8343	8146	8146	8146	8146	7959	8146	8146	8146	8146	8146	8146	8343	8343	8343	8343	8550	8550	8550	0	0	0	0	0	2609	2609	2589	2609	2609	2589	2589	2589	2570	2570	2570	2570	2551	2551	2532	2532	2514	2496	2496	2496	2478	2478	2478	2101	2101	2101	2101	2127	2127	2114	2114	2127	2127	2127	2127	2140	2140	2140	2140	2153	2153	2153	2153	2140	2140	2153	2153	0	0	0	0	0	0	0	0	0	0	0	0	0	0	0	0	0	0	0	0	0	0	0	0	0	0	0	0	0	0	0	0	0	0	0	0	0
0	0	0	0	0	0	1030	1030	1033	1036	1036	1039	1042	1042	1042	1042	1045	1045	1048	1052	1052	1052	1055	1055	1055	0	0	0	0	0	0	1732	1723	1723	0	0	0	0	0	0	0	0	0	0	0	0	0	0	0	0	0	0	0	0	0	0	0	0	0	0	0	0	0	0	0	0	0	0	0	0	0	0	0	0	0	0	0	0	0	0	0	0	0	0	0	0	0	0	0	0	0	0	0	0	0	0	0	0	0	0	0	0	0	0	1795	1795	1795	1795	1795	1795	1795	1795	1795	1795	1786	1786	0	0	0	0	0	7959	7959	7959	7959	7959	7959	7959	8146	8146	8146	8146	8146	8146	8343	8343	8550	8550	8550	8343	8343	8146	8146	8146	8146	8146	8146	8146	8146	8146	8146	8146	8146	8146	7959	8146	8146	8146	8146	8146	8146	8146	7959	8146	8146	8146	8146	7959	8146	8146	8146	8146	8146	8146	8146	8146	8343	8343	8343	8343	8343	8343	8343	8146	8343	8146	8146	8146	8146	8146	8146	8146	8146	8146	8146	8146	8146	8146	8146	8146	8146	8146	8146	8146	8146	8146	8343	8343	8343	8343	8343	0	0	0	0	0	3373	3373	3373	3341	3341	3373	3373	3341	3341	3341	3341	3341	3341	3341	3309	3309	3309	3246	3246	3246	3246	3246	3277	3277	3277	3277	3277	3277	3246	3277	3246	3246	3246	3246	3246	3246	3246	3246	3246	3246	3246	3246	3246	3277	3277	3277	3277	3277	3309	3277	3309	3309	3309	3309	3309	3309	3341	3341	3341	3341	3341	3373	3341	3341	3341	3309	3309	3309	3309	3309	3277	3277	3277	8343	8343	8146	8343	8343	8343	8146	8146	8343	8146	8343	8146	8146	8146	8146	8146	8146	8146	8146	8146	8146	8146	7959	7959	7959	7959	7959	8146	8343	8550	8550	8550	8550	8550	8343	8550	8343	8343	8343	8343	8343	8343	8550	8550	8343	8343	8343	8343	8146	8146	8146	8146	8146	8146	8146	8343	8343	8343	8343	8343	8343	8550	8550	8550	8550	8550	8550	8550	8343	8550	8343	8343	8343	8343	8146	8343	8146	8146	8146	8343	8343	8343	8343	8343	8343	8343	8343	8146	8343	8343	8343	8343	8343	8343	8343	8343	8343	8343	8343	8146	8146	8343	8343	8343	8146	8343	8343	8343	8343	8343	8343	8146	8343	8343	8343	8146	8146	8146	8146	8146	8146	8146	8146	8146	8146	8146	8146	8146	8146	8146	8146	8146	8146	8146	8146	8146	8146	8146	8146	8146	8146	8146	8146	8146	8146	7959	7959	7959	7959	7959	7959	7959	7959	7959	8146	8146	8146	8146	8146	8146	8146	8146	8146	8146	8146	8146	8146	8146	8146	8146	8146	7959	8146	8146	7959	7959	7959	7959	7959	7959	7959	8146	8146	8343	8343	8343	8343	8343	8343	8343	8343	8343	8146	8146	8343	8343	8343	8343	8343	8343	8343	8343	8343	8343	8343	8343	8550	8550	8343	8343	8343	8343	8343	8343	8343	8343	8343	8146	8146	8343	8343	8343	8146	8146	8146	8146	8146	8146	8146	8146	8146	8146	8146	8343	8146	8343	8343	8550	8343	8343	8343	8343	8343	8343	8146	8146	8146	7959	7959	7959	7959	8146	8146	8146	8146	8146	8343	8343	8343	8550	8550	8550	8550	0	0	0	0	2609	2609	2609	2609	2609	2589	2589	2589	2570	2570	2570	2570	2551	2532	2532	2532	2514	2496	2496	2496	2478	2478	2127	2127	2127	2114	2127	2127	2127	2127	2127	2127	2127	2127	2127	2140	2140	2140	2140	2140	2140	2140	2140	2127	2140	2127	2127	0	0	0	0	0	0	0	0	0	0	0	0	0	0	0	0	0	0	0	0	0	0	0	0	0	0	0	0	0	0	0	0	0	0	0	0	0
0	0	0	0	0	0	1026	1030	1030	1033	1033	1039	1039	1042	1042	1042	1045	1048	1052	1052	1052	1055	1055	1055	0	0	0	0	0	0	0	0	0	0	0	0	0	0	0	0	0	0	0	0	0	0	0	0	0	0	0	0	0	0	0	0	0	0	0	0	0	0	0	0	0	0	0	0	0	0	0	0	0	0	0	0	0	0	0	0	0	0	0	0	0	0	0	0	0	0	0	0	0	0	0	0	0	0	0	0	0	0	0	0	0	1795	1804	1804	1795	1795	1795	1795	1795	1795	1795	1786	0	0	0	0	7959	7959	7959	7959	7959	7959	7959	7959	8146	8146	8146	8146	8146	8146	8146	8146	8343	8343	8343	8343	8146	8146	8146	7959	7959	7959	8146	8146	8146	7959	8146	8146	8146	8146	8146	8146	8146	8146	8146	8146	8146	7959	7959	8146	8146	8146	8146	7959	8146	8146	8146	8146	8146	8146	8343	8343	8343	8343	8343	8343	8343	8343	8343	8343	8343	8146	8146	8146	8146	8146	8146	8146	8146	8146	8146	8146	8146	8146	8146	8146	8146	8146	8146	8146	8146	8146	8343	8343	8343	8343	8343	0	0	0	0	0	3373	3341	3341	3341	3341	3341	3341	3341	3341	3341	3373	3373	3341	3341	3309	3309	3277	3246	3246	3246	3246	3246	3277	3277	3277	3277	3277	3277	3277	3277	3246	3246	3246	3246	3246	3246	3246	3246	3246	3246	3246	3246	3246	3246	3246	3277	3277	3277	3309	3277	3309	3277	3309	3309	3277	3277	3309	3309	3341	3341	3341	3373	3341	3341	3341	3309	3309	3309	3309	3309	3277	3277	3277	0	8343	8146	8343	8343	8343	8343	8343	8343	8146	8343	8146	8146	8146	8146	8146	8146	8146	8146	8146	8146	8146	7959	7959	7959	8146	7959	8146	8343	8550	8550	8550	8550	8343	8343	8343	8146	8146	8146	8146	8146	8343	8343	8550	8550	8550	8343	8343	8146	8146	8146	8146	8146	8146	8146	8343	8343	8343	8343	8343	8343	8343	8343	8550	8550	8550	8550	8550	8550	8550	8550	8343	8343	8343	8343	8343	8343	8146	8146	8146	8343	8343	8343	8343	8343	8343	8343	8343	8343	8343	8343	8343	8343	8343	8343	8343	8343	8343	8146	8146	8146	8343	8343	8343	8343	8343	8343	8343	8343	8343	8343	8146	8343	8343	8343	8343	8146	8146	8146	8146	8146	8146	8146	8146	8146	8146	8146	8146	8146	8146	8146	8146	8146	8146	8146	8146	8146	8146	8146	8146	8146	8146	8146	8146	8146	7959	7959	7959	7959	7959	7959	7959	7959	7959	8146	8146	8146	8146	7959	8146	8146	7959	8146	8146	8146	8146	8146	8146	8146	8146	8146	7959	7959	7959	7959	7959	7959	7959	8146	8146	8146	8146	8343	8343	8343	8343	8343	8343	8343	8343	8343	8343	8343	8146	8343	8343	8343	8343	8343	8343	8343	8343	8343	8343	8343	8343	8550	8550	8550	8343	8343	8343	8343	8343	8146	8146	8146	8146	8146	8146	8343	8343	8146	8146	8146	8146	8146	8146	8146	8146	8146	8146	8146	8343	8343	8343	8343	8550	8343	8343	8343	8343	8343	8343	8343	8146	8146	8146	8146	8146	8146	8146	8146	8146	8146	8146	8343	8343	8343	8550	8550	8550	8550	0	0	0	0	2609	2609	2609	2609	2609	2609	2589	2589	2570	2570	2551	2551	2532	2532	2532	2514	2496	2496	2478	2496	2496	2496	2127	2127	2140	2140	2140	2140	2140	2140	2127	2140	2140	2140	2127	2140	2140	2140	2140	2140	2140	2140	2140	2127	2140	2127	2127	0	0	0	0	0	0	0	0	0	0	0	0	0	0	0	0	0	0	0	0	0	0	0	0	0	0	0	0	0	0	0	0	0	0	0	0	0
0	0	0	0	0	0	1026	1026	1030	1036	1039	1039	1042	1042	1042	1042	1045	1048	1052	1052	1055	1055	1055	0	0	0	0	0	0	0	0	0	0	0	0	0	0	0	0	0	0	0	0	0	0	0	0	0	0	0	0	0	0	0	0	0	0	0	0	0	0	0	0	0	0	0	0	0	0	0	0	0	0	0	0	0	0	0	0	0	0	0	0	0	0	0	0	0	0	0	0	0	0	0	0	0	0	0	0	0	0	0	0	0	0	0	1804	1804	1795	1795	1795	1795	1795	1795	7608	7608	7608	7608	0	7959	7779	7959	7779	7779	7779	7959	7959	7959	7959	8146	8146	8146	8146	8146	8146	8343	8550	8550	8343	8343	8146	8146	8146	8146	7959	7959	8146	8146	8146	8146	8146	8146	8146	8146	8146	8146	8146	8146	8146	8146	7959	7959	7959	8146	8146	8146	8146	8146	8146	8146	8146	8146	8146	8146	8343	8343	8343	8343	8343	8343	8343	8343	8343	8146	8343	8146	8146	8146	8146	8146	8146	8146	8146	8146	8146	8146	8146	8146	8146	8146	8146	8146	8146	8146	8146	8146	8146	8146	8343	8146	8146	0	0	0	0	0	3341	3341	3341	3341	3341	3341	3341	3341	3341	3341	3341	3341	3341	3341	3309	3309	3277	3246	3246	3246	3246	3246	3277	3246	3277	3277	3277	3277	3277	3246	3246	3246	3246	3246	3246	3246	3246	3246	3246	3246	3246	3246	3246	3277	3277	3277	3277	3277	3277	3277	3277	3277	3277	3277	3277	3277	3309	3309	3341	3341	3341	3341	3341	3341	3341	3309	3309	3309	3309	3309	3277	3277	3277	0	8343	8343	8343	8343	8343	8343	8343	8343	8343	8343	8146	8146	8146	8146	8146	8146	8146	8146	8146	8146	8146	8146	7959	7959	8146	8146	8146	8343	8550	8550	8550	8550	8343	8343	8343	8146	8146	8146	8146	8343	8343	8550	8550	8550	8343	8343	8343	8146	8146	8146	8343	8146	8343	8343	8343	8343	8343	8343	8343	8343	8550	8550	8550	8550	8343	8343	8343	8343	8343	8343	8343	8343	8343	8343	8343	8146	8146	7959	8146	8146	8146	8146	8343	8343	8343	8343	8343	8343	8343	8343	8343	8343	8343	8343	8146	8343	8343	8146	8146	8146	8146	8343	8343	8343	8343	8343	8343	8343	8146	8146	8146	8343	8343	8343	8343	8343	8146	8343	8146	8146	8146	8146	8146	8146	8146	8146	8146	8146	8146	8146	8146	8146	8146	8146	8146	8146	8146	8146	8146	8146	8146	8146	8146	7959	7959	7959	7959	7959	7959	7959	7959	7959	7959	7959	8146	8146	8146	7959	8146	8146	7959	8146	8146	8146	8146	8146	8146	8146	8146	8146	7959	7959	7959	7959	7959	8146	8146	8146	8146	8146	8146	8343	8343	8343	8343	8343	8343	8343	8343	8343	8343	8146	8146	8343	8343	8343	8343	8343	8343	8343	8343	8343	8343	8343	8343	8550	8550	8550	8550	8343	8343	8343	8343	8343	8146	8146	8146	8146	8146	8343	8146	8146	8146	8146	8146	8146	8146	8146	8146	8146	8146	8146	8343	8343	8343	8550	8550	8343	8343	8343	8343	8343	8343	8343	8343	8343	8146	8146	8146	8146	8146	8146	8146	8146	8146	8343	8343	8343	8550	8550	8767	8767	0	0	0	0	0	2609	2629	2609	2609	2609	2589	2589	2589	2570	2570	2570	2551	2532	2532	2514	2496	2496	2496	2478	2496	2496	2127	2140	2140	2140	2140	2140	2140	2140	2140	2140	2140	2140	2140	2140	2153	2140	2153	2153	2153	2140	2140	2140	2140	2127	2127	0	0	0	0	0	0	0	0	0	0	0	0	0	0	0	0	0	0	0	0	0	0	0	0	0	0	0	0	0	0	0	0	0	0	0	0	0
0	0	0	0	0	0	1026	1026	1030	1030	1033	1039	1042	1042	1045	1042	1045	1048	1052	1052	1055	1055	1055	0	0	0	0	0	0	0	0	0	0	0	0	0	0	0	0	0	0	0	0	0	0	0	0	0	0	0	0	0	0	0	0	0	0	0	0	0	0	0	0	0	0	0	0	0	0	0	0	0	0	0	0	0	0	0	0	0	0	0	0	0	0	0	0	0	0	0	0	0	0	0	0	0	0	0	0	0	0	0	0	0	0	0	0	0	0	0	7608	7444	7608	7608	7608	7608	7444	7444	7444	7779	7608	7779	7779	7959	7959	7959	7959	7959	7959	8146	8146	8146	8146	8146	8146	8146	8343	8343	8343	8343	8146	8146	8146	8146	7959	7959	8146	8146	8146	8146	8146	8146	8146	8146	8146	8146	8146	8146	8146	7959	7959	7959	7959	8146	8146	8146	8146	8146	8146	8146	8146	8146	8146	8146	8343	8343	8343	8343	8343	8343	8343	8343	8343	8146	8343	8146	8146	8146	8146	8146	8146	8146	8146	8146	8146	8146	8146	8146	8146	8146	8146	8146	8146	8146	8146	8146	8146	8146	8146	8146	8146	0	0	0	0	0	3341	3341	3341	3341	3341	3341	3341	3341	3341	3341	3341	3341	3341	3309	3309	3309	3277	3246	3246	3246	3246	3246	3246	3246	3246	3277	3277	3277	3277	3277	3246	3246	3246	3246	3246	3216	3246	3246	3246	3246	3246	3246	3246	3277	3277	3277	3277	3277	3277	3277	3277	3277	3277	3277	3277	3277	3309	3309	3341	3341	3341	3341	3373	3373	3373	3341	3341	3309	3309	3309	3277	3277	3277	0	8343	8343	8343	8343	8343	8343	8343	8343	8343	8343	8343	8146	8146	8146	8146	8146	8146	8146	8146	8146	8146	7959	7959	7959	7959	7959	8146	8146	8550	8550	8550	8550	8343	8343	8343	8146	8343	8343	8343	8146	8343	8550	8550	8550	8550	8343	8343	8343	8146	8146	8343	8146	8146	8146	8343	8343	8343	8343	8343	8343	8550	8550	8550	8550	8343	8343	8343	8343	8343	8343	8343	8146	8343	8343	8343	8146	8146	7959	8146	8146	8343	8343	8343	8343	8550	8343	8343	8343	8343	8343	8343	8343	8343	8343	8146	8343	8146	8146	8146	8146	8146	8343	8343	8343	8550	8343	8343	8343	8343	8343	8146	8343	8343	8343	8343	8343	8146	8146	8146	8146	8146	8146	8146	8146	8146	8146	8146	8146	8146	8146	8146	8146	8146	8146	8146	8146	8146	8146	8146	8146	8146	8146	8146	8146	8146	8146	8146	8146	7959	7959	8146	7959	7959	8146	8146	8146	8146	7959	8146	8146	7959	8146	8146	8146	8146	8146	8146	8146	8146	7959	7959	7959	7959	8146	8146	8146	8146	8146	8146	7959	8146	8146	8146	8146	8343	8146	8343	8343	8343	8343	8146	8146	8146	8343	8343	8343	8343	8343	8343	8343	8343	8343	8343	8343	8343	8550	8550	8550	8343	8343	8343	8343	8343	8343	8146	8343	8343	8146	8343	8343	8343	8343	8343	8343	8343	8343	8343	8146	8146	8146	8146	8146	8343	8146	8343	8343	8550	8550	8343	8343	8343	8343	8343	8343	8343	8343	8343	8343	8343	8343	8146	8146	8146	8146	8343	8343	8343	8343	8550	8550	8767	8767	0	0	0	0	0	2609	2629	2629	2629	2609	2609	2589	2589	2570	2570	2551	2532	2532	2514	2514	2496	2478	2478	2478	2478	2478	2127	2140	2140	2140	2140	2140	2140	2140	2140	2153	2153	2140	2153	2153	2153	2153	2153	2153	2153	2153	2153	2140	2153	2140	2140	0	0	0	0	0	0	0	0	0	0	0	0	0	0	0	0	0	0	0	0	0	0	0	0	0	0	0	0	0	0	0	0	0	0	0	0	0
0	0	0	0	0	0	0	1026	1026	1030	1033	1039	1039	1042	1045	1045	1045	1048	1052	1055	1055	1058	1058	0	0	0	0	0	0	0	0	0	0	0	0	0	0	0	0	0	0	0	0	0	0	0	0	0	0	0	0	0	0	0	0	0	0	0	0	0	0	0	0	0	0	0	0	0	0	0	0	0	0	0	0	0	0	0	0	0	0	0	0	0	0	0	0	0	0	0	0	0	0	0	0	0	0	0	0	0	0	0	0	0	0	0	0	0	0	7287	7287	7287	7444	7444	7608	7608	7444	7444	7779	7779	7608	7779	7779	7779	7959	7959	7779	7959	7959	8146	8146	8146	8146	8146	8146	8146	8343	8343	8146	8146	8146	8146	8146	7959	7959	7959	8146	8343	8146	8146	8146	8146	8146	8146	8146	8146	8146	8146	7959	7959	7959	7959	7959	8146	8146	8146	8146	8146	8146	8146	8146	8146	8146	8343	8343	8343	8343	8343	8343	8343	8343	8343	8343	8146	8343	8343	8146	8146	8146	8146	8146	8146	8146	8146	8146	8146	8146	8146	8146	8146	8146	8146	8146	8146	8146	8146	8146	8146	8146	8146	8146	0	0	0	0	0	3341	3341	3341	3341	3341	3341	3341	3341	3341	3341	3341	3341	3341	3309	3309	3277	3277	3246	3246	3246	3246	3246	3277	3246	3277	3277	3277	3277	3277	3246	3246	3246	3246	3246	3246	3246	3246	3246	3246	3246	3246	3246	3246	3246	3277	3277	3277	3277	3277	3277	3277	3277	3277	3277	3277	3277	3277	3309	3309	3309	3309	3341	3341	3341	3341	3309	3309	3309	3309	3309	3277	3277	3277	0	8343	8343	8343	8343	8343	8343	8343	8343	8343	8343	8343	8146	8146	8146	8146	8146	8146	8146	8146	8146	8146	7959	7959	7959	7959	7959	8146	8343	8343	8550	8550	8550	8343	8343	8343	8146	8343	8343	8146	8146	8343	8550	8343	8550	8343	8343	8343	8343	8146	8146	8343	8146	8343	8343	8343	8343	8343	8343	8343	8550	8550	8550	8550	8550	8550	8343	8343	8343	8343	8146	8146	8146	8146	8146	8146	8146	7959	7959	7959	8146	8146	8146	8343	8343	8343	8343	8343	8343	8343	8343	8343	8343	8343	8343	8146	8146	8146	8146	8146	8146	8343	8343	8550	8550	8550	8550	8550	8550	8343	8343	8343	8343	8343	8343	8343	8343	8146	8146	8146	8146	8146	8146	8146	8146	8146	8146	8146	8146	8146	8146	8146	8146	8146	8146	8146	8146	8146	8343	8343	8146	8146	8146	8146	8146	8146	8146	8146	8146	7959	7959	8146	7959	8146	8146	8146	8146	8146	8146	8146	8146	7959	8146	8146	8146	8146	8146	8146	8146	7959	7959	7959	7959	7959	8146	8146	8146	8146	8146	7959	7959	8146	8146	8146	8146	8146	8146	8146	8343	8343	8146	8146	8146	8146	8343	8343	8343	8343	8343	8343	8343	8343	8343	8343	8343	8343	8550	8550	8343	8343	8343	8146	8343	8343	8146	8146	8146	8146	8146	8146	8343	8343	8343	8343	8343	8343	8343	8146	8146	8146	8146	8146	8146	8343	8343	8343	8550	8550	8550	8343	8343	8343	8343	8343	8343	8343	8343	8343	8343	8343	8343	8146	8146	8146	8146	8146	8343	8343	8343	8550	8767	8767	8767	0	0	0	0	0	0	2649	2629	2629	2609	2589	2589	2589	2589	2570	2551	2532	2514	2478	2478	2460	2460	2460	2460	2460	2478	2478	2140	2140	2140	2140	2140	2140	2140	2140	2153	2153	2153	2153	2153	2167	2153	2153	2167	2167	2167	2167	2153	2167	2153	2153	0	0	0	0	0	0	0	0	0	0	0	0	0	0	0	0	0	0	0	0	0	0	0	0	0	0	0	0	0	0	0	0	0	0	0	0	0
0	0	0	0	0	0	0	1026	1026	1030	1033	1033	1039	1042	1045	1045	1045	1048	1052	1055	1055	1055	1055	0	0	0	0	0	0	0	0	0	0	0	0	0	0	0	0	0	0	0	0	0	0	0	0	0	0	0	0	0	0	0	0	0	0	0	0	0	0	0	0	0	0	0	0	0	0	0	0	0	0	0	0	0	0	0	0	0	0	0	0	0	0	0	0	0	0	0	0	0	0	0	0	0	0	0	0	0	0	0	0	0	0	0	0	0	0	7287	7287	7444	7444	7444	7608	7608	7444	7444	7444	7779	7608	7779	7779	7779	0	0	7779	7959	8146	8146	8146	8146	8146	8146	8146	8146	8146	8146	8146	8146	8146	8146	8146	8146	8146	8146	8343	8343	8343	8146	8146	8146	8146	8146	8146	8146	8146	8146	7959	7959	7959	7959	7959	8146	8146	8146	8146	8146	8146	8146	8146	8146	8146	8343	8343	8343	8343	8343	8343	8343	8343	8343	8146	8146	8146	8146	8146	8146	8146	8146	8146	8146	7959	7959	7959	7959	8146	8146	8146	8146	8146	8146	8146	8146	8146	7959	8146	8146	7959	7959	7959	0	0	0	0	3309	3309	3341	3309	3341	3341	3341	3341	3341	3341	3341	3341	3341	3309	3309	3277	3277	3277	3246	3246	3246	3246	3246	3277	3277	3277	3277	3277	3277	3277	3246	3246	3246	3246	3246	3246	3246	3246	3246	3246	3246	3246	3246	3246	3277	3277	3277	3277	3277	3277	3277	3277	3277	3277	3277	3277	3277	3277	3309	3341	3309	3309	3341	3341	3341	3341	3309	3309	3309	3309	3309	3309	3277	3277	0	8343	8343	8343	8343	8343	8343	8343	8343	8343	8343	8343	8146	8146	8146	8146	8146	8146	7959	7959	7959	7959	7959	7779	7959	8146	8146	8146	8343	8550	8550	8550	8550	8343	8550	8343	8146	8343	8343	8146	8146	8146	8343	8343	8343	8343	8343	8343	8343	8146	8146	8343	8343	8343	8343	8343	8343	8343	8343	8343	8343	8343	8550	8550	8550	8550	8343	8343	8343	8343	8146	8146	8146	8146	8146	8146	8146	8146	7959	7959	8146	8146	8146	8146	8343	8343	8343	8343	8343	8343	8343	8343	8343	8343	8343	8146	8146	8146	8146	8146	8146	8146	8343	8550	8550	8550	8550	8550	8550	8343	8343	8343	8343	8343	8343	8343	8343	8146	8343	8146	8343	8343	8146	8146	8146	8146	8146	8146	8146	8146	8146	8146	8146	8146	8146	8146	8146	8343	8343	8343	8146	8146	8146	8146	8146	8146	8146	8146	7959	7959	7959	7959	7959	8146	8146	8146	8146	8146	8146	7959	7959	7959	7959	7959	7959	7959	7959	7959	7959	7959	7959	7959	7959	7959	8146	8146	8146	8146	8146	7959	7959	8146	8146	8146	8146	8146	8146	8146	8343	8146	8146	8146	8146	8146	8343	8343	8343	8343	8343	8343	8343	8343	8343	8343	8550	8343	8343	8343	8343	8343	8343	8146	8343	8343	8343	8146	8146	8146	8146	8343	8343	8343	8343	8343	8343	8343	8343	8146	8146	8146	8146	8146	8146	8146	8343	8343	8343	8550	8343	8343	8343	8343	8343	8343	8343	8343	8343	8343	8343	8343	8146	8146	8146	8146	8146	8146	8343	8343	8343	8550	8767	8767	0	0	0	0	0	0	0	2649	2629	2629	2609	2589	2589	2589	2589	2570	2551	2532	2514	2478	2478	2460	2460	2460	2460	2460	2460	2478	2478	2478	2140	2140	2140	2140	2140	2153	2153	2153	2153	2167	2194	2167	2167	2167	2194	2181	2266	2266	2266	2266	2266	2266	0	0	0	0	0	0	0	0	0	0	0	0	0	0	0	0	0	0	0	0	0	0	0	0	0	0	0	0	0	0	0	0	0	0	0	0	0
0	0	0	0	0	0	0	1026	1026	1030	1033	1036	1039	1045	1045	1045	1048	1052	1055	1055	1055	1055	1055	0	0	0	0	0	0	0	0	0	0	0	0	0	0	0	0	0	0	0	0	0	0	0	0	0	0	0	0	0	0	0	0	0	0	0	0	0	0	0	0	0	0	0	0	0	0	0	0	0	0	0	0	0	0	0	0	0	0	0	0	0	0	0	0	0	0	0	0	0	0	0	0	0	0	0	0	0	0	0	0	0	0	0	0	0	0	0	0	7444	7444	7444	7608	7608	7608	7608	7779	7779	0	0	0	0	0	0	0	0	8146	8146	8146	8146	8146	8146	8146	8146	8146	8146	8146	8146	8146	7959	7959	7959	7959	8146	8146	8146	8146	8146	8146	8146	8146	8146	8146	8146	8146	8146	7959	7959	7959	7959	7959	8146	8146	8146	8146	8146	8146	8146	8146	8146	8146	8343	8343	8343	8343	8343	8343	8343	8343	8343	8146	8146	8146	8146	8146	8146	8146	8146	8146	8146	7959	7959	7959	7959	8146	8146	8146	8146	8146	8146	8146	8146	8146	7959	8146	7959	7959	7959	7959	0	0	0	0	3277	3277	3309	3309	3309	3309	3341	3341	3341	3341	3341	3341	3341	3309	3309	3277	3277	3277	3246	3246	3246	3246	3246	3277	3277	3277	3277	3277	3277	3277	3246	3246	3246	3246	3246	3246	3246	3246	3246	3246	3246	3246	3246	3246	3277	3277	3277	3277	3277	3277	3277	3277	3277	3277	3277	3277	3277	3277	3309	3341	3309	3309	3341	3341	3341	3341	3341	3341	3309	3309	3309	3309	3309	3309	0	8550	8343	8343	8343	8343	8343	8343	8343	8343	8343	8343	8146	8146	8146	8146	8146	8146	8146	7959	7959	7959	8146	7959	7959	8146	8146	8343	8343	8550	8550	8550	8550	8550	8550	8343	8343	8343	8343	8146	8146	8146	8343	8343	8343	8343	8343	8343	8343	8343	8146	8343	8343	8343	8343	8343	8343	8343	8343	8343	8343	8343	8343	8550	8550	8550	8343	8343	8146	8146	8146	8146	8146	8343	8343	8146	8146	8146	7959	7959	8146	8146	8146	8343	8343	8343	8343	8343	8343	8343	8343	8343	8146	8146	8146	8146	8146	8146	8146	8146	8146	8146	8343	8343	8343	8550	8343	8343	8550	8343	8343	8343	8343	8343	8550	8550	8343	8146	8146	8146	8146	8146	8146	8146	8146	8343	8146	8343	8146	8146	8146	8146	8146	8146	8146	8146	8146	8146	8343	8343	8146	8146	8146	8146	8146	8146	8146	7959	7959	7959	7959	7959	7959	8146	8146	8146	8146	8146	7959	7959	7959	7959	7959	7959	7959	7959	7959	7959	7959	7959	7959	7959	7959	8146	8146	8146	8146	8146	8146	8146	7959	8146	8146	8146	8146	8146	8146	8146	8343	8343	8343	8146	8146	8146	8343	8343	8343	8343	8343	8343	8343	8343	8343	8343	8550	8343	8343	8343	8343	8343	8146	8146	8343	8343	8343	8146	8343	8343	8146	8343	8343	8343	8343	8343	8343	8343	8343	0	8146	8146	8146	8146	8146	8146	8146	8343	8343	8343	8343	8343	8343	8343	8343	8343	8343	8343	8343	8343	8343	8343	8343	8146	8146	8146	8146	8146	8146	8343	8343	8550	8550	8550	0	0	0	0	0	0	0	2649	2629	2629	2609	2609	2589	2589	2570	2551	2532	2532	2514	2460	2460	2460	2460	2460	2460	2460	2460	2460	2460	2460	2460	2443	2140	2140	2140	2153	2153	2167	2153	2181	2194	2194	2167	2167	2237	2252	2252	2252	2252	2252	2252	2252	0	0	0	0	0	0	0	0	0	0	0	0	0	0	0	0	0	0	0	0	0	0	0	0	0	0	0	0	0	0	0	0	0	0	0	0	0
0	0	0	0	0	0	0	1030	1026	1030	1030	1036	1036	1039	1045	1048	1048	1052	1055	1055	1055	1055	1055	0	0	0	0	0	0	0	0	0	0	0	0	0	0	0	0	0	0	0	0	0	0	0	0	0	0	0	0	0	0	0	0	0	0	0	0	0	0	0	0	0	0	0	0	0	0	0	0	0	0	0	0	0	0	0	0	0	0	0	0	0	0	0	0	0	0	0	0	0	0	0	0	0	0	0	0	0	0	0	0	0	0	0	0	0	0	0	0	0	0	7444	7444	7608	7444	7608	7779	7608	7608	0	0	0	0	0	0	0	8146	8146	8146	8146	8146	8146	8146	8146	8146	8146	8146	8146	8146	7959	7959	7959	7959	7959	8146	8146	8146	8146	8146	8146	8146	7959	7959	7959	7959	7959	7959	7959	7959	7959	7959	8146	8146	8146	8146	8146	8146	8146	8146	8343	8343	8343	8343	8343	8343	8343	8146	8343	8343	8343	8146	8146	8146	8146	8146	8146	8146	8146	8146	8146	8146	8146	8146	8146	8146	8146	8146	8146	8146	8146	8146	8146	8146	8146	8146	8146	7959	7959	7959	0	0	0	0	3277	3277	3309	3309	3309	3309	3341	3341	3341	3341	3341	3309	3309	3309	3309	3277	3277	3277	3246	3246	3246	3246	3246	3277	3246	3246	3246	3246	3246	3246	3246	3246	3246	3246	3277	3246	3277	3277	3277	3277	3246	3246	3246	3246	3277	3277	3277	3277	3277	3277	3277	3277	3277	3277	3277	3277	3277	3277	3309	3309	3309	3309	3309	3309	3341	3341	3309	3309	3309	3309	3309	3309	3277	3277	0	8550	8343	8550	8343	8343	8343	8343	8343	8343	8343	8343	8343	8343	8343	8146	8146	8343	8146	8146	8146	8146	8146	8146	7959	8146	8343	8343	8550	8550	8550	8550	8550	8550	8550	8550	8343	8343	8146	8146	8146	8146	8343	8343	8146	8146	8343	8343	8343	8343	8343	8343	8343	8343	8343	8343	8343	8343	8343	8343	8343	8343	8343	8343	8343	8550	8343	8343	8146	8146	8146	8146	8146	8146	8343	8146	8146	8146	8146	7959	8146	8146	8146	8343	8343	8343	8343	8343	8343	8343	8343	8343	8343	8343	8343	8146	8146	8343	8343	8343	8343	8146	8343	8343	8343	8343	8343	8343	8343	8343	8343	8343	8343	8343	8343	8550	8343	8146	8146	8146	8146	8146	8146	8146	8146	8146	8146	8146	8146	8146	8146	8146	8146	8146	8146	8146	8146	8146	8146	8146	8146	8146	8146	8146	8146	8146	8146	8146	8146	8146	7959	8146	7959	7959	8146	8146	8146	8146	8146	7959	7959	7959	7959	7959	7959	7959	7959	7959	8146	7959	7959	7959	7959	7959	8146	8146	8146	8146	8146	8146	8146	8146	8146	8146	8343	8343	8146	8146	8343	8343	8146	8146	8146	8146	8343	8343	8343	8343	8343	8343	8343	8343	8343	8343	8343	8343	8343	8343	8146	8146	8146	8146	8146	8146	8343	8343	8343	8343	8343	8343	8343	8343	8343	8146	8146	8146	8146	0	8146	8146	8146	8146	8146	8146	8343	8343	8343	8343	8343	8343	8343	8343	8343	8343	8343	8343	8343	8343	8550	8343	8343	8343	8146	8146	8146	8146	8146	8343	8343	8550	8550	8550	0	0	0	0	0	0	0	2649	2649	2629	2609	2609	2589	2589	2589	2570	2532	2532	2514	2460	2460	2460	2460	2460	2460	2460	2460	2460	2460	2460	2460	2443	2443	2426	2409	2392	2376	2359	2327	2327	2327	2327	2266	2266	2252	2252	2252	2266	2266	2266	2266	2266	0	0	0	0	0	0	0	0	0	0	0	0	0	0	0	0	0	0	0	0	0	0	0	0	0	0	0	0	0	0	0	0	0	0	0	0	0
0	0	0	0	0	0	0	1030	1030	1030	1030	1033	1036	1039	1042	1045	1048	1052	1055	1055	1055	1055	1055	0	0	0	0	0	0	0	0	0	0	0	0	0	0	0	0	0	0	0	0	0	0	0	0	0	0	0	0	0	0	0	0	0	0	0	0	0	0	0	0	0	0	0	0	0	0	0	0	0	0	0	0	0	0	0	0	0	0	0	6349	6349	6349	0	0	0	0	0	0	0	0	0	0	0	0	0	0	0	0	0	0	0	0	0	0	0	0	0	0	0	7287	7287	7444	7444	7444	7608	7608	7608	7608	0	0	0	0	0	0	0	0	8146	8146	8146	8146	8146	8146	8146	8146	8146	8146	8146	8146	7959	7959	7959	7959	7959	7959	8146	8146	8146	8146	8146	8146	8146	7959	7959	7959	7959	7959	7959	7959	7959	7959	8146	8146	8146	8146	8146	8146	8146	8146	8146	8343	8343	8343	8343	8343	8343	8146	8343	8146	8146	8146	8146	8146	8146	8146	8146	8146	8146	8146	8146	8146	8146	8146	8146	8146	8146	8146	8146	8146	8146	8146	8146	8146	8146	8146	7959	7959	7959	0	0	0	0	0	3277	3277	3277	3277	3309	3309	3309	3309	3309	3341	3309	3309	3309	3309	3277	3277	3277	3246	3246	3246	3246	3216	3246	3246	3277	3246	3277	3246	3246	3246	3246	3246	3246	3246	3277	3277	3277	3277	3277	3277	3277	3277	3277	3277	3277	3277	3277	3277	3277	3277	3277	3277	3277	3277	3277	3277	3309	3309	3309	3309	3309	3309	3309	3309	3341	3341	3309	3309	3309	3309	3309	3277	3277	3277	3277	0	8343	8550	8343	8343	8343	8343	8343	8343	8343	8343	8343	8343	8343	8343	8343	8343	8146	8146	8146	8146	8146	8146	8146	8146	8146	8146	8343	8550	8550	8550	8550	8550	8550	8550	8343	8343	8343	8343	8146	8146	8343	8343	8343	8343	8343	8343	8550	8343	8343	8343	8343	8343	8343	8343	8343	8343	8343	8550	8550	8343	8343	8343	8343	8550	8343	8343	8146	8146	8146	8343	8146	8146	8146	8146	8146	8146	7959	7959	8146	8146	8146	8343	8343	8343	8343	8343	8343	8146	8343	8146	8146	8146	8146	8146	8146	8343	8343	8343	8343	8343	8343	8343	8550	8767	8550	8550	8550	8550	8343	8343	8146	8343	8343	8343	8343	8146	8146	8146	8146	8146	8146	8146	8146	8146	8146	8146	8146	8146	8146	8146	8146	8146	8146	8146	8146	8146	8146	8146	8146	8146	8146	8146	8146	8146	8146	8146	8146	8146	8146	8146	8146	7959	8146	8146	8146	8146	8146	8146	8146	8146	7959	7959	7959	7959	7959	7959	7959	7959	7959	7959	7959	7959	8146	8146	8146	8146	8146	8146	8146	8343	8343	8343	8343	8146	8146	8146	8146	8146	8146	8146	8146	8146	8343	8343	8343	8343	8343	8343	8343	8550	8550	8550	8343	8343	8343	8343	8146	8146	8146	8146	8146	8343	8343	8343	8343	8343	8343	8343	8343	8343	8343	8146	8146	8146	8146	8146	0	0	0	0	0	0	8343	8343	8146	8146	8146	8146	8146	8343	8343	8343	8343	8343	8343	8550	8550	8343	8343	8343	8146	8146	8146	8146	8146	8343	8343	8550	8550	0	0	0	0	0	0	0	0	2629	2629	2609	2609	2589	2589	2589	2589	2551	2532	2532	2514	2460	2460	2460	2460	2460	2460	2460	2460	2460	2460	2460	2443	2443	2443	2409	2392	2392	2376	2359	2327	2327	2312	2297	2297	2297	2281	2281	2266	2281	2266	2266	2266	2266	0	0	0	0	0	0	0	0	0	0	0	0	0	0	0	0	0	0	0	0	0	0	0	0	0	0	0	0	0	0	0	0	0	0	0	0	0
0	0	0	0	0	0	0	1030	1030	1030	1033	1033	1036	1039	1039	1042	1048	1048	1052	1055	1055	1055	1055	0	0	0	0	0	0	0	0	0	0	0	0	0	0	0	0	0	0	0	0	0	0	0	0	0	0	0	0	0	0	0	0	0	0	0	0	0	0	0	0	0	0	0	0	0	0	0	0	0	0	0	0	0	0	0	0	0	6468	6468	6349	6349	6349	6468	6468	0	0	0	0	0	0	0	0	0	0	0	0	0	0	0	0	0	0	0	0	0	0	0	0	0	7287	7137	7444	7444	7608	7444	7608	7608	7608	0	0	0	0	0	0	0	0	8146	8146	8146	8146	8146	8146	8146	8146	8146	8146	8146	8146	8146	7959	7959	7959	7959	7959	8146	8146	8146	8146	8146	8146	8146	8146	8146	8146	8146	7959	7959	7959	7959	7959	8146	8146	8146	8146	8146	8146	8146	8146	8146	8146	8146	8146	8146	8146	8146	8146	8146	8146	8146	8146	8146	8146	8146	8146	8146	8146	8146	8146	8146	8146	8146	8146	8146	8146	8146	8146	7959	8146	8146	8146	8146	8146	8146	8146	8146	8146	0	0	0	0	0	3277	3277	3277	3277	3277	3309	3309	3309	3309	3309	3309	3309	3309	3277	3277	3277	3277	3246	3246	3246	3246	3246	3246	3246	3277	3246	3246	3246	3246	3246	3246	3246	3246	3246	3246	3277	3277	3277	3277	3277	3277	3277	3277	3277	3246	3246	3246	3246	3277	3277	3277	3277	3277	3277	3277	3277	3309	3309	3309	3309	3309	3309	3309	3309	3309	3309	3309	3309	3309	3309	3309	3309	3309	3277	3277	3277	0	8343	8343	8343	8343	8343	8343	8343	8343	8343	8343	8343	8343	8343	8343	8343	8343	8343	8343	8343	8343	8146	8343	8146	8146	8146	8146	8343	8550	8550	8550	8550	8550	8550	8550	8343	8550	8343	8343	8146	8146	8343	8343	8343	8343	8343	8550	8550	8343	8343	8550	8343	8343	8343	8343	8343	8343	8343	8343	8343	8343	8343	8343	8550	8550	8343	8343	8343	8343	8343	8343	8146	8146	8146	8146	8146	8146	8146	8146	8146	8146	8146	8343	8343	8343	8343	8343	8343	8343	8343	8146	8146	8146	8146	8146	8146	8343	8343	8343	8343	8343	8550	8550	8550	8767	8550	8343	8343	8343	8343	8343	8343	8343	8343	8343	8343	8146	8146	8146	8146	8146	8146	8146	8146	8146	8146	8146	8146	8146	8146	8146	8146	8146	8146	8146	8146	8146	8146	8146	8146	8146	8146	8146	8146	8146	8146	8146	8146	8146	8146	8146	8146	8146	8146	8146	8146	8146	8146	8146	8146	7959	7959	7959	7959	7959	7959	8146	8146	7959	7959	8146	7959	7959	8146	8146	8146	8146	8146	8146	8146	8343	8343	8343	8146	8146	8146	8146	8146	8146	8146	8146	8146	8146	8146	8146	8146	8146	8343	8343	8343	8550	8550	8550	8550	8343	8343	8343	8146	8146	8146	8146	8146	8343	8343	8343	8343	8343	8343	8343	8343	8343	8343	8146	8146	8146	8146	8146	0	0	0	0	0	8146	8146	8343	8146	8146	8343	8146	8146	8146	8146	8343	8146	8343	8343	8343	8343	8343	8343	8343	8146	8146	8146	8146	8343	8343	8343	8550	8550	0	0	0	0	0	0	0	0	2629	2609	2609	2609	2589	2589	2589	2570	2551	2532	2532	2514	2460	2460	2460	2460	2460	2460	2460	2460	2460	2460	2443	2443	2443	2443	2409	2392	2392	2376	2359	2343	2327	2312	2312	2297	2297	2281	2281	2266	2281	2266	2266	2266	2266	0	0	0	0	0	0	0	0	0	0	0	0	0	0	0	0	0	0	0	0	0	0	0	0	0	0	0	0	0	0	0	0	0	0	0	0	0
0	0	0	0	0	0	0	1033	1033	1033	1036	1036	1036	1036	1039	1042	1048	1048	1052	1052	1052	1055	1055	0	0	0	0	0	0	0	0	0	0	0	0	0	0	0	0	0	0	0	0	0	0	0	0	0	0	0	0	0	0	5364	5364	5448	5448	5448	5448	5535	5535	5535	5626	5719	5719	5719	5815	5815	5815	5815	5815	0	0	0	0	0	0	0	0	0	6349	6349	6349	6349	6349	6468	6468	0	0	0	0	0	0	0	0	0	0	0	0	0	0	0	0	0	0	0	0	0	0	0	0	0	0	7137	7444	7608	7608	7608	7608	7608	0	0	0	0	0	0	0	0	0	8146	8146	8146	8146	8146	8146	8146	8146	8146	8146	8146	8146	8146	7959	7959	7959	7959	7959	8146	8146	8146	8146	8146	8146	8146	8146	8146	8146	8146	8146	8146	8146	8146	8146	8146	8146	8146	8146	8146	8146	8146	8146	8146	8146	8146	8146	8146	8146	8146	8146	8146	8146	8146	8146	8146	8146	8146	8146	8146	8146	8146	8146	8146	8146	8146	8146	8146	8146	8146	8146	8146	8146	8146	8146	8146	8146	7959	7959	7959	7959	0	0	0	0	0	3277	3277	3277	3277	3277	3277	3309	3309	3309	3309	3309	3309	3277	3277	3277	3277	3277	3246	3246	3246	3246	3246	3246	3246	3246	3246	3246	3246	3246	3216	3216	3216	3246	3246	3246	3246	3246	3277	3277	3277	3277	3246	3246	3246	3246	3246	3246	3246	3246	3246	3246	3277	3277	3277	3277	3277	3309	3309	3309	3309	3309	3309	3309	3309	3309	3309	3309	3309	3309	3309	3277	3277	3277	3246	3246	3246	0	8343	8343	8343	8343	8146	8343	8343	8343	8343	8343	8343	8343	8343	8343	8343	8343	8343	8343	8343	8343	8343	8343	8343	8343	8343	8343	8550	8550	8550	8550	8550	8550	8550	8550	8550	8550	8550	8343	8343	8343	8343	8343	8343	8343	8343	8550	8550	8550	8343	8550	8343	8343	8550	8343	8343	8343	8343	8343	8343	8343	8343	8343	8550	8550	8550	8343	8343	8343	8343	8343	8343	8343	8343	8343	8343	8146	8146	8146	8343	8146	8146	8146	8343	8343	8343	8343	8343	8146	8146	8146	8146	8146	7959	7959	8146	8146	8343	8343	8343	8343	8343	8146	8146	8343	8343	8343	8343	8343	8343	8343	8343	8343	8343	8343	8343	8343	8343	8343	8146	8146	8146	8146	8146	8146	8146	8146	8146	8146	8146	8146	8146	8146	7959	8146	8146	8146	8146	7959	7959	8146	8146	8146	8146	8146	8146	8146	8146	8146	8146	8146	8146	8146	8146	8146	8146	8146	8146	8146	8146	8146	8146	8146	8146	8146	8146	8146	8146	8146	8146	8146	8146	8146	8146	8146	8146	8146	8146	8146	8146	8343	8146	8146	8146	8146	8146	8146	8146	8146	8146	8146	8146	8146	8146	8146	8146	8146	8146	8343	8343	8550	8550	8767	8550	8343	8343	8343	8146	8146	8146	8146	8146	8343	8343	8343	8343	8343	8343	8343	8343	8343	8343	8146	8146	8146	8146	8146	8146	8146	8146	8146	8146	8343	8343	8343	8343	8343	8343	8146	8146	8146	8146	8343	8343	8343	8343	8343	8343	8343	8343	8343	8343	8343	8343	8343	8343	8343	8343	8550	8550	0	0	0	0	0	0	0	2609	2609	2609	2609	2609	2589	2589	2589	2570	2551	2532	2532	2496	2460	2460	2460	2460	2460	2460	2460	2460	2460	2460	2443	2443	2443	2426	2392	2392	2376	2376	2359	2343	2327	2312	2312	2312	2312	2297	2281	2266	2281	2266	2266	2266	2266	0	0	0	0	0	0	0	0	0	0	0	0	0	0	0	0	0	0	0	0	0	0	0	0	0	0	0	0	0	0	0	0	0	0	0	0	0
0	0	0	0	0	0	0	1033	1033	1033	1033	1033	1033	1036	1039	1042	1042	1048	1052	1052	1052	1055	1055	1055	0	0	0	0	0	0	0	0	0	0	0	0	0	0	0	0	0	0	0	0	0	0	0	0	0	0	0	0	5448	5448	5448	5448	5448	5448	5535	5535	5535	5626	5626	5719	5719	5815	5815	5815	5915	5915	5915	5915	5915	5915	5915	5915	0	0	0	0	6349	6468	6349	6349	6349	6468	6468	0	0	0	0	0	0	0	0	0	0	0	0	0	0	6853	6853	0	0	0	0	0	0	0	0	0	0	0	7444	7608	7608	7608	7608	0	0	0	0	0	0	0	0	0	0	8146	8146	8146	8146	8146	8146	8146	8146	8146	8146	8146	8146	8146	7959	7959	7959	7959	7959	8146	8146	8146	8146	8146	8146	8146	8146	8146	8146	8146	8146	8146	8146	8146	8146	8146	8146	8146	8146	8146	8146	8146	8146	8146	8146	8146	8146	8343	8146	8146	8146	8146	8146	8146	8146	8146	8146	8146	8146	8146	8146	8146	8146	8146	8146	8146	8146	7959	8146	8146	8146	7959	8146	7959	8146	8146	8146	7959	8146	7959	7959	0	0	0	0	0	3277	3277	3277	3277	3277	3277	3277	3277	3277	3277	3309	3309	3277	3277	3246	3246	3246	3246	3246	3246	3216	3246	3216	3216	3246	3246	3216	3216	3216	3216	3216	3216	3216	3246	3246	3246	3246	3246	3246	3246	3246	3246	3246	3246	3246	3246	3246	3246	3246	3246	3246	3277	3277	3277	3277	3277	3309	3309	3309	3309	3309	3309	3309	3309	3309	3309	3309	3309	3309	3309	3277	3277	3277	3246	3246	3246	0	8146	8146	8343	8343	8146	8146	8343	8343	8343	8343	8343	8343	8343	8343	8343	8343	8343	8343	8343	8343	8343	8343	8343	8343	8343	8343	8550	8550	8550	8550	8550	8550	8550	8550	8550	8550	8550	8343	8343	8343	8343	8343	8343	8343	8343	8550	8550	8550	8550	8550	8550	8550	8343	8343	8343	8343	8343	8343	8343	8343	8343	8343	8343	8550	8343	8343	8343	8343	8343	8343	8343	8343	8343	8343	8343	8343	8146	8146	8343	8343	8146	8146	8343	8343	8343	8343	8343	8343	8343	8146	8146	8146	7959	8146	8146	8146	8146	8146	8146	8146	8146	8146	8146	8343	8146	8146	8343	8343	8343	8343	8343	8343	8343	8343	8343	8343	8343	8343	8343	8343	8146	8146	8146	8146	8146	8146	8146	8146	8146	8146	8146	8146	8146	8146	8146	8146	7959	7959	7959	7959	7959	8146	8146	8146	8146	7959	8146	8146	8146	8146	8146	8146	8146	8146	8146	8146	8146	8146	8146	8146	8146	8146	8146	8146	8146	8146	8146	8146	8146	8146	8146	8146	8146	8146	8146	8146	8146	8146	8146	8343	8343	8343	8343	8343	8146	8146	8146	8146	8146	8146	8146	8146	8146	8146	8146	8146	8146	8146	8343	8343	8343	8550	8550	8343	8343	8343	8146	8146	8146	8146	8146	8343	8343	8343	8343	8343	8343	8343	8343	8343	8343	8146	8146	7959	8146	8146	8146	8146	8146	8146	8343	8343	8343	8146	8343	8343	8146	8146	8146	8146	8146	8343	8343	8343	8343	8550	8550	8343	8343	8343	8343	8343	8343	8343	8343	8343	8343	8767	8767	0	0	0	0	0	0	0	2589	2609	2609	2609	2589	2589	2589	2589	2570	2551	2532	2532	2514	2478	2460	2460	2460	2460	2460	2460	2460	2460	2460	2443	2443	2443	2426	2392	2392	2392	2376	2359	2343	2327	2327	2312	2312	2312	2297	2281	2281	2281	2266	2266	2266	2266	0	0	0	0	0	0	0	0	0	0	0	0	0	0	0	0	0	0	0	0	0	0	0	0	0	0	0	0	0	0	0	0	0	0	0	0	0
0	0	0	0	0	0	0	1033	1033	1033	1036	1036	1033	1036	1039	1042	1042	1048	1048	1052	1048	1052	1052	1052	0	0	0	0	0	0	0	0	0	0	0	0	0	0	0	0	0	0	5125	5125	5125	5202	5202	0	0	0	5364	5448	5448	5448	5448	5448	5448	5448	5535	5535	5535	5535	5535	5626	5719	5719	5815	5815	5815	5815	5915	5915	5915	5915	5915	5915	5915	0	6235	6349	6349	6349	6349	6349	6349	6468	6468	6468	0	0	0	0	6720	6592	6592	6720	6720	6720	0	0	6992	6992	6853	6853	6992	6992	0	0	0	0	0	0	0	7287	7444	7608	7608	7444	7444	7444	0	0	0	0	0	0	0	0	0	0	0	8146	8343	8343	8343	8343	8343	8343	8343	8343	8146	8146	7959	7959	7959	7959	7959	8146	8146	8146	8146	8146	8146	8146	8146	8146	8146	8146	8146	8146	8146	8146	8146	8146	8146	8146	8146	8146	8146	8146	8146	8146	8146	8146	8343	8343	8343	8146	8146	8146	8146	8146	8146	8146	8146	8146	8146	8146	8146	8146	8146	8146	8146	8146	8146	8146	8146	8146	8146	8146	8146	8146	8146	8146	8146	8146	7959	7779	7779	0	0	0	0	0	3277	3277	3277	3277	3277	3277	3277	3277	3277	3277	3277	3277	3277	3277	3246	3246	3246	3246	3246	3246	3216	3216	3216	3216	3246	3246	3216	3216	3216	3216	3216	3216	3216	3246	3216	3216	3216	3216	3216	3216	3246	3246	3246	3246	3246	3246	3246	3246	3246	3246	3246	3246	3246	3246	3277	3277	3309	3309	3309	3309	3309	3309	3309	3309	3309	3309	3309	3309	3309	3277	3277	3277	3246	3246	3246	3246	0	8343	8146	8343	8146	8146	8146	8343	8343	8343	8343	8343	8343	8343	8343	8343	8343	8343	8343	8343	8343	8343	8343	8343	8343	8343	8343	8550	8550	8550	8550	8550	8550	8550	8550	8550	8550	8550	8343	8343	8343	8343	8343	8343	8343	8343	8550	8550	8550	8550	8550	8550	8550	8550	8550	8550	8343	8343	8343	8343	8343	8343	8146	8343	8343	8343	8343	8343	8343	8343	8343	8343	8343	8550	8343	8343	8343	8146	8146	8343	8146	8146	8343	8343	8343	8343	8343	8343	8343	8343	8343	8343	8146	7959	8146	8146	8146	8146	8146	8343	8146	8146	8146	8146	8343	8146	8146	8343	8343	8343	8343	8343	8343	8343	8343	8343	8343	8343	8146	8146	8146	8146	8146	8146	8146	8146	8146	8146	7959	8146	8146	8146	8146	7959	8146	8146	7959	7959	7959	7959	7959	7959	8146	8146	8146	8146	7959	7959	8146	8146	7959	8146	8146	8146	8146	8146	7959	8146	8146	8146	8146	8146	8146	8146	8343	8146	8146	8146	8146	8146	8146	8146	8146	8146	8146	8146	8146	8146	8146	8146	8343	8343	8343	8343	8343	8146	8146	8146	8146	8146	8146	8146	8146	8146	8146	8146	8146	8146	8146	8146	8343	8343	8343	8343	8343	8343	8343	8146	8146	8343	8146	8146	8343	8343	8343	8343	8343	8343	8343	8343	8343	8343	8146	8146	8146	8146	8146	8146	8146	8146	8343	8343	8343	8343	8146	8343	8343	8343	8343	8343	8343	8343	8343	8343	8343	8343	8343	8343	8343	8343	8343	8343	8343	8343	8343	8343	8343	8343	8767	8767	0	0	0	0	0	0	0	2589	2609	2609	2609	2589	2589	2589	2589	2570	2551	2532	2532	2514	2478	2478	2478	2478	2460	2460	2460	2460	2460	2460	2443	2443	2443	2426	2409	2409	2392	2376	2359	2359	2327	2327	2312	2312	2312	2312	2297	2281	2281	2266	2266	2266	2266	0	0	0	0	0	0	0	0	0	0	0	0	0	0	0	0	0	0	0	0	0	0	0	0	0	0	0	0	0	0	0	0	0	0	0	0	0
0	0	0	0	0	0	0	1036	1036	1036	1036	1036	1036	1039	1042	1042	1042	1045	1048	1048	1048	1055	1055	1055	0	0	0	0	0	0	0	0	0	0	0	0	0	0	0	0	5125	5125	5125	5125	5202	5202	5282	5364	5364	5364	5364	5448	5448	5448	5448	5448	5448	5448	5535	5535	5535	5535	5535	5626	5719	5719	5719	5815	5815	5815	5915	5915	5915	5915	6018	6018	6018	6018	6235	6235	6349	6349	6349	6349	6349	6468	6468	6592	6592	0	6720	6720	6720	6720	6720	6720	6720	6720	0	0	6992	6992	6992	6992	6992	6992	6992	6992	0	0	0	0	0	7287	7444	7608	7608	7608	7444	7608	7608	0	0	0	0	0	0	0	0	0	0	8146	8146	8343	8343	8343	8343	8146	8146	8146	8146	8146	7959	7959	7959	7959	7959	8146	8146	8146	8146	8146	8146	8146	8146	8146	8146	8146	8146	8146	8146	8146	8146	8343	8146	8146	8146	8146	8146	8146	8146	8146	8146	8146	8343	8343	8343	8343	8343	8343	8146	8146	8146	8146	8146	8146	8146	8146	8146	8146	8146	8146	8146	8146	8146	8146	8146	8146	8146	8146	8146	8146	8146	8146	8146	7959	7959	7779	7779	0	0	0	0	0	3309	3309	3309	3277	3277	3277	3277	3277	3277	3277	3277	3277	3277	3246	3246	3246	3246	3216	3216	3216	3246	3216	3216	3216	3246	3216	3216	3216	3216	3216	3216	3216	3216	3216	3216	3216	3216	3216	3216	3216	3246	3216	3246	3246	3246	3246	3246	3246	3246	3246	3216	3246	3246	3246	3246	3277	3277	3277	3277	3277	3309	3309	3309	3309	3309	3309	3309	3309	3277	3277	3277	3277	3246	3246	3216	3216	0	8146	8343	8343	8343	8146	8146	8343	8343	8343	8343	8343	8343	8343	8343	8343	8343	8343	8343	8343	8343	8343	8343	8343	8343	8343	8343	8550	8550	8550	8550	8550	8550	8550	8550	8550	8550	8550	8343	8343	8343	8343	8550	8550	8550	8550	8550	8550	8550	8550	8550	8550	8550	8343	8343	8550	8550	8343	8343	8343	8343	8343	8146	8343	8343	8343	8343	8343	8343	8343	8343	8343	8343	8343	8343	8343	8343	8343	8343	8343	8343	8343	8343	8343	8550	8550	8550	8343	8343	8343	8146	8343	8146	8146	8146	8146	8146	8146	8146	8146	8146	8146	8146	8146	8343	8146	8146	8343	8343	8343	8343	8146	8146	8146	8146	8343	8343	8146	8146	8146	8146	8146	8146	8146	8146	8146	8146	8146	7959	8146	8146	8146	8146	7959	7959	7959	7959	7959	7959	7959	7959	7959	8146	8146	8146	8146	7959	8146	8146	8146	7959	8146	8146	8146	8146	8146	7959	8146	8146	8146	8146	8146	8146	8146	8343	8146	8146	8146	8146	8146	7959	7959	7959	7959	8146	8146	8146	8146	8146	8146	8146	8343	8343	8343	8146	8146	8146	8146	8146	8146	8146	8146	8146	8146	8146	8146	8146	8146	8146	8146	8146	8146	8146	8146	8343	8343	8343	8146	8146	8343	8146	8146	8343	8343	8343	8343	8343	8343	8343	8146	8146	8146	8146	8146	8146	7959	8146	8146	8146	8146	8343	8343	8343	8343	8146	8343	8343	8343	8343	8343	8343	8146	8343	8343	8343	8343	8343	8343	8343	8550	8343	8343	8343	8343	8343	8343	8343	8343	8767	8767	0	0	0	0	0	0	0	2589	2589	2589	2589	2589	2589	2589	2589	2570	2551	2532	2532	2496	2478	2478	2478	2478	2478	2478	2478	2460	2460	2460	2460	2443	2443	2426	2409	2392	2392	2376	2359	2359	2343	2327	2327	2327	2312	2312	2297	2297	2281	2266	2266	2266	2266	0	0	0	0	0	0	0	0	0	0	0	0	0	0	0	0	0	0	0	0	0	0	0	0	0	0	0	0	0	0	0	0	0	0	0	0	0
0	0	0	0	0	0	0	1036	1036	1036	1036	1036	1036	1039	1042	1042	1042	1042	1042	1045	1045	1045	1052	1055	0	0	0	0	0	0	0	0	0	5050	5050	5050	5125	5125	5125	5125	5125	5125	5125	5125	5125	5202	5202	5364	5364	5364	5364	5448	5448	5448	5448	5448	5448	5448	5535	5535	5535	5535	5535	5626	5626	5719	5719	5815	5815	5815	5915	5915	5915	6018	6124	6124	6124	6124	6235	6235	6349	6349	6349	6349	6349	6468	6592	6592	6592	6720	6720	6720	6720	6720	6720	6720	6720	6720	6720	7137	7137	7137	7137	6992	7137	6992	6992	7137	7137	0	0	0	7444	7444	7444	7608	7608	7608	7608	7608	7779	7779	0	0	0	0	0	0	0	0	0	0	8146	8343	8146	8343	8146	8146	8146	8146	8146	8146	7959	7959	7959	7959	7959	7959	7959	8146	8146	8146	8146	8146	8146	8146	8146	8146	8146	8146	8146	8146	8146	8343	8343	8146	8146	8146	8146	8146	8146	8146	8146	8343	8146	8343	8343	8343	8146	8343	8146	8146	8146	8146	8146	8146	8146	8146	8146	8146	8146	8146	8146	8146	8146	7959	8146	8146	8146	8146	8146	8146	8146	8146	8146	7959	7959	7779	7779	7779	0	0	0	0	3309	3309	3277	3277	3277	3277	3277	3277	3277	3277	3277	3277	3246	3246	3246	3216	3216	3216	3216	3216	3216	3216	3216	3216	3246	3216	3216	3216	3216	3216	3216	3216	3186	3216	3216	3216	3216	3216	3216	3216	3216	3246	3246	3246	3246	3246	3246	3216	3216	3216	3216	3246	3246	3246	3246	3246	3277	3277	3277	3309	3309	3309	3309	3309	3309	3309	3309	3309	3277	3277	3277	3277	3277	3246	3246	3246	0	8146	8146	8343	8146	8146	8146	8343	8343	8343	8343	8343	8343	8343	8343	8343	8343	8343	8343	8343	8343	8343	8343	8343	8343	8343	8343	8550	8550	8550	8550	8550	8550	8550	8550	8550	8550	8343	8550	8550	8550	8550	8550	8550	8550	8550	8550	8550	8550	8550	8550	8550	8550	8343	8343	8343	8343	8343	8146	8146	8146	8146	8146	8146	8343	8343	8343	8343	8343	8343	8343	8343	8343	8343	8550	8343	8343	8343	8343	8343	8343	8343	8343	8343	8146	8146	8343	8343	8343	8343	8343	8343	8146	8146	8146	8146	8146	8146	8146	8146	8146	8146	8146	7959	8146	8146	8146	8146	8146	8146	8146	8146	8146	8146	8146	8146	8343	8343	8343	8146	8146	8146	8146	8146	8146	8146	8146	8146	7959	8146	8146	8146	8146	7959	7959	8146	7959	7959	7959	7959	7959	8146	8146	8146	8146	8146	7959	8146	8146	8146	8146	8146	8146	8146	8146	8146	8146	8146	8146	8146	8146	8146	8146	8146	8343	8146	8146	8146	7959	7959	7959	7959	7959	7959	7959	8146	8146	8146	8146	8146	8343	8343	8343	8343	8146	8146	8146	8146	8146	8146	8146	8146	8146	8146	8146	8146	8146	8146	8146	8146	8146	8146	8146	8146	8146	8146	8343	8146	8343	8343	8343	8343	8343	8343	8343	8343	8343	8343	8343	8343	8146	8343	8146	8146	8146	8146	8146	8343	8343	8343	8343	8343	8343	8343	8343	8343	8146	8146	8146	8146	8146	8146	8343	8343	8343	8343	8343	8343	8343	8343	8343	8343	8343	8343	8343	8550	8550	8550	8550	8995	0	0	0	0	0	0	0	0	2589	2589	2589	2589	2589	2589	2589	2570	2532	2514	2514	2514	2496	2496	2496	2496	2496	2478	2478	2460	2460	2460	2443	2443	2426	2409	2392	2392	2376	2376	2359	2343	2343	2327	2327	2327	2327	2312	2312	2297	2281	2266	2252	2252	2252	0	0	0	0	0	0	0	0	0	0	0	0	0	0	0	0	0	0	0	0	0	0	0	0	0	0	0	0	0	0	0	0	0	0	0	0	0
0	0	0	0	0	0	0	1036	1036	1036	1036	1036	1036	1039	1039	1042	1042	1045	1048	1052	1052	1058	1058	0	0	0	0	0	0	0	0	0	0	5125	5125	5050	5125	5125	5125	5125	5125	5125	5125	5125	5125	5202	5282	5364	5364	5364	5364	5448	5448	5448	5448	5448	5448	5448	5535	5535	5535	5626	5626	5719	5719	5719	5815	5815	5815	5915	5915	5915	5915	6018	6124	6124	6124	6124	6235	6235	6235	6235	6349	6235	6349	6468	6592	6592	6592	6592	6592	6720	6720	6720	6720	6720	6720	6853	6853	6992	7137	6992	7137	6992	6992	6992	6992	7137	7137	7137	7137	7287	7444	7444	7444	7608	7608	7608	7608	7779	7779	7959	7959	0	0	0	0	0	0	0	0	8146	8343	8343	8343	8343	8343	8146	8146	8146	8146	8146	7959	7959	7959	7959	7959	7959	7959	8146	8146	8146	8146	8146	8146	8146	8146	8146	8146	8146	8146	8146	8146	8343	8343	8146	8146	8146	8146	8146	8146	8146	8146	8146	8146	8146	8343	8343	8146	8343	8146	8146	8146	8146	8146	8146	8146	8146	8146	8146	8146	8146	8146	8146	8146	8146	8146	8146	8146	8146	8146	8146	8146	8146	7959	7959	7959	7779	7779	7779	0	0	0	0	3309	3309	3277	3277	3277	3277	3277	3277	3277	3277	3277	3246	3246	3246	3216	3216	3216	3216	3216	3216	3216	3216	3216	3216	3216	3216	3216	3216	3216	3186	3186	3186	3186	3186	3186	3186	3186	3186	3216	3216	3216	3216	3216	3246	3246	3216	3216	3216	3216	3246	3216	3246	3246	3246	3246	3246	3277	3277	3277	3309	3309	3309	3309	3309	3309	3309	3309	3309	3277	3309	3277	3277	3277	3277	3277	3246	0	8146	8146	8146	8146	8146	8146	8343	8343	8343	8343	8343	8343	8343	8146	8146	8343	8343	8343	8343	8343	8343	8343	8343	8343	8343	8343	8343	8343	8343	8343	8343	8343	8343	8343	8343	8343	8343	8550	8550	8550	8550	8550	8550	8550	8550	8550	8550	8550	8550	8550	8550	8550	8550	8550	8550	8343	8343	8343	8146	8146	7959	7959	7959	8146	8146	8343	8343	8343	8343	8343	8343	8343	8550	8550	8550	8343	8550	8343	8343	8343	8343	8343	8146	8146	8343	8343	8343	8343	8343	8343	8343	8146	8146	8146	8146	8146	8146	8146	8146	8146	7959	7959	7959	8146	8146	8146	8146	8146	8146	8146	8146	8146	8146	8146	8146	8343	8146	8146	8146	8343	8146	8146	8146	8146	8146	8146	7959	7959	7959	8146	8146	8146	7959	7959	7959	7959	7959	7959	7959	7959	7959	8146	8146	8146	8146	7959	8146	8146	8146	8146	8146	8146	8146	8146	8146	8146	8146	8146	8146	8146	8146	8146	8146	8146	8146	8146	8146	7959	7959	7959	7779	7779	7959	7959	8146	8146	8146	8146	8146	8343	8343	8343	8343	8146	8146	8146	8146	8146	8146	8146	8146	7959	7959	8146	8146	8146	7959	7959	8146	8146	8146	8146	8146	8146	8146	8343	8343	8343	8343	8343	8343	8343	8146	8146	8146	8343	8343	8343	8343	8146	8343	8146	8146	8146	8146	8146	8343	8343	8343	8343	8343	8343	8343	8343	8343	8343	8343	8343	8343	8343	8146	8343	8343	8343	8343	8343	8343	8343	8343	8343	8343	8343	8343	8343	8343	8550	8343	8343	8995	0	0	0	0	0	0	0	0	2589	2589	2589	2589	2589	2570	2589	2570	2532	2514	2514	2514	2496	2478	2496	2478	2478	2478	2478	2460	2460	2460	2443	2443	2426	2409	2392	2392	2376	2376	2359	2343	2343	2327	2327	2327	2327	2327	2312	2297	2281	2266	2252	2252	2252	0	0	0	0	0	0	0	0	0	0	0	0	0	0	0	0	0	0	0	0	0	0	0	0	0	0	0	0	0	0	0	0	0	0	0	0	0
0	0	0	0	0	0	0	1036	1036	1036	1039	1039	1039	1039	1042	1042	1042	1042	1045	1052	1052	1055	1058	1058	0	0	0	0	0	0	0	0	0	5125	5125	5125	5125	5125	5125	5125	5125	5125	5202	5125	5125	5202	5282	5364	5364	5448	5448	5448	5448	5448	5448	5448	5448	5448	5448	5535	5535	5535	5626	5626	5626	5719	5719	5815	5815	5915	5915	5915	6018	6018	6124	6124	6124	6124	6124	6124	6124	6235	6235	6235	6349	6349	6592	6468	6468	6468	6592	6592	6592	6720	6720	6720	6720	6853	6853	6992	6992	6992	6992	6992	6992	6992	6992	7137	7137	7287	7287	7287	7444	7444	7444	7608	7608	7608	7608	7608	7779	7959	7959	0	0	0	0	0	0	0	8146	8343	8343	8343	8343	8343	8343	8343	8343	8146	8146	8146	8146	7959	7959	8146	7959	7959	7959	7959	8146	8146	7959	7959	7959	7959	8146	8146	8146	8146	8146	8146	8146	8343	8146	8146	8146	8146	8146	8146	8146	8146	8146	8146	8146	8146	8343	8343	8146	8343	8146	8146	8146	8146	8146	8146	8146	8146	8146	8146	8146	8146	8146	8146	7959	7959	8146	8146	8146	8146	8146	8146	8146	8146	7959	7959	7959	7959	7779	7779	0	0	0	0	0	3309	3277	3277	3277	3277	3277	3277	3277	3277	3246	3246	3246	3246	3216	3216	3216	3216	3216	3216	3216	3216	3216	3186	3216	3216	3216	3186	3186	3186	3186	3186	3186	3186	3186	3186	3186	3186	3186	3186	3186	3186	3186	3186	3216	3216	3246	3246	3246	3246	3246	3246	3246	3246	3246	3246	3277	3277	3277	3277	3309	3309	3309	3309	3309	3309	3309	3309	3309	3277	3277	3277	3277	3277	3277	0	0	7959	8146	8146	8146	8146	8146	8343	8343	8343	8343	8343	8343	8146	8146	8146	8146	8146	8343	8343	8343	8343	8343	8343	8343	8343	8343	8343	8343	8343	8343	8343	8343	8343	8343	8343	8343	8343	8343	8550	8550	8550	8550	8550	8550	8550	8550	8550	8550	8550	8550	8550	8550	8550	8550	8550	8550	8343	8343	8146	8146	7959	7959	7959	7959	8146	8146	8343	8343	8343	8343	8343	8343	8550	8550	8550	8550	8550	8343	8343	8343	8343	8146	8146	8146	8343	8343	8343	8343	8343	8343	8343	8343	8343	8146	8146	8146	8146	8146	8146	8146	7959	7959	7959	8146	8146	8146	8146	8146	8146	8146	8146	8146	8146	8146	8146	8146	8146	8146	8146	8146	8146	8146	8146	7959	7959	7959	7959	7959	8146	8146	8146	8146	8146	8146	7959	7959	7959	7959	7959	7959	8146	8146	8146	8146	8146	8146	8146	8146	8146	8146	8146	8146	8146	8146	8146	8146	8146	8146	8146	8146	8146	8146	8146	8146	8146	8146	7959	7779	7779	7779	7779	7959	7959	7959	8146	8146	8146	8146	8146	8343	8343	8343	8146	8146	8146	8146	8146	8146	8146	8146	8146	7959	8146	8146	8146	8146	8146	7959	8146	8146	8146	7959	8146	8146	8146	8343	8343	8343	8343	8146	8343	8343	8146	8146	8146	8146	8343	8146	8146	8146	8146	8146	8146	8146	8146	8146	8343	8343	8343	8343	8343	8343	8343	8343	8343	8343	8343	8343	8343	8343	8146	8343	8343	8343	8343	8146	8343	8343	8343	8343	8343	8343	8343	8343	8550	8550	8550	8343	0	0	0	0	0	0	0	0	0	2609	2609	2609	2589	2589	2570	2570	2570	2532	2514	2514	2514	2496	2478	2496	2496	2496	2478	2478	2460	2460	2460	2443	2426	2409	2392	2392	2376	2376	2359	2359	2343	2343	2327	2327	2327	2327	2327	2312	2297	2266	2266	2266	2252	2252	0	0	0	0	0	0	0	0	0	0	0	0	0	0	0	0	0	0	0	0	0	0	0	0	0	0	0	0	0	0	0	0	0	0	0	0	0
0	0	0	0	0	0	0	1033	1036	1036	1039	1039	1039	1039	1042	1042	1042	1042	1045	1055	1052	1061	1061	1061	0	0	0	0	0	0	0	0	0	5125	5125	5125	5125	5125	5125	5202	5202	5202	5202	5202	5202	5282	5364	5364	5364	5448	5448	5448	5448	5448	5448	5535	5448	5448	5448	5535	5535	5535	5626	5719	5719	5719	5815	5815	5815	5915	6018	6018	6018	6124	6124	6124	6124	6124	6124	6124	6124	6124	6235	6235	6349	6349	6468	6468	6468	6468	6468	6468	6468	6592	6592	6720	6720	6853	6853	6992	7137	6992	7137	6992	6992	6992	7137	7137	7137	7287	7287	7287	7444	7444	7444	7608	7608	7608	7608	7779	7779	7959	7959	7959	7959	7959	7959	8146	8146	7959	8146	8146	8146	8343	8343	8343	8343	8343	8343	8343	8146	8146	8146	8146	8146	8146	7959	7959	7959	7959	8146	7959	7959	7959	7959	7959	7959	7959	7959	7959	7959	8146	8146	8343	8146	8146	8146	8146	8146	8146	8146	8146	8146	8343	8343	8343	8343	8343	8343	8343	8343	8146	8146	8146	8146	8146	8146	8146	8146	8146	8146	8146	8146	8146	8146	8146	8146	8146	8146	8146	8146	8146	8146	8146	7959	7959	7959	7959	7779	7779	0	0	0	0	3309	3277	3277	3277	3277	3277	3277	3277	3277	3277	3246	3246	3246	3216	3216	3216	3216	3216	3216	3216	3186	3216	3186	3186	3216	3216	3186	3186	3186	3186	3186	3186	3186	3186	3186	3186	3186	3186	3186	3186	3216	3216	3216	3216	3216	3216	3216	3216	3246	3246	3216	3246	3246	3246	3246	3246	3246	3277	3277	3309	3309	3309	3309	3309	3309	3309	3309	3277	3309	3277	3277	3277	3277	3277	3277	0	8343	8146	8146	8146	8146	8146	8146	8343	8343	8343	8343	8343	8343	8343	8146	8146	8146	8146	8146	8146	8146	8146	8146	8343	8343	8343	8146	8343	8343	8343	8343	8343	8343	8343	8343	8343	8343	8343	8343	8343	8343	8550	8550	8550	8550	8550	8550	8550	8343	8550	8343	8550	8550	8550	8550	8343	8550	8343	8343	8146	8146	7959	7959	7959	7959	8146	8146	8343	8343	8343	8343	8343	8343	8343	8343	8343	8550	8343	8343	8343	8343	8343	8343	8343	8343	8343	8343	8343	8343	8343	8343	8343	8343	8343	8146	8146	8146	8146	8146	8146	8146	7959	7959	7959	8146	8146	8146	8146	8146	8146	8146	8146	8146	8146	8146	8146	8343	8146	8146	8146	8146	8146	8146	8146	8146	8146	8146	8146	7959	8146	8146	8146	8146	8146	8146	8146	7959	8146	7959	8146	8146	8146	8146	8146	8146	8146	8146	8146	8146	7959	7959	8146	8146	7959	8146	8146	8146	8146	8146	8146	8146	8146	8146	8146	8146	8146	7959	7959	7779	7779	7779	7779	7959	7959	7959	7959	8146	8146	8146	8146	8146	8343	8146	8146	8146	8146	8146	8146	8146	8146	8146	8146	7959	8146	8146	8146	7959	7959	7959	8146	8146	8146	8146	8146	8146	8343	8343	8343	8343	8343	8343	8146	8343	8146	8146	8146	8146	8343	8343	8343	8146	8146	8146	8146	8146	8146	8146	8146	8343	8343	8343	8343	8343	8343	8343	8343	8343	8343	8343	8146	8343	8146	8343	8343	8343	8146	8146	8343	8146	8146	8146	8343	8343	8343	8343	8343	8343	8343	0	0	0	0	0	0	0	0	0	0	2609	2609	2589	2589	2589	2570	2570	2551	2532	2532	2532	2514	2514	2496	2496	2496	2496	2496	2478	2460	2460	2460	2443	2409	2409	2392	2392	2376	2376	2359	2343	2343	2327	2327	2327	2327	2327	2327	2327	2312	2281	2266	2266	2252	2252	0	0	0	0	0	0	0	0	0	0	0	0	0	0	0	0	0	0	0	0	0	0	0	0	0	0	0	0	0	0	0	0	0	0	0	0	0
0	0	0	0	0	0	0	1036	1039	1039	1039	1039	1039	1039	1039	1039	1039	1042	1042	1052	1052	1061	1061	1061	0	0	0	0	0	0	0	0	5202	5125	5125	5125	5125	5202	5125	5125	5202	5202	5282	5202	5202	5282	5364	5282	5364	5364	5448	5448	5448	5448	5448	5535	5448	5448	5448	5448	5535	5535	5626	5626	5719	5719	5719	5815	5815	5915	5915	6018	6124	6124	6124	6124	6235	6235	6235	6235	6124	6124	6235	6235	6349	6349	6468	6468	6592	6468	6468	6592	6468	6592	6592	6720	6720	6853	6853	6992	6992	6992	6992	6992	7137	7137	7287	7287	7287	7444	7444	7444	7444	7444	7444	7444	7608	7608	7608	7779	7779	7959	7959	7959	7959	7959	7959	7959	7959	7959	8146	8146	8146	8146	8343	8343	8343	8343	8343	8343	8343	8343	8146	8146	8146	8146	8146	7959	7959	7959	8146	7959	7959	7959	7959	7959	7959	7959	7959	7959	7959	8146	8146	8343	8146	8146	8146	8146	8146	8146	8146	8146	8146	8343	8343	8343	8343	8343	8343	8343	8146	8146	8146	8146	8146	8146	8146	8146	8146	8146	8146	8146	8146	8146	8146	8146	8146	8146	8146	8146	8146	8146	8146	8146	7959	7959	7959	7779	7779	7779	0	0	0	0	3309	3277	3277	3277	3277	3277	3277	3246	3246	3246	3246	3246	3246	3246	3216	3216	3216	3216	3216	3216	3186	3216	3186	3186	3216	3186	3186	3186	3186	3186	3186	3186	3186	3186	3186	3186	3186	3186	3186	3186	3216	3216	3216	3216	3216	3216	3216	3216	3216	3216	3216	3246	3246	3216	3246	3246	3246	3246	3277	3309	3309	3309	3309	3309	3309	3309	3309	3277	3309	3277	3277	3277	3309	3309	0	0	8343	8146	8146	8146	8146	8343	8343	8343	8343	8343	8550	8550	8343	8343	8343	8146	8146	7959	7959	8146	7959	8146	8343	8343	8343	8343	8343	8550	8343	8343	8343	8343	8343	8343	8343	8343	8343	8343	8343	8550	8550	8550	8550	8550	8550	8550	8343	8343	8343	8343	8343	8343	8343	8343	8343	8550	8550	8343	8343	8146	8146	8146	7959	7959	8146	8146	8146	8343	8343	8343	8343	8343	8343	8550	8550	8550	8550	8343	8343	8343	8343	8343	8343	8146	8343	8343	8343	8343	8343	8343	8343	8343	8146	8146	8146	8146	8146	8146	8146	8146	8146	7959	7959	7959	8146	8146	8146	8146	8146	8146	8146	8146	8146	8146	8146	8146	8146	8146	8146	8146	8146	8146	8146	8146	8146	8146	8146	8146	8146	8146	8146	8146	8146	8146	8146	8146	8146	8146	8146	8146	8146	8146	8146	8146	8146	8146	8146	8146	8146	7959	7959	8146	8146	7959	7959	7959	7959	7959	8146	8146	8146	8146	8146	8146	7959	7959	7959	7959	7959	7959	7959	7779	7959	7959	7959	7959	7959	7959	7959	7959	8146	8146	8146	8146	8146	8146	8146	8146	8146	8146	8146	8146	8146	8146	8146	8146	8146	7959	8146	8146	8146	8146	8146	8146	8146	8146	8146	8146	8146	8146	8146	8146	8146	8146	8146	8146	8146	8146	8343	8343	8146	8146	8343	8343	8146	8146	8146	8343	8343	8146	8146	8343	8343	8343	8343	8146	8146	8343	8146	8146	8146	8343	8343	8343	8146	8146	8146	8146	8146	8146	8146	8343	8343	8343	8343	8343	8343	8343	0	0	0	0	0	0	0	0	0	0	2609	2589	2589	2589	2570	2589	2589	2570	2532	2532	2532	2514	2514	2496	2496	2496	2496	2478	2478	2460	2460	2460	2426	2409	2409	2392	2392	2376	2376	2359	2359	2343	2327	2327	2327	2327	2327	2327	2327	2312	2281	2266	2266	2252	2252	0	0	0	0	0	0	0	0	0	0	0	0	0	0	0	0	0	0	0	0	0	0	0	0	0	0	0	0	0	0	0	0	0	0	0	0	0
0	0	0	0	0	0	0	1036	1039	1039	1039	1039	1039	1039	1039	1042	1039	1042	1039	1055	1052	1052	1061	0	0	0	0	0	0	0	0	5202	5125	5125	5125	5125	5125	5202	5125	5125	5202	5202	5202	5202	5202	5202	5282	5282	5282	5364	5364	5364	5448	5448	5448	5448	5448	5448	5448	5448	5535	5535	5719	5719	5719	5719	5815	5815	5815	5815	5915	6018	6124	6124	6124	6124	6124	6124	6124	6124	6124	6124	6235	6235	6349	6349	6468	6468	6468	6468	6468	6468	6592	6592	6592	6720	6720	6853	6853	6992	6992	6992	6992	6992	7137	7137	7287	7287	7444	7444	7444	7444	7444	7444	7444	7444	7608	7608	7608	7779	7959	7959	7959	7959	7959	8146	7959	7959	7959	7959	8146	8146	8146	8146	8146	8343	8343	8343	8146	8343	8343	8343	8146	8146	8146	8146	8146	7959	7959	7959	7959	7959	7959	7959	7959	7959	7959	7959	7959	7959	8146	8146	8146	8343	8146	8146	8146	8146	8146	8146	8146	8146	8146	8343	8343	8146	8146	8343	8146	8146	8146	8146	8146	8343	8146	8146	8146	8146	8146	8146	8146	8146	8146	8146	8146	8146	8146	8146	8146	8146	8146	8146	8146	8146	7959	7959	7959	7959	7959	7779	0	0	0	0	3309	3277	3277	3277	3277	3277	3277	3246	3246	3246	3246	3246	3246	3246	3246	3246	3216	3216	3216	3216	3216	3186	3186	3186	3186	3186	3186	3186	3186	3186	3186	3186	3186	3186	3186	3186	3186	3186	3216	3216	3216	3216	3216	3216	3216	3216	3216	3216	3216	3216	3216	3246	3216	3216	3216	3246	3246	3277	3277	3277	3309	3309	3309	3309	3309	3309	3309	3277	3277	3277	3277	3277	3309	3309	0	0	8146	8146	8146	8146	8343	8343	8343	8343	8343	8343	8343	8343	8343	8343	8343	8343	8146	8146	8146	8146	7959	8146	8343	8343	8343	8343	8343	8550	8343	8343	8343	8343	8343	8343	8343	8343	8343	8343	8550	8550	8550	8550	8550	8550	8550	8343	8343	8343	8343	8343	8343	8343	8343	8343	8343	8343	8343	8343	8343	8146	8146	8146	7959	8146	8146	8146	8146	8343	8343	8343	8550	8343	8343	8550	8550	8550	8343	8343	8343	8343	8343	8343	8343	8146	8146	8343	8343	8343	8343	8146	8146	8146	8146	8146	8146	8146	8146	8146	8146	8146	8146	8146	8146	7959	8343	8146	8146	8146	8146	8146	8146	8146	8146	8146	8146	8146	8146	8146	8146	8146	8146	8146	8146	8146	8146	8146	8146	8146	8146	8146	8146	8146	8146	8146	8146	8146	8146	8146	8146	8146	8146	8146	8146	8146	8146	8146	8146	8146	8146	7959	7959	7959	7959	7959	7959	7959	8146	7959	8146	8146	8146	8146	8146	8146	7959	7959	7959	7959	7959	7959	7959	7959	7959	7959	7959	7959	7959	7959	7959	7959	8146	8146	8146	8146	8146	8146	8146	8146	8146	8146	8146	8146	8146	8146	8146	8146	8146	8146	8146	8146	8146	8146	8146	8146	7959	8146	8146	8146	8146	8146	8146	8146	8146	8146	8146	8146	8146	8146	8146	8146	8146	8146	8146	8146	8146	8146	8146	8146	8146	8146	8146	8146	8146	8146	8146	8146	8146	8146	8146	8146	8146	8146	8343	8343	8343	8343	8146	8146	8146	8146	8146	8146	8343	8343	8343	8343	8343	8343	0	0	0	0	0	0	0	0	0	0	0	2589	2589	2589	2589	2589	2589	2570	2551	2532	2532	2514	2514	2478	2478	2478	2478	2478	2460	2460	2443	2443	2409	2409	2409	2392	2392	2376	2376	2359	2359	2343	2343	2327	2327	2327	2327	2327	2312	2297	2281	2266	2266	2252	2252	0	0	0	0	0	0	0	0	0	0	0	0	0	0	0	0	0	0	0	0	0	0	0	0	0	0	0	0	0	0	0	0	0	0	0	0	0
0	0	0	0	0	0	0	1033	1039	1039	1039	1039	1039	1039	1039	1042	1039	1042	1048	1055	1055	1055	0	0	0	0	0	0	0	0	0	5202	5125	5125	5125	5125	5125	5125	5125	5125	5202	5202	5282	5282	5202	5282	5282	5282	5282	5364	5364	5364	5364	5448	5448	5448	5448	5448	5448	5448	5535	5535	5626	5719	5719	5719	5815	5815	5815	5915	6018	6018	6124	6124	6235	6235	6235	6124	6124	6124	6124	6124	6235	6235	6235	6349	6349	6468	6468	6468	6468	6468	6592	6720	6720	6720	6853	6853	6853	6853	6853	6992	6992	6992	6992	7137	7287	7287	7444	7444	7444	7444	7444	7444	7444	7444	7444	7444	7608	7779	7959	7959	7959	7959	7959	8146	7959	8146	8146	8146	8146	8146	8146	8146	8146	8343	8343	8343	8343	8550	8550	8343	8343	8343	8343	8343	7959	7959	7959	7959	7959	7959	7959	7959	7959	7959	7959	7959	7959	8146	8146	8146	8146	8343	8343	8146	8146	8146	8146	8146	8146	8146	8146	8146	8146	8146	8343	8146	8146	8146	8146	8146	8146	8146	8146	8146	8146	8146	8146	8146	8343	8146	8146	8146	8146	8146	8146	8146	8146	8146	8146	8146	8146	8146	8146	8146	8146	7959	7959	0	0	0	0	0	3309	3277	3277	3277	3277	3277	3277	3246	3246	3246	3246	3246	3246	3246	3246	3246	3216	3216	3216	3216	3186	3186	3186	3186	3186	3186	3186	3186	3186	3186	3186	3186	3186	3186	3186	3186	3186	3186	3186	3186	3186	3216	3186	3216	3216	3216	3216	3216	3216	3216	3216	3216	3216	3216	3246	3246	3246	3277	3277	3309	3309	3309	3309	3309	3309	3277	3277	3277	3277	3277	3309	3309	3309	3309	0	0	8146	8146	8146	8146	8343	8146	8146	8343	8343	8343	8343	8343	8343	8343	8343	8343	8146	8146	8146	8146	7959	7959	8146	8343	8343	8343	8343	8550	8343	8343	8343	8343	8343	8146	8343	8343	8343	8343	8550	8550	8550	8550	8343	8343	8343	8343	8343	8343	8343	8343	8343	8343	8343	8343	8343	8343	8343	8343	8343	8343	8146	8146	8146	8343	8343	8343	8343	8343	8343	8343	8550	8343	8343	8550	8550	8550	8550	8550	8343	8343	8343	8343	8343	8146	8146	8343	8343	8343	8343	8146	8146	8146	8146	8146	7959	7959	7959	7959	7959	8146	8146	7959	7959	7959	8146	8146	8146	8146	8146	8146	8146	8146	8146	8146	8146	8146	8146	8146	8146	8146	8146	8146	8146	8146	8146	8146	8146	8146	8146	8146	8146	8146	8146	8146	8146	8146	8146	8146	8146	8146	8146	8146	8146	8146	8146	8146	8146	8146	8146	8146	8146	8146	8146	7959	7959	7959	8146	8146	8146	8146	8146	8146	8146	8146	7959	7959	7959	7959	7959	7959	7959	7959	7959	7959	7959	7959	7959	7959	7959	7959	8146	8146	8146	8146	8146	8146	8146	8146	8146	8146	8146	8146	8146	8146	8146	8146	8146	8146	8146	8146	8146	8146	8146	8146	8146	8146	8146	8146	8146	8146	8146	8146	8343	8343	8146	8146	8146	8146	8146	8146	8146	8146	8146	8146	8146	8146	8146	8146	8146	8146	8146	8146	8146	8146	8146	8146	8146	8146	8146	8146	8146	8343	8343	8343	8343	8343	8146	8343	8343	8343	8343	8343	8343	8343	8343	8343	8343	8343	0	0	0	0	0	0	0	0	0	0	0	2589	2589	2589	2589	2589	2589	2570	2551	2551	2532	2514	2514	2478	2478	2478	2460	2460	2460	2443	2443	2443	2409	2409	2392	2392	2392	2376	2376	2359	2343	2343	2327	2327	2327	2327	2327	2312	2312	2297	2281	2266	2266	2252	2252	0	0	0	0	0	0	0	0	0	0	0	0	0	0	0	0	0	0	0	0	0	0	0	0	0	0	0	0	0	0	0	0	0	0	0	0	0
0	0	0	0	0	0	0	1033	1039	1039	1039	1042	1042	1039	1042	1042	1042	1042	1048	1055	1055	1055	0	0	0	0	0	0	0	0	0	5202	5125	5125	5125	5125	5125	5125	5125	5125	5202	5202	5282	5282	5282	5282	5282	5282	5282	5282	5364	5364	5364	5364	5364	5448	5448	5448	5448	5448	5535	5535	5719	5719	5719	5719	5815	5815	5915	6018	6018	6124	6124	6235	6235	6235	6124	6124	6124	6124	6124	6124	6124	6235	6349	6468	6468	6468	6468	6468	6468	6468	6592	6720	6720	6853	6853	6853	6853	6853	6853	6853	6853	6853	7287	7287	7287	7287	7444	7444	7444	7444	7444	7444	7444	7444	7287	7444	7608	7779	7779	7779	7779	7959	7959	8146	7959	8146	8146	8146	8146	8146	8146	8146	8146	8343	8343	8343	8343	8550	8550	8550	8550	8550	8550	8550	8343	8146	8146	7959	7959	7959	7959	7959	7959	7959	7959	7959	8146	8146	8146	8146	8146	8146	8343	8146	8146	8146	8146	8146	8146	8146	8146	8146	8146	8146	8146	8146	8146	8146	8146	8146	8146	8343	8146	8146	8146	8146	8146	8146	8146	8146	8146	8146	8146	8146	8146	8146	8146	8146	8146	8146	8146	8146	8146	8146	8146	7959	7959	0	0	0	0	0	3277	3277	3277	3277	3277	3277	3277	3246	3246	3246	3246	3246	3246	3216	3246	3216	3216	3216	3186	3186	3186	3186	3186	3157	3186	3186	3186	3186	3186	3186	3186	3186	3186	3186	3186	3186	3186	3186	3186	3186	3186	3186	3186	3186	3216	3186	3216	3216	3216	3216	3216	3246	3246	3216	3246	3246	3277	3277	3277	3309	3309	3309	3309	3309	3309	3277	3277	3277	3277	3277	3277	3309	3309	3341	3373	3373	8146	8146	8146	8146	8146	8146	8343	8343	8343	8343	8343	8343	8343	8343	8343	8343	8343	8146	8146	8146	7959	8146	8146	8343	8343	8146	8146	8343	8343	8343	8146	8343	8343	8146	8146	8146	8343	8343	8550	8343	8550	8550	8550	8343	8343	8343	8343	8343	8343	8343	8343	8550	8343	8550	8343	8343	8343	8343	8343	8343	8343	8146	8343	8343	8343	8343	8343	8343	8343	8343	8343	8343	8343	8343	8550	8343	8343	8343	8343	8343	8343	8343	8146	8146	8146	8343	8343	8343	8343	8146	8146	8146	8146	8146	7959	7959	7959	7959	8146	8146	8146	7959	7959	7959	8146	8146	8146	8146	8146	8146	8146	8146	8146	8146	8146	8146	8146	8146	8146	8146	8146	8146	8146	8146	8146	8146	8146	8146	8146	8146	8146	8146	8146	8146	8146	8146	8146	8146	8146	8146	8146	8146	8146	7959	7959	8146	8146	7959	8146	7959	7959	8146	7959	7959	8146	8146	8146	8146	8146	8146	8146	8146	8146	7959	7959	7959	7959	7959	7959	7959	7959	7959	7959	7959	7959	7959	7959	7959	7959	7959	8146	8146	8146	8146	8146	8146	8146	8146	8146	8146	8146	8146	8146	8146	8146	8146	8146	8146	8146	8146	8146	8146	8146	8146	8146	8146	8146	8146	8146	8146	8146	8146	8343	8343	8146	8146	8146	8146	8146	8146	8146	8146	8343	8343	8146	8146	8146	8146	8146	8146	8146	8146	8146	8146	8146	8146	8146	8146	8146	8146	8343	8343	8343	8343	8343	8343	8343	8343	8343	8343	8343	8343	8343	8343	8343	8343	8343	0	0	0	0	0	0	0	0	0	0	0	0	2589	2589	2589	2589	2589	2570	2570	2551	2551	2532	2514	2514	2478	2460	2460	2460	2460	2460	2443	2443	2443	2409	2392	2392	2392	2376	2376	2376	2359	2359	2343	2327	2327	2327	2312	2312	2312	2297	2281	2281	2266	2266	2266	2266	0	0	0	0	0	0	0	0	0	0	0	0	0	0	0	0	0	0	0	0	0	0	0	0	0	0	0	0	0	0	0	0	0	0	0	0	0
0	0	0	0	0	0	0	1033	1036	1039	1039	1042	1042	1042	1042	1042	1042	1045	1048	1055	1055	1055	1055	0	0	0	0	0	0	0	0	5202	5125	5125	5050	5125	5050	5050	5125	5125	5202	5202	5202	5282	5282	5282	5282	5282	5202	5282	5364	5282	5282	5282	5364	5448	5448	5448	5448	5448	5535	5626	5719	5719	5719	5719	5815	5815	5915	6018	6018	6018	6124	6124	6235	6235	6235	6235	6235	6235	6124	6124	6235	6235	6349	6468	6468	6468	6592	6468	6468	6592	6592	6720	6720	6720	6992	6992	6853	6853	6853	6853	6853	6853	7287	7287	7287	7444	7444	7444	7444	7444	7444	7444	7444	7444	7444	7287	7444	7444	7444	7444	7779	7959	7959	7959	7959	8146	8146	8146	8146	8146	8146	8146	8146	8343	8343	8343	8343	8550	8550	8550	8550	8550	8550	8343	8343	8146	8146	8146	8146	7959	7959	7959	7959	7959	7959	7959	7959	8146	8146	8146	8146	8343	8343	8146	8146	8146	8146	8146	8146	8146	8146	8146	8146	8146	8146	8146	8146	8146	8146	8146	8146	8343	8146	8146	8146	8146	8146	8146	8146	8146	8146	8146	8146	8146	7959	7959	7959	7959	8146	8146	8146	8146	8146	8146	8146	8146	8146	0	0	0	0	0	3277	3277	3277	3277	3246	3246	3246	3246	3246	3246	3246	3246	3246	3216	3246	3246	3216	3216	3216	3216	3216	3216	3186	3186	3216	3216	3186	3186	3186	3186	3186	3186	3186	3186	3186	3186	3186	3186	3186	3186	3186	3186	3186	3186	3216	3216	3216	3216	3216	3246	3246	3246	3246	3246	3246	3246	3246	3277	3277	3277	3277	3277	3277	3277	3309	3277	3277	3277	3277	3277	3277	3309	3309	3309	3341	3341	0	8146	8343	8146	8146	8146	8343	8146	8146	8146	8343	8343	8343	8343	8343	8343	8343	8146	8146	8343	8146	8146	8146	8343	8343	8343	8146	8550	8343	8343	8146	8343	8343	8146	8146	8343	8146	8343	8343	8343	8343	8550	8343	8343	8343	8343	8146	8343	8343	8343	8146	8146	8343	8343	8550	8343	8343	8343	8343	8343	8343	8343	8343	8343	8343	8343	8343	8343	8343	8343	8343	8343	8343	8343	8550	8550	8550	8343	8343	8343	8343	8343	8343	8343	8343	8343	8343	8343	8343	8343	8146	8146	8146	7959	7959	7959	7959	7959	7959	7959	7959	7959	7959	7959	8146	8146	8146	8146	8146	8146	8146	8146	8146	8146	8146	8146	8146	8146	8146	8146	8146	8146	8146	8146	8146	8146	8146	8146	8146	8146	8146	8146	8146	8146	8146	8146	8146	8146	8146	8146	8146	8146	7959	7959	7959	7959	7959	7959	7959	7959	7959	8146	8146	8146	8146	8146	8146	8146	8146	8146	8146	8146	8146	8146	7959	7959	7959	7959	8146	8146	8146	8146	8146	8146	8146	7959	7959	7959	7959	7959	7959	7959	7959	7959	8146	8146	7959	8146	8146	8146	8146	8146	8146	8146	8146	8343	8146	8146	8146	8146	8146	8146	8146	8146	8146	8146	8146	8146	8146	8146	8343	8343	8343	8343	8343	8343	8343	8146	8343	8146	8146	8146	8146	8343	8146	8146	8146	8146	8146	8146	8146	8146	8146	8146	8146	8146	8146	8146	8146	8146	8343	8343	8343	8343	8343	8343	8343	8343	8343	8343	8343	8343	8343	8343	8343	8343	8343	0	0	0	0	0	0	0	0	0	0	0	0	2589	2589	2589	2589	2589	2570	2570	2551	2532	2532	2514	2514	2478	2478	2460	2460	2460	2443	2443	2443	2426	2409	2392	2392	2392	2392	2376	2376	2359	2359	2359	2343	2327	2327	2327	2312	2312	2312	2297	2281	2266	2266	2252	2252	0	0	0	0	0	0	0	0	0	0	0	0	0	0	0	0	0	0	0	0	0	0	0	0	0	0	0	0	0	0	0	0	0	0	0	0	0
0	0	0	0	0	0	0	1033	1036	1039	1039	1042	1039	1039	1042	1042	1045	1045	1048	1055	1055	1055	1055	0	0	0	0	0	0	0	0	0	5125	5125	5050	5050	5050	5050	5050	5050	5125	5125	5202	5202	5282	5202	5202	5202	5125	5125	5050	4838	4838	4838	4771	4771	5364	5364	5448	5364	5364	5364	4706	4706	5719	5815	5815	5915	5915	4581	4581	4581	4581	4463	4463	4463	4521	4521	4521	4521	4521	4521	4521	4521	4521	6720	6720	6720	6720	6720	4906	4906	4906	4838	4838	4838	4838	4771	4771	4771	6853	6853	6853	0	0	7444	7444	7608	7608	7608	7608	7444	7444	7444	7444	4643	4643	4643	7444	7444	7444	7444	0	0	7959	7959	7959	8146	8146	8146	8146	8146	8146	7959	8146	8146	8343	8343	8343	8343	8550	8550	8343	8550	8550	8343	8343	8146	8146	8146	8146	8146	7959	7959	7959	7959	7959	7959	8146	8146	8146	8146	8146	8343	8343	8146	8146	8146	8146	8146	8146	8343	8146	8146	8146	8146	8146	8146	8146	8146	8146	8146	8146	8343	8146	8146	8146	8146	8146	8146	8146	8146	8146	8146	8146	7959	7959	7959	7959	7959	8146	8146	8146	8146	8146	8146	8146	8146	8146	0	0	0	0	0	3309	3277	3277	3277	3246	3246	3246	3246	3246	3246	3246	3246	3216	3246	3246	3216	3216	3216	3186	3216	3186	3186	3186	3186	3186	3186	3186	3186	3186	3186	3186	3186	3186	3186	3186	3186	3186	3186	3186	3186	3186	3186	3186	3186	3216	3216	3216	3216	3216	3246	3246	3246	3216	3246	3246	3246	3246	3277	3277	3277	3277	3277	3309	3277	3277	3277	3277	3277	3277	3277	3277	3309	3309	3309	3309	3309	0	0	8343	8343	8343	8343	8343	8343	8146	8146	8343	8146	8146	8343	8343	8343	8343	8146	8146	8343	8146	8146	8343	8343	8343	8146	4771	4771	4838	4838	4838	4838	4771	4771	4771	8343	8343	8343	8343	8550	8550	8550	8343	8343	8146	4771	4771	4771	4771	4771	8343	8343	8343	8550	8550	8343	8343	8550	8550	8343	8343	8343	8550	8550	8343	8343	8343	8343	8343	8343	8146	8146	8343	8550	8550	8550	8550	8550	8343	8343	8343	8343	8343	8343	8343	8343	8343	8343	8146	8146	8146	7959	7959	7959	7959	7779	7779	7779	7779	8146	8146	7959	7959	4771	4771	4838	4838	4838	4838	4838	4838	4838	8146	8146	8146	8146	8146	8146	8146	8146	8146	8146	8146	8146	8146	8146	8146	8146	8146	8146	8146	8146	8146	8146	8146	8146	8146	8146	8146	8146	8146	8146	7959	7779	7779	7959	7959	7959	7959	7959	8146	8146	8146	8146	8146	8146	8146	8146	8146	8146	8146	8146	8146	8146	8146	8146	8146	8146	8146	8146	8146	8146	8146	8146	7959	7959	7959	7959	7779	7959	7959	7959	7959	7959	7959	7959	7959	7959	7959	8146	0	8146	8146	8146	8146	8343	8146	8146	8146	8146	8146	8146	8146	8146	8146	8146	8146	8146	8146	8146	8343	8343	8343	8343	8343	8343	8343	8146	8146	8146	8146	8146	8146	8343	8343	8146	8146	8146	8146	8146	8146	8146	8146	8146	8146	8146	8146	8146	8146	8146	8343	8343	8343	8343	8343	8343	8343	8343	8343	8343	8343	8343	8343	8343	8343	8343	8343	0	0	0	0	0	0	0	0	0	0	0	0	2609	2589	2589	2589	2589	2570	2570	2551	2532	2532	2514	2514	2478	2478	2460	2460	2460	2443	2443	2443	2426	2409	2409	2409	2392	2392	2376	2376	2376	2359	2359	2343	2327	2327	2312	2312	2312	2312	2297	2297	2281	2266	2266	2266	0	0	0	0	0	0	0	0	0	0	0	0	0	0	0	0	0	0	0	0	0	0	0	0	0	0	0	0	0	0	0	0	0	0	0	0	0
0	0	0	0	0	0	0	1033	1036	1036	1039	1039	1039	1039	1039	1042	1045	1048	1052	1055	1055	1055	1055	0	0	0	0	0	0	0	0	5125	5125	5050	5050	4977	4977	4977	4977	4977	5050	5050	5125	5125	5202	5202	5202	5050	4977	4906	4838	4838	4838	4771	4771	4706	4706	4771	4771	4706	4706	4706	4706	4706	4643	4643	4581	4581	4581	4581	4581	4581	4581	4463	4463	4463	4521	4521	4521	4521	4521	4521	4521	4521	4521	4643	4643	4643	4643	6720	4906	4906	4906	4838	4838	4838	4838	4771	4771	4706	4706	4643	4643	4643	0	7444	7444	7608	7608	7608	7608	7444	7444	7444	4706	4643	4643	4643	4643	0	0	0	0	0	0	0	7959	8146	8146	8146	8146	8146	8146	8146	8146	8146	8343	8343	8343	8343	8343	8343	8343	8343	8343	8343	8146	8146	8146	8146	8146	8146	8146	7959	7959	7959	8146	8146	8146	8146	8146	8146	8146	8146	8343	8146	8146	8146	8146	8146	8146	8146	8146	8146	8146	8146	8146	8146	8146	8146	8146	8146	8146	8146	8146	8146	8146	8146	8146	8146	8146	8146	8146	8146	8146	7959	7959	7959	7959	7959	8146	8146	8146	8146	8146	8146	8146	8146	8146	0	0	0	0	0	3277	3277	3277	3246	3246	3246	3246	3246	3246	3246	3246	3246	3216	3246	3246	3216	3216	3216	3186	3216	3186	3186	3186	3157	3186	3186	3186	3186	3186	3186	3186	3186	3186	3186	3186	3186	3186	3157	3186	3186	3186	3186	3186	3186	3216	3216	3216	3216	3216	3246	3216	3216	3216	3216	3246	3246	3246	3246	3277	3277	3277	3277	3277	3277	3277	3277	3277	3277	3277	3277	3277	3277	3309	3309	3309	3309	0	0	8343	8343	8343	8343	8343	8343	4706	4706	8146	8146	8146	4706	4706	4771	4706	4706	4706	4706	4643	4643	4706	4706	4706	4706	4771	4771	4838	4838	4771	4771	4771	4706	4706	4706	4706	4706	4706	8550	4771	4771	4771	4771	4771	4771	4771	4771	4771	4771	4771	4771	4771	4771	4771	4771	4771	4771	4838	4838	4838	4838	4838	4838	4838	4838	4838	4771	4771	4771	4771	4771	4771	4771	4771	4771	4771	4771	4771	4771	4771	4771	4771	4706	4706	4706	4706	4706	7959	7959	4706	4771	4771	7959	7959	7779	7959	7779	7959	8146	8146	4706	4706	4771	4771	4838	4838	4838	4838	4838	4838	4838	4838	7959	7959	7959	7959	7959	7959	8146	8146	8146	8146	8146	8146	8146	8146	8146	4643	4643	4643	8146	8146	8146	8146	8146	8146	8146	8146	8146	7959	4706	4643	4581	4581	7779	7779	7779	7959	7959	8146	8146	8146	8146	8146	8146	8343	8146	8146	8146	4838	4838	4838	4838	4838	4838	8146	8343	8146	8146	8146	8146	8146	8146	7959	7959	7959	7779	7779	7779	7959	4706	4706	4706	7959	7959	7959	7959	7959	0	0	0	0	8343	8146	8146	8146	8146	8146	8146	8146	8146	7959	7959	8146	7959	8146	8146	8146	8146	8146	8146	8343	8343	8343	8343	8343	8146	8343	8343	8146	8146	8343	8343	8343	8146	8146	8146	8146	8146	8146	8146	8146	8146	8146	8146	8146	8146	8146	8146	8343	8343	8343	8343	8343	8343	8343	8343	8343	8343	8343	8343	8343	8343	8343	8343	8343	0	0	0	0	0	0	0	0	0	0	0	0	2609	2589	2589	2589	2589	2570	2570	2551	2532	2532	2514	2514	2496	2478	2460	2460	2443	2443	2443	2443	2426	2409	2409	2409	2392	2392	2392	2376	2376	2376	2359	2343	2327	2327	2327	2312	2312	2312	2312	2297	2281	2266	2252	2252	0	0	0	0	0	0	0	0	0	0	0	0	0	0	0	0	0	0	0	0	0	0	0	0	0	0	0	0	0	0	0	0	0	0	0	0	0
0	0	0	0	0	0	0	1033	1033	1036	1039	1039	1039	1039	1039	1042	1045	1048	1048	1055	1055	1055	1061	1068	1068	0	0	0	0	0	0	5125	5125	5050	4977	4977	4771	4771	4771	4838	4906	4906	4977	5050	5125	5125	5125	4977	4906	4838	4838	4771	4771	4771	4706	4706	4771	4771	4771	4706	4706	4706	4643	4643	4643	4643	4581	4581	4581	4581	4581	4581	4581	4463	4463	4463	4521	4521	4521	4521	4581	4581	4581	4581	4581	4643	4643	4706	4706	4706	0	4906	4906	4838	4838	4838	4771	4771	4706	4706	4706	4643	4643	4643	4643	7444	7444	7444	7444	7444	7444	4643	4643	4643	4643	4643	4643	4643	4643	4643	0	0	0	0	0	0	7959	8146	8146	8146	8146	8146	8146	8146	8146	8146	8146	8146	8146	8146	8146	8146	8146	8146	8146	8146	8146	8146	8146	8146	8146	8146	8146	7959	7959	7959	8146	7959	8146	8146	8146	8146	8146	8146	8343	8146	8146	8146	8146	8146	8146	8146	8146	8146	8146	8146	8146	8146	8146	8146	8146	8146	8146	8343	8343	8146	8146	8146	8146	8146	8146	8146	8146	8146	8146	8146	7959	8146	8146	8146	8146	8146	8146	8146	8146	8146	8146	8146	8146	8146	0	0	0	0	3277	3277	3277	3246	3246	3246	3246	3246	3246	3246	3246	3246	3216	3216	3216	3216	3216	3186	3186	3186	3186	3186	3157	3157	3186	3186	3186	3186	3186	3186	3186	3186	3186	3186	3186	3186	3186	3157	3186	3186	3186	3186	3186	3186	3186	3216	3186	3216	3216	3246	3216	3216	3216	3246	3246	3246	3246	3246	3246	3277	3277	3277	3277	3277	3277	3277	3277	3277	3277	3277	3277	3277	3277	3309	3309	3309	3309	0	8343	8343	8343	4771	4706	4706	4706	4706	4706	4706	4706	4706	4706	4771	4771	4706	4706	4706	4706	4643	4706	4706	4706	4706	4838	4838	4838	4838	4771	4771	4771	4771	4771	4771	4706	4706	4771	4771	4771	4771	4771	4771	4771	4771	4771	4771	4771	4771	4771	4771	4771	4771	4771	4771	4771	4771	4838	4838	4838	4838	4771	4771	4838	4771	4771	4771	4771	4771	4771	4771	4771	4771	4771	4771	4771	4771	4771	4706	4771	4771	4706	4706	4706	4706	4706	4706	4706	4706	4706	4643	4643	7959	7959	7959	7959	7779	7959	8146	4643	4706	4706	4771	4771	4838	4838	4838	4838	4838	4838	4838	4838	4838	4838	4771	4771	4838	4838	8146	8146	8146	4771	4771	8146	8146	4706	4643	4643	4706	4706	4706	4706	4771	4771	4771	4838	4838	4838	4771	4706	4706	4643	4643	4643	4643	4706	4771	4771	4771	4706	4706	4706	4643	4643	8146	8343	8146	4771	4771	4771	4838	4838	4771	4771	4771	8146	8550	8343	8146	8146	4643	4706	4706	4706	4771	4771	4706	4771	4771	4771	4771	4771	4771	4771	7959	0	0	0	0	0	0	0	8146	8146	8146	8146	8146	8146	8146	8146	8146	8146	8146	8146	7959	8146	8146	8146	8146	8146	8343	8343	8343	8343	8343	8343	8146	8146	8146	8146	8146	8146	8146	8343	8146	8146	8146	8146	8146	8146	8146	8146	8146	8146	8146	8146	8146	8146	8146	8146	8343	8343	8343	8343	8343	8343	8343	8343	8343	8343	8343	8343	8343	8343	8343	8343	0	0	0	0	0	0	0	0	0	0	0	0	2609	2589	2589	2589	2589	2570	2551	2551	2532	2514	2514	2514	2514	2478	2460	2460	2460	2443	2443	2443	2443	2426	2409	2409	2392	2392	2392	2376	2376	2359	2359	2343	2327	2327	2312	2312	2312	2312	2312	2297	2281	2281	2266	2266	0	0	0	0	0	0	0	0	0	0	0	0	0	0	0	0	0	0	0	0	0	0	0	0	0	0	0	0	0	0	0	0	0	0	0	0	0
0	0	0	0	0	0	0	1033	1033	1036	1039	1039	1039	1039	1042	1045	1045	1048	1052	1055	1055	1055	1058	1071	1074	1074	1074	0	0	0	0	0	0	0	4977	4977	4643	4706	4643	4643	4643	4706	4706	4771	4838	4838	4838	4838	4838	4771	4771	4706	4771	4706	4706	4706	4706	4706	4706	4643	4706	4706	4643	4643	4643	4643	4581	4643	4643	4643	4643	4706	4581	4706	4581	4643	4643	4706	4643	4581	4581	4581	4581	4581	4581	4643	4643	4706	4706	4838	4771	4906	4906	4838	4838	4838	4838	4771	4771	4706	4706	4643	4643	4643	4706	4643	4706	4706	7287	7444	4643	4643	4643	4643	4643	4643	4643	4643	4643	4643	4643	0	0	0	0	0	0	0	8146	8146	8146	8146	8146	8146	8146	8146	8146	8146	8146	8146	8146	8146	8146	8146	8146	8146	8146	8146	8146	8146	8146	8146	8146	8146	7959	8146	8146	8146	8146	8146	8146	8146	7959	8146	8343	8146	8146	8146	8146	8146	8146	8146	8146	8146	8146	8146	8146	8146	8146	8146	8146	8146	8146	8343	8343	8146	8146	8146	8146	8146	8146	8146	8146	7959	8146	8146	8146	8146	8146	8146	8146	8146	8146	8146	8146	8146	8146	8146	8146	8146	0	0	0	0	3277	3246	3246	3246	3246	3246	3246	3246	3246	3246	3246	3246	3216	3216	3216	3216	3186	3186	3186	3186	3186	3186	3186	3157	3186	3186	3186	3186	3186	3186	3186	3186	3186	3186	3186	3186	3186	3157	3186	3186	3186	3186	3186	3186	3186	3186	3216	3216	3216	3246	3216	3216	3216	3216	3246	3246	3246	3246	3277	3277	3277	3277	3277	3277	3309	3277	3309	3277	3277	3277	3277	3277	3277	3277	3277	3277	3309	0	0	8343	8343	4771	4706	4706	4706	4706	4706	4706	4771	4706	4706	4771	4771	4771	4706	4706	4706	4706	4706	4706	4706	4706	4771	4771	4771	4771	4771	4771	4771	4771	4771	4771	4771	4771	4771	4771	4771	4771	4771	4771	4771	4771	4771	4771	4771	4771	4771	4706	4706	4771	4706	4771	4771	4771	4771	4771	4771	4771	4771	4771	4771	4771	4771	4771	4771	4771	4771	4771	4771	4771	4771	4771	4771	4771	4771	4706	4706	4706	4706	4706	4706	4706	4706	4706	4771	4771	4771	4706	4771	4771	4838	4771	4706	4706	4643	4706	4643	4643	4643	4771	4771	4771	4771	4771	4771	4771	4771	4771	4771	4838	4838	4771	4771	4771	4771	4771	4706	4706	4706	4706	4706	4706	4706	4706	4706	4706	4771	4771	4771	4771	4771	4771	4838	4838	4838	4706	4706	4706	4643	4643	4643	4643	4706	4771	4771	4771	4771	4706	4706	4706	4643	4643	4643	4706	4771	4771	4771	4771	4771	4771	4706	4706	4706	4706	4706	4706	4706	4706	4706	4706	4706	4706	4771	4771	4771	4838	4771	4771	4771	4771	4771	4771	0	0	0	0	0	0	0	8146	8146	8146	0	8146	8146	8146	0	8146	8146	8146	8146	8146	8146	8146	8146	8146	8343	8343	8343	8343	8343	8343	8343	8146	8146	8146	8146	8146	8146	8146	8343	8146	8146	8146	8146	8146	8146	8146	8146	8146	8146	8146	8146	8146	8146	8146	8343	8343	8343	8343	8343	8343	8343	8343	8343	8343	8343	8343	8343	8343	8343	0	0	0	0	0	0	0	0	0	0	0	0	0	0	2609	2589	2589	2589	2589	2570	2551	2551	2532	2532	2514	2514	2514	2478	2460	2460	2443	2443	2443	2443	2426	2426	2409	2409	2409	2409	2392	2376	2359	2343	2343	2327	2312	2312	2312	2312	2312	2312	2297	2297	2281	2266	2266	2266	0	0	0	0	0	0	0	0	0	0	0	0	0	0	0	0	0	0	0	0	0	0	0	0	0	0	0	0	0	0	0	0	0	0	0	0	0
0	0	0	0	0	0	0	1036	1036	1036	1039	1039	1039	1039	1042	1045	1045	1048	1052	1055	1055	1055	1055	1074	1078	1078	1074	0	0	0	0	0	0	0	0	4706	4643	4643	4643	4643	4643	4643	4643	4706	4706	4771	4706	4771	4771	4771	4706	4706	4706	4706	4706	4706	4706	4706	4706	4643	4706	4643	4643	4643	4643	4643	4581	4643	4581	4643	4581	4643	4581	4581	4581	4581	4581	4643	4581	4581	4581	4581	4581	4581	4581	4643	4706	4706	4771	4838	4771	4771	4838	4838	4838	4771	4771	4771	4771	4706	4706	4706	4643	4706	4706	4706	4706	4706	4706	4706	4706	4706	4706	4706	4706	4706	4643	4706	4706	4706	4643	4643	0	0	0	0	0	0	8146	7959	7959	8146	8146	8146	8146	8146	8146	8146	8146	8146	8146	8146	8146	8146	8146	8146	8146	8146	7959	8146	8146	8146	8146	8146	8146	8146	8146	8146	8146	7959	7959	7959	7959	8146	8146	8146	8146	8146	8146	8146	8146	8146	8146	8146	8146	8146	8146	8146	8146	8146	8146	8146	8146	8146	8146	8146	8146	8146	8146	8146	8146	8146	8146	7959	7959	7959	7959	8146	8146	8146	8146	8146	8146	8146	8146	8146	8146	8146	8146	8146	0	0	0	0	3246	3246	3246	3246	3246	3246	3246	3246	3246	3246	3246	3216	3216	3216	3216	3216	3216	3216	3186	3186	3186	3186	3186	3157	3186	3186	3186	3186	3186	3186	3186	3186	3186	3186	3186	3157	3157	3157	3186	3186	3186	3186	3186	3186	3186	3186	3186	3216	3216	3246	3216	3216	3216	3216	3216	3246	3246	3246	3277	3277	3277	3277	3277	3277	3277	3277	3277	3277	3277	3277	3277	3277	3277	3277	3309	3309	0	0	0	0	0	4771	4771	4706	4706	4706	4706	4706	4771	4706	4706	4771	4706	4706	4706	4706	4706	4706	4706	4706	4706	4706	4706	4771	4771	4771	4771	4771	4771	4771	4771	4771	4771	4771	4771	4771	4771	4771	4771	4771	4771	4771	4771	4706	4771	4771	4771	4771	4771	4771	4771	4771	4771	4771	4771	4771	4771	4771	4771	4771	4771	4771	4771	4771	4771	4771	4771	4771	4771	4771	4771	4771	4771	4771	4706	4706	4706	4706	4706	4771	4771	4771	4771	4706	4706	4706	4706	4771	4706	4771	4771	4706	4706	4706	4643	4706	4643	4643	4643	4771	4706	4771	4706	4706	4771	4706	4706	4771	4771	4771	4771	4706	4771	4771	4706	4706	4706	4643	4643	4643	4706	4706	4706	4706	4706	4771	4771	4771	4771	4771	4771	4771	4771	4771	4771	4706	4706	4643	4706	4643	4643	4706	4771	4771	4771	4771	4771	4771	4706	4706	4706	4643	4706	4771	4771	4838	4771	4838	4771	4771	4771	4706	4706	4706	4706	4706	4706	4706	4706	4706	4706	4706	4706	4771	4771	4838	4838	4771	4838	4838	4838	4906	4906	0	0	0	0	0	0	8146	8146	8146	8146	0	0	0	0	8146	8146	8146	8146	8146	8146	8146	8146	8146	8146	8343	8343	8343	8146	8146	8146	8146	8146	8146	8146	8146	8146	8146	8343	8146	8146	8146	8146	8146	8146	8146	8146	8146	8146	8146	8343	8343	8146	8146	8146	8146	8146	8146	8343	8343	8343	8343	8343	8343	8343	8343	8343	8343	8343	8343	8343	8343	0	0	0	0	0	0	0	0	0	0	0	0	2609	2609	2589	2589	2589	2589	2589	2514	2514	2514	2514	2514	2496	2478	2460	2443	2443	2443	2443	2443	2443	2443	2409	2409	2409	2392	2376	2359	2343	2343	2327	2327	2312	2312	2312	2312	2312	2312	2297	2281	2266	2266	2266	0	0	0	0	0	0	0	0	0	0	0	0	0	0	0	0	0	0	0	0	0	0	0	0	0	0	0	0	0	0	0	0	0	0	0	0	0
0	0	0	0	0	0	0	1033	1033	1033	1036	1036	1036	1039	1042	1042	1045	1045	1048	1048	1055	1058	1078	1078	1078	1078	0	0	0	0	0	0	0	0	4643	4643	4643	4643	4643	4643	4643	4643	4643	4706	4643	4706	4643	4706	4706	4706	4643	4643	4706	4643	4706	4706	4706	4706	4706	4643	4643	4643	4643	4643	4643	4643	4581	4643	4643	4643	4581	4643	4581	4643	4581	4643	4643	4643	4643	4581	4581	4581	4581	4581	4581	4643	4706	4706	4771	4771	4771	4771	4771	4771	4771	4771	4771	4706	4706	4706	4706	4706	4706	4706	4706	4706	4706	4706	4706	4706	4706	4706	4643	4706	4706	4643	4643	4643	4643	4706	4643	4643	0	0	0	0	0	0	8146	7959	7959	7959	8146	8146	8146	8146	8146	8146	8146	8146	8146	8146	8146	8146	7959	7959	7959	7959	7959	7959	8146	8146	8146	8146	8146	8146	8146	7959	7959	7959	7959	7959	7959	8146	8343	8146	8343	8146	8146	8146	8146	8146	8146	8146	8146	8146	8146	8146	8146	8146	8146	8146	8146	8146	8146	8146	8146	8146	8146	8146	8146	8146	8146	7959	7959	7959	7959	7959	7959	8146	8146	8146	8146	8343	8146	8146	8146	8146	8146	8146	0	0	0	0	3246	3246	3246	3246	3246	3246	3246	3246	3246	3246	3246	3246	3216	3216	3216	3216	3186	3186	3186	3186	3186	3186	3157	3157	3186	3186	3186	3186	3186	3186	3186	3186	3186	3186	3186	3157	3186	3186	3186	3186	3186	3186	3186	3186	3186	3186	3186	3216	3216	3216	3216	3216	3216	3216	3216	3216	3216	3216	3246	3277	3277	3277	3277	3277	3277	3277	3277	3277	3277	3277	3277	3277	3277	3277	3309	3309	0	0	0	0	0	4706	4706	4706	4706	4706	4706	4706	4771	4771	4771	4771	4771	4706	4706	4706	4706	4706	4706	4706	4706	4706	4771	4771	4771	4771	4771	4771	4771	4771	4771	4838	4771	4771	4771	4771	4771	4771	4771	4771	4771	4771	4771	4706	4771	4771	4771	4771	4771	4771	4771	4771	4771	4771	4771	4771	4771	4771	4771	4771	4771	4771	4771	4771	4771	4771	4771	4771	4771	4771	4771	4771	4771	4771	4706	4706	4706	4771	4771	4771	4771	4771	4771	4771	4771	4771	4771	4706	4706	4706	4706	4643	4643	4643	4581	4643	4643	4581	4581	4643	4643	4643	4643	4643	4706	4643	4643	4706	4706	4771	4771	4706	4706	4706	4706	4706	4643	4643	4643	4643	4643	4706	4771	4771	4771	4771	4838	4771	4771	4771	4771	4771	4771	4771	4771	4706	4706	4706	4706	4706	4706	4706	4706	4771	4771	4771	4771	4771	4706	4706	4706	4706	4706	4771	4771	4771	4771	4771	4771	4771	4771	4706	4771	4771	4771	4706	4771	4706	4706	4706	4706	4706	4706	4706	4706	4838	4838	4838	4838	4838	4771	4838	4906	4906	0	0	0	0	0	8146	8146	8146	8146	0	0	0	8146	8146	8146	8146	8146	8146	8146	8146	8146	8146	8146	8146	8146	8146	8146	8146	8146	8146	8146	7959	7959	7959	8146	8146	8146	8146	8146	8146	8146	8146	8146	8146	8146	8146	8146	8146	8343	8343	8146	8146	8146	8146	8146	8146	8343	8343	8343	8343	8343	8343	8343	8343	8343	8343	8146	8343	8343	8343	8343	0	0	0	0	0	0	0	0	0	0	0	2609	2629	2609	2609	2589	2589	2570	2570	2532	2532	2532	2514	2514	2496	2478	2460	2460	2443	2443	2443	2443	2443	2426	2409	2409	2376	2376	2359	2343	2343	2327	2327	2312	2312	2312	2312	2312	2312	2297	2281	2266	2266	2266	0	0	0	0	0	0	0	0	0	0	0	0	0	0	0	0	0	0	0	0	0	0	0	0	0	0	0	0	0	0	0	0	0	0	0	0	0
0	0	0	0	0	0	0	1030	1030	1030	1033	1033	1036	1039	1042	1042	1045	1045	1048	1052	1055	1055	1074	1074	1078	0	0	0	0	0	0	0	0	4581	4643	4643	4643	4643	4643	4643	4643	4643	4643	4643	4643	4643	4643	4706	4706	4706	4643	4643	4706	4706	4706	4706	4706	4706	4706	4643	4643	4643	4581	4581	4581	4643	4581	4643	4643	4643	4643	4643	4581	4643	4581	4643	4643	4643	4643	4643	4643	4643	4643	4643	4581	4706	4706	4706	4771	4771	4771	4771	4771	4771	4771	4771	4771	4706	4706	4706	4706	4706	4643	4706	4706	4706	4706	4706	4706	4706	4706	4706	4643	4643	4706	4643	4706	4643	4706	4706	4643	4643	0	0	0	7959	7959	7959	8146	7959	7959	8146	8146	8146	8146	8146	8146	8146	8146	8146	8146	8146	8146	8146	8146	7959	7959	7959	7959	7959	8146	8146	8146	8146	8146	8146	8146	7959	7959	7959	7959	7959	7959	8146	8146	8146	8146	8146	8146	8146	8146	8146	8146	8146	8146	8146	8146	8146	8146	8146	8146	8146	8146	8146	8146	8146	8146	8146	8146	8146	8146	8146	8146	8146	7959	7959	7959	7959	8146	7959	8146	8146	8146	8146	8146	8146	8146	8146	7959	7959	0	0	0	0	3246	3246	3246	3246	3246	3246	3246	3246	3246	3246	3246	3246	3216	3216	3216	3186	3186	3186	3186	3186	3186	3186	3157	3157	3186	3186	3186	3186	3186	3186	3186	3186	3186	3186	3186	3157	3186	3186	3186	3186	3186	3186	3186	3186	3186	3186	3186	3216	3216	3216	3216	3216	3216	3216	3216	3216	3216	3246	3246	3277	3277	3277	3277	3277	3309	3277	3309	3277	3277	3277	3277	3277	3277	3277	3277	3309	0	0	0	0	0	4771	4771	4771	4771	4706	4706	4706	4771	4706	4706	4771	4706	4706	4706	4706	4706	4706	4706	4706	4706	4706	4771	4771	4771	4771	4771	4771	4771	4771	4771	4771	4771	4771	4771	4771	4771	4771	4771	4771	4771	4771	4771	4771	4771	4771	4771	4771	4771	4771	4771	4771	4771	4771	4771	4771	4771	4771	4771	4771	4771	4771	4771	4771	4771	4771	4771	4771	4771	4771	4771	4771	4771	4771	4771	4771	4706	4706	4771	4771	4771	4771	4771	4771	4771	4771	4771	4706	4706	4706	4706	4643	4643	4581	4581	4643	4643	4581	4581	4643	4643	4643	4643	4581	4643	4643	4643	4643	4643	4706	4706	4706	4706	4706	4643	4643	4643	4643	4643	4643	4643	4706	4771	4771	4771	4771	4838	4771	4771	4771	4771	4706	4771	4771	4771	4771	4706	4706	4706	4706	4706	4706	4706	4771	4771	4771	4771	4771	4706	4706	4706	4706	4706	4706	4771	4771	4706	4771	4771	4771	4771	4771	4838	4771	4771	4771	4771	4706	4706	4706	4706	4706	4706	4706	4706	4838	4838	4838	4838	4838	4771	4838	4838	4838	0	0	0	0	8146	8146	8146	8146	8146	0	0	8146	8146	8146	8146	8146	8146	8146	8146	8146	8146	8146	8146	8343	8343	8146	8146	8146	8146	8146	8146	7959	7959	7959	7779	7779	8146	8146	8146	8146	8146	8146	8146	8146	8343	8343	8343	8343	8343	8146	8146	8146	8146	8146	8146	8146	8146	8343	8343	8343	8343	8343	8146	8146	8146	8146	8146	8146	8146	8146	8343	8343	0	0	0	0	0	0	0	0	0	0	2609	2609	2609	2609	2589	2570	2570	2570	2551	2532	2532	2532	2532	2514	2496	2478	2460	2460	2460	2443	2443	2443	2426	2409	2392	2392	2376	2376	2343	2343	2343	2327	2312	2312	2312	2312	2312	2312	2297	2281	2266	2266	2266	0	0	0	0	0	0	0	0	0	0	0	0	0	0	0	0	0	0	0	0	0	0	0	0	0	0	0	0	0	0	0	0	0	0	0	0	0
