0	0	0	0	0	0	0	1030	1030	1033	1033	1036	1036	1039	1039	1042	1045	1045	1048	1048	1052	1052	1048	0	0	0	0	0	0	0	0	4706	4706	4771	4706	4706	4706	4643	4581	4581	4581	4581	4581	4581	4581	4581	4643	4643	4643	4643	4643	4706	4643	4643	4643	4643	4643	4643	4643	4643	4643	4643	4643	4581	4581	4581	4581	4581	4581	4581	4581	4581	4581	4581	4581	4581	4581	4581	4581	4581	4581	4581	4581	4643	4643	4643	4706	4706	4771	4771	4771	4771	4706	4706	4643	4706	4643	4643	4643	4643	4643	4706	4706	4643	4706	4706	4706	4706	4706	4706	4706	4706	4706	4706	4706	4706	4706	4643	4706	4706	4706	4706	4706	0	7959	7959	7959	8146	7959	7959	7959	8146	8146	8146	8146	8146	8343	8343	8343	8343	8146	8146	8146	8146	7959	7959	7959	7959	7959	7959	7959	8146	8146	8146	8146	7959	7959	7959	7959	7959	7959	7779	7779	7779	7779	7959	7959	7959	7959	7959	8146	8146	8146	8146	8146	8146	8146	8146	8146	8146	8146	8146	8146	7959	8146	7959	7959	7959	7959	7959	7959	7959	7959	7959	7959	7959	7959	7959	7959	7779	7959	7959	7959	7959	8146	0	0	0	0	2917	2869	2917	2917	2917	2917	2893	2893	2917	2917	2917	2917	2917	2917	2917	2917	2917	2917	2917	2917	2893	2893	2893	2869	2893	2893	2893	2893	2942	2917	2917	2917	2917	2917	2917	2917	2917	2917	2917	2917	2942	2942	2942	2942	2942	2942	2942	2942	2942	2942	2917	2917	2917	2917	2917	2917	2917	2917	2917	2917	2917	2917	2942	2942	2942	2942	2942	2942	2942	2942	2942	2942	2942	2942	2942	2942	2942	2942	2942	2942	2942	2942	2942	2942	2942	2942	2942	2942	0	4643	4643	4643	4706	4706	4706	4706	4706	4706	4706	4706	4706	4706	4706	4706	4706	4706	4706	4771	4771	4771	4771	4771	4771	4771	4771	4771	4771	4771	4771	4771	4771	4771	4771	4771	4771	4771	4771	4771	4771	4771	4771	4771	4771	4771	4771	4771	4771	4771	4771	4771	4771	4771	4771	4771	4771	4771	4771	4771	4771	4771	4706	4706	4706	4706	4706	4706	4706	4706	4771	4771	4771	4771	4771	4771	4771	4771	4706	4706	4706	4706	4706	4706	4706	4706	4706	4706	4643	4643	4643	4643	4581	4581	4581	4581	4581	4581	4581	4581	4581	4581	4581	4581	4581	4581	4581	4581	4581	4581	4581	4581	4581	4581	4643	4643	4643	4706	4706	4706	4706	4771	4771	4771	4771	4771	4771	4771	4771	4771	4771	4771	4771	4771	4771	4706	4706	4706	4706	4706	4643	4706	4706	4706	4706	4771	4771	4706	4771	4706	4706	4706	4706	4706	4706	4706	4706	4706	4643	4706	4706	4706	4706	4706	4643	4643	4643	4643	4643	4643	4643	4643	4771	4706	4706	4706	4706	4706	4706	4643	4643	8343	8343	8146	8343	8146	8146	8146	8146	8146	8343	8343	8343	8146	8146	8146	8146	8146	8146	8146	8146	8146	8146	8146	8146	8146	8146	8146	8146	8343	8146	8146	8146	8146	8146	8146	8146	7959	8146	8146	8146	8146	8343	8343	8343	8343	8343	8343	8343	8343	8343	8343	8343	8343	8343	8343	8343	8343	8550	8343	8343	8343	8343	8343	8343	8343	8343	8343	8343	8550	8550	8550	8550	8550	8550	0	0	0	0	0	0	0	0	0	0	2609	2589	2570	2570	2570	2551	2551	2532	2532	2514	2514	2514	2496	2496	2478	2443	2443	2426	2409	2392	2392	2392	2376	2392	2376	2376	2376	2376	2359	2343	2312	2327	2312	2312	2297	2297	2281	2281	2266	2252	2252	0	0	0	0	0	0	0	0	0	0	0	0	0	0	0	0	0	0	0	0	0	0	0	0	0	0	0	0	0	0	0	0	0	0	0	0	0
0	0	0	0	0	0	0	1023	1026	1030	1036	1039	1039	1039	1042	1042	1042	1042	1045	1045	1048	1048	0	0	0	0	0	0	0	0	0	4771	4771	4771	4706	4706	4643	4581	4581	4581	4581	4581	4581	4581	4643	4643	4643	4643	4643	4643	4643	4706	4643	4643	4643	4643	4643	4643	4643	4581	4581	4581	4581	4581	4581	4581	4581	4581	4581	4581	4581	4581	4581	4581	4581	4581	4581	4581	4581	4581	4581	4581	4581	4643	4643	4643	4706	4706	4771	4771	4771	4706	4706	4706	4643	4643	4643	4643	4643	4643	4643	4643	4643	4643	4643	4643	4643	4643	4643	4643	4706	4643	4643	4643	4706	4706	4706	4643	4643	4643	4706	4771	4771	4838	4838	7959	7959	8146	8146	8146	7959	8146	8146	8146	8146	8146	8343	8343	8343	8343	8146	8146	8146	8146	7959	7959	7959	7959	7959	7959	7959	8146	8146	8146	8146	8146	8146	7959	7959	7959	7959	7779	7779	7779	7779	7959	7959	7959	7959	7959	8146	8146	8146	8146	8146	8146	8146	8146	8146	8146	8146	8146	8146	8146	8146	8146	8146	8146	8146	8146	8146	8146	8146	7959	7959	7959	7959	7959	7959	7779	7959	7959	7959	7959	0	0	0	0	0	2917	2917	2917	2917	2917	2917	2917	2893	2917	2917	2917	2917	2917	2917	2917	2917	2917	2917	2917	2917	2893	2893	2893	2893	2893	2893	2893	2893	2893	2917	2917	2917	2917	2917	2917	2917	2917	2917	2917	2942	2942	2942	2942	2942	2942	2942	2942	2942	2942	2942	2917	2942	2917	2917	2917	2917	2917	2893	2917	2917	2917	2917	2917	2942	2942	2942	2942	2917	2942	2942	2942	2942	2942	2942	2942	2942	2942	2942	2942	2942	2942	2942	2942	2942	2942	2942	2942	2942	0	4706	4706	4706	4706	4706	4706	4706	4706	4706	4706	4706	4706	4706	4706	4706	4706	4706	4706	4771	4771	4771	4771	4771	4771	4771	4771	4771	4771	4771	4706	4771	4771	4771	4771	4771	4771	4771	4771	4771	4771	4771	4771	4706	4771	4771	4771	4771	4771	4771	4771	4771	4771	4771	4771	4771	4771	4771	4771	4771	4771	4706	4706	4706	4706	4706	4706	4706	4706	4706	4771	4771	4771	4771	4771	4771	4771	4706	4706	4706	4706	4706	4706	4706	4706	4706	4706	4706	4643	4581	4581	4581	4521	4521	4581	4581	4581	4581	4581	4581	4581	4581	4581	4581	4581	4581	4581	4581	4581	4581	4581	4581	4581	4643	4643	4643	4643	4706	4706	4706	4771	4771	4771	4771	4771	4771	4771	4771	4771	4771	4771	4771	4771	4771	4771	4706	4706	4706	4706	4706	4643	4706	4706	4706	4706	4706	4706	4706	4706	4706	4706	4706	4706	4706	4771	4706	4706	4706	4706	4706	4706	4706	4706	4706	4643	4643	4643	4643	4643	4706	4643	4706	4771	4771	4706	4706	4706	4706	4706	4643	4643	8146	8343	8146	8146	8146	8146	8146	8146	8146	8343	8343	8343	8146	8146	8146	8146	8146	8146	8146	8146	8146	7959	8146	8146	8146	8146	8146	8146	8146	8146	8146	8146	8146	8146	8146	8146	8146	8146	8146	8146	8146	8343	8343	8343	8343	8343	8343	8343	8343	8146	8343	8343	8343	8343	8343	8343	8343	8343	8343	8343	8343	8146	8146	8146	8146	8146	8146	8146	8343	8343	8550	8550	8550	8550	0	0	0	0	0	0	0	0	0	0	2589	2589	2570	2570	2551	2551	2532	2532	2532	2514	2514	2514	2496	2478	2460	2460	2443	2426	2426	2392	2392	2392	2376	2376	2376	2376	2376	2376	2359	2327	2312	2327	2312	2312	2297	2297	2281	2281	2266	2266	2252	2252	0	0	0	0	0	0	0	0	0	0	0	0	0	0	0	0	0	0	0	0	0	0	0	0	0	0	0	0	0	0	0	0	0	0	0	0
0	0	0	0	0	0	0	1023	1026	1030	1039	1039	1039	1039	1042	1042	1042	1042	1045	1045	1045	1048	0	0	0	0	0	0	0	0	4771	4771	4771	4771	4706	4643	4643	4581	4581	4581	4581	4581	4581	4581	4643	4643	4643	4643	4643	4643	4643	4706	4643	4706	4643	4643	4643	4643	4643	4581	4581	4581	4581	4581	4581	4581	4581	4581	4581	4581	4581	4581	4581	4581	4581	4581	4581	4581	4581	4581	4581	4581	4581	4581	4581	4581	4706	4706	4706	4706	4706	4706	4706	4706	4643	4643	4643	4643	4643	4643	4643	4643	4643	4643	4643	4643	4643	4643	4643	4643	4643	4643	4706	4706	4706	4706	4706	4706	4706	4706	4706	4771	4838	4838	4838	8146	7959	8146	8146	8146	8146	8146	8146	8146	8146	8146	8146	8146	8343	8343	8146	8146	8146	7959	7959	7959	7959	7959	7959	7959	7959	8146	8146	8146	8146	7959	7959	7959	7959	7959	7959	7779	7779	7779	7779	7959	7959	7959	7959	7959	8146	8146	8146	8146	8146	8146	8146	8146	8146	8146	8146	8146	8146	8146	7959	7959	8146	7959	7959	8146	7959	8146	8146	7959	7959	7959	7959	7959	7959	7779	7959	8146	7959	8146	8146	0	0	0	0	2917	2893	2893	2942	2917	2917	2917	2893	2893	2893	2917	2917	2917	2917	2917	2917	2917	2917	2917	2917	2893	2893	2893	2893	2893	2893	2893	2917	2917	2917	2917	2917	2917	2917	2917	2917	2942	2917	2917	2942	2942	2967	2942	2942	2942	2942	2942	2942	2942	2942	2917	2917	2917	2917	2917	2917	2917	2893	2893	2893	2917	2917	2917	2917	2942	2942	2942	2942	2942	2942	2942	2942	2942	2942	2942	2942	2942	2942	2942	2942	2942	2942	2942	2942	2942	2942	2942	2942	4706	4706	4706	4706	4706	4706	4706	4706	4706	4706	4706	4706	4706	4706	4706	4706	4643	4643	4706	4706	4706	4706	4771	4771	4771	4771	4771	4771	4771	4771	4706	4771	4771	4771	4706	4771	4771	4771	4771	4771	4771	4771	4771	4706	4771	4771	4771	4771	4771	4771	4771	4771	4771	4771	4771	4771	4771	4771	4771	4771	4771	4771	4706	4706	4706	4706	4706	4706	4706	4706	4771	4771	4771	4771	4771	4771	4771	4771	4706	4706	4706	4706	4706	4706	4706	4706	4706	4706	4706	4643	4581	4581	4581	4581	4581	4581	4581	4581	4581	4581	4581	4581	4581	4581	4581	4581	4581	4581	4581	4581	4581	4581	4581	4581	4643	4643	4643	4706	4706	4706	4771	4771	4771	4771	4771	4838	4838	4838	4838	4771	4771	4771	4771	4771	4771	4706	4706	4706	4706	4706	4643	4706	4706	4706	4706	4706	4706	4643	4706	4706	4706	4706	4771	4771	4771	4771	4706	4706	4706	4706	4706	4706	4643	4706	4643	4643	4643	4643	4643	4706	4643	4706	4771	4706	4706	4706	4706	4706	4706	4643	4643	8146	8146	8146	8146	8146	8146	8146	8343	8343	8343	8343	8343	8343	8343	8343	8343	8146	8146	8146	8146	8146	7959	8146	8146	8146	8146	8146	8146	8146	8146	8146	8146	8146	8146	8146	8146	8146	8146	8146	8146	8146	8343	8146	8343	8343	8343	8146	8146	8343	8146	8146	8146	8146	8343	8343	8146	8343	8343	8343	8343	8146	8146	8146	8146	8146	8146	8146	8146	8343	8343	8343	8343	8550	8343	8343	0	0	0	0	0	0	0	0	2609	2589	2589	2570	2570	2551	2551	2532	2514	2514	2514	2496	2496	2478	2478	2460	2443	2443	2426	2426	2392	2392	2392	2376	2376	2376	2376	2376	2359	2343	2327	2327	2327	2312	2312	2312	2297	2281	2281	2266	2266	2252	2252	0	0	0	0	0	0	0	0	0	0	0	0	0	0	0	0	0	0	0	0	0	0	0	0	0	0	0	0	0	0	0	0	0	0	0	0
0	0	0	0	0	0	0	1026	1033	1036	1036	1039	1039	1039	1042	1042	1042	1045	1045	1045	1045	0	0	0	0	0	0	0	0	0	4771	4771	4771	4706	4643	4643	4581	4581	4581	4581	4581	4581	4643	4643	4643	4643	4706	4643	4643	4643	4643	4706	4643	4643	4643	4643	4643	4643	4643	4581	4581	4581	4581	4581	4581	4581	4581	4581	4581	4581	4581	4581	4581	4581	4581	4581	4581	4581	4581	4581	4581	4581	4581	4581	4581	4581	4643	4643	4643	4706	4706	4706	4643	4643	4643	4643	4643	4643	4643	4643	4643	4643	4643	4643	4643	4643	4643	4643	4643	4706	4706	4706	4706	4706	4706	4706	4706	4706	4706	4706	4706	4771	4838	4838	4838	8146	8146	8146	8146	8146	8146	8146	8146	8146	8146	8146	8146	8146	8343	8146	8146	8146	8146	7959	7959	7959	7959	7779	7959	7959	7959	8146	8146	8146	8146	7959	7959	7959	8146	7959	7959	7779	7779	7779	7779	7779	7959	7959	8146	8146	8146	8146	8146	8146	8146	8146	8146	8146	8146	7959	7959	8146	7959	7959	7959	7959	7959	7959	8146	8146	8146	8146	8146	7959	7959	7959	7959	7959	7959	7959	7959	8146	8146	8146	8146	0	0	0	0	0	2893	2917	2942	2917	2917	2893	2893	2893	2893	2893	2893	2917	2917	2917	2917	2917	2917	2917	2917	2893	2893	2917	2893	2893	2893	2893	2917	2917	2917	2917	2917	2917	2917	2917	2917	2942	2942	2942	2942	2942	2942	2942	2942	2942	2942	2942	2942	2942	2917	2917	2917	2917	2917	2942	2942	2917	2917	2917	2917	2917	2917	2917	2917	2942	2942	2942	2942	2942	2942	2942	2942	2942	2942	2942	2942	2967	2942	2942	2942	2942	2942	2942	2942	2942	2942	2942	2942	4706	4706	4706	4706	4706	4706	4706	4706	4706	4706	4706	4706	4706	4706	4706	4706	4643	4643	4706	4706	4706	4706	4771	4771	4771	4771	4771	4771	4771	4771	4706	4706	4706	4706	4706	4706	4771	4771	4771	4771	4771	4706	4706	4706	4706	4771	4706	4771	4771	4771	4771	4771	4771	4771	4771	4771	4771	4771	4771	4771	4771	4771	4771	4706	4706	4706	4706	4771	4771	4771	4771	4771	4771	4771	4771	4771	4771	4771	4771	4706	4706	4706	4706	4706	4706	4706	4706	4706	4643	4643	4643	4581	4521	4521	4521	4521	4581	4581	4581	4581	4581	4581	4581	4643	4581	4581	4581	4581	4581	4581	4581	4581	4581	4581	4643	4643	4706	4706	4706	4706	4771	4838	4838	4838	4838	4838	4838	4838	4838	4771	4771	4771	4771	4771	4771	4706	4706	4706	4706	4706	4643	4643	4643	4706	4706	4706	4706	4706	4706	4706	4706	4771	4771	4771	4771	4771	4706	4706	4706	4706	4706	4706	4643	4643	4643	4643	4643	4643	4706	4706	4706	4706	4771	4771	4706	4706	4706	4706	4706	4643	4643	8146	8343	8146	8343	8146	8146	8146	8146	8343	8343	8343	8343	8343	8343	8343	8343	8343	8343	8146	8146	8146	8146	8146	8146	8146	8146	7959	8146	8146	8146	8146	8146	8343	8146	8146	8146	8146	8146	8146	8146	8146	8343	8343	8343	8343	8343	8343	8343	8146	8146	8146	8146	8146	8146	8146	8146	8146	8343	8146	8146	8146	8146	8146	8146	8146	8146	8146	8146	8343	8343	8343	8343	8343	8343	8343	0	0	0	0	0	0	0	2629	2609	2609	2589	2570	2570	2551	2551	2532	2514	2514	2496	2496	2496	2478	2478	2460	2460	2443	2426	2426	2409	2392	2392	2392	2392	2376	2376	2376	2359	2343	2327	2327	2327	2312	2312	2312	2297	2281	2281	2266	2266	2252	2252	0	0	0	0	0	0	0	0	0	0	0	0	0	0	0	0	0	0	0	0	0	0	0	0	0	0	0	0	0	0	0	0	0	0	0	0
0	0	0	0	0	0	0	1026	1026	1033	1039	1039	1039	1042	1042	1042	1042	1045	1045	1045	1045	0	0	0	0	0	0	0	0	0	4771	4706	4706	4706	4643	4581	4581	4581	4581	4581	4643	4643	4643	4706	4643	4643	4643	4643	4643	4643	4643	4643	4643	4706	4643	4643	4643	4643	4643	4581	4581	4581	4581	4581	4581	4581	4581	4581	4581	4581	4581	4581	4643	4643	4581	4581	4581	4581	4581	4581	4581	4581	4581	4581	4581	4581	4643	4706	4706	4706	4706	4706	4706	4643	4643	4643	4643	4643	4643	4643	4643	4643	4643	4643	4643	4643	4643	4643	4643	4643	4643	4706	4706	4706	4706	4706	4706	4706	4706	4706	4706	4771	4838	4838	4838	8146	8146	8146	8146	8146	8146	8146	8146	8146	8146	8146	8146	8146	8146	8146	8146	8146	8146	7959	7959	7959	7959	7779	7959	7779	8146	8146	8146	8146	8146	7959	7959	7959	8146	7959	7779	7779	7779	7779	7779	7959	7959	8146	8146	8146	8146	8146	8146	8146	8146	8146	8146	8146	8146	7959	7959	7959	7959	7959	7959	7959	8146	8146	8146	8146	8146	8146	8146	8146	8146	8146	8146	7959	7959	7959	8146	8146	8146	8146	8146	0	0	0	0	0	0	2942	2942	2917	2917	2917	2893	2893	2893	2893	2893	2917	2917	2917	2917	2917	2917	2917	2917	2893	2917	2917	2917	2917	2917	2917	2893	2917	2917	2917	2917	2917	2917	2917	2917	2942	2942	2917	2942	2942	2942	2942	2942	2942	2942	2942	2942	2942	2917	2917	2917	2917	2917	2942	2942	2942	2917	2917	2917	2917	2917	2917	2917	2942	2942	2942	2942	2942	2942	2942	2942	2942	2942	2967	2967	2967	2967	2942	2942	2942	2942	2942	2942	2942	2942	2942	2942	4706	4706	4706	4706	4706	4706	4706	4706	4706	4706	4706	4706	4706	4706	4706	4706	4643	4643	4706	4706	4706	4706	4706	4706	4771	4771	4771	4771	4771	4771	4706	4706	4706	4706	4706	4706	4771	4771	4706	4706	4706	4706	4706	4706	4771	4706	4706	4771	4771	4771	4771	4771	4771	4771	4771	4771	4771	4771	4771	4771	4771	4771	4771	4771	4706	4771	4771	4771	4771	4771	4771	4771	4771	4706	4771	4771	4706	4771	4771	4771	4771	4706	4706	4706	4706	4706	4706	4643	4643	4581	4581	4521	4521	4521	4521	4581	4581	4581	4581	4581	4581	4581	4581	4581	4581	4581	4581	4581	4581	4581	4581	4643	4643	4581	4643	4643	4706	4706	4706	4771	4771	4838	4838	4838	4838	4838	4838	4838	4838	4771	4771	4771	4771	4771	4706	4706	4643	4643	4706	4706	4706	4706	4706	4706	4706	4706	4771	4706	4706	4771	4771	4771	4771	4771	4771	4771	4706	4706	4706	4706	4706	4706	4643	4643	4643	4643	4643	4706	4706	4706	4706	4706	4838	4771	4706	4706	4706	4706	4706	4643	4643	4643	8343	8146	8146	8146	8146	8146	8343	8343	8343	8343	8343	8343	8146	8146	8146	8146	8146	8146	8146	8146	8146	8146	8146	8146	8146	8146	8146	8146	8146	8146	8146	8146	8146	8146	8146	8146	8146	8146	8146	8146	8343	8146	8343	8146	8146	8146	8146	8146	8146	8146	8146	8146	8146	8146	8146	8146	8343	8146	8146	8146	8146	8146	8146	8146	8146	8146	8146	8146	8343	8343	8343	8343	8343	0	0	0	0	0	0	0	0	2629	2609	2609	2589	2570	2589	2570	2551	2532	2514	2514	2478	2496	2478	2478	2460	2460	2443	2443	2426	2409	2409	2392	2392	2392	2392	2376	2376	2376	2359	2343	2327	2327	2327	2312	2312	2312	2297	2281	2266	2266	2252	2252	2252	0	0	0	0	0	0	0	0	0	0	0	0	0	0	0	0	0	0	0	0	0	0	0	0	0	0	0	0	0	0	0	0	0	0	0	0
0	0	0	0	0	0	0	1026	1026	1036	1039	1039	1039	1042	1039	1042	1042	1042	1042	1042	1042	0	0	0	0	0	0	0	0	0	4771	4706	4706	4643	4643	4581	4581	4581	4581	4581	4643	4643	4643	4706	4643	4643	4643	4643	4643	4643	4643	4643	4643	4643	4643	4643	4643	4643	4643	4581	4581	4581	4581	4581	4581	4581	4581	4581	4643	4643	4643	4643	4643	4643	4581	4581	4581	4581	4581	4581	4581	4581	4581	4581	4581	4581	4643	4643	4643	4706	4706	4706	4706	4643	4643	4643	4643	4643	4643	4643	4643	4643	4643	4706	4706	4643	4643	4706	4643	4643	4643	4706	4706	4706	4706	4706	4706	4706	4706	4706	4706	4771	4838	4838	4838	7959	7959	8146	8146	8146	8146	8146	8146	8146	8146	8343	8146	8146	8146	8146	8146	8146	8146	7959	7959	7959	7959	7779	7779	7779	7779	8146	8146	8146	8146	7959	7959	0	0	7959	7779	7779	7779	7779	7779	7959	8146	7959	8146	8146	8146	8146	8146	8146	8146	8146	8146	7959	8146	7959	7959	7959	7959	8146	8146	7959	8146	8146	8146	8146	8146	8146	8146	7959	7959	8146	8146	7959	8146	7959	8146	8146	8146	8146	0	0	0	0	0	0	0	2917	2917	2893	2917	2917	2893	2893	2869	2893	2917	2917	2917	2917	2917	2917	2917	2917	2917	2917	2917	2917	2917	2917	2917	2893	2893	2917	2917	2917	2917	2917	2917	2917	2917	2942	2942	2917	2917	2942	2942	2942	2942	2942	2942	2942	2942	2917	2917	2917	2917	2917	2917	2917	2917	2917	2917	2917	2917	2942	2917	2917	2942	2942	2942	2942	2942	2942	2942	2942	2942	2942	2967	2967	2967	2967	2967	2942	2942	2942	2942	2942	2942	2942	2917	2917	4706	4706	4706	4706	4706	4706	4706	4706	4706	4706	4706	4706	4706	4706	4706	4706	4706	4643	4706	4706	4706	4706	4706	4706	4706	4771	4771	4771	4771	4771	4771	4706	4706	4706	4706	4706	4706	4771	4771	4706	4706	4706	4706	4706	4706	4771	4706	4771	4771	4771	4771	4771	4771	4771	4771	4771	4771	4771	4771	4771	4771	4771	4771	4771	4771	4706	4706	4771	4771	4771	4771	4771	4771	4771	4771	4771	4771	4706	4706	4706	4706	4771	4706	4706	4706	4706	4706	4643	4581	4581	4521	4521	4521	4521	4521	4521	4581	4581	4581	4581	4581	4581	4581	4581	4581	4581	4581	4581	4581	4581	4581	4581	4643	4643	4581	4643	4643	4706	4706	4706	4771	4771	4838	4838	4838	4771	4771	4771	4771	4771	4771	4771	4771	4706	4706	4706	4706	4643	4706	4706	4706	4706	4706	4706	4706	4771	4771	4771	4771	4771	4771	4771	4771	4771	4771	4771	4771	4771	4706	4706	4706	4643	4643	4643	4643	4643	4643	4643	4706	4706	4706	4706	4771	4838	4771	4706	4706	4706	4706	4706	4643	4643	4643	8146	8146	8343	8146	8146	8146	8146	8146	8343	8343	8343	8343	8146	8146	8146	8146	8146	8146	8146	7959	8146	8343	8146	8146	8146	8146	8146	8146	8146	7959	8146	8146	8146	8146	8146	8146	8146	8146	8146	8146	8146	8146	8146	8146	8146	8146	8146	8343	8146	8146	8146	8146	8146	8146	8146	8146	8146	8146	8146	8146	8146	8146	8146	8146	8146	8146	8146	8146	8146	8146	8146	8146	8146	0	0	0	0	0	0	0	0	2629	2609	2609	2589	2570	2589	2570	2551	2532	2514	2514	2496	2496	2496	2478	2460	2460	2443	2443	2426	2409	2409	2409	2392	2392	2392	2392	2376	2376	2359	2343	2327	2327	2327	2312	2312	2312	2281	2266	2266	2266	2252	2252	2252	0	0	0	0	0	0	0	0	0	0	0	0	0	0	0	0	0	0	0	0	0	0	0	0	0	0	0	0	0	0	0	0	0	0	0	0
0	0	0	0	0	0	0	0	0	1036	1039	1039	1039	1042	1042	1042	1042	1042	1045	1045	1045	0	0	0	0	0	0	0	0	0	4771	4706	4706	4643	4643	4581	4581	4581	4581	4581	4581	4581	4643	4643	4643	4643	4643	4643	4643	4643	4581	4643	4643	4643	4643	4643	4643	4643	4643	4581	4581	4581	4581	4581	4581	4581	4581	4581	4581	4643	4643	4643	4643	4643	4643	4643	4643	4581	4581	4581	4581	4581	4581	4581	4581	4581	4643	4643	4643	4706	4706	4643	4643	4643	4643	4643	4643	4643	4643	4643	4643	4643	4643	4706	4643	4643	4643	4706	4643	4643	4643	4706	4706	4706	4643	4706	4706	4706	4706	4706	4706	4771	4838	4838	4838	7959	7959	7959	8146	8146	8146	8146	8146	8146	8146	8343	8146	8146	8146	8146	8146	8146	8146	7959	7959	7959	7959	7959	7959	7779	7779	8146	8146	8146	8146	0	0	0	0	0	0	0	0	7779	7779	7959	8146	8146	8146	8343	8343	8146	8146	8146	8146	7959	8146	7959	7959	7959	7959	7959	7959	7959	8146	7959	8146	8146	8146	8146	8146	8146	8146	8146	8146	8146	8146	7959	7959	7959	8146	8146	8146	7959	7959	0	0	0	0	0	0	2917	2917	2917	2917	2893	2893	2893	2869	2869	2917	2917	2917	2917	2942	2942	2917	2917	2917	2917	2893	2917	2917	2917	2893	2893	2893	2893	2893	2893	2893	2917	2917	2917	2917	2942	2942	2917	2917	2942	2942	2942	2942	2942	2942	2942	2942	2942	2917	2917	2917	2917	2917	2917	2942	2942	2917	2917	2917	2917	2917	2917	2917	2942	2942	2942	2942	2942	2942	2942	2942	2942	2967	2967	2967	2967	2967	2942	2942	2942	2942	2942	2942	2917	2917	4706	4706	4706	4706	4706	4706	4706	4706	4706	4706	4706	4706	4706	4706	4706	4706	4706	4706	4706	4706	4706	4706	4706	4706	4771	4706	4771	4771	4771	4771	4771	4771	4771	4771	4771	4706	4706	4706	4706	4706	4706	4706	4706	4706	4706	4706	4706	4706	4706	4771	4771	4771	4771	4771	4771	4771	4771	4771	4771	4771	4771	4771	4771	4706	4771	4771	4706	4706	4771	4771	4771	4771	4706	4706	4706	4706	4706	4706	4706	4706	4643	4643	4643	4706	4706	4706	4771	4771	4643	4581	4581	4521	4521	4521	4521	4521	4521	4581	4581	4581	4581	4581	4581	4581	4581	4581	4581	4581	4581	4581	4581	4581	4581	4643	4643	4581	4643	4643	4706	4706	4706	4771	4771	4771	4838	4771	4771	4771	4771	4771	4771	4771	4771	4706	4706	4643	4643	4643	4643	4643	4706	4706	4706	4706	4706	4706	4706	4706	4771	4771	4771	4771	4771	4771	4771	4771	4771	4771	4706	4706	4706	4706	4706	4706	4643	4706	4706	4706	4643	4706	4706	4706	4706	4771	4838	4771	4771	4771	4706	4838	4771	4771	4771	8146	8146	8146	8146	8146	8146	8146	8146	8146	8146	8146	8146	8343	8146	8146	8146	8146	8146	8146	8146	7959	8146	8146	8146	8146	8146	7959	7959	8146	8146	8146	8146	8146	8146	8146	8146	8146	8146	8146	8146	8146	8146	8146	8146	8146	8146	8146	8146	8146	8146	8146	8146	8146	8146	8146	8146	8146	8146	8146	8146	8146	8146	8146	8146	8146	8146	8146	8146	8146	8146	8146	8146	8343	8343	0	0	0	0	0	0	0	0	2609	2609	2609	2589	2589	2589	2551	2551	2532	2514	2514	2496	2496	2496	2478	2460	2443	2443	2443	2426	2426	2426	2409	2392	2392	2392	2392	2376	2376	2376	2343	2343	2327	2327	2312	2312	2297	2281	2266	2266	2266	2266	2252	2252	0	0	0	0	0	0	0	0	0	0	0	0	0	0	0	0	0	0	0	0	0	0	0	0	0	0	0	0	0	0	0	0	0	0	0	0
0	0	0	0	0	0	0	0	1033	1036	1039	1039	1042	1042	1042	1042	1045	1045	1045	1045	1045	0	0	0	0	0	0	0	0	0	4771	4706	4706	4643	4643	4643	4581	4581	4581	4643	4581	4643	4643	4706	4706	4643	4643	4706	4643	4643	4581	4643	4643	4643	4643	4581	4643	4581	4581	4581	4581	4581	4581	4581	4581	4581	4643	4643	4643	4643	4706	4643	4643	4643	4581	4643	4643	4581	4581	4581	4581	4581	4581	4581	4581	4581	4643	4643	4643	4643	4706	4643	4643	4643	4643	4643	4643	4643	4643	4643	4706	4706	4643	4706	4643	4643	4643	4706	4643	4643	4643	4706	4706	4706	4643	4706	4706	4706	4706	4706	4771	4838	4906	4906	7959	7959	7959	7959	7959	8146	8146	8146	8146	8343	8146	8343	8146	8146	8146	8146	8146	8146	7959	7959	7959	7959	7959	7959	7959	7779	7779	0	0	0	0	0	0	0	0	0	0	0	0	0	0	0	0	8146	8343	8343	8343	8146	8146	8146	8146	7959	7959	7959	7959	7959	7959	8146	8146	8146	8146	8146	8146	8146	8146	8146	8146	8146	8146	8146	7959	8146	8146	7959	7959	7959	7959	7959	7959	7779	7779	0	0	0	0	0	0	0	2917	2917	0	2893	2893	2893	2869	2869	2917	2917	2917	2917	2917	2942	2917	2917	2917	2893	2893	2893	2893	2893	2893	2893	2893	2893	2893	2893	2893	2893	2917	2917	2917	2917	2942	2917	2917	2917	2942	2942	2942	2942	2942	2942	2942	2942	2917	2942	2917	2917	2917	2917	2917	2917	2917	2942	2942	2917	2917	2942	2917	2942	2942	2942	2942	2942	2942	2942	2942	2942	2967	2967	2967	2967	2967	2942	2942	2942	2942	2942	2942	2942	4706	4706	4706	4706	4706	4706	4706	4706	4706	4706	4706	4706	4706	4706	4706	4706	4706	4706	4706	4706	4706	4706	4771	4706	4706	4771	4706	4771	4771	4771	4771	4771	4771	4771	4771	4771	4706	4706	4706	4706	4771	4706	4706	4706	4706	4706	4706	4706	4706	4706	4771	4771	4771	4771	4771	4771	4771	4706	4771	4706	4771	4706	4706	4706	4706	4706	4706	4706	4706	4706	4706	4706	4706	4706	4706	4706	4643	4581	4581	4581	4581	4643	4581	4643	4643	4643	4643	4643	4643	4581	4581	4581	4521	4521	4521	4521	4521	4521	4581	4581	4581	4581	4581	4581	4581	4581	4581	4581	4581	4581	4581	4581	4581	4581	4581	4643	4581	4581	4643	4706	4706	4643	4643	4771	4771	4771	4643	4706	4706	4706	4706	4706	4706	4706	4643	4643	4643	4643	4643	4643	4643	4643	4643	4706	4706	4706	4706	4706	4706	4706	4771	4706	4771	4771	4771	4771	4706	4706	4771	4706	4706	4706	4706	4706	4706	4643	4706	4706	4706	4706	4706	4706	4706	4771	4771	4771	4838	4906	4838	4838	4906	4838	4838	4906	4906	4906	8146	8146	8146	8146	8146	8146	8146	8146	8146	8146	8146	8146	8146	8146	8146	8146	8146	8146	8146	8146	8146	8146	7959	8146	7959	7959	8146	7959	8146	8146	8146	8146	8146	8146	8146	8146	8146	8146	8146	8146	8146	8146	8146	8146	8146	8146	8146	8146	8146	8146	8146	8146	8146	8146	8146	8146	8343	8146	8146	8146	8146	8146	8146	8146	8146	8146	8146	8146	8146	8343	8343	8550	8550	0	0	0	0	0	0	0	2609	2609	2609	2589	2570	2570	2551	2532	2532	2514	2514	2514	2496	2496	2478	2460	2443	2443	2426	2426	2409	2426	2392	2392	2392	2392	2376	2376	2376	2359	2343	2343	2327	2327	2312	2312	2312	2297	2297	2281	2266	2266	2252	2252	0	0	0	0	0	0	0	0	0	0	0	0	0	0	0	0	0	0	0	0	0	0	0	0	0	0	0	0	0	0	0	0	0	0	0	0
0	0	0	0	0	0	0	0	1030	1036	1036	1039	1039	1042	1042	1045	1045	1045	1045	1045	1045	0	0	0	0	0	0	0	0	0	4771	4706	4706	4643	4643	4643	4581	4581	4581	4643	4643	4643	4706	4706	4706	4643	4643	4643	4643	4643	4581	4581	4581	4581	4581	4581	4581	4581	4581	4581	4581	4581	4581	4581	4581	4581	4643	4643	4643	4643	4706	4706	4643	4643	4643	4643	4643	4581	4581	4581	4581	4581	4581	4581	4581	4581	4643	4643	4643	4706	4706	4643	4643	4643	4643	4643	4643	4643	4643	4643	4706	4706	4643	4706	4643	4643	4706	4706	4643	4643	4643	4706	4706	4706	4706	4706	4706	4771	4771	4838	4838	4838	4906	4906	7959	7959	7959	7959	8146	8146	8146	8146	8146	8146	8146	8146	8146	8146	8146	8146	8146	7959	7959	7959	7959	8146	7959	7959	7959	0	0	0	0	0	0	0	0	0	0	0	0	0	0	0	0	0	0	0	8343	8343	8146	8146	8146	7959	7959	7959	7959	7959	7959	7959	7959	7959	8146	8146	8146	8146	8146	8146	8146	8146	8146	8146	8146	8146	7959	8146	8146	8146	8146	7959	7959	8146	7959	7959	7959	7779	7779	7779	0	0	0	0	0	0	0	0	0	0	0	0	0	0	0	2917	2917	2942	2917	2917	2917	2917	2917	2893	2893	2893	2893	2893	2893	2893	2893	2893	2893	2893	2917	2917	2917	2917	2942	2917	2917	2917	2942	2942	2942	2942	2942	2942	2942	2942	2942	2942	2917	2917	2917	2917	2942	2942	2917	2942	2942	2942	2942	2942	2942	2942	2942	2942	2942	2942	2942	2942	2967	2967	2967	2967	2967	2967	2967	2942	2942	2942	2917	2917	2917	2942	4706	4706	4706	4706	4706	4706	4706	4706	4706	4706	4706	4706	4706	4706	4706	4706	4706	4706	4706	4706	4706	4706	4706	4771	4771	4771	4771	4771	4771	4771	4771	4771	4771	4771	4771	4771	4771	4706	4706	4706	4706	4706	4706	4706	4706	4706	4706	4706	4706	4706	4771	4771	4771	4771	4771	4771	4771	4706	4706	4706	4706	4706	4706	4643	4643	4643	4643	4643	4643	4643	4706	4643	4643	4643	4581	4581	4581	4581	4581	4581	4581	4581	4581	4581	4581	4581	4581	4581	4643	4581	4581	4581	4521	4521	4521	4521	4521	4521	4643	4581	4581	4581	4581	4581	4581	4581	4581	4581	4581	4581	4581	4581	4581	4581	4581	4581	4581	4581	4643	4643	4706	4643	4581	4581	4706	4643	4581	4643	4643	4643	4643	4643	4643	4643	4643	4643	4581	4643	4643	4643	4643	4643	4643	4706	4643	4643	4706	4706	4706	4706	4706	4706	4706	4771	4771	4706	4706	4706	4771	4706	4706	4706	4706	4706	4706	4706	4706	4706	4706	4706	4706	4771	4706	4771	4771	4906	4906	4906	4906	4838	4906	4838	4838	4906	4906	4906	8146	8146	8146	8146	8146	8146	8146	8146	8146	8146	8146	8146	8146	8146	8146	8146	8146	8146	8146	8146	8146	8146	7959	7959	7959	7959	8146	7959	8146	8146	8146	8146	8146	8146	8146	8343	8343	8146	8146	8146	8146	8146	8146	8146	8146	8146	8146	8343	8146	8146	8146	8343	8146	8146	8146	8146	8343	8146	8146	8146	8146	8146	8146	8146	8146	8146	8146	8146	8146	8343	8343	8343	8343	0	0	0	0	0	0	0	0	2609	2609	2609	2589	2570	2551	2532	2532	2514	2514	2514	2496	2496	2478	2460	2443	2443	2426	2426	2426	2426	2409	2392	2392	2392	2376	2376	2376	2359	2327	2327	2327	2312	2312	2312	2297	2297	2297	2281	2266	2266	2252	2252	0	0	0	0	0	0	0	0	0	0	0	0	0	0	0	0	0	0	0	0	0	0	0	0	0	0	0	0	0	0	0	0	0	0	0	0
0	0	0	0	0	0	0	0	1030	1033	1033	1036	1039	1042	1042	1048	1048	1048	1048	1048	1045	0	0	0	0	0	0	0	0	4771	4771	4771	4706	4706	4643	4643	4643	4643	4643	4643	4643	4643	4706	4706	4706	4643	4643	4643	4643	4581	4581	4581	4581	4581	4643	4581	4643	4581	4581	4581	4581	4581	4581	4581	4581	4581	4643	4643	4643	4643	4706	4643	4643	4643	4581	4643	4581	4643	4581	4581	4581	4581	4581	4581	4581	4581	4643	4706	4706	4706	4706	4706	4706	4643	4643	4643	4643	4643	4643	4643	4706	4706	4706	4706	4643	4643	4706	4706	4706	4643	4643	4706	4771	4706	4706	4771	4771	4771	4838	4838	4906	4838	4906	4906	4906	7959	7959	7959	7959	7959	8146	8146	8146	8146	8146	8146	8146	8146	8146	8146	8146	7959	7959	7959	7959	8146	8146	7959	0	0	0	0	0	0	0	0	0	0	0	0	0	0	0	0	0	0	0	0	8343	8343	8146	8146	8146	7959	7959	7959	7959	7959	7959	7959	7959	8146	8146	8146	8146	8146	8146	8146	8146	8146	8146	8146	8146	8146	7959	7959	7959	7959	8146	8146	8146	8146	8146	7959	7959	7779	7779	7779	7779	7779	7959	7959	7959	7959	0	0	0	0	0	0	0	0	0	2942	2917	2917	2917	2917	2917	2893	2893	2893	2893	2893	2893	2893	2893	2869	2893	2893	2893	2893	2917	2917	2917	2917	2917	2917	2917	2917	2942	2942	2942	2942	2942	2942	2942	2942	2942	2942	2917	2917	2917	2917	2942	2942	2917	2942	2942	2942	2942	2942	2942	2942	2942	2942	2942	2942	2942	2942	2967	2967	2967	2967	2967	2967	2967	2942	2942	2917	2917	2917	2917	0	4771	4706	4706	4706	4706	4706	4706	4706	4706	4706	4706	4706	4706	4706	4706	4706	4706	4706	4706	4706	4706	4706	4771	4771	4771	4771	4771	4771	4771	4771	4771	4771	4771	4771	4771	4771	4771	4706	4706	4706	4706	4706	4706	4706	4706	4706	4706	4706	4706	4706	4771	4771	4771	4706	4771	4771	4706	4706	4706	4643	4706	4643	4643	4581	4581	4581	4581	4581	4521	4581	4581	4581	4581	4581	4581	4581	4581	4581	4581	4521	4521	4521	4521	4521	4581	4581	4581	4581	4581	4581	4581	4521	4521	4521	4521	4521	4521	4521	4643	4581	4581	4581	4581	4581	4581	4581	4581	4581	4581	4581	4581	4581	4581	4581	4581	4643	4581	4643	4643	4643	4643	4643	4581	4643	4643	4581	4581	4581	4581	4581	4581	4581	4581	4581	4581	4581	4581	4581	4643	4643	4643	4643	4643	4643	4643	4643	4643	4643	4643	4643	4643	4643	4706	4706	4706	4643	4643	4643	4643	4643	4643	4643	4643	4643	4771	4706	4706	4706	4771	4706	4771	4771	4771	4771	4771	4906	4906	4906	4906	4838	4906	4906	4838	4906	4906	4906	8146	8146	8146	8146	8146	8146	8146	8146	8146	8146	8146	8146	8146	8146	8146	8146	8146	8146	8146	8146	8146	7959	7959	8146	7959	8146	8146	8146	8146	8146	8146	8146	8146	8146	8146	8343	8343	8146	8146	8146	8146	8146	8146	8146	8146	8146	8146	8343	8146	8146	8146	7959	8146	8146	8146	8146	8146	8146	8146	8146	8146	8146	8146	8146	8146	8146	8146	8343	8343	8343	8343	8343	8343	8343	0	0	0	0	0	0	0	2609	2609	2589	2589	2570	2551	2532	2532	2532	2514	2514	2514	2496	2478	2478	2443	2443	2426	2426	2409	2409	2409	2392	2392	2392	2392	2376	2376	2376	2343	2327	2327	2312	2312	2312	2297	2297	2281	2281	2266	2266	2252	2252	0	0	0	0	0	0	0	0	0	0	0	0	0	0	0	0	0	0	0	0	0	0	0	0	0	0	0	0	0	0	0	0	0	0	0	0
0	0	0	0	0	0	0	0	1030	1030	1033	1036	1039	1039	1042	1045	1048	1048	1048	1048	0	0	0	0	0	0	0	0	0	4771	4771	4706	4706	4643	4643	4643	4643	4643	4643	4706	4643	4643	4643	4706	4706	4706	4643	4643	4643	4643	4643	4643	4581	4581	4643	4581	4643	4581	4581	4581	4581	4581	4581	4581	4581	4581	4643	4643	4643	4643	4643	4643	4643	4581	4581	4581	4581	4581	4581	4581	4581	4581	4581	4581	4581	4581	4706	4706	4706	4706	4706	4643	4643	4643	4643	4643	4643	4643	4643	4643	4706	4706	4706	4706	4706	4706	4706	4771	4706	4643	4643	4706	4706	4706	4706	4706	4771	4771	4771	4771	4771	4771	4906	4906	4906	7959	7959	7959	7959	7959	8146	8146	8146	8146	8146	8146	8146	8146	8146	8146	8146	7959	7959	7959	7959	8146	8146	0	0	0	0	0	0	0	0	0	0	0	0	0	0	0	0	0	0	0	0	0	8343	8343	8146	8146	8146	7959	7959	7959	7959	7959	7959	7959	8146	8146	8146	8146	8146	8146	8146	8146	8146	8146	7959	7959	7959	7959	7959	7959	8146	8146	8146	8146	8146	8146	7959	7959	7959	7779	7779	7779	7779	7779	7959	7959	7959	7959	0	0	0	0	0	0	0	0	0	2942	2917	2917	2917	2917	2917	2917	2893	2893	2869	2893	2893	2869	2869	2869	2893	2893	2893	2893	2917	2917	2917	2917	2917	2917	2917	2917	2917	2917	2942	2942	2942	2942	2942	2942	2942	2942	2917	2917	2917	2917	2917	2917	2917	2942	2942	2917	2917	2917	2917	2942	2942	2917	2942	2942	2942	2942	2967	2967	2967	2967	2967	2993	2967	2942	2942	2917	2917	2917	2917	4771	4771	4771	4706	4706	4706	4706	4706	4706	4706	4706	4706	4706	4706	4706	4706	4706	4706	4706	4706	4706	4706	4706	4771	4771	4771	4771	4771	4771	4771	4771	4771	4771	4771	4771	4771	4771	4771	4706	4706	4706	4706	4706	4706	4706	4706	4706	4706	4706	4706	4706	4771	4771	4771	4706	4771	4706	4706	4643	4643	4643	4643	4581	4581	4521	4521	4521	4521	4521	4521	4521	4581	4581	4581	4581	4581	4521	4521	4521	4521	4521	4463	4521	4521	4521	4521	4521	4521	4521	4521	4521	4521	4521	4521	4521	4521	4521	4521	4521	4581	4581	4581	4581	4581	4581	4581	4581	4581	4581	4581	4581	4581	4581	4581	4581	4581	4581	4581	4581	4643	4643	4643	4643	4581	4581	4643	4581	4581	4581	4581	4581	4581	4521	4521	4581	4521	4581	4581	4581	4643	4643	4643	4643	4643	4643	4581	4581	4581	4581	4581	4581	4643	4643	4643	4643	4643	4643	4581	4581	4643	4581	4581	4643	4643	4643	4706	4706	4771	4771	4771	4771	4771	4771	4771	4771	4771	4906	4906	4906	4906	4838	4838	4838	4771	4838	4838	4838	8146	8146	8146	8146	8146	8146	8146	8146	8146	8146	8146	8146	7959	8146	8146	8146	8146	8146	8146	8146	8146	8146	8146	8146	8146	8146	8146	8146	8146	8146	8146	8146	8146	8146	8146	8146	8343	8146	8146	8146	8146	8146	8146	8146	8146	8146	8146	8343	8343	8146	8146	8146	8146	8146	8146	8146	8146	8146	8146	8146	8146	8146	8146	8146	8146	8146	8146	8146	8343	8343	8343	8550	8343	8343	0	0	0	0	0	0	0	2589	2589	2589	2570	2570	2551	2532	2532	2532	2514	2514	2514	2496	2496	2478	2460	2443	2426	2426	2426	2426	2409	2392	2392	2392	2392	2376	2376	2343	2327	2327	2327	2312	2312	2297	2297	2297	2281	2266	2266	2252	2252	2252	0	0	0	0	0	0	0	0	0	0	0	0	0	0	0	0	0	0	0	0	0	0	0	0	0	0	0	0	0	0	0	0	0	0	0	0
0	0	0	0	0	0	0	0	1026	1030	1033	1036	1039	1039	1042	1045	1045	1048	1048	0	0	0	0	0	0	0	0	0	0	4838	4771	4771	4706	4706	4643	4643	4581	4581	4643	4643	4643	4643	4643	4706	4706	4706	4643	4643	4643	4643	4581	4581	4581	4581	4581	4581	4643	4581	4581	4581	4581	4581	4581	4581	4581	4581	4643	4581	4581	4581	4643	4581	4581	4581	4581	4581	4581	4581	4581	4581	4581	4581	4581	4581	4581	4581	4643	4643	4643	4706	4706	4643	4643	4643	4706	4706	4706	4643	4706	4643	4706	4706	4706	4706	4706	4706	4706	4706	4706	4643	4643	4643	4706	4643	4643	4643	4706	4706	4771	4771	4706	4706	4906	4906	4906	7959	7959	7959	7959	7959	8146	7959	7959	7959	7959	8146	8146	8146	8146	8146	8146	8146	7959	7959	7959	0	0	0	0	0	0	0	0	0	0	0	0	0	0	0	0	0	0	0	0	0	0	0	8343	8343	8146	8146	7959	7959	7959	7959	7959	7959	7959	7959	8146	8146	8146	8146	8146	8146	8146	8146	8146	7959	7959	7959	7959	7959	7959	7959	7959	8146	8146	7959	7959	7959	7959	7959	7959	7959	7959	7959	7959	7959	7959	8146	7959	8146	8146	0	0	0	0	0	0	0	0	2942	2917	2917	2917	2917	2917	2893	2893	2893	2869	2893	2893	2869	2869	2869	2893	2893	2893	2893	2893	2893	2893	2917	2917	2917	2917	2917	2917	2917	2942	2942	2942	2942	2942	2942	2942	2942	2942	2917	2917	2917	2917	2917	2917	2917	2942	2917	2917	2917	2917	2942	2917	2917	2942	2942	2942	2942	2942	2942	2967	2967	2967	2967	2967	2942	2967	2967	2967	2917	0	4771	4771	4706	4706	4706	4706	4706	4706	4706	4706	4706	4706	4706	4706	4706	4706	4706	4706	4706	4706	4706	4706	4706	4771	4771	4771	4771	4771	4771	4771	4771	4771	4771	4771	4771	4771	4771	4771	4706	4706	4706	4706	4706	4706	4706	4706	4706	4706	4706	4706	4706	4771	4771	4771	4706	4706	4706	4706	4643	4581	4521	4521	4521	4463	4463	4463	4463	4463	4463	4521	4521	4521	4521	4521	4521	4521	4521	4521	4521	4463	4463	4463	4463	4463	4463	4463	4521	4521	4521	4521	4521	4521	4521	4521	4463	4521	4463	4463	4521	4581	4581	4581	4581	4581	4581	4581	4581	4581	4581	4581	4581	4581	4581	4581	4581	4581	4581	4581	4581	4643	4643	4581	4581	4581	4581	4581	4521	4521	4521	4581	4581	4521	4521	4521	4521	4521	4581	4521	4581	4581	4581	4581	4581	4581	4581	4581	4581	4581	4581	4581	4581	4581	4643	4643	4643	4643	4581	4521	4521	4521	4581	4581	4643	4643	4706	4706	4771	4771	4771	4771	4771	4771	4771	4771	4771	4771	4906	4838	4906	4838	4771	4771	4771	4706	4771	4838	4838	8146	8146	8146	8146	8146	8146	8146	8146	8146	8146	7959	7959	7959	7959	7959	7959	8146	8146	8146	8146	8146	8146	8146	8146	8146	8146	8146	8146	8146	7959	8146	8146	8146	8146	8146	8146	8343	8146	8146	8146	8146	8146	8146	8146	8146	8146	8146	8343	8146	8146	8146	7959	8146	8146	8146	8146	8146	8146	8146	8146	8146	8146	8146	8146	8146	8146	8146	8343	8343	8343	8343	8343	8550	8550	0	0	0	0	0	0	0	2589	2589	2589	2570	2551	2551	2532	2532	2532	2514	2514	2514	2496	2478	2478	2443	2443	2426	2426	2409	2409	2409	2392	2392	2392	2376	2376	2376	2343	2327	2327	2327	2312	2312	2297	2297	2297	2297	2281	2266	2266	2252	2252	0	0	0	0	0	0	0	0	0	0	0	0	0	0	0	0	0	0	0	0	0	0	0	0	0	0	0	0	0	0	0	0	0	0	0	0
0	0	0	0	0	0	0	0	1026	1026	1030	1036	1036	1039	1042	1042	1042	1045	1045	0	0	0	0	0	0	0	0	0	0	4838	4771	4771	4706	4643	4643	4581	4581	4643	4643	4643	4643	4643	4643	4706	4706	4706	4706	4643	4643	4643	4643	4643	4581	4581	4643	4581	4643	4581	4581	4581	4581	4581	4581	4581	4581	4581	4581	4581	4643	4581	4643	4581	4581	4581	4581	4581	4581	4581	4581	4581	4581	4581	4581	4581	4581	4643	4643	4643	4643	4706	4706	4643	4643	4643	4643	4706	4643	4643	4643	4643	4643	4643	4643	4706	4643	4643	4643	4643	4643	4643	4643	4643	4643	4643	4643	4643	4706	4706	4706	4771	4706	4706	0	0	0	0	0	0	7959	7959	7959	7959	7959	7959	7959	7959	7959	7959	7959	7959	7959	7959	8146	8146	0	0	0	0	0	0	0	0	0	0	0	0	0	0	0	0	0	0	0	0	0	0	0	0	8343	8343	8146	8146	7959	7959	7959	7959	7959	7959	7959	7959	7959	8146	8146	8146	8146	8146	8146	8146	8146	7959	7959	7959	7959	8146	7959	7959	8146	8146	8146	7959	7959	7959	7959	7959	7959	7959	7959	7959	7959	7959	7959	8146	8146	8146	8146	8146	0	0	0	0	0	0	0	0	2917	2917	2917	2917	2893	2893	2893	2893	2869	2893	2869	2869	2869	2869	2869	2869	2893	2893	2893	2893	2893	2893	2917	2917	2917	2917	2942	2942	2942	2942	2942	2942	2942	2942	2942	2942	2942	2942	2942	2917	2917	2917	2917	2917	2917	2917	2917	2917	2917	2917	2917	2917	2942	2942	2942	2942	2942	2967	2967	2967	2967	2967	2993	2993	2993	2993	2967	4771	4771	4771	4771	4706	4706	4706	4706	4706	4706	4706	4706	4706	4706	4771	4706	4706	4706	4706	4706	4706	4706	4706	4706	4706	4771	4771	4771	4771	4771	4771	4771	4771	4771	4771	4771	4771	4771	4771	4771	4706	4706	4706	4643	4643	4643	4706	4706	4706	4706	4706	4706	4706	4706	4706	4706	4706	4706	4706	4706	4581	4581	4521	4521	4463	4463	4463	4463	4463	4463	4463	4463	4521	4521	4521	4521	4521	4521	4521	4521	4463	4463	4463	4463	4463	4463	4463	4463	4521	4521	4463	4463	4521	4463	4463	4463	4463	4463	4463	4463	4463	4581	4581	4581	4581	4581	4581	4581	4581	4581	4581	4581	4581	4581	4581	4581	4581	4581	4581	4581	4581	4643	4643	4581	4581	4581	4521	4521	4521	4521	4521	4521	4521	4521	4463	4463	4463	4463	4521	4521	4521	4581	4581	4581	4581	4581	4581	4581	4521	4581	4521	4581	4581	4581	4581	4643	4581	4521	4521	4521	4521	4521	4521	4581	4643	4643	4706	4706	4771	4771	4771	4771	4771	4771	4838	4771	4771	4771	4838	4838	4906	4771	4771	4771	4706	4706	4771	4771	4771	8146	8146	8146	8146	8146	8146	8146	8146	8146	8146	8146	8146	8146	7959	8146	8146	8146	8146	8146	8146	8146	8146	8146	8146	8146	8146	8146	8146	7959	7959	7959	8146	8146	8146	8146	8146	8343	8343	8146	8146	8146	8146	8146	8146	8146	8146	8146	8146	8146	8146	8146	7959	8146	8146	8146	8146	8146	8146	8146	8146	8146	8146	8146	8146	8146	8146	8343	8343	8550	8550	8343	8550	8550	8550	0	0	0	0	0	0	2589	2589	2589	2570	2570	2551	2551	2532	2532	2532	2532	2514	2514	2514	2496	2478	2478	2443	2443	2426	2409	2426	2409	2392	2392	2392	2376	2392	2376	2327	2327	2327	2312	2312	2312	2297	2297	2297	2297	2281	2266	2266	2252	2252	0	0	0	0	0	0	0	0	0	0	0	0	0	0	0	0	0	0	0	0	0	0	0	0	0	0	0	0	0	0	0	0	0	0	0	0
0	0	0	0	0	0	0	0	1026	1026	1030	1033	1036	1039	1039	1039	1042	1045	1045	0	0	0	0	0	0	0	0	0	0	4838	4771	4771	4706	4706	4643	4643	4581	4643	4643	4643	4643	4643	4643	4706	4706	4643	4706	4643	4643	4643	4643	4643	4643	4581	4643	4643	4643	4643	4581	4581	4581	4581	4581	4581	4581	4581	4643	4643	4643	4581	4643	4581	4581	4643	4581	4581	4581	4581	4581	4581	4581	4581	4581	4643	4643	4643	4706	4643	4643	4706	4706	4643	4643	4643	4643	4643	4706	4643	4643	4643	4643	4643	4643	4643	4643	4643	4643	4643	4643	4643	4643	4643	4643	4643	4643	4643	4643	4706	4771	4771	4706	4706	0	0	0	0	0	0	6349	7779	7779	7779	7779	7779	7779	7959	7959	7959	6349	6349	6349	7959	8146	8146	0	0	0	0	0	0	0	0	0	0	0	0	0	0	0	0	0	0	0	0	0	0	0	0	8343	8146	8146	8146	7959	7959	7959	7959	7959	7959	7959	7959	8146	8146	8146	8146	8146	8146	8146	8146	8146	7959	7959	7959	8146	8146	8146	8146	8146	8146	8146	7959	7959	7959	7959	7959	7959	7959	7779	7959	7959	7959	7959	8146	8146	8146	8146	8146	8146	8146	0	0	0	0	0	0	2917	2917	2917	2917	2893	2893	2893	2893	2869	2869	2869	2869	2869	2869	2893	2893	2893	2893	2893	2893	2893	2893	2917	2917	2917	2917	2942	2942	2942	2942	2942	2942	2942	2942	2942	2942	2942	2942	2942	2917	2917	2917	2917	2917	2917	2893	2893	2917	2917	2917	2917	2917	2942	2942	2942	2942	2942	2942	2967	2967	2967	2967	2967	2993	2993	2993	0	4771	4771	4706	4643	4706	4706	4706	4706	4706	4706	4706	4706	4706	4706	4771	4771	4706	4706	4706	4706	4706	4706	4706	4706	4706	4771	4771	4771	4771	4771	4771	4771	4771	4771	4771	4771	4771	4771	4771	4771	4706	4706	4706	4706	4643	4643	4706	4706	4706	4706	4771	4771	4706	4706	4706	4706	4706	4706	4706	4643	4581	4521	4521	4521	4463	4463	4463	4463	4463	4463	4463	4463	4521	4521	4521	4521	4521	4521	4521	4521	4463	4463	4463	4463	4463	4521	4463	4521	4521	4521	4463	4463	4463	4463	4463	4406	4406	4463	4463	4463	4521	4581	4581	4581	4581	4581	4581	4581	4581	4581	4581	4581	4581	4581	4581	4581	4581	4581	4581	4581	4581	4581	4581	4581	4581	4521	4521	4521	4463	4463	4463	4521	4521	4521	4463	4463	4463	4463	4463	4463	4521	4581	4581	4581	4581	4581	4581	4521	4521	4521	4521	4521	4521	4521	4521	4581	4581	4521	4463	4463	4463	4521	4463	4521	4643	4706	4771	4771	4771	4771	4771	4771	4771	4771	4838	4771	4771	4771	4906	4838	4906	4771	4771	4771	4771	4706	4771	4771	7959	7959	8146	7959	8146	8146	8146	8146	7959	7959	7959	8146	8146	8146	8146	8146	8146	8146	8146	8146	8146	8146	8146	8146	8146	8146	8146	8146	8146	8146	7959	7959	7959	8146	8146	8146	8146	8343	8343	8146	8146	8146	8146	8146	8146	8146	8146	8146	8146	8146	8146	8146	8146	8146	8146	8146	8146	8146	8146	8343	8343	8146	8146	8146	8146	8146	8146	8343	8343	8550	8550	8550	8550	8550	0	0	0	0	0	0	0	2589	2589	2589	2570	2570	2551	2532	2532	2532	2514	2514	2514	2514	2514	2496	2478	2460	2443	2426	2426	2409	2426	2409	2409	2392	2392	2392	2392	2392	2376	2312	2312	2312	2312	2312	2297	2297	2297	2297	2281	2266	2266	2252	2252	0	0	0	0	0	0	0	0	0	0	0	0	0	0	0	0	0	0	0	0	0	0	0	0	0	0	0	0	0	0	0	0	0	0	0	0
0	0	0	0	0	0	0	0	1023	1026	1026	1036	1036	1039	1039	1042	1042	1045	1042	1042	0	0	0	0	0	0	0	0	0	4838	4771	4771	4771	4706	4643	4643	4643	4643	4643	4643	4643	4643	4643	4643	4643	4643	4643	4643	4643	4643	4706	4643	4581	4581	4643	4643	4643	4643	4581	4581	4581	4581	4581	4581	4581	4581	4643	4643	4643	4581	4643	4581	4581	4581	4581	4581	4581	4581	4581	4581	4581	4581	4581	4581	4581	4581	4643	4643	4643	4706	4706	4643	4643	4643	4643	4643	4643	4643	4643	4643	4643	4706	4643	4643	4643	4643	4643	4706	4643	4643	4643	4643	4643	4643	4643	4643	4643	4706	4706	4771	4706	4706	0	0	0	0	0	0	6349	6349	6349	6853	6853	6992	6992	6349	6349	6349	6349	6349	6349	0	0	0	0	0	0	0	0	0	0	0	0	0	0	0	0	0	0	0	0	0	0	0	0	0	0	0	7959	7959	7959	7959	7959	7959	7959	7959	7959	7959	7959	7959	8146	8146	8146	8146	8146	8146	7959	7959	7959	7959	7779	7959	8146	8146	8146	8146	8146	8146	8146	7959	7959	7959	7959	7959	7959	7959	7779	7779	7959	7959	7959	8146	8146	8146	8146	8146	8146	8146	0	0	0	0	0	0	0	2917	2893	2893	2893	2893	2893	2893	2869	2893	2869	2869	2869	2869	2893	2893	2893	2893	2893	2893	2893	2893	2917	2917	2917	2917	2942	2942	2942	2942	2942	2942	2942	2942	2942	2942	2942	2942	2942	2917	2917	2917	2917	2917	2917	2917	2917	2917	2917	2917	2942	2917	2942	2942	2942	2942	2942	2942	2967	2967	2967	2967	2967	2993	0	0	0	0	0	4706	4706	4643	4706	4706	4706	4706	4706	4706	4706	4706	4706	4771	4771	4706	4706	4706	4706	4706	4706	4706	4706	4706	4771	4771	4771	4771	4771	4771	4771	4771	4771	4771	4771	4771	4771	4771	4706	4706	4706	4643	4643	4643	4643	4643	4643	4581	4581	4643	4706	4643	4771	4771	4706	4706	4643	4643	4581	4521	4521	4521	4463	4463	4463	4463	4463	4463	4463	4463	4463	4463	4463	4463	4463	4521	4521	4463	4463	4463	4463	4463	4463	4463	4463	4463	4521	4521	4463	4463	4463	4463	4463	4463	4406	4406	4463	4406	4406	4463	4463	4581	4581	4581	4581	4581	4581	4581	4581	4581	4521	4521	4581	4521	4521	4581	4581	4581	4581	4581	4581	4581	4581	4521	4521	4463	4521	4463	4463	4463	4463	4521	4463	4463	4463	4463	4463	4521	4521	4521	4521	4521	4521	4521	4581	4581	4521	4521	4521	4521	4521	4581	4581	4581	4581	4581	4521	4521	4521	4463	4521	4463	4521	4581	4706	4771	4706	4771	4771	4771	4643	4643	4706	4771	4706	4706	4706	4771	4771	4771	4771	4706	4706	4706	4706	4706	4706	8146	8146	8146	8146	8146	8146	8146	8146	7959	8146	8146	8146	8146	8146	8146	8146	8146	8146	8146	8146	8146	8146	8146	8146	8146	8146	8146	8146	8146	8146	8146	7959	8146	7959	8146	8146	8146	8343	8343	8146	8146	8146	8146	8146	8146	8146	8146	8146	8146	8146	8146	8146	8146	8146	8146	8146	8146	8146	8146	8343	8146	8146	8146	8146	8146	8146	8146	8146	8343	8343	8343	8343	0	0	0	0	0	0	0	0	0	2589	2589	2589	2570	2551	2551	2532	2532	2532	2514	2514	2514	2514	2514	2496	2496	2460	2460	2443	2443	2426	2426	2426	2426	2409	2409	2392	2392	2376	2359	2327	2327	2312	2312	2312	2312	2297	2297	2297	2266	2266	2266	2252	2252	0	0	0	0	0	0	0	0	0	0	0	0	0	0	0	0	0	0	0	0	0	0	0	0	0	0	0	0	0	0	0	0	0	0	0	0
0	0	0	0	0	0	0	0	1026	1030	1033	1036	1039	1039	1039	1039	1039	1042	1042	1042	0	0	0	0	0	0	0	0	0	0	4838	4771	4706	4706	4643	4643	4643	4643	4643	4643	4643	4643	4643	4643	4706	4706	4706	4643	4643	4706	4706	4706	4643	4643	4706	4643	4643	4643	4581	4581	4581	4581	4581	4581	4581	4581	4581	4643	4643	4581	4643	4581	4643	4581	4581	4581	4581	4581	4581	4581	4581	4581	4581	4643	4643	4643	4706	4706	4643	4643	4706	4643	4643	4643	4643	4643	4771	4706	4706	4643	4706	4706	4706	4706	4643	4643	4643	4643	4643	4643	4643	4581	4643	4643	4643	4643	4643	4706	4706	4771	4706	4706	0	0	0	6349	6349	6349	6349	6349	6349	6468	6468	6468	6468	6349	6349	6349	6349	6349	6235	6349	6349	0	0	0	0	0	0	0	0	5202	5202	5125	5125	0	0	0	0	0	0	0	0	0	0	0	0	0	7959	7959	7959	7959	7959	7959	7959	7959	7959	7959	7959	8146	8146	8146	8146	7959	7959	7959	7959	7959	7959	7959	7779	7959	8146	8146	8146	7959	8146	8146	8146	7959	7959	7959	7959	7959	7959	7959	7779	7779	7779	7959	7959	7959	7959	7959	7959	8146	8146	8146	8146	0	0	0	0	0	0	2893	2893	2917	2893	2893	2869	2869	2869	2893	2869	2869	2869	2869	2893	2893	2893	2893	2893	2893	2893	2893	2917	2917	2917	2942	2942	2942	2942	2942	2942	2942	2942	2942	2942	2942	2942	2942	2917	2917	2917	2917	2917	2917	2917	2917	2917	2917	2917	2917	2942	2942	2942	2942	2942	2942	2942	2942	2967	2967	2967	2993	2993	2993	0	0	0	0	0	4706	4706	4771	4771	4706	4706	4706	4706	4706	4706	4706	4706	4771	4771	4706	4706	4706	4706	4706	4706	4706	4706	4706	4771	4771	4771	4771	4771	4771	4771	4771	4771	4771	4771	4771	4771	4771	4706	4706	4643	4643	4643	4581	4581	4581	4581	4581	4581	4581	4643	4643	4643	4643	4643	4643	4643	4581	4581	4521	4521	4463	4463	4463	4463	4463	4463	4463	4406	4406	4463	4463	4463	4463	4463	4463	4521	4463	4463	4463	4463	4463	4463	4406	4463	4463	4463	4463	4463	4463	4463	4463	4463	4406	4406	4350	4350	4350	4406	4406	4521	4581	4521	4581	4581	4581	4581	4521	4521	4521	4521	4521	4521	4521	4521	4521	4521	4521	4581	4581	4581	4581	4581	4521	4463	4463	4521	4463	4463	4463	4463	4463	4463	4463	4463	4463	4463	4463	4463	4521	4521	4521	4521	4521	4521	4521	4521	4521	4521	4581	4581	4581	4581	4581	4581	4581	4521	4521	4521	4463	4521	4463	4463	4581	4643	4706	4706	4706	4706	4643	4581	4581	4643	4643	4643	4643	4643	4706	4771	4771	4706	4706	4706	4706	4706	4706	4706	8146	8146	8146	8146	8146	8146	7959	8146	8146	8146	8146	8146	8146	8146	8146	8146	8146	8146	7959	7959	8146	8146	8146	8343	8146	8146	8343	8146	8146	8146	7959	7959	7959	8146	8146	8343	8343	8343	8343	8343	8146	8146	8146	8146	8146	8146	7959	8146	8146	8146	8146	8146	8146	8146	8343	8343	8343	8343	8146	8343	8146	8146	8146	8146	8146	8146	8146	8343	8343	8550	8550	8343	0	0	0	0	0	0	0	0	0	2589	2589	2589	2570	2570	2551	2532	2532	2532	2514	2514	2514	2514	2514	2496	2496	2460	2460	2443	2443	2426	2426	2426	2409	2409	2392	2392	2392	2376	2359	2327	2327	2312	2312	2312	2312	2297	2297	2297	2266	2266	2266	2252	2252	0	0	0	0	0	0	0	0	0	0	0	0	0	0	0	0	0	0	0	0	0	0	0	0	0	0	0	0	0	0	0	0	0	0	0	0
0	0	0	0	0	0	0	0	1023	1030	1033	1036	1039	1036	1039	1039	1039	1039	1039	1039	0	0	0	0	0	0	0	0	0	0	4838	4771	4706	4706	4643	4643	4643	4643	4643	4643	4643	4643	4643	4643	4643	4706	4706	4643	4643	4706	4706	4706	4643	4643	4643	4643	4643	4581	4581	4581	4581	4581	4581	4581	4581	4581	4581	4581	4581	4581	4643	4581	4581	4581	4581	4581	4581	4581	4581	4581	4581	4581	4581	4581	4643	4643	4643	4643	4643	4643	4706	4643	4643	4643	4643	4643	4706	4706	4706	4706	4706	4706	4706	4706	4643	4643	4643	4643	4643	4643	4643	4643	4643	4643	4643	4643	4643	4643	4706	4706	4643	4643	0	0	6349	6349	6349	6235	6349	6349	6349	6349	6349	6349	6349	6349	6349	6349	6349	6349	6235	6235	6349	6349	0	0	0	0	0	0	0	5202	5202	5125	5050	5050	5050	5125	5125	5125	5125	5202	5282	5202	5282	5282	0	0	0	8146	7959	7959	7959	7959	7959	7959	7959	7959	7959	7959	8146	8146	7959	7959	7959	7959	7959	7959	7959	7779	7779	7959	7959	7959	7959	7959	8146	8146	7959	7959	7959	7959	7959	7959	7959	7959	7779	7779	7779	7959	7959	7959	7959	7959	7959	7959	7959	7959	7959	7959	0	0	0	0	0	2917	2917	2917	2917	2893	2893	2893	2869	2893	2893	2869	2893	2869	2893	2893	2893	2893	2893	2893	2893	2917	2917	2917	2917	2942	2942	2942	2942	2942	2942	2942	2942	2942	2942	2942	2942	2942	2942	2917	2917	2917	2917	2917	2917	2917	2917	2917	2917	2917	2917	2917	2942	2942	2942	2942	2942	2967	2967	2967	2967	2993	2993	0	0	0	0	0	0	4521	4581	4581	4771	4706	4706	4706	4706	4706	4706	4706	4706	4771	4771	4706	4706	4706	4706	4706	4706	4706	4706	4706	4771	4771	4771	4771	4771	4771	4771	4771	4771	4771	4771	4771	4771	4643	4643	4706	4643	4581	4581	4521	4521	4521	4521	4521	4521	4581	4581	4581	4581	4581	4581	4581	4581	4581	4521	4463	4463	4463	4463	4463	4406	4406	4463	4463	4406	4406	4463	4463	4463	4463	4463	4463	4463	4463	4463	4406	4406	4406	4406	4406	4463	4463	4463	4463	4463	4406	4406	4406	4406	4350	4350	4350	4350	4350	4406	4406	4521	4581	4521	4581	4581	4581	4581	4521	4521	4521	4521	4521	4521	4521	4521	4521	4581	4521	4521	4581	4581	4521	4521	4463	4463	4463	4463	4406	4463	4463	4463	4463	4463	4463	4463	4463	4463	4463	4463	4463	4463	4463	4521	4521	4521	4521	4521	4521	4521	4581	4581	4581	4581	4581	4581	4581	4521	4463	4463	4463	4521	4463	4463	4581	4643	4706	4643	4706	4643	4643	4581	4581	4581	4581	4643	4581	4581	4706	4706	4706	4706	4706	4643	4643	4643	4706	4706	8146	8146	8146	8146	8146	8146	8146	7959	7959	8146	8146	8146	8146	8146	8146	8146	8146	8146	8146	8146	8146	8146	8146	8343	8146	8146	8343	8146	8146	8146	8146	7959	7959	8146	8146	8343	8343	8343	8343	8146	8146	8146	8146	8146	8146	8146	8146	8146	8146	8146	8146	8146	8146	8146	8343	8343	8343	8146	8146	8146	8146	8146	8146	8146	8146	8146	8146	8343	8550	8343	8343	0	0	0	0	0	0	0	0	0	0	2589	2570	2589	2570	2570	2551	2532	2532	2532	2514	2514	2532	2532	2514	2514	2514	2460	2443	2443	2443	2426	2426	2426	2409	2409	2392	2392	2392	2376	2376	2327	2327	2312	2312	2312	2312	2297	2297	2297	2281	2266	2252	2252	2252	0	0	0	0	0	0	0	0	0	0	0	0	0	0	0	0	0	0	0	0	0	0	0	0	0	0	0	0	0	0	0	0	0	0	0	0
0	0	0	0	0	0	0	0	1020	1030	1033	1036	1039	1039	1039	1039	1039	1039	1039	1039	0	0	0	0	0	0	0	0	0	0	4838	4771	4706	4706	4643	4643	4643	4643	4643	4643	4643	4643	4643	4643	4643	4643	4706	4643	4643	4706	4706	4706	4643	4643	4706	4706	4706	4643	4581	4581	4581	4581	4581	4581	4581	4581	4581	4643	4643	4581	4643	4581	4643	4581	4581	4581	4581	4581	4581	4581	4581	4581	4581	4643	4643	4581	4643	4643	4643	4643	4706	4706	4643	4706	4643	4643	4771	4706	4706	4643	4706	4706	4643	4643	4643	4643	4643	4643	4643	4643	4643	4581	4643	4643	4643	4643	4643	4643	4706	4706	4643	4643	4643	6349	6349	6349	6349	6235	6235	6349	6349	6349	6349	6349	6349	6349	6349	6349	6349	6349	6349	6235	6349	6235	6235	0	0	0	0	5282	5282	5202	5202	5125	5125	5125	5125	5125	5125	5125	5202	5202	5282	5282	5282	5282	0	0	0	7959	7959	7959	8146	7959	7959	7959	7959	7959	7959	7959	7959	8146	7959	7959	7959	7959	7779	7779	7779	7779	7779	7959	8146	8146	8146	8146	8146	8146	8146	7959	7959	7959	7779	7779	7779	7779	7779	7959	7959	7959	7959	7959	7959	7779	7779	7779	7959	7959	7959	7959	0	0	0	0	0	2917	2917	2917	2917	2893	2893	2893	2869	2893	2893	2869	2893	2869	2893	2893	2893	2893	2893	2893	2893	2893	2917	2917	2917	2917	2942	2942	2942	2942	2942	2942	2942	2942	2942	2942	2942	2942	2942	2917	2917	2917	2917	2917	2917	2917	2917	2917	2917	2942	2942	2942	2942	2942	2942	2942	2942	2967	2967	2967	2967	2967	2967	0	0	0	0	0	0	4521	4521	4581	4706	4643	4706	4706	4706	4706	4706	4706	4706	4771	4706	4706	4706	4706	4706	4706	4706	4706	4706	4706	4771	4771	4771	4771	4771	4771	4771	4771	4771	4771	4771	4706	4706	4581	4643	4643	4581	4581	4581	4521	4521	4521	4521	4463	4463	4463	4521	4581	4581	4581	4581	4521	4581	4521	4521	4463	4463	4463	4463	4463	4406	4406	4463	4406	4406	4406	4463	4463	4463	4463	4463	4463	4463	4463	4406	4406	4406	4406	4406	4406	4406	4406	4463	4463	4463	4463	4463	4463	4406	4406	4350	4350	4350	4350	4406	4463	4581	4581	4521	4581	4581	4521	4521	4521	4521	4521	4521	4521	4521	4521	4521	4521	4581	4521	4521	4521	4521	4463	4463	4463	4463	4406	4463	4406	4463	4463	4463	4463	4463	4463	4463	4406	4463	4463	4406	4463	4521	4521	4521	4521	4521	4521	4521	4521	4581	4581	4581	4581	4581	4581	4581	4581	4521	4463	4521	4463	4581	4463	4463	4463	4643	4706	4643	4643	4643	4581	4581	4581	4581	4581	4521	4581	4581	4643	4706	4706	4706	4706	4706	4706	4706	4706	4706	8343	8146	8146	8146	7959	8146	8146	8146	8146	8146	8146	8146	8146	8146	8146	8146	8146	8146	7959	7959	7959	8146	8146	8146	8146	8146	8146	8146	8146	8146	8146	8146	8146	8146	8343	8343	8343	8343	8343	8146	8146	8146	8146	8146	8146	7959	7959	7959	8146	8146	8146	8146	8146	8343	8343	8343	8146	8146	8146	8146	8146	8146	8146	8146	8146	8146	8146	8550	8550	8550	8343	0	0	0	0	0	0	0	0	0	0	2589	2589	2589	2570	2589	2551	2551	2532	2532	2532	2514	2514	2514	2514	2496	2496	2460	2460	2443	2443	2426	2426	2426	2409	2392	2392	2392	2392	2376	2376	2343	2312	2312	2312	2312	2297	2297	2297	2281	2266	2266	2252	2252	2252	0	0	0	0	0	0	0	0	0	0	0	0	0	0	0	0	0	0	0	0	0	0	0	0	0	0	0	0	0	0	0	0	0	0	0	0
0	0	0	0	0	0	0	0	1020	1033	1036	1039	1039	1039	1039	1039	1039	1042	1042	1042	0	0	0	0	0	0	0	0	0	0	4771	4771	4706	4706	4706	4643	4643	4643	4643	4643	4643	4643	4581	4581	4643	4643	4643	4643	4581	4643	4643	4643	4643	4643	4643	4643	4706	4643	4581	4581	4581	4581	4581	4581	4581	4581	4581	4643	4643	4581	4581	4643	4643	4643	4581	4581	4643	4643	4581	4581	4581	4581	4581	4581	4581	4581	4706	4706	4706	4706	4706	4706	4706	4706	4643	4643	4706	4706	4643	4643	4706	4706	4643	4643	4643	4643	4643	4643	4643	4643	4643	4643	4643	4643	4643	4643	4643	4643	4643	4643	4581	4581	4581	6349	6349	6349	6349	6235	6349	6349	6349	6349	6349	6349	6349	6349	6349	6235	6349	6235	6235	6349	6349	6349	6235	6235	0	0	5202	5202	5202	5202	5202	5125	5125	5125	5125	5125	5125	5125	5202	5202	5202	5282	5282	5282	0	0	0	7959	7959	8146	8146	8146	8146	7959	7959	7959	7959	7959	7959	7959	7959	7959	7959	7959	7779	7779	7779	7779	7779	7959	7959	7959	7959	7959	8146	8146	7959	7959	7779	7779	7779	7779	7779	7779	7779	7779	7779	7779	7779	7779	7779	7779	7779	7959	7959	7959	7959	7959	0	0	0	0	0	0	2942	2917	2917	2893	2893	2893	2893	2893	2869	2869	2869	2869	2917	2893	2893	2893	2917	2893	2893	2917	2917	2917	2917	2917	2942	2942	2942	2942	2942	2967	2942	2942	2942	2942	2942	2942	2942	2942	2942	2917	2917	2917	2917	2942	2942	2942	2942	2942	2942	2942	2942	2942	2942	2967	2942	2967	2967	2967	2967	2967	2967	0	0	0	0	0	0	4521	4521	4521	4643	4706	4706	4706	4706	4706	4706	4706	4706	4706	4706	4706	4706	4706	4706	4706	4706	4706	4706	4706	4771	4771	4771	4771	4771	4771	4771	4771	4771	4771	4771	4706	4643	4581	4581	4581	4581	4581	4521	4521	4463	4463	4463	4406	4406	4406	4463	4521	4521	4521	4521	4463	4521	4463	4463	4406	4406	4406	4406	4406	4406	4406	4463	4406	4406	4406	4463	4463	4463	4463	4463	4406	4463	4406	4406	4350	4406	4406	4406	4406	4521	4521	4521	4521	4463	4463	4463	4463	4406	4406	4350	4350	4350	4350	4406	4406	4521	4581	4581	4581	4521	4521	4521	4521	4463	4463	4463	4521	4521	4521	4521	4521	4521	4463	4463	4463	4521	4463	4463	4406	4406	4463	4463	4463	4463	4463	4521	4463	4463	4463	4463	4406	4463	4463	4463	4463	4521	4521	4521	4521	4521	4521	4521	4521	4581	4643	4643	4643	4581	4581	4581	4581	4521	4463	4463	4463	4463	4406	4406	4463	4581	4643	4581	4581	4581	4581	4581	4581	4521	4521	4521	4463	4521	4581	4643	4643	4643	4706	4706	4706	4706	4706	4706	8343	8146	8146	8146	8146	8146	7959	8146	7959	8146	8146	8146	8146	8146	8146	8146	8146	8146	7959	8146	8146	8146	8146	8146	8146	8146	8146	8146	8146	8146	8146	8146	8146	8146	8146	8343	8343	8343	8343	8146	8146	8146	7959	7959	7959	7959	7959	7959	8146	8146	8146	8146	8343	8343	8343	8343	8146	8146	8146	8146	8146	8146	8146	8146	8146	8146	8146	8146	8343	8343	0	0	0	0	0	0	0	0	0	0	0	0	2589	2589	2589	2589	2551	2532	2532	2532	2532	2514	2514	2514	2514	2496	2496	2478	2478	2443	2443	2409	2409	2409	2409	2392	2392	2392	2392	2392	2376	2359	2327	2312	2312	2312	2312	2312	2297	2297	2281	2266	2266	2266	2266	0	0	0	0	0	0	0	0	0	0	0	0	0	0	0	0	0	0	0	0	0	0	0	0	0	0	0	0	0	0	0	0	0	0	0	0
0	0	0	0	0	0	0	0	1023	1036	1039	1039	1039	1039	1039	1039	1039	1042	1042	1042	0	0	0	0	0	0	0	0	0	0	4771	4706	4706	4706	4643	4643	4643	4643	4643	4643	4581	4581	4581	4581	4643	4643	4643	4643	4643	4643	4643	4643	4643	4643	4643	4643	4643	4581	4581	4581	4581	4581	4581	4581	4581	4581	4581	4581	4581	4581	4643	4643	4706	4643	4643	4643	4643	4643	4581	4581	4581	4581	4581	4581	4581	4581	4706	4706	4706	4706	4706	4706	4706	4706	4643	4643	4706	4706	4706	4706	4706	4706	4706	4706	4643	4643	4643	4643	4643	4643	4643	4643	4643	4643	4643	4643	4643	4643	4706	4643	4643	4643	6349	6349	6349	6349	6349	6349	6235	6235	6349	6349	6349	6349	6349	6349	6349	6349	6349	6349	6349	6349	6349	6235	6235	6235	0	5282	5202	5202	5202	5202	5202	5202	5202	5202	5202	5202	5202	5202	5282	5202	5202	0	0	0	0	0	0	7959	7959	8146	8146	7959	7959	7959	7779	7959	7779	7959	7959	7959	7959	7959	7779	7779	7779	7779	7779	7779	7779	7959	7959	8146	8146	7959	8146	8146	7959	7959	7779	7779	7779	7779	7779	7779	7779	7779	7779	7779	7779	7779	7779	7779	7779	7779	7779	7959	7959	7959	0	0	0	0	0	0	2942	2917	2917	2893	2893	2893	2893	2893	2893	2869	2893	2893	2917	2893	2893	2917	2917	2893	2893	2893	2917	2917	2917	2917	2942	2942	2942	2942	2942	2942	2942	2942	2942	2942	2942	2942	2942	2917	2942	2942	2942	2917	2917	2942	2942	2942	2942	2942	2942	2942	2942	2942	2942	2967	2967	2967	2942	2967	2967	2967	2967	0	0	0	0	0	0	4521	4521	4521	4643	4706	4706	4706	4706	4706	4706	4706	4706	4706	4706	4706	4706	4706	4706	4706	4706	4706	4706	4643	4643	4706	4706	4771	4771	4771	4771	4771	4771	4771	4771	4771	4643	4581	4581	4581	4521	4521	4521	4463	4406	4406	4406	4406	4350	4350	4406	4463	4463	4463	4463	4406	4463	4406	4406	4406	4406	4406	4406	4406	4463	4463	4463	4463	4406	4406	4463	4463	4406	4463	4406	4406	4406	4406	4406	4406	4463	4463	4463	4463	4521	4521	4521	4521	4521	4521	4463	4463	4463	4406	4406	4406	4406	4406	4406	4406	4463	4521	4521	4521	4521	4463	4463	4463	4463	4463	4463	4463	4521	4463	4521	4521	4521	4463	4463	4463	4463	4463	4521	4463	4463	4463	4463	4463	4463	4463	4521	4463	4463	4463	4406	4406	4463	4406	4406	4463	4463	4463	4521	4521	4521	4521	4521	0	4581	4643	4643	4581	4581	4581	4581	4521	4521	4463	4463	4463	4463	4406	4406	4521	4521	4581	4406	4521	4581	4521	4463	4463	4463	4463	4406	4406	4406	4521	4581	4643	4706	4706	4706	4706	4706	4643	4643	8343	8146	8146	8146	8146	8146	8146	8146	7959	8146	8146	8146	8146	8146	8146	8146	8146	7959	7959	8146	8146	8146	8146	8146	8146	8146	8146	8146	8146	8146	8146	8146	8146	8146	8146	8146	8343	8146	8146	7959	8146	7959	7959	7959	7959	7959	7959	7959	8146	8146	8146	8343	8343	8343	8343	8146	8146	8146	8146	8146	7959	8146	8146	8146	8146	8146	8146	8146	8343	8343	0	0	0	0	0	0	0	0	0	0	0	0	0	2609	2589	2589	2551	2532	2532	2514	2514	2514	2514	2496	2496	2496	2496	2478	2478	2460	2443	2392	2392	2409	2409	2392	2392	2392	2392	2392	2376	2359	2327	2327	2312	2312	2312	2297	2312	2297	2281	2281	2266	2266	2266	0	0	0	0	0	0	0	0	0	0	0	0	0	0	0	0	0	0	0	0	0	0	0	0	0	0	0	0	0	0	0	0	0	0	0	0
0	0	0	0	0	0	0	0	1036	1036	1039	1039	1039	1039	1039	1039	1039	1042	1048	1048	1048	0	0	0	0	0	0	0	0	0	4706	4706	4706	4706	4643	4643	4643	4581	4581	4581	4581	4581	4581	4581	4581	4643	4643	4581	4581	4643	4643	4643	4643	4643	4643	4643	4643	4643	4581	4581	4581	4581	4581	4581	4581	4581	4581	4581	4581	4581	4581	4581	4643	4643	4581	4581	4643	4581	4581	4581	4581	4581	4581	4581	4581	4581	4643	4706	4706	4706	4706	4771	4706	4706	4706	4706	4706	4706	4706	4643	4706	4706	4643	4643	4643	4643	4643	4643	4643	4643	4643	4643	4643	4643	4643	4643	4643	4643	4643	4581	4581	6349	6349	6349	6349	6349	6349	6349	6349	6349	6349	6349	6349	6349	6235	6235	6349	6349	6349	6349	6349	6349	6235	6235	6235	6235	5282	5282	5202	5202	5202	5202	5202	5202	5202	5202	5202	5202	5202	5202	5282	5282	5282	0	0	0	0	0	0	7959	8146	8146	7959	7959	7959	7959	7779	7959	7779	7959	7959	7959	7959	7959	7779	7779	7779	7779	7779	7779	7779	7959	7959	7959	7959	7959	7959	7959	7779	7779	7959	7779	7959	7959	7959	7959	7959	7959	7959	7959	7959	7959	7779	7779	7779	7779	7779	7779	7779	7779	0	0	0	0	0	0	2942	2917	2917	2917	2893	2917	2893	2893	2893	2869	2893	2893	2917	2917	2917	2917	2917	2917	2893	2917	2917	2917	2917	2917	2942	2942	2942	2942	2942	2967	2942	2942	2942	2942	2942	2942	2942	2942	2942	2942	2942	2917	2942	2942	2942	2942	2917	2942	2942	2942	2942	2942	2942	2967	2967	2967	2942	2967	2967	2967	2967	0	0	0	0	0	0	0	4521	4521	4706	4706	4706	4706	4706	4706	4706	4706	4706	4706	4706	4706	4706	4706	4706	4706	4706	4706	4643	4643	4706	4706	4771	4771	4771	4771	4838	4771	4771	4838	4838	4771	0	0	0	4581	4463	4463	4463	4406	4406	4406	4406	4350	4350	4350	4406	4406	4463	4463	4406	4406	4406	4406	4350	4350	4350	4406	4406	4406	4406	4406	4463	4406	4406	4406	4463	4463	4463	4463	4463	4463	4463	4463	4406	4406	4521	4521	4521	4521	4521	4521	4521	4521	4521	4521	4521	4463	4463	4463	4350	4406	4406	4406	4406	4406	4521	4521	4521	4521	4463	4463	4463	4463	4463	4463	4463	4463	4463	4463	4521	4521	4521	4463	4463	4463	4406	4406	4406	4463	4406	4463	4463	4463	4463	4463	4521	4521	4521	4463	4463	4463	4521	4406	4406	4463	4463	4463	0	0	0	0	0	0	0	4643	4643	4643	4643	4643	4581	4581	4521	4521	4521	4463	4463	4406	4406	4521	4521	4521	4406	4581	4581	4463	4406	4406	4406	4406	4406	4406	4463	4521	4581	4643	4643	4706	4706	4706	4706	4643	4643	8343	8146	8146	8343	8343	8146	8146	8343	8146	8343	8343	8343	8146	8146	8146	8146	7959	7959	7959	8146	8146	8146	8146	8146	8146	8146	8146	8343	8146	8146	8146	8146	8343	8146	8146	8146	8146	8146	8146	7959	7959	7959	7959	7959	7959	7959	7959	7959	8146	8146	8146	8146	8146	8343	8146	8146	8146	8146	8146	8146	8146	8146	8146	8146	8146	8146	8146	8146	8343	8343	0	0	0	0	0	0	0	0	0	0	0	0	0	2609	2589	2589	2551	2532	2532	2532	2514	2514	2514	2496	2496	2496	2496	2478	2460	2460	2443	2409	2409	2409	2409	2392	2392	2392	2392	2392	2376	2359	2327	2327	2312	2312	2312	2312	2312	2297	2297	2281	2266	2266	2266	0	0	0	0	0	0	0	0	0	0	0	0	0	0	0	0	0	0	0	0	0	0	0	0	0	0	0	0	0	0	0	0	0	0	0	0
0	0	0	0	0	0	0	0	1036	1039	1039	1039	1042	1039	1039	1039	1039	1042	1048	1052	1052	0	0	0	0	0	0	0	0	0	4706	4643	4643	4643	4643	4643	4643	4581	4581	4581	4581	4581	4581	4581	4581	4581	4581	4581	4581	4581	4581	4643	4643	4581	4581	4643	4643	4643	4581	4581	4581	4581	4581	4581	4581	4581	4581	4581	4581	4581	4581	4581	4581	4581	4581	4581	4581	4581	4581	4581	4581	4581	4581	4581	4581	4581	4643	4706	4706	4706	4706	4706	4706	4706	4706	4706	4706	4706	4643	4643	4706	4706	4643	4643	4643	4643	4643	4643	4643	4643	4643	4643	4643	4643	4643	4643	4643	4643	4643	4581	4581	6349	6349	6349	6468	6349	6349	6349	6349	6349	6349	6235	6349	6349	6235	6349	6349	6349	6349	6349	6349	6349	6235	6235	6235	6235	5282	5282	5202	5202	5202	5202	5202	5202	5202	5202	5202	5202	5202	5202	5282	5202	5282	5282	0	0	0	0	0	7959	7959	7959	7959	7779	7959	7779	7779	7779	7779	7779	7779	7959	7959	7959	7959	7779	7779	7779	7779	7779	7779	7779	7959	7959	7779	7779	7959	7959	7959	7959	7959	7959	7959	7959	7959	7959	7959	7959	7959	7959	7959	7959	7959	7779	7779	7779	7779	7779	7779	7779	0	0	0	0	0	0	2942	2942	2917	2917	2917	2893	2893	2893	2893	2869	2893	2893	2917	2917	2917	2917	2917	2917	2893	2917	2917	2917	2917	2917	2917	2942	2942	2942	2942	2942	2942	2942	2942	2942	2942	2942	2942	2942	2942	2942	2942	2942	2942	2942	2942	2942	2942	2942	2942	2942	2942	2942	2942	2967	2942	2967	2942	2942	2967	2942	2942	0	0	0	0	0	0	0	0	0	4706	4706	4706	4706	4706	4706	4706	4706	4706	4706	4706	4706	4706	4706	4643	4643	4643	4643	4643	4643	4706	4706	4771	4771	4771	4771	4771	4771	4771	4771	4838	0	0	0	0	0	4463	4463	4463	4406	4406	4406	4406	4406	4350	4350	4406	4406	4463	4463	4406	4406	4406	4350	4350	4350	4350	4350	4350	4406	4406	4406	4463	4406	4406	4350	4463	4463	4463	4463	4463	4463	4643	4643	4406	4406	4521	4521	4521	4521	4350	4521	4521	4521	4521	4521	4521	4521	4463	4521	4463	4463	4463	4463	4463	4463	4463	4521	4463	4463	4463	4406	4406	4406	4406	4406	4406	4463	4463	4463	4521	4521	4521	4521	4406	4406	4406	4406	4406	4463	4406	4463	4463	4463	0	0	4521	4521	4521	4463	4463	4463	4521	4406	4406	0	0	0	0	0	0	0	0	0	0	0	4643	4643	4581	4581	4581	4581	4581	4581	4581	4581	4581	4350	4350	4350	4463	4350	4406	4406	4406	4406	4406	4406	4406	4406	4406	4406	4463	4581	4643	4706	4706	4706	4706	4706	4706	4643	4643	4643	8146	8146	8146	8146	8146	8146	8146	8146	8146	8343	8146	8146	8146	7959	7959	7959	7959	7959	8146	8146	8146	8146	8146	8146	8146	8146	8146	8146	8146	8146	8146	8146	8146	8146	8146	8146	7959	8146	7959	8146	8146	7959	7959	7959	7959	8146	7959	8146	8146	8146	8146	8146	8343	8146	8146	8146	8146	8146	8146	8146	8146	8146	8146	8146	8146	8146	8146	8343	8146	8146	0	0	0	0	0	0	0	0	0	0	0	0	2589	2589	2589	2570	2532	2532	2532	2532	2514	2514	2496	2496	2496	2496	2496	2478	2460	2443	2409	2392	2392	2392	2392	2376	2376	2392	2392	2376	2343	2343	2327	2312	2312	2312	2312	2297	2297	2281	2281	2266	2266	2266	0	0	0	0	0	0	0	0	0	0	0	0	0	0	0	0	0	0	0	0	0	0	0	0	0	0	0	0	0	0	0	0	0	0	0	0
0	0	0	0	0	0	0	0	1039	1039	1039	1039	1042	1039	1039	1039	1042	1045	1052	1052	1052	0	0	0	0	0	0	0	0	4643	4643	4643	4643	4643	4643	4643	4643	4581	4581	4643	4581	4581	4581	4581	4581	4581	4581	4581	4581	4581	4581	4581	4643	4581	4581	4643	4643	4581	4581	4581	4581	4581	4581	4581	4581	4581	4581	4581	4581	4581	4581	4581	4581	4581	4581	4581	4581	4581	4581	4581	4521	4581	4521	4581	4581	4581	4643	4643	4643	4706	4706	4706	4706	4706	4706	4706	4706	4706	4643	4643	4706	4706	4643	4643	4643	4643	4643	4643	4643	4643	4643	4643	4643	4643	4643	4643	4643	4643	4581	4581	4581	6349	6349	6349	6349	6349	6349	6349	6349	6349	6235	6235	6235	6235	6235	6235	6349	6349	6349	6349	6349	6349	6349	6235	6235	6235	5282	5282	5202	5202	5202	5202	5202	5202	5202	5202	5282	5202	5202	5282	5282	5282	5282	5282	0	0	0	0	0	7959	7959	7959	7959	7959	7959	7959	7959	7779	7779	7779	7779	7779	7779	7779	7779	7779	7959	7779	7779	7779	7779	7959	7959	7959	7959	7959	7959	7959	7779	7959	7959	7959	7959	8146	7959	7959	7959	7959	7959	7959	7959	7959	7959	7959	7779	7959	7779	7779	7779	7779	0	0	0	0	0	0	2942	2942	2917	2917	2917	2917	2917	2893	2893	2893	2893	2893	2917	2917	2917	2917	2917	2917	2917	2917	2917	2917	2942	2942	2942	2942	2942	2942	2967	2942	2942	2942	2942	2942	2942	2942	2942	2942	2942	2942	2942	2942	2942	2942	2942	2942	2942	2942	2942	2942	2942	2942	2942	2967	2942	2942	2942	2942	2942	2942	2942	0	0	0	0	0	0	0	0	0	4706	4706	4706	4706	4706	4706	4706	4706	4706	4706	4706	4706	4706	4706	4643	4706	4706	4706	4643	4643	4706	4771	4771	4771	4771	4771	4771	4771	4771	4771	0	0	0	0	0	0	0	4581	4521	4521	4463	4463	4463	4463	4406	4463	4406	4406	4463	4463	4406	4406	4350	4406	4406	4406	4406	4406	4406	4463	4463	4463	4521	4521	4521	4463	4521	4521	4521	4521	4521	4463	4643	4643	4581	4581	4581	4581	4581	4581	4581	4581	4581	4581	4581	4581	4581	4581	4521	4581	4581	4521	4521	4521	4463	4463	4463	4463	4463	4463	4406	4406	4406	4406	4406	4406	4406	4463	4521	4521	4521	4521	4581	4643	4643	4643	4643	0	0	0	0	0	0	0	0	0	0	0	0	0	0	0	0	0	0	0	0	0	0	0	0	0	0	0	0	0	4643	4643	4643	4581	4581	4581	4581	4581	4581	4581	4643	4643	4521	4521	4521	4521	4463	4463	4463	4463	4463	4406	4406	4406	4406	4406	4463	4581	4643	4706	4706	4706	4706	4706	4643	4643	4643	8146	8146	8146	8146	8146	8146	8146	8343	8146	8146	8343	8146	8146	8146	7959	7959	7959	7959	7959	7959	8146	8146	8146	8146	8146	8146	8146	8146	8146	8146	8146	8343	8146	8146	8146	8146	8146	8146	8146	8146	8146	7959	7959	7959	8146	7959	8146	7959	8146	8146	8146	8146	8343	8343	8146	8146	8146	7959	8146	8146	7959	7959	8146	8146	8146	8146	8146	8146	8343	8146	8146	0	0	0	0	0	0	0	0	0	0	0	2589	2589	2589	2589	2570	2532	2551	2532	2514	2514	2514	2496	2496	2496	2496	2496	2478	2460	2443	2409	2409	2392	2392	2392	2376	2376	2392	2392	2376	2359	2343	2327	2327	2312	2312	2312	2312	2297	2297	2281	2266	2266	2266	0	0	0	0	0	0	0	0	0	0	0	0	0	0	0	0	0	0	0	0	0	0	0	0	0	0	0	0	0	0	0	0	0	0	0	0
0	0	0	0	0	0	0	0	1039	1039	1039	1039	1042	1039	1039	1042	1042	1048	1052	1052	0	0	0	0	0	0	0	0	0	4581	4643	4581	4643	4643	4643	4643	4643	4581	4581	4581	4581	4581	4581	4581	4581	4581	4581	4581	4581	4581	4581	4581	4643	4581	4581	4581	4643	4581	4581	4581	4581	4643	4581	4581	4581	4581	4581	4581	4581	4581	4581	4581	4581	4581	4581	4581	4581	4581	4581	4581	4521	4581	4521	4581	4581	4581	4643	4643	4643	4643	4706	4706	4706	4706	4706	4706	4706	4706	4643	4643	4643	4643	4643	4643	4643	4643	4643	4643	4643	4643	4643	4643	4643	4643	4643	4643	4643	4643	4581	4581	4581	6349	6349	6349	6349	6349	6468	6349	6349	6349	6235	6235	6235	6235	6235	6235	6235	6349	6349	6349	6349	6349	6235	6235	6124	5626	5282	5282	5202	5202	5202	5202	5202	5202	5202	5282	5282	5282	5282	5282	5282	5282	5282	5282	5202	5202	0	0	0	7959	7959	7959	7959	7959	7959	7959	7959	7779	7779	7779	7779	7779	7779	7779	7959	7959	7959	7959	7959	7959	7779	7959	7959	7959	7959	7779	7779	7779	7779	7959	7959	8146	8146	8146	7959	8146	8146	7959	7959	7959	7959	7959	7959	7959	7779	7959	7779	7779	7779	7779	7779	0	0	0	0	0	2942	2942	2942	2917	2917	2917	2917	2917	2893	2893	2893	2893	2893	2917	2917	2917	2917	2917	2917	2917	2942	2942	2942	2942	2942	2942	2942	2942	2967	2967	2942	2942	2942	2942	2942	2942	2942	2942	2942	2942	2942	2942	2942	2942	2942	2942	2942	2942	2942	2942	2942	2942	2942	2942	2942	2942	2942	2942	2942	2917	2917	0	0	0	0	0	0	0	0	0	4706	4706	4706	4706	4706	4706	4706	4706	4706	4706	4706	4706	4706	4706	4706	4706	4643	4706	4643	4643	4706	4771	4771	4771	4771	4771	4771	4771	4771	0	0	0	0	0	0	0	4581	4581	4643	4581	4581	4581	4643	4643	4581	4581	4521	4521	4521	4463	4406	4463	4463	4463	4521	4463	4463	4521	4581	4581	4581	4581	4581	4521	4521	4521	4521	4581	4521	4521	4521	0	0	4643	4643	4643	4581	4581	4581	4581	4581	4643	4643	4643	4838	4838	4838	4838	4581	4643	4643	4581	4581	4521	4463	4463	4521	4521	4463	4463	4463	4406	4406	4463	4406	4463	4463	4463	4643	4706	4706	4643	4643	4643	4643	4643	4643	4643	4643	4643	0	0	0	0	0	0	0	0	0	0	0	0	0	0	0	0	0	0	0	0	0	0	0	4643	4643	4643	4643	4643	4643	4643	4643	4643	4643	4643	4643	4643	4643	4643	4521	4521	4521	4521	4521	4521	4521	4463	4463	4463	4463	4463	4406	4406	4521	4643	4643	4706	4706	4706	4706	4706	4706	4706	4706	8343	8146	8146	8146	8146	8146	8146	8343	8343	8343	8146	8146	8146	7959	7959	7959	7779	7959	7959	7959	7959	8146	8146	8146	8146	8146	8146	8146	8146	8343	8146	8343	8146	8343	8146	8146	8146	8146	8146	8146	8146	8146	8146	8146	8146	8146	8146	7959	8146	7959	8146	7959	8146	8146	8146	8146	8146	8146	8146	8146	8146	8146	8146	8146	8146	8146	8146	8146	8550	8550	8550	0	0	0	0	0	0	0	0	0	0	0	2589	2589	2589	2589	2570	2551	2532	2532	2514	2514	2496	2496	2478	2478	2478	2496	2478	2460	2443	2392	2392	2392	2392	2392	2376	2376	2392	2392	2376	2359	2343	2327	2327	2312	2312	2312	2312	2297	2297	2281	2266	2266	2266	0	0	0	0	0	0	0	0	0	0	0	0	0	0	0	0	0	0	0	0	0	0	0	0	0	0	0	0	0	0	0	0	0	0	0	0
0	0	0	0	0	0	0	0	1039	1042	1042	1042	1042	1042	1039	1042	1048	1052	1052	1052	0	0	0	0	0	0	0	0	0	4581	4581	4581	4643	4643	4643	4643	4581	4581	4581	4643	4581	4581	4581	4581	4581	4581	4581	4581	4581	4581	4581	4581	4581	4581	4581	4581	4581	4581	4581	4581	4581	4643	4643	4581	4581	4581	4581	4581	4581	4581	4581	4581	4581	4581	4581	4581	4581	4581	4581	4521	4521	4581	4521	4581	4581	4581	4643	4643	4643	4706	4706	4706	4706	4706	4706	4706	4706	4643	4643	4643	4643	4643	4643	4643	4643	4643	4643	4643	4643	4643	4643	4643	4643	4643	4643	4643	4643	4643	4581	4581	4581	6349	6349	6349	6349	6349	6349	6349	6349	6349	6235	6235	6235	6235	6235	6235	6235	6235	6349	6349	6235	6349	6235	6235	6124	5535	5282	5282	5202	5202	5202	5202	5202	5282	5282	5282	5282	5282	5282	5282	5282	5202	5282	5202	5202	5202	5202	0	0	7959	7959	8146	8146	7959	7959	7959	7959	7959	7779	7779	7779	7779	7779	7779	7959	7959	8146	8146	7959	7959	7959	7959	7959	7959	7779	7959	7779	7779	7779	7779	7959	7959	7959	7959	7959	8146	7959	7959	7959	7959	7959	7959	7779	7779	7779	7779	7779	7779	7779	7608	7608	0	0	0	0	0	2942	2942	2942	2917	2917	2917	2917	2917	2917	2893	2893	2917	2942	2942	2917	2917	2917	2942	2942	2942	2942	2942	2942	2942	2942	2967	2942	2942	2967	2967	2942	2942	2942	2942	2942	2942	2942	2942	2942	2942	2942	2942	2942	2942	2942	2942	2942	2942	2942	2942	2942	2942	2942	2942	2942	2942	2942	2967	2967	2942	2942	0	0	0	0	0	0	0	0	0	4706	4771	4706	4771	4706	4706	4706	4706	4706	4706	4706	4706	4706	4706	4706	4706	4643	4706	4643	4643	0	0	4771	4771	4771	4771	0	0	0	0	0	0	0	0	0	4581	4581	4643	4643	4643	4643	4643	4706	4706	4643	4581	4521	4521	4521	4521	4521	4521	4521	4581	4581	4581	4581	4581	4643	4581	4581	4581	4581	4581	4581	4521	4581	4581	4581	4643	4643	4643	4643	4643	4643	4643	4643	4643	4643	4581	4706	4706	4643	4706	4706	4771	4771	4771	4706	4706	4643	4581	4581	4581	4521	4521	4581	4581	4521	4463	4463	4406	4406	4521	4463	4521	4581	4643	4706	4771	4706	4706	4706	4643	4643	4643	4643	4643	4643	4643	4643	0	0	0	0	0	0	0	4643	4643	4643	4706	4706	4706	0	0	0	0	0	0	0	0	0	4643	4643	4643	4643	4643	4643	4643	4643	4643	4643	4643	4643	4643	4643	4643	4521	4521	4521	4521	4521	4521	4521	4463	4463	4463	4463	4463	4463	4463	4521	4643	4643	4706	4706	4706	4706	4706	4706	4643	4643	8146	8146	8146	8146	8146	8146	8146	8146	8146	8343	8343	8146	8146	7959	7959	7959	7779	7779	7959	7959	8146	8146	8146	8146	8146	8146	8146	8146	8146	8146	8146	8343	8146	8343	8146	8146	8146	8146	8146	8146	8146	8146	8146	8146	8146	8146	8146	8146	8146	8146	8146	8146	8146	8146	8146	8146	8146	8146	8146	8146	7959	7959	7959	7959	8146	8146	8146	8146	8550	8550	8550	0	0	0	0	0	0	0	0	0	0	0	2589	2589	2589	2589	2570	2551	2532	2514	2514	2514	2496	2496	2478	2478	2478	2496	2478	2460	2443	2409	2409	2392	2392	2392	2376	2376	2376	2376	2376	2343	2343	2327	2327	2327	2312	2327	2312	2312	2297	2297	2281	2266	2266	0	0	0	0	0	0	0	0	0	0	0	0	0	0	0	0	0	0	0	0	0	0	0	0	0	0	0	0	0	0	0	0	0	0	0	0
0	0	0	0	0	0	0	0	1039	1039	1039	1042	1042	1042	1039	1042	1045	1048	1048	1048	1048	0	0	0	0	0	0	0	0	4581	4521	4521	4521	4581	4643	4643	4643	4643	4581	4643	4643	4581	4581	4581	4581	4581	4581	4581	4581	4581	4581	4581	4581	4581	4581	4581	4643	4581	4581	4581	4581	4643	4581	4581	4581	4581	4581	4581	4581	4581	4581	4581	4581	4581	4581	4581	4581	4581	4581	4521	4521	4521	4521	4581	4581	4581	4643	4643	4643	4643	4706	4706	4706	4706	4706	4706	4706	4643	4643	4643	4643	4643	4643	4643	4643	4643	4643	4643	4643	4643	4643	4643	4643	4643	4643	4643	4643	4643	4643	4581	4581	4581	6349	6349	6349	6349	6349	6349	6349	6349	6235	6235	6235	6235	6235	6235	6235	6235	6235	6235	6235	6235	6235	6235	6018	5626	5448	5282	5282	5282	5282	5282	5282	5282	5282	5282	5282	5282	5282	5282	5202	5202	5202	5125	5202	5202	5050	5050	5050	7959	7959	8146	8146	7959	7959	7959	7959	7959	7959	7779	7779	7608	7779	7779	7779	8146	8146	8146	7959	7959	8146	8146	8146	7959	7779	7779	7779	7779	7779	7779	7779	7959	7959	7959	7959	8146	7959	7959	7959	8146	7959	7959	7959	7959	7959	7779	7779	7779	7779	7779	7779	0	0	0	0	0	0	2942	2917	2917	2917	2917	2917	2917	2917	2917	2917	2917	2917	2917	2917	2917	2917	2942	2942	2942	2942	2942	2942	2942	2967	2967	2967	2967	2967	2967	2967	2942	2942	2942	2942	2942	2942	2942	2942	2942	2942	2942	2942	2942	2942	2942	2917	2942	2942	2942	2942	2942	2942	2967	2942	2942	2942	2967	2967	2942	2942	0	0	0	0	0	0	0	0	0	0	4771	4706	4771	4706	4706	4706	4706	4706	4706	4706	4706	4706	4706	4706	4706	0	0	0	0	0	0	0	0	0	0	0	0	0	0	0	0	0	0	0	4581	4643	4643	4643	4643	4643	4706	4706	4706	4706	4706	4643	4643	4581	4581	4581	4581	4581	4643	4643	4643	4706	4643	4706	4643	4643	4643	4643	4581	4581	4581	4581	4581	4581	4643	4706	4643	4643	4643	4643	4643	4643	4643	4643	4643	4643	4643	4643	4771	4771	4771	4771	4838	4771	4706	4706	4643	4643	4581	4521	4521	4581	4581	4521	4581	4463	4463	4463	4463	4521	4581	4581	4706	4706	4771	4706	4706	4706	4706	4706	4706	4643	4706	4643	4643	4643	4643	4643	4643	4643	4643	4706	4706	4643	4643	4643	4706	4771	4771	4771	0	0	0	0	0	4643	4706	4643	4643	4643	4643	4643	4643	4643	4643	4643	4643	4643	4643	4643	4643	4643	4643	4643	4581	4581	4581	4521	4521	4521	4463	4463	4463	4463	4463	4463	4521	4521	4643	4643	4706	4706	4706	4706	4706	4706	4643	4643	4643	8146	8146	8146	8146	8146	8146	8146	8146	8146	8146	8146	8146	7959	7959	7779	7779	7959	7959	7959	8146	8146	8146	8146	8146	8146	8146	8146	8146	8146	8146	8146	8146	8343	8146	8146	8146	8146	8146	8146	8146	8146	8146	8146	8146	8146	8146	8146	8146	8146	7959	8146	8146	8343	8146	7959	7959	7959	8146	8146	7959	7959	8146	8146	8146	8343	8146	8146	8550	8550	8550	0	0	0	0	0	0	0	0	0	0	0	2589	2589	2589	2589	2570	2551	2532	2532	2514	2514	2496	2496	2496	2478	2478	2496	2478	2460	2443	2426	2409	2409	2392	2392	2392	2376	2376	2376	2376	2343	2327	2312	2312	2312	2312	2312	2312	2297	2297	2281	2266	2266	2266	0	0	0	0	0	0	0	0	0	0	0	0	0	0	0	0	0	0	0	0	0	0	0	0	0	0	0	0	0	0	0	0	0	0	0	0
0	0	0	0	0	0	0	0	1039	1039	1039	1042	1042	1042	1039	1042	1042	1048	1045	1042	1042	0	0	0	0	0	0	0	0	0	4521	4521	4521	4581	4643	4643	4643	4643	4581	4643	4581	4581	4581	4521	4581	4581	4581	4581	4581	4581	4581	4581	4581	4581	4581	4581	4643	4581	4581	4581	4581	4643	4581	4581	4581	4581	4581	4581	4581	4581	4581	4581	4581	4581	4581	4581	4581	4581	4521	4521	4521	4521	4521	4521	4581	4581	4643	4643	4581	4643	4643	4706	4706	4706	4706	4706	4706	4643	4643	4643	4643	4643	4643	4643	4643	4643	4643	4643	4643	4643	4643	4643	4643	4643	4643	4643	4643	4643	4643	4643	4581	4581	6349	6349	6349	6349	6349	6349	6349	6349	6235	6235	6235	6235	6235	6235	6235	6235	6235	6235	6235	6235	6235	6124	6018	5719	5448	5282	5282	5282	5282	5282	5282	5282	5282	5282	5282	5202	5202	5202	5202	5125	5125	5125	5125	5202	5050	5050	5050	8146	8146	8146	8146	7959	7959	7959	8146	7959	7959	7779	7779	7608	7608	7779	7779	7779	7959	7959	7959	8146	7959	7959	7959	7959	7779	7779	7779	7779	7779	7779	7779	7959	7959	7959	7959	7959	7959	7959	8146	8146	7959	7959	7959	7959	7779	7779	7779	7779	7779	7779	7779	7779	0	0	0	0	0	2942	2917	2917	2917	2917	2917	2917	2893	2893	2917	2917	2917	2917	2917	2917	2942	2942	2942	2942	2942	2942	2942	2942	2967	2967	2967	2967	2967	2967	2967	2967	2942	2942	2942	2942	2942	2942	2942	2942	2942	2942	2942	2942	2942	2942	2917	2942	2942	2942	2942	2942	2942	2942	2942	2967	2942	2967	2967	2967	2942	0	0	0	0	0	0	0	0	0	0	0	4706	4771	4706	4706	4771	4771	4706	4706	4706	4706	4706	4706	4706	4706	0	0	0	0	0	0	0	0	0	0	0	0	0	0	0	0	0	0	0	4581	4643	4643	4643	4643	4643	4643	4706	4706	4706	4706	4706	4643	4581	4581	4643	4643	4643	4706	4706	4706	4706	4706	4643	4643	4643	4643	4643	4643	4643	4581	4643	4643	4643	4706	4706	4706	4706	4706	4643	4643	4643	4643	4643	4643	4643	4643	4706	4706	4771	4771	4771	4771	4771	4706	4706	4706	4643	4581	4581	4581	4643	4643	4581	4581	4463	4463	4463	4581	4581	4643	4643	4706	4838	4771	4706	4771	4771	4771	4771	4771	4706	4706	4706	4643	4643	4643	4643	4706	4706	4706	4706	4706	4706	4706	4706	4706	4706	4706	4771	4771	4771	4706	4706	4706	4643	4706	4643	4643	4643	4643	4643	4643	4643	4643	4643	4643	4643	4643	4643	4643	4643	4643	4643	4643	4643	4581	4581	4521	4521	4521	4521	4463	4463	4463	4463	4463	4521	4643	4643	4706	4706	4706	4706	4706	4706	4643	4581	4581	8146	8146	8146	8146	8146	8146	8146	8146	8146	8146	8146	8146	7959	7959	7959	7959	7959	7959	8146	8146	8146	8146	8146	8146	8146	8146	8146	8146	8343	8146	8146	8146	8146	8146	8146	8146	8146	8146	8146	8146	8146	8146	8146	8146	8146	8146	8146	8146	8146	8146	8146	8343	8343	8146	8146	7959	8146	7959	8146	7959	7959	7959	8146	8343	8146	8146	7959	7959	8550	0	0	0	0	0	0	0	0	0	0	0	0	2589	2589	2589	2589	2589	2570	2551	2532	2514	2514	2514	2496	2496	2478	2478	2478	2460	2460	2443	2409	2409	2392	2392	2392	2392	2376	2376	2376	2359	2343	2327	2312	2312	2312	2312	2312	2297	2297	2281	2281	2266	2266	2266	0	0	0	0	0	0	0	0	0	0	0	0	0	0	0	0	0	0	0	0	0	0	0	0	0	0	0	0	0	0	0	0	0	0	0	0
0	0	0	0	0	0	0	0	1036	1036	1039	1042	1039	1039	1039	1042	1048	1048	1045	1045	1045	1045	0	0	0	0	0	0	0	0	4521	4521	4581	4581	4643	4643	4643	4643	4643	4643	4581	4581	4581	4521	4521	4581	4581	4581	4581	4581	4581	4581	4643	4581	4581	4581	4643	4643	4581	4643	4643	4643	4581	4581	4581	4581	4581	4581	4581	4581	4581	4581	4581	4581	4581	4581	4581	4581	4581	4581	4581	4581	4581	4581	4581	4581	4643	4581	4581	4581	4643	4643	4643	4643	4643	4643	4706	4643	4643	4643	4643	4643	4643	4643	4643	4643	4643	4643	4643	4643	4643	4643	4643	4643	4643	4706	4643	4643	4643	4643	4643	4643	6349	6349	6349	6349	6349	6349	6349	6349	6235	6235	6235	6235	6235	6235	6235	6235	6235	6235	6235	6235	6235	6124	6124	5448	5448	5282	5282	5282	5282	5282	5282	5282	5202	5202	5202	5202	5202	5125	5125	5125	5202	5125	5282	5282	5282	5125	5125	7959	8146	8146	8146	8146	8146	8146	8146	7959	7959	7959	7779	7779	7608	7779	7779	7779	7959	7959	7959	7959	7959	7959	7959	7959	7779	7959	7959	7959	7779	7779	7779	7959	7779	7959	7779	7959	7959	7959	8146	8146	8146	8146	7959	7959	7779	7779	7779	7779	7779	7779	7779	7779	0	0	0	0	0	2917	2917	2917	2917	2917	2917	2917	2893	2893	2893	2893	2917	2917	2917	2917	2917	2942	2942	2942	2942	2942	2942	2967	2967	2967	2967	2942	2967	2967	2967	2967	2942	2942	2967	2942	2942	2942	2942	2942	2942	2942	2942	2942	2942	2942	2917	2942	2942	2942	2942	2942	2942	2967	2967	2967	2967	2967	2967	2967	0	0	0	0	0	0	0	0	0	0	0	0	4706	4838	4771	4771	4771	4771	4706	4706	4706	4706	4706	4706	4706	4706	0	0	0	0	0	0	0	0	0	0	0	0	0	0	0	0	0	0	4581	4581	4581	4643	4643	4643	4643	4706	4706	4706	4706	4706	4706	4643	4643	4643	4643	4643	4706	4706	4706	4706	4706	4706	4706	4706	4706	4706	4643	4643	4706	4706	4706	4706	4643	4706	4706	4706	4643	4643	4643	4643	4643	4643	4581	4643	4643	4581	4643	4706	4706	4706	4706	4706	4706	4706	4706	4706	4706	4581	4581	4581	4643	4643	4581	4581	4581	4581	4581	4581	4643	4643	4706	4706	4838	4838	4771	4771	4771	4771	4771	4771	4706	4706	4706	4706	4706	4706	4643	4706	4706	4706	4706	4706	4706	4706	4706	4706	4706	4706	4706	4706	4706	4706	4706	4643	4643	4706	4643	4643	4643	4643	4643	4643	4643	4643	4643	4643	4643	4643	4643	4643	4643	4643	4643	4643	4581	4581	4581	4581	4521	4521	4521	4463	4463	4463	4463	4521	4581	4643	4643	4706	4706	4706	4706	4706	4706	4643	4643	4643	8146	8146	8146	8146	8146	7959	7959	8146	8146	8146	8146	8146	7959	7959	7959	7959	8146	7959	8146	8146	8146	8146	8146	8146	8146	8146	8146	8146	8146	8146	8146	8343	8343	8146	8146	8146	8146	8146	8146	8146	8146	8146	8146	8146	8146	8146	8146	8146	8146	8146	8146	8146	8146	8146	8146	7959	7959	7959	8146	7959	7959	8146	8146	8146	8146	8146	8146	8343	8343	0	0	0	0	0	0	0	0	0	0	0	0	2589	2589	2589	2589	2570	2570	2570	2532	2532	2514	2514	2496	2496	2478	2496	2478	2460	2460	2409	2409	2409	2392	2392	2392	2392	2376	2376	2376	2359	2343	2327	2312	2327	2312	2312	2312	2312	2297	2281	2281	2266	2266	2266	0	0	0	0	0	0	0	0	0	0	0	0	0	0	0	0	0	0	0	0	0	0	0	0	0	0	0	0	0	0	0	0	0	0	0	0
0	0	0	0	0	0	0	0	1036	1039	1036	1039	1039	1039	1039	1042	1048	1048	1045	1045	1048	1052	1052	0	0	0	0	0	0	0	0	4521	4581	4581	4643	4643	4643	4706	4643	4643	0	4581	4581	4581	4521	4521	4581	4581	4581	4643	4643	4643	4643	4581	4643	4581	4643	4643	4643	4643	4581	4643	4581	4643	4581	4581	4581	4643	4643	4643	4643	4643	4643	4581	4581	4581	4581	4581	4581	4581	4581	4581	4581	4581	4581	4581	4581	4581	4581	4643	4643	4643	4643	4643	4643	4643	4706	4643	4706	4643	4643	4643	4643	4643	4643	4643	4643	4643	4643	4643	4643	4643	4643	4643	4643	4643	4643	4706	4643	4643	4643	4643	6349	6468	6349	6349	6349	6349	6349	6349	6235	6235	6235	6235	6235	6235	6235	6235	6349	6235	6235	6235	6235	6235	6124	6124	6124	5282	5282	5282	5282	5282	5282	5282	5202	5202	5125	5125	5125	5125	5125	5125	5125	5125	5282	5282	5282	5202	5202	5202	8146	8146	8146	8146	8146	7959	8146	8146	7959	7959	7779	7779	7608	7779	7779	7779	7959	7959	7959	7959	7959	7959	7959	7959	7779	7959	7959	7779	7779	7779	7779	7779	7779	7779	7779	7959	7959	7959	8146	7959	8146	8146	7959	7959	7959	7959	7779	7779	7779	7779	7779	7779	7779	0	0	0	0	2917	2917	2917	2917	2917	2917	2917	2893	2893	2893	2893	2917	2917	2917	2917	2917	2942	2942	2942	2942	2942	2942	2967	2967	2967	2967	2967	2967	2967	2967	2967	2942	2942	2967	2942	2942	2942	2942	2942	2942	2942	2942	2942	2942	2942	2942	2942	2942	2942	2942	2942	2967	2967	2967	2967	2967	2967	2967	2967	0	0	0	0	0	0	0	0	0	0	0	0	0	4838	4771	4771	4771	4771	4771	4706	4706	4706	4771	4706	4706	4706	0	0	0	0	0	0	0	0	0	0	0	0	0	0	0	0	0	4581	4581	4643	4643	4706	4706	4643	4643	4706	4706	4706	4706	4706	4706	4643	4643	4643	4643	4643	4643	4706	4706	4706	4706	4706	4706	4706	4706	4706	4706	4706	4706	4706	4706	4706	4706	4706	4706	4706	4643	4643	4581	4581	4581	4581	4581	4581	4581	4581	4581	4643	4643	4706	4706	4706	4706	4706	4706	4706	4643	4643	4581	4581	4643	4643	4581	4581	4581	4581	4581	4581	4581	4643	4706	4706	4706	4771	4706	4771	4771	4771	4771	4771	4771	4771	4706	4706	4706	4706	4706	4706	4706	4771	4771	4771	4771	4771	4706	4706	4706	4706	4706	4706	4706	4706	4706	4643	4643	4706	4643	4643	4643	4643	4643	4643	4643	4643	4643	4643	4643	4643	4643	4643	4643	4643	4643	4581	4581	4581	4581	4581	4521	4521	4521	4521	4521	4521	4521	4581	4581	4706	4706	4706	4706	4771	4771	4771	4706	4643	4643	4643	8343	8343	8146	8146	8146	7959	7959	7959	8146	7959	8146	8146	7959	8146	8146	7959	7959	7959	7959	8146	8146	8146	8146	8146	8146	8146	8146	8146	7959	8146	8146	8343	8146	8146	8146	8146	8146	8146	8146	8146	8146	8146	8146	8146	8146	8146	8146	8146	8146	8146	8146	8146	8146	8146	8146	7959	8146	8146	8146	7959	7959	8146	8146	8343	8146	8146	8146	8343	8343	0	0	0	0	0	0	0	0	0	0	0	0	2589	2589	2589	2589	2589	2589	2589	2532	2532	2514	2514	2496	2496	2478	2478	2478	2460	2460	2460	2409	2409	2409	2392	2392	2392	2376	2376	2376	2359	2359	2343	2327	2327	2312	2312	2312	2297	2297	2297	2281	2266	2266	2266	0	0	0	0	0	0	0	0	0	0	0	0	0	0	0	0	0	0	0	0	0	0	0	0	0	0	0	0	0	0	0	0	0	0	0	0
0	0	0	0	0	0	0	0	1036	1036	1036	1039	1039	1036	1039	1042	1048	1048	1045	1045	1048	1052	1052	1052	0	0	0	0	0	0	0	0	4581	4581	4643	4643	4643	4706	4706	4643	0	4581	4581	4581	0	4521	4581	4581	4581	4643	4643	4643	4643	4581	4643	4643	4643	4643	4643	4643	4643	4643	4581	4643	4581	4581	4581	4643	4643	4643	4643	4643	4643	4581	4581	4581	4581	4581	4581	4581	4581	4581	4581	4581	4581	4581	4643	4643	4643	4643	4643	4643	4643	4643	4643	4643	4643	4643	4643	4643	4643	4706	4643	4643	4643	4643	4643	4643	4643	4643	4643	4643	4643	4643	4643	4643	4643	4706	4643	4643	4643	4643	4643	6349	6349	6349	6349	6349	6349	6349	6235	6235	6349	6235	6235	6235	6235	6235	6235	6235	6235	6235	6235	6235	6235	6124	6124	5448	5202	5202	5202	5202	5202	5202	5125	5125	5125	5125	5050	5050	5050	5125	5125	5125	5282	5282	5202	5202	5125	5125	8146	8146	8146	8146	8146	7959	8146	8146	8146	7959	7959	7779	7779	7779	7779	7959	7959	7959	7959	7959	7959	7959	7959	7959	7959	7959	7959	7959	7779	7779	7779	7779	7779	7779	7779	7779	7779	7779	8146	7959	7959	7959	7959	7959	7959	7959	7779	7959	7779	7779	7779	7779	7779	0	0	0	0	0	2893	2893	2917	2917	2917	2917	2893	2893	2893	2893	2917	2917	2917	2917	2917	2942	2942	2942	2942	2942	2942	2967	2967	2967	2967	2967	2967	2967	2967	2967	2967	2942	2942	2942	2942	2942	2942	2942	2942	2942	2942	2942	2942	2942	2942	2942	2942	2942	2942	2967	2967	2967	2967	2967	2967	2967	2967	2967	0	0	0	0	0	0	0	0	0	0	4838	4838	4838	4838	4771	4838	4771	4771	4771	4771	4706	4706	4771	4706	4706	4706	0	0	0	0	0	0	0	0	0	0	0	0	0	0	0	0	0	4581	4581	4643	4643	4706	4706	4643	4643	4643	4706	4706	4643	4643	4643	4643	4643	4643	4643	4643	4643	4643	4706	4706	4706	4706	4706	4706	4706	4706	4706	4706	4706	4706	4706	4706	4706	4706	4643	4581	4643	4581	4581	4581	4521	4521	4521	4521	4581	4581	4581	4643	4581	4643	4706	4706	4706	4643	4706	4706	4706	4643	4581	4581	4643	4643	4643	4581	4581	4581	4581	4643	4643	4643	4706	4706	4706	4771	4706	4771	4771	4771	4771	4771	4771	4771	4706	4706	4771	4706	4706	4706	4706	4706	4771	4706	4706	4706	4706	4706	4706	4706	4706	4706	4706	4706	4643	4643	4643	4643	4643	4643	4643	4643	4643	4643	4643	4643	4643	4643	4643	4643	4643	4643	4643	4643	4643	4581	4581	4581	4581	4581	4581	4581	4581	4521	4521	4521	4521	4581	4581	4706	4706	4706	4706	4771	4771	4771	4771	4706	4706	4706	8146	8146	8146	8146	7959	7959	7959	8146	8146	8146	8146	8146	8146	8146	8146	7959	7959	7959	7959	8146	8146	8146	8146	8146	8146	8146	8146	8146	8146	8146	8146	8343	8146	8146	8146	8146	8146	8146	8146	8146	8146	8146	8146	8146	8146	8146	8146	8146	8146	8146	8146	8146	8146	8146	8146	7959	7959	8146	8146	8146	8146	8146	8146	8343	8146	8146	8146	8343	8343	0	0	0	0	0	0	0	0	0	0	0	0	2589	2589	2589	2589	2589	2589	2570	2532	2532	2532	2514	2496	2496	2478	2478	2478	2460	2460	2443	2409	2409	2409	2392	2392	2392	2376	2376	2376	2359	2359	2343	2327	2327	2312	2297	2297	2297	2297	2297	2281	2266	2266	2266	0	0	0	0	0	0	0	0	0	0	0	0	0	0	0	0	0	0	0	0	0	0	0	0	0	0	0	0	0	0	0	0	0	0	0	0
0	0	0	0	0	0	0	0	1033	1033	1033	1036	1039	1036	1036	1039	1045	1045	1045	1045	1048	1052	1052	1052	0	0	0	0	0	0	0	0	0	0	0	0	0	4706	4706	0	0	0	0	0	0	4521	4581	4581	4581	4643	4643	4581	4643	4581	4581	4581	4643	4643	4581	4643	4643	4643	4581	4643	4581	4581	4643	4643	4643	4706	4706	4643	4643	4581	4581	4581	4581	4581	4581	4581	4581	4581	4581	4581	4581	4581	4643	4643	4643	4643	4643	4643	4643	4643	4643	4643	4643	4643	4643	4643	4643	4706	4706	4643	4643	4643	4643	4643	4643	4643	4643	4643	4643	4643	4643	4643	4643	4643	4643	4643	4643	4643	6468	6468	6349	6349	6349	6349	6349	6349	6235	6349	6349	6349	6349	6349	6349	6349	6349	6235	6349	6235	6235	6235	6124	6235	6235	5282	5202	5202	5202	5202	5202	5202	5125	5125	5125	5050	5050	5050	5050	5050	5125	5125	5202	5282	5202	5202	5202	5202	5202	7959	7779	7779	7959	7959	7959	7959	7959	7959	7959	7779	7779	7779	7779	7779	7959	7959	7959	7959	7959	7959	7959	7959	7959	7959	7959	7959	7779	7959	7779	7779	7608	7608	7608	7608	7608	7608	8146	8146	8146	8146	8146	8146	8146	7959	7959	7959	7779	7779	7779	7608	7608	0	0	0	0	0	2917	2893	2917	2917	2917	2893	2893	2869	2893	2893	2917	2917	2893	2917	2917	2942	2942	2942	2942	2942	2942	2967	2967	2967	2967	2967	2967	2967	2967	2967	2967	2942	2967	2942	2942	2942	2942	2942	2942	2942	2942	2942	2942	2942	2942	2942	2942	2942	2967	2967	2967	2967	2967	2993	2993	2993	2967	2967	0	0	0	0	0	0	0	0	0	0	4771	4771	4838	4771	4771	4838	4771	4771	4771	4771	4706	4706	4771	4706	4706	4706	0	0	0	0	0	0	0	0	0	0	0	0	0	0	0	0	0	0	4643	4643	4643	4706	4643	4643	4643	4643	4643	4643	4643	4643	4643	4643	4643	4643	4643	4643	4643	4643	4643	4706	4706	4706	4706	4706	4706	4706	4706	4706	4706	4643	4643	4706	4643	4643	4581	4581	4581	4521	4521	4521	4521	4521	4521	4521	4581	4581	4581	4581	4581	4643	4643	4643	4581	4581	4643	4643	4643	4643	4581	4581	4643	4643	4643	4581	4581	4581	4581	4643	4643	4643	4706	4706	4771	4771	4706	4771	4771	4771	4771	4771	4771	4771	4706	4771	4771	4706	4706	4706	4706	4706	4706	4706	4706	4706	4706	4706	4706	4706	4643	4643	4643	4643	4643	4643	4643	4643	4643	4643	4643	4643	4643	4643	4643	4643	4643	4643	4643	4643	4643	4643	4643	4643	4643	4581	4581	4581	4581	4581	4521	4521	4581	4521	4521	4521	4521	4463	4521	4643	4643	4706	4706	4771	4771	4771	4706	4706	4706	4706	8146	8146	8146	8146	8146	8146	8146	8146	8146	8146	8146	8146	8146	8146	8146	8146	8146	7959	7959	8146	8146	8146	8146	7959	7959	7959	7959	7959	8146	8146	8146	8146	8146	8146	8146	8146	8146	8146	8146	7959	7959	8146	8146	8146	7959	8146	8146	8146	8146	8146	8146	8146	8146	8146	8146	8146	8146	8146	8146	8146	8146	8343	8343	8343	8146	8146	8146	8343	8343	0	0	0	0	0	0	0	0	0	0	0	0	2609	2609	2589	2589	2589	2570	2570	2532	2532	2532	2514	2496	2496	2478	2478	2478	2460	2443	2443	2409	2409	2409	2392	2392	2392	2376	2376	2359	2359	2359	2343	2327	2312	2312	2297	2297	2281	2297	2281	2281	2266	2266	2266	0	0	0	0	0	0	0	0	0	0	0	0	0	0	0	0	0	0	0	0	0	0	0	0	0	0	0	0	0	0	0	0	0	0	0	0
0	0	0	0	0	0	0	0	1030	1030	1033	1033	1036	1036	1036	1039	1042	1045	1042	1042	1045	1048	1048	1052	0	0	0	0	0	0	0	0	0	0	0	0	0	0	0	0	0	0	0	0	0	0	0	4581	4581	0	0	4581	4643	4581	4581	4581	4643	4643	4643	4643	4643	4643	4581	4643	4581	4581	4581	4581	4643	4643	4643	4643	4581	4581	4581	4521	4521	4581	4521	4581	4581	4581	4581	4581	4581	4581	4643	4643	4643	4643	4643	4643	4643	4643	4643	4643	4643	4643	4643	4643	4643	4643	4643	4643	4643	4643	4643	4643	4643	4643	4643	4706	4643	4643	4643	4643	4706	4706	4643	4643	4643	4643	6468	6468	6349	6349	6349	6349	6349	6349	6349	6349	6349	6349	6349	6349	6349	6349	6349	6235	6235	6235	6235	6235	6235	6235	6235	5202	5202	5202	5202	5202	5125	5125	5125	5050	5050	5050	5050	4977	4977	5050	5050	5050	5202	5202	5202	5202	5125	5125	5125	7779	7779	7779	7779	7779	7959	7959	7959	7959	7959	7959	7779	7779	7779	7779	7959	7779	7959	7959	7959	7959	7959	7959	7959	7959	7959	7959	7959	7959	7779	7608	7608	7608	7608	7608	7608	7608	7959	8146	8146	8146	8146	8146	8146	7959	7959	7959	7779	7779	7779	7608	7608	7608	0	0	0	0	2917	2917	2917	2917	2917	2893	2869	2869	2869	2869	2893	2917	2893	2917	2917	2917	2942	2942	2942	2942	2942	2967	2967	2967	2967	2967	2967	2967	2967	2967	2967	2967	2967	2942	2942	2942	2942	2942	2942	2942	2942	2942	2942	2942	2942	2942	2942	2967	2967	2967	2967	2967	2993	2993	2993	2993	2967	2967	0	0	0	0	0	0	0	0	0	0	4771	4771	4838	4838	4771	4771	4771	4771	4706	4706	4706	4706	4706	4706	4643	4643	0	0	0	0	0	0	0	0	0	0	0	0	0	0	0	0	0	0	4643	4643	4643	4706	4643	4643	4643	4643	4643	4643	4643	4643	4643	4643	4643	4643	4643	4643	4643	4643	4706	4706	4706	4706	4706	4706	4706	4706	4706	4643	4643	4643	4643	4643	4643	4643	4581	4521	4521	4521	4463	4463	4463	4463	4463	4521	4521	4521	4581	4581	4581	4643	4643	4643	4581	4581	4643	4643	4643	4581	4581	4581	4643	4643	4581	4581	4581	4581	4581	4581	4643	4643	4643	4706	4706	4706	4643	4706	4706	4771	4771	4771	4771	4771	4706	4771	4771	4706	4706	4706	4706	4706	4706	4706	4706	4706	4706	4706	4706	4706	4706	4706	4643	4643	4643	4643	4643	4643	4643	4643	4643	4643	4643	4643	4643	4643	4643	4643	4643	4643	4643	4643	4643	4643	4643	4581	4581	4581	4581	4581	4521	4521	4521	4521	4521	4463	4463	4463	4521	4643	4643	4706	4771	4771	4771	4771	4706	4706	4706	4706	8146	8146	8146	8146	7959	7959	7959	8146	8146	8146	8146	8146	8146	8146	8146	7959	8146	7959	7779	8146	8146	8146	8146	7959	7959	7959	7959	7959	7959	8146	8146	8146	8146	8146	8146	8146	8146	8146	8146	7959	7959	0	8146	8146	7959	8146	8146	8146	8146	8146	8146	8146	8146	8146	8146	8146	7959	8146	8146	8146	8146	8343	8343	8146	8146	8146	8146	8146	8343	0	0	0	0	0	0	0	0	0	0	0	0	2609	2609	2589	2589	2589	2589	2570	2532	2532	2514	2514	2496	2496	2478	2478	2478	2460	2443	2426	2409	2409	2409	2392	2392	2392	2376	2376	2376	2359	2359	2343	2327	2327	2312	2297	2297	2297	2297	2281	2281	2266	2266	2266	0	0	0	0	0	0	0	0	0	0	0	0	0	0	0	0	0	0	0	0	0	0	0	0	0	0	0	0	0	0	0	0	0	0	0	0
