0	0	0	0	0	0	0	1026	1030	1033	1033	1036	1036	1039	1039	1042	1042	1045	1048	1052	1052	1052	1052	0	0	0	0	0	0	0	0	0	4706	4706	4706	4643	4643	4643	4581	4581	4581	4581	4581	4581	4581	4581	4643	4643	4643	4706	4706	4706	4643	4706	4706	4643	4581	4581	4581	4581	4581	4581	4581	4581	4643	4643	4643	4643	4643	4643	4643	4643	4643	4643	4581	4581	4581	4581	4581	4581	4581	4581	4581	4643	4643	4706	4706	4706	4771	4771	4771	4771	4706	4706	4643	4643	4643	4643	4643	4643	4643	4706	4706	4643	4643	4643	4706	4706	4643	4643	4643	4643	4643	4706	4706	4706	4706	4706	4706	4706	4643	4643	4643	0	0	8146	8146	8146	8146	8146	8146	8146	8146	8146	8146	8146	8146	8146	7959	7959	7959	7959	7959	7959	8146	8146	8146	8146	8146	8146	8146	8146	8146	8146	8146	7959	7959	7959	7959	7959	7959	7959	7779	7959	7959	7959	8146	8146	8146	8146	8146	8146	8146	8146	7959	7959	7959	7959	7959	8146	8146	8146	8146	8146	8146	8146	8146	7959	7959	7959	7779	7959	7959	7779	7959	8146	7959	7959	7959	7779	7959	7959	7959	7959	8146	8146	8146	8146	8146	0	0	0	0	0	0	3186	3186	3216	3216	3216	3216	3216	3216	3216	3216	3216	3216	3216	3186	3186	3186	3186	3186	3186	3186	3186	3186	3186	3186	3216	3216	3216	3216	3216	3216	3216	3216	3216	3216	3216	3216	3216	3216	3216	3216	3216	3216	3216	3216	3216	3216	3216	3216	3216	3216	3216	3216	3216	3246	3246	3246	3246	3246	3246	3246	3246	3277	3277	3246	3246	3246	3246	3246	3216	3216	3216	3216	3216	3246	3246	0	0	0	0	0	4771	4771	4771	4706	4706	4706	4706	4706	4706	4706	4706	4706	4706	4706	4706	4706	4706	4706	4706	4706	4643	4706	4706	4706	4771	4771	4771	4771	4771	4771	4771	4771	4706	4706	4771	4771	4771	4771	4771	4771	4771	4771	4771	4771	4771	4771	4771	4771	4771	4771	4771	4771	4771	4771	4771	4771	4771	4771	4771	4771	4771	4771	4771	4771	4706	4706	4706	4706	4706	4706	4706	4771	4771	4771	4771	4771	4771	4771	4706	4706	4706	4706	4706	4706	4706	4771	4706	4706	4706	4706	4643	4581	4581	4581	4581	4581	4521	4521	4581	4581	4581	4581	4581	4581	4581	4581	4581	4581	4581	4581	4581	4581	4581	4643	4581	4581	4643	4643	4643	4643	4706	4706	4706	4771	4771	4771	4771	4771	4771	4771	4771	4771	4706	4706	4771	4771	4771	4771	4771	4771	4706	4706	4706	4643	4706	4706	4706	4706	4706	4771	4771	4706	4706	4706	4706	4706	4643	4706	4643	4643	4643	4643	4706	4706	4706	4706	4706	4706	4706	4706	4706	4643	4643	4643	4643	4706	4706	4771	4771	4706	4706	4706	4706	4706	8146	8146	8146	8146	8146	8146	8146	8146	8146	8146	8146	8146	8146	7959	8146	8146	7959	7959	8146	8343	8146	8343	8343	8343	8343	8343	8343	8343	8343	8146	8146	8146	8146	8146	8146	8146	8146	8146	8146	8146	8146	8146	8146	8146	8146	8146	8146	8146	8146	8146	8146	8146	8146	8146	8146	8146	8343	8146	8146	8146	8146	8146	8146	8146	8146	8146	8146	8146	8146	8343	8550	8550	8550	8550	0	0	0	0	0	0	0	0	2609	2589	2589	2570	2532	2551	2532	2532	2514	2514	2496	2496	2478	2478	2460	2478	2460	2460	2460	2426	2409	2392	2392	2392	2392	2376	2376	2376	2376	2359	2343	2327	2327	2312	2312	2297	2281	2266	2266	2266	2252	2252	0	0	0	0	0	0	0	0	0	0	0	0	0	0	0	0	0	0	0	0	0	0	0	0	0	0	0	0	0	0	0	0	0	0	0	0	0
0	0	0	0	0	0	0	1023	1026	1030	1030	1039	1039	1039	1042	1042	1042	1042	1045	1048	1052	1052	1052	0	0	0	0	0	0	0	0	4706	4706	4706	4706	4643	4643	4581	4581	4581	4581	4521	4581	4581	4581	4581	4643	4643	4643	4706	4706	4706	4706	4706	4706	4643	4643	4581	4581	4581	4581	4581	4581	4581	4581	4581	4643	4581	4643	4581	4643	4643	4581	4643	4581	4581	4581	4581	4581	4581	4581	4581	4581	4643	4643	4706	4706	4771	4771	4771	4771	4771	4706	4706	4643	4643	4643	4643	4643	4643	4643	4643	4643	4643	4643	4643	4643	4643	4643	4643	4643	4643	4643	4706	4706	4706	4771	4706	4706	4771	4771	4706	4706	4706	0	0	8146	8146	8146	8146	8146	8343	8343	8146	8146	8146	8146	8146	8146	7959	7959	7959	7959	7959	7959	7959	8146	8146	8146	8146	8146	8146	8146	8146	8146	7959	8146	7959	7959	7959	7779	7779	7779	7959	7959	7959	7959	8146	8146	8146	8146	8146	8146	8146	8146	7959	7959	7959	7959	8146	8146	8146	8146	8146	8146	8146	8146	8146	7959	7959	7959	7959	7959	7779	7959	7959	7959	7779	7779	7779	7959	7959	7959	7959	8146	8146	8343	8343	0	0	0	0	0	0	0	3186	3186	3216	3186	3216	3186	3216	3216	3216	3216	3216	3216	3216	3216	3186	3186	3186	3186	3186	3157	3157	3157	3186	3186	3186	3216	3216	3216	3216	3216	3216	3216	3216	3216	3216	3216	3216	3216	3216	3216	3216	3216	3216	3216	3216	3216	3216	3186	3186	3216	3216	3216	3216	3216	3246	3246	3246	3246	3246	3246	3246	3246	3246	3246	3246	3246	3246	3246	3216	3216	3216	3186	3216	3216	3216	0	0	0	0	0	4771	4771	4771	4771	4706	4706	4706	4706	4706	4706	4706	4706	4706	4706	4706	4706	4706	4706	4706	4706	4643	4706	4706	4706	4771	4771	4771	4771	4771	4771	4771	4771	4706	4706	4771	4771	4706	4771	4771	4771	4771	4771	4771	4771	4771	4771	4771	4771	4771	4771	4771	4771	4771	4771	4771	4771	4771	4771	4771	4771	4771	4771	4771	4771	4706	4706	4706	4706	4706	4706	4706	4771	4771	4771	4771	4706	4706	4771	4706	4706	4706	4706	4771	4706	4706	4771	4706	4706	4706	4706	4643	4581	4581	4581	4521	4521	4521	4521	4581	4581	4581	4581	4581	4581	4581	4581	4581	4581	4581	4581	4581	4581	4581	4643	4643	4643	4643	4643	4643	4706	4706	4706	4706	4771	4771	4771	4771	4771	4771	4771	4771	4771	4771	4771	4771	4771	4771	4771	4771	4706	4706	4706	4706	4643	4643	4706	4706	4706	4706	4706	4771	4706	4706	4771	4771	4706	4706	4706	4706	4706	4643	4643	4706	4706	4706	4706	4706	4706	4706	4706	4706	4706	4706	4706	4706	4771	4771	4771	4771	4771	4706	4706	4706	4706	8343	8343	8343	8146	8146	8146	8343	8343	8146	8146	8146	8146	8146	8146	8146	7959	7959	7959	7959	8146	7959	8343	8343	8343	8343	8146	8146	8343	8146	8146	8146	8146	8146	8146	8146	8146	8146	8146	8146	8146	8146	8146	8146	8146	8146	7959	7959	7959	8146	8146	8146	8146	8146	8146	8146	8146	8146	8146	8146	8146	8146	8146	8146	8146	8146	8146	8146	8146	8146	8550	8550	8550	8550	8550	0	0	0	0	0	0	0	0	0	2589	2589	2570	2570	2551	2551	2532	2514	2514	2496	2496	2478	2478	2478	2478	2460	2460	2443	2426	2409	2392	2392	2392	2376	2376	2376	2376	2376	2343	2343	2327	2327	2312	2312	2297	2281	2266	2281	2266	2266	2252	2252	0	0	0	0	0	0	0	0	0	0	0	0	0	0	0	0	0	0	0	0	0	0	0	0	0	0	0	0	0	0	0	0	0	0	0	0
0	0	0	0	0	0	0	1023	1026	1033	1036	1039	1039	1039	1042	1042	1042	1042	1045	1045	1045	1052	0	0	0	0	0	0	0	0	4706	4706	4706	4706	4643	4643	4581	4581	4581	4581	4581	4581	4581	4581	4581	4581	4581	4581	4643	4643	4643	4706	4706	4706	4706	4643	4643	4581	4581	4581	4521	4581	4581	4581	4581	4581	4581	4581	4643	4581	4643	4643	4581	4643	4581	4581	4581	4581	4581	4581	4581	4581	4581	4581	4643	4706	4706	4706	4771	4771	4771	4771	4771	4706	4643	4643	4643	4643	4643	4643	4643	4643	4643	4643	4643	4643	4643	4643	4643	4643	4643	4643	4643	4706	4706	4771	4771	4771	4771	4771	4838	4771	4771	4771	4771	0	7959	8146	8146	8146	8146	8343	8343	8146	8146	8146	8146	8146	8146	7959	7959	7959	7959	7959	7959	7959	8146	7959	8146	8146	8146	8343	8146	8146	8146	7959	8146	7959	7959	7959	7779	7779	7779	7779	7959	7959	7959	8146	8146	8146	8146	8146	8146	8146	7959	7959	7959	7959	7959	8146	7959	8146	8146	8146	8146	7959	8146	7959	7959	7959	7959	7959	7959	7959	7959	7779	7959	7779	7779	7779	7779	7779	7779	7959	8146	8146	8343	8343	0	0	0	0	0	0	0	3157	3157	3186	3186	3186	3186	3186	3216	3216	3157	3216	3216	3216	3186	3186	3186	3186	3186	3186	3186	3186	3186	3186	3186	3216	3216	3216	3216	3216	3216	3216	3216	3216	3216	3216	3216	3216	3216	3216	3216	3216	3216	3216	3216	3216	3216	3216	3216	3216	3216	3216	3216	3216	3216	3246	3246	3246	3246	3246	3246	3246	3277	3246	3246	3246	3246	3246	3246	3216	3216	3216	3186	3186	3186	3186	0	0	0	0	0	4771	4771	4706	4706	4706	4706	4706	4706	4706	4706	4706	4706	4706	4706	4706	4706	4706	4706	4706	4706	4643	4706	4706	4706	4771	4771	4771	4771	4771	4771	4771	4771	4706	4706	4706	4706	4706	4771	4771	4771	4771	4771	4771	4771	4771	4771	4771	4771	4771	4771	4771	4771	4771	4771	4771	4771	4771	4771	4771	4771	4771	4771	4771	4771	4706	4706	4706	4706	4706	4706	4706	4771	4771	4771	4706	4706	4706	4706	4706	4706	4706	4771	4771	4771	4771	4771	4771	4771	4706	4706	4643	4581	4581	4581	4581	4581	4521	4521	4581	4581	4581	4581	4581	4581	4581	4581	4581	4581	4581	4581	4581	4581	4581	4581	4581	4581	4643	4643	4643	4706	4706	4706	4771	4771	4838	4838	4838	4771	4838	4771	4771	4771	4771	4771	4771	4838	4771	4771	4771	4771	4706	4706	4643	4643	4643	4706	4643	4643	4643	4643	4706	4771	4771	4771	4771	4771	4771	4771	4706	4706	4706	4706	4706	4706	4643	4706	4706	4706	4643	4706	4706	4706	4706	4706	4706	4771	4771	4771	4771	4706	4706	4706	4706	4706	8146	8343	8343	8146	8146	8146	8343	8343	8146	8146	8146	8146	8146	8146	8146	7959	7959	7959	7959	8146	7959	8343	8343	8343	8146	8146	8146	8343	8146	8146	8146	8146	8146	8146	8146	8146	8146	8146	8146	8146	8146	8146	8146	8146	8146	7959	7959	7959	7959	7959	7959	8146	8146	8146	8146	8146	8146	8146	8146	8146	8146	8146	8146	8146	8146	8146	8146	8146	8146	8550	8550	8550	8550	8550	0	0	0	0	0	0	0	2609	2609	2589	2589	2570	2570	2551	2532	2532	2514	2514	2496	2496	2478	2478	2478	2478	2460	2460	2443	2426	2409	2392	2392	2392	2392	2376	2376	2376	2376	2343	2343	2327	2327	2327	2312	2312	2297	2281	2281	2281	2266	2266	2266	0	0	0	0	0	0	0	0	0	0	0	0	0	0	0	0	0	0	0	0	0	0	0	0	0	0	0	0	0	0	0	0	0	0	0	0
0	0	0	0	0	0	0	1026	1030	1033	1036	1039	1039	1039	1042	1042	1042	1045	1045	1045	1045	0	0	0	0	0	0	0	0	0	4706	4706	4706	4643	4643	4581	4581	4581	4581	4581	4581	4581	4581	4581	4581	4581	4643	4643	4643	4643	4706	4706	4706	4706	4706	4643	4643	4581	4581	4581	4521	4581	4581	4581	4581	4581	4581	4581	4643	4643	4643	4643	4643	4643	4643	4643	4581	4581	4581	4581	4581	4581	4581	4581	4581	4706	4706	4706	4706	4706	4771	4771	4771	4643	4643	4643	4643	4643	4643	4643	4643	4643	4643	4643	4643	4643	4643	4643	4643	4643	4643	4643	4706	4706	4706	4771	4771	4771	4771	4771	4838	4771	4771	4771	4771	0	7959	7959	7959	8146	8146	8146	8343	8146	8146	8146	8146	8146	8146	7959	7959	7959	7959	7959	7959	7959	8146	7959	8146	7959	8146	8146	8146	8146	8146	8146	8146	8146	7959	7959	7959	7959	7779	7779	7779	7959	7959	8146	8146	8146	8146	8146	8146	7959	7959	7959	7959	7779	7779	7608	7959	7959	7959	7959	7959	7959	7959	7959	7959	7959	7959	7959	7959	7959	7959	7779	7779	7959	7779	7779	7779	7959	7959	7959	8146	8146	8146	8146	0	0	0	0	0	0	3186	3186	3186	3186	3186	3216	3186	3216	3216	3216	3216	3216	3216	3216	3216	3186	3186	3186	3186	3186	3186	3186	3186	3186	3157	3216	3216	3216	3216	3246	3216	3216	3216	3216	3216	3216	3216	3216	3216	3216	3216	3216	3216	3216	3216	3216	3216	3216	3216	3216	3216	3216	3216	3216	3216	3246	3246	3246	3246	3246	3246	3246	3277	3277	3277	3246	3246	3246	3246	3216	3216	3186	3186	3186	3186	3186	3186	0	0	0	4771	4771	4771	4771	4706	4706	4706	4706	4643	4643	4643	4706	4706	4706	4706	4706	4706	4706	4706	4706	4706	4643	4706	4706	4706	4706	4706	4706	4771	4771	4771	4771	4771	4706	4706	4706	4706	4706	4706	4771	4771	4771	4771	4771	4771	4771	4706	4706	4771	4771	4771	4771	4771	4771	4771	4771	4771	4771	4771	4771	4771	4771	4771	4771	4771	4771	4706	4706	4706	4706	4706	4771	4706	4771	4771	4706	4706	4706	4706	4706	4706	4706	4771	4771	4771	4771	4771	4771	4771	4706	4643	4643	4581	4581	4581	4521	4521	4521	4521	4581	4581	4581	4581	4581	4581	4581	4581	4581	4581	4581	4581	4581	4581	4581	4581	4581	4581	4643	4643	4643	4706	4706	4706	4771	4838	4838	4838	4838	4838	4838	4838	4771	4771	4771	4771	4771	4771	4771	4771	4771	4771	4706	4706	4643	4643	4643	4706	4643	4643	4706	4643	4706	4706	4771	4771	4771	4771	4771	4771	4771	4706	4706	4706	4643	4643	4643	4643	4706	4643	4643	4643	4706	4706	4643	4706	4706	4771	4771	4771	4771	4706	4706	4706	4706	4706	8343	8343	8343	8146	8146	8146	8146	8146	8146	8146	8146	8146	8146	8146	8146	8146	8146	8146	8146	8146	8146	8146	8343	8343	8343	8343	8146	8343	8146	8146	8146	8146	8146	8146	8146	8146	8146	8146	8343	8343	8343	8343	8146	8146	8146	8146	8146	8146	8146	7959	8146	8146	8146	8146	8146	8146	8146	8146	8146	8146	8146	8146	8146	8146	8146	8146	8146	8146	8146	8343	8550	8550	8550	8550	0	0	0	0	0	0	2609	2609	2609	2609	2589	2570	2570	2551	2551	2532	2514	2514	2496	2496	2478	2478	2478	2478	2460	2460	2460	2443	2409	2392	2392	2376	2376	2376	2376	2376	2359	2343	2343	2327	2327	2312	2312	2297	2281	2281	2281	2266	2266	2266	2266	0	0	0	0	0	0	0	0	0	0	0	0	0	0	0	0	0	0	0	0	0	0	0	0	0	0	0	0	0	0	0	0	0	0	0	0
0	0	0	0	0	0	0	1026	1026	1033	1036	1039	1039	1042	1042	1042	1042	1045	1042	1045	1045	0	0	0	0	0	0	0	0	0	4643	4643	4643	4643	4581	4581	4581	4581	4581	4581	4643	4643	4643	4643	4643	4643	4643	4643	4643	4643	4643	4706	4706	4706	4643	4643	4643	4581	4581	4581	4581	4581	4581	4581	4581	4581	4581	4581	4643	4643	4643	4643	4643	4643	4643	4643	4581	4581	4581	4581	4581	4581	4581	4581	4581	4581	4706	4706	4706	4706	4771	4771	4771	4706	4643	4643	4643	4643	4643	4643	4643	4643	4643	4643	4643	4643	4643	4706	4706	4706	4643	4706	4706	4706	4706	4771	4771	4771	4771	4771	4838	4771	4838	4838	4838	0	7959	7959	7959	7959	8146	8146	8146	8146	8146	8146	8146	8146	8146	7959	7959	7959	7959	7959	7959	7959	8146	7959	8146	7959	8146	8146	8146	8146	8146	8146	8146	7959	7959	7959	7779	7779	7779	7779	7779	7779	7959	8146	8146	8146	8146	8146	8146	7959	7959	7959	7779	7779	7779	7608	7779	7779	7779	7779	7959	7959	7959	7959	7959	7959	7959	7959	7959	7959	7959	7779	7779	7779	7779	7779	7779	7959	7959	7779	7959	8146	8146	8146	0	0	0	0	0	3186	3216	3186	3186	3186	3186	3186	3186	3186	3186	3216	3216	3216	3216	3216	3216	3186	3186	3186	3186	3186	3186	3186	3186	3186	3186	3216	3216	3216	3216	3246	3246	3216	3216	3216	3216	3216	3216	3216	3216	3216	3216	3216	3216	3216	3216	3216	3216	3216	3216	3216	3216	3216	3246	3216	3216	3246	3246	3246	3246	3246	3246	3246	3246	3246	3277	3246	3246	3216	3216	3216	3186	3186	3186	3186	3186	3186	3186	0	0	0	4771	4771	4771	4771	4771	4706	4706	4706	4706	4706	4643	4706	4706	4706	4706	4706	4706	4706	4706	4706	4706	4643	4643	4706	4706	4706	4706	4706	4771	4771	4771	4771	4771	4706	4706	4706	4706	4706	4706	4771	4771	4771	4771	4706	4706	4706	4706	4771	4771	4771	4771	4771	4771	4771	4771	4771	4771	4771	4771	4771	4771	4771	4771	4771	4771	4771	4771	4706	4771	4771	4706	4771	4706	4771	4706	4706	4706	4706	4706	4643	4706	4706	4706	4771	4771	4771	4771	4771	4706	4706	4643	4581	4581	4581	4521	4521	4521	4521	4521	4581	4581	4581	4581	4581	4581	4581	4581	4581	4581	4581	4581	4581	4581	4581	4581	4581	4581	4643	4643	4643	4706	4706	4706	4771	4838	4838	4838	4838	4838	4838	4838	4771	4771	4771	4771	4771	4771	4771	4771	4706	4706	4706	4706	4706	4706	4706	4706	4706	4706	4706	4706	4706	4771	4771	4771	4771	4771	4771	4771	4706	4706	4706	4706	4706	4706	4643	4643	4643	4643	4643	4643	4643	4643	4643	4706	4706	4771	4771	4771	4771	4771	4771	4706	4706	4706	8343	8343	8343	8146	8146	8146	8146	8146	8146	8146	8343	8343	8146	8146	8146	8146	8146	8146	8146	8146	8146	8146	8146	8146	8146	8343	8343	8343	8146	8146	8146	8146	8146	8146	8146	8146	8146	8146	8343	8343	8343	8343	8146	8146	8146	8146	8146	8146	8146	8146	8146	8146	8146	8146	8146	8146	8146	8146	7959	8146	8146	8146	8146	8146	8146	8146	8146	8146	8146	8343	8343	8550	8550	8550	0	0	0	0	0	2609	2609	2609	2609	2609	2589	2570	2570	2570	2551	2532	2532	2514	2496	2478	2478	2460	2478	2460	2460	2443	2443	2409	2409	2392	2392	2376	2376	2376	2376	2376	2359	2343	2343	2327	2327	2312	2312	2312	2297	2281	2281	2266	2266	2266	2266	0	0	0	0	0	0	0	0	0	0	0	0	0	0	0	0	0	0	0	0	0	0	0	0	0	0	0	0	0	0	0	0	0	0	0	0
0	0	0	0	0	0	0	1026	1026	1036	1039	1039	1039	1039	1039	1042	1042	1042	1042	1045	1045	0	0	0	0	0	0	0	0	0	4706	4643	4643	4643	4581	4581	4581	4581	4581	4643	4643	4643	4643	4643	4643	4643	4643	4643	4643	4706	4643	4706	4706	4706	4643	4643	4643	4643	4581	4581	4581	4581	4581	4581	4581	4581	4643	4643	4643	4643	4706	4706	4643	4643	4581	4581	4581	4581	4581	4643	4581	4581	4581	4581	4581	4643	4643	4643	4706	4706	4771	4706	4706	4643	4643	4643	4643	4643	4643	4643	4643	4643	4643	4706	4706	4643	4643	4706	4643	4706	4643	4706	4706	4706	4706	4771	4838	4771	4838	4771	4838	4838	4838	4838	4838	7959	7959	7959	7959	7959	8146	8146	8146	8146	8146	8146	8146	8146	8146	8146	7959	7959	7959	7959	8146	8146	8146	7959	8146	7959	7959	7959	8146	8146	8146	8146	8146	7959	7959	7959	7779	7779	0	7779	7779	7779	7779	7959	8146	8146	8146	8146	8146	7959	7959	7779	7779	7779	7779	7608	7779	7779	7779	7779	7959	7959	7959	7959	8146	8146	8146	8146	7959	7959	7959	7959	7959	7779	7779	7779	7779	7959	7959	7779	7959	7959	7959	0	0	0	0	0	0	3186	3216	3186	3186	3186	3216	3216	3216	3216	3246	3216	3246	3246	3216	3216	3216	3216	3186	3186	3186	3186	3186	3186	3186	3157	3186	3216	3216	3216	3216	3246	3246	3216	3216	3216	3216	3216	3216	3216	3216	3216	3216	3216	3216	3216	3216	3216	3216	3216	3186	3216	3216	3216	3246	3246	3216	3246	3246	3246	3246	3246	3246	3246	3246	3246	3246	3246	3216	3216	3216	3216	3186	3216	3216	3186	3186	3186	3186	0	0	0	4771	4771	4771	4771	4771	4706	4706	4706	4706	4706	4643	4706	4706	4706	4706	4706	4706	4706	4706	4706	4706	4706	4643	4706	4706	4706	4706	4706	4771	4771	4771	4771	4771	4706	4706	4706	4706	4706	4706	4771	4771	4706	4771	4706	4706	4771	4771	4771	4771	4771	4771	4771	4771	4771	4771	4771	4771	4771	4771	4771	4771	4771	4771	4771	4771	4771	4771	4706	4771	4771	4706	4771	4706	4771	4706	4706	4706	4706	4706	4706	4706	4706	4706	4771	4771	4771	4771	4706	4706	4643	4581	4581	4521	4581	4521	4521	4521	4521	4521	4581	4581	4581	4581	4581	4581	4581	4581	4581	4581	4581	4581	4581	4581	4581	4581	4581	4581	4643	4643	4643	4706	4706	4706	4771	4771	4838	4838	4771	4771	4771	4771	4771	4771	4771	4771	4771	4771	4706	4706	4706	4706	4706	4706	4706	4706	4706	4706	4706	4706	4706	4706	4706	4771	4771	4771	4771	4771	4771	4771	4706	4706	4706	4706	4643	4643	4643	4643	4643	4643	4643	4643	4643	4643	4643	4706	4706	4771	4771	4771	4771	4771	4771	4771	4771	8343	8343	8343	8343	8146	8146	8146	8343	8146	8146	8343	8343	8343	8343	8343	8343	8146	8146	8146	8146	8146	8146	8146	8146	8146	8146	8343	8343	8343	8146	8146	8146	8146	8146	8146	8146	8146	8343	8146	8343	8343	8343	8146	8146	8146	8146	8146	8146	8146	8146	8146	8146	8146	8146	8146	8146	7959	8146	8146	7959	8146	7959	8146	8146	8146	8146	8146	8146	8146	8146	8343	8343	8550	8550	8550	0	0	0	0	0	2609	2589	2589	2609	2609	2589	2570	2570	2551	2551	2532	2514	2514	2496	2478	2478	2478	2478	2460	2443	2443	2426	2409	2392	2392	2392	2376	2376	2376	2376	2376	2359	2343	2343	2327	2312	2312	2312	2297	2281	2266	2281	2266	2266	2266	2266	0	0	0	0	0	0	0	0	0	0	0	0	0	0	0	0	0	0	0	0	0	0	0	0	0	0	0	0	0	0	0	0	0	0	0	0
0	0	0	0	0	0	0	1026	1026	1033	1033	1039	1039	1042	1042	1042	1045	1045	1042	1042	1045	0	0	0	0	0	0	0	0	4706	4706	4643	4706	4643	4643	4643	4643	4581	4643	4643	4643	4643	4643	4706	4643	4643	4643	4706	4643	4643	4643	4643	4643	4643	4643	4643	4643	4581	4643	4581	4581	4581	4581	4581	4581	4581	4643	4581	4581	4643	4643	4643	4643	4643	4643	4643	4581	4581	4581	4643	4581	4581	4581	4643	4581	4706	4706	4643	4706	4706	4706	4706	4706	4643	4643	4643	4643	4643	4643	4643	4643	4643	4643	4643	4643	4643	4643	4706	4706	4706	4643	4706	4706	4706	4706	4771	4771	4771	4771	4771	4838	4838	4838	4906	4906	7959	7959	7959	7959	8146	8146	8146	8146	8146	8146	8146	8146	8146	8146	8146	7959	8146	7959	7959	7959	7959	7959	7959	7959	7959	7959	7959	8146	8146	8146	8146	0	0	0	0	0	0	0	0	7779	7608	7608	7959	8146	8146	8146	8146	8146	7959	7959	7779	7779	7779	7779	7779	7779	7959	7959	7959	7959	7959	8146	7959	7959	8146	8146	8146	8146	7959	7959	7959	7959	7779	7779	7779	7779	7959	7959	7779	7959	7959	7959	0	0	0	0	0	0	0	3216	3216	3216	3216	3216	3216	3216	3216	3246	3246	3216	3246	3216	3216	3216	3216	3186	3186	3186	3186	3157	3157	3157	3157	3157	3186	3216	3216	3216	3216	3216	3216	3216	3216	3216	3216	3216	3216	3216	3216	3216	3216	3216	3216	3216	3186	3216	3216	3186	3216	3216	3216	3246	3246	3216	3216	3246	3246	3246	3246	3246	3246	3246	3246	3246	3246	3216	3216	3216	3216	3186	3216	3216	3186	3186	3186	3186	0	0	0	4771	4771	4771	4706	4706	4706	4706	4706	4706	4706	4706	4643	4706	4706	4706	4706	4706	4706	4706	4706	4706	4706	4643	4706	4706	4706	4706	4706	4771	4771	4771	4771	4771	4771	4706	4706	4706	4706	4706	4771	4771	4706	4771	4771	4771	4771	4771	4771	4771	4771	4771	4771	4771	4771	4771	4771	4771	4771	4771	4771	4771	4771	4771	4771	4771	4771	4771	4706	4771	4771	4706	4771	4706	4706	4706	4706	4643	4643	4643	4643	4643	4643	4643	4643	4706	4706	4706	4706	4706	4643	4581	4581	4521	4521	4521	4521	4581	4521	4521	4581	4581	4581	4581	4581	4581	4581	4581	4581	4581	4581	4581	4581	4581	4581	4643	4643	4643	4643	4643	4643	4706	4706	4706	4771	4771	4771	4771	4771	4771	4771	4771	4771	4771	4706	4706	4706	4706	4706	4706	4706	4706	4706	4706	4706	4706	4643	4706	4706	4706	4706	4706	4706	4771	4706	4771	4706	4706	4706	4706	4706	4706	4706	4706	4706	4706	4643	4643	4643	4643	4643	4643	4643	4643	4643	4706	4706	4771	4771	4771	4771	4838	4771	4771	4771	8343	8343	8343	8343	8146	8146	8146	8343	8146	8146	8343	8343	8343	8343	8343	8343	8343	8146	8146	8146	8146	8146	8146	8146	8343	8343	8146	8146	8146	8146	8146	8146	8146	8146	8146	8146	8146	8146	8146	8343	8146	8146	8146	7959	8146	8146	8146	8146	8146	8146	8146	8146	8146	8146	8146	8146	7959	8146	8146	8146	8146	8146	8146	8146	8146	8146	8146	8146	8146	8146	8343	8343	8343	8343	8343	0	0	0	0	0	2609	2589	2589	2609	2589	2589	2570	2570	2551	2532	2532	2514	2514	2496	2478	2478	2478	2460	2460	2443	2426	2426	2409	2409	2392	2392	2376	2376	2376	2376	2376	2359	2343	2343	2327	2312	2312	2297	2297	2281	2266	2266	2266	2266	2266	2266	0	0	0	0	0	0	0	0	0	0	0	0	0	0	0	0	0	0	0	0	0	0	0	0	0	0	0	0	0	0	0	0	0	0	0	0
0	0	0	0	0	0	0	1026	1026	1033	1036	1039	1042	1042	1042	1045	1045	1045	1042	1042	0	0	0	0	0	0	0	0	0	4706	4706	4643	4706	4643	4643	4643	4643	4643	4643	4706	4643	4643	4643	4706	4706	4643	4643	4643	4643	4643	4643	4643	4643	4643	4643	4643	4643	4643	4643	4581	4581	4581	4581	4581	4581	4581	4643	4643	4643	4643	4643	4643	4643	4643	4581	4643	4581	4581	4581	4643	4581	4581	4581	4581	4581	4706	4706	4643	4706	4706	4706	4706	4706	4643	4643	4643	4706	4643	4643	4643	4643	4643	4643	4643	4643	4643	4643	4706	4706	4706	4706	4706	4706	4706	4706	4771	4771	4771	4838	4838	4838	4838	4906	4906	4906	7959	7959	7959	7959	7959	8146	8146	8146	8146	8146	8146	8146	8146	8146	8146	8146	8146	7959	8146	8146	8146	7959	7959	7959	7959	0	0	0	0	0	0	0	0	0	0	0	0	0	0	0	7608	7779	7959	8146	8146	8146	8146	8146	7959	7959	7779	7779	7779	7779	7779	7959	7959	7959	7959	7959	8146	8146	8146	8146	8146	8146	8146	8146	7959	7959	7959	7959	7959	7959	7779	7959	7959	7959	7779	7959	7959	7959	7959	0	0	0	0	0	3186	3216	3216	3216	3216	3216	3216	3246	3246	3246	3246	3246	3246	3216	3216	3216	3186	3186	3186	3186	3186	3157	3157	3157	3157	3157	3186	3216	3216	3216	3216	3246	3216	3216	3216	3216	3216	3216	3216	3216	3216	3216	3216	3216	3216	3186	3186	3216	3216	3186	3186	3216	3216	3216	3246	3216	3246	3216	3216	3246	3246	3246	3246	3246	3246	3246	3246	3216	3216	3216	3216	3216	3216	3216	3186	3186	3186	3186	0	0	0	4771	4771	4771	4706	4706	4706	4706	4706	4706	4706	4643	4643	4706	4706	4706	4706	4706	4706	4706	4706	4706	4706	4706	4706	4706	4706	4706	4706	4706	4771	4771	4771	4771	4771	4771	4771	4771	4771	4706	4771	4771	4771	4771	4771	4771	4771	4771	4771	4771	4771	4771	4771	4771	4771	4771	4771	4771	4771	4771	4771	4771	4771	4706	4706	4706	4706	4706	4706	4706	4706	4706	4706	4706	4643	4643	4643	4581	4643	4581	4581	4581	4643	4643	4643	4643	4706	4643	4706	4706	4643	4581	4581	4521	4521	4521	4521	4521	4521	4521	4581	4581	4581	4581	4581	4581	4581	4581	4581	4581	4581	4581	4581	4581	4581	4581	4643	4643	4643	4643	4643	4706	4706	4706	4771	4771	4771	4706	4643	4706	4706	4706	4706	4706	4706	4643	4706	4643	4643	4706	4643	4643	4706	4643	4706	4643	4643	4643	4643	4706	4706	4706	4706	4771	4706	4771	4706	4706	4706	4771	4706	4706	4706	4706	4706	4706	4643	4643	4706	4643	4643	4706	4706	4706	4706	4706	4771	4771	4838	4838	4838	4838	4906	4906	4906	4906	8550	8550	8343	8146	8146	8146	8343	8343	8343	8343	8343	8343	8343	8343	8343	8343	8146	8146	8146	8146	8146	8343	8343	8343	8343	8146	8146	8146	8146	8146	8146	8146	8146	8146	8343	8343	8343	8343	8343	8343	8146	8146	8146	8146	8146	8146	7959	7959	8146	8146	8146	8146	8146	8146	8146	7959	7959	8146	8146	8146	8146	8146	8146	8146	8146	8146	8146	8146	8146	8343	8343	8343	8343	8343	0	0	0	0	0	2609	2609	2609	2609	2609	2609	2570	2551	2532	2532	2514	2514	2514	2496	2496	2496	2478	2478	2460	2443	2426	2426	2426	2409	2392	2392	2392	2376	2376	2376	2376	2359	2343	2327	2327	2312	2312	2312	2297	2297	2281	2281	2281	2266	2266	2266	0	0	0	0	0	0	0	0	0	0	0	0	0	0	0	0	0	0	0	0	0	0	0	0	0	0	0	0	0	0	0	0	0	0	0	0
0	0	0	0	0	0	0	1026	1026	1030	1033	1039	1039	1042	1042	1048	1048	1048	1045	1045	0	0	0	0	0	0	0	0	0	4771	4706	4706	4706	4706	4706	4706	4706	4643	4706	4771	4643	4706	4643	4706	4643	4643	4643	4643	4581	4643	4643	4643	4643	4643	4643	4643	4643	4643	4643	4581	4643	4643	4643	4643	4643	4643	4643	4643	4706	4643	4706	4706	4706	4706	4643	4643	4643	4581	4581	4643	4581	4643	4581	4643	4581	4706	4706	4706	4706	4706	4771	4706	4706	4643	4643	4706	4706	4643	4706	4643	4643	4706	4643	4643	4643	4643	4706	4771	4706	4706	4706	4706	4706	4706	4706	4706	4771	4771	4771	4838	4838	4906	4906	4906	7959	7959	7959	7959	7959	7959	8146	8146	8146	8146	8146	8146	8146	8146	8146	8146	8146	8146	7959	8146	8146	8146	0	0	0	0	0	0	0	0	0	0	0	0	0	0	0	0	0	0	0	0	7608	7959	8146	8146	8146	8146	8146	7959	7959	7779	7779	7779	7779	7779	7959	7959	7959	7959	7959	8146	8146	8146	8146	8146	8146	8146	8146	8146	7959	8146	7959	7959	7959	7959	7959	7959	7959	7959	7959	7779	7779	7959	0	0	0	0	3246	3246	3216	3216	3216	3216	3216	3246	3246	3246	3246	3246	3246	3246	3246	3246	3246	3216	3186	3186	3186	3186	3157	3157	3157	3157	3157	3186	3216	3216	3216	3216	3246	3216	3216	3216	3216	3216	3216	3216	3216	3216	3216	3216	3216	3216	3216	3186	3186	3216	3186	3216	3246	3246	3246	3246	3216	3216	3216	3216	3216	3216	3216	3216	3246	3246	3246	3246	3216	3216	3246	3216	3216	3216	3186	3186	3216	3216	3216	0	0	0	4771	4771	4706	4706	4706	4706	4706	4706	4706	4706	4706	4706	4706	4706	4706	4706	4706	4706	4706	4706	4706	4706	4706	4706	4706	4706	4706	4706	4771	4771	4771	4771	4771	4771	4771	4771	4771	4771	4706	4706	4771	4706	4771	4771	4771	4771	4771	4771	4771	4771	4771	4771	4771	4771	4771	4771	4771	4771	4771	4706	4706	4706	4706	4706	4643	4643	4706	4643	4643	4643	4643	4643	4581	4581	4581	4581	4581	4581	4581	4581	4581	4581	4581	4581	4643	4643	4643	4643	4643	4581	4581	4581	4521	4521	4521	4521	4521	4521	4521	4581	4581	4581	4581	4581	4581	4581	4581	4581	4581	4581	4581	4581	4581	4581	4581	4581	4581	4643	4643	4643	4706	4706	4643	4643	4643	4643	4643	4643	4643	4643	4643	4643	4643	4643	4581	4643	4581	4643	4643	4643	4643	4643	4643	4706	4643	4643	4643	4643	4643	4643	4643	4643	4706	4706	4706	4706	4643	4706	4706	4706	4706	4771	4706	4706	4706	4706	4706	4706	4706	4706	4706	4706	4706	4706	4771	4771	4838	4838	4838	4838	4906	4906	4906	4977	4977	8343	8343	8343	8146	8146	8146	8146	8146	8146	8146	8343	8343	8343	8343	8343	8343	8146	8146	8146	8146	8146	8146	8146	8343	8146	8146	8146	8146	8146	8146	8146	8146	8146	8146	8343	8343	8343	8343	8343	8146	8146	8146	7959	7959	8146	8146	8146	7959	8146	8146	8146	8146	8146	8146	8146	8146	8146	8146	8343	8146	8146	8146	8146	8146	8146	8146	8146	8146	8146	8343	8343	8343	8343	8343	0	0	0	0	0	0	2609	2609	2609	2609	2609	2589	2570	2551	2532	2514	2514	2514	2496	2496	2496	2478	2478	2460	2443	2426	2426	2426	2409	2392	2392	2392	2392	2376	2376	2376	2359	2343	2343	2327	2312	2312	2297	2297	2297	2281	2281	2266	2266	2266	2266	0	0	0	0	0	0	0	0	0	0	0	0	0	0	0	0	0	0	0	0	0	0	0	0	0	0	0	0	0	0	0	0	0	0	0	0
0	0	0	0	0	0	0	0	1026	1030	1033	1036	1039	1042	1042	1048	1048	1048	1045	1045	0	0	0	0	0	0	0	0	0	4771	4706	4706	4771	4706	4706	4706	4706	4706	4771	4771	4706	4771	4706	4771	4706	4643	4643	4643	4581	4643	4581	4643	4643	4643	4643	4706	4706	4643	4643	4643	4643	4643	4643	4643	4643	4643	4643	4643	4706	4643	4706	4643	4643	4643	4581	4643	4581	4643	4581	4643	4581	4643	4581	4643	4643	4706	4706	4706	4706	4706	4771	4706	4706	4643	4643	4706	4706	4706	4706	4706	4706	4706	4643	4706	4643	4643	4706	4706	4706	4706	4706	4706	4706	4706	4706	4771	4771	4771	4771	4771	4838	4838	4838	4838	7959	7959	7959	7959	7959	8146	8146	8146	8146	8146	8146	8146	8146	8146	8146	8146	8146	8146	7959	7959	8146	0	0	0	0	0	0	0	0	0	0	0	0	0	0	0	0	0	0	0	0	0	7608	7779	8146	8146	8146	8146	8146	7959	7959	7779	7779	7779	7779	7779	7959	7959	7959	7959	7959	7959	8146	8146	8146	8146	8146	8146	8146	8146	7959	7959	7959	7959	8146	8146	7959	7959	7959	7959	7779	7779	7779	0	0	0	0	0	3246	3246	3216	3216	3216	3216	3216	3216	3246	3246	3246	3246	3246	3246	3246	3246	3246	3216	3186	3186	3186	3186	3157	3157	3157	3157	3157	3186	3216	3216	3216	3216	3246	3246	3216	3216	3216	3216	3216	3216	3216	3216	3216	3216	3216	3216	3216	3186	3216	3216	3186	3216	3216	3216	3246	3246	3216	3216	3216	3216	3216	3216	3216	3216	3246	3246	3246	3246	3216	3216	3216	3216	3216	3216	3216	3186	3216	3216	3216	0	0	0	4771	4771	4706	4706	4706	4706	4706	4706	4706	4706	4706	4706	4706	4706	4706	4706	4706	4706	4706	4706	4706	4706	4706	4771	4771	4706	4706	4706	4706	4771	4771	4771	4771	4771	4771	4771	4771	4771	4771	4771	4771	4706	4771	4771	4771	4771	4771	4771	4771	4771	4771	4771	4771	4771	4771	4771	4706	4706	4706	4706	4706	4643	4643	4643	4643	4643	4643	4643	4581	4581	4581	4581	4581	4581	4581	4581	4521	4521	4521	4521	4521	4521	4581	4581	4581	4581	4581	4581	4581	4581	4521	4521	4521	4521	4521	4521	4521	4521	4521	4581	4581	4581	4581	4581	4581	4581	4581	4581	4581	4581	4581	4581	4581	4581	4581	4581	4581	4643	4643	4643	4643	4643	4643	4643	4581	4581	4581	4581	4581	4581	4581	4581	4581	4581	4581	4581	4581	4581	4643	4643	4643	4643	4643	4643	4643	4581	4643	4643	4643	4643	4643	4643	4706	4643	4643	4643	4643	4643	4643	4643	4706	4706	4706	4706	4771	4706	4706	4706	4706	4771	4771	4706	4706	4706	4771	4771	4838	4906	4906	4838	4906	4977	4977	4977	4977	8343	8343	8343	8146	8146	8146	8343	8343	8343	8343	8343	8343	8343	8343	8343	8343	8146	8146	8146	8146	8146	8146	8146	8343	8146	8146	8146	8146	8146	8146	8146	8146	8146	8146	8343	8343	8343	8343	8343	8343	8146	8146	7959	8146	7959	8146	8146	8146	8343	8146	8146	8146	8146	8146	8146	8146	8146	8343	8343	8343	8343	8146	8343	8343	8146	8146	8146	8146	8146	8343	8343	8343	8343	8343	0	0	0	0	0	0	2609	2609	2609	2589	2589	2570	2551	2551	2532	2532	2514	2514	2514	2514	2496	2496	2496	2478	2443	2426	2426	2426	2409	2409	2392	2392	2392	2376	2376	2376	2376	2343	2327	2327	2312	2297	2297	2297	2297	2281	2281	2266	2266	2266	2266	0	0	0	0	0	0	0	0	0	0	0	0	0	0	0	0	0	0	0	0	0	0	0	0	0	0	0	0	0	0	0	0	0	0	0	0
0	0	0	0	0	0	0	0	1026	1030	1030	1036	1039	1039	1042	1048	1048	1048	1048	1045	0	0	0	0	0	0	0	0	0	4771	4771	4706	4771	4706	4706	4706	4771	4706	4771	4771	4771	4771	4643	4706	4706	4706	4643	4643	4643	4643	4643	4643	4643	4643	4706	4706	4706	4643	4643	4643	4643	4581	4581	4581	4643	4643	4643	4643	4643	4643	4643	4643	4643	4643	4581	4581	4643	4643	4581	4643	4581	4643	4643	4643	4643	4706	4706	4706	4706	4706	4706	4706	4706	4643	4643	4706	4706	4706	4706	4706	4706	4706	4706	4706	4706	4706	4771	4771	4771	4706	4706	4706	4706	4706	4706	4706	4706	4706	4706	4706	4771	4771	4771	4838	7959	7959	8146	8146	8146	8146	8146	8146	8146	8146	8146	8146	8146	8146	8146	8146	8146	8146	8146	7959	0	0	0	0	0	0	0	0	0	0	0	0	0	0	0	0	0	0	0	0	0	0	0	7779	7959	8146	8146	8146	8146	7959	7959	7779	7779	7779	7779	7779	7959	7959	7959	7959	7959	7959	8146	8146	8146	7959	7959	7959	7959	8146	7959	8146	8146	8146	8146	8146	7959	7959	7959	7959	7779	7779	7779	7779	0	0	0	0	3246	3246	3246	3246	3246	3216	3216	3216	3246	3246	3246	3246	3246	3246	3246	3246	3246	3216	3186	3157	3186	3186	3157	3157	3157	3157	3157	3186	3216	3216	3216	3216	3216	3246	3216	3216	3216	3216	3216	3216	3246	3246	3246	3246	3216	3216	3216	3216	3216	3216	3216	3216	3246	3216	3246	3216	3216	3216	3216	3216	3216	3216	3216	3216	3246	3246	3246	3246	3216	3216	3216	3216	3216	3216	3186	3186	3216	3216	0	0	0	0	0	4706	4706	4706	4706	4706	4706	4706	4706	4706	4706	4706	4706	4706	4706	4706	4706	4706	4706	4706	4706	4706	4706	4771	4771	4771	4771	4771	4706	4706	4771	4771	4771	4771	4771	4771	4771	4771	4771	4771	4771	4706	4771	4771	4771	4771	4771	4771	4771	4771	4771	4771	4771	4706	4706	4706	4706	4643	4643	4643	4643	4581	4581	4521	4521	4521	4521	4521	4521	4521	4581	4581	4581	4581	4521	4521	4521	4521	4521	4521	4463	4521	4521	4521	4521	4581	4581	4581	4581	4521	4521	4521	4521	4463	4463	4463	4521	4521	4521	4581	4581	4581	4581	4581	4581	4581	4581	4581	4581	4581	4581	4581	4581	4581	4581	4581	4643	4643	4643	4643	4643	4643	4581	4581	4581	4581	4581	4581	4581	4581	4581	4521	4521	4581	4521	4581	4581	4581	4643	4643	4643	4643	4643	4643	4581	4581	4581	4581	4581	4581	4643	4643	4643	4643	4643	4643	4581	4581	4643	4643	4643	4706	4643	4643	4643	4643	4771	4771	4706	4771	4706	4706	4706	4706	4771	4771	4838	4906	4906	4838	4906	4906	4906	4977	4977	4977	8343	8343	8146	8146	8343	8343	8343	8343	8343	8343	8343	8343	8146	8343	8146	8146	8146	8146	8146	8146	8146	8146	8343	8343	8146	8343	8343	8146	8146	8146	8146	8146	8146	8146	8146	8146	8343	8146	8146	8146	8146	7959	7959	7959	7959	7959	8146	8146	8146	8146	8146	8146	8146	8146	8146	8146	8146	8146	8146	8146	8146	8343	8343	8146	8146	8146	8146	8146	8146	8343	8343	8343	8343	0	0	0	0	0	0	0	2589	2589	2589	2589	2570	2551	2551	2532	2532	2532	2514	2514	2514	2514	2496	2496	2478	2443	2443	2443	2426	2426	2409	2392	2392	2392	2392	2376	2376	2343	2327	2327	2312	2312	2312	2297	2297	2297	2281	2281	2281	2266	2266	2266	0	0	0	0	0	0	0	0	0	0	0	0	0	0	0	0	0	0	0	0	0	0	0	0	0	0	0	0	0	0	0	0	0	0	0	0
0	0	0	0	0	0	0	0	1026	1030	1030	1036	1039	1039	1042	1045	1045	1048	1048	0	0	0	0	0	0	0	0	0	0	4771	4771	4771	4771	4706	4771	4706	4706	4706	4706	4706	4706	4706	4643	4706	4643	4643	4643	4643	4643	4643	4643	4643	4643	4643	4643	4643	4706	4643	4643	4581	4581	4581	4581	4581	4581	4581	4643	4581	4643	4581	4581	4581	4581	4581	4581	4643	4643	4643	4643	4643	4643	4643	4581	4643	4643	4706	4706	4643	4643	4643	4706	4643	4643	4643	4643	4706	4706	4706	4706	4706	4706	4706	4706	4706	4706	4706	4706	4771	4706	4706	4643	4643	4706	4643	4643	4643	4643	4643	4706	4706	4706	4706	4771	4838	8146	8146	8146	8146	8146	8146	8146	8146	8146	8146	8146	8146	8146	8146	8146	8146	8146	8146	8146	0	0	0	0	0	0	0	0	0	0	0	0	0	5282	5282	5282	0	0	0	0	0	0	0	0	7959	7959	8146	8146	8146	8146	7959	7959	7959	7779	7779	7779	7779	7959	7959	7959	8146	7959	7959	7959	8146	8146	7959	7959	7959	8146	8146	8146	8146	8146	8146	8146	8146	7959	7959	7959	7959	7779	7608	7608	7608	0	0	0	0	0	3216	3246	3246	3246	3246	3216	3216	3246	3246	3246	3246	3246	3246	3246	3246	3216	3216	3186	3157	3186	3186	3157	3157	3157	3157	3157	3186	3186	3216	3216	3216	3216	3216	3216	3216	3216	3246	3246	3246	3246	3246	3246	3246	3216	3246	3216	3216	3216	3216	3216	3216	3246	3216	3216	3216	3216	3216	3216	3186	3216	3216	3216	3246	3246	3246	3246	3246	3246	3216	3246	3216	3216	3186	3186	3186	3186	3216	0	0	0	0	0	4706	4706	4706	4706	4706	4706	4706	4706	4706	4706	4706	4706	4706	4706	4706	4706	4706	4706	4706	4706	4706	4706	4771	4771	4771	4771	4771	4771	4771	4771	4771	4771	4771	4771	4771	4771	4771	4706	4706	4706	4706	4706	4771	4771	4771	4771	4771	4771	4771	4771	4771	4771	4706	4706	4706	4706	4643	4643	4581	4581	4581	4521	4521	4521	4521	4521	4521	4521	4521	4521	4521	4521	4521	4521	4521	4521	4521	4463	4463	4463	4463	4463	4463	4521	4521	4521	4521	4521	4521	4521	4521	4463	4463	4463	4463	4463	4463	4521	4581	4581	4581	4581	4581	4581	4581	4581	4581	4581	4581	4581	4581	4581	4581	4581	4581	4581	4643	4643	4643	4643	4581	4581	4581	4581	4581	4581	4521	4581	4581	4521	4521	4521	4521	4463	4521	4521	4521	4581	4581	4581	4643	4581	4581	4581	4581	4521	4581	4581	4581	4643	4581	4643	4643	4581	4581	4521	4521	4521	4581	4581	4643	4643	4643	4706	4643	4771	4771	4706	4706	4706	4706	4706	4706	4771	4771	4838	4906	4906	4838	4838	4838	4838	4906	4906	4906	8343	8343	8146	8146	8343	8343	8343	8343	8343	8343	8343	8146	8146	8146	8146	8146	8146	8146	8146	8146	8146	8146	8146	8146	8343	8343	8343	8146	8146	8146	8146	8146	8146	8146	8146	8146	8343	8146	8146	8146	8146	7959	7959	7959	7959	7959	8146	8146	8146	8146	8146	8146	8146	8146	8146	8146	8146	8146	8146	8146	8146	8343	8343	8146	8146	8146	8343	8146	8343	8343	8550	8343	8343	0	0	0	0	0	0	0	2609	2589	2589	2589	2589	2551	2551	2532	2532	2514	2514	2514	2514	2496	2496	2496	2478	2443	2443	2426	2426	2409	2392	2392	2392	2392	2376	2376	2376	2343	2327	2327	2312	2312	2312	2297	2297	2297	2281	2281	2266	2266	2266	2266	0	0	0	0	0	0	0	0	0	0	0	0	0	0	0	0	0	0	0	0	0	0	0	0	0	0	0	0	0	0	0	0	0	0	0	0
0	0	0	0	0	0	0	0	1026	1030	1030	1036	1036	1039	1042	1042	1042	1052	1052	0	0	0	0	0	0	0	0	0	0	4771	4771	4771	4771	4706	4771	4706	4706	4706	4706	4706	4706	4706	4643	4643	4643	4643	4581	4643	4643	4643	4643	4643	4643	4643	4706	4643	4706	4643	4643	4581	4581	4581	4581	4581	4581	4581	4581	4581	4581	4581	4581	4581	4581	4581	4581	4643	4643	4643	4581	4643	4643	4643	4581	4643	4643	4706	4706	4643	4643	4643	4706	4643	4643	4643	4643	4706	4706	4706	4706	4706	4706	4643	4643	4706	4706	4643	4643	4643	4706	4706	4643	4643	4643	4643	4643	4643	4643	4643	4706	4706	4706	4706	0	4706	4706	8146	8146	8146	8146	8146	8146	8146	8146	8146	8146	8146	8146	8146	8146	8146	8146	8146	0	0	0	0	0	0	0	0	0	0	0	0	0	5202	5202	5282	5282	0	0	0	0	0	0	0	0	7959	8146	8146	8146	8146	7959	7959	7959	7959	7779	7779	7959	7779	7959	7959	8146	8146	7959	7959	7959	7959	8146	7959	7959	7959	7959	8146	8146	8146	8146	8146	8146	8146	7959	7959	7959	7959	7959	7779	7779	7779	0	0	0	0	3157	3186	3216	3216	3216	3216	3216	3216	3246	3246	3246	3246	3246	3246	3246	3216	3216	3216	3186	3186	3186	3157	3157	3157	3157	3157	3157	3157	3186	3186	3186	3186	3216	3216	3216	3246	3216	3246	3246	3246	3277	3246	3246	3246	3246	3246	3216	3216	3216	3246	3216	3216	3246	3216	3216	3216	3186	3186	3216	3186	3216	3216	3216	3216	3216	3246	3246	3246	3216	3216	3246	3246	3216	3186	3186	3186	3186	0	0	0	0	0	4706	4706	4706	4706	4706	4706	4706	4706	4706	4706	4706	4706	4706	4706	4706	4706	4706	4706	4706	4706	4706	4706	4706	4771	4771	4771	4771	4771	4771	4771	4771	4771	4771	4771	4771	4771	4771	4706	4706	4706	4706	4706	4706	4771	4771	4771	4771	4771	4771	4706	4706	4706	4706	4706	4643	4643	4643	4581	4581	4581	4521	4521	4521	4521	4521	4521	4521	4521	4521	4521	4521	4521	4521	4521	4521	4521	4463	4463	4463	4463	4406	4463	4463	4463	4521	4521	4521	4521	4521	4521	4463	4463	4463	4463	4463	4463	4463	4463	4521	4581	4581	4581	4581	4581	4581	4581	4581	4581	4581	4581	4581	4581	4581	4581	4581	4581	4581	4643	4643	4643	4643	4643	4581	4581	4581	4581	4521	4521	4521	4521	4521	4463	4463	4463	4463	4521	4521	4521	4581	4581	4581	4581	4581	4581	4581	4521	4521	4521	4521	4521	4581	4581	4581	4581	4463	4463	4463	4463	4521	4521	4581	4643	4643	4706	4706	4706	4706	4706	4706	4706	4706	4771	4706	4771	4771	4771	4838	4906	4906	4838	4838	4838	4838	4906	4838	4838	8146	8146	8146	8146	8146	8343	8343	8343	8343	8343	8343	8146	8146	8343	8146	8146	8146	8146	8146	8343	8343	8343	8343	8343	8146	8343	8343	8146	8146	8146	8146	8146	8146	8146	8343	8343	8343	8146	8146	8146	8146	8146	7959	7959	7959	7959	7959	8146	8146	8146	8146	8146	8146	8146	7959	8146	8146	8146	8146	8146	8146	8343	8343	8343	8343	8343	8146	8146	8343	8343	8550	8550	8550	0	0	0	0	0	0	0	2589	2589	2589	2589	2589	2551	2551	2532	2532	2514	2514	2514	2514	2514	2496	2496	2478	2460	2443	2443	2426	2426	2409	2392	2392	2392	2376	2376	2376	2343	2327	2327	2327	2312	2312	2312	2297	2297	2297	2281	2266	2266	2266	2266	0	0	0	0	0	0	0	0	0	0	0	0	0	0	0	0	0	0	0	0	0	0	0	0	0	0	0	0	0	0	0	0	0	0	0	0
0	0	0	0	0	0	0	0	1026	1030	1030	1033	1036	1039	1039	1039	1042	1042	1052	0	0	0	0	0	0	0	0	0	4771	4771	4771	4771	4771	4706	4706	4706	4706	4706	4706	4706	4706	4643	4643	4643	4643	4643	4581	4581	4643	4643	4643	4643	4643	4643	4706	4643	4706	4643	4581	4581	4581	4581	4581	4581	4581	4581	4643	4581	4643	4643	4643	4581	4643	4643	4643	4643	4643	4643	4643	4643	4581	4643	4581	4643	4643	4706	4706	4643	4643	4643	4706	4643	4643	4643	4643	4706	4706	4706	4706	4643	4706	4643	4643	4643	4643	4643	4643	4643	4643	4643	4643	4643	4643	4643	4643	4643	4643	4643	4706	4706	4706	4706	0	4706	4706	8146	8146	8146	7959	7779	7959	7779	7959	7959	7959	7959	7959	7959	7959	8146	0	0	0	0	0	0	0	0	0	0	0	0	0	0	0	5202	5202	5202	5125	5125	0	0	0	0	0	0	0	7959	7959	8146	8146	8146	7959	7959	7959	7959	7959	7959	7959	7959	7959	8146	7959	8146	8146	7959	7959	7959	8146	7959	7959	7959	8146	8146	8146	8146	7959	8146	8146	7959	7959	7959	7959	7959	7959	7779	7608	7608	0	0	0	0	3157	3157	3186	3216	3216	3216	3186	3216	3216	3246	3246	3246	3216	3246	3216	3216	3216	3216	3186	3157	3157	3157	3157	3157	3157	3157	3157	3186	3186	3186	3186	3186	3216	3216	3216	3216	3216	3246	3246	3246	3277	3277	3246	3246	3246	3246	3246	3216	3216	3246	3216	3216	3246	3216	3216	3186	3186	3186	3186	3186	3216	3216	3216	3216	3216	3246	3216	3216	3216	3216	3216	3216	3216	3186	3186	0	0	0	0	0	0	0	4643	4643	4706	4706	4706	4706	4706	4706	4706	4706	4706	4706	4706	4706	4706	4706	4706	4706	4706	4706	4706	4706	4706	4771	4771	4771	4771	4771	4771	4771	4771	4771	4771	4771	4771	4771	4771	4771	4706	4706	4706	4706	4706	4706	4706	4706	4706	4706	4706	4706	4706	4706	4706	4643	4643	4643	4581	4581	4581	4521	4521	4521	4521	4521	4521	4521	4463	4463	4521	4521	4463	4521	4521	4521	4521	4463	4463	4463	4463	4463	4463	4463	4463	4463	4521	4521	4521	4463	4463	4463	4463	4463	4406	4406	4463	4463	4463	4463	4521	4521	4581	4581	4581	4581	4581	4581	4581	4581	4581	4581	4581	4581	4581	4581	4581	4581	4581	4581	4643	4643	4643	4581	4521	4581	4521	4521	4521	4463	4463	4521	4521	4463	4463	4463	4463	4463	4463	4463	4521	4581	4581	4581	4581	4581	4521	4463	4463	4521	4521	4521	4521	4521	4521	4521	4463	4463	4406	4406	4463	4463	4581	4581	4643	4771	4771	4771	4706	4706	4706	4706	4643	4771	4643	4771	4771	4771	4838	4906	4906	4838	4838	4838	4838	4838	4838	4838	8146	8146	8146	8146	8146	8146	8146	8146	8343	8146	8146	8146	8146	8146	8146	8146	8146	8146	8146	8343	8343	8146	8343	8146	8146	8343	8146	8146	8146	8146	8146	8146	8146	8146	8146	8146	8343	8146	8146	8146	8146	8146	7959	7959	7959	7959	7959	7959	7959	7959	7959	7959	8146	8146	8146	8146	8146	8146	8146	8146	8146	8343	8343	8146	8343	8343	8343	8146	8146	8343	8343	8550	8550	0	0	0	0	0	0	0	2609	2609	2609	2609	2589	2551	2551	2532	2532	2514	2514	2514	2514	2514	2496	2496	2496	2478	2443	2443	2426	2426	2409	2409	2392	2392	2376	2376	2376	2359	2327	2327	2327	2312	2312	2312	2297	2297	2297	2297	2281	2266	2266	2266	0	0	0	0	0	0	0	0	0	0	0	0	0	0	0	0	0	0	0	0	0	0	0	0	0	0	0	0	0	0	0	0	0	0	0	0
0	0	0	0	0	0	0	0	1026	1026	1030	1036	1036	1039	1039	1042	1042	1045	1045	0	0	0	0	0	0	0	0	0	4771	4771	4771	4771	4771	4771	4771	4706	4706	4706	4706	4706	4706	4643	4643	4643	4643	4643	4643	4643	4643	4706	4706	4706	4706	4706	4706	4643	4706	4643	4581	4581	4581	4581	4581	4581	4581	4643	4643	4643	4643	4643	4643	4581	4581	4643	4643	4643	4643	4643	4643	4643	4643	4581	4581	4581	4581	4643	4643	4643	4643	4643	4706	4643	4706	4643	4643	4643	4706	4643	4643	4643	4643	4643	4643	4643	4643	4643	4643	4643	4706	4643	4643	4643	4643	4643	4643	4643	4643	4643	4706	4706	4706	4706	0	0	0	0	0	0	6124	6124	6124	6349	6349	6349	6349	6468	6349	6349	6235	6235	0	0	0	0	0	0	0	0	0	0	0	0	0	5202	5202	5202	5202	5202	5125	5125	0	0	0	0	0	0	0	8146	8146	8146	8146	8146	7959	7959	7959	7959	7959	7959	7959	7959	7959	7959	7959	8146	8146	7959	7959	7959	8146	7959	7959	7959	8146	8146	7959	7959	7959	8146	7959	7959	7959	7959	7959	7959	7959	7779	7779	7779	7779	0	0	0	3157	3186	3186	3216	3216	3186	3186	3186	3216	3216	3216	3216	3216	3246	3216	3216	3186	3186	3186	3157	3157	3157	3157	3157	3157	3157	3157	3186	3186	3186	3186	3186	3216	3216	3216	3216	3216	3246	3246	3246	3277	3246	3246	3246	3246	3246	3246	3216	3216	3246	3246	3216	3246	3216	3216	3216	3186	3186	3216	3186	3216	3216	3216	3216	3216	3246	3246	3246	3246	3216	3216	3246	3216	3157	3157	0	0	0	0	0	0	4643	4581	4643	4706	4706	4706	4706	4706	4706	4706	4706	4706	4706	4706	4706	4706	4706	4706	4706	4706	4706	4706	4706	4706	4771	4771	4771	4771	4771	4771	4771	4771	4771	4771	4771	4771	4771	4771	4771	4706	4771	4771	4706	4706	4706	4706	4643	4643	4643	4643	4643	4643	4643	4643	4643	4643	4643	4581	4521	4521	4521	4521	4521	4521	4521	4521	4521	4463	4463	4521	4463	4463	4463	4463	4521	4521	4463	4463	4463	4463	4463	4463	4463	4463	4463	4463	4521	4463	4463	4463	4463	4463	4463	4406	4406	4463	4406	4406	4463	4463	4463	4581	4581	4581	4581	4581	4581	4581	4581	4581	4581	4581	4521	4521	4521	4581	4581	4581	4581	4581	4581	4581	4581	4581	4521	4521	4521	4521	4463	4463	4463	4463	4463	4463	4463	4463	4463	4463	4463	4521	4521	4521	4581	4581	4581	4581	4521	4521	4521	4521	4581	4581	4521	4521	4521	4521	4463	4463	4463	4463	4463	4521	4581	4643	4706	4706	4771	4706	4643	4643	4643	4643	4643	4643	4706	4706	4706	4838	4838	4838	4838	4838	4771	4771	4838	4838	8146	8146	8146	8146	8146	8146	8146	8146	8146	8146	8146	8146	8146	8146	8146	8146	8146	8146	8146	8146	8343	8343	8146	8146	8146	8343	8343	8146	8146	8146	8146	8146	8146	8146	8146	8146	8146	8343	8146	8146	8146	8146	8146	7959	7959	7959	8146	7959	8146	7959	7959	8146	8146	8146	8146	8146	8146	8146	8146	8146	8146	8146	8146	8343	8146	8146	8146	8343	8146	8146	8343	8343	0	0	0	0	0	0	0	0	0	2609	2609	2589	2589	2589	2551	2551	2551	2532	2514	2532	2514	2514	2514	2496	2496	2478	2478	2460	2443	2426	2426	2409	2409	2392	2392	2376	2376	2376	2359	2327	2327	2327	2312	2312	2312	2312	2297	2297	2297	2266	2266	2266	2266	0	0	0	0	0	0	0	0	0	0	0	0	0	0	0	0	0	0	0	0	0	0	0	0	0	0	0	0	0	0	0	0	0	0	0	0
0	0	0	0	0	0	0	0	1026	1030	1033	1036	1039	1039	1039	1039	1039	1042	1045	1045	0	0	0	0	0	0	0	0	0	4771	4771	4771	4706	4706	4706	4706	4643	4643	4706	4706	4706	4643	4643	4643	4643	4643	4643	4643	4643	4706	4706	4706	4706	4643	4706	4643	4643	4643	4581	4581	4581	4581	4581	4581	4581	4643	4643	4581	4643	4581	4581	4581	4581	4581	4643	4643	4643	4643	4643	4643	4643	4643	4581	4581	4581	4643	4643	4643	4643	4643	4643	4643	4643	4643	4643	4643	4643	4706	4643	4643	4706	4706	4643	4643	4643	4643	4643	4643	4643	4643	4581	4643	4643	4643	4643	4643	4643	4643	4706	4706	4706	4706	0	0	6124	6124	6124	6124	6124	6124	6124	6349	6349	6349	6349	6468	6468	6349	6235	6235	6235	6235	0	0	0	0	0	0	0	0	0	0	5125	5202	5202	5202	5202	5202	5202	5125	0	0	0	0	0	0	0	8146	8146	8146	8146	8146	8146	7959	7959	8146	7959	7959	7959	7959	7959	7959	7959	7959	7959	7959	7779	7779	7959	7779	7779	7959	8146	8146	7959	7959	7959	8146	7959	7959	7959	7959	7959	7959	7959	7779	7779	7779	7779	7779	0	0	3186	3186	3186	3186	3186	3186	3186	3186	3157	3186	3186	3216	3216	3216	3186	3186	3186	3186	3157	3157	3157	3157	3157	3157	3157	3157	3157	3186	3186	3186	3186	3186	3216	3216	3216	3216	3216	3246	3246	3246	3277	3277	3246	3246	3277	3246	3246	3246	3246	3246	3216	3216	3216	3216	3216	3216	3216	3186	3216	3186	3216	3216	3216	3246	3246	3246	3246	3246	3277	3246	3246	3216	3186	3186	3157	0	0	0	0	0	0	4643	4581	4643	4706	4706	4706	4706	4706	4706	4706	4706	4706	4706	4706	4706	4706	4706	4706	4706	4706	4706	4706	4706	4706	4771	4771	4771	4771	4771	4771	4771	4771	4771	4771	4771	4771	4771	4706	4706	4706	4706	4706	4643	4643	4643	4643	4581	4581	4581	4643	4581	4581	4581	4581	4581	4581	4581	4521	4521	4521	4521	4521	4463	4463	4463	4521	4463	4463	4463	4463	4463	4463	4463	4463	4463	4463	4463	4463	4406	4463	4463	4463	4406	4463	4463	4463	4463	4463	4463	4463	4463	4463	4463	4406	4406	4406	4463	4463	4463	4463	4521	4521	4581	4521	4581	4581	4581	4581	4581	4581	4581	4521	4521	4521	4521	4521	4521	4581	4581	4581	4581	4581	4521	4463	4463	4521	4521	4463	4463	4463	4463	4463	4463	4406	4406	4406	4463	4463	4463	4463	4521	4521	4521	4521	4521	4581	4521	4521	4521	4581	4581	4581	4521	4521	4521	4521	4463	4463	4463	4463	4463	4521	4581	4643	4706	4643	4643	4643	4643	4643	4643	4581	4643	4643	4643	4643	4706	4771	4838	4838	4771	4771	4771	4706	4771	4771	8146	8146	8146	8146	8146	8146	7959	8146	8146	8146	8146	8146	8146	8146	8146	8343	8146	8146	8146	8146	8146	8146	8146	8146	8146	8146	8343	8146	8146	7959	8146	8146	8146	8146	8146	8146	8146	8343	8146	8146	8146	8146	8146	8146	7959	7959	8146	8146	8146	7959	8146	8146	8146	8146	8146	8146	8146	8146	7959	8146	8146	8146	8146	8343	8146	8146	8146	8146	8146	8146	8146	8343	0	0	0	0	0	0	0	0	0	0	2609	2609	2589	2589	2570	2570	2551	2532	2532	2514	2514	2514	2514	2496	2496	2478	2460	2443	2443	2426	2409	2409	2392	2392	2392	2376	2376	2376	2359	2327	2327	2327	2312	2312	2312	2312	2297	2297	2297	2281	2266	2266	2266	0	0	0	0	0	0	0	0	0	0	0	0	0	0	0	0	0	0	0	0	0	0	0	0	0	0	0	0	0	0	0	0	0	0	0	0
0	0	0	0	0	0	0	0	1026	1030	1033	1036	1039	1039	1039	1039	1039	1042	1042	1042	0	0	0	0	0	0	0	0	0	0	4771	4706	4706	4706	4706	4706	4643	4643	4643	4643	4643	4643	4581	4581	4581	4581	4643	4643	4643	4643	4706	4706	4706	4643	4643	4643	4643	4643	4581	4581	4581	4581	4581	4581	4581	4581	4581	4581	4643	4581	4581	4581	4581	4581	4581	4581	4581	4643	4581	4643	4643	4643	4581	4581	4581	4581	4643	4643	4643	4643	4643	4643	4643	4643	4643	4643	4706	4706	4643	4643	4643	4706	4643	4643	4643	4643	4643	4643	4643	4643	4581	4643	4643	4643	4643	4643	4643	4643	4706	4706	4643	4643	0	6235	6124	6124	6235	6124	6124	6124	6124	6349	6349	6349	6349	6468	6468	6349	6235	6235	6235	6235	6235	0	0	5202	5202	5125	5202	5125	5125	0	5202	5125	5202	5202	5202	5125	5125	0	0	0	0	0	0	0	0	0	8146	8146	8146	8146	8146	7959	7959	8146	7959	7959	7959	7959	7959	7959	7959	7959	7959	7959	7779	7779	7779	7779	7779	7959	8146	8146	8146	7959	8146	8146	7959	7959	7779	7959	7779	7779	7779	7779	7779	7779	7779	7779	0	0	3186	3186	3186	3186	3186	3157	3157	3073	3073	3186	3246	3246	3277	3216	3216	3186	3186	3157	3157	3157	3157	3157	3157	3157	3157	3157	3157	3186	3186	3186	3186	3186	3216	3216	3216	3216	3216	3246	3246	3277	3277	3277	3277	3246	3277	3246	3246	3246	3246	3246	3246	3216	3216	3216	3216	3216	3216	3186	3216	3186	3216	3216	3216	3246	3246	3246	3277	3277	3277	3277	3277	3277	3186	3186	0	0	0	0	0	0	0	4643	4581	4643	4706	4706	4706	4706	4706	4706	4706	4706	4706	4706	4706	4706	4706	4706	4706	4706	4706	4706	4706	4706	4706	4771	4771	4771	4771	4771	4771	4771	4771	4771	4771	4771	4771	4771	4771	4706	4706	4706	4706	4643	4581	4581	4581	4521	4521	4521	4581	4581	4581	4581	4581	4521	4521	4521	4463	4463	4521	4463	4463	4463	4463	4463	4463	4463	4463	4463	4463	4463	4463	4463	4463	4463	4463	4406	4406	4406	4463	4463	4406	4406	4406	4406	4463	4463	4463	4406	4406	4406	4463	4406	4406	4406	4463	4463	4463	4463	4463	4521	4521	4581	4521	4521	4581	4521	4581	4521	4521	4521	4521	4521	4521	4521	4521	4521	4521	4521	4521	4521	4521	4463	4406	4463	4463	4463	4463	4463	4463	4463	4463	4463	4406	4406	4406	4463	4406	4406	4463	4463	4521	4521	4521	4521	4521	4521	4521	4521	4581	4581	4521	4521	4521	4521	4521	4463	4463	4463	4463	4463	4463	4581	4643	4643	4643	4643	4643	4643	4581	4581	4521	4581	4643	4643	4643	4643	4771	4771	4771	4771	4706	4706	4706	4706	4706	4706	8146	8146	8146	8146	7959	7959	7959	7959	8146	8146	8146	8146	8146	8146	8146	8146	8146	8146	8146	8146	8146	8146	8146	8146	8146	8343	8146	8146	8146	8146	8343	7959	7959	7959	8146	8146	8146	8146	8146	8146	8146	8146	7959	7959	7959	7959	7959	7959	7959	8146	8146	8146	8146	8146	8146	8146	8146	7959	8146	8146	8146	8146	8343	8146	8146	8146	8146	8146	8146	8146	0	0	0	0	0	0	0	0	0	0	0	2589	2609	2589	2589	2589	2570	2551	2532	2532	2514	2514	2514	2496	2496	2478	2460	2460	2443	2426	2426	2409	2409	2392	2392	2376	2376	2376	2376	2359	2327	2327	2327	2312	2312	2312	2297	2297	2297	2297	2266	2266	2266	2266	0	0	0	0	0	0	0	0	0	0	0	0	0	0	0	0	0	0	0	0	0	0	0	0	0	0	0	0	0	0	0	0	0	0	0	0
0	0	0	0	0	0	0	0	1026	1030	1030	1036	1039	1039	1039	1039	1039	1042	1042	1042	0	0	0	0	0	0	0	0	0	0	4771	4706	4706	4706	4706	4706	4643	4643	4643	4643	4643	4581	4581	4581	4581	4581	4643	4643	4643	4643	4706	4706	4643	4643	4643	4643	4706	4643	4581	4581	4581	4581	4581	4581	4581	4643	4643	4643	4643	4581	4581	4581	4581	4581	4581	4581	4581	4581	4581	4581	4581	4581	4581	4581	4581	4643	4643	4643	4643	4643	4643	4643	4643	4643	4643	4643	4643	4706	4643	4643	4643	4643	4643	4643	4643	4643	4643	4643	4643	4643	4581	4643	4643	4643	4643	4643	4643	4643	4706	4706	4643	4643	0	6235	6235	6235	6235	6235	6235	6235	6349	6349	6349	6349	6349	6468	6468	6349	6235	6235	6235	6235	6235	0	0	5202	5202	5202	5202	5202	5202	5202	5202	5202	5125	5202	5202	5125	5125	0	0	0	0	0	0	0	0	0	0	8343	8146	8146	8146	8146	8146	8146	8146	7959	7959	7959	7959	7959	7959	7959	7959	7779	7779	7779	7779	7779	7779	7959	7959	8146	7959	7959	7959	8146	7959	7959	7779	7779	7779	7779	7779	7779	7779	7959	7779	7779	7779	7779	7779	7779	7779	7959	3186	3157	3129	3046	3046	0	3246	3246	3277	3216	3216	3186	3186	3157	3157	3157	3157	3157	3157	3157	3157	3157	3157	3186	3186	3186	3186	3186	3216	3216	3216	3216	3216	3246	3246	3246	3246	3246	3246	3246	3246	3246	3246	3246	3246	3246	3216	3216	3216	3216	3216	3216	3216	3216	3216	3216	3216	3246	3246	3277	3277	3277	3277	3277	3309	3309	3309	3277	0	0	0	0	0	0	0	0	0	4643	4581	4581	4706	4706	4706	4706	4706	4706	4706	4706	4706	4706	4706	4706	4706	4706	4706	4706	4706	4706	4706	4706	4706	4771	4771	4771	4771	4771	4771	4771	4771	4771	4771	4771	4771	4771	4706	4706	4706	4643	4643	4643	4581	4581	4521	4463	4406	4463	4521	4521	4521	4521	4521	4521	4521	4521	4463	4406	4463	4463	4463	4406	4406	4406	4463	4463	4406	4406	4463	4521	4463	4463	4463	4463	4463	4521	4463	4406	4463	4463	4463	4406	4406	4406	4406	4463	4406	4406	4406	4406	4463	4406	4406	4406	4463	4463	4463	4406	4463	4521	4521	4581	4521	4521	4581	4521	4521	4521	4521	4521	4521	4463	4521	4463	4521	4521	4521	4463	4521	4463	4521	4406	4406	4406	4406	4463	4463	4463	4463	4463	4463	4463	4406	4406	4406	4463	4406	4463	4463	4463	4521	4463	4463	4521	4581	4581	4581	4521	4581	4581	4581	4521	4521	4463	4463	4463	4463	4463	4463	4406	4463	4581	4643	4643	4581	4643	4643	4581	4581	4581	4521	4581	4581	4643	4643	4643	4706	4771	4771	4706	4706	4706	4706	4838	4838	8146	8146	8146	8146	8146	7959	7959	7959	7959	8146	8146	8146	8146	8146	8146	8146	8146	8146	8146	8146	8146	8146	8146	8146	8146	8146	8146	8146	8146	8343	8343	8343	8343	8343	8343	8146	8146	8146	8146	8146	8146	8146	8146	7959	7959	8146	8146	8146	7959	7959	7959	8146	8146	8146	8146	8146	8146	8146	8146	8146	8146	8146	8146	8343	8146	8146	8146	8146	7959	7959	8146	0	0	0	0	0	0	0	0	0	0	2609	2609	2609	2609	2589	2589	2570	2551	2532	2532	2514	2514	2496	2496	2496	2478	2460	2443	2426	2426	2409	2409	2409	2392	2392	2376	2376	2359	2359	2359	2327	2327	2312	2312	2312	2312	2312	2297	2297	2281	2266	2266	2266	2266	0	0	0	0	0	0	0	0	0	0	0	0	0	0	0	0	0	0	0	0	0	0	0	0	0	0	0	0	0	0	0	0	0	0	0	0
0	0	0	0	0	0	0	0	1030	1033	1033	1036	1039	1039	1039	1039	1039	1039	1039	1042	0	0	0	0	0	0	0	0	0	4706	4706	4706	4706	4706	4706	4706	4643	4643	4643	4643	4643	4581	4581	4581	4581	4581	4643	4581	4581	4643	4643	4643	4643	4643	4643	4643	4643	4643	4581	4581	4581	4581	4581	4643	4581	4643	4643	4643	4643	4581	4581	4581	4581	4581	4581	4581	4581	4581	4581	4581	4581	4581	4581	4581	4581	4643	4643	4643	4643	4643	4643	4706	4706	4643	4643	4643	4643	4706	4643	4643	4643	4643	4643	4643	4643	4643	4643	4643	4643	4643	4581	4581	4581	4581	4643	4643	4643	4643	4643	4643	4581	4581	4581	6349	6235	6235	6235	6235	6235	6235	6349	6349	6349	6349	6349	6349	6349	6235	6235	6235	6235	6235	6124	6124	5202	5202	5202	5202	5202	5202	5202	5282	5282	5202	5202	5202	5202	5125	5125	0	0	0	0	0	0	0	0	0	0	8146	8146	8146	8146	7959	8146	8146	8146	7959	7959	7959	7959	8146	7959	7959	7959	7959	7779	7779	7779	7779	7779	7959	7959	7959	7959	7959	8146	8146	7959	7959	7779	7779	7779	7779	7959	7779	7779	7959	7959	7779	7779	7779	7779	7779	7959	7959	7959	3157	3046	3046	8146	0	0	0	0	3277	3216	3216	3186	3157	3157	3157	3157	3157	3157	3157	3157	3157	3157	3186	3186	3186	3186	3186	3216	3216	3216	3216	3216	3246	3246	3246	3246	3246	3246	3246	3246	3246	3246	3246	3246	3216	3246	3216	3216	3216	3216	3216	3216	3246	3216	3216	3216	3246	3246	3246	3277	3277	3277	3277	3277	3309	3309	0	0	0	0	0	0	0	0	0	0	4643	4581	4643	4643	4706	4706	4706	4706	4706	4706	4706	4706	4706	4706	4706	4706	4706	4706	4706	4706	4706	4706	4706	4706	4771	4771	4771	4771	4771	4771	4771	4771	4771	4771	4771	4771	4771	4706	4581	4581	4643	4581	4581	4581	4581	4521	4406	4406	4406	4463	4463	4463	4463	4521	4521	4521	4463	4463	4406	4463	4463	4406	4406	4406	4406	4463	4463	4406	4406	4463	4521	4463	4463	4406	4463	4463	4521	4463	4463	4463	4463	4406	4406	4406	4463	4463	4463	4406	4406	4406	4406	4463	4406	4406	4406	4463	4463	4463	4406	4463	4521	4581	4581	4581	4521	4581	4521	4521	4521	4521	4521	4521	4463	4521	4463	4521	4463	4521	4406	4521	4463	4521	4406	4406	4406	4406	4406	4406	4406	4406	4406	4406	4463	4406	4406	4463	4463	4463	4463	4463	4463	4463	4463	4463	4521	4521	4521	4521	4521	4581	4581	4521	4463	4463	4463	4463	4406	4406	4406	4463	4406	4463	4581	4581	4643	4581	4643	4581	4581	4581	4581	4521	4581	4521	4521	4581	4581	4643	4706	4706	4706	4706	4706	4706	4706	4706	8146	8146	8146	8146	8146	7959	7959	7959	7959	8146	8146	8146	8146	8146	8146	8146	8146	8146	8146	8146	8146	8146	8146	8146	8146	8146	8146	8146	8146	8146	8343	8343	8343	8343	8343	8146	8146	8146	8146	8146	8146	8146	8146	7959	7959	7959	8146	8146	8146	8146	8146	7959	8146	8146	7959	8146	8343	8146	8146	8146	8146	8343	8343	8343	8146	8146	8146	8146	8146	8146	8146	8146	0	0	0	0	0	0	0	0	0	2629	2629	2609	2609	2609	2589	2570	2551	2532	2532	2514	2514	2514	2496	2496	2496	2478	2460	2426	2409	2409	2392	2392	2392	2392	2376	2376	2376	2376	2359	2327	2312	2312	2312	2312	2312	2297	2297	2297	2281	2266	2266	2266	2266	0	0	0	0	0	0	0	0	0	0	0	0	0	0	0	0	0	0	0	0	0	0	0	0	0	0	0	0	0	0	0	0	0	0	0	0
0	0	0	0	0	0	0	0	1030	1036	1036	1039	1039	1039	1039	1039	1039	1042	1042	1042	0	0	0	0	0	0	0	0	0	4706	4706	4706	4706	4706	4706	4706	4643	4581	4581	4643	4581	4581	4581	4581	4581	4581	4643	4581	4581	4643	4643	4643	4643	4581	4643	4643	4643	4581	4581	4581	4581	4581	4581	4643	4581	4581	4643	4643	4643	4643	4581	4581	4581	4581	4581	4581	4581	4581	4581	4581	4581	4581	4581	4581	4581	4643	4643	4643	4643	4581	4643	4706	4706	4706	4643	4706	4706	4706	4706	4643	4706	4706	4643	4643	4643	4643	4643	4643	4643	4643	4581	4581	4581	4581	4643	4643	4643	4643	4643	4643	4643	4643	6349	6349	6349	6349	6235	6235	6235	6235	6349	6349	6349	6349	6349	6349	6349	6349	6235	6235	6235	6235	6235	5282	5202	5202	5202	5202	5202	5202	5202	5202	5202	5202	5202	5202	5202	5125	5125	0	0	0	0	0	0	0	0	0	0	8146	8146	8146	7959	7959	7959	7959	7959	7959	7959	7959	7959	8146	8146	8146	7959	7959	7779	7779	7779	7779	7779	7959	7959	7959	7959	7959	7959	8146	7959	7959	7959	7959	7959	7959	7959	7959	7959	7959	7959	7959	7959	7959	7959	7959	7959	7959	7959	7959	7959	7959	8146	0	0	0	0	3277	3246	3216	3186	3157	3157	3157	3157	3157	3157	3157	3157	3157	3157	3186	3186	3186	3216	3216	3216	3216	3216	3216	3216	3246	3246	3246	3246	3246	3246	3246	3246	3246	3246	3246	3216	3216	3216	3216	3216	3216	3216	3216	3216	3246	3246	3246	3246	3246	3277	3277	3277	3277	3277	3277	3277	3309	3309	0	0	0	0	0	0	0	0	0	0	0	4581	4581	4643	4706	4706	4706	4706	4706	4706	4706	4706	4706	4706	4706	4706	4706	4706	4706	4706	4706	4706	4643	4643	4643	4771	4771	4771	4771	4771	4771	4771	4771	4771	4771	0	0	0	4581	4581	4521	4521	4521	4463	4521	4463	4406	4350	4350	4406	4406	4406	4406	4463	4463	4463	4463	4463	4406	4406	4463	4406	4406	4406	4406	4406	4463	4463	4406	4463	4521	4463	4463	4463	4521	4521	4521	4521	4521	4521	4521	4463	4406	4406	4406	4463	4463	4463	4406	4463	4406	4463	4463	4406	4406	4406	4463	4463	4406	4406	4521	4521	4521	4521	4521	4581	4521	4521	4521	4463	4463	4463	4463	4463	4463	4521	4463	4406	4406	4463	4463	4406	4406	4406	4406	4406	4406	4406	4406	4406	4406	4406	4463	4406	4406	4463	4463	4463	4521	4463	4521	4521	4463	4463	4521	4521	4521	4581	4581	4521	4581	4521	4463	4463	4463	4463	4406	4463	4463	4463	4406	4463	4521	4581	4581	4463	4581	4581	4463	4463	4463	4463	4521	4463	4463	4463	4521	4643	4706	4706	4706	4706	4706	4706	4706	4706	8146	8146	8146	8146	8146	8146	8146	8146	8146	8146	8146	8146	8146	8146	8146	8146	8146	8146	8146	8146	8146	8146	7959	8146	7959	8146	8146	8146	8146	8146	8343	8343	8343	8343	8343	8146	8146	8146	8146	8146	8146	8146	8146	7959	8146	8146	8146	8343	8146	8146	8146	8146	8146	8146	8146	8146	8343	8343	8146	8146	8146	8146	8146	8343	8146	8146	8146	8146	8146	7959	8146	8146	0	0	0	0	0	0	0	0	0	2609	2609	2609	2609	2609	2570	2551	2551	2532	2532	2514	2514	2514	2496	2496	2496	2478	2460	2443	2409	2409	2409	2392	2392	2392	2392	2376	2376	2376	2359	2343	2327	2312	2312	2312	2312	2297	2297	2297	2281	2266	2266	2266	2266	0	0	0	0	0	0	0	0	0	0	0	0	0	0	0	0	0	0	0	0	0	0	0	0	0	0	0	0	0	0	0	0	0	0	0	0
0	0	0	0	0	0	0	0	1033	1036	1036	1039	1039	1039	1039	1039	1039	1042	1048	1048	1048	0	0	0	0	0	0	0	0	0	4706	4706	4706	4706	4706	4643	4643	4581	4581	4581	4581	4581	4581	4581	4581	4581	4643	4581	4581	4643	4643	4643	4643	4643	4643	4643	4643	4581	4581	4581	4581	4581	4581	4643	4643	4643	4643	4643	4581	4581	4581	4581	4581	4581	4521	4521	4581	4581	4581	4581	4581	4581	4581	4581	4581	4643	4643	4643	4581	4643	4581	4643	4643	4706	4706	4706	4706	4706	4706	4706	4706	4706	4643	4643	4643	4643	4643	4643	4643	4581	4581	4581	4643	4643	4643	4643	4643	4643	4643	4581	4581	6349	6349	6349	6349	6349	6349	6235	6235	6349	6349	6349	6349	6349	6349	6349	6349	6235	6235	6235	6124	6124	6124	5282	5202	5125	5202	5202	5202	5202	5202	5282	5202	5202	5202	5202	5282	5202	5202	0	0	0	0	0	0	0	0	0	0	8146	8146	8146	7959	7959	7959	7959	7959	7959	7959	7959	7959	8146	8146	7959	7959	7959	7959	7779	7779	7779	7779	7779	7779	7959	7959	7959	7959	7959	7959	7959	7959	7959	7959	7959	7959	7959	7959	7959	7959	7959	7959	7959	7959	7959	7779	7959	7959	7959	7959	7959	0	0	0	0	0	0	3246	3186	3186	3157	3157	3157	3157	3157	3157	3157	3157	3157	3186	3186	3186	3216	3216	3216	3216	3216	3216	3216	3216	3246	3246	3246	3246	3246	3246	3246	3246	3246	3246	3246	3216	3216	3216	3216	3216	3216	3216	3216	3246	3246	3246	3246	3246	3246	3277	3277	3277	3277	3277	3277	3309	3309	3309	0	0	0	0	0	0	0	0	0	0	0	4581	4643	4706	4706	4706	4706	4706	4706	4706	4706	4706	4706	4706	4706	4706	4706	4706	4706	4706	4706	4706	4706	4706	4771	4771	4771	4771	4771	4838	4838	4771	4771	4771	0	0	0	0	0	0	4463	4463	4463	4463	4463	4463	4350	4350	4350	4406	4406	4463	4406	4463	4406	4463	4406	4406	4406	4406	4406	4406	4406	4406	4406	4406	4406	4406	4581	4581	4581	4521	4406	4406	4581	4581	4581	4521	4521	4521	4521	4406	4406	4406	4406	4406	4463	4463	4463	4463	4463	4463	4463	4463	4463	4463	4463	4463	4406	4406	4463	4521	4521	4521	4463	4521	4521	4463	4463	4463	4521	4521	4463	4463	4463	4581	4463	4463	4463	4463	4463	4463	4406	4406	4406	4406	4406	4406	4406	4463	4463	4463	4463	4463	4463	4521	4463	4463	4521	4521	4581	4581	4521	4521	4581	4581	4581	4581	4581	4521	4581	4521	4521	4521	4521	4463	4463	4463	4406	4406	4406	4463	4406	4463	4406	4406	4463	4463	4406	4406	4406	4406	4406	4406	4463	4463	4521	4643	4706	4706	4706	4706	4706	4706	4706	4706	8146	8146	8146	8146	8146	8146	8146	8146	8146	8146	8146	8146	7959	7959	7959	7959	8146	8146	8146	8146	8146	8146	8146	8146	8146	8146	8146	8146	8146	8146	8146	8146	7959	7959	8146	8146	8146	8146	8146	8146	8146	8146	7959	7959	7959	8146	8146	8146	7959	8146	7959	7959	8146	7959	8146	8146	8343	8343	8146	8146	8146	8146	8146	8343	8146	8146	8146	8146	8146	7959	7779	7779	0	0	0	0	0	0	0	0	0	2609	2609	2609	2609	2589	2570	2551	2551	2532	2514	2514	2514	2514	2496	2496	2496	2478	2460	2443	2426	2409	2409	2392	2392	2392	2376	2376	2376	2376	2359	2343	2312	2312	2312	2312	2312	2297	2297	2281	2281	2266	2266	2266	2266	0	0	0	0	0	0	0	0	0	0	0	0	0	0	0	0	0	0	0	0	0	0	0	0	0	0	0	0	0	0	0	0	0	0	0	0
0	0	0	0	0	0	0	0	1033	1039	1039	1039	1042	1039	1039	1039	1042	1045	1048	1052	1052	0	0	0	0	0	0	0	0	0	4706	4706	4706	4706	4706	4706	4643	4581	4581	4581	4581	4581	4581	4581	4581	4581	4643	4581	4581	4581	4643	4643	4643	4581	4581	4581	4581	4581	4581	4581	4581	4581	4643	4643	4643	4643	4643	4643	4581	4581	4581	4581	4581	4581	4521	4521	4581	4581	4581	4581	4581	4581	4643	4581	4581	4643	4643	4706	4581	4581	4706	4706	4706	4706	4706	4706	4706	4706	4706	4643	4706	4706	4643	4643	4643	4643	4643	4643	4643	4581	4581	4581	4643	4643	4643	4643	4643	4643	4581	4581	6349	6349	6349	6349	6349	6349	6349	6349	6235	6235	6349	6349	6349	6349	6349	6349	6349	6349	6235	6235	6235	6235	6124	6124	5202	5125	5202	5202	5202	5202	5202	5202	5202	5202	5202	5202	5282	5202	5202	0	0	0	0	0	0	0	0	0	0	8146	8146	8146	7959	7959	7959	7959	7959	7959	7779	7779	7959	7959	8146	7959	7959	7959	7959	7959	7779	7779	7779	7779	7779	7779	7779	7779	7959	7959	7959	7959	7959	7959	7959	7959	7959	7959	7959	7959	7959	7959	7779	7959	7959	7959	7959	7959	7959	7959	7959	7959	0	0	0	0	0	0	3246	3216	3186	3186	3157	3157	3157	3157	3157	3157	3157	3157	3186	3186	3186	3216	3216	3216	3216	3216	3216	3216	3216	3216	3246	3246	3246	3246	3246	3246	3246	3246	3246	3246	3216	3216	3216	3216	3216	3246	3246	3246	3246	3246	3246	3246	3246	3277	3277	3277	3277	3277	3277	3277	3277	3277	3309	0	0	0	0	0	0	0	0	0	0	0	0	4706	4706	4706	4706	4706	4706	4706	4706	4706	4706	4706	4706	4706	4706	4706	4643	4706	4706	4706	4643	4643	4643	4706	4771	4771	4771	4771	4838	4838	4771	4771	0	0	0	0	0	0	0	4463	4463	4406	4406	4463	4463	4463	4406	4350	4406	4406	4463	4463	4463	4406	4463	4406	4406	4406	4406	4406	4406	4350	4350	4350	4521	4643	4643	4643	4581	4581	4521	4643	4643	4581	4581	4581	4521	4521	4581	4581	4463	4463	4406	4406	4406	4463	4463	4463	4521	4521	4521	4521	4521	4521	4581	4406	4406	4406	4406	4463	4463	4463	4463	4463	4463	4463	4463	4463	4463	4463	4463	4463	4521	4463	4521	4521	4463	4463	4581	4581	4406	4406	4350	4406	4406	4406	4406	4406	4406	4521	4521	4521	4463	4463	4521	4463	4463	4521	4521	4581	4581	4581	4521	4581	4581	4581	4581	4581	4521	4581	4521	4521	4521	4521	4521	4521	4463	4463	4463	4463	4463	4463	4406	4406	4406	4463	4406	4406	4406	4406	4406	4406	4406	4406	4463	4581	4643	4706	4706	4706	4706	4706	4706	4706	4706	8146	8146	8146	8146	8146	8146	8146	8343	8146	8146	8146	8146	7959	7959	7959	7779	7779	7959	8146	8146	8146	8146	8146	8146	8146	8146	8146	8146	8146	8146	8146	8146	8146	8146	8146	8146	8146	8146	8146	7959	8146	8146	8146	7959	8146	8146	8146	8146	8146	8146	7959	8146	7959	7959	8146	8146	8343	8343	8343	8343	8343	8343	8146	8146	8146	8146	8146	8146	8146	7959	7959	7959	0	0	0	0	0	0	0	0	0	2609	2609	2609	2589	2589	2570	2570	2551	2532	2514	2514	2514	2496	2496	2478	2478	2478	2460	2443	2426	2409	2392	2392	2392	2392	2376	2376	2376	2376	2359	2343	2312	2312	2312	2312	2312	2297	2297	2281	2281	2266	2266	2266	2266	0	0	0	0	0	0	0	0	0	0	0	0	0	0	0	0	0	0	0	0	0	0	0	0	0	0	0	0	0	0	0	0	0	0	0	0
0	0	0	0	0	0	0	0	0	1039	1039	1039	1042	1039	1039	1042	1042	1045	1048	1048	1052	0	0	0	0	0	0	0	0	4643	4643	4706	4643	4706	4643	4706	4643	4643	4581	4643	4581	4581	4581	4581	4581	4581	4581	4581	4581	4581	4581	4581	4581	4581	4581	4581	4581	4581	4581	4581	4581	4581	4643	4643	4643	4643	4643	4581	4581	4581	4581	4581	4581	4581	4521	4521	4581	4581	4581	4581	4581	4581	4581	4581	4581	4643	4643	4706	4643	4706	4706	4706	4706	4706	4706	4706	4706	4771	4706	4706	4706	4706	4643	4643	4643	4643	4643	4643	4643	4643	4643	4643	4643	4643	4643	4643	4643	4643	4581	4581	6235	6235	6349	6349	6349	6349	6349	6349	6349	6349	6349	6349	6349	6349	6235	6349	6349	6235	6235	6235	6235	6235	6235	5915	5915	5202	5202	5202	5202	5202	5202	5202	5202	5202	5202	5202	5202	5202	5202	5202	0	0	0	0	0	0	0	0	0	8146	8146	8146	7959	7959	7959	7959	7959	7959	7779	7959	7959	7959	7959	7959	7959	7959	7959	7959	7959	7779	7779	7779	7779	7779	7779	7779	7779	7779	7959	7959	7959	7959	7959	7959	7959	7959	7959	7959	7959	7959	7959	7959	7959	7959	7959	7959	7959	7959	8146	8146	0	0	0	0	0	0	3246	3216	3216	3216	3186	3186	3186	3157	3186	3186	3157	3157	3186	3186	3186	3216	3216	3186	3216	3216	3216	3246	3246	3246	3246	3246	3246	3246	3246	3246	3246	3216	3216	3216	3216	3216	3216	3246	3246	3246	3246	3246	3246	3277	3246	3246	3246	3277	3277	3277	3277	3277	3277	3277	3277	3277	0	0	0	0	0	0	0	0	0	0	0	0	0	4706	4706	4706	4706	4706	4706	4706	4706	4706	4706	4706	4706	4706	4706	4706	4706	4706	4706	4643	4643	4643	4643	4771	4771	4771	4771	4838	4838	4838	4838	4771	0	0	0	0	0	0	0	4521	4521	4521	4521	4521	4521	4521	4581	4463	4463	4463	4463	4463	4463	4463	4463	4463	4406	4406	4406	4581	4581	4581	4521	4521	4643	4643	4643	4581	4643	4706	4643	4643	4643	4643	4581	4581	4581	4581	4581	4581	4581	4521	4521	4521	4521	4521	4521	4521	4581	4581	4581	4581	4581	4581	4581	4521	4463	4406	4406	4463	4463	4463	4463	4463	4463	4463	4463	4463	4463	4521	4521	4463	4521	4521	4581	4643	4643	4643	4643	4643	4643	4643	4643	4706	4706	4706	4706	4706	4706	4521	4521	4581	4521	4521	4521	4521	4521	4521	4521	4581	4581	4581	4581	4643	4581	4643	4581	4581	4581	4581	4581	4581	4581	4521	4521	4521	4463	4463	4463	4463	4463	4463	4463	4521	4521	4521	4463	4406	4463	4406	4406	4406	4406	4463	4521	4581	4643	4706	4706	4706	4706	4706	4706	4706	4706	4706	7959	8146	8146	8146	8146	8146	8146	8146	8146	8146	8146	7959	7959	7959	7779	7779	7959	8146	8146	7959	8146	8146	8146	8146	8146	8146	8146	8146	8146	8146	8146	8146	8146	8146	8146	8146	8146	7959	7959	7959	7959	7959	7959	8146	8146	8146	8146	8146	8146	7959	7959	7959	7959	8146	8146	8343	8343	8343	8343	8343	8343	8146	8146	8146	8146	8146	7959	8146	7959	7779	7779	0	0	0	0	0	0	0	0	0	2609	2609	2609	2609	2589	2570	2551	2551	2532	2514	2514	2514	2496	2496	2478	2478	2460	2460	2460	2426	2409	2392	2392	2392	2392	2376	2376	2376	2376	2359	2343	2343	2312	2312	2312	2312	2297	2297	2281	2281	2266	2266	2266	2266	0	0	0	0	0	0	0	0	0	0	0	0	0	0	0	0	0	0	0	0	0	0	0	0	0	0	0	0	0	0	0	0	0	0	0	0
0	0	0	0	0	0	0	0	0	1039	1039	1042	1042	1039	1039	1042	1045	1045	1052	1052	0	0	0	0	0	0	0	0	0	4581	4643	4643	4643	4643	4643	4706	4643	4643	4581	4643	4581	4581	4581	4581	4521	4581	4581	4581	4581	4581	4581	4581	4581	4581	4581	4581	4581	4581	4581	4581	4581	4581	4643	4643	4643	4643	4643	4581	4581	4581	4581	4581	4581	4581	4581	4581	4581	4581	4581	4581	4581	4581	4581	4581	4581	4643	4643	4643	4643	4643	4706	4706	4706	4706	4706	4706	4771	4706	4706	4643	4643	4643	4643	4643	4643	4643	4643	4643	4643	4643	4643	4643	4643	4643	4643	4643	4643	4643	4581	4521	4521	6235	6349	6349	6468	6349	6349	6349	6349	6349	6235	6235	6235	6235	6235	6235	6235	6235	6235	6235	6235	6235	6235	5915	5719	5364	5282	5202	5202	5202	5202	5202	5202	5202	5202	5202	5202	5202	5202	5202	5364	5364	5364	0	0	0	0	0	0	8146	8146	8146	7959	7959	7959	7959	7959	7959	7959	7959	7959	7959	7959	7959	7959	7959	7959	7959	7959	7959	7779	7779	7779	7779	7779	7779	7779	7779	7959	7959	7959	7959	7959	7959	7959	8146	7959	7959	7959	7959	7959	7959	7959	7959	7959	7959	7959	7959	8146	8146	0	0	0	0	0	0	3246	3216	3216	3216	3186	3186	3186	3157	3186	3186	3157	3157	3186	3186	3186	3216	3216	3216	3216	3216	3216	3216	3216	3216	3246	3246	3246	3246	3246	3246	3246	3246	3246	3216	3216	3216	3216	3246	3246	3246	3246	3246	3246	3277	3246	3246	3246	3246	3277	3246	3246	3277	3277	3277	3277	3277	0	0	0	0	0	0	0	0	0	0	0	0	0	4706	4643	4643	4706	4706	4706	4706	4706	4706	4706	4706	4706	4706	4706	4706	4706	4706	4706	4643	4643	4643	4643	4706	4771	4771	4771	4838	4838	4838	4838	0	0	0	0	0	0	0	0	4581	4581	4581	4581	4581	4643	4581	4581	4581	4521	4521	4521	4521	4463	4463	4521	4521	4521	4521	4521	4521	4643	4581	4643	4643	4706	4643	4643	4581	4643	4706	4643	4643	4581	4643	4643	4643	4643	4643	4643	4643	4643	4643	4581	4643	4643	4643	4643	4643	4643	4706	4643	4643	4643	4643	4643	4581	4521	4463	4406	4463	4463	4521	4463	4463	4463	4521	4463	4521	4521	4521	4643	4581	4581	4581	4643	4643	4643	4643	4706	4706	4706	4643	4706	4706	4706	4706	4706	4706	4706	4521	4643	4643	4581	4581	4581	4581	4581	4581	4581	4643	4643	4643	4706	4643	4581	4581	4581	4581	4581	4643	4643	4643	4643	4581	4581	4581	4521	4521	4581	4581	4643	4643	4643	4643	4581	4581	4463	4406	4463	4406	4406	4406	4406	4463	4521	4581	4706	4771	4706	4706	4706	4706	4771	4771	4771	8146	8146	8146	8146	8146	8146	8146	8343	8146	8343	8146	8146	7959	7959	7959	7779	7779	8146	8146	8146	8146	8146	8146	8146	8146	8146	8146	7959	7959	8146	8146	8146	8146	8146	8146	8146	8146	8146	8146	7959	7959	7959	7959	8146	8146	8146	8146	8146	8146	8146	7959	7959	7959	7959	8146	8146	8146	8343	8343	8343	8343	8343	8146	8146	8146	8146	8146	8146	7959	8146	8146	8146	0	0	0	0	0	0	0	0	0	2609	2609	2609	2589	2589	2570	2551	2551	2532	2514	2514	2496	2496	2496	2478	2460	2460	2460	2460	2426	2409	2392	2392	2392	2392	2376	2376	2392	2376	2376	2343	2327	2312	2312	2297	2297	2297	2281	2281	2281	2266	2266	2266	2266	0	0	0	0	0	0	0	0	0	0	0	0	0	0	0	0	0	0	0	0	0	0	0	0	0	0	0	0	0	0	0	0	0	0	0	0
0	0	0	0	0	0	0	0	0	1042	1042	1042	1045	1042	1042	1042	1045	1048	1052	1052	0	0	0	0	0	0	0	0	0	4581	4581	4643	4643	4581	4643	4643	4643	4643	4581	4643	4581	4581	4581	4581	4521	4581	4581	4581	4581	4581	4581	4581	4581	4581	4581	4581	4581	4581	4581	4581	4581	4581	4581	4581	4643	4643	4643	4581	4581	4581	4581	4581	4581	4581	4581	4581	4581	4581	4581	4581	4581	4581	4581	4581	4581	4643	4643	4643	4581	4706	4706	4706	4771	4771	4706	4706	4771	4706	4706	4643	4643	4643	4643	4643	4643	4643	4643	4643	4643	4643	4643	4643	4643	4643	4643	4643	4643	4581	4581	4521	4521	6349	6349	6349	6468	6349	6349	6349	6349	6349	6235	6235	6235	6349	6235	6235	6349	6349	6235	6235	6235	6235	6124	5915	5719	5535	5282	5282	5202	5282	5282	5202	5202	5202	5202	5202	5202	5202	5202	5282	5364	5282	5282	0	0	0	0	0	0	7959	8146	8146	8146	7959	7959	7959	8146	8146	7959	8146	7959	7959	7959	7959	7959	7959	7959	8146	7959	7959	7959	7779	7959	7779	7779	7779	7779	7779	7779	7779	7959	8146	7959	7959	7959	8146	7959	7779	7779	7959	7959	7959	7959	7959	7959	7959	7959	7959	8146	8146	0	0	0	0	0	0	3277	3216	3216	3216	3216	3186	3186	3186	3186	3186	3186	3186	3186	3216	3216	3216	3216	3216	3216	3216	3216	3246	3246	3246	3277	3246	3277	3246	3277	3277	3246	3246	3246	3246	3246	3216	3216	3246	3246	3246	3246	3246	3246	3277	3277	3246	3246	3246	3277	3277	3246	3277	3277	3277	3277	3277	0	0	0	0	0	0	0	0	0	0	0	0	0	4643	4643	4706	4706	4706	4706	4706	4706	4706	4706	4706	4706	4706	4706	4706	4643	4706	4706	4643	4643	4643	4581	4706	4771	4771	4771	4838	4838	4838	4838	0	0	0	0	0	0	4521	4581	4581	4581	4581	4643	4643	4643	4643	4643	4643	4581	4581	4521	4521	4521	4521	4581	4581	4581	4581	4581	4581	4643	4643	4643	4643	4706	4706	4643	4581	4643	4643	4581	4581	4581	4643	4643	4643	4643	4643	4643	4643	4643	4643	4643	4643	4643	4643	4643	4643	4643	4706	4643	4643	4643	4643	4581	4581	4521	4463	4463	4521	4521	4521	4463	4463	4463	4463	4521	4581	4581	4643	4643	4643	4643	4643	4706	4706	4706	4706	4771	4706	4706	4706	4706	4706	4706	4706	4706	4706	4771	4706	4706	4706	4643	4643	4643	4643	4643	4643	4706	4706	4706	4706	4706	4706	4643	4643	4706	4643	4643	4643	4643	4643	4643	4643	4643	4643	4643	4581	4643	4643	4643	4581	4643	4643	4643	4581	4463	4463	4463	4406	4406	4406	4406	4463	4463	4521	4581	4706	4706	4706	4706	4706	4706	4706	4706	4706	8146	8146	8146	8146	8146	8343	8343	8343	8343	8146	8146	7959	7959	7779	7779	7779	7959	8146	8146	8146	8146	8146	8146	8146	8146	8146	8146	7959	8146	8146	8146	8146	8343	8146	8343	8146	8146	8146	8146	7959	7959	8146	8146	8146	8146	8146	8146	8146	8146	8146	7959	7959	7959	8146	8146	8146	8146	8343	8343	8146	8146	8146	8146	8146	8146	8146	8146	7959	7959	8146	8146	0	0	0	0	0	0	0	0	0	0	2589	2589	2589	2589	2570	2551	2532	2514	2514	2496	2496	2496	2478	2460	2460	2460	2460	2460	2426	2409	2409	2392	2392	2392	2376	2376	2376	2376	2376	2343	2327	2312	2312	2312	2297	2297	2281	2281	2266	2266	2266	2266	2266	0	0	0	0	0	0	0	0	0	0	0	0	0	0	0	0	0	0	0	0	0	0	0	0	0	0	0	0	0	0	0	0	0	0	0	0
0	0	0	0	0	0	0	0	0	1039	1042	1042	1042	1042	1039	1042	1045	1048	1045	1045	0	0	0	0	0	0	0	0	0	4463	4521	4521	4521	4581	4581	4643	4581	4581	4581	4643	4581	4581	4581	4581	4581	4581	4581	4581	4581	4581	4581	4581	4581	4581	4581	4581	4581	4581	4581	4581	4581	4581	4581	4581	4643	4643	4643	4581	4581	4581	4643	4581	4581	4581	4581	4581	4581	4581	4581	4581	4581	4581	4581	4581	4581	4706	4643	4643	4643	4706	4706	4706	4771	4771	4771	4771	4771	4706	4706	4706	4706	4706	4706	4643	4643	4643	4643	4706	4643	4643	4643	4643	4643	4706	4643	4643	4643	4643	4581	4581	4521	4406	4406	6349	6468	6349	6349	6349	6349	6349	6349	6235	6235	6235	6235	6235	6235	6235	6235	6235	6235	6235	6124	6018	5815	5535	5282	5282	5202	5282	5282	5282	5202	5202	5202	5202	5202	5202	5202	5282	5282	5282	5282	5282	5282	0	0	0	7959	7959	7959	7959	7959	7959	7959	7959	8146	8146	7959	8146	7959	7959	7959	7959	7959	7959	7959	8146	8146	8146	7959	7959	7959	7959	7779	7779	7779	7779	7779	7779	7959	7959	7959	7959	7959	8146	7959	7959	7779	7959	7779	7959	7959	7959	7959	7959	7959	7959	8146	8146	0	0	0	0	0	0	3277	3186	3186	3186	3186	3186	3186	3186	3186	3186	3186	3186	3186	3216	3216	3216	3216	3216	3216	3216	3246	3246	3246	3246	3277	3277	3277	3246	3277	3277	3246	3246	3246	3246	3246	3216	3216	3246	3246	3246	3246	3246	3277	3277	3277	3246	3246	3246	3277	3246	3246	3246	3277	3277	3277	3277	0	0	0	0	0	0	0	0	0	0	0	0	0	4643	4643	4706	4706	4706	4706	4706	4706	4706	4706	4706	4706	4706	4706	4706	4706	4706	4706	4643	4643	4643	4581	4706	4706	4643	4706	4706	4838	0	0	0	0	0	0	0	4581	4581	4581	4581	4581	4581	4581	4643	4643	4643	4643	4706	4643	4643	4581	4581	4581	4581	4581	4581	4581	4581	4581	4643	4643	4643	4643	4643	4706	4643	4643	4581	4643	4643	4581	4643	4706	4643	4643	4643	4643	4643	4643	4643	4643	4643	4643	4643	4643	4706	4706	4706	4706	4771	4706	4706	4643	4643	4581	4581	4521	4521	4463	4521	4521	4521	4463	4463	4463	4521	4581	4581	4581	4643	4706	4643	4643	4643	4706	4706	4771	4771	4771	4706	4706	4771	4706	4706	4706	4706	4706	4706	4771	4706	4706	4643	4706	4706	4706	4643	4643	4643	4706	4706	4706	4706	4643	4643	4643	4643	4643	4643	4643	4643	4643	4643	4643	4643	4643	4643	4643	4643	4643	4643	4643	4643	4643	4581	4581	4581	4463	4463	4463	4463	4406	4406	4406	4463	4463	4521	4643	4706	4706	4706	4706	4706	4706	4706	4706	4706	7959	8146	8146	8146	8146	8146	8343	8343	8343	8146	8146	8146	7779	7779	7959	7959	7959	8146	8146	8146	8146	8146	8146	8146	8146	8146	7959	7959	8146	8146	8146	8146	8343	8146	8343	8343	8146	8146	8146	8146	7959	7959	8146	8146	8146	8146	8146	8146	8146	7959	7959	7959	7959	8146	8146	8146	8146	8146	8146	8146	8146	8146	8146	7959	7959	8146	7959	7959	7959	8146	8146	0	0	0	0	0	0	0	0	0	0	2609	2609	2589	2589	2551	2551	2532	2514	2514	2496	2496	2496	2496	2478	2460	2460	2460	2460	2443	2426	2409	2392	2392	2392	2376	2392	2392	2392	2376	2359	2343	2312	2312	2312	2297	2297	2281	2281	2266	2266	2266	2252	2252	0	0	0	0	0	0	0	0	0	0	0	0	0	0	0	0	0	0	0	0	0	0	0	0	0	0	0	0	0	0	0	0	0	0	0	0
0	0	0	0	0	0	0	0	0	1042	1042	1042	1042	1039	1039	1042	1042	1048	1045	1045	1045	0	0	0	0	0	0	0	0	4463	4463	4521	4521	4581	4581	4643	4581	4581	4581	4643	4581	4581	4581	4581	4581	4581	4581	4581	4581	4581	4581	4581	4581	4581	4581	4581	4581	4581	4581	4581	4581	4581	4581	4581	4643	4643	4581	4581	4581	4643	4643	4643	4643	4643	4581	4581	4581	4581	4581	4581	4581	4581	4581	4581	4581	4706	4643	4643	4643	4706	4706	4706	4706	4706	4706	4706	4706	4706	4706	4706	4643	4706	4706	4706	4706	4643	4643	4706	4643	4643	4643	4643	4643	4643	4643	4643	4643	4643	4643	4581	4581	4406	4406	6468	6592	6468	6349	6349	6349	6349	6235	6235	6235	6235	6235	6235	6235	6235	6235	6235	6235	6235	6124	6018	5815	5719	5364	5364	5282	5282	5282	5282	5282	5202	5202	5202	5202	5202	5202	5202	5282	5202	5282	5282	5364	5282	5282	5282	8146	8146	8146	8146	8146	7959	7959	7959	8146	8146	7959	7959	7959	7959	7959	7959	7959	7959	7959	8146	8146	8146	7959	7959	7959	7959	7959	7779	7779	7779	7779	7779	7779	7959	7779	7959	7779	7959	7959	7959	7959	7959	7779	7959	7959	7959	7959	7959	7959	7959	8146	8146	0	0	0	0	0	0	3216	3186	3246	3186	3186	3186	3186	3186	3186	3186	3186	3186	3186	3216	3216	3216	3216	3216	3216	3216	3246	3216	3246	3246	3277	3277	3277	3277	3277	3277	3246	3246	3246	3246	3246	3216	3246	3246	3246	3246	3246	3246	3277	3277	3277	3246	3246	3277	3277	3277	3246	3277	3277	3277	3277	3277	0	0	0	0	0	0	0	0	0	0	0	0	0	4643	4643	4643	4706	4706	4706	4706	4706	4706	4706	4706	4706	4706	4706	4706	4706	4706	0	0	0	0	0	4706	4706	4643	4643	4706	0	0	0	0	0	0	0	0	4581	4581	4643	4643	4643	4643	4643	4643	4706	4706	4706	4706	4643	4643	4643	4643	4643	4643	4643	4643	4643	4643	4643	4643	4643	4643	4706	4706	4706	4643	4643	4581	4643	4643	4643	4643	4706	4643	4643	4643	4581	4643	4643	4581	4581	4643	4643	4643	4706	4706	4706	4771	4771	4771	4706	4706	4706	4643	4643	4581	4643	4581	4581	4581	4521	4521	4463	4463	4463	4521	4521	4643	4643	4706	4706	4706	4706	4706	4706	4706	4771	4771	4706	4706	4706	4771	4706	4706	4706	4706	4706	4771	4771	4706	4706	4706	4706	4706	4706	4706	4643	4643	4706	4706	4643	4643	4643	4643	4643	4643	4643	4643	4643	4643	4643	4643	4643	4643	4643	4643	4643	4643	4643	4643	4706	4643	4643	4643	4643	4643	4521	4463	4463	4463	4406	4406	4406	4463	4463	4521	4581	4643	4706	4706	4706	4706	4706	4706	4706	4706	8146	8343	8146	8146	8146	8146	8146	8146	8146	8146	8146	8146	7779	7779	7779	7779	7959	8146	8146	8146	8146	8146	8146	8146	8146	7959	7959	7959	8146	8343	8343	8343	8343	8146	8343	8343	8146	8146	7959	7959	7959	7959	8146	8146	8146	8146	8146	8146	8146	8146	8146	7959	7959	7959	7959	7959	7959	7959	8146	8146	8146	8146	7959	7959	7959	8146	8146	7959	7959	0	0	0	0	0	0	0	0	0	0	0	0	2589	2609	2589	2589	2570	2570	2532	2532	2514	2514	2514	2496	2496	2478	2460	2460	2460	2443	2460	2426	2409	2409	2392	2392	2392	2392	2392	2392	2376	2359	2343	2312	2312	2312	2297	2297	2281	2281	2266	2266	2266	2252	2252	0	0	0	0	0	0	0	0	0	0	0	0	0	0	0	0	0	0	0	0	0	0	0	0	0	0	0	0	0	0	0	0	0	0	0	0
0	0	0	0	0	0	0	0	0	1039	1042	1042	1042	1039	1039	1042	1048	1045	1045	1045	1048	1048	0	0	0	0	0	0	0	0	4463	4521	4521	4521	4581	4643	4581	4581	4643	4706	4643	4581	4581	4521	4521	4581	4581	4581	4581	4581	4581	4581	4643	4581	4581	4581	4581	4581	4581	4581	4581	4581	4581	4581	4581	4581	4581	4581	4581	4643	4643	4643	4643	4643	4581	4581	4581	4581	4581	4581	4581	4581	4581	4581	4581	4643	4643	4643	4643	4643	4643	4643	4643	4643	4706	4706	4706	4706	4706	4643	4643	4643	4706	4706	4706	4643	4643	4706	4706	4706	4643	4706	4643	4643	4643	4643	4643	4643	4643	4643	4581	4463	4406	4406	6592	6468	6349	6349	6349	6349	6235	6235	6235	6235	6235	6235	6235	6235	6235	6235	6235	6235	6235	6124	6018	5815	5626	5364	5282	5282	5282	5282	5282	5202	5202	5202	5202	5202	5202	5202	5202	5202	5202	5282	5282	5282	5282	5282	7959	7779	8146	8146	8146	8146	7959	7959	8146	7959	7959	8146	7959	7959	7959	7959	7959	7959	7959	7959	7959	8146	7959	7959	7959	7959	7959	7959	7779	7959	7779	7779	7779	7959	7779	7779	7779	7959	7959	7959	7959	7959	7959	7959	7959	7959	7959	7959	7779	7959	8146	8146	8146	0	0	0	0	0	3216	3216	3246	3186	3186	3186	3186	3186	3186	3186	3186	3186	3186	3216	3216	3216	3216	3216	3246	3246	3246	3216	3246	3246	3246	3246	3277	3246	3277	3277	3246	3246	3246	3246	3246	3246	3246	3246	3246	3246	3246	3246	3277	3277	3277	3246	3246	3246	3246	3277	3246	3246	3246	3277	3277	3277	0	0	0	0	0	0	0	0	0	0	0	0	0	4581	4521	4521	4643	4706	4643	4706	4706	4706	4706	4706	4706	4706	4706	4706	0	0	0	0	0	0	0	0	4643	4581	4581	0	0	0	0	0	0	0	0	0	4581	4581	4643	4643	4643	4643	4643	4706	4706	4706	4706	4706	4643	4643	4643	4643	4643	4643	4643	4643	4643	4643	4643	4643	4643	4706	4706	4706	4706	4706	4643	4643	4643	4643	4581	4643	4643	4643	4643	4581	4581	4581	4581	4581	4581	4643	4643	4643	4706	4706	4706	4706	4706	4706	4706	4706	4706	4706	4643	4581	4643	4581	4581	4643	4521	4521	4521	4521	4521	4521	4581	4643	4706	4706	4706	4706	4706	4706	4706	4706	4771	4771	4771	4706	4706	4771	4706	4706	4643	4643	4643	4771	4771	4706	4706	4706	4706	4706	4706	4706	4643	4643	4643	4643	4643	4643	4643	4643	4643	4643	4643	4643	4643	4643	4643	4643	4643	4643	4643	4643	4643	4643	4643	4643	4706	4643	4706	4643	4643	4643	4581	4463	4463	4463	4406	4406	4406	4463	4521	4581	4581	4706	4706	4771	4706	4706	4706	4706	4706	4706	8146	8146	8146	8146	8146	8146	8146	8146	8146	8146	8146	7959	7779	7779	7779	7779	8146	8146	8146	8146	8146	8146	8146	8146	8146	7959	7959	7959	7959	8146	8146	8343	8343	8146	8146	8146	8146	7959	8146	7959	7959	7959	8146	8146	8146	8146	8146	8146	8146	8146	8146	7959	8146	8146	8146	7959	7959	7959	7959	8146	8146	7959	7959	7959	7959	7959	8146	0	0	0	0	0	0	0	0	0	0	0	0	0	0	2609	2609	2589	2589	2570	2570	2551	2532	2514	2514	2514	2496	2496	2478	2478	2460	2460	2443	2443	2426	2409	2409	2392	2392	2392	2392	2376	2376	2376	2359	2343	2312	2312	2312	2297	2297	2297	2266	2266	2266	2266	2266	2266	0	0	0	0	0	0	0	0	0	0	0	0	0	0	0	0	0	0	0	0	0	0	0	0	0	0	0	0	0	0	0	0	0	0	0	0
0	0	0	0	0	0	0	0	1039	1039	1042	1042	1039	1039	1036	1039	1045	1045	1045	1045	1048	1052	1052	0	0	0	0	0	0	0	0	4521	4521	4463	4643	4581	4581	4706	4706	4771	4771	4581	4581	4581	4581	4581	4581	4581	4581	4581	4581	4581	4643	4581	4581	4581	4581	4581	4581	4581	4581	4581	4581	4581	4581	4581	4581	4581	4581	4643	4643	4643	4706	4643	4581	4581	4581	4581	4581	4581	4581	4581	4581	4581	4581	4581	4643	4643	4643	4643	4643	4643	4643	4706	4706	4706	4706	4706	4706	4706	4643	4706	4706	4706	4706	4643	4643	4706	4706	4706	4706	4706	4643	4643	4643	4706	4643	4643	4643	4643	4643	4463	4406	4406	6592	6468	6468	6349	6349	6349	6235	6235	6235	6235	6235	6235	6235	6235	6235	6235	6349	6235	6235	6124	6124	5915	5719	5535	5282	5282	5202	5202	5202	5202	5202	5202	5125	5125	5125	5125	5125	5202	5202	5282	5364	5282	5282	5282	5202	5202	7959	8146	8146	7959	7959	7959	8146	8146	7959	8146	7959	7959	7959	7959	7959	7959	7959	7959	7959	8146	7959	7959	7959	7959	7959	7959	7779	7959	7959	7779	7779	7959	7779	7779	7779	7959	7959	7959	7959	7959	7779	7959	7959	7959	7959	7959	7959	7959	7959	7959	7959	0	0	0	0	0	3246	3216	3216	3216	3186	3186	3186	3186	3186	3186	3186	3186	3186	3216	3216	3216	3216	3216	3246	3216	3246	3246	3246	3246	3277	3277	3277	3277	3277	3277	3277	3277	3246	3246	3246	3246	3246	3246	3246	3246	3246	3246	3246	3246	3246	3246	3246	3246	3246	3246	3246	3246	3277	3277	3277	3277	0	0	0	0	0	0	0	0	0	0	0	0	0	4581	4521	4643	4643	4706	4643	4643	4706	4706	4706	4706	4706	4706	4706	4706	0	0	0	0	0	0	0	0	4643	4581	4581	0	0	0	0	0	0	0	0	4581	4581	4643	4643	4643	4643	4643	4643	4706	4706	4706	4706	4706	4643	4643	4643	4643	4643	4643	4643	4643	4643	4643	4643	4643	4643	4706	4706	4706	4706	4706	4706	4643	4706	4643	4643	4643	4643	4643	4581	4581	4581	4581	4581	4581	4581	4581	4581	4581	4643	4643	4643	4706	4706	4706	4706	4706	4706	4706	4643	4581	4581	4581	4521	4643	4581	4581	4521	4521	4521	4581	4643	4643	4706	4706	4706	4706	4706	4706	4706	4706	4771	4771	4706	4706	4706	4706	4706	4643	4643	4706	4706	4771	4771	4771	4706	4706	4706	4706	4643	4643	4643	4706	4643	4643	4706	4643	4643	4643	4643	4643	4643	4643	4643	4643	4643	4643	4643	4643	4643	4643	4643	4643	4643	4643	4643	4643	4706	4643	4643	4643	4581	4463	4463	4406	4406	4406	4406	4463	4463	4521	4643	4706	4771	4771	4771	4706	4706	4706	4706	4706	8343	7959	7959	8146	8146	8146	8146	8146	7959	8146	7959	8146	7959	7959	7959	7959	8146	8146	8146	8146	8146	8146	8146	8146	8146	8146	7959	7959	7959	8146	8146	8146	8343	8146	8146	8146	8146	7959	7959	8146	7959	7959	8146	8146	8146	8146	8146	8146	8146	8146	8146	8146	8146	8146	8146	7959	7959	7959	7959	7959	7959	7959	7959	7959	7959	7959	0	0	0	0	0	0	0	0	0	0	0	0	0	0	0	2609	2609	2589	2589	2589	2589	2570	2551	2532	2532	2514	2496	2496	2478	2478	2460	2460	2443	2443	2426	2426	2409	2409	2409	2392	2392	2376	2376	2359	2359	2343	2312	2312	2297	2281	2281	2281	2266	2266	2266	2266	2266	2266	0	0	0	0	0	0	0	0	0	0	0	0	0	0	0	0	0	0	0	0	0	0	0	0	0	0	0	0	0	0	0	0	0	0	0	0
0	0	0	0	0	0	0	0	1039	1039	1039	1039	1039	1039	1036	1039	1045	1045	1045	1045	1048	1052	1052	1052	0	0	0	0	0	0	0	0	4521	4463	4643	4643	4771	4771	4771	4771	4771	0	4581	4581	4581	4581	4581	4581	4581	4581	4643	4643	4643	4581	4643	4581	4581	4581	4643	4643	4643	4643	4581	4581	4581	4581	4581	4581	4581	4643	4706	4706	4706	4706	4581	4581	4581	4581	4581	4581	4581	4581	4581	4581	4581	4643	4643	4643	4643	4643	4706	4706	4643	4706	4706	4706	4706	4643	4706	4706	4643	4643	4706	4706	4706	4643	4643	4706	4706	4706	4706	4706	4643	4643	4643	4643	4643	4643	4643	4643	4706	4643	4406	4406	6592	6468	6349	6349	6349	6349	6349	6235	6349	6235	6235	6235	6235	6235	6235	6235	6235	6235	6235	6235	6124	6018	5915	5626	5282	5202	5202	5202	5202	5202	5202	5125	5125	5125	5125	5125	5125	5125	5202	5282	5364	5282	5282	5282	5202	5202	7779	7959	7959	7959	7959	7959	7959	8146	7959	8146	7959	7959	7959	7959	7959	7959	7959	7959	7959	8146	7959	7959	7959	7959	7959	8146	8146	7959	7959	7959	7959	7959	7959	7779	7779	7779	7959	7959	8146	7779	7779	7779	7779	7959	7959	7959	7959	7959	8146	7959	7959	0	0	0	0	0	3246	3216	3216	3186	3186	3186	3186	3157	3157	3157	3186	3186	3186	3216	3216	3216	3216	3216	3246	3246	3246	3246	3277	3277	3277	3277	3277	3277	3277	3277	3277	3277	3277	3246	3246	3246	3246	3246	3246	3246	3246	3246	3246	3246	3246	3246	3246	3277	3277	3277	3277	3277	3277	3277	3277	3277	0	0	0	0	0	0	0	0	0	0	0	0	0	0	0	4643	4706	4643	4643	4643	4706	4706	4706	4771	4706	4706	4706	0	0	0	0	0	0	0	0	0	0	4581	4581	0	0	0	0	0	0	0	0	4581	4581	4643	4643	4643	4706	4643	4643	4706	4706	4706	4643	4643	4643	4643	4643	4643	4643	4643	4643	4643	4643	4643	4643	4643	4706	4706	4706	4706	4706	4706	4643	4643	4643	4643	4643	4643	4581	4581	4581	4581	4521	4581	4581	4521	4521	4521	4521	4581	4581	4643	4643	4706	4706	4706	4706	4706	4706	4706	4706	4581	4581	4581	4521	4643	4581	4581	4521	4581	4581	4643	4643	4643	4706	4706	4706	4706	4706	4706	4706	4706	4706	4706	4706	4706	4706	4706	4643	4643	4706	4706	4706	4706	4771	4706	4706	4706	4706	4706	4643	4706	4643	4706	4706	4706	4706	4643	4643	4643	4643	4643	4643	4643	4643	4643	4643	4643	4643	4643	4643	4643	4643	4643	4643	4643	4643	4643	4643	4643	4643	4643	4581	4463	4463	4406	4406	4463	4463	4463	4463	4521	4581	4643	4643	4706	4706	4706	4706	4706	4706	4706	8146	8146	7959	8146	8146	8146	8146	7959	7959	8146	7959	8146	8146	7959	7959	7959	7959	7959	7959	7959	7959	8146	7959	7959	7959	7959	7959	7959	7959	8146	8146	8146	8146	8146	8146	8146	8146	8146	8146	8146	7959	7959	7959	7959	8146	8146	7959	8146	8146	8146	8146	8146	8146	8146	8146	7959	7779	7959	7959	7959	7959	7959	7959	7959	7959	0	0	0	0	0	0	0	0	0	0	0	0	0	0	0	0	2609	2609	2589	2589	2589	2570	2570	2532	2532	2514	2514	2514	2496	2478	2478	2478	2460	2443	2443	2443	2426	2426	2409	2409	2392	2392	2376	2376	2359	2359	2343	2327	2312	2297	2281	2281	2281	2266	2266	2266	2266	2266	2266	0	0	0	0	0	0	0	0	0	0	0	0	0	0	0	0	0	0	0	0	0	0	0	0	0	0	0	0	0	0	0	0	0	0	0	0
0	0	0	0	0	0	0	0	1039	1039	1039	1039	1039	1036	1036	1039	1042	1045	1042	1045	1048	1052	1052	1052	0	0	0	0	0	0	0	0	0	0	4643	4643	4771	4771	4771	0	0	0	0	0	0	0	4581	4521	4581	4581	4643	4581	4643	4581	4643	4581	4581	4581	4643	4643	4581	4581	4581	4581	4581	4581	4581	4581	4643	4643	4706	4643	4643	4643	4581	4581	4581	4581	4581	4581	4581	4581	4581	4581	4581	4581	4706	4706	4706	4706	4706	4706	4643	4706	4643	4643	4643	4643	4706	4706	4643	4706	4706	4706	4706	4706	4706	4706	4706	4706	4706	4706	4643	4643	4643	4643	4643	4643	4643	4643	4706	4706	4706	6468	6468	6349	6349	6349	6349	6349	6349	6349	6349	6349	6235	6235	6235	6349	6235	6235	6235	6235	6235	6235	6124	6235	5282	5282	5282	5202	5202	5202	5202	5202	5202	5125	5125	5125	5125	5125	5125	5125	5125	5282	5282	5282	5202	5282	5202	5202	7959	8146	7959	7959	7959	7959	7959	7959	7959	7959	7959	7959	7959	7959	7959	7959	7959	7959	7959	8146	8146	7959	7959	7959	8146	8146	8146	7959	7959	7959	7959	7959	7779	7779	7779	7608	7608	7959	7959	7779	7779	7779	7959	7959	7959	7959	7959	7959	7959	7959	7959	0	0	0	0	0	0	3216	3216	3216	3186	3186	3186	3157	3157	3157	3186	3186	3186	3216	3216	3216	3216	3216	3216	3216	3246	3246	3277	3277	3277	3277	3277	3277	3277	3277	3277	3277	3277	3246	3246	3246	3246	3277	3277	3277	3246	3246	3246	3246	3246	3246	3277	3277	3277	3277	3277	3277	3277	3277	3277	0	0	0	0	0	0	0	0	0	0	0	0	0	0	0	0	0	4706	4706	4706	4706	4706	4706	4706	4706	4771	4771	4706	0	0	0	0	0	0	0	0	0	0	0	0	0	0	0	0	0	0	0	4581	4581	4581	4643	4643	4706	4706	4643	4643	4706	4643	4706	4643	4643	4643	4643	4643	4643	4643	4581	4643	4643	4643	4643	4643	4643	4706	4706	4706	4706	4706	4706	4706	4706	4706	4706	4643	4581	4581	4581	4521	4463	4463	4463	4463	4463	4463	4521	4521	4581	4581	4581	4643	4643	4643	4643	4643	4643	4706	4706	4643	4581	4581	4581	4581	4643	4581	4581	4521	4581	4581	4643	4643	4643	4706	4706	4706	4706	4706	4706	4706	4706	4706	4706	4706	4706	4706	4643	4643	4643	4643	4643	4643	4706	4706	4706	4706	4706	4706	4706	4706	4706	4643	4706	4706	4706	4706	4643	4643	4643	4643	4643	4643	4643	4643	4643	4643	4643	4643	4643	4643	4643	4643	4643	4643	4643	4643	4643	4643	4643	4643	4643	4581	4521	4521	4521	4463	4463	4463	4463	4463	4463	4463	4643	4706	4771	4771	4771	4706	4706	4706	4643	4643	8146	7959	7959	8146	8146	8146	8146	8146	8146	8146	8146	8146	7959	7959	7959	7959	7959	7959	7959	7959	7959	7959	7959	7959	7959	7959	7959	8146	8146	8146	8146	8146	8146	8146	8146	7959	7959	8146	8146	7959	7959	7959	7959	7959	7959	7959	8146	7959	7959	7959	8146	8146	7959	8146	7959	7779	7959	7959	7959	8146	7959	7959	8146	8146	8146	0	0	0	0	0	0	0	0	0	0	0	0	0	0	0	2609	2609	2589	2589	2589	2570	2570	2532	2532	2514	2514	2514	2496	2478	2478	2460	2460	2443	2443	2443	2426	2409	2409	2392	2392	2376	2376	2359	2359	2359	2343	2327	2312	2297	2281	2281	2281	2281	2266	2266	2266	2266	2266	0	0	0	0	0	0	0	0	0	0	0	0	0	0	0	0	0	0	0	0	0	0	0	0	0	0	0	0	0	0	0	0	0	0	0	0
0	0	0	0	0	0	0	0	1036	1036	1036	1036	1036	1036	1033	1036	1042	1042	1042	1045	1045	1048	1048	1052	0	0	0	0	0	0	0	0	0	0	0	0	0	0	0	0	0	0	0	0	0	0	0	4521	4521	4581	4581	4581	4581	4581	4581	4581	4581	4581	4643	4643	4643	4643	4581	4581	4581	4581	4581	4581	4581	4581	4643	4643	4581	4581	4581	4581	4581	4581	4581	4581	4581	4581	4581	4581	4581	4643	4706	4643	4643	4643	4706	4706	4643	4643	4643	4643	4643	4643	4643	4643	4643	4706	4643	4706	4706	4643	4643	4643	4706	4643	4643	4706	4643	4643	4706	4706	4706	4643	4643	4643	4643	4643	6592	6592	6468	6349	6349	6349	6349	6349	6349	6349	6349	6349	6235	6235	6235	6235	6235	6235	6235	6235	6235	6235	6235	6235	5282	5202	5202	5202	5202	5202	5202	5202	5125	5125	5125	5125	5125	5050	5050	5050	5125	5202	5282	5282	5202	5282	5282	7959	7959	7959	7959	7959	7959	7959	7959	7959	7959	7779	7959	7959	7779	7779	7959	7959	7959	7959	7959	8146	7959	7959	7959	8146	8146	8146	8146	8146	7959	7959	7779	7779	7959	7959	7959	7959	7959	7959	7959	7959	7779	7779	7959	7959	7959	7959	7959	7959	7959	7959	7959	7959	0	0	0	0	0	3216	3216	3216	3186	3157	3157	3186	3157	3157	3186	3186	3186	3216	3216	3216	3216	3216	3216	3246	3277	3277	3277	3277	3277	3277	3277	3277	3277	3277	3277	3277	3277	3246	3277	3277	3277	3277	3277	3277	3246	3246	3246	3246	3246	3246	3277	3277	3277	3277	3277	3277	3277	3277	3277	0	0	0	0	0	0	0	0	0	0	0	0	0	0	0	4706	4706	4706	4643	4643	4643	4706	4706	4706	4706	4706	4771	0	0	0	0	0	0	0	0	0	0	0	0	0	0	0	0	0	0	0	0	4581	4581	4643	4643	4643	4706	4706	4643	4706	4706	4643	4706	4643	4643	4643	4643	4643	4643	4643	4643	4643	4643	4643	4643	4643	4643	4706	4706	4706	4706	4706	4706	4706	4706	4643	4643	4581	4581	4521	4521	4463	4463	4463	4463	4406	4406	4406	4521	4521	4521	4581	4581	4643	4643	4643	4643	4643	4643	4706	4643	4643	4643	4581	4581	4581	4643	4581	4581	4521	4581	4581	4643	4643	4643	4706	4706	4706	4706	4706	4706	4706	4706	4706	4706	4706	4706	4706	4706	4643	4643	4643	4706	4643	4643	4643	4643	4643	4643	4706	4706	4706	4643	4643	4706	4643	4706	4643	4643	4643	4643	4643	4643	4643	4643	4643	4643	4643	4643	4643	4643	4643	4643	4643	4643	4643	4643	4643	4643	4643	4643	4581	4581	4581	4521	4463	4463	4463	4463	4406	4463	4463	4521	4643	4706	4706	4771	4771	4771	4706	4706	4706	4706	7608	7959	7959	7959	7959	8146	8146	8146	8146	8146	8146	8146	8146	7959	7959	7959	7959	7959	7779	7779	7779	7959	7959	7779	7779	7959	7959	7959	7959	8146	8146	8146	8146	8146	8146	8146	7959	7959	7959	7959	7959	7959	7959	7959	7959	7959	7959	7959	7959	7959	7959	8146	7959	7959	8146	7779	7779	7779	7959	7959	8146	7959	7959	7959	8146	8146	0	0	0	0	0	0	0	0	0	0	0	0	0	0	0	2589	2589	2589	2589	2589	2589	2570	2532	2532	2532	2514	2514	2496	2496	2496	2478	2460	2443	2443	2443	2426	2426	2409	2392	2392	2376	2376	2359	2359	2359	2343	2327	2327	2312	2281	2281	2281	2281	2266	2266	2266	2266	2266	0	0	0	0	0	0	0	0	0	0	0	0	0	0	0	0	0	0	0	0	0	0	0	0	0	0	0	0	0	0	0	0	0	0	0	0
