0	0	0	767	767	768	770	775	775	777	779	782	782	782	784	784	786	786	786	788	789	789	791	793	797	798	798	800	802	802	808	812	814	814	814	0	0	0	0	0	0	1379	1385	1385	1390	1390	1396	1396	1402	1402	1402	1407	1413	1402	1402	1596	1596	1603	1603	1603	1603	1603	1596	1596	1596	1589	1596	1596	1596	1603	1603	1596	1596	1596	1596	1611	1603	1603	1603	1611	1611	1611	1611	1611	1611	1611	1611	1611	1611	1611	1611	1611	1611	1611	1618	1618	1626	1634	1634	1641	1641	1641	1641	1641	0	0	2409	2426	2409	2409	2409	2409	2409	2409	2409	2409	2409	2409	2409	2409	2409	2409	2409	2409	2426	2409	2409	2409	2409	2392	2392	2392	2392	2392	2409	2409	2409	2409	2409	2409	2409	2392	2392	2392	2392	2392	2409	2409	2409	2409	2409	2409	2426	2426	2409	2409	2426	2426	2426	2426	2426	2426	2426	2426	2426	2426	2426	2426	2443	2426	2426	2426	2426	2426	2426	2409	2426	2426	2426	2443	2443	2443	2443	2443	2443	2426	2426	2409	2409	2733	2711	2733	2733	2733	2733	2711	2711	2711	2711	2733	2733	2733	2733	2733	2733	2733	2733	2733	2733	2733	2733	2733	2733	3246	3216	3216	3216	3216	3216	3216	3216	3216	3216	3216	3216	3216	3246	3246	3246	3216	3246	3246	3246	3186	3186	3186	3186	3864	3864	3864	3821	3821	3821	3821	3821	3821	3779	3821	3821	3821	3821	3821	3864	3864	3864	3821	3864	3864	3864	3864	3864	3864	3864	3864	3864	3864	3864	3864	3864	3864	3864	3864	3864	3864	3864	3864	3864	3864	3864	3864	3864	3821	3821	3821	3821	3864	3864	3864	3864	3864	3864	3864	3864	3864	3864	3864	3821	3821	3821	3821	3821	3864	3821	3821	3821	3821	3821	3821	3821	3779	3821	3821	3821	3864	3864	3864	3864	3864	3821	3821	3821	3779	3779	3779	3779	3779	3779	3779	3779	3779	3779	3779	3779	3779	3821	3821	3779	3779	3779	3779	3779	3779	3779	3779	3779	3821	3779	3779	3779	3779	3779	3779	3779	3779	3779	3779	3779	3779	3779	3779	3738	3738	3738	3738	3738	3698	3659	3659	3698	0	0	0	2993	2993	2967	2993	2967	2967	2967	2967	2967	2967	2967	2942	2942	2942	2942	2942	2917	2942	2967	2967	2967	2967	2967	2993	2993	0	0	0	0	0	0	0	3738	3738	3738	3738	3738	3738	3698	3698	3738	3738	3698	3738	3698	3698	3698	3659	3659	3659	3659	3659	3659	3659	3659	3659	3659	3659	3659	3698	3698	3698	3698	3698	3698	3659	3659	3659	3659	3659	3659	3659	3659	3659	3659	3659	3659	3659	3659	3659	3659	3659	3621	3621	3621	3621	3621	3621	3621	3621	3621	3621	3659	3659	3659	3659	3698	3698	3698	3659	3698	3659	3698	3698	3698	3698	3659	3659	3659	3659	3659	3659	3659	3659	3659	3659	3659	3659	3659	3659	3621	3659	3659	3621	3621	3659	3659	3659	3659	3659	3659	3659	3621	3621	3621	3621	3621	3621	3621	3659	3659	3659	3621	3621	3583	3583	3583	3583	3546	3583	3583	3583	3583	3583	3546	3583	3583	3546	3546	3546	3546	3546	3546	3510	3546	3546	3546	3510	3510	3510	3546	3546	3546	3546	3583	3583	3583	3583	3583	3583	3546	3546	3546	3546	3546	3546	3510	3546	3546	3510	3510	3546	3546	3546	3546	3546	3546	3546	3510	3510	3510	3510	3510	3510	3510	3510	3510	3475	3510	3475	3475	3440	3440	3510	3475	3475	3510	3475	3475	3475	3475	3440	3440	3440	3440	3440	3440	3440	3440	3440	3440	3440	3440	0	0	0	0	0	0	0	0	0	0	0	0	0	0	0	0	0	0	0	0	0	0	0	0	0	0	0	0	0	0	0	0	0	0	0
0	0	0	768	768	770	772	775	775	777	779	782	782	782	784	784	786	786	786	786	789	791	791	793	797	798	798	800	800	802	804	810	812	812	814	0	0	0	0	0	1379	1379	1385	1385	1390	1390	1396	1396	1402	1402	1407	1407	1413	1413	1413	1603	1603	1603	1611	1611	1618	1611	1603	1603	1603	1589	1596	1596	1603	1603	1603	1603	1596	1603	1603	1611	1611	1611	1611	1611	1611	1611	1611	1611	1618	1611	1611	1611	1611	1611	1611	1611	1611	1618	1618	1626	1626	1634	1634	1641	1641	1641	1649	1649	0	0	2426	2426	2426	2426	2426	2426	2426	2426	2426	2426	2409	2426	2426	2409	2426	2409	2426	2426	2426	2426	2426	2409	2409	2409	2409	2409	2409	2409	2409	2409	2409	2426	2426	2426	2426	2426	2409	2409	2409	2409	2409	2409	2409	2426	2426	2426	2426	2426	2426	2426	2426	2443	2443	2426	2426	2426	2426	2426	2426	2443	2426	2443	2443	2443	2443	2426	2426	2443	2426	2426	2426	2426	2443	2443	2443	2443	2443	2443	2443	2443	2443	2426	2426	2426	2711	2711	2733	2711	2711	2711	2711	2711	2711	2733	2733	2733	2733	2733	2733	2733	2733	2733	2733	2733	2733	2733	2733	2733	2733	3246	3246	3246	3216	3246	3246	3246	3246	3246	3246	3246	3246	3246	3246	3216	3246	3246	3246	3246	3216	3246	3246	3864	3864	3864	3864	3864	3821	3821	3821	3821	3821	3821	3821	3821	3821	3821	3864	3864	3864	3821	3864	3864	3864	3864	3864	3864	3864	3864	3864	3864	3864	3864	3821	3864	3864	3821	3864	3864	3864	3864	3864	3864	3864	3864	3821	3821	3821	3779	3779	3821	3821	3821	3821	3864	3864	3821	3864	3864	3864	3864	3821	3864	3864	3864	3821	3821	3821	3821	3821	3821	3821	3821	3821	3821	3821	3821	3821	3864	3864	3864	3864	3864	3821	3821	3821	3821	3821	3821	3821	3821	3779	3779	3779	3779	3779	3779	3779	3779	3779	3821	3779	3779	3779	3779	3779	3779	3779	3821	3821	3821	3779	3779	3779	3779	3779	3779	3779	3779	3779	3779	3779	3779	3738	3738	3738	3738	3738	3738	3698	3698	3659	3659	0	0	0	0	2993	2967	2967	2967	2967	2967	2967	2967	2967	2967	2967	2942	2942	2942	2942	2942	2917	2942	2967	2967	2942	2967	2967	2993	2993	2993	2967	2967	2967	2967	2967	3698	3698	3698	3659	3698	3698	3698	3698	3698	3698	3698	3698	3738	3698	3698	3698	3698	3659	3659	3659	3659	3659	3659	3659	3659	3659	3659	3659	3698	3698	3698	3659	3698	3698	3659	3659	3659	3659	3659	3659	3659	3698	3659	3659	3659	3659	3659	3659	3659	3659	3659	3659	3621	3621	3621	3621	3621	3621	3621	3621	3621	3621	3621	3621	3659	3698	3698	3698	3698	3698	3698	3698	3698	3698	3698	3698	3659	3659	3659	3659	3659	3659	3659	3659	3659	3659	3659	3659	3659	3621	3621	3659	3621	3659	3659	3621	3659	3659	3659	3659	3659	3621	3621	3621	3621	3621	3621	3621	3621	3621	3659	3621	3621	3583	3583	3583	3583	3546	3546	3583	3583	3583	3583	3583	3583	3583	3546	3546	3546	3546	3546	3546	3546	3510	3546	3546	3510	3510	3546	3546	3546	3546	3546	3583	3583	3583	3583	3583	3583	3546	3546	3546	3546	3546	3510	3510	3546	3546	3510	3510	3510	3546	3546	3546	3546	3546	3546	3510	3510	3510	3510	3510	3510	3510	3475	3510	3475	3510	3475	3475	3475	3475	3510	3475	3475	3510	3475	3475	3475	3440	3440	3440	3440	3440	3440	3440	3440	3440	3440	3440	3440	3440	0	0	0	0	0	0	0	0	0	0	0	0	0	0	0	0	0	0	0	0	0	0	0	0	0	0	0	0	0	0	0	0	0	0	0
0	0	0	770	770	772	775	777	777	779	779	780	782	784	784	786	788	788	788	789	791	791	793	795	798	798	798	800	800	802	804	808	810	810	810	0	0	0	0	0	1379	1385	1385	1385	1390	1390	1396	1396	1402	1402	1402	1407	1407	1413	1413	1603	1603	1603	1611	1611	1611	1611	1603	1603	1603	1596	1603	1596	1603	1603	1603	1603	1603	1603	1603	1611	1611	1611	1611	1611	1611	1611	1611	1618	1618	1618	1611	1611	1618	1611	1611	1611	1611	1618	1618	1626	1626	1634	1641	1641	1641	1641	1649	1649	0	0	2426	2426	2426	2426	2426	2426	2426	2426	2426	2426	2426	2426	2443	2426	2426	2426	2426	2426	2426	2426	2426	2426	2426	2426	2426	2443	2426	2443	2426	2426	2426	2426	2426	2426	2426	2426	2409	2426	2426	2426	2426	2409	2426	2426	2426	2426	2426	2426	2426	2426	2426	2443	2443	2443	2443	2443	2443	2443	2443	2443	2443	2443	2443	2443	2443	2443	2443	2443	2443	2443	2426	2443	2426	2443	2443	2443	2443	2443	2460	2460	2460	2460	2460	2460	2669	2711	2733	2711	2711	2711	2711	2733	2733	2733	2733	2733	2733	2733	2711	2711	2711	2711	2711	2711	2733	2733	2733	2733	2733	3277	3246	3246	3246	3246	3246	3246	3246	3246	3246	3246	3246	3246	3246	3246	3277	3277	3277	3277	3277	3309	3309	3864	3864	3864	3864	3864	3821	3821	3821	3821	3821	3821	3821	3821	3821	3864	3864	3864	3864	3864	3864	3864	3864	3864	3864	3864	3864	3864	3864	3864	3821	3821	3821	3821	3821	3821	3821	3864	3864	3864	3864	3864	3864	3864	3864	3864	3821	3821	3821	3821	3821	3821	3821	3864	3864	3864	3864	3864	3864	3864	3864	3864	3864	3864	3821	3821	3821	3821	3821	3821	3821	3821	3821	3821	3821	3864	3864	3864	3864	3864	3864	3864	3864	3821	3821	3821	3821	3821	3779	3821	3779	3779	3779	3779	3779	3779	3779	3779	3821	3821	3779	3779	3779	3779	3779	3821	3779	3821	3779	3779	3779	3779	3779	3779	3738	3738	3779	3779	3779	3779	3779	3738	3738	3738	3738	3738	3738	3738	3738	3698	3698	3698	0	0	0	3019	2993	2967	2967	2967	2967	2967	2967	2942	2967	2967	2967	2942	2942	2942	2942	2942	2917	2917	2942	2942	2917	2967	2967	2993	2967	2967	2967	2967	2967	2967	2967	3698	3698	3698	3698	3698	3698	3698	3698	3698	3698	3698	3698	3738	3698	3698	3698	3698	3659	3659	3659	3659	3659	3659	3659	3659	3659	3659	3659	3659	3698	3698	3659	3698	3698	3659	3659	3659	3659	3659	3659	3659	3659	3659	3659	3659	3659	3659	3659	3659	3659	3659	3621	3621	3621	3621	3621	3621	3621	3621	3621	3621	3659	3659	3621	3659	3659	3698	3698	3698	3698	3698	3698	3698	3698	3659	3659	3659	3659	3659	3698	3698	3659	3659	3659	3659	3659	3659	3659	3659	3659	3659	3659	3659	3659	3659	3659	3659	3659	3659	3659	3659	3621	3621	3621	3621	3621	3621	3621	3621	3621	3621	3621	3621	3583	3583	3583	3583	3546	3546	3546	3583	3583	3583	3583	3583	3583	3546	3546	3546	3546	3546	3546	3546	3510	3546	3546	3546	3546	3546	3546	3546	3546	3546	3583	3583	3583	3583	3583	3583	3546	3546	3546	3546	3546	3510	3510	3546	3510	3510	3510	3510	3546	3546	3546	3546	3546	3510	3510	3510	3475	3475	3475	3475	3475	3475	3475	3475	3475	3475	3406	3440	3406	3406	3475	3475	3475	3475	3440	3475	3440	3440	3440	3440	3440	3440	3440	3440	3440	3440	3440	3440	3440	0	0	0	0	0	0	0	0	0	0	0	0	0	0	0	0	0	0	0	0	0	0	0	0	0	0	0	0	0	0	0	0	0	0	0
0	0	0	770	770	772	773	777	777	779	777	782	782	784	784	786	788	788	788	789	791	793	793	793	798	798	800	800	802	804	806	808	808	808	810	0	0	0	0	0	1379	1385	1385	1385	1390	1390	1396	1396	1402	1402	1402	1407	1407	1407	1611	1611	1611	1611	1611	1611	1618	1618	1611	1611	1618	1611	1603	1603	1603	1611	1611	1611	1603	1603	1603	1611	1611	1611	1611	1611	1611	1611	1611	1618	1618	1618	1611	1611	1611	1611	1611	1611	1611	1618	1618	1626	1626	1634	1641	1641	1641	1641	1649	1649	0	0	2443	2443	2426	2426	2426	2426	2426	2426	2426	2426	2426	2443	2443	2443	2443	2426	2426	2426	2426	2426	2426	2443	2443	2460	2443	2460	2460	2460	2460	2443	2443	2443	2443	2443	2426	2426	2426	2426	2426	2426	2426	2426	2426	2426	2426	2426	2426	2426	2426	2443	2443	2460	2460	2443	2460	2460	2460	2460	2460	2460	2460	2460	2460	2460	2443	2443	2443	2443	2443	2443	2443	2443	2443	2460	2460	2460	2460	2443	2460	2478	2460	2460	2496	2609	2609	2690	2711	2711	2711	2711	2711	2733	2733	2733	2733	2733	2733	2733	2711	2690	2690	2711	2711	2711	2711	2711	2733	2733	2733	3277	3277	3277	3246	3246	3246	3246	3246	3246	3246	3277	3246	3277	3246	3277	3309	3309	3309	3309	3309	3309	3309	3864	3864	3864	3864	3864	3864	3821	3821	3821	3821	3821	3821	3821	3864	3864	3864	3864	3864	3864	3864	3864	3864	3864	3864	3864	3864	3864	3864	3864	3821	3821	3821	3821	3821	3821	3821	3864	3864	3864	3864	3864	3864	3864	3864	3864	3864	3821	3821	3821	3821	3821	3821	3821	3821	3864	3864	3864	3864	3864	3864	3864	3864	3864	3821	3821	3821	3821	3821	3821	3821	3821	3821	3821	3821	3864	3864	3907	3864	3864	3864	3864	3864	3821	3821	3779	3821	3779	3779	3821	3779	3779	3779	3779	3779	3779	3779	3821	3821	3821	3779	3779	3779	3779	3779	3779	3779	3779	3779	3779	3779	3779	3779	3779	3779	3779	3779	3779	3779	3738	3738	3738	3738	3738	3738	3738	3738	3738	3738	3738	3698	3698	0	0	0	3019	2993	2993	2967	2967	2967	2967	2967	2942	2967	2967	2942	2942	2942	2942	2942	2942	2917	2917	2942	2942	2967	2967	2967	2993	2993	2967	2967	2993	2993	2967	2967	3698	3698	3698	3698	3698	3698	3698	3698	3698	3698	3698	3698	3738	3698	3698	3698	3698	3659	3659	3659	3659	3659	3659	3659	3659	3659	3659	3659	3659	3698	3659	3659	3698	3698	3659	3659	3659	3659	3659	3659	3659	3659	3659	3659	3659	3659	3659	3659	3659	3659	3659	3659	3621	3621	3621	3621	3621	3621	3621	3621	3621	3621	3621	3621	3659	3698	3698	3698	3698	3698	3659	3659	3659	3659	3659	3659	3659	3659	3698	3698	3698	3659	3659	3659	3659	3659	3659	3659	3659	3659	3659	3659	3659	3659	3659	3621	3621	3659	3659	3621	3659	3621	3621	3621	3621	3621	3621	3621	3621	3621	3621	3621	3621	3583	3583	3583	3583	3583	3546	3546	3583	3583	3583	3583	3583	3546	3546	3546	3546	3546	3546	3546	3546	3546	3546	3546	3546	3546	3546	3546	3546	3546	3546	3583	3583	3583	3546	3583	3546	3546	3546	3546	3546	3546	3546	3510	3546	3546	3546	3546	3546	3546	3546	3546	3546	3546	3510	3510	3510	3475	3475	3475	3475	3475	3475	3475	3475	3475	3475	3475	3440	3475	3475	3475	3475	3475	3475	3440	3440	3440	3440	3440	3440	3440	3440	3440	3440	3440	3440	3440	3440	3440	0	0	0	0	0	0	0	0	0	0	0	0	0	0	0	0	0	0	0	0	0	0	0	0	0	0	0	0	0	0	0	0	0	0	0
0	0	0	770	770	772	777	779	779	780	779	782	784	784	784	786	788	788	788	789	791	793	793	795	798	800	800	800	802	804	804	808	808	808	0	0	0	0	0	0	1374	1379	1385	1385	1390	1390	1390	1396	1396	1396	1396	1396	1407	1407	1611	1611	1611	1611	1611	1611	1611	1611	1611	1611	1618	1611	1603	1611	1611	1611	1611	1611	1603	1603	1603	1611	1611	1611	1611	1611	1611	1611	1611	1618	1618	1611	1611	1611	1611	1611	1611	1611	1611	1618	1618	1626	1626	1634	1641	1641	1641	1641	1649	1649	0	2478	2460	2460	2443	2443	2443	2443	2443	2443	2460	2460	2460	2460	2460	2443	2443	2426	2426	2426	2426	2426	2443	2443	2460	2460	2460	2460	2460	2460	2460	2460	2460	2460	2460	2443	2443	2426	2443	2443	2426	2426	2426	2426	2426	2426	2426	2443	2443	2443	2443	2443	2460	2460	2460	2460	2460	2460	2460	2496	2496	2496	2496	2478	2460	2478	2460	2460	2460	2460	2460	2460	2443	2443	2460	2478	2478	2478	2460	2460	2478	2478	2460	2460	2478	2570	2570	2711	2711	2711	2711	2711	2711	2733	2733	2733	2733	2733	2733	2733	2711	2690	2690	2711	2711	2711	2711	2711	2733	2733	2733	3277	3277	3277	3277	3277	3277	3277	3277	3277	3277	3277	3277	3277	3277	3277	3309	3341	3309	3341	3341	3341	3373	3373	3907	3864	3864	3864	3864	3864	3821	3821	3821	3821	3821	3821	3821	3821	3864	3864	3864	3821	3864	3864	3864	3864	3864	3864	3864	3864	3864	3864	3821	3821	3821	3821	3821	3821	3821	3864	3864	3864	3907	3864	3864	3864	3864	3864	3864	3821	3821	3821	3821	3864	3864	3864	3864	3864	3864	3864	3864	3864	3864	3864	3864	3864	3821	3821	3821	3821	3821	3821	3821	3821	3821	3821	3821	3821	3821	3864	3864	3864	3864	3821	3821	3779	3821	3779	3821	3821	3779	3821	3779	3779	3779	3779	3779	3779	3779	3779	3821	3821	3779	3779	3779	3779	3779	3779	3779	3779	3779	3779	3779	3779	3779	3779	3779	3779	3779	3779	3779	3779	3738	3738	3779	3779	3738	3738	3738	3738	3738	3738	3698	3698	0	0	0	2993	2993	2993	2993	2967	2967	2967	2967	2942	2967	2967	2967	2942	2942	2942	2942	2942	2917	2917	2942	2942	2942	2967	2967	2967	2967	2967	2967	2993	2967	2967	2942	2942	3698	3698	3698	3698	3698	3698	3698	3698	3698	3698	3698	3698	3659	3659	3659	3698	3659	3659	3659	3659	3659	3659	3659	3659	3659	3659	3659	3659	3659	3659	3659	3659	3659	3659	3659	3659	3659	3659	3659	3659	3659	3659	3659	3659	3659	3659	3659	3659	3659	3659	3659	3621	3621	3621	3621	3621	3621	3621	3621	3621	3621	3621	3621	3659	3659	3659	3698	3659	3659	3698	3659	3698	3659	3659	3659	3659	3659	3659	3659	3659	3659	3659	3659	3659	3659	3659	3659	3659	3659	3621	3659	3659	3621	3621	3621	3621	3659	3659	3621	3621	3621	3621	3621	3583	3621	3583	3583	3583	3621	3621	3621	3621	3583	3583	3621	3583	3583	3583	3546	3583	3583	3546	3583	3546	3546	3546	3546	3546	3546	3546	3546	3546	3546	3546	3546	3546	3546	3546	3546	3546	3546	3546	3583	3583	3583	3583	3583	3583	3546	3546	3546	3546	3546	3546	3510	3546	3546	3546	3510	3510	3510	3546	3546	3546	3546	3546	3546	3510	3510	3475	3475	3475	3510	3510	3475	3475	3475	3475	3475	3440	3440	3475	3475	3475	3475	3475	3440	3440	3440	3440	3440	3440	3440	3440	3440	3440	3440	3440	3440	3440	3440	0	0	0	0	0	0	0	0	0	0	0	0	0	0	0	0	0	0	0	0	0	0	0	0	0	0	0	0	0	0	0	0	0	0	0
0	0	0	770	772	772	773	777	779	780	780	782	782	782	782	786	788	788	788	789	791	793	793	795	798	800	800	802	802	804	804	806	808	808	0	0	0	0	0	0	1374	1374	1379	1385	1390	1390	1390	1396	1396	1396	1396	1396	1396	1396	1626	1618	1611	1618	1618	1611	1618	1618	1611	1618	1618	1618	1618	1626	1618	1611	1611	1611	1611	1611	1603	1611	1611	1611	1611	1611	1611	1611	1611	1611	1611	1611	1611	1611	1611	1611	1611	1611	1611	1611	1611	1618	1626	1626	1634	1641	1641	1649	1657	1657	0	2478	2478	2478	2460	2460	2460	2460	2460	2443	2460	2460	2460	2460	2460	2460	2443	2443	2443	2426	2443	2443	2443	2460	2460	2460	2478	2478	2478	2478	2478	2460	2460	2460	2460	2460	2460	2443	2443	2443	2443	2443	2443	2443	2443	2443	2443	2443	2443	2443	2460	2460	2460	2478	2478	2478	2478	2478	2478	2478	2478	2478	2496	2478	2478	2478	2478	2460	2460	2460	2478	2478	2460	2460	2460	2478	2478	2478	2460	2460	2478	2478	2460	2478	2478	2532	2532	2690	2690	2711	2711	2711	2711	2733	2711	2733	2733	2733	2711	2711	2690	2690	2690	2690	2690	2690	2690	2690	2711	2711	2711	3309	3309	3277	3277	3277	3309	3277	3309	3277	3277	3277	3277	3277	3277	3277	3309	3341	3309	3341	3341	3341	3373	3373	3907	3864	3864	3864	3864	3864	3864	3864	3821	3821	3821	3821	3864	3821	3864	3864	3864	3821	3864	3864	3864	3864	3864	3864	3864	3864	3864	3864	3821	3821	3821	3821	3864	3864	3864	3864	3864	3907	3907	3864	3864	3864	3864	3864	3821	3821	3779	3821	3821	3864	3821	3864	3864	3864	3864	3864	3864	3864	3864	3864	3864	3864	3864	3821	3821	3821	3821	3821	3821	3821	3821	3821	3821	3821	3821	3864	3864	3864	3821	3821	3821	3779	3779	3779	3821	3779	3779	3779	3821	3779	3779	3779	3779	3779	3779	3779	3779	3779	3779	3779	3779	3779	3779	3779	3779	3779	3779	3779	3779	3779	3779	3779	3738	3779	3779	3779	3779	3779	3779	3779	3779	3779	3738	3779	3779	3779	3738	3738	3738	3698	0	3046	3046	2993	2993	2993	2993	2993	2967	2967	2967	2942	2942	2942	2942	2942	2942	2942	2942	2942	2917	2917	2942	2942	2942	2967	2942	2967	2967	2967	2967	2967	2967	2942	2942	3698	3698	3698	3698	3698	3698	3698	3698	3698	3698	3698	3698	3698	3659	3659	3659	3659	3659	3659	3659	3659	3659	3659	3659	3659	3659	3659	3659	3659	3659	3659	3659	3659	3659	3659	3659	3659	3659	3659	3659	3659	3659	3659	3659	3659	3659	3659	3659	3659	3659	3659	3621	3621	3621	3621	3621	3621	3621	3621	3621	3621	3621	3621	3621	3659	3659	3659	3659	3659	3659	3659	3659	3659	3659	3659	3659	3659	3659	3659	3659	3659	3659	3659	3659	3659	3659	3659	3659	3659	3621	3621	3659	3621	3621	3621	3621	3621	3659	3621	3621	3621	3621	3621	3621	3621	3621	3583	3621	3583	3583	3621	3621	3621	3583	3583	3583	3583	3583	3583	3583	3546	3583	3546	3583	3583	3546	3546	3546	3546	3546	3546	3546	3546	3546	3546	3546	3546	3546	3546	3546	3546	3546	3546	3583	3583	3583	3546	3583	3546	3546	3546	3546	3546	3546	3546	3546	3546	3546	3546	3546	3546	3546	3546	3546	3546	3546	3546	3510	3510	3475	3475	3475	3475	3475	3475	3475	3475	3475	3475	3475	3475	3475	3475	3475	3475	3475	3440	3440	3440	3440	3440	3440	3440	3440	3440	3440	3440	3440	3440	3440	3440	3440	0	0	0	0	0	0	0	0	0	0	0	0	0	0	0	0	0	0	0	0	0	0	0	0	0	0	0	0	0	0	0	0	0	0	0
0	770	770	770	770	772	773	777	780	780	780	782	782	782	784	786	788	788	788	789	791	791	793	795	800	800	802	802	802	804	804	804	808	808	0	0	0	0	1374	1374	1374	1374	1374	1379	1390	1390	1390	1390	1396	1396	1396	1396	1396	1396	1626	1626	1618	1618	1618	1618	1618	1611	1611	1611	1618	1618	1618	1626	1618	1618	1611	1611	1611	1611	1603	1603	1611	1611	1611	1611	1611	1611	1611	1611	1611	1611	1611	1611	1611	1611	1611	1611	1611	1611	1611	1618	1618	1626	1634	1641	1649	1649	1657	1657	0	2460	2478	2478	2460	2460	2460	2460	2460	2460	2460	2460	2478	2478	2478	2460	2460	2460	2460	2443	2443	2443	2460	2460	2478	2478	2478	2478	2478	2478	2478	2478	2478	2460	2478	2460	2460	2460	2460	2460	2460	2460	2443	2460	2443	2443	2443	2460	2460	2460	2460	2460	2478	2496	2496	2496	2496	2496	2478	2478	2496	2496	2496	2478	2478	2496	2478	2478	2478	2478	2478	2478	2460	2478	2478	2478	2478	2478	2460	2460	2478	2478	2460	2478	2496	2551	2551	2551	2690	2711	2711	2711	2711	2711	2733	2733	2733	2711	2711	2711	2711	2690	2690	2690	2690	2690	2711	2711	2711	2711	3309	3309	3309	3309	3309	3277	3309	3309	3309	3309	3309	3309	3277	3277	3309	3309	3341	3341	3341	3341	3341	3341	3373	3373	3373	3864	3864	3864	3864	3864	3864	3864	3821	3821	3821	3821	3821	3821	3821	3821	3821	3821	3821	3864	3864	3864	3864	3864	3864	3864	3864	3864	3821	3821	3821	3821	3864	3864	3864	3864	3864	3864	3907	3864	3864	3864	3864	3821	3821	3821	3821	3821	3821	3821	3821	3864	3864	3864	3864	3821	3821	3821	3821	3821	3821	3864	3864	3821	3821	3821	3821	3821	3821	3821	3821	3821	3821	3821	3821	3864	3821	3821	3821	3821	3821	3779	3779	3779	3821	3821	3779	3821	3821	3821	3779	3779	3779	3779	3779	3779	3779	3779	3779	3779	3779	3779	3779	3779	3779	3779	3779	3779	3779	3738	3779	3779	3779	3779	3779	3779	3779	3779	3779	3779	3779	3779	3738	3738	3779	3738	3738	3738	3738	0	0	3046	3046	3046	2993	2993	2993	2993	2967	2967	2942	2942	2942	2942	2942	2942	2942	2942	2942	2942	2917	2917	2942	2942	2942	2942	2942	2967	2942	2942	2942	2967	2967	2942	2942	3698	3698	3698	3698	3698	3698	3698	3698	3698	3698	3698	3698	3698	3659	3659	3659	3659	3659	3659	3659	3659	3659	3659	3659	3659	3659	3659	3659	3659	3659	3659	3659	3659	3659	3659	3659	3659	3659	3659	3659	3659	3659	3659	3659	3659	3659	3659	3659	3659	3621	3621	3621	3621	3621	3621	3621	3621	3621	3621	3621	3621	3621	3621	3621	3659	3659	3659	3659	3659	3659	3659	3659	3659	3659	3659	3659	3659	3659	3659	3659	3659	3659	3659	3659	3659	3659	3659	3659	3659	3659	3621	3659	3621	3621	3621	3621	3621	3659	3621	3621	3621	3621	3621	3621	3621	3621	3621	3621	3583	3583	3583	3583	3583	3583	3583	3583	3583	3583	3583	3546	3546	3546	3546	3583	3546	3546	3546	3546	3546	3546	3546	3546	3546	3546	3546	3546	3546	3546	3546	3546	3546	3546	3546	3583	3583	3583	3583	3583	3583	3546	3546	3546	3546	3546	3546	3546	3546	3546	3546	3546	3546	3546	3546	3546	3546	3546	3546	3510	3510	3475	3475	3475	3475	3475	3475	3475	3475	3475	3475	3475	3475	3440	3440	3440	3475	3440	3440	3440	3440	3440	3440	3440	3440	3440	3440	3440	3440	3440	3440	3406	3440	3440	0	0	0	0	0	0	0	0	0	0	0	0	0	0	0	0	0	0	0	0	0	0	0	0	0	0	0	0	0	0	0	0	0	0	0
770	770	768	770	770	772	773	777	779	780	780	782	782	782	784	786	786	788	788	789	791	793	793	798	800	802	802	800	802	802	802	804	0	0	0	0	0	1374	1374	1374	1368	1374	1374	1379	1385	1385	1385	1390	1396	1396	1390	1385	1385	1626	1626	1626	1618	1618	1618	1611	1603	1603	1603	1603	1603	1603	1618	1626	1626	1618	1611	1611	1611	1611	1603	1611	1611	1611	1611	1611	1611	1611	1611	1611	1611	1611	1611	1611	1611	1603	1611	1611	1611	1611	1618	1618	1618	1626	1626	1634	1641	1649	1657	1657	0	2478	2478	2478	2478	2478	2478	2478	2478	2460	2478	2478	2478	2478	2478	2478	2478	2478	2460	2460	2460	2460	2460	2478	2478	2478	2478	2478	2478	2478	2478	2478	2478	2478	2478	2478	2478	2460	2460	2460	2460	2460	2460	2460	2460	2460	2460	2460	2460	2478	2478	2478	2478	2496	2496	2496	2496	2496	2496	2496	2514	2496	2496	2496	2496	2496	2496	2496	2496	2478	2478	2478	2478	2478	2478	2478	2478	2478	2478	2478	2496	2496	2496	2496	2514	2551	2570	2669	2690	2690	2711	2733	2711	2711	2733	2733	2733	2711	2711	2690	2690	2690	2690	2690	2690	2690	2711	2711	2711	2711	3309	3309	3309	3309	3309	3309	3309	3309	3309	3341	3341	3309	3309	3309	3309	3341	3341	3341	3341	3341	3341	3341	3373	3373	3406	3406	3864	3864	3864	3864	3864	3864	3821	3821	3821	3821	3821	3821	3821	3821	3821	3821	3864	3864	3864	3864	3864	3864	3864	3864	3864	3864	3821	3821	3821	3821	3821	3864	3864	3864	3864	3907	3864	3864	3864	3864	3864	3821	3821	3821	3779	3779	3821	3821	3821	3821	3864	3864	3864	3821	3821	3821	3821	3821	3821	3821	3821	3821	3821	3821	3821	3821	3821	3821	3779	3779	3779	3821	3821	3821	3821	3821	3821	3779	3821	3779	3779	3821	3821	3779	3779	3779	3779	3779	3779	3779	3779	3779	3779	3738	3779	3779	3779	3779	3779	3779	3779	3779	3779	3779	3779	3779	3779	3738	3738	3738	3738	3738	3738	3779	3779	3779	3738	3738	3738	3779	3738	3738	3779	3738	3738	3738	0	0	0	3046	2967	2967	2993	2967	2967	2967	2967	2942	2942	2942	2942	2942	2942	2942	2942	2942	2967	2942	2942	2917	2942	2942	2942	2942	2942	2942	2942	2942	2942	2967	2967	2942	2942	3659	3659	3698	3698	3698	3659	3659	3698	3698	3698	3698	3659	3698	3659	3659	3659	3659	3659	3659	3659	3659	3659	3659	3659	3659	3659	3659	3659	3659	3659	3659	3659	3659	3659	3659	3659	3659	3659	3659	3659	3659	3659	3659	3659	3659	3621	3659	3621	3621	3621	3621	3621	3621	3621	3621	3621	3621	3621	3621	3621	3621	3621	3621	3621	3659	3659	3659	3659	3659	3659	3659	3659	3659	3659	3659	3659	3659	3659	3659	3659	3659	3659	3659	3659	3659	3659	3659	3659	3659	3659	3621	3621	3621	3621	3621	3621	3621	3621	3621	3583	3621	3621	3621	3621	3621	3621	3583	3621	3583	3583	3583	3583	3621	3583	3583	3583	3583	3583	3583	3546	3546	3546	3546	3546	3546	3546	3546	3546	3546	3546	3546	3546	3546	3546	3546	3546	3546	3546	3546	3546	3546	3546	3546	3621	3583	3583	3583	3583	3583	3583	3546	3583	3546	3546	3546	3546	3546	3510	3546	3546	3546	3546	3546	3546	3546	3546	3546	3510	3510	3510	3475	3475	3475	3475	3475	3475	3475	3440	3475	3475	3475	3440	3440	3440	3440	3440	3440	3440	3440	3440	3440	3440	3440	3440	3406	3440	3440	3440	3440	3406	3440	3440	0	0	0	0	0	0	0	0	0	0	0	0	0	0	0	0	0	0	0	0	0	0	0	0	0	0	0	0	0	0	0	0	0	0	0
770	768	768	770	770	772	775	780	780	780	780	780	782	784	784	786	786	788	788	789	791	793	793	800	800	802	802	802	802	802	802	0	0	0	0	0	1374	1374	1368	1374	1368	1368	1374	1374	1379	1379	1385	1385	1390	1390	1385	1385	1618	1618	1626	1618	1611	1618	1611	1611	1603	1603	1603	1603	1603	1618	1626	1626	1626	1618	1618	1611	1611	1611	1603	1611	1611	1611	1611	1611	1611	1611	1611	1611	1611	1603	1603	1603	1603	1603	1603	1611	1611	1611	1611	1618	1618	1618	1626	1634	1641	1657	1665	1665	1665	2478	2496	2496	2478	2478	2478	2478	2478	2478	2478	2478	2496	2496	2496	2478	2478	2478	2478	2478	2478	2478	2478	2478	2478	2478	2496	2496	2478	2478	2478	2478	2478	2478	2478	2478	2478	2478	2478	2478	2478	2478	2478	2478	2478	2478	2478	2478	2478	2478	2496	2478	2496	2514	2514	2514	2514	2496	2514	2496	2514	2514	2514	2514	2514	2514	2496	2496	2496	2496	2496	2496	2478	2478	2478	2496	2478	2496	2478	2478	2496	2496	2496	2496	2514	2551	2551	2589	2609	2669	2669	2733	2733	2733	2733	2733	2733	2711	2711	2690	2669	2669	2690	2690	2690	2690	2711	2711	2711	2711	3309	3309	3309	3309	3309	3309	3341	3341	3341	3341	3341	3341	3341	3341	3341	3341	3341	3341	3341	3373	3373	3373	3406	3406	3406	3406	3406	3406	3864	3864	3864	3821	3821	3821	3821	3821	3821	3821	3821	3821	3821	3821	3821	3864	3864	3864	3864	3864	3864	3864	3864	3864	3821	3821	3821	3821	3864	3864	3864	3864	3864	3907	3864	3864	3864	3864	3864	3864	3821	3821	3779	3779	3821	3821	3821	3821	3821	3864	3821	3821	3821	3821	3821	3821	3821	3821	3821	3821	3821	3821	3779	3779	3779	3779	3779	3779	3779	3779	3779	3821	3821	3821	3821	3821	3779	3779	3779	3821	3821	3779	3779	3779	3779	3779	3779	3779	3779	3779	3779	3738	3779	3779	3779	3779	3779	3779	3779	3779	3779	3779	3779	3738	3738	3738	3738	3738	3738	3738	3738	3779	3738	3738	3738	3738	3738	3738	3738	3738	3738	3738	3738	3738	0	0	0	3046	3019	2993	2993	2967	2993	2967	2967	2942	2942	2942	2942	2942	2942	2942	2942	2942	2967	2942	2942	2917	2942	2942	2942	2942	2942	2942	2942	2942	2967	2967	2993	2993	2993	3659	3659	3698	3698	3659	3659	3659	3659	3659	3659	3659	3659	3698	3659	3659	3659	3659	3659	3659	3659	3659	3659	3659	3659	3659	3659	3659	3659	3659	3659	3659	3659	3659	3659	3659	3659	3659	3659	3659	3659	3659	3659	3659	3659	3659	3659	3659	3621	3621	3621	3621	3621	3621	3621	3621	3621	3621	3621	3621	3621	3621	3621	3621	3621	3659	3659	3659	3659	3659	3659	3659	3659	3659	3659	3659	3659	3659	3659	3659	3659	3659	3659	3659	3659	3659	3659	3659	3659	3659	3659	3621	3659	3621	3621	3621	3621	3621	3621	3621	3621	3621	3621	3621	3621	3621	3621	3583	3583	3583	3583	3583	3621	3621	3621	3621	3621	3621	3621	3621	3583	3546	3546	3546	3546	3546	3546	3546	3546	3546	3546	3546	3546	3546	3546	3546	3546	3546	3546	3546	3546	3546	3546	3546	3621	3621	3621	3583	3583	3583	3583	3583	3583	3546	3546	3546	3546	3546	3510	3546	3546	3546	3546	3546	3546	3546	3546	3510	3510	3510	3475	3475	3440	3475	3475	3475	3475	3440	3440	3475	3475	3475	3475	3440	3440	3440	3440	3440	3440	3440	3440	3440	3440	3406	3406	3406	3440	3440	3440	3440	3406	3440	3440	0	0	0	0	0	0	0	0	0	0	0	0	0	0	0	0	0	0	0	0	0	0	0	0	0	0	0	0	0	0	0	0	0	0	0
0	768	768	770	770	782	782	782	782	782	782	782	782	784	784	786	786	788	788	788	788	795	797	798	800	800	804	802	800	800	0	0	0	0	0	0	1368	1368	1368	1368	1368	1368	1374	1374	1374	1379	1379	1385	1390	1390	1390	1385	1626	1626	1626	1626	1618	1618	1618	1611	1611	1603	1603	1603	1611	1611	1618	1618	1618	1618	1611	1611	1611	1603	1603	1611	1611	1611	1611	1611	1611	1611	1611	1611	1603	1603	1603	1603	1603	1603	1603	1611	1611	1611	1611	1618	1618	1618	1618	1626	1641	1641	1665	1673	1673	1673	2496	2496	2478	2478	2478	2478	2478	2478	2478	2478	2496	2496	2496	2496	2496	2478	2478	2478	2478	2478	2478	2496	2496	2496	2496	2496	2496	2496	2496	2496	2496	2496	2496	2496	2496	2496	2478	2496	2496	2478	2478	2478	2478	2478	2478	2478	2478	2478	2496	2496	2496	2514	2514	2514	2514	2514	2514	2514	2514	2514	2514	2514	2514	2514	2514	2514	2496	2496	2496	2496	2496	2496	2496	2496	2496	2496	2496	2496	2496	2496	2496	2496	2514	2551	2551	2570	2589	2629	2669	2711	2711	2711	2711	2733	2733	2711	2711	2690	2690	2690	2690	2690	2711	2711	2733	2733	2733	3341	3341	3341	3341	3341	3309	3341	3341	3341	3341	3341	3341	3341	3341	3341	3341	3341	3341	3341	3341	3373	3373	3373	3406	3406	3406	3406	3406	3406	3821	3864	3864	3821	3821	3821	3864	3821	3821	3821	3821	3821	3821	3821	3821	3821	3864	3864	3864	3864	3864	3864	3864	3864	3864	3864	3864	3864	3864	3864	3864	3864	3864	3864	3864	3864	3864	3864	3864	3821	3821	3821	3779	3821	3821	3821	3821	3821	3821	3821	3821	3821	3821	3779	3821	3821	3821	3821	3821	3821	3821	3821	3821	3821	3779	3779	3779	3779	3779	3779	3779	3821	3779	3779	3779	3779	3779	3779	3779	3779	3779	3779	3779	3779	3779	3779	3779	3738	3779	3779	3779	3779	3779	3779	3779	3779	3779	3779	3779	3779	3738	3779	3738	3738	3738	3738	3738	3738	3738	3738	3738	3779	3738	3738	3738	3738	3738	3738	3738	3738	3738	3738	3738	3738	0	0	0	3046	2993	2993	2993	2993	2993	2967	2967	2942	2942	2942	2942	2942	2942	2942	2942	2942	2967	2942	2942	2917	2967	2942	2942	2942	2942	2942	2942	2942	2942	2967	2993	2993	2993	3659	3659	3698	3698	3698	3659	3659	3659	3659	3659	3659	3659	3659	3659	3659	3659	3659	3659	3659	3659	3659	3659	3659	3659	3659	3659	3659	3659	3659	3659	3659	3659	3659	3659	3659	3659	3659	3659	3659	3659	3659	3659	3621	3621	3621	3621	3621	3621	3621	3621	3621	3621	3621	3621	3621	3621	3621	3621	3621	3621	3621	3621	3621	3621	3659	3659	3659	3659	3659	3659	3659	3659	3659	3659	3659	3659	3659	3659	3659	3659	3659	3659	3659	3659	3659	3621	3621	3659	3659	3659	3621	3621	3621	3621	3621	3583	3621	3621	3621	3583	3621	3621	3621	3621	3583	3583	3583	3621	3583	3621	3583	3621	3621	3621	3621	3621	3621	3583	3583	3546	3546	3546	3546	3546	3546	3546	3546	3546	3546	3546	3546	3546	3546	3546	3546	3546	3546	3546	3546	3546	3546	3546	3546	3621	3583	3621	3583	3583	3583	3583	3583	3583	3546	3546	3546	3546	3546	3510	3546	3546	3546	3510	3546	3510	3546	3546	3510	3510	3475	3475	3475	3475	3475	3440	3475	3475	3475	3440	3475	3475	3440	3440	3440	3440	3440	3440	3440	3440	3440	3440	3406	3440	3406	3406	3406	3440	3440	3406	3406	3406	3406	3406	0	0	0	0	0	0	0	0	0	0	0	0	0	0	0	0	0	0	0	0	0	0	0	0	0	0	0	0	0	0	0	0	0	0	0
0	0	0	0	0	782	782	782	782	782	784	784	784	784	786	788	788	788	788	788	795	795	797	798	798	802	802	802	800	800	0	0	0	0	1363	1363	1363	1368	1368	1368	1368	1368	1368	1374	1374	1379	1385	1390	1390	1390	1390	0	1634	1626	1626	1626	1618	1618	1618	1611	1611	1603	1603	1603	1611	1611	1618	1618	1618	1618	1611	1603	1603	1603	1603	1611	1611	1611	1611	1611	1611	1611	1611	1603	1603	1603	1603	1603	1603	1603	1611	1611	1611	1618	1618	1618	1618	1618	1618	1626	1641	1673	1673	1681	1681	1681	0	2496	2496	2496	2496	2496	2478	2496	2496	2496	2496	2496	2514	2514	2496	2496	2496	2496	2496	2496	2496	2496	2496	2496	2496	2496	2496	2496	2496	2496	2496	2496	2514	2496	2496	2496	2496	2496	2496	2496	2496	2496	2496	2496	2478	2496	2496	2496	2496	2496	2496	2514	2514	2532	2514	2514	2514	2514	2514	2514	2514	2532	2532	2514	2514	2532	2514	2514	2514	2514	2514	2496	2496	2496	2496	2514	2496	2514	2514	2514	2532	2532	2551	2551	2570	2570	2589	2589	2649	2711	2733	2733	2733	2733	2733	2711	2711	2690	2669	2690	2690	2711	2711	2711	2733	2733	2733	3341	3373	3341	3341	3341	3341	3341	3341	3341	3373	3373	3373	3341	3341	3341	3341	3341	3341	3341	3341	3373	3373	3373	3406	3406	3406	3373	3406	3406	3406	3864	3864	3821	3821	3821	3821	3821	3821	3821	3821	3821	3821	3821	3821	3821	3821	3864	3864	3864	3864	3864	3864	3864	3864	3864	3864	3864	3864	3864	3864	3864	3864	3864	3864	3864	3864	3864	3864	3864	3821	3821	3821	3821	3779	3821	3779	3821	3821	3821	3821	3821	3821	3821	3821	3821	3779	3821	3821	3821	3821	3779	3779	3779	3779	3779	3779	3738	3738	3779	3779	3821	3779	3779	3779	3779	3779	3779	3779	3779	3779	3779	3779	3779	3779	3779	3779	3779	3779	3779	3779	3779	3779	3779	3779	3779	3779	3779	3738	3738	3738	3779	3738	3738	3738	3738	3738	3738	3738	3738	3738	3779	3779	3738	3738	3738	3738	3738	3738	3738	3738	3738	3738	3738	0	0	3046	3046	2993	2993	2967	2967	2967	2967	2967	2967	2967	2967	2942	2967	2942	2942	2942	2942	2942	2917	2917	2917	2967	2942	2942	2942	2942	2967	2967	2942	2967	2993	2993	2993	2993	3698	3698	3698	3698	3698	3659	3659	3659	3659	3659	3659	3659	3659	3659	3659	3659	3659	3659	3659	3659	3659	3659	3659	3659	3659	3659	3659	3659	3659	3659	3659	3659	3659	3659	3659	3659	3659	3659	3659	3659	3659	3659	3621	3621	3621	3621	3621	3621	3621	3621	3621	3621	3621	3621	3621	3621	3621	3621	3621	3621	3621	3621	3621	3621	3659	3659	3659	3659	3659	3659	3659	3659	3659	3659	3659	3659	3659	3659	3659	3659	3659	3659	3659	3659	3659	3621	3659	3621	3659	3621	3621	3621	3621	3621	3621	3621	3621	3621	3621	3583	3621	3621	3621	3621	3583	3583	3583	3621	3583	3621	3583	3621	3621	3621	3621	3621	3583	3583	3583	3546	3546	3546	3546	3546	3546	3546	3546	3546	3546	3546	3546	3546	3546	3546	3546	3546	3510	3546	3546	3546	3546	3546	3546	3621	3583	3583	3583	3583	3583	3546	3546	3583	3546	3546	3546	3546	3546	3546	3546	3510	3510	3510	3510	3510	3510	3510	3475	3510	3475	3475	3475	3440	3475	3440	3475	3475	3475	3440	3475	3475	3475	3440	3440	3440	3440	3440	3440	3406	3440	3440	3406	3440	3406	3440	3406	3440	3406	3406	3406	3406	3406	3406	0	0	0	0	0	0	0	0	0	0	0	0	0	0	0	0	0	0	0	0	0	0	0	0	0	0	0	0	0	0	0	0	0	0	0
0	0	0	0	0	775	775	780	782	782	782	782	782	784	786	786	786	788	788	789	793	793	797	798	798	800	800	800	800	0	0	0	0	0	1363	1358	1358	1363	1368	1368	1368	1368	1368	1374	1374	1379	1385	1390	1390	1390	1390	0	1626	1618	1626	1618	1618	1618	1618	1618	1611	1603	1603	1603	1603	1611	1611	1611	1611	1611	1603	1603	1603	1603	1603	1611	1611	1611	1611	1611	1611	1611	1611	1603	1603	1603	1603	1603	1603	1603	1611	1611	1611	1618	1618	1618	1618	1618	1626	1626	1649	1673	1673	1681	1681	1698	1698	2496	2478	2496	2496	2496	2478	2496	2496	2496	2514	2514	2514	2514	2514	2514	2514	2496	2496	2496	2496	2496	2496	2496	2496	2496	2496	2496	2496	2514	2514	2532	2532	2532	2514	2514	2514	2514	2496	2496	2496	2496	2496	2496	2496	2496	2514	2514	2514	2514	2514	2532	2532	2551	2532	2532	2532	2532	2532	2532	2532	2532	2532	2532	2532	2532	2514	2532	2514	2514	2551	2532	2514	2532	2532	2532	2532	2532	2532	2532	2551	2551	2551	2551	2570	2570	2570	2589	2589	2711	2711	2711	2733	2733	2733	2711	2711	2690	2669	2690	2690	2690	2711	2711	2733	2733	2733	3373	3373	3373	3373	3373	3373	3373	3373	3373	3373	3373	3373	3373	3373	3341	3341	3341	3341	3341	3341	3373	3373	3373	3406	3406	3406	3406	3406	3406	3406	3821	3821	3821	3821	3821	3821	3821	3779	3779	3779	3779	3779	3821	3821	3821	3864	3864	3864	3864	3864	3864	3864	3864	3864	3864	3864	3864	3864	3864	3864	3864	3864	3864	3864	3864	3864	3864	3864	3864	3821	3821	3821	3821	3821	3821	3821	3821	3821	3821	3821	3821	3821	3821	3821	3821	3779	3821	3821	3779	3779	3779	3779	3779	3779	3779	3779	3779	3738	3779	3779	3779	3779	3779	3779	3779	3779	3779	3779	3779	3779	3779	3779	3779	3779	3779	3779	3779	3779	3779	3738	3779	3779	3779	3779	3779	3779	3779	3779	3779	3738	3779	3738	3738	3738	3738	3738	3738	3738	3738	3779	3779	3779	3779	3738	3738	3738	3738	3738	3738	3738	3738	3738	3738	0	0	3046	3046	2993	2993	2967	2967	2967	2967	2942	2942	2942	2967	2967	2967	2942	2942	2942	2942	2942	2917	2942	2917	2967	2942	2942	2942	2942	2942	2942	2942	2967	2993	2993	2993	2993	3698	3698	3698	3698	3698	3698	3659	3659	3659	3659	3659	3659	3659	3659	3659	3659	3659	3659	3621	3621	3621	3659	3659	3659	3659	3659	3659	3659	3659	3659	3659	3659	3659	3659	3659	3659	3659	3659	3659	3659	3659	3659	3621	3621	3621	3621	3621	3621	3621	3621	3621	3621	3621	3621	3621	3621	3621	3621	3621	3621	3621	3621	3621	3621	3659	3659	3659	3659	3659	3659	3659	3659	3659	3659	3659	3659	3659	3659	3659	3659	3659	3659	3659	3659	3621	3621	3621	3621	3621	3621	3621	3621	3621	3621	3621	3621	3621	3621	3621	3621	3583	3621	3583	3583	3583	3583	3583	3621	3583	3621	3583	3621	3621	3621	3621	3621	3583	3583	3546	3546	3546	3546	3546	3546	3546	3546	3546	3546	3546	3546	3546	3546	3546	3546	3546	3546	3546	3510	3546	3546	3546	3546	3546	3583	3583	3583	3583	3583	3546	3546	3546	3546	3546	3546	3546	3546	3546	3546	3546	3546	3546	3546	3546	3510	3510	3510	3475	3475	3475	3475	3475	3475	3475	3440	3475	3440	3440	3440	3440	3440	3440	3440	3440	3440	3440	3406	3406	3406	3406	3440	3406	3440	3406	3440	3406	3406	3406	3406	3406	3406	3406	3406	0	0	0	0	0	0	0	0	0	0	0	0	0	0	0	0	0	0	0	0	0	0	0	0	0	0	0	0	0	0	0	0	0	0	0
0	0	0	772	772	775	777	780	780	780	782	780	782	784	786	786	788	788	791	791	795	795	797	798	798	800	800	800	800	0	0	0	0	0	0	1352	1358	1363	1363	1368	1368	1368	1368	1368	1374	1379	1385	1390	1390	1390	1390	1390	1626	1611	1618	1618	1618	1618	1618	1618	1618	1603	1603	1603	1603	1611	1611	1611	1603	1611	1603	1603	1603	1603	1603	1611	1603	1611	1611	1611	1611	1611	1611	1603	1603	1603	1603	1603	1603	1603	1611	1611	1611	1618	1618	1618	1618	1626	1626	1634	1641	1665	1673	1673	1673	1690	1690	0	2478	2496	2496	2496	2496	2496	2496	2496	2514	2532	2532	2532	2532	2514	2514	2514	2496	2496	2496	2496	2514	2496	2496	2514	2514	2514	2532	2532	2532	2551	2551	2551	2532	2532	2532	2532	2514	2514	2514	2514	2514	2514	2514	2514	2514	2514	2514	2514	2514	2532	2551	2551	2551	2532	2532	2532	2532	2532	2532	2551	2551	2532	2551	2570	2551	2551	2551	2551	2551	2551	2551	2551	2551	2551	2551	2532	2551	2551	2570	2570	2570	2551	2570	2570	2570	2589	2589	2690	2711	2711	2733	2733	2733	2711	2711	2690	2690	2690	2690	2711	2711	2733	2733	2733	2733	3406	3406	3373	3373	3373	3373	3373	3373	3373	3373	3341	3373	3373	3373	3341	3341	3341	3341	3341	3341	3373	3373	3373	3406	3406	3406	3406	3406	3406	3440	3440	3821	3779	3821	3779	3779	3821	3821	3821	3779	3821	3821	3821	3821	3821	3864	3864	3864	3864	3864	3864	3864	3864	3864	3864	3864	3864	3864	3864	3864	3864	3864	3864	3864	3864	3864	3864	3864	3864	3821	3821	3821	3864	3821	3821	3821	3821	3821	3821	3821	3821	3821	3821	3779	3821	3779	3779	3779	3779	3779	3779	3779	3779	3779	3779	3738	3738	3738	3779	3738	3779	3779	3779	3779	3779	3779	3779	3779	3779	3779	3779	3779	3779	3779	3779	3779	3779	3779	3738	3738	3738	3779	3779	3779	3779	3779	3779	3779	3779	3738	3738	3738	3738	3738	3738	3738	3738	3738	3738	3738	3779	3738	3738	3738	3738	3738	3738	3738	3738	3738	3738	3738	3738	3738	3073	3073	3019	2993	2993	2967	2967	2967	2967	2967	2942	2942	2967	2942	2942	2942	2942	2942	2917	2917	2917	2917	2917	2942	2942	2942	2942	2942	2942	2942	2967	2993	2993	3019	3019	3019	3019	3698	3698	3698	3659	3659	3659	3659	3659	3659	3659	3659	3659	3659	3659	3659	3659	3659	3621	3621	3621	3659	3659	3659	3659	3659	3659	3659	3659	3659	3659	3659	3659	3659	3659	3659	3659	3621	3621	3621	3621	3621	3621	3621	3621	3621	3621	3621	3621	3621	3621	3621	3621	3621	3621	3621	3621	3621	3621	3621	3621	3621	3621	3621	3621	3659	3659	3659	3659	3659	3659	3659	3659	3659	3659	3659	3659	3659	3659	3659	3659	3659	3659	3659	3659	3621	3659	3621	3659	3621	3621	3621	3621	3621	3621	3621	3621	3621	3621	3621	3621	3621	3621	3621	3583	3583	3583	3621	3583	3621	3621	3621	3621	3621	3621	3583	3583	3583	3583	3546	3546	3546	3546	3546	3546	3546	3546	3546	3546	3546	3546	3546	3546	3546	3546	3510	3510	3510	3546	3546	3546	3546	3546	3583	3583	3583	3583	3546	3546	3546	3546	3546	3546	3546	3546	3546	3510	3510	3510	3510	3510	3510	3510	3475	3475	3440	3440	3440	3440	3440	3475	3440	3440	3440	3440	3440	3440	3406	3406	3406	3440	3440	3440	3406	3440	3406	3406	3406	3406	3406	3406	3406	3406	3406	3406	3406	3406	3406	3406	3406	3406	3406	0	0	0	0	0	0	0	0	0	0	0	0	0	0	0	0	0	0	0	0	0	0	0	0	0	0	0	0	0	0	0	0	0	0	0
0	0	0	772	773	775	779	780	782	782	782	782	782	784	786	786	786	788	791	793	795	795	797	798	798	800	800	800	800	0	0	0	0	0	0	1358	1358	1363	1363	1368	1368	1368	1368	1374	1374	1379	1385	1390	1390	1390	1390	1390	1611	1611	1618	1618	1611	1618	1611	1611	1611	1611	1603	1611	1611	1603	1611	1611	1603	1603	1603	1603	1603	1603	1603	1611	1603	1611	1603	1603	1611	1603	1603	1603	1603	1603	1603	1603	1603	1603	1611	1611	1611	1618	1618	1618	1618	1626	1634	1641	1649	1665	1673	1673	1673	1681	1681	0	2478	2496	2496	2496	2496	2496	2496	2514	2514	2532	2532	2532	2532	2514	2532	2514	2514	2514	2514	2514	2514	2514	2514	2514	2514	2532	2532	2532	2532	2551	2551	2551	2551	2532	2532	2532	2532	2532	2532	2532	2532	2532	2514	2514	2514	2532	2532	2514	2532	2551	2551	2551	2551	2551	2551	2532	2551	2551	2551	2570	2570	2570	2570	2570	2570	2570	2570	2570	2570	2570	2570	2570	2570	2551	2551	2551	2551	2551	2570	2570	2570	2570	2570	2570	2570	2570	2589	2609	2649	2690	2711	2711	2711	2690	2690	2669	2669	2690	2690	2690	2733	2733	2733	2733	2733	3406	3406	3406	3406	3373	3373	3373	3373	3373	3373	3373	3373	3373	3373	3373	3373	3341	3341	3373	3341	3373	3373	3373	3406	3406	3406	3406	3406	3406	3440	3475	3738	3738	3779	3779	3821	3821	3821	3821	3821	3821	3821	3821	3821	3821	3864	3864	3864	3864	3864	3864	3864	3864	3864	3864	3864	3864	3864	3864	3864	3864	3864	3864	3864	3864	3864	3864	3864	3864	3821	3821	3864	3864	3821	3821	3821	3779	3821	3821	3779	3779	3821	3779	3779	3779	3779	3779	3779	3779	3738	3779	3738	3738	3738	3738	3738	3779	3738	3738	3738	3779	3779	3779	3779	3779	3779	3779	3779	3779	3779	3779	3779	3779	3779	3779	3779	3779	3779	3738	3779	3779	3779	3779	3779	3779	3779	3779	3779	3738	3738	3738	3738	3738	3738	3738	3738	3738	3738	3738	3738	3738	3738	3738	3738	3738	3738	3738	3738	3738	3738	3738	3738	3738	3738	3073	3073	3046	3019	2993	2993	2967	2967	2967	2942	2967	2942	2967	2967	2967	2942	2942	2942	2942	2942	2917	2917	2917	2942	2942	2942	2942	2967	2967	2967	2967	2993	3019	2993	3019	3019	3046	3046	3698	3698	3698	3659	3659	3659	3659	3659	3659	3659	3659	3659	3659	3659	3659	3659	3621	3621	3621	3659	3659	3659	3659	3659	3659	3659	3659	3659	3659	3659	3659	3659	3659	3659	3621	3621	3621	3621	3621	3621	3621	3621	3621	3621	3621	3621	3621	3621	3621	3621	3621	3621	3621	3621	3621	3621	3621	3621	3621	3621	3621	3621	3621	3659	3659	3659	3659	3659	3659	3659	3659	3659	3659	3659	3659	3659	3659	3659	3659	3659	3659	3659	3659	3621	3621	3621	3621	3621	3621	3621	3621	3621	3621	3621	3621	3621	3621	3621	3621	3621	3621	3621	3583	3583	3583	3621	3583	3621	3621	3621	3621	3621	3621	3621	3583	3583	3583	3546	3546	3546	3583	3546	3546	3546	3546	3546	3546	3546	3546	3546	3546	3546	3546	3546	3510	3510	3546	3546	3546	3546	3546	3583	3583	3583	3546	3546	3546	3546	3546	3546	3546	3546	3546	3510	3510	3510	3510	3510	3510	3510	3475	3475	3475	3440	3440	3440	3440	3440	3440	3440	3440	3440	3440	3406	3406	3406	3406	3406	3440	3406	3406	3406	3406	3406	3406	3406	3406	3406	3406	3406	3406	3406	3406	3373	3373	3373	3406	3406	3406	3406	0	0	0	0	0	0	0	0	0	0	0	0	0	0	0	0	0	0	0	0	0	0	0	0	0	0	0	0	0	0	0	0	0	0	0
0	0	0	773	773	775	777	780	782	784	784	782	784	786	786	788	788	791	793	793	793	795	797	798	798	800	800	802	802	0	0	0	0	0	0	1358	1363	1363	1368	1368	1368	1368	1368	1374	1374	1374	1385	1390	1390	1390	1390	0	1611	1611	1611	1611	1611	1611	1611	1611	1611	1603	1603	1611	1611	1603	1603	1603	1603	1603	1603	1603	1603	1603	1603	1611	1611	1611	1611	1611	1611	1603	1603	1603	1603	1596	1596	1603	1603	1603	1603	1611	1611	1618	1618	1618	1618	1626	1634	1641	1649	1665	1673	1673	1681	1698	1706	1741	1741	2496	2496	2496	2496	2514	2514	2532	2532	2532	2532	2532	2532	2514	2532	2532	2532	2514	2514	2514	2532	2514	2514	2532	2532	2551	2551	2551	2551	2551	2551	2570	2551	2551	2551	2551	2551	2532	2532	2532	2551	2551	2532	2532	2551	2551	2551	2551	2551	2570	2570	2570	2570	2570	2570	2570	2551	2551	2551	2570	2570	2570	2570	2570	2570	2570	2570	2570	2570	2570	2570	2570	2570	2570	2570	2570	2570	2570	2570	2570	2570	2570	2570	2570	2570	2570	2589	2589	2609	2649	2711	2711	2711	2690	2690	2669	2690	2690	2690	2690	2733	2733	2733	2733	2733	3406	3440	3406	3406	3406	3406	3406	3406	3373	3373	3373	3373	3373	3373	3373	3373	3373	3373	3373	3373	3373	3373	3373	3440	3440	3406	3406	3406	3440	3440	3510	3698	3738	3779	3779	3821	3821	3821	3821	3821	3821	3821	3821	3821	3821	3864	3864	3864	3864	3864	3864	3864	3864	3864	3864	3864	3821	3864	3864	3864	3864	3864	3864	3864	3864	3864	3864	3864	3864	3821	3821	3864	3864	3864	3821	3821	3821	3821	3821	3821	3821	3821	3821	3821	3821	3779	3779	3779	3738	3738	3738	3738	3738	3738	3738	3738	3779	3738	3738	3738	3821	3779	3779	3779	3779	3779	3779	3779	3779	3779	3779	3779	3779	3779	3779	3779	3779	3779	3779	3779	3779	3779	3779	3779	3779	3779	3738	3738	3738	3738	3738	3738	3738	3738	3738	3738	3738	3738	3738	3738	3738	3738	3738	3738	3738	3738	3738	3738	3738	3738	3738	3738	3738	3738	3073	3073	3046	3019	2993	2993	2967	2967	2967	2942	2967	2967	2967	2967	2967	2942	2942	2942	2942	2917	2917	2917	2917	2967	2942	2942	2942	2967	2967	2967	2967	2967	3019	3019	3019	3101	3046	3698	3698	3698	3698	3698	3659	3659	3659	3659	3698	3659	3659	3659	3659	3659	3659	3659	3659	3659	3621	3659	3659	3659	3659	3659	3659	3659	3659	3659	3659	3659	3659	3659	3659	3621	3621	3621	3621	3621	3621	3621	3621	3621	3621	3621	3621	3621	3621	3621	3621	3621	3621	3621	3621	3621	3621	3621	3621	3621	3621	3621	3621	3621	3621	3659	3659	3659	3659	3659	3659	3659	3659	3621	3621	3621	3621	3621	3659	3659	3659	3659	3659	3659	3659	3659	3659	3621	3659	3621	3659	3621	3659	3621	3621	3621	3621	3621	3621	3621	3583	3621	3621	3583	3583	3583	3583	3621	3583	3583	3621	3621	3621	3621	3621	3621	3583	3583	3583	3583	3583	3546	3583	3546	3546	3546	3546	3546	3546	3546	3546	3546	3546	3546	3546	3546	3546	3546	3546	3546	3546	3546	3546	3583	3546	3546	3546	3546	3546	3546	3546	3546	3510	3510	3510	3510	3510	3510	3510	3510	3475	3475	3475	3440	3440	3440	3440	3440	3440	3440	3440	3440	3440	3406	3406	3406	3440	3406	3406	3406	3440	3440	3440	3406	3406	3406	3406	3406	3406	3406	3373	3406	3406	3406	3406	3406	3373	3373	3406	3406	3406	3406	0	0	0	0	0	0	0	0	0	0	0	0	0	0	0	0	0	0	0	0	0	0	0	0	0	0	0	0	0	0	0	0	0	0	0
0	768	768	772	773	777	777	779	782	784	784	784	784	786	786	788	788	789	791	793	793	795	797	798	798	800	800	806	808	808	0	0	0	0	0	1358	1358	1363	1363	1368	1368	1368	1368	1374	1379	1379	1385	1385	1390	1390	1390	1390	1611	1611	1618	1618	1611	1611	1603	1611	1611	1603	1603	1603	1603	1603	1603	1603	1603	1603	1603	1603	1603	1603	1603	1611	1603	1611	1603	1603	1603	1603	1603	1603	1603	1596	1596	1603	1603	1603	1603	1611	1611	1611	1618	1618	1626	1634	1641	1649	1657	1673	1673	1681	1706	1723	1723	1741	1750	1759	1768	1759	1759	2514	2532	2532	2532	2532	2532	2532	2551	2532	2551	2551	2551	2532	2532	2532	2551	2532	2532	2532	2532	2551	2551	2551	2551	2551	2570	2570	2570	2570	2570	2570	2551	2551	2551	2551	2551	2551	2551	2551	2570	2570	2570	2570	2570	2589	2589	2589	2570	2570	2570	2570	2570	2570	2570	2570	2570	2570	2570	2589	2570	2589	2589	2589	2589	2589	2570	2570	2570	2570	2570	2570	2570	2570	2589	2589	2570	2570	2570	2570	2570	2589	2589	2589	2609	2629	2690	2711	2711	2690	2690	2669	2669	2690	2690	2690	2733	2733	2733	2733	2733	3406	3440	3440	3440	3440	3440	3406	3406	3406	3406	3373	3406	3373	3373	3373	3373	3373	3373	3373	3373	3373	3406	3406	3406	3440	3440	3440	3440	3440	3440	3475	3659	3738	3738	3779	3779	3821	3821	3821	3821	3821	3821	3821	3821	3821	3864	3864	3864	3864	3864	3864	3864	3864	3864	3864	3864	3821	3821	3821	3821	3821	3864	3864	3864	3864	3864	3864	3864	3864	3864	3821	3821	3864	3864	3821	3821	3821	3821	3821	3779	3821	3821	3821	3821	3821	3779	3779	3779	3738	3738	3738	3738	3738	3779	3779	3779	3779	3779	3779	3779	3821	3779	3779	3779	3779	3779	3779	3779	3779	3779	3779	3779	3779	3779	3779	3779	3779	3779	3779	3779	3779	3779	3779	3779	3779	3779	3779	3779	3738	3738	3738	3738	3738	3738	3738	3738	3738	3738	3738	3779	3738	3738	3738	3738	3738	3738	3738	3738	3738	3738	3738	3738	3738	3738	3073	3073	3046	3019	2993	2993	2967	2967	2967	2967	2967	2967	2967	2967	2967	2942	2942	2942	2917	2917	2917	2917	2917	2942	2942	2942	2942	2942	2967	2967	2967	2967	2993	2993	2993	3019	3019	3738	3698	3698	3698	3698	3659	3659	3659	3659	3659	3659	3659	3659	3659	3659	3659	3659	3659	3659	3621	3659	3659	3659	3659	3659	3659	3659	3659	3659	3659	3659	3659	3659	3659	3621	3621	3621	3621	3621	3621	3621	3621	3621	3621	3621	3621	3621	3621	3621	3621	3621	3621	3659	3659	3621	3621	3621	3621	3621	3621	3621	3621	3621	3621	3659	3659	3659	3659	3659	3659	3659	3621	3621	3621	3621	3621	3621	3659	3659	3659	3659	3659	3659	3659	3621	3659	3621	3621	3621	3621	3621	3621	3621	3621	3621	3621	3621	3621	3621	3621	3621	3621	3583	3583	3583	3583	3583	3621	3621	3621	3621	3621	3621	3621	3583	3583	3583	3583	3546	3583	3546	3583	3583	3583	3583	3546	3583	3546	3546	3546	3546	3546	3546	3546	3546	3546	3510	3546	3546	3546	3546	3546	3583	3583	3546	3546	3546	3546	3546	3546	3510	3510	3510	3510	3510	3510	3510	3510	3510	3475	3475	3475	3440	3440	3440	3440	3440	3440	3440	3440	3440	3406	3406	3406	3406	3406	3406	3406	3406	3440	3406	3440	3440	3406	3406	3406	3406	3406	3406	3406	3406	3406	3406	3406	3406	3406	3406	3406	3406	3406	3406	0	0	0	0	0	0	0	0	0	0	0	0	0	0	0	0	0	0	0	0	0	0	0	0	0	0	0	0	0	0	0	0	0	0	0
0	768	770	772	773	773	777	779	779	784	784	784	784	786	786	788	788	791	793	793	795	795	798	798	798	800	802	806	806	806	0	0	0	0	0	0	1358	1363	1368	1368	1368	1368	1368	1374	1379	1374	1379	1385	1390	1385	1385	1390	1611	1611	1611	1611	1611	1611	1603	1611	1611	1603	1603	1603	1603	1603	1603	1603	1603	1603	1603	1603	1603	1603	1603	1611	1611	1611	1603	1603	1603	1603	1603	1603	1596	1596	1596	1596	1603	1603	1603	1611	1611	1611	1618	1618	1626	1634	1634	1641	1649	1673	1681	1698	1723	1723	1723	1741	1741	1759	1759	1759	1768	1768	1768	2532	2551	2532	2532	2532	2551	2532	2551	2551	2551	2551	2551	2551	2551	2551	2532	2551	2551	2551	2570	2570	2570	2570	2570	2570	2570	2570	2570	2570	2570	2570	2570	2570	2570	2570	2570	2570	2570	2570	2570	2570	2570	2589	2589	2589	2589	2589	2570	2570	2570	2570	2570	2589	2589	2589	2589	2589	2589	2589	2589	2589	2589	2589	2589	2589	2589	2589	2589	2589	2589	2589	2589	2589	2589	2589	2589	2589	2589	2589	2589	2589	2609	2609	2649	2690	2690	2690	2690	2669	2690	2690	2690	2690	2711	2711	2711	2733	2733	3440	3475	3475	3475	3440	3440	3440	3440	3406	3406	3406	3406	3406	3406	3406	3406	3406	3406	3406	3406	3475	3475	3440	3475	3440	3440	3440	3440	3440	3440	3475	3583	3698	3738	3779	3779	3821	3821	3821	3821	3821	3821	3821	3864	3821	3864	3864	3864	3864	3864	3864	3864	3864	3821	3821	3821	3821	3821	3821	3821	3821	3864	3864	3864	3864	3864	3864	3864	3864	3864	3821	3864	3864	3864	3821	3821	3821	3779	3821	3779	3779	3821	3821	3779	3779	3779	3779	3779	3738	3738	3738	3738	3738	3738	3779	3779	3779	3779	3779	3779	3821	3821	3821	3821	3821	3779	3779	3821	3779	3779	3779	3779	3779	3779	3779	3779	3779	3779	3779	3779	3779	3779	3779	3779	3779	3779	3779	3779	3738	3738	3738	3738	3738	3738	3738	3738	3738	3738	3738	3738	3738	3738	3738	3738	3738	3738	3738	3738	3738	3738	3738	3738	3698	3738	3073	3073	3046	3019	3019	2993	2993	2967	2967	2967	2967	2967	2967	2967	2967	2942	2942	2942	2917	2917	2893	2917	2917	2942	2942	2942	2942	2967	2942	2967	2967	2967	2993	2993	2993	2993	2993	3698	3698	3698	3698	3698	3659	3659	3659	3659	3698	3659	3659	3659	3659	3659	3659	3659	3659	3659	3659	3659	3659	3659	3659	3659	3659	3659	3659	3659	3621	3621	3659	3659	3621	3621	3621	3621	3621	3621	3621	3621	3621	3621	3621	3621	3621	3621	3621	3621	3621	3621	3621	3659	3621	3621	3621	3621	3621	3621	3621	3621	3621	3621	3621	3659	3659	3659	3659	3659	3621	3621	3621	3621	3621	3621	3621	3621	3621	3659	3659	3659	3659	3659	3659	3621	3621	3621	3621	3621	3621	3621	3621	3659	3659	3659	3621	3621	3621	3621	3583	3621	3583	3583	3583	3583	3621	3621	3621	3621	3621	3621	3621	3621	3621	3583	3583	3583	3583	3583	3583	3583	3583	3583	3583	3546	3546	3546	3546	3546	3546	3546	3546	3546	3510	3546	3510	3510	3546	3546	3546	3546	3546	3583	3546	3546	3546	3546	3546	3546	3546	3510	3510	3510	3510	3475	3475	3475	3475	3475	3475	3475	3475	3475	3440	3440	3440	3440	3406	3440	3440	3440	3406	3406	3406	3406	3406	3406	3406	3406	3440	3406	3440	3440	3440	3406	3406	3406	3406	3406	3406	3406	3440	3440	3406	3406	3406	3406	3406	3406	3406	3406	0	0	0	0	0	0	0	0	0	0	0	0	0	0	0	0	0	0	0	0	0	0	0	0	0	0	0	0	0	0	0	0	0	0	0
0	0	770	770	779	779	779	780	780	782	784	784	786	786	788	789	789	793	795	795	797	798	800	800	800	800	802	808	808	808	0	0	0	0	0	0	1352	1363	1363	1368	1368	1368	1374	1374	1379	1379	1379	1385	1385	1385	1385	0	1611	1611	1611	1611	1611	1611	1603	1611	1603	1603	1603	1611	1603	1603	1603	1603	1603	1603	1603	1603	1603	1603	1603	1611	1611	1611	1603	1603	1603	1603	1603	1603	1603	1596	1596	1596	1603	1603	1603	1603	1611	1611	1611	1618	1626	1626	1634	1641	1649	1665	1673	1690	1732	1723	1732	1741	1741	1759	1759	1759	1768	1768	1768	1768	2551	2551	2532	2551	2551	2551	2551	2570	2570	2570	2570	2570	2570	2570	2551	2551	2551	2570	2570	2570	2570	2570	2570	2570	2589	2589	2589	2589	2589	2589	2589	2570	2570	2570	2570	2570	2570	2570	2570	2570	2570	2589	2589	2589	2589	2589	2589	2589	2589	2589	2589	2589	2589	2589	2589	2589	2589	2589	2589	2589	2589	2589	2589	2589	2589	2589	2589	2589	2589	2589	2589	2589	2589	2589	2589	2589	2589	2589	2589	2609	2609	2609	2649	2669	2690	2690	2690	2669	2690	2690	2690	2690	2711	2733	2733	2733	2733	2733	3475	3475	3475	3440	3475	3440	3440	3440	3406	3406	3406	3406	3406	3440	3440	3440	3475	3475	3475	3475	3475	3440	3475	3475	3475	3440	3440	3440	3475	3475	3546	3659	3698	3738	3779	3821	3821	3821	3821	3821	3821	3821	3864	3821	3864	3864	3864	3864	3864	3864	3864	3864	3864	3864	3864	3821	3821	3821	3821	3864	3864	3864	3864	3864	3864	3864	3864	3864	3864	3864	3864	3864	3864	3821	3821	3821	3821	3821	3821	3821	3821	3821	3779	3779	3779	3779	3779	3779	3779	3779	3779	3779	3779	3779	3779	3779	3779	3779	3779	3821	3821	3821	3821	3821	3821	3821	3821	3821	3821	3779	3779	3779	3779	3779	3779	3779	3779	3779	3779	3779	3779	3779	3779	3779	3779	3779	3779	3779	3738	3738	3738	3738	3738	3738	3738	3738	3738	3738	3738	3738	3738	3738	3738	3738	3738	3738	3738	3738	3738	3738	3698	3738	3738	3073	3073	3073	3019	3019	2993	2993	2967	2967	2967	2967	2967	2967	2967	2942	2942	2942	2917	2917	2917	2893	2893	2917	2917	2942	2942	2942	2967	2942	2942	2942	2967	2993	2993	2993	2993	2993	3698	3698	3698	3698	3659	3659	3659	3659	3698	3698	3659	3659	3659	3659	3659	3659	3659	3659	3659	3659	3659	3659	3659	3659	3621	3621	3659	3621	3621	3621	3621	3621	3621	3621	3621	3621	3621	3621	3621	3621	3621	3621	3621	3621	3621	3621	3621	3621	3621	3621	3621	3621	3621	3621	3621	3621	3621	3621	3621	3621	3621	3621	3621	3621	3659	3659	3659	3659	3659	3621	3621	3621	3621	3621	3621	3621	3621	3621	3659	3659	3659	3659	3659	3659	3621	3621	3621	3621	3621	3621	3621	3621	3621	3659	3659	3621	3621	3621	3621	3583	3621	3583	3583	3583	3583	3583	3621	3621	3621	3621	3621	3621	3621	3621	3621	3583	3583	3583	3583	3583	3583	3583	3583	3583	3546	3546	3546	3546	3546	3546	3546	3546	3546	3510	3546	3546	3546	3546	3546	3546	3546	3546	3583	3546	3546	3546	3546	3546	3546	3546	3510	3510	3510	3510	3475	3475	3475	3475	3475	3475	3475	3475	3475	3440	3440	3440	3440	3440	3440	3440	3440	3406	3406	3406	3406	3406	3406	3406	3406	3406	3406	3406	3406	3406	3406	3440	3406	3406	3406	3406	3406	3440	3440	3406	3440	3406	3406	3406	3406	3406	3406	0	0	0	0	0	0	0	0	0	0	0	0	0	0	0	0	0	0	0	0	0	0	0	0	0	0	0	0	0	0	0	0	0	0	0
0	0	770	770	779	779	782	780	780	782	784	784	786	786	788	789	791	793	795	797	797	798	800	798	800	804	806	808	808	808	0	0	0	0	0	0	1363	1368	1368	1368	1368	1374	1374	1374	1379	1379	1379	1385	1385	1385	1385	0	1603	1603	1611	1611	1611	1611	1603	1611	1611	1611	1611	1611	1603	1603	1603	1603	1603	1603	1603	1603	1603	1603	1603	1611	1611	1603	1603	1603	1603	1603	1603	1603	1596	1596	1596	1596	1603	1596	1603	1603	1603	1603	1611	1618	1634	1634	1634	1641	1641	1657	1665	1723	1732	1732	1732	1741	1741	1750	1759	1759	1768	1768	1768	1768	0	2551	2532	2532	2532	2551	2551	2570	2570	2570	2589	2589	2589	2589	2570	2570	2570	2570	2570	2570	2570	2570	2570	2589	2589	2589	2589	2589	2589	2589	2589	2589	2589	2589	2589	2589	2589	2589	2589	2589	2589	2609	2609	2609	2589	2589	2589	2589	2589	2589	2589	2609	2609	2609	2609	2609	2609	2609	2609	2589	2589	2589	2589	2589	2589	2589	2609	2609	2609	2589	2589	2589	2589	2589	2589	2589	2589	2589	2589	2609	2609	2609	2629	2649	2669	2669	2669	2669	2690	2690	2690	2690	2711	2711	2733	2733	2733	2733	3475	3510	3510	3475	3475	3475	3475	3475	3406	3440	3440	3440	3440	3440	3475	3440	3475	3475	3475	3475	3475	3440	3510	3475	3475	3475	3475	3475	3475	3475	3510	3621	3698	3738	3779	3821	3821	3821	3821	3821	3821	3821	3864	3864	3864	3864	3864	3864	3864	3864	3864	3864	3821	3821	3821	3821	3821	3821	3821	3864	3864	3864	3864	3864	3864	3864	3864	3864	3864	3864	3821	3821	3821	3821	3821	3821	3821	3821	3779	3779	3779	3779	3779	3779	3779	3779	3779	3779	3779	3779	3779	3779	3779	3779	3779	3779	3779	3779	3779	3821	3821	3821	3821	3821	3821	3821	3821	3821	3821	3779	3779	3779	3779	3779	3779	3779	3779	3779	3779	3779	3779	3779	3779	3779	3779	3779	3779	3738	3738	3738	3738	3738	3738	3738	3738	3738	3738	3738	3738	3738	3738	3738	3738	3738	3738	3738	3738	3738	3738	3738	3738	3698	3738	3073	3073	3073	3019	3019	2993	2993	2993	2967	2967	2967	2967	2967	2967	2942	2942	2942	2917	2917	2917	2893	2893	2917	2942	2942	2942	2942	2942	2942	2942	2942	2942	2993	2993	2993	2993	3738	3738	3698	3698	3698	3659	3659	3659	3659	3659	3659	3659	3659	3659	3659	3659	3659	3659	3659	3659	3659	3659	3659	3659	3659	3621	3621	3659	3621	3621	3621	3621	3621	3621	3621	3621	3621	3621	3621	3621	3621	3621	3621	3621	3621	3621	3621	3621	3621	3621	3621	3621	3621	3621	3621	3621	3621	3621	3621	3621	3621	3621	3621	3621	3621	3659	3659	3659	3659	3659	3621	3621	3621	3621	3621	3621	3621	3621	3621	3659	3659	3659	3659	3659	3659	3659	3621	3621	3621	3621	3621	3621	3621	3621	3621	3659	3621	3621	3621	3621	3583	3621	3583	3583	3583	3583	3583	3621	3621	3621	3621	3621	3621	3621	3621	3621	3583	3583	3583	3583	3583	3583	3583	3583	3583	3546	3546	3546	3546	3546	3546	3546	3546	3546	3546	3546	3546	3546	3546	3546	3546	3546	3546	3583	3546	3546	3546	3546	3546	3546	3510	3510	3475	3475	3475	3510	3475	3475	3475	3475	3510	3475	3475	3475	3440	3440	3440	3440	3440	3440	3440	3440	3440	3440	3406	3440	3440	3406	3406	3406	3406	3406	3406	3406	3406	3406	3406	3406	3406	3406	3406	3406	3406	3440	3406	3406	3406	3440	3440	3440	3406	3406	0	0	0	0	0	0	0	0	0	0	0	0	0	0	0	0	0	0	0	0	0	0	0	0	0	0	0	0	0	0	0	0	0	0	0
0	0	0	0	779	782	782	780	782	782	784	784	786	788	789	793	793	795	797	797	797	798	800	800	800	806	806	808	810	810	0	0	0	0	0	0	1358	1368	1368	1368	1368	1374	1374	1374	1379	1374	1379	1379	1379	1379	1379	0	1603	1603	1611	1611	1611	1611	1603	1611	1611	1611	1603	1603	1603	1603	1603	1603	1603	1603	1603	1603	1603	1603	1603	1611	1603	1603	1603	1603	1603	1603	1603	1603	1603	1596	1596	1596	1596	1596	1603	1603	1603	1603	1611	1618	1626	1626	1634	1641	1641	1657	1657	1741	1741	1741	1741	1741	1741	1750	1759	1759	1759	1768	1768	1777	1777	1843	1843	1853	1853	2551	2570	2589	2589	2609	2609	2589	2589	2589	2589	2589	2589	2589	2589	2589	2589	2570	2589	2589	2609	2609	2609	2609	2609	2609	2609	2589	2589	2589	2609	2609	2609	2589	2589	2609	2609	2609	2609	2609	2609	2609	2609	2609	2589	2589	2589	2609	2629	2629	2609	2629	2629	2629	2609	2609	2609	2609	2609	2609	2609	2609	2609	2609	2609	2609	2609	2609	2589	2589	2589	2589	2609	2609	2609	2609	2609	2609	2629	2649	2669	2669	2669	2669	2690	2690	2690	2690	2711	2733	2733	2733	2733	2733	3510	3510	3510	3510	3510	3510	3510	3475	3475	3475	3475	3475	3475	3475	3475	3475	3475	3475	3475	3475	3475	3475	3510	3510	3510	3510	3510	3510	3510	3510	3510	3583	3621	3738	3779	3821	3821	3821	3821	3821	3821	3821	3821	3864	3864	3864	3864	3864	3864	3864	3864	3821	3821	3821	3821	3821	3821	3821	3821	3864	3864	3864	3864	3864	3864	3864	3864	3864	3864	3821	3821	3821	3821	3821	3821	3821	3821	3821	3821	3821	3821	3821	3779	3779	3779	3779	3779	3779	3779	3779	3779	3779	3779	3779	3779	3779	3779	3779	3779	3821	3821	3821	3821	3821	3821	3821	3821	3821	3779	3779	3779	3779	3779	3779	3779	3779	3779	3779	3779	3779	3779	3779	3779	3779	3779	3779	3779	3738	3738	3738	3738	3738	3738	3738	3738	3738	3738	3738	3738	3738	3738	3738	3738	3738	3738	3738	3738	3738	3738	3738	3738	3738	3738	3073	3073	3073	3019	3019	2993	2993	2993	2967	2967	2967	2967	2967	2967	2942	2942	2942	2917	2917	2917	2917	2917	2917	2942	2967	2967	2942	2967	2942	2942	2942	2967	2967	2967	2967	3779	3738	3698	3698	3698	3659	3659	3659	3659	3659	3659	3659	3659	3659	3659	3659	3659	3659	3659	3659	3659	3621	3659	3659	3659	3659	3621	3621	3621	3621	3621	3621	3621	3621	3621	3621	3621	3621	3621	3621	3621	3621	3621	3621	3621	3621	3621	3621	3621	3621	3621	3621	3621	3621	3621	3621	3621	3621	3621	3621	3621	3621	3621	3621	3621	3621	3659	3659	3659	3659	3659	3621	3621	3621	3621	3583	3621	3621	3621	3621	3659	3659	3659	3659	3659	3659	3659	3659	3621	3621	3621	3621	3621	3621	3659	3659	3659	3659	3621	3621	3621	3583	3583	3583	3546	3546	3583	3583	3621	3621	3621	3621	3621	3621	3621	3621	3621	3583	3583	3583	3583	3583	3583	3583	3583	3583	3546	3546	3546	3546	3546	3546	3546	3546	3546	3546	3546	3546	3546	3546	3546	3546	3546	3546	3583	3546	3546	3546	3546	3546	3546	3546	3510	3510	3510	3510	3510	3475	3510	3510	3510	3510	3510	3475	3475	3475	3475	3475	3440	3440	3440	3440	3440	3406	3406	3406	3406	3406	3406	3406	3406	3440	3440	3440	3440	3440	3406	3440	3406	3440	3406	3406	3406	3440	3406	3406	3406	3440	3440	3440	3440	3406	3406	0	0	0	0	0	0	0	0	0	0	0	0	0	0	0	0	0	0	0	0	0	0	0	0	0	0	0	0	0	0	0	0	0	0	0
0	0	0	777	779	784	784	784	782	784	784	786	786	788	789	791	793	795	795	797	797	798	800	800	800	806	806	806	806	810	0	0	0	0	0	1363	1363	1368	1368	1368	1374	1374	1374	1374	1379	1374	1374	1379	1379	1379	1379	0	1603	1603	1611	1611	1611	1611	1603	1611	1603	1603	1603	1603	1603	1603	1603	1603	1603	1603	1603	1596	1596	1603	1603	1611	1603	1603	1603	1603	1603	1603	1603	1603	1596	1596	1596	1596	1596	1596	1603	1603	1603	1611	1611	1618	1626	1618	1626	1626	1626	1626	1626	1741	1741	1741	1741	1741	1750	1759	1759	1768	1768	1768	1777	1777	1786	1814	1824	1824	1853	1853	2570	2609	2609	2629	2629	2609	2609	2609	2609	2609	2609	2589	2589	2589	2589	2589	2589	2609	2609	2609	2629	2609	2609	2609	2609	2609	2609	2609	2609	2609	2609	2609	2609	2609	2609	2609	2629	2629	2629	2669	2609	2609	2609	2609	2609	2609	2629	2629	2609	2629	2629	2629	2629	2609	2609	2609	2629	2609	2609	2609	2609	2629	2629	2609	2609	2609	2609	2609	2609	2609	2609	2609	2609	2609	2609	2609	2629	2649	2669	2669	2669	2669	2690	2690	2690	2690	2690	2711	2733	2733	2733	3510	3510	3510	3510	3510	3510	3510	3510	3510	3510	3475	3475	3475	3475	3510	3510	3475	3510	3510	3510	3510	3510	3510	3475	3510	3510	3510	3510	3510	3510	3510	3510	3546	3583	3698	3779	3821	3821	3821	3821	3821	3821	3821	3821	3864	3864	3864	3864	3864	3864	3864	3864	3821	3821	3821	3821	3821	3821	3821	3821	3864	3864	3864	3864	3864	3864	3864	3864	3864	3821	3821	3821	3821	3821	3821	3821	3779	3779	3821	3821	3821	3821	3821	3821	3821	3821	3779	3779	3779	3779	3779	3779	3779	3779	3779	3779	3779	3779	3779	3779	3821	3821	3821	3821	3821	3821	3821	3821	3821	3779	3779	3779	3779	3779	3779	3779	3779	3779	3779	3779	3779	3779	3779	3779	3779	3779	3779	3779	3738	3738	3738	3738	3738	3738	3738	3738	3738	3738	3738	3738	3738	3738	3738	3738	3738	3738	3738	3738	3738	3738	3738	3738	3738	3738	3779	3019	3019	3019	2993	2993	2993	2967	2967	2967	2967	2967	2967	2967	2942	2942	2917	2917	2917	2917	2893	2917	2917	2967	2967	2942	2942	2967	2942	2942	2942	2942	2942	3821	3779	3738	3698	3698	3698	3698	3698	3659	3698	3698	3698	3698	3698	3659	3659	3659	3659	3659	3659	3659	3659	3659	3659	3659	3659	3621	3659	3621	3621	3621	3621	3621	3621	3621	3621	3621	3621	3621	3621	3621	3621	3621	3621	3621	3621	3621	3621	3621	3621	3621	3621	3583	3621	3621	3621	3621	3621	3621	3621	3621	3621	3621	3621	3621	3621	3621	3621	3659	3659	3659	3659	3659	3621	3621	3621	3621	3621	3621	3621	3621	3621	3659	3659	3659	3659	3659	3659	3659	3659	3621	3621	3621	3621	3621	3621	3621	3621	3621	3621	3621	3621	3621	3583	3583	3583	3583	3546	3583	3583	3583	3583	3621	3621	3621	3621	3621	3621	3583	3583	3583	3583	3583	3583	3583	3583	3583	3546	3546	3546	3546	3546	3546	3546	3546	3546	3546	3546	3546	3546	3546	3546	3546	3546	3546	3546	3583	3583	3583	3546	3546	3546	3546	3510	3510	3510	3510	3510	3510	3510	3510	3510	3510	3510	3510	3510	3475	3475	3510	3475	3475	3475	3440	3440	3440	3406	3406	3406	3440	3440	3440	3440	3440	3440	3440	3440	3440	3440	3406	3440	3440	3440	3406	3406	3406	3440	3440	3440	3440	3440	3440	3440	3440	3406	3406	0	0	0	0	0	0	0	0	0	0	0	0	0	0	0	0	0	0	0	0	0	0	0	0	0	0	0	0	0	0	0	0	0	0	0
0	0	773	777	782	784	784	786	782	784	784	786	786	788	789	793	795	795	795	797	797	800	800	800	806	808	808	806	806	0	0	0	0	1316	1342	1347	1352	1368	1363	1368	1368	1374	1374	1374	1374	1374	1374	1374	1374	1374	1374	0	1603	1603	1603	1611	1611	1603	1603	1603	1603	1603	1603	1603	1603	1603	1603	1603	1603	1596	1596	1596	1596	1596	1596	1611	1603	1603	1603	1603	1603	1603	1603	1603	1603	1596	1596	1596	1596	1589	1596	1596	1603	1603	1611	1618	1618	1626	1626	1626	1626	1618	1759	1759	1759	1759	1750	1750	1750	1759	1768	1768	1768	1777	1777	1777	1786	1795	1804	1814	1824	1824	0	2629	2629	2629	2629	2629	2629	2609	2609	2609	2609	2609	2609	2609	2609	2609	2629	2629	2629	2629	2629	2629	2629	2609	2629	2609	2609	2629	2629	2629	2629	2609	2609	2609	2609	2629	2629	2649	2629	2649	2669	2649	2649	2629	2629	2629	2649	2629	2649	2649	2649	2649	2649	2629	2629	2629	2649	2629	2629	2629	2629	2649	2629	2629	2629	2609	2609	2609	2609	2609	2609	2629	2609	2609	2629	2629	2629	2649	2669	2669	2690	2669	2690	2669	2690	2690	2690	2690	2690	2690	3510	3510	3510	3510	3510	3510	3510	3510	3510	3510	3510	3475	3510	3510	3510	3510	3510	3510	3510	3510	3510	3510	3510	3510	3510	3546	3510	3510	3510	3510	3510	3510	3510	3546	3583	3621	3738	3779	3821	3821	3821	3821	3821	3821	3821	3821	3821	3864	3864	3864	3864	3864	3864	3821	3821	3821	3821	3779	3821	3821	3821	3821	3864	3864	3864	3864	3864	3864	3864	3864	3864	3821	3821	3779	3779	3779	3779	3779	3779	3821	3821	3821	3821	3821	3779	3779	3779	3779	3779	3779	3779	3779	3779	3779	3779	3779	3779	3779	3779	3779	3779	3821	3821	3821	3821	3821	3821	3821	3821	3779	3779	3779	3779	3779	3779	3779	3779	3779	3779	3779	3779	3779	3779	3779	3779	3779	3779	3779	3779	3738	3738	3738	3738	3738	3738	3738	3738	3738	3738	3738	3738	3738	3738	3738	3738	3738	3738	3738	3738	3738	3738	3738	3738	3738	3738	3738	3738	2993	2993	2993	2993	2967	2967	2967	2967	2967	2967	2967	2967	2942	2942	2917	2917	2917	2917	2917	2917	2942	2967	2967	2967	2942	2942	2917	2917	2917	2917	3821	3779	3779	3738	3698	3698	3698	3698	3698	3659	3659	3659	3659	3659	3659	3659	3659	3659	3659	3659	3659	3659	3659	3659	3621	3659	3621	3621	3659	3621	3621	3621	3621	3621	3621	3621	3621	3621	3621	3621	3621	3621	3621	3621	3621	3621	3621	3621	3621	3621	3621	3621	3621	3583	3583	3621	3621	3621	3621	3621	3621	3621	3621	3621	3621	3621	3621	3621	3621	3659	3659	3659	3659	3659	3621	3621	3621	3621	3621	3621	3621	3659	3659	3659	3659	3659	3659	3659	3659	3659	3659	3659	3621	3621	3621	3621	3621	3621	3621	3621	3621	3621	3621	3621	3583	3583	3583	3583	3546	3583	3583	3583	3583	3583	3583	3583	3583	3583	3583	3583	3583	3583	3583	3583	3583	3583	3583	3546	3546	3546	3546	3546	3546	3546	3546	3546	3546	3546	3546	3546	3546	3546	3546	3546	3546	3546	3546	3583	3583	3546	3546	3546	3546	3546	3510	3510	3510	3510	3510	3510	3510	3510	3510	3510	3510	3510	3510	3510	3510	3510	3510	3475	3475	3475	3440	3440	3440	3440	3440	3475	3440	3440	3440	3440	3440	3440	3440	3440	3440	3440	3440	3440	3440	3440	3440	3440	3440	3440	3440	3440	3440	3440	3440	3440	3440	3440	0	0	0	0	0	0	0	0	0	0	0	0	0	0	0	0	0	0	0	0	0	0	0	0	0	0	0	0	0	0	0	0	0	0	0
0	0	773	780	784	784	784	782	782	784	784	786	786	788	789	793	797	797	797	798	798	800	800	800	806	808	808	0	0	0	0	0	0	1321	1342	1347	1352	1363	1363	1368	1368	1374	1374	1374	1374	1374	1374	1374	1374	1374	1374	1611	1603	1603	1603	1603	1603	1603	1603	1603	1603	1603	1603	1603	1603	1603	1603	1596	1596	1596	1596	1596	1596	1596	1596	1603	1603	1603	1603	1603	1603	1603	1603	1603	1596	1596	1596	1596	1589	1589	1596	1596	1603	1603	1611	1618	1626	1618	1618	1618	1618	1618	1618	1759	1768	1768	1759	1759	1759	1768	1768	1768	1768	1777	1777	1777	1786	1786	1804	1814	1824	1824	0	2629	2629	2629	2629	2629	2629	2629	2629	2629	2629	2609	2609	2609	2629	2629	2629	2629	2629	2649	2649	2629	2629	2629	2629	2629	2629	2629	2629	2629	2629	2629	2609	2629	2629	2649	2649	2649	2649	2649	2649	2649	2649	2649	2649	2649	2649	2649	2649	2649	2649	2649	2649	2649	2649	2649	2649	2649	2649	2649	2649	2649	2649	2629	2629	2629	2609	2609	2609	2609	2629	2629	2629	2629	2649	2649	2649	2669	2690	2690	2690	2690	2669	2669	2690	2690	2690	2690	2690	2690	3510	3546	3510	3546	3546	3510	3510	3510	3510	3510	3510	3510	3510	3510	3510	3510	3510	3510	3510	3510	3510	3510	3510	3510	3510	3546	3546	3546	3546	3546	3546	3546	3546	3546	3583	3621	3698	3738	3779	3821	3821	3821	3821	3821	3821	3821	3821	3821	3821	3864	3864	3864	3821	3821	3821	3821	3821	3779	3779	3821	3821	3864	3864	3864	3864	3864	3864	3864	3864	3864	3821	3821	3821	3779	3779	3779	3821	3821	3821	3821	3821	3821	3821	3821	3779	3779	3779	3779	3779	3779	3779	3779	3779	3779	3779	3779	3779	3779	3779	3738	3779	3821	3821	3821	3821	3821	3821	3779	3779	3779	3779	3738	3738	3738	3738	3779	3779	3738	3779	3779	3779	3779	3779	3779	3779	3779	3738	3738	3738	3738	3738	3738	3738	3738	3738	3738	3738	3738	3738	3738	3738	3738	3738	3738	3738	3738	3738	3738	3738	3738	3738	3738	3738	3738	3738	3738	3738	2993	2993	2993	2993	2993	2967	2967	2967	2967	2967	2967	2967	2942	2942	2917	2917	2917	2917	2917	2917	2942	2967	2967	2967	2942	2942	2942	2917	2917	2917	3821	3779	3738	3698	3698	3659	3659	3659	3659	3659	3659	3659	3659	3659	3659	3659	3659	3659	3659	3659	3659	3659	3659	3659	3621	3621	3621	3621	3621	3621	3621	3621	3621	3621	3621	3621	3621	3621	3621	3621	3621	3621	3621	3621	3621	3621	3621	3621	3621	3621	3621	3621	3621	3583	3583	3583	3583	3583	3583	3621	3621	3621	3621	3621	3621	3621	3621	3621	3621	3659	3621	3621	3621	3621	3621	3621	3621	3621	3621	3621	3621	3659	3659	3659	3659	3659	3659	3659	3659	3659	3659	3659	3621	3621	3621	3621	3621	3621	3621	3621	3621	3621	3621	3621	3621	3621	3583	3583	3583	3583	3583	3583	3583	3583	3583	3583	3583	3583	3583	3583	3583	3546	3546	3583	3583	3546	3583	3546	3583	3546	3546	3546	3510	3546	3546	3546	3546	3546	3546	3546	3546	3546	3546	3546	3546	3546	3546	3583	3583	3583	3546	3546	3546	3546	3510	3510	3510	3510	3510	3510	3510	3510	3510	3510	3510	3510	3510	3510	3510	3510	3510	3510	3510	3475	3475	3440	3440	3440	3440	3475	3440	3440	3440	3440	3440	3440	3440	3440	3440	3440	3440	3440	3440	3440	3440	3440	3440	3440	3440	3440	3440	3440	3440	3440	3440	3440	0	0	0	0	0	0	0	0	0	0	0	0	0	0	0	0	0	0	0	0	0	0	0	0	0	0	0	0	0	0	0	0	0	0	0
0	0	777	782	784	784	784	782	782	784	784	786	786	786	789	793	795	795	797	797	798	800	800	800	800	800	800	0	0	0	0	0	0	1342	1347	1352	1352	1363	1363	1363	1368	1374	1374	1374	1374	1374	1374	1374	1374	1374	1374	1611	1611	1611	1611	1603	1611	1603	1603	1603	1603	1603	1603	1603	1603	1603	1603	1596	1596	1596	1596	1596	1596	1589	1589	1589	1603	1603	1603	1603	1603	1603	1603	1603	1603	1603	1596	1596	1596	1589	1596	1596	1596	1603	1611	1618	1626	1618	1618	1618	1618	1611	1611	1768	1768	1777	1768	1768	1768	1777	1768	1777	1768	1777	1777	1786	1786	1795	1804	1804	1824	1824	1824	2629	2649	2629	2629	2629	2629	2629	2629	2629	2629	2629	2629	2629	2629	2649	2649	2649	2649	2649	2649	2649	2629	2629	2629	2629	2629	2629	2629	2649	2629	2629	2629	2629	2649	2649	2649	2669	2669	2669	2649	2649	2649	2669	2649	2649	2649	2649	2649	2649	2649	2649	2649	2649	2649	2649	2649	2649	2649	2649	2649	2649	2649	2629	2649	2629	2629	2629	2629	2629	2629	2649	2649	2669	2669	2690	2669	2690	2690	2690	2690	2669	2669	2669	2690	2690	2690	2690	2690	2690	0	3510	3510	3546	3546	3546	3546	3510	3546	3510	3510	3510	3510	3510	3510	3510	3510	3510	3510	3510	3510	3510	3510	3510	3510	3546	3546	3546	3546	3546	3546	3546	3546	3546	3583	3583	3659	3738	3779	3821	3821	3821	3821	3821	3821	3821	3821	3821	3821	3864	3864	3864	3864	3821	3821	3821	3779	3779	3779	3779	3779	3821	3864	3864	3864	3864	3864	3864	3864	3821	3821	3821	3821	3779	3779	3779	3779	3821	3821	3821	3821	3821	3821	3821	3779	3779	3779	3779	3779	3779	3779	3779	3779	3779	3779	3779	3779	3779	3779	3738	3738	3821	3821	3821	3821	3779	3779	3779	3779	3779	3779	3738	3738	3738	3738	3738	3738	3738	3738	3738	3738	3738	3738	3738	3779	3779	3779	3738	3779	3738	3738	3738	3738	3738	3738	3738	3738	3738	3738	3738	3738	3738	3738	3738	3738	3738	3738	3738	3698	3738	3738	3738	3698	3698	3738	3738	3738	2993	2993	2993	2993	2993	2993	2967	2967	2967	2967	2967	2942	2942	2917	2917	2917	2917	2917	2917	2917	2942	2967	2967	2967	2942	2942	2942	2917	2917	2917	3779	3738	3698	3698	3698	3659	3659	3659	3659	3659	3659	3659	3659	3659	3659	3659	3659	3659	3659	3659	3659	3659	3659	3659	3659	3621	3621	3621	3621	3621	3621	3659	3621	3621	3621	3621	3621	3621	3621	3621	3621	3621	3621	3621	3621	3621	3621	3621	3621	3621	3583	3621	3583	3583	3583	3583	3583	3583	3583	3583	3621	3621	3621	3621	3621	3621	3583	3583	3621	3659	3621	3621	3621	3621	3621	3621	3621	3621	3621	3621	3621	3659	3659	3659	3659	3659	3659	3659	3659	3659	3659	3621	3621	3621	3621	3621	3621	3621	3621	3621	3621	3621	3621	3621	3621	3621	3621	3583	3583	3583	3583	3546	3546	3546	3546	3583	3583	3583	3583	3546	3583	3546	3546	3583	3583	3583	3583	3546	3583	3546	3546	3546	3546	3546	3546	3546	3546	3546	3546	3546	3546	3546	3546	3546	3546	3546	3546	3583	3546	3546	3546	3546	3546	3510	3475	3510	3475	3510	3510	3510	3510	3546	3546	3546	3510	3510	3510	3510	3510	3510	3510	3510	3510	3475	3475	3440	3440	3440	3440	3475	3440	3440	3440	3475	3440	3440	3440	3440	3440	3440	3440	3440	3440	3440	3440	3440	3440	3440	3440	3440	3440	3440	3440	3440	3440	3440	0	0	0	0	0	0	0	0	0	0	0	0	0	0	0	0	0	0	0	0	0	0	0	0	0	0	0	0	0	0	0	0	0	0	0
0	0	779	780	784	784	784	782	784	784	784	786	786	788	791	793	795	795	797	798	798	800	800	800	800	800	800	0	0	0	0	0	0	1347	1352	1352	1358	1363	1363	1363	1368	1368	1374	1374	1374	1368	1374	1374	1368	1368	1374	1611	1603	1603	1603	1603	1603	1603	1603	1603	1603	1603	1611	1603	1611	1603	1611	1603	1603	1603	1596	1596	1596	1596	1596	1603	1603	1603	1603	1603	1603	1603	1603	1603	1596	1603	1596	1596	1596	1589	1589	1596	1596	1603	1611	1618	1626	1618	1618	1618	1611	1611	1611	1777	1777	1777	1777	1777	1777	1777	1777	1777	1777	1777	1777	1786	1795	1795	1804	1814	1824	1833	1833	1833	2649	2649	2629	2629	2629	2629	2629	2629	2649	2629	2649	2629	2649	2649	2649	2669	2649	2649	2649	2629	2629	2629	2629	2629	2629	2649	2649	2649	2649	2649	2649	2649	2649	2669	2669	2669	2669	2669	2669	2649	2649	2669	2669	2669	2669	2669	2669	2669	2669	2669	2669	2669	2669	2669	2669	2669	2649	2649	2649	2649	2649	2649	2649	2649	2649	2649	2649	2649	2649	2649	2649	2669	2669	2690	2669	2690	2690	2690	2690	2669	2669	2669	2669	2669	2669	2669	2669	2690	3546	3546	3546	3546	3546	3546	3546	3546	3546	3546	3546	3546	3546	3546	3546	3546	3546	3546	3546	3510	3510	3510	3510	3510	3510	3546	3546	3546	3546	3546	3546	3583	3546	3546	3583	3621	3659	3738	3779	3779	3779	3821	3779	3821	3821	3821	3821	3821	3821	3821	3864	3864	3864	3821	3821	3821	3779	3738	3779	3779	3779	3821	3864	3864	3864	3864	3864	3821	3821	3821	3821	3779	3821	3779	3779	3779	3779	3779	3779	3779	3779	3779	3821	3821	3779	3779	3779	3779	3779	3779	3779	3779	3779	3779	3779	3779	3779	3779	3779	3738	3738	3779	3821	3821	3779	3779	3779	3779	3779	3779	3779	3738	3738	3738	3738	3738	3738	3738	3738	3738	3738	3738	3738	3738	3779	3738	3779	3738	3779	3738	3738	3738	3738	3738	3738	3738	3738	3738	3738	3738	3738	3738	3738	3738	3738	3738	3738	3738	3698	3738	3738	3738	3698	3698	3698	3698	3738	3698	2993	2993	2967	2993	2993	2967	2967	2967	2967	2967	2942	2942	2942	2942	2942	2917	2942	2942	2942	2942	2967	2967	2967	2942	2942	2942	2942	3698	3698	3698	3698	3698	3698	3659	3659	3659	3659	3659	3659	3659	3659	3659	3659	3659	3659	3659	3659	3659	3659	3659	3659	3621	3621	3621	3621	3621	3621	3621	3621	3621	3659	3621	3621	3621	3621	3621	3621	3621	3621	3621	3621	3621	3621	3621	3621	3621	3621	3621	3583	3583	3621	3583	3583	3583	3583	3621	3583	3583	3583	3621	3621	3621	3621	3621	3621	3583	3583	3583	3659	3621	3621	3621	3659	3659	3621	3621	3621	3659	3659	3659	3659	3659	3659	3659	3659	3659	3659	3659	3659	3659	3659	3659	3659	3621	3621	3621	3621	3621	3621	3621	3621	3621	3621	3621	3621	3621	3583	3583	3583	3583	3546	3546	3546	3546	3546	3546	3546	3546	3546	3546	3546	3546	3546	3546	3546	3583	3546	3583	3583	3546	3546	3546	3546	3546	3546	3546	3546	3546	3546	3546	3546	3546	3546	3546	3546	3546	3583	3546	3546	3546	3546	3510	3510	3475	3475	3510	3510	3510	3546	3546	3546	3546	3510	3510	3510	3510	3510	3510	3510	3475	3510	3510	3475	3475	3440	3440	3440	3440	3475	3440	3440	3475	3475	3440	3440	3440	3440	3440	3440	3440	3440	3440	3440	3440	3440	3440	3440	3440	3440	3440	3440	3440	3440	3440	3440	0	0	0	0	0	0	0	0	0	0	0	0	0	0	0	0	0	0	0	0	0	0	0	0	0	0	0	0	0	0	0	0	0	0	0
0	0	777	779	782	784	784	784	784	784	786	786	786	788	791	793	795	795	797	797	798	798	800	800	800	798	798	0	0	0	0	0	0	1352	1358	1358	1358	1358	1363	1363	1368	1368	1368	1368	1368	1368	1368	1368	1368	1368	1611	1611	1611	1611	1611	1603	1603	1603	1603	1603	1603	1603	1603	1603	1603	1603	1611	1603	1603	1603	1596	1596	1596	1596	1596	1596	1603	1603	1603	1603	1603	1603	1603	1603	1596	1596	1596	1596	1596	1596	1596	1603	1603	1611	1618	1626	1626	1618	1618	1618	1611	1611	1611	1777	1777	1786	1786	1786	1786	1786	1786	1777	1777	1777	1777	1777	1786	1795	1814	1814	1824	1833	1833	1833	0	2649	2649	2629	2629	2629	2649	2649	2649	2649	2649	2649	2669	2669	2669	2669	2669	2669	2669	2649	2649	2629	2649	2649	2649	2649	2649	2649	2649	2649	2649	2649	2669	2669	2690	2690	2690	2690	2669	2669	2669	2669	2669	2669	2669	2669	2669	2669	2669	2669	2669	2669	2669	2669	2669	2669	2669	2669	2669	2669	2649	2649	2649	2649	2649	2649	2649	2649	2649	2649	2669	2669	2669	2690	2690	2690	2690	2690	2669	2669	2669	2669	2669	2669	2669	2669	2669	2669	3546	3546	3546	3546	3546	3546	3546	3546	3546	3546	3546	3546	3546	3546	3546	3546	3546	3546	3546	3546	3546	3546	3546	3546	3510	3583	3583	3583	3583	3583	3583	3583	3583	3583	3583	3621	3659	3738	3738	3779	3779	3779	3779	3779	3779	3779	3779	3821	3821	3864	3864	3864	3864	3864	3821	3821	3821	3779	3821	3779	3821	3864	3864	3864	3864	3864	3864	3821	3821	3821	3779	3779	3821	3779	3821	3821	3821	3821	3821	3821	3779	3779	3779	3821	3779	3779	3779	3779	3779	3779	3779	3779	3779	3779	3779	3779	3779	3779	3738	3738	3738	3779	3779	3779	3779	3779	3779	3779	3779	3779	3779	3738	3738	3738	3738	3738	3738	3738	3738	3738	3738	3738	3738	3738	3738	3738	3738	3738	3738	3738	3738	3738	3738	3738	3738	3738	3738	3738	3738	3738	3738	3738	3738	3738	3738	3738	3738	3738	3698	3738	3698	3698	3698	3698	3698	3698	3738	3738	3698	3738	2967	2993	2967	2967	2967	2967	2967	2967	2942	2942	2942	2942	2942	2942	2942	2942	2942	2942	2967	2967	2967	2967	2967	2967	2967	3698	3698	3698	3698	3659	3698	3659	3659	3659	3659	3659	3659	3659	3659	3659	3659	3659	3659	3659	3659	3659	3659	3659	3659	3659	3621	3621	3621	3621	3621	3621	3621	3621	3621	3621	3621	3621	3621	3621	3621	3621	3621	3621	3621	3621	3621	3621	3621	3621	3621	3621	3621	3583	3583	3583	3583	3583	3583	3621	3583	3583	3583	3621	3621	3621	3621	3621	3621	3583	3583	3583	3621	3621	3621	3621	3659	3621	3659	3659	3621	3659	3659	3659	3659	3659	3659	3659	3659	3659	3659	3659	3659	3659	3659	3621	3621	3621	3621	3621	3621	3621	3621	3621	3621	3621	3621	3621	3621	3621	3621	3583	3583	3583	3546	3546	3546	3546	3546	3546	3546	3546	3546	3546	3546	3546	3546	3583	3583	3583	3546	3546	3546	3546	3546	3546	3546	3546	3546	3510	3546	3546	3546	3546	3546	3546	3546	3546	3546	3546	3583	3546	3546	3546	3510	3510	3475	3475	3475	3510	3510	3546	3546	3546	3546	3546	3510	3510	3510	3510	3510	3510	3475	3475	3510	3475	3475	3475	3440	3475	3475	3475	3475	3440	3440	3475	3475	3440	3440	3440	3440	3440	3440	3440	3440	3440	3440	3440	3440	3440	3440	3440	3440	3440	3440	3440	3440	3406	3406	0	0	0	0	0	0	0	0	0	0	0	0	0	0	0	0	0	0	0	0	0	0	0	0	0	0	0	0	0	0	0	0	0	0	0
0	775	777	779	782	784	782	782	784	784	786	786	784	786	784	793	793	795	797	798	798	798	798	798	798	798	797	797	0	0	0	0	0	1352	1358	1363	1363	1363	1363	1368	1368	1368	1374	1368	1368	1368	1368	1374	1374	1611	1611	1611	1611	1611	1603	1603	1603	1603	1603	1603	1603	1603	1603	1603	1603	1603	1603	1603	1603	1603	1596	1596	1596	1596	1589	1589	1603	1603	1603	1603	1603	1603	1603	1603	1596	1596	1596	1589	1596	1596	1596	1596	1603	1611	1626	1626	1626	1618	1626	1618	1611	1611	1611	1786	1786	1795	1795	1795	1795	1795	1795	1786	1777	1777	1786	1786	1795	1804	1814	1814	1824	1824	1833	1843	1843	1843	2649	2649	2629	2649	2649	2649	2669	2649	2669	2669	2690	2690	2690	2690	2669	2690	2669	2669	2649	2649	2649	2669	2649	2649	2649	2649	2649	2649	2669	2669	2669	2669	2690	2690	2690	2690	2669	2669	2669	2690	2669	2669	2669	2690	2690	2690	2669	2669	2690	2690	2690	2690	2690	2690	2690	2690	2669	2669	2669	2669	2649	2649	2649	2649	2649	2649	2649	2669	2669	2690	2690	2690	2690	2690	2690	2690	2669	2669	2669	2669	2669	2669	2669	2669	2669	2669	3583	3546	3583	3583	3583	3546	3546	3546	3546	3546	3546	3546	3546	3546	3546	3546	3546	3546	3546	3546	3546	3583	3546	3546	3546	3583	3583	3583	3583	3583	3583	3583	3583	3583	3583	3659	3659	3698	3738	3738	3738	3779	3738	3779	3779	3779	3779	3779	3821	3821	3864	3864	3864	3864	3864	3821	3821	3779	3821	3821	3821	3864	3864	3864	3864	3864	3864	3821	3821	3821	3821	3779	3821	3821	3821	3821	3821	3821	3821	3779	3779	3779	3821	3821	3779	3779	3779	3779	3779	3779	3779	3779	3779	3779	3779	3779	3738	3779	3738	3738	3738	3779	3821	3779	3779	3779	3779	3779	3779	3779	3779	3779	3779	3738	3738	3738	3779	3738	3738	3738	3738	3738	3738	3738	3738	3738	3738	3738	3738	3738	3738	3738	3738	3738	3738	3738	3738	3738	3738	3738	3738	3738	3738	3738	3738	3738	3738	3698	3698	3698	3698	3698	3698	3698	3698	3698	3698	3698	3698	3698	3738	2993	2993	2993	2967	2967	2967	2967	2967	2942	2942	2942	2942	2942	2942	2942	2967	2967	2967	2993	2993	2967	2993	2993	2993	3698	3698	3659	3659	3659	3659	3659	3659	3659	3659	3659	3659	3659	3659	3659	3659	3659	3659	3659	3659	3659	3659	3659	3659	3659	3659	3659	3621	3621	3621	3621	3621	3621	3621	3621	3621	3621	3621	3621	3621	3621	3621	3621	3621	3621	3621	3621	3621	3621	3621	3583	3583	3583	3621	3621	3583	3583	3583	3583	3583	3583	3583	3583	3583	3583	3583	3583	3583	3583	3583	3583	3659	3621	3621	3621	3659	3621	3659	3621	3621	3659	3659	3659	3659	3659	3621	3621	3659	3621	3659	3659	3659	3659	3621	3621	3621	3659	3621	3583	3583	3621	3621	3621	3621	3621	3621	3621	3621	3621	3621	3621	3583	3583	3583	3583	3583	3583	3583	3583	3546	3583	3546	3583	3583	3546	3546	3546	3546	3583	3546	3546	3546	3546	3546	3546	3546	3546	3546	3510	3546	3546	3546	3546	3546	3546	3546	3546	3546	3546	3583	3546	3546	3546	3510	3510	3475	3475	3475	3510	3510	3510	3546	3546	3546	3546	3510	3510	3510	3475	3475	3475	3475	3475	3475	3475	3475	3475	3440	3475	3475	3475	3475	3475	3475	3475	3475	3475	3440	3440	3440	3440	3440	3440	3440	3440	3440	3440	3440	3440	3440	3440	3440	3440	3440	3440	3440	3406	3406	0	0	0	0	0	0	0	0	0	0	0	0	0	0	0	0	0	0	0	0	0	0	0	0	0	0	0	0	0	0	0	0	0	0	0
0	775	777	779	779	780	780	782	782	782	784	784	784	784	786	788	789	795	797	798	800	800	798	798	798	797	797	797	0	0	0	0	0	0	1358	1358	1363	1363	1368	1368	1368	1374	1374	1368	1368	1374	1368	1374	1374	1611	1618	1618	1611	1611	1603	1603	1603	1603	1603	1603	1603	1603	1603	1596	1603	1603	1603	1603	1603	1603	1596	1596	1596	1596	1589	1589	1603	1603	1603	1603	1603	1603	1603	1603	1596	1596	1596	1589	1589	1589	1596	1596	1603	1611	1626	1626	1626	1626	1626	1626	1611	1611	1611	1795	1795	1804	1804	1804	1795	1795	1795	1795	1786	1786	1786	1786	1795	1814	1814	1814	1824	1824	1833	1833	1833	1833	0	2649	2669	2669	2669	2669	2690	2690	2690	2690	2690	2690	2690	2690	2690	2690	2690	2690	2649	2669	2669	2690	2669	2669	2669	2669	2669	2669	2669	2669	2669	2669	2690	2711	2711	2690	2690	2690	2690	2690	2690	2690	2690	2711	2711	2711	2690	2690	2711	2711	2690	2690	2690	2711	2690	2690	2690	2669	2669	2669	2649	2649	2649	2649	2649	2649	2669	2669	2669	2690	2690	2690	2690	2690	2690	2690	2669	2669	2669	2669	2669	2669	2669	2669	2669	0	3583	3583	3621	3621	3621	3583	3583	3546	3583	3583	3583	3583	3583	3546	3583	3546	3546	3546	3583	3583	3583	3621	3583	3583	3583	3621	3621	3583	3583	3583	3583	3583	3621	3583	3621	3621	3659	3698	3738	3738	3738	3779	3779	3779	3779	3779	3779	3779	3821	3821	3864	3821	3864	3864	3864	3821	3821	3821	3821	3821	3864	3864	3864	3864	3864	3864	3821	3821	3821	3821	3821	3779	3821	3821	3821	3821	3779	3821	3821	3779	3779	3779	3821	3821	3779	3779	3779	3779	3779	3779	3779	3779	3779	3779	3779	3779	3738	3738	3738	3738	3738	3779	3779	3779	3779	3779	3779	3779	3779	3779	3779	3779	3779	3738	3738	3779	3779	3738	3738	3738	3738	3738	3738	3738	3738	3738	3738	3738	3738	3738	3738	3738	3738	3738	3738	3738	3738	3738	3738	3738	3738	3738	3738	3738	3738	3738	3698	3698	3698	3698	3698	3698	3698	3698	3698	3698	3698	3698	3698	3698	3738	2993	2993	2993	2993	2993	2993	2967	2967	2942	2942	2942	2942	2942	2942	2942	2967	2967	2967	2967	2967	2993	2967	2967	2967	3698	3659	3659	3659	3659	3659	3659	3659	3659	3621	3659	3659	3659	3621	3621	3659	3659	3659	3659	3659	3659	3659	3659	3659	3659	3659	3621	3621	3621	3621	3621	3621	3621	3621	3621	3659	3621	3621	3659	3621	3621	3621	3621	3621	3621	3621	3621	3583	3583	3583	3583	3583	3583	3583	3583	3621	3583	3583	3621	3621	3583	3583	3621	3583	3583	3583	3583	3583	3583	3583	3583	3659	3621	3621	3621	3659	3621	3659	3659	3659	3659	3659	3659	3621	3659	3621	3621	3621	3621	3621	3621	3621	3621	3621	3621	3621	3621	3621	3583	3583	3621	3621	3621	3621	3621	3621	3621	3621	3621	3621	3621	3583	3583	3546	3546	3546	3583	3583	3583	3583	3583	3546	3546	3546	3546	3546	3546	3546	3583	3546	3546	3546	3546	3546	3546	3546	3546	3546	3546	3546	3546	3546	3546	3546	3546	3546	3546	3546	3546	3583	3546	3546	3546	3546	3510	3510	3510	3510	3510	3510	3510	3546	3546	3510	3510	3510	3510	3475	3475	3475	3475	3475	3475	3475	3475	3475	3475	3475	3475	3475	3475	3475	3475	3475	3475	3475	3440	3440	3440	3440	3440	3440	3440	3440	3440	3440	3440	3440	3440	3440	3440	3440	3440	3406	3406	3406	3406	3406	0	0	0	0	0	0	0	0	0	0	0	0	0	0	0	0	0	0	0	0	0	0	0	0	0	0	0	0	0	0	0	0	0	0	0
0	777	777	777	779	780	782	782	784	782	784	784	784	784	786	786	786	788	797	797	798	798	798	797	797	791	791	791	0	0	0	0	0	0	1363	1368	1368	1368	1368	1368	1368	1368	1374	1368	1368	1374	1374	1374	1374	1603	1618	1618	1611	1611	1611	1603	1603	1603	1603	1603	1603	1603	1603	1596	1603	1603	1603	1603	1603	1603	1603	1596	1596	1596	1596	1596	1603	1603	1603	1603	1603	1603	1603	1603	1596	1596	1596	1589	1589	1596	1596	1596	1603	1611	1626	1626	1626	1626	1626	1618	1611	1611	1611	1795	1795	1804	1804	1804	1804	1804	1804	1804	1795	1795	1795	1795	1804	1814	1824	1814	1824	1833	1833	1843	1833	1843	1843	0	2669	2669	2669	2669	2690	2711	2711	2711	2690	2690	2690	2690	2690	2690	2690	2690	2690	2669	2690	2690	2690	2690	2690	2690	2690	2690	2690	2690	2690	2690	2690	2711	2711	2711	2690	2690	2690	2711	2711	2690	2711	2733	2733	2711	2711	2690	2711	2711	2690	2690	2711	2711	2711	2711	2690	2690	2669	2669	2649	2669	2669	2669	2669	2669	2669	2669	2669	2690	2690	2690	2690	2690	2690	2690	2669	2669	2669	2669	2669	2669	2669	2669	2669	2669	3583	3621	3659	3659	3621	3621	3583	3583	3583	3583	3583	3583	3583	3583	3583	3583	3583	3583	3583	3583	3621	3621	3621	3621	3621	3659	3659	3659	3583	3621	3621	3659	3659	3659	3659	3698	3698	3738	3738	3738	3779	3779	3779	3779	3779	3779	3779	3821	3821	3821	3864	3864	3864	3864	3864	3821	3821	3821	3821	3821	3864	3864	3864	3864	3864	3864	3821	3821	3821	3821	3821	3779	3821	3821	3821	3821	3821	3821	3821	3779	3779	3779	3821	3821	3779	3779	3779	3779	3779	3779	3779	3779	3779	3779	3779	3779	3738	3738	3738	3738	3738	3779	3779	3779	3779	3779	3779	3779	3779	3779	3779	3779	3779	3779	3779	3779	3779	3779	3738	3738	3738	3738	3738	3738	3738	3738	3738	3738	3738	3738	3738	3738	3738	3738	3738	3738	3738	3738	3738	3738	3738	3738	3738	3738	3738	3738	3738	3738	3698	3698	3698	3698	3698	3698	3698	3698	3738	3698	3698	3698	3738	3738	2993	2993	2993	2993	2993	2993	2967	2967	2967	2942	2967	2942	2967	2967	2967	2967	2993	2993	2967	2993	2967	2967	2967	3698	3659	3659	3659	3659	3659	3659	3659	3659	3659	3659	3659	3659	3621	3621	3659	3659	3659	3659	3659	3659	3659	3659	3659	3659	3659	3659	3621	3621	3621	3621	3621	3621	3621	3621	3659	3621	3659	3659	3659	3621	3621	3621	3621	3621	3621	3583	3583	3583	3583	3583	3583	3583	3621	3583	3621	3621	3621	3621	3621	3583	3583	3583	3583	3583	3583	3583	3621	3621	3621	3583	3659	3659	3659	3659	3659	3621	3659	3621	3621	3621	3659	3621	3621	3621	3621	3621	3621	3621	3621	3621	3621	3621	3621	3621	3621	3621	3621	3583	3583	3621	3621	3621	3621	3621	3621	3659	3621	3621	3621	3621	3583	3583	3583	3583	3546	3583	3583	3583	3583	3583	3546	3546	3546	3546	3546	3546	3546	3546	3546	3546	3546	3546	3546	3546	3546	3546	3546	3546	3546	3546	3546	3546	3546	3546	3546	3546	3546	3546	3583	3546	3546	3546	3546	3546	3510	3510	3510	3510	3510	3510	3546	3546	3510	3510	3510	3510	3475	3475	3475	3475	3475	3440	3475	3475	3475	3475	3475	3475	3475	3475	3475	3475	3440	3440	3440	3440	3440	3440	3440	3440	3440	3440	3440	3440	3440	3440	3440	3440	3440	3440	3440	3406	3406	3406	3406	3406	3406	0	0	0	0	0	0	0	0	0	0	0	0	0	0	0	0	0	0	0	0	0	0	0	0	0	0	0	0	0	0	0	0	0	0	0
0	772	772	777	777	779	779	779	782	782	784	784	784	786	786	786	786	788	793	797	798	798	798	797	795	791	791	791	0	0	0	0	0	0	1363	1368	1363	1363	1368	1368	1368	1368	1368	1368	1374	1374	1374	1374	1374	1611	1611	1611	1611	1611	1603	1603	1603	1603	1603	1603	1596	1603	1603	1596	1603	1603	1603	1603	1603	1603	1603	1596	1596	1596	1596	1596	1603	1603	1603	1603	1603	1596	1596	1603	1596	1596	1596	1596	1596	1596	1596	1596	1603	1603	1611	1618	1626	1626	1626	1618	1611	1618	1618	1795	1804	1804	1804	1804	1804	1804	1804	1804	1804	1804	1795	1795	1804	1824	1824	1814	1824	1833	1843	1843	1833	1843	1853	1853	1853	2669	2669	2690	2711	2711	2711	2711	2711	2711	2690	2690	2690	2690	2690	2690	2690	2669	2711	2711	2690	2690	2690	2690	2690	2690	2690	2690	2690	2690	2711	2711	2711	2711	2711	2711	2711	2711	2711	2711	2711	2733	2733	2711	2711	2711	2711	2711	2711	2711	2711	2711	2711	2711	2690	2690	2690	2669	2669	2669	2669	2669	2669	2669	2669	2669	2669	2690	2690	2690	2669	2669	2669	2669	2669	2669	2669	2669	2669	2669	2669	2669	2669	2669	3583	3621	3659	3659	3659	3621	3621	3583	3583	3583	3583	3583	3583	3583	3583	3583	3583	3583	3621	3621	3621	3621	3621	3621	3621	3659	3659	3659	3659	3659	3659	3659	3659	3659	3698	3698	3698	3698	3738	3738	3738	3738	3738	3779	3779	3779	3779	3821	3864	3864	3864	3821	3864	3821	3864	3821	3821	3821	3864	3864	3864	3864	3864	3864	3864	3864	3821	3821	3821	3779	3779	3779	3821	3821	3821	3821	3821	3821	3821	3821	3779	3779	3779	3779	3779	3779	3779	3779	3779	3779	3779	3779	3779	3779	3779	3779	3738	3738	3738	3738	3738	3779	3779	3779	3779	3779	3779	3779	3779	3779	3779	3779	3779	3779	3779	3779	3779	3779	3738	3738	3738	3738	3738	3738	3738	3738	3738	3738	3738	3738	3738	3738	3738	3738	3738	3738	3738	3738	3738	3738	3738	3738	3738	3738	3738	3698	3698	3698	3698	3698	3698	3698	3738	3738	3738	3738	3738	3738	3698	3698	3698	2993	2993	2993	2993	2993	2993	2993	2967	2967	2967	2967	2967	2942	2967	2967	2967	2967	2993	2993	2993	2993	2967	2993	2993	3659	3659	3659	3659	3659	3659	3659	3659	3659	3659	3659	3659	3659	3621	3659	3659	3659	3659	3659	3659	3659	3659	3659	3659	3659	3659	3659	3621	3621	3621	3621	3621	3621	3621	3621	3659	3621	3621	3621	3621	3621	3621	3621	3621	3621	3621	3621	3621	3583	3621	3583	3583	3583	3621	3621	3621	3621	3621	3621	3621	3621	3583	3583	3583	3621	3621	3583	3621	3621	3621	3621	3659	3659	3659	3621	3621	3621	3621	3621	3621	3621	3621	3621	3583	3621	3621	3621	3621	3621	3621	3621	3621	3621	3621	3621	3583	3621	3583	3583	3583	3621	3621	3621	3621	3659	3621	3659	3659	3621	3621	3621	3583	3583	3583	3583	3546	3546	3583	3583	3583	3583	3546	3546	3546	3546	3546	3546	3546	3546	3546	3546	3546	3546	3546	3546	3546	3546	3546	3510	3546	3546	3546	3546	3546	3546	3546	3546	3546	3510	3546	3546	3546	3546	3546	3546	3510	3510	3510	3510	3510	3510	3510	3546	3510	3510	3510	3510	3475	3475	3440	3440	3440	3440	3440	3475	3475	3475	3475	3475	3475	3475	3475	3475	3440	3440	3440	3440	3440	3440	3440	3440	3440	3440	3440	3440	3440	3440	3440	3440	3440	3406	3406	3406	3406	3406	3406	3406	3406	0	0	0	0	0	0	0	0	0	0	0	0	0	0	0	0	0	0	0	0	0	0	0	0	0	0	0	0	0	0	0	0	0	0	0
0	772	772	773	773	773	779	780	782	780	784	784	784	786	786	786	788	788	795	797	798	798	798	797	797	795	793	793	0	0	0	0	0	0	1368	1368	1363	1363	1368	1368	1368	1368	1368	1368	1374	1368	1368	1379	1379	1379	1603	1603	1603	1603	1603	1603	1603	1603	1596	1596	1596	1603	1596	1596	1603	1603	1603	1603	1603	1603	1603	1596	1596	1596	1596	1596	1603	1603	1603	1603	1603	1603	1603	1603	1596	1596	1596	1596	1596	1596	1596	1596	1596	1603	1611	1618	1626	1618	1618	1626	1618	1618	1618	1804	1804	1814	1814	1814	1804	1804	1814	1814	1814	1814	1804	1814	1814	1824	1824	1814	1824	1833	1843	1833	1833	1843	1853	1853	1853	0	0	2690	2711	2711	2711	2711	2711	2711	2711	2711	2711	2711	2711	2711	2690	2690	2711	2711	2711	2711	2711	2711	2711	2711	2711	2711	2690	2690	2711	2711	2711	2711	2690	2711	2711	2711	2711	2711	2711	2733	2733	2711	2711	2711	2711	2711	2711	2711	2711	2711	2711	2711	2711	2690	2690	2690	2669	2669	2669	2669	2669	2669	2669	2669	2669	2669	2669	2669	2669	2669	2669	2669	2669	2669	2669	2669	2669	2669	2669	2669	2669	2669	0	3659	3698	3659	3659	3659	3621	3621	3621	3621	3583	3621	3583	3583	3583	3583	3583	3621	3621	3621	3659	3659	3659	3659	3659	3698	3698	3659	3659	3659	3659	3698	3659	3698	3698	3698	3698	3698	3738	3738	3738	3738	3738	3779	3779	3779	3779	3821	3864	3864	3864	3821	3864	3821	3864	3864	3864	3864	3864	3864	3864	3864	3864	3864	3864	3864	3821	3821	3779	3779	3779	3779	3821	3821	3821	3821	3779	3821	3821	3779	3779	3779	3779	3779	3779	3779	3779	3738	3779	3779	3779	3779	3738	3779	3779	3738	3738	3738	3738	3738	3738	3738	3779	3779	3779	3779	3779	3779	3779	3779	3779	3779	3779	3779	3779	3779	3779	3779	3738	3738	3738	3738	3738	3738	3738	3738	3738	3738	3738	3738	3738	3738	3738	3738	3738	3738	3738	3738	3738	3738	3738	3738	3738	3738	3698	3698	3698	3698	3698	3698	3698	3738	3738	3738	3738	3738	3738	3738	3698	3698	3698	3698	2993	2993	2993	2993	2993	2993	2993	2967	2967	2967	2967	2967	2967	2967	2967	2967	2993	2993	2993	2993	2967	2967	3659	3659	3659	3659	3659	3659	3659	3659	3659	3659	3659	3659	3659	3659	3659	3659	3659	3659	3659	3659	3659	3659	3659	3659	3659	3659	3659	3659	3621	3621	3621	3659	3621	3621	3621	3621	3621	3621	3621	3621	3621	3621	3621	3621	3621	3621	3621	3621	3621	3621	3621	3583	3583	3621	3621	3621	3621	3621	3621	3621	3621	3621	3621	3621	3621	3621	3621	3583	3621	3621	3621	3583	3659	3621	3659	3621	3621	3621	3621	3621	3621	3621	3621	3621	3621	3621	3621	3621	3621	3621	3621	3621	3621	3621	3621	3621	3583	3583	3583	3583	3583	3583	3621	3583	3621	3621	3621	3621	3621	3621	3621	3621	3583	3583	3546	3546	3546	3583	3583	3583	3583	3583	3546	3546	3583	3546	3546	3546	3546	3546	3546	3546	3546	3546	3546	3546	3546	3546	3546	3510	3546	3546	3546	3546	3546	3546	3546	3546	3546	3510	3546	3546	3546	3546	3546	3546	3546	3510	3510	3510	3510	3510	3510	3510	3510	3510	3510	3510	3475	3440	3440	3440	3440	3440	3440	3475	3475	3510	3475	3475	3475	3475	3475	3475	3440	3440	3440	3440	3440	3440	3440	3440	3440	3440	3440	3440	3440	3440	3440	3440	3406	3406	3406	3406	3406	3406	3406	3406	3406	0	0	0	0	0	0	0	0	0	0	0	0	0	0	0	0	0	0	0	0	0	0	0	0	0	0	0	0	0	0	0	0	0	0	0
