0	704	704	705	705	704	703	704	704	704	704	705	705	704	704	704	704	704	704	705	707	707	707	708	707	707	708	710	710	711	711	713	717	717	719	719	719	720	719	719	722	722	723	723	723	725	725	723	723	723	725	725	725	725	725	725	725	725	725	725	725	726	726	726	726	725	725	725	725	726	726	729	729	731	729	729	729	731	728	729	731	732	732	732	736	737	739	739	740	742	742	740	740	740	0	0	0	0	0	0	0	0	0	0	0	2478	2478	2443	2460	2478	2478	2496	2496	2496	2514	2514	2514	2532	2551	2551	2570	2570	2570	2570	2589	2589	2609	2609	2649	2649	2649	2669	2669	2669	2669	2649	2649	2649	2649	2649	2649	2649	2649	2649	2649	2649	2649	2649	2649	2629	2649	2649	2629	2629	2629	2629	2629	2629	2629	2649	2649	2649	2629	2649	2649	2649	2649	2629	2629	2629	2649	2649	2649	2649	2649	2629	2629	2629	2609	2609	2609	2609	2609	2609	2609	2589	2589	2589	2589	2589	2589	2589	2609	2589	2589	2589	2589	2589	2589	2589	2589	2589	2589	2589	2589	2589	2589	2609	2609	2649	2669	2733	2754	2754	2777	2777	2777	2799	2822	2822	2845	2845	2893	2917	2917	2942	2993	2993	3019	3019	3019	3019	2993	2993	3621	3659	3621	3621	3621	3621	3621	3659	3659	3659	3698	3698	3698	3659	3659	3659	3621	3659	3659	3659	3659	3659	3659	3659	3659	3698	3698	3698	3698	3698	3698	3738	3698	3698	3698	3698	3698	3698	3698	3698	3698	3738	3738	3698	3698	3698	3698	3698	3698	3698	3698	3698	3698	3698	3698	3698	3698	3698	3698	3698	3698	3698	3698	3698	3698	3698	3698	3698	3698	3698	3659	3659	3698	3698	3698	3698	3698	3698	3698	3659	3659	3659	3698	3698	3698	3698	3698	3698	3659	3659	3659	3659	3659	3621	3659	3659	3659	3659	3659	3659	3659	3659	3621	3621	3621	3621	3621	3621	3621	3621	3621	3621	3583	3583	3583	2799	2799	2799	2799	2822	2799	2799	2799	2799	2799	2799	2799	2777	2799	2777	2777	2777	2777	2777	2711	2733	2711	2711	2711	2711	2690	2690	2690	2669	2649	2649	2649	2649	2629	2629	2629	2649	2649	2649	2649	2649	2649	2649	2649	2649	2629	2629	2629	2629	2629	2629	2629	2629	2629	2629	2629	2629	2629	2629	2629	2629	2629	2629	2629	2629	2629	2629	2629	2629	2649	2649	2649	2649	2649	2649	2649	2649	2649	2649	2649	2649	2669	2669	2669	2690	2711	2711	2711	2711	2711	2690	2690	2669	2669	2669	2669	2669	2690	2690	3510	3510	3510	3510	3510	3475	3475	3510	3475	3475	3510	3510	3510	3510	3510	3510	3510	3510	3510	3510	3510	3510	3510	3510	3510	3510	3510	3510	3510	3510	3475	3475	3475	3475	3475	3510	3510	3510	3510	3510	3475	3510	3475	3440	3440	3406	3406	3406	3406	3406	3440	3406	3440	3440	3475	3440	3440	3475	3440	3440	3440	3440	3440	3440	3406	3406	3406	3440	3440	3440	3406	3406	3440	3406	3406	3406	3406	3406	3406	3406	3406	3440	3475	3475	3475	3475	3475	3510	3475	3475	3475	3475	3475	3475	3475	3475	3475	3440	3440	3440	3406	3440	3440	3406	3440	3440	3440	3475	3440	3440	3440	3440	3406	3406	3406	3406	3406	3406	3373	3373	3406	3406	3406	3406	3406	3406	1947	1947	1925	1936	1925	1915	1915	1904	1894	1894	1873	1873	1873	1863	1863	1853	1843	1843	1833	1833	1824	1814	1795	1795	1786	1786	1786	1786	0	0	0	0	0	0	0	0	0	0	0	0	0	0	0	0	0	0	0	0	0	0	0	0	0	0	0	0	0	0	0	0	0	0	0	0	0	0
0	705	705	705	705	704	704	704	704	704	704	705	705	704	704	704	704	705	704	705	705	704	704	705	707	705	707	708	710	711	713	713	716	716	719	717	719	719	719	719	719	720	722	723	723	725	725	725	725	725	725	725	726	726	726	726	726	725	725	725	725	726	726	726	726	725	725	726	726	726	726	731	729	731	731	729	731	731	731	732	731	732	734	734	736	737	739	739	739	740	740	740	740	0	0	0	0	0	0	0	0	0	0	0	2478	2460	2460	2443	2443	2460	2478	2478	2496	2496	2532	2514	2514	2532	2532	2551	2551	2570	2570	2589	2609	2609	2629	2629	2649	2649	2649	2649	2669	2669	2649	2649	2649	2649	2649	2649	2649	2649	2649	2649	2649	2649	2649	2649	2649	2649	2649	2649	2649	2629	2629	2629	2629	2649	2629	2649	2649	2649	2629	2649	2649	2649	2649	2629	2629	2629	2649	2649	2649	2649	2629	2629	2629	2609	2609	2609	2609	2609	2609	2609	2609	2589	2589	2589	2589	2589	2589	2589	2589	2589	2589	2589	2589	2589	2589	2589	2589	2589	2589	2589	2589	2589	2589	2609	2609	2649	2669	2754	2754	2754	2777	2799	2799	2799	2822	2822	2845	2845	2869	2893	2893	2917	2942	2993	2993	2993	3019	3019	3019	3583	3621	3621	3621	3621	3621	3621	3659	3621	3659	3659	3698	3698	3698	3659	3659	3659	3659	3659	3659	3659	3659	3659	3659	3659	3698	3698	3698	3698	3698	3698	3698	3698	3698	3698	3698	3698	3698	3698	3698	3738	3738	3738	3738	3738	3698	3698	3698	3698	3698	3698	3698	3698	3698	3698	3698	3738	3698	3738	3698	3698	3698	3698	3698	3698	3698	3698	3698	3698	3698	3698	3659	3659	3698	3698	3698	3698	3698	3698	3698	3659	3659	3698	3698	3698	3698	3698	3698	3698	3659	3659	3659	3659	3659	3659	3659	3659	3659	3659	3659	3659	3659	3659	3659	3621	3621	3621	3621	3621	3621	3621	3621	3621	3583	3583	3583	3583	2799	2799	2799	2799	2799	2799	2799	2799	2777	2777	2799	2799	2799	2777	2799	2799	2799	2799	2711	2733	2711	2711	2711	2711	2690	2690	2690	2669	2649	2649	2649	2629	2629	2629	2629	2649	2649	2649	2649	2649	2649	2649	2649	2629	2629	2629	2629	2629	2629	2629	2629	2629	2629	2629	2629	2629	2629	2629	2629	2629	2629	2629	2629	2629	2629	2629	2629	2649	2649	2649	2629	2649	2649	2649	2649	2649	2649	2649	2649	2669	2669	2669	2669	2690	2711	2711	2711	2711	2711	2690	2669	2669	2669	2669	2669	2669	2690	2690	3510	3510	3510	3510	3475	3475	3475	3475	3475	3475	3475	3510	3510	3510	3510	3510	3510	3510	3510	3510	3510	3510	3510	3510	3510	3510	3510	3475	3510	3475	3475	3475	3475	3475	3510	3510	3510	3510	3510	3475	3475	3510	3475	3440	3440	3440	3406	3440	3406	3406	3440	3440	3440	3440	3440	3406	3475	3440	3440	3440	3440	3440	3440	3440	3406	3406	3406	3440	3440	3440	3406	3406	3440	3406	3406	3406	3406	3406	3406	3406	3406	3440	3475	3475	3475	3510	3475	3475	3475	3475	3475	3475	3475	3475	3475	3475	3475	3440	3440	3440	3440	3440	3440	3440	3440	3440	3440	3440	3440	3440	3440	3440	3440	3406	3406	3406	3406	3406	3406	3373	3406	3406	0	0	0	1980	1947	1947	1936	1936	1936	1925	1915	1915	1904	1904	1894	1883	1873	1873	1863	1863	1863	1853	1843	1833	1814	1804	1795	1795	1786	1786	1786	1786	0	0	0	0	0	0	0	0	0	0	0	0	0	0	0	0	0	0	0	0	0	0	0	0	0	0	0	0	0	0	0	0	0	0	0	0	0	0
0	704	705	705	705	705	704	704	704	704	704	704	704	704	704	705	704	705	705	704	704	703	704	704	705	705	707	707	708	708	710	713	716	716	719	717	719	719	719	719	719	719	720	720	723	723	725	725	725	725	725	726	726	726	726	726	726	726	726	726	726	726	726	726	726	725	726	726	726	726	728	729	729	731	731	731	731	731	732	732	732	734	734	734	736	737	739	739	739	739	739	740	0	0	0	0	0	0	0	0	0	0	0	2443	2460	2443	2443	2443	2443	2460	2478	2478	2496	2496	2496	2514	2532	2532	2551	2551	2570	2570	2570	2589	2609	2609	2629	2629	2649	2649	2649	2669	2669	2669	2669	2649	2649	2649	2649	2649	2649	2649	2649	2649	2649	2649	2649	2649	2649	2649	2649	2649	2649	2629	2629	2629	2629	2629	2629	2629	2629	2629	2629	2629	2629	2629	2629	2629	2629	2629	2649	2649	2649	2649	2629	2629	2629	2609	2609	2589	2589	2609	2589	2589	2589	2589	2589	2589	2589	2589	2589	2589	2589	2589	2589	2589	2589	2589	2589	2589	2589	2589	2589	2589	2589	2589	2589	2609	2609	2711	2733	2754	2777	2777	2799	2799	2822	2822	2822	2845	2845	2845	2845	2869	2869	2893	2917	2942	2967	2942	2942	2942	3621	3621	3621	3659	3659	3659	3659	3621	3621	3621	3621	3659	3659	3698	3698	3659	3659	3659	3659	3659	3659	3659	3659	3659	3659	3659	3659	3698	3698	3738	3698	3698	3698	3698	3698	3738	3738	3738	3738	3738	3738	3738	3698	3738	3738	3738	3698	3698	3698	3698	3698	3698	3698	3698	3698	3698	3698	3738	3698	3698	3698	3698	3698	3698	3698	3698	3698	3698	3698	3698	3698	3698	3659	3659	3698	3698	3698	3698	3698	3659	3659	3659	3659	3698	3698	3698	3698	3698	3659	3659	3659	3659	3659	3659	3659	3659	3659	3621	3659	3659	3659	3659	3659	3659	3659	3621	3621	3621	3621	3621	3621	3621	3621	3583	3583	3583	3583	3621	2799	2799	2799	2822	2799	2799	2799	2799	2777	2799	2799	2799	2777	2799	2799	2799	2799	2799	2799	2733	2733	2711	2711	2711	2690	2690	2690	2669	2649	2649	2629	2629	2629	2629	2629	2649	2649	2649	2649	2629	2629	2629	2649	2629	2629	2629	2629	2629	2629	2629	2629	2629	2629	2629	2629	2629	2629	2629	2629	2629	2629	2629	2629	2629	2629	2629	2629	2649	2649	2649	2629	2629	2629	2629	2629	2629	2629	2649	2649	2649	2669	2669	2669	2690	2711	2711	2711	2711	2711	2711	2690	2669	2669	2669	2669	2669	2669	2669	3510	3510	3510	3510	3475	3475	3475	3475	3475	3475	3510	3510	3510	3510	3510	3510	3510	3510	3510	3510	3510	3510	3510	3510	3510	3510	3510	3510	3510	3510	3510	3475	3475	3475	3475	3510	3510	3475	3510	3475	3475	3475	3475	3440	3440	3440	3440	3440	3440	3440	3440	3440	3440	3440	3440	3406	3475	3440	3440	3440	3440	3475	3475	3475	3475	3475	3440	3440	3406	3406	3406	3406	3406	3406	3406	3406	3406	3406	3406	3406	3406	3440	3475	3475	3475	3475	3475	3475	3475	3475	3475	3440	3440	3440	3475	3475	3440	3440	3440	3440	3440	3440	3440	3440	3440	3440	3440	3440	3440	3440	3440	3440	3406	3406	3406	3406	3373	3373	3373	3373	3373	3406	0	2003	1992	1980	1958	1958	1947	1947	1936	1936	1915	1915	1915	1904	1894	1894	1883	1873	1873	1863	1863	1863	1863	1833	1824	1804	1795	1795	1786	1777	1777	1777	0	0	0	0	0	0	0	0	0	0	0	0	0	0	0	0	0	0	0	0	0	0	0	0	0	0	0	0	0	0	0	0	0	0	0	0	0	0
0	707	707	707	705	705	705	705	704	704	704	705	705	705	705	705	704	704	704	704	704	703	703	704	705	705	707	707	708	708	708	713	714	714	717	716	717	717	716	717	719	719	720	720	720	722	725	725	725	725	726	726	726	726	726	726	726	726	726	726	726	728	728	726	728	726	726	728	726	728	729	731	731	731	731	731	732	732	732	734	734	734	734	734	734	737	739	737	737	737	737	0	0	0	0	0	0	0	0	0	0	0	2426	2426	2426	2426	2426	2443	2443	2460	2478	2496	2496	2496	2514	2514	2514	2532	2551	2551	2570	2570	2570	2589	2609	2629	2629	2649	2669	2669	2669	2669	2690	2669	2669	2669	2649	2649	2649	2649	2649	2649	2649	2649	2649	2649	2649	2649	2649	2649	2649	2649	2649	2629	2629	2629	2629	2629	2629	2629	2629	2629	2629	2629	2629	2629	2629	2629	2609	2629	2649	2649	2649	2649	2649	2629	2629	2629	2609	2589	2609	2609	2609	2609	2609	2589	2589	2589	2589	2589	2589	2589	2589	2589	2589	2589	2570	2589	2570	2589	2589	2589	2589	2589	2570	2570	2589	2589	2609	2609	2754	2777	2777	2799	2822	2822	2822	2845	2845	2845	2845	2845	2869	2869	2869	2869	2893	2917	2942	2917	2917	2917	3621	3621	3659	3659	3659	3659	3659	3659	3621	3621	3621	3621	3659	3659	3659	3659	3698	3698	3659	3659	3659	3659	3659	3659	3659	3659	3659	3698	3698	3738	3738	3698	3698	3738	3698	3698	3698	3738	3738	3738	3738	3738	3698	3738	3738	3698	3698	3698	3698	3698	3698	3698	3698	3698	3698	3698	3738	3738	3698	3738	3698	3698	3698	3698	3698	3698	3698	3698	3698	3698	3698	3698	3698	3659	3659	3659	3659	3698	3659	3659	3659	3659	3659	3698	3698	3698	3698	3659	3659	3659	3659	3659	3621	3659	3659	3659	3621	3621	3659	3659	3659	3659	3659	3659	3659	3621	3621	3621	3621	3621	3621	3621	3621	3621	3621	3583	3621	3621	2799	2799	2799	2799	2799	2799	2799	2799	2799	2799	2799	2799	2799	2777	2777	2777	2777	2711	2711	2733	2711	2711	2711	2711	2690	2690	2690	2669	2649	2649	2629	2629	2629	2629	2629	2649	2649	2649	2629	2629	2629	2629	2629	2629	2629	2629	2629	2629	2629	2629	2629	2609	2609	2629	2629	2629	2629	2629	2629	2629	2629	2629	2629	2629	2629	2629	2629	2649	2649	2629	2629	2629	2629	2629	2629	2649	2629	2649	2649	2649	2669	2669	2669	2690	2711	2711	2711	2711	2711	2711	2690	2669	2669	2669	2669	2669	2669	2669	3475	3475	3510	3510	3475	3475	3475	3475	3475	3475	3510	3510	3510	3510	3510	3510	3510	3510	3510	3510	3510	3510	3510	3510	3510	3510	3510	3510	3475	3475	3475	3440	3475	3475	3475	3475	3475	3475	3510	3475	3475	3475	3475	3440	3475	3440	3440	3440	3440	3440	3475	3440	3440	3440	3440	3406	3440	3440	3440	3440	3440	3440	3475	3475	3475	3475	3440	3406	3440	3406	3406	3406	3406	3406	3406	3406	3406	3406	3406	3406	3440	3440	3475	3510	3475	3475	3475	3475	3440	3440	3440	3406	3440	3440	3440	3440	3440	3440	3440	3440	3440	3440	3440	3440	3440	3440	3440	3440	3440	3440	3440	3440	3406	3406	3406	3406	3373	3373	3373	3373	3373	0	0	1992	1992	1980	1969	1958	1958	1947	1947	1947	1915	1904	1904	1894	1883	1883	1883	1873	1873	1863	1873	1863	1863	1833	1824	1804	1795	1795	1786	1777	1777	1777	0	0	0	0	0	0	0	0	0	0	0	0	0	0	0	0	0	0	0	0	0	0	0	0	0	0	0	0	0	0	0	0	0	0	0	0	0	0
0	707	707	707	707	707	705	705	704	705	704	705	705	705	705	705	704	704	704	704	704	703	703	704	705	705	707	707	707	708	710	713	714	714	717	716	716	716	716	716	719	717	720	720	720	722	725	725	725	726	726	726	726	726	726	726	726	726	726	726	728	728	728	728	728	728	728	728	728	731	731	731	731	731	731	732	732	732	732	734	734	732	734	734	734	736	736	737	737	737	737	0	0	0	0	0	0	0	0	0	0	0	2426	2426	2443	2426	2443	2443	2443	2460	2478	2496	2496	2496	2496	2514	2514	2532	2532	2551	2551	2570	2570	2589	2609	2629	2649	2649	2669	2669	2669	2669	2669	2669	2669	2669	2649	2649	2649	2649	2649	2649	2649	2649	2649	2649	2649	2649	2649	2649	2649	2649	2649	2629	2629	2629	2629	2629	2629	2629	2629	2629	2629	2629	2629	2629	2629	2629	2609	2609	2609	2629	2629	2629	2629	2629	2629	2629	2609	2629	2609	2609	2609	2589	2589	2589	2589	2589	2589	2589	2589	2589	2589	2589	2589	2589	2589	2589	2589	2589	2589	2589	2589	2589	2570	2570	2589	2589	2589	2589	2777	2777	2799	2822	2822	2845	2845	2845	2845	2845	2845	2845	2845	2869	2845	2845	2869	2917	2917	2917	2917	3621	3621	3621	3659	3659	3621	3621	3659	3621	3621	3621	3621	3621	3659	3659	3659	3698	3698	3698	3698	3698	3659	3659	3659	3659	3659	3698	3659	3698	3698	3738	3738	3698	3698	3738	3738	3738	3738	3738	3738	3738	3698	3698	3698	3738	3738	3698	3698	3698	3698	3698	3698	3698	3698	3698	3698	3698	3698	3738	3698	3698	3698	3698	3698	3698	3698	3698	3698	3698	3698	3698	3698	3698	3698	3659	3659	3659	3659	3698	3698	3659	3698	3698	3659	3698	3698	3659	3659	3659	3659	3659	3659	3621	3621	3621	3659	3621	3621	3621	3621	3659	3659	3659	3659	3659	3659	3659	3621	3621	3621	3621	3621	3621	3621	3621	3621	3621	3621	3621	2799	2799	2799	2799	2799	2799	2799	2799	2799	2799	2799	2799	2799	2799	2799	2822	2822	2711	2711	2733	2711	2711	2711	2690	2690	2690	2690	2669	2649	2629	2629	2629	2629	2629	2629	2649	2649	2649	2649	2649	2629	2629	2629	2629	2629	2629	2629	2629	2629	2629	2629	2609	2629	2629	2629	2629	2629	2629	2629	2629	2629	2629	2629	2629	2629	2649	2629	2629	2649	2649	2629	2649	2649	2629	2629	2649	2649	2649	2649	2649	2669	2669	2669	2690	2690	2690	2711	2690	2690	2690	2669	2669	2649	2649	2649	2649	2649	2649	3475	3510	3510	3510	3475	3475	3475	3475	3475	3475	3510	3510	3510	3510	3510	3510	3510	3510	3510	3510	3510	3510	3510	3510	3510	3510	3510	3510	3475	3510	3475	3475	3475	3475	3475	3475	3475	3475	3510	3475	3475	3475	3475	3440	3475	3475	3475	3475	3475	3475	3440	3475	3440	3440	3406	3406	3475	3475	3440	3440	3440	3440	3475	3475	3440	3440	3440	3406	3406	3406	3406	3406	3406	3406	3406	3440	3440	3440	3440	3406	3475	3475	3510	3510	3510	3440	3440	3440	3440	3440	3440	3440	3440	3440	3440	3440	3440	3440	3440	3440	3440	3440	3440	3440	3440	3440	3440	3440	3440	3440	3440	3440	3440	3406	3406	3406	3373	3373	3373	3373	0	0	0	1992	1992	1980	1980	1969	1958	1958	1947	1947	1936	1915	1915	1904	1894	1894	1883	1883	1873	1873	1873	1873	1863	1833	1824	1795	1795	1786	1786	1777	1777	1777	0	0	0	0	0	0	0	0	0	0	0	0	0	0	0	0	0	0	0	0	0	0	0	0	0	0	0	0	0	0	0	0	0	0	0	0	0	0
0	707	707	707	707	707	705	705	705	705	704	704	704	705	705	705	704	704	704	704	703	703	703	703	704	705	705	707	707	707	708	710	713	713	714	714	714	714	714	714	717	717	719	720	720	722	722	725	725	726	725	726	726	726	726	726	726	726	726	726	728	728	728	728	728	728	729	729	731	731	731	731	731	732	732	732	732	732	732	732	732	732	734	736	736	737	739	739	739	739	0	0	0	0	0	0	0	0	0	0	0	0	2426	2426	2426	2426	2443	2443	2443	2460	2478	2478	2496	2496	2496	2514	2514	2514	2532	2551	2551	2570	2570	2609	2609	2629	2649	2649	2669	2669	2649	2669	2669	2669	2669	2669	2649	2649	2649	2649	2649	2649	2649	2649	2649	2649	2649	2649	2649	2649	2649	2649	2649	2629	2629	2629	2629	2629	2629	2629	2629	2629	2629	2629	2629	2629	2629	2629	2609	2609	2629	2629	2629	2629	2629	2629	2609	2609	2609	2609	2609	2609	2609	2589	2589	2589	2589	2589	2589	2589	2589	2589	2589	2589	2589	2589	2589	2589	2589	2589	2589	2589	2589	2589	2589	2570	2589	2589	2589	2589	2589	2845	2845	2845	2869	2869	2869	2869	2845	2845	2869	2845	2869	2869	2845	2845	2869	2845	2893	2869	2869	2869	3583	3621	3621	3621	3621	3621	3621	3621	3621	3583	3621	3659	3659	3659	3659	3698	3698	3698	3659	3659	3659	3659	3659	3659	3659	3659	3659	3698	3698	3698	3738	3698	3698	3738	3738	3698	3698	3698	3698	3698	3698	3698	3698	3738	3738	3738	3698	3698	3698	3698	3698	3698	3698	3698	3698	3698	3698	3698	3698	3698	3698	3698	3698	3698	3698	3698	3698	3698	3698	3698	3659	3698	3698	3659	3659	3659	3698	3698	3698	3698	3698	3698	3659	3698	3698	3659	3659	3659	3659	3659	3621	3621	3621	3659	3659	3621	3621	3621	3621	3659	3659	3659	3659	3659	3659	3659	3621	3621	3621	3621	3621	3621	3621	3621	3621	3621	3621	2799	2799	2799	2799	2799	2799	2799	2799	2799	2799	2799	2799	2799	2799	2799	2822	2822	2822	0	2733	2733	2711	2711	2711	2690	2690	2690	2669	2649	2649	2649	2649	2629	2629	2629	2629	2649	2649	2649	2649	2649	2629	2629	2629	2629	2629	2629	2629	2629	2629	2629	2629	2629	2609	2609	2629	2629	2629	2629	2629	2629	2629	2629	2629	2629	2629	2629	2629	2629	2629	2629	2629	2629	2629	2629	2649	2649	2649	2649	2649	2649	2669	2669	2669	2669	2690	2690	2690	2690	2690	2690	2669	2649	2649	2649	2649	2649	2649	2649	3475	3475	3510	3510	3510	3510	3510	3475	3475	3475	3510	3510	3510	3510	3510	3510	3510	3510	3510	3510	3510	3510	3510	3510	3510	3510	3510	3510	3475	3510	3510	3475	3475	3475	3475	3475	3475	3475	3475	3475	3475	3475	3475	3475	3475	3475	3475	3475	3440	3440	3440	3440	3440	3440	3406	3406	3406	3440	3440	3440	3440	3440	3475	3475	3440	3440	3406	3406	3406	3406	3406	3406	3406	3406	3406	3440	3475	3440	3406	3475	3475	3440	3440	3475	3475	3440	3440	3440	3440	3406	3440	3440	3440	3440	3440	3440	3440	3440	3440	3440	3440	3440	3440	3440	3440	3440	3440	3440	3440	3440	3440	3440	3406	3406	3373	3406	3406	3373	0	0	0	1992	1992	1992	1980	1980	1980	1980	1969	1958	1958	1947	1936	1915	1915	1904	1894	1894	1894	1883	1873	1873	1873	1873	1863	1833	1824	1804	1795	1795	1786	1777	1777	1777	0	0	0	0	0	0	0	0	0	0	0	0	0	0	0	0	0	0	0	0	0	0	0	0	0	0	0	0	0	0	0	0	0	0	0	0	0	0
0	707	707	707	707	707	707	705	705	705	704	704	704	705	705	705	704	705	704	704	703	703	703	703	704	704	705	705	707	707	708	708	710	713	713	713	713	714	713	714	717	717	719	720	720	720	722	725	725	726	726	726	726	726	726	728	728	728	728	726	728	729	729	728	729	729	729	729	731	731	731	731	731	731	732	732	732	732	732	732	732	732	734	736	736	737	739	739	739	739	0	0	0	0	0	0	0	0	0	0	0	0	2426	2426	2426	2426	2443	2443	2443	2460	2460	2478	2478	2496	2496	2514	2514	2532	2532	2551	2570	2570	2570	2589	2609	2629	2649	2649	2669	2669	2649	2649	2669	2669	2669	2649	2649	2649	2649	2649	2649	2649	2649	2629	2649	2649	2649	2649	2649	2649	2649	2649	2649	2629	2629	2629	2629	2609	2609	2609	2629	2629	2609	2629	2609	2629	2609	2609	2609	2609	2609	2629	2629	2629	2629	2609	2609	2609	2609	2609	2609	2589	2609	2589	2589	2589	2589	2589	2589	2589	2589	2589	2570	2589	2589	2589	2589	2589	2589	2589	2589	2589	2589	2589	2570	2570	2570	2570	2589	2589	2589	2845	2869	2869	2893	2893	2893	2869	2869	2869	2869	2869	2869	2869	2845	2845	2845	2869	2869	2845	2845	2845	3546	3621	3621	3621	3621	3659	3659	3621	3621	3621	3621	3659	3659	3659	3659	3659	3698	3659	3659	3659	3659	3659	3659	3659	3659	3659	3659	3698	3698	3698	3698	3698	3698	3738	3698	3698	3698	3698	3698	3698	3698	3698	3698	3738	3738	3738	3698	3698	3698	3698	3698	3698	3698	3698	3698	3698	3698	3698	3698	3698	3698	3698	3698	3698	3698	3698	3698	3698	3698	3698	3659	3698	3698	3659	3659	3659	3659	3659	3659	3659	3659	3698	3659	3698	3698	3659	3659	3659	3659	3621	3621	3621	3621	3659	3659	3659	3621	3621	3621	3659	3659	3659	3659	3659	3621	3621	3621	3621	3621	3621	3621	3621	3621	3621	3621	3621	3621	2799	2799	2799	2799	2799	2799	2799	2799	2799	2799	2799	2799	2799	2799	2799	2799	2822	2822	0	2733	2733	2711	2711	2690	2690	2690	2690	2669	2649	2649	2649	2629	2629	2629	2629	2629	2649	2649	2649	2649	2649	2649	2629	2629	2629	2629	2629	2629	2629	2629	2629	2629	2609	2609	2629	2629	2629	2629	2629	2629	2629	2629	2629	2629	2629	2629	2649	2629	2649	2649	2649	2649	2649	2649	2649	2649	2649	2649	2649	2649	2669	2669	2669	2669	2669	2669	2669	2690	2690	2690	2690	2669	2669	2649	2649	2649	2649	2649	2649	3475	3475	3475	3510	3510	3510	3510	3510	3475	3475	3510	3510	3510	3510	3510	3510	3510	3510	3510	3510	3510	3510	3510	3510	3510	3510	3510	3510	3510	3510	3510	3475	3475	3510	3475	3475	3475	3475	3475	3440	3475	3475	3475	3475	3475	3475	3475	3475	3440	3440	3440	3440	3440	3406	3406	3406	3406	3406	3440	3440	3406	3440	3440	3440	3406	3406	3406	3406	3406	3406	3406	3406	3406	3406	3406	3406	3440	3406	3406	3406	3406	3406	3475	3475	3440	3440	3440	3475	3440	3440	3440	3440	3440	3440	3440	3440	3440	3440	3440	3440	3440	3440	3440	3440	3440	3440	3440	3440	3406	3406	3406	3440	3406	3406	3406	3406	3406	0	0	1992	2003	1992	1992	1992	1992	1980	1980	1980	1969	1958	1947	1947	1925	1915	1915	1904	1894	1894	1894	1883	1873	1873	1873	1863	1863	1833	1814	1804	1795	1795	1786	1786	1777	1777	0	0	0	0	0	0	0	0	0	0	0	0	0	0	0	0	0	0	0	0	0	0	0	0	0	0	0	0	0	0	0	0	0	0	0	0	0	0
0	707	707	707	707	705	705	705	705	705	704	704	704	705	705	705	705	705	705	705	704	703	703	703	704	704	705	705	707	707	707	708	708	710	710	711	713	714	713	714	717	716	717	719	719	720	720	722	723	723	725	726	726	726	726	726	728	728	729	728	729	729	729	729	729	729	729	731	731	731	731	732	732	732	732	732	732	732	732	732	732	732	734	736	736	737	739	739	739	739	0	0	0	0	0	0	0	0	0	0	0	0	2426	2426	2426	2426	2426	2443	2443	2460	2460	2478	2496	2496	2496	2496	2514	2532	2532	2551	2570	2570	2570	2589	2609	2609	2629	2649	2649	2649	2649	2649	2669	2649	2649	2649	2649	2649	2649	2649	2649	2629	2649	2629	2649	2649	2649	2649	2649	2649	2649	2649	2649	2629	2629	2629	2609	2609	2609	2609	2609	2609	2609	2609	2609	2609	2609	2609	2609	2609	2629	2629	2629	2629	2629	2609	2609	2609	2609	2609	2609	2589	2609	2589	2589	2589	2589	2589	2589	2589	2589	2589	2589	2589	2589	2589	2589	2589	2589	2589	2589	2589	2589	2589	2570	2570	2570	2589	2589	2589	2551	2551	2917	2893	2917	2917	2893	2893	2869	2869	2869	2869	2869	2893	2869	2845	2869	2869	2869	2845	2845	3546	3621	3621	3621	3621	3621	3621	3659	3621	3621	3621	3621	3621	3659	3659	3659	3659	3698	3659	3659	3659	3659	3621	3659	3659	3659	3659	3659	3659	3698	3698	3738	3698	3698	3738	3738	3698	3698	3698	3698	3698	3698	3698	3698	3738	3698	3698	3698	3698	3698	3698	3698	3698	3698	3698	3698	3698	3698	3698	3698	3698	3698	3698	3698	3698	3698	3698	3698	3698	3698	3698	3698	3698	3698	3659	3659	3659	3659	3659	3659	3659	3659	3659	3659	3698	3698	3659	3659	3621	3621	3621	3621	3621	3621	3659	3659	3659	3659	3659	3621	3659	3659	3621	3621	3621	3621	3621	3621	3621	3621	3621	3621	3621	3621	3621	3621	3621	3621	2799	2799	2799	2799	2799	2799	2799	2799	2799	2799	2799	2799	2799	2799	2799	2799	2799	0	0	0	2711	2711	2711	2690	2669	2669	2669	2669	2649	2649	2649	2649	2629	2629	2629	2629	2629	2649	2649	2649	2649	2649	2629	2629	2629	2629	2629	2629	2629	2629	2629	2629	2629	2609	2629	2629	2609	2609	2609	2629	2629	2629	2629	2629	2629	2649	2649	2649	2629	2629	2629	2629	2629	2629	2629	2649	2649	2649	2649	2649	2649	2669	2649	2649	2649	2669	2690	2690	2690	2690	2690	2690	2669	2669	2669	2649	2649	2649	2649	3440	3475	3475	3510	3510	3475	3475	3475	3475	3475	3510	3510	3510	3510	3510	3510	3510	3510	3510	3510	3510	3510	3510	3510	3510	3510	3510	3510	3510	3510	3510	3475	3475	3510	3475	3475	3475	3475	3475	3475	3440	3475	3440	3475	3475	3475	3475	3475	3406	3440	3440	3440	3406	3440	3406	3406	3440	3406	3440	3406	3406	3406	3440	3440	3406	3406	3406	3406	3406	3406	3406	3406	3406	3406	3406	3406	3406	3440	3440	3406	3406	3440	3475	3475	3440	3475	3475	3475	3475	3440	3440	3440	3440	3440	3440	3440	3440	3440	3440	3440	3440	3440	3440	3406	3406	3440	3440	3440	3406	3406	3406	3440	3406	3406	3373	3373	3406	0	0	2003	2003	2003	1992	1992	1980	1969	1969	1969	1969	1958	1947	1947	1947	1925	1915	1904	1894	1894	1883	1883	1873	1863	1863	1863	1853	1824	1814	1804	1795	1795	1786	1786	1777	1777	0	0	0	0	0	0	0	0	0	0	0	0	0	0	0	0	0	0	0	0	0	0	0	0	0	0	0	0	0	0	0	0	0	0	0	0	0	0
0	707	707	707	707	705	705	705	704	705	704	704	704	705	705	705	705	704	704	704	703	703	703	703	704	704	704	704	707	707	707	708	708	710	710	711	713	713	713	714	714	716	717	719	719	720	720	720	722	723	723	725	726	726	726	726	728	728	728	729	729	729	729	729	729	729	731	731	731	731	731	732	732	732	732	732	732	732	734	734	734	734	734	736	734	737	739	739	740	740	0	0	0	0	0	0	0	0	0	0	0	0	2443	2426	2426	2426	2426	2443	2443	2460	2478	2478	2496	2496	2496	2496	2514	2514	2514	2532	2570	2570	2589	2609	2629	2629	2629	2649	2649	2649	2649	2649	2649	2649	2649	2649	2649	2649	2649	2649	2649	2629	2649	2629	2629	2629	2629	2629	2649	2649	2649	2649	2629	2629	2629	2629	2609	2609	2609	2609	2629	2629	2609	2609	2609	2609	2609	2609	2609	2609	2629	2629	2629	2629	2629	2609	2609	2609	2609	2609	2609	2589	2609	2589	2589	2589	2589	2589	2589	2589	2589	2589	2589	2589	2589	2589	2589	2589	2609	2589	2589	2589	2589	2589	2589	2570	2570	2570	2570	2551	2551	2551	2942	2917	2917	2917	2917	2917	2917	2893	2917	2917	2917	2917	2893	2893	2893	2869	2869	2869	2845	2845	3583	3621	3621	3621	3621	3621	3621	3659	3621	3621	3621	3659	3659	3659	3659	3659	3698	3659	3659	3659	3659	3621	3659	3621	3659	3659	3659	3659	3698	3698	3698	3698	3698	3698	3698	3698	3698	3698	3698	3698	3698	3698	3698	3698	3698	3698	3698	3698	3698	3698	3698	3698	3698	3698	3698	3698	3698	3698	3698	3698	3698	3698	3698	3698	3698	3698	3698	3698	3698	3698	3698	3698	3659	3659	3659	3659	3659	3659	3659	3659	3659	3659	3659	3659	3698	3659	3621	3621	3621	3621	3621	3621	3621	3659	3659	3659	3659	3659	3621	3621	3621	3621	3621	3621	3621	3621	3621	3621	3621	3621	3621	3621	3621	3621	3621	3621	3621	2799	2799	2799	2799	2799	2799	2799	2799	2799	2799	2799	2799	2799	2799	2799	2799	2799	0	0	0	2711	2711	2711	2690	2669	2669	2669	2669	2649	2649	2649	2629	2649	2629	2629	2629	2649	2649	2649	2649	2649	2649	2649	2649	2629	2629	2629	2629	2629	2629	2629	2629	2629	2629	2609	2629	2609	2609	2609	2629	2629	2629	2629	2629	2649	2649	2649	2629	2629	2629	2629	2629	2629	2629	2629	2649	2649	2649	2629	2629	2629	2649	2649	2649	2669	2669	2690	2690	2690	2690	2669	2669	2669	2649	2669	2649	2649	2649	2669	2669	3475	3475	3510	3510	3475	3475	3475	3475	3440	3475	3475	3510	3510	3510	3510	3510	3510	3510	3510	3510	3510	3510	3510	3510	3510	3510	3510	3475	3510	3510	3475	3475	3475	3475	3475	3475	3475	3475	3475	3440	3475	3475	3475	3475	3510	3475	3475	3440	3440	3440	3440	3406	3406	3406	3406	3440	3406	3406	3440	3406	3406	3440	3406	3406	3406	3406	3406	3406	3406	3406	3406	3406	3406	3406	3406	3406	3406	3406	3406	3406	3373	3475	3475	3440	3475	3475	3475	3475	3440	3440	3440	3440	3440	3440	3440	3440	3440	3440	3440	3440	3440	3440	3406	3406	3406	3440	3440	3406	3406	3406	3440	3406	3406	3406	3373	0	0	2039	2027	2027	2027	2003	2003	1992	1980	1980	1969	1969	1969	1958	1947	1947	1936	1915	1904	1904	1894	1894	1883	1873	1873	1863	1863	1853	1824	1814	1804	1795	1795	1795	1786	1786	1786	0	0	0	0	0	0	0	0	0	0	0	0	0	0	0	0	0	0	0	0	0	0	0	0	0	0	0	0	0	0	0	0	0	0	0	0	0	0
0	705	707	707	707	705	705	705	705	705	704	705	705	705	705	704	704	704	704	704	703	703	703	703	704	704	705	705	707	707	708	708	710	708	710	711	711	713	713	714	714	716	716	717	719	719	719	722	722	723	723	725	725	725	726	726	726	728	728	729	729	729	729	729	729	731	731	731	732	732	732	732	732	732	732	732	732	734	734	734	734	734	734	736	736	736	739	740	739	739	0	0	0	0	0	0	0	0	0	0	0	0	2443	2426	2426	2426	2426	2443	2443	2460	2460	2478	2496	2496	2496	2496	2514	2514	2532	2532	2570	2570	2570	2609	2609	2629	2629	2629	2649	2649	2649	2649	2649	2649	2649	2649	2649	2649	2649	2649	2629	2629	2629	2629	2629	2629	2629	2629	2629	2649	2629	2629	2629	2629	2629	2629	2609	2609	2609	2629	2629	2629	2609	2609	2629	2629	2609	2629	2609	2609	2629	2609	2629	2609	2609	2609	2589	2589	2609	2609	2589	2589	2609	2589	2589	2589	2589	2589	2589	2589	2589	2589	2589	2589	2589	2589	2589	2589	2609	2589	2589	2589	2589	2589	2589	2570	2570	2570	2570	2532	2532	2532	2942	2967	2967	2942	2942	2942	2942	2942	2942	2942	2942	2942	2917	2917	2893	2869	2869	2869	2845	2845	3621	3621	3621	3621	3583	3621	3621	3659	3621	3621	3659	3659	3698	3698	3698	3698	3659	3659	3659	3659	3659	3621	3659	3621	3659	3659	3659	3659	3698	3698	3698	3698	3698	3738	3698	3698	3698	3698	3698	3698	3698	3698	3698	3698	3698	3698	3698	3698	3698	3698	3698	3698	3698	3698	3698	3698	3698	3698	3698	3698	3698	3698	3698	3698	3698	3698	3698	3698	3698	3698	3698	3659	3659	3659	3621	3659	3659	3659	3659	3659	3659	3659	3659	3659	3659	3621	3621	3621	3621	3621	3621	3621	3621	3659	3659	3621	3621	3659	3621	3621	3621	3621	3621	3621	3621	3621	3621	3621	3621	3621	3621	3621	3621	3621	3583	3583	3621	2799	2799	2799	2799	2799	2799	2799	2799	2799	2799	2799	2799	2799	2799	2799	0	0	0	0	2711	2711	2690	2690	2690	2669	2669	2649	2649	2649	2649	2649	2649	2649	2629	2629	2629	2649	2649	2649	2649	2649	2649	2649	2649	2649	2629	2629	2629	2629	2629	2629	2629	2629	2629	2629	2609	2609	2609	2609	2629	2629	2629	2629	2629	2629	2649	2629	2629	2629	2629	2629	2629	2629	2629	2629	2629	2629	2629	2629	2629	2649	2649	2649	2649	2669	2669	2690	2690	2690	2690	2690	2669	2669	2649	2669	2649	2649	2649	2690	2690	3475	3510	3510	3510	3475	3475	3475	3475	3440	3475	3475	3475	3510	3510	3510	3510	3510	3510	3510	3510	3510	3510	3510	3510	3510	3510	3510	3510	3510	3510	3475	3475	3475	3475	3475	3475	3475	3475	3475	3440	3475	3475	3475	3475	3475	3475	3475	3440	3440	3440	3406	3406	3406	3406	3406	3440	3406	3406	3406	3406	3406	3440	3406	3406	3406	3406	3406	3440	3406	3406	3406	3406	3406	3406	3406	3406	3406	3406	3406	3373	3373	3440	3440	3440	3440	3475	3475	3440	3440	3440	3440	3440	3440	3440	3440	3440	3440	3406	3406	3406	3406	3406	3406	3406	3406	3440	3406	3406	3406	3406	3406	3406	3406	3406	0	2088	2076	2051	2051	2051	2027	2015	2003	1992	1992	1992	1992	1980	1969	1969	1958	1947	1947	1915	1904	1904	1894	1894	1883	1883	1873	1863	1863	1853	1833	1824	1804	1795	1795	1795	1786	1795	1795	0	0	0	0	0	0	0	0	0	0	0	0	0	0	0	0	0	0	0	0	0	0	0	0	0	0	0	0	0	0	0	0	0	0	0	0	0	0
0	705	705	707	707	705	705	705	705	705	704	705	704	704	704	704	704	704	703	703	703	703	703	703	704	705	705	705	707	707	707	708	708	708	708	710	711	713	713	714	714	714	716	716	717	717	719	720	720	720	723	725	726	726	726	726	726	728	728	729	729	729	729	729	731	731	731	731	731	731	732	732	732	732	732	734	732	734	734	734	734	734	734	736	736	737	739	740	740	739	0	0	0	0	0	0	0	0	0	0	0	2443	2443	2443	2426	2426	2426	2443	2443	2460	2478	2478	2496	2496	2496	2514	2514	2532	2532	2532	2570	2570	2570	2589	2609	2629	2629	2629	2649	2649	2649	2649	2649	2649	2649	2649	2649	2649	2649	2629	2629	2629	2629	2609	2609	2609	2629	2629	2629	2629	2629	2629	2629	2629	2629	2629	2629	2609	2609	2629	2629	2629	2629	2629	2629	2629	2629	2629	2629	2609	2629	2609	2629	2609	2609	2609	2589	2589	2609	2609	2589	2589	2609	2589	2589	2589	2589	2589	2589	2589	2589	2589	2589	2609	2589	2609	2609	2589	2609	2589	2589	2589	2589	2589	2589	2570	2589	2589	2589	2589	2589	3019	2993	2993	2967	2967	2967	2967	2942	2967	2967	2942	2942	2942	2917	2917	2893	2869	2869	2869	2845	2845	2845	3621	3621	3621	3583	3621	3621	3659	3621	3621	3659	3659	3698	3698	3698	3698	3698	3659	3659	3659	3659	3659	3659	3621	3659	3659	3659	3698	3698	3698	3698	3698	3698	3698	3698	3698	3698	3698	3698	3698	3698	3698	3698	3698	3698	3698	3698	3698	3698	3698	3698	3698	3698	3698	3698	3659	3698	3698	3698	3698	3698	3698	3698	3698	3698	3698	3698	3698	3659	3659	3659	3659	3659	3659	3621	3659	3659	3659	3659	3659	3659	3659	3659	3659	3659	3621	3621	3621	3621	3621	3621	3621	3621	3621	3659	3621	3621	3621	3621	3621	3621	3621	3621	3621	3621	3621	3621	3621	3621	3621	3621	3621	3621	3621	3621	3621	3621	2822	2799	2799	2799	2799	2799	2777	2777	2777	2777	2777	2777	2799	2799	0	0	0	0	0	2690	2711	2690	2690	2669	2669	2649	2649	2629	2649	2649	2649	2629	2629	2629	2629	2629	2649	2649	2649	2649	2649	2649	2649	2649	2649	2649	2629	2629	2629	2629	2609	2629	2629	2629	2609	2609	2609	2609	2629	2629	2629	2629	2629	2629	2649	2649	2649	2649	2649	2629	2629	2629	2629	2629	2629	2629	2629	2629	2629	2629	2629	2649	2649	2649	2669	2669	2669	2690	2690	2690	2690	2669	2669	2669	2669	2649	2649	2629	2629	2629	3440	3510	3475	3475	3475	3475	3475	3475	3475	3510	3510	3510	3510	3510	3510	3510	3510	3510	3510	3510	3510	3510	3510	3510	3510	3510	3510	3510	3510	3510	3510	3475	3475	3475	3475	3475	3475	3475	3475	3440	3475	3475	3475	3475	3475	3475	3475	3440	3440	3440	3406	3406	3406	3406	3406	3440	3406	3406	3406	3406	3406	3440	3406	3406	3406	3406	3440	3440	3440	3406	3406	3440	3440	3406	3406	3406	3406	3406	3406	3406	3406	3440	3440	3440	3440	3440	3475	3440	3440	3440	3440	3440	3440	3440	3440	3440	3440	3440	3406	3406	3406	3440	3406	3406	3406	3406	3406	3406	3373	3373	3406	3406	0	0	2076	2076	2063	2051	2039	2051	2039	2027	2003	2003	1992	1992	1992	1980	1980	1969	1958	1958	1947	1915	1915	1904	1894	1894	1894	1883	1873	1863	1863	1853	1833	1824	1814	1804	1804	1795	1795	1795	1795	0	0	0	0	0	0	0	0	0	0	0	0	0	0	0	0	0	0	0	0	0	0	0	0	0	0	0	0	0	0	0	0	0	0	0	0	0	0
0	705	705	707	705	705	705	705	705	705	704	704	704	704	704	704	704	703	703	703	703	703	703	703	704	705	705	705	705	705	707	707	707	707	707	708	710	710	711	711	713	713	713	714	716	717	717	719	720	722	723	725	726	726	726	726	726	728	728	729	729	729	729	731	731	731	731	732	731	732	732	732	732	734	732	734	734	734	734	736	736	736	734	736	734	739	740	740	740	0	0	0	0	0	0	0	0	0	0	0	0	2443	2443	2443	2426	2426	2426	2443	2443	2460	2478	2478	2496	2496	2496	2514	2514	2514	2532	2532	2551	2570	2570	2589	2609	2629	2629	2629	2629	2629	2649	2649	2649	2649	2649	2649	2629	2629	2629	2629	2629	2609	2609	2609	2609	2609	2629	2629	2629	2629	2629	2629	2629	2629	2629	2629	2629	2629	2629	2629	2629	2629	2609	2609	2629	2609	2609	2629	2609	2609	2629	2609	2629	2629	2609	2609	2589	2589	2589	2589	2589	2589	2589	2589	2589	2589	2589	2589	2609	2589	2589	2589	2589	2609	2609	2589	2589	2609	2609	2589	2589	2589	2589	2589	2589	2570	2589	2589	2589	2589	2589	3019	3019	2993	2993	2993	3019	2993	2967	2993	2967	2967	2942	2942	2917	2917	2893	2893	2869	2869	2845	2869	2869	3621	3621	3621	3621	3621	3621	3621	3621	3621	3659	3659	3698	3698	3698	3698	3698	3659	3659	3659	3659	3659	3659	3659	3659	3659	3659	3659	3659	3698	3698	3698	3698	3698	3698	3698	3698	3738	3698	3698	3698	3698	3698	3698	3698	3698	3698	3698	3738	3738	3698	3698	3698	3698	3698	3698	3659	3698	3698	3698	3698	3698	3698	3698	3698	3698	3698	3659	3659	3659	3659	3659	3659	3621	3621	3659	3659	3621	3659	3659	3659	3621	3621	3621	3659	3659	3621	3621	3621	3621	3621	3621	3621	3621	3621	3621	3621	3621	3621	3621	3621	3621	3621	3621	3583	3621	3621	3621	3621	3621	3621	3621	3621	3621	3621	3621	3621	2822	2799	2799	2799	2799	2799	2777	2777	2777	2777	2777	2754	2777	2777	2777	0	0	0	0	2711	2690	2690	2690	2669	2669	2649	2649	2649	2649	2649	2629	2629	2629	2629	2629	2629	2649	2649	2649	2649	2649	2649	2649	2649	2649	2649	2649	2629	2629	2629	2609	2609	2609	2609	2609	2609	2609	2609	2609	2629	2629	2629	2629	2629	2629	2629	2629	2629	2629	2629	2629	2629	2629	2629	2629	2629	2629	2629	2629	2629	2629	2629	2649	2649	2649	2649	2669	2669	2669	2690	2690	2690	2690	2649	2669	2649	2649	2629	2629	2629	3440	3510	3475	3475	3475	3475	3475	3475	3475	3510	3510	3510	3510	3510	3510	3510	3510	3510	3510	3510	3510	3510	3510	3510	3510	3510	3510	3510	3475	3475	3510	3475	3475	3475	3475	3475	3475	3475	3475	3440	3475	3440	3475	3475	3475	3440	3475	3440	3440	3440	3406	3406	3406	3406	3406	3440	3406	3406	3406	3406	3406	3440	3440	3406	3406	3406	3440	3440	3406	3406	3406	3440	3440	3440	3406	3406	3406	3406	3406	3406	3406	3440	3440	3440	3440	3440	3475	3440	3440	3440	3440	3440	3440	3440	3440	3440	3440	3440	3440	3406	3440	3440	3406	3406	3406	3406	3406	3406	3406	3373	0	0	0	2088	2088	2088	2076	2063	2063	2051	2039	2039	2015	2003	2003	2003	1992	1992	1980	1980	1958	1958	1947	1915	1915	1904	1904	1894	1894	1883	1873	1863	1853	1853	1833	1824	1814	1804	1804	1795	1795	1795	1795	0	0	0	0	0	0	0	0	0	0	0	0	0	0	0	0	0	0	0	0	0	0	0	0	0	0	0	0	0	0	0	0	0	0	0	0	0	0
0	705	705	705	705	705	705	705	705	705	704	704	704	703	703	704	703	703	703	703	703	703	703	701	703	703	704	704	705	705	707	707	707	707	707	707	707	710	710	711	713	713	713	714	714	716	717	719	719	720	722	725	726	726	726	726	726	728	729	729	729	729	729	731	731	731	731	732	731	732	732	732	732	732	734	734	734	734	734	736	736	736	736	736	736	739	740	740	740	0	0	0	0	0	0	0	0	0	0	0	0	2443	2443	2443	2426	2426	2426	2443	2460	2478	2478	2496	2496	2496	2496	2514	2514	2532	2532	2551	2570	2570	2570	2589	2609	2609	2609	2629	2649	2649	2649	2649	2649	2649	2649	2649	2629	2629	2629	2629	2629	2609	2609	2609	2609	2609	2609	2609	2629	2629	2629	2629	2629	2629	2629	2629	2629	2629	2609	2629	2629	2609	2609	2609	2609	2609	2609	2629	2629	2609	2629	2629	2629	2609	2609	2609	2609	2589	2589	2589	2589	2589	2589	2589	2589	2589	2589	2589	2609	2589	2589	2589	2589	2589	2589	2589	2609	2589	2589	2589	2589	2589	2589	2589	2589	2589	2589	2589	2589	2570	2570	2570	3019	3019	3019	3019	3019	3019	2993	3019	3019	2993	2967	2942	2942	2917	2917	2893	2893	2869	2869	2869	2869	3621	3621	3621	3621	3621	3621	3621	3621	3659	3659	3659	3698	3698	3698	3698	3621	3659	3659	3659	3659	3659	3659	3659	3659	3659	3659	3659	3698	3698	3698	3698	3698	3698	3698	3698	3698	3738	3698	3738	3698	3698	3698	3698	3698	3698	3698	3698	3738	3738	3698	3698	3698	3698	3698	3698	3698	3698	3698	3698	3698	3698	3698	3698	3698	3698	3659	3659	3659	3659	3659	3659	3621	3621	3621	3659	3621	3621	3621	3621	3621	3621	3621	3659	3659	3659	3621	3621	3621	3621	3621	3621	3621	3621	3621	3621	3621	3621	3621	3621	3621	3621	3621	3621	3583	3583	3621	3621	3621	3621	3621	3621	3621	3621	3583	3583	3583	2822	2799	2799	2799	2777	2777	2777	2777	2777	2777	2777	2754	2754	2754	2777	0	0	0	0	2711	2690	2690	2690	2690	2669	2669	2649	2649	2649	2649	2629	2629	2629	2629	2629	2629	2649	2649	2649	2649	2649	2649	2649	2649	2649	2649	2629	2629	2629	2609	2609	2609	2609	2589	2589	2589	2609	2609	2609	2629	2609	2609	2629	2629	2629	2649	2629	2649	2629	2629	2629	2629	2629	2629	2629	2629	2629	2629	2629	2629	2629	2629	2649	2649	2649	2649	2669	2669	2669	2669	2690	2690	2669	2649	2649	2649	2649	2649	2649	2649	3440	3440	3475	3475	3475	3475	3475	3440	3475	3475	3510	3510	3510	3510	3510	3510	3510	3510	3510	3510	3510	3510	3510	3475	3510	3475	3475	3475	3475	3475	3475	3475	3475	3475	3475	3475	3475	3475	3475	3440	3440	3440	3440	3475	3440	3440	3440	3440	3440	3440	3406	3406	3440	3406	3406	3406	3406	3406	3406	3406	3406	3406	3406	3406	3406	3406	3440	3440	3406	3406	3406	3440	3440	3440	3406	3406	3406	3406	3406	3406	3406	3440	3440	3440	3440	3475	3475	3440	3440	3440	3440	3440	3440	3440	3440	3440	3440	3440	3440	3440	3440	3440	3406	3406	3406	3373	3406	3373	3373	2153	2153	2153	2127	2101	2101	2088	2076	2076	2063	2063	2051	2039	2015	2015	2003	2003	1992	1992	1992	1980	1969	1958	1947	1915	1915	1904	1904	1894	1894	1883	1873	1873	1863	1853	1843	1824	1824	1814	1804	1804	1795	1804	1804	0	0	0	0	0	0	0	0	0	0	0	0	0	0	0	0	0	0	0	0	0	0	0	0	0	0	0	0	0	0	0	0	0	0	0	0	0	0
0	705	705	705	705	705	704	704	704	704	703	703	703	703	703	703	703	703	703	701	703	703	701	701	703	701	703	703	704	704	705	707	707	707	707	707	708	710	710	711	713	713	713	713	713	714	714	719	719	720	723	725	726	726	726	726	726	729	728	729	729	731	731	731	731	731	732	732	732	732	732	732	732	732	734	736	736	736	736	737	737	737	736	736	736	739	739	739	740	0	0	0	0	0	0	0	0	1626	1626	0	0	2443	2443	2443	2426	2426	2426	2443	2460	2478	2478	2496	2496	2496	2496	2514	2514	2514	2532	2551	2551	2570	2570	2570	2589	2629	2629	2629	2649	2649	2649	2649	2649	2649	2649	2649	2629	2629	2629	2629	2629	2609	2609	2609	2609	2609	2609	2609	2629	2629	2629	2629	2629	2629	2629	2629	2629	2609	2609	2609	2629	2609	2609	2609	2609	2609	2609	2629	2629	2629	2609	2609	2629	2629	2609	2609	2609	2589	2609	2589	2589	2589	2589	2589	2589	2589	2589	2609	2609	2589	2609	2589	2589	2609	2589	2589	2609	2589	2589	2589	2589	2589	2589	2589	2589	2589	2589	2589	2589	2589	2589	2589	3019	3019	3019	3019	3019	3019	3046	3046	3019	2993	2967	2942	2942	2942	2917	2893	2893	2845	2845	2869	2869	3659	3659	3659	3621	3621	3621	3621	3659	3659	3659	3659	3698	3698	3698	3698	3621	3621	3621	3621	3659	3621	3621	3659	3659	3659	3659	3659	3698	3698	3698	3698	3698	3698	3698	3698	3698	3698	3698	3698	3698	3698	3698	3698	3698	3698	3698	3698	3698	3738	3698	3698	3698	3698	3698	3698	3698	3698	3698	3698	3698	3698	3698	3698	3698	3698	3659	3659	3659	3659	3659	3621	3621	3621	3621	3621	3621	3621	3621	3621	3621	3583	3583	3621	3659	3659	3621	3621	3621	3621	3621	3621	3621	3621	3621	3621	3621	3621	3621	3621	3621	3621	3621	3621	3621	3583	3621	3621	3621	3621	3621	3621	3621	3621	3583	3621	3621	3621	2799	2777	2799	2777	2777	2754	2754	2754	2754	2777	2754	2754	2754	2777	0	0	0	2711	2711	2711	2711	2690	2690	2669	2669	2649	2649	2649	2649	2629	2629	2629	2629	2629	2629	2629	2649	2649	2649	2649	2649	2649	2649	2649	2649	2629	2629	2609	2609	2609	2629	2609	2589	2609	2589	2589	2609	2609	2629	2609	2609	2629	2629	2629	2629	2629	2629	2629	2629	2629	2629	2629	2629	2629	2629	2629	2629	2629	2629	2629	2629	2629	2649	2649	2649	2669	2669	2669	2669	2669	2649	2649	2649	2649	2649	2649	2629	2629	2629	2629	3440	3440	3475	3475	3475	3440	3440	3475	3510	3510	3510	3510	3510	3510	3510	3510	3510	3510	3510	3510	3510	3510	3475	3510	3475	3475	3475	3475	3475	3475	3475	3475	3475	3475	3475	3475	3475	3475	3440	3440	3440	3440	3440	3440	3440	3440	3440	3440	3440	3440	3440	3440	3406	3440	3440	3406	3406	3406	3406	3406	3406	3406	3406	3406	3406	3440	3440	3406	3406	3406	3440	3440	3440	3406	3406	3406	3406	3406	3406	3406	3440	3440	3440	3440	3440	3440	3440	3440	3440	3440	3440	3440	3440	3440	3440	3440	3440	3440	3440	3440	3440	3406	3406	3373	3373	3373	3373	3373	2153	2153	2153	2127	2114	2101	2088	2088	2088	2063	2063	2051	2051	2039	2015	2003	2003	1992	1992	1980	1980	1969	1958	1947	1936	1915	1915	1904	1904	1894	1894	1883	1873	1863	1853	1843	1824	1824	1814	1804	1795	1795	1795	1795	0	0	0	0	0	0	0	0	0	0	0	0	0	0	0	0	0	0	0	0	0	0	0	0	0	0	0	0	0	0	0	0	0	0	0	0	0	0
0	704	705	704	704	704	703	703	703	703	703	703	703	701	701	701	701	701	700	698	700	700	700	700	701	700	701	701	703	703	705	705	707	705	707	707	707	707	708	711	713	713	713	713	713	713	714	714	717	719	720	722	723	725	726	726	726	726	728	728	728	729	731	732	732	731	732	732	732	732	732	732	732	732	734	736	736	736	736	737	737	737	737	736	737	737	737	737	0	0	0	0	0	0	0	0	0	1626	1626	1626	0	2443	2460	2460	2443	2443	2443	2443	2460	2478	2478	2478	2496	2496	2496	2514	2514	2532	2532	2532	2551	2551	2570	2570	2609	2629	2629	2649	2649	2649	2649	2649	2649	2649	2649	2649	2629	2629	2629	2629	2609	2609	2609	2609	2609	2609	2609	2609	2609	2629	2629	2629	2629	2629	2629	2629	2629	2629	2629	2629	2629	2609	2609	2609	2609	2609	2629	2629	2629	2589	2589	2609	2609	2629	2609	2609	2609	2609	2589	2589	2589	2589	2589	2589	2589	2589	2609	2609	2609	2589	2609	2609	2609	2609	2589	2589	2589	2589	2589	2589	2589	2589	2589	2570	2589	2589	2570	2589	2589	2589	2589	3046	3019	3019	3046	3019	3046	3046	3046	3073	3046	3019	2993	2967	2942	2942	2917	2893	2893	2845	2845	2893	2893	3698	3698	3659	3621	3621	3621	3621	3659	3659	3659	3659	3659	3698	3698	3621	3621	3621	3621	3659	3621	3621	3621	3621	3659	3659	3659	3659	3698	3698	3698	3698	3698	3698	3698	3698	3698	3698	3698	3738	3738	3698	3698	3698	3698	3698	3698	3698	3738	3738	3698	3698	3698	3698	3698	3698	3698	3698	3698	3698	3698	3698	3698	3698	3698	3698	3659	3659	3659	3659	3659	3659	3659	3621	3659	3621	3621	3621	3621	3621	3621	3583	3583	3621	3659	3659	3621	3659	3621	3621	3621	3621	3621	3621	3621	3621	3621	3621	3621	3621	3621	3621	3621	3621	3583	3583	3583	3583	3583	3621	3583	3621	3621	3621	3621	3621	3621	2845	2799	2799	2777	2777	2777	2754	2754	2754	2754	2754	2754	2754	2754	0	0	0	0	2711	2711	2711	2711	2690	2690	2669	2669	2649	2649	2649	2649	2649	2629	2629	2629	2629	2629	2629	2629	2649	2649	2649	2649	2649	2649	2649	2629	2629	2629	2609	2609	2609	2609	2589	2589	2589	2609	2609	2629	2629	2629	2609	2629	2629	2629	2629	2629	2629	2629	2629	2629	2629	2609	2609	2629	2609	2609	2609	2609	2629	2629	2629	2629	2629	2649	2649	2649	2669	2669	2669	2669	2669	2669	2669	2669	2649	2649	2649	2649	2649	2649	2629	3440	3440	3440	3440	3440	3440	3440	3475	3510	3510	3510	3510	3510	3510	3510	3510	3510	3510	3510	3510	3475	3475	3475	3475	3475	3475	3475	3475	3475	3475	3475	3475	3475	3475	3475	3475	3475	3475	3440	3440	3440	3406	3440	3406	3406	3406	3406	3406	3406	3440	3440	3440	3440	3406	3406	3406	3406	3406	3406	3406	3406	3406	3406	3406	3406	3440	3440	3406	3406	3406	3440	3440	3440	3406	3406	3406	3406	3406	3406	3406	3440	3440	3440	3440	3440	3440	3440	3440	3440	3440	3440	3440	3440	3440	3440	3440	3440	3440	3440	3440	3440	3406	3406	3373	3373	3373	3373	0	0	0	2140	2114	2101	2101	2101	2088	2088	2063	2063	2051	2051	2039	2027	2015	2003	2003	1992	1992	1980	1969	1958	1958	1947	1925	1915	1904	1904	1894	1894	1873	1873	1863	1853	1853	1833	1824	1814	1804	1795	1795	1795	1795	0	0	0	0	0	0	0	0	0	0	0	0	0	0	0	0	0	0	0	0	0	0	0	0	0	0	0	0	0	0	0	0	0	0	0	0	0	0
0	704	704	703	703	704	703	701	703	701	701	703	703	701	701	701	701	698	698	698	700	700	700	698	700	701	701	701	703	703	705	705	705	705	707	707	707	708	710	711	713	711	713	713	713	713	714	714	719	719	720	722	723	723	725	725	726	726	728	728	728	729	729	731	731	731	732	732	732	732	732	732	732	732	734	736	736	736	736	737	737	737	737	736	737	737	737	737	0	0	0	0	0	0	0	0	0	1618	1618	1626	1618	1618	1626	1634	1634	2443	2443	2443	2460	2460	2478	2478	2496	2496	2496	2514	2514	2532	2532	2551	2551	2551	2551	2570	2589	2589	2609	2629	2629	2649	2649	2649	2649	2649	2629	2629	2629	2629	2629	2629	2609	2629	2629	2609	2609	2609	2609	2609	2629	2629	2629	2629	2629	2629	2629	2629	2629	2629	2629	2629	2629	2629	2609	2609	2609	2629	2629	2629	2629	2589	2589	2609	2609	2609	2609	2609	2589	2589	2589	2589	2589	2589	2589	2589	2589	2589	2609	2609	2609	2589	2589	2589	2589	2589	2589	2589	2589	2589	2589	2589	2589	2589	2589	2570	2570	2589	2589	2589	2589	2589	2589	3046	3046	3046	3046	3046	3046	3046	3073	3073	3073	3046	3019	2993	2942	2942	2917	2893	2893	2869	2893	2893	2893	2893	3659	3659	3659	3621	3621	3621	3621	3621	3659	3659	3659	3659	3698	3621	3621	3621	3621	3659	3621	3621	3621	3621	3659	3659	3659	3659	3698	3698	3698	3698	3698	3738	3698	3698	3698	3698	3698	3738	3738	3698	3698	3698	3698	3698	3698	3698	3698	3698	3698	3698	3698	3698	3698	3659	3659	3698	3698	3698	3698	3698	3698	3698	3698	3698	3659	3659	3659	3621	3659	3659	3659	3659	3659	3659	3659	3621	3659	3621	3621	3621	3621	3659	3659	3659	3621	3659	3659	3621	3621	3621	3621	3621	3621	3621	3621	3621	3621	3621	3621	3621	3621	3621	3583	3583	3621	3621	3583	3621	3621	3621	3621	3621	3621	3621	3621	2845	2799	2799	2777	2777	2777	2754	2754	2754	2754	2754	2733	2733	0	0	0	0	0	2711	2690	2690	2690	2690	2690	2669	2669	2649	2649	2649	2649	2629	2629	2629	2629	2629	2629	2629	2629	2649	2649	2649	2649	2649	2629	2629	2629	2629	2629	2629	2609	2609	2609	2609	2589	2589	2589	2589	2609	2629	2629	2609	2609	2629	2629	2629	2629	2629	2629	2629	2629	2629	2629	2609	2629	2609	2609	2629	2609	2609	2629	2629	2629	2629	2629	2629	2649	2649	2669	2669	2649	2649	2669	2669	2649	2649	2629	2629	2629	2629	2629	2629	3475	3475	3440	3475	3440	3440	3440	3475	3475	3510	3510	3510	3510	3510	3510	3510	3510	3510	3510	3510	3510	3510	3510	3510	3475	3475	3475	3475	3475	3475	3475	3475	3475	3475	3475	3475	3475	3440	3440	3440	3440	3406	3406	3406	3406	3406	3406	3406	3406	3440	3440	3440	3440	3406	3406	3406	3406	3406	3406	3406	3406	3406	3406	3406	3406	3406	3406	3406	3406	3406	3440	3440	3406	3406	3406	3406	3406	3406	3406	3406	3440	3440	3440	3440	3440	3440	3440	3440	3440	3440	3440	3440	3440	3440	3440	3440	3440	3440	3440	3440	3440	3406	3406	3406	3341	3341	0	0	0	0	2140	2114	2101	2101	2088	2088	2088	2063	2063	2051	2051	2039	2027	2015	2015	2003	2003	1992	1992	1969	1969	1958	1947	1936	1915	1915	1904	1894	1894	1873	1873	1863	1853	1843	1833	1824	1814	1804	1795	1795	1795	1795	0	0	0	0	0	0	0	0	0	0	0	0	0	0	0	0	0	0	0	0	0	0	0	0	0	0	0	0	0	0	0	0	0	0	0	0	0	0
0	703	703	701	700	700	700	700	700	700	700	701	701	701	701	701	701	698	698	698	700	700	700	698	700	701	701	701	703	703	704	704	704	704	705	707	707	707	707	710	711	711	711	711	713	711	713	716	717	719	719	720	722	723	725	725	725	726	728	728	728	731	729	731	731	732	732	732	732	732	732	732	732	732	734	736	736	736	736	736	736	736	736	736	737	737	737	0	0	0	0	0	0	0	0	0	0	1618	1618	1618	1618	1618	1634	1634	1641	1641	2443	2443	2460	2443	2478	2496	2496	2496	2496	2514	2514	2532	2532	2551	2570	2551	2570	2570	2589	2589	2609	2629	2629	2649	2649	2649	2649	2649	2629	2629	2629	2629	2629	2629	2629	2629	2629	2629	2629	2609	2629	2629	2629	2629	2629	2629	2629	2629	2629	2629	2629	2629	2629	2629	2629	2629	2609	2609	2609	2609	2609	2609	2589	2589	2589	2589	2609	2609	2609	2609	2589	2609	2589	2589	2589	2589	2589	2589	2589	2589	2609	2609	2609	2589	2589	2589	2589	2589	2589	2589	2589	2589	2589	2589	2589	2589	2589	2589	2570	2589	2589	2589	2589	2589	2589	3046	3046	3046	3046	3073	3073	3073	3101	3101	3101	3073	3046	2993	2942	2942	2917	2893	2893	2869	2869	2869	2893	2893	2893	2893	3659	3659	3659	3621	3621	3621	3659	3659	3659	3659	3698	3659	3621	3621	3621	3621	3621	3583	3621	3621	3621	3621	3659	3659	3698	3698	3698	3698	3698	3698	3698	3698	3698	3698	3698	3738	3738	3738	3698	3698	3698	3698	3698	3698	3698	3698	3698	3698	3698	3698	3698	3659	3659	3698	3698	3698	3698	3698	3698	3698	3698	3698	3659	3659	3659	3659	3659	3659	3659	3659	3659	3659	3659	3621	3621	3621	3621	3621	3583	3659	3659	3659	3621	3659	3659	3621	3621	3621	3621	3621	3621	3621	3621	3621	3621	3621	3621	3621	3621	3621	3621	3583	3621	3583	3583	3583	3583	3621	3621	3621	3583	3583	2869	2845	2777	2799	2777	2777	2754	2754	2754	2754	2754	2754	2754	2754	2754	0	0	0	2711	2690	2690	2690	2690	2690	2690	2669	2649	2649	2649	2649	2649	2629	2629	2629	2629	2629	2629	2629	2629	2629	2629	2649	2649	2629	2629	2629	2629	2629	2629	2629	2609	2609	2609	2609	2609	2589	2589	2609	2609	2609	2609	2609	2609	2629	2629	2629	2629	2629	2629	2629	2629	2629	2609	2609	2629	2609	2609	2609	2609	2609	2609	2609	2609	2629	2629	2629	2629	2649	2649	2649	2649	2649	2649	2649	2649	2629	2629	2629	2629	2629	2629	2629	3475	3475	3440	3475	3440	3440	3440	3475	3475	3510	3510	3510	3510	3510	3510	3510	3510	3510	3510	3510	3510	3510	3510	3510	3475	3475	3475	3475	3475	3475	3475	3475	3475	3475	3440	3440	3440	3440	3406	3406	3406	3406	3406	3406	3406	3406	3406	3406	3406	3406	3406	3440	3440	3406	3440	3406	3406	3406	3406	3406	3406	3406	3406	3406	3406	3406	3406	3406	3440	3440	3440	3406	3406	3406	3406	3406	3406	3406	3406	3406	3440	3440	3440	3440	3440	3440	3440	3440	3440	3440	3440	3440	3440	3440	3440	3440	3440	3440	3440	3406	3440	3406	3406	3406	3373	3373	3373	0	0	2114	2153	2114	2101	2101	2088	2088	2088	2076	2063	2051	2051	2039	2027	2027	2015	2003	2003	2003	1992	1969	1969	1958	1947	1936	1915	1904	1904	1894	1883	1883	1873	1873	1863	1843	1833	1824	1814	1804	1795	1795	1795	1795	0	0	0	0	0	0	0	0	0	0	0	0	0	0	0	0	0	0	0	0	0	0	0	0	0	0	0	0	0	0	0	0	0	0	0	0	0	0
0	700	700	700	700	700	700	700	700	700	701	703	701	701	701	701	701	700	698	698	700	700	700	698	700	701	701	701	701	701	704	704	704	704	707	707	707	705	707	708	710	710	710	711	711	711	713	714	714	717	717	719	720	720	723	723	725	725	726	728	728	729	729	731	731	732	732	732	732	732	732	732	732	734	734	736	736	736	736	736	736	736	736	736	736	739	739	739	0	0	0	0	0	0	0	0	1618	1618	1618	1618	1618	1618	1634	1641	1641	1649	1649	0	2460	2426	2496	2496	2496	2496	2496	2514	2514	2532	2551	2551	2551	2551	2570	2570	2589	2589	2629	2649	2649	2649	2649	2649	2649	2629	2629	2629	2629	2629	2629	2629	2629	2629	2629	2629	2629	2629	2629	2629	2629	2629	2629	2629	2629	2629	2629	2629	2629	2629	2629	2609	2629	2609	2609	2609	2589	2589	2589	2589	2589	2589	2589	2609	2609	2609	2609	2609	2589	2609	2589	2589	2589	2589	2589	2589	2589	2589	2609	2609	2589	2589	2589	2589	2589	2589	2570	2589	2589	2589	2589	2589	2589	2589	2589	2570	2589	2589	2589	2589	2589	2589	2609	2609	3046	3073	3073	3101	3101	3101	3101	3129	3101	3101	3073	3019	2942	2917	2917	2893	2893	2869	2893	2893	2893	2893	3046	3046	3046	3698	3698	3659	3621	3621	3659	3659	3659	3659	3659	3621	3621	3621	3621	3621	3621	3583	3583	3621	3621	3621	3698	3698	3698	3698	3698	3698	3698	3698	3698	3698	3698	3698	3698	3698	3738	3698	3698	3698	3698	3698	3698	3698	3698	3698	3698	3698	3698	3698	3698	3659	3659	3659	3698	3698	3698	3698	3698	3698	3698	3698	3659	3659	3659	3659	3659	3659	3659	3659	3659	3659	3621	3621	3621	3621	3621	3621	3621	3659	3659	3659	3621	3659	3659	3621	3621	3621	3621	3621	3621	3621	3621	3621	3621	3621	3621	3621	3621	3621	3621	3621	3621	3621	3583	3583	3583	3583	3621	3583	3583	3583	3583	3583	2777	2777	2777	2777	2777	2754	2754	2754	2754	2754	2754	2754	2754	0	2690	2711	2711	2690	2690	2690	2690	2690	2690	2669	2649	2649	2649	2649	2649	2629	2629	2629	2629	2629	2609	2629	2629	2629	2629	2629	2629	2629	2629	2629	2629	2629	2629	2629	2629	2609	2609	2609	2609	2589	2589	2589	2609	2609	2609	2609	2609	2609	2609	2629	2629	2629	2629	2609	2629	2629	2609	2609	2609	2609	2609	2609	2609	2609	2609	2609	2609	2629	2609	2629	2609	2629	2649	2649	2649	2649	2649	2649	2649	2629	2629	2629	2629	2629	3510	3475	3475	3475	3475	3475	3475	3440	3440	3475	3475	3510	3510	3510	3510	3510	3510	3510	3510	3510	3510	3510	3510	3510	3510	3510	3475	3475	3475	3475	3475	3475	3475	3475	3475	3475	3440	3440	3406	3406	3440	3440	3440	3406	3440	3406	3406	3406	3406	3406	3406	3406	3440	3440	3440	3440	3440	3406	3406	3406	3406	3406	3406	3406	3406	3406	3406	3406	3406	3406	3406	3440	3406	3406	3406	3406	3406	3406	3406	3406	3406	3406	3406	3440	3440	3440	3440	3440	3440	3440	3440	3440	3440	3440	3440	3440	3440	3440	3440	3440	3440	3406	3406	3406	3406	3373	3341	3373	3373	3373	0	2127	2153	2114	2101	2101	2101	2088	2088	2088	2063	2051	2051	2039	2039	2027	2015	2003	2003	1992	1992	1969	1969	1958	1947	1936	1915	1904	1904	1894	1883	1883	1873	1873	1863	1853	1843	1824	1824	1804	1804	1795	1795	1795	0	0	0	0	0	0	0	0	0	0	0	0	0	0	0	0	0	0	0	0	0	0	0	0	0	0	0	0	0	0	0	0	0	0	0	0	0	0
0	698	697	697	698	698	700	700	700	700	701	703	701	701	701	701	701	700	698	698	700	700	700	700	701	701	701	701	701	701	703	704	704	704	705	707	707	705	705	708	708	708	710	711	711	713	711	713	714	716	717	719	720	719	722	723	723	725	725	726	728	729	729	731	731	731	732	732	732	732	732	732	732	734	734	734	736	736	736	736	736	737	737	737	737	739	739	739	0	0	0	0	0	0	0	0	1618	1611	1618	1618	1618	1626	1634	1641	1649	1657	1657	1657	1657	1657	1657	2496	2496	2514	2514	2514	2514	2532	2551	2551	2551	2551	2570	2570	2570	2570	2589	2649	2649	2649	2649	2649	2649	2629	2629	2629	2629	2629	2629	2629	2629	2629	2629	2629	2629	2629	2629	2629	2629	2629	2629	2629	2629	2629	2629	2629	2609	2609	2609	2609	2609	2609	2609	2609	2589	2589	2609	2609	2609	2589	2589	2609	2609	2609	2589	2589	2609	2609	2589	2589	2589	2589	2589	2589	2589	2589	2609	2609	2589	2589	2589	2589	2589	2589	2570	2570	2589	2589	2589	2589	2589	2589	2589	2589	2589	2589	2589	2589	2589	2589	2589	2589	3129	3129	3129	3129	3129	3129	3129	3129	3129	3129	3101	3101	2967	2917	2893	2869	2869	2869	2869	2893	2893	2942	3046	3046	3046	3046	3046	3659	3621	3621	3659	3659	3659	3659	3659	3621	3621	3621	3621	3621	3621	3583	3621	3621	3621	3621	3659	3659	3698	3698	3698	3698	3698	3698	3698	3698	3698	3698	3698	3738	3738	3738	3698	3738	3698	3698	3698	3698	3698	3698	3698	3698	3698	3698	3659	3659	3659	3659	3659	3698	3698	3698	3698	3698	3698	3698	3659	3659	3659	3659	3659	3659	3659	3659	3659	3659	3621	3621	3621	3621	3621	3621	3621	3659	3659	3659	3659	3659	3659	3621	3621	3621	3621	3621	3621	3621	3621	3621	3621	3621	3621	3621	3621	3621	3583	3583	3621	3583	3583	3583	3583	3621	3621	3621	3583	3583	3583	2799	2777	2754	2777	2777	2754	2754	2754	2754	2754	2754	2754	2754	2754	2711	2690	2690	2690	2690	2690	2690	2690	2690	2690	2669	2649	2649	2649	2649	2649	2629	2629	2629	2629	2629	2609	2609	2629	2629	2629	2629	2629	2629	2629	2629	2629	2629	2629	2629	2629	2629	2609	2609	2609	2609	2609	2609	2609	2609	2609	2609	2609	2609	2609	2609	2609	2609	2609	2609	2609	2609	2609	2609	2609	2609	2609	2609	2609	2609	2609	2629	2629	2629	2609	2629	2629	2629	2649	2649	2649	2649	2649	2649	2649	2649	2629	2629	2629	2629	3510	3475	3475	3475	3475	3475	3475	3475	3440	3440	3475	3510	3510	3510	3510	3510	3510	3510	3510	3510	3510	3510	3510	3510	3510	3510	3475	3475	3475	3475	3475	3475	3475	3475	3475	3475	3440	3440	3406	3440	3406	3440	3406	3406	3440	3406	3406	3406	3406	3406	3406	3406	3406	3440	3406	3440	3440	3406	3440	3406	3406	3406	3406	3406	3406	3406	3406	3406	3406	3406	3440	3440	3406	3406	3406	3406	3406	3406	3406	3406	3406	3406	3440	3440	3440	3440	3440	3440	3440	3440	3440	3440	3440	3440	3440	3440	3440	3440	3440	3440	3440	3406	3406	3406	3406	3406	3373	3373	3373	3373	3373	2127	2114	2114	2101	2101	2101	2088	2101	2088	2076	2063	2063	2051	2051	2039	2015	2003	1992	1992	1980	1969	1958	1958	1947	1936	1915	1904	1904	1894	1883	1883	1873	1873	1863	1853	1843	1833	1824	1814	1804	1795	1795	1795	0	0	0	0	0	0	0	0	0	0	0	0	0	0	0	0	0	0	0	0	0	0	0	0	0	0	0	0	0	0	0	0	0	0	0	0	0	0
0	697	695	695	697	697	698	698	698	700	700	701	701	701	701	701	701	700	698	698	700	700	701	700	701	701	703	701	703	703	703	703	704	704	705	705	705	705	705	708	708	708	708	711	711	711	711	713	714	716	716	719	719	719	720	722	723	723	725	726	728	729	729	731	731	731	731	731	731	731	731	732	732	732	734	734	737	736	736	736	737	737	737	737	737	739	742	742	0	0	0	0	0	0	0	0	0	1611	1618	1618	1618	1626	1641	1649	1649	1657	1665	1665	1657	1665	1665	1673	1673	1673	2514	2514	2514	2551	2551	2551	2551	2551	2570	2570	2570	2570	2629	2649	2649	2649	2649	2669	2669	2649	2629	2649	2649	2629	2629	2629	2629	2629	2649	2629	2629	2629	2629	2629	2629	2629	2629	2629	2629	2629	2609	2609	2609	2629	2609	2609	2609	2609	2609	2609	2609	2589	2589	2609	2589	2589	2589	2589	2609	2609	2589	2589	2589	2589	2589	2589	2589	2589	2589	2589	2589	2589	2589	2589	2589	2589	2589	2589	2589	2589	2570	2570	2589	2589	2589	2589	2589	2589	2589	2589	2570	2589	2589	2589	2589	2589	2589	2589	3157	3129	3129	3129	3129	3129	3129	3129	3157	3157	3129	3129	3129	2942	2942	2893	2893	2869	2869	2893	2869	2893	3019	3019	3046	3046	3046	3621	3583	3583	3621	3659	3659	3659	3659	3659	3621	3621	3621	3621	3621	3583	3621	3621	3621	3659	3659	3698	3698	3698	3698	3698	3698	3698	3698	3738	3698	3738	3738	3738	3738	3738	3698	3738	3698	3698	3698	3698	3698	3698	3698	3698	3698	3698	3659	3659	3659	3659	3659	3698	3698	3698	3698	3698	3698	3698	3659	3659	3659	3659	3659	3659	3659	3659	3659	3659	3659	3659	3659	3659	3659	3659	3621	3698	3659	3659	3659	3659	3659	3621	3621	3621	3621	3621	3621	3621	3621	3621	3621	3621	3621	3621	3621	3621	3583	3583	3583	3583	3583	3583	3583	3621	3621	3621	3583	3583	3583	2777	2777	2754	2754	2777	2754	2754	2754	2754	2754	2733	2754	2733	2733	2711	2711	2690	2711	2690	2690	2690	2690	2690	2669	2669	2649	2649	2629	2629	2629	2629	2629	2629	2629	2609	2609	2629	2629	2649	2629	2629	2629	2629	2629	2629	2629	2629	2629	2629	2629	2629	2629	2609	2609	2609	2609	2609	2609	2609	2609	2609	2609	2609	2609	2609	2609	2609	2609	2609	2609	2609	2609	2609	2629	2629	2609	2609	2609	2609	2609	2609	2629	2629	2629	2629	2629	2629	2649	2629	2649	2649	2649	2649	2649	2649	2629	2609	2609	2609	3510	3475	3475	3475	3475	3475	3475	3475	3440	3475	3475	3510	3510	3475	3510	3510	3510	3510	3475	3510	3510	3510	3510	3475	3510	3475	3510	3475	3475	3510	3475	3510	3475	3475	3475	3475	3440	3440	3440	3440	3406	3440	3406	3406	3406	3406	3406	3406	3406	3406	3406	3440	3440	3440	3440	3440	3406	3406	3440	3406	3406	3406	3406	3406	3406	3406	3406	3406	3440	3440	3440	3406	3406	3406	3406	3406	3406	3406	3406	3406	3406	3406	3440	3440	3440	3440	3440	3440	3440	3440	3440	3440	3440	3440	3440	3440	3440	3440	3440	3440	3440	3406	3406	3406	3406	3406	3406	3373	3406	3373	3373	0	2114	2114	2101	2101	2101	2088	2088	2088	2076	2076	2063	2051	2039	2039	2027	2015	1992	1992	1980	1969	1958	1958	1947	1936	1915	1904	1904	1894	1883	1873	1873	1873	1863	1853	1843	1833	1824	1814	1795	1795	1795	1795	0	0	0	0	0	0	0	0	0	0	0	0	0	0	0	0	0	0	0	0	0	0	0	0	0	0	0	0	0	0	0	0	0	0	0	0	0	0
0	695	695	695	695	695	695	695	695	697	700	703	701	701	701	701	701	701	700	700	700	701	701	701	701	701	703	701	703	703	703	703	704	705	707	707	705	707	707	708	708	708	708	711	711	711	711	713	713	714	714	717	719	717	719	720	722	722	723	725	726	726	728	728	729	729	729	729	729	731	731	732	732	732	732	734	736	736	736	736	736	736	737	737	737	739	742	742	0	0	0	0	0	0	0	0	0	1611	1618	1626	1618	1634	1641	1657	1657	1665	1665	1665	1665	1665	1665	1673	1681	1681	1690	1690	2514	2532	2551	2551	2551	2551	2570	2570	2570	2589	2589	2649	2629	2629	2629	2649	2649	2649	2629	2649	2649	2629	2629	2629	2629	2629	2649	2649	2629	2629	2629	2629	2629	2629	2629	2629	2629	2629	2609	2609	2609	2629	2609	2609	2609	2609	2609	2609	2609	2589	2589	2589	2589	2609	2589	2609	2609	2609	2589	2589	2589	2589	2589	2589	2589	2589	2589	2589	2589	2589	2589	2589	2589	2589	2589	2570	2570	2570	2570	2570	2570	2589	2589	2589	2589	2589	2589	2589	2589	2589	2589	2589	2589	2589	3157	3157	3157	3157	3157	3157	3157	3157	3157	3157	3157	3157	3157	3129	3129	2942	2942	2893	2893	2869	2869	2869	2869	2869	3019	3019	3073	3101	3101	3583	3583	3546	3583	3621	3659	3659	3659	3621	3621	3621	3621	3621	3583	3583	3583	3583	3621	3621	3659	3698	3698	3698	3698	3698	3698	3698	3698	3738	3698	3698	3738	3738	3738	3738	3738	3698	3698	3698	3698	3698	3698	3698	3698	3698	3698	3659	3659	3698	3659	3659	3698	3698	3698	3698	3698	3659	3698	3659	3659	3659	3659	3659	3698	3659	3659	3659	3659	3659	3659	3659	3659	3659	3659	3659	3659	3698	3698	3659	3621	3659	3659	3621	3621	3621	3621	3621	3621	3621	3621	3659	3621	3621	3621	3621	3621	3621	3583	3583	3621	3621	3583	3583	3583	3621	3621	3583	3583	3583	3583	2777	2777	2754	2754	2777	2754	2754	2733	2733	2733	2733	2733	2733	2711	2711	2711	2690	2711	2690	2690	2690	2690	2669	2669	2669	2649	2629	2629	2629	2629	2629	2629	2629	2629	2609	2609	2629	2629	2649	2629	2629	2629	2629	2629	2629	2629	2629	2629	2629	2629	2629	2629	2609	2609	2609	2589	2609	2609	2609	2609	2609	2609	2609	2609	2609	2609	2609	2609	2609	2609	2609	2609	2609	2609	2629	2609	2609	2609	2609	2609	2629	2629	2629	2629	2629	2629	2629	2649	2649	2649	2649	2649	2649	2649	2649	2629	2629	2629	3440	3475	3475	3475	3475	3475	3475	3475	3475	3475	3475	3475	3475	3510	3510	3510	3510	3510	3510	3510	3510	3510	3510	3510	3510	3510	3475	3475	3475	3510	3510	3475	3510	3475	3475	3475	3475	3440	3440	3406	3406	3406	3440	3406	3406	3440	3440	3440	3440	3440	3406	3406	3440	3440	3440	3440	3440	3406	3406	3406	3406	3406	3406	3406	3406	3406	3406	3406	3406	3440	3440	3440	3406	3406	3406	3406	3440	3406	3406	3406	3406	3406	3406	3440	3440	3440	3440	3440	3440	3440	3440	3440	3440	3440	3440	3440	3440	3440	3440	3440	3406	3406	3406	3406	3406	3406	3406	3406	3373	3406	3406	3406	0	0	2114	2101	2101	2088	2088	2088	2088	2076	2076	2063	2051	2039	2039	2027	2015	1992	1992	1980	1958	1958	1947	1936	1936	1915	1904	1904	1894	1883	1873	1873	1873	1863	1863	1843	1833	1824	1804	1795	1786	1795	1795	0	0	0	0	0	0	0	0	0	0	0	0	0	0	0	0	0	0	0	0	0	0	0	0	0	0	0	0	0	0	0	0	0	0	0	0	0	0
0	695	695	694	694	694	694	694	694	695	698	701	700	701	701	701	703	701	701	700	700	701	701	701	703	703	703	703	704	704	703	703	705	705	707	707	707	707	707	707	707	708	708	710	710	710	710	711	713	713	714	716	717	714	717	720	720	720	722	722	725	726	726	728	728	729	728	729	729	729	729	731	732	732	732	734	736	734	736	736	736	736	737	739	739	740	743	743	0	0	0	0	0	0	0	0	0	1611	1618	1626	1634	1649	1649	1657	1657	1657	1665	1665	1665	1665	1673	1681	1690	1698	1698	1698	1698	1698	2551	2551	2532	2551	2551	2570	2570	2570	2609	2629	2629	2629	2649	2649	2649	2629	2629	2649	2649	2629	2629	2629	2629	2629	2629	2649	2629	2629	2629	2629	2629	2629	2629	2629	2629	2629	2609	2609	2609	2609	2609	2589	2589	2609	2609	2609	2589	2589	2589	2609	2609	2609	2589	2609	2609	2609	2589	2589	2589	2589	2589	2609	2589	2589	2589	2589	2589	2589	2589	2589	2589	2570	2570	2570	2570	2570	2570	2570	2570	2589	2589	2589	2589	2589	2589	2570	2570	2570	2589	2589	2589	2589	2589	3186	3186	3186	3186	3186	3186	3186	3186	3186	3186	3186	3157	3157	3157	2942	2942	2893	2893	2893	2869	2869	2869	2869	2942	2942	3073	3101	3129	3129	3129	3546	3621	3621	3583	3583	3621	3621	3621	3621	3621	3621	3583	3583	3583	3621	3621	3621	3659	3698	3698	3698	3698	3698	3698	3698	3698	3698	3738	3738	3738	3738	3738	3738	3738	3698	3698	3698	3698	3698	3698	3698	3698	3659	3698	3659	3698	3698	3659	3659	3698	3698	3698	3698	3659	3659	3659	3659	3659	3659	3659	3659	3659	3659	3659	3659	3659	3659	3659	3659	3698	3659	3659	3659	3659	3698	3659	3659	3621	3659	3621	3621	3621	3621	3621	3621	3621	3621	3621	3621	3621	3621	3621	3621	3621	3621	3621	3621	3621	3621	3583	3583	3583	3583	3583	3583	3583	3583	3546	2777	2777	2754	2754	2754	2754	2754	2733	2733	2733	2733	2733	2733	2711	2711	2690	2690	2690	2690	2690	2669	2690	2669	2669	2669	2649	2649	2629	2629	2629	2629	2629	2629	2629	2609	2609	2629	2629	2649	2649	2629	2629	2629	2629	2629	2629	2629	2629	2629	2629	2609	2609	2629	2629	2609	2589	2589	2609	2609	2609	2609	2609	2609	2609	2609	2609	2609	2609	2609	2609	2609	2609	2609	2609	2609	2609	2609	2609	2609	2609	2629	2629	2629	2629	2629	2629	2629	2629	2629	2649	2649	2649	2649	2649	2649	2629	2629	2629	3440	3475	3475	3475	3475	3475	3475	3475	3475	3475	3475	3475	3475	3510	3510	3510	3510	3510	3510	3510	3510	3510	3510	3475	3475	3475	3510	3475	3475	3475	3475	3475	3475	3475	3440	3440	3475	3440	3406	3406	3406	3406	3406	3406	3406	3406	3440	3440	3440	3440	3406	3406	3406	3406	3440	3406	3406	3406	3406	3406	3406	3406	3406	3406	3406	3406	3406	3406	3406	3440	3440	3440	3406	3406	3406	3406	3406	3406	3406	3406	3406	3406	3406	3440	3440	3440	3440	3440	3440	3440	3440	3440	3440	3440	3440	3440	3440	3440	3440	3440	3440	3406	3406	3406	3406	3406	3406	3406	3406	3406	3406	3406	0	0	0	2101	2101	2101	2088	2088	2088	2088	2076	2063	2051	2039	2039	2015	2003	2003	1992	1980	1969	1958	1947	1936	1936	1915	1904	1904	1894	1883	1873	1873	1873	1863	1863	1853	1833	1824	1804	1795	1786	1786	1786	0	0	0	0	0	0	0	0	0	0	0	0	0	0	0	0	0	0	0	0	0	0	0	0	0	0	0	0	0	0	0	0	0	0	0	0	0	0
0	695	695	694	694	694	694	694	694	695	697	701	701	701	703	703	703	701	701	701	701	701	703	703	704	704	704	704	705	705	705	704	707	707	708	707	707	707	707	707	707	707	708	710	710	710	710	710	710	710	710	711	713	713	716	719	720	720	720	722	722	725	726	726	728	728	728	728	729	729	729	731	732	732	732	734	736	736	736	736	737	737	737	739	739	739	743	743	0	0	0	0	0	0	0	0	0	1626	1634	1641	1641	1649	1657	1665	1665	1665	1665	1665	1665	1673	1681	1690	1690	1698	1706	1706	1715	1723	1723	1706	1706	2551	2570	2570	2570	2570	2649	2649	2629	2629	2629	2649	2649	2649	2629	2649	2649	2629	2629	2629	2629	2629	2649	2629	2629	2629	2629	2629	2629	2629	2629	2629	2629	2629	2629	2609	2609	2609	2609	2609	2589	2589	2589	2589	2589	2589	2589	2589	2589	2609	2609	2609	2609	2609	2589	2589	2589	2589	2570	2589	2589	2589	2589	2589	2589	2589	2589	2589	2570	2570	2570	2570	2570	2570	2570	2570	2570	2570	2570	2570	2570	2570	2570	2570	2570	2589	2589	2589	2589	2589	2589	3157	3216	3157	3186	3216	3216	3216	3216	3216	3216	3216	3216	3216	3216	2942	2942	2893	2893	2869	2869	2869	2869	2869	2917	2917	3101	3101	3129	3129	3129	3129	3101	3101	3659	3659	3583	3621	3621	3621	3621	3621	3583	3583	3583	3621	3621	3621	3621	3659	3659	3659	3698	3698	3698	3698	3698	3738	3738	3738	3738	3738	3738	3738	3738	3698	3698	3698	3698	3698	3698	3698	3698	3698	3698	3659	3698	3698	3659	3698	3698	3698	3698	3659	3659	3659	3659	3659	3621	3659	3659	3659	3659	3659	3659	3659	3659	3659	3659	3659	3698	3659	3659	3659	3621	3621	3659	3621	3621	3659	3621	3621	3621	3621	3659	3621	3621	3621	3621	3621	3621	3621	3621	3621	3621	3621	3621	3621	3621	3583	3583	3583	3583	3583	3583	3583	3583	3583	3546	2777	2777	2754	2754	2754	2754	2754	2733	2733	2754	2733	2754	2754	2711	2711	2690	2690	2690	2690	2690	2669	2690	2669	2669	2669	2649	2629	2629	2629	2629	2629	2629	2629	2629	2629	2609	2629	2629	2649	2649	2649	2649	2629	2629	2629	2629	2629	2629	2629	2629	2609	2609	2609	2609	2589	2589	2609	2609	2609	2609	2609	2609	2609	2609	2609	2609	2589	2589	2589	2589	2609	2609	2609	2609	2609	2609	2609	2609	2609	2629	2629	2629	2629	2629	2629	2629	2629	2629	2649	2649	2649	2649	2649	2649	2649	2649	2629	2629	3440	3475	3475	3475	3475	3475	3475	3475	3475	3475	3475	3475	3475	3475	3475	3510	3510	3510	3510	3510	3510	3510	3510	3475	3510	3475	3475	3475	3475	3475	3475	3475	3475	3475	3440	3440	3440	3440	3406	3406	3406	3406	3406	3406	3406	3406	3406	3406	3406	3406	3406	3406	3406	3406	3406	3406	3406	3406	3406	3406	3406	3406	3406	3406	3406	3406	3406	3440	3440	3440	3406	3406	3406	3406	3406	3406	3406	3406	3406	3406	3406	3406	3406	3440	3440	3440	3440	3440	3440	3440	3440	3440	3440	3440	3440	3440	3440	3440	3440	3440	3440	3440	3406	3406	3406	3406	3406	3406	3406	3406	3406	3440	3440	0	0	0	2114	2101	2101	2101	2088	2088	2088	2076	2051	2051	2039	2015	2003	2003	1992	1992	1980	1958	1947	1936	1925	1915	1904	1904	1894	1883	1883	1873	1873	1863	1863	1853	1833	1824	1804	1795	1795	1795	1795	0	0	0	0	0	0	0	0	0	0	0	0	0	0	0	0	0	0	0	0	0	0	0	0	0	0	0	0	0	0	0	0	0	0	0	0	0	0
0	695	695	695	695	694	697	695	697	695	698	701	700	700	701	703	703	703	701	701	703	703	703	704	705	704	704	704	705	705	705	705	707	707	707	707	707	707	707	707	707	707	707	708	708	710	710	711	711	711	711	713	713	713	714	719	720	720	720	720	722	722	723	725	726	726	726	726	728	728	728	731	732	732	732	734	736	736	736	736	737	737	737	739	739	740	743	743	0	0	0	0	0	0	0	0	0	1649	1649	1649	1649	1657	1665	1665	1665	1665	1665	1665	1673	1673	1681	1690	1698	1698	1706	1706	1706	1706	1706	1706	1706	0	2570	2570	2570	2570	2570	2649	2649	2649	2649	2649	2649	2649	2649	2649	2649	2629	2629	2629	2629	2629	2649	2629	2649	2629	2629	2629	2629	2629	2629	2629	2629	2629	2609	2609	2609	2609	2589	2589	2589	2589	2589	2589	2589	2589	2589	2589	2589	2609	2609	2609	2609	2589	2589	2589	2589	2589	2570	2589	2589	2589	2589	2589	2589	2589	2589	2609	2570	2589	2589	2589	2589	2570	2570	2570	2570	2551	2551	2570	2570	2570	2570	2570	2570	2570	2570	2570	2570	2570	3157	3186	3186	3186	3216	3216	3216	3216	3246	3216	3216	3246	3246	3246	3216	0	0	2893	2893	2893	2869	2869	2869	2869	2917	2942	2942	3073	3101	3101	3101	3101	3101	3101	3583	3583	3583	3621	3621	3621	3621	3621	3583	3621	3621	3621	3621	3621	3659	3659	3698	3698	3698	3698	3698	3698	3738	3738	3738	3738	3738	3738	3738	3738	3698	3698	3698	3698	3698	3698	3698	3698	3698	3698	3659	3659	3698	3659	3659	3698	3698	3698	3698	3659	3659	3659	3659	3621	3621	3621	3621	3621	3659	3621	3621	3659	3659	3659	3659	3659	3659	3659	3621	3621	3659	3659	3659	3621	3621	3659	3621	3621	3621	3621	3659	3621	3621	3621	3621	3621	3621	3621	3621	3621	3621	3621	3621	3621	3621	3621	3583	3583	3583	3583	3583	3583	3583	3583	3583	2777	2754	2754	2754	2754	2754	2733	2733	2733	2711	2711	2711	2711	2711	2711	2690	2690	2690	2690	2669	2669	2669	2669	2649	2649	2649	2649	2629	2629	2629	2629	2629	2629	2629	2629	2629	2649	2649	2649	2649	2649	2649	2649	2629	2629	2629	2629	2609	2609	2609	2629	2609	2589	2589	2589	2589	2609	2609	2609	2609	2609	2609	2609	2609	2609	2589	2589	2609	2589	2609	2609	2609	2609	2609	2609	2609	2609	2609	2629	2629	2629	2629	2629	2629	2629	2649	2649	2629	2649	2649	2649	2649	2649	2649	2649	2629	2629	2629	3475	3475	3475	3475	3475	3475	3475	3475	3475	3475	3475	3475	3475	3475	3475	3475	3475	3510	3510	3510	3510	3510	3510	3510	3475	3475	3475	3475	3475	3475	3475	3475	3475	3440	3440	3440	3440	3406	3406	3406	3406	3406	3406	3406	3406	3406	3406	3406	3406	3406	3406	3406	3406	3406	3406	3406	3406	3406	3406	3406	3406	3406	3406	3406	3406	3440	3440	3440	3440	3440	3406	3406	3406	3406	3406	3406	3406	3406	3406	3406	3406	3406	3406	3440	3440	3440	3440	3440	3440	3440	3440	3440	3440	3406	3406	3440	3440	3440	3440	3440	3440	3440	3406	3406	3406	3406	3406	3406	3406	3406	3406	3406	3406	3406	3406	3406	2114	2088	2088	2088	2088	2076	2076	2063	2063	2051	2039	2015	2003	2003	1992	1992	1980	1958	1947	1936	1925	1915	1904	1894	1894	1883	1873	1873	1873	1863	1863	1853	1843	1814	1814	1804	1795	1795	1795	0	0	0	0	0	0	0	0	0	0	0	0	0	0	0	0	0	0	0	0	0	0	0	0	0	0	0	0	0	0	0	0	0	0	0	0	0	0
0	697	695	695	695	695	697	695	695	697	697	700	700	700	701	704	703	703	701	701	703	703	703	705	705	704	704	705	707	705	707	705	708	708	707	707	707	707	707	707	707	707	708	708	710	710	710	711	711	711	711	713	713	714	714	717	719	720	720	720	720	722	722	723	725	725	726	726	728	728	729	731	732	732	732	734	736	734	736	736	737	737	737	739	739	740	743	743	0	0	0	0	0	0	0	0	0	1657	1649	1657	1657	1665	1665	1673	1665	1673	1673	1673	1673	1673	1681	1698	1698	1698	1706	1706	1706	1706	1706	1732	1732	1750	1759	1759	1768	2570	2690	2690	2669	2669	2669	2669	2649	2649	2649	2629	2629	2629	2629	2629	2629	2629	2649	2649	2649	2649	2629	2629	2629	2629	2629	2629	2629	2629	2629	2609	2609	2609	2609	2589	2589	2589	2589	2589	2589	2589	2589	2609	2589	2609	2609	2609	2609	2589	2589	2589	2589	2589	2589	2589	2589	2589	2589	2570	2570	2570	2570	2570	2570	2570	2570	2589	2589	2589	2589	2570	2570	2570	2570	2570	2570	2570	2570	2570	2570	2570	2570	2570	2570	2570	3186	3186	3246	3246	3246	3246	3246	3246	3246	3246	3246	3246	3246	3246	0	0	0	2917	2893	2893	2893	2893	2869	2917	2942	2967	3019	3073	3101	3101	3101	3101	3101	0	3583	3583	3583	3621	3621	3621	3621	3621	3621	3621	3621	3621	3659	3659	3659	3659	3698	3698	3698	3698	3698	3698	3698	3738	3738	3738	3738	3738	3738	3738	3698	3698	3698	3698	3698	3698	3698	3698	3698	3698	3698	3698	3698	3659	3659	3698	3698	3698	3698	3659	3659	3659	3659	3621	3621	3621	3621	3621	3621	3621	3621	3621	3659	3659	3659	3659	3659	3659	3621	3621	3621	3659	3659	3621	3621	3659	3659	3621	3659	3621	3659	3621	3621	3621	3621	3621	3621	3621	3621	3621	3621	3621	3621	3621	3621	3621	3583	3583	3583	3583	3583	3583	3583	3583	3583	2777	2754	2754	2754	2754	2754	2733	2733	2711	2711	2690	2690	2711	2711	2711	2690	2690	2690	2690	2690	2669	2669	2669	2669	2669	2649	2649	2629	2629	2629	2629	2629	2629	2629	2609	2629	2629	2649	2649	2649	2649	2649	2649	2629	2629	2629	2629	2609	2609	2609	2609	2589	2589	2589	2589	2589	2589	2609	2609	2609	2609	2629	2609	2609	2609	2589	2609	2609	2609	2609	2609	2609	2609	2609	2609	2609	2609	2609	2629	2629	2629	2629	2629	2629	2629	2629	2629	2629	2649	2649	2649	2649	2649	2649	2649	2629	2649	2649	3475	3475	3475	3475	3475	3440	3475	3475	3475	3475	3475	3475	3475	3475	3475	3475	3475	3475	3510	3475	3510	3510	3475	3475	3475	3475	3475	3475	3475	3475	3475	3440	3440	3440	3440	3440	3440	3406	3406	3440	3440	3440	3406	3406	3406	3406	3406	3406	3406	3406	3406	3406	3406	3406	3406	3406	3406	3406	3406	3406	3406	3406	3406	3406	3406	3406	3440	3440	3440	3406	3406	3406	3406	3406	3406	3406	3406	3406	3406	3406	3406	3406	3406	3440	3440	3440	3440	3440	3440	3440	3440	3440	3440	3406	3406	3440	3440	3440	3440	3440	3440	3440	3406	3406	3406	3406	3406	3406	3406	3406	3406	3406	3406	3406	3406	3406	2101	2088	2088	2088	2088	2076	2076	2063	2051	2051	2039	2015	2003	2003	1992	1992	1980	1958	1947	1947	1936	1925	1915	1904	1894	1883	1873	1873	1863	1863	1863	1853	1843	1814	1814	1804	1795	1795	1795	0	0	0	0	0	0	0	0	0	0	0	0	0	0	0	0	0	0	0	0	0	0	0	0	0	0	0	0	0	0	0	0	0	0	0	0	0	0
0	697	695	695	695	695	694	695	697	697	697	700	701	701	701	701	703	703	703	703	703	703	703	707	707	705	707	707	707	707	707	707	708	707	707	707	707	707	708	707	708	708	708	708	710	710	711	711	711	711	711	711	713	713	714	716	719	719	720	720	720	722	722	722	723	725	725	726	726	728	729	731	731	731	732	732	734	734	736	736	737	737	739	739	740	742	742	742	0	0	0	0	0	0	0	0	0	1657	1649	1657	1657	1665	1665	1673	1673	1673	1673	1673	1681	1681	1690	1698	1698	1698	1698	1706	1706	1715	1715	1732	1741	1750	1750	1768	1768	0	2711	2690	2669	2669	2669	2649	2649	2649	2629	2629	2629	2629	2629	2629	2629	2629	2649	2649	2649	2629	2629	2629	2629	2629	2629	2629	2629	2629	2629	2609	2609	2609	2609	2589	2589	2589	2589	2589	2589	2589	2589	2589	2570	2570	2570	2589	2589	2589	2589	2589	2589	2589	2609	2589	2589	2589	2589	2589	2570	2570	2570	2570	2570	2570	2589	2589	2589	2589	2589	2570	2570	2570	2570	2570	2570	2570	2570	2570	2570	2570	2570	2570	2570	2570	3186	3186	3277	3277	3277	3277	3277	3277	3277	3277	3246	3246	3277	3277	0	0	0	2917	2917	2893	2893	2893	2893	2917	2942	2967	3019	3046	3101	3101	3101	3101	3186	3186	3186	3510	3546	3546	3621	3621	3621	3621	3583	3583	3583	3621	3621	3659	3659	3698	3698	3698	3698	3698	3698	3698	3698	3738	3738	3738	3738	3738	3738	3738	3698	3698	3698	3698	3698	3698	3698	3698	3698	3698	3698	3698	3698	3698	3698	3698	3698	3698	3698	3659	3659	3659	3659	3621	3621	3621	3621	3621	3621	3621	3621	3621	3659	3659	3659	3659	3659	3621	3621	3621	3621	3621	3659	3621	3659	3659	3659	3621	3659	3621	3659	3621	3621	3621	3621	3621	3621	3621	3621	3621	3621	3621	3621	3621	3621	3621	3583	3583	3583	3621	3583	3583	3583	3583	3546	2777	2754	2754	2754	2754	2754	2733	2711	2711	2711	2690	2690	2690	2690	2690	2690	2690	2690	2690	2690	2669	2669	2669	2669	2629	2629	2629	2629	2629	2629	2629	2629	2629	2629	2629	2629	2629	2649	2649	2649	2649	2649	2649	2629	2649	2629	2629	2629	2629	2629	2609	2589	2589	2589	2589	2589	2589	2609	2609	2609	2609	2629	2609	2609	2609	2609	2609	2609	2609	2609	2609	2609	2609	2609	2609	2609	2609	2609	2609	2629	2629	2629	2629	2629	2629	2629	2629	2629	2629	2649	2649	2649	2649	2649	2629	2629	2649	2649	2649	3475	3475	3440	3440	3440	3440	3440	3475	3475	3440	3475	3510	3475	3475	3475	3475	3475	3475	3475	3510	3475	3475	3475	3475	3475	3475	3475	3475	3475	3475	3440	3440	3440	3440	3406	3406	3406	3406	3440	3406	3406	3406	3406	3406	3406	3406	3406	3406	3406	3440	3406	3406	3406	3406	3406	3406	3406	3406	3406	3406	3406	3406	3406	3406	3406	3406	3406	3406	3406	3406	3406	3406	3406	3406	3406	3406	3406	3406	3406	3406	3406	3406	3440	3440	3440	3440	3440	3440	3440	3406	3406	3406	3406	3406	3406	3440	3440	3440	3440	3440	3440	3406	3406	3406	3406	3406	3406	3406	3406	3406	3406	3406	3406	3406	3406	2101	2101	2088	2088	2088	2076	2076	2063	2051	2051	2039	2015	2003	2003	1992	1992	1980	1958	1947	1947	1936	1925	1915	1915	1894	1883	1873	1873	1863	1863	1863	1853	1833	1804	1804	1795	1795	1795	1795	0	0	0	0	0	0	0	0	0	0	0	0	0	0	0	0	0	0	0	0	0	0	0	0	0	0	0	0	0	0	0	0	0	0	0	0	0	0
0	698	697	695	695	695	697	694	697	695	697	701	701	708	707	707	707	704	704	704	711	708	708	708	708	707	707	707	708	708	708	708	708	708	708	708	708	708	708	707	708	708	708	710	710	710	713	713	713	711	713	713	713	713	714	714	717	719	719	719	720	720	720	722	723	723	725	726	726	728	729	731	731	731	731	732	734	734	736	736	736	736	737	739	740	745	752	752	752	0	0	0	0	0	0	0	0	1657	1649	1649	1657	1657	1665	1673	1673	1673	1673	1673	1681	1690	1690	1698	1706	1706	1706	1706	1715	1723	1732	1732	1741	1750	1750	1768	1768	1768	2711	2669	2669	2669	2649	2649	2649	2649	2629	2629	2629	2629	2629	2629	2629	2629	2629	2629	2649	2629	2629	2629	2629	2629	2629	2629	2629	2629	2629	2609	2609	2609	2609	2589	2589	2589	2589	2589	2589	2589	2589	2589	2570	2570	2570	2589	2589	2589	2589	2589	2589	2589	2570	2589	2589	2589	2589	2589	2570	2570	2570	2570	2570	2570	2570	2589	2570	2589	2589	2570	2570	2570	2570	2570	2570	2570	2570	2570	2570	2570	2570	2570	2570	2551	2551	3216	3309	3309	3309	3277	3277	3277	3309	3309	3309	3309	3277	3277	0	0	2942	2942	2917	2917	2893	2893	2869	2893	2917	2967	2993	3046	3046	3073	3073	3073	3129	3129	3129	3510	3510	3546	3546	3583	3583	3583	3583	3583	3583	3621	3698	3698	3659	3659	3698	3698	3698	3698	3698	3698	3698	3738	3738	3738	3698	3738	3698	3698	3698	3698	3698	3698	3698	3698	3698	3698	3698	3698	3698	3698	3698	3698	3698	3698	3698	3698	3698	3659	3659	3659	3621	3621	3621	3621	3621	3621	3621	3583	3621	3621	3659	3621	3659	3621	3621	3621	3621	3621	3621	3621	3659	3659	3659	3621	3621	3621	3621	3621	3621	3621	3621	3621	3621	3621	3621	3621	3621	3621	3621	3621	3621	3621	3621	3621	3621	3621	3583	3583	3583	3583	3583	3583	3546	2777	2777	2754	2754	2754	2733	2733	2711	2711	2711	2690	2690	2690	2690	2690	2690	2690	2690	2690	2690	2669	2669	2649	2649	2629	2629	2629	2629	2629	2629	2629	2629	2629	2629	2629	2629	2629	2649	2649	2649	2649	2649	2629	2629	2629	2629	2629	2609	2609	2609	2609	2609	2609	2609	2589	2609	2589	2609	2609	2609	2609	2629	2609	2609	2609	2609	2609	2609	2609	2609	2609	2589	2589	2589	2589	2589	2609	2609	2609	2629	2629	2629	2629	2629	2629	2629	2629	2629	2629	2629	2649	2649	2649	2649	2629	2629	2629	2629	2629	3475	3475	3440	3440	3440	3475	3475	3475	3475	3440	3475	3475	3475	3475	3475	3475	3475	3475	3475	3475	3475	3475	3475	3475	3475	3475	3475	3475	3475	3440	3440	3440	3406	3406	3440	3406	3406	3440	3440	3406	3406	3406	3406	3406	3406	3406	3406	3406	3406	3406	3406	3406	3406	3406	3406	3406	3406	3406	3406	3406	3406	3406	3406	3406	3406	3406	3406	3406	3406	3406	3406	3406	3406	3406	3406	3406	3406	3406	3373	3406	3406	3406	3440	3440	3440	3440	3440	3440	3440	3406	3406	3406	3406	3406	3406	3406	3440	3440	3406	3406	3406	3406	3406	3406	3406	3406	3406	3406	3406	3406	3406	3406	3406	3406	2127	2114	2088	2088	2088	2088	2076	2076	2063	2051	2051	2039	2015	2003	2003	1992	1992	1980	1958	1947	1947	1936	1925	1915	1904	1894	1883	1873	1873	1863	1863	1853	1843	1833	1804	1804	1795	1795	1795	1795	0	0	0	0	0	0	0	0	0	0	0	0	0	0	0	0	0	0	0	0	0	0	0	0	0	0	0	0	0	0	0	0	0	0	0	0	0	0
0	698	700	700	700	698	698	698	698	698	698	701	703	711	710	708	708	708	714	713	711	711	708	710	710	708	708	708	708	708	708	710	710	708	708	708	708	708	708	708	708	710	710	710	713	713	713	713	713	713	713	713	713	713	714	714	716	717	719	719	719	720	720	722	722	723	725	725	726	726	729	731	731	732	732	732	734	734	736	734	736	736	737	739	743	745	752	748	748	0	0	0	0	0	0	0	0	0	1649	1649	1657	1657	1657	1665	1665	1673	1681	1690	1690	1698	1698	1706	1706	1706	1715	1715	1715	1723	1732	1741	1741	1750	1750	1759	1768	1768	0	2690	2669	2669	2649	2649	2649	2649	2629	2629	2629	2629	2629	2629	2629	2629	2649	2629	2649	2629	2629	2629	2629	2629	2629	2629	2629	2629	2609	2609	2609	2609	2609	2589	2589	2589	2589	2589	2589	2609	2589	2589	2570	2570	2570	2570	2589	2589	2589	2589	2589	2589	2589	2589	2589	2589	2589	2589	2589	2589	2570	2570	2570	2570	2589	2570	2570	2570	2589	2570	2570	2570	2570	2570	2570	2570	2570	2551	2570	2570	2570	2570	2551	2551	2551	3216	3246	3341	3341	3309	3309	3309	3341	3341	3341	3341	3341	3341	0	0	2942	2942	2917	2917	2893	2893	2869	2893	2917	2917	3019	3046	3073	3073	3073	3073	3129	3129	3129	3510	3510	3546	3546	3583	3583	3583	3583	3583	3583	3621	3659	3698	3698	3698	3698	3698	3698	3698	3698	3698	3698	3698	3698	3738	3698	3698	3698	3698	3698	3698	3698	3698	3698	3698	3698	3698	3698	3698	3698	3698	3698	3698	3698	3698	3659	3659	3698	3659	3659	3659	3659	3621	3621	3583	3621	3583	3583	3583	3621	3621	3621	3621	3621	3621	3621	3621	3583	3583	3583	3621	3659	3659	3621	3621	3621	3659	3659	3659	3621	3621	3621	3621	3621	3621	3621	3621	3621	3621	3621	3621	3621	3621	3621	3621	3621	3621	3621	3583	3583	3583	3546	3546	3510	3475	2754	2754	2754	2733	2733	2711	2711	2711	2711	2711	2711	3510	3475	3440	2690	2690	2690	2690	2690	2669	2669	2649	2649	2629	2629	2629	2629	2629	2629	2629	2629	2629	2629	2609	2629	2629	2629	2649	2629	2629	2629	2629	2629	2629	2629	2629	2609	2629	2609	2609	2609	2609	2609	2609	2609	2609	2609	2609	2609	2609	2629	2609	2609	2609	2609	2609	2609	2589	2609	2589	2589	2589	2589	2589	2589	2589	2609	2609	2609	2629	2629	2629	2629	2629	2629	2629	2629	2629	2629	2649	2649	2649	2649	2629	2629	2629	2629	2629	3475	3475	3475	3475	3475	3475	3475	3475	3475	3440	3475	3510	3475	3475	3475	3475	3475	3475	3475	3475	3475	3475	3475	3475	3475	3475	3475	3475	3475	3440	3440	3440	3406	3406	3406	3406	3406	3406	3406	3406	3406	3406	3406	3406	3406	3406	3406	3406	3406	3406	3406	3406	3406	3406	3406	3406	3406	3406	3406	3406	3406	3406	3406	3406	3406	3406	3406	3406	3406	3406	3406	3406	3406	3406	3406	3406	3406	3406	3373	3406	3406	3406	3440	3440	3440	3440	3440	3440	3440	3406	3406	3406	3406	3406	3406	3406	3440	3440	3440	3440	3440	3406	3406	3406	3406	3406	3406	3406	3406	3406	3406	3373	3341	3341	2127	2114	2114	2088	2088	2088	2076	2076	2063	2051	2051	2039	2027	2015	2003	1992	1992	1980	1958	1958	1947	1936	1936	1925	1904	1904	1883	1883	1873	1863	1863	1853	1843	1824	1804	1804	1795	1795	1795	1795	0	0	0	0	0	0	0	0	0	0	0	0	0	0	0	0	0	0	0	0	0	0	0	0	0	0	0	0	0	0	0	0	0	0	0	0	0	0
0	0	700	700	700	698	698	698	710	710	707	707	711	713	711	711	711	716	716	714	713	713	713	713	713	711	708	708	708	708	708	710	710	710	708	708	708	710	710	710	713	713	713	713	714	713	713	713	713	713	713	713	714	713	714	716	716	717	719	719	719	720	720	720	722	722	723	725	725	726	729	731	731	731	732	732	734	734	734	734	736	736	737	742	743	745	745	747	745	745	0	0	0	0	0	0	0	0	1649	1641	1641	1649	1657	1665	1673	1681	1690	1698	1698	1698	1706	1706	1706	1715	1715	1715	1715	1723	1732	1741	1741	1750	1759	1768	1768	1777	1777	2690	2669	2690	2669	2649	2649	2649	2629	2609	2609	2629	2629	2629	2629	2629	2649	2649	2649	2629	2629	2629	2629	2629	2629	2629	2629	2629	2629	2629	2609	2609	2609	2589	2589	2589	2589	2609	2609	2609	2589	2589	2570	2570	2570	2589	2589	2589	2589	2589	2589	2589	2589	2589	2589	2589	2589	2589	2589	2589	2589	2589	2589	2589	2589	2570	2570	2589	2589	2570	2570	2570	2570	2570	2570	2570	2570	2551	2570	2551	2570	2570	2570	2551	2551	0	3341	3341	3341	3341	3341	3373	3341	3373	3373	3373	3373	3373	0	0	0	2942	2942	2917	2893	2893	2893	2893	2917	2942	3019	3046	3046	3046	3046	3046	3073	3073	3583	3583	3546	3546	3546	3546	3583	3583	3583	3583	3583	3621	3659	3659	3659	3659	3698	3698	3698	3698	3698	3698	3698	3698	3698	3698	3698	3698	3698	3698	3698	3698	3698	3698	3698	3698	3698	3698	3698	3698	3698	3698	3698	3698	3698	3698	3659	3659	3698	3659	3698	3659	3659	3659	3621	3621	3621	3621	3583	3621	3621	3621	3621	3621	3621	3621	3621	3583	3583	3583	3583	3621	3659	3621	3621	3621	3621	3621	3621	3621	3621	3621	3621	3621	3621	3583	3621	3621	3621	3621	3621	3621	3621	3621	3621	3621	3621	3583	3583	3583	3583	3546	3546	3546	3546	3546	2733	2733	2733	2733	2733	2711	2711	2711	2711	2690	2690	3510	3475	3440	3440	2690	2690	2690	2669	2649	2649	2649	2629	2629	2629	2629	2629	2629	2629	2629	2629	2629	2609	2609	2629	2629	2629	2649	2629	2629	2629	2629	2629	2629	2629	2629	2609	2629	2629	2629	2609	2629	2609	2609	2609	2609	2609	2609	2609	2609	2629	2609	2609	2609	2609	2609	2609	2589	2609	2589	2589	2589	2589	2589	2589	2589	2589	2609	2609	2629	2629	2629	2629	2629	2629	2629	2629	2629	2629	2629	2629	2629	2629	2629	2629	2629	2609	2609	2609	3475	3475	3475	3475	3475	3475	3475	3475	3440	3475	3510	3475	3475	3440	3440	3475	3475	3440	3440	3440	3440	3475	3475	3475	3475	3475	3475	3475	3440	3406	3406	3406	3406	3406	3406	3406	3406	3440	3406	3406	3406	3406	3406	3406	3406	3406	3406	3406	3406	3406	3406	3406	3406	3406	3406	3406	3406	3406	3406	3406	3373	3406	3406	3373	3406	3406	3406	3406	3373	3373	3406	3406	3373	3373	3406	3373	3373	3373	3373	3406	3373	3406	3440	3440	3440	3440	3440	3406	3406	3406	3406	3406	3406	3406	3440	3440	3440	3440	3440	3406	3406	3406	3406	3406	3406	3406	3406	3406	3406	3406	3373	3373	3373	2140	2140	2114	2114	2101	2088	2076	2076	2063	2051	2051	2039	2039	2015	2015	2003	1992	1980	1969	1958	1947	1936	1925	1925	1904	1894	1883	1883	1873	1863	1853	1853	1843	1824	1804	1804	1795	1786	1795	1795	0	0	0	0	0	0	0	0	0	0	0	0	0	0	0	0	0	0	0	0	0	0	0	0	0	0	0	0	0	0	0	0	0	0	0	0	0	0
0	0	0	0	0	707	705	707	707	710	711	714	714	716	714	716	716	717	717	717	717	714	714	714	714	713	710	711	710	710	710	710	711	710	710	710	710	713	713	714	716	714	714	714	714	714	714	714	714	714	714	714	714	714	716	716	717	717	719	719	719	720	720	722	722	722	725	725	725	726	728	729	731	731	732	734	734	734	736	736	736	737	740	740	743	745	747	747	745	745	0	0	0	0	0	0	0	0	0	1634	1634	1641	1641	1649	1665	1673	1690	1690	1698	1698	1706	1706	1715	1715	1723	1715	1715	1732	1741	1750	1750	1759	1759	1768	1768	1777	1786	1786	1795	1795	2669	2649	2649	2649	2609	2609	2609	2609	2629	2629	2629	2609	2649	2649	2629	2629	2629	2629	2629	2629	2629	2649	2629	2629	2629	2609	2609	2609	2609	2589	2589	2589	2589	2589	2589	2589	2589	2589	2570	2570	2570	2589	2589	2570	2589	2589	2589	2589	2589	2589	2589	2589	2589	2589	2589	2589	2589	2589	2589	2589	2570	2570	2570	2570	2570	2570	2570	2570	2570	2570	2570	2570	2551	2551	2570	2570	2570	2570	2570	2570	2570	0	3373	3373	3373	3341	3373	3373	3373	3406	3373	3373	3373	3406	3406	0	0	2942	2942	2917	2917	2893	2893	2893	2917	2917	3019	3019	3019	3046	3046	3046	3046	3073	3583	3583	3546	3546	3546	3546	3546	3583	3583	3583	3583	3621	3621	3659	3659	3698	3698	3698	3698	3698	3698	3698	3698	3698	3698	3698	3698	3698	3698	3698	3698	3698	3698	3698	3698	3698	3698	3698	3698	3698	3698	3698	3698	3698	3698	3698	3698	3698	3698	3698	3698	3659	3659	3659	3659	3621	3621	3621	3621	3621	3621	3621	3621	3621	3621	3583	3583	3583	3583	3583	3583	3621	3621	3621	3621	3621	3621	3621	3659	3621	3621	3621	3621	3621	3621	3621	3621	3621	3621	3621	3621	3621	3621	3621	3621	3583	3583	3583	3583	3583	3583	3546	3546	3546	3510	3510	2733	2733	2733	2733	2711	2711	2711	2711	2711	2711	3546	3510	3475	3475	2690	2690	2690	2690	2669	2649	2649	2649	2629	2629	2629	2629	2629	2629	2629	2629	2629	2629	2629	2609	2609	2609	2629	2629	2629	2629	2629	2629	2629	2629	2629	2629	2629	2629	2629	2629	2629	2629	2629	2609	2609	2609	2609	2609	2609	2609	2629	2609	2609	2609	2609	2609	2609	2609	2609	2589	2589	2589	2589	2589	2589	2589	2589	2609	2609	2609	2609	2629	2629	2629	2629	2629	2629	2629	2629	2629	2629	2629	2629	2629	2609	2609	2609	2609	2609	3475	3440	3475	3475	3475	3475	3475	3475	3440	3475	3475	3475	3440	3440	3440	3440	3440	3440	3440	3440	3440	3475	3475	3475	3475	3475	3475	3475	3440	3440	3406	3406	3406	3406	3406	3406	3406	3406	3440	3406	3406	3406	3406	3406	3406	3406	3406	3406	3406	3406	3406	3406	3406	3406	3406	3406	3406	3406	3406	3406	3406	3406	3406	3373	3406	3406	3406	3406	3406	3373	3406	3406	3406	3406	3406	3406	3373	3373	3373	3373	3373	3373	3440	3440	3440	3440	3440	3440	3440	3406	3406	3406	3406	3406	3406	3440	3440	3406	3406	3406	3406	3406	3406	3406	3373	3406	3406	3406	3406	3373	3373	3341	3341	2140	2140	2127	2114	2101	2088	2088	2076	2063	2063	2051	2039	2039	2015	2003	2003	1992	1980	1958	1958	1947	1936	1936	1925	1915	1904	1894	1883	1873	1863	1853	1853	1843	1824	1804	1804	1795	1786	1795	1795	0	0	0	0	0	0	0	0	0	0	0	0	0	0	0	0	0	0	0	0	0	0	0	0	0	0	0	0	0	0	0	0	0	0	0	0	0	0
0	0	704	705	707	708	707	710	711	711	713	713	716	716	716	716	716	723	720	720	719	717	717	717	717	716	714	716	714	711	711	716	714	713	711	713	714	717	716	717	719	716	716	717	716	716	716	714	716	716	714	714	716	714	716	717	717	717	719	719	720	720	720	722	723	723	725	726	726	726	728	728	731	731	732	732	732	734	734	736	737	739	742	743	743	745	747	747	745	745	0	0	0	0	0	0	0	0	0	1626	1626	1634	1641	1649	1649	1681	1690	1698	1698	1698	1706	1715	1715	1715	1732	1723	1732	1741	1750	1750	1759	1768	1768	1768	1768	1777	1777	1777	1786	1804	1824	1833	1843	1843	1843	2609	2589	2609	2629	2629	2629	2609	2649	2649	2629	2629	2629	2629	2629	2629	2629	2629	2629	2629	2609	2609	2609	2609	2609	2589	2589	2589	2589	2609	2589	2589	2589	2589	2570	2570	2570	2589	2589	2589	2589	2589	2589	2589	2589	2589	2589	2589	2589	2589	2589	2589	2589	2589	2589	2589	2589	2589	2570	2570	2570	2570	2570	2570	2570	2570	2570	2570	2570	2551	2551	2551	2570	2570	2570	2551	2551	0	3406	3406	3406	3406	3406	3373	3406	3406	3406	3440	3440	3440	3440	0	0	2942	2942	2942	2917	2893	2893	2917	2917	2942	2967	2993	3019	3046	3046	3046	3046	3546	3583	3546	3546	3546	3546	3546	3546	3583	3583	3583	3583	3621	3659	3659	3659	3698	3698	3698	3698	3698	3698	3698	3698	3698	3698	3698	3698	3698	3698	3698	3698	3659	3659	3659	3698	3698	3698	3738	3698	3698	3698	3698	3698	3698	3698	3698	3659	3698	3698	3698	3698	3698	3659	3659	3659	3621	3621	3621	3621	3621	3621	3621	3621	3621	3621	3621	3583	3583	3583	3583	3583	3621	3621	3621	3621	3621	3621	3621	3621	3621	3621	3621	3621	3621	3621	3621	3621	3621	3621	3621	3621	3621	3621	3621	3621	3583	3621	3583	3583	3583	3583	3546	3546	3510	3510	3510	2711	2711	2733	2733	2711	2711	2711	2711	2711	2711	3546	3510	3510	3475	3475	2711	2711	2690	2669	2649	2649	2649	2629	2629	2629	2629	2629	2609	2629	2629	2629	2629	2629	2609	2609	2629	2629	2629	2629	2629	2629	2629	2629	2629	2629	2629	2629	2629	2629	2629	2629	2629	2629	2629	2629	2609	2609	2609	2609	2609	2609	2609	2609	2609	2609	2609	2609	2609	2609	2609	2609	2589	2589	2589	2589	2589	2589	2609	2609	2609	2609	2609	2629	2629	2629	2609	2629	2629	2629	2629	2629	2629	2629	2609	2609	2609	2589	2570	2570	2570	3440	3475	3475	3475	3475	3475	3475	3440	3475	3475	3475	3440	3440	3440	3475	3440	3440	3440	3440	3440	3475	3440	3440	3440	3475	3440	3440	3406	3406	3406	3406	3406	3406	3406	3406	3440	3406	3406	3406	3406	3406	3406	3406	3406	3406	3406	3406	3406	3406	3406	3406	3406	3406	3406	3406	3406	3406	3406	3406	3406	3406	3406	3373	3373	3373	3373	3373	3373	3373	3373	3373	3373	3373	3406	3373	3373	3373	3373	3373	3406	3440	3440	3440	3440	3440	3440	3440	3440	3406	3406	3406	3406	3406	3440	3440	3440	3440	3406	3406	3406	3406	3406	3406	3373	3373	3406	3406	3406	3373	3341	3341	3341	2127	2127	2127	2114	2101	2101	2088	2076	2076	2063	2051	2039	2027	2027	2003	2003	1992	1969	1958	1958	1947	1936	1925	1925	1904	1894	1883	1883	1873	1863	1863	1853	1843	1833	1804	1804	1795	1786	1795	1795	0	0	0	0	0	0	0	0	0	0	0	0	0	0	0	0	0	0	0	0	0	0	0	0	0	0	0	0	0	0	0	0	0	0	0	0	0	0
0	0	707	708	708	710	708	710	711	713	714	714	717	717	716	716	716	723	720	720	719	719	717	717	716	714	714	716	717	717	717	717	717	717	717	716	716	719	717	719	719	717	717	717	717	717	717	717	717	717	717	717	717	716	717	717	719	717	719	720	720	722	722	723	723	725	725	726	726	726	728	728	731	731	731	732	734	734	734	736	737	739	742	743	745	745	747	747	747	745	0	0	0	0	0	0	0	0	1611	1611	1626	1626	1634	1641	1641	1673	1690	1698	1698	1698	1706	1706	1715	1715	1723	1732	1741	1750	1750	1759	1759	1768	1768	1768	1777	1786	1786	1795	1804	1814	1824	1833	1843	1843	1843	1843	1843	1843	2629	2629	2629	2629	2649	2649	2629	2629	2629	2629	2629	2609	2609	2629	2629	2629	2609	2609	2589	2609	2609	2589	2589	2589	2589	2589	2589	2589	2589	2589	2570	2570	2570	2589	2589	2589	2589	2589	2589	2589	2589	2589	2589	2589	2589	2589	2589	2589	2589	2589	2589	2589	2589	2589	2589	2570	2570	2570	2570	2570	2570	2570	2570	2570	2570	2551	2551	2551	2570	2570	2570	2551	2551	0	3440	3406	3406	3406	3440	3440	3440	3440	3440	3440	3440	3475	3475	3475	0	0	2942	2942	2917	2917	2893	2917	2917	2942	2942	2967	3019	3019	3019	3019	3019	3583	3583	3546	3546	3546	3546	3546	3546	3583	3583	3583	3621	3659	3659	3659	3659	3659	3698	3698	3698	3698	3698	3698	3659	3659	3698	3698	3698	3698	3698	3698	3698	3698	3698	3698	3698	3698	3698	3698	3698	3698	3698	3698	3698	3659	3659	3659	3659	3659	3659	3659	3698	3659	3659	3659	3659	3621	3621	3621	3621	3621	3621	3621	3621	3621	3621	3583	3583	3583	3583	3583	3583	3621	3621	3621	3621	3621	3621	3621	3621	3621	3621	3621	3621	3621	3621	3621	3621	3621	3621	3621	3621	3621	3621	3621	3621	3583	3583	3583	3583	3583	3583	3583	3546	3510	3475	2711	2711	2711	2711	2711	2711	2711	2711	2711	2690	2690	3546	3510	3510	3475	3475	2711	2711	2690	2669	2649	2649	2649	2629	2629	2629	2629	2629	2629	2629	2629	2629	2609	2609	2609	2609	2629	2629	2629	2629	2629	2629	2629	2629	2629	2629	2629	2629	2629	2629	2629	2629	2629	2629	2629	2629	2609	2609	2609	2609	2609	2609	2609	2609	2609	2609	2609	2609	2609	2609	2589	2609	2589	2589	2589	2589	2570	2570	2589	2589	2589	2609	2609	2629	2629	2629	2609	2629	2629	2629	2629	2629	2629	2629	2609	2609	2609	2589	2570	2570	2570	3475	3475	3475	3475	3475	3475	3475	3440	3475	3475	3440	3440	3440	3440	3475	3440	3440	3440	3440	3440	3475	3475	3440	3440	3475	3440	3440	3440	3440	3406	3406	3406	3406	3406	3406	3440	3406	3406	3406	3406	3406	3406	3406	3406	3406	3406	3406	3406	3406	3406	3406	3406	3406	3406	3406	3406	3406	3406	3406	3406	3406	3373	3373	3373	3373	3373	3406	3406	3373	3373	3373	3373	3373	3373	3373	3373	3373	3373	3373	3373	3406	3440	3440	3440	3440	3440	3440	3440	3406	3406	3406	3406	3406	3440	3440	3440	3440	3406	3406	3406	3406	3406	3373	3373	3373	3373	3373	3406	3373	3341	3341	3341	2127	2127	2140	2114	2114	2101	2088	2088	2076	2063	2051	2039	2027	2003	2003	1992	1992	1980	1958	1958	1947	1936	1925	1925	1915	1894	1883	1883	1873	1863	1863	1853	1843	1833	1824	1804	1795	1786	1795	1795	0	0	0	0	0	0	0	0	0	0	0	0	0	0	0	0	0	0	0	0	0	0	0	0	0	0	0	0	0	0	0	0	0	0	0	0	0	0
