0	0	0	0	0	0	1193	1193	1197	1197	1202	1202	1210	1210	1214	1219	1223	1227	1236	1249	1254	1259	1263	1268	1268	1272	1277	1282	1282	1282	1282	1287	1291	1291	1296	1296	1291	1291	1296	1296	1296	1296	1296	1301	1301	1301	1306	1321	1326	1342	1347	1342	1342	0	0	0	0	1123	1127	1123	1123	1123	1123	1123	1123	1123	1123	1123	1123	1127	1123	1123	1123	1123	1123	1123	1123	1123	1123	1127	1127	1131	1131	1131	1131	1134	1134	1134	1138	1142	1142	0	0	0	0	0	0	0	1214	1214	1214	1219	1219	1223	1219	1223	1223	1223	1223	1232	1232	1240	1240	1240	1240	1240	1240	0	0	0	0	0	0	1287	1287	1287	1291	1291	1291	1291	1296	1301	1301	1311	1316	1316	1321	1321	0	0	0	0	0	0	0	0	0	0	0	0	0	0	0	0	0	0	0	4771	4838	4838	4838	4838	4838	4838	4838	4771	4838	4771	4771	4838	4838	4838	4838	4838	4838	4838	4838	4838	4838	4838	4838	4838	4838	4838	4838	4838	4838	4838	4838	4838	4838	4838	4771	4771	4771	4771	4771	4771	4771	4771	4771	4838	4838	4771	4771	4771	4771	4771	4771	4771	4771	4771	4771	4771	4771	4771	4771	4771	4771	4771	4771	4771	4771	4771	4771	4771	4771	4771	4771	4771	4771	4771	4771	4771	4771	4771	4771	4771	4771	4771	4771	4771	4771	4771	4706	4706	4706	4706	4706	4706	4706	4771	4771	4771	4771	4771	4771	4771	4771	4771	4771	4706	4706	4771	4706	4706	4706	4706	4706	4771	4771	4771	4771	4771	4771	4838	4771	4771	4771	4771	4771	4771	4771	4771	4771	4706	4706	4706	4706	4771	4771	4771	4771	4771	4771	4771	4771	4771	4771	4706	4706	4706	4706	4706	4771	4706	4771	4771	4771	4771	4771	4771	4771	4771	4706	4706	4706	4643	4643	4643	4643	4643	4706	0	0	3341	3341	3341	3309	3309	3309	3277	3277	3277	3277	3277	3277	3309	3309	3309	3309	3309	3309	3309	3341	3341	0	0	0	0	0	0	0	0	0	0	0	0	0	0	0	4296	4296	4296	4296	4296	4296	4350	4350	4350	4350	4406	4350	4296	4296	4296	4296	4296	4296	4296	4296	4350	4350	4350	4463	4463	4463	4463	4463	4463	4463	4463	4463	4463	4463	4463	4463	4463	4463	4463	4463	4406	4406	4406	4406	4406	4463	4463	4521	4521	4643	4706	4706	4706	4706	4706	4706	4706	4706	4706	4706	4706	4706	4706	4643	4643	4643	4706	4706	4643	4643	4643	4643	4643	4643	4643	4643	4643	4643	4643	4643	4643	4581	4643	4521	4463	4463	4406	4296	4296	4243	4243	4243	4243	4296	4296	4296	4296	4243	4243	4192	4192	4192	4192	4142	4192	4192	4142	4142	4142	4142	4142	4142	4192	4192	4192	4192	4192	4192	4192	4192	4142	4142	4142	4093	4093	4093	4093	4192	4093	4093	4142	4142	4142	4093	4093	4093	4093	4093	4142	4142	4142	4142	4142	4142	4142	4142	4093	4142	4093	4093	4093	4093	4093	4093	4093	4093	4093	4142	4142	4142	4142	4093	4045	4045	4045	4045	4045	4045	4093	4093	4142	4142	4142	4192	4192	4192	4243	4243	4296	4296	4296	4296	4296	5815	5815	5815	5915	5915	5815	5815	5915	5915	5915	5915	5915	5915	6018	6018	6124	6124	5915	5815	5815	6124	6124	6124	6124	6124	6124	6124	6018	6018	6018	6018	5915	5915	5915	5915	5915	5815	5815	5815	5815	5815	5815	5915	5915	5915	6018	6018	6018	6018	6018	6018	0	0	0	0	0	0	0	0	0	0	0	0	0	0	0	0	0	0	0	0	0	0	0	0	0	0	0	0	0	0	0	0	0	0	0	0	0	0	0	0	0	0	0	0	0
0	0	0	0	0	0	1193	1193	1197	1197	1202	1206	1210	1210	1210	1219	1223	1232	1240	1254	1254	1259	1263	1263	1268	1272	1277	1282	1287	1287	1287	1291	1296	1296	1296	1301	1301	1296	1296	1296	1301	1301	1301	1306	1306	1306	1306	1311	1326	1336	1342	1336	1342	1342	1342	0	0	1127	1131	1127	1127	1123	1123	1123	1123	1123	1123	1123	1123	1127	1127	1123	1123	1123	1123	1127	1123	1123	1127	1127	1127	1131	1131	1131	1131	1134	1134	1138	1142	1142	1142	0	0	0	0	0	0	1210	1210	1210	1214	1214	1219	1223	1219	1223	1223	1223	1223	1227	1232	1240	1245	1245	1245	1245	1245	0	0	0	0	1282	1287	1287	1287	1287	1291	1291	1291	1296	1301	1301	1301	1311	1316	1316	1321	1321	1321	0	0	0	0	0	0	0	0	0	0	0	0	0	0	0	0	0	0	4771	4838	4838	4838	4838	4771	4838	4838	4771	4838	4771	4838	4838	4838	4838	4838	4838	4838	4838	4838	4838	4838	4838	4771	4838	4838	4838	4838	4838	4838	4838	4838	4838	4838	4838	4771	4771	4771	4771	4771	4771	4771	4771	4771	4838	4771	4771	4771	4771	4771	4771	4771	4771	4771	4771	4771	4771	4771	4771	4771	4771	4771	4771	4771	4771	4771	4771	4771	4771	4771	4771	4771	4771	4771	4771	4771	4771	4771	4771	4771	4771	4771	4771	4771	4771	4771	4771	4706	4706	4706	4706	4706	4706	4771	4771	4771	4771	4771	4771	4771	4771	4771	4771	4771	4706	4706	4706	4706	4706	4706	4706	4706	4771	4771	4771	4771	4771	4771	4771	4771	4771	4771	4771	4771	4706	4706	4706	4706	4771	4706	4706	4706	4771	4771	4771	4771	4771	4771	4771	4771	4771	4706	4706	4706	4706	4771	4771	4771	4771	4771	4771	4771	4771	4771	4771	4771	4771	4706	4706	4706	4706	4643	4643	4643	4643	3406	3373	3373	3341	3341	3341	3309	3309	3309	3309	3277	3277	3277	3277	3309	3309	3309	3309	3309	3309	3309	3309	3309	3341	0	0	0	0	0	0	0	0	0	0	0	0	0	0	4296	4296	4296	4296	4296	4296	4296	4296	4296	4296	4296	4350	4350	4296	4243	4296	4296	4296	4296	4296	4296	4296	4350	4350	4350	4463	4463	4463	4463	4521	4463	4406	4406	4463	4463	4463	4463	4463	4463	4463	4463	4406	4406	4406	4406	4406	4406	4463	4463	4521	4581	4643	4706	4706	4706	4706	4706	4706	4706	4706	4706	4706	4706	4706	4706	4643	4706	4706	4706	4706	4643	4643	4643	4643	4643	4643	4643	4643	4643	4643	4581	4581	4581	4581	4521	4463	4463	4406	4406	4243	4192	4296	4243	4243	4243	4243	4296	4243	4243	4243	4192	4192	4192	4192	4192	4142	4142	4142	4142	4142	4093	4142	4142	4142	4192	4192	4192	4192	4192	4142	4192	4142	4142	4093	4093	4045	4093	4093	4093	4093	4093	4045	4093	4142	4093	4093	4093	4093	4093	4142	4142	4142	4142	4142	4142	4142	4142	4142	4093	4093	4045	4093	4093	4093	4093	4142	4093	4142	4142	4142	4142	4142	4093	4045	4045	4045	4045	4045	4045	4093	4142	4192	4142	4192	4192	4192	4192	4243	4243	4296	4296	4296	4296	5915	5915	5815	5815	5915	5915	5915	5915	5915	5915	5915	5915	5915	5915	6018	6018	6018	6124	6018	6018	6124	6235	6235	6235	6235	6235	6235	6235	6018	6018	6018	6018	5915	5915	5915	5915	5915	5915	5915	5915	5915	5915	5915	5915	5915	6018	6018	6018	6018	6018	6018	6018	0	0	0	0	0	0	0	0	0	0	0	0	0	0	0	0	0	0	0	0	0	0	0	0	0	0	0	0	0	0	0	0	0	0	0	0	0	0	0	0	0	0	0	0	0
0	0	0	0	0	0	1189	1193	1197	1197	1202	1206	1206	1206	1210	1214	1223	1232	1245	1254	1254	1259	1259	1263	1268	1272	1277	1282	1282	1282	1287	1291	1296	1296	1301	1306	1306	1306	1301	1301	1306	1306	1306	1306	1306	1311	1311	1316	1331	1331	1336	1336	1336	1336	1342	0	0	1131	1134	1134	1131	1127	1127	1123	1127	1127	1127	1127	1127	1127	1127	1127	1127	1127	1127	1127	1127	1127	1127	1127	1127	1131	1131	1131	1131	1134	1134	1138	1142	1142	1146	1146	0	0	0	0	0	1214	1210	1210	1219	1214	1223	1219	1223	1223	1223	1223	1223	1232	1232	1240	1245	1245	1245	1245	1263	1263	1272	1277	1282	1282	1282	1282	1287	1287	1287	1291	1291	1296	1301	1301	1306	1311	1316	1316	1326	1321	1321	0	0	0	0	0	0	0	0	0	0	0	0	0	0	0	0	0	0	0	4838	4771	4771	4771	4771	4771	4771	4771	4838	4771	4771	4838	4838	4838	4838	4771	4771	4838	4838	4838	4838	4838	4838	4838	4838	4838	4838	4838	4838	4838	4838	4838	4838	4838	4771	4771	4771	4771	4771	4771	4771	4771	4771	4771	4771	4771	4771	4706	4706	4771	4771	4771	4771	4771	4771	4771	4771	4771	4771	4771	4771	4771	4771	4771	4771	4771	4771	4771	4771	4771	4771	4771	4771	4771	4771	4771	4771	4771	4771	4771	4771	4771	4771	4771	4771	4771	4771	4706	4706	4706	4771	4771	4771	4771	4771	4771	4838	4771	4771	4771	4771	4771	4771	4771	4706	4706	4706	4643	4643	4706	4706	4706	4771	4771	4771	4771	4771	4771	4771	4771	4771	4771	4771	4706	4771	4706	4706	4706	4706	4706	4706	4771	4771	4771	4771	4771	4771	4771	4771	4771	4771	4706	4706	4706	4771	4771	4771	4771	4771	4771	4771	4771	4771	4771	4771	4771	4706	4706	4706	4706	4643	4581	3406	3406	3406	3373	3373	3341	3341	3341	3309	3309	3309	3309	3277	3277	3277	3309	3309	3309	3309	3309	3309	3341	3341	3341	3341	0	0	0	0	0	0	0	0	0	0	0	0	0	0	4296	4296	4296	4296	4296	4296	4296	4296	4296	4296	4296	4296	4296	4296	4296	4243	4296	4296	4296	4296	4296	4296	4296	4296	4296	4406	4406	4406	4406	4406	4463	4463	4406	4406	4406	4463	4463	4463	4463	4463	4463	4463	4463	4406	4463	4406	4406	4463	4463	4521	4521	4581	4643	4706	4706	4706	4706	4706	4706	4706	4706	4706	4706	4706	4706	4706	4706	4706	4706	4706	4643	4643	4643	4643	4706	4643	4643	4643	4643	4643	4643	4643	4581	4581	4581	4521	4521	4463	4406	4350	4350	4296	4296	4243	4243	4243	4243	4243	4243	4243	4243	4243	4192	4192	4192	4142	4142	4142	4142	4142	4142	4142	4142	4142	4142	4192	4192	4142	4142	4142	4142	4142	4142	4142	4093	4093	4045	4093	4093	4093	4093	4093	4093	4093	4142	4093	4093	4093	4093	4142	4142	4142	4142	4142	4142	4142	4142	4142	4093	4093	4093	4093	4093	4093	4093	4093	4142	4142	4142	4142	4142	4142	4142	4093	4045	4045	4045	4045	4045	4093	4142	4142	4192	4192	4192	4192	4192	4192	4192	4243	4243	4243	4243	6018	6018	5915	5815	5915	5915	5915	5915	5915	5915	5915	5915	5915	5915	5915	6018	6018	6018	6235	6018	6018	6124	6235	6124	6235	6235	6235	6235	6235	6124	6124	6018	6018	5915	5915	6018	6018	6018	5815	5915	5915	5915	5915	5915	5915	5915	5915	5915	6018	6018	6018	6018	6018	0	0	0	0	0	0	0	0	0	0	0	0	0	0	0	0	0	0	0	0	0	0	0	0	0	0	0	0	0	0	0	0	0	0	0	0	0	0	0	0	0	0	0	0	0
0	0	0	0	0	0	1193	1193	1193	1197	1202	1206	1206	1206	1206	1214	1223	1232	1240	1249	1249	1254	1259	1263	1268	1272	1277	1277	1282	1282	1287	1287	1296	1296	1301	1306	1311	1311	1311	1311	1316	1316	1311	1311	1316	1316	1316	1321	1331	1331	1336	1336	1336	1342	1342	0	0	1134	1138	1134	1131	1131	1127	1127	1127	1127	1127	1127	1127	1127	1127	1127	1127	1127	1127	1127	1127	1127	1127	1127	1127	1127	1131	1131	1131	1134	1134	1138	1142	1142	1142	1142	0	0	0	0	0	1210	1210	1210	1210	1214	1223	1223	1223	1227	1223	1227	1223	1232	1236	1240	1245	1245	1245	1245	1263	1263	1272	1282	1282	1282	1282	1282	1282	1287	1287	1291	1291	1301	1301	1301	1306	1316	1316	1316	1321	1321	1321	0	0	0	0	0	0	0	0	1385	1385	1385	1402	1402	0	0	0	0	0	0	4838	4838	4838	4771	4771	4771	4771	4771	4771	4771	4771	4771	4771	4838	4771	4771	4771	4838	4838	4838	4838	4838	4838	4838	4838	4838	4838	4838	4838	4838	4838	4838	4838	4838	4771	4771	4771	4838	4771	4771	4771	4771	4771	4771	4771	4706	4706	4706	4706	4771	4771	4771	4771	4771	4771	4771	4771	4771	4771	4771	4771	4771	4771	4771	4771	4771	4771	4771	4771	4771	4771	4771	4771	4771	4771	4771	4771	4771	4771	4771	4771	4771	4771	4771	4771	4771	4771	4706	4706	4706	4706	4706	4771	4706	4771	4771	4771	4771	4771	4771	4771	4771	4771	4771	4771	4771	4706	4706	4706	4706	4706	4706	4771	4771	4771	4771	4771	4771	4771	4771	4771	4771	4771	4706	4771	4706	4771	4706	4706	4706	4771	4771	4771	4771	4771	4771	4771	4771	4771	4771	4771	4706	4706	4706	4771	4771	4771	4771	4771	4771	4771	4771	4771	4771	4771	4771	4706	4706	4706	4706	4643	4706	3406	3406	3406	3373	3373	3373	3341	3341	3309	3309	3309	3309	3309	3309	3309	3309	3309	3309	3309	3309	3309	3341	3341	3373	3373	0	0	0	0	0	0	0	0	0	0	0	0	0	4296	4296	4296	4296	4296	4296	4296	4296	4296	4296	4296	4296	4296	4296	4296	4296	4296	4296	4296	4296	4296	4296	4296	4350	4350	4350	4406	4406	4463	4406	4406	4463	4406	4406	4406	4406	4463	4463	4463	4463	4463	4463	4463	4463	4463	4463	4463	4463	4463	4463	4463	4521	4581	4643	4706	4706	4706	4706	4706	4706	4706	4706	4706	4706	4706	4706	4706	4706	4706	4706	4706	4643	4643	4643	4643	4643	4643	4643	4581	4581	4581	4581	4581	4581	4581	4581	4521	4521	4521	4406	4406	4243	4192	4192	4243	4243	4243	4243	4296	4243	4243	4243	4243	4192	4192	4192	4142	4142	4142	4093	4142	4142	4142	4142	4142	4142	4192	4192	4142	4142	4142	4142	4142	4142	4142	4093	4093	4093	4093	4093	4093	4093	4093	4093	4093	4142	4142	4142	4142	4093	4142	4142	4142	4192	4142	4142	4142	4142	4093	4093	4093	4093	4045	4093	4093	4093	4093	4142	4093	4142	4142	4142	4142	4142	4093	4093	4045	4045	4045	4093	4093	4142	4192	4192	4192	4192	4192	4243	4243	4243	4243	4243	4243	4243	4243	6018	5915	5815	5915	5915	5915	5915	5915	5915	5915	5915	5915	5915	5915	6018	6124	6124	6124	6018	6018	6018	6124	6124	6235	6235	6349	6235	6235	6235	6235	6124	6124	6018	6018	6018	6018	6018	5915	5915	5915	5915	5915	5915	5915	5915	5915	6018	6018	6018	6018	6018	0	0	0	0	0	0	0	0	0	0	0	0	0	0	0	0	0	0	0	0	0	0	0	0	0	0	0	0	0	0	0	0	0	0	0	0	0	0	0	0	0	0	0	0	0	0
0	0	0	0	0	0	1193	1193	1197	1197	1206	1206	1210	1210	1210	1219	1227	1232	1232	1240	1249	1249	1254	1259	1272	1277	1282	1282	1282	1287	1291	1296	1296	1301	1306	1311	1316	1316	1316	1316	1316	1316	1316	1316	1316	1316	1321	1321	1326	1326	1331	1336	1336	1342	1342	0	0	1138	1138	1134	1134	1131	1127	1127	1131	1127	1127	1127	1127	1131	1127	1127	1127	1127	1127	1127	1127	1127	1131	1131	1127	1131	1131	1131	1131	1134	1134	1138	1142	1142	1142	1142	0	0	0	1206	1206	1206	1210	1210	1210	1214	1219	1223	1223	1227	1223	1223	1232	1236	1240	1240	1254	1245	1245	1245	1245	1263	1272	1282	1282	1282	1277	1277	1282	1282	1287	1287	1291	1296	1296	1301	1311	1316	1316	1316	1316	1321	0	0	0	0	0	0	1374	1374	1379	1379	1379	1402	1407	1407	0	0	0	0	0	0	4838	4838	4838	4771	4771	4771	4771	4771	4771	4771	4838	4771	4838	4838	4838	4838	4838	4838	4838	4838	4838	4838	4838	4838	4838	4838	4838	4838	4838	4838	4838	4838	4838	4838	4771	4771	4771	4771	4771	4771	4771	4771	4706	4771	4771	4706	4706	4771	4771	4771	4771	4771	4771	4771	4771	4771	4771	4771	4771	4771	4771	4771	4771	4771	4771	4771	4771	4771	4771	4771	4771	4771	4771	4771	4771	4771	4771	4771	4771	4771	4771	4771	4771	4771	4771	4771	4771	4771	4706	4706	4706	4771	4771	4771	4771	4771	4771	4771	4771	4771	4771	4771	4771	4771	4771	4771	4706	4706	4706	4706	4706	4706	4771	4771	4771	4771	4771	4771	4771	4771	4771	4771	4771	4771	4771	4771	4771	4771	4771	4771	4771	4771	4771	4771	4771	4771	4771	4771	4771	4771	4771	4771	4771	4706	4771	4771	4771	4771	4771	4771	4771	4771	4771	4771	4771	4771	4771	4706	4706	4706	4706	3440	3406	3406	3406	3373	3373	3373	3373	3373	3341	3341	3341	3341	3309	3277	3277	3309	3309	3309	3309	3341	3341	3341	3373	3373	3406	3406	0	0	0	0	0	0	0	0	0	0	0	0	4296	4296	4296	4296	4296	4296	4296	4296	4296	4296	4296	4296	4296	4296	4296	4296	4296	4296	4296	4296	4296	4296	4296	4296	4296	4350	4406	4406	4406	4406	4406	4406	4463	4406	4463	4463	4463	4463	4463	4463	4463	4463	4463	4463	4463	4463	4463	4463	4463	4463	4463	4521	4521	4581	4706	4706	4706	4706	4706	4706	4706	4706	4706	4706	4706	4706	4706	4706	4706	4706	4706	4643	4643	4643	4643	4643	4643	4643	4581	4581	4581	4581	4581	4521	4521	4521	4463	4463	4463	4406	4350	4192	4192	4296	4243	4243	4296	4243	4296	4296	4296	4243	4243	4192	4192	4192	4142	4142	4142	4142	4142	4142	4093	4142	4142	4142	4192	4192	4142	4142	4142	4142	4142	4142	4093	4093	4093	4093	4093	4093	4093	4093	4093	4093	4093	4142	4093	4093	4093	4093	4142	4142	4142	4142	4142	4142	4142	4142	4093	4093	4045	4045	4045	4093	4093	4093	4093	4142	4142	4142	4142	4093	4093	4093	4093	4045	4045	4093	4045	4093	4093	4142	4192	4192	4192	4192	4243	4243	4243	4243	4243	4296	4296	4296	4296	5915	5915	5915	5915	5915	5915	5915	5915	5915	5915	5915	5915	5915	6018	6018	6018	6018	6124	6018	6018	6018	6124	6124	6235	6235	6235	6235	6235	6235	6235	6235	6235	6018	6018	6018	6018	0	5915	5915	5915	5915	5915	5915	5915	6018	6018	6018	6018	6018	5915	5915	0	0	0	0	0	0	0	0	0	0	0	0	0	0	0	0	0	0	0	0	0	0	0	0	0	0	0	0	0	0	0	0	0	0	0	0	0	0	0	0	0	0	0	0	0	0
0	0	0	0	0	0	1193	1193	1197	1202	1206	1206	1210	1210	1210	1219	1227	1232	1232	1240	1245	1249	1249	1254	1272	1277	1282	1282	1282	1287	1291	1291	1296	1301	1306	1316	1316	1316	1321	1321	1321	1321	1316	1316	1316	1316	1321	1321	1326	1331	1336	1331	1331	1331	1342	0	1127	1127	1127	1127	1131	1127	1127	1127	1127	1127	1138	1138	1138	1134	1127	1127	1127	1127	1127	1127	1127	1127	1131	1131	1127	1131	1138	1134	1134	1138	1138	1142	1142	1142	1142	1142	0	0	0	1206	1206	1206	1206	1210	1210	1214	1219	1223	1223	1227	1232	1236	1240	1245	1245	1249	1249	1249	1249	1254	1259	1263	1268	1277	1277	1277	1277	1277	1282	1291	1291	1296	1291	1291	1296	0	1311	1316	1316	1316	1331	1331	1331	1331	0	0	0	0	1374	1379	1379	1402	1402	1407	1407	1407	0	0	0	0	0	0	4838	4838	4838	4838	4771	4771	4771	4771	4771	4771	4771	4771	4771	4838	4771	4838	4771	4838	4838	4838	4838	4838	4838	4838	4838	4838	4838	4838	4838	4838	4771	4771	4771	4771	4771	4771	4771	4771	4771	4771	4706	4706	4706	4706	4706	4706	4706	4706	4771	4771	4771	4771	4771	4771	4771	4771	4771	4771	4771	4771	4771	4771	4771	4771	4771	4771	4771	4771	4771	4771	4771	4771	4771	4771	4771	4771	4771	4771	4771	4771	4771	4771	4771	4771	4771	4771	4771	4771	4771	4706	4771	4771	4771	4771	4771	4771	4771	4771	4771	4771	4771	4771	4771	4771	4771	4771	4706	4706	4706	4706	4706	4771	4771	4771	4771	4771	4771	4771	4771	4771	4771	4771	4771	4771	4771	4771	4771	4771	4771	4771	4771	4771	4771	4771	4771	4771	4771	4771	4771	4771	4771	4771	4771	4771	4771	4771	4771	4771	4771	4771	4771	4771	4771	4771	4771	4771	4771	4643	4706	4706	3440	3440	3406	3406	3373	3373	3373	3373	3341	3341	3341	3341	3309	3309	3309	3309	3309	3309	3309	3341	3341	3341	3341	3341	3341	3373	3373	3373	0	0	0	0	0	0	0	0	0	0	0	4350	4350	4296	4296	4296	4296	4296	4296	4296	4296	4296	4350	4296	4296	4296	4296	4296	4296	4296	4296	4296	4296	4296	4296	4296	4296	4296	4406	4406	4406	4406	4406	4463	4463	4463	4463	4463	4463	4463	4463	4463	4463	4463	4463	4463	4463	4463	4463	4463	4463	4463	4463	4521	4521	4643	4643	4706	4706	4706	4706	4706	4706	4706	4706	4706	4706	4706	4706	4706	4706	4706	4643	4643	4643	4643	4643	4643	4643	4643	4643	4581	4581	4581	4521	4521	4521	4463	4463	4463	4463	4406	4406	4350	4350	4350	4296	4296	4350	4350	4350	4296	4296	4243	4243	4192	4192	4192	4142	4142	4142	4142	4142	4142	4093	4142	4142	4142	4192	4192	4192	4142	4142	4142	4142	4142	4093	4093	4093	4093	4093	4192	4142	4093	4093	4045	4093	4093	4093	4093	4093	4142	4142	4142	4142	4192	4142	4142	4142	4142	4093	4093	4045	4045	4045	4093	4093	4093	4093	4142	4093	4142	4093	4093	4093	4093	4093	4093	4045	4093	4045	4045	4093	4142	4192	4192	4192	4192	4243	4243	4243	4243	4243	4243	4243	4243	4243	4243	5915	5915	5915	5915	5915	5915	5915	5915	5915	5915	5915	6018	6018	6018	6018	6018	6124	6018	6018	6018	6018	6124	6124	6235	6235	6235	6235	6235	6235	6235	6235	6235	6235	6235	0	0	5915	5915	5915	5915	5915	6018	6018	6018	6018	6018	6018	6018	5815	5815	0	0	0	0	0	0	0	0	0	0	0	0	0	0	0	0	0	0	0	0	0	0	0	0	0	0	0	0	0	0	0	0	0	0	0	0	0	0	0	0	0	0	0	0	0	0
0	0	0	0	0	0	1193	1193	1197	1202	1202	1206	1210	1210	1210	1219	1223	1227	1227	1232	1245	1245	1249	1259	1277	1277	1282	1282	1282	1287	1287	1291	1296	1301	1311	1316	1316	1321	1321	1316	1321	1321	1321	1316	1316	1321	1321	1321	1331	1331	1336	1336	1336	1336	0	0	1127	1127	1127	1123	1131	1127	1127	1127	1131	1127	1138	1138	1138	1134	1134	1134	1131	1127	1127	1127	1127	1131	1131	1131	1131	1131	1131	1131	1131	1138	1138	1138	1142	1142	1142	1142	0	0	1206	1206	1206	1206	1206	1206	1206	1210	1210	1219	1223	1232	1236	1240	1245	1245	1249	1249	1254	1254	1254	1254	1259	1268	1272	1277	1277	1277	1277	1277	1282	1291	1287	1296	1296	1291	0	0	0	0	0	0	1331	1331	1331	1336	1352	1352	0	0	1374	1374	1374	1396	1402	1407	1407	1407	0	0	0	0	0	0	4906	4838	4838	4838	4838	4771	4771	4771	4771	4771	4771	4771	4771	4838	4838	4838	4838	4838	4838	4838	4838	4838	4838	4838	4838	4838	4838	4838	4838	4838	4771	4771	4771	4771	4706	4771	4771	4771	4771	4771	4706	4771	4706	4771	4771	4706	4706	4771	4771	4771	4771	4771	4771	4771	4771	4771	4771	4771	4771	4838	4771	4771	4771	4771	4771	4771	4771	4771	4771	4771	4771	4771	4771	4771	4771	4771	4771	4771	4771	4771	4771	4771	4771	4771	4771	4771	4706	4771	4706	4706	4771	4771	4771	4771	4771	4771	4771	4771	4771	4771	4771	4771	4771	4771	4771	4771	4706	4706	4706	4706	4706	4706	4771	4771	4771	4771	4771	4771	4771	4771	4771	4771	4771	4771	4771	4771	4771	4771	4771	4771	4771	4771	4771	4771	4771	4771	4771	4771	4771	4771	4771	4771	4771	4771	4771	4771	4771	4771	4771	4771	4771	4771	4771	4771	4771	4771	4771	4706	4706	3406	3373	3373	3373	3373	3373	3373	3341	3373	3341	3341	3309	3309	3309	3309	3309	3309	3309	3309	3341	3341	3309	3309	3309	3341	3341	3341	3341	3341	0	0	0	0	0	0	0	0	0	0	0	4350	4350	4350	4350	4296	4296	4296	4296	4296	4296	4296	4296	4296	4296	4296	4296	4296	4296	4296	4296	4296	4296	4296	4296	4296	4296	4296	4350	4406	4406	4406	4463	4463	4463	4463	4463	4463	4463	4463	4463	4463	4463	4463	4463	4463	4463	4463	4463	4463	4463	4463	4463	4521	4521	4643	4643	4706	4706	4706	4706	4706	4706	4706	4706	4706	4706	4706	4643	4643	4706	4643	4643	4643	4643	4581	4581	4643	4643	4643	4581	4581	4581	4581	4521	4463	4463	4463	4463	4463	4463	4296	4350	4243	4243	4243	4296	4296	4296	4296	4296	4296	4296	4243	4192	4192	4192	4192	4142	4142	4142	4142	4142	4142	4093	4093	4093	4142	4142	4142	4142	4142	4142	4142	4142	4192	4142	4142	4093	4093	4093	4192	4142	4093	4093	4093	4093	4093	4142	4142	4093	4142	4142	4142	4142	4142	4142	4142	4142	4093	4093	4093	4045	4045	4045	4093	4093	4093	4093	4142	4142	4142	4093	4093	4093	4093	4093	4045	4045	4093	4142	4093	4093	4093	4142	4192	4192	4192	4192	4243	4243	4192	4243	4243	4296	4296	4296	4243	5915	5915	5915	5915	5915	6018	6018	6018	5915	6018	6018	6018	5915	6018	6018	6018	6124	6018	6018	6018	6018	6018	6124	6124	6235	6235	6235	6235	6235	6349	6349	6235	6235	6235	0	0	0	5915	6018	6018	6018	6018	6018	6018	6018	6018	6018	5915	6018	6018	0	0	0	0	0	0	0	0	2869	2869	0	0	0	0	0	0	0	0	0	0	0	0	0	0	0	0	0	0	0	0	0	0	0	0	0	0	0	0	0	0	0	0	0	0	0	0
0	0	0	0	0	0	1189	1189	1193	1197	1202	1206	1206	1210	1210	1219	1219	1227	1227	1232	1240	1245	1245	1249	1272	1277	1282	1282	1287	1287	1291	1291	1296	1301	1311	1316	1321	1321	1326	1316	1326	1326	1326	1321	1321	1321	1326	1326	1331	1326	1336	1336	1336	1123	1123	1123	1127	1123	1127	1123	1123	1127	1127	1127	1127	1138	1138	1138	1134	1134	1134	1127	1127	1127	1127	1127	1127	1131	1131	1131	1131	1131	1138	1131	1138	1138	1142	1142	1142	1142	1142	1142	0	0	1206	1206	1206	1206	1206	1206	1206	1210	1210	1227	1227	1236	1240	1236	1245	1245	1249	1249	1254	1254	1254	1254	1259	1259	1272	1272	1277	1277	1277	1287	1277	1287	1291	1291	1296	0	0	0	0	0	0	0	1331	1331	1336	1342	1352	1352	0	0	0	1374	1374	1396	1402	1407	1407	1407	1407	0	0	0	0	0	4906	4838	4771	4838	4838	4771	4771	4771	4771	4771	4771	4771	4838	4838	4838	4838	4906	4906	4771	4771	4838	4838	4838	4838	4838	4838	4838	4838	4838	4838	4838	4771	4771	4771	4706	4771	4706	4771	4771	4771	4771	4771	4771	4771	4771	4771	4771	4771	4771	4771	4771	4771	4771	4771	4771	4771	4771	4771	4771	4838	4838	4771	4771	4771	4771	4771	4771	4771	4771	4771	4771	4771	4771	4771	4771	4771	4771	4771	4771	4771	4771	4771	4771	4771	4771	4771	4771	4771	4706	4706	4706	4706	4771	4706	4771	4771	4771	4771	4771	4771	4771	4771	4771	4771	4771	4771	4771	4771	4771	4771	4706	4706	4771	4771	4771	4771	4771	4771	4771	4771	4771	4771	4771	4706	4771	4771	4771	4771	4771	4771	4771	4771	4771	4771	4771	4771	4771	4771	4771	4771	4771	4771	4771	4771	4771	4771	4771	4771	4771	4771	4771	4771	4771	4771	4771	4771	4771	3406	3373	3373	3373	3373	3373	3373	3373	3373	3341	3341	3341	3341	3309	3309	3309	3309	3309	3309	3309	3309	3309	3309	3309	3309	3309	3341	3341	3341	3341	3341	0	0	0	0	0	0	0	0	0	0	0	0	0	4350	4296	4296	4296	4296	4296	4296	4296	4296	4296	4296	4296	4296	4296	4296	4296	4296	4296	4296	4296	4296	4296	4296	4296	4350	4350	4406	4406	4406	4463	4463	4463	4463	4463	4463	4463	4463	4463	4463	4521	4463	4463	4463	4463	4463	4463	4463	4406	4463	4463	4463	4463	4581	4643	4643	4706	4706	4706	4706	4706	4706	4706	4706	4706	4706	4643	4706	4643	4643	4643	4581	4581	4581	4581	4581	4581	4581	4581	4581	4581	4521	4521	4463	4463	4406	4406	4463	4296	4243	4243	4243	4296	4296	4243	4296	4296	4296	4296	4296	4243	4243	4192	4192	4192	4192	4142	4142	4142	4093	4142	4093	4093	4093	4093	4093	4142	4142	4142	4142	4142	4142	4142	4192	4142	4142	4093	4093	4093	4192	4142	4093	4093	4093	4093	4093	4093	4142	4093	4093	4142	4142	4142	4142	4142	4093	4093	4093	4093	4093	4045	4045	4093	4093	4093	4093	4093	4142	4142	4093	4093	4093	4093	4093	4093	4045	4045	4093	4093	4093	4093	4093	4192	4192	4192	4192	4192	4243	4192	4192	4243	4243	4243	4243	4243	0	6018	5915	5915	6018	6018	6018	6018	6018	6018	6018	5915	5915	5915	5915	6018	6018	6018	6018	6018	6018	6018	6018	6018	6124	6124	6124	6124	6235	6235	6349	6349	6349	6349	0	0	0	0	0	6018	6018	6124	6124	6018	6124	6018	6018	6018	5915	6018	6018	0	0	0	0	0	0	0	0	2869	2869	0	0	0	0	0	0	0	0	0	0	0	0	0	0	0	0	0	0	0	0	0	0	0	0	0	0	0	0	0	0	0	0	0	0	0	0
0	0	0	0	0	0	1189	1189	1189	1193	1197	1202	1206	1210	1210	1219	1223	1227	1227	1227	1236	1240	1245	1245	1277	1282	1282	1287	1287	1291	1291	1296	1296	1301	1306	1316	1316	1321	1326	1331	1326	1326	1326	1321	1321	1326	1326	1326	1331	1331	1336	1331	1127	1123	1123	1123	1127	1123	1123	1120	1120	1123	1123	1123	1127	1127	1134	1138	1134	1134	1131	1131	1131	1127	1127	1127	1127	1131	1131	1131	1127	1131	1134	1131	1131	1138	1142	1138	1142	1142	1138	1138	0	0	1206	1206	1206	1206	1206	1206	1206	1210	1210	1236	1236	1240	1240	1240	1245	1245	1249	1249	1254	1259	1259	1259	1263	1263	1272	1272	1277	1277	1277	1277	1282	1282	1291	1291	0	0	0	0	0	0	0	0	1331	1336	1336	1347	1352	1352	1352	1352	1374	1379	1385	1396	1402	1407	1407	1407	1407	0	0	0	0	0	4838	4838	4838	4838	4838	4771	4771	4771	4771	4771	4771	4771	4771	4771	4771	4771	4771	4838	4838	4838	4838	4838	4838	4838	4838	4838	4838	4838	4838	4838	4771	4771	4771	4771	4706	4771	4706	4771	4771	4771	4771	4771	4771	4771	4771	4771	4706	4771	4771	4771	4771	4771	4771	4771	4838	4838	4771	4771	4771	4838	4771	4771	4771	4771	4771	4771	4771	4771	4771	4771	4771	4771	4771	4771	4771	4771	4771	4771	4771	4771	4771	4771	4771	4771	4771	4771	4771	4771	4771	4771	4771	4771	4771	4771	4771	4771	4771	4771	4771	4771	4771	4771	4838	4838	4771	4838	4771	4771	4771	4771	4706	4706	4706	4706	4771	4771	4771	4771	4771	4771	4706	4771	4771	4771	4771	4771	4771	4771	4706	4706	4771	4771	4771	4771	4771	4771	4771	4771	4771	4771	4771	4771	4771	4771	4771	4771	4771	4771	4771	4771	4771	4771	4771	4771	4706	4706	3373	3373	3341	3373	3341	3341	3341	3373	3373	3341	3341	3341	3341	3341	3309	3309	3309	3309	3309	3309	3309	3309	3309	3309	3309	3309	3309	3341	3341	3341	3341	3341	0	0	0	0	0	0	0	0	0	0	0	0	0	0	4296	4296	4296	4296	4296	4296	4296	4296	4296	4296	4296	4296	4296	4296	4296	4296	4296	4296	4296	4296	4296	4296	4296	4350	4350	4406	4406	4406	4463	4463	4463	4463	4463	4463	4463	4463	4463	4463	4463	4463	4463	4463	4406	4406	4406	4406	4406	4406	4406	4463	4521	4581	4581	4643	4706	4706	4706	4706	4706	4643	4643	4643	4643	4521	4521	4521	4581	4581	4521	4521	4521	4521	4521	4521	4521	4463	4463	4521	4521	4521	4463	4406	4406	4406	4350	4406	4243	4243	4243	4192	4243	4243	4243	4243	4296	4296	4296	4296	4296	4243	4192	4192	4142	4142	4142	4142	4093	4093	4142	4093	4093	4093	4093	4093	4142	4093	4142	4142	4142	4142	4142	4192	4142	4142	4142	4192	4142	4142	4142	4093	4142	4093	4093	4093	4093	4142	4142	4142	4142	4142	4142	4142	4142	4142	4093	4093	4142	4093	4045	4045	4045	4093	4093	4093	4142	4142	4142	4142	4045	4093	4093	4093	4093	4045	4045	4045	4093	4093	4093	4093	4192	4192	4192	4192	4192	4243	4243	4192	4243	4243	4243	4243	4243	0	6018	6018	6018	6018	6018	6018	6018	6018	6018	6018	6018	6018	6018	6018	6018	6018	6018	6018	6018	6018	5915	5915	6018	6018	6018	6124	6124	6235	6235	6349	6235	6235	6349	0	0	0	0	0	0	0	6124	6124	6124	6124	6018	6018	6018	5915	5915	6018	0	0	0	0	0	0	0	0	2845	2845	0	0	0	0	0	0	0	0	0	0	0	0	0	0	0	0	0	0	0	0	0	0	0	0	0	0	0	0	0	0	0	0	0	0	0	0
0	0	0	0	0	0	1189	1189	1193	1197	1197	1202	1206	1214	1214	1219	1223	1227	1227	1227	1236	1240	1245	1249	1277	1282	1287	1287	1291	1291	1291	1296	1296	1301	1306	1311	1316	1316	1326	1326	1331	1331	1331	1326	1321	1321	1321	1336	1336	1336	1336	1336	1127	1127	1123	1123	1127	1123	1123	1123	1123	1120	1123	1120	1123	1127	1134	1138	1134	1131	1131	1127	1127	1127	1127	1127	1127	1127	1127	1131	1127	1131	1138	1138	1138	1138	1142	1138	1138	1138	1138	1138	0	0	1206	1206	1206	1206	1206	1206	1206	1206	1206	1240	1240	1240	1245	1240	1245	1245	1249	1249	1259	1259	1263	1263	1263	1268	1272	1272	1277	1277	1277	1282	1287	1291	1291	0	0	0	0	0	0	0	0	0	1331	1336	1342	1347	1347	1352	1358	1363	1374	1379	1390	1396	1402	1407	1407	1407	0	0	0	0	0	0	4838	4838	4838	4838	4838	4838	4771	4771	4771	4771	4771	4771	4771	4771	4771	4771	4771	4771	4771	4771	4771	4838	4838	4838	4838	4838	4838	4838	4838	4838	4771	4771	4771	4771	4706	4771	4706	4771	4771	4771	4771	4771	4771	4771	4771	4771	4771	4771	4771	4771	4771	4771	4771	4771	4771	4771	4771	4771	4771	4771	4771	4771	4771	4771	4838	4771	4771	4771	4771	4771	4771	4771	4771	4771	4771	4771	4706	4706	4771	4771	4771	4771	4771	4771	4771	4771	4771	4771	4771	4771	4771	4771	4771	4771	4771	4771	4771	4838	4771	4838	4838	4838	4838	4838	4771	4771	4771	4771	4771	4771	4771	4771	4771	4771	4771	4771	4771	4771	4771	4771	4771	4771	4771	4771	4771	4771	4771	4771	4706	4706	4771	4771	4771	4771	4771	4771	4771	4771	4771	4771	4771	4771	4771	4771	4771	4771	4771	4838	4838	4838	4838	4838	3440	3440	3440	3406	3341	3341	3341	3341	3341	3341	3341	3341	3341	3341	3341	3341	3341	3341	3309	3309	3309	3309	3341	3341	3309	3341	3341	3341	3341	3341	3341	3341	3341	3341	3341	3373	3406	3406	3406	3406	0	0	0	0	0	0	0	0	0	4296	4296	4296	4296	4296	4296	4296	4296	4296	4296	4296	4296	4296	4296	4296	4350	4350	4296	4296	4296	4296	4296	4296	4296	4350	4350	4406	4406	4406	4406	4463	4406	4406	4463	4463	4463	4463	4463	4463	4406	4406	4463	4463	4406	4406	4406	4406	4406	4406	4406	4406	4463	4521	4581	4643	4643	4643	4643	4643	4643	4581	4581	4521	4406	4406	4406	4406	4463	4463	4463	4406	4463	4463	4406	4406	4463	4406	4406	4406	4350	4463	4350	4296	4296	4296	4296	4296	4296	4243	4243	4192	4192	4192	4243	4243	4243	4296	4296	4296	4243	4243	4192	4142	4093	4093	4093	4142	4045	4045	4142	4142	4142	4093	4142	4142	4142	4142	4192	4142	4192	4192	4192	4192	4192	4142	4142	4142	4093	4142	4142	4093	4093	4093	4093	4093	4093	4093	4093	4142	4142	4142	4142	4142	4142	4093	4093	4093	4093	4093	4045	4045	4045	4045	4093	4093	4093	4142	4142	4093	4045	4093	4093	4045	4045	4045	4045	4045	4093	4045	4045	4093	4192	4192	4192	4192	4192	4243	4243	4192	4243	4243	4243	4296	4296	4296	6018	6018	5915	5915	6018	6018	6018	6018	6018	6018	6018	6018	6018	6018	6018	6018	6018	6018	6018	5915	5915	5915	5915	5915	6018	6018	6124	6124	6235	6235	6235	6235	0	0	0	0	0	0	0	0	0	6018	6018	6018	6018	6018	6018	6018	5915	0	0	0	0	0	0	0	0	2845	2845	2845	0	0	0	0	0	0	0	0	0	0	0	0	0	0	0	0	0	0	0	0	0	0	0	0	0	0	0	0	0	0	0	0	0	0	0	0
0	0	0	0	0	0	1189	1189	1189	1193	1197	1202	1206	1214	1219	1219	1223	1227	1227	1227	1236	1245	1249	1249	1272	1277	1287	1291	1291	1291	1291	1296	1296	1301	1306	1311	1316	1316	1326	1331	1336	1331	1336	1336	1374	1374	1374	1374	1342	1342	1342	1342	1336	1131	1127	1123	1127	1123	1127	1120	1123	1120	1127	1127	1131	1131	1134	1134	1134	1131	1127	1127	1127	1127	1123	1127	1127	1127	1131	1131	1131	1134	1138	1138	1138	1138	1142	1142	1142	1138	0	0	0	0	0	1206	1206	1206	1210	1206	1206	1206	1206	1240	1240	1240	1245	1240	1245	1245	1249	1249	1259	1263	1263	1263	1263	1272	1272	1272	1272	1282	1287	1291	1291	1291	1291	0	0	0	0	0	0	0	0	0	1331	1336	1342	1352	1352	1352	1358	1368	1379	1390	1396	1396	1396	1402	1402	1413	1413	0	0	0	0	0	4838	4838	4838	4838	4838	4838	4838	4838	4838	4771	4771	4838	4838	4838	4771	4771	4771	4771	4771	4771	4771	4771	4771	4838	4838	4838	4838	4838	4838	4838	4771	4771	4771	4771	4706	4771	4771	4771	4771	4771	4771	4771	4771	4771	4771	4771	4771	4771	4771	4771	4771	4771	4771	4771	4771	4771	4771	4771	4771	4771	4771	4771	4771	4771	4771	4771	4771	4771	4771	4771	4771	4771	4771	4771	4771	4771	4771	4771	4771	4771	4771	4771	4771	4771	4771	4771	4706	4706	4771	4771	4771	4771	4771	4771	4771	4771	4771	4838	4771	4838	4838	4838	4838	4771	4771	4771	4771	4771	4771	4771	4706	4771	4771	4771	4771	4771	4771	4771	4771	4771	4771	4771	4771	4771	4771	4771	4771	4771	4771	4771	4771	4771	4771	4771	4771	4771	4771	4771	4771	4771	4771	4771	4838	4771	4771	4838	4838	4838	3475	3475	3440	3440	3440	3406	3406	3373	3341	3341	3341	3341	3341	3309	3309	3341	3341	3341	3341	3341	3341	3341	3341	3341	3309	3309	3309	3309	3309	3341	3341	3309	3341	3341	3341	3341	3341	3341	3341	3373	3406	3373	3373	3406	3373	3406	3373	3373	3373	3373	3373	3341	3373	3373	3373	4296	4296	4296	4296	4296	4296	4296	4296	4296	4296	4296	4296	4296	4296	4296	4350	4296	4350	4350	4296	4296	4296	4350	4350	4406	4406	4406	4463	4463	4406	4406	4463	4406	4463	4463	4406	4406	4406	4406	4406	4406	4350	4350	4350	4406	4406	4406	4406	4406	4463	4521	4581	4643	4643	4643	4643	4643	4581	4521	4521	4350	4296	4350	4350	4350	4406	4463	4406	4406	4406	4406	4406	4350	4350	4350	4350	4296	4296	4296	4296	4296	4296	4296	4296	4296	4243	4243	4192	4192	4192	4192	4192	4192	4243	4296	4243	4243	4243	4243	4192	4192	4142	4192	4093	4142	4093	4093	4142	4142	4093	4093	4142	4142	4142	4142	4142	4142	4142	4142	4142	4192	4192	4142	4142	4093	4093	4093	4093	4093	4093	4093	4093	4093	4093	4093	4093	4093	4093	4093	4142	4142	4093	4093	4093	4093	4093	4093	4045	4045	4045	4045	4045	4093	4093	4093	4093	4093	4093	4093	4093	4045	4045	4045	4045	4045	4045	4045	4045	4093	4142	4192	4192	4192	4192	4243	4243	4243	4243	4296	4350	4296	4296	4296	4296	5915	5915	5915	5915	6018	6018	6018	6018	6018	6018	6018	6018	6018	6018	6018	6018	6018	6018	5915	5915	6018	6018	5915	6018	6018	6124	6124	6235	6235	6235	6235	6235	6235	0	0	0	0	0	0	0	6124	6124	6124	6124	6018	6018	6018	0	0	0	0	0	0	0	2869	2845	2845	2845	2845	0	0	0	0	0	0	0	0	0	0	0	0	0	0	0	0	0	0	0	0	0	0	0	0	0	0	0	0	0	0	0	0	0	0	0	0
0	0	0	0	0	0	1185	1189	1193	1197	1197	1202	1210	1214	1219	1223	1223	1227	1227	1232	1236	1240	1245	1249	1268	1272	1282	1291	1291	1291	1291	1296	1301	1301	1306	1316	1316	1316	1321	1326	1336	1336	1352	1368	1374	1374	1374	1374	1374	1347	1347	1342	1342	1131	1127	1127	1127	1127	1127	1123	1123	1123	1127	1127	1127	1127	1131	1134	1131	1127	1127	1127	1127	1127	1123	1127	1127	1127	1127	1131	1131	1134	1138	1138	1138	1138	1142	1142	1142	0	0	0	0	0	0	1202	1206	1206	1210	1210	1210	1206	1206	0	0	1240	1240	1240	1245	1245	1249	1249	1259	1259	1268	1268	1268	1272	1277	1272	1277	1282	1287	1291	1296	1296	1296	1296	0	0	0	0	0	0	0	1331	1336	1336	1347	1352	1358	1363	1363	1379	1390	1390	1396	1396	1402	1402	1407	1407	1407	0	0	0	0	0	4838	4906	4838	4838	4838	4838	4838	4838	4838	4838	4838	4838	4838	4838	4771	4771	4771	4771	4771	4771	4771	4771	4771	4771	4838	4838	4771	4838	4771	4771	4771	4771	4771	4771	4706	4771	4771	4771	4771	4771	4771	4771	4771	4771	4838	4771	4771	4771	4771	4771	4771	4771	4771	4771	4771	4771	4771	4771	4771	4771	4771	4771	4771	4771	4771	4771	4771	4771	4771	4771	4771	4771	4771	4771	4771	4771	4771	4771	4771	4771	4771	4771	4771	4771	4771	4771	4706	4706	4771	4771	4771	4771	4771	4771	4771	4838	4838	4838	4771	4771	4771	4771	4771	4771	4771	4771	4771	4771	4771	4771	4706	4771	4771	4706	4771	4771	4771	4771	4771	4771	4771	4771	4771	4771	4771	4771	4771	4771	4771	4771	4771	4771	4771	4771	4771	4771	4771	4771	4771	4771	4771	4771	4838	4838	3440	3475	3475	3475	3475	3475	3440	3440	3440	3406	3406	3373	3341	3341	3341	3341	3341	3309	3341	3341	3341	3341	3341	3341	3341	3341	3341	3341	3309	3309	3309	3309	3309	3341	3341	3341	3341	3341	3341	3341	3341	3341	3341	3406	3406	3373	3373	3406	3373	3373	3373	3373	3373	3373	3373	3373	3373	3373	3373	3406	3406	4296	4296	4296	4350	4296	4296	4296	4296	4296	4296	4296	4296	4296	4350	4350	4350	4350	4296	4296	4296	4296	4350	4350	4350	4406	4406	4406	4406	4406	4406	4406	4406	4463	4406	4406	4406	4406	4406	4406	4350	4350	4350	4406	4406	4406	4406	4406	4463	4521	4521	4581	4643	4643	4643	4643	4581	4463	4463	4296	4296	4296	4296	4296	4296	4350	4350	4350	4350	4350	4350	4296	4296	4350	4296	4296	4243	4243	4243	4243	4296	4243	4243	4243	4243	4243	4243	4192	4192	4243	4192	4243	4243	4243	4243	4243	4243	4192	4192	4192	4142	4142	4142	4142	4093	4093	4142	4142	4093	4093	4142	4142	4142	4142	4142	4142	4142	4142	4142	4142	4192	4142	4142	4093	4093	4093	4093	4093	4093	4093	4093	4093	4093	4142	4142	4093	4142	4142	4142	4142	4142	4093	4093	4093	4093	4045	4045	4045	4045	4045	4093	4045	4093	4093	4093	4093	4093	4093	4142	4093	4093	4045	4045	4045	4093	4045	4045	4093	4142	4192	4192	4192	4192	4243	4243	4243	4243	4296	4350	4296	4296	4296	4296	5915	5915	5915	5915	6018	6018	6018	6018	6018	6018	6018	6018	6018	6018	6018	6018	6018	6018	6018	6018	6018	6018	5915	6018	6018	6124	6124	6235	6235	6235	6349	6235	6349	6349	6349	0	0	0	0	0	6124	6124	6124	6124	6124	6018	6018	0	0	0	0	0	0	2893	2893	2869	2845	2845	2845	0	0	0	0	0	0	0	0	0	0	0	0	0	0	0	0	0	0	0	0	0	0	0	0	0	0	0	0	0	0	0	0	0	0	0	0
0	0	0	0	0	0	1185	1189	1193	1197	1197	1202	1210	1214	1214	1219	1223	1227	1227	1232	1240	1245	1249	1254	1263	1268	1277	1287	1287	1291	1291	1296	1301	1306	1311	1316	1316	1316	1321	1331	1336	1336	1352	1358	1368	1368	1374	1374	1374	1374	1336	1336	1336	1131	1131	1127	1131	1127	1127	1123	1123	1123	1123	1123	1127	1123	1127	1131	1127	1127	1127	1127	1127	1123	1123	1127	1127	1127	1127	1131	1127	1131	1134	1134	1138	1138	1138	1142	1142	0	0	0	0	0	0	1206	1206	1206	1210	1210	1210	0	0	0	0	1240	1240	1240	1245	1249	1249	1254	1259	1268	1272	1272	1272	1272	1277	1277	1277	1282	1287	1296	1296	1296	1296	1296	0	0	0	0	0	0	1336	1342	1336	1347	1347	1352	1358	1358	1363	1385	1390	1390	1396	1396	1402	1402	1407	1407	1437	1437	0	0	0	0	0	4838	4838	4838	4838	4906	4838	4838	4838	4838	4838	4838	4838	4838	4838	4838	4838	4838	4771	4771	4771	4771	4771	4771	4771	4771	4771	4838	4771	4771	4771	4771	4771	4838	4771	4771	4771	4771	4771	4771	4771	4771	4771	4771	4771	4771	4771	4771	4771	4771	4771	4771	4771	4771	4771	4771	4771	4771	4771	4838	4771	4771	4771	4771	4771	4771	4771	4771	4771	4771	4771	4771	4771	4771	4771	4771	4771	4771	4771	4771	4771	4771	4706	4771	4706	4706	4706	4706	4706	4771	4771	4771	4771	4771	4771	4771	4838	4838	4771	4771	4771	4771	4771	4771	4771	4771	4771	4771	4771	4771	4706	4771	4771	4706	4771	4771	4771	4771	4771	4771	4771	4771	4771	4771	4771	4771	4771	4771	4771	4771	4771	4771	4771	4771	4771	4771	4771	4771	4771	4771	4771	3406	3406	3406	3406	3440	3440	3440	3440	3440	3440	3440	3406	3406	3406	3341	3341	3341	3341	3341	3341	3309	3341	3341	3341	3309	3341	3341	3341	3341	3341	3341	3341	3309	3309	3309	3309	3341	3341	3309	3341	3341	3341	3341	3341	3341	3341	3406	3406	3406	3373	3406	3373	3373	3341	3373	3373	3373	3373	3373	3373	3373	3373	3406	3406	3406	4296	4296	4296	4296	4296	4296	4296	4296	4296	4296	4296	4296	4296	4350	4350	4350	4296	4296	4296	4296	4350	4350	4350	4406	4406	4406	4406	4406	4406	4406	4406	4406	4406	4406	4406	4406	4406	4406	4350	4350	4350	4406	4406	4406	4406	4406	4406	4521	4521	4581	4643	4643	4643	4643	4521	4406	4406	4296	4296	4296	4296	4296	4296	4296	4296	4350	4350	4350	4350	4350	4350	4350	4296	4296	4243	4243	4243	4243	4243	4243	4243	4243	4243	4243	4243	4192	4192	4243	4192	4192	4192	4243	4192	4243	4192	4192	4192	4192	4192	4192	4192	4192	4093	4093	4142	4142	4093	4093	4093	4093	4142	4142	4142	4093	4142	4142	4142	4142	4142	4142	4093	4093	4093	4093	4093	4093	4093	4093	4093	4093	4093	4142	4142	4093	4093	4093	4093	4093	4093	4093	4093	4093	4093	4045	4045	4045	4045	4093	4093	4093	4093	4093	4093	4093	4093	4142	4142	4093	4093	4093	4045	4045	4045	4045	4045	4093	4142	4192	4192	4192	4192	4243	4243	4243	4243	4296	4350	4296	4350	4350	4350	5915	5915	5915	5915	6018	6018	6018	6018	6018	6018	6018	6018	6018	6018	6018	6018	6018	6018	6018	6018	6018	6018	6018	6018	6018	6124	6235	6235	6235	6235	6349	6349	6349	6349	6349	0	0	0	0	6235	6124	6124	6124	6124	6124	6124	6124	0	0	0	0	0	2869	2893	2893	2869	2845	2845	2845	0	0	0	0	0	0	0	0	0	0	0	0	0	0	0	0	0	0	0	0	0	0	0	0	0	0	0	0	0	0	0	0	0	0	0	0
0	0	0	0	0	0	1189	1189	1193	1197	1202	1202	1210	1210	1214	1214	1223	1227	1227	1232	1245	1245	1249	1254	1259	1263	1272	1282	1282	1291	1291	1301	1301	1311	1311	1316	1316	1316	1321	1326	1342	1342	1352	1363	1368	1374	1374	1374	1374	1374	1336	1336	1342	1131	1131	1131	1131	1127	1127	1123	1123	1120	1123	1120	1123	1123	1123	1127	1123	1123	1123	1123	1127	1123	1123	1127	1127	1127	1127	1127	1127	1127	1127	1131	1138	1134	1142	1142	1142	0	0	0	0	0	0	1206	1206	1206	1214	1214	1214	0	0	0	1236	1240	1240	1240	1240	1245	1245	1254	1263	1272	1272	1272	1272	1277	1277	1282	1282	1282	1287	1291	1296	1296	1296	1301	1301	0	0	0	0	0	1336	1336	1336	1352	1358	1358	1363	1363	1368	1385	1390	1396	1396	1402	1402	1407	1407	1437	1437	1437	1437	0	0	0	0	4838	4771	4838	4838	4906	4906	4838	4906	4838	4906	4906	4838	4838	4838	4838	4838	4771	4771	4771	4771	4771	4771	4771	4771	4771	4771	4771	4771	4771	4771	4771	4771	4838	4771	4771	4771	4771	4771	4771	4771	4771	4771	4771	4771	4771	4771	4771	4771	4771	4771	4771	4771	4771	4771	4771	4771	4771	4771	4771	4771	4771	4771	4771	4771	4771	4771	4771	4771	4771	4771	4771	4771	4771	4771	4771	4771	4771	4771	4771	4771	4771	4771	4771	4771	4706	4706	4706	4706	4706	4706	4771	4771	4771	4771	4771	4838	4838	4771	4771	4771	4771	4771	4771	4706	4771	4771	4771	4706	4706	4706	4706	4771	4706	4771	4771	4771	4771	4771	4771	4771	4771	4771	4771	4771	4771	4771	4771	4771	4771	4771	4771	4771	4771	4771	4771	4771	4771	4771	4771	3406	3406	3406	3406	3406	3440	3440	3440	3440	3440	3440	3440	3406	3373	3406	3341	3341	3341	3341	3341	3341	3309	3341	3341	3341	3341	3341	3341	3373	3373	3341	3309	3341	3341	3341	3341	3341	3341	3341	3341	3341	3341	3341	3341	3341	3373	3373	3406	3406	3341	3341	3341	3373	3373	3373	3373	3373	3341	3373	3341	3341	3341	3373	3373	3406	3373	3373	4296	4296	4296	4296	4296	4296	4296	4296	4296	4296	4296	4350	4350	4350	4350	4296	4296	4296	4350	4350	4350	4350	4406	4406	4406	4406	4406	4406	4406	4406	4463	4463	4406	4406	4406	4406	4406	4406	4350	4350	4406	4406	4406	4406	4406	4406	4521	4521	4521	4643	4706	4643	4643	4581	4406	4406	4296	4296	4296	4296	4296	4296	4296	4296	4350	4350	4350	4296	4296	4296	4350	4296	4296	4296	4243	4243	4243	4296	4243	4243	4243	4243	4243	4243	4243	4192	4192	4192	4192	4192	4192	4192	4243	4192	4192	4192	4142	4192	4192	4142	4142	4093	4093	4093	4093	4093	4093	4142	4142	4142	4142	4142	4142	4142	4142	4142	4142	4142	4142	4142	4093	4093	4093	4093	4093	4093	4093	4093	4093	4093	4142	4093	4093	4093	4093	4093	4093	4093	4093	4093	4093	4093	4045	4045	4045	4045	4093	4093	4093	4093	4093	4093	4093	4093	4093	4093	4093	4045	4045	4045	4045	4045	4045	4045	4093	4142	4192	4192	4192	4192	4243	4243	4243	4243	4243	4350	4350	4350	4350	4350	5815	5815	5915	5915	6018	6018	6018	6018	6018	6018	6018	6018	6018	6018	6018	6124	6018	6018	6124	6018	6018	6018	6018	6018	6018	6124	6235	6235	6235	6235	6349	6349	6349	6349	6349	6349	0	0	6235	6235	6124	6124	6124	6124	6235	6235	6124	0	0	0	0	0	2869	2869	2869	2845	2845	2845	2845	0	0	0	0	0	0	0	0	0	0	0	0	0	0	0	0	0	0	0	0	0	0	0	0	0	0	0	0	0	0	0	0	0	0	0	0
0	0	0	0	0	0	1193	1193	1193	1202	1202	1206	1210	1214	1214	1219	1219	1227	1227	1232	1240	1245	1249	1254	1259	1263	1272	1277	1282	1287	1291	1301	1301	1311	1311	1311	1316	1316	1316	1326	1342	1347	1358	1368	1374	1379	1379	1374	1379	1379	1379	0	1134	1131	1131	1131	1131	1127	1127	1120	1120	1120	1120	1116	1120	1123	1123	1123	1123	1123	1123	1123	1123	1123	1123	1127	1127	1127	1127	1127	1127	1127	1127	1131	1138	1138	1146	1146	1146	1146	0	0	0	0	0	0	1206	1206	1206	1214	1214	0	0	0	1236	1240	1240	1240	1240	1245	1245	1245	1268	1272	1272	1272	1272	1272	1277	1277	1277	1282	1282	1291	1296	1301	1301	1306	1311	1316	1321	1321	1321	0	0	1336	1336	1358	1358	1368	1368	1368	1374	1385	1396	1396	1402	1402	1407	1413	1425	1437	1437	1437	1437	1437	0	0	0	0	4771	4838	4838	4906	4906	4906	4906	4906	4906	4906	4906	4838	4771	4771	4771	4771	4771	4771	4771	4771	4771	4771	4838	4771	4771	4771	4771	4706	4706	4706	4771	4838	4771	4771	4771	4771	4771	4771	4771	4771	4771	4771	4771	4771	4771	4771	4771	4771	4706	4771	4771	4771	4771	4771	4771	4771	4771	4771	4771	4771	4771	4771	4771	4771	4771	4771	4771	4771	4771	4771	4771	4771	4771	4838	4771	4771	4771	4771	4771	4771	4706	4771	4706	4706	4706	4706	4706	4771	4771	4771	4771	4771	4771	4771	4838	4838	4771	4771	4771	4771	4771	4706	4706	4706	4771	4706	4706	4706	4706	4706	4771	4706	4771	4771	4771	4771	4771	4771	4771	4771	4771	4771	4771	4771	4771	4771	4771	4771	4771	4771	4771	4771	4771	4771	4771	4771	3440	3440	3406	3406	3406	3373	3373	3406	3406	3406	3440	3440	3440	3440	3406	3373	3406	3341	3341	3341	3341	3341	3341	3309	3341	3341	3341	3341	3341	3341	3373	3373	3341	3341	3341	3341	3309	3341	3341	3309	3341	3341	3341	3341	3341	3341	3341	3341	3341	3341	3341	3341	3341	3341	3373	3373	3341	3341	3341	3341	3341	3341	3341	3341	3373	3373	3406	3373	3406	3406	3406	3406	4296	4296	4296	4296	4350	4350	4350	4350	4350	4350	4350	4350	4350	4296	4350	4350	4406	4350	4350	4406	4406	4406	4406	4406	4406	4406	4406	4463	4406	4406	4406	4406	4406	4406	4406	4406	4406	4406	4406	4406	4406	4406	4406	4463	4463	4521	4643	4706	4643	4581	4521	4406	4350	4296	4296	4296	4296	4296	4296	4296	4296	4350	4350	4350	4350	4350	4296	4296	4296	4296	4243	4243	4243	4243	4296	4243	4243	4243	4243	4296	4296	4243	4192	4192	4192	4192	4192	4192	4192	4243	4192	4192	4192	4142	4142	4142	4142	4142	4093	4093	4093	4093	4093	4093	4093	4142	4142	4142	4142	4142	4142	4142	4093	4142	4093	4093	4093	4093	4093	4093	4093	4093	4093	4093	4093	4093	4093	4093	4093	4093	4093	4093	4093	4093	4093	4093	4093	4093	4093	4093	4093	4093	4045	4093	4093	4093	4093	4093	4093	4093	4142	4142	4093	4093	4045	4093	4045	4045	4045	4045	4045	4093	4192	4192	4192	4192	4243	4243	4243	4243	4243	4296	4296	4350	4350	4350	4350	5815	5815	5815	5815	5915	5915	6018	6018	6018	6018	6018	6018	6018	6124	6124	6124	6018	6018	6124	6018	6018	6018	6018	6018	6018	6124	6235	6235	6235	6235	6349	6349	6349	6349	6349	6349	0	0	6235	6235	6235	6235	6235	6235	6235	6235	0	0	0	0	0	0	2869	2869	2893	2869	2845	2845	2845	0	0	0	0	0	0	0	0	0	0	0	0	0	0	0	0	0	0	0	0	0	0	0	0	0	0	0	0	0	0	0	0	0	0	0	0
0	0	0	0	0	0	1193	1193	1197	1206	1206	1206	1214	1214	1219	1219	1223	1227	1227	1232	1240	1245	1249	1259	1263	1263	1272	1277	1282	1287	1291	1301	1301	1311	1316	1316	1316	1316	1316	1321	1331	1342	1358	1358	1374	1379	1379	1379	1379	1379	1379	0	1134	1131	1131	1131	1131	1127	1127	1120	1120	1120	1120	1116	1120	1123	1123	1123	1123	1123	1123	1123	1127	1127	1123	1123	1127	1127	1127	1127	1127	1127	1127	1134	1138	1138	1142	1146	1146	1146	0	0	0	0	0	0	1206	1206	1214	1219	1219	0	0	0	0	1240	1240	1240	1240	1245	1245	1263	1268	1272	1272	1277	1277	1277	1277	1282	1282	1291	1296	1296	1301	1301	1306	1311	1311	1316	1321	1321	1321	0	0	0	0	1358	1368	1374	1368	1368	1379	1379	1396	1402	1402	1402	1407	1407	1425	1437	1437	1431	1431	1431	0	1804	1795	1795	1786	1786	1786	1786	1786	4906	4906	4906	4906	4906	4906	4771	4771	4771	4771	4771	4771	4771	4771	4838	4838	4838	4838	4771	4771	4771	4771	4771	4771	4771	4771	4838	4771	4771	4771	4771	4771	4771	4771	4771	4771	4771	4771	4771	4771	4771	4771	4771	4771	4771	4771	4771	4771	4771	4771	4771	4771	4771	4771	4771	4771	4771	4771	4771	4771	4771	4771	4771	4771	4838	4771	4838	4838	4838	4838	4838	4771	4771	4771	4771	4771	4771	4771	4706	4706	4706	4771	4771	4771	4771	4771	4771	4771	4771	4838	4771	4771	4771	4771	4771	4706	4706	4706	4706	4706	4706	4706	4706	4706	4706	4706	4706	4771	4771	4771	4771	4771	4771	4771	4771	4771	4771	4771	4771	4771	4771	4771	4771	4771	4771	4771	4771	4771	4771	4771	3440	3440	3440	3440	3406	3406	3406	3373	3406	3406	3406	3440	3440	3406	3406	3406	3373	3373	3309	3309	3341	3341	3341	3341	3309	3341	3341	3341	3341	3341	3341	3373	3373	3341	3341	3341	3341	3341	3341	3341	3341	3341	3341	3373	3373	3373	3341	3341	3341	3341	3341	3341	3341	3309	3341	3341	3341	3341	3341	3341	3341	3341	3341	3341	3341	3341	3341	3373	3373	3373	3373	3406	3406	4350	4350	4296	4350	4350	4350	4296	4350	4350	4350	4296	4350	4296	4296	4296	4296	4350	4350	4350	4350	4406	4406	4406	4406	4406	4406	4406	4406	4406	4406	4406	4406	4406	4406	4406	4406	4406	4406	4406	4406	4406	4350	4406	4463	4463	4463	4643	4706	4581	4581	4463	4350	4350	4296	4296	4296	4296	4296	4296	4296	4296	4296	4296	4350	4350	4350	4350	4350	4243	4296	4243	4243	4243	4243	4243	4243	4243	4243	4243	4296	4296	4243	4243	4192	4192	4192	4192	4192	4192	4243	4192	4192	4192	4192	4142	4142	4142	4142	4093	4093	4093	4093	4093	4093	4093	4142	4142	4093	4142	4093	4142	4093	4093	4093	4093	4093	4093	4093	4093	4093	4093	4093	4093	4093	4093	4093	4093	4093	4045	4093	4093	4093	4045	4093	4093	4093	4093	4093	4045	4045	4045	4093	4093	4093	4093	4093	4142	4093	4093	4093	4142	4142	4093	4093	4045	4093	4045	4045	4045	4045	4045	4093	4142	4192	4192	4192	4192	4192	4243	4243	4243	4296	4296	4350	4296	4296	4296	5719	5719	5815	5815	5915	5915	6018	6018	6018	6124	6124	6124	6124	6124	6124	6124	6018	6018	6018	6018	6018	6018	6018	6018	6124	6124	6235	6124	6235	6235	6349	6349	6349	6349	6468	6468	6468	6235	6349	6349	6349	6349	6349	6349	6235	0	0	0	0	0	0	2845	2869	2869	2869	2845	2845	2845	2845	0	0	0	0	0	0	0	0	0	0	0	0	0	0	0	0	0	0	0	0	0	0	0	0	0	0	0	0	0	0	0	0	0	0	0	0
0	0	0	0	0	0	0	1197	1202	1206	1206	1210	1210	1214	1219	1219	1223	1227	1227	1232	1236	1245	1249	1259	1263	1263	1272	1277	1277	1287	1291	1296	1301	1311	1316	1316	1316	1316	1321	1321	1331	1347	1358	1368	1374	1379	1379	1374	1379	1379	0	0	1134	1131	1131	1131	1127	1127	1127	1123	1120	1120	1120	1116	1120	1123	1123	1123	1123	1123	1127	1123	1127	1127	1127	1123	1123	1127	1127	1127	1127	1127	1131	1131	1138	1138	1142	1150	1142	1142	0	0	0	0	0	1210	1210	1214	1219	1219	1223	1223	0	0	0	0	0	0	0	0	0	1263	1272	1272	1277	1277	1277	1277	1277	1282	1282	1291	1296	1301	1301	1306	1311	1311	1311	1316	1321	1321	1321	0	0	0	0	1363	1368	1374	1374	1374	1374	1379	1396	1402	1402	1402	1407	1407	1425	1437	1437	1431	1431	1431	1804	1804	1795	1786	1786	1786	1786	1786	1795	1795	0	1777	1804	1804	1824	1824	4838	4771	4771	4771	4771	4771	4771	4838	4838	4838	4838	4838	4838	4838	4771	4838	4771	4838	4838	4838	4771	4771	4771	4771	4771	4771	4771	4771	4771	4771	4771	4771	4771	4771	4771	4771	4706	4771	4771	4771	4771	4771	4771	4771	4771	4771	4771	4771	4771	4771	4771	4771	4771	4771	4771	4771	4771	4771	4771	4838	4771	4838	4838	4838	4771	4838	4771	4771	4771	4771	4771	4771	4706	4706	4706	4771	4771	4771	4771	4771	4771	4771	4771	4771	4771	4771	4771	4706	4706	4706	4706	4706	4706	4706	4706	4706	4706	4706	4706	4706	4771	4771	4771	4771	4771	4771	4838	4771	4771	4771	4771	4771	4771	4771	4771	4771	4771	4771	4771	4771	4771	4771	3440	3440	3440	3440	3440	3406	3406	3406	3373	3406	3406	3406	3406	3440	3406	3373	3373	3373	3373	3309	3309	3341	3341	3341	3341	3309	3341	3309	3341	3309	3341	3341	3373	3373	3373	3341	3341	3341	3341	3341	3341	3341	3341	3341	3341	3341	3341	3341	3341	3341	3341	3341	3341	3309	3309	3309	3341	3341	3341	3341	3341	3341	3341	3341	3341	3341	3341	3341	3373	3373	3373	3373	3373	3373	3406	3406	4350	4350	4350	4350	4350	4350	4350	4350	4296	4350	4296	4296	4296	4296	4296	4296	4296	4350	4406	4406	4406	4406	4463	4406	4463	4406	4406	4406	4406	4406	4406	4406	4406	4406	4406	4406	4406	4406	4406	4406	4406	4406	4463	4521	4521	4581	4581	4521	4463	4350	4350	4296	4296	4296	4296	4296	4296	4296	4296	4350	4350	4350	4350	4406	4350	4350	4296	4296	4296	4243	4243	4243	4243	4243	4243	4243	4243	4296	4296	4243	4243	4192	4192	4192	4192	4192	4192	4243	4243	4192	4192	4192	4142	4142	4142	4093	4093	4093	4093	4093	4093	4093	4093	4093	4093	4093	4093	4093	4093	4093	4093	4093	4093	4093	4093	4093	4093	4093	4093	4093	4093	4093	4093	4093	4093	4093	4045	4045	4093	4093	4045	4093	4093	4093	4093	4093	4093	4045	4093	4093	4093	4093	4093	4142	4142	4142	4142	4093	4142	4142	4142	4093	4093	4093	4045	4093	4045	4045	4093	4093	4142	4192	4142	4142	4192	4243	4243	4243	4243	4243	4296	4296	4296	4296	4296	4296	5815	5815	5915	5915	5915	6018	6018	6018	6018	6018	6018	6018	6018	6124	6018	6018	6018	6018	6018	6018	6018	6018	6018	6124	6124	6124	6124	6235	6235	6235	6235	6349	6349	6349	6349	6349	6235	6235	6349	6349	6349	6349	6349	0	0	0	0	0	0	0	2845	2869	2869	2869	2845	2845	2845	2845	0	0	0	0	0	0	0	0	0	0	0	0	0	0	0	0	0	0	0	0	0	0	0	0	0	0	0	0	0	0	0	0	0	0	0	0
0	0	0	0	0	0	0	1202	1206	1206	1210	1210	1210	1214	1219	1219	1223	1227	1227	1232	1240	1245	1249	1259	1259	1263	1268	1272	1277	1282	1291	1296	1301	1311	1316	1316	1316	1321	1321	1326	1336	1347	1358	1358	1368	1374	1374	1368	1368	1379	0	1134	1134	1134	1131	1131	1127	1123	1123	1120	1120	1120	1120	1113	1109	1120	1123	1123	1123	1123	1127	1123	1127	1127	1127	1123	1127	1127	1127	1127	1127	1127	1127	1131	1138	1142	1146	1146	1150	1150	0	0	0	0	0	1210	1210	1214	1214	1219	1223	1223	0	0	0	0	0	0	0	0	0	0	1268	1272	1272	1277	1277	1277	1277	1282	1282	1296	1301	1301	1306	1306	1311	1311	1316	1316	1321	1326	1326	0	0	0	0	1368	1368	1374	1374	1374	1374	0	0	0	0	0	0	0	0	0	0	0	0	1786	1786	1795	1795	1786	1786	1786	1786	1786	1795	1795	1777	1804	1814	1824	1824	1824	1843	1843	0	4771	4771	4838	4838	4838	4838	4838	4838	4838	4838	4838	4838	4838	4838	4838	4838	4838	4771	4771	4771	4771	4771	4771	4771	4771	4771	4771	4706	4706	4771	4771	4771	4771	4771	4771	4771	4771	4771	4771	4771	4771	4771	4771	4771	4771	4771	4771	4771	4771	4771	4771	4771	4771	4771	4771	4771	4771	4771	4838	4771	4771	4771	4771	4771	4771	4771	4771	4706	4706	4706	4706	4706	4771	4771	4771	4771	4771	4771	4771	4771	4771	4771	4771	4771	4706	4706	4706	4706	4706	4706	4706	4706	4706	4706	4706	4706	4706	4771	4771	4771	4771	4771	4771	4771	4771	4771	4771	4771	4771	4771	4771	4771	4706	4771	4771	4771	4771	4706	4706	3440	3440	3440	3440	3440	3406	3406	3406	3373	3406	3406	3406	3406	3406	3406	3373	3373	3373	3373	3309	3309	3341	3341	3341	3341	3341	3341	3341	3341	3309	3341	3341	3341	3373	3373	3341	3341	3341	3341	3341	3341	3341	3341	3341	3341	3341	3341	3341	3309	3341	3341	3341	3309	3309	3309	3309	3309	3309	3309	3341	3341	3341	3341	3341	3309	3341	3341	3341	3373	3373	3373	3373	3406	3406	3406	3373	3373	4350	4350	4350	4350	4350	4350	4350	4296	4350	4296	4296	4296	4296	4296	4296	4296	4296	4350	4406	4406	4406	4406	4406	4463	4463	4406	4406	4406	4406	4406	4406	4406	4406	4406	4406	4406	4406	4406	4350	4350	4406	4406	4406	4643	4643	4581	4521	4463	4350	4350	4296	4296	4243	4243	4243	4243	4243	4296	4350	4350	4350	4350	4350	4406	4296	4243	4243	4243	4243	4243	4243	4243	4243	4243	4243	4243	4243	4243	4243	4192	4192	4192	4192	4192	4192	4192	4243	4243	4192	4192	4192	4142	4142	4142	4093	4093	4093	4093	4093	4093	4093	4093	4093	4142	4142	4142	4142	4142	4093	4093	4093	4093	4093	4093	4093	4093	4093	4093	4093	4093	4093	4093	4093	4093	4093	4093	4093	4093	4093	4093	4093	4093	4045	4093	4093	4045	4045	4045	4093	4093	4093	4093	4093	4142	4142	4142	4142	4142	4142	4142	4093	4093	4093	4045	4093	4045	4045	4093	4093	4142	4142	4192	4192	4243	4243	4243	4243	4243	4296	4296	4350	4350	4350	4350	5915	5815	5815	5915	5915	5915	6018	6018	6018	6018	6124	6018	6018	6124	6124	6018	5915	5915	5915	5915	5915	6018	6018	6018	6124	6124	6124	6124	6235	6235	6235	6235	6235	6349	6349	6349	6349	6349	6349	6468	6468	6468	6468	6468	0	0	0	0	0	0	0	2869	2869	2869	2869	2869	2845	2845	2845	0	0	0	0	0	0	0	0	0	0	0	0	0	0	0	0	0	0	0	0	0	0	0	0	0	0	0	0	0	0	0	0	0	0	0	0
0	0	0	0	0	0	0	1206	1206	1210	1210	1214	1214	1214	1219	1223	1223	1227	1227	1236	1240	1245	1254	1254	1259	1263	1268	1268	1272	1282	1291	1296	1306	1311	1316	1311	1316	1316	1326	1326	1342	1347	1352	1352	1363	1374	1368	1363	1363	0	0	1134	1134	1134	1131	1131	1127	1123	1123	1120	1120	1120	1120	1113	1113	1123	1123	1123	1123	1123	1123	1127	1127	1127	1131	1127	1127	1127	1127	1127	1127	1127	1127	1131	1138	1138	1142	1150	1146	1146	0	0	0	0	1206	1210	1210	1214	1219	1219	1219	1223	0	0	0	0	0	0	0	0	0	0	1268	1272	1272	1277	1277	1277	1277	1282	1282	1296	1301	1301	1306	1311	1311	1316	1316	1316	1321	1326	1326	1336	1336	1352	1352	1363	1363	1374	1374	1374	1374	0	0	0	0	0	0	0	0	0	0	0	0	1777	1786	1786	1786	1777	1786	1777	1777	1786	1795	1804	1795	1814	1814	1824	1824	1833	1843	1843	1843	0	0	4838	4838	4838	4838	4838	4838	4838	4838	4838	4838	4838	4838	4838	4838	4838	4771	4771	4771	4771	4771	4771	4771	4771	4771	4771	4706	4706	4706	4706	4771	4771	4771	4771	4771	4771	4771	4771	4771	4771	4771	4771	4771	4771	4771	4771	4771	4771	4771	4771	4771	4771	4771	4771	4771	4771	4771	4771	4771	4771	4771	4771	4771	4771	4771	4771	4706	4771	4706	4706	4706	4771	4771	4771	4771	4771	4771	4771	4771	4771	4771	4706	4771	4706	4706	4706	4706	4706	4706	4706	4706	4706	4706	4706	4706	4706	4771	4771	4771	4771	4771	4771	4771	4771	4771	4771	4771	4771	4771	4771	4706	4706	4706	4706	4706	4706	4706	3406	3440	3440	3440	3440	3406	3406	3406	3406	3373	3406	3373	3373	3406	3406	3373	3373	3373	3373	3373	3309	3309	3309	3341	3309	3341	3309	3309	3309	3341	3309	3341	3341	3341	3341	3373	3341	3341	3341	3341	3341	3341	3341	3341	3341	3341	3309	3341	3309	3309	3309	3309	3309	3309	3309	3309	3309	3309	3309	3309	3309	3341	3341	3341	3341	3341	3341	3341	3341	3373	3373	3373	3373	3373	3373	3373	3373	3373	4350	4350	4350	4350	4350	4350	4350	4296	4296	4296	4296	4296	4296	4296	4296	4296	4296	4350	4406	4406	4406	4406	4406	4463	4463	4406	4406	4406	4406	4463	4406	4406	4463	4406	4406	4406	4406	4406	4406	4350	4406	4406	4406	4406	4581	4581	4521	4463	4350	4350	4296	4296	4243	4296	4243	4243	4243	4296	4296	4296	4350	4350	4350	4350	4296	4243	4243	4243	4243	4243	4243	4243	4243	4243	4243	4243	4243	4243	4243	4192	4192	4192	4192	4192	4243	4243	4243	4243	4243	4192	4192	4142	4142	4093	4093	4093	4093	4093	4093	4093	4093	4093	4093	4142	4142	4142	4142	4142	4142	4093	4093	4093	4093	4093	4093	4093	4093	4093	4093	4093	4045	4093	4093	4093	4093	4093	4093	4093	4045	4045	4045	4045	4045	4045	4045	4045	4093	4093	4045	4093	4093	4093	4093	4093	4093	4093	4093	4142	4142	4142	4093	4093	4093	4093	4093	4093	4093	4093	4093	4142	4142	4142	4192	4192	4192	4243	4243	4243	4296	4296	4350	4350	4350	4350	5915	5915	5915	5915	5915	6018	6018	6018	6018	6124	6124	6018	6018	6124	6124	6018	5915	5915	6018	5915	5915	6018	6018	6124	6124	6235	6235	6235	6235	6235	6235	6235	6235	6235	6349	6235	6235	6349	6349	6468	6468	6468	6468	6468	0	0	0	0	0	0	0	2869	2869	2869	2869	2869	2845	2845	2845	0	0	0	0	0	0	0	0	0	0	0	0	0	0	0	0	0	0	0	0	0	0	0	0	0	0	0	0	0	0	0	0	0	0	0	0
0	0	0	0	0	0	0	1206	1206	1210	1210	1214	1214	1214	1219	1219	1223	1227	1227	1232	1236	1245	1254	1259	1259	1263	1268	1268	1272	1282	1291	1296	1301	1306	1311	1311	1316	1321	1326	1331	1342	1347	1352	1352	1358	1363	1363	1363	1363	0	1134	1134	1134	1131	1131	1131	1127	1123	1120	1120	1116	1116	1116	1113	1113	1113	1123	1123	1123	1127	1127	1127	1127	1131	1131	1127	1127	1131	1134	1131	1127	1127	1127	1134	1138	1142	1146	1153	1153	1146	0	0	0	0	1206	1210	1210	1219	1223	1223	1219	0	0	0	0	0	0	0	0	0	0	0	1268	1272	1272	1277	1277	1277	1282	1282	1287	1291	1296	1301	1301	1306	1311	1316	1316	1316	1326	1326	1336	1336	1358	1352	1352	1358	1363	1368	1368	1374	1374	0	0	0	0	0	0	0	0	0	0	0	0	1777	1786	1777	1786	1777	1786	1777	1777	1786	1795	1795	1795	1804	1814	1824	1824	1833	1843	1843	1843	1843	1843	0	0	4838	4838	4838	4838	4838	4838	4906	4838	4838	4838	4838	4838	4838	4771	4771	4771	4771	4771	4771	4771	4706	4771	4706	4706	4706	4706	4706	4771	4771	4771	4771	4771	4771	4771	4771	4771	4771	4771	4771	4771	4771	4771	4771	4771	4771	4771	4771	4771	4771	4771	4771	4771	4771	4771	4771	4771	4771	4771	4771	4771	4771	4771	4771	4771	4771	4771	4771	4771	4771	4771	4771	4771	4771	4771	4771	4771	4771	4771	4706	4771	4706	4706	4706	4706	4706	4706	4706	4706	4706	4706	4706	4706	4771	4771	4771	4771	4771	4771	4771	4771	4771	4771	4771	4771	4771	4771	4706	4706	4706	4706	4706	4706	4771	4771	4771	3406	3440	3440	3406	3406	3406	3406	3406	3373	3373	3373	3373	3406	3406	3406	3406	3373	3373	3373	3309	3309	3309	3309	3309	3309	3309	3309	3309	3309	3309	3309	3309	3309	3309	3341	3309	3309	3309	3341	3341	3341	3341	3341	3341	3341	3309	3309	3309	3309	3309	3309	3309	3309	3309	3309	3309	3309	3309	3309	3309	3309	3341	3341	3341	3309	3309	3309	3341	3341	3341	3341	3373	3373	3373	3373	3373	3373	0	0	0	0	0	0	4350	4296	4296	4296	4296	4296	4296	4296	4296	4296	4350	4350	4406	4406	4406	4406	4406	4463	4406	4406	4406	4406	4406	4406	4406	4406	4463	4406	4406	4406	4406	4406	4350	4350	4350	4406	4406	4406	4406	4463	4463	4463	4350	4296	4296	4296	4243	4296	4243	4296	4243	4296	4296	4296	4296	4296	4296	4296	4296	4243	4243	4243	4243	4243	4243	4243	4243	4243	4243	4243	4243	4192	4192	4192	4192	4192	4192	4192	4243	4243	4243	4243	4243	4192	4192	4192	4142	4093	4093	4093	4093	4093	4093	4093	4093	4093	4093	4142	4093	4093	4142	4093	4093	4093	4093	4093	4093	4093	4093	4093	4093	4045	4093	4093	4093	4093	4093	4093	4093	4093	4093	4093	4045	4045	4045	4045	4045	4045	4045	4045	4093	4093	4093	4093	4093	4093	4093	4142	4142	4142	4142	4142	4142	4142	4093	4093	4093	4093	4142	4093	4093	4093	4142	4142	4142	4142	4192	4192	4243	4243	4243	4243	4296	4296	4350	4350	4350	4350	4350	5915	5915	5915	5915	5915	5915	6018	6018	6018	6018	6018	6018	6124	6124	6124	6018	5915	5915	5915	6018	6124	6124	6124	6235	6235	6235	6235	6235	6235	6235	6235	6235	6235	6235	6235	6235	6349	6349	6468	6592	6592	6592	6592	0	0	0	0	0	0	0	2869	2893	2869	2869	2869	2869	2845	2845	0	0	0	0	0	0	0	0	0	0	0	0	0	0	0	0	0	0	0	0	0	0	0	0	0	0	0	0	0	0	0	0	0	0	0	0
0	0	0	0	0	0	0	1206	1206	1210	1210	1210	1214	1214	1223	1223	1223	1227	1227	1236	1240	1240	1249	1259	1259	1263	1263	1268	1272	1277	1287	1296	1296	1301	1311	1311	1316	1321	1331	1336	1342	1347	1347	1347	1352	1358	1358	1358	1363	0	1134	1131	1131	1131	1131	1131	1127	1123	1123	1120	1116	1116	1116	1113	1113	1120	1123	1123	1127	1127	1127	1127	1127	1131	1134	1127	1134	1134	1134	1134	1131	1131	1131	1138	1142	1142	1146	1153	1153	1153	0	0	0	1206	1210	1210	1210	1210	1210	1223	0	0	0	0	0	0	0	0	0	0	0	0	1277	1277	1272	1277	1277	1282	1287	1282	1287	1291	1296	1296	1301	1311	1316	1316	1316	1316	1326	1331	1331	1352	1358	1358	1358	1358	1363	1368	1374	1374	1379	1379	0	0	0	0	0	0	0	0	0	0	0	1777	1777	1777	1777	1777	1777	1777	1777	1786	1795	1804	1795	1804	1814	1814	1814	1824	1833	1843	1843	1853	1853	0	0	0	0	4838	4838	4906	4838	4906	4906	4838	4838	4838	4838	4838	4771	4706	4706	4771	4771	4706	4706	4706	4771	4706	4706	4706	4771	4771	4771	4771	4771	4771	4771	4771	4771	4771	4771	4706	4771	4706	4771	4771	4771	4771	4771	4771	4771	4771	4771	4771	4771	4771	4771	4771	4771	4771	4771	4771	4771	4771	4771	4771	4771	4771	4771	4771	4771	4771	4771	4771	4771	4771	4771	4771	4771	4771	4771	4771	4771	4706	4771	4771	4771	4771	4706	4706	4771	4706	4706	4706	4706	4706	4706	4771	4771	4771	4771	4771	4771	4771	4771	4771	4771	4771	4771	4771	4771	4771	4771	4706	4706	4706	4706	4706	3440	3406	3406	3440	3440	3406	3406	3406	3373	3373	3373	3373	3373	3373	3373	3373	3373	3373	3373	3373	3373	3373	3309	3309	3309	3309	3309	3309	3309	3309	3309	3309	3309	3309	3309	3309	3309	3309	3309	3309	3309	3309	3341	3341	3341	3309	3309	3309	3309	3309	3309	3309	3309	3309	3309	3309	3309	3309	3309	3309	3309	3309	3309	3341	3341	3341	3309	3309	3309	3309	3341	3341	3341	3373	3373	3373	3373	3373	3373	0	0	0	0	0	0	0	0	0	4296	4296	4296	4296	4296	4296	4296	4350	4406	4406	4406	4406	4406	4406	4463	4406	4406	4406	4406	4406	4406	4406	4463	4463	4406	4406	4406	4406	4406	4406	4406	4406	4463	4463	4463	4406	4463	4406	4406	4350	4296	4296	4243	4243	4243	4243	4243	4243	4296	4296	4296	4296	4296	4296	4296	4296	4243	4243	4243	4243	4243	4243	4243	4243	4243	4243	4192	4192	4192	4192	4192	4192	4142	4192	4192	4192	4192	4243	4243	4243	4243	4243	4192	4142	4093	4093	4093	4093	4093	4093	4093	4093	4093	4093	4093	4093	4093	4142	4142	4093	4093	4093	4093	4093	4093	4045	4093	4093	4093	4093	4093	4093	4093	4093	4093	4093	4093	4093	4045	4045	4045	4045	4045	4045	4045	4045	4045	4045	4045	4045	4093	4093	4045	4093	4093	4093	4093	4093	4142	4142	4142	4093	4093	4142	4142	4142	4093	4093	4093	4093	4142	4142	4142	4192	4243	4243	4243	4243	4243	4296	4296	4350	4350	4350	4350	4350	5915	5915	5915	5915	5915	5915	6018	6018	6018	6018	6018	6018	6018	6124	6018	5915	5915	5915	5915	6018	6124	6124	6124	6235	6235	6235	6124	6235	6235	6235	6235	6235	6235	6235	6235	6349	6349	6468	6592	6592	6592	6592	6720	6720	0	0	0	0	0	0	2869	2893	2869	2869	2869	2869	2845	2845	0	0	0	0	0	0	0	0	0	0	0	0	0	0	0	0	0	0	0	0	0	0	0	0	0	0	0	0	0	0	0	0	0	0	0	0
0	0	0	0	0	0	0	1206	1206	1210	1214	1214	1214	1223	1236	1232	1232	1236	1232	1232	1240	1249	1254	1254	1259	1259	1259	1263	1268	1282	1282	1291	1296	1296	1301	1311	1316	1326	1331	1336	1342	1347	1347	1347	1347	1347	1347	1347	0	0	1134	1134	1134	1131	1131	1127	1127	1123	1123	1120	1120	1116	1116	1116	1113	1123	1123	1127	1127	1127	1127	1127	1127	1127	1131	1127	1134	1134	1134	1134	1131	1134	1134	1138	1138	1142	1146	1146	1153	1153	0	0	0	1206	1210	1210	1227	1227	1236	1236	1236	1240	1240	1245	1236	1236	0	0	1249	1254	1259	1263	1272	1277	1277	1277	1282	1282	1291	1291	1296	1291	1296	1296	1306	1311	1316	1316	1316	1316	1326	1331	1331	1352	1358	1358	1358	1358	1363	1363	1374	1374	1374	1379	0	0	0	0	0	0	0	0	0	0	0	1777	1768	1768	1768	1777	1777	1777	1777	1777	1795	1795	1795	1804	1814	1814	1824	1824	1843	1843	1853	1853	1873	1873	1873	0	0	4838	4838	4906	4906	4906	4838	4838	4838	4838	4838	4838	4771	4706	4771	4771	4771	4771	4771	4771	4771	4771	4771	4771	4771	4771	4771	4771	4771	4771	4771	4771	4771	4771	4771	4706	4771	4706	4771	4771	4771	4771	4771	4771	4771	4771	4771	4771	4771	4771	4771	4771	4771	4838	4838	4771	4771	4771	4771	4771	4771	4771	4771	4771	4771	4771	4771	4771	4771	4771	4771	4771	4771	4771	4771	4771	4771	4706	4771	4771	4771	4771	4706	4706	4706	4706	4771	4771	4706	4771	4771	4771	4771	4771	4771	4771	4771	4771	4771	4771	4771	4771	4771	4771	4771	4771	4771	4706	4706	4706	4771	4771	3440	3440	3440	3440	3440	3406	3406	3406	3373	3406	3373	3373	3373	3373	3373	3373	3373	3373	3373	3373	3341	3341	3309	3309	3277	3277	3309	3309	3277	3277	3309	3309	3309	3309	3309	3309	3309	3309	3309	3309	3309	3309	3341	3341	3341	3309	3309	3309	3309	3309	3309	3309	3309	3309	3309	3309	3309	3309	3309	3309	3309	3309	3309	3341	3309	3309	3309	3309	3309	3341	3341	3373	3373	3373	3373	3373	3373	3373	3373	3373	0	0	0	0	0	0	0	0	0	0	4296	4296	4296	4296	4296	4350	4406	4406	4406	4406	4406	4406	4406	4406	4406	4406	4406	4406	4406	4406	4463	4463	4463	4406	4406	4406	4406	4406	4406	4350	4406	4406	4406	4463	4463	4296	4296	4296	4296	4243	4243	4243	4243	4243	4243	4243	4243	4296	4296	4296	4296	4296	4296	4296	4243	4243	4243	4243	4243	4243	4243	4243	4192	4192	4192	4192	4192	4192	4192	4192	4142	4142	4192	4243	4243	4243	4243	4296	4296	4192	4192	4142	4142	4142	4093	4093	4093	4093	4093	4093	4093	4093	4142	4093	4093	4142	4142	4093	4093	4093	4093	4093	4093	4045	4093	4045	4045	4093	4093	4093	4045	4093	4093	4093	4093	4093	4093	4045	4093	4045	4045	4045	4093	4045	4045	4093	4045	4045	4093	4093	4093	4093	4142	4093	4093	4093	4093	4142	4093	4093	4093	4093	4142	4142	4142	4093	4093	4093	4142	4192	4142	4192	4243	4243	4243	4243	4296	4296	4296	4350	4296	4296	4296	0	5915	5915	5915	5915	5915	5915	5915	6018	6018	6018	6018	6018	6124	6124	6124	6018	5915	5915	5915	6018	6124	6018	6124	6235	6124	6124	6124	6235	6235	6235	6124	6235	6235	6235	6349	6349	6468	6468	6592	6592	6592	6592	6592	6720	0	0	0	0	0	0	2893	2893	2869	2869	2869	2869	2845	2845	0	0	0	0	0	0	0	0	0	0	0	0	0	0	0	0	0	0	0	0	0	0	0	0	0	0	0	0	0	0	0	0	0	0	0	0
0	0	0	0	0	0	0	0	0	0	1214	1240	1245	1245	1245	1240	1240	1245	1249	1245	1249	1254	1254	1259	1259	1259	1263	1263	1268	1277	1291	1296	1296	1296	1301	1306	1316	1326	1331	1336	1336	1342	1342	1342	1347	1347	1347	1347	0	0	1131	1131	1131	1131	1131	1127	1127	1123	1123	1116	1116	1116	1116	1113	1113	1123	1120	1123	1127	1127	1127	1127	1127	1131	1134	1131	1138	1134	1138	1134	1131	1134	1134	1134	1142	1142	1146	1146	0	0	0	0	0	1206	1206	1206	1227	1227	1232	1236	1236	1240	1240	1245	1245	1249	1249	1254	1259	1259	1259	1263	1272	1282	1277	1277	1282	1282	1296	1296	1296	1301	1301	1301	1306	1321	1321	1321	1321	1326	1331	1331	1347	1352	1358	1358	1358	1363	1363	1363	1374	1374	1374	0	0	0	0	0	0	0	0	0	0	0	0	0	1768	1768	1768	1777	1777	1777	1777	1777	1795	1795	1795	1804	1814	1814	1824	1824	1833	1843	1853	1863	1873	1873	1883	1883	1894	1894	0	4906	4906	4906	4977	4906	4906	4906	4838	4838	4771	4706	4771	4771	4771	4771	4771	4771	4771	4771	4771	4771	4771	4771	4771	4771	4771	4771	4771	4771	4771	4706	4706	4706	4706	4706	4706	4771	4771	4771	4771	4771	4771	4771	4771	4771	4771	4771	4771	4771	4771	4838	4838	4771	4771	4771	4771	4771	4771	4771	4771	4771	4771	4771	4771	4771	4771	4771	4771	4771	4771	4771	4771	4771	4771	4706	4706	4771	4771	4771	4771	4771	4771	4771	4771	4771	4771	4771	4771	4771	4771	4771	4771	4771	4771	4771	4771	4771	4771	4771	4771	4771	4771	4771	4771	4706	4706	4706	4771	4771	3440	3440	3440	3440	3440	3406	3406	3373	3406	3373	3373	3373	3373	3373	3373	3373	3373	3341	3341	3341	3341	3341	3309	3309	3309	3277	3309	3309	3309	3309	3309	3309	3309	3277	3277	3309	3309	3277	3309	3309	3309	3309	3341	3341	3341	3309	3309	3309	3309	3309	3309	3309	3309	3309	3309	3309	3309	3309	3309	3309	3309	3309	3309	3309	3309	3309	3309	3309	3309	3341	3341	3373	3373	3373	3373	3373	3373	3373	3373	3373	3373	0	0	0	0	0	0	0	0	0	4350	4296	4296	4350	4350	4350	4350	4406	4406	4406	4406	4406	4406	4406	4406	4406	4406	4463	4463	4463	4463	4463	4463	4463	4406	4406	4463	4406	4406	4350	4406	4406	4463	4463	4463	4296	4296	4296	4243	4243	4243	4243	4243	4243	4243	4243	4243	4243	4296	4296	4296	4296	4296	4296	4243	4243	4243	4243	4243	4243	4243	4243	4192	4192	4192	4192	4192	4192	4192	4192	4142	4192	4192	4243	4243	4243	4243	4296	4243	4192	4192	4142	4093	4093	4093	4093	4093	4093	4093	4093	4093	4093	4142	4093	4093	4142	4142	4142	4093	4093	4093	4093	4093	4093	4093	4045	4045	4093	4093	4093	4093	4093	4093	4093	4142	4093	4093	4045	4045	4045	4045	4045	4045	4045	4045	4045	4045	4093	4045	4093	4093	4093	4093	4093	4093	4093	4093	4142	4093	4093	4142	4142	4142	4142	4093	4093	4093	4093	4142	4142	4142	4192	4243	4243	4243	4296	4296	4296	4296	4350	4350	4350	4406	4406	5915	5915	5915	5915	5915	5915	6018	5915	5915	6018	6018	6018	6018	6124	6124	6018	5915	5915	5915	6018	6018	6018	6124	6124	6124	6124	6124	0	0	0	6124	6235	6235	6235	6349	6349	6349	6468	6592	6468	6468	6468	6720	6720	0	0	0	0	0	0	2893	2893	2869	2869	2869	2845	2845	2845	0	0	0	0	0	0	0	0	0	0	0	0	0	0	0	0	0	0	0	0	0	0	0	0	0	0	0	0	0	0	0	0	0	0	0	0
0	0	0	0	0	0	0	0	0	1449	1449	1467	1467	1254	1254	1249	1254	1254	1254	1254	1259	1259	1259	1259	1259	1259	1263	1263	1268	1282	1291	1296	1296	1296	1301	1306	1316	1321	1326	1331	1336	1336	1342	1342	1342	1342	1342	1342	0	0	1127	1131	1131	1127	1127	1127	1127	1123	1120	1116	1116	1116	1116	1113	1113	1123	1123	1123	1123	1123	1123	1127	1127	1131	1134	1131	1134	1134	1134	1134	1131	1134	1131	1138	1142	1146	1150	1150	0	0	0	0	0	1206	1214	1214	1232	1232	1236	1236	1240	1240	1245	1245	1245	1249	1254	1259	1259	1259	1272	1268	1282	1287	1287	1287	1291	1291	1291	1291	1296	1301	1301	1301	1311	1326	1326	1326	1326	1336	1336	1342	1347	1352	1352	1358	1358	1363	1363	1363	1374	1379	1379	0	0	0	0	0	0	0	0	0	0	0	0	0	0	1759	1768	1768	1777	1777	1777	1777	1795	1795	1804	1804	1804	1814	1814	1824	1833	1833	1853	1863	1873	1883	1883	1894	1904	1915	1915	0	0	4906	4977	4906	4906	4906	4838	4838	4771	4706	4771	4771	4771	4771	4771	4771	4771	4771	4771	4771	4771	4771	4771	4771	4771	4771	4771	4771	4706	4706	4706	4706	4706	4706	4706	4771	4771	4771	4771	4771	4771	4771	4771	4771	4771	4771	4771	4771	4771	4838	4838	4771	4771	4771	4706	4771	4706	4706	4706	4706	4771	4771	4771	4771	4771	4771	4771	4771	4771	4771	4771	4771	4771	4706	4771	4771	4771	4771	4706	4771	4771	4771	4771	4771	4771	4771	4771	4771	4771	4771	4771	4771	4771	4706	4706	4706	4706	4771	4706	4771	4771	4706	4706	4706	4771	4706	4771	4771	3440	3440	3440	3440	3406	3406	3406	3373	3373	3373	3373	3341	3373	3373	3373	3373	3341	3341	3341	3341	3341	3341	3309	3309	3309	3309	3309	3309	3309	3309	3309	3309	3309	3277	3309	3309	3277	3277	3277	3309	3309	3309	3309	3309	3309	3309	3309	3309	3309	3309	3309	3309	3309	3309	3309	3309	3309	3309	3309	3309	3309	3309	3309	3309	3309	3309	3309	3309	3309	3341	3341	3341	3341	3373	3373	3373	3373	3406	3373	3373	3406	3406	0	0	0	0	0	0	0	0	4350	4350	4350	4350	4350	4406	4406	4406	4406	4406	4406	4406	4406	4406	4406	4406	4406	4406	4406	4463	4463	4463	4463	4463	4463	4406	4406	4406	4350	4350	4406	4406	4406	4406	4350	4350	4296	4296	4243	4243	4243	4243	4243	4243	4243	4243	4243	4243	4243	4296	4296	4296	4296	4296	4243	4243	4243	4243	4243	4243	4192	4192	4192	4192	4192	4192	4192	4142	4192	4192	4142	4192	4243	4243	4243	4243	4243	4296	4243	4192	4192	4142	4142	4142	4142	4142	4093	4093	4093	4093	4093	4093	4142	4093	4093	4142	4142	4142	4093	4142	4093	4093	4093	4093	4093	4045	4045	4045	4093	4093	4093	4093	4093	4093	4093	4093	4093	4093	4093	4045	4045	4045	4045	4045	4045	4093	4093	4093	4093	4093	4045	4093	4093	4093	4093	4093	4093	4093	4142	4142	4142	4142	4142	4142	4142	4093	4093	4093	4142	4142	4192	4243	4243	4296	4296	4296	4296	4350	4350	4350	4350	4350	4406	4406	4406	5915	5915	5915	5915	5915	5915	5915	6018	6018	6018	6018	6018	6124	6124	6018	5915	5915	5915	6018	6018	6018	6124	6235	6235	6235	0	0	0	0	0	0	0	0	6349	6349	6349	0	0	6468	6592	6720	6720	6853	6853	0	0	0	0	0	2893	2893	2869	2869	2869	2845	2845	2845	0	0	0	0	0	0	0	0	0	0	0	0	0	0	0	0	0	0	0	0	0	0	0	0	0	0	0	0	0	0	0	0	0	0	0	0
0	0	0	0	0	0	0	0	0	1455	1455	1467	1467	1467	1467	1259	1259	1254	1259	1259	1259	1259	1259	1259	1259	1259	1263	1263	1272	1277	1291	1291	1296	1296	1296	1306	1311	1321	1326	1331	1336	1336	1336	1336	1342	1342	1342	1342	1127	1127	1127	1131	1131	1127	1127	1127	1123	1123	1123	1116	1116	1120	1116	1116	1116	1123	1123	1123	1127	1127	1127	1127	1127	1127	1131	1134	1134	1134	1134	1134	1131	1134	1131	1134	1142	1146	1146	1150	0	1202	1202	1206	1206	1210	1214	1223	1223	1223	1240	1240	1240	1240	1245	1249	1249	1254	1254	1259	1259	1259	1259	1259	1287	1291	1291	1291	1291	1291	1296	1296	1296	1301	1301	1306	1311	1321	1321	1321	1326	1336	1342	1347	1352	1352	1358	1358	1363	1363	1368	1368	1374	1379	1379	0	0	0	0	0	0	0	0	0	0	0	0	0	0	1768	1768	1768	1777	1777	1777	1777	1786	1795	1795	1804	1804	1814	1824	1824	1833	1843	1853	1863	1873	1883	1883	1894	1904	1915	1925	1925	0	0	0	4906	4906	4906	4906	4838	4771	4706	4771	4771	4771	4771	4771	4771	4771	4771	4771	4771	4771	4771	4771	4771	4771	4771	4771	4706	4706	4706	4706	4706	4706	4706	4706	4771	4771	4771	4771	4771	4771	4771	4771	4771	4771	4771	4771	4771	4771	4771	4771	4771	4771	4771	4706	4706	4706	4706	4706	4706	4771	4771	4771	4771	4771	4771	4771	4771	4771	4771	4771	4771	4771	4771	4771	4771	4771	4771	4771	4771	4771	4771	4771	4771	4771	4771	4771	4771	4771	4771	4771	4706	4706	4706	4706	4706	4706	4771	4706	4706	4706	4706	4706	4706	4771	4771	4771	3475	3440	3440	3406	3406	3406	3406	3406	3373	3373	3373	3373	3341	3341	3373	3341	3341	3341	3341	3341	3341	3341	3309	3309	3277	3309	3277	3309	3309	3309	3309	3309	3309	3309	3277	3309	3309	3309	3277	3309	3309	3309	3309	3309	3309	3309	3309	3309	3277	3309	3309	3309	3309	3309	3309	3309	3309	3309	3309	3309	3309	3309	3309	3309	3309	3309	3309	3309	3309	3309	3341	3341	3373	3341	3373	3373	3373	3373	3373	3373	3373	3373	3373	0	0	0	0	0	0	0	0	0	4406	4406	4350	4406	4350	4406	4406	4406	4406	4406	4406	4463	4406	4406	4406	4406	4463	4406	4406	4463	4463	4463	4406	4406	4406	4406	4406	4350	4350	4350	4350	4350	4350	4350	4296	4296	4296	4243	4243	4243	4243	4243	4243	4243	4243	4243	4243	4243	4243	4243	4296	4243	4296	4243	4243	4243	4243	4192	4192	4192	4192	4192	4192	4192	4192	4192	4192	4192	4142	4142	4192	4192	4192	4243	4243	4243	4243	4243	4192	4192	4142	4142	4142	4142	4142	4093	4093	4093	4093	4093	4093	4142	4093	4093	4142	4142	4142	4093	4093	4093	4093	4093	4093	4093	4045	4045	4045	4093	4093	4093	4093	4093	4093	4093	4093	4093	4093	4045	4045	4045	4045	4045	4045	4093	4093	4093	4093	4093	4093	4093	4093	4093	4093	4045	4093	4045	4093	4093	4093	4142	4093	4142	4142	4142	4093	4045	4093	4142	4142	4192	4192	4243	4296	4296	4296	4350	4350	4350	4406	4406	4406	4406	4406	6018	5915	5915	5915	5915	5915	5915	5915	5915	5915	6018	6018	6018	6018	6018	6018	5915	5915	5915	5915	6124	6124	6124	6235	6235	6235	6235	0	0	0	0	0	0	0	0	0	0	0	0	0	6592	6592	6720	6853	6853	0	0	0	0	0	2893	2893	2893	2893	2869	2869	2845	2845	0	0	0	0	0	0	0	0	0	0	0	0	0	0	0	0	0	0	0	0	0	0	0	0	0	0	0	0	0	0	0	0	0	0	0	0
0	0	0	0	0	0	0	0	0	1455	1455	1461	1467	1467	1467	1461	1259	1259	1259	1254	1259	1259	1259	1259	1259	1259	1263	1263	1263	1277	1282	1291	1296	1296	1296	1306	1316	1321	1321	1326	1331	1331	1336	1336	1342	1336	1342	1342	1127	1127	1127	1127	1127	1127	1127	1127	1123	1120	1120	1116	1116	1120	1116	1116	1116	1123	1123	1123	1123	1123	1123	1127	1127	1131	1134	1134	1134	1134	1134	1134	1131	1134	1131	1131	1138	1142	1142	0	1189	1202	1202	1206	1206	1210	1219	1223	1223	1227	1227	1240	1240	1240	1245	1245	1254	1254	1254	1254	1254	1259	1259	1259	1291	1291	1291	1291	1291	1291	1296	1296	1301	1301	1306	1311	1321	1321	1321	1321	1326	1336	1342	1347	1352	1352	1358	1358	1363	1363	1368	1374	1379	1385	1390	1390	0	0	0	0	0	0	0	0	0	0	0	0	0	1750	1750	1768	1768	1777	1777	1786	1795	1795	1804	1804	1804	1814	1824	1824	1833	1843	1853	1863	1863	1873	1883	1894	1904	1915	1925	1925	0	0	0	4906	4906	4906	4838	4838	4706	4706	4771	4771	4771	4771	4771	4771	4771	4771	4771	4771	4771	4771	4771	4771	4771	4771	4771	4706	4706	4706	4706	4706	4706	4706	4706	4771	4771	4771	4771	4771	4771	4771	4771	4771	4771	4771	4771	4771	4771	4771	4771	4771	4771	4771	4706	4706	4706	4706	4706	4706	4706	4706	4706	4706	4771	4771	4771	4771	4771	4771	4771	4771	4771	4771	4771	4771	4771	4706	4706	4706	4706	4706	4771	4771	4771	4771	4771	4771	4771	4771	4706	4706	4706	4706	4706	4706	4706	4771	4706	4706	4706	4706	4706	4706	4706	4771	4771	3475	3475	3440	3406	3406	3406	3406	3406	3373	3373	3341	3341	3341	3341	3341	3341	3341	3341	3341	3341	3341	3309	3309	3309	3309	3309	3309	3309	3309	3309	3309	3309	3309	3309	3309	3277	3309	3277	3277	3309	3309	3309	3309	3309	3309	3309	3309	3309	3309	3309	3309	3277	3277	3277	3309	3309	3309	3309	3309	3309	3309	3309	3309	3309	3309	3309	3309	3309	3309	3341	3341	3341	3341	3373	3373	3373	3373	3373	3373	3341	3373	3373	3373	3373	0	0	0	4350	4350	0	0	4350	4350	4350	4350	4350	4350	4406	4406	4406	4406	4406	4406	4406	4406	4350	4463	4406	4406	4350	4350	4406	4406	4406	4406	4406	4406	4406	4350	4350	4296	4350	4350	4296	4296	4296	4296	4243	4243	4243	4243	4243	4243	4243	4243	4243	4243	4243	4243	4243	4296	4243	4296	4296	4296	4243	4243	4243	4243	4243	4192	4192	4192	4192	4192	4192	4192	4192	4192	4192	4142	4142	4192	4192	4192	4192	4192	4192	4243	4192	4192	4192	4142	4142	4142	4142	4093	4093	4045	4093	4093	4093	4093	4093	4093	4093	4142	4093	4142	4093	4142	4093	4093	4093	4093	4093	4093	4045	4045	4093	4093	4093	4093	4093	4093	4142	4093	4093	4093	4093	4045	4045	4045	4093	4093	4093	4093	4093	4093	4093	4093	4093	4093	4093	4093	4093	4093	4093	4045	4093	4093	4093	4093	4142	4142	4142	4093	4045	4093	4093	4192	4142	4192	4243	4243	4243	4296	4296	4350	4350	4350	4406	4406	4406	4406	6018	5915	5915	5915	5915	5915	5915	5915	5915	6018	6018	6018	6018	6018	6018	6018	5915	5915	5915	5915	6124	6124	6124	6235	6235	6124	6124	0	0	0	0	0	0	0	0	0	0	0	0	0	0	6592	6592	6720	6720	0	0	0	0	0	2893	2893	2893	2869	2869	2845	2845	2845	0	0	0	0	0	0	0	0	0	0	0	0	0	0	0	0	0	0	0	0	0	0	0	0	0	0	0	0	0	0	0	0	0	0	0	0
0	0	0	0	0	0	0	0	0	1455	1455	1455	1461	1467	1467	1240	1240	1259	1259	1259	1259	1259	1259	1259	1259	1259	1263	1268	1268	1282	1282	1291	1291	1296	1296	1306	1311	1321	1321	1326	1331	1331	1331	1336	1336	1336	1336	1336	1127	1127	1127	1131	1127	1127	1127	1123	1123	1120	1120	1116	1116	1120	1120	1116	1123	1123	1123	1123	1123	1123	1123	1123	1127	1131	1131	1131	1134	1134	1131	1131	1131	1134	1131	1134	1142	1146	1146	0	1189	1197	1202	1210	1210	1214	1214	1223	1223	1227	1227	1227	1240	1240	1240	1240	1249	1249	1254	1259	1259	1259	1259	0	1291	1291	1291	1291	1291	1291	1296	1296	1301	1306	1311	1316	1316	1321	1321	1331	1331	1336	1342	1347	1352	1352	1358	1363	1363	1374	1374	1374	1379	1385	1402	1402	0	0	0	0	0	0	0	0	0	0	0	0	0	1741	1759	1768	1777	1777	1777	1777	1786	1795	1795	1804	1804	1814	1824	1824	1833	1833	1843	1863	1863	1873	1883	1894	1904	1915	1925	1925	1925	0	0	0	4906	4906	4838	4838	4706	4706	4771	4771	4771	4771	4771	4771	4771	4771	4771	4771	4771	4771	4771	4771	4771	4771	4771	4706	4706	4706	4771	4771	4771	4706	4771	4771	4771	4771	4771	4771	4771	4771	4706	4706	4706	4706	4706	4771	4771	4771	4771	4771	4706	4706	4706	4706	4706	4706	4706	4706	4706	4706	4706	4771	4706	4771	4771	4771	4771	4771	4771	4771	4771	4771	4771	4771	4706	4706	4706	4706	4706	4706	4771	4771	4771	4771	4771	4771	4771	4706	4706	4706	4706	4706	4706	4706	4706	4706	4706	4771	4706	4706	4706	4706	4643	4706	3440	3475	3475	3440	3406	3406	3406	3406	3373	3373	3341	3341	3341	3341	3341	3341	3341	3341	3341	3341	3341	3309	3309	3309	3277	3309	3309	3309	3309	3309	3309	3309	3309	3309	3309	3309	3309	3309	3277	3277	3309	3309	3309	3309	3309	3309	3309	3309	3309	3277	3277	3309	3309	3309	3309	3309	3309	3309	3309	3309	3309	3309	3309	3309	3309	3309	3309	3309	3309	3309	3309	3341	3341	3341	3341	3373	3373	3373	3373	3373	3341	3341	3341	3341	3309	3309	4350	4350	4350	4350	4350	4350	4350	4350	4350	4350	4350	4350	4406	4406	4350	4406	4406	4350	4406	4350	4350	4350	4406	4350	4350	4406	4406	4406	4406	4406	4406	4406	4406	4406	4350	4296	4296	4296	4296	4296	4243	4243	4243	4243	4243	4243	4243	4243	4243	4243	4243	4243	4243	4243	4243	4243	4243	4243	4296	4296	4243	4243	4243	4243	4243	4243	4243	4192	4192	4243	4192	4192	4192	4192	4192	4142	4142	4192	4192	4192	4192	4192	4192	4243	4192	4192	4192	4192	4142	4142	4142	4093	4093	4045	4093	4093	4093	4093	4093	4093	4093	4093	4093	4142	4142	4142	4142	4093	4093	4093	4142	4093	4093	4093	4093	4093	4093	4093	4093	4093	4142	4093	4093	4093	4093	4093	4093	4093	4093	4093	4093	4093	4142	4093	4093	4142	4142	4142	4093	4093	4093	4045	4045	4045	4093	4093	4093	4093	4093	4093	4093	4093	4045	4045	4045	4142	4142	4192	4243	4243	4296	4296	4296	4350	4350	4406	4406	4406	4406	4406	6018	5915	5915	5915	5915	5915	5915	5915	5915	6018	6018	6018	6018	6018	6018	5915	5915	5915	5915	5915	6124	6124	6124	6235	6235	6124	6124	0	0	0	0	0	0	0	0	0	0	0	0	0	0	6468	6468	6592	6592	0	0	0	0	0	0	2893	2893	2869	2845	2845	2845	2845	0	0	0	0	0	0	0	0	0	0	0	0	0	0	0	0	0	0	0	0	0	0	0	0	0	0	0	0	0	0	0	0	0	0	0	0
0	0	0	0	0	0	0	0	0	1461	1461	1455	1480	1473	1473	1473	1480	1263	1263	1259	1263	1259	1259	1259	1259	1259	1263	1268	1272	1287	1287	1291	1296	1296	1296	1306	1311	1316	1321	1326	1331	1331	1331	1331	1336	1336	1336	1131	1131	1131	1127	1127	1127	1127	1127	1123	1123	1123	1123	1120	1120	1120	1120	1120	1123	1123	1123	1123	1123	1123	1123	1123	1127	1127	1131	1134	1134	1134	1131	1131	1134	1134	1131	1134	1146	1146	1146	1193	1193	1202	1206	1210	1210	1214	1219	1219	1223	1227	1227	1227	1240	1240	1240	1240	1254	1254	1254	1259	1259	1259	0	0	0	1291	1291	1291	1296	1296	1296	1296	1306	1311	1316	1316	1316	1321	1321	1326	1331	1331	1336	1336	1347	1347	1358	1363	1368	1368	1379	1379	1396	1396	1396	1402	0	0	0	0	0	0	0	0	0	0	0	0	0	1741	1768	1768	1777	1777	1777	1786	1795	1795	1804	1804	1804	1814	1824	1833	1843	1843	1853	1853	1863	1873	1883	1894	1904	1925	1936	1936	1947	1947	0	0	4906	4906	4906	4838	4771	4771	4771	4771	4771	4771	4771	4771	4771	4771	4771	4771	4771	4771	4771	4771	4771	4771	4771	4771	4706	4771	4771	4771	4771	4771	4771	4771	4771	4771	4771	4706	4706	4706	4706	4706	4706	4706	4706	4771	4771	4771	4771	4771	4706	4706	4706	4643	4706	4643	4643	4706	4706	4706	4706	4706	4706	4706	4706	4771	4771	4771	4771	4771	4771	4771	4771	4771	4706	4706	4706	4771	4706	4706	4771	4771	4771	4771	4771	4771	4771	4706	4706	4706	4706	4706	4706	4706	4706	4706	4643	4706	4706	4643	4643	4643	4643	4643	3440	3440	3440	3406	3406	3406	3406	3373	3373	3373	3341	3373	3341	3341	3341	3341	3341	3341	3341	3341	3309	3309	3309	3309	3277	3277	3277	3309	3309	3309	3309	3309	3309	3309	3309	3309	3309	3277	3277	3277	3277	3309	3309	3309	3309	3309	3309	3309	3309	3277	3277	3309	3309	3309	3309	3309	3309	3309	3309	3309	3309	3309	3309	3309	3309	3309	3309	3309	3309	3309	3309	3341	3341	3341	3373	3373	3373	3373	3341	3373	3341	3373	3341	3341	3341	4350	4350	4350	4350	4350	4350	4350	4296	4350	4350	4350	4350	4350	4406	4350	4350	4350	4350	4350	4350	4296	4296	4296	4350	4296	4296	4350	4350	4406	4406	4406	4406	4350	4350	4350	4296	4296	4296	4296	4296	4296	4243	4243	4243	4243	4243	4243	4243	4243	4243	4243	4243	4243	4243	4243	4243	4243	4243	4243	4243	4296	4243	4243	4243	4243	4243	4243	4243	4243	4243	4243	4243	4243	4243	4192	4192	4192	4192	4192	4192	4192	4192	4192	4243	4243	4192	4192	4192	4192	4142	4142	4142	4093	4093	4093	4093	4093	4045	4093	4093	4093	4093	4093	4093	4142	4142	4142	4142	4142	4093	4093	4142	4093	4093	4093	4093	4093	4093	4045	4093	4093	4093	4093	4093	4093	4093	4093	4093	4093	4093	4093	4093	4093	4142	4093	4093	4093	4142	4142	4093	4093	4093	4093	4093	4093	4093	4093	4093	4093	4093	4093	4093	4093	4093	4093	4093	4142	4192	4192	4243	4243	4296	4296	4350	4350	4406	4406	4406	4406	4406	4406	4406	5915	5915	5915	5915	5915	5915	5915	5915	5915	6018	6018	5915	6018	6018	5915	5915	6018	6018	6018	6124	6124	6124	6124	6124	6124	6124	6124	0	0	0	0	0	0	0	0	0	0	0	0	0	6468	6468	6592	6592	0	0	0	0	0	0	2893	2869	2869	2845	2845	2822	2822	0	0	0	0	0	0	0	0	0	0	0	0	0	0	0	0	0	0	0	0	0	0	0	0	0	0	0	0	0	0	0	0	0	0	0	0
0	0	0	0	0	0	0	0	0	1467	1467	1473	1480	1480	1480	1480	1486	1492	1480	1480	1263	1263	1263	1259	1263	1263	1263	1277	1287	1291	1291	1296	1296	1296	1301	1301	1311	1316	1321	1321	1331	1326	1326	1326	1326	1326	1331	1131	1131	1127	1127	1127	1127	1127	1123	1123	1120	1120	1123	1120	1120	1120	1120	1120	1120	1120	1123	1123	1123	1123	1123	1127	1127	1127	1131	1131	1134	1131	1131	1131	1131	1134	1134	1134	1142	1142	1142	1142	1202	1202	1206	1210	1210	1214	1219	1219	1223	1223	1227	1227	0	0	0	0	1254	1259	1259	1259	1259	1259	0	0	0	1291	1291	1296	1296	1296	1301	1301	1316	1316	1316	1316	1316	1321	1321	1331	1331	1331	1336	1347	1352	1352	0	0	1368	1374	1379	1385	1385	1407	1413	1413	0	0	0	0	0	0	0	0	0	0	0	0	0	1768	1768	1768	1777	1777	1777	1786	1795	1795	1795	1804	1804	1814	1824	1833	1843	1843	1853	1853	1863	1873	1883	1894	1904	1925	1925	1936	1947	1958	1958	1958	0	4906	4906	4838	4838	4771	4838	4771	4771	4771	4771	4771	4771	4771	4771	4771	4771	4771	4771	4771	4771	4771	4706	4706	4706	4771	4771	4771	4771	4771	4771	4771	4771	4771	4706	4706	4706	4706	4706	4706	4706	4706	4706	4706	4706	4706	4706	4706	4706	4706	4706	4643	4706	4643	4706	4706	4706	4706	4706	4706	4706	4706	4706	4771	4771	4771	4771	4771	4771	4771	4771	4706	4706	4706	4706	4771	4771	4771	4771	4771	4771	4771	4771	4771	4771	4771	4706	4706	4706	4706	4706	4706	4706	4706	4706	4706	4706	4643	4643	4643	4643	3440	3440	3440	3440	3406	3406	3406	3373	3373	3373	3373	3341	3341	3341	3341	3341	3341	3341	3341	3341	3341	3309	3309	3309	3309	3277	3277	3277	3277	3309	3309	3309	3309	3309	3309	3309	3309	3277	3277	3277	3277	3277	3309	3309	3309	3309	3309	3309	3309	3309	3277	3277	3277	3277	3277	3277	3277	3277	3277	3277	3309	3277	3309	3309	3309	3309	3309	3309	3309	3309	3309	3309	3309	3309	3309	3341	3373	3373	3309	3341	3373	3373	3373	3373	3373	3373	4296	4296	4296	4296	4296	4296	4350	4296	4350	4350	4296	4296	4350	4350	4296	4296	4296	4350	4296	4296	4296	4296	4296	4296	4296	4296	4296	4296	4350	4350	4350	4350	4350	4350	4350	4296	4296	4296	4296	4296	4296	4243	4243	4243	4243	4243	4243	4243	4243	4243	4243	4243	4296	4243	4243	4243	4243	4296	4243	4243	4296	4243	4243	4243	4243	4243	4243	4243	4243	4243	4243	4243	4243	4243	4243	4243	4192	4192	4192	4192	4192	4192	4243	4243	4243	4192	4192	4142	4142	4142	4142	4142	4093	4093	4093	4045	4093	4093	4045	4045	4045	4045	4093	4045	4093	4142	4142	4142	4093	4093	4093	4093	4093	4093	4093	4093	4093	4093	4093	4093	4093	4142	4142	4093	4093	4142	4093	4093	4093	4093	4093	4093	4093	4093	4142	4142	4142	4142	4142	4093	4093	4093	4093	4093	4093	4093	4142	4093	4093	4093	4093	4093	4093	4093	4093	4093	4142	4192	4192	4243	4243	4296	4296	4296	4350	4406	4406	4406	4406	4406	4406	4406	5915	5915	5915	5915	5915	5915	5915	5915	6018	6018	5915	5915	6018	6018	6018	5915	6018	6018	6018	6124	6124	6124	6124	6124	6124	6124	6018	5915	6124	6235	6124	6235	6349	6349	6349	0	0	0	0	0	6468	6468	6468	6468	0	0	0	0	0	0	2893	2869	2869	2822	2822	2822	2822	0	0	0	0	0	0	0	0	0	0	0	0	0	0	0	0	0	0	0	0	0	0	0	0	0	0	0	0	0	0	0	0	0	0	0	0
0	0	0	0	0	0	0	0	0	1467	1473	1480	1486	1480	1480	1480	1492	1492	1492	1492	1492	1263	1263	1263	1263	1263	1268	1277	1287	1291	1291	1296	1296	1301	1301	1306	1311	1316	1321	1321	1331	1326	1326	1326	1326	1326	1326	1138	1131	1127	1127	1127	1123	1127	1123	1123	1120	1120	1120	1120	1116	1120	1120	1120	1123	1120	1123	1123	1123	1123	1123	1123	1127	1127	1131	1131	1131	1131	1131	1131	1134	1134	1134	1138	1146	1157	1157	1157	1210	1210	1210	1214	1214	1219	1219	1219	1223	1223	1223	1227	0	0	0	0	1259	1259	1259	1263	1263	1263	0	0	0	0	1291	1296	1296	1296	1301	1301	1316	1316	1316	1316	1316	1316	1321	1321	1326	1326	0	1347	1352	1352	0	0	0	1374	1379	1385	1402	1402	1402	1413	0	0	0	0	0	0	0	0	0	0	0	0	0	1768	1768	1777	1777	1777	1777	1786	1786	1786	1795	1804	1804	1814	1814	1833	1843	1843	1853	1853	1873	1873	1883	1894	1904	1925	1936	1936	1947	1969	1969	1969	0	0	0	4906	4838	4838	4838	4838	4771	4771	4771	4771	4771	4771	4771	4771	4771	4771	4771	4771	4706	4706	4706	4706	4706	4771	4771	4771	4771	4771	4771	4771	4771	4771	4771	4706	4706	4706	4706	4706	4771	4771	4771	4771	4771	4771	4706	4706	4643	4643	4706	4706	4706	4706	4706	4706	4706	4771	4706	4706	4706	4706	4706	4771	4771	4771	4706	4706	4706	4771	4771	4706	4706	4706	4706	4771	4706	4706	4706	4771	4706	4706	4771	4706	4706	4706	4706	4706	4706	4706	4706	4643	4706	4706	4706	4706	4706	4643	4643	4643	4581	3406	3406	3406	3440	3440	3406	3373	3373	3373	3373	3373	3373	3373	3341	3341	3341	3341	3341	3341	3341	3341	3341	3309	3309	3309	3277	3277	3277	3309	3309	3309	3309	3309	3309	3309	3277	3277	3277	3277	3277	3277	3277	3277	3309	3309	3309	3309	3277	3277	3309	3277	3309	3277	3277	3277	3277	3277	3277	3277	3277	3277	3277	3277	3309	3309	3309	3309	3309	3309	3309	3309	3309	3309	3309	3309	3373	3373	3373	3309	3341	3373	3341	3373	3373	3373	3373	3373	4296	4296	4296	4296	4296	4350	4350	4350	4350	4296	4296	4296	4296	4296	4243	4243	4296	4296	4296	4296	4296	4296	4296	4296	4296	4296	4296	4296	4296	4296	4350	4296	4296	4296	4296	4296	4296	4296	4296	4296	4296	4243	4243	4243	4243	4243	4243	4243	4243	4243	4243	4296	4243	4243	4243	4296	4296	4296	4296	4296	4296	4243	4243	4243	4243	4243	4243	4243	4243	4243	4243	4243	4243	4243	4192	4192	4192	4192	4192	4192	4192	4192	4192	4192	4192	4142	4142	4093	4093	4093	4093	4093	4093	4093	4093	4045	4045	4045	4045	4045	4093	4093	4093	4093	4142	4093	4142	4093	4093	4093	4093	4093	4093	4093	4093	4093	4093	4093	4093	4093	4142	4093	4093	4093	4093	4093	4093	4093	4045	4093	4093	4093	4093	4142	4142	4142	4142	4142	4093	4093	4093	4093	4045	4093	4093	4142	4142	4093	4093	4093	4093	4093	4093	4093	4093	4142	4192	4192	4192	4192	4243	4296	4296	4350	4350	4406	4406	4406	4406	4406	4406	5915	5915	5915	5915	5915	5915	5915	5915	5915	5915	5915	5915	6018	6018	5915	5915	6018	6124	6018	6124	6235	6124	6235	6235	6235	6124	6124	6124	6235	6235	6124	6235	6235	6235	6349	6349	0	0	0	0	6592	6592	6592	6592	0	0	0	0	0	0	0	2869	2845	2822	2822	2822	2822	0	0	0	0	0	0	0	0	0	0	0	0	0	0	0	0	0	0	0	0	0	0	0	0	0	0	0	0	0	0	0	0	0	0	0	0
0	0	0	0	0	0	0	0	0	1473	1473	1480	1480	1480	1480	1480	1486	1492	1492	1499	1499	1506	1506	1321	1321	1282	1282	1282	1291	1287	1287	1296	1296	1301	1306	1306	1311	1316	1321	1326	1326	1326	1331	1326	1326	1326	1153	1134	1131	1127	1127	1127	1123	1123	1123	1123	1120	1120	1120	1120	1116	1120	1123	1123	1123	1120	1120	1123	1123	1123	1123	1123	1127	1127	1127	1131	1131	1131	1131	1131	1131	1134	1134	1157	1157	1157	1157	1157	1206	1210	1210	1214	1214	1214	1219	1219	1219	1223	1223	0	0	0	0	0	1259	1263	1263	1263	1268	1268	0	0	0	0	0	0	0	0	1311	1311	1311	1316	1316	1316	1316	1326	1326	1331	1331	1326	0	0	0	0	0	0	0	0	0	0	1402	1413	1413	0	0	0	0	0	0	0	0	0	0	0	0	0	0	1768	1768	1777	1777	1777	1777	1777	1786	1786	1795	1804	1804	1814	1814	1833	1833	1843	1853	1863	1863	1873	1883	1894	1904	1915	1936	1936	1947	1969	1969	1969	0	0	0	4977	4838	4838	4838	4838	4771	4771	4771	4771	4771	4771	4771	4771	4771	4771	4771	4706	4706	4706	4706	4706	4706	4771	4771	4771	4771	4771	4771	4771	4771	4771	4706	4706	4771	4771	4771	4771	4771	4771	4771	4771	4706	4706	4706	4706	4706	4706	4706	4706	4706	4706	4706	4771	4771	4771	4706	4771	4771	4706	4706	4706	4706	4771	4706	4706	4706	4706	4706	4706	4706	4706	4706	4706	4706	4706	4706	4706	4706	4706	4771	4706	4771	4706	4706	4706	4706	4706	4706	4706	4706	4706	4706	4706	4706	4643	4643	4581	3406	3406	3440	3440	3440	3440	3406	3406	3373	3373	3373	3373	3373	3373	3373	3373	3341	3341	3341	3341	3341	3341	3341	3309	3309	3309	3277	3277	3277	3277	3277	3277	3277	3277	3309	3309	3277	3277	3277	3277	3277	3277	3277	3277	3277	3277	3277	3277	3277	3277	3277	3277	3277	3277	3277	3277	3277	3277	3277	3277	3277	3277	3277	3277	3309	3309	3309	3309	3309	3309	3309	3309	3309	3309	3309	3341	3309	3309	3309	3309	3309	3341	3341	3373	3373	3373	3373	3373	4296	4296	4243	4243	4296	4296	4350	4350	4296	4350	4296	4296	4243	4243	4243	4243	4243	4243	4243	4296	4296	4296	4296	4296	4296	4296	4296	4296	4350	4296	4350	4350	4350	4350	4296	4296	4296	4296	4296	4296	4296	4296	4296	4296	4243	4296	4243	4243	4243	4296	4296	4296	4243	4243	4296	4296	4296	4296	4296	4350	4296	4296	4296	4296	4296	4296	4296	4243	4243	4243	4243	4243	4243	4192	4142	4192	4192	4192	4192	4192	4192	4192	4243	4192	4192	4142	4142	4093	4093	4093	4045	4045	4045	4045	4045	4045	4045	4045	4045	4045	4093	4045	4045	4093	4093	4093	4093	4093	4093	4093	4093	4093	4093	4093	4093	4093	4093	4093	4093	4093	4142	4142	4093	4093	4142	4045	4093	4045	4045	4093	4093	4093	4093	4093	4142	4142	4142	4142	4142	4093	4093	4142	4093	4093	4093	4142	4093	4093	4093	4093	4093	4093	4093	4093	4093	4142	4192	4192	4192	4243	4243	4243	4296	4350	4406	4406	4406	4406	4406	4406	4406	5915	5915	5915	5915	5915	5915	6018	6018	6018	6018	6018	5915	6018	6018	5915	5915	5915	6018	6018	6235	6235	6235	6235	6235	6235	6235	6235	6235	6235	6235	6235	6235	6349	6235	6349	6349	6468	6468	6468	6592	6592	6592	6592	6592	6592	6592	0	0	0	0	0	2845	2822	2822	2822	2822	2822	0	0	0	0	0	0	0	0	0	0	0	0	0	0	0	0	0	0	0	0	0	0	0	0	0	0	0	0	0	0	0	0	0	0	0	0
0	0	0	0	0	0	0	0	0	1480	1486	1480	1486	1486	1486	1486	1492	1499	1499	1506	1506	1506	1506	1321	1321	1306	1301	1296	1296	1296	1291	1296	1301	1301	1306	1311	1316	1316	1321	1321	1326	1326	1331	1326	1326	1134	1134	1134	1131	1127	1127	1127	1123	1127	1123	1123	1123	1123	1123	1120	1120	1123	1123	1123	1123	1120	1120	1120	1123	1123	1123	1123	1123	1127	1127	1127	1131	1131	1131	1131	1138	1134	1138	1157	1157	1161	1161	1161	1206	1206	1206	1210	1210	1210	1214	1223	1223	0	0	0	0	0	0	0	1259	1259	1259	1263	1263	1268	0	0	0	0	0	0	0	0	1311	1311	1311	1311	1316	1316	1316	1326	1326	1331	1331	0	0	0	0	0	0	0	0	0	0	0	0	1413	1413	0	0	0	0	0	0	0	0	0	0	0	0	0	1768	1768	1768	1777	1777	1777	1777	1777	1786	1786	1795	1804	1804	1814	1814	1824	1833	1833	1843	1853	1863	1873	1883	1894	1904	1915	1925	1936	1958	1969	1980	1980	1980	0	0	4977	4838	4838	4838	4838	4771	4771	4771	4771	4771	4771	4771	4771	4771	4706	4771	4706	4706	4706	4706	4706	4706	4706	4706	4771	4771	4771	4771	4771	4771	4771	4771	4771	4771	4771	4771	4771	4771	4771	4771	4771	4771	4771	4706	4706	4706	4706	4706	4706	4706	4706	4706	4706	4706	4771	4706	4706	4771	4771	4771	4771	4771	4771	4706	4706	4706	4706	4706	4706	4706	4706	4706	4706	4706	4706	4706	4706	4706	4706	4706	4706	4771	4771	4771	4706	4706	4706	4706	4706	4706	4706	4706	4706	4706	4706	4643	4643	3440	3440	3440	3440	3440	3440	3406	3406	3406	3373	3373	3406	3373	3373	3341	3341	3341	3341	3341	3341	3341	3341	3341	3309	3309	3309	3277	3277	3277	3277	3277	3277	3277	3277	3309	3277	3277	3277	3277	3277	3277	3277	3277	3277	3277	3277	3277	3277	3277	3277	3277	3277	3277	3277	3277	3277	3277	3277	3277	3277	3277	3277	3277	3277	3309	3309	3309	3309	3309	3309	3309	3309	3309	3309	3309	3309	3309	3309	3341	3309	3341	3341	3341	3373	3373	3373	3373	3373	4296	4296	4243	4243	4296	4296	0	0	4296	4296	4296	4296	4296	4243	4243	4243	4243	4243	4243	4243	4296	4296	4296	4296	4296	4296	4296	4296	4350	4350	4350	4350	4350	4463	4350	4296	4296	4350	4350	4350	4296	4296	4296	4296	4296	4296	4243	4243	4243	4296	4296	4296	4296	4243	4296	4296	4350	4350	4350	4350	4350	4296	4296	4296	4350	4350	4296	4296	4296	4296	4296	4243	4243	4192	4192	4142	4192	4192	4192	4192	4192	4192	4243	4192	4192	4142	4142	4093	4045	4045	4093	4045	4045	4045	4093	4093	4045	4045	4045	4045	4093	4045	4045	4045	4093	4093	4093	4093	4093	4093	4093	4142	4093	4093	4093	4093	4093	4093	4093	4093	4142	4142	4142	4142	4142	4045	4093	4045	4093	4045	4045	4093	4093	4093	4093	4093	4142	4142	4142	4142	4093	4142	4093	4093	4093	4093	4093	4093	4093	4045	4093	4093	4093	4093	4093	4142	4142	4192	4192	4192	4243	4296	4296	4350	4350	4406	4406	4350	4350	4350	4350	4350	5915	5915	5915	6018	6018	6018	6018	6018	6018	6018	6018	6018	6018	5915	5915	6018	6018	6124	6235	6235	6235	6235	6235	6235	6235	6235	6235	6235	6235	6235	6235	6235	6235	6349	6349	6349	6468	6468	6468	6468	6468	6592	6468	6592	6592	0	0	0	0	0	2845	2822	2799	2822	2822	2822	0	0	0	0	0	0	0	0	0	0	0	0	0	0	0	0	0	0	0	0	0	0	0	0	0	0	0	0	0	0	0	0	0	0	0	0
