0	0	0	0	0	0	0	0	0	0	0	0	0	0	0	0	0	0	0	0	0	0	0	1081	1081	1085	1088	1088	1088	0	0	0	0	0	0	0	0	0	0	0	0	0	0	0	0	0	0	0	0	0	0	0	0	1263	1259	1259	1254	1259	1268	1268	1282	1291	1291	1301	1306	1306	1306	1311	1311	1306	1306	1296	1291	1296	1321	1326	1321	1321	0	0	1326	1326	1326	1316	1316	0	0	0	0	0	0	0	0	0	0	0	0	0	0	0	0	0	0	0	0	0	0	0	0	0	0	0	0	0	0	0	0	0	0	0	0	0	0	0	0	0	0	0	0	0	1706	1706	1706	1715	1706	1715	1715	1732	1741	1741	1741	1750	1750	1750	1759	1768	1777	1786	1795	1804	1804	1814	1824	1824	1833	1843	1853	1863	1873	1883	1883	1894	1904	1904	1925	1936	1947	1947	1969	1992	2003	2027	2039	2051	2063	2076	2076	2629	2629	2649	2649	2669	2711	2711	2711	2733	2754	2799	2799	2799	2822	2822	2822	2822	2822	2822	2822	2799	2799	2799	4350	4350	4350	4350	4350	4350	4350	4350	4406	4406	4350	4296	4243	4243	4093	4093	4093	4093	4045	4045	4045	4045	4045	4045	4045	4093	4093	4093	4093	4093	4093	4093	4093	4093	4093	4093	4093	4093	4093	4093	4093	4093	4093	4093	4093	4093	4142	4142	4142	4093	4093	4093	4045	4045	4045	0	0	0	0	0	0	0	0	0	0	0	0	0	0	4093	4093	4093	4093	4093	4093	4093	4093	4093	0	3373	3406	3440	3440	3440	3406	3406	3406	3406	3373	3373	3373	3373	3373	3373	3341	3341	3341	3341	3341	3341	3341	3341	3341	3373	3373	3373	3373	3373	3373	3373	3373	3373	3373	3373	3373	3373	3373	3341	3341	3341	3341	3309	3309	3309	3277	3277	3277	3277	3309	3277	3277	3277	3277	3277	3277	3277	3277	3277	3277	3277	3277	3277	3277	3277	3277	3277	3277	3277	3309	3309	3309	3309	3309	3277	3277	3277	4192	4192	4142	4142	4192	4192	4243	4243	4243	4243	4243	4243	4192	4192	4192	4192	4192	4243	4243	4296	4243	4243	4296	4243	4243	4243	4243	4192	4192	4243	4192	4192	4192	4243	4243	4243	4243	4243	4243	4243	4243	4243	4243	4243	4243	4243	4243	4192	4192	4142	4142	4192	4192	4192	4192	4192	4192	4142	4142	4142	4142	4142	4142	4142	4142	4192	4192	4192	4192	4192	4192	4142	4142	4142	4142	4142	4192	4192	4243	4243	4192	4192	4192	4192	4192	4192	4093	4093	4093	4045	4093	4093	4093	4142	4142	4142	4142	4142	4142	4142	4142	4142	4142	4142	4142	4142	4093	4093	4045	4045	4045	3998	3998	3998	3998	3998	3998	3998	3998	3998	3998	3998	3952	3952	3952	3952	3952	3952	3952	3952	3952	3952	3952	3952	3952	3952	3952	3952	3952	3952	3952	3952	3952	3952	3952	3952	3952	3998	3998	3998	3998	3998	3998	3998	3998	3998	3998	3998	3998	3998	3998	3998	3998	3998	3998	3998	3998	3998	3998	3998	3998	3998	3998	3998	3998	3998	3998	3998	4045	4045	4093	4142	4192	4192	4192	4192	4243	4243	4243	4243	4243	4243	4243	4243	4243	6124	6018	5915	5915	5915	5915	5915	6018	6018	6124	6124	6018	6124	6124	6124	6235	6235	0	0	0	0	0	0	6124	6124	6124	6235	6235	6235	0	0	0	0	0	0	0	6349	6349	6349	6468	6592	6592	6592	6592	6720	6853	6720	6720	6720	6720	6720	6720	6592	6592	6468	6592	6592	0	0	0	0	0	0	0	0	0	0	0	0	0	0	0	0	0	0	0	0	0	0	0	0	0	0	0	0	0	0	0	0
0	0	0	0	0	0	0	0	0	0	0	0	0	0	0	0	0	0	0	0	0	0	0	1085	1085	1088	1088	1088	1091	1091	0	0	0	0	0	0	0	0	0	0	0	0	0	0	0	0	0	0	0	0	0	0	0	0	1259	1263	1249	1259	1263	1263	1277	1287	1291	1301	1306	1306	1306	1311	1316	1311	1311	1306	1306	1326	1326	1326	1326	1321	0	0	1326	1326	1326	0	0	0	0	0	0	0	0	0	0	0	0	0	0	0	0	0	0	0	0	0	0	0	0	0	0	0	0	0	0	0	0	0	0	0	0	0	0	0	0	0	0	0	0	0	0	0	1706	1706	1706	1706	1706	1715	1715	1715	1732	1732	1741	1750	1759	1768	1768	1777	1786	1795	1795	1795	1804	1814	1824	1833	1843	1843	1853	1863	1863	1873	1883	1894	1904	1904	1925	1936	1936	1947	1969	1980	1992	2027	2039	2063	2076	2088	2088	2629	2649	2649	2649	2669	2711	2711	2711	2733	2733	2799	2799	2799	2822	2845	2822	2845	2845	2845	2822	2822	2822	2822	2822	4463	4463	4406	4350	4350	4406	4406	4406	4406	4406	4350	4350	4243	4093	4093	4093	4093	4093	4045	4045	4093	4045	4045	4093	4093	4093	4093	4093	4093	4093	4093	4093	4093	4093	4093	4093	4093	4093	4142	4093	4093	4093	4093	4093	4093	4093	4093	4142	4093	4093	4093	4045	4045	4045	4045	0	4093	4093	0	0	0	0	0	0	0	0	0	4093	4093	4093	4093	4093	4093	4093	4093	4093	4093	4093	3440	3440	3440	3440	3440	3406	3406	3406	3406	3373	3373	3373	3373	3373	3373	3341	3341	3341	3341	3341	3341	3341	3341	3341	3373	3373	3373	3373	3373	3373	3373	3373	3373	3373	3373	3373	3406	3373	3341	3341	3341	3341	3309	3309	3309	3309	3309	3309	3309	3309	3309	3309	3277	3277	3277	3277	3277	3277	3277	3277	3277	3277	3277	3277	3277	3277	3277	3277	3277	3309	3309	3309	3309	3309	3309	3309	3309	4243	4192	4142	4192	4192	4192	4192	4192	4243	4243	4243	4243	4192	4192	4192	4192	4243	4243	4243	4243	4243	4243	4243	4243	4243	4243	4243	4192	4192	4192	4192	4192	4192	4243	4243	4243	4243	4243	4243	4243	4243	4243	4243	4243	4192	4192	4192	4142	4192	4142	4142	4192	4192	4192	4142	4142	4192	4192	4142	4142	4142	4142	4142	4142	4142	4142	4142	4192	4192	4192	4192	4142	4192	4142	4142	4192	4192	4192	4243	4243	4192	4192	4192	4192	4192	4142	4093	4093	4093	4045	4093	4093	4142	4142	4142	4142	4142	4142	4142	4142	4142	4142	4142	4142	4142	4142	4093	4093	4045	4045	4045	4045	3998	3998	3998	3998	3998	3998	3998	3998	3998	3998	3998	3952	3952	3952	3952	3952	3952	3952	3952	3907	3907	3952	3952	3952	3952	3998	3952	3952	3952	3952	3952	3952	3952	3952	3952	3952	3998	3998	3998	3998	3998	3998	3998	3998	3998	3998	3998	3998	3998	3998	3998	3998	3998	3998	3998	3998	3998	3998	3998	3998	3998	3998	3998	3998	3998	3998	3998	4045	4045	4093	4142	4192	4192	4192	4243	4243	4243	4243	4296	4243	4243	4243	4243	6018	6018	5915	5915	5915	5915	6018	6018	6018	6124	6124	6018	6124	6124	6124	6349	6235	6235	0	0	0	0	0	6124	6124	6124	6124	6124	6124	0	0	0	0	0	0	0	6349	6349	6349	6349	6468	6592	6592	6592	6468	6720	6720	6720	6720	6720	6720	6720	6720	6592	6468	6468	6592	0	0	0	0	0	0	0	0	0	0	0	0	0	0	0	0	0	0	0	0	0	0	0	0	0	0	0	0	0	0	0	0
0	0	0	0	0	0	0	0	0	0	0	0	0	0	0	0	0	0	0	0	0	0	0	1085	1085	1088	1088	1088	1091	1095	1095	0	0	0	0	0	0	0	0	0	0	0	0	0	0	0	0	0	0	0	0	0	0	0	1259	1263	1254	1254	1259	1259	1277	1287	1291	1301	1306	1306	1306	1316	1316	1311	1311	1311	1331	1331	1331	1331	1331	1331	0	0	0	0	0	0	0	0	0	0	0	0	0	0	0	0	0	0	0	0	0	0	0	0	0	0	0	0	0	0	0	0	0	0	0	0	0	0	0	0	0	0	0	0	0	0	0	0	0	0	0	1706	1698	1698	1698	1706	1706	1706	1715	1732	1741	1741	1741	1750	1759	1768	1768	1768	1777	1786	1795	1804	1814	1824	1824	1833	1833	1843	1853	1863	1863	1873	1883	1894	1904	1915	1925	1936	1936	1947	1969	1980	2003	2027	2051	2063	2063	2076	2076	2629	2629	2649	2649	2669	2690	2711	2711	2733	2754	2799	2799	2799	2822	2845	2822	2845	2845	2845	2845	2845	2799	2799	4350	4406	4406	4406	4350	4350	4406	4350	4406	4406	4406	4350	4350	0	0	0	4093	4045	3998	3998	3998	4045	4045	4045	4093	4093	4093	4093	4093	4093	4093	4093	4093	4093	4093	4093	4093	4093	4093	4093	4093	4093	4093	4093	4093	4093	4093	4093	4093	4093	4093	4045	4045	4045	4045	4045	4093	4093	4093	4093	4093	4045	4045	4045	4093	4093	4093	4093	4093	4093	4093	4093	4093	4142	4093	4093	4093	4093	4093	3406	3440	3440	3440	3440	3406	3406	3406	3406	3373	3373	3373	3373	3373	3373	3373	3341	3341	3341	3341	3341	3373	3341	3341	3373	3373	3341	3373	3373	3373	3373	3373	3373	3373	3406	3406	3406	3373	3341	3341	3341	3309	3309	3309	3309	3309	3309	3309	3309	3309	3277	3277	3277	3277	3277	3277	3277	3277	3277	3277	3277	3277	3277	3277	3277	3277	3277	3277	3277	3309	3309	3309	3309	3309	3309	3309	3309	3309	4192	4192	4192	4192	4192	4192	4192	4243	4243	4192	4192	4192	4192	4192	4192	4192	4192	4192	4243	4243	4243	4243	4243	4243	4243	4243	4192	4192	4243	4192	4243	4243	4243	4243	4243	4243	4243	4243	4243	4243	4243	4192	4192	4192	4192	4192	4142	4192	4142	4142	4142	4192	4142	4142	4142	4142	4142	4142	4142	4142	4142	4142	4142	4142	4142	4142	4192	4192	4192	4192	4142	4192	4142	4142	4142	4192	4192	4192	4192	4192	4192	4192	4192	4192	4192	4093	4093	4093	4093	4093	4142	4093	4142	4142	4142	4142	4142	4093	4093	4142	4142	4142	4142	4142	4142	4045	4045	4045	4045	3998	3998	3998	3998	3998	3998	3998	3998	3998	3998	3998	3998	3998	3952	3952	3952	3952	3952	3952	3952	3952	3952	3952	3952	3952	3952	3952	3952	3952	3952	3952	3952	3952	3952	3952	3952	3952	3952	3952	3998	3998	3998	3998	3998	3998	3998	3998	3998	3952	3998	3998	3998	3998	3998	3998	3998	3998	3998	3998	3998	3998	3998	3998	3998	3998	3998	3998	3998	3998	4045	4045	4093	4142	4192	4192	4192	4243	4243	4243	4243	4243	4296	4243	4243	4243	6018	6018	5915	5915	5915	5915	6018	6018	6018	6124	6124	6124	6124	6124	6124	6235	6235	6235	6235	6235	6235	0	6018	6124	6124	6018	6124	6124	6124	0	0	0	0	0	0	0	6349	6468	6349	6468	6468	6592	6592	6592	6592	6720	6720	6720	6720	6720	6720	6592	6720	6592	6592	6468	0	0	0	0	0	0	0	0	0	0	0	0	0	0	0	0	0	0	0	0	0	0	0	0	0	0	0	0	0	0	0	0	0
0	0	0	0	0	0	0	0	0	0	0	0	0	0	0	0	0	0	0	0	0	1088	1085	1085	1085	1085	1088	1088	1088	1088	1095	0	0	0	0	0	0	0	0	0	0	0	0	0	0	0	0	0	0	0	0	0	0	0	0	0	1254	1254	1259	1259	0	0	0	0	0	0	0	1316	1316	1331	1316	1316	1336	1336	1336	1336	1336	1331	0	0	0	0	0	0	0	0	0	0	0	0	0	0	0	0	0	0	0	0	0	0	0	0	0	0	0	0	0	0	0	0	0	0	0	0	0	0	0	0	0	0	0	0	0	0	0	0	0	0	1690	1690	1698	1690	1698	1706	1706	1715	1715	1732	1741	1741	1741	1759	1759	1768	1768	1768	1777	1786	1795	1804	1814	1824	1824	1833	1833	1843	1853	1863	1863	1873	1883	1894	1904	1915	1925	1936	1936	1947	1969	2003	2015	2027	2051	2063	2063	2063	2063	2629	2629	2649	2649	2649	2669	2711	2711	2733	2777	2799	2822	2799	2822	2822	2822	2822	2822	2845	2822	2777	2777	2777	4350	4350	4350	4350	4296	4296	4296	4296	4296	4296	4350	4350	4350	0	0	0	4093	4093	4093	3998	4045	4045	4045	4045	4045	4045	4045	4045	4045	4045	4045	4093	4045	4045	4045	4045	4045	4045	4045	4093	4093	4093	4093	4093	4093	4093	4093	4093	4093	4093	4045	4045	4045	4045	4045	4045	4045	4093	4045	4093	4093	4093	4045	4045	4045	4045	4093	4093	4093	4093	4093	4093	4093	4093	4093	4093	4093	4093	3440	3440	3440	3440	3440	3440	3406	3406	3406	3406	3373	3373	3373	3373	3373	3373	3373	3373	3373	3373	3373	3341	3373	3341	3341	3373	3341	3341	3341	3341	3341	3341	3373	3373	3373	3373	3406	3406	3373	3341	3341	3341	3341	3309	3309	3309	3309	3309	3309	3309	3309	3277	3277	3309	3277	3277	3277	3277	3277	3277	3277	3277	3277	3277	3277	3277	3277	3277	3277	3277	3309	3309	3309	3309	3309	3309	3309	3309	3309	4192	4192	4192	4192	4192	4192	4192	4192	4192	4192	4192	4192	4192	4192	4192	4192	4192	4192	4192	4192	4243	4243	4243	4243	4243	4243	4192	4192	4192	4192	4192	4192	4243	4243	4243	4243	4243	4243	4192	4192	4192	4192	4192	4192	4142	4142	4142	4192	4192	4192	4142	4142	4142	4142	4142	4142	4142	4142	4142	4142	4142	4142	4142	4142	4142	4192	4192	4192	4192	4192	4142	4142	4142	4142	4142	4142	4142	4192	4142	4142	4192	4192	4192	4192	4192	4093	4142	4142	4093	4093	4142	4093	4142	4142	4142	4142	4142	4093	4093	4142	4142	4093	4142	4093	4093	4045	4045	4045	4045	4045	4045	3998	3998	3998	3998	3998	3998	3998	3998	3998	3998	3998	3952	3952	3952	3998	3998	3998	3998	3998	3952	3952	3952	3952	3952	3952	3952	3952	3952	3952	3952	3952	3952	3952	3952	3952	3952	3952	3998	3998	3998	3998	3998	3998	3998	3998	3998	3998	3998	3998	3998	3998	3998	3998	3998	3998	3998	3998	3998	3998	3998	3998	3998	3998	3998	3998	3998	3998	4045	4045	4093	4142	4192	4192	4192	4192	4243	4243	4243	4243	4296	4296	4243	4243	6124	6018	6018	5915	5915	5915	6018	6018	6018	6124	6124	6124	6124	6124	6235	6349	6235	6235	6235	6235	6124	6018	6018	6124	6018	6018	6018	6018	0	0	0	0	0	0	0	0	0	6468	6349	6468	6468	6468	6592	6468	6468	6720	6592	6592	6592	6592	6720	6720	6720	6592	6592	0	0	0	0	0	0	0	0	0	0	0	0	0	0	0	0	0	0	0	0	0	0	0	0	0	0	0	0	0	0	0	0	0	0
0	0	0	0	0	0	0	0	0	0	0	0	0	0	0	0	0	0	0	0	0	1085	1085	1085	1085	1085	1085	1088	1088	1088	0	0	0	0	0	0	0	0	0	0	0	0	0	0	0	0	0	0	0	0	0	0	0	0	0	0	0	0	0	0	0	0	0	0	0	0	0	1316	1326	1331	1316	1316	1347	1342	1342	1342	1336	0	0	0	0	0	0	0	0	0	0	0	0	0	0	0	0	0	0	0	0	0	0	0	0	0	0	0	0	0	0	0	0	0	0	0	0	0	0	0	0	0	0	0	0	0	0	0	0	0	1681	1673	1690	1690	1690	1698	1698	1706	1706	1715	1723	1732	1741	1741	1741	1750	1759	1768	1768	1768	1777	1786	1795	1804	1814	1824	1824	1833	1833	1843	1853	1863	1863	1883	1894	1894	1904	1915	1936	1936	1936	1958	2003	2015	2015	2039	2051	2063	2063	2063	2063	2629	2629	2649	2649	2649	2669	2690	2711	2733	2777	2799	2799	2799	2799	2799	2822	2822	2822	2822	2799	2799	2799	2799	4296	4296	4296	4192	4243	4243	4243	4142	3952	3952	4350	4350	4350	0	0	0	4093	4093	4045	4045	4045	4045	4045	4045	4093	4093	4093	4093	4093	4045	4045	4093	3998	4045	4045	3998	4045	4045	4045	4093	4093	4045	4093	4093	4093	4093	4093	4093	4093	4045	4045	4045	4045	4045	4045	4093	4093	4093	4045	4093	4093	4093	4045	4045	4093	4045	4093	4093	4093	4093	4093	4093	4093	4093	4093	4093	4093	3475	3440	3440	3440	3440	3440	3440	3440	3406	3406	3406	3373	3373	3373	3373	3373	3373	3373	3373	3373	3373	3341	3341	3341	3341	3341	3341	3341	3341	3341	3341	3341	3373	3373	3373	3373	3373	3406	3406	3373	3341	3341	3341	3341	3309	3309	3309	3309	3309	3309	3309	3309	3309	3309	3309	3277	3277	3277	3277	3277	3277	3277	3277	3277	3277	3277	3277	3277	3277	3277	3277	3309	3309	3309	3309	3309	3309	3309	3277	3277	3277	4142	4192	4192	4142	4192	4192	4192	4192	4192	4192	4192	4192	4192	4192	4192	4192	4192	4192	4192	4243	4243	4243	4243	4243	4243	4192	4192	4192	4192	4192	4192	4192	4243	4243	4243	4243	4192	4192	4192	4142	4142	4142	4142	4192	4192	4142	4192	4192	4192	4142	4142	4142	4142	4142	4192	4192	4192	4192	4142	4192	4142	4142	4142	4192	4192	4192	4192	4192	4192	4142	4142	4142	4142	4142	4142	4192	4192	4142	4142	4142	4192	4192	4192	4192	4142	4142	4142	4142	4093	4142	4093	4142	4142	4142	4093	4142	4093	4093	4142	4142	4093	4093	4093	4093	4045	4045	4045	4045	4045	4045	3998	3998	3998	3998	3998	3998	3998	3998	3998	3998	3998	3952	3952	3952	3952	3952	3998	3998	3952	3952	3952	3952	3952	3952	3952	3952	3952	3952	3952	3952	3952	3952	3952	3952	3952	3952	3998	3998	3998	3998	3998	3998	3998	3998	3998	3998	3998	3998	3998	3998	3998	3998	3998	3998	3998	3998	3998	3998	3998	3998	3998	3998	3998	3998	3998	3998	3998	4045	4045	4093	4142	4192	4192	4192	4243	4243	4243	4243	4243	4296	4296	4243	4243	6018	6018	5915	5915	5915	5915	6018	6018	6018	6018	6124	6124	6124	6235	6235	6349	6235	6235	6235	6235	6124	6124	6124	6235	6124	6124	6124	6124	6124	0	0	0	0	0	0	0	0	6468	6349	6349	6349	6468	6468	6468	6349	6349	6720	6720	6720	6720	6720	6720	6720	6720	6720	0	0	0	0	0	0	0	0	0	0	0	0	0	0	0	0	0	0	0	0	0	0	0	0	0	0	0	0	0	0	0	0	0	0
0	0	0	0	0	0	0	0	0	0	0	0	0	0	0	0	0	0	0	0	0	1085	1085	1085	1085	1085	1085	1085	1088	1088	0	0	0	0	0	0	0	0	0	0	0	0	0	0	0	0	0	0	0	0	0	0	0	0	1681	1681	0	0	0	0	0	0	0	0	0	0	0	0	1331	1336	1347	1347	1352	1352	1352	1358	1358	0	0	0	0	0	0	0	0	0	0	0	0	0	0	0	0	0	0	0	0	0	0	0	0	0	0	0	0	0	0	0	0	0	0	0	0	0	0	0	0	0	0	0	0	0	0	0	0	0	1690	1681	1690	1690	1698	1698	1698	1706	1715	1715	1723	1732	1741	1750	1750	1759	1759	1768	1768	1768	1777	1795	1795	1804	1814	1824	1833	1833	1833	1843	1853	1863	1873	1873	1894	1904	1915	1925	1936	1947	1947	1969	2015	2015	2015	2027	2051	2063	2076	2076	2076	2649	2649	2649	2649	2649	2690	2711	2733	2754	2754	2799	2799	2799	2799	2822	2822	2822	2822	2822	2799	2777	2777	2777	4192	4142	4142	4142	4142	4142	4142	4142	3952	3952	3952	0	0	0	4142	4142	4142	4093	4093	4045	4045	4045	4045	4093	4093	4093	4093	4093	4093	4045	4045	4093	4045	3998	3998	3998	4045	4045	4045	4093	4093	4093	4093	4093	4093	4093	4093	4093	4093	4045	4045	4045	4045	4045	4045	4045	4045	4093	4045	4093	4093	4045	4045	4045	4093	4045	4093	4093	4093	4093	4093	4093	4093	4093	4142	4093	4093	3475	3475	3475	3475	3475	3440	3440	3406	3406	3406	3406	3373	3373	3373	3373	3373	3373	3373	3373	3373	3373	3341	3341	3341	3341	3341	3341	3341	3341	3341	3341	3341	3373	3373	3373	3373	3406	3406	3406	3373	3341	3373	3341	3341	3341	3341	3309	3309	3309	3309	3309	3309	3309	3309	3309	3309	3309	3277	3309	3277	3277	3277	3277	3277	3277	3277	3277	3277	3277	3277	3277	3277	3277	3277	3309	3309	3309	3309	3277	3277	3277	4192	4192	4142	4142	4142	4142	4192	4192	4192	4192	4192	4192	4192	4192	4192	4192	4192	4192	4192	4243	4243	4243	4243	4192	4243	4192	4192	4192	4192	4192	4243	4243	4243	4243	4243	4243	4243	4192	4192	4192	4142	4142	4142	4142	4142	4192	4192	4192	4192	4192	4142	4192	4142	4192	4192	4142	4192	4142	4142	4142	4142	4142	4142	4192	4192	4192	4192	4142	4142	4142	4142	4142	4142	4142	4142	4142	4142	4142	4142	4142	4192	4192	4192	4192	4142	4142	4142	4142	4142	4142	4093	4093	4093	4093	4093	4093	4093	4093	4142	4142	4142	4142	4093	4093	4093	4045	4045	4045	4045	4045	3998	3998	3998	3998	3998	3998	3998	3998	3998	3998	3998	3998	3952	3952	3998	3998	3998	3998	3998	3952	3952	3952	3952	3952	3952	3952	3952	3952	3952	3952	3952	3952	3952	3952	3952	3998	3998	3998	3998	3998	3998	3998	3998	3998	3998	3998	3998	3998	3998	3998	3998	3998	3998	3998	3998	3998	3998	3998	3998	3998	3998	3998	3998	3998	3998	3998	3998	4045	4045	4093	4093	4142	4192	4192	4192	4243	4243	4243	4243	4243	4243	4243	4243	5915	5915	5915	5915	5915	5915	5915	5915	6018	6018	6124	6124	6235	6235	6235	6349	6349	6235	6235	6235	6124	6235	6235	6235	6235	6235	6235	6124	6124	0	0	0	0	0	0	0	0	6468	6349	6349	6468	6468	6468	6468	6349	6592	6720	6720	6720	6720	6720	6720	6853	6720	6720	6720	0	0	0	0	0	0	0	0	0	0	0	0	0	0	0	0	0	0	0	0	0	0	0	0	0	0	0	0	0	0	0	0	0
0	0	0	0	0	0	0	0	0	0	0	0	0	0	0	0	0	0	0	0	0	0	1081	1085	1085	1085	1085	1085	1088	1088	0	0	0	0	0	0	0	0	0	0	0	0	0	0	0	0	0	1657	1657	1657	0	0	0	0	1673	1673	0	1673	1657	1657	0	0	0	0	0	0	0	0	1331	1347	1352	1352	1352	1352	1358	1358	1358	0	0	0	0	0	0	0	0	0	0	0	0	0	0	0	0	0	0	0	0	0	0	0	0	0	0	0	0	0	0	0	0	0	0	0	0	0	0	0	0	0	1706	1706	1706	1706	1715	1698	1690	1690	1690	1681	1690	1690	1698	1698	1706	1706	1715	1715	1723	1732	1741	1741	1750	1759	1759	1768	1768	1777	1777	1795	1795	1804	1804	1824	1833	1843	1843	1843	1853	1863	1873	1883	1894	1904	1915	1925	1947	1958	1958	1969	1980	2015	2015	2027	2039	2076	2063	2063	2063	2649	2649	2649	2649	2649	2669	2711	2733	2754	2777	2799	2799	2799	2799	2822	2822	2822	2822	2822	2799	2777	2777	2777	4093	3998	4045	4045	4093	4045	3998	4045	3952	3952	3952	0	0	0	4142	4093	4093	3998	3998	4045	4045	4045	4045	4093	4093	4093	4045	4093	4045	4045	4045	4045	4045	3998	3998	3998	4045	4045	4045	4045	4045	4093	4093	4093	4093	4093	4093	4093	4093	4093	4093	4045	4045	4093	4093	4093	4093	4093	4093	4093	4093	4093	4093	4093	4093	4045	4093	4093	4093	4093	4093	4093	4142	4142	4142	4093	4093	3510	3510	3475	3475	3475	3475	3440	3406	3406	3406	3406	3406	3373	3373	3373	3406	3373	3373	3373	3373	3373	3373	3373	3373	3341	3341	3341	3341	3341	3341	3341	3373	3373	3373	3373	3373	3406	3406	3406	3373	3373	3373	3373	3373	3341	3341	3309	3309	3309	3309	3309	3309	3277	3309	3309	3277	3309	3277	3277	3277	3277	3277	3277	3277	3277	3277	3277	3277	3277	3277	3277	3277	3277	3277	3277	3309	3309	3309	3309	3309	3309	4192	4192	4142	4142	4142	4142	4192	4192	4192	4192	4192	4192	4192	4192	4142	4142	4142	4192	4192	4192	4243	4243	4243	4192	4243	4192	4192	4192	4192	4192	4243	4192	4243	4243	4243	4243	4192	4192	4192	4192	4142	4142	4142	4142	4192	4192	4192	4192	4192	4192	4192	4192	4192	4192	4192	4142	4142	4142	4142	4142	4142	4142	4142	4192	4192	4192	4192	4192	4142	4192	4192	4142	4142	4142	4142	4142	4142	4142	4142	4142	4192	4192	4192	4192	4142	4142	4142	4142	4142	4142	4142	4142	4142	4093	4093	4093	4093	4093	4142	4142	4142	4093	4093	4093	4093	4045	4045	4045	4045	4045	3998	3998	3998	3998	3998	3998	3998	3998	3998	3998	3998	3998	3998	3952	3998	3952	3952	3952	3952	3952	3952	3952	3952	3952	3952	3952	3998	3998	3952	3952	3952	3952	3952	3952	3998	3998	3998	3998	3998	3998	3998	3998	3998	3998	3998	3998	3998	3998	3998	3998	3998	3998	3998	3998	3998	3998	3998	3998	3998	3998	3998	3998	3998	3998	3998	3998	3998	4045	4045	4045	4093	4142	4192	4192	4192	4243	4243	4296	4296	4296	4243	4243	4243	5915	5915	5915	5915	5915	5915	5915	5915	5915	6018	6018	6124	6124	6235	6235	6235	6235	6235	6235	6235	6235	6235	6235	6235	6235	6235	6235	6235	6235	0	0	0	0	0	0	0	0	0	0	6349	6349	6468	6468	6468	6468	6592	6720	6720	6720	6720	6720	6720	6720	6720	6720	6720	6720	0	0	0	0	0	0	0	0	0	0	0	0	0	0	0	0	0	0	0	0	0	0	0	0	0	0	0	0	0	0	0	0
0	0	0	0	0	0	0	0	0	0	0	0	0	0	0	0	0	0	0	0	0	0	1081	1085	1085	1085	1085	1085	1085	1088	0	0	0	0	0	0	0	0	0	0	0	0	0	0	0	0	1665	1665	1665	1673	1673	1673	1673	1673	1681	1681	1673	1673	1657	1657	1641	1641	0	0	0	0	0	0	0	1352	1358	1358	1358	1358	1358	1363	1363	0	0	0	0	0	0	0	0	0	0	0	0	0	0	0	0	0	0	0	0	0	0	0	0	0	0	0	0	0	0	0	0	0	0	0	0	0	0	0	0	0	1698	1698	1698	1706	1698	1698	1698	1698	1690	1690	1690	1690	1698	1698	1706	1706	1715	1715	1723	1732	1741	1750	1750	1759	1759	1768	1768	1777	1777	1795	1804	1804	1814	1833	1833	1843	1843	1853	1853	1863	1873	1883	1894	1904	1915	1925	1958	1958	1969	1980	1980	1980	2015	2039	2063	2063	2063	2076	2076	2649	2649	2649	2649	2649	2669	2690	2733	2733	2777	2799	2799	2799	2799	2822	2822	2822	2822	2822	2799	2777	2777	2777	3952	3952	3998	3998	3998	3998	3952	3952	3952	3952	3952	3952	0	0	4045	4045	3998	3998	3998	3952	4045	4045	4045	4045	4093	4045	4093	4045	4093	4045	4045	4045	4045	3998	3998	3998	4045	3998	4045	4045	4093	4093	4093	4093	4093	4093	4093	4093	4093	4093	4045	4045	4045	4093	4093	4093	4093	4093	4093	4093	4142	4093	4093	4093	4093	4093	4142	4093	4093	4093	4142	4142	4142	4142	4142	4093	4093	3546	3510	3475	3475	3475	3475	3440	3406	3406	3406	3406	3373	3373	3373	3373	3373	3373	3373	3373	3373	3373	3373	3373	3373	3341	3341	3341	3341	3341	3341	3341	3373	3373	3373	3373	3406	3406	3406	3406	3373	3373	3373	3373	3373	3341	3341	3341	3309	3309	3309	3309	3309	3277	3309	3309	3309	3309	3277	3277	3277	3277	3277	3277	3277	3277	3277	3277	3277	3277	3277	3277	3277	3277	3277	3309	3309	3309	3309	3277	3277	4243	4192	4192	4142	4142	4142	4142	4192	4192	4192	4192	4192	4192	4192	4142	4142	4142	4142	4142	4192	4192	4192	4192	4192	4192	4192	4243	4192	4192	4192	4192	4192	4192	4192	4192	4243	4243	4192	4192	4192	4192	4192	4142	4192	4192	4192	4192	4192	4243	4192	4192	4192	4192	4192	4192	4192	4192	4192	4142	4142	4142	4142	4142	4142	4192	4192	4192	4192	4192	4192	4192	4192	4142	4142	4142	4142	4142	4142	4142	4142	4142	4192	4192	4192	4243	4192	4192	4142	4142	4142	4142	4142	4093	4093	4093	4093	4093	4093	4093	4093	4142	4142	4093	4093	4093	4093	4045	4045	4045	4045	4045	3998	3998	3998	3998	3998	3998	3998	3998	3998	3998	3998	3998	3998	3998	3998	3998	3998	3998	3998	3952	3952	3952	3952	3952	3998	3998	3998	3998	3998	3998	3952	3952	3952	3998	3998	3998	3998	3998	3998	3998	3998	3952	3998	3998	3998	3998	3998	3998	3998	3998	3998	3998	3998	3998	3998	3998	3998	3998	3998	3998	3998	3998	3998	3998	3998	3998	3998	4045	4045	4045	4093	4142	4142	4192	4243	4243	4243	4296	4296	4296	4243	4243	4243	5915	5915	5915	5915	5915	5915	5915	5915	6018	6018	6124	6124	6235	6235	6235	6235	6235	6235	6235	6235	6235	6235	6235	6235	6235	6235	6235	6235	6235	6235	6235	6235	0	0	0	0	0	0	0	6349	6349	6468	6468	6468	6468	6592	6720	6720	6720	6720	6720	6720	6720	6720	6720	6720	6720	0	0	0	0	0	0	0	0	0	0	0	0	0	0	0	0	0	0	0	0	0	0	0	0	0	0	0	0	0	0	0	0
0	0	0	0	0	0	0	0	0	0	0	0	0	0	0	0	0	0	0	0	0	0	1081	1085	1085	1085	1085	1085	1085	1088	0	0	0	0	0	0	0	0	0	0	0	0	0	0	0	0	1673	1673	1673	1673	1673	1673	1673	1673	1673	1673	1673	1665	1657	1657	1641	1641	1641	1641	0	0	0	0	0	1358	1358	1363	1358	1358	1358	1358	1363	0	0	0	0	0	0	0	0	0	0	0	0	0	0	0	0	0	0	0	0	0	0	0	0	0	0	0	0	0	0	0	0	0	0	0	0	0	0	0	0	0	1706	1698	1698	1698	1698	1698	1698	1698	1698	1690	1698	1698	1698	1698	1706	1706	1715	1723	1723	1732	1741	1750	1759	1759	1768	1768	1777	1777	1777	1786	1804	1804	1814	1833	1833	1843	1843	1853	1853	1863	1883	1894	1904	1915	1925	1936	1947	1958	1958	1969	1992	2027	2027	2051	2063	2076	2063	2076	2076	2629	2629	2649	2649	2649	2669	2690	2733	2733	2777	2799	2799	2799	2799	2822	2822	2822	2822	2822	2799	2777	2777	3952	3952	3952	3998	3998	3998	3952	3952	3952	3952	3952	3952	3952	3952	3952	3952	3952	3952	3998	3952	3952	3952	3952	3998	3998	3998	4045	4093	3998	3998	3952	3952	4045	4045	3998	3998	3998	3998	3998	3998	3998	4045	4093	4093	4093	4142	4093	4093	4142	4093	4093	4142	4142	4142	4192	4192	4192	4192	4142	4093	4142	4142	4142	4142	4142	4142	4142	4093	4093	4045	4093	4142	4142	4142	4142	4192	4142	3546	3546	3475	3475	3475	3475	3440	3440	3406	3406	3406	3406	3373	3373	3373	3373	3406	3373	3373	3373	3373	3373	3373	3373	3373	3341	3341	3341	3341	3341	3341	3373	3373	3373	3373	3373	3373	3406	3406	3406	3373	3373	3373	3373	3373	3341	3341	3309	3309	3309	3309	3277	3309	3277	3309	3309	3309	3309	3277	3277	3277	3277	3277	3277	3277	3277	3277	3277	3277	3277	3277	3277	3277	3277	3277	3309	3309	3309	3309	3277	3277	4243	4192	4192	4192	4142	4142	4192	4192	4192	4192	4192	4192	4192	4192	4142	4093	4093	4142	4142	4142	4192	4192	4192	4192	4192	4192	4192	4142	4142	4192	4192	4192	4192	4192	4192	4192	4192	4192	4192	4192	4192	4192	4192	4192	4192	4192	4243	4243	4243	4192	4192	4192	4192	4192	4192	4192	4192	4142	4142	4142	4142	4142	4142	4142	4192	4192	4192	4192	4192	4192	4192	4192	4142	4142	4142	4142	4142	4142	4142	4142	4142	4192	4192	4192	4192	4142	4142	4142	4142	4093	4093	4093	4093	4093	4045	4093	4093	4045	4093	4093	4093	4093	4093	4093	4093	4093	4093	4045	4045	4045	4045	3998	3998	3998	3998	3998	3998	3998	3998	3998	3998	3998	3998	3998	3998	3998	3998	3998	3998	3998	3998	3952	3952	3952	3952	3998	3998	3998	3998	3998	3998	3952	3952	3998	3998	3998	3998	3998	3998	3998	3952	3952	3952	3952	3998	3998	3998	3998	3998	3998	3998	3998	3998	3998	3998	3998	3998	3998	3998	3998	3998	3998	3998	3998	3998	3998	3998	3998	3998	4045	4045	4093	4142	4192	4192	4243	4243	4243	4296	4296	4296	4350	4350	4350	5915	5915	5915	5915	5815	5915	5915	5915	6018	6018	6124	6235	6235	6235	6235	6235	6235	6235	6124	6235	6124	6124	6124	6235	6235	6235	6235	6235	6235	6235	6235	6349	6349	6468	6468	0	0	0	0	6349	6592	6592	6592	6592	6592	6592	6720	6720	6720	6720	6720	6720	6720	6720	6592	6592	6720	0	0	0	0	0	0	0	0	0	0	0	0	0	0	0	0	0	0	0	0	0	0	0	0	0	0	0	0	0	0	0	0
0	0	0	0	0	0	0	0	0	0	0	0	0	0	0	0	0	0	0	0	0	0	0	1081	1085	1085	1085	1085	1085	0	0	0	0	0	0	0	0	0	0	0	0	0	0	0	1673	1681	1673	1673	1665	1665	1673	1673	1673	1673	1673	1673	1673	1673	1657	1657	1649	1649	1657	1657	1657	1657	1673	1673	1673	1673	1673	1673	1363	1363	1368	1363	1363	0	0	0	0	0	0	0	0	0	0	0	0	0	0	0	0	0	0	0	0	0	0	0	0	0	0	0	0	0	0	0	0	0	0	0	0	0	0	0	0	0	1706	1698	1698	1698	1690	1690	1698	1698	1698	1690	1698	1698	1698	1706	1706	1715	1723	1723	1732	1732	1741	1750	1759	1759	1768	1777	1777	1777	1786	1795	1814	1824	1814	1833	1843	1843	1853	1853	1863	1863	1873	1894	1894	1915	1925	1936	1958	1958	1969	1980	1980	2015	2027	2063	2088	2088	2088	2101	2101	2649	2649	2649	2649	2669	2690	2690	2733	2733	2777	2799	2799	2799	2799	2822	2822	2822	2799	2799	2777	2777	2777	2777	3952	3952	3952	3952	3952	3952	3952	3952	3952	3952	3952	3952	3952	3907	3907	3952	3952	3952	3952	3952	3952	3952	3952	3952	3952	3952	3952	3952	3952	3952	3952	3998	3998	3998	3998	3998	3998	3998	3998	3998	4045	4093	4093	4093	4142	4142	4142	4142	4142	4093	4142	4142	4192	4192	4192	4192	4192	4142	4093	4142	4142	4142	4142	4142	4142	4142	4142	4142	4045	4045	4192	4192	4192	4192	4192	4350	3510	3510	3475	3475	3475	3440	3440	3406	3406	3406	3406	3406	3406	3406	3406	3406	3406	3406	3406	3373	3373	3373	3373	3373	3373	3373	3341	3373	3373	3341	3373	3373	3373	3373	3373	3373	3373	3373	3406	3406	3373	3373	3406	3373	3373	3373	3341	3309	3309	3309	3309	3309	3309	3277	3309	3309	3277	3309	3277	3277	3277	3277	3277	3277	3277	3277	3277	3277	3277	3277	3277	3277	3277	3277	3277	3277	3309	3277	3277	3277	3277	4243	4192	4192	4192	4142	4142	4192	4192	4192	4192	4192	4192	4142	4142	4142	4093	4093	4142	4142	4142	4192	4192	4192	4192	4192	4192	4192	4192	4192	4192	4192	4192	4192	4192	4142	4192	4192	4142	4142	4142	4192	4192	4192	4192	4192	4192	4192	4192	4192	4192	4192	4192	4192	4192	4192	4192	4192	4192	4142	4142	4192	4142	4142	4192	4192	4192	4192	4192	4192	4192	4142	4192	4142	4142	4142	4142	4142	4093	4142	4142	4142	4142	4142	4142	4192	4142	4142	4093	4093	4093	4093	4093	4093	4093	4045	4093	4093	4093	4093	4093	4093	4093	4093	4093	4093	4093	4093	4045	4045	4045	3998	3998	3998	3952	3998	3998	3998	3998	3998	3998	3998	3998	3998	3998	3998	3998	3998	3998	3998	3998	3998	3952	3952	3952	3952	3998	3998	3998	3952	3998	3998	3952	3998	3998	3998	3998	3998	3998	3998	3998	3952	3952	3952	3952	3998	3998	3998	3998	3998	3998	3998	3998	3998	3998	3998	3998	3998	3998	3998	3998	3998	3998	3998	3998	3998	3998	3998	3998	4045	4045	4045	4093	4142	4192	4192	4243	4243	4243	4243	4243	4243	4243	4192	4192	5815	5815	5815	5915	5915	5915	5915	5915	6018	6018	6124	6124	6235	6235	6235	6349	6235	6235	6235	6235	6235	6235	6235	6235	6235	6349	6349	6235	6235	6349	6349	6468	6468	6468	6468	6468	6349	6349	6349	6349	6592	6592	6592	6592	6592	6720	6720	6592	6592	6720	6720	6720	6720	6592	6592	6592	0	0	0	0	0	0	0	0	0	0	0	0	0	0	0	0	0	0	0	0	0	0	0	0	0	0	0	0	0	0	0	0	0
0	0	0	0	0	0	0	0	0	0	0	0	0	0	0	0	0	0	0	0	0	0	0	1081	1085	1085	1081	1081	1085	0	0	0	0	0	0	0	0	0	0	0	0	0	0	1681	1681	1681	1673	1673	1673	1665	1673	1673	1665	1665	1665	1665	1673	1673	1657	1657	1657	1657	1657	1657	1665	1665	1665	1673	1673	1673	1673	1673	1673	1673	1673	1665	1665	1665	1665	1665	1665	0	0	0	0	0	0	0	0	0	0	0	0	0	0	0	0	0	0	0	0	0	0	0	0	0	0	0	0	0	0	0	0	0	0	0	0	0	1706	1698	1698	1698	1690	1690	1698	1698	1698	1698	1698	1698	1706	1706	1715	1723	1732	1732	1732	1741	1741	1750	1759	1768	1768	1777	1777	1777	1786	1795	1804	1814	1814	1833	1833	1843	1853	1853	1853	1873	1873	1894	1915	1925	1936	1947	1958	1958	1969	1980	1980	1992	2039	2076	2101	2101	2101	2114	2114	2669	2649	2649	2649	2669	2690	2711	2733	2733	2754	2799	2799	2799	2799	2822	2799	2822	2799	2799	2799	2777	2777	3952	3952	3952	3952	3952	3952	3952	3952	3952	3952	3952	3952	3952	3952	3907	3907	3952	3907	3907	3907	3864	3864	3864	3952	3952	3952	3952	3952	3907	3907	3907	3907	3998	3998	3998	3998	3998	3998	3998	3952	3952	3952	4093	4093	0	0	4142	4142	4192	4192	4192	4192	4192	4192	4192	4406	4406	4350	4142	4142	4192	4192	4192	4192	4192	4192	4192	4192	4521	4521	4521	4521	4463	4350	4406	4406	4350	4350	3475	3475	3475	3475	3475	3440	3440	3406	3406	3406	3406	3406	3406	3406	3406	3406	3406	3373	3373	3373	3373	3373	3373	3373	3373	3373	3373	3373	3373	3341	3373	3373	3373	3373	3373	3373	3373	3373	3373	3373	3373	3406	3406	3373	3373	3373	3341	3309	3309	3309	3309	3309	3309	3309	3309	3309	3309	3309	3277	3277	3277	3277	3277	3277	3277	3277	3277	3277	3277	3277	3277	3277	3277	3277	3277	3277	3277	3277	3277	3277	4243	4192	4192	4192	4192	4192	4192	4142	4192	4192	4192	4192	4142	4142	4093	4093	4093	4142	4142	4142	4142	4192	4192	4192	4192	4192	4192	4142	4142	4192	4192	4192	4142	4142	4142	4192	4192	4142	4142	4142	4192	4192	4192	4192	4192	4243	4243	4192	4192	4192	4192	4192	4192	4192	4192	4192	4192	4192	4192	4192	4192	4192	4192	4192	4243	4243	4192	4192	4192	4192	4192	4192	4142	4142	4142	4142	4142	4093	4192	4192	4192	4142	4142	4142	4142	4093	4093	4093	4093	4093	4093	4093	4093	4093	4093	4093	4045	4045	4045	4045	4045	4093	4093	4093	4093	4093	4093	4045	4045	4045	3998	3998	3998	3998	3998	3998	3998	3998	3998	3998	3998	3998	3998	3998	3998	3998	3998	3998	3998	3998	3998	3952	3952	3952	3952	3998	3952	3952	3952	3998	3952	3952	3952	3998	3998	3998	3998	3998	3998	3998	3952	3952	3952	3952	3998	3998	3998	3998	3998	3998	3998	3998	3998	3998	3998	3998	3998	3998	3998	3998	3998	3998	3998	3998	3998	3998	3998	3998	4045	4045	4045	4093	4142	4192	4192	4243	4243	4296	4296	4243	4296	4192	4192	4192	5815	5815	5815	5815	5815	6018	5915	5915	6018	6018	6124	6124	6235	6235	6235	6349	6349	6349	6235	6349	6235	6235	6235	6235	6235	6349	6349	6235	6349	6349	6349	6468	6468	6468	6468	6468	6468	6468	6349	6349	6468	6592	6592	6592	6592	6720	6592	6592	6592	6592	6592	6592	6592	6592	6592	0	0	0	0	0	0	0	0	0	0	0	0	0	0	0	0	0	0	0	0	0	0	0	0	0	0	0	0	0	0	0	0	0	0
0	0	0	0	0	0	0	0	0	0	0	0	0	0	0	0	0	0	0	0	0	0	0	0	1085	1085	1081	1081	1081	0	0	0	0	0	0	0	0	0	0	0	0	0	1681	1681	1681	1681	1673	1673	1665	1665	1665	1665	1665	1665	1665	1665	1665	1665	1657	1657	1657	1657	1657	1657	1657	1657	1665	1665	1673	1673	1673	1673	1673	1665	1665	1665	1665	1665	1665	1665	1665	1665	1665	0	0	0	0	0	0	0	0	0	0	0	0	0	0	0	0	0	0	0	0	0	0	0	0	0	0	0	0	0	0	0	0	0	0	0	1706	1698	1690	1690	1690	1690	1698	1698	1698	1698	1698	1706	1706	1715	1715	1723	1732	1741	1741	1741	1750	1759	1759	1768	1768	1777	1777	1777	1786	1795	1804	1804	1814	1833	1843	1843	1853	1853	1863	1873	1883	1894	1915	1925	1936	1947	1958	1958	1969	1980	1980	1992	2039	2076	2088	2101	2088	2114	2114	2669	2649	2669	2669	2669	2690	2711	2733	2733	2754	2799	2822	2799	2822	2822	2822	2822	2799	2799	2799	2777	2777	3952	3952	3952	3952	3952	3952	3952	3952	3952	3952	3952	3952	3907	3907	3907	3952	3952	3907	3907	3864	3864	3864	3864	3907	3907	3907	3907	3864	3864	3864	3864	3907	0	3998	3998	3998	3998	3998	3998	3998	3952	3952	0	0	0	0	0	4142	4192	4192	4296	4296	4296	4296	4463	4406	4406	4350	4350	4296	4406	4406	4406	4406	4406	4350	4350	4521	4521	4521	4521	4521	4463	4463	4463	4463	4406	4406	4406	4521	3440	3475	3440	3440	3406	3406	3406	3440	3406	3406	3406	3406	3406	3406	3406	3373	3373	3373	3373	3373	3373	3373	3373	3373	3373	3373	3373	3373	3373	3373	3373	3373	3373	3373	3373	3373	3373	3373	3373	3373	3406	3406	3373	3373	3341	3309	3309	3309	3309	3309	3309	3309	3309	3309	3309	3277	3277	3277	3277	3277	3277	3277	3277	3277	3277	3277	3277	3277	3277	3277	3277	3277	3277	3277	3277	3277	3277	3277	4243	4192	4192	4192	4192	4192	4192	4192	4192	4192	4192	4192	4142	4142	4093	4093	4093	4093	4142	4142	4142	4142	4192	4192	4192	4192	4192	4192	4192	4192	4192	4192	4192	4142	4142	4192	4192	4142	4142	4192	4192	4243	4192	4192	4192	4192	4192	4192	4192	4192	4192	4192	4192	4243	4192	4192	4192	4192	4142	4192	4192	4142	4192	4192	4243	4243	4192	4192	4192	4192	4192	4192	4192	4192	4192	4192	4192	4192	4142	4192	4142	4142	4142	4142	4142	4093	4093	4093	4093	4093	4093	4093	4093	4093	4093	4045	4045	4045	4045	4045	4045	4045	4093	4093	4093	4093	4093	4045	4045	4045	4045	3998	3998	3952	3998	3998	3998	3998	3998	3998	3998	3998	3998	3998	3998	3998	3998	3998	3998	3998	3998	3952	3952	3952	3998	3998	3952	3952	3952	3998	3952	3952	3952	3998	3998	3998	3998	3998	3998	3998	3952	3952	3952	3952	3998	3998	3998	3998	3998	3998	3998	3998	3998	3998	3998	3998	3998	3998	3998	3998	3998	3998	3998	3998	3998	3998	3998	3998	4045	4045	4093	4093	4142	4192	4192	4243	4243	4296	4296	4296	4243	4243	4243	4243	5815	5815	5915	5915	5815	6018	6018	6018	6018	6018	6018	6124	6124	6235	6235	6235	6235	6349	6235	6349	6235	6235	6235	6235	6349	6349	6349	6235	6349	6349	6349	6468	6468	6468	6468	6468	6349	6349	6468	6468	6468	6468	6592	6720	6720	6720	6720	6592	6592	6592	6592	6592	6592	6468	6468	0	0	0	0	0	0	0	0	0	0	0	0	0	0	0	0	0	0	0	0	0	0	0	0	0	0	0	0	0	0	0	0	0	0
0	0	0	0	0	0	0	0	0	0	0	0	0	0	0	0	0	0	0	0	0	0	0	0	1085	1085	1085	1085	1085	0	0	0	0	0	0	0	0	0	0	0	0	1673	1673	1681	1681	1681	1673	1673	1665	1665	1665	1665	1665	1665	1665	1665	1665	1665	1657	1657	1649	1657	1657	1657	1657	1657	1665	1665	1673	1673	1673	1673	1673	1665	1665	1665	1665	1665	1665	1665	1665	1665	1665	1665	1665	0	0	0	0	0	1665	1665	1665	1665	0	0	0	0	0	0	0	0	0	0	0	0	0	0	0	0	0	0	0	0	0	0	0	0	1706	1698	1698	1698	1690	1690	1698	1698	1698	1698	1706	1706	1706	1715	1715	1732	1732	1741	1741	1741	1741	1759	1759	1768	1768	1768	1777	1786	1786	1795	1804	1814	1824	1843	1843	1843	1853	1853	1863	1873	1883	1904	1915	1925	1936	1936	1947	1958	1969	1980	1980	1980	2039	2076	2101	2101	2101	2114	2114	2669	2649	2649	2649	2669	2690	2690	2711	2733	2754	2799	2799	2799	2822	2822	2822	2822	2799	2799	2799	2777	2777	3952	3952	3952	3952	3952	3952	3952	3952	3907	3907	3907	3907	3952	3952	3952	3952	3907	3907	3864	3864	3864	3864	3864	3864	3864	3864	3864	3864	3821	3821	3779	3779	3779	3952	3952	3952	3998	3952	3952	3952	3952	0	0	0	0	0	0	0	0	0	4296	4296	4463	4521	4463	4463	4463	4406	4406	4406	4463	4463	4463	4463	4463	4463	4463	4521	4521	4521	4521	4521	4521	4521	4521	4521	4463	4463	4521	4521	4581	4581	3440	3440	3406	3440	3406	3440	3440	3406	3406	3406	3406	3406	3406	3406	3406	3406	3406	3406	3406	3373	3373	3373	3373	3373	3373	3373	3373	3373	3373	3373	3373	3373	3373	3373	3373	3373	3406	3406	3406	3406	3406	3373	3373	3341	3341	3341	3309	3309	3309	3309	3309	3309	3309	3277	3277	3277	3277	3277	3277	3277	3277	3277	3277	3277	3246	3277	3277	3277	3277	3277	3277	3277	3309	3277	3277	4192	4192	4192	4192	4192	4192	4192	4192	4142	4192	4192	4192	4192	4142	4142	4142	4142	4093	4142	4142	4142	4142	4192	4192	4192	4192	4142	4192	4192	4192	4192	4192	4192	4192	4142	4142	4192	4192	4142	4142	4142	4192	4192	4192	4192	4192	4192	4192	4192	4142	4142	4192	4192	4192	4192	4192	4192	4192	4142	4142	4142	4142	4142	4142	4192	4192	4243	4192	4192	4192	4192	4192	4192	4192	4192	4192	4192	4192	4192	4142	4192	4142	4142	4142	4142	4093	4045	4093	4093	4045	4045	4045	4093	4093	4093	4093	4045	4045	4045	4045	4045	4045	4045	4045	4093	4093	4093	4093	4045	4045	4045	3998	3998	3952	3952	3952	3952	3952	3998	3998	3998	3998	3998	3998	3998	3998	3998	3998	3998	3998	3998	3998	3998	3952	3952	3998	3998	3952	3952	3952	3998	3952	3952	3952	3998	3998	3998	3998	3998	3998	3998	3952	3952	3907	3952	3952	3998	3998	3998	3998	3998	3998	3998	3998	3998	3998	3998	3998	3998	3998	3998	3998	3998	3998	3998	3998	3998	3998	3998	4045	4045	4093	4093	4142	4192	4192	4243	4243	4296	4296	4243	4243	4192	4192	4192	5915	5915	5915	5915	5915	6018	6018	6018	6018	6018	6018	6018	6018	6235	6124	6235	6235	6349	6349	6349	6349	6349	6235	6235	6349	6349	6349	6235	6235	6349	6349	6349	6349	6349	6349	6468	6468	6468	6468	6468	6468	6720	6720	6720	6720	6720	6592	6592	6468	6468	6468	6468	6349	6349	6349	0	0	0	0	0	0	0	0	0	0	0	0	0	0	0	0	0	0	0	0	0	0	0	0	0	0	0	0	0	0	0	0	0	0
0	0	0	0	0	0	0	0	0	0	0	0	0	0	0	0	0	0	0	0	0	0	0	0	1085	1085	1081	1081	1081	1081	0	0	0	0	0	0	0	0	0	1681	1681	1673	1673	1681	1673	1673	1673	1673	1673	1673	1673	1665	1665	1665	1665	1665	1673	1673	1657	1657	1657	1657	1657	1657	1657	1657	1657	1657	1665	1665	1673	1673	1673	1665	1673	1665	1665	1665	1665	1665	1665	1665	1665	1665	1665	1665	1657	1665	1665	1665	1665	1665	1665	1673	1673	1681	1690	1690	0	0	0	0	0	0	0	0	0	0	0	0	0	0	0	0	0	0	0	0	1706	1698	1698	1690	1690	1690	1690	1698	1698	1698	1706	1706	1715	1715	1723	1732	1741	1741	1741	1741	1741	1759	1768	1768	1777	1777	1786	1786	1786	1795	1804	1814	1824	1843	1843	1843	1853	1853	1863	1883	1894	1915	1925	1936	1936	1947	1958	1958	1969	1980	1992	1992	2027	2076	2101	2101	2101	2114	2114	2669	2649	2669	2649	2669	2690	2711	2711	2733	2754	2777	2799	2799	2822	2822	2822	2822	2822	2799	2799	2799	2799	3952	3907	3907	3907	3907	3907	3907	3907	3907	3864	3864	3864	3907	3907	3907	3907	3907	3907	3864	3864	3864	3864	3864	3864	3864	3821	3821	3821	3821	3821	3779	3779	3821	3821	3864	3952	3952	3952	3907	3907	3952	0	0	0	0	0	0	0	0	0	0	0	4463	4463	4463	4463	4463	4406	4406	4463	4521	4521	4521	4521	4521	4521	4521	4521	4521	4521	4521	4521	4521	4521	4521	4521	4521	4521	4521	4521	4581	4581	4581	4581	4581	4581	4581	3440	3440	3440	3440	3406	3406	3406	3406	3406	3406	3406	3406	3406	3406	3373	3373	3373	3406	3373	3373	3373	3373	3406	3406	3373	3373	3373	3373	3373	3373	3373	3373	3406	3406	3440	3440	3406	3406	3406	3406	3373	3341	3341	3309	3309	3309	3309	3309	3309	3309	3309	3309	3309	3277	3277	3277	3277	3277	3246	3246	3277	3277	3277	3277	3277	3277	3277	3277	3277	3277	4243	4243	4192	4192	4192	4192	4192	4192	4192	4192	4142	4192	4142	4142	4142	4142	4142	4142	4142	4142	4142	4142	4192	4192	4192	4192	4142	4192	4192	4142	4192	4192	4192	4192	4142	4142	4192	4142	4142	4142	4142	4192	4192	4192	4192	4192	4192	4192	4142	4142	4142	4192	4192	4192	4192	4192	4192	4192	4192	4142	4192	4192	4192	4192	4192	4192	4192	4192	4192	4192	4192	4142	4192	4142	4192	4192	4142	4142	4192	4142	4192	4142	4142	4142	4142	4093	4045	4045	4045	4045	4045	4045	4093	4093	4093	4093	4093	4045	4093	4045	4045	4045	4045	4045	4093	4093	4045	4093	4045	4045	4045	3998	3998	3952	3952	3952	3952	3952	3998	3998	3998	3998	3998	3998	3998	3998	3998	3998	3998	3998	3998	3998	3998	3952	3952	3952	3998	3952	3952	3952	3952	3952	3952	3952	3998	3998	3998	3998	3998	3998	3952	3952	3952	3907	3907	3952	3998	3998	3998	3998	3998	3998	3998	3998	3998	3998	3998	3998	3998	3998	4045	3998	4045	3998	3998	3998	3998	3998	3998	3998	4045	4093	4093	4142	4192	4192	4243	4243	4243	4296	4243	4243	4243	4192	4192	5915	5915	5915	5915	5915	5915	6018	6018	6018	6124	6018	6124	6124	6235	6124	6235	6235	6349	6349	6349	6349	6349	6349	6349	6349	6349	6349	6349	6235	6349	6349	6349	6349	6349	6349	6349	6349	6349	6468	6468	6720	6720	6720	6720	6720	6720	6592	6468	6468	6349	6349	6235	6235	6235	6235	0	0	0	0	0	0	0	0	0	0	0	0	0	0	0	0	0	0	0	0	0	0	0	0	0	0	0	0	0	0	0	0	0	0
0	0	0	0	0	0	0	0	0	0	0	0	0	0	0	0	0	0	0	0	0	0	0	0	0	1085	1081	1081	1081	1081	0	0	0	0	0	0	0	0	1673	1673	1673	1673	1673	1673	1673	1673	1673	1673	1673	1673	1673	1665	1665	1665	1665	1665	1673	1673	1657	1657	1649	1657	1657	1657	1657	1657	1657	1657	1665	1665	1665	1673	1673	1665	1673	1665	1665	1665	1665	1665	1665	1665	1673	1673	1665	1665	1665	1665	1665	1665	1665	1665	1665	1673	1673	1673	1681	1681	0	0	0	0	0	0	0	0	1673	1673	1665	1665	0	0	0	0	0	0	0	0	1698	1690	1690	1690	1690	1690	1690	1698	1706	1706	1706	1706	1715	1723	1732	1732	1750	1759	1750	1759	1759	1768	1768	1768	1777	1786	1786	1786	1786	1795	1804	1814	1824	1843	1843	1843	1853	1863	1873	1883	1904	1925	1925	1936	1936	1936	1958	1958	1969	1980	1992	1992	2027	2088	2101	2114	2114	2114	2114	2669	2649	2669	2669	2669	2690	2711	2733	2733	2754	2777	2799	2799	2822	2822	2822	2799	2799	2799	2799	2799	2799	3907	3907	3952	3907	3907	3907	3907	3907	3907	3864	3821	3864	3864	3907	3907	3907	3907	3907	3864	3821	3864	3821	3864	3821	3821	3821	3821	3821	3779	3779	3779	3779	3821	3821	3864	3907	3952	3907	3907	3864	3864	3864	0	0	0	0	0	0	0	0	4093	4192	4406	4406	4406	4296	4296	4296	4296	4463	4521	4521	4521	4521	4521	4521	4521	4521	4521	4521	4521	4521	4521	4521	4521	4521	4521	4521	4521	4521	4521	4521	4521	4521	4521	4581	4581	4521	4463	3440	3440	3440	3406	3406	3440	3406	3406	3406	3406	3406	3406	3373	3373	3373	3406	3406	3373	3373	3373	3373	3373	3373	3373	3373	3373	3406	3406	3373	3406	3406	3406	3440	3440	3440	3440	3440	3440	3406	3373	3341	3309	3309	3309	3309	3309	3309	3309	3309	3309	3309	3277	3277	3277	3277	3277	3277	3277	3277	3277	3277	3277	3277	3277	3277	3277	3277	3277	4192	4192	4192	4192	4192	4192	4192	4192	4142	4142	4142	4192	4142	4142	4142	4142	4142	4142	4142	4142	4142	4142	4192	4192	4192	4192	4142	4192	4192	4192	4192	4192	4192	4192	4192	4192	4192	4142	4142	4142	4142	4192	4192	4192	4192	4192	4192	4192	4142	4142	4142	4142	4192	4192	4192	4192	4192	4192	4192	4142	4142	4142	4142	4192	4192	4192	4192	4142	4142	4192	4192	4142	4142	4142	4142	4192	4142	4142	4142	4142	4142	4142	4142	4142	4093	4093	4045	4045	4045	4045	4045	4045	4045	4045	4093	4093	4093	4045	4093	4045	4045	4045	4045	4093	4093	4093	4093	4093	4045	4045	3998	3998	3952	3952	3952	3952	3952	3998	3998	3998	3998	3998	3998	3998	3998	3998	3998	3998	3998	3998	3998	3998	3998	3952	3952	3998	3998	3952	3952	3952	3952	3952	3952	3952	3952	3998	3998	3998	3952	3998	3952	3952	3907	3907	3907	3907	3952	3998	3998	3998	3998	3998	3998	3998	3998	3952	3952	3998	3998	3998	4045	3998	4045	3998	3998	3998	3998	3998	3998	3998	4045	4093	4093	4142	4192	4192	4192	4243	4243	4243	4243	4243	4243	4192	4192	6018	5915	5915	5915	5915	5915	6018	6018	6018	6018	6018	6124	6235	6235	6235	6235	6349	6349	6349	6349	6349	6349	6349	6349	6349	6349	6349	6349	6349	6349	6349	6468	6349	6349	6349	6468	6468	6468	6468	6468	6720	6720	6720	6720	6720	6592	6468	6349	6349	6235	6235	6235	6235	6124	6124	0	0	0	0	0	0	0	0	0	0	0	0	0	0	0	0	0	0	0	0	0	0	0	0	0	0	0	0	0	0	0	0	0	0
0	0	0	0	0	0	0	0	0	0	0	0	0	0	0	0	0	0	0	0	0	0	0	0	0	0	1081	1081	1078	1074	1074	0	0	0	0	0	0	1673	1673	1673	1673	1673	1673	1673	1673	1673	1673	1673	1673	1673	1673	1673	1673	1673	1673	1673	1673	1673	1657	1657	1657	1657	1657	1657	1657	1657	1657	1657	1665	1665	1665	1673	1673	1673	1673	1665	1665	1665	1665	1665	1665	1665	1673	1673	1673	1665	1665	1665	1665	1665	1665	1665	1673	1673	1673	1673	1681	1681	1690	1690	1690	0	0	0	1673	1673	1673	1665	1665	1665	1665	0	0	0	0	0	0	0	1706	1698	1698	1690	1690	1690	1690	1698	1698	1706	1706	1715	1723	1732	1741	1741	1750	1759	1759	1759	1759	1768	1777	1777	1777	1786	1795	1795	1795	1804	1804	1814	1824	1843	1843	1843	1853	1863	1873	1894	1915	1925	1925	1936	1936	1947	1958	1969	1980	1980	1992	2015	2039	2101	2101	2114	2114	2114	2114	2669	2649	2669	2669	2669	2690	2711	2733	2733	2777	2799	2799	2799	2799	2799	2799	2799	2799	2799	2799	2799	3907	3907	3952	3952	3907	3907	3907	3907	3907	3907	3864	3864	3864	3864	3864	3864	3907	3907	3864	3821	3821	3821	3821	3864	3821	3821	3821	3821	3821	3779	3779	3779	3779	3779	3821	3821	3907	3907	3907	3907	3864	3864	3864	3864	3864	0	0	0	0	0	0	4093	4192	4192	4192	4192	4192	4142	4142	4142	4521	4521	4521	4521	4521	4521	4521	4521	4521	4521	4521	4521	4521	4581	4521	4521	4521	4521	4521	4521	4521	4521	4521	4521	4521	4521	4521	4521	4521	4463	4463	3440	3440	3440	3440	3440	3440	3440	3440	3406	3406	3406	3373	3373	3373	3373	3373	3373	3373	3373	3406	3406	3373	3406	3406	3406	3406	3406	3406	3406	3440	3440	3475	3475	3475	3475	3475	3440	3440	3406	3373	3309	3309	3309	3309	3309	3309	3309	3309	3309	3309	3277	3277	3277	3277	3246	3246	3277	3277	3277	3277	3277	3277	3277	3277	3277	3277	3277	4243	4192	4192	4192	4192	4192	4192	4142	4142	4142	4142	4142	4142	4142	4142	4142	4142	4142	4192	4142	4192	4192	4192	4192	4192	4192	4192	4243	4192	4192	4192	4192	4192	4192	4192	4192	4192	4192	4142	4142	4192	4192	4192	4192	4192	4192	4192	4192	4142	4142	4142	4142	4192	4192	4192	4192	4192	4192	4192	4142	4192	4142	4142	4142	4142	4142	4142	4142	4142	4142	4142	4142	4142	4142	4142	4142	4142	4142	4142	4142	4142	4142	4142	4142	4142	4093	4093	4093	4093	4093	4045	4045	4093	4093	4093	4093	4045	4045	4045	4045	4045	4045	4045	4093	4093	4093	4093	4093	4045	4045	3998	3998	3998	3952	3952	3952	3952	3998	3998	3998	3998	3998	3998	3998	3998	3998	3998	3998	3998	3998	3998	3952	3952	3952	3952	3998	3998	3952	3952	3952	3952	3952	3952	3952	3952	3998	3998	3998	3952	3998	3952	3952	3952	3907	3952	3952	3998	3998	3998	3998	3998	3998	3998	3998	3998	3998	3952	3998	3998	3998	3998	3998	3998	3998	3998	3998	3998	3998	3998	4045	4045	4093	4093	4142	4192	4192	4192	4192	4243	4243	4243	4243	4243	4192	4192	6018	5915	5915	5915	5915	5915	5915	6018	6018	6018	6018	6124	6235	6235	6235	6235	6235	6349	6349	6349	6235	6349	6349	6349	6349	6349	6349	6349	6235	6349	6349	6349	6349	6349	6349	6468	6468	6468	6468	6468	6720	6720	6720	6720	6720	6592	6468	6349	6349	6235	6235	6235	6124	6124	6124	0	0	0	0	0	0	0	0	0	0	0	0	0	0	0	0	0	0	0	0	0	0	0	0	0	0	0	0	0	0	0	0	0	0
0	0	0	0	0	0	0	0	0	0	0	0	0	0	0	0	0	0	0	0	0	0	0	0	0	0	1081	1078	1078	1074	1074	0	0	0	0	0	0	1665	1673	1673	1673	1673	1673	1673	1673	1673	1673	1673	1673	1673	1673	1673	1673	1673	1673	1673	1673	1673	1673	1665	1657	1657	1657	1657	1657	1657	1657	1657	1665	1665	1665	1673	1673	1673	1673	1665	1665	1665	1673	1673	1673	1673	1673	1673	1673	1665	1665	1665	1665	1665	1665	1665	1673	1673	1673	1673	1673	1681	1681	1681	1690	1681	1681	1681	1673	1673	1673	1673	1673	1665	1665	1665	0	0	0	0	0	0	1698	1690	1690	1690	1690	1690	1698	1706	1706	1706	1715	1723	1732	1741	1741	1741	1759	1759	1759	1759	1768	1768	1777	1777	1786	1786	1795	1795	1795	1804	1814	1814	1824	1833	1833	1843	1853	1863	1883	1904	1925	1936	1936	1936	1947	1947	1958	1969	1980	1992	1992	2015	2027	2088	2101	2114	2114	2114	2114	2669	2649	2669	2669	2669	2690	2711	2733	2733	2777	2777	2822	2799	2799	2822	2822	2822	2799	2822	2822	2822	3907	3907	3907	3952	3907	3907	3907	3907	3907	3907	3864	3821	3864	3864	3864	3821	3907	3907	3864	3821	3821	3821	3821	3821	3821	3821	3821	3821	3779	3779	3779	3779	3779	3779	3779	3779	3907	3907	3907	3864	3864	3864	3864	3864	3864	3864	3907	3907	3907	3952	3952	4093	4093	4142	4142	4142	4142	4142	4142	4142	4463	4463	4521	4521	4521	4521	4521	4521	4521	4521	4521	4521	4521	4521	4521	4521	4521	4521	4521	4521	4521	4521	4521	4521	4521	4521	4521	4521	4521	4463	4406	4406	4406	3406	3406	3440	3440	3440	3440	3406	3406	3406	3406	3373	3373	3373	3373	3373	3373	3373	3406	3406	3406	3406	3406	3440	3440	3440	3406	3406	3440	3440	3440	3510	3510	3510	3510	4521	4521	3440	3406	3341	3309	3309	3309	3309	3309	3309	3309	3309	3309	3277	3277	3277	3277	3246	3246	3277	3277	3277	3277	3277	3277	3277	3277	3277	3277	3277	4192	4192	4192	4192	4142	4142	4142	4142	4142	4142	4142	4192	4142	4142	4142	4192	4192	4192	4192	4192	4192	4192	4192	4192	4192	4192	4192	4192	4192	4192	4192	4192	4192	4192	4192	4192	4192	4192	4142	4142	4142	4192	4192	4192	4192	4192	4192	4142	4142	4142	4142	4142	4192	4192	4192	4192	4192	4192	4192	4192	4192	4192	4142	4192	4192	4142	4142	4142	4142	4142	4142	4142	4142	4142	4142	4142	4142	4142	4142	4142	4142	4142	4142	4142	4142	4142	4093	4093	4093	4093	4045	4093	4093	4093	4093	4093	4093	4093	4093	4045	4045	4045	4093	4093	4142	4142	4142	4093	4093	4045	3998	3998	3952	3952	3952	3998	3998	3998	3998	3998	3998	3998	3998	3998	3998	3998	3998	3998	3998	3998	3998	3952	3952	3952	3952	3998	3998	3952	3952	3952	3998	3952	3952	3952	3952	3998	3998	3998	3952	3952	3952	3998	3952	3952	3952	3952	3952	3998	3998	3998	3998	3998	3998	3998	3998	3998	3998	3998	3998	3998	3998	3998	3998	3998	3952	3998	3952	3998	3998	3998	4045	4045	4093	4142	4192	4192	4243	4243	4243	4243	4243	4243	4243	4192	4192	6018	6018	5915	5915	5915	5915	5915	6018	6018	6018	6124	6124	6235	6235	6235	6235	6235	6349	6349	6349	6235	6235	6349	6349	6349	6349	6349	6349	6235	6349	6349	6349	6349	6349	6468	6468	6468	6468	6468	6468	6468	6720	6720	6720	6720	6592	6592	6349	6349	6235	6235	6235	6124	6124	6124	0	0	0	0	0	0	0	0	0	0	0	0	0	0	0	0	0	0	0	0	0	0	0	0	0	0	0	0	0	0	0	0	0	0
0	0	0	0	0	0	0	0	0	0	0	0	0	0	0	0	0	0	0	0	0	0	0	0	0	1085	1081	1078	1078	1074	1068	1071	1068	1068	0	0	0	1665	1673	1673	1673	1673	1673	1681	1673	1673	1673	1673	1673	1673	1673	1673	1673	1673	1673	1673	1673	1673	1681	1665	1657	1665	1657	1657	1657	1657	1657	1657	1665	1665	1665	1673	1665	1673	1673	1665	1665	1665	1673	1673	1673	1673	1673	1673	1673	1673	1665	1673	1665	1665	1673	1673	1673	1673	1673	1673	1673	1673	1681	1673	1681	1681	1681	1673	1673	1673	1673	1673	1673	1673	1665	1673	1673	0	0	0	0	0	1698	1690	1698	1690	1698	1690	1698	1706	1715	1723	1723	1732	1741	1741	1741	1750	1759	1759	1759	1768	1768	1777	1777	1777	1786	1795	1804	1804	1804	1814	1814	1824	1833	1843	1843	1853	1863	1863	1883	1904	1925	1936	1936	1947	1947	1958	1958	1980	1992	1992	2015	2027	2051	2088	2101	2114	2114	2114	2114	2649	2649	2649	2649	2669	2669	2711	2733	2733	2777	2799	2822	2799	2799	2822	2822	2799	2799	2799	2799	2799	3907	3907	3907	3952	3907	3907	3907	3907	3907	3907	3864	3864	3864	3864	3864	3821	3864	3864	3864	3864	3821	3821	3821	3821	3821	3821	3821	3821	3779	3779	3779	3779	3779	3779	3779	3821	3821	3864	3907	3864	3864	3864	3864	3864	3864	3864	3907	3907	3952	3952	4045	4045	4093	4093	4142	4142	4142	4093	4093	4093	4093	4142	4192	4521	4463	4521	4521	4521	4521	4521	4521	4521	4581	4581	4521	4521	4521	4521	4581	4581	4581	4581	4581	4581	4581	4521	4521	4521	4521	4463	4406	4406	4406	4406	3406	3406	3440	3440	3440	3406	3440	3406	3406	3373	3406	3373	3373	3373	3373	3373	3406	3406	3406	3440	3440	3440	3440	3440	3406	3406	3440	3440	4643	4643	4706	4643	4581	4521	4521	4521	3406	3373	3309	3309	3309	3309	3309	3309	3309	3309	3309	3277	3277	3277	3277	3246	3246	3277	3277	3277	3277	3277	3277	3277	3277	3277	3277	3277	3277	4142	4142	4142	4142	4142	4142	4142	4142	4142	4142	4142	4142	4142	4142	4142	4192	4192	4192	4192	4192	4192	4192	4192	4192	4192	4192	4192	4192	4192	4192	4192	4192	4192	4192	4192	4192	4192	4192	4192	4192	4192	4192	4142	4142	4192	4192	4142	4142	4142	4192	4192	4192	4192	4192	4192	4192	4192	4142	4142	4142	4142	4142	4142	4192	4192	4142	4142	4142	4142	4142	4142	4142	4142	4142	4142	4142	4093	4142	4093	4093	4093	4093	4142	4142	4142	4093	4093	4093	4093	4045	4093	4093	4045	4045	4045	4093	4093	4093	4093	4093	4093	4142	4142	4142	4142	4142	4142	4093	4045	3998	3998	3998	3952	3998	3998	3998	3998	3998	3998	3998	3998	3998	3998	3998	3998	3998	3998	3952	3952	3952	3952	3952	3952	3952	3998	3998	3952	3952	3952	3998	3952	3952	3952	3952	3952	3998	3952	3952	3952	3952	3998	3998	3952	3952	3952	3998	3998	3998	3998	3998	3998	3998	3998	3998	3998	3998	3998	3998	3998	3998	3998	3998	3998	3998	3998	3998	3998	3998	3998	4045	4045	4093	4142	4192	4192	4192	4192	4243	4243	4243	4243	4243	4243	6018	6018	6018	6018	5915	5915	5915	5915	6018	6018	6018	6018	6124	6235	6235	6124	6124	6124	6235	6235	6349	6235	6235	6235	6235	6349	6349	6349	6349	6235	6235	6349	6349	6349	6349	6468	6468	6592	6592	6592	6468	6592	6720	6720	6720	6720	6720	6720	6349	6349	0	0	0	0	0	0	0	0	0	0	0	0	0	0	0	0	0	0	0	0	0	0	0	0	0	0	0	0	0	0	0	0	0	0	0	0	0	0	0	0
0	0	0	0	0	0	0	0	0	0	0	0	0	0	0	0	0	0	0	0	0	0	0	0	0	1085	1081	1078	1078	1074	1071	1071	1068	1068	0	0	0	0	1673	1673	1673	1673	1673	1673	1681	1681	1681	1681	1681	1681	1681	1681	1681	1681	1681	1681	1681	1681	1681	1665	1665	1665	1665	1657	1657	1657	1657	1657	1665	1665	1665	1673	1665	1673	1673	1673	1673	1673	1673	1673	1673	1673	1673	1673	1673	1673	1673	1673	1673	1673	1673	1673	1673	1673	1673	1673	1673	1673	1681	1673	1681	1681	1681	1673	1673	1673	1673	1673	1673	1673	1665	1673	1673	0	0	0	0	0	0	1690	1698	1690	1698	1698	1698	1715	1723	1732	1732	1732	1741	1741	1750	1750	1759	1768	1768	1768	1768	1777	1777	1777	1786	1795	1804	1814	1814	1814	1824	1833	1843	1843	1843	1853	1863	1873	1883	1915	1925	1936	1936	1947	1958	1958	1969	1980	2003	2015	2027	2027	2051	2088	2088	2114	2114	2114	2649	2649	2649	2649	2669	2690	2690	2711	2733	2733	2777	2799	2822	2799	2799	2799	2799	2799	2799	2799	2799	2799	0	3907	3907	3907	3907	3907	3907	3907	3907	3907	3864	3864	3864	3864	3821	3821	3821	3821	3821	3821	3821	3821	3821	3779	3779	3779	3779	3779	3779	3779	3779	3779	3779	3779	3779	3779	3779	3821	3864	3864	3864	3864	3864	3864	3907	3907	3907	3907	3952	3952	4045	4045	4093	4045	4093	4093	4093	4093	4045	4093	4093	4142	4142	4142	4406	4463	4521	4521	4521	4521	4521	4581	4581	4581	4521	4521	4521	4521	4521	4521	4581	4581	4581	4581	4521	4521	4521	4521	4521	4463	4406	4406	4406	4350	4350	3440	3440	3440	3440	3440	3440	3440	3406	3406	3406	3373	3373	3373	3373	3373	3373	3406	3406	3440	3440	3440	3440	3440	3406	3440	3440	3440	4643	4643	4643	4643	4581	4521	4521	4521	4521	3341	3309	3309	3309	3309	3309	3309	3309	3309	3309	3277	3277	3277	3277	3246	3246	3246	3277	3277	3277	3277	3277	3277	3277	3277	3277	3309	3309	4142	4142	4142	4142	4142	4142	4142	4142	4142	4142	4192	4142	4192	4192	4192	4192	4192	4192	4192	4142	4192	4192	4192	4192	4192	4192	4192	4243	4192	4192	4192	4192	4192	4192	4192	4192	4192	4192	4192	4192	4142	4142	4142	4192	4192	4192	4192	4192	4192	4192	4192	4192	4192	4192	4192	4192	4192	4142	4142	4142	4142	4192	4192	4192	4142	4142	4142	4093	4142	4093	4093	4093	4093	4142	4142	4142	4093	4093	4093	4093	4093	4093	4142	4142	4142	4093	4093	4093	4093	4045	4093	4093	4093	4093	4093	4093	4093	4093	4093	4093	4093	4142	4142	4142	4142	4142	4093	4045	4045	3998	3998	3998	3952	3998	3998	3998	3998	3998	3998	3998	3998	3998	3998	3998	3998	3998	3952	3952	3952	3952	3952	3952	3952	3952	3998	3998	3952	3952	3952	3952	3998	3952	3952	3952	3998	3998	3952	3952	3952	3952	3998	3998	3952	3952	3952	3998	3998	3998	3998	3998	3998	3998	3998	3998	3998	3998	3998	3998	3998	3998	3998	3998	3998	3998	3998	3998	3998	3998	3998	4045	4045	4093	4142	4192	4192	4243	4192	4192	4243	4243	4243	4243	4243	6018	5915	5915	5915	5915	5915	5915	5915	5915	6018	6018	6018	6124	6235	6235	6235	6235	6235	6235	6235	6235	6124	6235	6235	6235	6349	6349	6349	6349	6235	6235	6349	6349	6349	6349	6349	6468	6468	6468	6468	6468	6592	6592	6720	6720	6720	6720	6720	0	0	0	0	0	0	0	0	0	0	0	0	0	0	0	0	0	0	0	0	0	0	0	0	0	0	0	0	0	0	0	0	0	0	0	0	0	0	0	0	0	0
0	0	0	0	0	0	0	0	0	0	0	0	0	0	0	0	0	0	0	0	0	0	0	0	0	1085	1081	1078	1078	1078	1074	1071	1071	1074	1074	0	0	0	1673	1673	1681	1681	1681	1681	1681	1681	1681	1681	1681	1681	1681	1681	1681	1681	1681	1681	1681	1681	1681	1673	1673	1665	1665	1665	1665	1657	1665	1657	1665	1665	1665	1665	1665	1673	1673	1673	1673	1673	1673	1673	1673	1673	1673	1673	1673	1673	1665	1673	1673	1673	1673	1673	1673	1673	1673	1673	1673	1673	1673	1673	1681	1681	1681	1673	1673	1673	1673	1673	1673	1673	1665	1665	1665	0	0	0	0	0	0	0	1698	1690	1698	1698	1706	1723	1732	1741	1741	1741	1750	1750	1750	1759	1768	1768	1768	1768	1777	1777	1786	1786	1795	1804	1814	1814	1824	1833	1833	1843	1853	1853	1853	1863	1883	1883	1894	1915	1925	1936	1936	1947	1958	1969	1969	1980	1992	2015	2015	2039	2076	2101	2114	2114	2127	2127	2127	2629	2629	2649	2649	2690	2690	2711	2733	2733	2754	2777	2799	2799	2799	2799	2799	2799	2799	2799	2799	2799	0	3907	3907	3907	3907	3907	3907	3907	3907	3907	3864	3864	3864	3864	3821	3821	3821	3821	3821	3821	3779	3821	3779	3779	3779	3779	3779	3779	3779	3779	3779	3779	3779	3779	3779	3779	3821	3821	3864	3864	3864	3907	3907	3907	3907	3907	3907	3952	3952	3952	3998	4045	4045	4045	4045	4093	4093	4045	4045	4093	4093	4093	4142	4192	4296	4463	4521	4521	4521	4581	4521	4581	4581	4581	4521	4521	4521	4521	4521	4581	4581	4581	4581	4581	4581	4581	4521	4521	4521	4463	4463	4406	4350	4296	4243	3440	3440	3440	3440	3440	3440	3440	3406	3406	3406	3373	3373	3373	3373	3373	3373	3406	3406	3440	3440	3440	3440	3440	3406	3440	3440	4643	4581	4581	4581	4581	4581	4521	4521	4521	4463	3341	3309	3309	3309	3309	3309	3309	3309	3309	3277	3277	3277	3277	3277	3277	3277	3277	3277	3277	3277	3277	3277	3277	3277	3277	3277	3246	3246	4192	4192	4142	4142	4142	4142	4142	4142	4142	4142	4142	4142	4142	4142	4142	4192	4192	4192	4192	4192	4192	4192	4192	4192	4192	4192	4192	4192	4192	4192	4192	4192	4192	4192	4192	4192	4192	4192	4192	4192	4192	4142	4142	4192	4192	4192	4192	4192	4192	4192	4192	4192	4192	4192	4192	4192	4192	4142	4192	4192	4142	4192	4192	4192	4142	4142	4093	4093	4142	4142	4093	4093	4093	4142	4142	4142	4093	4093	4093	4093	4093	4093	4093	4093	4093	4045	4045	4093	4093	4093	4093	4093	4093	4093	4093	4093	4093	4093	4093	4045	4093	4093	4142	4142	4142	4142	4093	4045	4045	3998	3998	3998	3998	3998	3998	3998	3998	3998	3998	3998	3998	3998	3998	3998	3998	3998	3952	3952	3952	3952	3952	3952	3907	3952	3952	3952	3952	3952	3952	3998	3998	3952	3952	3952	3952	3998	3952	3998	3998	3998	3998	3998	3998	3998	3998	3998	3998	3998	3998	3998	3998	3998	3998	3998	3998	3998	3998	3998	3998	3998	3998	3998	3998	3998	3998	3998	3998	3998	3998	4045	4045	4093	4142	4142	4192	4192	4192	4243	4243	4296	4296	4243	4243	6018	6018	6018	6018	5915	5915	5915	5915	5915	6018	6018	6018	6124	6235	6235	6235	6235	6235	6235	6235	6235	6124	6124	6235	6235	6235	6235	6235	6235	6235	6235	6349	6349	6349	6349	6349	6349	6349	6468	6468	6468	6592	6720	6720	6720	6720	6720	0	0	0	0	0	0	0	0	0	0	0	0	0	0	0	0	0	0	0	0	0	0	0	0	0	0	0	0	0	0	0	0	0	0	0	0	0	0	0	0	0	0	0
0	0	0	0	0	0	0	0	0	0	0	0	0	0	0	0	0	0	0	0	0	0	0	0	0	1085	1081	1078	1078	1078	1074	1071	1071	1071	1074	0	0	0	0	0	1681	1681	1690	1681	1690	1690	1690	1690	1681	1681	1681	1681	1681	1681	1673	1681	1673	1681	1681	1665	1673	1665	1665	1665	1665	1665	1665	1665	1665	1665	1665	1673	1673	1673	1673	1681	1673	1673	1673	1673	1673	1673	1673	1673	1673	1673	1673	1673	1673	1673	1673	1673	1673	1673	1673	1673	1673	1673	1673	1673	1673	1681	1681	1681	1681	1681	1681	1681	1673	1673	1665	1665	1665	0	0	0	0	0	0	0	1698	1698	1706	1715	1715	1715	1741	1741	1750	1750	1750	1750	1759	1768	1768	1777	1768	1777	1777	1786	1786	1795	1804	1804	1814	1824	1833	1833	1833	1843	1853	1853	1863	1863	1883	1894	1904	1915	1925	1936	1947	1947	1969	1969	1980	1992	2015	2027	2051	2063	2063	2088	2101	2127	2127	2140	2140	2629	2629	2649	2649	2669	2690	2690	2733	2733	2754	2777	2799	2799	2799	2799	2799	2799	2799	2799	2799	2799	0	3907	3907	3907	3907	3907	3907	3907	3907	3907	3864	3864	3864	3821	3821	3779	3779	3821	3779	3779	3779	3779	3779	3779	3779	3779	3779	3779	3779	3738	3779	3779	3779	3779	3779	3779	3821	3821	3864	3864	3907	3907	3907	3907	3907	3907	3907	3952	3952	3952	3998	3998	4045	4045	4045	4093	4093	4093	4093	4093	4093	4093	4093	4142	4142	4406	4463	4521	4521	4581	4581	4581	4581	4581	4581	4521	4521	4521	4521	4581	4581	4581	4581	4581	4581	4581	4521	4521	4521	4463	4406	4406	4350	4296	4243	4192	3440	3440	3440	3440	3440	3406	3406	3406	3373	3373	3373	3373	3373	3373	3373	3406	3406	3440	3440	3440	3440	3440	3406	3440	3440	4581	4581	4581	4581	4581	4581	4521	4521	4521	4463	4463	3309	3309	3309	3309	3309	3309	3309	3277	3277	3277	3277	3277	3277	3277	3277	3277	3277	3277	3277	3277	3277	3277	3277	3277	3277	3246	3246	3246	4192	4142	4142	4142	4142	4142	4142	4142	4142	4142	4142	4142	4142	4142	4142	4142	4142	4142	4142	4142	4142	4142	4142	4142	4142	4142	4192	4192	4192	4192	4192	4192	4192	4192	4192	4192	4192	4192	4192	4192	4142	4142	4192	4192	4192	4192	4192	4192	4192	4192	4192	4192	4192	4192	4192	4142	4142	4142	4142	4142	4142	4192	4192	4142	4142	4093	4093	4142	4093	4093	4093	4093	4142	4142	4142	4093	4093	4093	4093	4093	4093	4093	4093	4093	4045	4093	4045	4093	4045	4093	4093	4093	4093	4093	4093	4093	4093	4093	4045	4093	4142	4142	4142	4142	4142	4093	4045	4045	3998	3998	3998	3998	3998	3998	3998	3998	3998	3998	3998	3998	3998	3998	3998	3998	3998	3952	3952	3952	3952	3952	3952	3952	3952	3998	3998	3998	3998	3998	3998	3998	3998	3952	3952	3998	3998	3952	3998	3998	3998	3998	3998	3998	3952	3998	3998	3998	3998	3998	3998	3998	3998	3998	3998	3998	3998	3998	3998	3998	3998	3998	3998	3998	3998	3998	3998	3998	3998	3998	3998	4045	4093	4142	4142	4192	4192	4192	4243	4243	4296	4296	4243	4243	6018	6018	6018	6018	5915	5915	5915	5915	5915	5915	6018	6018	6018	6235	6235	6235	6235	6235	6235	6235	6235	6124	6124	6235	6235	6235	6235	6235	6349	6235	6235	6349	6349	6349	6349	6349	6349	6349	6468	6468	6468	6468	6592	6720	6720	6720	6720	0	0	0	0	0	0	0	0	0	0	0	0	0	0	0	0	0	0	0	0	0	0	0	0	0	0	0	0	0	0	0	0	0	0	0	0	0	0	0	0	0	0	0
0	0	0	0	0	0	0	0	0	0	0	0	0	0	0	0	0	0	0	0	0	0	0	0	0	0	1081	1078	1078	1078	1071	1071	1071	1071	0	0	0	0	0	0	0	1681	1698	1690	1690	1698	1690	1706	1690	1690	1690	1690	1681	1681	1681	1681	1681	1681	1681	1665	1673	1665	1665	1665	1665	1665	1665	1665	1665	1673	1665	1673	1673	1673	1673	1681	1681	1673	1673	1681	1681	1673	1673	1673	1673	1673	1673	1673	1673	1673	1673	1681	1673	1673	1673	1673	1673	1673	1673	1673	1673	1681	1681	1681	1681	1681	1681	1681	1681	1673	1665	1665	1665	0	0	0	0	0	0	0	0	1698	1732	1732	1741	1759	1759	1759	1768	1768	1768	1768	1777	1777	1777	1777	1777	1777	1786	1786	1795	1804	1804	1814	1814	1824	1833	1843	1843	1853	1853	1863	1863	1873	1883	1894	1904	1925	1925	1947	1958	1980	1980	1980	1992	2003	2027	2051	2063	2076	2076	2101	2101	2114	2127	2127	2140	2629	2629	2649	2649	2669	2690	2690	2733	2733	2754	2777	2799	2777	2799	2799	2799	2799	2799	2799	2799	2799	0	3907	3907	3907	3907	3907	3907	3907	3907	3907	3864	3864	3864	3821	3821	3779	3779	3821	3779	3779	3779	3779	3779	3779	3779	3779	3779	3779	3779	3738	3779	3738	3779	3779	3779	3779	3821	3821	3864	3864	3907	3907	3907	3907	3907	3952	3952	3952	3952	3952	3998	3998	3998	3998	4045	4045	4093	4045	4093	4093	4093	4093	4093	4142	4192	4192	4406	4521	4521	4581	4581	4581	4581	4581	4581	4521	4521	4521	4521	4521	4581	4581	4581	4581	4581	4581	4581	4521	4521	4463	4463	4406	4350	4296	4243	4192	4192	3440	3440	3440	3440	3440	3406	3373	3406	3373	3373	3373	3373	3373	3373	3406	3406	3440	3440	3440	3440	3440	3406	3406	4581	4581	4581	4521	4521	4521	4521	4521	4521	4463	4463	4406	3309	3309	3309	3309	3309	3309	3309	3309	3309	3277	3277	3277	3277	3277	3277	3277	3277	3277	3277	3277	3277	3277	3277	3277	3277	3277	3277	4243	4192	4142	4142	4142	4142	4142	4142	4142	4142	4142	4142	4142	4142	4142	4142	4142	4142	4142	4142	4142	4142	4142	4142	4142	4142	4142	4142	4142	4192	4192	4192	4192	4192	4192	4192	4192	4192	4192	4192	4192	4142	4142	4142	4142	4192	4142	4192	4192	4192	4192	4192	4192	4142	4192	4142	4142	4142	4142	4142	4142	4142	4142	4192	4142	4142	4142	4142	4142	4142	4142	4142	4142	4142	4142	4142	4093	4093	4093	4093	4093	4093	4093	4093	4093	4045	4093	4093	4093	4093	4093	4093	4093	4093	4093	4093	4093	4093	4093	4045	4093	4093	4093	4142	4093	4093	4093	4045	4045	3998	3998	3998	3998	3998	3998	3998	3998	3998	3998	3998	3998	3952	3952	3952	3998	3952	3952	3952	3952	3952	3952	3952	3952	3952	3998	3998	3998	3998	3998	3998	3998	3998	3998	3998	3998	3998	3998	3998	3998	3998	3998	3998	3998	3952	3998	3998	3998	3998	3998	3998	3998	3998	3998	3998	3998	3998	3998	3998	3998	3952	3998	3952	3952	3952	3952	3998	3998	3998	4045	4045	4045	4093	4142	4142	4192	4192	4243	4243	4243	4243	4243	4243	4243	6018	6018	6018	6018	5915	5915	5915	5915	5915	6018	6018	6018	6018	6235	6235	6235	6235	6235	6235	6235	6235	6124	6124	6124	6235	6235	6235	6235	6349	6235	6235	6235	6349	6349	6349	6235	6349	6349	6468	6468	6592	6592	6592	6720	6720	6720	0	0	0	0	0	0	0	0	0	0	0	0	0	0	0	0	0	0	0	0	0	0	0	0	0	0	0	0	0	0	0	0	0	0	0	0	0	0	0	0	0	0	0	0
0	0	0	0	0	0	0	0	0	0	0	0	0	0	0	0	0	0	0	0	0	0	0	0	0	0	0	1078	1078	1078	1074	1074	1074	0	0	0	0	0	0	0	0	0	1698	1690	1698	1698	1698	1698	1690	1690	1690	1690	1690	1681	1681	1681	1681	1681	1681	1673	1673	1673	1673	1673	1673	1673	1673	1673	1673	1673	1673	1673	1673	1673	1681	1681	1681	1681	1673	1681	1681	1673	1673	1673	1673	1673	1673	1673	1673	1681	1681	1681	1681	1673	1673	1673	1673	1673	1673	1673	1681	1681	1681	1681	1690	1690	1690	1690	1681	1681	1681	1665	0	0	0	0	0	0	0	0	0	0	1768	1759	1759	1768	1768	1768	1768	1777	1777	1777	1777	1786	1786	1795	1786	1786	1795	1795	1804	1804	1814	1814	1824	1833	1843	1843	1843	1853	1863	1863	1873	1894	1894	1904	1915	1936	1947	1958	1969	1980	1980	1992	2003	2015	2027	2063	2063	2088	2088	2101	2114	2127	2127	2127	2127	2609	2629	2629	2649	2669	2690	2690	2711	2711	2733	2754	2799	2777	2799	2799	2799	2799	2799	2799	2799	2799	0	3907	3907	3907	3907	3907	3907	3907	3907	3907	3864	3864	3864	3821	3821	3821	3821	3821	3821	3821	3779	3779	3779	3779	3779	3779	3779	3779	3779	3738	3738	3779	3779	3779	3779	3821	3821	3864	3864	3864	3907	3907	3907	3907	3907	3952	3952	3952	3952	3952	3952	3952	3952	3998	3998	4045	4045	4045	4093	4093	4093	4093	4093	4142	4192	4350	4463	4521	4521	4581	4581	4581	4581	4581	4581	4521	4521	4521	4521	4581	4581	4643	4581	4581	4581	4581	4581	4581	4581	4521	4463	4406	4350	4296	4243	4192	4192	3475	3475	3475	3440	3440	3406	3373	3406	3373	3373	3373	3406	3406	3406	3406	3406	3440	3440	3440	3440	3440	3406	3406	4643	4581	4581	4581	4521	4521	4521	4521	4463	4463	4463	4406	4296	3309	3309	3309	3309	3309	3309	3309	3309	3309	3277	3277	3277	3277	3277	3277	3277	3277	3277	3277	3277	3277	3277	3277	3277	3277	3277	4243	4192	4142	4142	4142	4142	4142	4142	4142	4142	4142	4142	4142	4142	4142	4142	4142	4142	4142	4142	4142	4093	4093	4093	4142	4142	4142	4142	4142	4142	4142	4192	4192	4192	4192	4192	4192	4192	4192	4192	4192	4142	4142	4142	4192	4192	4142	4192	4192	4192	4192	4192	4142	4142	4142	4142	4142	4142	4142	4142	4142	4142	4192	4192	4142	4142	4142	4142	4142	4142	4142	4142	4142	4142	4142	4142	4142	4142	4142	4093	4093	4093	4093	4093	4093	4045	4045	4045	4045	4045	4093	4093	4093	4093	4093	4093	4093	4093	4093	4045	4045	4093	4093	4142	4093	4093	4093	4045	4045	3998	3998	3998	3998	3998	3998	3998	3998	3998	3998	3998	3998	3952	3952	3952	3952	3952	3952	3952	3952	3952	3952	3952	3998	3952	3998	3998	3998	3998	3998	3998	3998	3998	3998	3998	3998	3998	3998	3998	3998	3998	3998	3998	3998	3952	3952	3998	3998	3998	3998	3998	3998	3998	3998	3998	3998	3998	3998	3998	3998	3952	3952	3952	3998	3998	3998	3998	3998	3998	4045	4045	4045	4093	4093	4142	4142	4192	4192	4243	4243	4243	4243	4243	4243	6018	6018	6018	6018	6018	6018	6018	6018	6018	6018	6018	6018	6018	6124	6124	6124	6124	6124	6235	6124	6235	6124	6124	6124	6124	6124	6124	6124	6235	6235	6349	6349	6349	6349	6349	6349	6349	6349	6468	6468	6592	6592	6592	6720	6720	6720	0	0	0	0	0	0	0	0	0	0	0	0	0	0	0	0	0	0	0	0	0	0	0	0	0	0	0	0	0	0	0	0	0	0	0	0	0	0	0	0	0	0	0	0
0	0	0	0	0	0	0	0	0	0	0	0	0	0	0	0	0	0	0	0	0	0	0	0	0	0	1078	1078	1078	1078	1074	1074	1074	1074	0	0	0	0	0	0	0	0	0	0	1698	1706	1706	1824	1690	1690	1690	1690	1681	1681	1673	1681	1681	1681	1681	1673	1681	1681	1690	1681	1681	1681	1681	1673	1673	1673	1673	1673	1673	1673	1681	1690	1681	1681	1681	1681	1690	1681	1673	1673	1673	1673	1681	1690	1681	1698	1698	1698	1681	1681	1681	1673	1681	1681	1681	1681	1681	1698	1681	1690	1690	1681	1681	1681	1681	1681	1681	0	0	0	0	0	0	0	0	0	0	0	1777	1768	1768	1768	1768	1768	1777	1786	1786	1795	1795	1795	1795	1795	1795	1795	1795	1804	1804	1814	1814	1824	1833	1833	1843	1853	1853	1863	1873	1883	1883	1894	1904	1915	1925	1936	1947	1958	1969	1980	1980	2003	2015	2027	2039	2063	2076	2088	2101	2114	2114	2127	2127	2127	2127	2609	2629	2629	2649	2669	2690	2690	2711	2711	2733	2754	2777	2777	2777	2799	2799	2799	2777	2777	2799	2799	0	3907	3907	3907	3907	3907	3907	3907	3907	3907	3907	3907	3864	3821	3821	3821	3821	3821	3821	3821	3779	3779	3779	3779	3779	3779	3779	3779	3779	3779	3779	3779	3779	3779	3779	3821	3821	3864	3864	3864	3864	3907	3907	3907	3907	3952	3952	3952	3952	3952	3952	3952	3952	3952	3952	3998	4045	4045	4093	4093	4093	4093	4093	4142	4192	4350	4463	4521	4521	4521	4581	4581	4581	4581	4521	4521	4521	4521	4521	4521	4581	4643	4581	4581	4581	4581	4581	4581	4521	4521	4463	4406	4350	4350	4296	4243	4243	3475	3475	3475	3440	3440	3406	3406	3406	3406	3406	3406	3406	3406	3406	3406	3406	3440	3440	3440	3406	3406	3406	4706	4643	4581	4521	4521	4521	4521	4521	4521	4521	4463	4463	4406	4296	3309	3309	3309	3309	3309	3309	3309	3309	3309	3277	3277	3277	3277	3277	3277	3277	3277	3277	3277	3277	3277	3277	3277	3277	3277	3277	4243	4192	4142	4142	4142	4142	4142	4142	4142	4142	4142	4142	4142	4142	4142	4142	4142	4142	4142	4093	4093	4093	4093	4093	4093	4142	4142	4142	4142	4142	4142	4142	4142	4192	4192	4192	4192	4192	4192	4192	4192	4192	4142	4142	4142	4192	4142	4192	4192	4192	4192	4192	4142	4142	4142	4142	4142	4093	4142	4142	4142	4142	4192	4192	4192	4142	4142	4142	4142	4142	4142	4142	4142	4192	4192	4192	4192	4142	4142	4142	4093	4093	4093	4093	4093	4045	4045	4045	4045	4093	4093	4093	4093	4093	4093	4093	4093	4093	4093	4045	4093	4093	4093	4142	4093	4093	4093	4045	4045	3998	3998	3998	3998	3998	3998	3998	3998	3998	3998	3998	3998	3952	3998	3952	3998	3952	3952	3952	3952	3952	3952	3952	3998	3952	3998	3998	3998	3998	3998	3998	3998	3998	3998	3998	3952	3998	3998	3998	3998	3998	3998	3998	3998	3952	3952	3998	3998	3998	3998	3998	3998	3998	3998	3998	3998	3998	3998	3998	3998	3998	3998	3998	3998	3998	3998	3998	3998	3998	4045	4045	4045	4093	4093	4142	4192	4192	4192	4243	4243	4243	4243	4243	4243	6018	6124	6124	6018	6018	6018	5915	5915	6018	6018	6018	6018	6018	6018	6124	6124	6124	6124	6124	6124	6124	6018	6018	6124	6124	6124	6235	6235	6235	6349	6349	6349	6349	6349	6349	6349	6349	6349	6468	6592	6592	6592	6720	6720	6720	6720	0	0	0	0	0	0	0	0	0	0	0	0	0	0	0	0	0	0	0	0	0	0	0	0	0	0	0	0	0	0	0	0	0	0	0	0	0	0	0	0	0	0	0	0
0	0	0	0	0	0	0	0	0	0	0	0	0	0	0	0	0	0	0	0	0	0	0	0	0	0	1074	1074	1078	1078	1074	1074	1074	1074	0	0	0	0	0	0	0	0	0	0	0	1833	1833	1843	1833	1833	1853	1853	1863	1690	1673	1681	1681	1690	1690	1681	1681	1681	1690	1681	1690	1681	1690	1681	1681	1681	1681	1681	1673	1673	1698	1698	1698	1681	1673	1706	1698	1681	1673	1673	1673	0	1681	1681	1681	1698	1698	1698	1681	1681	1673	1681	1681	1681	1690	1698	1698	1698	1706	1706	1698	1698	1698	1698	1681	1681	0	0	0	0	0	0	0	0	0	0	0	1777	1777	1777	1777	1777	1777	1777	1777	1786	1795	1795	1804	1804	1804	1804	1804	1804	1804	1804	1814	1814	1824	1843	1843	1853	1853	1863	1863	1873	1883	1883	1894	1904	1925	1925	1936	1947	1958	1969	1969	1980	1992	2015	2027	2039	2051	2076	2101	2101	2114	2114	2114	2114	2114	2114	0	2629	2629	2629	2649	2669	2690	2690	2711	2711	2733	2754	2777	2777	2777	2799	2799	2777	2777	2777	2777	2777	0	3952	3907	3907	3907	3907	3907	3907	3907	3907	3907	3907	3864	3864	3821	3821	3821	3821	3821	3821	3779	3779	3821	3821	3821	3821	3779	3779	3779	3779	3779	3779	3779	3779	3779	3821	3821	3821	3864	3864	3907	3907	3907	3907	3907	3952	3952	3952	3952	3952	3952	3952	3952	3952	3952	3998	4045	4045	4093	4093	4093	4093	4093	4142	4142	4192	4350	4463	4521	4521	4581	4521	4521	4521	4521	4521	4521	4521	4521	4521	4521	4581	4581	4581	4581	4581	4581	4581	4581	4521	4463	4463	4350	4296	4243	4192	4192	3475	3475	3475	3440	3440	3406	3406	3406	3406	3406	3406	3406	3406	3406	3406	3406	3440	3440	3440	3406	3406	3406	4581	4581	4521	4521	4521	4521	4521	4521	4521	4521	4463	4463	4406	4296	3309	3309	3309	3309	3309	3309	3309	3309	3309	3309	3277	3277	3277	3277	3277	3277	3277	3277	3277	3277	3277	3277	3277	3277	3277	3277	4243	4192	4192	4142	4142	4142	4142	4142	4142	4142	4142	4142	4142	4142	4142	4142	4142	4142	4142	4142	4142	4093	4093	4142	4142	4142	4142	4142	4142	4142	4142	4142	4142	4192	4192	4192	4192	4192	4192	4192	4192	4192	4142	4142	4142	4142	4142	4142	4142	4142	4142	4142	4142	4142	4142	4093	4142	4093	4093	4142	4142	4142	4142	4142	4192	4142	4142	4192	4142	4142	4093	4142	4142	4142	4192	4192	4192	4192	4142	4142	4093	4093	4093	4093	4093	4045	4045	4045	4045	4093	4093	4093	4142	4093	4093	4093	4093	4045	4093	4045	4093	4093	4093	4093	4093	4093	4045	4045	4045	4045	3998	3998	3998	3998	3998	3998	3998	4045	3998	3998	3998	3952	3952	3952	3952	3952	3952	3952	3952	3998	3952	3952	3998	3952	3952	3952	3998	3998	3998	3998	3998	3998	3998	3998	3998	3998	3998	3998	3998	3998	3998	3998	3998	3952	3952	3998	3998	3998	3998	3998	3998	3998	3998	3998	3998	3998	3998	3998	3998	3998	3998	3998	3998	3998	3998	3998	3998	4045	4045	4045	4045	4093	4142	4142	4192	4192	4192	4243	4243	4243	4243	4192	4192	4192	6018	6124	6018	6018	6018	6018	6018	6018	6018	6018	6018	6018	6018	6124	6124	6124	6124	6124	6124	6124	6018	6124	6124	6124	6235	6235	6235	6349	6349	6349	6349	6349	6349	6349	6349	6349	6349	6349	6468	6592	6592	6592	6592	6592	0	0	0	0	0	0	0	0	0	0	0	0	0	0	0	0	0	0	0	0	0	0	0	0	0	0	0	0	0	0	0	0	0	0	0	0	0	0	0	0	0	0	0	0	0
0	0	0	0	0	0	0	0	0	0	0	0	0	0	0	0	0	0	0	0	0	0	0	0	0	0	1074	1074	1078	1074	1074	1074	1074	1074	0	0	0	0	0	0	0	0	0	0	0	1833	1833	1843	1843	1843	1853	1853	1863	1863	1673	1673	1681	1681	1681	1673	1681	1681	1690	1681	1690	1690	1698	1681	1681	1690	1690	1681	1681	1681	1698	1698	1698	1681	1673	1706	1698	1698	1698	1673	1673	0	1681	1681	0	0	0	0	0	1681	1833	1833	1681	1681	1690	1698	1786	1706	1706	1706	1706	1804	1814	1814	1814	0	0	0	0	0	0	0	0	0	0	0	0	1786	1786	1777	1786	1786	1786	1786	1795	1804	1804	1804	1804	1814	1814	1814	1804	1814	1814	1824	1833	1833	1843	1843	1853	1853	1863	1863	1863	1873	1894	1894	1915	1925	1936	1936	1947	1947	1958	1969	1980	2003	2015	2027	2039	2051	2076	2101	2114	2114	2114	2114	2114	2114	2114	2114	0	2629	2629	2629	2649	2669	2690	2690	2711	2711	2733	2754	2777	2777	2777	2799	2799	2799	2777	2777	2777	2777	0	3952	3907	3907	3907	3907	3907	3907	3907	3907	3907	3864	3864	3864	3864	3864	3864	3864	3821	3821	3821	3821	3821	3821	3821	3821	3821	3821	3821	3779	3779	3779	3779	3779	3779	3821	3821	3864	3864	3907	3907	3907	3907	3907	3907	3952	3952	3952	3952	3952	3952	3952	3952	3998	3998	3998	4045	4045	4093	4093	4093	4093	4142	4142	4192	4192	4350	4463	4521	4521	4581	4521	4521	4521	4521	4521	4521	4521	4521	4521	4521	4581	4581	4581	4581	4581	4581	4581	4581	4521	4463	4463	4350	4296	4296	4243	4243	3510	3510	3475	3475	3440	3406	3406	3406	3406	3406	3406	3406	3406	3406	3406	3406	3406	3440	3440	3406	3406	4643	4643	4581	4521	4521	4521	4521	4581	4581	4521	4521	4463	4463	4406	4296	4192	3309	3309	3309	3309	3309	3309	3309	3309	3309	3309	3277	3277	3277	3277	3277	3277	3277	3277	3277	3277	3277	3277	3277	3277	3277	3277	4243	4192	4192	4142	4142	4192	4142	4142	4142	4142	4142	4142	4142	4142	4142	4142	4093	4142	4142	4142	4142	4142	4142	4142	4142	4142	4142	4142	4142	4142	4192	4192	4192	4192	4192	4192	4192	4192	4192	4192	4192	4142	4142	4142	4142	4142	4142	4142	4142	4142	4142	4142	4142	4093	4093	4142	4093	4093	4142	4142	4142	4192	4192	4192	4192	4192	4192	4142	4142	4142	4142	4142	4142	4192	4192	4192	4192	4192	4192	4142	4142	4142	4093	4093	4045	4045	4045	4093	4093	4093	4142	4142	4142	4093	4093	4093	4093	4093	4045	4093	4093	4093	4093	4093	4093	4045	4045	4045	4045	3998	3998	3998	4045	3998	3998	3998	3998	3998	3998	3952	3952	3952	3952	3998	3952	3952	3952	3998	3998	3952	3952	3998	3952	3998	3952	3998	3998	3998	3998	3998	3998	3998	3998	3952	3952	3952	3998	3998	3952	3998	3952	3998	3952	3952	3998	3998	3998	3998	3998	3998	3998	3998	3998	3998	3998	3998	3998	3998	3952	3952	3952	3952	3998	3952	3998	3998	3998	4045	4045	4045	4093	4093	4142	4192	4192	4243	4243	4243	4243	4243	4192	4192	4192	6018	6018	6018	6018	6018	6018	6018	6018	6018	6018	6018	6018	6018	6018	6124	6124	6124	6124	6124	6124	6018	6124	6124	6124	6235	6235	6235	6349	6349	6349	6349	6349	6468	6468	6468	6349	6468	6468	6468	6592	6468	6468	6468	6592	0	0	0	0	0	0	0	0	0	0	0	0	0	0	0	0	0	0	0	0	0	0	0	0	0	0	0	0	0	0	0	0	0	0	0	0	0	0	0	0	0	0	0	0	0
0	0	0	0	0	0	0	0	0	0	0	0	0	0	0	0	0	0	0	0	0	0	0	0	0	0	1074	1074	1074	1074	1074	1074	1074	1074	0	0	0	0	0	0	0	0	0	1843	1843	1843	1843	1843	1833	1833	1833	1833	1843	1843	1843	1843	1673	1673	1673	1673	1673	1673	1673	1843	1843	1843	1843	1843	1833	1824	1814	1814	1814	1804	1804	0	0	0	0	0	0	1698	1698	0	0	0	0	0	0	0	1804	1804	0	0	1833	1833	0	0	0	0	1786	1706	1786	1804	1804	1804	1814	1814	1814	1814	0	0	0	0	0	0	0	0	0	0	0	1795	1786	1786	1795	1795	1795	1804	1804	1814	1814	1814	1814	1814	1814	1814	1814	1824	1824	1843	1843	1853	1853	1853	1853	1863	1873	1873	1883	1883	1904	1904	1925	1936	1947	1947	1947	1947	1969	1980	2015	2027	2051	2063	2063	2076	2088	2114	2114	2114	2127	2127	2127	2127	2127	2127	0	0	2629	2629	2649	2649	2690	2690	2711	2711	2733	2799	2777	2777	2777	2799	2799	2799	2777	2777	2777	2777	0	3907	3907	3907	3907	3907	3907	3952	3952	3952	3907	3864	3907	3864	3864	3864	3864	3864	3821	3821	3821	3779	3821	3821	3821	3821	3821	3821	3821	3779	3779	3821	3821	3821	3821	3821	3821	3864	3864	3907	3907	3907	3907	3907	3907	3907	3952	3952	3952	3952	3952	3952	3952	3998	3998	3998	4045	4093	4093	4093	4093	4093	4142	4142	4192	4192	4192	4406	4521	4521	4521	4521	4521	4521	4521	4521	4521	4521	4521	4521	4521	4581	4581	4581	4581	4581	4581	4581	4581	4521	4521	4463	4406	4350	4243	4192	4192	3475	3475	3440	3440	3440	3440	3406	3440	3406	3406	3406	3406	3406	3406	3406	3406	3440	3440	3440	3406	3406	4643	4581	4581	4521	4521	4581	4581	4521	4581	4581	4521	4463	4463	4350	4296	4192	4192	3309	3309	3309	3309	3309	3341	3309	3309	3309	3309	3277	3309	3277	3277	3309	3277	3309	3309	3309	3277	3277	3277	3277	3277	3277	4243	4192	4192	4142	4142	4142	4142	4142	4142	4142	4142	4142	4142	4142	4142	4142	4142	4142	4142	4142	4142	4142	4142	4142	4142	4142	4142	4142	4142	4142	4142	4192	4192	4192	4192	4192	4192	4192	4192	4192	4192	4142	4142	4142	4142	4142	4142	4142	4142	4142	4142	4142	4142	4142	4142	4142	4142	4142	4142	4142	4142	4192	4192	4192	4192	4192	4192	4142	4142	4093	4093	4093	4142	4192	4192	4192	4192	4192	4192	4192	4142	4142	4142	4142	4045	4093	4093	4093	4093	4093	4142	4142	4142	4093	4093	4093	4093	4045	4045	4045	4045	4045	4093	4045	4045	4045	4045	4045	3998	3998	3998	3998	4045	3998	3998	3998	3998	3998	3998	3998	3952	3998	3952	3998	3952	3952	3998	3998	3998	3998	3998	3998	3998	3998	3998	3998	3998	3998	3998	3998	3998	3998	3952	3952	3952	3952	3952	3952	3952	3952	3952	3952	3952	3952	3952	3952	3998	3998	3998	3998	3998	3998	3998	3998	3998	3998	3998	3998	3998	3952	3952	3952	3998	3952	3998	3998	3998	4045	4045	4045	4093	4093	4093	4192	4192	4243	4243	4243	4243	4243	4192	4142	4142	6018	6018	6018	6018	6018	6018	6018	6018	5915	5915	6018	6018	6018	6018	6124	6124	6124	6124	6235	6235	6124	6124	6235	6235	6235	6235	6235	6235	6349	6349	6349	6349	6468	6468	6468	6468	6468	6468	6592	6592	6592	6468	6468	0	0	0	0	0	0	0	0	0	0	0	0	0	0	0	0	0	0	0	0	0	0	0	0	0	0	0	0	0	0	0	0	0	0	0	0	0	0	0	0	0	0	0	0	0	0
0	0	0	0	0	0	0	0	0	0	0	0	0	0	0	0	0	0	0	0	0	0	0	0	0	0	1071	1071	1074	1074	1074	1074	1074	1074	0	0	0	0	0	0	0	0	1863	1853	1853	1843	1853	1843	1843	1833	1833	1833	1833	1833	1833	1843	1673	1673	1673	1853	1873	1873	1873	1843	1853	1843	1843	1843	1833	1824	1833	1824	1824	1814	1814	1814	0	0	0	0	0	0	0	0	0	0	0	0	0	1804	1804	1804	1804	1833	1833	1833	0	0	0	0	0	0	1786	1795	1795	1814	1814	1814	1814	1814	0	0	0	0	0	0	0	0	0	0	0	1795	1786	1804	1804	1814	1824	1814	1814	1824	1824	1824	1814	1824	1824	1833	1833	1843	1853	1853	1863	1863	1863	1863	1863	1883	1894	1894	1904	1915	1915	1915	1925	1936	1947	1958	1958	1947	1969	1992	2051	2051	2063	2063	2076	2076	2088	2114	2114	2114	2127	2127	2140	2140	2478	2478	2589	2589	2629	2629	2649	2649	2690	2711	2711	2711	2711	2777	2799	2777	2799	2799	2799	2799	2777	2754	2754	2754	0	3907	3907	3907	3907	3907	3907	3907	3952	3907	3907	3864	3864	3864	3864	3864	3864	3864	3821	3864	3821	3821	3821	3821	3821	3821	3821	3821	3821	3779	3779	3821	3821	3821	3821	3821	3821	3864	3864	3907	3907	3907	3907	3907	3907	3907	3907	3907	3952	3952	3952	3952	3998	3998	3998	4045	4045	4093	4093	4093	4093	4093	4142	4142	4142	4192	4296	4406	4463	4521	4521	4521	4521	4521	4521	4521	4581	4581	4521	4521	4521	4581	4581	4581	4581	4581	4581	4581	4581	4521	4521	4463	4406	4350	4243	4192	4142	3440	3475	3475	3440	3440	3440	3406	3440	3406	3406	3440	3440	3406	3406	3440	3406	3440	3440	3440	3440	3440	4643	4581	4581	4581	4521	4581	4581	4581	4581	4581	4521	4521	4463	4350	4296	4192	4142	4142	4142	3341	3341	3341	3341	3309	3309	3309	3309	3309	3309	3309	3309	3309	3309	3309	3309	3309	3277	3277	3277	3277	3277	3277	4192	4192	4142	4093	4142	4142	4142	4142	4142	4142	4142	4142	4142	4142	4142	4142	4142	4142	4142	4142	4142	4142	4142	4142	4142	4142	4142	4142	4142	4142	4192	4192	4192	4192	4192	4142	4192	4192	4192	4192	4142	4142	4142	4142	4142	4142	4142	4093	4093	4093	4142	4142	4142	4142	4142	4142	4142	4142	4142	4142	4142	4142	4192	4192	4192	4192	4192	4142	4142	4093	4093	4093	4142	4192	4192	4192	4192	4192	4192	4192	4142	4142	4142	4142	4093	4093	4093	4093	4093	4093	4142	4093	4142	4093	4093	4093	4093	4093	4093	4093	4093	4093	4093	4045	4045	4045	3998	4045	3998	3998	3998	3998	4045	3998	3998	3998	3998	3998	3998	3952	3952	3952	3952	3998	3952	3952	3998	3998	3998	3998	3998	3998	3998	3998	3998	3998	3998	3998	3998	3998	3998	3998	3952	3952	3952	3952	3952	3952	3952	3952	3952	3952	3952	3952	3952	3952	3952	3998	3998	3998	3998	3998	3998	3998	3998	3998	3998	3952	3952	3952	3952	3952	3952	3952	3998	3998	3998	3998	4045	4045	4093	4093	4142	4192	4192	4243	4243	4243	4243	4192	4142	4142	4142	6018	6018	6018	5915	5915	5915	5915	6018	6018	5915	5915	5915	6018	6018	6124	6124	6124	6124	6235	6235	6124	6235	6235	6235	6235	6235	6235	6235	6349	6349	6349	6349	6468	6592	6592	6468	6468	6468	6592	6592	6468	6349	6349	0	0	0	0	0	0	0	0	0	0	0	0	0	0	0	0	0	0	0	0	0	0	0	0	0	0	0	0	0	0	0	0	0	0	0	0	0	0	0	0	0	0	0	0	0	0
0	0	0	0	0	0	0	0	0	0	0	0	0	0	0	0	0	0	0	0	0	0	0	0	0	0	1071	1071	1074	1074	1074	1074	1074	1074	0	0	0	0	0	0	0	0	1873	1873	1863	1863	1853	1853	1853	1853	1853	1894	1883	1863	1863	1863	1863	1853	1853	1873	1873	1873	1883	1873	1853	1853	1843	1843	1843	1833	1843	1833	1833	1814	1814	1814	0	0	0	0	0	0	0	0	0	0	0	0	0	1804	1814	1814	1824	1833	1833	1833	1833	0	1814	1814	0	0	1786	1795	1804	1814	1824	1814	1814	1824	1824	0	0	0	0	0	0	0	0	0	0	1795	1786	1843	1843	1843	1843	1833	1824	1833	1824	1824	1824	1824	1833	1843	1843	1853	1853	1863	1863	1873	1873	1873	1883	1904	1915	1915	1915	1915	1925	1925	1936	1936	1958	1958	1958	1958	1980	2076	2063	2063	2076	2076	2076	2088	2101	2114	2114	2127	2127	2153	2153	2478	2478	2478	2589	2589	2629	2629	2629	2649	2690	2690	2733	2754	2777	2799	2799	2799	2799	2799	2799	2799	2777	2754	2754	2754	3907	3907	3907	3907	3907	3907	3907	3907	3907	3907	3864	3864	3864	3864	3864	3864	3864	3864	3821	3864	3821	3821	3864	3864	3821	3821	3821	3821	3821	3821	3779	3821	3821	3821	3821	3821	3821	3864	3864	3864	3907	3907	3907	3907	3907	3907	3907	3952	3952	3952	3952	3952	3998	3998	3998	4045	4045	4093	4093	4093	4093	4093	4142	4142	4192	4192	4296	4406	4463	4521	4521	4521	4521	4521	4521	4521	4521	4521	4521	4521	4521	4581	4581	4581	4581	4581	4581	4581	4581	4581	4521	4463	4350	4296	4243	4192	4192	3440	3440	3475	3475	3440	3440	3440	3440	3440	3440	3440	3440	3440	3440	3440	3406	3440	3440	3440	3440	3440	4643	4581	4581	4581	4581	4581	4581	4581	4581	4581	4581	4521	4463	4406	4243	4192	4142	4142	4142	3341	3341	3341	3341	3341	3309	3309	3309	3309	3309	3309	3309	3309	3309	3309	3309	3309	3277	3277	3277	3277	3277	3277	4192	4192	4142	4142	4142	4142	4142	4142	4142	4142	4142	4142	4142	4142	4142	4142	4192	4192	4192	4142	4192	4142	4142	4142	4142	4142	4142	4142	4142	4142	4142	4192	4192	4192	4192	4192	4192	4192	4192	4192	4142	4142	4142	4142	4142	4093	4142	4142	4093	4142	4142	4142	4142	4192	4192	4192	4192	4142	4142	4142	4142	4142	4142	4142	4192	4192	4142	4142	4093	4093	4093	4093	4142	4142	4142	4192	4192	4192	4192	4192	4142	4142	4142	4142	4093	4093	4093	4093	4142	4093	4093	4142	4142	4093	4093	4093	4093	4093	4093	4093	4093	4142	4093	4045	4093	4045	4045	4045	3998	3998	3998	3998	3998	3998	3998	3998	3998	3998	3952	3952	3952	3952	3952	3998	3998	3998	3998	3998	3998	3998	3998	3998	3998	3998	3998	3998	3998	3998	3998	3998	3952	3952	3952	3952	3952	3952	3952	3952	3952	3952	3952	3952	3952	3952	3952	3952	3952	3998	3998	3998	3998	3998	3998	3998	3998	3998	3998	3998	3998	3952	3952	3952	3952	3952	3998	3998	3998	4045	4045	4093	4093	4093	4142	4192	4192	4243	4243	4243	4243	4192	4142	4142	4142	5915	5915	5915	5915	5915	5915	5915	6018	6018	5915	5915	5915	6018	6018	6018	6018	6124	6124	6235	6235	6124	6235	6235	6235	6235	6235	6235	6235	6235	6349	6349	6349	6468	6468	6592	6468	6468	6468	6592	6468	6468	6468	6468	0	0	0	0	0	0	0	0	0	0	0	0	0	0	0	0	0	0	0	0	0	0	0	0	0	0	0	0	0	0	0	0	0	0	0	0	0	0	0	0	0	0	0	0	0	0
0	0	0	0	0	0	0	0	0	0	0	0	0	0	0	0	0	0	0	0	0	0	0	0	0	0	0	1071	1074	1074	1074	1074	1078	1078	1078	1078	1078	0	0	0	0	1873	1873	1873	1863	1873	1863	1883	1894	1894	1894	1894	1883	1883	1873	1873	1863	1863	1863	1873	1873	1873	1883	1873	1873	1863	1853	1853	1853	1843	1843	1843	1843	1833	1833	0	0	0	0	0	0	0	0	0	0	0	0	1824	1824	1824	1824	1824	1833	1833	1833	1824	1833	1824	1814	1814	0	0	1795	1804	1814	1814	1824	1824	1824	1824	1824	0	0	0	0	0	0	0	0	0	0	0	0	1863	1853	1853	1853	1843	1843	1843	1833	1824	1824	1824	1833	1843	1843	1853	1863	1863	1883	1883	1883	1894	1904	1925	1925	1925	1925	1925	1936	1925	1936	1936	1958	1958	1958	1958	1958	2076	2076	2076	2076	2076	2088	2088	2114	2127	2127	2127	2140	2153	2153	2478	2478	2551	2551	2570	2609	2629	2649	2669	2711	2754	2777	2777	2799	2799	2822	2799	2799	2799	2799	2799	2799	2777	2777	0	3907	3907	3907	3907	3907	3907	3907	3907	3864	3864	3864	3864	3864	3864	3864	3864	3864	3864	3821	3864	3821	3821	3821	3821	3821	3821	3821	3821	3864	3821	3821	3779	3821	3821	3821	3821	3821	3821	3864	3864	3907	3907	3907	3907	3907	3907	3907	3907	3952	3952	3952	3952	4045	4045	4045	4093	4093	4093	4093	4093	4093	4093	4142	4142	4192	4192	4350	4406	4521	4521	4521	4521	4521	4521	4521	4521	4521	4581	4581	4581	4521	4581	4581	4581	4581	4581	4581	4581	4581	4521	4463	4463	4463	4296	4296	4192	4192	3475	3475	3475	3475	3440	3440	3440	3440	3440	3440	3440	3440	3440	3440	3440	3406	3440	3440	3440	3440	3440	4706	4581	4581	4581	4581	4581	4581	4581	4581	4581	4581	4463	4463	4296	4243	4192	4142	4142	4142	4192	3341	3341	3341	3341	3341	3309	3309	3309	3309	3309	3309	3309	3309	3309	3309	3309	3309	3277	3277	3277	3277	3246	3246	4192	4142	4142	4142	4142	4142	4142	4142	4142	4142	4142	4142	4142	4142	4142	4192	4192	4142	4142	4142	4142	4142	4142	4142	4142	4142	4142	4142	4142	4142	4192	4192	4192	4192	4192	4192	4192	4192	4142	4142	4142	4142	4142	4142	4142	4142	4142	4142	4142	4142	4192	4192	4192	4192	4192	4192	4142	4142	4142	4142	4142	4142	4142	4142	4192	4192	4142	4093	4093	4093	4142	4142	4142	4142	4192	4192	4192	4192	4142	4142	4142	4142	4142	4093	4093	4093	4093	4093	4093	4093	4093	4142	4093	4093	4093	4093	4093	4093	4093	4093	4192	4093	4093	4093	4045	4045	4093	3998	4045	3998	3998	4045	4045	3998	3998	3998	3998	3998	3998	3952	3952	3998	3998	3998	3998	3998	3998	3998	3998	3998	3998	3998	3998	3998	3998	3952	3998	3998	3998	3952	3952	3952	3952	3952	3952	3952	3952	3952	3952	3952	3952	3952	3952	3952	3952	3998	3998	3998	3998	3998	3998	3998	3998	3998	3998	3998	3998	3998	3952	3952	3952	3952	3952	3998	3998	3998	4045	4093	4093	4142	4142	4142	4192	4192	4192	4243	4192	4192	4192	4142	4142	4192	5915	5915	5915	5915	5915	5915	5915	5915	5915	5915	5915	5915	6018	6018	6018	6018	6124	6124	6235	6235	6124	6124	6124	6235	6235	6235	6235	6235	6349	6349	6349	6349	6468	6468	6720	6468	6468	6468	6468	6468	6349	6349	6349	0	0	0	0	0	0	0	0	0	0	0	0	0	0	0	0	0	0	0	0	0	0	0	0	0	0	0	0	0	0	0	0	0	0	0	0	0	0	0	0	0	0	0	0	0	0
0	0	0	0	0	0	0	0	0	0	0	0	0	0	0	0	0	0	0	0	0	0	0	0	0	0	0	1071	1074	1074	1074	1074	1078	1078	1078	1078	1078	0	0	0	0	1883	1883	1883	1873	1883	1883	1883	1894	1904	1894	1894	1883	1883	1873	1873	1873	1863	1873	1883	1873	1883	1883	1883	1873	1873	1863	1863	1863	1853	1853	1853	1853	1853	1853	1863	1863	1863	1863	0	0	0	0	0	0	0	0	1824	1824	1824	1824	1833	1824	1833	1833	1824	1833	1824	1814	1814	1814	1814	1814	1814	1824	1833	1833	1833	1824	1833	1843	1843	0	0	0	0	0	0	0	0	0	0	0	1873	1863	1863	1853	1853	1853	1853	1843	1833	1833	1833	1843	1843	1843	1853	1863	1863	1883	1894	1894	1915	1925	1925	1925	1925	1925	1925	1936	1925	1936	1936	1969	1969	1969	1969	2076	2076	2076	2088	2088	2088	2127	2127	2127	2127	2127	2127	2127	2496	2478	2496	2514	2514	2570	2570	2609	2609	2629	2649	2669	2777	2777	2799	2799	2822	2822	2799	2799	2799	2799	2799	2799	2777	2777	0	3907	3907	3907	3907	3907	3907	3864	3864	3864	3907	3907	3864	3864	3864	3907	3864	3864	3821	3821	3821	3821	3821	3821	3821	3821	3821	3821	3821	3779	3821	3821	3779	3779	3779	3779	3779	3821	3821	3864	3864	3907	3907	3907	3907	3907	3907	3907	3952	3952	3952	3952	3998	4045	4045	4045	4093	4093	4093	4093	4093	4093	4093	4142	4142	4192	4192	4463	4463	4463	4521	4521	4521	4521	4521	4521	4521	4521	4581	4581	4581	4581	4581	4581	4581	4581	4581	4581	4581	4581	4521	4521	4463	4350	4296	4296	4192	4192	3475	3475	3475	3475	3440	3440	3440	3440	3406	3440	3406	3406	3440	3440	3440	3406	3440	3440	3440	3440	3440	4706	4581	4581	4521	4581	4581	4581	4581	4581	4581	4521	4463	4406	4243	4192	4142	4142	4142	4142	4192	3341	3341	3341	3341	3341	3341	3309	3309	3309	3309	3309	3309	3309	3309	3309	3309	3309	3277	3309	3309	3309	3309	3309	4142	4142	4142	4142	4142	4192	4142	4142	4142	4192	4142	4142	4142	4142	4142	4142	4142	4142	4142	4192	4192	4192	4142	4142	4142	4142	4142	4192	4192	4142	4192	4192	4192	4192	4142	4142	4192	4142	4142	4142	4142	4142	4142	4142	4142	4142	4142	4142	4142	4192	4192	4192	4243	4192	4243	4192	4192	4192	4192	4142	4192	4142	4142	4142	4142	4142	4142	4142	4142	4142	4142	4192	4142	4142	4142	4142	4142	4142	4142	4142	4142	4142	4142	4093	4093	4093	4093	4093	4093	4093	4093	4093	4093	4093	4093	4093	4093	4093	4093	4093	4142	4192	4045	4093	4045	4045	4093	3998	4045	3998	3998	4045	4045	3998	3998	3998	3998	3998	3998	3952	3952	3998	3998	3998	3998	3998	3998	3998	3998	3998	3998	3998	3998	3998	3952	3952	3952	3952	3952	3952	3952	3952	3952	3952	3952	3952	3952	3952	3952	3952	3952	3952	3998	3952	3952	3998	3998	3998	3998	3998	3998	3998	3998	3998	3998	3998	3998	3998	3998	3952	3952	3952	3952	3998	3998	3998	4045	4093	4142	4142	4142	4192	4192	4192	4192	4192	4192	4243	4192	4192	4192	5915	5815	5915	5915	5915	5915	5915	5915	5915	5915	5915	5915	5915	6018	6018	6018	6124	6235	6235	6235	6349	6124	6235	6235	6235	6235	6235	6235	6235	6349	6349	6349	6349	6468	6468	6468	6468	6468	6468	6468	6468	6468	6349	6349	0	0	0	0	0	0	0	0	0	0	0	0	0	0	0	0	0	0	0	0	0	0	0	0	0	0	0	0	0	0	0	0	0	0	0	0	0	0	0	0	0	0	0	0	0	0
0	0	0	0	0	0	0	0	0	0	0	0	0	0	0	0	0	0	0	0	0	0	0	0	0	0	0	1071	1071	1074	1074	1074	1074	1078	1078	1078	1078	0	0	0	0	1894	1894	1894	1883	1883	1883	1883	1894	1894	1883	1894	1883	1883	1873	1873	1873	1873	1873	1883	1883	1883	1883	1883	1883	1873	1863	1863	1863	1863	1863	1863	1863	1863	1873	1873	1873	1863	1863	1863	1863	1863	0	0	0	0	0	1824	1824	1824	1833	1833	1833	1843	1843	1833	1843	1843	1843	1843	1843	1863	1863	1843	1843	1843	1843	1843	1843	1853	1853	1853	0	0	0	0	0	0	0	0	0	0	0	1873	1873	1873	1863	1863	1863	1863	1853	1843	1843	1833	1843	1843	1843	1843	1853	1853	1883	1894	1894	1915	1925	1925	1925	1925	1925	0	1936	1947	1947	1936	1969	1980	1980	2076	2076	2076	2076	2088	2088	2101	2101	2127	2127	2460	2478	2478	2478	2478	2478	2496	2514	2514	2532	2551	2589	2609	2629	2649	2669	2777	2777	2777	2799	2799	2799	2799	2799	2799	2799	2799	2799	2777	2777	0	3907	3907	3907	3907	3907	3907	3864	3864	3864	3864	3864	3864	3864	3864	3864	3864	3864	3821	3821	3821	3821	3779	3821	3821	3821	3779	3779	3779	3779	3779	3779	3779	3779	3779	3779	3779	3821	3821	3864	3864	3907	3907	3907	3907	3907	3907	3907	3952	3952	3952	3998	3998	4045	4045	4093	4093	4093	4093	4093	4093	4093	4093	4142	4142	4192	4296	4463	4463	4463	4521	4521	4521	4581	4521	4581	4581	4581	4581	4581	4581	4581	4581	4581	4581	4581	4581	4581	4521	4521	4521	4521	4463	4350	4296	4296	4192	4192	3475	3475	3475	3475	3440	3440	3440	3440	3406	3406	3406	3406	3406	3440	3440	3406	3440	3440	3440	3440	4771	4706	4643	4581	4581	4581	4581	4581	4581	4581	4521	4463	4406	4350	4243	4192	4142	4142	4142	4093	4093	4093	4093	3341	3341	3341	3341	3341	3309	3309	3309	3309	3309	3309	3309	3309	3309	3309	3309	3309	3309	3309	3309	3309	4142	4142	4142	4142	4142	4142	4142	4142	4142	4192	4142	4142	4142	4142	4142	4142	4142	4142	4142	4192	4192	4192	4192	4142	4142	4142	4192	4192	4192	4192	4192	4192	4142	4142	4142	4142	4192	4142	4142	4142	4142	4142	4142	4142	4142	4142	4142	4142	4192	4192	4192	4192	4243	4192	4243	4192	4192	4192	4192	4142	4192	4142	4142	4142	4142	4142	4142	4142	4142	4142	4192	4192	4142	4142	4142	4142	4142	4142	4142	4142	4093	4093	4142	4093	4093	4093	4093	4093	4093	4093	4093	4093	4093	4093	4093	4093	4093	4093	4093	4093	4192	4192	4093	4093	4045	4045	4045	4045	3998	3998	3998	3998	4045	3998	3998	3998	3998	3952	3952	3952	3998	3998	3998	3998	3998	3998	3998	3998	3998	3998	3998	3998	3998	3998	3952	3952	3952	3952	3952	3952	3952	3952	3952	3952	3907	3907	3907	3952	3998	3952	3952	3952	3998	3952	3952	3952	3998	3998	3998	3998	3998	3998	3998	3998	3998	3998	3998	3998	3998	3952	3952	3952	3998	3998	3998	3998	4045	4093	4142	4142	4093	4142	4142	4192	4192	4192	4192	4243	4192	4192	4192	5915	5815	5915	5915	5815	5815	5915	5915	5915	5915	5915	5915	5915	6018	6018	6018	6018	6124	6124	6235	6349	6235	6235	6235	6235	6235	6235	6235	6235	6235	6349	6349	6349	6468	6468	6468	6468	6468	6468	6468	6468	6468	6592	6592	0	0	0	0	0	0	0	0	0	0	0	0	0	0	0	0	0	0	0	0	0	0	0	0	0	0	0	0	0	0	0	0	0	0	0	0	0	0	0	0	0	0	0	0	0	0
0	0	0	0	0	0	0	0	0	0	0	0	0	0	0	0	0	0	0	0	0	0	0	0	0	0	0	1071	1071	1071	1074	1074	1078	1078	1078	1078	1078	1078	0	0	0	1894	1883	1894	1883	1873	1873	1883	1883	1894	1883	1894	1883	1883	1873	1883	1873	1873	1883	1894	1894	1894	1883	1883	1883	1873	1873	1863	1873	1873	1873	1873	1873	1883	1883	1883	1873	1863	1873	1863	1863	1863	1863	0	0	0	0	1824	1824	1824	1843	1853	1843	1843	1843	1843	1843	1853	1853	1873	1883	1863	1863	1883	1863	1853	1853	1853	1843	1853	1853	1853	0	0	0	0	0	0	0	0	0	0	0	0	1873	1873	1873	1863	1863	1863	1853	1843	1843	0	0	1843	1843	1843	1853	1853	0	0	0	1936	1936	1936	1969	1969	0	0	0	1947	1947	0	1969	2076	2076	2076	2076	2076	2088	2088	2088	2443	2443	2443	2443	2443	2460	2460	2478	2478	2478	2496	2496	2496	2532	2551	2589	2609	2629	2649	2669	2733	2777	2777	2799	2799	2799	2799	2799	2799	2799	2799	2799	2777	2777	0	3952	3907	3907	3907	3864	3864	3864	3864	3864	3864	3864	3821	3821	3821	3864	3864	3864	3821	3821	3821	3821	3779	3779	3779	3779	3779	3779	3779	3779	3779	3779	3779	3779	3779	3779	3821	3821	3821	3864	3864	3907	3907	3907	3907	3952	3952	3952	3952	3952	3952	3998	3998	4045	4045	4045	4093	4093	4093	4093	4093	4093	4093	4142	4142	4192	4350	4463	4463	4463	4521	4521	4521	4521	4521	4581	4581	4581	4581	4581	4581	4581	4581	4581	4581	4581	4581	4581	4521	4521	4521	4521	4463	4350	4296	4296	4192	4192	3475	3475	3475	3475	3440	3440	3440	3440	3440	3440	3406	3440	3440	3440	3440	3440	3440	3440	3440	3440	4771	4771	4643	4581	4581	4581	4581	4581	4581	4521	4521	4463	4406	4296	4243	4192	4142	4142	4142	4093	4093	4093	4192	4093	3341	3341	3341	3341	3309	3309	3309	3309	3309	3309	3309	3309	3309	3309	3277	3309	3309	3309	3309	4093	4093	4142	4093	4142	4142	4192	4192	4142	4192	4192	4142	4142	4142	4142	4142	4142	4142	4142	4142	4142	4192	4142	4142	4142	4142	4142	4142	4192	4192	4142	4142	4142	4142	4142	4142	4142	4192	4142	4142	4142	4142	4142	4093	4142	4142	4142	4142	4142	4142	4192	4192	4192	4243	4192	4243	4192	4192	4192	4192	4192	4142	4142	4142	4142	4142	4142	4142	4142	4142	4142	4192	4192	4142	4142	4142	4142	4142	4093	4093	4093	4093	4093	4142	4093	4093	4093	4093	4093	4093	4093	4093	4093	4093	4093	4093	4142	4093	4093	4093	4142	4142	4192	4093	4093	4045	4093	4045	4045	3998	3998	3998	3998	3998	3998	3998	3998	3998	3952	3998	3998	3998	3998	3998	3998	3998	3998	3998	3998	3998	3998	3998	3998	3998	3952	3952	3952	3907	3907	3952	3952	3952	3952	3952	3952	3907	3998	3907	3952	3952	3952	3952	3952	3998	3998	3952	3952	3998	3998	3998	3998	3998	3998	3998	3998	3998	3952	3998	3998	3998	3952	3952	3998	3998	3998	3998	3998	4045	4093	4093	4093	4093	4142	4192	4192	4192	4243	4243	4243	4192	4192	4192	4192	5815	5815	5815	5815	5815	5815	5915	5915	5915	5915	5915	5915	5915	5915	5915	6018	6018	6124	6235	6349	6235	6235	6235	6235	6235	6235	6124	6124	6235	6235	6235	6349	6349	6349	6349	6349	6349	6468	6592	6592	6592	6592	6592	0	0	0	0	0	0	0	0	0	0	0	0	0	0	0	0	0	0	0	0	0	0	0	0	0	0	0	0	0	0	0	0	0	0	0	0	0	0	0	0	0	0	0	0	0	0
