0	0	0	0	0	0	0	0	901	903	903	903	908	908	915	917	920	920	925	927	932	935	937	942	942	945	945	948	950	953	958	961	963	966	972	974	980	980	985	997	1000	1000	1003	1006	1006	1008	1017	1020	1026	1030	1033	1033	1039	1042	1048	1055	1061	1061	1061	1064	1068	1068	1071	1078	1081	1085	1088	1088	0	0	0	0	0	0	0	0	4771	4706	4706	4706	4706	4706	4706	4706	4771	4771	4771	4771	4771	4771	4771	4771	4706	4706	4643	4581	4581	4581	4581	4643	4706	4706	4771	4771	4771	4771	4643	4706	4643	4706	4706	4706	4706	4706	4706	4643	4643	4643	4643	4643	4706	4706	4706	4706	4706	4706	4706	4706	4706	4643	4643	4643	4643	4643	4643	4706	4706	4706	4706	4706	4706	4643	4581	4643	4643	4838	4906	4977	5050	5050	5050	5050	5050	5050	6592	6468	6468	6468	6349	6349	6349	6349	6349	6235	6349	6235	6235	6235	6235	6235	6349	6349	6235	6235	6235	6349	6235	6349	6124	6124	6235	6235	6235	6235	6235	6235	6349	0	0	7137	7287	7287	7444	7444	7444	7287	7444	7444	0	0	0	0	0	0	0	0	0	0	0	0	0	0	0	0	0	0	0	7444	7608	7608	7608	7608	7959	7959	7959	7959	7959	7779	7779	7779	7779	7779	7608	7608	7608	7608	7608	7608	7959	7779	7779	7959	7959	8146	0	3998	3864	3864	3907	3864	3864	3864	3864	3864	3864	3864	3864	3864	3864	3864	3864	3864	3907	3907	3907	3907	0	0	3907	3907	3907	3907	3907	3907	3907	3907	3907	3907	3907	3907	3907	3907	3907	3907	3907	3907	3952	3952	3952	3952	4521	4521	4521	4581	4581	4581	4581	4581	4581	4581	4581	4581	4581	4581	4581	4581	4581	4581	4581	4581	4581	4581	4581	4581	4581	4581	4643	4581	4643	4706	4706	4706	4706	4706	4706	4706	4706	4706	4706	4706	4706	4706	4706	4706	4706	4706	4706	4706	4706	4706	4706	4706	4706	4706	4643	4643	4581	4521	4521	4521	4581	4581	4643	4706	4706	4643	4643	4643	4643	4643	4643	4706	4706	4706	4706	4706	4706	4706	4706	4706	4706	4706	4706	4706	4706	4706	4706	4706	4706	4706	4771	4771	4706	4706	4771	4706	4706	4706	4643	4643	4643	4643	4643	4643	4706	4706	4706	4706	4643	4706	4706	4706	4706	4706	4706	4706	4706	4706	4706	4643	4643	4643	4643	4581	4581	4521	4521	4463	4463	4406	4406	4463	4406	4463	4406	4406	4406	4406	4406	4406	4350	4350	4406	4406	4406	4406	4406	4406	4406	4406	4406	4406	4406	4406	4406	4406	4406	4406	4406	4406	4463	4521	4521	4581	4581	4581	4581	4521	4463	4406	4350	4350	4350	4296	4296	4296	4296	4296	4350	4350	4350	4350	4350	4350	4406	4406	4406	4406	4406	4406	4406	4406	4406	4406	4463	4463	4406	4406	4463	4463	4463	4463	4463	4463	4463	4463	4463	4463	4463	4463	4406	4406	4406	4406	4406	4406	4406	4406	4406	4406	4406	4406	4406	4406	4406	4406	4350	4350	4350	0	0	0	2496	2496	2496	2478	2460	2460	2443	2443	2443	2426	2426	2426	2409	2409	2409	2409	2409	2409	2409	2409	2409	2392	2392	2392	2409	2392	2392	2392	2392	2392	2392	2392	2392	2376	2376	2359	2359	2359	2359	2359	2359	2359	2359	2359	2359	2359	2376	2359	2359	2359	2359	2376	2376	2376	2392	2392	2392	2392	2392	2392	2392	2392	2392	2392	2392	2392	2570	2570	2570	2570	2570	2570	2570	2551	2551	2532	2496	2478	2443	2443	2443	2443	2443	0	0	0	0	0	0	0	0	0	0	0	0	0	0	0	0	0	0	0	0	0	0	0	0	0	0	0	0	0	0	0	0	0	0	0
0	0	0	0	0	0	0	0	901	901	903	905	915	915	915	915	920	920	925	927	932	935	937	942	942	945	945	948	950	953	958	961	963	966	974	974	980	980	983	994	1000	1000	1003	1006	1006	1011	1017	1020	1026	1030	1033	1039	1042	1042	1045	1052	1058	1061	1061	1064	1068	1068	1068	1074	1078	1085	1088	1088	0	0	0	0	0	0	0	0	4771	4706	4706	4706	4706	4643	4706	4706	4706	4706	4771	4771	4771	4706	4706	4706	4706	4643	4521	4463	4463	4463	4521	4581	4643	4643	4706	4706	4706	4706	4643	4643	4643	4706	4706	4706	4706	4706	4706	4643	4643	4643	4643	4706	4706	4706	4706	4706	4706	4706	4706	4706	4643	4643	4706	4706	4643	4643	4643	4706	4706	4706	4643	4643	4643	4643	4581	4581	4706	4838	4906	4977	4977	5050	5050	5050	5050	5050	6592	6468	6468	6468	6349	6349	6349	6349	6349	6235	6235	6235	6235	6235	6235	6235	6349	6235	6235	6235	6235	6349	6349	6349	6124	6124	6124	6235	6235	6235	6235	6349	6349	0	7137	7287	7444	7444	7444	7444	7444	7444	7444	7444	7444	0	0	0	0	0	0	0	0	0	0	0	0	0	0	0	0	0	7444	7608	7608	7608	7608	7779	7779	7779	7959	7959	7959	7959	7779	7779	7779	7779	7608	7608	7608	7608	7444	7959	7959	7959	7959	8146	9235	9757	3998	3952	3864	3864	3907	3864	3864	3864	3864	3864	3864	3864	3864	3864	3864	3864	3907	3907	3907	3907	3907	3907	3907	0	3907	3907	3907	3907	3907	3907	3907	3907	3907	3907	3907	3907	3907	3907	3907	3907	3907	3952	3952	3952	3952	4521	4521	4521	4521	4581	4581	4581	4581	4643	4581	4643	4581	4581	4581	4581	4581	4581	4581	4581	4581	4581	4581	4581	4581	4581	4581	4581	4643	4581	4643	4706	4706	4706	4706	4706	4706	4706	4706	4706	4706	4706	4706	4706	4706	4706	4706	4706	4706	4706	4706	4706	4706	4706	4706	4706	4643	4643	4581	4521	4521	4581	4581	4581	4643	4643	4706	4706	4643	4643	4643	4643	4643	4706	4706	4706	4706	4706	4706	4706	4706	4706	4706	4643	4706	4706	4706	4706	4706	4706	4706	4706	4771	4771	4706	4771	4771	4706	4706	4706	4643	4643	4643	4643	4643	4643	4643	4643	4706	4706	4706	4706	4706	4706	4706	4706	4706	4706	4706	4706	4706	4643	4643	4643	4643	4581	4581	4521	4521	4463	4463	4463	4406	4463	4406	4463	4406	4406	4406	4406	4406	4406	4350	4350	4350	4406	4350	4406	4406	4406	4406	4406	4406	4406	4406	4406	4406	4406	4406	4406	4406	4406	4406	4463	4521	4521	4521	4521	4521	4463	4406	4406	4350	4350	4350	4296	4296	4296	4296	4296	4350	4350	4350	4350	4350	4350	4350	4406	4350	4406	4406	4406	4406	4406	4406	4406	4463	4463	4463	4463	4463	4463	4463	4463	4463	4463	4521	4521	4463	4463	4463	4463	4406	4406	4406	4406	4406	4406	4406	4406	4406	4463	4406	4406	4406	4463	4406	4406	4350	4350	4350	0	0	0	2496	2496	2496	2478	2460	2460	2443	2443	2443	2426	2426	2426	2426	2426	2426	2409	2409	2409	2409	2409	2392	2392	2392	2392	2392	2392	2392	2392	2392	2392	2392	2392	2392	2376	2376	2376	2376	2359	2359	2359	2359	2359	2359	2359	2359	2359	2359	2359	2359	2376	2376	2376	2376	2392	2392	2392	2392	2392	2392	2392	2392	2392	2392	2392	2392	2392	2570	2570	2570	2570	2551	2570	2551	2551	2551	2532	2496	2478	2460	2460	2443	2443	2443	0	0	0	0	0	0	0	0	0	0	0	0	0	0	0	0	0	0	0	0	0	0	0	0	0	0	0	0	0	0	0	0	0	0	0
0	0	0	0	0	0	0	0	901	903	903	905	908	913	915	915	917	920	922	925	935	935	937	942	945	945	945	950	950	955	958	963	966	966	974	977	980	980	980	997	1000	1000	1003	1006	1006	1014	1014	1017	1023	1026	1033	1039	1042	1045	1048	1052	1055	1061	1061	1064	1064	1068	1068	1068	1078	1085	1088	1085	1085	0	0	0	0	0	0	0	0	4706	4643	4643	4643	4296	4296	4296	4296	4296	4350	4296	4350	4643	4643	4581	4521	4463	4406	4406	4406	4406	4406	4521	4643	4643	4706	4706	4706	4706	4643	4643	4643	4706	4706	4706	4706	4706	4706	4643	4643	4643	4643	4643	4643	4706	4706	4706	4706	4706	4706	4706	4643	4643	4706	4706	4643	4706	4706	4706	4706	4706	4643	4643	4706	4706	4643	4643	4706	4838	4906	4977	4977	5050	5050	5050	5050	5050	6592	6468	6468	6468	6349	6349	6349	6349	6349	6235	6235	6235	6235	6235	6235	6235	6349	6235	6235	6235	6235	6235	6235	6349	6124	6124	6235	6235	6235	6235	6235	6349	6349	0	7137	7287	7444	7444	7444	7444	7444	7444	7444	7444	7444	0	0	0	0	0	0	0	0	0	0	0	0	0	0	0	0	0	7444	7608	7608	7608	7608	7779	7779	7959	7959	7779	7779	7779	7779	7779	7779	7779	7779	7608	7608	7608	7608	7959	7608	7959	7779	7959	8146	8146	3952	3952	3864	3864	3864	3864	3864	3864	3864	3864	3864	3864	3864	3864	3864	3864	3907	3907	3907	3907	3907	3907	3907	3907	3907	3907	3907	3907	3907	3907	3907	3907	3907	3907	3907	3907	3907	3907	3907	3952	3952	3952	3952	3952	3952	4521	4521	4521	4521	4581	4581	4581	4581	4581	4581	4581	4581	4581	4581	4581	4581	4581	4581	4643	4581	4581	4581	4581	4581	4581	4581	4581	4643	4581	4643	4706	4643	4706	4706	4706	4706	4706	4706	4706	4706	4706	4706	4706	4706	4706	4706	4706	4706	4706	4706	4706	4706	4706	4706	4706	4643	4581	4581	4521	4521	4581	4643	4581	4643	4643	4643	4643	4643	4643	4643	4643	4643	4706	4706	4706	4706	4706	4706	4706	4706	4706	4643	4643	4643	4706	4706	4706	4706	4706	4706	4706	4706	4706	4706	4706	4706	4706	4706	4706	4643	4643	4643	4643	4643	4643	4643	4643	4706	4706	4706	4706	4706	4706	4706	4706	4643	4643	4643	4643	4643	4643	4643	4643	4643	4581	4581	4521	4521	4463	4463	4463	4406	4406	4406	4406	4406	4406	4406	4406	4406	4406	4350	4350	4350	4406	4350	4406	4350	4406	4350	4350	4350	4350	4350	4350	4406	4406	4406	4406	4406	4406	4463	4463	4521	4521	4521	4521	4463	4463	4406	4406	4350	4350	4296	4296	4296	4296	4296	4296	4350	4350	4350	4350	4350	4350	4350	4350	4350	4350	4406	4406	4406	4406	4406	4406	4463	4463	4463	4463	4463	4521	4463	4521	4521	4463	4521	4521	4463	4463	4463	4463	4406	4406	4406	4406	4406	4406	4406	4406	4406	4463	4406	4406	4406	4463	4463	4463	4350	4350	0	0	0	0	0	2496	2478	2478	2460	2460	2443	2443	2443	2426	2426	2426	2426	2426	2426	2409	2409	2409	2409	2409	2392	2392	2392	2392	2392	2392	2392	2392	2392	2392	2392	2376	2376	2376	2376	2376	2376	2359	2359	2359	2359	2359	2376	2359	2376	2359	2376	2376	2359	2376	2359	2359	2376	2376	2392	2392	2392	2392	2392	2392	2392	2392	2392	2392	2392	2409	2409	2551	2551	2551	2551	2551	2551	2551	2532	2514	2496	2478	2460	2460	2460	2443	2443	0	0	0	0	0	0	0	0	0	0	0	0	0	0	0	0	0	0	0	0	0	0	0	0	0	0	0	0	0	0	0	0	0	0	0
0	0	0	0	0	0	0	0	898	908	905	905	913	913	917	917	917	920	920	922	932	937	942	945	945	945	945	950	950	955	958	966	966	969	972	977	980	980	983	994	1000	1003	1006	1006	1008	1014	1014	1017	1020	1026	1036	1039	1045	1045	1048	1052	1052	1061	1064	1064	1068	1068	1071	1074	1078	1085	1088	1068	1068	0	0	0	0	0	0	0	0	0	4296	4296	4296	4243	4192	4243	4243	4192	4243	4243	4296	4463	4406	4463	4463	4350	4350	4350	4350	4350	4350	4463	4581	4643	4706	4706	4706	4706	4643	4643	4643	4706	4706	4706	4706	4706	4706	4643	4643	4643	4643	4706	4706	4706	4706	4706	4706	4706	4706	4706	4643	4643	4706	4706	4706	4706	4706	4706	4706	4706	4643	4643	4643	4706	4706	4643	4771	4838	4906	4977	5050	5050	5050	5050	5050	5050	5050	6468	6468	6468	6349	6349	6349	6349	6349	6349	6349	6349	6349	6235	6235	6235	6235	6235	6235	6235	6235	6235	6349	6349	6124	6124	6235	6235	6235	6235	6235	6349	6349	7287	7287	7287	7444	7444	7444	7444	7444	7444	7444	7444	7444	0	0	0	0	0	0	0	0	0	0	0	0	0	0	0	0	0	7444	7608	7608	7608	7608	7779	7779	7779	7779	7779	7779	7779	7779	7779	7779	7779	7608	7608	7608	7608	7444	7608	7608	7608	7779	7779	7959	7959	3907	3907	3864	3864	3864	3864	3864	3864	3864	3821	3821	3821	3821	3821	3864	3864	3907	3907	3907	3907	3907	3907	3907	3907	3907	3907	3907	3907	3907	3907	3907	3907	3907	3907	3907	3907	3952	3907	3907	3952	3952	3952	3952	3952	3907	4521	4521	4521	4521	4581	4581	4581	4581	4581	4581	4581	4581	4581	4581	4581	4581	4581	4581	4581	4581	4581	4581	4581	4521	4521	4581	4581	4643	4643	4643	4706	4643	4706	4706	4706	4706	4706	4706	4706	4706	4706	4706	4706	4706	4706	4706	4706	4706	4706	4706	4706	4706	4706	4706	4706	4706	4643	4581	4521	4521	4521	4581	4581	4643	4706	4706	4706	4643	4643	4706	4643	4706	4706	4706	4706	4706	4706	4706	4706	4706	4706	4643	4643	4643	4706	4643	4706	4706	4706	4706	4706	4706	4706	4706	4706	4706	4706	4706	4706	4643	4643	4643	4643	4643	4643	4643	4643	4706	4706	4706	4706	4706	4706	4706	4643	4643	4643	4643	4643	4643	4643	4643	4643	4643	4643	4581	4521	4521	4463	4463	4406	4406	4406	4406	4406	4406	4406	4406	4406	4406	4406	4350	4350	4350	4406	4350	4350	4350	4350	4350	4350	4350	4350	4350	4350	4406	4406	4406	4406	4406	4406	4463	4463	4521	4521	4463	4463	4463	4463	4406	4350	4350	4296	4296	4296	4296	4296	4296	4296	4296	4350	4296	4350	4350	4350	4350	4350	4350	4350	4350	4406	4406	4406	4350	4406	4463	4463	4463	4463	4463	4463	4463	4463	4463	4463	4463	4463	4463	4463	4521	4463	4463	4463	4406	4463	4406	4406	4406	4406	4406	4406	4406	4406	4406	4463	4463	4463	4406	4350	4350	0	0	0	0	0	2478	2478	2460	2460	2443	2443	2443	2426	2426	2426	2409	2409	2409	2409	2409	2409	2409	2409	2392	2392	2392	2392	2392	2392	2392	2376	2376	2392	2376	2376	2376	2376	2376	2376	2359	2359	2359	2343	2359	2359	2359	2359	2376	2359	2376	2376	2376	2376	2376	2376	2376	2392	2392	2392	2392	2392	2392	2392	2392	2392	2392	2409	2392	2409	2409	2551	2551	2551	2551	2551	2551	2532	2532	2514	2496	2478	2460	2460	2443	2443	2443	0	0	0	0	0	0	0	0	0	0	0	0	0	0	0	0	0	0	0	0	0	0	0	0	0	0	0	0	0	0	0	0	0	0	0
0	0	0	0	0	0	0	896	898	901	903	903	908	913	917	917	917	917	920	920	925	932	942	945	945	945	945	950	953	955	958	963	969	969	974	977	980	983	983	991	1000	1003	1006	1006	1008	1014	1017	1020	1023	1030	1033	1033	1045	1048	1052	1055	1055	1058	1064	1064	1068	1068	1071	1074	1078	1081	1074	1074	1068	0	0	0	0	0	0	0	0	4142	4142	4192	4243	4192	4142	4192	4192	4192	4192	4243	4296	4350	4350	4350	4350	4350	4350	4350	4350	4350	4350	4463	4581	4643	4706	4706	4706	4706	4643	4643	4643	4706	4706	4706	4706	4706	4706	4706	4643	4643	4706	4706	4706	4706	4706	4706	4706	4706	4706	4706	4643	4643	4706	4706	4706	4706	4706	4706	4706	4706	4643	4643	4643	4643	4706	4643	4706	4706	4906	4977	4977	5050	5050	4977	4977	4977	6468	6468	6468	6468	6349	6349	6349	6349	6349	6349	6349	6349	6349	6235	6235	6349	6235	6235	6235	6235	6235	6349	6349	6349	6124	6124	6235	6235	6235	6235	6235	6235	6235	7287	7287	7287	7444	7444	7608	7444	7444	7608	7444	7444	7444	0	0	0	0	0	0	0	0	0	0	0	0	0	0	0	0	7608	7444	7608	7608	7608	7779	7779	7779	7779	7779	7779	7779	7779	7779	7779	7779	7779	7608	7608	7608	7608	7608	7608	7608	7608	7779	7779	7779	7779	3907	3907	3907	3864	3907	3907	3907	3907	3864	3821	3821	3864	3821	3821	3864	3864	3907	3907	3907	3907	3907	3952	3952	3952	3907	3907	3907	3907	3907	3907	3907	3907	3907	3907	3952	3907	3952	3907	3907	3952	3907	3952	3952	3952	3907	4521	4521	4521	4521	4521	4581	4581	4581	4581	4581	4581	4581	4581	4581	4581	4581	4581	4581	4581	4581	4581	4521	4581	4521	4521	4521	4643	4643	4643	4643	4643	4643	4643	4643	4706	4706	4706	4706	4706	4706	4706	4706	4706	4706	4706	4706	4706	4706	4706	4706	4706	4706	4706	4706	4643	4643	4581	4521	4463	4463	4521	4643	4581	4643	4643	4643	4643	4643	4643	4706	4643	4706	4706	4706	4706	4706	4706	4706	4706	4706	4706	4643	4643	4643	4706	4643	4706	4706	4706	4706	4706	4706	4706	4706	4706	4706	4706	4706	4706	4643	4643	4643	4643	4643	4643	4643	4643	4706	4706	4706	4706	4706	4706	4706	4643	4643	4643	4643	4643	4643	4643	4643	4643	4643	4643	4581	4521	4521	4463	4463	4406	4406	4406	4406	4406	4406	4406	4406	4406	4406	4406	4350	4350	4350	4350	4350	4350	4296	4296	4296	4350	4296	4350	4350	4350	4350	4406	4406	4406	4406	4406	4406	4463	4521	4521	4463	4463	4463	4463	4406	4406	4350	4350	4350	4350	4296	4296	4350	4350	4350	4350	4350	4350	4350	4350	4350	4350	4350	4350	4350	4350	4350	4350	4350	4350	4406	4521	4463	4463	4463	4463	4463	4463	4463	4521	4521	4581	4521	4581	4581	4521	4521	4463	4463	4463	4463	4406	4406	4406	4406	4463	4406	4406	4406	4463	4463	4521	4406	4406	4406	0	0	0	0	0	0	2478	2460	2460	2443	2443	2443	2426	2426	2426	2426	2426	2426	2409	2409	2409	2409	2409	2392	2392	2376	2392	2392	2392	2376	2376	2376	2392	2376	2376	2376	2376	2376	2376	2359	2359	2359	2359	2359	2359	2359	2359	2376	2359	2376	2376	2359	2376	2376	2376	2376	2376	2392	2376	2376	2376	2392	2392	2392	2392	2392	2392	2392	2409	2409	2551	2551	2551	2551	2551	2551	2532	2532	2514	2496	2478	2460	2443	2443	2443	2443	0	0	0	0	0	0	0	0	0	0	0	0	0	0	0	0	0	0	0	0	0	0	0	0	0	0	0	0	0	0	0	0	0	0	0
0	0	0	0	0	0	0	898	898	901	903	903	908	913	917	917	917	920	920	920	927	935	942	942	945	945	945	948	950	955	961	963	969	969	974	977	980	983	983	988	997	1003	1006	1008	1014	1017	1020	1020	1026	1030	1036	1039	1045	1048	1052	1055	1055	1058	1061	1064	1064	1068	1071	1074	1078	1078	1085	1085	0	0	0	0	0	0	0	0	0	4142	4142	4192	4192	4192	4142	4192	4192	4192	4192	4192	4243	4296	4296	4296	4350	4296	4296	4296	4350	4350	4350	4463	4521	4581	4643	4706	4706	4706	4643	4643	4643	4643	4706	4706	4706	4706	4706	4706	4706	4706	4706	4706	4706	4706	4706	4706	4706	4706	4706	4706	4643	4643	4706	4706	4706	4706	4706	4706	4706	4706	4643	4643	4643	4643	4643	4643	4706	4838	4906	4977	5050	5050	5050	4977	5050	5050	5050	6349	6349	6349	6349	6349	6349	6349	6349	6349	6349	6349	6349	6235	6235	6349	6235	6235	6235	6235	6235	6235	6349	6349	6124	6235	6235	6235	6235	6235	6235	6235	6235	7287	7287	7444	7444	7444	7608	7608	7608	7608	7444	7444	7444	0	0	0	0	0	0	0	0	0	0	0	0	0	0	0	0	7608	7608	7779	7959	7959	7779	7779	7608	7779	7779	7608	7608	7779	7779	7959	7959	7959	7779	7779	7608	7608	7608	7608	7608	7608	7608	7779	7779	7779	3952	3952	3907	3864	3864	3907	3907	3864	3864	3821	3821	3821	3821	3821	3864	3864	3907	3907	3952	3952	3952	3952	3952	3952	3952	3907	3907	3907	3907	3907	3907	3907	3907	3907	3952	3907	3952	3907	3907	3952	3907	3907	3952	3952	3907	4581	4521	4521	4521	4521	4581	4581	4581	4581	4581	4581	4581	4581	4581	4581	4581	4581	4581	4581	4581	4581	4581	4581	4581	4581	4581	4706	4706	4643	4643	4643	4643	4706	4706	4706	4706	4706	4706	4706	4706	4706	4706	4706	4706	4706	4643	4706	4643	4643	4706	4643	4706	4706	4706	4643	4643	4581	4521	4463	4463	4521	4581	4581	4581	4643	4643	4643	4643	4643	4643	4643	4706	4706	4706	4706	4706	4706	4706	4706	4706	4706	4643	4643	4643	4643	4643	4643	4706	4706	4706	4706	4706	4706	4706	4706	4706	4706	4706	4706	4643	4643	4643	4643	4643	4643	4643	4643	4643	4706	4643	4706	4643	4706	4706	4643	4643	4643	4643	4643	4643	4643	4643	4643	4643	4643	4581	4521	4521	4463	4463	4406	4406	4406	4406	4406	4406	4406	4406	4406	4406	4406	4350	4350	4350	4350	4350	4350	4350	4350	4350	4350	4296	4350	4350	4296	4350	4350	4350	4406	4406	4406	4406	4463	4463	4463	4463	4463	4463	4463	4350	4406	4350	4350	4350	4350	4350	4350	4350	4350	4350	4350	4350	4350	4350	4350	4350	4350	4350	4350	4350	4350	4296	4296	4350	4296	4350	4350	4406	4406	4521	4521	4521	4521	4581	4581	4581	4581	4581	4581	4581	4521	4521	4463	4463	4521	4463	4463	4463	4406	4406	4463	4463	4406	4406	4463	4463	4521	4406	4406	4406	0	0	0	0	0	0	0	2460	2443	2460	2460	2460	2443	2426	2426	2426	2426	2426	2409	2409	2409	2409	2409	2392	2392	2392	2392	2392	2392	2376	2376	2376	2376	2376	2376	2376	2376	2376	2376	2376	2359	2359	2359	2359	2343	2359	2359	2359	2359	2359	2359	2359	2359	2359	2359	2376	2376	2376	2376	2376	2376	2392	2392	2392	2392	2392	2392	2392	2392	2392	2551	2551	2551	2551	2551	2532	2532	2514	2514	2478	2478	2460	2460	2443	2443	2443	0	0	0	0	0	0	0	0	0	0	0	0	0	0	0	0	0	0	0	0	0	0	0	0	0	0	0	0	0	0	0	0	0	0	0
0	0	0	0	0	0	0	894	896	901	903	903	910	915	917	917	920	920	920	922	927	935	937	942	942	942	945	948	953	955	961	963	966	969	974	977	980	980	983	988	994	1003	1006	1008	1014	1020	1020	1026	1026	1033	1036	1039	1045	1048	1052	1055	1055	1058	1061	1064	1064	1068	1074	1074	1078	1078	1078	1085	0	0	0	0	0	0	0	0	4142	4142	4142	4192	4192	4192	4142	4192	4192	4192	4192	4192	4243	4243	4296	4243	4296	4296	4296	4296	4296	4296	4350	4463	4521	4581	4643	4643	4706	4706	4643	4643	4643	4706	4706	4643	4643	4706	4706	4706	4706	4706	4706	4706	4706	4706	4706	4706	4706	4706	4706	4643	4643	4643	4706	4706	4706	4706	4706	4706	4706	4706	4643	4643	4643	4643	4643	4643	4706	4706	4906	4977	5050	5050	5050	5050	5050	5050	5050	6349	6349	6349	6349	6349	6349	6349	6349	6349	6349	6349	6349	6235	6235	6235	6349	6235	6235	6235	6235	6235	6349	6349	6235	6235	6235	6235	6235	6235	6235	6235	6235	0	0	7444	7444	7608	7608	7608	7608	7608	7444	7444	7444	0	0	0	0	0	0	0	0	0	0	0	0	0	0	0	7608	7608	7608	7779	7959	7959	7779	7779	7608	7779	7608	7444	7444	7608	7608	7779	7959	7959	7959	7959	7779	7779	7779	7608	7608	7608	7608	7779	7779	7608	3907	3907	3907	3864	3864	3864	3864	3864	3864	3821	3821	3821	3821	3821	3821	3864	3907	3907	3952	3952	3907	3952	3952	3952	3952	3907	3907	3907	3907	3907	3907	3907	3907	3907	3907	3907	3952	3907	3907	3952	3952	3952	3952	3952	3907	4581	4521	4521	4521	4521	4521	4581	4581	4581	4581	4581	4581	4643	4643	4581	4581	4581	4581	4581	4581	4581	4581	4643	4643	4643	4643	4771	4771	4706	4706	4706	4706	4706	4706	4706	4706	4706	4706	4706	4706	4706	4706	4706	4706	4643	4643	4706	4706	4643	4706	4706	4706	4706	4706	4706	4706	4581	4581	4463	4463	4521	4581	4581	4581	4643	4643	4643	4643	4643	4706	4706	4706	4706	4706	4706	4706	4706	4706	4706	4706	4706	4706	4643	4643	4706	4706	4643	4706	4706	4706	4706	4706	4706	4643	4706	4706	4706	4706	4706	4643	4643	4643	4643	4643	4643	4643	4643	4643	4643	4643	4643	4643	4706	4706	4643	4643	4643	4643	4643	4643	4643	4643	4643	4643	4643	4643	4581	4521	4463	4463	4406	4406	4406	4406	4406	4406	4406	4406	4406	4406	4406	4406	4406	4406	4406	4350	4350	4350	4350	4350	4296	4296	4350	4350	4296	4350	4350	4350	4350	4406	4406	4406	4463	4463	4463	4463	4463	4463	4463	4350	4406	4350	4350	4350	4350	4350	4350	4350	4350	4350	4350	4350	4350	4350	4350	4350	4350	4350	4350	4350	4296	4296	4296	4296	4296	4350	4406	4406	4463	4463	4463	4463	4521	4521	4521	4581	4581	4581	4643	4581	4581	4521	4521	4463	4463	4463	4406	4463	4406	4406	4463	4463	4463	4463	4463	4463	4463	4463	4406	4406	4406	0	0	0	0	0	0	2460	2460	2460	2460	2460	2443	2443	2426	2409	2409	2409	2409	2409	2409	2409	2392	2392	2392	2392	2409	2392	2392	2392	2392	2376	2376	2376	2376	2376	2376	2392	2392	2376	2376	2376	2359	2359	2376	2359	2359	2376	2359	2359	2359	2359	2376	2359	2376	2376	2376	2376	2376	2376	2376	2392	2392	2392	2392	2392	2392	2392	2392	2392	2551	2551	2551	2532	2532	2532	2532	2514	2514	2478	2478	2460	2460	2443	2443	2443	0	0	0	0	0	0	0	0	0	0	0	0	0	0	0	0	0	0	0	0	0	0	0	0	0	0	0	0	0	0	0	0	0	0	0
0	0	0	0	0	0	0	891	891	896	905	908	913	915	917	917	917	920	920	922	930	937	937	940	942	945	945	948	953	955	961	963	966	969	974	977	980	983	983	991	997	1000	1003	1008	1014	1020	1023	1026	1026	1033	1036	1039	1045	1048	1052	1055	1055	1055	1061	1064	1064	1068	1074	1074	1078	1078	1078	0	0	0	0	0	0	0	0	0	4093	4093	4142	4142	4192	4192	4142	4142	4192	4192	4192	4192	4243	4243	4243	4243	4296	4296	4296	4296	4296	4296	4350	4406	4521	4521	4643	4706	4706	4706	4643	4643	4643	4706	4643	4643	4643	4643	4706	4706	4706	4706	4706	4706	4706	4706	4706	4706	4706	4706	4706	4643	4643	4643	4706	4706	4706	4706	4706	4706	4706	4706	4643	4643	4643	4643	4643	4643	4706	4838	4906	4977	5050	5050	5050	4977	4977	4977	4977	6349	6349	6349	6349	6349	6349	6349	6349	6235	6349	6349	6235	6235	6235	6235	6235	6235	6235	6235	6349	6349	6349	6349	6235	6235	6235	6235	6235	6235	6235	6235	6235	0	0	7444	7444	7608	7608	7608	7608	7608	7444	7287	7287	0	0	0	0	0	0	0	0	0	0	0	0	0	0	0	7608	7608	7608	7779	7779	7779	7779	7779	7608	7959	7959	7444	7444	7608	7608	7779	7959	7959	7779	7779	7608	7608	7608	7608	7608	7608	7608	7608	7608	7608	3907	3907	3907	3864	3864	3864	3864	3864	3864	3821	3821	3821	3821	3864	3864	3864	3907	3907	3907	3907	3907	3952	3952	3952	3952	3907	3907	3907	3907	3907	3907	3907	3907	3907	3907	3907	3952	3907	3907	3952	3952	3952	3952	3952	3907	4581	4521	4581	4521	4521	4581	4581	4581	4581	4581	4581	4643	4643	4643	4643	4581	4581	4643	4581	4581	4581	4521	4581	4643	4643	4643	4771	4771	4706	4706	4706	4706	4706	4706	4706	4706	4706	4706	4706	4706	4706	4643	4643	4643	4643	4643	4643	4643	4643	4706	4706	4706	4706	4706	4706	4706	4643	4581	4463	4463	4521	4581	4581	4581	4581	4643	4643	4643	4643	4643	4643	4643	4643	4706	4706	4706	4706	4706	4706	4706	4706	4643	4643	4643	4706	4706	4643	4643	4706	4706	4706	4706	4706	4706	4706	4706	4706	4706	4706	4643	4643	4643	4643	4643	4643	4643	4643	4643	4643	4643	4643	4643	4706	4643	4643	4643	4643	4643	4643	4643	4643	4643	4643	4643	4643	4643	4581	4521	4463	4463	4406	4406	4406	4406	4406	4406	4406	4406	4406	4406	4406	4406	4406	4406	4350	4350	4350	4350	4350	4350	4350	4350	4350	4350	4350	4350	4350	4350	4350	4350	4406	4406	4406	4463	4463	4463	4463	4463	4463	4406	4406	4350	4350	4350	4350	4350	4350	4350	4350	4350	4350	4350	4350	4350	4350	4350	4350	4350	4350	4296	4296	4296	4296	4296	4296	4350	4406	4463	4463	4406	4406	4406	4463	4463	4463	4581	4643	4581	4643	4581	4581	4581	4521	4463	4406	4406	4406	4406	4406	4406	4463	4463	4406	4463	4406	4406	4406	4406	4406	4350	4350	4350	0	0	0	0	0	2478	2478	2478	2478	2460	2443	2443	2426	2426	2409	2409	2409	2392	2409	2409	2392	2392	2392	2392	2409	2392	2392	2409	2392	2392	2392	2392	2376	2376	2376	2392	2392	2376	2376	2376	2376	2376	2376	2359	2359	2376	2359	2359	2376	2359	2376	2359	2376	2376	2376	2376	2376	2376	2376	2392	2392	2392	2392	2392	2392	2392	2392	2392	2570	2551	2551	2551	2551	2532	2532	2514	2514	2478	2478	2460	2460	2460	2443	2443	0	0	0	0	0	0	0	0	0	0	0	0	0	0	0	0	0	0	0	0	0	0	0	0	0	0	0	0	0	0	0	0	0	0	0
0	0	0	0	0	0	0	891	891	898	908	908	913	915	917	917	917	920	922	922	932	937	937	940	942	945	948	953	955	955	958	961	963	969	969	977	980	985	988	991	994	1000	1003	1006	1014	1020	1023	1026	1026	1030	1033	1039	1045	1048	1055	1055	1055	1055	1061	1064	1064	1068	1071	1074	1078	1078	1078	1078	0	0	0	0	0	0	0	0	4093	4093	4142	4142	4142	4142	4142	4142	4192	4192	4192	4192	4243	4243	4243	4243	4296	4296	4296	4296	4296	4350	4350	4463	4643	4643	4643	4706	4706	4706	4643	4643	4643	4706	4643	4643	4643	4643	4643	4706	4706	4706	4706	4706	4706	4706	4706	4706	4706	4706	4706	4706	4706	4706	4706	4706	4706	4706	4706	4706	4706	4706	4706	4706	4706	4706	4706	4706	4706	4771	4906	4906	5050	5050	5050	4977	5050	5050	5050	6235	6235	6235	6235	6349	6349	6349	6349	6235	6235	6349	6235	6235	6235	6235	6235	6235	6235	6235	6235	6235	6349	6349	6235	6235	6235	6235	6235	6124	6124	6124	6124	0	0	7444	7444	7608	7608	7608	7608	7608	7444	7444	7444	7444	0	0	0	0	0	0	0	0	0	0	0	0	0	7444	7444	7608	7444	7444	7779	7779	7608	7608	7608	7608	7608	7444	7444	7608	7608	7608	7779	7779	7779	7779	7608	7608	7608	7608	7608	7608	7608	7608	7608	7608	3907	3907	3907	3864	3864	3864	3907	3864	3907	3864	3864	3864	3864	3864	3864	3907	3907	3907	3907	3907	3907	3952	3952	3952	3952	3952	3907	3907	3907	3907	3907	3907	3907	3907	3907	3952	3952	3907	3907	3952	3907	3907	3907	3907	3864	4581	4521	4521	4521	4521	4521	4581	4521	4581	4581	4581	4643	4581	4581	4581	4643	4581	4581	4581	4581	4581	4521	4581	4581	4706	4706	4706	4706	4706	4706	4706	4706	4706	4706	4706	4706	4706	4706	4643	4643	4706	4706	4706	4643	4643	4643	4706	4706	4643	4706	4706	4706	4706	4706	4706	4706	4706	4581	4463	4463	4521	4581	4581	4521	4581	4643	4643	4643	4643	4643	4643	4643	4643	4706	4706	4706	4706	4706	4706	4706	4706	4706	4706	4706	4706	4706	4706	4706	4706	4706	4706	4643	4643	4643	4706	4706	4706	4706	4706	4643	4643	4706	4643	4643	4643	4643	4643	4643	4643	4643	4643	4643	4643	4643	4643	4643	4706	4643	4643	4643	4643	4643	4643	4643	4643	4643	4643	4581	4521	4463	4406	4406	4406	4406	4406	4406	4406	4406	4406	4406	4406	4406	4406	4406	4406	4350	4350	4406	4350	4350	4350	4350	4350	4350	4296	4350	4350	4350	4350	4350	4350	4406	4406	4406	4406	4406	4463	4463	4463	4350	4406	4350	4350	4350	4350	4350	4350	4350	4350	4350	4350	4350	4350	4350	4350	4350	4350	4350	4350	4350	4350	4296	4296	4350	4296	4350	4350	4406	4406	4406	4406	4406	4406	4406	4463	4463	4581	4581	4643	4581	4581	4521	4463	4463	4406	4406	4406	4406	4406	4406	4406	4406	4406	4406	4406	4406	4406	4406	4406	4350	4350	4350	4350	0	0	0	0	2478	2478	2478	2478	2460	2460	2443	2426	2426	2409	2409	2409	2392	2392	2392	2409	2409	2409	2409	2409	2409	2392	2409	2392	2392	2392	2392	2376	2376	2376	2376	2376	2376	2376	2376	2376	2376	2376	2359	2376	2376	2376	2376	2376	2359	2376	2376	2376	2376	2376	2376	2376	2376	2392	2392	2392	2392	2392	2392	2392	2392	2392	2392	2392	2551	2551	2551	2551	2532	2532	2532	2514	2478	2478	2460	2460	2443	2443	2443	2443	0	0	0	0	0	0	0	0	0	0	0	0	0	0	0	0	0	0	0	0	0	0	0	0	0	0	0	0	0	0	0	0	0	0
0	0	0	0	0	0	0	891	891	896	905	905	913	915	917	917	920	920	922	925	930	932	932	937	942	945	948	953	955	955	958	961	963	969	974	977	980	985	988	991	994	1000	1000	1003	1011	1020	1023	1026	1030	1033	1033	1039	1042	1048	1055	1058	1058	1058	1061	1068	1068	1071	1074	1078	1078	1078	1078	1078	0	0	0	0	0	0	0	0	4093	4093	4093	4142	4142	4142	4142	4142	4142	4142	4192	4192	4192	4192	4192	4243	4243	4296	4296	4296	4296	4350	4350	4521	4643	4643	4706	4706	4706	4706	4643	4643	4643	4706	4643	4643	4643	4643	4643	4706	4706	4706	4706	4706	4706	4706	4706	4706	4706	4706	4706	4706	4706	4706	4706	4706	4706	4706	4706	4706	4706	4706	4706	4706	4706	4706	4706	4643	4706	4771	4771	4977	5050	5050	5050	5050	5050	5050	5050	6235	6235	6235	6235	6235	6235	6349	6235	6235	6349	6349	6235	6235	6235	6235	6235	6235	6235	6235	6235	6235	6349	6349	6235	6235	6235	6235	6235	6235	6235	6124	6124	0	0	7608	7608	7608	7608	7608	7608	7608	7444	7444	7444	7444	0	0	0	0	0	0	0	0	0	0	0	0	0	7444	7444	7444	7444	7608	7779	7608	7608	7444	7444	7608	7608	7608	7444	7608	7608	7608	7779	7779	7779	7779	7779	7779	7779	7608	7608	7608	7608	7608	7608	7608	7444	3907	3907	3864	3907	3907	3907	3864	3864	3864	3864	3864	3864	3864	3864	3864	3907	3907	3907	3907	3907	3952	3907	3952	3952	3952	3952	3907	3907	3907	3907	3907	3907	3907	3907	3907	3907	3907	3907	3907	3907	3907	3907	3907	3907	3907	4521	4521	4521	4521	4521	4521	4521	4581	4581	4521	4521	4581	4581	4581	4581	4581	4581	4581	4581	4581	4581	4581	4643	4706	4706	4771	4706	4706	4706	4706	4706	4706	4706	4706	4706	4706	4706	4643	4643	4643	4643	4643	4643	4643	4643	4706	4706	4706	4706	4706	4706	4706	4706	4706	4706	4706	4643	4521	4521	4521	4581	4581	4581	4581	4643	4643	4643	4643	4643	4706	4643	4643	4643	4706	4706	4706	4643	4706	4706	4706	4706	4706	4706	4706	4706	4706	4706	4706	4706	4706	4706	4706	4706	4706	4706	4706	4706	4706	4643	4706	4706	4643	4643	4643	4643	4643	4643	4643	4643	4643	4643	4643	4643	4643	4643	4706	4643	4643	4643	4643	4643	4706	4706	4643	4643	4706	4581	4521	4463	4463	4406	4406	4406	4406	4406	4406	4406	4406	4406	4406	4406	4406	4406	4350	4406	4350	4406	4350	4350	4350	4350	4350	4350	4296	4350	4350	4350	4350	4350	4350	4350	4406	4406	4406	4406	4463	4463	4406	4350	4406	4350	4350	4350	4350	4350	4350	4350	4350	4350	4350	4350	4350	4350	4350	4350	4350	4350	4350	4350	4350	4296	4350	4350	4296	4350	4350	4406	4406	4406	4350	4406	4406	4406	4463	4463	4581	4581	4581	4581	4581	4521	4463	4406	4406	4406	4406	4406	4406	4406	4406	4406	4406	4406	4406	4350	4406	4406	4406	4350	4350	4350	4350	0	0	0	0	0	0	2478	2478	2460	2443	2443	2443	2426	2409	2409	2409	2392	2392	2392	2409	2409	2409	2409	2409	2409	2409	2409	2409	2392	2392	2392	2392	2392	2392	2392	2376	2376	2376	2376	2376	2376	2376	2376	2376	2376	2376	2376	2376	2376	2376	2376	2376	2376	2376	2376	2359	2376	2376	2376	2376	2392	2392	2392	2392	2392	2392	2392	2392	2551	2551	2551	2551	2551	2532	2532	2514	2478	2478	2478	2460	2443	2443	2443	2443	0	0	0	0	0	0	0	0	0	0	0	0	0	0	0	0	0	0	0	0	0	0	0	0	0	0	0	0	0	0	0	0	0	0
0	0	0	0	0	0	0	891	891	891	903	901	913	917	917	920	920	922	925	927	932	932	930	935	935	942	948	950	955	958	958	961	963	974	977	980	983	985	991	991	997	1000	1000	1003	1008	1017	1023	1026	1030	1033	1036	1039	1042	1048	1055	1058	1058	1058	1061	1068	1071	1071	1074	1078	1078	1078	1078	1078	0	0	0	0	0	0	0	0	4093	4142	4093	4142	4142	4142	4142	4142	4142	4142	4192	4192	4192	4192	4192	4192	4243	4243	4296	4296	4350	4350	4463	4581	4643	4643	4706	4706	4706	4706	4643	4643	4706	4706	4643	4643	4643	4643	4643	4706	4706	4706	4706	4706	4706	4706	4706	4706	4706	4706	4706	4706	4706	4706	4706	4706	4706	4706	4706	4706	4706	4706	4706	4706	4706	4706	4706	4706	4706	4771	4906	4977	5050	5125	5050	5050	5050	5050	5050	6235	6235	6235	6235	6235	6235	6235	6235	6235	6235	6235	6235	6235	6235	6235	6235	6235	6235	6235	6235	6235	6349	6235	6235	6235	6235	6235	6235	6235	6235	0	7287	7287	7444	7444	7444	7444	7608	7608	7608	7608	7444	7444	7444	0	0	0	0	0	0	0	0	0	0	0	0	0	0	7444	7444	7444	7444	7444	7444	7608	7444	7444	7444	7779	7779	7779	7779	7779	7779	7779	7779	7959	7779	7779	7779	7779	7779	7608	7608	7444	7444	7444	7444	7444	7444	7444	3907	3864	3864	3864	3864	3864	3864	3864	3864	3864	3864	3864	3864	3907	3907	3907	3907	3907	3907	3907	3907	3952	3952	3952	3952	3907	3907	3907	3907	3907	3907	3907	3907	3907	3907	3907	3907	3952	3952	3952	3952	3952	3952	3952	4521	4521	4521	4521	4521	4581	4521	4581	4581	4521	4581	4581	4581	4581	4581	4581	4581	4581	4581	4581	4581	4581	4643	4706	4706	4771	4771	4706	4706	4706	4706	4706	4706	4706	4706	4706	4643	4643	4643	4643	4643	4643	4643	4643	4706	4706	4706	4706	4706	4706	4706	4706	4706	4706	4706	4706	4643	4521	4521	4581	4581	4581	4581	4643	4643	4643	4643	4643	4643	4706	4643	4643	4643	4643	4706	4706	4706	4706	4706	4706	4706	4706	4706	4706	4706	4706	4706	4706	4706	4706	4706	4706	4706	4706	4706	4706	4706	4706	4643	4643	4643	4643	4643	4643	4643	4643	4643	4643	4643	4643	4643	4643	4643	4643	4643	4643	4643	4643	4643	4643	4643	4643	4643	4643	4643	4706	4581	4521	4463	4463	4463	4406	4406	4406	4406	4406	4406	4406	4406	4406	4406	4406	4406	4406	4406	4406	4406	4406	4406	4350	4350	4350	4350	4296	4296	4350	4350	4350	4296	4350	4350	4406	4406	4406	4406	4406	4463	4406	4350	4350	4406	4406	4350	4350	4350	4350	4296	4296	4296	4350	4350	4350	4350	4350	4350	4350	4350	4350	4350	4350	4350	4350	4350	4350	4350	4350	4406	4406	4406	4350	4406	4406	4406	4463	4463	4521	4581	4581	4581	4581	4521	4463	4406	4406	4406	4406	4406	4406	4406	4406	4406	4406	4406	4406	4350	4406	4406	4406	4406	4350	4406	4406	0	0	0	0	0	2496	2496	2478	2460	2460	2443	2443	2426	2409	2409	2409	2392	2392	2392	2409	2409	2409	2409	2409	2409	2409	2409	2409	2409	2392	2392	2392	2392	2392	2392	2392	2376	2376	2376	2376	2376	2376	2376	2376	2376	2376	2376	2376	2359	2376	2359	2376	2376	2359	2359	2359	2359	2376	2376	2376	2392	2392	2392	2392	2392	2392	2392	2570	2551	2551	2551	2551	2551	2532	2532	2514	2478	2478	2460	2460	2443	2460	2443	2443	0	0	0	0	0	0	0	0	0	0	0	0	0	0	0	0	0	0	0	0	0	0	0	0	0	0	0	0	0	0	0	0	0	0
0	0	0	0	0	0	0	891	891	891	903	903	915	917	917	920	920	922	925	925	930	932	930	935	942	945	948	950	955	955	958	958	961	969	977	980	983	985	991	994	997	1000	1003	1003	1006	1011	1020	1023	1030	1033	1036	1039	1042	1048	1055	1058	1058	1058	1061	1068	1068	1071	1074	1078	1078	1078	1078	1078	0	0	0	0	0	0	0	0	0	4093	4093	4142	4142	4142	4142	4142	4142	4192	4192	4192	4142	4192	4192	4192	4243	4243	4243	4296	4350	4406	4521	4581	4643	4643	4706	4706	4706	4771	4643	4706	4706	4706	4706	4643	4643	4643	4643	4643	4643	4706	4706	4706	4706	4706	4706	4706	4706	4706	4706	4706	4706	4643	4706	4643	4643	4706	4706	4706	4706	4706	4706	4706	4706	4706	4706	4706	4771	4838	4977	5050	5050	5125	5050	5125	5125	5125	0	6235	6235	6235	6235	6235	6235	6235	6235	6235	6235	6235	6235	6235	6235	6235	6235	6235	6235	6235	6235	6235	6235	6235	6124	6124	6235	6235	6349	6349	6349	7137	7137	7287	7444	7444	7444	7608	7779	7608	7608	7779	7608	7444	7444	0	0	0	0	0	0	0	0	0	0	0	7444	7444	7444	7444	7444	7444	7444	7444	7444	7444	7444	7444	7444	7779	7779	7779	7608	7779	7779	7779	7779	7779	7779	7779	7779	7779	7779	7608	7608	7444	7444	7608	7444	7444	7444	7444	3907	3864	3864	3864	3864	3864	3864	3864	3864	3864	3864	3864	3907	3907	3907	3907	3907	3907	3907	3907	3907	3907	3952	3952	3952	3907	3907	3907	3907	3907	3907	3907	3907	3907	3907	3907	3907	3952	3952	3952	3952	3952	3952	3952	3952	4521	4521	4521	4581	4581	4581	4581	4581	4521	4581	4581	4581	4581	4581	4581	4581	4581	4581	4581	4581	4581	4643	4643	4706	4706	4771	4706	4706	4706	4706	4706	4706	4706	4706	4643	4643	4643	4581	4643	4643	4643	4643	4643	4643	4706	4706	4706	4706	4706	4706	4706	4706	4706	4706	4706	4643	4581	4581	4581	4581	4581	4581	4643	4706	4706	4706	4706	4643	4706	4643	4643	4643	4643	4643	4643	4643	4643	4643	4643	4706	4706	4706	4706	4706	4706	4706	4706	4706	4706	4706	4706	4706	4706	4706	4706	4706	4706	4643	4643	4643	4643	4643	4643	4643	4643	4643	4643	4643	4643	4643	4643	4643	4643	4643	4706	4643	4643	4643	4643	4643	4643	4643	4643	4643	4521	4521	4463	4463	4406	4406	4406	4406	4406	4406	4406	4406	4406	4406	4406	4406	4406	4406	4406	4406	4406	4406	4406	4406	4406	4406	4350	4350	4296	4296	4296	4350	4350	4350	4350	4350	4406	4406	4406	4406	4406	4406	4406	4350	4350	4406	4350	4350	4350	4350	4296	4296	4296	4296	4350	4350	4350	4350	4350	4350	4350	4350	4350	4350	4350	4350	4350	4350	4350	4350	4350	4350	4406	4350	4350	4406	4406	4406	4463	4463	4521	4521	4581	4581	4581	4521	4463	4463	4406	4406	4406	4406	4406	4406	4406	4406	4406	4406	4406	4406	4406	4406	4406	4406	4406	4406	4406	0	0	0	0	0	2496	2478	2478	2460	2460	2443	2443	2443	2426	2409	2409	2409	2409	2392	2409	2409	2409	2409	2409	2409	2409	2426	2409	2409	2409	2409	2409	2392	2392	2392	2392	2392	2376	2376	2376	2376	2376	2376	2376	2376	2376	2376	2376	2376	2376	2359	2359	2359	2359	2359	2359	2376	2376	2376	2376	2392	2392	2392	2392	2392	2392	2392	2570	2570	2551	2551	2551	2551	2551	2532	2514	2478	2478	2460	2460	2443	2460	2443	2443	0	0	0	0	0	0	0	0	0	0	0	0	0	0	0	0	0	0	0	0	0	0	0	0	0	0	0	0	0	0	0	0	0	0
0	0	0	0	0	0	0	891	894	908	908	908	917	917	917	920	920	922	927	930	930	930	930	932	942	945	948	950	955	958	958	955	961	969	980	983	985	988	991	994	997	1000	1003	1003	1006	1008	1014	1023	1030	1033	1036	1039	1039	1045	1052	1055	1058	1058	1061	1064	1071	1071	1071	1074	1078	1078	1078	1078	0	0	0	0	0	0	0	0	0	4142	4142	4142	4192	4192	4142	4142	4142	4192	4192	4192	4192	4192	4192	4243	4243	4243	4296	4296	4350	4350	4643	4643	4706	4706	4706	4706	4771	4771	4706	4706	4706	4706	4706	4706	4643	4643	4643	4643	4643	4706	4706	4706	4706	4706	4706	4706	4706	4706	4706	4706	4706	4706	4706	4706	4706	4706	4706	4706	4706	4706	4706	4706	4706	4706	4706	4706	4771	4838	4977	5050	5050	5125	5125	5125	5125	5125	6124	6235	6235	6235	6235	6235	6235	6235	6235	6235	6235	6235	6235	6235	6235	6235	6235	6235	6235	6235	6235	6235	6349	6235	6124	6124	6235	6235	6349	6349	6349	7137	7287	7444	7444	7444	7444	7608	7779	7608	7779	7779	7608	7608	7608	7608	0	0	0	0	0	0	0	0	0	0	7608	7444	7444	7444	7444	7444	7444	7444	7444	7444	7444	7444	7608	7608	7779	7779	7608	7779	7779	7779	7779	7779	7779	7779	7779	7779	7779	7779	7608	7608	7608	7608	7608	7444	7444	7444	3907	3864	3864	3864	3864	3864	3864	3907	3907	3864	3907	3907	3907	3907	3907	3907	3907	3907	3907	3907	3907	3907	3952	3907	3907	3907	3907	3907	3907	3864	3907	3907	3907	3907	3907	3907	3907	3907	3952	3952	3952	3952	3998	3998	4521	4521	4521	4521	4521	4521	4581	4581	4581	4521	4581	4521	4521	4521	4521	4581	4581	4521	4521	4581	4581	4581	4581	4643	4706	4706	4771	4706	4706	4706	4706	4706	4706	4706	4643	4643	4643	4581	4581	4643	4643	4706	4706	4706	4706	4706	4706	4706	4706	4706	4706	4706	4706	4706	4706	4706	4581	4521	4521	4581	4581	4581	4581	4643	4706	4706	4706	4706	4706	4706	4643	4643	4643	4581	4581	4643	4643	4581	4643	4643	4643	4643	4643	4643	4706	4706	4706	4706	4706	4706	4706	4706	4706	4706	4706	4771	4771	4706	4643	4643	4643	4643	4643	4643	4643	4643	4643	4643	4643	4643	4643	4643	4643	4643	4643	4643	4643	4643	4643	4643	4581	4581	4643	4643	4643	4643	4463	4463	4463	4406	4406	4406	4406	4406	4406	4406	4406	4406	4406	4406	4406	4406	4406	4406	4406	4406	4406	4406	4406	4406	4350	4350	4350	4296	4296	4296	4350	4350	4350	4350	4350	4350	4406	4406	4406	4406	4406	4406	4350	4350	4406	4406	4350	4350	4350	4296	4296	4296	4296	4350	4350	4350	4350	4350	4350	4350	4350	4350	4350	4350	4350	4350	4350	4350	4350	4350	4350	4350	4350	4350	4350	4350	4406	4463	4463	4521	4521	4581	4581	4581	4521	4463	4463	4406	4406	4406	4406	4406	4406	4406	4406	4406	4406	4406	4350	4350	4406	4406	4406	4406	4406	4406	4406	0	0	0	0	2478	2478	2460	2460	2443	2443	2443	2426	2426	2409	2409	2409	2409	2392	2409	2409	2409	2409	2409	2409	2409	2426	2409	2409	2409	2392	2392	2392	2392	2392	2392	2392	2392	2392	2376	2392	2392	2392	2392	2392	2392	2376	2376	2392	2376	2376	2376	2376	2376	2376	2376	2376	2376	2376	2376	2376	2376	2392	2392	2392	2392	0	0	2589	2551	2551	2551	2551	2551	2532	2514	2478	2478	2460	2460	2460	2460	2443	2443	0	0	0	0	0	0	0	0	0	0	0	0	0	0	0	0	0	0	0	0	0	0	0	0	0	0	0	0	0	0	0	0	0	0
0	0	0	0	0	0	0	894	894	901	905	915	915	917	917	920	922	925	925	927	930	930	927	942	942	945	948	950	955	955	958	961	963	972	977	983	985	988	994	994	997	1000	1003	1003	1006	1008	1011	1017	1030	1033	1036	1039	1042	1048	1055	1058	1061	1061	1061	1064	1068	1068	1068	1068	1068	1078	1078	1078	0	0	0	0	0	0	4243	4243	4243	4192	4192	4192	4192	4192	4142	4142	4142	4142	4142	4142	4142	4142	4192	4243	4243	4243	4296	4296	4350	4350	4350	4643	4706	4706	4706	4771	4771	4771	4706	4706	4706	4706	4706	4643	4643	4643	4643	4643	4643	4706	4706	4706	4706	4706	4706	4706	4706	4706	4706	4706	4706	4706	4706	4706	4706	4706	4706	4706	4706	4706	4706	4706	4706	4706	4706	4706	4771	4906	4977	5050	5125	5125	5202	5202	5202	5125	6124	6124	6235	6235	6235	6235	6235	6235	6349	6235	6349	6235	6235	6235	6235	6235	6235	6349	6235	6235	6235	6235	6349	6235	6235	6235	6235	6235	6235	6235	6235	7287	7444	7444	7444	7444	7608	7608	7779	7608	7608	7779	7608	7608	7608	7608	0	0	0	0	0	0	0	0	0	0	7608	7444	7444	7444	7444	7287	7287	7444	7444	7444	7444	7444	7608	7779	7779	7779	7608	7779	7779	7779	7779	7779	7779	7779	7779	7779	7779	7779	7608	7608	7608	7779	7608	7608	7608	7608	0	3821	3864	3864	3864	3864	3864	3864	3864	3864	3907	3907	3907	3907	3907	3907	3907	3907	3907	3907	3907	3907	3907	3907	3907	3907	3907	3907	3907	3907	3907	3907	3907	3907	3907	3907	3907	3952	3952	3952	3952	3952	3998	3998	4521	4521	4521	4521	4521	4521	4521	4521	4521	4521	4521	4521	4521	4521	4581	4581	4581	4581	4521	4581	4581	4581	4581	4643	4706	4771	4771	4706	4706	4706	4706	4706	4706	4706	4643	4643	4643	4581	4581	4643	4643	4643	4643	4706	4706	4706	4706	4706	4706	4706	4706	4706	4706	4706	4706	4706	4581	4581	4581	4643	4581	4581	4581	4643	4706	4706	4706	4643	4706	4706	4643	4643	4643	4581	4581	4643	4643	4581	4643	4581	4643	4643	4643	4643	4643	4643	4643	4643	4643	4643	4706	4706	4706	4771	4706	4771	4771	4706	4643	4643	4581	4581	4581	4581	4581	4581	4581	4581	4581	4643	4643	4643	4643	4643	4643	4643	4581	4643	4581	4581	4581	4581	4643	4643	4581	4463	4463	4350	4350	4350	4350	4350	4406	4406	4406	4406	4406	4406	4406	4406	4406	4406	4406	4406	4406	4406	4406	4406	4406	4406	4350	4350	4350	4350	4296	4296	4350	4350	4350	4350	4350	4406	4406	4406	4406	4406	4406	4406	4350	4350	4406	4350	4350	4350	4350	4296	4296	4243	4296	4350	4350	4350	4350	4350	4350	4350	4350	4350	4350	4350	4350	4350	4350	4350	4350	4350	4350	4350	4350	4350	4350	4350	4406	4463	4521	4581	4581	4581	4581	4581	4521	4463	4463	4406	4406	4406	4406	4406	4406	4406	4406	4406	4406	4406	4406	4406	4406	4406	4406	4406	4406	4406	4406	0	0	0	0	2478	2478	2460	2443	2443	2443	2443	2443	2426	2426	2426	2409	2409	2392	2409	2409	2409	2409	2409	2409	2409	2426	2409	2409	2409	2409	2392	2392	2392	2392	2392	2392	2392	2376	2376	2376	2376	2392	2392	2392	2392	2376	2392	2376	2376	2376	2376	2376	2376	2376	2359	2376	2359	2376	2359	2376	2376	2392	2392	2392	2392	0	0	2589	2570	2570	2551	2551	2551	2532	2514	2478	2478	2460	2460	2460	2460	2443	2443	0	0	0	0	0	0	0	0	0	0	0	0	0	0	0	0	0	0	0	0	0	0	0	0	0	0	0	0	0	0	0	0	0	0
0	0	0	0	0	0	0	891	896	896	908	910	917	920	920	922	925	925	927	930	930	930	930	940	942	945	948	948	950	950	958	955	958	972	977	983	985	988	991	994	997	1003	1003	1006	1008	1008	1011	1020	1020	1026	1036	1039	1042	1048	1055	1055	1058	1058	1061	1064	1064	1068	1068	1068	1071	1071	0	0	0	0	0	0	0	0	4243	4243	4243	4192	4192	4192	4192	4192	4192	4142	4192	4192	4192	4192	4192	4192	4243	4243	4243	4243	4296	4350	4350	4350	4350	4643	4643	4706	4706	4771	4771	4838	4706	4771	4706	4706	4706	4706	4706	4643	4643	4643	4643	4643	4643	4643	4643	4643	4643	4643	4706	4706	4706	4706	4706	4706	4706	4706	4706	4706	4706	4706	4706	4706	4706	4706	4706	4706	4706	4771	4771	4771	4771	4977	4977	4977	6349	6349	6018	6018	6124	6124	6235	6235	6235	6349	6235	6349	6349	6235	6349	6349	6235	6235	6235	6235	6235	6235	6235	6235	6235	6349	6349	6235	6235	6124	6235	6235	6124	6124	6124	7444	7444	7444	7444	7444	7444	7608	7608	7608	7608	7779	7608	7608	7608	0	0	0	0	0	0	0	0	0	0	0	7444	7444	7444	7444	7444	7444	7444	7444	7444	7608	7608	7608	7608	7779	7779	7779	7608	7779	7779	7779	7779	7779	7779	7779	7779	7779	7779	7779	7779	7608	7608	7779	7608	7608	7608	7608	0	3821	3864	3864	3864	3864	3864	3907	3864	3864	3907	3907	3907	3907	3907	3907	3907	3907	3907	3907	3907	3907	3907	3907	3907	3907	3907	3907	3907	3907	3907	3952	3952	3907	3907	3907	3952	3952	3952	3952	3952	3998	3998	3998	4521	4521	4521	4521	4521	4521	4521	4521	4521	4463	4521	4463	4463	4521	4521	4521	4521	4521	4521	4581	4581	4581	4581	4643	4706	4771	4771	4706	4706	4706	4706	4706	4706	4706	4643	4643	4643	4643	4581	4643	4643	4643	4643	4643	4643	4706	4643	4643	4706	4706	4706	4706	4706	4706	4706	4706	4581	4581	4581	4581	4581	4581	4581	4581	4643	4643	4643	4643	4643	4706	4643	4643	4581	4581	4581	4581	4581	4581	4581	4581	4581	4643	4643	4643	4643	4643	4643	4643	4643	4643	4643	4706	4706	4706	4706	4706	4706	4643	4581	4581	4521	4521	4521	4521	4581	4581	4581	4581	4581	4581	4581	4581	4581	4581	4581	4581	4581	4581	4581	4581	4521	4521	4581	4581	4581	4463	4406	4406	4350	4406	4350	4350	4406	4406	4406	4406	4406	4406	4406	4406	4406	4406	4406	4406	4406	4406	4406	4406	4406	4406	4350	4350	4350	4350	4296	4350	4350	4350	4406	4406	4350	4406	4406	4406	4406	4406	4406	4406	4406	4350	4406	4350	4350	4350	4350	4296	4296	4296	4296	4296	4350	4350	4350	4350	4350	4350	4350	4350	4350	4350	4406	4350	4350	4350	4350	4350	4350	4350	4350	4350	4350	4406	4463	4581	4581	4581	4581	4581	4581	4581	4521	4406	4406	4406	4350	4406	4406	4406	4406	4406	4406	4350	4406	4406	4406	4406	4406	4406	4406	4406	4406	4406	4406	0	0	0	0	2478	2478	2460	2460	2460	2443	2460	2443	2443	2443	2443	2409	2409	2409	2409	2409	2409	2409	2409	2409	2409	2409	2409	2409	2409	2409	2392	2392	2392	2392	2376	2376	2376	2376	2376	2376	2376	2376	2376	2392	2392	2376	2392	2376	2376	2359	2376	2376	2359	2359	2359	2359	2359	2359	2359	2343	2343	2359	2359	2359	0	0	0	0	2570	2551	2551	2551	2532	2514	2514	2478	2478	2460	2460	2460	2460	2443	2443	0	0	0	0	0	0	0	0	0	0	0	0	0	0	0	0	0	0	0	0	0	0	0	0	0	0	0	0	0	0	0	0	0	0
0	0	0	0	0	0	0	894	894	901	905	910	917	915	920	922	925	927	927	930	930	930	930	930	942	945	948	948	953	955	958	958	958	974	980	985	985	985	988	991	994	1003	1003	1006	1008	1011	1011	1020	1020	1023	1026	1039	1045	1052	1055	1055	1058	1058	1064	1064	1068	1071	1068	1071	1071	1071	0	0	0	0	0	0	0	0	0	4243	4243	4192	4192	4192	4192	4192	4192	4192	4192	4192	4192	4192	4192	4192	4243	4243	4243	4243	4296	4463	4463	4463	4521	4643	4643	4643	4706	4706	4771	4771	4706	4706	4706	4706	4706	4706	4706	4643	4643	4643	4643	4643	4643	4643	4643	4643	4643	4643	4643	4643	4706	4706	4706	4706	4706	4706	4706	4706	4706	4706	4706	4706	4706	4706	4706	4706	4706	4706	4771	4706	4906	4906	4906	4906	6349	6349	6018	6018	6235	6235	6235	6235	6235	6349	6235	6235	6349	6235	6349	6235	6235	6235	6235	6235	6235	6235	6235	6235	6235	6349	6349	6349	6235	6235	6235	6235	6124	6235	6235	7444	7444	7444	7444	7444	7444	7444	7444	7444	7444	7444	7444	7608	7608	0	0	0	0	0	0	0	0	0	0	0	7444	7444	7444	7444	7444	7444	7444	7444	7444	7608	7608	7608	7779	7779	7779	7779	7608	7779	7779	7779	7779	7779	7959	7959	7779	7779	7779	7779	7608	7608	7608	7608	7608	7608	7608	7608	0	0	3864	3864	3864	3864	3864	3864	3864	3864	3864	3907	3907	3907	3907	3907	3907	3907	3907	3907	3864	3907	3907	3907	3907	3907	3907	3907	3907	3907	3907	3907	3907	3907	3907	3907	3952	3952	3952	3952	3952	3998	3998	3998	4521	4521	4521	4521	4521	4521	4521	4463	4463	4463	4463	4463	4463	4463	4521	4521	4521	4521	4521	4581	4581	4581	4581	4643	4706	4771	4771	4706	4706	4706	4706	4706	4706	4706	4643	4643	4643	4643	4643	4643	4643	4643	4643	4643	4643	4706	4643	4643	4706	4706	4706	4706	4706	4706	4706	4706	4581	4581	4581	4581	4521	4521	4521	4581	4581	4643	4581	4581	4581	4643	4581	4581	4521	4521	4521	4521	4521	4521	4521	4521	4581	4581	4581	4581	4581	4581	4581	4581	4581	4581	4581	4643	4706	4643	4643	4706	4643	4581	4521	4521	4521	4521	4521	4521	4521	4521	4521	4521	4581	4581	4581	4581	4581	4581	4521	4521	4521	4521	4521	4521	4463	4463	4521	4521	4521	4406	4350	4350	4350	4350	4350	4406	4406	4406	4406	4406	4406	4406	4406	4406	4406	4406	4406	4406	4463	4463	4406	4406	4406	4406	4406	4350	4350	4350	4350	4350	4406	4406	4406	4406	4406	4406	4406	4406	4406	4406	4406	4406	4406	4350	4406	4350	4350	4350	4350	4296	4296	4296	4296	4350	4350	4350	4350	4350	4350	4350	4350	4350	4350	4350	4350	4350	4350	4350	4350	4350	4350	4350	4350	4406	4350	4406	4406	4581	4581	4581	4581	4581	4581	4521	4521	4406	4406	4406	4406	4406	4406	4406	4406	4406	4406	4350	4406	4406	4406	4406	4406	4406	4406	4463	4406	4406	4406	0	0	0	2478	2478	2478	2460	2460	2460	2460	2460	2460	2443	2443	2443	2426	2409	2409	2409	2409	2409	2409	2409	2409	2409	2409	2409	2409	2392	2392	2392	2392	2392	2392	2392	2376	2376	2376	2359	2359	2359	2359	2376	2376	2376	2376	2376	2376	2376	2359	2359	2376	2376	2359	2359	2359	2359	2359	2359	2343	2359	2359	2359	2359	0	0	0	0	0	2551	2551	2551	2532	2514	2514	2478	2478	2460	2460	2460	2443	2443	2443	0	0	0	0	0	0	0	0	0	0	0	0	0	0	0	0	0	0	0	0	0	0	0	0	0	0	0	0	0	0	0	0	0	0
0	0	0	0	0	0	0	894	894	903	910	913	915	917	915	920	925	925	925	927	930	930	930	937	942	945	948	948	950	953	955	955	958	977	980	983	985	985	991	994	1000	1003	1006	1008	1011	1011	1014	1020	1020	1023	1033	1042	1045	1045	1052	1055	1058	1061	1061	1064	1068	1068	1068	1068	1068	1068	1068	0	0	0	0	0	0	0	0	4243	4243	4243	4192	4243	4243	4243	4192	4192	4192	4243	4192	4192	4192	4192	4243	4243	4243	4243	4243	4463	4463	4521	4521	4643	4643	4706	4706	4706	4706	4771	4706	4706	4706	4706	4706	4706	4706	4643	4643	4643	4643	4643	4643	4643	4643	4643	4643	4643	4643	4643	4706	4706	4706	4706	4706	4706	4706	4706	4706	4706	4706	4706	4706	4706	4706	4706	4706	4771	4771	4706	4706	6468	6468	6349	6349	6349	6235	6235	6235	6235	6349	6349	6349	6349	6349	6349	6349	6349	6349	6235	6235	6235	6235	6235	6235	6349	6349	6349	6349	6349	6349	6349	6235	6235	6235	6124	6124	6124	6235	7444	7444	7444	7444	7444	7444	7444	7444	7444	7444	7444	7444	7444	7444	0	0	0	0	0	0	0	0	0	0	0	7444	7444	7444	7608	7444	7444	7608	7608	7779	7779	7779	7608	7779	7779	7779	7608	7608	7608	7608	7779	7779	7779	7779	7779	7779	7779	7779	7779	7608	7608	7608	7608	7608	7608	7608	7608	0	0	3864	3821	3821	3864	3864	3864	3864	3864	3864	3864	3907	3907	3907	3907	3907	3907	3907	3907	3907	3907	3907	3907	3907	3907	3907	3907	3907	3907	3907	3907	3907	3907	3907	3907	3952	3952	3952	3952	3952	3952	3952	3952	4521	4521	4521	4521	4521	4463	4463	4463	4406	4406	4463	4463	4463	4521	4521	4521	4521	4521	4521	4581	4581	4581	4581	4643	4706	4771	4771	4706	4706	4706	4706	4706	4706	4706	4643	4643	4706	4643	4643	4706	4706	4706	4706	4643	4643	4706	4643	4643	4706	4706	4706	4706	4706	4706	4643	4643	4643	4521	4521	4521	4521	4521	4521	4521	4581	4581	4581	4521	4581	4581	4521	4521	4521	4521	4521	4521	4521	4521	4521	4521	4521	4521	4521	4521	4521	4521	4521	4521	4521	4521	4581	4581	4643	4581	4581	4581	4581	4521	4463	4463	4463	4463	4463	4463	4521	4521	4521	4521	4521	4521	4521	4521	4521	4521	4463	4521	4463	4521	4521	4463	4463	4463	4463	4463	4463	4406	4350	4350	4350	4350	4350	4406	4406	4406	4406	4406	4406	4406	4406	4406	4406	4406	4406	4463	4463	4463	4406	4406	4406	4406	4350	4350	4350	4350	4350	4406	4406	4406	4406	4406	4406	4406	4463	4406	4406	4406	4406	4406	4406	4350	4406	4350	4350	4350	4350	4296	4296	4296	4350	4350	4350	4350	4350	4350	4350	4350	4350	4350	4350	4350	4350	4350	4350	4350	4350	4350	4350	4350	4350	4350	4406	4406	4463	4581	4581	4581	4581	4581	4581	4521	4521	4463	4463	4406	4406	4406	4350	4350	4406	4350	4350	4350	4406	4406	4406	4406	4406	4406	4406	4463	4406	4463	4463	0	0	0	2478	2496	2478	2478	2460	2460	2460	2460	2460	2460	2443	2443	2426	2426	2409	2409	2409	2409	2409	2409	2409	2409	2409	2409	2409	2392	2392	2392	2392	2392	2376	2376	2376	2376	2359	2359	2359	2359	2359	2359	2376	2376	2376	2376	2376	2376	2376	2376	2376	2376	2376	2376	2376	2376	2376	2359	2359	2359	2359	2359	0	0	0	0	0	0	2551	2551	2532	2532	2514	2514	2478	2478	2460	2460	2443	2443	2443	2443	0	0	0	0	0	0	0	0	0	0	0	0	0	0	0	0	0	0	0	0	0	0	0	0	0	0	0	0	0	0	0	0	0	0
0	0	0	0	0	0	0	891	894	903	913	913	917	917	917	920	922	925	925	927	930	930	935	937	940	945	948	950	950	955	955	958	961	972	980	983	983	985	991	991	1000	1003	1006	1008	1011	1011	1014	1014	1017	1017	1030	1039	1045	1052	1052	1055	1058	1061	1061	1064	1064	1068	1068	1068	1068	1068	1068	0	0	0	0	0	0	0	0	4192	4192	4192	4192	4192	4192	4243	4192	4192	4243	4243	4243	4243	4192	4192	4243	4192	4243	4243	4296	4463	4463	4521	4521	4581	4643	4706	4706	4706	4706	4771	4706	4706	4706	4706	4706	4706	4643	4643	4643	4643	4643	4706	4706	4706	4643	4643	4643	4643	4706	4643	4706	4706	4706	4706	4706	4706	4706	4706	4706	4706	4706	4706	4706	4706	4706	4706	4706	4771	4771	4643	4643	6468	6468	6349	6349	6349	6349	6349	6349	6349	6349	6349	6349	6349	6349	6349	6349	6349	6349	6349	6349	6235	6349	6235	6235	6349	6349	6349	6349	6349	6349	6349	6235	6235	6124	6124	6124	6124	0	0	7444	7444	7444	7444	7444	7444	7444	7444	7444	7287	7287	7287	7444	0	0	0	0	0	0	0	0	0	0	0	7444	7444	7444	7608	7608	7779	7608	7779	7779	7779	7779	7608	7779	7779	7608	7608	7608	7608	7608	7608	7779	7779	7779	7779	7779	7779	7779	7608	7608	7608	7608	7608	7608	7608	7608	0	0	0	0	3864	3864	3864	3864	3864	3864	3864	3864	3907	3907	3907	3907	3907	3907	3907	3907	3907	3907	3907	3907	3907	3907	3907	3907	3907	3907	3907	3907	3907	3907	3907	3907	3907	3952	3907	3907	3907	3907	3952	3952	3952	4521	4521	4521	4521	4521	4463	4463	4463	4463	4463	4463	4463	4521	4521	4521	4581	4581	4521	4521	4581	4581	4521	4521	4581	4643	4706	4771	4706	4706	4706	4706	4706	4643	4643	4643	4643	4706	4706	4643	4706	4706	4706	4706	4643	4706	4643	4643	4643	4643	4643	4706	4643	4643	4643	4643	4643	4581	4521	4521	4521	4521	4521	4521	4521	4521	4521	4521	4463	4521	4521	4521	4463	4463	4463	4463	4463	4463	4463	4463	4463	4463	4521	4521	4521	4521	4521	4521	4521	4521	4521	4521	4521	4581	4521	4521	4581	4521	4521	4463	4463	4463	4463	4463	4463	4463	4463	4463	4463	4463	4463	4463	4463	4463	4463	4463	4463	4463	4463	4463	4463	4463	4463	4463	4463	4406	4406	4350	4350	4350	4350	4350	4406	4406	4406	4406	4406	4406	4406	4406	4350	4350	4350	4406	4406	4406	4406	4406	4406	4406	4406	4406	4350	4350	4350	4350	4406	4406	4406	4406	4463	4463	4463	4463	4406	4406	4406	4406	4406	4406	4350	4406	4350	4350	4350	4350	4296	4296	4296	4296	4350	4350	4350	4350	4350	4350	4350	4350	4350	4350	4350	4350	4350	4350	4350	4350	4350	4406	4350	4406	4406	4406	4406	4521	4581	4643	4643	4643	4581	4581	4521	4463	4406	4406	4406	4406	4406	4350	4350	4406	4350	4406	4350	4406	4406	4406	4406	4406	4406	4406	4463	4406	4406	4406	4406	0	0	0	2496	2496	2496	2478	2478	2478	2478	2478	2460	2460	2443	2426	2426	2409	2409	2409	2409	2409	2409	2409	2409	2409	2392	2392	2392	2376	2376	2376	2376	2376	2376	2359	2359	2359	2359	2359	2359	2359	2359	2376	2376	2376	2376	2376	2392	2392	2392	2392	2392	2392	2392	2392	2392	2376	2359	2359	2359	2359	2359	0	0	0	0	0	0	2551	2551	2532	2532	2514	2514	2478	2478	2460	2460	2460	2443	2443	2443	0	0	0	0	0	0	0	0	0	0	0	0	0	0	0	0	0	0	0	0	0	0	0	0	0	0	0	0	0	0	0	0	0	0
0	0	0	0	0	0	0	884	891	898	910	915	917	917	917	920	922	925	925	927	930	930	935	932	940	945	948	950	953	955	958	958	961	969	974	980	983	983	985	988	991	1000	1003	1003	1011	1014	1014	1017	1017	1023	1030	1042	1045	1052	1055	1055	1058	1061	1064	1064	1064	1068	1068	1068	1068	1068	1068	0	0	0	0	0	0	0	0	4192	4192	4142	4142	4142	4192	4192	4192	4192	4192	4243	4243	4243	4243	4243	4243	4243	4243	4243	4296	4406	4406	4463	4521	4581	4643	4706	4706	4706	4706	4706	4706	4706	4706	4706	4706	4706	4706	4643	4706	4706	4706	4706	4706	4706	4706	4706	4706	4706	4706	4643	4706	4706	4706	4706	4706	4706	4706	4706	4706	4706	4706	4706	4706	4706	4706	4771	4706	4706	4706	4706	6468	6468	6349	6349	6349	6349	6349	6349	6235	6349	6349	6349	6349	6349	6349	6349	6349	6349	6349	6349	6235	6235	6349	6235	6235	6235	6349	6349	6235	6235	6349	6349	6124	6124	6124	5915	5915	6124	0	0	0	7444	7608	7444	7444	7444	7444	7444	7444	7287	7287	7287	0	0	0	0	0	0	0	0	0	0	0	0	0	0	0	0	7608	7779	7608	7779	7779	7779	7779	7608	7779	7779	7608	7608	7608	7608	7779	7779	7779	7779	7779	7779	7779	7779	7608	7779	7608	7608	7608	7779	7779	7779	7608	0	0	0	0	3864	3864	3864	3864	3864	3864	3864	3864	3864	3864	3864	3864	3864	3907	3907	3907	3907	3907	3907	3907	3907	3907	3907	3907	3907	3907	3907	3907	3907	3907	3907	3907	3907	3952	3907	3907	3907	3907	3952	3952	3952	4521	4521	4521	4521	4463	4406	4406	4406	4406	4463	4463	4463	4521	4521	4521	4521	4521	4521	4521	4521	4521	4521	4581	4581	4643	4706	4771	4706	4706	4706	4706	4706	4643	4643	4643	4643	4706	4706	4706	4706	4706	4706	4706	4643	4643	4643	4643	4643	4643	4643	4643	4643	4643	4643	4581	4643	4581	4521	4521	4521	4521	4521	4521	4521	4521	4521	4521	4463	4463	4463	4406	4406	4406	4406	4406	4463	4463	4463	4463	4463	4463	4463	4463	4463	4463	4521	4521	4463	4463	4463	4521	4521	4521	4463	4521	4521	4463	4463	4406	4406	4406	4463	4463	4463	4463	4406	4406	4463	4463	4463	4463	4463	4463	4463	4463	4463	4463	4463	4463	4463	4463	4406	4406	4406	4406	4350	4350	4350	4350	4350	4350	4406	4406	4406	4406	4406	4406	4406	4406	4350	4350	4350	4406	4406	4463	4406	4406	4406	4406	4406	4350	4350	4406	4350	4350	4406	4406	4406	4406	4463	4463	4463	4463	4406	4406	4406	4406	4406	4350	4350	4350	4350	4350	4350	4350	4350	4350	4350	4350	4350	4350	4350	4350	4350	4350	4350	4350	4350	4350	4350	4406	4406	4406	4406	4406	4406	4406	4406	4406	4406	4406	4406	4463	4581	4643	4643	4643	4643	4581	4581	4463	4463	4406	4406	4406	4406	4406	4406	4406	4406	4406	4350	4406	4406	4406	4406	4406	4406	4406	4406	4406	4406	4406	4406	0	0	0	0	2496	2496	2478	2478	2478	2478	2478	2478	2460	2460	2443	2426	2409	2409	2409	2409	2409	2409	2409	2409	2409	2409	2392	2392	2392	2376	2376	2376	2376	2376	2359	2359	2359	2359	2359	2359	2359	2359	2376	2392	2376	2376	2376	2376	2392	2392	2392	2392	2392	2392	2392	2392	2376	2359	2343	2343	2343	0	0	0	0	0	0	0	2551	2532	2532	2532	2514	2514	2478	2478	2460	2460	2460	2443	2443	2443	0	0	0	0	0	0	0	0	0	0	0	0	0	0	0	0	0	0	0	0	0	0	0	0	0	0	0	0	0	0	0	0	0	0
0	0	0	0	0	0	0	889	889	898	905	913	917	917	917	920	922	925	925	927	930	930	932	930	940	945	948	950	953	958	958	961	966	969	974	977	980	983	983	985	985	1000	1003	1006	1011	1014	1017	1020	1020	1023	1026	1036	1045	1052	1055	1055	1058	1061	1061	1064	1064	1068	1068	1068	1068	1068	1068	0	0	0	0	0	0	0	0	4192	4142	4142	4142	4142	4142	4192	4192	4192	4192	4243	4243	4243	4243	4243	4243	4243	4243	4243	4296	4350	4350	4350	4463	4581	4643	4643	4706	4706	4643	4706	4706	4706	4706	4706	4706	4706	4643	4643	4706	4706	4643	4706	4706	4706	4706	4706	4706	4706	4706	4643	4706	4643	4643	4643	4706	4706	4706	4643	4706	4706	4706	4706	4706	4706	4706	4771	4706	4706	4706	4706	6468	6468	6468	6349	6349	6349	6349	6349	6349	6349	6349	6349	6349	6349	6235	6349	6349	6349	6349	6349	6349	6349	6349	6235	6235	6349	6235	6235	6124	6124	6124	6235	6124	6124	5915	5815	5815	0	0	0	0	0	7608	7444	7444	7444	7444	7444	7444	7287	7287	0	0	0	0	0	0	0	0	0	0	0	0	0	0	0	0	0	0	0	0	0	0	0	0	0	7779	7779	7779	7608	7608	7779	7779	7779	7779	7779	7779	7779	7779	7608	7608	7608	7608	7608	7608	7608	7608	7779	0	0	0	0	0	3864	3864	3864	3864	3907	3821	3821	3821	3821	3864	3864	3864	3864	3907	3907	3907	3907	3907	3907	3907	3907	3907	3907	3907	3907	3907	3952	3952	3907	3907	3907	3907	3907	3952	3907	3907	3907	3907	3952	3952	3952	4581	4521	4521	4521	4463	4406	4406	4406	4406	4406	4463	4463	4521	4521	4521	4521	4521	4581	4521	4521	4521	4521	4581	4581	4643	4706	4771	4706	4706	4706	4643	4643	4643	4643	4643	4643	4706	4706	4706	4706	4706	4706	4706	4643	4643	4643	4706	4643	4643	4643	4643	4643	4643	4643	4581	4643	4581	4521	4521	4521	4463	4463	4463	4463	4463	4463	4463	4350	4350	4406	4406	4406	4406	4406	4463	4463	4463	4463	4463	4463	4463	4463	4463	4463	4463	4521	4521	4521	4463	4463	4521	4521	4463	4463	4521	4521	4463	4463	4406	4406	4406	4463	4406	4406	4406	4406	4406	4406	4406	4406	4406	4406	4463	4463	4406	4463	4406	4463	4463	4406	4406	4406	4406	4406	4406	4406	4406	4406	4406	4406	4406	4406	4406	4406	4406	4406	4406	4406	4406	4350	4350	4296	4350	4406	4406	4406	4406	4406	4406	4406	4406	4406	4406	4406	4406	4406	4406	4406	4463	4463	4463	4463	4463	4406	4406	4406	4406	4406	4350	4350	4350	4350	4350	4350	4350	4350	4350	4350	4350	4350	4350	4350	4350	4350	4350	4350	4350	4350	4406	4406	4406	4406	4406	4406	4406	4350	4406	4406	4406	4406	4406	4406	4521	4581	4643	4643	4643	4581	4581	4521	4463	4463	4406	4406	4406	4406	4406	4406	4406	4406	4406	4350	4406	4406	4406	4406	4406	4406	4406	4406	4406	4463	4463	4463	0	0	0	0	0	0	2478	2478	2478	2478	2478	2478	2460	2460	2443	2409	2409	2409	2409	2409	2409	2409	2409	2409	2409	2392	2392	2392	2392	2376	2376	2376	2376	2359	2359	2359	2359	2359	2359	2359	2359	2359	2376	2392	2376	2376	2376	2376	2392	2392	2392	2392	2392	2392	2392	2392	2376	2359	2343	2327	2327	0	0	0	0	0	0	0	2551	2532	2532	2532	2514	2514	2478	2478	2460	2460	2443	2443	2443	2443	0	0	0	0	0	0	0	0	0	0	0	0	0	0	0	0	0	0	0	0	0	0	0	0	0	0	0	0	0	0	0	0	0	0
0	0	0	0	0	0	0	887	889	894	903	913	915	917	917	920	922	922	925	927	930	930	930	930	940	945	948	950	955	958	958	958	966	966	974	974	980	983	985	991	991	1000	1003	1006	1011	1014	1017	1020	1020	1023	1026	1033	1042	1048	1052	1055	1058	1061	1064	1064	1068	1068	1071	1068	1071	1078	1085	1085	0	0	0	0	0	0	0	4192	4142	4142	4142	4142	4142	4192	4192	4192	4192	4243	4243	4243	4243	4243	4243	4243	4243	4243	4296	4296	4350	4643	4643	4643	4643	4706	4706	4706	4706	4706	4706	4706	4706	4706	4706	4706	4643	4643	4706	4706	4706	4706	4706	4706	4706	4706	4706	4706	4706	4643	4643	4643	4643	4643	4643	4643	4643	4643	4643	4643	4706	4706	4706	4706	4706	4706	4706	4706	4706	4706	6468	6468	6349	6349	6349	6349	6349	6349	6349	6349	6349	6349	6349	6349	6349	6349	6349	6349	6349	6349	6349	6349	6349	6349	6235	6235	6235	6235	6018	5915	5915	5815	5815	5815	5815	5815	5815	0	0	0	0	0	0	0	0	7444	7444	0	0	0	0	0	0	0	0	0	0	0	0	0	0	0	0	0	0	0	0	0	0	0	0	0	0	0	0	0	0	7779	7779	7608	7608	7779	7959	7779	7779	7779	7779	7779	7779	7608	7779	7608	7608	7608	7608	7608	7608	0	0	0	0	0	0	3907	3907	3907	3907	3864	3864	3864	3821	3821	3864	3864	3864	3864	3907	3907	3907	3907	3907	3907	3907	3907	3907	3907	3907	3907	3907	3907	3907	3907	3907	3907	3907	3907	3907	3907	3907	3907	3907	3952	3952	3952	4521	4521	4521	4463	4463	4406	4406	4406	4406	4406	4463	4463	4521	4521	4521	4521	4521	4521	4521	4521	4521	4521	4581	4581	4581	4643	4706	4706	4706	4643	4643	4643	4643	4643	4706	4706	4706	4706	4706	4706	4706	4706	4706	4706	4706	4706	4706	4643	4643	4643	4643	4643	4643	4581	4581	4581	4581	4521	4521	4521	4463	4406	4406	4406	4406	4406	4406	4350	4406	4406	4406	4406	4406	4406	4406	4406	4406	4406	4463	4463	4406	4463	4463	4463	4463	4463	4463	4521	4463	4463	4521	4463	4463	4463	4463	4463	4463	4463	4406	4406	4406	4406	4406	4406	4406	4406	4406	4406	4406	4406	4406	4406	4406	4406	4406	4406	4406	4406	4406	4406	4406	4406	4406	4406	4406	4406	4406	4406	4406	4406	4406	4406	4406	4406	4406	4406	4406	4406	4406	4350	4350	4350	4406	4406	4406	4406	4406	4406	4406	4406	4406	4406	4406	4406	4406	4406	4406	4406	4406	4463	4463	4463	4463	4406	4406	4406	4406	4406	4350	4350	4350	4350	4350	4350	4350	4350	4350	4350	4350	4350	4350	4350	4350	4350	4350	4350	4350	4350	4350	4350	4350	4406	4406	4350	4350	4350	4350	4350	4406	4406	4406	4463	4521	4581	4581	4643	4643	4581	4581	4521	4463	4463	4463	4406	4406	4406	4406	4406	4406	4406	4406	4406	4406	4406	4406	4406	4406	4406	4406	4406	4406	4406	4463	4463	0	0	0	0	0	2478	2478	2478	2478	2478	2478	2478	2460	2460	2443	2426	2409	2409	2409	2409	2409	2409	2409	2409	2409	2409	2392	2392	2392	2376	2376	2376	2359	2359	2376	2359	2359	2359	2376	2359	2359	2359	2376	2376	2376	2359	2376	2376	2392	2392	2376	2392	2392	2392	2392	2392	2376	2359	2343	2343	2327	0	0	0	0	0	0	0	0	2532	2532	2532	2514	2514	2496	2478	2478	2460	2443	2443	2443	2443	0	0	0	0	0	0	0	0	0	0	0	0	0	0	0	0	0	0	0	0	0	0	0	0	0	0	0	0	0	0	0	0	0	0
0	0	0	0	0	0	0	887	889	894	905	910	915	917	917	917	920	922	922	925	930	930	935	935	937	945	948	953	958	958	958	961	961	966	972	980	980	983	985	988	991	1000	1003	1003	1014	1014	1020	1020	1023	1023	1026	1030	1039	1048	1052	1055	1061	1061	1064	1064	1068	1071	1071	1068	1071	1078	1078	1085	0	0	0	0	0	0	0	4192	4142	4142	4142	4192	4142	4192	4192	4192	4243	4243	4243	4243	4243	4243	4243	4243	4243	4243	4296	4350	4521	4581	4643	4643	4643	4706	4706	4706	4706	4706	4643	4643	4643	4643	4643	4643	4643	4643	4706	4706	4706	4706	4706	4706	4706	4706	4706	4706	4706	4643	4706	4643	4643	4643	4706	4706	4706	4643	4643	4643	4706	4706	4643	4643	4706	4706	4706	4706	4706	6349	6349	6349	6349	6349	6349	6349	6349	6349	6349	6349	6349	6349	6349	6349	6349	6349	6349	6349	6349	6349	6349	6349	6349	6349	6235	6349	6235	6235	5915	5719	5719	5626	5626	5626	5815	0	0	0	0	0	0	0	0	0	0	0	0	0	0	0	0	0	0	0	0	0	0	0	0	0	0	0	0	0	0	0	0	0	0	0	0	0	0	0	0	0	0	0	0	0	0	0	7959	7779	7779	7779	7779	7779	7779	7608	7779	7608	7608	7444	7444	7608	7608	0	0	0	0	0	0	3907	3864	3864	3864	3864	3821	3821	3821	3821	3821	3821	3864	3864	3864	3907	3907	3907	3907	3907	3907	3907	3907	3907	3907	3907	3907	3907	3907	3907	3907	3907	3907	3907	3907	3907	3907	3907	3907	3907	3907	3907	4521	4463	4463	4463	4463	4463	4463	4463	4463	4463	4463	4463	4521	4521	4521	4521	4521	4581	4581	4581	4521	4521	4581	4581	4581	4581	4643	4643	4706	4643	4581	4643	4643	4643	4706	4643	4706	4706	4706	4706	4706	4706	4706	4706	4706	4706	4706	4643	4643	4643	4643	4643	4643	4581	4581	4581	4581	4521	4521	4463	4406	4406	4350	4350	4350	4350	4350	4350	4350	4463	4406	4406	4406	4406	4406	4463	4406	4406	4406	4463	4463	4463	4463	4463	4463	4463	4463	4463	4463	4463	4521	4463	4463	4463	4463	4463	4463	4463	4406	4406	4406	4406	4406	4406	4406	4406	4406	4406	4406	4406	4406	4406	4406	4406	4406	4406	4406	4406	4406	4406	4406	4406	4406	4406	4406	4406	4406	4406	4406	4406	4406	4406	4406	4406	4406	4406	4406	4406	4406	4350	4350	4350	4406	4406	4406	4406	4406	4406	4406	4406	4406	4406	4406	4406	4406	4406	4406	4406	4406	4406	4406	4406	4463	4406	4406	4406	4406	4406	4350	4350	4350	4350	4350	4350	4350	4350	4350	4350	4350	4350	4350	4350	4350	4350	4350	4350	4350	4350	4350	4350	4350	4406	4406	4406	4350	4350	4350	4406	4406	4406	4406	4463	4521	4581	4581	4643	4581	4581	4581	4521	4521	4463	4463	4406	4406	4406	4406	4406	4406	4406	4406	4406	4406	4406	4406	4406	4406	4406	4406	4406	4406	4406	4463	4581	4581	0	0	0	0	2478	2478	2478	2460	2478	2460	2460	2460	2460	2443	2443	2409	2426	2426	2409	2409	2409	2409	2409	2409	2409	2392	2392	2392	2376	2376	2376	2376	2376	2376	2359	2376	2359	2376	2359	2359	2359	2376	2392	2376	2359	2376	2392	2392	2392	2392	2392	2392	2392	2392	2392	2376	2359	2343	2343	0	0	0	0	0	0	0	0	0	2551	2532	2532	2514	2514	2496	2496	2478	2478	2460	2443	2443	2443	0	0	0	0	0	0	0	0	0	0	0	0	0	0	0	0	0	0	0	0	0	0	0	0	0	0	0	0	0	0	0	0	0	0
0	0	0	0	0	0	0	887	891	896	903	908	913	915	915	915	920	920	922	925	930	935	932	935	937	942	945	953	955	958	958	958	963	966	969	972	980	983	985	985	991	1000	1000	1003	1008	1011	1017	1020	1023	1026	1026	1030	1039	1048	1052	1055	1061	1061	1061	1064	1064	1071	1071	1071	1071	1074	1074	0	0	0	0	0	0	0	0	4243	4142	4243	4192	4192	4142	4142	4192	4192	4192	4192	4192	4243	4243	4243	4243	4243	4243	4243	4243	4296	4350	4581	4581	4643	4706	4771	4771	4706	4706	4771	4706	4706	4706	4706	4706	4706	4643	4643	4706	4706	4706	4706	4706	4706	4706	4706	4706	4706	4706	4706	4706	4643	4643	4643	4706	4706	4706	4643	4643	4643	4706	4643	4643	4643	4706	4706	4706	4643	4643	6349	6349	6349	6349	6349	6349	6349	6349	6349	6235	6235	6235	6349	6349	6349	6349	6349	6349	6349	6468	6468	6468	6468	6468	6349	6235	6349	6235	6235	5719	5626	5626	5626	5626	5626	0	0	0	0	0	0	0	0	0	0	0	0	0	0	0	0	0	0	0	0	0	0	0	0	0	0	0	0	0	0	0	0	0	0	0	0	0	0	0	0	0	0	0	0	0	0	0	0	0	0	0	0	7779	7779	7779	7608	7779	7608	7608	7444	7444	0	0	0	0	0	0	0	0	0	3864	3864	3821	3821	3821	3821	3821	3821	3821	3864	3864	3864	3864	3864	3907	3907	3907	3907	3907	3907	3907	3907	3907	3907	3907	3907	3907	3907	3907	3864	3864	3864	3907	3907	3907	3907	3907	3907	3907	4350	4463	4463	4463	4463	4463	4463	4521	4521	4521	4521	4521	4521	4521	4521	4521	4521	4521	4581	4581	4581	4581	4521	4581	4581	4581	4581	4643	4643	4706	4706	4643	4643	4643	4643	4643	4643	4706	4706	4706	4706	4706	4706	4706	4706	4706	4706	4706	4706	4643	4643	4643	4643	4643	4581	4581	4581	4581	4521	4521	4463	4406	4350	4350	4350	4350	4350	4350	4350	4350	4463	4463	4463	4463	4406	4463	4463	4406	4406	4406	4406	4406	4463	4463	4463	4463	4463	4463	4463	4463	4463	4521	4521	4463	4463	4463	4463	4463	4463	4406	4406	4406	4406	4406	4406	4406	4406	4406	4406	4406	4406	4406	4406	4406	4406	4406	4350	4350	4406	4406	4406	4406	4406	4406	4406	4406	4406	4406	4406	4406	4406	4406	4406	4406	4406	4406	4406	4406	4406	4406	4406	4350	4350	4350	4406	4406	4350	4406	4406	4406	4406	4406	4350	4406	4406	4350	4350	4350	4406	4406	4406	4406	4406	4406	4406	4406	4406	4406	4406	4350	4350	4350	4350	4350	4350	4350	4350	4350	4350	4350	4350	4350	4350	4350	4350	4350	4350	4406	4350	4350	4350	4350	4406	4406	4406	4350	4350	4350	4406	4406	4406	4406	4463	4463	4581	4581	4643	4643	4581	4581	4581	4521	4521	4521	4463	4463	4406	4406	4406	4406	4406	4406	4406	4406	4406	4406	4406	4406	4406	4406	4406	4406	4406	4521	4581	4581	0	0	0	0	2478	2478	2478	2460	2478	2460	2460	2460	2460	2443	2443	2409	2426	2426	2409	2409	2409	2409	2409	2409	2409	2409	2392	2392	2392	2376	2376	2359	2359	2376	2376	2376	2376	2392	2376	2376	2376	2376	2376	2376	2359	2376	2392	2392	2392	2392	2409	2392	2392	2392	2392	2392	2376	2376	2376	0	0	0	0	0	0	0	0	0	2551	2551	2532	2532	2514	2496	2496	2478	2478	2460	2443	2443	2443	0	0	0	0	0	0	0	0	0	0	0	0	0	0	0	0	0	0	0	0	0	0	0	0	0	0	0	0	0	0	0	0	0	0
0	0	0	0	0	0	0	889	891	901	903	908	913	915	915	915	920	920	922	922	935	937	935	935	935	940	945	953	955	958	958	961	963	966	969	972	974	977	988	988	994	997	1000	1003	1003	1014	1020	1020	1023	1026	1026	1030	1036	1048	1048	1052	1061	1064	1061	1064	1068	1071	1071	1071	1068	1071	1071	0	0	0	0	0	0	0	0	4142	4142	4142	4192	4192	4142	4192	4192	4192	4192	4243	4243	4243	4243	4243	4243	4243	4243	4296	4296	4296	4350	4581	4643	4706	4706	4771	4771	4771	4771	4771	4706	4706	4706	4706	4706	4643	4643	4643	4643	4706	4706	4706	4706	4706	4706	4706	4706	4706	4706	4706	4706	4706	4706	4706	4706	4706	4706	4706	4643	4706	4706	4706	4643	4643	4706	4706	4706	4643	4643	6349	6349	6349	6349	6349	6349	6235	6349	6349	6235	6235	6349	6349	6349	6349	6349	6349	6349	6349	6468	6468	6468	6468	6468	6349	6349	6235	6235	6235	5626	5626	5535	5535	5535	5626	0	0	0	0	0	0	0	0	0	0	0	0	0	0	0	0	0	0	0	0	0	0	0	0	0	0	0	0	0	0	0	0	0	0	0	0	0	0	0	0	0	0	0	0	0	0	0	0	0	0	0	0	0	0	0	0	0	7608	7608	0	0	0	0	0	0	0	0	0	0	0	3821	3821	3821	3821	3821	3821	3821	3821	3821	3821	3821	3821	3821	3864	3864	3907	3907	3907	3907	3907	3907	3907	3907	3907	3907	3907	3907	3864	3864	3864	3864	3864	3864	3864	3907	3907	3907	3907	4463	4463	4463	4463	4463	4463	4463	4521	4521	4521	4521	4521	4521	4521	4521	4521	4521	4521	4521	4581	4581	4581	4581	4581	4581	4521	4581	4581	4643	4643	4706	4706	4643	4643	0	4643	4643	4643	4706	4706	4706	4706	4706	4706	4706	4706	4706	4706	4706	4706	4643	4643	4643	4643	4643	4643	4581	4581	4581	4581	4521	4463	4406	4350	4350	4350	4350	4296	4350	4350	4406	4463	4463	4463	4463	4463	4463	4463	4406	4406	4406	4406	4406	4463	4463	4463	4463	4463	4463	4463	4463	4463	4463	4463	4463	4463	4463	4463	4463	4463	4406	4406	4406	4406	4406	4406	4406	4406	4406	4406	4406	4406	4406	4406	4406	4406	4350	4350	4350	4406	4406	4406	4406	4406	4406	4406	4406	4406	4406	4406	4406	4406	4406	4406	4406	4406	4406	4406	4406	4406	4406	4350	4350	4350	4350	4350	4350	4350	4350	4350	4406	4350	4350	4350	4406	4406	4350	4350	4406	4406	4406	4406	4406	4406	4406	4406	4406	4406	4406	4406	4350	4350	4350	4350	4350	4350	4350	4350	4350	4350	4350	4350	4350	4350	4350	4350	4350	4406	4406	4406	4406	4406	4406	4406	4406	4406	4350	4350	4350	4350	4406	4406	4406	4406	4463	4521	4581	4643	4643	4643	4643	4581	4581	4521	4463	4463	4406	4406	4406	4406	4406	4406	4406	4406	4406	4406	4406	4406	4406	4406	4406	4406	4406	4406	4463	4521	4581	4581	0	0	0	2478	2460	2478	2460	2478	2478	2460	2460	2460	2443	2443	2409	2426	2426	2409	2409	2409	2409	2409	2409	2409	2409	2409	2392	2392	2376	2376	2376	2359	2376	2376	2376	2376	2392	2392	2392	2392	2376	2392	2376	2359	2359	2392	2392	2392	2409	2409	2392	2392	2392	2392	2392	2376	2376	2376	0	0	0	0	0	0	0	0	0	2551	2551	2532	2532	2514	2496	2496	2478	2478	2460	2443	2443	2443	0	0	0	0	0	0	0	0	0	0	0	0	0	0	0	0	0	0	0	0	0	0	0	0	0	0	0	0	0	0	0	0	0	0
0	0	0	0	0	0	0	889	891	898	903	905	910	915	915	915	920	920	922	927	932	937	935	935	940	942	945	950	953	955	958	961	963	966	969	972	972	977	988	991	997	1000	1000	1003	1003	1008	1017	1023	1026	1026	1030	1033	1039	1045	1052	1058	1061	1064	1064	1064	1068	1071	1071	1071	1071	1071	1071	0	0	0	0	0	0	0	0	4142	4142	4142	4142	4142	4142	4243	4243	4243	4243	4243	4243	4243	4243	4243	4243	4243	4243	4296	4296	4296	4350	4706	4706	4706	4706	4771	4771	4771	4771	4771	4771	4706	4706	4706	4706	4706	4643	4643	4643	4706	4706	4706	4706	4706	4706	4706	4706	4706	4706	4706	4706	4706	4643	4643	4643	4706	4706	4706	4643	4643	4706	4643	4643	4643	4706	4643	4643	4643	4643	6468	6349	6349	6349	6349	6349	6349	6349	6349	6235	6349	6349	6349	6349	6349	6349	6468	6468	6349	6468	6468	6468	6468	6468	6349	6235	6235	6235	0	5626	5535	5535	5535	5535	0	0	0	0	0	0	0	0	0	0	0	0	0	0	0	0	0	0	0	0	0	0	0	0	0	0	0	0	0	0	0	0	0	0	0	0	0	0	0	0	0	0	0	0	0	0	0	0	0	0	0	0	0	0	0	0	0	0	0	0	0	0	0	0	0	0	0	0	0	0	0	3821	3821	3821	3779	3821	3821	3779	3821	3821	3821	3821	3821	3821	3864	3864	3907	3864	3864	3864	3907	3907	3907	3907	3864	3864	3864	3864	3864	3821	3821	3821	3821	3864	3907	3864	3907	3907	3907	4463	4463	4463	4463	4463	4463	4463	4521	4521	4521	4521	4463	4463	4463	4521	4463	4521	4521	4521	4521	4521	4581	4581	4581	4581	4521	4581	4643	4643	4643	4643	4706	0	0	0	0	0	0	0	4771	4771	4706	4706	4706	4706	4706	4706	4706	4706	4706	4706	4706	4643	4643	4643	4643	4643	4581	4581	4581	4521	4463	4406	4350	4350	4350	4350	4296	4350	4350	4406	4463	4463	4463	4463	4463	4463	4406	4406	4406	4406	4406	4463	4463	4463	4463	4463	4463	4463	4463	4463	4463	4463	4463	4463	4463	4463	4463	4463	4463	4406	4406	4406	4406	4406	4406	4406	4406	4406	4406	4406	4406	4406	4406	4406	4406	4406	4406	4406	4406	4406	4406	4406	4406	4406	4406	4406	4406	4406	4406	4406	4406	4406	4406	4406	4406	4406	4406	4406	4406	4406	4406	4406	4350	4406	4350	4350	4350	4406	4350	4406	4350	4350	4350	4406	4406	4350	4350	4350	4406	4406	4406	4406	4406	4406	4406	4406	4406	4406	4406	4350	4350	4350	4350	4350	4350	4350	4350	4350	4350	4350	4350	4350	4350	4350	4350	4350	4406	4406	4406	4406	4406	4406	4406	4406	4406	4350	4350	4350	4350	4406	4350	4406	4406	4406	4463	4581	4643	4643	4643	4643	4581	4581	4521	4463	4406	4406	4406	4406	4406	4463	4463	4463	4463	4463	4406	4406	4406	4406	4406	4406	4406	4406	4463	4463	4521	4521	4581	0	0	0	2460	2460	2460	2460	2460	2460	2460	2460	2460	2443	2426	2409	2426	2426	2409	2409	2409	2409	2409	2426	2409	2409	2409	2409	2392	2392	2376	2376	2359	2376	2376	2392	2392	2392	2392	2392	2392	2376	2376	2376	2376	2359	2359	2392	2409	2409	2409	2392	2392	2392	2392	2392	2392	2376	2376	0	0	0	0	0	0	0	0	0	2551	2551	2532	2514	2514	2496	2496	2478	2460	2460	2443	2443	2443	0	0	0	0	0	0	0	0	0	0	0	0	0	0	0	0	0	0	0	0	0	0	0	0	0	0	0	0	0	0	0	0	0	0
0	0	0	0	0	0	0	889	891	898	901	903	908	910	910	913	917	922	927	927	930	937	937	937	940	945	948	948	953	955	958	961	963	966	969	969	972	985	991	991	997	1000	1000	1003	1003	1011	1014	1023	1026	1030	1030	1033	1039	1045	1052	1058	1061	1064	1064	1064	1068	1071	1071	1071	1074	1074	1074	0	0	0	0	0	0	0	0	4142	4142	4192	4192	4192	4243	4243	4243	4243	4243	4243	4243	4243	4243	4243	4243	4243	4243	4296	4296	4296	4643	4706	4706	4706	4706	4771	4771	4771	4771	4771	4771	4706	4706	4706	4706	4643	4643	4643	4643	4706	4706	4706	4706	4706	4706	4706	4706	4706	4706	4706	4706	4706	4706	4706	4706	4706	4706	4706	4643	4706	4706	4706	4643	4643	4706	4706	4643	4643	4643	6468	6468	6349	6349	6349	6349	6235	6235	6235	6235	6349	6349	6349	6349	6349	6349	6468	6468	6349	6468	6468	6468	6468	6468	6468	6235	6235	0	0	5535	5535	5535	5535	0	0	0	0	0	0	0	0	0	0	0	0	0	0	0	0	0	0	0	0	0	0	0	0	0	0	0	0	0	0	0	0	0	0	0	0	0	0	0	0	0	0	0	0	0	0	0	0	0	0	0	0	0	0	0	0	0	0	0	0	0	0	0	0	0	0	0	0	0	0	0	3779	3779	3779	3779	3779	3779	3779	3779	3821	3821	3821	3821	3821	3821	3821	3864	3907	3907	3864	3864	0	0	3907	3907	3821	3821	3779	3779	3779	3821	3821	3821	3821	3864	3864	3864	3907	3907	3907	4463	4463	4463	4463	4463	4463	4463	4521	4521	4521	4521	4463	4463	4463	4463	4463	4521	4521	4521	3952	3952	3952	0	4581	4581	4521	4581	4643	4643	4643	4643	0	0	0	0	0	0	0	0	4706	4706	4706	4706	4706	4706	4706	4706	4706	4706	4706	4706	4706	4643	4581	4643	4643	4643	4581	4581	4581	4521	4463	4350	4350	4296	4296	4296	4296	4350	4350	4406	4463	4463	4463	4463	4406	4463	4406	4406	4406	4406	4406	4463	4463	4463	4463	4463	4463	4463	4463	4463	4463	4463	4463	4463	4463	4463	4463	4463	4463	4406	4406	4406	4406	4406	4406	4406	4406	4406	4406	4406	4406	4406	4406	4406	4406	4406	4406	4406	4406	4406	4406	4406	4406	4406	4406	4406	4406	4406	4406	4406	4406	4406	4406	4406	4406	4406	4406	4406	4406	4406	4406	4406	4406	4406	4406	4406	4406	4406	4406	4406	4350	4350	4350	4406	4406	4406	4406	4406	4406	4406	4406	4406	4406	4406	4406	4406	4406	4406	4406	4350	4350	4350	4350	4350	4350	4406	4350	4350	4350	4350	4350	4350	4350	4350	4350	4350	4350	4406	4406	4350	4406	4350	4406	4350	4350	4350	4350	4350	4350	4406	4406	4406	4406	4463	4463	4581	4643	4643	4643	4643	4581	4581	4521	4463	4463	4463	4406	4406	4463	4406	4463	4521	4463	4463	4406	4406	4406	4406	4406	4406	4406	4463	4463	4521	4521	4581	4581	0	0	0	2460	2460	2460	2460	2460	2460	2460	2460	2460	2443	2443	2426	2426	2443	2409	2426	2409	2426	2409	2426	2409	2409	2409	2409	2409	2392	2392	2376	2376	2392	2376	2392	2392	2409	2392	2392	2392	2392	2392	2376	2376	2376	2392	2392	2409	2409	2409	2392	2392	2392	2392	2392	2392	2392	2392	2392	0	0	0	0	0	0	0	0	2551	2551	2514	2514	2496	2478	2478	2478	2460	2460	2443	2443	2443	0	0	0	0	0	0	0	0	0	0	0	0	0	0	0	0	0	0	0	0	0	0	0	0	0	0	0	0	0	0	0	0	0	0
0	0	0	0	0	0	0	891	891	898	901	905	905	910	913	913	917	922	930	930	935	940	937	937	942	945	948	948	953	955	958	961	963	969	969	972	969	988	991	991	997	1000	1003	1003	1003	1011	1023	1023	1026	1030	1033	1036	1039	1052	1055	1058	1061	1064	1064	1064	1068	1071	1071	1074	1074	1074	1074	0	0	0	0	0	0	0	4192	4192	4192	4192	4192	4192	4243	4243	4243	4243	4243	4243	4243	4243	4243	4243	4243	4243	4243	4296	4296	4350	4643	4706	4706	4771	4771	4771	4771	4771	4771	4771	4771	4706	4706	4643	4643	4643	4643	4643	4643	4706	4706	4706	4706	4706	4706	4706	4706	4706	4706	4706	4706	4706	4706	4706	4706	4706	4706	4643	4643	4643	4706	4643	4643	4643	4706	4643	4643	4643	4643	6468	6468	6349	6235	6235	6235	6235	6124	6235	6124	6124	6349	6349	6349	6468	6468	6468	6468	6468	6468	6468	6468	0	6468	6468	0	0	0	0	5535	5535	5535	0	0	0	0	0	0	0	0	0	0	0	0	0	0	0	0	0	0	0	0	0	0	0	0	0	0	0	0	0	0	0	0	0	0	0	0	0	0	0	0	0	0	0	0	0	0	0	0	0	0	0	0	0	0	0	0	0	0	0	0	0	0	0	0	0	0	0	0	0	0	0	0	3779	3779	3779	3779	3779	3779	3779	3779	3821	3821	3821	3864	3821	3821	3821	3864	3864	3864	0	0	0	0	0	3779	3821	3779	3779	3779	3779	3779	3779	3779	3821	3821	3864	3821	3864	3864	3864	4406	4406	4406	4406	4406	4463	4463	4521	4521	4521	4521	4521	4521	4463	4463	4406	4406	4406	4406	3952	3952	3952	3952	0	0	0	0	0	0	0	0	0	0	0	0	0	0	0	0	4706	4706	4706	4706	4706	4706	4706	4706	4706	4706	4706	4706	4706	4643	4643	4643	4643	4643	4581	4581	4581	4521	4463	4406	4350	4350	4350	4350	4350	4350	4350	4406	4463	4463	4463	4406	4406	4463	4406	4406	4406	4406	4463	4463	4463	4463	4463	4463	4463	4463	4463	4463	4463	4463	4463	4463	4463	4463	4463	4463	4406	4406	4406	4406	4406	4406	4406	4406	4406	4406	4406	4406	4406	4406	4406	4406	4406	4406	4406	4406	4406	4406	4406	4406	4406	4406	4406	4406	4406	4406	4406	4406	4406	4406	4406	4406	4406	4406	4406	4406	4406	4406	4406	4406	4406	4406	4406	4350	4406	4406	4406	4406	4406	4350	4406	4406	4406	4350	4350	4406	4406	4406	4406	4406	4406	4406	4406	4406	4406	4406	4406	4350	4350	4350	4350	4350	4350	4350	4350	4350	4350	4350	4350	4350	4350	4350	4350	4350	4406	4406	4406	4350	4406	4350	4350	4350	4350	4350	4350	4350	4350	4406	4406	4406	4406	4463	4521	4581	4643	4643	4643	4581	4521	4581	4521	4463	4463	4463	4406	4406	4463	4406	4521	4521	4463	4463	4463	4406	4406	4350	4350	4406	4406	4406	4406	4463	4521	4521	4521	0	0	0	2460	2460	2460	2460	2478	2460	2460	2460	2460	2443	2443	2443	2426	2443	2426	2426	2426	2409	2409	2409	2409	2409	2409	2409	2392	2392	2392	2392	2376	2376	2376	2392	2392	2409	2392	2392	2392	2392	2392	2376	2392	2392	2392	2392	2409	2392	2392	2392	2392	2392	2392	2392	2392	2392	2392	2392	0	0	0	0	0	0	0	0	2551	2551	2532	2532	2514	2478	2478	2478	2460	2460	2443	2443	2443	0	0	0	0	0	0	0	0	0	0	0	0	0	0	0	0	0	0	0	0	0	0	0	0	0	0	0	0	0	0	0	0	0	0
0	0	0	0	0	0	0	889	891	891	905	905	908	910	910	913	920	925	930	930	935	940	937	940	942	945	945	948	953	955	961	963	966	969	972	972	972	985	991	994	997	1000	1000	1003	1003	1008	1023	1026	1030	1033	1036	1039	1042	1055	1058	1061	1061	1061	1064	1064	1071	1071	1074	1074	1074	1074	0	0	0	0	0	0	0	0	4243	4243	4192	4192	4243	4243	4243	4243	4243	4243	4243	4243	4243	4243	4243	4243	4243	4243	4243	4296	4296	4350	4706	4706	4706	4771	4771	4771	4771	4771	4771	4771	4771	4643	4643	4643	4643	4643	4643	4643	4643	4643	4643	4643	4706	4706	4706	4706	4706	4706	4706	4771	4706	4706	4706	4706	4706	4706	4706	4706	4643	4706	4706	4706	4643	4706	4706	4706	4706	4643	4643	4643	6468	6349	6235	6235	6235	6124	6124	6124	6124	6124	6349	6349	6468	6468	6468	6468	6468	6468	6468	0	0	0	0	0	0	0	0	0	0	0	0	0	0	0	0	0	0	0	0	0	0	0	0	0	0	0	0	0	0	0	0	0	0	0	0	0	0	0	0	0	0	0	0	0	0	0	0	0	0	0	0	0	0	0	0	0	0	0	0	0	0	0	0	0	0	0	0	0	0	0	0	0	0	0	0	0	0	0	0	0	0	0	0	3779	3779	3738	3779	3779	3779	3779	3779	3779	3821	3821	3864	3821	3821	3821	3821	3821	3864	0	0	0	0	0	3779	3821	3821	3779	3779	3779	3779	3779	3779	3779	3821	3821	3821	3821	3821	3821	4463	4463	4406	4406	4463	4463	4463	4521	4521	4521	4521	4521	4521	4463	4406	4406	4350	4350	4406	3907	3952	3952	3952	0	0	0	0	0	0	0	0	0	0	0	0	0	0	0	0	0	0	4706	4706	4706	4706	4643	4706	4706	4706	4706	4771	4706	4706	4643	4643	4643	4643	4581	4581	4521	4463	4406	4406	4350	4350	4350	4350	4350	4406	4406	4406	4463	4463	4463	4463	4406	4463	4463	4463	4463	4406	4406	4463	4463	4463	4406	4406	4463	4463	4463	4463	4463	4463	4463	4463	4463	4463	4463	4463	4406	4406	4406	4406	4406	4406	4406	4406	4406	4406	4406	4406	4406	4406	4406	4406	4406	4406	4406	4406	4406	4406	4406	4406	4406	4406	4406	4406	4406	4406	4406	4406	4406	4406	4406	4406	4406	4406	4406	4406	4406	4406	4406	4406	4463	4463	4406	4406	4406	4406	4406	4406	4406	4350	4406	4406	4406	4406	4350	4406	4406	4406	4406	4406	4406	4406	4406	4406	4406	4406	4406	4350	4350	4350	4350	4406	4350	4350	4350	4296	4350	4350	4350	4350	4350	4350	4350	4350	4406	4406	4406	4350	4406	4350	4350	4350	4350	4350	4350	4350	4406	4406	4350	4406	4406	4406	4463	4581	4643	4643	4643	4581	4521	4581	4521	4463	4463	4521	4406	4406	4406	4406	4521	4521	4521	4521	4463	4350	4350	4350	4350	4350	4406	4406	4406	4463	4406	4521	4521	0	0	0	2460	2460	2460	2460	2460	2460	2460	2460	2460	2443	2443	2443	2426	2426	2426	2426	2426	2426	2409	2426	2409	2409	2409	2409	2409	2392	2392	2392	2392	2376	2392	2392	2392	2392	2392	2392	2392	2392	2392	2376	2376	2376	2392	2376	2392	2392	2392	2392	2392	2392	2392	2392	2392	2392	2392	2392	0	0	0	0	0	0	0	2570	2551	2551	2532	2532	2514	2478	2478	2460	2460	2460	2443	2443	2443	0	0	0	0	0	0	0	0	0	0	0	0	0	0	0	0	0	0	0	0	0	0	0	0	0	0	0	0	0	0	0	0	0	0
0	0	0	0	0	0	0	891	894	905	905	908	908	910	910	913	920	925	930	932	935	940	937	940	942	945	945	948	950	958	961	963	966	969	972	972	969	988	991	991	997	997	1000	1003	1006	1011	1014	1030	1033	1033	1036	1039	1042	1052	1058	1058	1061	1061	1061	1064	1068	1071	1071	1074	1074	1074	0	0	0	0	0	0	0	0	4243	4243	4243	4192	4243	4243	4243	4243	4243	4243	4243	4243	4243	4243	4243	4243	4243	4243	4243	4243	4296	4350	4706	4706	4706	4771	4771	4771	4771	4838	4838	4838	4771	4706	4706	4643	4643	4643	4643	4643	4643	4706	4643	4706	4706	4706	4706	4706	4706	4706	4706	4771	4771	4706	4706	4706	4706	4706	4706	4706	4706	4706	4706	4706	4706	4706	4706	4706	4706	4643	4643	4643	6592	6349	6235	6124	6124	6018	6018	6124	0	0	0	6349	6468	6468	6468	6468	6468	6468	0	0	0	0	0	0	0	0	0	0	0	0	0	0	0	0	0	0	0	0	0	0	0	0	0	0	0	0	0	0	0	0	0	0	0	0	0	0	0	0	0	0	0	0	0	0	0	0	0	0	0	0	0	0	0	0	0	0	0	0	0	0	0	0	0	0	0	0	0	0	0	0	0	0	0	0	0	0	0	0	0	0	0	0	0	3738	3738	3738	3738	3738	3738	3779	3779	3779	3779	3779	3821	3821	3821	3864	3864	3821	0	0	0	0	0	0	0	3779	3779	3779	3779	3779	3779	3779	3779	3779	3821	3821	3821	3821	3821	3821	4463	4463	4463	4406	4463	4463	4463	4521	4521	4521	4521	4521	4521	4463	4463	4350	4350	3998	3998	3907	3907	3907	3907	0	0	0	0	0	0	0	0	0	0	0	0	0	0	0	0	0	0	0	0	0	0	4643	4706	4706	4706	4771	4771	4771	4706	4706	4706	4706	4706	4643	4581	4581	4463	4406	4406	4350	4350	4350	4350	4350	4406	4406	4406	4463	4463	4463	4463	4463	4463	4463	4463	4463	4463	4406	4406	4406	4406	4350	4406	4406	4406	4406	4406	4463	4463	4463	4463	4406	4463	4406	4406	4406	4350	4350	4406	4406	4406	4406	4406	4406	4406	4406	4406	4406	4406	4406	4406	4406	4406	4406	4406	4406	4406	4406	4406	4406	4406	4406	4406	4406	4406	4406	4406	4406	4406	4406	4406	4406	4406	4406	4406	4406	4406	4406	4463	4463	4463	4406	4406	4406	4406	4406	4406	4406	4350	4406	4406	4406	4406	4350	4406	4406	4406	4406	4406	4406	4406	4406	4406	4406	4406	4406	4350	4350	4350	4406	4406	4350	4350	4350	4350	4350	4350	4350	4350	4350	4350	4350	4406	4406	4406	4406	4406	4406	4350	4406	4406	4350	4350	4350	4350	4350	4350	4350	4350	4350	4406	4463	0	0	0	0	0	0	0	0	0	0	4521	4406	4406	4406	0	0	0	4521	4521	0	4350	4296	4296	4350	4350	4350	4406	4406	4406	4406	4406	4521	0	0	0	2460	2460	2460	2460	2460	2460	2443	2460	2460	2443	2443	2443	2426	2426	2426	2426	2426	2409	2409	2409	2409	2409	2409	2409	2409	2409	2392	2392	2392	2392	2392	2392	2392	2392	2392	2392	2392	2392	2392	2376	2376	2376	2392	2376	2376	2392	2392	2392	2392	2392	2392	2392	2392	2392	2392	2392	0	0	0	0	0	0	0	2551	2551	2532	2532	2532	2514	2478	2478	2460	2460	2460	2443	2443	2443	0	0	0	0	0	0	0	0	0	0	0	0	0	0	0	0	0	0	0	0	0	0	0	0	0	0	0	0	0	0	0	0	0	0
0	0	0	0	0	0	0	896	898	905	905	905	908	908	910	913	922	925	927	930	932	937	937	940	942	945	945	948	950	958	961	966	969	972	972	972	980	988	991	994	1000	1000	1003	1006	1008	1011	1023	1030	1033	1033	1036	1036	1042	1052	1058	1058	1061	1061	1061	1061	1064	1068	1068	1071	1071	1074	0	0	0	0	0	0	0	4243	4243	4243	4243	4192	4243	4243	4243	4296	4243	4296	4296	4296	4243	4296	4243	4243	4243	4243	4243	4296	4296	4296	4706	4771	4771	4771	4771	4771	4771	4771	4906	4906	4771	4643	4643	4643	4643	4643	4643	4643	4643	4706	4706	4706	4706	4706	4771	4771	4706	4706	4706	4771	4771	4706	4706	4706	4706	4771	4706	4706	4706	4706	4706	4706	4706	4706	4706	4706	4706	4706	4643	4643	6592	6349	6124	6124	6124	6018	6018	0	0	0	0	0	0	0	0	0	0	0	0	0	0	0	0	0	0	0	0	0	0	0	0	0	0	0	0	0	0	0	0	0	0	0	0	0	0	0	0	0	0	0	0	0	0	0	0	0	0	0	0	0	0	0	0	0	0	0	0	0	0	0	0	0	0	0	0	0	0	0	0	0	0	0	0	0	0	0	0	0	0	0	0	0	0	0	0	0	0	0	0	0	0	0	3738	3738	3738	3738	3738	3738	3738	3738	3738	3779	3779	3821	3864	3864	3864	3864	3864	0	0	0	0	0	0	0	0	3779	3779	3779	3779	3779	3779	3779	3779	3779	3779	3779	3779	3779	3821	3821	3821	4521	4463	4406	4406	4406	4463	4463	4521	4521	4463	4463	4521	4463	4350	4243	4093	3998	3998	3998	3952	3907	3907	0	0	0	0	0	0	0	0	0	0	0	0	0	0	0	0	0	0	0	0	0	0	0	0	4706	4706	4771	4771	4771	4706	4706	4706	4706	4706	4643	4581	4581	4581	4463	4406	4406	4406	4406	4406	4406	4463	4406	4463	4463	4406	4463	4463	4406	4406	4463	4463	4463	4463	4406	4406	4406	4406	4350	4406	4406	4406	4406	4406	4406	4463	4463	4406	4350	4406	4406	4406	4406	4406	4406	4406	4406	4406	4406	4406	4406	4406	4406	4406	4406	4406	4406	4406	4406	4406	4406	4406	4406	4406	4406	4406	4406	4406	4406	4406	4406	4406	4406	4406	4406	4406	4406	4406	4406	4406	4406	4406	4406	4406	4406	4406	4463	4406	4406	4406	4463	4406	4406	4406	4406	4350	4406	4406	4350	4350	4350	4406	4406	4406	4406	4406	4406	4406	4463	4406	4406	4406	4406	4350	4350	4350	4406	4350	4350	4350	4350	4350	4296	4350	4350	4350	4350	4350	4406	4406	4406	4406	4406	4406	4406	4350	4350	4350	4350	4350	4350	4350	4406	4350	4350	4350	4350	0	0	0	0	0	0	0	0	0	0	0	0	0	0	0	0	0	0	0	0	0	0	0	4243	4296	4350	4350	4350	4350	4406	4406	4406	4406	0	0	0	0	2460	2460	2460	2443	2460	2460	2443	2460	2460	2443	2426	2426	2409	2409	2409	2409	2409	2409	2409	2409	2409	2409	2409	2409	2409	2392	2392	2392	2376	2376	2376	2392	2392	2392	2392	2392	2392	2392	2392	2376	2392	2392	2392	2392	2376	2392	2392	2392	2392	2392	2392	2392	2392	2392	2392	2392	0	0	0	0	0	0	0	2551	2551	2532	2532	2532	2514	2478	2460	2460	2460	2443	2443	2443	2443	0	0	0	0	0	0	0	0	0	0	0	0	0	0	0	0	0	0	0	0	0	0	0	0	0	0	0	0	0	0	0	0	0	0
0	0	0	0	0	0	0	894	898	905	905	908	908	910	913	915	920	922	925	930	932	937	937	940	940	942	945	948	955	958	961	963	969	969	972	977	985	988	991	994	1000	1000	1003	1003	1006	1014	1017	1023	1033	1033	1036	1039	1048	1052	1055	1058	1058	1061	1061	1061	1064	1064	1068	1071	1071	0	0	0	0	0	0	0	0	4243	4243	4243	4243	4192	4192	4243	4243	4243	4243	4243	4243	4243	4243	4296	4243	4243	4243	4243	4243	4296	4296	4706	4706	4771	4771	4771	4771	4771	4771	4771	4906	4906	4771	4643	4706	4643	4643	4643	4643	4643	4643	4706	4643	4643	4643	4706	4771	4771	4706	4706	4706	4771	4771	4706	4706	4706	4706	4771	4706	4706	4706	4706	4706	4706	4706	4706	4706	4706	4706	4706	4706	4643	0	6349	6124	6124	0	0	0	0	0	0	0	0	0	0	0	0	0	0	0	0	0	0	0	0	0	0	0	0	0	0	0	0	0	0	0	0	0	0	0	0	0	0	0	0	0	0	0	0	0	0	0	0	0	0	0	0	0	0	0	0	0	0	0	0	0	0	0	0	0	0	0	0	0	0	0	0	0	0	0	0	0	0	0	0	0	0	0	0	0	0	0	0	0	0	0	0	0	0	0	0	0	3738	3738	3738	3698	3698	3698	3698	3738	3738	3738	3779	3779	3821	3864	3864	3864	0	0	0	0	0	0	0	0	0	0	3779	3779	3779	3779	3779	3779	3779	3779	3779	3779	3779	3779	3779	3821	3821	3779	3779	4463	4463	4406	4406	4463	4463	4463	4463	4463	4463	4463	4406	4296	4243	4093	4045	4045	4045	3952	3907	3907	0	0	0	0	0	0	0	0	0	0	0	0	0	0	0	0	0	0	0	0	0	0	0	0	0	0	0	4771	4771	4771	4771	4771	4771	4706	4643	4581	4581	4581	4463	4406	4406	4406	4406	4406	4406	4463	4463	4463	4463	4406	4463	4463	4463	4463	4463	4463	4463	4463	4406	4406	4406	4350	4296	4350	4350	4350	4350	4350	4350	4406	4406	4406	4350	4406	4406	4463	4463	4406	4406	4406	4463	4406	4406	4406	4350	4406	4406	4406	4406	4406	4406	4406	4406	4406	4406	4406	4463	4406	4406	4406	4406	4406	4406	4406	4406	4406	4406	4406	4406	4406	4406	4406	4350	4350	4350	4406	4406	4406	4406	4406	4406	4406	4406	4406	4406	4406	4406	4406	4406	4406	4406	4406	4350	4350	4406	4406	4463	4406	4406	4463	4463	4463	4463	4406	4406	4406	4406	4350	4350	4350	4406	4406	4350	4350	4350	4350	4296	4296	4296	4350	4350	4350	4350	4406	4406	4406	4406	4406	4406	4350	4350	4350	4350	4350	4350	4350	4406	4406	4350	4350	0	0	0	0	0	0	0	0	0	0	0	0	0	0	0	0	0	0	0	0	0	0	0	0	4192	4192	4192	4350	4350	4350	4406	4406	4406	4406	0	0	0	0	2460	2460	2460	2460	2460	2460	2443	2443	2443	2443	2443	2426	2409	2409	2409	2409	2409	2409	2409	2409	2409	2409	2409	2409	2409	2392	2392	2392	2376	2376	2376	2376	2376	2376	2376	2376	2392	2376	2376	2376	2376	2392	2392	2392	2376	2392	2392	2392	2392	2376	2392	2392	2392	2392	2392	0	0	0	0	0	0	0	2532	2551	2532	2532	2532	2514	2496	2478	2460	2460	2460	2443	2443	2443	2443	0	0	0	0	0	0	0	0	0	0	0	0	0	0	0	0	0	0	0	0	0	0	0	0	0	0	0	0	0	0	0	0	0	0
0	0	0	0	0	0	0	898	901	905	905	908	910	910	915	917	922	925	925	930	932	937	937	940	940	945	945	948	955	958	958	958	961	969	974	977	983	988	988	991	997	1000	1003	1003	1011	1017	1020	1023	1030	1030	1036	1039	1048	1052	1055	1055	1055	1058	1061	1061	1064	1064	1068	1071	1071	0	0	0	0	0	0	0	0	4296	4296	4243	4243	4192	4243	4243	4243	4243	4243	4243	4243	4243	4243	4243	4243	4243	4243	4243	4243	4296	4296	4771	4771	4771	4771	4771	4771	4771	0	0	0	0	4771	4643	4643	4643	4643	4643	4643	4643	4643	4643	4643	4643	4643	4581	4581	4706	4706	4706	4706	4771	4771	4706	4706	4706	4771	4771	4706	4706	4706	4643	4706	4706	4706	4706	4706	4706	4706	4706	4706	0	0	0	0	0	0	0	0	0	0	0	0	0	0	0	0	0	0	0	0	0	0	0	0	0	0	0	0	0	0	0	0	0	0	0	0	0	0	0	0	0	0	0	0	0	0	0	0	0	0	0	0	0	0	0	0	0	0	0	0	0	0	0	0	0	0	0	0	0	0	0	0	0	0	0	0	0	0	0	0	0	0	0	0	0	0	0	0	0	0	0	0	0	0	0	0	0	0	0	0	0	0	3698	3698	3698	3698	3698	3698	3698	3698	3738	3738	3738	3779	0	0	0	0	0	0	0	0	0	0	0	0	0	0	3779	3779	3779	3779	3779	3779	3779	3779	3779	3779	3779	3779	3779	3779	3779	3779	3779	4406	4406	4406	4406	4406	4406	4350	4406	4406	4406	4463	4406	4243	4243	4045	3998	3998	3998	0	3907	3907	0	0	0	0	0	0	0	0	0	0	0	0	0	0	0	0	0	0	0	0	0	0	0	0	0	0	0	0	4771	4771	4771	4771	4771	4706	4643	4643	4581	4521	4406	4406	4406	4406	4463	4463	4463	4521	4463	4463	4463	4463	4521	4521	4463	4521	4521	4463	4521	4463	4406	4350	4350	4350	4296	4296	4296	4350	4350	4350	4350	4406	4463	4463	4463	4406	4406	4463	4406	4406	4406	4406	4463	4406	4406	4406	4350	4406	4350	4350	4406	4406	4406	4406	4406	4406	4406	4463	4463	4463	4463	4463	4406	4406	4406	4406	4406	4406	4406	4406	4406	4406	4406	4406	4350	4350	4350	0	4406	4406	4406	4406	4406	4406	4350	4350	4350	4350	4350	4406	4406	4406	4406	4406	4350	4350	4406	4406	4463	4406	4406	4463	4406	4406	4406	4406	4350	4406	4406	4350	4350	4350	4406	4406	4350	4350	4350	4296	4296	4296	4296	4350	4350	4350	4350	0	0	0	0	0	0	0	0	0	0	0	0	0	4406	4406	0	0	0	0	0	0	0	0	0	0	0	0	0	0	0	0	0	0	0	0	0	0	0	0	0	0	4192	4192	4192	0	0	0	0	0	0	0	0	0	0	0	2460	2460	2460	2460	2460	2443	2443	2443	2443	2443	2426	2426	2409	2409	2392	2392	2409	2409	2409	2409	2409	2409	2409	2409	2409	2392	2392	2392	2376	2376	2376	2376	2376	2376	2376	2376	2376	2376	2376	2376	2392	2392	2392	2376	2376	2376	2392	2376	2376	2376	2392	2392	2392	2392	2392	0	0	0	0	0	0	0	2532	2551	2532	2532	2532	2514	2496	2478	2460	2460	2460	2443	2443	2443	2443	0	0	0	0	0	0	0	0	0	0	0	0	0	0	0	0	0	0	0	0	0	0	0	0	0	0	0	0	0	0	0	0	0	0
0	0	0	0	0	0	0	898	901	903	905	908	910	913	917	920	922	925	925	927	930	935	935	940	945	948	942	953	955	958	958	958	966	969	974	977	983	983	988	991	997	997	1000	1003	1011	1017	1026	1030	1030	1030	1036	1039	1045	1052	1052	1055	1055	1058	1058	1061	1064	1064	1068	1068	1071	0	0	0	0	0	0	0	0	4296	4296	4243	4243	4243	4243	4243	4243	4243	4243	4243	4243	4243	4243	4243	4243	4243	4243	4243	4243	4296	4296	4771	4771	4706	4706	4771	4771	4771	0	0	0	0	4771	4643	4643	4643	4643	4643	4643	4643	4643	4643	4643	4643	0	4581	4581	4706	4643	4706	4706	4771	4771	4706	4706	4706	4771	4771	4706	4706	4643	4643	4706	4706	4706	4706	4706	4706	4706	0	0	0	0	0	0	0	0	0	0	0	0	0	0	0	0	0	0	0	0	0	0	0	0	0	0	0	0	0	0	0	0	0	0	0	0	0	0	0	0	0	0	0	0	0	0	0	0	0	0	0	0	0	0	0	0	0	0	0	0	0	0	0	0	0	0	0	0	0	0	0	0	0	0	0	0	0	0	0	0	0	0	0	0	0	0	0	0	0	0	0	0	0	0	0	0	0	0	0	0	0	0	0	0	3698	3698	3698	3698	3698	3698	3698	3698	3738	3738	3738	0	0	0	0	0	0	0	0	0	0	0	0	0	0	0	0	3779	3779	3738	3738	3779	3779	3779	3779	3779	3779	3779	3779	3821	3779	3779	3779	4350	4350	4350	4350	4350	4350	4296	4296	4406	4406	4463	4406	4243	4243	3998	3998	3998	3998	0	0	0	0	0	0	0	0	0	0	0	0	0	0	0	0	0	0	0	0	0	0	0	0	0	0	0	0	0	0	0	0	0	0	0	0	4706	4643	4643	4581	4521	4463	4406	4406	4521	4521	4521	4521	4521	4521	4521	4521	4521	4521	4581	4521	4521	4521	0	4521	4463	4406	4350	4350	4350	4243	4296	4296	0	0	0	0	0	4463	4463	4463	4406	4406	4463	4296	4296	0	0	0	0	0	0	0	0	4350	4350	4406	4406	4406	4406	4406	4406	4406	4463	4463	4463	4463	4463	4406	4406	4406	0	0	0	0	0	4406	4463	4406	4406	0	0	0	0	0	0	0	4463	4350	4350	4296	4296	4243	4243	4350	0	0	0	0	0	4350	4350	0	0	0	4406	4406	4463	4406	4463	4463	4406	4406	4406	4406	4350	4350	4350	4406	4350	4350	4350	4350	4296	4296	4296	4296	4350	4350	0	0	0	0	0	0	0	0	0	0	0	0	0	0	0	0	0	0	0	0	0	0	0	0	0	0	0	0	0	0	0	0	0	0	0	0	0	0	0	0	0	0	0	0	0	0	0	0	0	0	0	0	0	0	0	0	2460	2460	2460	2460	2443	2443	2443	2443	2426	2426	2426	2426	2409	2409	2392	2392	2392	2409	2409	2409	2409	2409	2409	2409	2409	2409	2409	2392	2392	2376	2376	2376	2376	2359	2359	2359	2376	2376	2376	2376	2376	2376	2392	2392	2376	2376	2376	2392	2376	2392	2376	2392	2392	2392	2392	0	0	0	0	0	0	0	2551	2551	2551	2532	2532	2532	2532	2514	2478	2460	2460	2460	2443	2443	2426	2426	0	0	0	0	0	0	0	0	0	0	0	0	0	0	0	0	0	0	0	0	0	0	0	0	0	0	0	0	0	0	0	0	0	0
0	0	0	0	0	0	0	898	901	903	905	908	910	913	917	920	922	925	925	927	930	932	935	937	940	950	950	953	955	955	958	958	961	969	974	974	985	988	988	991	997	997	1000	1006	1014	1017	1023	1026	1030	1030	1036	1039	1045	1052	1052	1052	1055	1058	1061	1061	1064	1064	1071	1071	0	0	0	0	0	0	0	0	0	4296	4296	4243	4243	4243	4243	4243	4243	4243	4243	4243	4243	4243	4243	4243	4243	4243	4243	4243	4243	4243	4243	0	0	4706	4706	0	0	0	0	0	0	0	4771	4643	4643	4643	4643	4643	4643	4643	4643	4643	4643	0	0	0	0	4706	4643	4643	4706	4706	4771	4706	4706	4706	4706	4706	4706	4643	4643	4643	4643	4643	4706	4706	0	0	0	0	0	0	0	0	0	0	0	0	0	0	0	0	0	0	0	0	0	0	0	0	0	0	0	0	0	0	0	0	0	0	0	0	0	0	0	0	0	0	0	0	0	0	0	0	0	0	0	0	0	0	0	0	0	0	0	0	0	0	0	0	0	0	0	0	0	0	0	0	0	0	0	0	0	0	0	0	0	0	0	0	0	0	0	0	0	0	0	0	0	0	0	0	0	0	0	0	0	0	0	0	0	0	0	0	3698	3659	3738	3698	3698	3738	3738	3738	3738	0	0	0	0	0	0	0	0	0	0	0	0	0	0	0	0	0	3779	3779	3738	3738	3738	3738	3738	3738	3779	3779	3779	3779	3779	3779	3779	3779	4350	4350	4350	4350	4350	4296	4296	4296	0	0	0	0	0	0	3907	3907	3998	0	0	0	0	0	0	0	0	0	0	0	0	0	0	0	0	0	0	0	0	0	0	0	0	0	0	0	0	0	0	0	0	0	0	0	0	0	0	0	0	0	4521	4463	4406	4406	4521	4463	4463	4463	4521	4521	4521	4521	4521	4521	4581	4581	4521	0	0	0	0	0	0	0	0	4243	4296	4296	0	0	0	0	0	0	0	0	0	0	0	4296	4296	0	0	0	0	0	0	0	0	0	0	0	0	0	0	0	0	0	0	0	0	0	0	0	0	0	0	0	0	0	0	0	4463	4406	4406	0	0	0	0	0	0	0	4463	4350	4296	4296	4296	4243	4243	0	0	0	0	0	0	0	0	0	0	0	0	0	0	0	4463	4463	4406	4406	0	0	0	4350	4350	4406	4350	4350	4350	4350	4296	4296	0	0	0	0	0	0	0	0	0	0	0	0	0	0	0	0	0	0	0	0	0	0	0	0	0	0	0	0	0	0	0	0	0	0	0	0	0	0	0	0	0	0	0	0	0	0	0	0	0	0	0	0	0	0	0	0	0	0	0	0	2460	2460	2460	2460	2443	2443	2426	2426	2426	2426	2409	2392	2392	2392	2376	2376	2392	2392	2392	2392	2409	2409	2409	2409	2409	2409	2409	2409	2392	2392	2376	2376	2359	2359	2359	2359	2376	2376	2376	2359	2359	2376	2376	2392	2376	2376	2376	2392	2376	2376	2376	2376	2392	2392	0	0	0	0	0	0	0	0	2551	2551	2551	2532	2532	2532	2532	2514	2478	2460	2460	2460	2443	2443	2426	2426	0	0	0	0	0	0	0	0	0	0	0	0	0	0	0	0	0	0	0	0	0	0	0	0	0	0	0	0	0	0	0	0	0	0
