0	0	0	0	0	0	0	0	0	0	0	0	0	0	0	0	0	0	0	0	0	0	0	0	0	0	0	0	0	0	0	0	0	0	0	0	0	0	0	0	0	0	0	0	0	0	0	0	0	0	0	0	0	0	0	0	0	0	0	0	0	0	0	0	0	0	0	0	0	0	0	0	0	0	0	0	0	0	0	0	0	0	0	0	0	0	0	0	0	0	0	0	0	0	0	0	0	0	0	0	0	2114	2114	2127	2127	2127	2127	2127	2127	2114	2114	2114	2114	2114	2114	2114	2114	2127	2127	2127	2127	2127	2114	2127	2114	2114	2114	2114	2114	2114	2114	2114	2114	2114	2114	2114	2114	2114	2114	2114	2114	2114	2114	2114	2114	2114	2114	2127	2114	2127	2114	2127	2127	2127	2127	2114	2114	2114	2114	2114	2114	2114	2114	2114	2114	2127	2127	2140	2153	2181	2181	2194	2208	2223	2252	2252	2266	2297	2297	2327	2343	2359	2376	2392	2409	2426	2443	2443	2478	2496	2496	2496	2496	0	0	0	0	5448	5364	5364	5364	5448	5448	5448	5364	5282	5282	5282	5282	5282	5282	5448	5448	5364	5282	5364	5364	5364	5364	5364	5364	5364	5282	5282	5282	5202	5202	5202	5202	5282	5282	5364	5364	5282	5282	5282	5282	5202	5202	5202	5202	0	0	0	0	0	0	0	0	0	0	0	0	0	0	0	0	0	0	0	0	0	0	0	0	5364	5364	5364	0	5364	5364	0	0	0	0	0	0	0	0	0	0	0	0	0	0	0	0	0	5626	5626	0	0	0	0	0	0	0	5364	5364	5364	5448	5364	5364	5282	5282	5282	5282	5282	5282	5282	5282	5282	5282	5364	5364	5448	5448	5448	5364	5364	5364	5364	5364	5364	5364	5364	5364	5448	5448	5448	5364	5364	5448	5364	5364	5364	5364	5364	5364	5364	5364	5364	5364	5364	5364	5364	5364	5364	5364	5364	5364	5364	5364	5364	5364	5364	5364	5448	5364	5364	5364	5364	5364	5364	5364	5364	5448	5364	5364	5364	5364	5364	5364	5364	5364	5364	5364	5364	5364	5364	5448	0	0	0	0	0	0	0	0	0	0	0	0	0	0	0	0	0	0	0	0	0	0	0	0	0	0	0	0	0	0	0	0	0	0	1277	1277	1277	1272	1272	1272	1268	1268	1268	1268	1263	1263	1263	1263	1268	1263	1263	1268	1268	1272	1272	1272	1277	1277	1277	1282	1282	1282	1287	1296	1296	1301	1301	1311	1311	1316	1321	1326	1331	1336	1336	1336	1342	1342	1342	1342	1347	1352	1358	1358	1363	1368	1374	1374	1374	1374	1379	1379	1379	1385	1385	1385	1390	1390	1390	1396	1396	1396	1396	1402	1402	1402	1402	1402	1396	1402	1402	0	0	0	1127	1123	1116	1113	1109	1105	1098	1098	1095	1088	1085	1085	1081	1078	1074	1071	1071	1068	1068	1061	1058	1055	1052	1052	1052	1048	1045	1042	1039	1039	1036	1036	1033	1033	1030	1030	1020	1014	1011	1008	1006	1006	1006	1003	1003	1003	1003	1000	1000	997	994	988	988	985	983	983	983	980	980	977	977	977	977	974	974	974	974	974	977	977	977	977	977	977	977	974	974	972	972	969	969	969	969	969	969	969	969	969	969	966	966	966	966	966	969	969	966	966	966	0	0	0	0	0	0	0	0	0	0	0	0	0	0	0	0	0	0	0	0	0	0	0	0	0	0	0	0	0	0	0	0	0	0	0	0	0	0	0	0	0	0	0	0	0	0
0	0	0	0	0	0	0	0	0	0	0	0	0	0	0	0	0	0	0	0	0	0	0	0	0	0	0	0	0	0	0	0	0	0	0	0	0	0	0	0	0	0	0	0	0	0	0	0	0	0	0	0	0	0	0	0	0	0	0	0	0	0	0	0	0	0	0	0	0	0	0	0	0	0	0	0	0	0	0	0	0	0	0	0	0	0	0	0	0	0	0	0	0	0	0	0	0	0	0	0	0	2114	2114	2127	2127	2127	2127	2127	2127	2114	2114	2114	2114	2114	2114	2114	2114	2127	2127	2127	2127	2127	2127	2114	2114	2114	2114	2114	2114	2101	2114	2114	2114	2114	2101	2114	2114	2114	2114	2114	2114	2114	2114	2114	2114	2114	2114	2114	2114	2114	2114	2114	2127	2127	2127	2127	2127	2114	2114	2114	2114	2114	2114	2114	2114	2114	2127	2140	2153	2181	2181	2194	2208	2237	2252	2252	2266	2297	2312	2327	2359	2376	2392	2392	2409	2443	2443	2460	2496	2514	2514	2514	2570	2570	2570	0	5448	5448	5448	5448	5448	5448	5448	5448	5448	5448	5364	5364	5364	5364	5364	5448	5448	5364	5364	5364	5364	5364	5448	5364	5364	5364	5364	5364	5282	5202	5282	5282	5282	5282	5364	5364	5364	5282	5282	5282	5282	5282	5282	5282	5202	0	0	0	0	0	0	0	0	0	0	0	0	0	0	0	0	0	0	0	0	0	0	0	0	5364	5364	0	0	0	0	0	0	0	0	0	0	0	0	0	0	0	0	0	0	0	0	0	5626	5626	0	0	0	0	0	0	5535	5448	5448	5448	5448	5364	5364	5364	5364	5364	5364	5282	5282	5364	5364	5364	5364	5364	5364	5448	5448	5448	5364	5364	5364	5364	5364	5364	5364	5448	5448	5448	5448	5448	5448	5448	5448	5448	5364	5364	5364	5364	5364	5364	5364	5364	5364	5364	5364	5364	5364	5364	5364	5364	5364	5364	5364	5364	5364	5448	5364	5448	5364	5364	5364	5448	5364	5364	5364	5448	5448	5448	5364	5364	5364	5364	5364	5364	5364	5364	5364	5364	5448	5448	0	0	0	0	0	0	0	0	0	0	0	0	0	0	0	0	0	0	0	0	0	0	0	0	0	0	0	0	0	0	0	0	0	0	0	1277	1277	1277	1272	1272	1272	1272	1268	1272	1268	1268	1263	1263	1268	1268	1263	1263	1263	1263	1268	1272	1272	1277	1277	1277	1282	1282	1282	1287	1296	1296	1301	1301	1311	1311	1316	1321	1326	1331	1336	1342	1342	1342	1342	1342	1342	1347	1352	1352	1358	1363	1363	1374	1374	1374	1374	1379	1379	1379	1385	1385	1385	1390	1390	1390	1396	1396	1402	1402	1402	1402	1402	1402	1402	1402	1402	1402	1402	1402	0	0	1123	1120	1113	1113	1105	1102	1098	1095	1091	1088	1085	1081	1081	1078	1074	1071	1068	1064	1061	1058	1055	1055	1052	1052	1052	1045	1042	1039	1039	1036	1036	1033	1033	1030	1026	1020	1014	1014	1008	1006	1006	1003	1003	1003	1003	1000	1000	997	994	991	988	988	985	983	983	980	980	980	980	977	977	977	977	977	977	977	977	977	977	977	977	977	977	977	974	974	974	977	972	972	969	969	969	969	966	966	966	969	966	966	969	966	966	969	969	969	966	966	0	0	0	0	0	0	0	0	0	0	0	0	0	0	0	0	0	0	0	0	0	0	0	0	0	0	0	0	0	0	0	0	0	0	0	0	0	0	0	0	0	0	0	0	0	0
0	0	0	0	0	0	0	0	0	0	0	0	0	0	0	0	0	0	0	0	0	0	0	0	0	0	0	0	0	0	0	0	0	0	0	0	0	0	0	0	0	0	0	0	0	0	0	0	0	0	0	0	0	0	0	0	0	0	0	0	0	0	0	0	0	0	0	0	0	0	0	0	0	0	0	0	0	0	0	0	0	0	0	0	0	0	0	0	0	0	0	0	0	0	0	0	0	0	0	0	0	2127	2127	2127	2140	2127	2127	2127	2127	2114	2114	2114	2114	2114	2114	2114	2114	2127	2127	2127	2127	2127	2127	2114	2114	2114	2114	2114	2114	2114	2114	2114	2114	2114	2101	2101	2114	2114	2114	2114	2114	2114	2114	2114	2114	2114	2114	2114	2114	2114	2114	2114	2127	2127	2127	2127	2127	2114	2114	2114	2114	2114	2114	2114	2114	2127	2127	2140	2153	2167	2181	2194	2208	2237	2252	2266	2266	2297	2312	2327	2359	2359	2376	2392	2409	2426	2443	2460	2496	2514	2514	2551	2570	2570	2570	0	5448	5448	5448	5448	5448	5448	5448	5448	5448	5448	5364	5282	5364	5282	5364	5448	5448	5448	5448	5448	5448	5448	5448	5448	5364	5364	5364	5364	5364	5282	5282	5364	5364	5364	5364	5364	5364	5364	5282	5282	5282	5282	5282	5282	5282	0	0	0	0	0	0	0	0	0	0	0	0	0	0	0	0	0	0	0	0	0	0	0	0	0	0	0	0	0	0	0	0	0	0	0	0	0	0	0	0	0	0	0	0	0	0	0	0	0	0	0	0	0	0	0	5364	5364	5364	5364	5448	5448	5448	5364	5364	5364	5364	5364	5364	5364	5364	5364	5364	5364	5364	5448	5448	5448	5448	5448	5448	5364	5364	5364	5364	5448	5448	5448	5448	5448	5448	5448	5448	5448	5364	5448	5364	5364	5364	5364	5364	5364	5364	5364	5364	5364	5364	5364	5364	5364	5364	5364	5364	5364	5364	5448	5364	5448	5448	5364	5364	5448	5364	5448	5448	5448	5448	5448	5448	5448	5364	5448	5364	5364	5364	5448	5448	5364	5448	5448	0	0	0	0	0	0	0	0	0	0	0	0	0	0	0	0	0	0	0	0	0	0	0	0	0	0	0	0	0	0	0	0	0	0	0	1277	1277	1272	1272	1272	1272	1268	1268	1268	1263	1263	1263	1263	1263	1263	1259	1263	1263	1268	1268	1272	1272	1272	1277	1277	1282	1282	1282	1287	1296	1301	1301	1301	1311	1316	1316	1326	1331	1336	1342	1342	1342	1342	1342	1342	1347	1352	1352	1352	1358	1358	1363	1368	1374	1374	1374	1379	1379	1379	1379	1385	1385	1390	1390	1390	1390	1396	1396	1396	1402	1402	1402	1402	1402	1402	1402	1402	1402	1402	0	1131	1127	1123	1116	1116	1113	1109	1102	1098	1095	1088	1085	1085	1081	1078	1074	1074	1071	1068	1061	1058	1055	1055	1055	1052	1052	1045	1039	1039	1036	1036	1036	1033	1033	1026	1017	1014	1014	1014	1008	1006	1006	1003	1003	1003	1003	1000	1000	997	994	991	991	988	985	983	983	980	980	980	980	977	977	977	980	980	980	980	980	980	980	977	977	977	977	977	974	974	974	977	972	972	972	972	969	969	969	966	966	966	966	966	966	966	966	969	969	969	969	969	0	0	0	0	0	0	0	0	0	0	0	0	0	0	0	0	0	0	0	0	0	0	0	0	0	0	0	0	0	0	0	0	0	0	0	0	0	0	0	0	0	0	0	0	0	0
0	0	0	0	0	0	0	0	0	0	0	0	0	0	0	0	0	0	0	0	0	0	0	0	0	0	0	0	0	0	0	0	0	0	0	0	0	0	0	0	0	0	0	0	0	0	0	0	0	0	0	0	0	0	0	0	0	0	0	0	0	0	0	0	0	0	0	0	0	0	0	0	0	0	0	0	0	0	0	0	0	0	0	0	0	0	0	0	0	0	0	0	0	0	0	0	0	0	0	0	0	2114	2127	2140	2140	2140	2127	2127	2127	2114	2114	2114	2114	2114	2114	2114	2114	2114	2127	2127	2114	2114	2114	2114	2114	2114	2114	2114	2114	2114	2114	2114	2114	2114	2101	2101	2101	2114	2114	2114	2114	2114	2114	2114	2114	2114	2101	2114	2101	2114	2114	2114	2114	2114	2114	2127	2127	2127	2114	2114	2114	2114	2114	2114	2114	2114	2127	2140	2153	2167	2181	2194	2223	2223	2252	2252	2266	2297	2312	2327	2343	2359	2376	2392	2409	2443	2460	2478	2514	2514	2532	2551	2570	2570	2570	0	5448	5448	5448	5448	5448	5535	5535	5535	5448	5448	5448	5448	5448	5364	5364	5448	5448	5448	5448	5364	5364	5364	5535	5364	5364	5364	5364	5282	5282	5282	5282	5282	5282	5364	5364	5448	5448	5364	5282	5282	5282	5282	5282	5364	5364	0	0	0	0	0	0	0	0	0	0	0	0	0	0	0	0	0	0	0	0	0	0	0	0	0	0	0	0	0	0	0	0	0	0	0	0	0	0	0	0	0	0	0	0	0	0	5626	5626	5626	0	0	0	0	0	5448	5448	5364	5364	5448	5448	5448	5448	5448	5448	5448	5448	5364	5364	5364	5364	5364	5364	5364	5364	5448	5448	5448	5448	5448	5448	5364	5364	5364	5364	5448	5448	5448	5448	5448	5448	5448	5448	5448	5364	5448	5364	5448	5448	5364	5364	5364	5364	5448	5448	5364	5364	5364	5364	5364	5364	5364	5364	5364	5364	5448	5364	5448	5364	5364	5364	5448	5364	5448	5448	5448	5448	5448	5448	5448	5448	5448	5448	5448	5448	5448	5535	5448	5448	5448	5448	0	0	5364	5364	5364	5535	5535	5535	5448	5535	5448	5448	5364	5448	5448	5448	5448	0	0	0	0	0	0	0	0	0	0	0	0	0	0	0	0	1277	1277	1277	1272	1272	1272	1272	1268	1268	1268	1263	1263	1263	1263	1263	1263	1259	1263	1263	1268	1268	1268	1272	1272	1277	1277	1277	1277	1282	1287	1291	1296	1301	1301	1311	1316	1321	1326	1326	1331	1336	1342	1342	1342	1342	1347	1347	1352	1352	1358	1358	1358	1358	1363	1368	1374	1374	1374	1379	1379	1379	1379	1385	1390	1390	1385	1390	1390	1396	1396	1402	1402	1402	1402	1402	1402	1402	1402	1402	1402	0	1131	1127	1127	1123	1120	1113	1113	1102	1098	1095	1091	1088	1085	1081	1078	1078	1074	1071	1068	1064	1061	1058	1052	1052	1052	1052	1042	1039	1039	1039	1036	1036	1033	1030	1026	1017	1014	1014	1011	1011	1008	1006	1006	1003	1003	1003	1000	1000	997	994	991	988	988	985	983	983	980	980	980	980	980	980	980	983	983	983	980	980	980	980	977	977	977	977	977	974	977	974	977	972	972	972	972	972	969	969	969	969	966	966	966	969	966	969	969	969	969	969	969	0	0	0	0	0	0	0	0	0	0	0	0	0	0	0	0	0	0	0	0	0	0	0	0	0	0	0	0	0	0	0	0	0	0	0	0	0	0	0	0	0	0	0	0	0	0
0	0	0	0	0	0	0	0	0	0	0	0	0	0	0	0	0	0	0	0	0	0	0	0	0	0	0	0	0	0	0	0	0	0	0	0	0	0	0	0	0	0	0	0	0	0	0	0	0	0	0	0	0	0	0	0	0	0	0	0	0	0	0	0	0	0	0	0	0	0	0	0	0	0	0	0	0	0	0	0	0	0	0	0	0	0	0	0	0	0	0	0	0	0	0	0	0	0	0	0	0	2114	2114	2140	2140	2127	2127	2127	2127	2114	2114	2114	2114	2114	2114	2114	2114	2114	2114	2114	2114	2114	2114	2114	2114	2114	2114	2114	2114	2114	2114	2114	2114	2114	2101	2101	2114	2114	2114	2114	2114	2114	2114	2114	2114	2101	2101	2101	2101	2101	2114	2114	2114	2114	2114	2127	2127	2114	2114	2114	2114	2114	2114	2114	2114	2114	2114	2127	2153	2167	2167	2181	2223	2223	2237	2252	2266	2297	2297	2312	2343	2343	2376	2392	2409	2443	2460	2496	2514	2514	2532	2551	2551	2570	2570	2570	5448	5535	5535	5535	5535	5535	5535	5535	5448	5448	5364	5448	5448	5364	5364	5448	5448	5448	5448	5448	5448	5364	5535	5364	5364	5364	5364	5364	5364	5364	5364	5364	5364	5364	5364	5364	5364	5364	5282	5364	5364	5364	5364	5364	5364	0	0	0	0	0	0	0	0	0	0	0	0	0	0	0	0	0	0	0	0	0	0	0	0	0	0	0	0	0	0	0	0	0	0	0	0	0	0	0	0	0	0	0	0	0	0	5626	5626	5626	5626	5626	0	0	0	5448	5448	5364	5364	5448	5448	5448	5535	5448	5448	5448	5448	5364	5448	5448	5448	5448	5448	5364	5364	5448	5448	5448	5448	5448	5448	5448	5448	5448	5448	5448	5448	5448	5448	5448	5448	5448	5448	5448	5364	5448	5364	5364	5448	5364	5364	5364	5448	5448	5448	5448	5448	5448	5448	5448	5364	5448	5448	5448	5448	5448	5448	5448	5448	5364	5364	5448	5448	5448	5448	5448	5448	5448	5448	5448	5448	5448	5448	5448	5448	5448	5535	5535	5448	5448	5448	5448	5364	5364	5364	5448	5448	5448	5448	5448	5535	5535	5535	5448	5448	5448	5535	5448	5448	0	0	0	0	0	0	0	0	0	0	0	0	0	0	0	1277	1277	1272	1272	1272	1272	1272	1268	1268	1268	1268	1268	1263	1263	1263	1263	1263	1263	1263	1268	1268	1268	1272	1272	1272	1277	1277	1277	1282	1287	1296	1296	1301	1301	1311	1316	1321	1321	1326	1331	1336	1342	1342	1342	1342	1347	1347	1352	1352	1352	1358	1358	1363	1363	1363	1368	1368	1374	1374	1379	1379	1379	1385	1385	1385	1385	1390	1390	1396	1396	1402	1402	1402	1402	1402	1402	1402	1402	1402	1402	0	0	1127	1127	1123	1116	1113	1109	1102	1102	1098	1095	1088	1085	1081	1078	1074	1074	1071	1068	1064	1061	1058	1052	1052	1052	1052	1045	1042	1039	1039	1036	1036	1033	1030	1026	1017	1014	1014	1011	1011	1008	1006	1006	1003	1003	1003	1003	997	997	994	991	988	988	985	983	983	983	980	980	980	980	983	983	985	985	983	983	983	980	980	980	980	977	977	977	974	974	977	977	974	974	972	974	972	969	969	969	969	969	969	969	969	969	969	972	969	969	969	969	0	0	0	0	0	0	0	0	0	0	0	0	0	0	0	0	0	0	0	0	0	0	0	0	0	0	0	0	0	0	0	0	0	0	0	0	0	0	0	0	0	0	0	0	0	0
0	0	0	0	0	0	0	0	0	0	0	0	0	0	0	0	0	0	0	0	0	0	0	0	0	0	0	0	0	0	0	0	0	0	0	0	0	0	0	0	0	0	0	0	0	0	0	0	0	0	0	0	0	0	0	0	0	0	0	0	0	0	0	0	0	0	0	0	0	0	0	0	0	0	0	0	0	0	0	0	0	0	0	0	0	0	0	0	0	0	0	0	0	0	0	0	0	0	0	0	0	2101	2114	2127	2127	2127	2127	2114	2127	2114	2114	2114	2114	2114	2114	2114	2114	2114	2114	2114	2114	2114	2114	2114	2114	2114	2114	2114	2114	2114	2114	2114	2114	2114	2114	2101	2114	2114	2114	2127	2127	2127	2127	2114	2114	2114	2101	2101	2101	2101	2114	2114	2114	2114	2114	2127	2127	2114	2114	2114	2114	2114	2114	2114	2114	2114	2114	2127	2153	2167	2181	2194	2208	2223	2237	2252	2266	2297	2297	2312	2327	2327	2376	2409	2426	2443	2460	2496	2514	2532	2532	2551	2551	2570	2570	2570	2570	5535	5535	5535	5535	5535	5535	5535	5535	5448	5448	5448	5448	5448	5364	5448	5448	5448	5448	5448	5535	5448	5448	5448	5448	5448	5448	5448	5448	5364	5448	5448	5364	5364	5448	5448	5448	5448	5364	5364	5364	5364	5364	5364	5282	5282	5282	0	0	0	0	0	0	0	0	0	0	0	0	0	0	0	0	0	0	0	0	0	0	0	0	0	0	0	0	0	0	0	0	0	0	0	0	0	0	0	0	0	0	0	0	5626	5626	5626	5626	5626	0	5448	5448	5448	5448	5448	5448	5448	5448	5535	5535	5448	5535	5535	5535	5448	5448	5448	5448	5448	5448	5448	5364	5448	5448	5448	5448	5448	5448	5448	5448	5448	5448	5448	5448	5448	5448	5448	5448	5448	5448	5448	5448	5448	5448	5448	5448	5448	5448	5448	5448	5448	5448	5448	5448	5448	5448	5448	5448	5448	5448	5448	5448	5448	5448	5448	5448	5448	5448	5448	5448	5448	5448	5448	5448	5448	5448	5448	5448	5448	5448	5448	5448	5448	5535	5535	5448	5448	5448	5448	5448	5364	5364	5448	5448	5448	5448	5448	5535	5535	5535	5535	5535	5535	5535	5448	5448	5448	0	0	0	0	0	0	0	0	0	0	0	0	0	0	1277	1277	1272	1272	1272	1272	1272	1268	1268	1268	1263	1268	1263	1263	1263	1263	1263	1263	1263	1268	1268	1268	1268	1272	1272	1277	1277	1277	1282	1291	1291	1296	1301	1301	1311	1316	1316	1321	1326	1331	1336	1336	1342	1342	1342	1342	1347	1347	1352	1352	1352	1358	1358	1363	1363	1363	1368	1374	1374	1379	1379	1379	1385	1385	1385	1385	1390	1390	1390	1396	1402	1402	1402	1402	1402	1402	1402	1402	1396	1396	0	0	0	0	1120	1116	1113	1113	1105	1102	1098	1095	1088	1088	1085	1081	1078	1074	1074	1071	1064	1061	1055	1052	1052	1052	1048	1042	1042	1039	1039	1039	1036	1033	1033	1026	1017	1014	1014	1011	1011	1008	1008	1006	1003	1003	1003	1003	1000	994	991	991	988	988	985	983	983	983	980	980	977	980	983	983	983	985	983	983	983	983	980	980	980	977	977	980	977	977	977	977	974	974	972	974	972	972	972	972	972	969	972	969	969	969	969	972	969	969	969	969	0	0	0	0	0	0	0	0	0	0	0	0	0	0	0	0	0	0	0	0	0	0	0	0	0	0	0	0	0	0	0	0	0	0	0	0	0	0	0	0	0	0	0	0	0	0
0	0	0	0	0	0	0	0	0	0	0	0	0	0	0	0	0	0	0	0	0	0	0	0	0	0	0	0	0	0	0	0	0	0	0	0	0	0	0	0	0	0	0	0	0	0	0	0	0	0	0	0	0	0	0	0	0	0	0	0	0	0	0	0	0	0	0	0	0	0	0	0	0	0	0	0	0	0	0	0	0	0	0	0	0	0	0	0	0	0	0	0	0	0	0	0	0	0	0	0	0	2101	2114	2114	2114	2114	2114	2101	2114	2127	2114	2114	2114	2114	2114	2114	2114	2127	2114	2114	2114	2114	2114	2114	2114	2114	2114	2114	2114	2114	2114	2114	2114	2114	2114	2114	2114	2114	2114	2114	2114	2127	2127	2114	2114	2114	2114	2114	2114	2114	2114	2114	2114	2114	2114	2114	2114	2114	2114	2114	2114	2114	2114	2114	2114	2114	2114	2127	2153	2181	2194	2208	2208	2223	2266	2266	2281	2297	2312	2312	2343	2343	2376	2392	2426	2443	2460	2478	2514	2532	2551	2551	2570	2570	2589	2589	2589	0	5535	5535	5535	5535	5535	5535	5535	5535	5448	5448	5448	5448	5448	5448	5448	5535	5448	5535	5448	5448	5448	5448	5535	5448	5448	5448	5448	5448	5535	5448	5448	5448	5448	5448	5448	5448	5364	5364	5364	5364	5364	5364	5364	5364	5282	0	0	0	0	0	0	0	0	0	0	0	0	0	0	0	0	0	0	0	0	0	0	0	0	0	0	0	0	0	0	0	0	0	0	0	0	0	0	0	0	0	0	0	0	0	0	0	0	0	0	5448	5535	5535	5448	5448	5448	5448	5535	5535	5535	5535	5535	5535	5535	5535	5535	5535	5535	5448	5448	5448	5448	5535	5535	5448	5448	5448	5448	5448	5535	5448	5535	5448	5448	5448	5448	5448	5448	5448	5448	5448	5448	5448	5448	5448	5448	5448	5448	5448	5448	5448	5448	5448	5448	5448	5448	5535	5448	5448	5448	5448	5448	5448	5448	5448	5448	5448	5448	5448	5448	5448	5448	5448	5535	5448	5448	5448	5448	5448	5448	5448	5448	5448	5448	5535	5448	5448	5448	5448	5448	5448	5364	5448	5448	5448	5535	5535	5535	5535	5535	5535	5535	5535	5535	5535	5448	5448	0	0	0	0	0	0	0	0	0	0	0	0	0	0	1282	1277	1277	1272	1272	1272	1268	1268	1268	1268	1263	1268	1263	1263	1263	1263	1263	1263	1263	1268	1268	1268	1268	1268	1272	1272	1277	1277	1287	1291	1291	1296	1301	1301	1311	1316	1321	1321	1326	1331	1336	1336	1342	1342	1347	1342	1352	1352	1352	1358	1352	1358	1358	1358	1363	1363	1363	1368	1374	1374	1379	1379	1379	1385	1385	1385	1390	1390	1390	1390	1396	1396	1402	1402	1402	1402	1402	1402	1402	1396	1396	1396	0	0	1120	1116	1116	1113	1105	1105	1102	1098	1091	1088	1085	1081	1078	1078	1074	1071	1064	1061	1058	1052	1055	1052	1052	1045	1042	1042	1039	1039	1036	1036	1033	1030	1023	1014	1014	1014	1011	1008	1008	1008	1006	1006	1006	1003	1000	994	991	991	988	988	985	983	983	983	980	980	977	977	985	985	985	985	985	985	983	983	980	977	977	977	977	977	977	977	977	977	974	974	974	974	974	972	972	972	974	974	974	972	972	972	972	972	972	969	969	969	0	0	0	0	0	0	0	0	0	0	0	0	0	0	0	0	0	0	0	0	0	0	0	0	0	0	0	0	0	0	0	0	0	0	0	0	0	0	0	0	0	0	0	0	0	0
0	0	0	0	0	0	0	0	0	0	0	0	0	0	0	0	0	0	0	0	0	0	0	0	0	0	0	0	0	0	0	0	0	0	0	0	0	0	0	0	0	0	0	0	0	0	0	0	0	0	0	0	0	0	0	0	0	0	0	0	0	0	0	0	0	0	0	0	0	0	0	0	0	0	0	0	0	0	0	0	0	0	0	0	0	0	0	0	0	0	0	0	0	0	0	0	0	0	0	0	2101	2101	2101	2114	2101	2101	2101	2088	2088	2114	2101	2114	2114	2114	2114	2114	2114	2127	2114	2114	2114	2114	2114	2114	2114	2114	2114	2114	2114	2114	2114	2114	2114	2114	2114	2114	2114	2114	2114	2114	2114	2127	2114	2114	2114	2114	2114	2114	2114	2114	2114	2114	2114	2114	2114	2114	2114	2114	2114	2114	2114	2114	2114	2114	2114	2114	2114	2127	2127	2167	2181	2194	2208	2208	2297	2312	2312	2312	2312	2327	2359	2343	2359	2376	2392	2426	2460	2496	2532	2551	2551	2570	2570	2570	2589	2589	2589	0	5535	5535	5448	5535	5535	5535	5535	5535	5535	5535	5535	5535	5448	5535	5535	5535	5535	5535	5535	5448	5448	5448	5448	5448	5448	5535	5448	5448	5535	5448	5448	5448	5448	5448	5448	5448	5364	5364	5364	5448	5364	5364	5364	5364	0	0	0	0	0	0	0	0	0	0	0	0	0	0	0	0	0	0	0	0	0	0	0	0	0	0	0	0	0	0	0	0	0	0	0	0	0	0	0	0	0	0	0	0	0	0	0	0	0	0	0	0	5626	5626	5535	5448	5448	5448	5448	5535	5535	5535	5535	5535	5535	5535	5535	5535	5535	5448	5448	5448	5448	5535	5535	5535	5535	5448	5448	5448	5448	5448	5448	5448	5448	5535	5448	5448	5448	5448	5448	5448	5448	5448	5448	5448	5448	5448	5448	5448	5448	5448	5448	5448	5448	5448	5535	5535	5535	5448	5448	5448	5448	5448	5448	5448	5448	5448	5448	5448	5448	5448	5448	5448	5535	5535	5448	5448	5535	5535	5535	5535	5448	5535	5535	5535	5535	5535	5535	5535	5448	5448	5448	5535	5535	5535	5535	5535	5535	5626	5535	5535	5626	5535	5535	5535	5535	5448	0	0	0	0	0	0	0	0	0	0	0	0	0	0	1287	1282	1277	1272	1272	1272	1272	1268	1268	1268	1263	1263	1263	1259	1263	1263	1263	1263	1263	1268	1268	1268	1268	1272	1272	1272	1277	1277	1287	1291	1291	1296	1301	1301	1311	1316	1316	1321	1321	1326	1331	1336	1342	1342	1347	1347	1347	1352	1352	1352	1352	1352	1358	1358	1363	1363	1363	1368	1374	1374	1379	1379	1379	1385	1385	1385	1390	1390	1390	1390	1396	1396	1402	1402	1402	1402	1402	1402	1396	1402	1396	1396	0	0	1120	1120	1120	1116	1113	1109	1105	1102	1091	1088	1085	1085	1081	1078	1074	1071	1064	1061	1058	1052	1055	1055	1052	1048	1045	1042	1039	1039	1039	966	961	961	961	1014	1017	1014	1014	1011	1008	1008	1008	1008	1008	1008	1000	1000	1000	991	991	988	985	983	983	988	980	980	948	948	948	948	988	988	988	985	985	983	925	925	977	974	974	974	977	977	977	977	977	974	974	974	974	972	974	972	972	972	974	972	972	972	972	974	972	972	969	969	0	0	0	0	0	0	0	0	0	0	0	0	0	0	0	0	0	0	0	0	0	0	0	0	0	0	0	0	0	0	0	0	0	0	0	0	0	0	0	0	0	0	0	0	0	0
0	0	0	0	0	0	0	0	0	0	0	0	0	0	0	0	0	0	0	0	0	0	0	0	0	0	0	0	0	0	0	0	0	0	0	0	0	0	0	0	0	0	0	0	0	0	0	0	0	0	0	0	0	0	0	0	0	0	0	0	0	0	0	0	0	0	0	0	0	0	0	0	0	0	0	0	0	0	0	0	0	0	0	0	0	0	0	0	0	0	0	0	0	0	0	0	0	0	0	0	2101	2101	2101	2101	2101	2088	2088	2088	2088	2114	2114	2114	2114	2114	2114	2114	2114	2114	2114	2114	2114	2114	2114	2114	2114	2114	2114	2114	2114	2114	2114	2114	2114	2114	2114	2114	2127	2114	2127	2127	2127	2127	2127	2114	2114	2114	2114	2114	2114	2114	2114	2114	2114	2114	2114	2114	2114	2114	2114	2114	2114	2114	2114	2114	2114	2114	2114	2127	2127	2127	2167	2181	2181	2181	2297	2297	2312	2312	2312	2312	2359	2359	2359	2376	2392	2426	2478	2496	2514	2532	2551	2551	2570	2570	2570	2570	2589	5448	5448	5535	5448	5448	5448	5535	5535	5535	5448	5535	5535	5535	5448	5535	5535	5535	5535	5535	5535	5535	5535	5448	5535	5448	5448	5535	5535	5535	5535	5448	5448	5448	5448	5535	5535	5535	5364	5364	5364	5364	5364	5364	5364	5364	0	0	0	0	0	0	0	0	0	0	0	0	0	0	0	0	0	0	0	0	0	0	0	0	0	0	0	0	0	0	0	0	0	0	0	0	0	0	0	0	0	0	0	0	0	0	0	0	0	0	0	0	5626	5626	5535	5448	5448	5448	5448	5448	5448	5448	5535	5535	5535	5535	5535	5535	5535	5448	5535	5448	5448	5535	5535	5535	5535	5535	5535	5535	5535	5448	5448	5626	5535	5535	5535	5535	5448	5448	5535	5448	5448	5535	5448	5448	5535	5535	5535	5535	5448	5448	5535	5535	5535	5535	5535	5535	5535	5448	5448	5448	5448	5448	5448	5448	5448	5448	5448	5448	5448	5448	5448	5448	5448	5448	5535	5535	5535	5535	5535	5535	5535	5535	5535	5535	5535	5535	5535	5448	5448	5448	5448	5535	5535	5535	5535	5535	5535	5626	5535	5535	5535	5535	5626	5535	5535	0	0	0	0	0	0	0	0	0	0	0	0	0	0	1296	1291	1282	1282	1272	1272	1272	1268	1268	1263	1263	1263	1263	1263	1263	1263	1263	1263	1263	1263	1268	1268	1268	1268	1272	1272	1277	1277	1277	1287	1291	1291	1296	1296	1301	1311	1316	1316	1321	1321	1321	1326	1326	1336	1342	1342	1347	1347	1347	1352	1352	1352	1358	1358	1358	1363	1363	1363	1368	1368	1374	1374	1379	1379	1385	1385	1385	1390	1390	1390	1390	1396	1396	1402	1402	1402	1402	1402	1402	1402	1402	1402	1396	0	0	0	1120	1123	1120	1116	1113	1109	1105	1098	1095	1088	1088	1085	1081	1081	1074	1064	1061	1058	1052	1055	1055	1052	1052	1045	1045	966	966	963	966	961	961	958	958	958	1017	1014	1014	1011	1011	1011	950	950	950	950	950	950	991	991	991	948	948	948	948	948	948	948	948	948	948	945	945	945	988	988	922	925	925	977	977	974	974	977	969	969	977	977	974	972	963	969	974	977	972	969	972	974	972	972	974	977	977	977	974	972	972	0	0	0	0	0	0	0	0	0	0	0	0	0	0	0	0	0	0	0	0	0	0	0	0	0	0	0	0	0	0	0	0	0	0	0	0	0	0	0	0	0	0	0	0	0	0
0	0	0	0	0	0	0	0	0	0	0	0	0	0	0	0	0	0	0	0	0	0	0	0	0	0	0	0	0	0	0	0	0	0	0	0	0	0	0	0	0	0	0	0	0	0	0	1413	1413	1413	1413	1413	1413	0	0	0	0	0	0	0	0	0	0	0	0	0	0	0	0	0	0	0	0	0	0	0	0	0	0	0	0	0	0	0	0	0	0	0	0	0	0	0	0	0	0	0	0	0	0	0	2088	2088	2101	2101	2101	2088	2088	2076	2088	2088	2101	2101	2114	2114	2114	2114	2114	2114	2114	2114	2114	2114	2114	2114	2114	2114	2114	2114	2114	2114	2114	2114	2114	2114	2127	2114	2127	2127	2127	2127	2127	2127	2127	2114	2114	2114	2114	2114	2114	2114	2114	2114	2114	2114	2114	2114	2114	2114	2114	2114	2114	2114	2114	2114	2114	2114	2114	2127	2127	2127	2167	2167	2252	2252	2281	2281	2297	2312	2312	2312	2359	2359	2359	2376	2392	2426	2478	2496	2514	2532	2532	2551	2570	2570	2589	2589	0	5448	5626	5448	5448	5448	5448	5448	5535	5535	5448	5535	5535	5535	5626	5535	5535	5626	5535	5535	5535	5535	5535	5535	5535	5448	5448	5448	5535	5448	5535	5448	5448	5448	5448	5448	5448	5364	5364	5364	5364	5364	5364	5364	5364	5364	0	0	0	0	0	0	0	0	0	0	0	0	0	0	0	0	0	0	0	0	0	0	0	0	0	0	0	0	0	0	0	0	0	0	0	0	0	0	0	0	0	0	0	0	0	0	0	0	0	0	0	0	5626	5626	5535	5535	5535	5448	5448	5448	5448	5448	5535	5535	5535	5535	5535	5626	5535	5535	5535	5448	5448	5535	5535	5535	5535	5535	5626	5626	5626	5626	5626	5626	5626	5626	5535	5535	5448	5448	5448	5448	5448	5448	5535	5535	5535	5535	5535	5535	5535	5535	5535	5535	5535	5535	5535	5535	5535	5448	5448	5448	5448	5448	5448	5448	5448	5448	5448	5448	5448	5448	5448	5448	5535	5535	5535	5535	5535	5626	5535	5626	5535	5535	5535	5535	5535	5535	5535	5448	5535	5535	5535	5626	5626	5626	5626	5626	5626	5626	5535	5535	5626	5626	5626	5626	5626	0	0	0	0	0	0	0	0	0	0	0	0	0	0	1296	1291	1287	1282	1277	1277	1272	1272	1268	1268	1268	1268	1268	1263	1263	1263	1263	1263	1263	1263	1268	1268	1268	1268	1268	1268	1272	1272	1277	1287	1291	1291	1296	1296	1301	1311	1316	1316	1316	1316	1321	1321	1326	1336	1336	1342	1342	1342	1342	1347	1352	1352	1352	1358	1358	1363	1363	1363	1368	1368	1374	1379	1379	1385	1385	1385	1385	1390	1390	1390	1390	1390	1390	1396	1396	1396	1402	1402	1402	1396	1396	1390	1390	0	0	0	0	1127	1120	1116	1113	1109	1105	1098	1095	1091	1088	1081	1081	1081	1074	1068	1064	1058	1048	1052	1052	1052	1052	1048	969	969	966	963	963	961	958	958	958	955	953	953	953	1011	953	950	950	950	950	950	950	950	948	948	948	948	948	948	948	948	948	948	945	948	945	945	945	927	927	925	925	925	927	930	930	940	958	958	963	963	961	972	953	955	948	948	948	948	966	966	969	972	972	969	969	977	980	977	972	972	972	0	0	0	0	0	0	0	0	0	0	0	0	0	0	0	0	0	0	0	0	0	0	0	0	0	0	0	0	0	0	0	0	0	0	0	0	0	0	0	0	0	0	0	0	0	0
0	0	0	0	0	0	0	0	0	0	0	0	0	0	0	0	0	0	0	0	0	0	0	0	0	0	0	0	0	0	0	0	0	0	0	0	0	0	0	0	0	0	0	0	0	0	0	1413	1413	1413	1413	1413	1419	1419	0	0	0	0	0	0	0	0	0	0	0	0	0	0	0	0	0	0	0	0	0	0	0	0	0	0	0	0	0	0	0	0	0	0	0	0	0	0	0	0	0	0	0	0	0	0	2088	2088	2101	2088	2088	2088	2088	2076	2076	2088	2101	2101	2114	2114	2114	2114	2114	2114	2114	2114	2114	2114	2114	2114	2114	2114	2114	2114	2114	2114	2114	2114	2114	2114	2127	2127	2127	2127	2127	2127	2127	2127	2127	2114	2114	2114	2114	2114	2114	2114	2127	2127	2114	2114	2114	2114	2114	2114	2114	2114	2114	2114	2114	2114	2114	2114	2114	2127	2127	2140	2140	2237	2252	2252	2252	2266	2297	2312	2327	2327	2359	2359	2376	2376	2392	2460	2496	2514	2514	2532	2532	2532	2551	2570	2570	2570	0	5448	5535	5535	5535	5448	5448	5535	5535	5535	5535	5535	5535	5535	5626	5535	5626	5626	5535	5535	5535	5535	5535	5535	5535	5535	5535	5535	5535	5535	5535	5535	5535	5448	5448	5448	5448	5364	5364	5364	5364	5364	5364	5364	5364	5364	0	0	0	0	0	0	0	0	0	0	0	0	0	0	0	0	0	0	0	0	0	0	0	0	0	0	0	0	0	0	0	0	0	0	0	0	0	0	0	0	0	0	0	0	0	0	0	0	0	0	0	0	5626	5626	5626	5535	5535	5535	5535	5535	5535	5448	5535	5535	5535	5535	5535	5626	5626	5535	5626	5535	5535	5626	5626	5535	5535	5626	5626	5626	5626	5626	5626	5626	5626	5626	5535	5535	5535	5448	5448	5535	5535	5535	5535	5535	5626	5626	5626	5535	5535	5535	5535	5535	5535	5535	5535	5535	5535	5535	5535	5535	5535	5448	5535	5535	5535	5535	5448	5448	5448	5448	5448	5535	5626	5626	5535	5626	5626	5626	5626	5626	5626	5535	5535	5626	5535	5535	5535	5626	5626	5626	5626	5719	5719	5626	5719	5719	5626	5626	5626	5626	5626	5626	5719	5719	5719	0	0	0	0	0	0	0	0	0	0	0	0	0	0	1296	1291	1287	1282	1277	1277	1272	1272	1268	1268	1268	1268	1268	1263	1263	1263	1263	1268	1263	1268	1268	1268	1268	1268	1272	1272	1272	1272	1277	1282	1287	1287	1291	1296	1296	1306	1311	1311	1316	1316	1321	1326	1326	1336	1336	1342	1342	1342	1342	1342	1347	1347	1352	1358	1358	1363	1363	1363	1368	1368	1374	1379	1379	1385	1385	1385	1385	1390	1390	1390	1390	1390	1390	1396	1396	1396	1396	1396	1396	1396	1390	1390	1385	1385	0	0	0	1127	1120	1116	1116	1113	1105	1102	1098	1095	1088	1085	1085	1081	1074	1064	1064	1052	1048	1052	1052	1052	1052	1048	969	966	966	963	963	961	958	958	958	955	955	953	955	953	953	950	950	950	950	950	950	950	948	948	948	948	948	948	945	945	945	945	945	945	942	942	942	940	940	935	927	927	937	937	940	940	942	948	950	953	950	948	948	948	948	945	945	945	948	948	948	937	942	942	974	974	974	974	972	972	972	0	0	0	0	0	0	0	0	0	0	0	0	0	0	0	0	0	0	0	0	0	0	0	0	0	0	0	0	0	0	0	0	0	0	0	0	0	0	0	0	0	0	0	0	0	0
0	0	0	0	0	0	0	0	0	0	0	0	0	0	0	0	0	0	0	0	0	0	0	0	0	0	0	0	0	0	0	0	0	0	0	0	0	0	0	0	0	0	0	0	0	0	0	1413	1413	1413	1413	1413	1419	1419	0	0	0	0	0	0	0	0	0	0	0	0	0	0	0	0	0	0	0	0	0	0	0	0	0	0	0	0	0	0	0	0	0	0	0	0	0	0	0	0	0	0	0	0	0	0	0	2088	2088	2088	2088	2076	2076	2076	2076	2076	2088	2114	2114	2114	2114	2114	2114	2114	2114	2114	2114	2114	2114	2114	2114	2114	2114	2127	2127	2127	2114	2114	2114	2114	2127	2114	2127	2127	2127	2127	2127	2127	2127	2114	2114	2114	2114	2114	2114	2114	2127	2114	2127	2127	2114	2114	2114	2114	2114	2114	2114	2114	2114	2114	2114	2114	2114	2127	2127	2140	2140	2237	2237	2252	2252	2266	2297	2297	2327	2327	2359	2359	2376	2376	2409	2478	2496	2514	2514	2532	2551	2551	2551	2570	2570	2570	0	5626	5626	5626	5626	5535	5535	5535	5535	5535	5535	5535	5535	5626	5626	5626	5626	5626	5535	5535	5535	5535	5535	5535	5535	5535	5535	5535	5535	5535	5535	5535	5535	5535	5535	5448	5535	5448	5535	5448	5448	5448	5364	5364	5364	5364	0	0	0	0	0	0	0	0	0	0	0	0	0	0	0	0	0	0	0	0	0	0	0	0	0	0	0	0	0	0	0	0	0	0	0	0	0	0	0	0	0	0	0	0	0	0	0	0	0	0	0	0	0	5626	5626	5535	5626	5535	5535	5535	5535	5448	5448	5535	5535	5535	5535	5626	5626	5535	5626	5535	5535	5626	5535	5535	5626	5626	5626	5626	5719	5626	5719	5626	5719	5719	5626	5626	5626	5626	5535	5535	5535	5626	5626	5626	5626	5626	5626	5626	5535	5535	5535	5535	5535	5535	5535	5535	5626	5535	5535	5535	5535	5535	5535	5535	5535	5535	5535	5535	5535	5535	5535	5535	5626	5626	5626	5626	5626	5626	5626	5626	5626	5535	5535	5535	5535	5535	5626	5626	5719	5719	5719	5719	5719	5719	5719	5719	5626	5719	5626	5626	5626	5626	5626	5719	5719	0	0	0	0	0	0	0	0	0	0	0	0	0	0	1296	1291	1287	1282	1277	1277	1272	1272	1268	1268	1268	1268	1268	1263	1268	1263	1263	1268	1268	1268	1268	1268	1268	1272	1272	1272	1272	1277	1277	1287	1287	1287	1291	1296	1296	1296	1311	1316	1316	1316	1321	1321	1326	1336	1336	1342	1342	1342	1342	1347	1347	1347	1352	1358	1358	1363	1363	1363	1368	1368	1368	1374	1379	1385	1385	1385	1385	1390	1390	1390	1385	1385	1390	1390	1390	1396	1396	1396	1396	1396	1390	1390	1385	1385	1385	0	0	0	1120	1120	1116	1113	1105	1102	1098	1095	1091	1085	977	977	974	974	974	1048	1048	1052	1052	1052	1052	969	969	966	966	963	963	961	961	958	958	958	955	955	955	955	955	953	950	950	953	950	950	950	948	948	948	948	945	945	945	945	945	945	945	945	942	942	940	940	937	935	935	935	937	937	940	937	942	945	948	948	948	948	945	948	945	942	940	940	940	945	937	937	942	942	974	942	942	969	969	969	969	0	0	0	0	0	0	0	0	0	0	0	0	0	0	0	0	0	0	0	0	0	0	0	0	0	0	0	0	0	0	0	0	0	0	0	0	0	0	0	0	0	0	0	0	0	0
0	0	0	0	0	0	0	0	0	0	0	0	0	0	0	0	0	0	0	0	0	0	0	0	0	0	0	0	0	0	0	0	0	0	0	0	0	0	0	0	0	0	0	0	0	0	0	1413	1419	1419	1419	1419	1419	1419	0	0	0	0	0	0	0	0	0	0	0	0	0	0	0	0	0	0	0	0	0	0	0	0	0	0	0	0	0	0	0	0	0	1969	1969	1969	0	0	0	0	0	0	0	0	0	0	0	2101	2101	2101	2101	2088	2088	2076	2076	2076	2088	2101	2101	2114	2114	2114	2114	2114	2114	2114	2114	2114	2114	2114	2114	2114	2114	2114	2114	2114	2114	2114	2114	2114	2127	2114	2127	2127	2127	2114	2127	2114	2114	2114	2114	2114	2114	2114	2114	2114	2127	2127	2127	2127	2127	2127	2114	2114	2114	2114	2114	2114	2114	2114	2114	2114	2114	2127	2127	2140	2140	2223	2237	2252	2252	2266	2297	2312	2327	2327	2359	2359	2376	2376	2392	2392	2496	2514	2514	2532	2532	2570	2570	2570	2570	0	5626	5626	5626	5626	5626	5626	5535	5535	5626	5626	5626	5626	5626	5626	5626	5626	5626	5626	5626	5626	5535	5535	5535	5535	5626	5626	5626	5626	5626	5535	5535	5535	5535	5535	5535	5535	5535	5535	5448	5448	5448	5448	5448	5448	5448	5448	0	0	0	0	0	0	0	0	0	0	0	0	0	0	0	0	0	0	0	0	0	0	0	0	0	0	0	0	0	0	0	0	0	0	0	0	0	0	0	0	0	0	0	0	0	0	0	0	0	0	0	5626	5626	5626	5626	5626	5626	5626	5535	5535	5535	5448	5535	5535	5448	5535	5535	5626	5626	5626	5626	5626	5535	5626	5626	5626	5626	5626	5626	5626	5719	5626	5626	5626	5719	5719	5719	5719	5719	5626	5626	5626	5626	5626	5626	5626	5626	5626	5626	5626	5535	5535	5535	5535	5535	5626	5626	5626	5626	5535	5535	5535	5535	5535	5626	5535	5535	5535	5535	5535	5535	5535	5535	5626	5719	5719	5719	5719	5719	5719	5626	5626	5626	5535	5535	5626	5535	5626	5626	5626	5719	5626	5626	5719	5719	5719	5719	5719	5626	5719	5626	5626	5719	5626	5719	5815	5815	0	0	0	0	0	0	0	0	0	0	0	0	0	0	1296	1291	1287	1282	1277	1277	1272	1272	1268	1268	1268	1268	1268	1268	1268	1263	1263	1268	1263	1268	1268	1268	1268	1272	1272	1272	1272	1277	1277	1282	1287	1287	1291	1296	1296	1306	1311	1316	1316	1316	1321	1321	1326	1336	1336	1342	1342	1342	1342	1347	1347	1347	1352	1358	1358	1363	1363	1363	1368	1368	1368	1374	1379	1379	1385	1385	1385	1385	1390	1385	1385	1385	1390	1390	1390	1390	1396	1396	1402	1396	1396	1396	1385	1379	1379	0	0	0	1120	1123	1123	1109	1105	1102	1098	1098	1095	980	977	977	974	974	974	972	972	1055	1055	1055	969	969	969	966	963	963	963	961	961	958	958	955	955	955	955	953	953	953	950	950	953	950	948	948	945	945	948	945	945	945	942	942	942	942	942	942	940	940	940	937	937	935	935	935	935	937	937	937	940	945	942	945	945	945	945	945	942	942	937	937	937	937	937	937	942	942	942	942	948	948	948	969	969	0	0	0	0	0	0	0	0	0	0	0	0	0	0	0	0	0	0	0	0	0	0	0	0	0	0	0	0	0	0	0	0	0	0	0	0	0	0	0	0	0	0	0	0	0	0
0	0	0	0	0	0	0	0	0	0	0	0	0	0	0	0	0	0	0	0	0	0	0	0	0	0	0	0	0	0	0	0	0	0	0	0	0	0	0	0	0	0	0	0	0	0	1419	1413	1413	1419	1419	1419	1419	1419	0	0	0	0	0	0	0	0	0	0	0	0	0	0	0	0	0	0	0	0	0	0	0	0	0	0	0	0	0	0	0	0	0	1969	1969	1969	1969	0	0	0	0	0	0	0	0	0	0	2114	2114	2101	2101	2101	2101	2076	2076	2088	2088	2101	2101	2101	2114	2114	2114	2114	2114	2114	2114	2114	2114	2114	2114	2114	2114	2114	2114	2114	2114	2114	2114	2114	2127	2114	2114	2114	2114	2114	2114	2114	2114	2114	2114	2114	2114	2114	2114	2114	2127	2127	2127	2127	2127	2127	2114	2114	2114	2114	2114	2114	2114	2114	2114	2114	2114	2127	2127	2140	2194	2208	2223	2237	2252	2266	2297	2312	2327	2343	2343	2359	2359	2376	2426	2443	2496	2496	2514	2532	2551	2570	2570	2570	0	0	5626	5626	5535	5626	5626	5626	5535	5626	5626	5626	5626	5626	5626	5626	5626	5626	5626	5626	5626	5626	5626	5626	5626	5626	5626	5626	5626	5626	5626	5626	5535	5626	5535	5535	5535	5535	5535	5535	5535	5535	5535	5535	5535	5535	5535	5535	5535	0	0	0	0	0	0	0	0	0	0	0	0	0	0	0	0	0	0	0	0	0	0	0	0	0	0	0	0	0	0	0	0	0	0	0	0	0	0	0	0	0	0	0	0	0	0	0	0	0	0	5719	5626	5535	5626	5626	5626	5626	5535	5535	5535	5535	5535	5535	5535	5626	5626	5626	5626	5626	5626	5626	5535	5626	5626	5626	5626	5719	5626	5626	5719	5719	5719	5719	5719	5719	5719	5719	5719	5719	5626	5626	5626	5626	5626	5626	5626	5626	5626	5626	5535	5626	5626	5626	5535	5626	5626	5626	5626	5535	5535	5626	5626	5626	5626	5626	5626	5626	5535	5535	5535	5535	5626	5626	5719	5719	5719	5719	5719	5719	5719	5626	5626	5626	5535	5626	5626	5626	5626	5626	5719	5719	5719	5719	5719	5719	5719	5719	5626	5719	5626	5626	5719	5719	5719	5719	5815	0	0	0	0	0	0	0	0	0	0	0	0	0	0	0	1291	1282	1282	1277	1277	1272	1272	1272	1272	1268	1268	1268	1268	1268	1263	1263	1268	1268	1268	1268	1268	1272	1272	1272	1272	1277	1277	1277	1282	1282	1282	1296	1296	1301	1311	1311	1316	1316	1316	1321	1321	1326	1331	1336	1336	1342	1342	1342	1342	1347	1347	1352	1358	1358	1363	1363	1368	1368	1368	1368	1374	1379	1379	1385	1385	1385	1385	1390	1385	1385	1390	1390	1390	1390	1390	1396	1396	1402	1396	1396	1396	1396	1390	1385	1385	0	0	0	1123	1123	1109	1105	1102	1098	1098	983	980	977	977	974	974	974	972	972	972	969	966	969	966	966	963	963	963	961	958	958	958	955	953	953	953	953	953	953	950	948	948	948	948	950	950	945	942	945	945	942	942	940	940	940	940	940	940	937	937	937	937	935	935	935	935	935	937	937	937	937	937	942	945	945	945	942	945	942	942	937	937	937	937	937	940	942	942	942	942	948	948	948	950	950	0	0	0	0	0	0	0	0	0	0	0	0	0	0	0	0	0	0	0	0	0	0	0	0	0	0	0	0	0	0	0	0	0	0	0	0	0	0	0	0	0	0	0	0	0	0
0	0	0	0	0	0	0	0	0	0	0	0	0	0	0	0	0	0	0	0	0	0	0	0	0	0	0	0	0	0	0	0	0	0	0	0	0	0	0	0	0	0	0	0	0	1419	1413	1413	1413	1419	1419	1419	1419	1419	0	0	0	0	0	0	0	0	0	0	0	0	0	0	0	0	0	0	0	0	0	0	0	0	0	0	0	0	0	0	0	0	0	1958	1958	1958	1958	0	0	0	0	0	0	0	0	0	0	2114	2114	2101	2114	2101	2101	2088	2088	2088	2101	2101	2101	2101	2114	2114	2114	2114	2114	2114	2114	2114	2114	2114	2114	2114	2114	2114	2114	2114	2114	2114	2114	2114	2114	2114	2114	2114	2114	2114	2114	2114	2114	2114	2114	2114	2114	2114	2114	2114	2127	2127	2127	2127	2140	2127	2127	2114	2114	2114	2114	2114	2114	2114	2114	2114	2114	2114	2127	2127	2167	2194	2194	2237	2237	2252	2297	2297	2327	2327	2359	2359	2376	2392	2426	2426	2478	2496	2496	2514	2532	2570	2570	2570	0	0	5626	5626	5626	5626	5626	5626	5626	5626	5626	5626	5626	5626	5626	5626	5626	5626	5626	5626	5626	5626	5626	5626	5626	5626	5626	5626	5626	5626	5626	5626	5626	5626	5535	5535	5626	5535	5535	5535	5535	5535	5535	5535	5535	5535	5535	5535	5535	0	0	0	0	0	0	0	0	0	0	0	0	0	0	0	0	0	0	0	0	0	0	0	0	0	0	0	0	0	0	0	0	0	0	0	0	0	0	0	0	0	0	0	0	0	0	0	0	0	0	5719	5626	5626	5626	5626	5626	5626	5535	5535	5535	5626	5626	5535	5535	5626	5626	5626	5626	5626	5626	5626	5626	5719	5719	5626	5719	5719	5719	5719	5719	5719	5719	5719	5719	5719	5719	5719	5719	5719	5626	5626	5626	5626	5626	5626	5626	5719	5626	5626	5626	5626	5626	5626	5626	5626	5626	5626	5626	5535	5535	5626	5626	5626	5719	5626	5626	5626	5626	5626	5626	5626	5626	5719	5719	5719	5719	5719	5719	5719	5719	5626	5626	5626	5535	5626	5626	5626	5626	5626	5719	5626	5626	5719	5719	5719	5815	5719	5719	5719	5719	5719	5719	5719	5719	5719	0	0	0	0	0	0	0	0	0	0	0	0	0	0	0	0	1291	1282	1282	1277	1272	1272	1272	1272	1272	1268	1268	1272	1268	1272	1268	1268	1268	1268	1268	1268	1268	1272	1272	1272	1272	1277	1277	1277	1282	1282	1287	1291	1296	1301	1311	1316	1316	1316	1321	1321	1326	1331	1331	1336	1336	1342	1342	1342	1342	1342	1342	1347	1352	1358	1358	1363	1363	1368	1368	1368	1374	1379	1379	1379	1379	1385	1385	1385	1385	1385	1390	1390	1390	1390	1390	1396	1396	1402	1402	1396	1396	1402	1402	1385	1385	0	0	0	0	0	1105	1105	1102	991	985	983	980	977	977	974	974	972	969	972	969	966	963	966	966	966	963	961	961	958	958	955	955	953	950	950	950	950	950	948	948	948	948	948	948	948	948	948	940	942	942	940	940	940	937	940	940	937	937	937	937	937	935	935	935	935	935	935	937	937	935	935	937	937	940	940	940	940	940	940	940	937	935	937	937	940	940	940	940	940	942	942	945	945	945	945	0	0	0	0	0	0	0	0	0	0	0	0	0	0	0	0	0	0	0	0	0	0	0	0	0	0	0	0	0	0	0	0	0	0	0	0	0	0	0	0	0	0	0	0	0	0
0	0	0	0	0	0	0	0	0	0	0	0	0	0	0	0	0	0	0	0	0	0	0	0	0	0	0	0	0	0	0	0	0	0	0	0	0	0	0	0	0	0	0	0	0	1419	1413	1413	1419	1419	1419	1419	1419	1431	1437	1437	0	0	0	0	0	0	0	0	0	0	0	0	0	0	0	0	0	0	0	0	0	0	0	0	0	0	0	0	0	0	0	1947	1958	1958	1958	0	0	0	0	0	0	0	0	0	0	2114	2114	2114	2114	2101	2114	2101	2088	2114	2101	2101	2101	2101	2114	2114	2101	2114	2114	2114	2114	2114	2114	2114	2114	2114	2114	2114	2114	2114	2114	2114	2114	2114	2114	2114	2114	2114	2114	2114	2114	2114	2114	2114	2114	2114	2114	2101	2114	2114	2127	2127	2127	2140	2140	2127	2127	2114	2127	2127	2114	2114	2114	2114	2114	2114	2114	2114	2127	2153	2181	2181	2208	2223	2237	2252	2281	2297	2312	2327	2343	2359	2376	2409	2426	2443	2478	2478	2496	2514	2514	2570	2570	2570	0	0	5626	5626	5626	5626	5626	5626	5626	5626	5626	5719	5626	5626	5626	5626	5626	5626	5626	5626	5626	5626	5626	5626	5626	5626	5626	5626	5719	5626	5626	5626	5626	5626	5626	5626	5626	5626	5626	5626	5626	5535	5535	5535	5535	5535	5626	5626	5719	5719	0	0	0	0	0	0	0	0	0	0	0	0	0	0	0	0	0	0	0	0	0	0	0	0	0	0	0	0	0	0	0	0	0	0	0	0	0	0	0	0	0	0	0	0	0	0	0	5719	5535	5535	5535	5535	5626	5626	5626	5626	5626	5626	5626	5626	5626	5626	5535	5626	5626	5626	5626	5626	5626	5626	5626	5626	5719	5719	5719	5719	5719	5719	5719	5719	5719	5719	5719	5719	5719	5719	5719	5719	5719	5626	5719	5626	5719	5719	5719	5719	5719	5719	5719	5719	5719	5626	5626	5626	5626	5626	5626	5626	5719	5626	5626	5719	5719	5626	5719	5719	5626	5626	5626	5626	5626	5719	5719	5719	5719	5719	5719	5719	5719	5626	5626	5626	5626	5626	5626	5626	5626	5626	5719	5719	5719	5815	5815	5815	5815	5815	5719	5719	5719	5719	5719	5719	5719	0	0	0	0	0	0	0	0	0	0	0	0	0	0	0	0	0	0	1282	1277	1277	1272	1272	1272	1272	1268	1268	1268	1268	1268	1268	1268	1263	1263	1268	1268	1268	1268	1272	1272	1272	1272	1272	1277	1277	1282	1282	1291	1291	1296	1301	1311	1316	1316	1316	1321	1321	1326	1331	1336	1336	1336	1342	1342	1342	1342	1342	1342	1347	1347	1352	1358	1358	1358	1363	1363	1368	1368	1374	1374	1379	1379	1379	1385	1385	1385	1385	1385	1390	1390	1390	1390	1390	1396	1402	1396	1396	1396	1396	1402	0	0	0	0	0	0	1105	994	991	991	988	985	980	977	974	974	974	972	972	969	972	969	966	963	963	963	963	963	961	961	958	955	955	953	950	950	950	948	948	948	948	948	945	948	945	948	942	948	937	937	937	937	937	937	937	937	937	937	937	935	935	935	935	935	932	932	935	932	932	932	935	935	932	935	935	935	937	937	937	937	937	935	935	935	935	935	937	937	937	940	940	942	942	945	942	945	945	0	0	0	0	0	0	0	0	0	0	0	0	0	0	0	0	0	0	0	0	0	0	0	0	0	0	0	0	0	0	0	0	0	0	0	0	0	0	0	0	0	0	0	0	0	0
0	0	0	0	0	0	0	0	0	0	0	0	0	0	0	0	0	0	0	0	0	0	0	0	0	0	0	0	0	0	0	0	0	0	0	0	0	0	0	0	0	0	0	0	0	1413	1413	1413	1419	1419	1419	1425	1425	1431	1437	1443	1443	0	0	0	0	0	0	0	0	0	0	0	0	0	0	0	0	0	0	0	0	0	0	0	0	0	0	0	0	0	0	1936	1947	1947	0	0	0	0	0	0	0	0	0	0	0	0	2114	2114	2114	2114	2114	2101	2101	2127	2114	2101	2101	2101	2101	2114	2101	2114	2114	2114	2114	2114	2114	2114	2114	2114	2114	2114	2114	2114	2114	2114	2114	2114	2114	2114	2101	2114	2114	2101	2114	2114	2114	2114	2114	2114	2101	2101	2114	2114	2127	2127	2127	2127	2140	2127	2127	2114	2114	2114	2114	2114	2114	2114	2114	2114	2114	2127	2127	2153	2181	2194	2208	2223	2237	2252	2252	2281	2312	2327	2343	2343	2376	2392	2426	2426	2478	2478	2496	2496	2514	0	0	0	0	0	5626	5626	5626	5626	5626	5719	5626	5719	5719	5815	5719	5719	5719	5719	5719	5719	5626	5626	5626	5626	5626	5626	5626	5626	5719	5719	5719	5626	5626	5626	5626	5626	5626	5626	5626	5626	5626	5626	5626	5626	5626	5626	5626	5626	5626	5626	5626	5719	5719	0	0	0	0	0	0	0	0	0	0	0	0	0	0	0	0	0	0	0	0	0	0	0	0	0	0	0	0	0	0	0	0	0	0	0	0	0	0	0	0	0	0	0	0	0	0	5626	5626	5535	5535	5626	5626	5626	5626	5626	5626	5626	5626	5626	5626	5626	5626	5626	5626	5626	5626	5626	5626	5626	5626	5719	5719	5719	5719	5719	5719	5719	5719	5719	5719	5719	5719	5719	5719	5719	5719	5719	5719	5719	5719	5719	5719	5719	5719	5719	5719	5719	5719	5719	5719	5626	5626	5719	5626	5626	5626	5626	5719	5719	5626	5719	5719	5719	5719	5719	5719	5719	5719	5719	5719	5719	5719	5815	5815	5815	5719	5719	5719	5719	5719	5719	5626	5719	5719	5626	5626	5626	5719	5719	5719	5815	5815	5815	5815	5815	5719	5815	5719	5719	5719	5626	5626	5626	0	0	0	0	0	0	0	0	0	0	0	0	0	0	0	0	0	1282	1277	1277	1272	1272	1272	1272	1268	1268	1268	1268	1268	1268	1263	1263	1263	1268	1268	1272	1272	1272	1272	1272	1277	1277	1277	1282	1282	1282	1291	1291	1296	1301	1311	1316	1316	1321	1321	1321	1326	1331	1331	1336	1336	1342	1342	1342	1342	1342	1342	1342	1347	1352	1358	1358	1358	1363	1363	1363	1368	1374	1374	1379	1379	1379	1379	1385	1385	1385	1385	1390	1390	1390	1390	1396	1396	1402	1402	1402	1402	1402	0	0	0	0	0	0	1113	997	994	991	991	988	985	980	977	974	974	972	969	969	966	969	966	963	963	963	963	963	961	961	958	955	953	953	950	950	948	948	948	948	945	945	945	945	942	940	940	940	940	937	935	935	937	935	935	935	935	937	937	935	935	935	935	935	932	932	932	932	932	935	935	935	935	932	932	932	932	935	935	935	935	935	935	932	932	935	935	935	937	937	937	937	942	945	945	942	945	945	0	0	0	0	0	0	0	0	0	0	0	0	0	0	0	0	0	0	0	0	0	0	0	0	0	0	0	0	0	0	0	0	0	0	0	0	0	0	0	0	0	0	0	0	0	0
0	0	0	0	0	0	0	0	0	0	0	0	0	0	0	0	0	0	0	0	0	0	0	0	0	0	0	0	0	0	0	0	0	0	0	0	0	0	0	0	0	0	0	0	0	1413	1413	1419	1419	1419	1419	1425	1431	1437	1443	1449	1449	1449	1449	0	0	0	0	0	0	0	0	0	0	0	0	0	0	0	0	0	0	0	0	0	0	0	0	0	0	0	1936	1936	1936	1936	0	0	0	0	0	0	0	0	0	0	0	0	2127	2114	2114	2114	2114	2101	2127	2127	2127	2114	2114	2114	2114	2114	2114	2114	2114	2114	2114	2114	2114	2114	2114	2114	2114	2114	2114	2114	2114	2114	2114	2114	2114	2114	2101	2101	2101	2088	2101	2101	2101	2114	2101	2101	2101	2101	2114	2114	2127	2114	2114	2127	2127	2127	2114	2114	2114	2114	2114	2114	2114	2101	2101	2114	2114	2114	2127	2153	2181	2181	2194	2208	2237	2252	2266	2297	2312	2312	2327	2343	2376	2409	2426	2426	2478	2478	2478	2496	0	0	0	0	0	0	0	5626	5626	5626	5626	5626	5626	5719	5719	5815	5719	5719	5719	5719	5626	5719	5626	5626	5626	5626	5626	5626	5626	5626	5719	5719	5815	5719	5719	5626	5626	5626	5626	5626	5626	5626	5626	5626	5626	5626	5626	5626	5626	5626	5626	5626	5626	5626	5626	0	0	0	0	0	0	0	0	0	0	0	0	0	0	0	0	0	0	0	0	0	0	0	0	0	0	0	0	0	0	0	0	0	0	0	0	0	0	0	0	0	0	0	0	0	0	5626	5626	5626	5626	5626	5626	5626	5626	5626	5626	5626	5626	5626	5626	5626	5535	5535	5626	5626	5626	5626	5626	5626	5626	5719	5719	5719	5719	5719	5719	5719	5719	5719	5719	5719	5719	5719	5719	5719	5719	5719	5719	5719	5719	5719	5719	5719	5719	5719	5815	5815	5719	5719	5719	5626	5719	5719	5719	5719	5719	5719	5719	5719	5719	5719	5719	5719	5719	5719	5719	5719	5719	5719	5719	5719	5815	5719	5815	5815	5719	5719	5719	5719	5719	5719	5626	5719	5719	5719	5719	5719	5719	5719	5719	5815	5815	5815	5815	5815	5815	5815	5719	5719	5719	5719	5719	5719	0	0	0	0	0	0	0	0	0	0	0	0	0	0	0	0	0	1282	1277	1277	1272	1272	1268	1268	1268	1268	1268	1268	1268	1268	1263	1263	1263	1268	1268	1268	1268	1272	1272	1277	1277	1277	1277	1282	1287	1287	1291	1296	1296	1301	1311	1316	1316	1321	1321	1326	1331	1331	1331	1336	1336	1342	1342	1342	1342	1342	1342	1342	1342	1347	1352	1358	1358	1358	1363	1363	1368	1374	1374	1379	1379	1379	1379	1385	1385	1385	1385	1385	1385	1385	1390	1396	1402	1402	1407	1402	1407	1407	0	0	0	0	1003	1003	1000	997	991	988	988	985	980	977	974	974	972	972	969	966	966	969	966	963	963	963	961	961	958	958	958	955	953	953	950	950	948	948	948	948	945	945	945	945	942	940	940	940	937	937	935	935	935	935	935	935	935	935	935	935	932	932	932	932	932	932	932	935	935	935	935	935	935	930	930	930	930	932	932	932	932	935	935	930	932	932	932	935	935	935	935	937	937	937	942	942	940	940	0	0	0	0	0	0	0	0	0	0	0	0	0	0	0	0	0	0	0	0	0	0	0	0	0	0	0	0	0	0	0	0	0	0	0	0	0	0	0	0	0	0	0	0	0	0
0	0	0	0	0	0	0	0	0	0	0	0	0	0	0	0	0	0	0	0	0	0	0	0	0	0	0	0	0	0	0	0	0	0	0	0	0	0	0	0	0	0	0	0	0	0	0	1425	1425	1425	1425	1431	1431	1437	1443	1443	1449	1449	1449	0	0	0	0	0	0	0	0	0	0	0	0	0	0	0	0	0	0	0	0	0	0	0	1915	1915	1925	1925	1936	1936	1947	1947	1958	1969	1969	0	0	0	0	0	0	0	0	0	2127	2114	2114	2114	2114	2127	2127	2127	2127	2127	2114	2114	2114	2114	2101	2101	2101	2114	2114	2101	2101	2101	2114	2114	2114	2114	2114	2114	2114	2114	2114	2114	2114	2114	2101	2101	2101	2101	2101	2101	2101	2101	2101	2101	2101	2101	2101	2101	2114	2114	2114	2114	2127	2114	2114	2114	2114	2114	2114	2114	2114	2114	2114	2114	2114	2127	2127	2153	2181	2181	2194	2208	2237	2237	2252	2297	2312	2312	2327	2343	2376	2409	2443	2443	2478	2460	2460	0	0	0	0	0	0	0	0	5626	5626	5626	5719	5719	5719	5719	5815	5815	5815	5719	5719	5719	5719	5719	5719	5626	5626	5626	5626	5626	5626	5719	5719	5815	5815	5719	5719	5719	5626	5626	5626	5626	5626	5626	5626	5626	5719	5626	5626	5626	5626	5626	5626	5626	5626	5626	5626	0	0	0	0	0	0	0	0	0	0	0	0	0	0	0	0	0	0	0	0	0	0	0	0	0	0	0	0	0	0	0	0	0	0	0	0	0	0	0	0	0	0	0	0	0	0	5626	5626	5626	5626	5626	5626	5626	5626	5626	5626	5626	5626	5626	5626	5626	5626	5626	5626	5626	5626	5626	5626	5626	5626	5719	5719	5719	5719	5719	5815	5815	5815	5815	5815	5815	5815	5815	5815	5719	5815	5815	5719	5719	5719	5719	5719	5719	5719	5719	5719	5719	5719	5719	5719	5719	5719	5719	5719	5719	5719	5719	5719	5815	5719	5719	5719	5719	5719	5815	5719	5719	5815	5719	5815	5719	5719	5719	5719	5815	5719	5719	5719	5719	5719	5719	5719	5719	5719	5719	5719	5719	5719	5719	5719	5815	5815	5815	5815	5815	5815	5815	5815	5719	5719	5719	5719	5719	0	0	0	0	0	0	0	0	0	0	0	0	0	0	0	0	0	1282	1277	1277	1272	1272	1268	1268	1268	1268	1268	1268	1268	1268	1268	1268	1263	1263	1268	1268	1272	1272	1272	1277	1277	1277	1277	1282	1287	1291	1291	1296	1301	1301	1311	1316	1316	1321	1321	1326	1326	1331	1331	1336	1336	1342	1342	1342	1342	1342	1342	1347	1347	1347	1352	1352	1358	1363	1363	1368	1368	1374	1379	1379	1379	1379	1379	1385	1385	1385	1385	1385	1385	1390	1390	1396	1402	1407	1407	1402	1402	1407	0	1014	1011	1003	1003	1000	997	994	991	988	985	985	980	977	974	972	972	972	969	966	966	966	966	963	961	961	961	958	958	955	955	953	950	950	950	948	948	948	948	945	945	945	945	942	942	940	940	940	937	937	935	935	935	935	935	935	935	935	935	935	932	932	932	932	932	932	932	935	935	935	932	932	932	930	930	930	932	932	932	935	935	935	935	930	932	932	932	932	935	932	935	935	937	937	937	937	940	940	0	0	0	0	0	0	0	0	0	0	0	0	0	0	0	0	0	0	0	0	0	0	0	0	0	0	0	0	0	0	0	0	0	0	0	0	0	0	0	0	0	0	0	0	0	0
0	0	0	0	0	0	0	0	0	0	0	0	0	0	0	0	0	0	0	0	0	0	0	0	0	0	0	0	0	0	0	0	0	0	0	0	0	0	0	0	0	0	0	0	0	0	0	1425	1431	1425	1431	1431	1431	1437	1443	1443	1449	1449	1455	1455	0	0	0	0	0	0	0	0	0	0	0	0	0	0	0	0	0	0	0	0	0	0	1915	1915	1925	1925	1936	1936	1947	1947	1969	1969	1969	0	0	0	0	0	0	0	0	2127	2127	2127	2114	2114	2114	2114	2114	2127	2127	2114	2114	2114	2114	2114	2101	2101	2101	2114	2114	2101	2101	2101	2114	2114	2114	2114	2114	2114	2114	2114	2114	2114	2114	2114	2101	2101	2101	2088	2088	2088	2101	2101	2101	2101	2101	2101	2101	2114	2114	2114	2114	2114	2114	2114	2114	2101	2101	2114	2114	2114	2114	2114	2114	2114	2114	2127	2127	2153	2181	2181	2194	2208	2237	2237	2266	2297	2312	2312	2343	2359	2376	2409	2426	2426	2426	2426	2460	0	0	0	0	0	0	0	0	5626	5626	5719	5815	5719	5815	5815	5815	5815	5815	5815	5719	5719	5719	5719	5719	5626	5626	5626	5626	5719	5719	5719	5815	5815	5815	5815	5719	5719	5626	5719	5626	5626	5719	5719	5626	5626	5626	5626	5626	5626	5626	5626	5626	5626	5626	5626	5626	0	0	0	0	0	0	0	0	0	0	0	0	0	0	0	0	0	0	0	0	0	0	0	0	0	0	0	0	0	0	0	0	0	0	0	0	0	0	0	0	0	0	0	0	0	0	0	0	0	5626	5626	5626	5626	5626	5626	5626	5626	5626	5626	5626	5626	5626	5626	5719	5719	5719	5719	5719	5719	5626	5815	5815	5815	5719	5719	5815	5815	5815	5815	5815	5815	5815	5815	5815	5815	5815	5815	5815	5815	5719	5719	5815	5815	5815	5815	5815	5815	5815	5815	5719	5719	5719	5719	5719	5719	5719	5719	5719	5719	5815	5815	5815	5815	5815	5815	5815	5815	5815	5719	5815	5815	5719	5815	5815	5815	5815	5719	5719	5719	5719	5719	5719	5719	5719	5719	5719	5719	5719	5719	5719	5815	5815	5815	5815	5815	5815	5815	5815	5815	5719	5719	5719	5719	0	0	0	0	0	0	0	0	0	0	0	0	0	0	0	0	0	1282	1277	1277	1272	1272	1272	1272	1268	1272	1268	1268	1272	1268	1268	1268	1263	1268	1272	1272	1272	1272	1272	1277	1277	1277	1277	1282	1287	1291	1296	1296	1301	1301	1311	1316	1316	1316	1321	1321	1326	1331	1331	1336	1336	1336	1342	1342	1342	1342	1342	1347	1347	1352	1352	1352	1358	1358	1363	1363	1363	1374	1374	1379	1379	1379	1379	1379	1385	1385	1385	1385	1385	1385	1385	1385	1385	1407	1407	1402	1402	0	0	1011	1008	1003	1003	1000	997	994	991	988	985	985	980	977	974	972	972	972	969	966	963	966	963	963	961	961	958	958	955	955	953	953	950	950	950	948	948	948	948	945	945	945	945	942	940	940	940	940	937	937	937	935	935	937	935	935	935	935	935	935	932	932	932	932	932	932	932	935	935	932	932	935	932	932	932	932	932	932	932	932	932	932	932	932	932	932	932	932	935	932	935	935	937	935	937	937	937	937	0	0	0	0	0	0	0	0	0	0	0	0	0	0	0	0	0	0	0	0	0	0	0	0	0	0	0	0	0	0	0	0	0	0	0	0	0	0	0	0	0	0	0	0	0	0
0	0	0	0	0	0	0	0	0	0	0	0	0	0	0	0	0	0	0	0	0	0	0	0	0	0	0	0	0	0	0	0	0	0	0	0	0	0	0	0	0	0	0	0	0	0	1431	1431	1431	1431	1431	1431	1437	1437	1443	1443	1449	1455	1467	1467	0	0	0	0	0	0	0	0	0	0	0	0	0	0	0	0	0	0	0	0	0	0	0	1925	1925	1936	1936	1936	1947	1958	1969	1969	1969	0	0	0	0	0	0	0	0	2127	2127	2127	2114	2114	2114	2114	2114	2127	2127	2114	2114	2114	2114	2114	2101	2101	2101	2101	2101	2101	2114	2114	2114	2114	2114	2114	2114	2114	2114	2114	2101	2101	2101	2114	2114	2114	2114	2101	2101	2101	2101	2101	2101	2101	2101	2101	2101	2114	2114	2114	2114	2114	2114	2114	2114	2114	2114	2114	2114	2114	2114	2114	2114	2114	2114	2127	2127	2153	2167	2181	2194	2208	2237	2237	2266	2297	2312	2312	2359	2376	2376	2409	2426	2426	2443	2443	2443	0	0	0	0	0	0	0	0	0	5719	5815	5815	5719	5815	5815	5719	5815	5719	5719	5719	5719	5719	5719	5815	5719	5626	5719	5719	5719	5719	5815	5815	5815	5815	5815	5719	5719	5719	5719	5719	5626	5719	5719	5719	5626	5719	5719	5719	5719	5626	5626	5626	5626	5626	5626	5626	0	0	0	0	0	0	0	0	0	0	0	0	0	0	0	0	0	0	0	0	0	0	0	0	0	0	0	0	0	0	0	0	0	0	0	0	0	0	0	0	0	0	0	0	0	0	0	0	0	0	5626	5626	5719	5719	5719	5719	5719	5626	5626	5626	5626	5626	5626	5719	5719	5719	5719	5719	5719	5719	5815	5815	5815	5815	5815	5815	5915	5915	5915	5815	5815	5815	5815	5815	5815	5815	5815	5815	5815	5815	5815	5815	5815	5815	5815	5815	5815	5815	5815	5719	5719	5719	5719	5719	5719	5719	5719	5719	5815	5719	5815	5815	5815	5815	5815	5815	5815	5815	5719	5815	5815	5815	5815	5815	5815	5815	5815	5815	5815	5815	5719	5719	5719	5719	5719	5719	5719	5719	5719	5719	5815	5815	5815	5815	5915	5815	5815	5815	5815	5815	5719	5719	5719	0	0	0	0	0	0	0	0	0	0	0	0	0	0	0	0	0	0	1277	1277	1272	1272	1268	1268	1268	1268	1268	1268	1268	1268	1268	1268	1268	1268	1272	1272	1272	1272	1272	1277	1277	1277	1277	1282	1282	1287	1291	1296	1301	1301	1301	1316	1316	1316	1321	1321	1326	1331	1331	1336	1336	1336	1342	1342	1342	1342	1347	1347	1347	1352	1352	1358	1358	1358	1363	1363	1368	1374	1374	1379	1379	1379	1379	1385	1385	1385	1385	1385	1385	1385	1390	1390	1385	0	0	0	0	1011	1011	1008	1008	1003	1000	997	994	994	991	988	985	983	980	977	974	972	972	969	966	966	963	966	963	963	961	961	958	958	955	955	953	953	950	950	950	948	948	948	948	945	945	942	945	942	942	940	940	940	937	937	937	935	937	937	935	935	935	935	935	935	935	932	932	932	932	932	932	932	935	932	932	932	932	932	932	932	932	932	932	932	932	932	932	932	932	932	932	932	932	932	935	932	935	935	935	935	935	935	0	0	0	0	0	0	0	0	0	0	0	0	0	0	0	0	0	0	0	0	0	0	0	0	0	0	0	0	0	0	0	0	0	0	0	0	0	0	0	0	0	0	0	0	0	0
0	0	0	0	0	0	0	0	0	0	0	0	0	0	0	0	0	0	0	0	0	0	0	0	0	0	0	0	0	0	0	0	0	0	0	0	0	0	0	0	0	0	0	0	0	0	1431	1437	1437	1431	1437	1437	1437	1437	1443	1443	1449	1455	1480	1480	1486	1486	0	0	0	0	0	0	0	0	0	0	0	0	0	0	0	0	0	0	0	0	0	1936	1936	1947	1947	1936	1947	1947	1969	1969	1969	0	0	0	0	0	0	0	0	2127	2127	2114	2114	2114	2114	2114	2114	2127	2114	2114	2114	2114	2114	2114	2114	2101	2101	2101	2101	2101	2101	2114	2114	2114	2114	2114	2114	2114	2114	2114	2114	2114	2114	2114	2114	2114	2114	2101	2101	2101	2101	2101	2101	2101	2101	2101	2114	2114	2114	2114	2114	2114	2114	2114	2114	2101	2101	2101	2114	2114	2114	2114	2114	2114	2127	2127	2140	2153	2181	2194	2208	2223	2237	2252	2266	2297	2312	2312	2343	2376	2392	2409	2426	2426	2443	2443	2443	0	0	0	0	0	0	0	0	0	5815	5915	5915	5815	5815	5815	5719	5815	5719	5719	5815	5815	5815	5815	5815	5719	5815	5719	5719	5719	5719	5815	5815	5815	5815	5915	5719	5719	5719	5719	5719	5815	5815	5815	5815	5719	5719	5719	5719	5719	5626	5626	5815	5815	5815	0	0	0	0	0	0	0	0	0	0	0	0	0	0	0	0	0	0	0	0	0	0	0	0	0	0	0	0	0	0	0	0	0	0	0	0	0	0	0	0	0	0	0	0	0	0	0	0	0	0	0	0	0	0	5815	5915	5719	5719	5719	5719	5719	5719	5719	5719	5719	5719	5719	5719	5719	5719	5719	5815	5915	5915	5915	5915	5915	5915	5915	5915	5915	5815	5815	5815	5815	5815	5815	5815	5815	5815	5815	5815	5815	5815	5815	5815	5815	5815	5815	5815	5815	5815	5719	5719	5719	5719	5719	5719	5719	5719	5815	5815	5815	5815	5815	5815	5815	5815	5815	5815	5815	5815	5815	5815	5815	5815	5815	5815	5815	5815	5815	5815	5815	5815	5815	5815	5815	5815	5815	5815	5719	5719	5815	5915	5915	5915	5915	5915	5915	5815	5815	5815	5719	5719	5719	0	0	0	0	0	0	0	0	0	0	0	0	0	0	0	0	0	0	1277	1277	1272	1272	1272	1272	1268	1272	1268	1268	1272	1268	1268	1268	1268	1268	1272	1272	1272	1272	1277	1277	1277	1277	1277	1287	1287	1287	1291	1296	1296	1301	1306	1316	1316	1316	1321	1321	1326	1326	1331	1336	1336	1336	1342	1342	1342	1342	1347	1347	1347	1352	1358	1358	1358	1358	1363	1363	1368	1374	1374	1379	1379	1379	1379	1379	1385	1385	1385	1385	1390	1390	1396	1396	0	0	0	0	1011	1011	1008	1008	1008	1003	1000	997	994	991	988	985	983	977	977	974	974	972	969	969	966	966	963	966	963	963	963	961	961	958	955	955	955	955	950	950	950	948	948	948	948	945	945	942	942	940	940	940	940	940	937	937	937	937	937	937	935	935	935	935	935	935	932	930	932	932	932	932	932	935	935	932	932	932	932	932	932	932	935	935	935	932	932	932	932	930	932	932	932	932	932	932	932	932	935	932	935	935	935	935	0	0	0	0	0	0	0	0	0	0	0	0	0	0	0	0	0	0	0	0	0	0	0	0	0	0	0	0	0	0	0	0	0	0	0	0	0	0	0	0	0	0	0	0	0	0
0	0	0	0	0	0	0	0	0	0	0	0	0	0	0	0	0	0	0	0	0	0	0	0	0	0	0	0	0	0	0	0	0	0	0	0	0	0	0	0	0	0	0	0	0	0	1431	1437	1437	1437	1437	1437	1437	1443	1443	1443	1449	1455	1467	1480	1486	1486	0	0	0	0	0	0	0	0	0	0	0	0	0	0	0	0	0	0	0	0	1925	1936	1936	1947	1936	1936	1947	1947	0	0	0	0	0	0	0	0	0	0	0	0	2114	2114	2114	2114	2114	2114	2114	2127	2114	2114	2114	2114	2114	2114	2101	2101	2101	2101	2101	2114	2114	2114	2114	2114	2114	2114	2114	2114	2114	2114	2114	2114	2101	2114	2101	2101	2101	2101	2101	2101	2101	2088	2101	2101	2101	2101	2114	2114	2114	2114	2114	2114	2114	2101	2101	2101	2101	2101	2101	2114	2114	2114	2114	2114	2127	2127	2140	2167	2194	2194	2223	2237	2252	2252	2266	2297	2312	2312	2312	2392	2392	2426	2426	2426	2443	2443	0	0	0	0	0	0	0	0	0	5915	5915	5915	5815	5719	5815	5815	5815	5815	5719	5815	5815	5815	5915	5915	5915	5815	5815	5815	5815	5815	5815	5815	5815	5915	5915	5915	5815	5915	5915	5915	5915	5915	5815	5815	5815	5719	5719	5815	5815	5815	5626	5815	5815	5915	5915	0	0	0	0	0	0	0	0	0	0	0	0	0	0	0	0	0	0	0	0	0	0	0	0	0	0	0	0	0	0	0	0	0	0	0	0	0	0	0	0	0	0	0	0	0	5719	5719	0	0	0	0	0	0	5915	5915	5915	5915	5719	5719	5719	5719	5719	5719	5719	5719	5719	5719	5719	5719	5719	5815	5815	5915	5915	5915	5915	5915	5915	5915	5915	5915	5915	5915	5915	5915	5815	5815	5815	5815	5815	5815	5815	5815	5815	5815	5815	5815	5815	5815	5815	5815	5815	5815	5815	5719	5719	5719	5719	5719	5719	5815	5815	5815	5815	5815	5815	5815	5915	5815	5815	5815	5815	5815	5815	5719	5815	5815	5815	5815	5815	5815	5815	5815	5815	5815	5815	5815	5815	5815	5815	5719	5719	5815	5815	5915	5915	5915	5915	5915	5815	5815	5815	5719	5719	5719	0	0	0	0	0	0	0	0	0	0	0	0	0	0	0	0	0	0	1277	1277	1272	1272	1272	1272	1268	1272	1272	1272	1272	1268	1268	1268	1268	1268	1272	1272	1272	1272	1277	1277	1277	1277	1277	1287	1287	1291	1291	1296	1296	1301	1301	1311	1311	1316	1316	1321	1326	1326	1331	1336	1336	1336	1336	1342	1342	1342	1347	1347	1347	1352	1358	1358	1358	1363	1363	1363	1368	1374	1374	1374	1379	1379	1379	1379	1385	1385	1385	1385	1390	1396	1396	1396	0	0	0	1014	1011	1008	1008	1008	1003	1000	997	994	991	988	985	983	980	977	977	974	974	972	969	969	966	966	963	966	963	963	963	961	961	958	958	958	955	955	953	950	950	948	948	948	948	948	945	942	945	942	942	940	940	940	940	940	937	937	937	937	935	935	935	935	935	932	932	930	932	932	932	932	932	935	935	932	932	932	932	932	932	935	935	935	935	935	935	932	932	932	932	932	932	932	932	930	932	932	935	935	935	935	937	937	0	0	0	0	0	0	0	0	0	0	0	0	0	0	0	0	0	0	0	0	0	0	0	0	0	0	0	0	0	0	0	0	0	0	0	0	0	0	0	0	0	0	0	0	0	0
0	0	0	0	0	0	0	0	0	0	0	0	0	0	0	0	0	0	0	0	0	0	0	0	0	0	0	0	0	0	0	0	0	0	0	0	0	0	0	0	0	0	0	0	0	0	1449	1449	1449	1443	1443	1443	1443	1443	1449	1449	1455	1461	1473	1486	1480	1486	1486	1486	0	0	0	0	0	0	0	0	0	0	0	0	0	0	0	0	0	0	1936	1936	1936	1947	1936	1936	1936	1936	0	0	0	0	0	0	0	0	0	2140	2127	2127	2127	2114	2114	2114	2101	2101	2114	2114	2114	2114	2114	2114	2114	2114	2114	2101	2101	2114	2114	2114	2114	2114	2114	2114	2114	2114	2114	2114	2114	2114	2114	2114	2101	2101	2101	2101	2101	2088	2088	2088	2101	2088	2101	2101	2101	2101	2101	2114	2114	2114	2114	2114	2114	2101	2114	2101	2101	2101	2101	2114	2114	2114	2114	2114	2127	2127	2140	2167	2181	2194	2223	2237	2252	2252	2281	2297	2312	2327	2359	2392	2392	2409	2426	2426	2443	2443	2443	0	0	0	0	0	0	0	0	5915	6018	5915	5915	5815	5815	5815	5815	5815	5815	5815	5915	5915	5915	5915	5915	5915	5915	5815	5815	5815	5815	5815	5915	5915	5915	5915	5815	5815	5915	5915	5915	5915	5915	5915	5915	5815	5815	5815	5815	5815	5815	5815	5815	5915	5815	5815	0	0	0	0	0	0	0	0	0	0	0	0	0	0	0	0	0	0	0	0	0	0	0	0	0	0	0	0	0	0	0	0	0	0	0	0	0	0	0	0	0	0	5915	5815	5815	5815	5719	5719	0	0	0	0	5915	5915	6018	5915	5915	5815	5719	5719	5719	5719	5719	5719	5815	5815	5719	5719	5815	5815	5815	6018	5915	5915	5915	5915	5915	5915	5915	5915	5915	5915	5815	5815	5815	5815	5815	5815	5815	5915	5815	5815	5815	5815	5815	5815	5815	5815	5815	5815	5815	5815	5815	5815	5815	5719	5815	5815	5815	5815	5815	5815	5915	5915	5915	5915	5915	5915	5915	5815	5815	5815	5815	5815	5815	5815	5815	5815	5815	5815	5815	5815	5815	5815	5815	5815	5815	5815	5815	5815	5815	5815	5915	5915	5915	5915	5915	5915	5915	5915	5815	5815	5815	5815	0	0	0	0	0	0	0	0	0	0	0	0	0	0	0	0	0	1282	1277	1277	1272	1272	1272	1272	1272	1272	1272	1272	1272	1268	1268	1268	1268	1268	1272	1268	1272	1272	1272	1277	1277	1277	1282	1287	1287	1291	1291	1296	1296	1296	1306	1311	1311	1316	1321	1321	1321	1326	1331	1331	1336	1336	1342	1342	1342	1342	1347	1347	1352	1352	1358	1358	1363	1363	1363	1363	1368	1374	1374	1374	1374	1379	1379	1379	1385	1385	1385	1390	1390	1396	1396	0	0	0	0	1014	1011	1008	1006	1006	1006	1000	997	994	991	988	985	983	980	974	974	974	974	972	969	969	966	966	963	963	961	963	963	963	961	961	958	958	955	955	953	953	950	950	948	948	948	945	945	945	942	942	942	940	942	942	942	942	937	940	940	937	937	937	935	935	935	932	932	930	930	930	932	932	932	932	935	932	932	932	932	932	932	932	935	935	935	935	932	932	932	930	930	930	930	930	930	930	930	932	935	935	935	935	937	937	0	0	0	0	0	0	0	0	0	0	0	0	0	0	0	0	0	0	0	0	0	0	0	0	0	0	0	0	0	0	0	0	0	0	0	0	0	0	0	0	0	0	0	0	0	0
0	0	0	0	0	0	0	0	0	0	0	0	0	0	0	0	0	0	0	0	0	0	0	0	0	0	0	0	0	0	0	0	0	0	0	0	0	0	0	0	0	0	0	0	0	0	1455	1455	1455	1449	1449	1449	1449	1455	1455	1455	1461	1467	1480	1486	1486	1486	1492	1492	0	0	0	0	0	0	0	0	0	0	0	0	0	0	0	0	0	0	1936	1947	1947	1947	1936	1936	1936	1936	0	0	0	0	0	0	0	2114	2114	2127	2127	2127	2114	2114	2114	2114	2101	2114	2114	2114	2114	2114	2114	2114	2114	2114	2114	2114	2114	2114	2114	2114	2114	2114	2114	2114	2114	2114	2114	2114	2114	2114	2114	2114	2101	2101	2101	2101	2101	2101	2101	2101	2101	2101	2114	2101	2101	2101	2101	2101	2101	2101	2101	2101	2101	2101	2114	2101	2101	2101	2101	2101	2114	2114	2114	2114	2127	2140	2153	2167	2194	2194	2223	2237	2252	2252	2281	2297	2327	2343	2376	2392	2409	2409	2426	2426	2426	2426	2443	2443	0	0	0	0	0	0	0	0	6018	5915	5915	5815	5915	5915	5915	5915	5815	5915	5915	5915	6018	6018	6018	5915	5915	5915	5915	5915	5915	5915	5915	5915	5915	5915	5915	5915	5915	5915	5915	5915	5915	5915	5915	5815	5815	5815	5815	5915	5915	5915	5915	5915	5915	5815	5815	0	0	0	0	0	0	0	0	5719	5719	5719	5719	0	0	0	0	0	0	0	0	0	0	0	0	0	0	0	0	0	0	0	0	5915	5915	6018	6018	6018	6018	6018	6018	6018	5915	5815	5815	5719	5719	5719	0	0	0	6018	6018	6018	6018	6018	6018	5915	5815	5815	5815	5719	5719	5815	5815	5815	5815	5815	5815	5815	5915	6018	6018	6018	6018	6018	5915	5915	5915	5915	5915	5915	5815	5815	5915	5915	5815	5815	5815	5815	5815	5815	5815	5815	5915	5915	5915	5915	5915	5915	5915	5815	5815	5815	5815	5815	5815	5815	5815	5815	5815	5815	5915	5915	5915	5915	5915	5915	5915	5815	5815	5815	5815	5815	5815	5815	5815	5815	5815	5815	5815	5815	5815	5815	5915	5915	5915	5915	5815	5815	5815	5915	5915	5915	5915	5915	5915	5915	5915	5915	5915	5915	5815	5815	0	0	0	0	0	0	0	0	0	0	0	0	0	0	0	0	0	1282	1277	1277	1277	1272	1272	1272	1272	1272	1272	1272	1272	1272	1272	1272	1272	1268	1272	1272	1272	1272	1272	1277	1277	1277	1282	1287	1287	1291	1296	1296	1301	1301	1306	1311	1311	1316	1316	1321	1321	1326	1331	1336	1336	1336	1336	1342	1342	1342	1342	1347	1352	1352	1358	1358	1358	1363	1363	1363	1368	1368	1368	1374	1374	1374	1379	1379	1385	1385	1385	1385	1390	1036	1036	1033	1033	0	1017	1014	1011	1008	1006	1006	1003	997	994	991	991	988	985	983	980	977	974	974	974	972	969	969	966	966	963	963	961	963	963	961	961	961	961	961	955	955	955	953	953	950	950	948	948	948	945	945	945	942	942	940	942	942	942	942	940	940	940	940	937	937	937	935	935	932	932	930	930	930	930	932	932	932	932	930	930	930	930	932	932	932	935	935	935	935	935	932	932	930	930	930	930	930	930	930	932	932	935	935	935	935	937	937	0	0	0	0	0	0	0	0	0	0	0	0	0	0	0	0	0	0	0	0	0	0	0	0	0	0	0	0	0	0	0	0	0	0	0	0	0	0	0	0	0	0	0	0	0	0
0	0	0	0	0	0	0	0	0	0	0	0	0	0	0	0	0	0	0	0	0	0	0	0	0	0	0	0	0	0	0	0	0	0	0	0	0	0	0	0	0	0	0	0	0	1467	1455	1455	1455	1455	1455	1455	1455	1461	1461	1461	1473	1473	1486	1486	1486	1492	1492	1499	1499	1499	0	0	0	0	0	0	0	0	0	0	0	0	0	0	0	0	1925	1925	1936	1936	1936	1925	1936	1936	0	0	0	0	0	0	0	2101	2114	2127	2127	2127	2114	2114	2114	2114	2101	2114	2114	2114	2114	2114	2114	2114	2114	2114	2114	2114	2114	2114	2114	2114	2114	2114	2114	2114	2114	2114	2114	2114	2114	2114	2114	2114	2101	2101	2101	2101	2101	2101	2101	2101	2101	2101	2114	2101	2114	2114	2114	2114	2114	2101	2101	2114	2114	2114	2114	2114	2114	2114	2101	2114	2114	2114	2114	2127	2127	2140	2153	2167	2194	2208	2223	2252	2266	2266	2281	2297	2327	2327	2376	2376	2409	2392	2426	2426	2426	2443	2460	2460	0	0	0	0	0	0	0	0	6018	6018	5915	5915	5915	5915	5915	5915	5815	5915	5915	5915	6018	6018	6018	6018	6018	6018	5915	5915	5915	5915	5915	6018	5915	5915	5915	5915	5915	5915	5915	5915	5915	5915	5915	5815	5815	5815	5815	5815	5915	5915	5915	5915	5915	5915	5915	5915	0	0	0	0	0	0	5915	5815	5815	5815	5815	0	0	0	0	0	0	6124	6124	6124	6018	5915	5815	5915	5915	5815	5915	5915	5915	5915	5915	5915	5915	6018	6018	6018	6018	6018	5915	6018	5915	5815	5815	5815	5815	5815	5815	5915	5915	5915	6018	6018	6018	6018	6018	5915	5915	5815	5915	5815	5815	5815	5815	5815	5815	5815	5815	5915	5915	6018	6018	6018	6018	6018	6018	6018	5915	5915	5915	5915	5915	5915	5915	5915	5915	5915	5915	5915	5815	5815	5815	5915	5915	5915	6018	6018	6018	6018	5915	5815	5915	5815	5815	5815	5815	5815	5815	5815	5815	5815	5815	5915	5915	6018	6018	5915	6018	5915	5915	5815	5815	5815	5815	5815	5815	5915	5915	5915	5915	5815	5815	5815	5915	5915	5915	5815	5815	5915	5815	5915	6018	6018	6018	6018	5915	6018	5915	5915	5915	5915	5815	5815	0	0	0	0	0	0	0	0	0	0	0	0	0	0	0	0	0	0	1277	1287	1282	1272	1272	1272	1272	1272	1272	1272	1272	1272	1272	1272	1272	1272	1272	1272	1272	1272	1272	1277	1277	1282	1282	1287	1287	1291	1291	1296	1296	1296	1306	1311	1311	1316	1316	1321	1326	1331	1331	1336	1336	1336	1336	1342	1342	1342	1342	1347	1347	1352	1358	1358	1358	1363	1363	1363	1363	1368	1368	1368	1368	1374	1374	1379	1385	1385	1390	1390	0	1033	1030	1026	1020	1020	1017	1014	1011	1008	1006	1006	1003	997	994	991	988	985	985	983	980	977	974	974	974	972	969	969	969	966	963	963	961	963	963	961	961	961	961	961	958	958	955	955	953	953	950	948	948	945	945	945	942	942	942	940	942	942	942	942	940	940	940	940	940	937	937	935	935	932	932	930	930	930	930	930	930	930	930	930	930	930	930	932	932	932	935	935	935	935	932	932	932	930	930	930	930	930	932	935	932	932	937	932	935	935	937	937	0	0	0	0	0	0	0	0	0	0	0	0	0	0	0	0	0	0	0	0	0	0	0	0	0	0	0	0	0	0	0	0	0	0	0	0	0	0	0	0	0	0	0	0	0	0
0	0	0	0	0	0	0	0	0	0	0	0	0	0	0	0	0	0	0	0	0	0	0	0	0	0	0	0	0	0	0	0	0	0	0	0	0	0	0	0	0	0	0	0	0	1461	1461	1461	1461	1461	1461	1461	1461	1467	1467	1467	1467	1473	1486	1486	1492	1499	1499	1506	1512	1512	1512	0	0	0	0	0	0	0	0	0	0	0	0	0	0	0	1925	1936	1936	1936	1936	1936	1936	1936	0	0	0	0	0	0	0	2088	2114	2127	2127	2127	2114	2114	2101	2114	2101	2101	2114	2114	2114	2114	2114	2114	2114	2114	2114	2114	2114	2114	2114	2114	2114	2114	2114	2114	2114	2114	2114	2114	2114	2114	2114	2114	2101	2101	2101	2101	2101	2101	2101	2101	2114	2101	2114	2114	2114	2114	2101	2101	2101	2101	2101	2114	2114	2114	2114	2114	2114	2114	2114	2114	2114	2101	2114	2127	2140	2140	2167	2181	2194	2208	2252	2252	2266	2266	2281	2297	2312	2359	2376	2392	2409	2392	2409	2426	2443	2443	2460	2443	2443	0	0	0	0	0	0	6018	6018	6018	5915	5915	5915	5915	5915	5915	5915	5915	5915	5915	6018	6018	6018	6018	6018	6018	6018	5915	5915	5915	5915	5915	5915	5915	5915	5915	5915	5915	5915	5915	5915	5915	5915	5915	5915	5815	5815	5815	5815	5915	5915	5915	5915	5915	6018	6018	6018	6018	6018	5915	5915	6018	6018	6018	5915	5915	6018	5915	5915	5915	5915	6018	6124	6124	6124	6124	6018	5815	5815	5915	5915	5915	5915	5915	5915	6018	6018	6018	5915	6018	6018	5915	6018	6018	5915	6018	5915	5815	5915	5815	5815	5915	5915	5915	5915	6018	6018	6018	6018	6018	6018	5915	5915	5915	5915	5815	5815	5815	5815	5815	5815	5815	5915	5915	5915	6124	6018	6018	6018	6018	6018	5915	5915	5915	5915	5915	5915	5915	5915	5915	5915	5915	5915	5915	5915	5915	5815	5915	6018	6018	6018	6018	6018	6018	6018	6018	5815	5915	5815	5815	5815	5815	5815	5815	5815	5815	5815	5915	5915	6018	6018	5915	5915	5915	5815	5815	5815	5815	5815	5815	5815	5915	5915	5915	5915	5815	5815	5815	5815	5915	5915	5915	5915	5915	5915	6018	6018	6018	6018	6018	6018	6018	6018	6018	6018	6018	5915	5915	0	0	0	0	0	0	0	0	0	0	0	0	0	0	0	0	0	0	0	1282	1282	1277	1272	1272	1272	1272	1272	1272	1272	1272	1272	1272	1272	1272	1272	1272	1272	1277	1272	1277	1277	1282	1287	1287	1287	1291	1291	1296	1296	1296	1306	1311	1311	1316	1316	1321	1326	1331	1331	1336	1336	1336	1342	1336	1342	1342	1347	1347	1347	1352	1358	1358	1358	1363	1363	1363	1363	1368	1368	1368	1368	1368	1374	1379	1385	1385	1023	1026	1026	1026	1026	1023	1020	1017	1014	1014	1011	1008	1006	1003	1000	997	994	991	988	988	985	985	980	977	974	974	974	972	969	969	969	966	963	966	963	963	963	961	961	963	961	961	958	958	955	953	953	953	950	948	948	945	945	945	942	942	942	942	942	942	942	942	940	942	942	940	940	937	937	935	935	932	932	930	930	930	930	930	930	930	932	930	930	930	930	932	932	932	932	932	935	932	932	930	930	927	930	930	930	935	932	935	932	932	935	932	935	935	935	935	0	0	0	0	0	0	0	0	0	0	0	0	0	0	0	0	0	0	0	0	0	0	0	0	0	0	0	0	0	0	0	0	0	0	0	0	0	0	0	0	0	0	0	0	0	0
0	0	0	0	0	0	0	0	0	0	0	0	0	0	0	0	0	0	0	0	0	0	0	0	0	0	0	0	0	0	0	0	0	0	0	0	0	0	0	0	0	0	0	0	0	1467	1467	1467	1467	1467	1467	1467	1467	1467	1473	1473	1473	1480	1486	1486	1492	1499	1506	1512	1506	1506	1512	1546	1546	0	0	0	0	0	0	0	0	0	0	0	0	0	1925	1936	1936	1936	1925	1936	1936	1936	0	0	0	0	0	0	0	2101	2114	2140	2140	2127	2127	2114	2114	2114	2101	2101	2101	2114	2114	2114	2114	2114	2114	2114	2114	2114	2101	2114	2114	2114	2114	2114	2114	2114	2114	2114	2114	2114	2114	2114	2114	2114	2101	2101	2101	2101	2101	2101	2101	2101	2114	2101	2114	2101	2101	2114	2114	2101	2101	2101	2114	2114	2114	2114	2114	2114	2114	2114	2101	2101	2114	2101	2101	2114	2140	2140	2167	2167	2194	2208	2237	2252	2266	2266	2281	2297	2343	2359	2376	2392	2392	2392	2409	2426	2443	2460	2478	2478	2478	2496	2496	0	0	0	0	6018	6018	6018	6018	6018	6018	6018	6018	6018	5915	6018	6018	5915	5915	6018	6018	5915	6018	6018	6018	5915	5915	5915	5915	5915	5915	5915	5915	5915	5915	5915	5915	5915	5915	5915	5915	5915	5915	5915	5915	5915	5915	5915	5915	5915	6018	6018	6018	6018	6124	6018	6018	6018	6018	6018	6018	6018	6018	6018	6018	6018	6018	5915	5915	6018	5915	6018	6018	5915	5915	5915	5915	5915	5915	6018	5915	5915	6018	5915	6018	6018	5915	6018	6018	5915	5915	6018	5915	6018	5915	5915	5915	6018	5915	5915	5915	6018	6018	6018	6018	6018	6018	6018	6018	5915	5915	5915	5915	5915	5915	5815	5815	5719	5815	5815	5815	5915	5915	6124	6018	6018	6018	6018	6018	5915	5915	5915	6018	5915	5915	5915	5915	5915	5915	5915	5915	5915	5915	5915	5915	5915	6018	6018	6124	6124	6124	6124	6018	6018	6018	6018	6018	5915	5915	5815	5815	5815	5815	5815	5815	5915	5915	6018	6018	6018	6018	5915	5915	5815	5915	5815	5915	5915	5915	5915	5915	5915	5915	5915	5915	5915	5915	5915	5915	5915	5915	5915	5915	5915	6018	6018	6018	6018	6018	6018	6018	6018	6018	6018	6018	6018	0	0	0	0	0	0	0	0	0	0	0	0	0	0	0	0	0	0	0	1282	1282	1277	1277	1272	1272	1272	1272	1272	1272	1272	1272	1272	1272	1272	1272	1272	1272	1272	1272	1277	1282	1287	1287	1287	1287	1291	1291	1296	1296	1296	1301	1301	1311	1316	1316	1321	1326	1331	1331	1331	1336	1336	1342	1342	1342	1342	1342	1347	1347	1347	1358	1358	1363	1363	1368	1368	1368	1368	1368	1368	1368	1374	1374	1374	1374	1036	1030	1030	1030	1030	1026	1023	1020	1017	1017	1014	1011	1008	1006	1003	1000	997	991	991	988	985	985	983	980	977	974	974	974	972	969	969	972	969	966	966	963	963	963	961	961	961	961	961	958	958	955	955	953	953	950	950	948	948	945	945	945	945	942	942	942	942	945	942	940	942	942	940	940	937	937	935	935	932	930	930	930	930	930	930	930	930	930	930	930	930	930	932	930	930	932	932	932	932	930	930	930	927	930	927	927	935	932	932	932	930	932	932	935	935	935	935	0	0	0	0	0	0	0	0	0	0	0	0	0	0	0	0	0	0	0	0	0	0	0	0	0	0	0	0	0	0	0	0	0	0	0	0	0	0	0	0	0	0	0	0	0	0
0	0	0	0	0	0	0	0	0	0	0	0	0	0	0	0	0	0	0	0	0	0	0	0	0	0	0	0	0	0	0	0	0	0	0	0	0	0	0	0	0	0	0	0	0	1467	1467	1486	1480	1480	1480	1480	1480	1486	1486	1486	1486	1486	1486	1492	1492	1499	1506	1506	1512	1512	1525	1532	1539	1539	0	0	0	0	0	0	0	0	0	0	0	0	1925	1925	1925	1925	1925	1936	1936	1958	1958	0	2015	2015	0	0	0	2114	2127	2140	2140	2127	2127	2114	2114	2114	2101	2101	2101	2101	2114	2114	2114	2114	2114	2114	2114	2101	2101	2101	2114	2101	2114	2101	2101	2114	2114	2114	2114	2114	2114	2114	2114	2114	2101	2101	2101	2101	2101	2101	2101	2101	2114	2101	2101	2101	2088	2101	2101	2101	2101	2101	2101	2114	2114	2114	2114	2114	2114	2114	2101	2101	2114	2101	2101	2127	2140	2153	2167	2181	2208	2208	2223	2237	2252	2266	2281	2297	2312	2359	2359	2376	2392	2392	2392	2426	2426	2426	2496	2514	2514	2496	2496	0	0	0	0	0	6018	6018	6018	6018	6018	6018	6018	6018	6018	6018	6018	6018	6018	6018	6018	6018	6018	6018	6018	6018	5915	5915	5915	5915	5915	5915	5915	5915	5915	5915	5915	5915	5915	5915	5915	5915	5915	5915	5915	5915	5915	5915	6018	6018	6018	6018	6018	6018	6018	6018	6018	6018	6018	6018	6018	6018	6018	6018	6018	6018	6018	6018	6018	6018	5915	5915	6018	6018	5915	6018	6018	6018	6018	6018	6018	6018	6018	6018	6018	6018	5915	6018	5915	5915	5915	5915	5915	6018	5915	5915	5915	6018	6018	6018	6018	6018	6018	6018	6018	6018	6018	6018	6018	6018	6018	5915	5915	5915	5915	5815	5815	5719	5815	5815	5815	5815	5915	0	0	6018	6018	6018	5915	5915	5915	5915	5915	5915	5915	5915	5915	5915	5915	5915	5915	5915	5915	5915	5915	6018	6018	6124	6124	6124	6124	6124	6124	6124	6018	6018	6018	5915	5915	5915	5815	5815	5815	5815	5815	5915	6018	6018	6018	6018	6018	5915	5915	5915	5915	5815	5915	5915	6018	6018	6018	5915	6018	5915	5915	5915	5915	5915	5915	5915	5815	5915	5915	5915	6018	6018	6018	6018	6018	6018	6018	6018	6124	6124	6018	6018	0	0	0	0	0	0	0	0	0	0	0	0	0	0	0	0	0	0	0	1287	1282	1282	1277	1277	1277	1277	1272	1272	1277	1272	1272	1272	1272	1272	1272	1272	1272	1277	1277	1277	1282	1287	1287	1291	1287	1291	1291	1291	1291	1296	1301	1306	1311	1316	1316	1321	1326	1326	1331	1331	1336	1336	1342	1342	1342	1342	1347	1347	1347	1347	1358	1358	1363	1363	1368	1368	1368	1368	1368	1363	1363	1363	1363	1363	1374	1033	1030	1030	1026	1026	1023	1020	1017	1017	1014	1014	1011	1008	1006	1003	1000	997	994	988	988	985	985	983	980	977	974	974	974	972	972	972	972	966	966	966	966	966	966	963	963	963	963	963	961	958	958	955	955	955	953	953	950	950	948	948	945	945	945	945	945	942	942	942	942	942	942	940	942	940	937	937	935	935	932	932	932	932	932	930	930	930	930	930	927	930	930	930	930	930	930	930	930	930	930	930	930	927	930	930	930	935	930	932	932	930	935	935	935	932	935	935	0	0	0	0	0	0	0	0	0	0	0	0	0	0	0	0	0	0	0	0	0	0	0	0	0	0	0	0	0	0	0	0	0	0	0	0	0	0	0	0	0	0	0	0	0	0
0	0	0	0	0	0	0	0	0	0	0	0	0	0	0	0	0	0	0	0	0	0	0	0	0	0	0	0	0	0	0	0	0	0	0	0	0	0	0	0	0	0	0	0	0	0	1486	1486	1486	1486	1486	1486	1486	1486	1486	1486	1486	1486	1492	1492	1492	1492	1499	1499	1499	1499	1532	1539	1546	1546	1546	0	0	0	0	0	0	0	0	0	0	1915	1915	1925	1925	1936	1936	1947	1958	1969	1992	2003	2003	2003	0	0	0	2114	2127	2140	2140	2140	2127	2127	2114	2114	2114	2114	2101	2101	2114	2114	2114	2114	2114	2114	2114	2114	2101	2114	2114	2114	2114	2114	2114	2114	2114	2114	2114	2114	2114	2114	2114	2114	2101	2101	2101	2101	2101	2101	2101	2101	2114	2101	2101	2101	2088	2101	2088	2101	2101	2101	2101	2114	2114	2114	2127	2114	2114	2114	2114	2101	2114	2101	2114	2127	2140	2153	2167	2167	2194	2208	2223	2237	2252	2266	2281	2297	2297	2312	2359	2376	2376	2376	2376	2376	2426	2426	2496	2496	2514	0	0	0	0	0	0	0	6018	6018	6018	6018	6018	6018	6018	6018	6018	6018	6018	6018	6018	6018	6018	6018	6018	6018	6018	6018	5915	5915	5915	5915	5915	5915	5915	5915	5915	5915	5915	5915	5915	5915	5915	5915	5915	5915	5915	5915	5915	5915	6018	6018	6018	6018	6124	6124	6124	6018	6018	6018	6018	6018	6018	6018	6018	6018	6018	6018	6018	6018	6018	6018	6018	6018	6018	6018	6018	6018	6018	6018	6018	6018	6018	6018	6018	6018	6018	6018	5915	6018	6018	6018	6018	6018	6018	6018	5915	6018	6018	6018	6018	6018	6018	6018	6018	6018	6018	6018	6018	6018	6018	6018	5915	5915	5915	5815	5915	5815	5719	5815	5815	5815	5815	5815	0	0	0	0	0	6018	5915	5915	5915	6018	6018	5915	5915	5915	6018	5915	5915	6018	6124	6018	6018	6018	6018	6018	6018	6124	6124	6124	6124	6124	6124	6124	6124	6124	6124	6018	6018	6018	5915	5915	5915	5815	5915	6018	6018	6018	6124	6124	6124	6018	6018	6018	6018	5915	5915	6018	6018	6018	6018	6018	6018	6018	5915	5915	5915	5915	5915	5915	5915	5915	6018	6018	6124	6124	6124	6124	6018	6124	6124	6124	6124	6124	6124	6124	6124	0	0	0	0	0	0	0	0	0	0	0	0	0	0	0	0	0	0	1287	1287	1287	1282	1277	1277	1277	1277	1277	1277	1277	1277	1272	1272	1272	1272	1272	1272	1277	1272	1277	1277	1282	1287	1287	1287	1287	1291	1296	1296	1296	1301	1311	1311	1316	1316	1321	1326	1331	1331	1331	1336	1336	1336	1336	1342	1342	1347	1347	1347	1347	1358	1358	1363	1363	1363	1368	1368	1368	1042	1042	1045	1045	1042	1042	1036	1036	1033	1030	1030	1026	1023	1020	1017	1014	1011	1011	1011	1008	1006	1003	1000	997	994	988	988	985	985	983	983	980	977	974	974	974	972	972	974	972	969	966	966	966	963	963	963	963	963	963	961	961	958	958	958	958	955	955	955	953	953	950	948	948	948	948	945	945	948	945	945	945	945	942	942	940	937	937	937	935	935	935	932	932	932	930	930	930	930	927	927	927	927	930	930	930	930	930	930	930	930	930	930	927	930	930	932	935	930	932	932	932	935	935	935	935	935	935	0	0	0	0	0	0	0	0	0	0	0	0	0	0	0	0	0	0	0	0	0	0	0	0	0	0	0	0	0	0	0	0	0	0	0	0	0	0	0	0	0	0	0	0	0	0
0	0	0	0	0	0	0	0	0	0	0	0	0	0	0	0	0	0	0	0	0	0	0	0	0	0	0	0	0	0	0	0	0	0	0	0	0	0	0	0	0	0	0	0	0	0	1492	1492	1492	1492	1492	1492	1492	1492	1492	1492	1492	1492	1492	1492	1492	1492	1499	1499	1499	1512	1532	1539	1539	1546	1546	1553	1553	1553	0	0	1873	1883	1883	0	0	1915	1915	1925	1936	1936	1947	1958	1969	1980	2003	2015	2015	2015	2015	2088	2088	2101	2114	2127	2127	2127	2127	2114	2114	2114	2114	2114	2114	2114	2114	2114	2114	2114	2114	2114	2114	2114	2101	2101	2114	2101	2114	2114	2114	2114	2114	2114	2114	2114	2114	2114	2114	2114	2101	2101	2101	2114	2114	2114	2114	2114	2114	2114	2114	2101	2088	2088	2088	2101	2114	2114	2114	2114	2114	2114	2127	2114	2114	2114	2101	2101	2101	2101	2101	2127	2140	2140	2153	2153	2181	2194	2208	2208	2237	2237	2281	2297	2312	2312	2359	2343	2359	2376	2376	2376	2426	2426	2496	2496	0	0	0	0	0	0	0	6018	6018	6018	6018	6018	6018	6018	6018	6018	6018	6018	6018	6018	6018	6018	6018	6018	6018	6018	6018	6018	5915	5915	5915	5915	5915	5915	5915	5915	5915	5915	6018	6018	6018	6018	6018	5915	5915	5915	5915	5915	5915	5915	5915	5915	6018	6018	6018	6124	6124	6018	6018	6018	6018	6018	6018	6018	6018	6018	6018	6018	6018	6018	6018	6018	6018	6018	6018	6018	6018	6018	6018	6018	6018	6018	6018	6018	6018	6018	6018	6018	6018	6018	6018	6018	6018	6018	6018	6018	6018	6018	6018	6018	6018	6018	6018	6018	6018	6018	6018	6018	6018	6018	6018	6018	5915	5915	5915	5815	5915	5815	5719	5719	5815	5815	0	0	0	0	0	0	0	0	0	5915	5915	6018	6018	6018	5915	5915	6018	6018	6124	6124	6124	6018	6018	6018	6018	6018	6124	6124	6124	6124	6124	6124	6124	6124	6124	6124	6124	6124	6018	6018	6018	6018	5915	5815	5915	6018	6018	6018	6124	6124	6124	6124	6018	6018	6124	6018	6018	6018	6018	6018	6018	5915	6018	6018	5915	5915	5915	6018	5915	5915	5915	5915	6018	6018	6124	6124	6124	6124	6124	6124	6124	6124	6124	6124	6124	6124	6124	6124	0	0	0	0	0	0	0	0	0	0	0	0	0	0	0	0	0	1287	1287	1287	1282	1282	1282	1277	1277	1277	1277	1277	1277	1272	1272	1272	1272	1272	1272	1277	1277	1277	1282	1282	1282	1287	1287	1291	1291	1296	1296	1296	1301	1306	1311	1316	1316	1321	1326	1326	1326	1331	1331	1336	1336	1336	1342	1342	1347	1347	1347	1347	1352	1358	1363	1363	1363	1368	1368	1052	1052	1048	1048	1045	1045	1039	1036	1036	1033	1033	1030	1026	1023	1020	1017	1017	1011	1011	1011	1008	1006	1003	997	997	994	991	988	988	985	985	985	983	977	980	977	977	974	974	974	972	969	969	966	966	969	966	963	966	966	966	963	963	963	961	961	961	958	958	955	955	955	953	950	950	950	953	950	950	948	948	948	948	945	942	942	942	940	937	937	935	935	935	935	935	935	932	930	930	930	927	927	927	927	930	927	930	932	930	930	930	930	930	930	927	927	932	935	935	935	935	935	935	937	937	935	935	935	935	0	0	0	0	0	0	0	0	0	0	0	0	0	0	0	0	0	0	0	0	0	0	0	0	0	0	0	0	0	0	0	0	0	0	0	0	0	0	0	0	0	0	0	0	0	0
0	0	0	0	0	0	0	0	0	0	0	0	0	0	0	0	0	0	0	0	0	0	0	1017	1017	1017	1017	0	0	0	0	0	0	0	0	0	0	0	0	0	0	0	0	0	0	0	1499	1499	1499	1499	1499	1499	1499	1499	1499	1499	1499	1499	1492	1492	1492	1499	1512	1506	1506	1512	1532	1539	1539	1546	1546	1546	1546	1553	1915	1915	1883	1894	1904	1915	1915	1915	1915	1925	1925	1947	1958	1958	1969	1992	2015	2015	2015	2015	2015	2076	2076	2101	2114	2114	2114	2114	2127	2127	2114	2114	2114	2114	2114	2114	2114	2114	2101	2101	2101	2114	2114	2101	2101	2101	2114	2101	2101	2101	2114	2114	2114	2114	2114	2114	2114	2114	2114	2114	2101	2101	2114	2114	2114	2114	2114	2114	2114	2114	2114	2114	2101	2101	2088	2101	2114	2114	2114	2114	2127	2114	2127	2114	2114	2114	2114	2101	2114	2101	2101	2114	2127	2127	2127	2167	2194	2194	2208	2208	2208	2252	2281	2297	2312	2312	2359	2343	2359	2376	2376	2376	0	0	0	0	0	0	0	0	0	0	6018	6124	6124	6018	6018	6018	6018	6018	6018	6018	6018	6018	6018	6018	6018	6018	6018	6018	6018	6018	6018	6018	6018	6018	5915	5915	5915	5915	5915	6018	5915	5915	6018	6018	6018	6018	6018	6018	5915	5915	5915	5915	5915	5915	5915	5915	6018	6018	6018	6124	6124	6124	6124	6018	6018	6018	6018	6018	6018	6018	6018	6018	6018	6018	6018	6018	6018	6018	6124	6124	6124	6124	6018	6018	6018	6018	6018	6018	6018	6018	6018	6018	6018	6018	6018	6018	6018	6018	6018	6018	6018	6018	6018	6018	6018	6018	6018	6018	6018	6018	6018	6018	6018	6018	6018	6018	5915	5915	5915	5915	5915	5815	5815	5719	0	0	0	0	0	0	0	0	0	0	0	0	5915	6018	6018	6018	6018	6018	6124	6124	6018	6018	6018	6124	6124	6018	6018	6124	6124	6124	6124	6124	6124	6124	6124	6124	6124	6124	6124	6124	6124	6124	6018	6018	5915	5915	6018	6018	6018	6124	6124	6124	6124	6124	6124	6124	6124	6124	6124	6124	6124	6124	6018	6018	6018	6018	6018	6018	6018	6018	6018	5915	5915	6124	6018	6018	6124	6124	6124	6124	6124	6124	6124	6124	6235	6124	6124	6124	6124	6124	0	0	0	0	0	0	0	0	0	0	0	0	0	0	0	0	0	1291	1287	1287	1287	1282	1282	1277	1277	1277	1277	1277	1277	1277	1277	1272	1272	1272	1272	1277	1277	1277	1277	1282	1287	1287	1291	1291	1291	1296	1296	1296	1301	1306	1311	1316	1316	1316	1321	1321	1326	1326	1331	1331	1336	1336	1342	1342	1347	1347	1347	1347	1352	1358	1358	1061	1061	1058	1058	1055	1055	1052	1048	1048	1045	1042	1036	1036	1033	1033	1030	1026	1023	1017	1014	1014	1011	1011	1008	1008	1006	1003	1000	997	994	991	988	988	988	985	985	985	983	980	980	977	974	974	974	974	972	972	969	969	969	969	966	966	969	966	966	966	963	963	963	963	961	958	958	958	958	955	953	955	955	955	953	953	950	948	948	948	948	945	945	945	942	940	937	937	937	937	937	937	935	932	932	932	930	930	927	927	930	930	930	930	932	932	932	932	930	930	932	930	930	932	935	935	932	935	935	935	937	937	937	935	935	935	0	0	0	0	0	0	0	0	0	0	0	0	0	0	0	0	0	0	0	0	0	0	0	0	0	0	0	0	0	0	0	0	0	0	0	0	0	0	0	0	0	0	0	0	0	0
0	0	0	0	0	0	0	0	0	0	0	0	0	0	0	0	0	0	0	0	0	0	0	1017	1017	1020	1020	0	0	0	0	0	0	0	0	0	0	0	0	0	0	0	0	0	0	0	1506	1506	1506	1506	1506	1499	1499	1499	1499	1499	1499	1499	1499	1499	1499	1506	1512	1506	1512	1519	1539	1546	1546	1546	1546	1546	1553	1546	1546	1915	1883	1894	1904	1904	1925	1925	1925	1925	1925	1947	1947	1980	1980	1992	2003	2027	2027	2063	2063	2063	2063	2076	2088	2114	2127	2114	2127	2127	2127	2114	2114	2114	2114	2114	2114	2114	2101	2101	2101	2114	2114	2101	2101	2088	2101	2101	2101	2101	2114	2101	2114	2114	2114	2114	2101	2114	2114	2114	2101	2101	2101	2114	2114	2114	2114	2114	2114	2114	2114	2101	2101	2088	2088	2101	2127	2127	2127	2127	2127	2114	2127	2114	2101	2101	2114	2101	2114	2101	2114	2114	2127	2127	2153	2167	2181	2194	2208	2208	2208	2237	2266	2297	2312	2327	2359	2343	2359	2359	2376	2376	2376	0	0	0	0	0	0	0	0	0	6018	6124	6124	6018	6018	6018	6018	6018	6018	6018	6018	6018	6018	6018	6018	6018	6018	6018	6018	6018	6018	6018	6018	6018	6018	5915	5915	5915	6018	6018	6018	6018	6018	6018	6018	6018	6018	6018	6018	5915	5915	5915	5915	5915	5915	6018	6018	6018	6018	6018	6124	6124	6124	6124	6124	6124	6124	6124	6018	6018	6018	6018	6018	6018	6018	6018	6124	6124	6124	6124	6124	6124	6124	6124	6018	6018	6018	6018	6018	6018	6018	6018	6018	6018	6018	6018	6018	6018	6018	6018	6018	6018	6018	6018	6124	6018	6018	6018	6018	6018	6018	6018	6018	6018	6018	6018	5915	5915	5915	5915	5915	5915	5815	0	0	0	0	0	0	0	0	0	0	0	0	0	0	6018	6018	6018	6018	6018	6124	6124	6124	6124	6124	6124	6124	6124	6124	6124	6124	6124	6124	6124	6235	6124	6124	6235	6235	6124	6124	6124	6124	6124	6124	6018	6018	5915	6018	6124	6018	6124	6124	6124	6124	6124	6124	6124	6124	6124	6124	6124	6124	6124	6018	6018	6018	6018	6018	6018	6018	6018	6018	6018	6018	6018	6018	6018	6235	6235	6235	6124	6124	6124	6124	6124	6235	6124	6124	6124	6124	6124	6124	0	0	0	0	0	0	0	0	0	0	0	0	0	0	0	0	1291	1291	1287	1287	1282	1282	1277	1277	1277	1277	1277	1277	1277	1277	1277	1277	1272	1272	1272	1277	1277	1277	1282	1282	1287	1291	1291	1291	1296	1296	1296	1296	1306	1311	1316	1316	1316	1321	1321	1326	1326	1331	1336	1336	1336	1342	1342	1347	1347	1347	1347	1352	1358	1363	1061	1061	1061	1058	1058	1058	1055	1052	1048	1045	1039	1036	1033	1033	1030	1026	1023	1020	1017	1014	1014	1011	1011	1008	1008	1006	1006	1003	1000	997	991	991	988	988	985	985	985	985	983	980	977	977	977	977	977	974	972	972	972	972	969	969	969	969	969	966	966	966	966	966	966	963	961	961	961	958	961	958	958	958	958	955	955	953	950	953	950	948	948	948	948	945	942	940	940	940	940	940	937	937	935	935	932	930	930	927	930	932	930	932	932	935	935	935	935	932	932	932	932	932	935	935	935	932	935	935	932	935	935	935	935	937	937	0	0	0	0	0	0	0	0	0	0	0	0	0	0	0	0	0	0	0	0	0	0	0	0	0	0	0	0	0	0	0	0	0	0	0	0	0	0	0	0	0	0	0	0	0	0
0	0	0	0	0	0	0	0	0	0	0	0	0	0	0	0	0	0	0	0	0	0	1017	1017	1017	1020	1020	1023	1026	1026	0	0	0	0	0	0	0	0	0	0	0	0	0	0	0	1512	1512	1512	1519	1519	1512	1512	1506	1506	1506	1506	1506	1506	1506	1506	1506	1506	1512	1506	1512	1525	1539	1546	1546	1546	1546	1546	1553	1546	1546	1546	1883	1894	1904	1904	1915	1915	1925	1936	1936	1947	1969	1980	1980	2003	2003	2015	2015	2063	2063	2063	2063	2076	2101	2101	2114	2114	2127	2127	2127	2114	2114	2114	2114	2114	2114	2101	2101	2101	2101	2101	2114	2101	2101	2088	2088	2101	2101	2101	2114	2101	2114	2114	2114	2114	2101	2114	2101	2114	2101	2101	2101	2114	2114	2114	2114	2114	2114	2114	2114	2101	2101	2101	2101	2101	2101	2114	2114	2127	2114	2114	2114	2101	2101	2114	2101	2101	2114	2114	2114	2114	2127	2127	2140	2153	2181	2194	2194	2208	2208	2252	2266	2297	2312	2327	2359	2343	2359	2376	2376	2376	2376	0	0	0	0	0	0	0	0	0	6018	6124	6124	6018	6018	6018	6018	6018	6018	6018	6124	6124	6018	6018	6018	6018	6018	6018	6018	6018	6018	6018	6018	6018	6018	6018	6018	6018	6018	6018	6018	6018	6018	5915	5915	6018	6018	6018	6018	5915	5915	5915	5915	5915	5915	5915	5915	6018	6018	6124	6235	6124	6124	6124	6124	6018	6124	6124	6124	6124	6124	6124	6018	6018	6018	6018	6018	6124	6124	6124	6124	6124	6124	6124	6124	6018	6018	6018	6018	6018	6018	6018	6018	6018	6018	6018	6018	6018	6018	6018	6018	6018	6018	6018	6124	6124	6124	6124	6124	6124	6018	6018	6018	6018	6018	6018	6018	5915	5915	5915	5915	5915	0	0	0	0	0	0	0	0	0	0	0	0	0	0	0	0	6018	6018	6018	6124	6124	6235	6235	6235	6235	6235	6235	6235	6124	6124	6124	6235	6235	6235	6235	6235	6235	6235	6235	6235	6235	6124	6124	6124	6124	6018	6018	6018	6018	6124	6124	6124	6124	6235	6235	6124	6235	6235	6235	6235	6124	6124	6124	6124	6018	6018	6124	6124	6124	6124	6124	6124	6124	6018	6018	6124	6018	6018	6235	6235	6235	6235	6124	6235	6235	6235	6235	6235	6235	6235	6124	6018	6018	0	0	0	0	0	0	0	0	0	0	0	0	0	0	0	0	0	1291	1291	1291	1287	1282	1282	1277	1277	1277	1277	1277	1277	1277	1277	1277	1272	1272	1277	1277	1277	1282	1282	1282	1287	1291	1291	1291	1296	1296	1296	1301	1306	1311	1316	1316	1316	1321	1321	1326	1326	1331	1336	1336	1336	1342	1342	1347	1347	1347	1347	1352	1358	1068	1068	1061	1061	1061	1058	1058	1058	1052	1048	1045	1039	1036	1033	1033	1030	1030	1023	1023	1017	1014	1014	1011	1011	1008	1008	1006	1006	1003	997	997	991	988	988	988	985	985	985	985	985	980	980	980	977	977	977	977	977	974	974	974	972	972	969	972	972	969	969	966	966	966	966	966	963	963	963	966	961	961	961	958	958	958	955	955	955	955	953	953	950	950	948	948	945	942	942	942	942	937	940	937	937	937	935	932	930	930	932	940	937	935	935	935	937	937	935	935	935	935	935	935	935	935	935	935	935	935	935	935	937	935	935	937	937	0	0	0	0	0	0	0	0	0	0	0	0	0	0	0	0	0	0	0	0	0	0	0	0	0	0	0	0	0	0	0	0	0	0	0	0	0	0	0	0	0	0	0	0	0	0
0	0	0	0	0	0	0	0	0	0	0	0	0	0	0	0	0	0	0	0	1017	1017	1017	1017	1017	1020	1020	1023	1023	1026	1026	0	0	0	0	0	0	0	0	0	0	0	0	0	0	1512	1512	1519	1525	1525	1519	1519	1512	1519	1512	1512	1512	1512	1512	1512	1512	1512	1512	1512	1525	1525	1539	1539	1546	1546	1546	1546	1546	1546	1546	1546	1883	1883	1894	1904	1915	1915	1915	1925	1936	1947	1969	1969	1980	1992	2003	2015	2015	2063	2063	2063	2063	2076	2088	2088	2088	2101	2127	2127	2127	2114	2114	2114	2114	2114	2114	2101	2101	2101	2101	2101	2101	2088	2101	2088	2088	2088	2101	2101	2114	2114	2114	2114	2114	2114	2101	2101	2101	2101	2101	2101	2101	2114	2114	2114	2114	2101	2101	2114	2114	2101	2101	2101	2101	2101	2114	2114	2127	2127	2127	2114	2114	2101	2101	2114	2114	2114	2114	2114	2114	2114	2114	2127	2127	2153	2181	2194	2208	2208	2223	2252	2266	2281	2297	2359	2359	2359	2376	2376	2376	2376	2376	0	0	0	0	0	0	0	0	0	6018	6124	6124	6018	6018	6018	6018	6018	6018	6018	6124	6124	6018	6018	6018	6018	6018	6018	6018	6018	6018	6018	6018	6018	6018	6018	6018	6018	6018	6018	6018	6018	6018	5915	5915	6124	6018	6018	6018	5915	5915	5915	5915	5915	5915	5915	5915	6018	6018	6124	6235	6235	6124	6124	6124	6018	6018	6124	6124	6124	6124	6124	6124	6124	6124	6124	6124	6124	6124	6124	6124	6124	6124	6124	6124	6124	6018	6018	6018	6018	6018	6018	6018	6018	6018	6018	6018	6018	6018	6018	6018	6018	6124	6124	6124	6124	6124	6124	6124	6018	6124	6018	6018	6018	6018	6018	6124	6124	6124	6124	0	0	0	0	0	0	0	0	0	0	3952	3952	0	0	0	0	0	0	0	6018	6124	6124	6124	6235	6235	6235	6235	6235	6235	6235	6235	6235	6235	6235	6235	6235	6235	6235	6235	6235	6235	6235	6235	6124	6124	6124	6124	6124	6124	6124	6124	6124	6124	6124	6124	6235	6235	6235	6235	6235	6235	6124	6124	6124	6124	6124	6018	6018	6124	6124	6124	6124	6124	6124	6124	6124	6124	6124	6124	6124	6235	6235	6235	6235	6235	6235	6235	6235	6235	6235	6235	6235	6124	6018	6018	0	0	0	0	0	0	0	0	0	0	0	0	0	0	0	0	0	1291	1291	1291	1291	1287	1282	1282	1282	1277	1277	1277	1277	1277	1277	1277	1277	1277	1277	1282	1282	1282	1282	1282	1287	1287	1291	1291	1296	1296	1296	1301	1306	1311	1316	1316	1321	1326	1326	1326	1331	1331	1336	1336	1336	1342	1342	1347	1347	1352	1352	1358	1358	1068	1068	1061	1061	1058	1058	1055	1058	1052	1048	1042	1039	1036	1033	1033	1033	1030	1026	1023	1017	1017	1014	1011	1011	1008	1008	1006	1006	1003	1000	997	991	991	988	988	988	988	988	985	985	985	983	983	983	980	980	980	980	980	977	974	974	972	969	972	972	969	969	969	969	969	969	966	966	966	969	966	963	961	961	961	958	958	958	955	955	955	955	953	953	953	953	948	945	945	945	945	945	942	940	940	937	937	935	932	932	932	935	942	937	937	937	940	940	937	937	937	937	937	937	937	937	935	935	935	935	935	935	935	937	937	935	937	937	0	0	0	0	0	0	0	0	0	0	0	0	0	0	0	0	0	0	0	0	0	0	0	0	0	0	0	0	0	0	0	0	0	0	0	0	0	0	0	0	0	0	0	0	0	0
0	0	0	0	0	0	0	0	0	0	0	0	0	0	0	0	0	0	0	0	1017	1017	1017	1017	1017	1020	1026	1026	1026	1026	1026	1026	0	0	0	0	0	0	0	0	0	0	0	0	0	1512	1512	1519	1525	1525	1525	1519	1519	1519	1519	1519	1519	1519	1519	1519	1519	1519	1525	1525	1525	1532	1539	1539	1546	1546	1546	1546	1546	1546	1546	1553	1553	1883	1894	1894	1915	1915	1915	1915	1925	1947	1958	1969	1969	1992	2003	2003	2003	2039	2051	2051	2063	2063	2088	2076	2076	2088	2114	2114	2127	2114	2114	2114	2114	2114	2114	2114	2101	2101	2101	2101	2101	2088	2101	2088	2101	2101	2101	2114	2114	2114	2114	2114	2114	2101	2101	2101	2088	2101	2088	2101	2101	2101	2101	2101	2101	2101	2114	2101	2101	2101	2101	2114	2114	2114	2114	2114	2127	2114	2114	2114	2114	2101	2101	2114	2114	2114	2114	2114	2114	2114	2114	2127	2140	2167	2181	2194	2208	2208	2223	2252	2266	2281	2297	2327	2343	2359	2376	2376	2392	2392	2392	2514	2514	2514	0	0	0	0	0	0	6124	6124	6124	6124	6124	6124	6124	6124	6124	6124	6124	6124	6018	6018	6124	6124	6124	6018	6018	6018	6018	6018	6018	6018	6018	6018	6018	6018	6018	6018	6018	6018	6018	6018	6018	6018	6018	6018	6018	6018	6018	6018	5915	5915	5915	5915	6018	6018	6018	6124	6235	6235	6235	6124	6235	6235	6124	6235	6124	6124	6124	6124	6124	6124	6124	6124	6124	6124	6124	6124	6124	6124	6124	6124	6124	6124	6124	6018	6018	6018	6018	6018	6018	6018	6018	6124	6124	6124	6124	6124	6124	6124	6124	6018	6124	6124	6124	6124	6124	6124	6124	6018	6124	6124	6124	6124	6124	6124	6124	6124	0	0	0	0	0	3952	3952	3907	3952	3952	3952	3952	3952	3952	3952	3952	3952	0	0	0	6124	6124	6235	6235	6235	6235	6235	6235	6235	6235	6235	6235	6235	6235	6235	6235	6235	6235	6235	6235	6235	6235	6235	6124	6124	6124	6124	6124	6124	6124	6124	6124	6124	6124	6124	6235	6235	6235	6235	6235	6235	6235	6124	6124	6124	6124	6124	6124	6124	6124	6124	6124	6124	6124	6124	6124	6124	6124	6124	6124	6235	6235	6235	6235	6124	6235	6235	6235	6235	6235	6235	6124	6124	6018	6018	0	0	0	0	0	0	0	0	0	0	0	0	0	0	0	0	0	1291	1296	1296	1291	1291	1287	1282	1282	1282	1282	1277	1277	1277	1277	1277	1277	1277	1277	1282	1282	1282	1287	1287	1287	1287	1291	1291	1296	1296	1296	1301	1306	1311	1316	1316	1321	1326	1326	1331	1331	1336	1336	1336	1336	1342	1342	1085	1085	1085	1081	1081	1081	1071	1068	1061	1061	1058	1058	1055	1058	1052	1048	1042	1036	1036	1033	1033	1033	1030	1026	1023	1017	1014	1011	1011	1008	1008	1006	1006	1003	1000	1003	1000	994	994	991	991	988	988	988	988	988	985	985	985	985	985	983	983	985	985	977	974	977	974	969	972	972	969	969	969	969	969	969	969	969	969	966	966	963	961	961	961	958	958	958	958	958	958	955	955	955	955	955	953	948	948	948	948	945	942	942	940	940	940	937	937	935	937	942	945	945	942	940	940	942	940	937	937	937	937	937	937	937	937	937	935	935	935	935	937	937	937	937	937	937	0	0	0	0	0	0	0	0	0	0	0	0	0	0	0	0	0	0	0	0	0	0	0	0	0	0	0	0	0	0	0	0	0	0	0	0	0	0	0	0	0	0	0	0	0	0
0	0	0	0	0	0	0	0	0	0	0	0	0	0	0	0	0	0	0	0	0	1017	1017	1026	1017	1020	1023	1023	1020	1020	1026	1026	0	0	0	0	0	0	0	0	0	0	0	0	0	0	1512	1519	1532	1525	1525	1525	1525	1525	1525	1525	1525	1525	1525	1525	1525	1532	1532	1532	1532	1539	1539	1546	1546	1546	1546	1546	1553	1553	1553	1567	1567	1883	1883	1883	1894	1894	1904	1915	1915	1936	1947	1958	1969	1980	1992	2015	2015	2039	2051	2051	2051	2063	2076	2063	2063	2063	2063	2127	2127	2127	2114	2114	2114	2114	2114	2114	2101	2101	2101	2101	2101	2088	2101	2101	2101	2101	2101	2114	2114	2101	2101	2101	2101	2101	2101	2101	2088	2088	2088	2101	2101	2114	2101	2114	2101	2101	2114	2114	2114	2101	2114	2114	2114	2114	2114	2114	2114	2114	2114	2114	2101	2101	2101	2101	2101	2101	2101	2101	2114	2114	2127	2127	2140	2167	2194	2208	2208	2223	2237	2252	2266	2297	2312	2343	2359	2359	2376	2392	2392	2409	2409	2496	2496	2514	2532	2551	2551	0	0	6349	6235	6235	6235	6124	6235	6124	6124	6124	6124	6124	6124	6124	6018	6018	6018	6124	6124	6018	6018	6124	6124	6124	6124	6124	6124	6018	6018	6018	6018	6018	6018	6018	6018	6018	6018	6018	6018	6018	6018	6018	6018	6018	6018	5915	5915	6018	6018	6018	6018	6235	6235	6235	6235	6235	6349	6349	6235	6235	6235	6235	6235	6235	6124	6124	6124	6124	6124	6124	6124	6124	6235	6235	6235	6124	6124	6124	6124	6124	6124	6018	6018	6018	6124	6124	6124	6124	6124	6124	6124	6124	6124	6124	6124	6124	6124	6124	6124	6124	6235	6235	6235	6235	6235	6235	6235	6235	6235	6124	6124	0	0	0	0	0	3907	3907	3907	3907	3952	3952	3952	3952	3952	3952	3952	3952	3952	3998	3998	0	0	0	6349	6349	6349	6349	6349	6349	6235	6235	6235	6235	6235	6235	6235	6235	6235	6235	6235	6235	6235	6235	6235	6235	6124	6124	6124	6124	6124	6124	6124	6124	6124	6124	6124	6235	6235	6235	6235	6235	6235	6235	6235	6235	6124	6124	6124	6124	6124	6124	6124	6124	6124	6124	6124	6124	6124	6124	6124	6124	6235	6235	6235	6235	6235	6235	6235	6235	6235	6235	6235	6235	6124	6018	6018	0	0	0	0	0	0	0	0	0	0	0	0	0	0	0	0	0	1296	1296	1296	1291	1291	1287	1287	1287	1287	1282	1282	1282	1282	1277	1277	1277	1277	1282	1282	1287	1282	1287	1287	1287	1291	1291	1291	1296	1296	1301	1301	1311	1311	1316	1321	1321	1326	1326	1331	1331	1336	1336	1336	1342	1342	1342	1342	1085	1085	1081	1081	1074	1071	1068	1061	1058	1058	1058	1055	1052	1052	1048	1042	1039	1036	1033	1033	1033	1030	1023	1020	1017	1014	1011	1011	1008	1008	1008	1006	1006	1008	1006	1003	997	997	994	991	988	988	988	988	988	988	988	985	985	985	985	985	988	988	980	974	977	977	972	974	972	972	972	969	969	972	969	969	969	966	966	966	963	963	961	961	961	961	958	958	958	958	958	958	958	955	955	955	953	953	953	950	948	945	945	942	942	942	940	940	937	940	945	948	945	945	942	942	942	940	937	937	937	937	937	937	937	937	937	937	935	935	935	937	940	937	937	937	937	0	0	0	0	0	0	0	0	0	0	0	0	0	0	0	0	0	0	0	0	0	0	0	0	0	0	0	0	0	0	0	0	0	0	0	0	0	0	0	0	0	0	0	0	0	0
