0	0	0	0	0	0	0	0	0	0	1240	1240	1240	1240	1240	1249	1259	1254	1263	1268	1272	1272	1277	1287	1291	1291	1296	1306	1306	1316	1321	1331	1331	1347	1347	0	0	0	0	0	0	0	0	0	1492	1492	1499	1492	1492	1492	1506	1499	1499	1499	0	1741	1741	1759	1759	1759	1777	1777	1777	1786	1795	1804	1814	1824	1824	1843	1853	1853	1863	1863	1873	1883	1883	1883	1894	1904	1947	1958	1958	1969	1980	1992	1992	1992	2003	2003	2409	2426	2426	2426	2426	2426	2443	2443	2478	2478	2799	2799	2822	2822	2822	2822	2822	2822	2822	2799	2799	2822	2799	2799	2822	2799	2799	2777	2777	0	4771	4643	4643	4643	4643	4643	4643	4643	4581	4643	4581	4581	4581	4581	4581	4581	4581	4581	4581	4643	4643	4706	4706	4706	4706	4706	4643	4581	4581	4581	4581	4581	4581	4581	4581	4581	4581	4521	4521	4521	4521	4521	4521	4581	4521	4521	4521	4521	4521	4521	4521	4521	4643	4521	4521	4581	4581	4643	4643	4643	4643	4643	4643	4643	4643	4643	4643	4581	4643	4643	4643	4643	4643	4643	4643	4643	4643	4643	4581	4581	4581	4581	4643	4643	4643	4643	4643	4643	4643	4643	4643	4643	4706	4706	4706	4706	4706	4706	4643	4643	4643	4581	4643	4643	4643	4643	4643	4643	4706	4643	4643	4581	4581	3341	3341	3341	3309	3309	3309	3309	3309	3309	3277	3277	3277	3277	3277	3309	3277	3277	3309	3309	3309	3309	3309	3309	3309	3309	3277	3277	3277	3277	3277	3277	3277	3277	3246	3246	3246	3277	3277	3246	3246	3246	3277	3277	3246	3277	3277	3277	3277	3277	3246	3277	3246	3277	3277	3246	3277	3277	3309	3277	3277	3277	3277	3277	3309	3309	3309	3309	3309	3309	3309	3309	3309	3309	3341	3341	3341	3341	3341	3341	3309	3309	3309	3246	3277	3277	3277	3277	3277	3246	3246	3246	4706	4643	4643	4706	4643	4706	4706	4706	4643	4643	4643	4643	4643	4643	4643	4643	4643	4643	4581	4643	4581	4581	4521	4521	0	0	0	0	4643	4706	4706	4706	4706	4706	4706	4706	4706	4643	4643	4581	4581	4581	4521	4521	4521	4463	4463	4406	4406	4350	4350	4350	4406	4406	4406	4406	4350	4350	4296	4296	4296	4296	4243	4243	4243	4243	4243	4192	4243	4243	4243	4243	4243	4243	4243	4243	4243	4243	4243	4243	4243	4243	4243	4243	4243	4243	4243	4243	4243	4243	4243	4243	4192	4243	4192	4192	4243	4243	4142	4243	4243	4243	4243	4192	4192	4243	4243	4243	4243	4243	4243	4243	4243	4243	4243	4192	4192	4243	4192	4243	4243	4243	4243	4243	4296	4296	4350	4406	4406	4463	4463	4463	4463	4521	4463	4463	6235	6235	6124	6124	6124	6124	6235	6235	6349	6349	6349	6349	6349	6468	6468	6349	6349	6349	6468	6468	6468	6468	6468	0	0	0	0	0	0	0	0	0	0	0	2570	2551	2551	2532	2532	2532	2514	2514	2514	2496	2514	2496	2496	2496	2478	2478	2460	2460	2460	2460	2443	2443	2443	2443	0	0	0	0	0	0	0	0	0	0	0	0	0	0	0	0	0	0	0	0	0	0	0	0	0	0	0	0	0	0	0	552	552	0	553	552	552	549	549	548	548	548	545	545	546	546	545	544	545	545	545	544	544	543	543	542	542	0	0	0	0	0	0	0	0	0	0	0	0	0	0	0	0	0	0	0	0	0	0	0	0	0	0	0	0	0	0	0	0	0	0	0	0	0	0	0	0	0	0	0	0	0	0	0	0	0	0	0	0	0	0	0	0	0	0	0	0	0	0	0	0	0
0	0	0	0	0	0	0	0	0	0	1236	1236	1236	1240	1240	1254	1259	1259	1263	1268	1272	1272	1277	1277	1291	1301	1306	1306	1311	1316	1321	1326	1326	1347	1347	0	0	0	0	0	0	0	0	0	1499	1499	1499	1492	1499	1492	1492	1499	1499	1499	0	1741	1741	1759	1759	1759	1768	1777	1786	1786	1804	1814	1814	1824	1824	1843	1853	1853	1863	1863	1873	1883	1883	1883	1894	1915	1958	1958	1969	1980	1992	2003	2003	2003	2003	2003	2426	2426	2426	2443	2443	2460	2478	2478	2478	2478	2822	2822	2845	2845	2822	2845	2822	2822	2799	2799	2799	2799	2822	2822	2822	2799	2799	2777	2777	0	4643	4643	4643	4643	4643	4706	4643	4643	4643	4643	4581	4581	4581	4581	4581	4643	4581	4581	4581	4581	4581	4643	4643	4643	4643	4643	4643	4643	4643	4581	4581	4581	4581	4581	4581	4581	4581	4521	4521	4521	4521	4581	4581	4581	4521	4521	4521	4521	4521	4521	4521	4521	4581	4643	4643	4581	4643	4643	4643	4643	4643	4643	4643	4643	4581	4581	4581	4581	4643	4643	4643	4643	4643	4643	4643	4643	4643	4581	4581	4581	4581	4581	4643	4643	4643	4643	4643	4643	4643	4643	4643	4643	4643	4706	4706	4706	4706	4643	4643	4643	4581	4581	4581	4643	4643	4643	4643	4643	4643	4643	4643	4581	4581	4581	3309	3309	3309	3309	3309	3309	3309	3309	3277	3277	3277	3277	3277	3309	3277	3277	3309	3309	3309	3309	3309	3277	3309	3309	3277	3277	3277	3277	3277	3277	3277	3277	3246	3246	3277	3277	3277	3277	3277	3277	3277	3277	3277	3277	3277	3277	3277	3277	3277	3277	3277	3277	3277	3277	3277	3277	3277	3277	3277	3277	3309	3309	3309	3309	3309	3309	3309	3309	3309	3309	3309	3309	3309	3341	3341	3341	3341	3341	3341	3309	3309	3277	3277	3277	3277	3277	3277	3246	3246	3246	4706	4643	4706	4706	4706	4706	4706	4706	4706	4706	4706	4706	4706	4706	4706	4706	4706	4643	4643	4643	4581	4581	4581	4643	4643	4643	4643	4643	4643	4706	4706	4706	4706	4706	4706	4706	4706	4643	4643	4643	4581	4643	4581	4521	4521	4521	4521	4463	4406	4406	4350	4406	4406	4406	4406	4406	4350	4406	4296	4296	4296	4296	4243	4243	4243	4243	4243	4243	4192	4192	4192	4192	4243	4243	4243	4243	4243	4243	4243	4243	4243	4243	4243	4243	4243	4243	4243	4243	4243	4243	4243	4243	4243	4243	4192	4192	4192	4142	4142	4243	4243	4243	4243	4192	4192	4243	4243	4243	4243	4243	4243	4243	4243	4243	4243	4192	4192	4192	4192	4192	4192	4243	4243	4296	4296	4296	4350	4406	4406	4463	4463	4463	4463	4463	4463	4463	6124	6124	6124	6124	6124	6124	6235	6235	6349	6349	6349	6349	6349	6468	6468	6468	6349	6349	6468	6468	6468	0	0	0	0	0	0	0	0	0	0	0	0	0	2551	2551	2551	2532	2532	2532	2514	2514	2496	2496	2496	2478	2478	2478	2478	2478	2460	2460	2460	2460	2443	2426	2426	2443	0	0	0	0	0	0	0	0	0	0	0	0	0	0	0	0	0	0	0	0	0	0	0	0	0	0	0	0	0	554	553	553	553	553	553	552	552	551	551	547	547	547	546	546	545	545	545	545	545	544	545	545	544	544	543	543	542	0	0	0	0	0	0	0	0	0	0	0	0	0	0	0	0	0	0	0	0	0	0	0	0	0	0	0	0	0	0	0	0	0	0	0	0	0	0	0	0	0	0	0	0	0	0	0	0	0	0	0	0	0	0	0	0	0	0	0	0	0	0	0	0	0
0	0	0	0	0	0	0	0	0	0	1236	1240	1240	1240	1254	1259	1259	1263	1263	1268	1272	1277	1277	1282	1296	1296	1311	1316	1321	1316	1321	1331	1331	0	0	0	0	0	0	0	0	0	0	1492	1492	1492	1492	1492	1492	1492	1492	1492	1492	1492	0	1741	1768	1768	1759	1759	1759	1768	1768	1786	1795	1814	1814	1824	1833	1853	1863	1863	1863	1873	1873	1883	1883	1883	1894	1936	1958	1969	1969	1969	1992	1992	2003	2015	2015	2496	2460	2460	2460	2460	2478	2478	2478	2496	2496	2496	2532	2532	2869	2869	2845	2845	2822	2822	2799	2799	2799	2822	2822	2822	2822	2799	2799	2777	2777	0	4643	4581	4643	4581	4643	4643	4643	4643	4643	4643	4581	4581	4581	4581	4581	4581	4581	4581	4581	4581	4581	4643	4706	4706	4706	4643	4643	4643	4643	4643	4643	4581	4581	4581	4581	4581	4581	4581	4521	4521	4521	4521	4581	4581	4581	4581	4521	4581	4581	4581	4581	4581	4581	4581	4643	4581	4643	4643	4643	4643	4643	4643	4643	4643	4581	4581	4581	4581	4581	4581	4643	4643	4643	4643	4643	4643	4581	4581	4581	4581	4581	4581	4581	4581	4581	4581	4643	4643	4643	4643	4643	4643	4643	4643	4643	4643	4643	4643	4643	4581	4581	4581	4581	4643	4643	4643	4643	4643	4643	4643	4643	4643	4643	4581	4581	3309	3309	3309	3309	3309	3309	3309	3277	3277	3277	3277	3309	3309	3277	3309	3309	3309	3309	3309	3309	3309	3277	3277	3277	3277	3277	3277	3277	3277	3277	3246	3246	3246	3277	3277	3277	3277	3277	3277	3277	3277	3277	3277	3277	3277	3277	3277	3277	3277	3277	3277	3277	3277	3277	3277	3309	3309	3277	3277	3309	3309	3309	3309	3309	3309	3309	3309	3309	3309	3309	3309	3309	3309	3341	3341	3341	3341	3341	3309	3309	3277	3277	3277	3277	3277	3277	3246	3246	3246	3246	4706	4706	4706	4706	4706	4706	4706	4706	4706	4706	4706	4706	4706	4706	4706	4706	4706	4706	4706	4706	4643	4643	4643	4643	4643	4643	4643	4643	4706	4706	4706	4706	4771	4706	4771	4706	4706	4706	4706	4706	4706	4643	4643	4581	4521	4521	4463	4463	4406	4406	4406	4406	4406	4350	4350	4350	4406	4296	4296	4296	4296	4243	4243	4243	4243	4243	4192	4192	4192	4192	4243	4243	4243	4243	4243	4243	4243	4243	4243	4243	4243	4243	4243	4243	4243	4243	4243	4243	4243	4243	4243	4243	4243	4243	4192	4192	4192	4192	4243	4243	4243	4243	4192	4192	4243	4243	4243	4243	4243	4243	4243	4243	4243	4243	4192	4192	4192	4192	4192	4192	4243	4243	4296	4296	4296	4350	4406	4406	4406	4463	4463	4463	4521	4521	4521	6124	6124	6124	6124	6124	6124	6235	6235	6349	6349	6349	6349	6349	6468	6468	6468	6349	6468	6468	6468	6468	0	0	0	0	0	0	0	0	0	0	0	0	0	2570	2551	2551	2532	2532	2532	2514	2514	2496	2496	2496	2496	2478	2478	2478	2478	2460	2460	2460	2460	2443	2443	2426	0	0	0	0	0	0	0	0	0	0	0	0	0	0	0	0	0	0	0	0	0	0	0	2266	2252	2252	2252	2252	0	555	555	553	553	553	553	553	552	551	551	551	547	547	547	546	546	546	545	545	545	544	544	545	545	544	544	544	544	0	0	0	0	0	0	0	0	0	0	0	0	0	0	0	0	0	0	0	0	0	0	0	0	0	0	0	0	0	0	0	0	0	0	0	0	0	0	0	0	0	0	0	0	0	0	0	0	0	0	0	0	0	0	0	0	0	0	0	0	0	0	0	0	0	0
0	0	0	0	0	0	0	0	0	0	0	1236	1240	1240	1263	1263	1263	1263	1268	1268	1272	1277	1277	1287	1296	1301	1311	1316	1321	1316	1326	1326	1331	0	0	0	0	0	0	0	0	1486	1492	1492	1492	1492	1492	1492	1492	1492	1492	1492	1492	1492	0	1741	1741	1759	1759	1768	1759	1768	1777	1786	1795	1804	1814	1824	1833	1853	1863	1863	1863	1863	1873	1883	1883	1894	1925	1947	1958	1958	1969	1992	1992	2015	2015	2027	2027	2514	2478	2460	2478	2478	2478	2478	2496	2496	2514	2532	2532	2532	2869	2869	2893	2845	2822	2822	2822	2799	2799	2799	2822	2822	2822	2799	2799	2777	4521	4581	4643	4581	4581	4643	4643	4643	4643	4581	4581	4643	4581	4581	4581	4581	4581	4581	4581	4581	4581	4581	4581	4643	4643	4643	4643	4643	4643	4643	4643	4581	4581	4581	4643	4581	4581	4581	4581	4581	4581	4581	4521	4581	4581	4581	4521	4581	4581	4521	4581	4581	4581	4521	4521	4521	4581	4643	4643	4643	4643	4643	4643	4643	4643	4581	4581	4581	4581	4581	4581	4581	4581	4643	4643	4643	4643	4581	4581	4581	4581	4581	4581	4581	4581	4581	4581	4643	4643	4643	4643	4643	4643	4643	4643	4643	4643	4706	4706	4643	4643	4581	4581	4581	4581	4581	4643	4643	4643	4643	4706	4706	4706	4643	4643	4643	4643	3309	3309	3309	3309	3309	3309	3309	3277	3277	3277	3277	3277	3277	3277	3277	3309	3309	3309	3309	3309	3277	3277	3277	3277	3277	3277	3277	3277	3277	3277	3246	3246	3277	3277	3277	3277	3277	3277	3277	3277	3277	3277	3246	3246	3277	3277	3309	3309	3277	3277	3277	3309	3277	3277	3277	3309	3309	3277	3277	3277	3309	3309	3309	3309	3309	3309	3309	3309	3309	3309	3309	3309	3309	3309	3341	3341	3341	3309	3309	3309	3277	3277	3277	3277	3277	3277	3246	3246	3246	3246	4706	4706	4706	4706	4706	4706	4706	4706	4706	4706	4706	4706	4706	4706	4706	4706	4706	4706	4706	4706	4706	4706	4706	4706	4643	4643	4643	4643	4706	4706	4706	4706	4771	4706	4706	4706	4706	4706	4706	4706	4706	4706	4706	4643	4581	4521	4521	4463	4406	4406	4406	4406	4406	4350	4350	4350	4350	4296	4296	4296	4296	4243	4243	4243	4243	4192	4192	4192	4192	4192	4243	4243	4243	4243	4243	4243	4243	4243	4243	4243	4243	4243	4243	4243	4243	4243	4243	4243	4243	4243	4243	4243	4243	4243	4243	4243	4192	4192	4192	4192	4192	4192	4192	4192	4243	4243	4243	4243	4243	4243	4243	4243	4243	4243	4192	4243	4192	4192	4243	4243	4243	4296	4296	4296	4296	4350	4350	4406	4406	4463	4463	4521	4521	4521	4521	6124	6124	6124	6124	6124	6235	6235	6235	6349	6349	6349	6349	6349	6468	6468	6468	6468	6468	6468	6468	6468	0	0	0	0	0	0	0	0	0	0	0	0	0	2570	2570	2551	2532	2532	2532	2514	2514	2496	2496	2496	2496	2478	2478	2478	2478	2460	2460	2460	2460	2460	2443	0	0	0	0	0	0	0	0	0	0	0	0	0	0	0	0	0	0	0	0	0	0	0	0	2252	2252	2252	2252	2252	2252	556	555	555	554	553	553	553	552	551	551	551	0	547	547	546	546	546	545	545	545	545	544	545	545	545	545	545	544	544	0	0	0	0	0	0	0	0	0	0	0	0	0	0	0	0	0	0	0	0	0	0	0	0	0	0	0	0	0	0	0	0	0	0	0	0	0	0	0	0	0	0	0	0	0	0	0	0	0	0	0	0	0	0	0	0	0	0	0	0	0	0	0	0	0
0	0	0	0	0	0	0	0	0	0	0	1236	1245	1249	1263	1263	1263	1268	1268	1272	1272	1277	1282	1287	1296	1301	1306	1311	1316	1316	1316	1326	0	0	0	0	0	0	0	0	0	1480	1486	1492	1492	1492	1492	1492	1492	1492	1492	1492	1492	0	0	1741	1759	1768	1759	1768	1759	1777	1786	1786	1804	1814	1814	1833	1833	1843	1853	1853	1863	1863	1873	1894	1904	1915	1925	1958	1958	1980	1980	2003	2003	2015	2027	2039	2039	2496	2496	2478	2478	2478	2478	2478	2496	2514	2514	2532	2551	2551	2551	2551	2942	2869	2845	2822	2822	2799	2822	2822	2822	2799	2822	2799	2799	0	4521	4581	4581	4581	4581	4643	4643	4643	4643	4643	4643	4581	4581	4581	4581	4581	4581	4581	4581	4581	4643	4643	4643	4706	4706	4706	4706	4706	4643	4643	4643	4581	4581	4581	4581	4581	4581	4581	4581	4581	4581	4581	4581	4581	4581	4581	4581	4581	4581	4521	4581	4581	4581	4521	4521	4521	4581	4643	4643	4643	4643	4643	4643	4643	4643	4643	4581	4581	4581	4581	4581	4581	4581	4581	4643	4643	4643	4643	4581	4581	4581	4581	4581	4581	4581	4581	4581	4581	4581	4581	4643	4643	4643	4643	4643	4643	4643	4643	4643	4643	4643	4581	4581	4643	4581	4643	4643	4643	4706	4643	4706	4706	4643	4643	4643	4643	4643	4581	3309	3277	3309	3309	3309	3277	3277	3277	3277	3309	3309	3309	3277	3309	3309	3309	3309	3309	3309	3309	3277	3277	3277	3277	3277	3277	3277	3277	3277	3277	3277	3277	3277	3277	3277	3277	3277	3277	3277	3277	3277	3246	3246	3277	3277	3309	3309	3309	3309	3309	3309	3309	3277	3277	3309	3309	3277	3277	3309	3309	3309	3309	3309	3309	3309	3309	3309	3309	3309	3309	3309	3309	3309	3309	3309	3309	3309	3309	3309	3246	3277	3246	3277	3277	3277	3277	3277	3277	4771	4706	4706	4706	4706	4706	4706	4706	4706	4706	4706	4706	4706	4706	4706	4706	4706	4706	4706	4706	4706	4706	4706	4706	4706	4706	4706	4706	4706	4706	4706	4706	4771	4771	4706	4706	4706	4706	4706	4706	4706	4706	4706	4706	4706	4521	4521	4521	4463	4463	4463	4463	4463	4406	4406	4406	4406	4406	4296	4296	4296	4296	4243	4243	4243	4243	4243	4243	4243	4243	4243	4243	4243	4243	4243	4243	4243	4243	4243	4243	4243	4243	4243	4243	4243	4243	4243	4243	4243	4243	4243	4243	4243	4243	4243	4243	4192	4192	4192	4192	4192	4192	4192	4192	4192	4192	4192	4243	4243	4243	4243	4243	4243	4243	4243	4192	4243	4243	4243	4243	4243	4296	4296	4296	4296	4296	4350	4350	4406	4406	4463	4463	4521	4521	4521	4521	6124	6124	6124	6124	6124	6235	6235	6235	6349	6349	6349	6349	6349	6468	6468	6468	6468	6468	6468	6592	6592	6592	0	0	0	0	0	0	0	0	0	0	0	2589	2570	2570	2551	2551	2532	2532	2514	2514	2496	2496	2496	2496	2496	2496	2478	2478	2478	2460	2460	2460	2460	0	0	0	0	0	0	0	0	0	0	0	0	0	0	0	0	0	0	0	0	0	0	0	0	0	2252	2237	2237	2237	2237	559	557	556	555	554	553	553	553	552	551	551	548	548	546	546	545	545	546	545	545	545	545	545	545	545	545	545	545	545	545	0	0	0	0	0	0	0	0	0	0	0	0	0	0	0	0	0	0	0	0	0	0	0	0	0	0	0	0	0	0	0	0	0	0	0	0	0	0	0	0	0	0	0	0	0	0	0	0	0	0	0	0	0	0	0	0	0	0	0	0	0	0	0	0	0
0	0	0	0	0	0	0	0	0	0	0	1240	1240	1249	1263	1263	1263	1268	1268	1272	1277	1277	1282	1287	1296	1301	1306	1306	1316	1316	1316	0	0	0	0	0	0	0	0	0	0	1486	1492	1492	1492	1492	1492	1492	1492	1492	1492	1492	1492	0	0	1741	1741	1759	1759	1768	1768	1786	1786	1795	1804	1804	1814	1814	1833	1853	1853	1863	1863	1873	1883	1894	1904	1915	1915	1936	1958	1980	1980	1992	2015	2015	2027	2039	2051	2051	2514	2496	2496	2496	2514	2514	2514	2532	2532	2551	2570	2570	2570	2570	2845	2845	2822	2822	2822	2799	2799	2799	2799	2799	2799	2799	2799	2799	2799	4581	4581	4581	4581	4643	4643	4643	4643	4643	4643	4581	4581	4581	4581	4581	4581	4581	4581	4643	4643	4643	4643	4706	4581	4581	4581	4581	4581	4581	4643	4643	4643	4581	4581	4581	4581	4581	4581	4581	4581	4581	4581	4581	4581	4581	4581	4581	4581	4521	4581	4581	4581	4581	4581	4581	4581	4643	4643	4643	4706	4643	4643	4643	4643	4643	4581	4581	4581	4581	4581	4581	4581	4581	4643	4643	4643	4581	4581	4581	4581	4581	4581	4581	4581	4581	4581	4643	4643	4581	4643	4643	4643	4643	4643	4643	4643	4643	4643	4706	4643	4643	4643	4643	4643	4643	4643	4643	4643	4643	4706	4706	4706	4706	4643	4706	4706	4581	4581	3309	3309	3309	3309	3277	3277	3277	3277	3309	3309	3309	3277	3277	3309	3309	3309	3309	3277	3277	3277	3277	3277	3277	3277	3277	3277	3277	3277	3277	3277	3277	3277	3277	3277	3277	3277	3277	3277	3277	3246	3246	3246	3277	3277	3309	3309	3309	3309	3309	3309	3309	3309	3277	3309	3309	3309	3277	3277	3309	3309	3309	3309	3309	3309	3309	3309	3309	3309	3309	3309	3309	3309	3309	3309	3309	3309	3309	3277	3246	3246	3246	3246	3246	3277	3277	3277	3277	3277	4771	4706	4706	4706	4706	4706	4706	4706	4706	4706	4706	4706	4706	4706	4771	4706	4706	4706	4706	4706	4706	4706	4706	4706	4706	4706	4706	4706	4706	4643	4706	4706	4706	4706	4706	4706	4771	4771	4771	4771	4771	4706	4706	4521	4521	4521	4521	4463	4463	4463	4463	4406	4406	4406	4406	4406	4350	4296	4296	4296	4296	4243	4243	4243	4243	4243	4243	4243	4243	4243	4243	4243	4243	4243	4243	4243	4243	4243	4243	4243	4243	4243	4243	4243	4243	4243	4243	4243	4243	4243	4243	4243	4243	4243	4192	4192	4192	4192	4192	4192	4192	4192	4192	4192	4192	4243	4243	4243	4243	4243	4243	4243	4243	4243	4192	4243	4243	4243	4243	4243	4296	4296	4296	4296	4296	4350	4406	4406	4463	4463	4463	4521	4521	4521	4521	6235	6235	6235	6235	6235	6235	6235	6235	6349	6468	6468	6349	6468	6468	6468	6468	6468	6468	6592	6592	6592	6468	6468	6468	6468	6468	6468	0	0	0	0	0	0	2589	2589	2570	2570	2551	2551	2532	2514	2514	2514	2514	2514	2496	2496	2496	2478	2478	2478	2460	2460	2460	2460	0	0	0	0	0	0	0	0	0	0	0	0	0	0	0	0	0	0	0	0	0	0	0	0	2252	2252	2237	2237	2237	2237	559	558	556	555	554	553	552	552	551	550	549	548	548	547	546	545	545	545	545	545	545	544	544	544	545	545	545	545	545	545	0	0	0	0	0	0	0	0	0	0	0	0	0	0	0	0	0	0	0	0	0	0	0	0	0	0	0	0	0	0	0	0	0	0	0	0	0	0	0	0	0	0	0	0	0	0	0	0	0	0	0	0	0	0	0	0	0	0	0	0	0	0	0	0	0
0	0	0	0	0	0	0	0	0	0	0	1240	1249	1254	1254	1268	1268	1268	1268	1272	1277	1277	1282	1287	1291	1291	1306	1311	1311	1316	0	0	0	0	0	0	0	0	0	0	0	1492	1492	1492	1492	1492	1492	1492	1492	1492	1492	1492	1492	0	0	1741	1750	1750	1759	1759	1768	1786	1795	1795	1804	1814	1814	1833	1833	1853	1853	1853	1863	1873	1883	1894	1904	1915	1925	1947	1947	1969	1980	2003	2015	2027	2039	2039	2514	2514	2514	2514	2514	2532	2532	2532	2532	2532	2532	2551	2570	2570	2589	2609	2609	2845	2845	2822	2822	2822	2822	2799	2799	2799	2822	2799	2799	2799	2799	4521	4643	4643	4643	4643	4706	4643	4643	4643	4643	4643	4581	4581	4581	4581	4581	4581	4581	4581	4581	4581	4581	4581	4581	4581	4581	4643	4643	4643	4581	4581	4581	4581	4581	4581	4581	4581	4581	4581	4581	4581	4643	4643	4581	4581	4581	4581	4581	4581	4581	4581	4581	4581	4581	4581	4581	4581	4643	4643	4643	4643	4643	4643	4643	4643	4581	4581	4581	4581	4581	4581	4581	4581	4643	4643	4643	4581	4581	4581	4581	4581	4581	4581	4643	4643	4643	4643	4643	4643	4643	4643	4643	4643	4706	4643	4643	4643	4643	4643	4643	4643	4643	4643	4643	4643	4643	4643	4643	4643	4706	4706	4706	4643	4643	4643	4643	4581	4581	3246	3246	3277	3277	3277	3277	3277	3277	3277	3277	3246	3246	3246	3309	3277	3309	3277	3277	3277	3277	3277	3277	3277	3277	3277	3277	3277	3277	3277	3277	3277	3277	3277	3277	3277	3277	3277	3277	3277	3277	3277	3246	3277	3277	3309	3309	3309	3309	3309	3309	3309	3309	3277	3309	3309	3309	3277	3277	3277	3277	3309	3309	3309	3309	3309	3309	3309	3277	3277	3277	3309	3309	3309	3309	3309	3309	3309	3277	3246	3246	3246	3246	3246	3246	3277	3277	3277	4706	4771	4706	4706	4706	4706	4706	4706	4706	4706	4706	4706	4706	4706	4706	4771	4706	4771	4771	4771	4706	4706	4706	4706	4706	4706	4706	4706	4706	4706	4706	4706	4706	4706	4706	4706	4771	4771	4771	4771	4771	4771	4706	4706	4581	4521	4521	4521	4463	4406	4406	4406	4406	4406	4406	4350	4350	4350	4296	4296	4296	4296	4243	4243	4243	4243	4243	4243	4243	4243	4243	4243	4243	4243	4243	4243	4243	4243	4243	4243	4243	4243	4243	4243	4243	4243	4243	4243	4243	4243	4243	4243	4243	4243	4192	4192	4192	4192	4192	4192	4192	4243	4243	4243	4243	4192	4243	4243	4243	4243	4243	4243	4243	4243	4192	4192	4243	4243	4243	4243	4243	4296	4296	4296	4296	4350	4350	4406	4406	4463	4463	4463	4521	4521	4521	4521	6235	6235	6235	6235	6235	6349	6468	6468	6468	6124	6124	6124	6124	6124	6468	6468	6468	6468	6592	6592	6592	6468	6468	6468	6468	6468	6468	6468	0	0	0	0	0	0	2570	2570	2570	2551	2551	2532	2514	2514	2496	2514	2514	2496	2496	2496	2478	2478	2478	2460	2460	2460	0	0	0	0	0	0	0	0	0	0	0	0	0	0	0	0	0	0	0	0	0	0	0	0	0	2252	2252	2237	2237	2237	2237	560	558	557	555	555	553	552	552	551	550	549	548	547	547	546	546	545	545	544	544	543	543	542	542	542	542	542	545	545	545	0	0	0	0	0	0	0	0	0	0	0	0	0	0	0	0	0	0	0	0	0	0	0	0	0	0	0	0	0	0	0	0	0	0	0	0	0	0	0	0	0	0	0	0	0	0	0	0	0	0	0	0	0	0	0	0	0	0	0	0	0	0	0	0	0
0	0	0	0	0	0	0	0	0	0	0	0	1249	1254	1268	1268	1272	1272	1272	1272	1282	1282	1287	1287	1291	1291	1306	1311	1311	0	0	0	0	0	0	0	0	0	0	0	1486	1492	1492	1492	1492	1492	1492	1492	1492	1492	1492	0	0	1750	1750	1759	1759	1759	1768	1768	1777	1786	1786	1795	1804	1814	1814	1833	1833	1843	1853	1863	1873	1883	1894	1904	1915	1925	1925	1947	1947	1980	1980	2003	2015	2027	2027	2478	2496	2514	2514	2514	2532	2551	2551	2551	2551	2551	2532	2551	2551	2570	2589	2609	2609	2609	2609	2822	2822	2822	2822	2799	2799	2799	2799	2799	2822	2822	0	4581	4643	4643	4643	4643	4706	4706	4643	4643	4643	4643	4581	4581	4581	4581	4581	4581	4581	4581	4581	4581	4581	4581	4581	4581	4581	4581	4643	4643	4643	4643	4643	4643	4581	4581	4581	4581	4581	4581	4581	4581	4581	4643	4581	4581	4581	4581	4581	4581	4581	4581	4581	4581	4581	4581	4581	4581	4581	4521	4521	4521	4581	4581	4643	4643	4581	4581	4581	4581	4581	4581	4581	4581	4643	4643	4643	4643	4581	4581	4581	4581	4581	4581	4581	4643	4643	4643	4643	4643	4643	4643	4643	4706	4706	4643	4643	4643	4643	4643	4643	4643	4643	4643	4643	4643	4643	4643	4643	4643	4706	4706	4643	4643	4643	4643	4643	4521	4521	3216	3216	3216	3277	3277	3277	3246	3277	3277	3277	3216	3216	3216	3277	3277	3277	3277	3277	3277	3277	3277	3277	3246	3246	3277	3277	3277	3277	3277	3277	3277	3277	3277	3277	3277	3277	3277	3277	3277	3277	3277	3277	3277	3277	3309	3309	3309	3309	3309	3309	3277	3309	3277	3309	3309	3309	3277	3277	3277	3277	3309	3309	3309	3277	3309	3309	3309	3309	3277	3309	3309	3309	3309	3309	3277	3309	3277	3277	3246	3246	3246	3246	3246	3277	3246	3277	3309	3309	4706	4706	4706	4706	4706	4706	4706	4706	4706	4643	4706	4706	4706	4706	4771	4771	4771	4771	4771	4771	4706	4706	4706	4706	4706	4706	4706	4706	4706	4706	4706	4706	4706	4706	4706	4771	4771	4771	4771	4771	4771	4706	4706	4581	4521	4521	4521	4463	4406	4406	4406	4406	4350	4350	4350	4350	4350	4296	4296	4296	4296	4296	4243	4243	4243	4243	4243	4243	4243	4243	4243	4243	4243	4192	4243	4243	4243	4243	4243	4243	4243	4243	4243	4243	4243	4243	4243	4243	4243	4243	4243	4192	4192	4192	4192	4192	4192	4243	4243	4243	4243	4243	4243	4243	4192	4243	4243	4243	4243	4243	4243	4243	4243	4243	4243	4243	4243	4243	4243	4296	4296	4296	4296	4296	4296	4296	4406	4406	4406	4463	4463	4521	4521	4521	4521	6235	6235	6349	6349	6349	6349	6468	6468	6468	6124	6124	6124	6124	6235	6468	6468	6468	6468	6592	6592	6468	6468	6468	6468	6468	6468	6468	6468	0	0	0	0	0	2589	2589	2589	2570	2551	2551	2532	2514	2514	2496	2514	2514	2496	2496	2496	2478	2478	2478	2478	2460	0	0	0	0	0	0	0	0	0	0	0	0	0	0	0	0	0	0	0	0	0	0	0	0	0	0	2252	2237	2223	2223	2223	2223	562	558	556	555	553	552	551	551	550	549	548	548	546	546	545	545	545	544	544	543	543	542	542	542	542	542	542	542	545	545	0	0	0	0	0	0	0	0	0	0	0	0	0	0	0	0	0	0	0	0	0	0	0	0	0	0	0	0	0	0	0	0	0	0	0	0	0	0	0	0	0	0	0	0	0	0	0	0	0	0	0	0	0	0	0	0	0	0	0	0	0	0	0	0	0
0	0	0	0	0	0	0	0	0	0	0	0	0	0	1272	1272	1272	1272	1272	1272	1282	1282	1287	1291	1291	1291	0	0	0	0	0	0	0	0	0	0	0	0	0	1473	1486	1486	1486	1492	1492	1492	1499	1499	1499	1499	0	0	0	1750	1750	1759	1759	1759	1759	1768	1777	1786	1786	1795	1804	1814	1814	1833	1843	1853	1853	1863	1873	1883	1894	1904	1915	1925	1936	1947	1958	1992	1980	2003	2015	2015	2460	2478	2496	2496	2514	2532	2551	2551	2551	2570	2551	2570	2551	2570	2570	2589	2609	2609	2609	2609	2609	2799	2799	2822	2822	2799	2799	2799	2799	2799	2799	2822	4581	4581	4643	4643	4706	4706	4706	4706	4643	4643	4643	4581	4581	4581	4581	4581	4581	4581	4581	4643	4643	4581	4581	4581	4643	4643	4643	4643	4643	4643	4581	4581	4643	4581	4581	4581	4581	4581	4581	4581	4581	4581	4581	4581	4581	4581	4581	4581	4581	4581	4581	4581	4581	4581	4581	4581	4581	4581	4521	4521	4521	4521	4581	4581	4643	4581	4581	4581	4581	4581	4581	4581	4581	4581	4581	4643	4643	4643	4581	4581	4643	4643	4643	4581	4643	4643	4581	4581	4581	4581	4643	4643	4643	4706	4706	4643	4643	4643	4643	4643	4643	4643	4643	4643	4643	4643	4643	4643	4643	4643	4643	4706	4643	4643	4643	4643	4581	4581	4581	3216	3216	3216	3246	3277	3277	3246	3246	3246	3277	3277	3216	3216	3277	3277	3277	3277	3277	3277	3277	3277	3277	3277	3277	3277	3277	3277	3277	3277	3277	3277	3277	3277	3277	3277	3277	3277	3246	3246	3246	3277	3246	3277	3277	3309	3309	3309	3309	3277	3309	3277	3309	3277	3277	3277	3277	3277	3277	3277	3277	3277	3277	3277	3277	3309	3309	3309	3309	3309	3277	3309	3309	3277	3277	3277	3277	3277	3277	3216	3216	3246	3246	3246	3277	3277	3277	3309	3309	4706	4706	4706	4706	4706	4706	4643	4643	4643	4643	4643	4643	4706	4706	4706	4771	4771	4706	4771	4771	4706	4706	4706	4706	4706	4706	4706	4706	4706	4706	4706	4706	4706	4706	4706	4771	4771	4771	4706	4706	4706	4706	4706	4643	4521	4521	4521	4463	4406	4350	4350	4350	4350	4350	4296	4350	4350	4296	4296	4296	4296	4296	4243	4243	4243	4243	4243	4243	4243	4243	4243	4243	4243	4243	4243	4243	4243	4243	4243	4243	4243	4243	4243	4243	4243	4243	4243	4243	4243	4243	4192	4192	4192	4192	4192	4192	4192	4243	4243	4192	4243	4243	4243	4243	4192	4243	4243	4243	4243	4243	4243	4243	4243	4243	4192	4243	4243	4243	4243	4296	4296	4296	4296	4296	4350	4350	4406	4406	4406	4463	4521	4521	4521	4521	4521	4521	6349	6349	6349	6349	6349	6468	6468	6468	6124	6124	6235	6235	6235	6235	6468	6468	6468	6468	6592	6468	6468	6468	6468	6468	6468	6468	6468	0	0	0	0	0	2589	2589	2570	2570	2551	2551	2532	2514	2496	2496	2514	2496	2496	2496	2496	2496	2478	2478	2478	0	0	0	0	0	0	0	0	0	0	0	0	0	0	0	0	0	0	0	0	0	0	0	0	0	0	0	2237	2223	2223	2223	2223	564	563	563	553	553	553	550	550	550	549	548	548	547	546	546	545	545	545	544	543	543	543	542	542	542	542	542	542	542	0	0	0	0	0	0	0	0	0	0	0	0	0	0	0	0	0	0	0	0	0	0	0	0	0	0	0	0	0	0	0	0	0	0	0	0	0	0	0	0	0	0	0	0	0	0	0	0	0	0	0	0	0	0	0	0	0	0	0	0	0	0	0	0	0	0	0
0	0	0	0	0	0	0	0	0	0	0	0	0	0	1272	1272	1272	1272	1272	1272	0	1282	1287	1296	1301	1296	1296	0	0	0	0	0	0	0	0	0	0	0	0	1473	1486	1486	1492	1492	1492	1499	1499	1499	1499	1499	0	1723	1723	1723	1750	1759	1759	1759	1759	1768	1777	1786	1786	1795	1804	1814	1814	1833	1843	1853	1853	1853	1863	1883	1894	1904	1915	1925	1936	1947	1958	1992	1992	2003	2003	2460	2460	2478	2478	2496	2514	2532	2551	2570	2570	2570	2570	2609	2570	2589	2589	2589	2609	2609	2589	2589	2589	2777	2777	2822	2822	2799	2799	2799	2822	2822	2822	2822	4581	4581	4581	4643	4643	4643	4643	4643	4643	4643	4581	4581	4581	4581	4581	4581	4581	4581	4581	4581	4581	4581	4581	4581	4581	4643	4643	4643	4643	4643	4643	4581	4643	4643	4581	4643	4581	4581	4581	4581	4581	4581	4521	4581	4581	4581	4581	4581	4521	4521	4521	4581	4581	4581	4581	4581	4581	4581	4581	4521	4581	4581	4643	4643	4643	4643	4643	4581	4581	4581	4581	4581	4581	4581	4643	4643	4643	4643	4643	4643	4643	4643	4643	4643	4643	4643	4581	4581	4581	4581	4581	4643	4643	4706	4706	4643	4643	4643	4643	4643	4643	4643	4643	4643	4643	4706	4643	4643	4643	4643	4643	4643	4643	4643	4643	4643	4581	4581	4581	0	0	3216	3246	3277	3246	3246	3246	3246	3216	3216	3216	3216	3216	3246	3277	3277	3277	3277	3277	3309	3309	3277	3277	3309	3277	3277	3309	3277	3277	3277	3277	3277	3277	3277	3277	3277	3246	3277	3277	3277	3277	3309	3277	3309	3309	3309	3309	3277	3309	3277	3277	3277	3277	3277	3277	3277	3277	3277	3309	3277	3277	3309	3277	3309	3309	3309	3309	3309	3309	3309	3277	3277	3277	3277	3277	3277	3277	3216	3216	3246	3246	3246	3277	3277	3309	3309	3309	4706	4706	4706	4706	4706	4643	4643	4643	4643	4643	4643	4643	4643	4706	4706	4706	4706	4706	4771	4771	4706	4706	4706	4706	4706	4706	4706	4706	4706	4706	4706	4706	4706	4706	4706	4706	4706	4706	4706	4706	4706	4643	4643	4581	4521	4463	4521	4406	4350	4350	4350	4350	4350	4350	4296	4350	4350	4296	4296	4296	4296	4296	4243	4243	4243	4243	4243	4243	4243	4243	4243	4243	4243	4192	4243	4243	4243	4243	4243	4243	4243	4243	4243	4243	4243	4243	4243	4243	4243	4192	4192	4192	4192	4192	4192	4192	4192	4243	4192	4192	4192	4192	4192	4192	4192	4192	4243	4243	4243	4243	4192	4243	4243	4243	4243	4243	4243	4243	4243	4243	4296	4296	4296	4296	4296	4296	4406	4406	4406	4463	4521	4521	4521	4521	4463	4463	6349	6349	6349	6349	6349	6349	6349	0	6124	6124	6124	6235	6235	6235	6468	6468	6468	6592	6592	6592	6592	6592	6468	6468	6468	6468	0	0	0	0	0	0	2589	2589	2570	2551	2551	2532	2532	2514	2496	2514	2514	2514	2496	2496	2496	2496	2496	2496	0	0	0	0	0	0	0	0	0	0	0	0	0	0	0	0	0	0	0	0	0	0	0	0	0	0	0	0	2237	2223	2208	2208	2208	563	563	562	549	552	552	550	550	549	548	548	547	546	546	545	545	545	544	544	543	542	542	542	542	542	542	542	542	542	542	542	0	0	0	0	0	0	0	0	0	0	0	0	0	0	0	0	0	0	0	0	0	0	0	0	0	0	0	0	0	0	0	0	0	0	0	0	0	0	0	0	0	0	0	0	0	0	0	0	0	0	0	0	0	0	0	0	0	0	0	0	0	0	0	0	0
0	0	0	0	0	0	0	0	0	0	0	0	0	0	1272	1272	1272	1272	1272	0	0	0	1287	1296	1301	1301	1301	1306	1306	0	0	0	0	0	0	0	0	0	0	1480	1492	1492	1492	1492	1492	1499	1506	1512	1512	1512	0	1723	1723	1750	1750	1750	1750	1759	1759	1768	1768	1786	1795	1795	1804	1814	1814	1833	1843	1853	1853	1853	1863	1883	1894	1915	1925	1925	1936	1958	1958	1980	1992	2003	2003	2478	2478	2478	2478	2478	2496	2532	2551	2551	2570	2589	2609	2609	2589	2609	2609	2609	2629	2629	2609	2609	2609	2754	2754	2822	2822	2799	2799	2799	2799	2799	2799	2799	4581	4643	4643	4643	4706	4643	4643	4643	4643	4581	4581	4581	4581	4581	4581	4581	4581	4581	4581	4643	4581	4581	4581	4581	4643	4643	4643	4643	4643	4643	4643	4581	4643	4643	4643	4643	4581	4581	4581	4581	4581	4521	4521	4521	4521	4521	4581	4581	4581	4581	4581	4581	4581	4581	4581	4581	4581	4581	4581	4581	4643	4521	4581	4521	4581	4581	4643	4581	4581	4581	4581	4581	4581	4581	4643	4643	4643	4643	4643	4643	4643	4643	4643	4643	4643	4643	4581	4581	4581	4581	4581	4581	4643	4643	4643	4643	4643	4643	4643	4643	4643	4643	4643	4643	4643	4643	4643	4643	4643	4581	4643	4643	4643	4581	4581	4581	4581	4581	4581	0	0	0	3246	3246	3246	3246	3246	3216	3246	3216	3216	3216	3246	3246	3277	3277	3277	3277	3277	3309	3309	3277	3277	3309	3277	3277	3277	3277	3277	3277	3277	3277	3277	3277	3277	3277	3277	3277	3277	3277	3277	3277	3277	3277	3277	3277	3277	3277	3277	3277	3277	3277	3309	3277	3277	3277	3309	3277	3309	3277	3277	3277	3277	3277	3309	3309	3309	3309	3309	3309	3277	3309	3277	3277	3246	3246	3246	3216	3216	3246	3246	3246	3277	3277	3309	3309	3309	3309	3309	4706	4706	4643	4643	4581	4581	4581	4581	4581	4581	4643	4643	4706	4706	4706	4706	4706	4706	4706	4706	4706	4706	4706	4706	4706	4706	4706	4706	4706	4706	4706	4706	4706	4706	4771	4771	4706	4706	4706	4643	4643	4581	4521	4463	4521	4406	4350	4350	4350	4350	4350	4350	4350	4350	4350	4296	4296	4296	4296	4296	4243	4243	4243	4243	4243	4243	4243	4243	4243	4192	4192	4192	4243	4243	4243	4243	4243	4243	4243	4243	4243	4243	4243	4243	4243	4243	4192	4192	4192	4142	4142	4192	4192	4192	4192	4192	4192	4192	4192	4192	4192	4192	4192	4243	4243	4243	4243	4192	4192	4192	4243	4192	4243	4192	4192	4243	4243	4243	4243	4243	4296	4296	4350	4350	4350	4406	4463	4463	4521	4521	4521	4521	4463	4463	4463	6349	6235	6235	6349	6349	6349	6349	6124	6124	6124	6124	6124	6235	6468	6468	6468	6592	6592	6592	6592	6592	6592	6592	6468	6468	0	0	0	0	0	2589	2589	2589	2570	2570	2551	2532	2532	2514	2496	2514	2514	2514	2496	2496	2514	2478	2478	2478	0	0	0	0	0	0	0	0	0	0	0	0	0	0	0	0	0	0	0	0	0	0	0	0	0	0	0	0	2237	2223	2223	2223	2208	563	563	562	562	562	550	550	549	549	548	548	547	546	546	545	545	545	544	543	542	542	542	542	542	542	542	542	542	542	542	542	0	0	0	0	0	0	0	0	0	0	0	0	0	0	0	0	0	0	0	0	0	0	0	0	0	0	0	0	0	0	0	0	0	0	0	0	0	0	0	0	0	0	0	0	0	0	0	0	0	0	0	0	0	0	0	0	0	0	0	0	0	0	0	0	0
0	0	0	0	0	0	0	0	0	0	0	0	0	0	0	1272	1272	1272	1272	0	0	0	1287	1296	1301	1301	1301	1306	1306	0	0	0	0	0	0	0	0	0	0	1480	1486	1492	1492	1492	1492	1499	1506	1506	1506	1512	1512	1732	1732	1750	1750	1750	1750	1759	1759	1768	1768	1786	1795	1795	1804	1814	1824	1843	1843	1853	1853	1863	1873	1883	1883	1915	1915	1925	1936	1958	1969	1980	1992	1992	2460	2460	2478	2478	2478	2478	2496	2532	2551	2570	2570	2589	2609	2629	2629	2629	2629	2629	2649	2649	2629	2649	2669	2669	2711	2777	2777	2799	2799	2777	2799	2799	2799	2799	2799	4643	4643	4643	4706	4643	4643	4643	4643	4643	4581	4581	4581	4581	4581	4581	4643	4581	4581	4581	4643	4643	4643	4643	4643	4643	4706	4643	4706	4706	4581	4643	4643	4581	4581	4581	4581	4581	4581	4521	4521	4521	4463	4463	4463	4463	4521	4521	4521	4521	4521	4581	4521	4581	4581	4581	4581	4581	4581	4581	4521	4521	4581	4581	4581	4581	4581	4581	4581	4581	4581	4581	4581	4643	4643	4643	4643	4643	4643	4643	4643	4643	4643	4643	4643	4643	4581	4581	4581	4581	4581	4643	4643	4706	4706	4643	4643	4643	4643	4643	4643	4643	4643	4643	4643	4706	4643	4643	4643	4581	4581	4643	4581	4581	4581	4581	4581	4581	4581	0	0	0	3246	3246	3246	3246	3216	3216	3246	3246	3246	3246	3277	3277	3277	3277	3277	3277	3277	3277	3309	3277	3277	3277	3277	3277	3277	3277	3277	3277	3277	3277	3277	3277	3277	3277	3277	3277	3309	3277	3277	3309	3309	3309	3309	3309	3277	3277	3277	3277	3277	3277	3277	3277	3277	3277	3277	3277	3277	3277	3277	3277	3277	3309	3309	3309	3309	3309	3309	3309	3309	3309	3277	3277	3277	3277	3277	3246	3246	3246	3246	3246	3277	3277	3277	3277	3277	3277	3309	0	4581	4581	4581	4521	4521	4521	4581	4581	4521	4581	4581	4643	4706	4706	4706	4706	4706	4706	4706	4706	4706	4706	4706	4706	4706	4706	4706	4706	4706	4706	4706	4706	4706	4706	4706	4706	4706	4706	4643	4643	4581	4521	4521	4521	4463	4350	4350	4350	4350	4296	4296	4296	4296	4296	4296	4296	4296	4296	4296	4243	4243	4243	4243	4243	4243	4243	4192	4243	4192	4192	4192	4192	4243	4243	4243	4243	4243	4243	4243	4243	4243	4243	4243	4243	4243	4243	4192	4192	4142	4142	4192	4192	4192	4192	4192	4192	4192	4192	4192	4192	4192	4192	4243	4243	4243	4192	4192	4192	4192	4243	4243	4243	4192	4192	4192	4243	4243	4243	4192	4243	4296	4296	4350	4406	4406	4406	4463	4463	4463	4521	4521	4581	4581	4581	6235	6235	6124	6124	6124	6349	6349	6124	6124	6124	6124	6124	6124	6349	6349	6468	6592	6592	6592	6592	6592	6592	6592	6468	6468	0	0	0	0	0	2609	2589	2589	2589	2551	2551	2532	2514	2514	2496	2514	2514	2514	2496	2514	2514	2496	2460	2460	0	0	0	0	0	0	0	0	0	0	0	0	0	0	0	0	0	0	0	0	0	0	0	0	0	0	2266	2266	2252	2237	2223	2223	2223	2223	563	563	2181	562	549	549	549	549	548	548	548	546	542	542	542	542	544	542	542	542	542	542	542	542	542	542	542	542	542	542	0	0	0	0	0	0	0	0	0	0	0	0	0	0	0	0	0	0	0	0	0	0	0	0	0	0	0	0	0	0	0	0	0	0	0	0	0	0	0	0	0	0	0	0	0	0	0	0	0	0	0	0	0	0	0	0	0	0	0	0	0	0	0	0	0
0	0	0	0	0	0	0	0	0	0	0	0	0	0	0	0	0	0	0	0	0	0	0	0	0	0	0	0	0	0	0	0	0	0	0	0	0	0	0	1486	1492	1492	1492	1492	1499	1506	1512	1519	1512	1512	1512	1732	1732	1750	1750	1750	1759	1759	1759	1768	1768	1777	1786	1795	1804	1814	1824	1833	1843	1843	1853	1863	1873	1873	1883	1904	1915	1925	1958	1969	1969	1992	1992	1992	2460	2460	2460	2478	2478	2496	2532	2532	2551	2551	2570	2589	2609	2609	2609	2609	2629	2629	2649	2669	2649	2649	2690	2690	2711	2711	2777	2799	2777	2777	2822	2799	2822	2822	2799	4838	4643	4643	4643	4643	4643	4643	4581	4581	4581	4581	4581	4581	4581	4581	4581	4581	4581	4581	4643	4581	4643	4643	4643	4643	4706	4706	4706	4706	4706	4706	4581	4581	4581	4581	4581	4581	4581	4581	4521	4521	4463	4296	4296	4296	4521	4350	4350	4406	4350	4296	4350	4463	4463	4521	4521	4521	4581	4581	4521	4463	4521	4521	4581	4581	4581	4581	4581	4581	4581	4581	4581	4581	4643	4643	4643	4643	4643	4643	4643	4643	4643	4643	4643	4643	4581	4581	4581	4581	4581	4643	4643	4643	4706	4643	4643	4643	4706	4706	4706	4706	4643	4706	4643	4706	4643	4643	4643	4581	4643	4643	4643	4643	4581	4581	4581	4581	4463	4463	0	3246	3246	3246	3246	3216	3216	3246	3277	3246	3246	3277	3277	3277	3309	3277	3277	3277	3277	3309	3309	3277	3277	3277	3277	3277	3277	3277	3277	3277	3277	3277	3277	3277	3277	3277	3277	3277	3277	3277	3309	3309	3309	3309	3309	3309	3277	3277	3277	3277	3277	3277	3277	3277	3277	3277	3277	3277	3277	3277	3277	3277	3277	3309	3309	3309	3309	3309	3309	3309	3309	3309	3309	3309	3309	3277	3277	3246	3246	3246	3246	3246	3277	3277	3277	3277	3309	3309	3309	0	4521	4521	4521	4521	4521	4521	4521	4521	4521	4581	4581	4643	4643	4643	4643	4581	4581	4643	4643	4643	4643	4643	4643	4643	4643	4643	4706	4706	4643	4706	4706	4706	4706	4706	4706	4706	4706	4706	4643	4643	4581	4521	4521	4463	4406	4350	4296	4296	4350	4296	4296	4296	4296	4296	4296	4296	4296	4296	4296	4243	4243	4243	4243	4243	4243	4243	4192	4192	4192	4192	4192	4192	4243	4243	4243	4243	4243	4243	4243	4243	4243	4243	4243	4243	4243	4243	4192	4192	4192	4192	4192	4192	4192	4192	4192	4192	4192	4192	4192	4192	4192	4192	4192	4192	4192	4243	4243	4243	4192	4243	4243	4243	4192	4192	4192	4192	4192	4192	4192	4243	4296	4296	4350	4350	4406	4406	4463	4463	4463	4521	4521	4521	4521	4581	6124	6124	6124	6124	6124	6018	6018	6018	6124	6124	6124	6124	6124	6124	6124	6592	6592	6592	6592	6592	6592	6592	6592	6468	6468	0	0	0	0	0	2609	2589	2589	2589	2570	2551	2532	2532	2514	2514	2514	2514	2514	2496	2514	2514	2496	2478	2478	0	0	0	0	0	0	0	0	0	0	0	0	0	0	0	0	0	0	0	0	0	0	0	0	0	0	2266	2266	2252	2237	2223	2223	2223	2208	2194	2194	2181	0	549	549	549	548	548	548	548	546	542	542	542	544	543	542	542	542	542	542	542	542	542	0	0	0	0	0	0	0	0	0	0	0	0	0	0	0	0	0	0	0	0	0	0	0	0	0	0	0	0	0	0	0	0	0	0	0	0	0	0	0	0	0	0	0	0	0	0	0	0	0	0	0	0	0	0	0	0	0	0	0	0	0	0	0	0	0	0	0	0	0	0
0	0	0	0	0	0	0	0	0	0	0	0	0	0	0	0	0	0	0	0	0	0	0	0	0	0	0	0	0	0	0	0	0	0	0	0	0	0	1480	1486	1486	1492	1492	1492	1499	1512	1512	1519	1525	1525	1732	1732	1732	1759	1759	1759	1759	1759	1759	1759	1768	1777	1786	1795	1804	1804	1824	1824	1843	1843	1853	1863	1873	1873	1883	1894	1915	1947	1958	1969	1980	1992	2003	2003	2003	2460	2460	2460	2478	2478	2532	2532	2532	2551	2551	2570	2589	2589	2609	2629	2629	2649	2669	2669	2690	2669	2711	2711	2711	2711	2754	2799	2777	2777	2799	2799	2799	2822	4838	4838	4643	4643	4643	4581	4581	4581	4581	4581	4581	4581	4581	4521	4581	4581	4581	4581	4581	4581	4643	4643	4643	4643	4643	4643	4706	4643	4581	4581	4581	4581	4581	4581	4521	4581	4581	4521	4521	4521	4521	4463	4406	4296	4296	4192	4192	4192	4192	4243	4243	4296	4350	4350	4406	4406	4463	4521	4521	4521	4521	4521	4521	4521	4521	4581	4581	4581	4521	4581	4581	4581	4581	4581	4581	4643	4643	4643	4643	4643	4643	4643	4643	4643	4643	4643	4581	4581	4581	4581	4581	4643	4643	4643	4643	4581	4643	4643	4706	4643	4706	4643	4643	4643	4643	4643	4643	4643	4643	4581	4581	4643	4581	4581	4581	4581	4581	4581	3309	3309	3309	3246	3246	3246	3246	3216	3216	3246	3246	3246	3246	3277	3277	3277	3309	3277	3277	3277	3277	3277	3309	3277	3277	3277	3277	3277	3277	3277	3277	3277	3277	3277	3277	3277	3277	3277	3277	3277	3309	3277	3309	3309	3309	3309	3309	3309	3309	3309	3277	3277	3277	3277	3309	3277	3277	3277	3277	3309	3277	3309	3277	3309	3309	3309	3309	3309	3309	3309	3309	3309	3309	3309	3309	3277	3277	3277	3277	3246	3246	3246	3246	3246	3246	3277	3277	3277	3277	3277	3277	0	4463	4463	4463	4463	4463	4521	4581	4521	4521	4521	4581	4521	4521	4521	4521	4521	4521	4581	4581	4581	4581	4581	4643	4581	4643	4643	4643	4643	4643	4706	4706	4706	4706	4706	4706	4706	4706	4706	4643	4643	4581	4521	4521	4463	4350	4350	4296	4296	4296	4296	4296	4350	4296	4296	4296	4296	4296	4296	4296	4243	4243	4243	4243	4243	4243	4243	4192	4192	4192	4192	4192	4192	4243	4243	4192	4192	4192	4243	4243	4243	4243	4243	4243	4243	4243	4243	4192	4192	4192	4192	4192	4192	4192	4192	4192	4192	4192	4192	4192	4192	4192	4142	4192	4192	4192	4192	4243	4243	4243	4243	4243	4243	4192	4192	4192	4192	4192	4192	4192	4243	4243	4296	4296	4350	4406	4406	4463	4463	4463	4521	4521	4521	4521	6124	6124	6124	6124	6124	6018	6018	5915	6018	6018	6124	6124	6124	6124	6124	6124	6592	6592	6592	6592	6592	6592	6592	6592	6592	6592	0	0	0	0	0	0	0	2609	2570	2551	2532	2532	2532	2514	2514	2514	2514	2496	2496	2514	2514	2496	2496	2478	0	0	0	0	0	0	0	0	0	0	0	0	0	0	0	0	0	0	0	0	0	0	0	0	0	0	2266	2252	2252	2237	2223	2208	2208	2208	2208	2208	0	548	548	548	548	548	548	547	542	542	542	542	542	544	542	542	542	542	543	543	542	0	0	0	0	0	0	0	0	0	0	0	0	0	0	0	0	0	0	0	0	0	0	0	0	0	0	0	0	0	0	0	0	0	0	0	0	0	0	0	0	0	0	0	0	0	0	0	0	0	0	0	0	0	0	0	0	0	0	0	0	0	0	0	0	0	0	0	0	0	0	0	0
0	0	0	0	0	0	0	0	0	0	0	0	0	0	0	0	0	0	0	0	0	0	0	0	0	0	0	0	0	0	0	0	0	0	0	0	0	1480	1480	1486	1486	1492	1492	1492	1492	1512	1512	1512	1506	1506	1732	1732	1732	1750	1750	1759	1759	1759	1759	1759	1759	1768	1786	1795	1804	1814	1814	1824	1843	1853	1863	1873	1873	1873	1883	1894	1915	1947	1958	1980	1992	2003	2015	2027	2027	2443	2443	2460	2460	2478	2478	2532	2532	2551	2551	2570	2589	2609	2629	2649	2669	2669	2669	2690	2690	2690	2711	2711	2711	2711	2777	2799	2799	2799	2799	2799	2799	2799	4838	4643	4643	4643	4581	4581	4581	4581	4581	4581	4581	4581	4581	4581	4581	4581	4581	4581	4581	4581	4581	4581	4643	4581	4581	4581	4581	4581	4521	4581	4581	4581	4581	4521	4521	4521	4521	4521	4521	4463	4463	4406	4296	4192	4142	4142	4142	4192	4192	4192	4243	4243	4296	4296	4350	4350	4406	4463	4521	4521	4521	4463	4521	4521	4521	4521	4521	4521	4521	4521	4521	4521	4581	4581	4581	4643	4643	4643	4643	4643	4643	4643	4643	4581	4581	4581	4581	4581	4581	4581	4581	4581	4581	4643	4643	4581	4643	4643	4706	4706	4706	4643	4643	4643	4643	4643	4643	4643	4581	4581	4643	4581	4581	4581	4581	4581	4581	4581	3309	3309	3277	3277	3277	3277	3246	3246	3216	3246	3277	3277	3277	3309	3309	3309	3309	3277	3277	3309	3277	3277	3309	3277	3277	3277	3277	3277	3277	3277	3277	3277	3277	3277	3277	3277	3277	3277	3277	3277	3277	3277	3309	3309	3309	3309	3309	3309	3309	3309	3277	3277	3277	3277	3277	3277	3277	3309	3309	3309	3309	3309	3309	3309	3309	3309	3309	3309	3309	3309	3309	3309	3309	3277	3309	3277	3277	3277	3277	3246	3246	3246	3246	3246	3246	3277	3277	3277	3277	4406	4406	4406	4463	4463	4463	4463	4463	4521	4521	4521	4521	4463	4463	4463	4463	4406	4463	4463	4463	4521	4521	4521	4521	4521	4521	4521	4581	4581	4643	4643	4643	4643	4643	4706	4706	4706	4706	4706	4706	4706	4643	4643	4581	4521	4521	4463	4350	4350	4296	4296	4296	4296	4296	4296	4296	4296	4296	4296	4296	4243	4243	4243	4243	4243	4243	4243	4243	4243	4192	4192	4192	4192	4192	4243	4243	4243	4192	4192	4192	4192	4243	4243	4243	4243	4243	4243	4243	4243	4243	4192	4192	4192	4192	4192	4192	4192	4192	4192	4192	4192	4192	4192	4192	4192	4192	4192	4192	4192	4192	4192	4192	4192	4243	4243	4192	4192	4192	4192	4192	4192	4192	4243	4296	4296	4296	4350	4406	4406	4406	4463	4463	4463	4521	4521	4521	6124	6124	6124	6124	6124	6018	6018	6018	6018	6124	6124	6124	6124	6124	6124	6124	6124	6592	6592	6592	6592	6592	6592	6592	6592	6592	0	0	0	0	0	0	0	2609	2570	2551	2532	2532	2532	2514	2514	2514	2514	2514	2496	2514	2496	2496	2496	0	0	0	0	0	0	0	0	0	0	0	0	0	0	0	0	0	0	0	0	0	0	0	0	0	0	0	2266	2252	2252	2237	2223	2223	2223	2223	2208	2208	2208	548	548	548	548	548	545	543	542	542	542	542	542	542	542	542	542	542	542	542	0	0	0	0	0	0	0	0	0	0	0	0	0	0	0	0	0	0	0	0	0	0	1146	1146	1150	1150	1150	0	0	0	0	0	0	0	0	0	0	0	0	0	0	0	0	0	0	0	0	0	0	0	0	0	0	0	0	0	0	0	0	0	0	0	0	0	0	0	0	0	0	0	0	0	0
0	0	0	0	0	0	0	0	0	0	0	0	0	0	0	0	0	0	0	0	0	0	0	0	0	0	0	0	0	0	0	0	0	0	0	0	0	1486	1486	1486	1486	1492	1492	1499	1499	1512	1512	1519	1519	1759	1732	1750	1750	1750	1750	1750	1750	1759	1759	1759	1759	1768	1786	1795	1804	1814	1814	1824	1853	1853	1863	1873	1873	1873	1883	1894	1915	1947	1958	1969	1980	2003	2003	2027	2426	2443	2460	2478	2496	2514	2532	2532	2532	2551	2551	2551	2570	2589	2629	2649	2649	2669	2669	2669	2690	2669	2711	2690	2690	2690	2799	2799	2799	2799	2799	2799	2799	2799	0	4643	4581	4581	4581	4581	4581	4581	4581	4581	4581	4581	4581	4581	4581	4581	4581	4581	4581	4581	4581	4581	4581	4581	4581	4581	4521	4521	4463	4463	4521	4521	4521	4521	4350	4350	4296	4296	4296	4296	4296	4296	4142	4142	4142	4142	4142	4192	4192	4192	4243	4243	4243	4243	4296	4296	4350	4406	4406	4406	4406	4406	4406	4406	4406	4463	4521	4463	4463	4521	4521	4521	4521	4581	4581	4581	4643	4643	4643	4643	4643	4643	4643	4581	4581	4581	4581	4581	4581	4581	4581	4581	4581	4581	4643	4581	4581	4581	4581	4643	4643	4643	4643	4643	4643	4643	4643	4581	4581	4581	4581	4581	4581	4581	4581	4581	4581	4521	3309	3309	3277	3277	3246	3277	3246	3246	3216	3246	3277	3277	3277	3309	3309	3309	3309	3277	3277	3277	3277	3277	3277	3277	3277	3277	3277	3277	3277	3277	3277	3277	3277	3277	3277	3277	3277	3277	3277	3277	3277	3277	3277	3309	3309	3309	3309	3309	3309	3277	3277	3277	3277	3277	3277	3277	3277	3309	3309	3309	3277	3309	3277	3309	3309	3309	3309	3309	3309	3309	3309	3277	3277	3277	3277	3277	3277	3277	3277	3246	3246	3246	3246	3246	3246	3277	3277	3277	3277	4406	4406	4463	4406	4463	4463	4463	4463	4463	4521	4521	4521	4463	4463	4463	4463	4406	4406	4406	4406	4463	4463	4463	4463	4463	4521	4521	4521	4581	4581	4581	4581	4643	4643	4706	4706	4706	4706	4706	4706	4706	4643	4643	4581	4521	4463	4463	4406	4350	4350	4350	4350	4296	4296	4296	4296	4296	4296	4243	4243	4243	4243	4243	4243	4243	4243	4192	4192	4192	4192	4192	4192	4192	4192	4192	4243	4243	4243	4243	4243	4243	4243	4243	4243	4243	4243	4243	4243	4243	4243	4243	4243	4192	4192	4192	4192	4192	4192	4192	4192	4192	4192	4192	4192	4192	4192	4192	4142	4142	4192	4192	4192	4243	4243	4243	4243	4192	4192	4192	4192	4192	4192	4243	4296	4296	4296	4350	4406	4406	4406	4463	4463	4521	4521	4463	4350	4350	6124	6124	6124	6124	6124	6124	6018	6018	6124	6124	6124	6124	6124	6124	6124	6349	6468	6468	6468	6592	6592	6720	6720	6720	6720	0	0	0	0	0	0	0	0	0	2551	2532	2532	2532	2514	2514	2514	2514	2514	2496	2496	2496	2496	2496	0	0	0	0	0	0	0	0	0	0	0	0	0	0	0	0	0	0	0	0	0	0	0	0	0	0	0	2266	2252	2252	2237	2223	2223	2223	2223	2208	2208	2208	0	548	548	548	548	542	542	542	542	542	542	542	542	542	542	542	542	542	543	543	0	0	0	0	0	0	0	0	0	0	0	0	0	0	0	0	0	0	0	1146	1150	1146	1146	1146	1150	1150	1150	0	0	0	0	0	0	0	0	0	0	0	0	0	0	0	0	0	0	0	0	0	0	0	0	0	0	0	0	0	0	0	0	0	0	0	0	0	0	0	0	0	0	0	0	0
0	0	0	0	0	0	0	0	0	0	0	0	0	0	0	0	0	0	0	0	0	0	0	0	0	0	0	0	0	0	0	0	0	0	0	0	0	1486	1486	1486	1486	1492	1492	1499	1499	1506	1506	1512	1512	1759	1732	1750	1732	1732	1741	1750	1750	1759	1759	1768	1759	1768	1777	1777	1804	1804	1824	1833	1843	1843	1863	1873	1873	1873	1883	1904	1904	1947	1969	1980	1992	2003	2027	2027	2426	2426	2426	2478	2496	2514	2532	2532	2532	2551	2551	2551	2589	2589	2629	2649	2649	2669	2669	2669	2690	2669	2690	2711	2711	2777	2799	2799	2799	2799	2799	2799	2799	2799	2799	0	4581	4581	4581	4581	4581	4581	4581	4581	4581	4581	4581	4581	4581	4581	4581	4581	4581	4581	4581	4581	4581	4521	4521	4521	4463	4406	4350	4192	4192	4192	4142	4243	4243	4192	4192	4243	4192	4142	4142	4192	4093	4093	4093	4142	4142	4142	4142	4192	4192	4192	4192	4192	4243	4243	4296	4350	4350	4350	4350	4350	4350	4350	4350	4406	4463	4463	4463	4521	4521	4521	4521	4521	4581	4581	4581	4643	4643	4643	4643	4643	4643	4581	4581	4581	4581	4581	4581	4581	4581	4581	4521	4521	4521	4521	4521	4643	4643	4643	4643	4643	4643	4581	4643	4643	4643	4581	4581	4581	4581	4581	4581	4581	4581	4581	4581	4521	3309	3277	3277	3246	3246	3277	3246	3246	3246	3246	3277	3309	3309	3309	3309	3309	3309	3277	3277	3277	3277	3277	3277	3277	3277	3277	3277	3277	3277	3277	3277	3277	3277	3277	3277	3277	3277	3309	3309	3309	3309	3277	3309	3309	3309	3309	3309	3309	3309	3277	3309	3277	3277	3309	3309	3277	3277	3309	3309	3277	3277	3277	3277	3309	3309	3309	3309	3309	3309	3309	3309	3277	3277	3277	3277	3277	3277	3246	3246	3246	3246	3246	3246	3246	3246	3277	3277	3277	4350	4350	4350	4406	4406	4463	4463	4521	4521	4521	4521	4521	4521	4521	4521	4463	4406	4350	4406	4350	4350	4350	4350	4406	4406	4463	4406	4406	4521	4521	4581	4581	4581	4643	4643	4706	4706	4706	4706	4706	4706	4706	4706	4643	4581	4521	4463	4463	4406	4350	4406	4350	4350	4350	4296	4296	4296	4296	4296	4243	4243	4243	4243	4243	4243	4243	4243	4243	4243	4192	4192	4192	4192	4142	4142	4192	4192	4192	4192	4192	4192	4192	4192	4192	4243	4243	4243	4243	4243	4243	4243	4243	4243	4243	4243	4243	4243	4192	4192	4192	4192	4192	4192	4192	4192	4192	4192	4192	4142	4192	4192	4192	4192	4192	4243	4243	4243	4192	4192	4192	4192	4192	4192	4243	4243	4296	4296	4350	4406	4406	4406	4463	4463	4521	4521	4521	4521	4521	6124	6124	6124	6124	6124	6124	6018	6018	6018	6018	6124	6124	6124	6235	6235	6349	6468	6468	6468	6468	6468	6592	6592	6720	6720	6720	0	0	0	0	0	0	0	0	2551	2532	2532	2532	2514	2514	2514	2514	2496	2496	2496	2496	2496	2496	0	0	0	0	0	0	0	0	0	0	0	0	0	0	0	0	0	0	0	0	0	0	0	0	0	0	0	2252	2252	2252	2237	2223	2223	2223	2223	2223	2223	0	548	548	548	548	548	546	542	542	542	541	542	542	542	542	542	542	542	542	542	542	542	0	0	0	0	0	0	0	0	0	0	0	0	0	0	0	0	0	0	1146	1146	1146	1146	1146	1150	1146	1146	0	0	0	0	0	0	0	0	0	0	0	0	0	0	0	0	0	0	0	0	0	0	0	0	0	0	0	0	0	0	0	0	0	0	0	0	0	0	0	0	0	0	0	0	0
0	0	0	0	0	0	0	0	0	0	0	0	0	1596	1596	1596	1596	0	0	0	0	0	0	0	0	0	0	0	0	0	0	0	0	0	0	0	0	1486	1486	1486	1486	1492	1492	1492	1492	1499	1499	1506	1506	1750	1732	1750	1732	1732	1741	1741	1750	1759	1759	1768	1759	1768	1786	1795	1804	1804	1804	1824	1833	1843	1843	1873	1883	1883	1894	1915	1925	1936	1969	1992	2003	2015	2039	2051	2063	2063	2063	2496	2496	2496	2532	2532	2532	2551	2551	2551	2589	2609	2609	2629	2629	2649	2649	2649	2669	2669	2777	2777	2777	2777	2799	2799	2799	2799	2799	2799	2799	2799	2799	0	4581	4581	4581	4581	4521	4643	4521	4581	4581	4581	4581	4521	4581	4581	4581	4581	4581	4581	4581	4581	4581	4406	4406	4350	4243	4243	4192	4142	4142	4142	4142	4142	4142	4192	4142	4142	4142	4142	4142	4142	4093	4093	4093	4142	4142	4192	4142	4192	4192	4192	4192	4192	4243	4142	4296	4142	4192	4192	4296	4296	4296	4350	4350	4350	4350	4463	4463	4521	4521	4521	4581	4581	4581	4581	4581	4581	4643	4643	4581	4581	4581	4581	4581	4581	4581	4521	4521	4521	4521	4521	4521	4521	4521	4521	4581	4581	4581	4581	4643	4581	4643	4581	4643	4643	4643	4643	4581	4581	4581	4581	4581	4581	4581	4581	4581	4521	3309	3277	3277	3246	3246	3246	3246	3216	3216	3246	3246	3309	3309	3309	3309	3309	3309	3277	3277	3277	3277	3246	3277	3277	3246	3246	3246	3246	3246	3246	3246	3277	3309	3309	3309	3309	3309	3309	3309	3309	3309	3309	3309	3309	3309	3309	3309	3309	3309	3309	3277	3309	3277	3309	3309	3309	3277	3309	3309	3277	3277	3309	3277	3309	3277	3277	3277	3309	3309	3309	3277	3277	3277	3277	3277	3277	3246	3246	3246	3246	3246	3216	3216	3186	3186	3246	4406	4350	4406	4406	4406	4463	4463	4463	4463	4521	4521	4521	4521	4521	4521	4521	4521	4521	4463	4406	4406	4350	4350	4406	4350	4350	4406	4406	4406	4406	4463	4521	4521	4521	4581	4643	4643	4706	4643	4706	4706	4706	4706	4706	4706	4643	4643	4521	4463	4463	4406	4350	4350	4350	4350	4350	4296	4350	4296	4296	4296	4243	4243	4243	4243	4243	4243	4243	4243	4243	4243	4243	4192	4192	4192	4192	4192	4192	4192	4192	4192	4192	4192	4192	4192	4192	4192	4243	4243	4243	4243	4243	4243	4243	4243	4243	4243	4243	4243	4243	4243	4192	4192	4243	4192	4243	4243	4192	4192	4192	4142	4192	4192	4192	4192	4192	4243	4192	4243	4192	4192	4192	4192	4192	4192	4243	4243	4296	4296	4350	4406	4406	4463	4463	4463	4521	4521	4521	4406	4406	6235	6124	6124	6124	6124	6124	6124	6124	6124	6124	6124	6124	6235	6349	6349	6349	6349	6468	6468	6468	6468	6592	6592	6592	6592	6720	0	0	0	0	0	0	0	0	2532	2532	2532	2532	2514	2514	2514	2514	2496	2496	2496	2496	2496	2496	0	0	0	0	0	0	0	0	0	0	0	0	0	0	0	0	0	0	0	0	0	0	0	0	0	0	0	2252	2252	2252	2237	2223	2223	2223	2223	2223	2223	548	548	548	548	548	548	545	542	542	542	541	541	542	542	542	542	542	542	542	542	542	542	0	0	0	0	0	0	0	0	0	0	0	0	0	0	0	0	0	1146	1146	1146	1146	1146	1146	1150	1150	1153	1157	1157	0	0	0	0	0	0	0	0	0	0	0	0	0	0	0	0	0	0	0	0	0	0	0	0	0	0	0	0	0	0	0	0	0	0	0	0	0	0	0	0	0	0	0
0	0	0	0	0	0	0	0	0	0	0	0	1596	1603	1603	1603	1596	1596	1603	1611	1611	0	0	0	0	0	0	0	0	0	0	0	0	0	0	0	0	1486	1486	1492	1486	1492	1492	1492	1492	1499	1499	1499	1499	1759	1741	1750	1750	1732	1741	1750	1750	1750	1759	1759	1768	1768	1777	1786	1795	1804	1824	1824	1833	1843	1863	1863	1873	1883	1894	1915	1915	1936	1958	1992	2003	2015	2027	2039	2039	2039	2039	2496	2496	2514	2532	2532	2532	2551	2551	2551	2570	2570	2609	2629	2629	2649	2649	2649	2649	2799	2799	2799	2799	2799	2799	2799	2777	2777	2799	2799	2799	2799	2799	2799	4581	4521	4521	4521	4521	4521	4581	4581	4581	4581	4581	4581	4581	4581	4581	4581	4581	4581	4581	4521	4521	4521	4296	4296	4243	4192	4192	4093	4142	4093	4093	4142	4142	4142	4142	4142	4142	4142	4142	4142	4093	4093	4093	4142	4142	4192	4192	4192	4192	4192	4192	4192	4243	4243	4243	4243	4296	4192	4192	4296	4296	4296	4296	4296	4296	4463	4463	4463	4521	4521	4521	4521	4521	4521	4581	4581	4643	4643	4581	4581	4581	4581	4581	4581	4521	4521	4521	4521	4521	4521	4521	4521	4521	4521	4463	4521	4581	4581	4581	4581	4581	4581	4581	4643	4643	4643	4581	4581	4581	4581	4581	4581	4581	4581	4581	4521	3309	3309	3277	3246	3246	3277	3246	3216	3216	3216	3246	3277	3309	3309	3309	3309	3309	3309	3277	3277	3277	3277	3277	3277	3277	3246	3246	3246	3277	3277	3277	3277	3277	3309	3277	3309	3309	3309	3309	3309	3309	3309	3309	3309	3309	3309	3309	3309	3309	3277	3277	3309	3277	3309	3309	3309	3309	3309	3309	3309	3277	3277	3277	3277	3277	3277	3277	3277	3309	3309	3277	3277	3277	3277	3277	3277	3246	3246	3246	3216	3216	3186	3186	3186	4521	4463	4463	4406	4406	4350	4350	4406	4406	4463	4463	4521	4521	4521	4521	4521	4521	4521	4521	4521	4463	4350	4350	4350	4350	4350	4350	4350	4350	4406	4406	4406	4463	4521	4521	4581	4643	4643	4643	4706	4643	4706	4706	4706	4706	4706	4643	4643	4581	4521	4463	4463	4406	4350	4350	4350	4350	4350	4350	4350	4296	4296	4296	4243	4243	4243	4243	4243	4192	4243	4243	4243	4192	4192	4192	4192	4192	4192	4192	4192	4192	4192	4192	4192	4192	4192	4192	4192	4192	4192	4243	4243	4243	4243	4243	4243	4243	4243	4243	4192	4192	4243	4243	4192	4243	4243	4243	4243	4243	4243	4192	4192	4192	4192	4192	4192	4192	4192	4243	4192	4243	4192	4192	4192	4192	4192	4192	4243	4243	4243	4296	4296	4350	4406	4463	4463	4463	4521	4521	4463	4406	4406	4406	6124	6235	6124	6124	6124	6124	6124	6124	6124	6235	6235	6235	6349	6349	6349	6349	6349	6349	6349	6468	6468	6468	6592	6592	6592	0	0	0	0	0	0	0	0	2551	2532	2532	2532	2532	2514	2514	2496	2496	2496	2496	2496	2496	2496	0	0	0	0	0	0	0	0	0	0	0	0	0	0	0	0	0	0	0	0	0	0	0	0	0	0	0	2252	2252	2237	2237	2223	2223	2223	2237	2237	2237	548	548	548	548	546	548	543	542	542	542	542	542	542	542	542	542	542	542	542	542	543	543	0	0	0	0	0	0	0	0	0	0	0	0	0	0	0	0	1150	1146	1150	1146	1146	1146	1146	1146	1150	1150	1153	1153	1153	0	0	0	0	0	0	0	0	0	0	0	0	0	0	0	0	0	0	0	0	0	0	0	0	0	0	0	0	0	0	0	0	0	0	0	0	0	0	0	0	0	0
0	0	0	0	0	0	0	0	0	0	0	0	1596	1596	1603	1603	1603	1596	1603	1603	1611	1611	1603	1603	1603	0	0	0	1611	1611	0	0	0	0	0	0	0	1480	1486	1486	1486	1492	1492	1492	1499	1499	1492	1492	1492	1759	1741	1741	1732	1732	1732	1741	1741	1750	1750	1759	1768	1768	1777	1786	1795	1795	1804	1824	1833	1833	1853	1863	1883	1883	1904	1915	1925	1936	1969	2003	2003	2015	2027	2039	2027	2027	2027	2496	2532	2532	2532	2551	2551	2551	2551	2551	2570	2570	2609	2629	2649	2649	2649	2649	2649	2822	2822	2799	2799	2799	2799	2799	2777	2777	2799	2799	2799	2799	2799	2799	0	4521	4463	4463	4463	4521	4521	4581	4581	4521	4521	4521	4521	4581	4581	4581	4581	4581	4581	4521	4296	4296	4296	4296	4192	4142	4142	4142	4093	4142	4142	4142	4142	4142	4142	4142	4093	4093	4142	4093	4093	4093	4093	4093	4142	4142	4142	4192	4142	4192	4192	4192	4243	4243	4243	4243	4243	4192	4192	4192	4192	4192	4192	4192	4296	4463	4463	4463	4521	4521	4521	4521	4521	4521	0	0	0	0	0	0	0	4581	4581	4581	4521	4521	4521	4521	4521	0	0	0	0	0	4463	4521	4521	4581	4581	4581	4581	4581	4581	4581	4643	4643	4581	4581	4581	4581	4581	4581	4581	4581	4581	4521	3309	3309	3277	3246	3246	3277	3246	3246	3246	3216	3246	3309	3309	3309	3309	3309	3309	3309	3277	3277	3277	3277	3277	3277	3246	3246	3246	3246	3246	3277	3246	3277	3277	3277	3277	3309	3309	3309	3309	3309	3309	3309	3341	3341	3309	3309	3309	3309	3309	3309	3277	3309	3309	3309	3309	3309	3309	3309	3309	3277	3277	3309	3277	3277	3277	3277	3277	3277	3309	3309	3309	3277	3277	3277	3277	3277	3246	3246	3246	3216	3186	3157	3157	4521	4521	4521	4463	4463	4406	4406	4350	4406	4406	4406	4463	4463	4463	4463	4463	4521	4463	4463	4463	4521	4463	4296	4296	4296	4296	4350	4350	4350	4406	4350	4406	4406	4463	4521	4521	4581	4643	4643	4643	4643	4643	4643	4643	4706	4643	4643	4643	4643	4581	4521	4463	4463	4406	4350	4350	4350	4350	4350	4350	4350	4296	4296	4296	4296	4243	4243	4243	4192	4192	4192	4192	4192	4192	4192	4192	4192	4192	4192	4192	4192	4192	4192	4192	4192	4192	4192	4192	4192	4192	4192	4243	4243	4243	4243	4243	4243	4243	4243	4243	4243	4243	4243	4243	4243	4243	4243	4243	4243	4243	4192	4192	4192	4192	4192	4192	4142	4192	4192	4243	4192	4243	4192	4192	4192	4192	4192	4192	4243	4243	4243	4296	4296	4350	4406	4406	4463	4463	4521	4521	4463	4350	4350	6235	6124	6124	6235	6124	6124	6124	6124	6124	6124	6124	6124	6124	6235	6349	6349	6349	6349	6349	6468	6468	6468	6468	6592	6592	6592	0	0	0	0	0	0	0	0	2551	2532	2532	2532	2532	2514	2514	2496	2496	2496	2496	2496	2496	0	0	0	0	0	0	0	0	0	0	0	0	0	0	0	0	0	0	0	0	0	0	0	0	0	0	0	0	2237	2252	2237	2237	2223	2223	2223	2237	2237	548	548	548	548	546	543	542	542	542	542	542	542	536	536	539	539	539	542	541	542	542	542	542	0	0	0	0	0	0	0	0	0	0	0	0	0	0	0	0	1150	1150	1150	1150	1150	1150	1150	1150	1150	1153	1153	1153	1153	0	0	0	0	0	0	0	0	0	0	0	0	0	0	0	0	0	0	0	0	0	0	0	0	0	0	0	0	0	0	0	0	0	0	0	0	0	0	0	0	0	0
0	0	0	0	0	0	0	0	0	0	0	0	1596	1596	1603	1603	1603	1603	1603	1603	1603	1603	1603	1603	1603	1603	1603	1603	1603	1603	1603	1611	1611	1611	1611	0	0	1480	1486	1486	1486	1486	1486	1492	1492	1486	1480	1486	1492	1492	1741	1732	1732	1732	1732	1741	1741	1750	1759	1759	1759	1768	1777	1777	1786	1795	1804	1824	1824	1833	1853	1863	1883	1883	1915	1915	1925	1936	1969	1992	2003	2003	2015	2039	2039	2039	2027	2777	2777	2551	2551	2551	2551	2551	2551	2570	2589	2589	2649	2669	2669	2669	2669	2669	2669	2822	2822	2822	2822	2799	2799	2799	2777	2777	2777	2799	2777	2777	2777	0	0	0	4463	4463	4463	4463	4521	4521	4521	4581	4521	4521	4521	4521	4581	4521	4581	4581	4581	0	4296	4296	4243	4243	4142	4142	4142	4142	4142	4142	4142	4142	4142	4142	4142	4142	4142	4093	4093	4142	4142	4093	4093	4142	4142	4142	4142	4142	4142	4192	4192	4192	4243	4243	4243	4243	4243	4243	4192	4142	4142	4142	4142	4142	0	0	0	0	0	0	0	0	0	0	0	0	0	0	0	0	0	0	0	0	0	0	0	0	0	0	0	0	0	0	0	0	4521	4581	4581	4581	4581	4581	4581	4581	4643	4643	4643	4581	4581	4581	4581	4581	4581	4581	4581	3309	3341	3309	3309	3277	3277	3277	3246	3246	3246	3246	3246	3277	3277	3309	3309	3309	3309	3309	3309	3309	3277	3277	3277	3277	3246	3246	3246	3246	3246	3277	3277	3277	3277	3277	3277	3309	3309	3309	3309	3309	3309	3309	3341	3341	3341	3309	3309	3309	3309	3309	3309	3309	3309	3309	3309	3309	3309	3309	3309	3309	3309	3277	3277	3277	3277	3277	3277	3277	3277	3277	3309	3277	3277	3277	3277	3277	3246	3246	3246	3216	3186	3186	3186	4521	4521	4521	4463	4463	4406	4406	4350	4406	4406	4406	4463	4463	4463	4463	4463	4463	4463	4463	4463	4521	4463	4350	4296	4296	4350	4350	4350	4350	4406	4350	4350	4350	4463	4521	4521	4521	4643	4706	4643	4643	4643	4643	4643	4643	4581	4643	4643	4643	4581	4581	4463	4463	4406	4406	4350	4350	4406	4406	4350	4350	4350	4296	4296	4243	4243	4243	4192	4192	4192	4192	4192	4192	4192	4192	4192	4192	4192	4192	4192	4192	4192	4192	4192	4192	4192	4192	4192	4192	4192	4192	4192	4192	4243	4243	4243	4243	4243	4243	4243	4192	4243	4243	4243	4243	4243	4243	4243	4243	4243	4243	4192	4192	4142	4192	4142	4142	4142	4192	4192	4192	4192	4192	4192	4192	4192	4192	4192	4192	4243	4243	4296	4350	4350	4406	4463	4463	4521	4521	4521	4521	4406	4406	6124	6124	6235	6235	6124	6124	6124	6124	6124	6124	6124	6235	6235	6349	6349	6349	6349	6349	6349	6349	6349	6468	6468	6468	6592	6592	0	0	0	0	0	0	0	0	2532	2532	2532	2532	2532	2514	2514	2496	2496	2496	2496	2496	0	0	0	0	0	0	0	0	0	0	0	0	0	0	0	0	0	0	0	0	0	0	0	0	0	0	0	0	0	2237	2237	2237	2237	2223	2223	2223	548	548	548	548	548	548	545	543	542	542	542	542	542	536	536	536	536	536	541	542	542	542	542	542	542	0	0	0	0	0	0	0	0	0	0	0	0	0	0	0	0	1150	1150	1150	1150	1150	1150	1150	1150	1150	1153	1153	1150	1150	0	0	0	0	0	0	0	0	0	0	0	0	0	0	0	0	0	0	0	0	0	0	0	0	0	0	0	0	0	0	0	0	0	0	0	0	0	0	0	0	0	0
0	0	0	0	0	0	0	0	0	0	0	0	0	1596	1603	1603	1603	1603	1603	1603	1603	1603	1603	1603	1603	1603	1603	1603	1611	1603	1603	1611	1618	1611	1611	0	0	1473	1486	1486	1486	1486	1486	1486	1486	1492	1486	1492	1492	1492	1741	1732	1732	1732	1732	1750	1750	1750	1759	1768	1768	1768	1777	1777	1795	1804	1804	1833	1824	1833	1853	1863	1883	1894	1904	1915	1925	1925	1969	1969	2003	2003	2015	2027	2015	2015	0	2777	2777	2777	2777	2570	2570	2570	2570	2609	2609	2629	2669	2669	2669	2669	2669	2669	2754	2845	2845	2822	2822	2822	2822	2799	2799	2777	2777	2799	2777	2777	2777	0	0	4406	4406	4350	4350	4463	4521	4521	4521	4521	4521	4521	4521	4521	4521	4521	4521	4581	0	0	0	3952	3952	4142	4142	4142	4142	4142	4093	4142	4142	4142	4142	4142	4142	4142	4192	4093	4093	4142	4093	4093	4093	4093	4142	4142	4142	4142	4142	4192	4192	4192	4243	4243	4243	4243	4243	4192	4192	4192	4142	4142	4192	4142	4142	0	0	0	0	0	0	0	0	0	0	0	0	0	0	0	0	0	0	0	0	0	0	0	0	0	0	0	0	0	0	0	0	4581	4581	4643	4643	4581	4643	4643	4643	4643	4643	4581	4581	4581	4581	4581	4581	4581	4581	4581	3341	3309	3277	3277	3277	3277	3246	3216	3216	3246	3246	3277	3309	3309	3309	3309	3309	3309	3309	3309	3277	3277	3277	3277	3277	3246	3246	3277	3277	3277	3277	3309	3277	3309	3309	3309	3309	3309	3309	3309	3309	3341	3341	3341	3341	3309	3309	3309	3309	3309	3309	3309	3309	3309	3309	3309	3309	3309	3309	3277	3309	3277	3277	3277	3277	3277	3277	3277	3309	3309	3309	3309	3277	3277	3277	3277	3277	3246	3246	3216	3186	3186	4581	4521	4521	4521	4463	4463	4463	4406	4406	4406	4350	4406	4406	4463	4463	4463	4463	4463	4463	4463	4521	4521	4463	4406	4350	4350	4406	4406	4350	4350	4406	4350	4350	4350	4463	4463	4463	4521	4581	4581	4643	4643	4643	4643	4643	4643	4643	4643	4643	4643	4643	4643	4406	4406	4406	4406	4350	4350	4406	4406	4406	4350	4350	4350	4296	4296	4243	4243	4192	4192	4192	4192	4192	4192	4192	4192	4192	4192	4243	4192	4192	4243	4243	4243	4192	4192	4192	4192	4192	4192	4192	4192	4192	4243	4243	4192	4243	4243	4243	4243	4243	4243	4243	4243	4243	4243	4243	4243	4192	4192	4243	4192	4192	4192	4192	4192	4192	4142	4192	4192	4192	4192	4192	4192	4192	4192	4192	4142	4192	4192	4192	4243	4296	4350	4406	4406	4406	4463	4463	4521	4521	4521	4463	4463	4463	6124	6124	6124	6124	6124	6124	6124	6124	6124	6124	6235	6235	6235	6349	6349	6349	6349	6349	6468	6468	6468	6468	6468	6468	6592	6592	0	0	0	0	0	0	0	2532	2532	2532	2532	2532	2514	2514	2514	2496	2478	2478	2478	0	0	0	0	0	0	0	0	0	0	0	0	0	0	0	0	0	0	0	0	0	0	0	0	0	0	0	0	0	2223	2223	2223	2237	2223	2223	2223	548	548	548	547	547	546	545	544	543	542	542	542	542	536	536	536	536	536	541	542	542	542	542	542	542	0	0	0	0	0	0	0	0	0	0	0	0	0	0	1153	1153	1150	1150	1150	1150	1153	1150	1153	1153	1157	1157	1153	1153	1153	0	0	0	0	0	0	0	0	0	0	0	0	0	0	0	0	0	0	0	0	0	0	0	0	0	0	0	0	0	0	0	0	0	0	0	0	0	0	0	0	0	0
0	0	0	0	0	0	0	0	0	0	0	0	0	1603	1603	1603	1603	1603	1603	1603	1603	1603	1603	1603	1603	1603	1603	1603	1603	1603	1603	1603	1611	1611	1611	0	1480	1473	1480	1486	1486	1486	1486	1486	1486	1492	1492	1486	1486	1486	1741	1741	1732	1732	1732	1750	1750	1759	1759	1759	1768	1768	1777	1777	1795	1804	1804	1814	1814	1843	1843	1853	1873	1883	1894	1904	1925	1936	1936	1980	2003	2003	2003	2003	2015	2777	2777	2777	2777	2777	2777	2754	2609	2609	2609	2629	2629	2609	2649	2649	2669	2669	2669	2733	2754	2822	2845	2822	2822	2822	2822	2799	2799	2799	2799	2799	2799	2799	2777	0	0	4406	4406	4350	4350	4350	4521	4521	4521	4521	4521	4521	0	0	4521	4521	4521	0	0	3907	3907	3952	3952	4045	4045	4093	4093	4093	4093	4093	4093	4142	4142	4142	4142	4093	4142	4142	4142	4142	4142	4093	4093	4093	4142	4142	4142	4142	4142	4192	4192	4192	4192	4243	4243	4243	4243	4142	4142	4142	4093	4093	4142	4142	4142	0	0	0	0	0	0	0	0	0	0	0	0	0	0	0	0	0	0	0	0	0	0	0	0	0	0	0	0	0	0	0	0	0	4581	4643	4643	4643	4643	4643	4643	4643	4643	4643	4581	4581	4581	4581	4581	4581	4581	4581	4581	3341	3309	3309	3277	3246	3246	3246	3246	3246	3246	3277	3309	3309	3309	3309	3309	3277	3309	3309	3277	3277	3277	3277	3277	3246	3246	3277	3277	3277	3309	3309	3277	3309	3309	3309	3309	3309	3309	3309	3309	3309	3341	3341	3341	3309	3309	3309	3309	3309	3309	3309	3309	3309	3309	3309	3309	3309	3309	3309	3309	3309	3277	3309	3309	3309	3309	3309	3309	3309	3309	3309	3309	3309	3309	3277	3277	3277	3246	3216	3216	3186	4521	4521	4521	4521	4463	4463	4463	4406	4406	4406	4406	4406	4406	4463	4463	4463	4463	4463	4463	4463	4463	4521	4463	4463	4406	4406	4406	4406	4350	4350	4406	4406	4406	4406	4406	4463	4521	4521	4581	4581	4643	4581	4643	4643	4643	4581	4581	4581	4643	4643	4643	4521	4463	4406	4406	4296	4296	4350	4406	4406	4350	4350	4350	4350	4296	4296	4296	4243	4192	4192	4192	4192	4192	4192	4192	4192	4192	4192	4243	4243	4243	4243	4243	4243	4243	4192	4192	4192	4192	4192	4192	4192	4192	4243	4243	4192	4192	4192	4192	4192	4192	4192	4192	4192	4243	4192	4243	4192	4192	4192	4243	4192	4192	4192	4192	4192	4192	4192	4192	4192	4192	4192	4192	4192	4192	4192	4192	4142	4142	4192	4243	4243	4296	4296	4406	4406	4406	4463	4463	4521	4521	4521	4521	4463	4463	6124	6124	6124	6124	6124	6124	6124	6124	6124	6124	6235	6235	6235	6349	6349	6349	6349	6349	6468	6468	6468	6468	6468	6468	6592	6592	0	0	0	0	0	0	0	2532	2551	2532	2532	2532	2532	2514	2514	2496	2496	2496	2496	0	0	0	0	0	0	0	0	0	0	0	0	0	0	0	0	0	0	0	0	0	0	0	0	0	0	0	0	2223	2223	2223	2223	2223	2223	2223	2223	2208	2208	547	547	547	546	544	543	542	542	542	542	542	542	536	536	536	540	541	541	542	542	542	542	542	0	0	0	0	0	0	0	0	0	0	0	0	0	0	1153	1153	1150	1150	1150	1150	1150	1153	1153	1153	1157	1153	1153	1150	1150	0	0	0	0	0	0	0	0	0	0	0	0	0	0	0	0	0	0	0	0	0	0	0	0	0	0	0	0	0	0	0	0	0	0	0	0	0	0	0	0	0	0
0	0	0	0	0	0	0	0	0	0	0	0	0	1596	1596	1603	1603	1603	1603	1603	1603	1603	1596	1603	1603	1603	1603	1603	1603	1596	1596	1596	1596	1596	1596	0	1480	1473	1480	1486	1486	1486	1486	1486	1492	1492	1486	1486	1486	1486	1741	1741	1732	1732	1741	1750	1750	1750	1759	1759	1759	1759	1768	1777	1786	1804	1804	1814	1824	1833	1853	1853	1873	1894	1894	1904	1925	1936	1936	1992	2003	2003	2003	2003	2777	2777	2777	2777	2777	2777	2754	2754	2754	2609	2629	2629	2629	2649	2669	2690	2690	2690	2690	2711	2733	2777	2777	2822	2822	2822	2799	2799	2799	2777	2799	2777	2777	2777	0	0	0	4406	4406	4350	4350	4463	4463	4463	0	0	0	0	0	0	0	0	0	0	0	3907	3907	3952	3952	3998	4045	4045	4093	4093	4093	4093	4093	4142	4142	4142	4142	4142	4142	4142	4142	4142	4093	4093	4093	4093	4142	4142	4142	4142	4142	4142	4142	4192	4192	4192	4192	4192	4142	4142	4093	4093	4093	4093	4142	4142	4142	0	0	0	0	0	0	0	0	0	0	0	0	0	0	0	0	0	0	0	0	0	0	0	0	0	0	0	0	0	0	0	0	0	4581	4643	4643	4643	4643	4643	4643	4643	4706	4643	4643	4581	4643	4581	4581	4581	4581	4581	4643	3341	3309	3309	3277	3246	3246	3246	3246	3246	3246	3277	3309	3309	3309	3277	3309	3277	3309	3277	3277	3277	3277	3277	3277	3277	3277	3277	3277	3309	3309	3309	3309	3309	3309	3309	3309	3309	3309	3309	3309	3309	3309	3341	3341	3309	3341	3309	3341	3309	3309	3309	3309	3309	3309	3309	3309	3309	3309	3309	3309	3309	3309	3309	3309	3309	3309	3309	3309	3309	3309	3309	3309	3309	3309	3309	3277	3277	3309	3309	4521	4521	4521	4521	4521	4521	4463	4521	4463	4463	4463	4463	4463	4406	4406	4463	4463	4463	4463	4463	4521	4521	4521	4581	4463	4463	4406	4406	4406	4406	4406	4406	4406	4406	4406	4463	4406	4463	4463	4521	4581	4581	4581	4581	4581	4643	4643	4581	4581	4581	4581	4581	4521	4521	4463	4463	4406	4296	4296	4296	4406	4406	4350	4350	4350	4350	4296	4296	4296	4243	4243	4192	4243	4192	4192	4192	4192	4192	4243	4243	4243	4243	4243	4243	4243	4243	4243	4243	4192	4192	4243	4192	4192	4192	4192	4243	4192	4192	4192	4192	4192	4192	4192	4192	4192	4243	4243	4192	4192	4192	4192	4192	4192	4192	4192	4192	4192	4192	4192	4192	4192	4192	4192	4192	4192	4192	4192	4192	4192	4192	4192	4192	4243	4296	4296	4350	4350	4406	4406	4463	4463	4463	4463	4521	4521	4521	6124	6124	6124	6124	6235	6235	6235	6235	6124	6124	6124	6124	6124	6235	6235	6349	6235	6235	6235	6349	6468	6468	6468	6468	6468	6592	6592	0	0	0	0	0	0	0	2532	2551	2551	2551	2532	2532	2514	2514	2496	2496	2496	2496	0	0	0	0	0	0	0	0	0	0	0	0	0	0	0	0	0	0	0	0	0	0	0	0	0	0	0	0	2223	2223	2237	2237	2237	2223	2223	2223	2208	2208	547	546	546	544	543	542	542	542	542	541	541	537	536	536	536	536	539	540	540	541	542	542	542	0	0	0	0	0	0	0	0	0	0	0	0	0	0	1153	1153	1150	1150	1150	1150	1150	1153	1153	1153	1157	1153	1153	1150	1150	0	0	0	0	0	0	0	0	0	0	0	0	0	0	0	0	0	0	0	0	0	0	0	0	0	0	0	0	0	0	0	0	0	0	0	0	0	0	0	0	0	0
0	0	0	0	0	0	0	0	0	0	0	0	0	1603	1603	1603	1603	1603	1596	1603	1596	1603	1596	1596	1596	1596	1603	1603	1603	1596	1589	1574	1574	1596	1596	0	1486	1486	1486	1486	1486	1486	1486	1492	1486	1492	1492	1492	1492	1492	1732	1732	1732	1741	1741	1750	1750	1750	1759	1759	1759	1759	1768	1777	1786	1804	1814	1824	1824	1833	1843	1853	1863	1883	1904	1904	1904	1936	1958	1980	1992	2003	2003	0	2799	2777	2777	2777	2777	2777	2754	2754	2777	2777	2777	2649	2649	2690	2690	2690	2711	2690	2711	2711	2733	2754	2799	2799	2799	2799	2777	2777	2799	2799	2799	2799	2799	2799	0	0	0	4406	4406	4350	4350	4521	4521	4521	0	0	0	0	0	0	0	0	0	0	0	3998	3952	3952	3952	3998	4045	4093	4093	4093	4093	4093	4093	4142	4142	4142	4142	4142	4142	4142	4142	4142	4142	4142	4142	4142	4142	4142	4142	4142	4142	4142	4142	4142	4192	4192	4142	4142	4142	4142	4093	4093	4045	4045	4142	4142	4142	0	0	0	0	0	0	0	0	0	0	0	0	0	0	0	0	0	0	0	0	0	0	0	0	0	0	0	0	0	0	0	0	0	0	0	4643	4706	4643	4643	4643	4643	4643	4643	4643	4581	4643	4581	4581	4581	4643	4643	4706	4771	3309	3309	3277	3277	3246	3246	3277	3246	3277	3277	3309	3309	3309	3277	3309	3277	3309	3277	3277	3277	3277	3277	3277	3277	3277	3277	3277	3309	3309	3309	3309	3309	3309	3309	3309	3309	3309	3309	3309	3309	3309	3341	3341	3309	3341	3309	3309	3309	3309	3309	3309	3309	3277	3277	3309	3309	3309	3309	3309	3309	3309	3309	3309	3309	3309	3309	3309	3309	3309	3309	3309	3309	3309	3309	3309	3309	3309	4521	4521	4463	4521	4521	4521	4463	4463	4463	4463	4463	4406	4463	4463	4406	4463	4463	4463	4463	4463	4463	4521	4521	4581	4521	4463	4463	4463	4406	4406	4406	4406	4406	4463	4406	4406	4406	4406	4463	4521	4521	4521	4581	4581	4581	4643	4643	4643	4581	4581	4581	4581	4521	4521	4463	4406	4406	4350	4350	4296	4350	4406	4350	4350	4350	4350	4350	4350	4296	4296	4243	4243	4243	4192	4192	4192	4192	4192	4192	4192	4243	4243	4243	4243	4243	4243	4243	4243	4192	4192	4192	4192	4192	4192	4192	4192	4192	4192	4192	4192	4142	4192	4192	4192	4192	4192	4243	4243	4243	4192	4192	4192	4192	4192	4243	4192	4243	4192	4192	4192	4192	4192	4192	4192	4192	4192	4192	4192	4142	4142	4192	4192	4192	4243	4296	4350	4350	4350	4406	4406	4463	4463	4463	4463	4521	4521	4521	6018	6018	6124	6124	6124	6235	6235	6124	6124	6124	6124	6124	6124	6235	6235	6349	6349	6349	6468	6468	6468	6468	6468	6468	6468	6592	6592	6592	6592	0	0	0	0	0	0	2551	2551	2551	2532	2532	2514	2514	2514	2514	2496	2496	0	0	0	0	0	0	0	0	0	0	0	0	0	0	0	0	0	0	0	0	0	0	0	0	0	0	0	2237	2223	2223	2223	2223	2223	2223	2223	2223	548	548	546	546	545	543	543	542	542	542	541	541	541	537	536	536	536	537	539	539	539	541	541	541	542	0	0	0	0	0	0	0	0	0	0	0	0	1161	1146	1153	1153	1150	1150	1150	1150	1150	1150	1153	1153	1153	1153	1150	1150	1150	0	0	0	0	0	0	0	0	0	0	0	0	0	0	0	0	0	0	0	0	0	0	0	0	0	0	0	0	0	0	0	0	0	0	0	0	0	0	0	0	0	0
0	0	0	0	0	0	0	0	0	0	0	0	0	1603	1603	1603	1603	1596	1596	1596	1596	1603	1596	1596	1603	1603	1603	1603	1596	1596	1596	1589	1589	0	0	0	1486	1486	1486	1486	1486	1486	1486	1486	1486	1492	1492	1698	1698	1698	1723	1723	1732	1741	1750	1759	1759	1759	1759	1759	1759	1759	1768	1777	1786	1804	1814	1824	1824	1843	1853	1853	1863	1883	1894	1894	1915	1936	1958	1969	1992	1992	1992	0	2799	2799	2777	2777	2777	2777	2777	2777	2777	2777	2777	2754	2711	2733	2733	2733	2733	2711	2711	2711	2733	2777	2799	2799	2799	2799	2777	2777	2799	2777	2799	2777	2777	2777	0	0	0	0	0	0	0	4521	4521	4521	0	0	0	0	0	0	0	0	0	4045	4045	3998	3952	3952	3952	3998	4093	4093	4093	4093	4093	4093	4093	4142	4142	4142	4142	4142	4142	4142	4093	4093	4093	4093	4093	4093	4093	4093	4093	4142	4142	4142	4142	4142	4192	4192	4192	4142	4142	4142	4093	4093	4093	4045	0	0	0	0	0	0	0	0	0	0	0	0	0	0	0	0	0	0	0	0	0	0	0	0	0	0	0	0	0	0	0	0	0	0	0	0	0	4771	4706	4706	4706	4643	4643	4643	4643	4643	4643	4581	4643	4643	4581	4581	4643	4706	4706	4706	4643	3309	3246	3246	3246	3246	3277	3246	3277	3277	3309	3309	3277	3277	3277	3277	3277	3277	3277	3277	3277	3277	3277	3277	3277	3309	3309	3309	3309	3309	3309	3309	3309	3309	3309	3309	3309	3309	3309	3309	3309	3341	3341	3341	3341	3341	3341	3309	3341	3309	3309	3277	3309	3309	3309	3309	3309	3309	3309	3309	3309	3309	3309	3309	3309	3309	3309	3309	3309	3309	3309	3309	3309	3309	3309	3309	3309	4521	4521	4463	4463	4463	4463	4463	4463	4463	4463	4463	4406	4406	4463	4406	4406	4463	4463	4463	4463	4463	4521	4521	4521	4521	4521	4463	4406	4406	4406	4406	4406	4406	4463	4463	4463	4463	4406	4463	4521	4521	4581	4643	4581	4581	4581	4643	4581	4581	4521	4521	4521	4521	4521	4463	4406	4406	4296	4296	4296	4350	4350	4350	4350	4350	4350	4350	4350	4296	4243	4243	4192	4192	4192	4192	4192	4192	4192	4192	4243	4243	4243	4243	4243	4243	4243	4192	4192	4192	4192	4192	4192	4192	4192	4192	4192	4192	4192	4192	4192	4192	4192	4192	4192	4192	4192	4243	4243	4243	4243	4192	4192	4192	4192	4243	4192	4243	4243	4192	4192	4192	4192	4192	4192	4192	4192	4192	4142	4142	4142	4192	4192	4243	4243	4296	4350	4350	4406	4406	4406	4463	4463	4463	4406	4521	4521	6018	6018	6018	6124	6124	6124	6124	6124	6018	6124	6124	6124	6124	6235	6235	6349	6349	6349	6349	6468	6468	6592	6592	6468	6468	6468	6592	6592	6592	6592	0	0	0	0	0	0	2551	2551	2551	2532	2532	2514	2514	2514	2496	2496	2496	0	0	0	0	0	0	0	0	0	0	0	0	0	0	0	0	0	0	0	0	0	0	0	0	0	0	0	2223	2223	2223	2223	2223	2223	2223	2223	2223	548	547	546	545	544	543	543	542	542	541	540	539	538	537	537	536	537	537	539	538	539	539	539	539	0	0	0	0	0	0	0	0	0	0	0	0	0	1161	1146	1153	1150	1150	1146	1146	1150	1150	1150	1150	1153	1153	1150	1150	1150	1150	0	0	0	0	0	0	0	0	0	0	0	0	0	0	0	0	0	0	0	0	0	0	0	0	0	0	0	0	0	0	0	0	0	0	0	0	0	0	0	0	0	0
0	0	0	0	0	0	0	0	0	0	0	0	0	0	1603	1603	1596	1596	1596	1596	1603	1603	1603	1596	1603	1603	1603	1603	1603	1596	1596	1596	1589	0	0	1480	1480	1480	1486	1486	1486	1486	1486	1486	1486	0	0	1698	1698	1698	1723	1723	1732	1741	1759	1759	1759	1759	1759	1759	1759	1759	1768	1786	1795	1804	1814	1824	1824	1833	1843	1853	1863	1883	1894	1894	1915	1958	1969	1980	1992	2003	2003	2799	2799	2799	2799	2777	2777	2777	2777	2777	2777	2777	2777	2777	2777	2777	2754	2754	2733	2733	2711	2711	2711	2777	2777	2777	2799	2799	2777	2799	2799	2799	2799	2777	2777	2777	0	0	0	0	0	0	0	4521	4521	4521	4521	0	0	0	0	0	0	0	4045	4045	3998	3998	3952	3952	3907	3998	4045	4093	4093	4093	4093	4093	4093	4142	4093	4093	4093	4142	4093	4093	4093	4093	4093	4093	4093	4093	4142	4093	4142	4142	4142	4142	4142	4142	4192	4192	4192	4142	4142	4142	4093	4093	4093	0	0	0	0	0	0	0	0	0	0	0	0	0	0	0	0	0	0	0	0	0	0	0	0	0	0	0	0	0	0	0	0	0	0	0	0	0	0	4771	4706	4706	4706	4706	4643	4706	4643	4643	4581	4581	4643	4581	4581	4581	4581	4706	4706	4706	4643	4706	3216	3216	3246	3246	3277	3277	3309	3277	3309	3309	3277	3277	3277	3277	3277	3277	3277	3277	3277	3277	3309	3277	3309	3309	3309	3309	3309	3309	3309	3309	3309	3309	3309	3309	3309	3309	3309	3309	3309	3309	3341	3341	3341	3373	3341	3341	3341	3309	3309	3309	3309	3309	3309	3309	3309	3309	3309	3309	3309	3309	3309	3309	3309	3309	3309	3309	3309	3309	3309	3309	3309	3309	3309	3309	4521	4521	4463	4463	4463	4463	4463	4463	4463	4463	4463	4463	4463	4463	4463	4463	4406	4463	4463	4463	4521	4521	4521	4581	4581	4521	4463	4463	4406	4463	4406	4406	4406	4406	4463	4463	4463	4463	4463	4463	4521	4521	4581	4643	4581	4581	4643	4643	4643	4581	4521	4521	4521	4521	4463	4350	4296	4296	4296	4296	4296	4296	4350	4350	4350	4350	4350	4296	4296	4296	4296	4243	4192	4192	4243	4192	4192	4192	4192	4192	4243	4192	4243	4243	4243	4243	4243	4243	4243	4192	4192	4192	4192	4192	4192	4192	4192	4192	4192	4192	4192	4192	4192	4192	4192	4192	4192	4243	4243	4243	4192	4192	4192	4192	4192	4192	4192	4192	4192	4192	4192	4192	4192	4192	4192	4192	4192	4192	4142	4142	4142	4192	4192	4243	4243	4296	4350	4350	4406	4406	4406	4406	4406	4406	4463	4521	4521	6018	6018	6018	6124	6124	6124	6124	6124	6124	6124	6124	6124	6124	6235	6235	6349	6468	6468	6349	6468	6468	6468	6592	6468	6592	6592	6592	6720	6720	6720	0	0	0	0	0	0	2570	2551	2551	2532	2532	2514	2514	2514	2496	2496	2496	0	0	0	0	0	0	0	0	0	0	0	0	0	0	0	0	0	0	0	0	0	0	0	0	0	0	2237	2223	2223	2223	2223	2223	2223	2208	2223	2223	548	547	546	545	544	542	542	542	541	539	539	538	537	536	537	536	537	537	538	538	539	538	538	538	0	0	0	0	0	0	0	0	0	0	0	0	0	1146	1146	1150	1150	1150	1146	1146	1146	1150	1150	1150	1150	1150	1150	1150	1150	1150	0	0	0	0	0	0	0	0	0	0	0	0	0	0	0	0	0	0	0	0	0	0	0	0	0	0	0	0	0	0	0	0	0	0	0	0	0	0	0	0	0	0
0	0	0	0	0	0	0	0	0	0	0	0	0	0	0	1603	1596	1596	1589	1596	1596	1603	1603	1596	1603	1603	1603	1603	1603	1596	1596	1596	0	0	0	1480	1473	1473	1486	1486	1486	1486	1486	0	0	0	0	1698	1698	1698	1723	1723	1723	1750	1750	1759	1759	1750	1759	1759	1759	1768	1777	1786	1795	1804	1814	1824	1824	1843	1843	1853	1863	1883	1894	1894	1925	1958	1969	1969	1969	2003	2003	2003	2799	2799	2799	2799	2777	2777	2777	2777	2799	2777	2799	2799	2799	2799	2777	2777	2777	2754	2754	2754	2777	2777	2777	2777	2799	2799	2777	2777	2799	2799	2799	2777	2777	0	0	0	0	0	0	0	0	4521	4463	4521	4521	0	0	0	0	0	0	4045	3998	3998	3998	3952	3952	3952	3952	4045	4045	4093	4093	4093	4093	4093	4093	4093	4093	4093	4093	4093	4093	4093	4093	4093	4093	4093	4093	4093	4142	4093	4093	4142	4142	4142	4142	4142	4142	4192	4142	4142	4142	4142	4142	4142	0	0	0	0	0	0	0	0	0	0	0	0	0	0	0	0	0	0	0	0	0	0	0	0	0	0	0	0	0	0	0	0	0	0	0	0	0	0	0	4771	4706	4706	4706	4706	4706	4706	4643	4643	4581	4581	4581	4581	4581	4581	4581	4643	4643	4706	4643	4643	4643	4706	3277	3277	3277	3277	3277	3277	3309	3309	3309	3277	3277	3277	3277	3277	3246	3246	3277	3277	3309	3309	3309	3309	3309	3309	3309	3309	3309	3309	3309	3309	3309	3309	3309	3309	3309	3309	3309	3341	3341	3341	3341	3373	3341	3341	3309	3309	3309	3309	3309	3309	3309	3309	3309	3309	3309	3309	3309	3309	3309	3309	3309	3309	3309	3309	3309	3309	3309	3309	3309	3309	3309	3309	4521	4521	4463	4406	4463	4463	4463	4463	4463	4463	4463	4463	4463	4463	4463	4463	4463	4463	4463	4521	4463	4521	4521	4581	4581	4521	4463	4463	4406	4350	4350	4406	4406	4406	4463	4463	4463	4463	4463	4463	4521	4521	4581	4581	4581	4581	4643	4643	4643	4643	4581	4521	4521	4463	4463	4406	4350	4350	4296	4296	4296	4296	4296	4296	4296	4296	4296	4296	4296	4296	4243	4243	4243	4243	4243	4192	4192	4192	4192	4192	4243	4192	4243	4243	4243	4243	4243	4243	4243	4192	4192	4142	4192	4142	4142	4192	4192	4192	4192	4192	4142	4142	4142	4142	4142	4192	4192	4192	4243	4192	4192	4192	4192	4192	4243	4243	4192	4243	4243	4192	4243	4243	4192	4192	4192	4192	4192	4142	4142	4142	4142	4192	4192	4243	4296	4296	4350	4406	4406	4406	4406	4406	4406	4406	4406	4463	4463	6124	6018	6124	6124	6018	6124	6124	6124	6235	6124	6124	6124	6235	6235	6235	6235	6235	6235	6349	6468	6468	6592	6592	6592	6592	6592	6592	6720	6720	6720	0	0	0	0	0	0	2570	2551	2551	2532	2532	2514	2514	2514	2496	2496	0	0	0	0	0	0	0	0	0	0	0	0	0	0	0	0	0	0	0	0	0	0	0	0	0	0	0	2223	2223	2223	2223	2223	2223	2223	2223	2223	2223	547	546	545	544	542	542	542	542	540	539	538	538	537	536	536	536	537	537	538	538	538	536	536	536	0	0	0	0	0	0	0	0	0	0	0	0	0	1150	1146	1146	1146	1146	1146	1146	1150	1150	1150	1150	1150	1150	1150	1150	1150	1150	0	0	0	0	0	0	0	0	0	0	0	0	0	0	0	0	0	0	0	0	0	0	0	0	0	0	0	0	0	0	0	0	0	0	0	0	0	0	0	0	0	0
0	0	0	0	0	0	0	0	0	0	0	0	0	0	0	0	1596	1596	1596	1596	1603	1603	1596	1596	1603	1603	1603	1603	1596	1589	1589	1596	0	0	0	0	1473	1473	0	0	0	0	0	0	0	0	0	1698	1698	1706	1715	1723	1732	1750	1750	1759	1759	1750	1759	1759	1768	1768	1777	1786	1795	1804	1814	1824	1824	1853	1843	1853	1863	1883	1894	1904	1925	1947	1947	1958	1958	1958	2003	2003	2822	2799	2799	2799	2777	2777	2777	2777	2777	2777	2799	2799	2799	2799	2777	2777	2777	2777	2777	2777	2777	2777	2777	2777	2799	2799	2777	2777	2777	2799	2799	2777	2777	0	0	0	0	0	0	0	0	4463	4463	4463	4463	0	0	0	0	0	0	3998	3998	3998	3952	3952	3952	3952	3952	3998	4045	4093	4093	4093	4093	4093	4093	4093	4093	4093	4093	4093	4093	4093	4093	4093	4093	4093	4093	4142	4142	4093	4142	4142	4142	4142	4142	4142	4192	4192	4192	4142	4142	4142	4142	4142	0	0	0	0	0	0	0	0	0	0	0	0	0	0	0	0	0	0	0	0	0	0	0	0	0	0	0	0	0	0	0	0	0	0	0	0	0	0	0	4706	4643	4706	4706	4706	4643	4643	4643	4643	4581	4581	4581	4581	4581	4581	4581	4643	4643	4706	4643	4643	4706	4706	4771	3309	3309	3277	3309	3309	3309	3309	3309	3277	3309	3277	3277	3277	3246	3277	3277	3277	3309	3309	3309	3309	3309	3309	3309	3309	3309	3309	3309	3309	3309	3341	3341	3309	3309	3341	3341	3341	3341	3341	3341	3341	3341	3341	3341	3309	3309	3309	3309	3309	3309	3309	3309	3309	3309	3309	3309	3309	3309	3309	3309	3309	3309	3309	3309	3309	3309	3309	3309	3309	3309	3309	4463	4463	4463	4406	4463	4463	4463	4406	4406	4406	4406	4463	4406	4463	4463	4463	4463	4463	4463	4521	4521	4521	4521	4521	4521	4521	4463	4463	4350	4350	4350	4296	4350	4350	4406	4463	4463	4463	4463	4463	4521	4521	4581	4581	4581	4581	4643	4643	4643	4643	4643	4581	4521	4463	4463	4406	4350	4350	4296	4296	4243	4243	4296	4296	4296	4296	4296	4296	4296	4296	4296	4243	4243	4243	4243	4192	4192	4192	4192	4192	4243	4192	4243	4243	4243	4243	4243	4243	4192	4192	4192	4142	4142	4142	4142	4192	4192	4192	4192	4142	4142	4142	4142	4142	4142	4192	4192	4192	4243	4192	4192	4192	4243	4243	4243	4243	4243	4243	4243	4192	4243	4192	4192	4192	4192	4192	4192	4192	4142	4142	4142	4192	4243	4243	4296	4350	4350	4350	4406	4406	4406	4463	4406	4463	4463	4463	4463	6018	6124	6124	6124	6124	6124	6124	6124	6124	6124	6124	6124	6124	6124	6235	6124	6235	6349	6349	6468	6468	6592	6592	6592	6592	6592	6592	6592	6720	6720	6720	0	0	0	0	0	2589	2570	2551	2551	2532	2532	2514	2514	2496	2496	0	0	0	0	0	0	0	0	0	0	0	0	0	0	0	0	0	0	0	0	0	0	0	0	0	2252	2237	2237	2223	2223	2223	2223	2223	2223	2223	2223	547	546	545	544	544	542	542	542	541	540	538	537	537	536	534	537	536	537	538	538	538	538	536	536	536	0	0	0	0	0	0	0	0	0	0	0	0	0	1150	1146	1146	1146	1146	1146	1146	1150	1150	1150	1150	1150	1150	1150	1150	1150	1150	0	0	0	0	0	0	0	0	0	0	0	0	0	0	0	0	0	0	0	0	0	0	0	0	0	0	0	0	0	0	0	0	0	0	0	0	0	0	0	0	0	0
0	0	0	0	0	0	0	0	0	0	0	0	0	0	0	0	0	1596	1596	1603	1603	1596	1603	1596	1603	1603	1603	1603	1596	1596	1589	0	0	0	0	0	0	0	0	0	0	0	0	0	0	0	0	1698	1698	1706	1715	1715	1715	1732	1750	1750	1750	1750	1759	1759	1768	1777	1786	1786	1795	1804	1814	1824	1833	1833	1853	1863	1863	1883	1894	1904	1925	1947	1958	1958	1958	1958	0	0	2822	2822	2799	2799	2799	2777	2777	2777	2777	2777	2799	2777	2799	2799	2799	2777	2799	2777	2799	2799	2799	2799	2799	2799	2799	2799	2777	2777	2799	2799	2822	2822	2822	0	0	0	0	0	0	0	4463	4463	4463	4463	4463	0	0	0	0	0	0	3998	3998	3998	3952	3952	3952	3952	3952	4045	4093	4093	4093	4093	4093	4142	4142	4142	4093	4093	4093	4093	4093	4093	4093	4093	4093	4093	4093	4142	4142	4142	4142	4142	4142	4142	4142	4142	4192	4192	4192	4142	4142	4142	4142	4142	0	0	0	0	0	0	0	0	0	0	0	0	0	0	0	0	0	0	0	0	0	0	0	0	0	0	0	0	0	0	0	0	0	0	0	0	0	0	0	4706	4643	4706	4706	4706	4643	4643	4643	4581	4581	4581	4581	4581	4581	4581	4581	4643	4643	4643	4643	4643	4643	4643	4643	4643	3341	3341	3341	3309	3309	3309	3309	3309	3277	3277	3277	3277	3246	3277	3277	3277	3277	3277	3309	3309	3309	3309	3309	3309	3309	3309	3309	3341	3341	3341	3341	3309	3309	3341	3341	3341	3341	3341	3341	3341	3341	3341	3341	3309	3309	3309	3309	3309	3309	3309	3277	3309	3309	3309	3309	3309	3309	3309	3309	3309	3309	3309	3309	3309	3309	3309	3309	3309	3309	3309	4463	4463	4463	4406	4406	4406	4463	4406	4406	4406	4463	4463	4463	4463	4463	4463	4463	4463	4463	4463	4463	4463	4463	4521	4521	4521	4463	4350	4350	4296	4296	4296	4350	4350	4406	4406	4463	4463	4463	4463	4521	4581	4581	4581	4581	4581	4581	4643	4643	4643	4581	4521	4521	4463	4463	4406	4350	4350	4296	4296	4296	4243	4296	4296	4296	4350	4296	4296	4296	4296	4296	4243	4243	4243	4243	4243	4192	4192	4243	4243	4243	4243	4243	4243	4243	4243	4243	4192	4192	4192	4192	4142	4142	4142	4142	4192	4192	4192	4192	4142	4142	4142	4142	4142	4142	4192	4192	4192	4243	4243	4243	4243	4243	4243	4243	4243	4192	4243	4243	4192	4192	4192	4192	4192	4142	4142	4192	4142	4142	4142	4142	4192	4243	4243	4296	4350	4350	4350	4406	4406	4406	4406	4406	4406	4406	4406	4406	6124	6124	6124	6124	6124	6124	6124	6124	6124	6124	6124	6124	6235	6235	6235	6235	6349	6349	6349	6468	6468	6468	6468	6468	6592	6592	6592	6592	6592	6592	6592	6592	0	0	0	0	2589	2570	2551	2551	2532	2532	2514	2514	2496	2496	0	0	0	0	0	0	0	0	0	0	0	0	0	0	0	0	0	0	0	0	0	0	0	0	0	2252	2223	2223	2208	2223	2223	2208	2208	2208	2223	2223	547	546	545	545	544	544	542	542	542	540	538	538	537	536	534	537	537	537	538	538	538	538	536	536	536	0	0	0	0	0	0	0	0	0	0	0	0	0	1150	1146	1146	1146	1146	1146	1146	1150	1150	1150	1150	1150	1150	1150	1150	1150	1150	0	0	0	0	0	0	0	0	0	0	0	0	0	0	0	0	0	0	0	0	0	0	0	0	0	0	0	0	0	0	0	0	0	0	0	0	0	0	0	0	0	0
0	0	0	0	0	0	0	0	0	0	0	0	0	0	0	0	0	0	0	1603	1603	1603	1603	1596	1603	1603	1596	1603	1603	1596	0	0	0	0	0	0	0	0	0	0	0	0	0	0	0	0	1690	1690	1698	1698	1706	1706	1706	1723	1732	1741	1741	1750	1759	1759	1777	1786	1786	1795	1795	1804	1804	1824	1824	1843	1843	1863	1863	1873	1894	1904	1915	1947	1947	1947	1947	1958	0	2392	2392	2392	2392	2409	2409	2777	2777	2777	2777	2777	2799	2777	2777	2777	2777	2777	2799	2799	2799	2822	2799	2799	2799	2799	2799	2799	2777	2777	2799	2777	2799	2799	2822	0	0	0	0	4350	4350	4350	4406	4406	4406	4463	4463	0	4406	4406	0	0	0	4045	3998	3952	3952	3952	3952	3952	4093	4093	4093	4093	4093	4093	4142	4142	4093	4142	4093	4093	4093	4093	4093	4093	4093	4093	4093	4093	4142	4142	4142	4142	4142	4142	4142	4142	4142	4142	4192	4192	4192	4192	4192	4192	4142	4142	0	0	0	0	0	0	0	0	0	0	0	0	0	0	0	0	0	0	0	0	0	0	0	0	0	0	0	0	0	0	0	0	0	0	0	0	0	0	0	4643	4643	4706	4706	4706	4643	4643	4643	4581	4581	4581	4581	4521	4521	4581	4581	4581	4581	4643	4643	4643	4643	4643	4643	4521	4521	3341	3341	3341	3341	3309	3309	3309	3309	3277	3277	3277	3246	3246	3277	3277	3277	3309	3309	3277	3277	3309	3309	3309	3309	3309	3309	3309	3341	3341	3341	3341	3341	3341	3341	3341	3341	3373	3341	3341	3341	3341	3341	3309	3309	3309	3309	3309	3309	3309	3309	3309	3309	3309	3309	3309	3309	3309	3309	3309	3309	3309	3309	3309	3309	3309	3309	3309	3309	4463	4463	4521	4521	4463	4463	4463	4406	4406	4406	4463	4463	4463	4463	4463	4463	4463	4463	4406	4406	4463	4463	4406	4463	4463	4463	4463	4406	4350	4296	4296	4296	4350	4350	4350	4406	4406	4463	4463	4463	4463	4521	4521	4581	4581	4581	4581	4581	4643	4643	4581	4581	4581	4521	4463	4463	4463	4406	4350	4296	4296	4296	4243	4296	4296	4296	4296	4296	4296	4296	4296	4296	4243	4243	4243	4192	4192	4192	4192	4243	4192	4243	4243	4243	4243	4243	4243	4192	4192	4192	4142	4192	4142	4142	4142	4192	4192	4192	4192	4192	4192	4192	4192	4192	4142	4142	4192	4192	4192	4192	4192	4192	4192	4192	4192	4243	4243	4243	4243	4243	4192	4192	4192	4192	4192	4142	4142	4192	4142	4142	4142	4142	4192	4243	4243	4296	4350	4350	4350	4406	4406	4406	4406	4406	4406	4463	4406	4406	6124	6124	6124	6124	6018	6018	6124	6124	6124	6124	6124	6124	6235	6235	6235	6235	6349	6349	6468	6468	6468	6592	6468	6468	6592	6592	6592	6592	6592	6592	6592	6592	6592	0	0	0	0	0	2551	2551	2532	2532	2514	2514	2496	2496	0	0	0	0	0	0	0	0	0	0	0	0	0	0	0	0	0	0	0	0	0	0	0	0	2252	2252	2237	2237	2223	2223	2223	2208	2208	2208	2208	2223	546	546	545	545	544	544	542	542	542	540	539	538	538	537	537	536	538	539	539	538	538	538	536	536	536	0	0	0	0	0	0	0	0	0	0	0	0	0	1153	1150	1146	1146	1146	1150	1146	1146	1150	1150	1150	1150	1150	1150	1150	1150	1150	0	0	0	0	0	0	0	0	0	0	0	0	0	0	0	0	0	0	0	0	0	0	0	0	0	0	0	0	0	0	0	0	0	0	0	0	0	0	0	0	0	0
0	0	0	0	0	0	0	0	0	0	0	0	0	0	0	0	0	0	0	1603	1603	1603	1603	1596	1603	1603	1603	1603	1603	0	0	0	0	0	0	0	0	0	0	0	0	0	0	0	0	0	1690	1698	1698	1698	1698	1698	1706	1723	1732	1741	1750	1750	1759	1768	1768	1786	1795	1795	1795	1804	1804	1824	1824	1843	1863	1873	1873	1883	1894	1904	1915	1925	1936	1936	1936	1936	0	2392	2392	2392	2376	2409	2426	2426	2426	2777	2777	2777	2799	2777	2777	2777	2777	2799	2799	2799	2799	2822	2799	2799	2799	2799	2799	2799	2777	2777	2777	2777	2799	2799	0	0	0	0	4350	4350	4350	4350	4406	4406	4406	4406	4406	4406	4406	4350	4350	0	0	4045	3998	3998	3952	3952	3998	3998	4045	4093	4093	4093	4093	4093	4093	4093	4093	4142	4093	4093	4093	4093	4093	4093	4093	4093	4093	4093	4142	4142	4142	4142	4142	4142	4142	4142	4142	4142	4142	4192	4192	4192	4192	4192	0	0	0	0	0	0	0	0	0	0	0	0	0	0	0	0	0	0	0	0	0	0	0	0	0	0	0	0	0	0	0	0	0	0	0	0	0	0	0	0	0	4643	4581	4643	4643	4706	4643	4643	4643	4581	4581	4581	4581	4581	4581	4581	4581	4581	4581	4581	4581	4643	4643	4643	4643	4581	4581	4581	4581	3341	3341	3309	3309	3309	3309	3277	3277	3277	3277	3277	3277	3277	3277	3309	3309	3309	3277	3309	3309	3309	3309	3309	3309	3309	3341	3341	3341	3341	3341	3341	3341	3341	3373	3373	3341	3341	3341	3341	3341	3341	3309	3309	3309	3309	3309	3309	3309	3277	3309	3309	3309	3309	3309	3309	3309	3309	3309	3309	3309	3309	3309	3309	3309	3309	3309	3309	4521	4521	4521	4463	4463	4463	4406	4406	4406	4463	4463	4463	4463	4463	4463	4463	4463	4406	4350	4406	4350	4350	4350	4350	4406	4350	4350	4296	4296	4296	4296	4296	4296	4350	4406	4463	4463	4463	4463	4463	4463	4521	4521	4521	4521	4521	4521	4521	4521	4521	4521	4463	4463	4463	4463	4463	4406	4350	4350	4296	4296	4243	4296	4296	4296	4296	4296	4296	4296	4296	4243	4243	4243	4192	4192	4192	4192	4192	4192	4192	4192	4192	4243	4243	4243	4243	4192	4192	4192	4142	4142	4142	4142	4142	4192	4192	4192	4192	4192	4192	4192	4192	4192	4142	4142	4142	4142	4142	4192	4192	4192	4192	4192	4192	4192	4192	4243	4243	4192	4192	4192	4192	4192	4142	4142	4142	4142	4142	4142	4142	4142	4192	4192	4243	4296	4350	4350	4406	4406	4463	4463	4463	4463	4463	4406	4463	4463	4463	6124	6124	6018	6018	6124	6018	6124	6124	6124	6124	6235	6235	6235	6235	6235	6349	6349	6468	6468	6468	6592	6468	6468	6592	6592	6468	6592	6592	6592	6592	6592	6592	0	0	0	0	0	2551	2551	2532	2532	2514	2514	0	0	0	0	0	0	0	0	0	0	0	0	0	0	0	0	0	0	0	0	0	0	0	0	0	0	2252	2252	2237	2223	2208	2208	2208	2208	2208	2208	2208	2208	546	545	545	544	544	543	542	542	542	539	539	539	538	538	536	536	538	538	538	538	538	538	536	536	536	0	0	0	0	0	0	0	0	0	0	0	0	0	1146	1146	1146	1146	1146	1146	1146	1146	1150	1150	1150	1150	1150	1150	1150	1150	1150	0	0	0	0	0	0	0	0	0	0	0	0	0	0	0	0	0	0	0	0	0	0	0	0	0	0	0	0	0	0	0	0	0	0	0	0	0	0	0	0	0	0
0	0	0	0	0	0	0	0	0	0	0	0	0	0	0	0	0	0	0	0	1603	1603	1603	1596	1603	1603	1596	1596	1603	0	0	0	0	0	0	0	0	0	0	0	0	0	0	0	0	0	1690	1690	1698	1698	1698	1698	1715	1723	1723	1741	1741	1750	1759	1759	1777	1786	1795	1795	1795	1804	1804	1824	1824	1843	1863	1873	1873	1883	1894	1904	1915	1925	1936	1936	1936	1936	0	2392	2392	2392	2392	2409	2426	2443	2443	2443	2443	2777	2777	2777	2799	2799	2799	2799	2799	2799	2822	2822	2822	2799	2799	2799	2799	2799	2799	2777	2777	2777	2777	2777	2777	0	0	4350	4350	4350	4296	4350	4350	4406	4406	4406	4406	4406	4406	4350	4350	0	0	0	3998	3998	3952	3952	3998	3998	4045	4093	4045	4093	4093	4093	4093	4093	4093	4093	4093	4093	4093	4093	4093	4093	4093	4093	4142	4142	4142	4142	4142	4142	4142	4142	4142	4142	4142	4142	4192	4192	4243	4243	0	0	0	0	0	0	0	0	0	0	0	0	0	0	0	0	0	0	0	0	0	0	0	0	0	0	0	0	0	0	0	0	0	0	0	0	0	0	0	0	0	0	0	4581	4581	4706	4643	4706	4643	4643	4643	4643	4643	4581	4581	4581	4581	4581	4581	4581	4581	4581	4581	4643	4643	4643	4643	4581	4581	4581	3341	3341	3341	3341	3309	3309	3309	3309	3277	3277	3277	3277	3277	3277	3277	3277	3277	3277	3277	3277	3277	3309	3309	3309	3309	3309	3341	3341	3341	3341	3341	3341	3341	3341	3341	3341	3341	3341	3341	3341	3341	3341	3341	3309	3309	3309	3309	3309	3309	3309	3309	3309	3309	3277	3277	3277	3277	3309	3309	3309	3309	3309	3309	3309	3309	3309	3309	3309	4521	4521	4521	4406	4406	4463	4463	4463	4406	4463	4463	4463	4463	4463	4463	4463	4463	4406	4350	4350	4350	4350	4350	4350	4350	4350	4350	4296	4243	4243	4296	4296	4296	4350	4406	4463	4463	4463	4463	4406	4406	4463	4463	4463	4463	4463	4463	4463	4463	4463	4463	4463	4463	4463	4463	4463	4406	4350	4350	4296	4296	4243	4296	4296	4296	4296	4296	4296	4296	4296	4243	4243	4243	4192	4192	4192	4192	4192	4192	4192	4192	4192	4192	4243	4243	4243	4192	4192	4192	4192	4192	4142	4192	4192	4192	4192	4243	4192	4192	4192	4192	4142	4192	4142	4142	4142	4142	4142	4142	4142	4142	4192	4192	4192	4192	4192	4192	4243	4192	4192	4192	4192	4192	4192	4142	4142	4192	4142	4142	4142	4142	4192	4192	4243	4296	4350	4350	4406	4406	4463	4406	4406	4406	4406	4463	4463	4463	6124	6124	6124	6018	6018	6018	6018	6018	6124	6124	6124	6124	6124	6235	6235	6235	6349	6468	6468	6468	6468	6592	6468	6468	6468	6592	6592	6592	6592	6592	6592	6592	6592	0	0	0	0	0	0	0	0	0	0	0	0	0	0	0	0	0	0	0	0	0	0	0	0	0	0	0	0	0	0	0	0	0	0	0	0	0	2252	2237	2223	2223	2208	2208	2208	2208	2194	2208	2208	2208	2208	545	544	544	543	542	542	542	541	540	539	539	539	536	536	536	537	537	538	538	538	538	538	538	536	0	0	0	0	0	0	0	0	0	0	0	0	1150	1150	1146	1150	1150	1146	1146	1146	1146	1146	1150	1150	1150	1150	1150	1150	1150	1150	0	0	0	0	0	0	0	0	0	0	0	0	0	0	0	0	0	0	0	0	0	0	0	0	0	0	0	0	0	0	0	0	0	0	0	0	0	0	0	0	0	0
0	0	0	0	0	0	0	0	0	0	0	0	0	0	0	0	0	0	0	0	1603	1603	1596	1596	1596	1596	1596	1596	0	0	0	0	0	0	0	0	0	0	0	0	0	0	0	0	0	0	1673	1690	1690	1698	1706	1706	1715	1723	1732	1732	1732	1741	1759	1759	1768	1786	1795	1795	1795	1795	1804	1824	1814	1843	1853	1873	1873	1883	1894	1894	1915	1915	1936	1936	1947	1947	0	2392	2409	2409	2392	2409	2426	2443	2443	2443	2478	2478	2478	2799	2799	2799	2799	2777	2799	2799	2822	2822	2799	2799	2799	2799	2799	2799	2777	2777	2777	2777	2799	2799	2799	0	0	4350	4350	4350	4350	4406	4406	4406	4406	4406	4350	4406	4350	4296	4296	4296	0	0	0	4093	3998	3998	4045	4045	4045	4093	4093	4093	4093	4093	4093	4093	4142	4093	4093	4093	4093	4093	4093	4093	4142	4093	4142	4142	4142	4142	4142	4142	4142	4142	4142	4142	4142	4142	4192	4192	4192	4243	4243	0	0	0	0	0	0	0	0	0	0	0	0	0	0	0	0	0	0	0	0	0	0	0	0	0	0	0	0	0	0	0	0	0	0	0	0	0	0	0	0	0	0	4581	4581	4643	4643	4706	4643	4643	4643	4643	4643	4581	4581	4581	4581	4581	4581	4581	4581	4581	4581	4643	4643	4643	4581	4581	4581	4581	4521	4521	3341	3341	3309	3309	3309	3277	3277	3277	3277	3277	3277	3277	3277	3277	3277	3277	3277	3277	3277	3309	3309	3309	3309	3309	3341	3341	3341	3341	3341	3373	3341	3341	3341	3341	3341	3341	3341	3341	3341	3341	3341	3309	3309	3309	3309	3309	3309	3277	3277	3277	3277	3277	3277	3277	3277	3277	3277	3309	3309	3309	3309	3309	3309	3309	3309	4350	4406	4521	4521	4350	4463	4463	4463	4406	4406	4406	4406	4463	4463	4463	4463	4463	4463	4406	4406	4350	4350	4350	4350	4350	4350	4350	4296	4296	4243	4243	4296	4296	4296	4350	4406	4406	4406	4463	4463	4406	4463	4463	4463	4463	4463	4463	4463	4406	4406	4406	4406	4406	4463	4463	4463	4463	4406	4406	4296	4296	4296	4296	4296	4296	4296	4296	4296	4296	4296	4296	4243	4243	4243	4192	4192	4192	4192	4142	4192	4192	4192	4192	4192	4243	4243	4243	4192	4192	4192	4192	4192	4192	4192	4192	4192	4192	4243	4192	4192	4192	4192	4142	4142	4142	4142	4142	4142	4142	4192	4142	4192	4192	4192	4192	4192	4192	4192	4243	4192	4142	4192	4192	4192	4192	4192	4192	4192	4192	4142	4142	4142	4192	4192	4243	4243	4296	4350	4350	4406	4406	4406	4406	4406	4463	4406	4463	4463	4463	6124	6018	6018	6018	6018	6018	6018	6124	6124	6124	6124	6124	6235	6235	6235	6349	6468	6468	6468	6468	6468	6468	6468	6592	6592	6592	6592	6592	6592	6592	6468	6468	0	0	0	0	0	0	0	0	0	0	0	0	0	0	0	0	0	0	0	0	0	0	0	0	0	0	0	0	0	0	0	0	0	0	0	0	0	2252	2223	2208	2223	2208	2208	2208	2208	2208	2208	2208	2208	2208	2208	544	543	543	542	542	542	541	540	540	539	539	536	536	536	538	538	538	538	539	539	539	539	0	0	0	0	0	0	0	0	0	0	0	0	0	1150	1150	1146	1150	1150	1146	1146	1146	1146	1150	1146	1150	1150	1150	1150	1150	1153	1153	0	0	0	0	0	0	0	0	0	0	0	0	0	0	0	0	0	0	0	0	0	0	0	0	0	0	0	0	0	0	0	0	0	0	0	0	0	0	0	0	0	0
