0	0	0	0	0	0	0	0	0	0	0	0	0	0	0	0	0	0	0	0	0	0	0	0	0	0	0	0	0	0	0	0	0	0	3406	3373	3373	3373	3309	3341	3341	3341	3341	3309	3309	3309	3341	3341	3341	3373	3373	3373	3341	3309	3309	4706	4643	4643	4581	4581	4581	4581	4521	4521	4463	4463	4521	4521	4581	4581	4581	4581	4581	4581	4581	4581	4581	4643	4643	4643	4643	4643	4643	4643	4643	4643	4581	4581	4581	4581	4581	4581	4581	4581	4643	4643	4706	4771	4838	4838	4838	4906	4977	5050	5050	5050	5050	5050	5050	5050	6235	6235	6235	6235	6235	6235	6235	6235	6235	6349	6235	6235	6235	6235	6124	6124	6124	6124	6124	6124	6124	6235	6235	6235	6235	6235	6235	6235	6235	6349	6349	6349	6349	6349	6235	6235	0	0	0	0	5364	5282	5364	5364	5282	5282	5282	5282	5202	5202	5202	5125	5125	5125	5125	5125	5125	5125	5125	5125	5125	5125	5125	5125	5125	5125	5125	5125	0	5050	5050	4977	4977	5050	5050	0	0	0	0	0	0	0	0	0	0	0	0	0	0	0	0	0	0	0	0	0	6853	6853	6853	6853	6853	6853	6853	6853	6853	6992	6992	7137	7287	7287	7444	7444	7608	7608	7608	7608	7608	7608	7608	7444	7444	7444	4706	4706	4643	4643	4643	4643	4581	4581	4521	4521	4521	4521	4463	4463	4463	4521	4521	4521	4463	4521	4521	4521	4521	4581	4581	4643	4643	4643	4643	4643	4581	4581	0	0	0	0	4706	4706	4706	4706	4706	4706	4706	4706	4706	4706	4643	3738	3738	3738	3738	3698	3698	3698	3738	3698	3698	3698	3698	3698	3698	3698	3698	3698	3698	3698	3698	3698	3698	0	0	0	0	3698	3698	3698	3698	3698	3698	3698	3698	3698	3659	3659	3659	3698	3698	3698	3698	3698	3698	3698	4706	4643	4643	4643	4643	4643	4643	4581	4581	4581	4581	4581	4581	4581	4581	4581	4581	4581	4581	4581	4581	4581	4581	4581	4581	4581	4581	4581	4581	4581	4581	4581	4581	4581	4643	4643	4643	4643	4643	4643	4581	4581	4581	4521	4463	4463	4406	4406	4406	4350	4296	4350	4296	4296	4296	4350	4350	4350	4350	4350	4350	4350	4406	4406	4406	4406	4350	4350	4350	4350	4350	4350	4350	4350	4350	4406	4406	4406	4521	4581	4581	4643	4643	4643	4643	4643	4643	4643	4643	4643	0	2551	2551	2532	2532	2514	2496	2496	2478	2496	2478	2478	2478	2478	2460	2460	2460	2443	2443	2426	2426	2426	2426	2409	2409	2426	2426	2409	2409	2409	2426	2426	2426	2426	2409	2426	2426	2409	2409	2409	2409	2409	2409	2409	2409	2409	2409	2426	2426	2426	2426	2426	2443	2443	2443	2443	2443	2460	2443	2443	0	0	0	8343	8146	7779	7779	7779	7779	0	0	0	0	0	0	0	0	0	0	0	0	0	0	0	0	0	0	0	0	0	0	2532	2514	2496	2478	2460	2460	2460	2443	2426	2426	2392	2392	2376	2376	2376	2359	2359	2343	2327	2327	2327	2281	2266	2266	2252	2252	2252	2237	2223	2223	2208	2194	2194	2181	2167	2153	2140	2140	2140	2127	2114	2114	2101	2101	2101	2101	2088	2076	2063	2015	2003	1992	1980	1969	1969	1958	1958	1947	1947	1947	1936	1925	1925	1915	1894	1873	1873	1863	1853	1853	1843	1843	1843	1833	1833	1824	1814	1804	1804	1795	1795	1777	1768	1759	1750	1750	1741	1732	1732	1723	1715	1698	1698	1690	1681	1673	1673	1673	0	0	0	0	0	0	0	0	0	0	0	0	0	0	0	0	0	0	0	0	0	0	0	0	0	0	0	0	0	0	0	0	0	0	0	0	0
0	0	0	0	0	0	0	0	0	0	0	0	0	0	0	0	0	0	0	0	0	0	0	0	0	0	0	0	0	0	0	0	0	0	3406	3373	3373	3341	3309	3309	3341	3341	3341	3341	3309	3341	3341	3341	3341	3341	3406	3406	3373	3373	4706	4706	4643	4581	4581	4521	4521	4521	4521	4463	4463	4521	4521	4521	4581	4581	4581	4581	4581	4581	4581	4581	4581	4643	4643	4643	4643	4643	4643	4643	4643	4643	4581	4581	4581	4581	4581	4581	4581	4581	4581	4643	4643	4706	4838	4838	4838	4906	4977	5050	5050	5050	5050	5050	5050	5050	6235	6124	6235	6235	6235	6235	6349	6349	6349	6349	6235	6235	6235	6235	6235	6124	6124	6124	6235	6235	6124	6235	6235	6235	6235	6235	6235	6235	6349	6349	6349	6349	6349	6349	6235	6235	6235	0	0	0	5364	5282	5364	5364	5282	5282	5282	5282	5202	5202	5202	5125	5125	5125	5125	5125	5125	5125	5125	5125	5125	5125	5125	5125	5125	5125	5125	5125	0	0	0	0	0	0	0	0	0	0	0	0	0	0	0	0	0	0	0	0	0	0	0	0	0	0	0	0	0	6992	6992	6853	6853	6853	6853	6853	6853	6992	6992	7137	7287	7287	7444	7444	7608	7608	7608	7608	7608	7608	7608	7608	7608	7444	4706	4706	4643	4643	4643	4581	4581	4521	4521	4463	4463	4521	4463	4463	4463	4521	4521	4521	4463	4521	4521	4521	4521	4581	4581	4581	4643	4643	4643	4643	4643	4643	0	0	0	0	4643	4706	4706	4706	4706	4706	4706	4643	4643	4643	3738	3738	3698	3738	3698	3698	3698	3698	3698	3698	3698	3698	3698	3698	3698	3698	3698	3698	3698	3698	3698	3698	3698	0	0	0	0	3698	3698	3698	3698	3698	3698	3698	3698	3698	3659	3659	3659	3698	3698	3698	3698	3698	3698	4838	4771	4706	4643	4643	4643	4643	4643	4581	4581	4581	4581	4581	4581	4581	4581	4581	4581	4581	4581	4581	4581	4581	4581	4581	4581	4581	4581	4581	4581	4581	4581	4581	4581	4581	4643	4643	4643	4643	4643	4643	4581	4581	4581	4521	4521	4463	4406	4406	4406	4406	4350	4350	4350	4350	4296	4350	4350	4350	4350	4350	4350	4350	4406	4350	4406	4350	4350	4350	4350	4350	4350	4350	4350	4350	4350	4350	4406	4406	4521	4581	4581	4643	4643	4643	4706	4643	4643	4643	4643	2551	2551	2551	2532	2532	2532	2514	2496	2496	2496	2496	2478	2478	2478	2460	2460	2443	2443	2443	2426	2426	2426	2426	2426	2409	2409	2426	2426	2426	2426	2426	2426	2426	2426	2426	2426	2426	2426	2409	2409	2409	2409	2409	2409	2409	2409	2426	2426	2426	2426	2426	2426	2426	2426	2443	2443	2443	2443	2443	2443	2443	2443	0	0	8343	7779	7779	7779	7779	7779	0	0	0	0	0	0	0	0	0	0	0	0	0	0	0	0	0	0	0	0	0	0	2532	2514	2514	2496	2478	2460	2460	2443	2426	2409	2392	2392	2376	2376	2376	2359	2343	2343	2327	2327	2327	2297	2266	2266	2266	2252	2252	2237	2223	2223	2208	2194	2194	2181	2167	2153	2140	2140	2140	2127	2114	2114	2101	2101	2101	2088	2088	2076	2039	2015	2003	1992	1980	1969	1958	1958	1947	1947	1936	1947	1936	1925	1925	1915	1894	1883	1873	1873	1863	1853	1853	1843	1843	1843	1833	1824	1814	1804	1804	1795	1786	1777	1768	1759	1759	1750	1741	1732	1723	1715	1706	1698	1698	1690	1681	1673	1665	1665	0	0	0	0	0	0	0	0	0	0	0	0	0	0	0	0	0	0	0	0	0	0	0	0	0	0	0	0	0	0	0	0	0	0	0	0	0
0	0	0	0	0	0	0	0	0	0	0	0	0	0	0	0	0	0	0	0	0	0	0	0	0	0	0	0	0	0	0	0	0	0	3373	3373	3373	3373	3341	3341	3341	3341	3341	3341	3341	3341	3341	3341	3341	3373	3406	3406	3373	3341	3341	4643	4581	4581	4521	4521	4521	4521	4463	4521	4521	4521	4521	4521	4581	4581	4581	4581	4581	4581	4581	4581	4581	4643	4643	4643	4643	4581	4581	4581	4643	4643	4581	4581	4581	4581	4581	4581	4581	4643	4643	4643	4643	4706	4838	4838	4906	4977	4977	5050	5050	5050	5050	5050	5050	5050	0	6235	6235	6235	6235	6235	6235	6235	6349	6235	6235	6235	6235	6235	6235	6124	6124	6124	6235	6235	6124	6235	6235	6235	6235	6235	6235	6235	6349	6235	6349	6349	6349	6349	6235	6235	6349	6235	6235	6235	0	0	0	0	0	0	0	0	5202	5202	5202	5202	5202	5202	5202	5202	5202	5202	5202	5202	5125	5202	5125	5125	5125	5125	5125	0	0	0	0	0	0	0	0	0	0	0	0	0	0	0	0	0	0	0	0	0	0	0	0	0	0	0	0	0	0	6992	6992	6853	6853	6853	6992	6853	6992	6992	6992	7287	7287	7287	7444	7444	7608	7608	7608	7608	7608	7608	7608	7608	7608	7444	4706	4706	4643	4643	4643	4581	4581	4521	4521	4463	4463	4463	4463	4463	4463	4521	4521	4521	4521	4521	4521	4581	4521	4581	4643	4643	4643	4643	4643	4643	4643	4581	4521	4521	0	0	4581	4643	4643	4643	4643	4643	4643	4643	4643	4643	3738	3738	3738	3738	3698	3698	3698	3698	3698	3698	3698	3698	3698	3698	3698	3698	3698	3698	3698	3698	3698	3698	3698	0	0	0	0	3698	3698	3738	3738	3698	3698	3698	3698	3698	3659	3659	3659	3698	3698	3698	3698	3698	3698	4838	4771	4706	4643	4643	4643	4643	4643	4643	4643	4643	4643	4581	4581	4581	4581	4581	4581	4643	4581	4581	4581	4581	4581	4581	4581	4581	4581	4581	4581	4581	4581	4581	4581	4581	4581	4581	4643	4581	4581	4581	4581	4581	4521	4521	4521	4463	4406	4406	4406	4406	4350	4350	4350	4350	4296	4350	4350	4350	4350	4350	4350	4350	4350	4350	4350	4350	4350	4350	4350	4350	4350	4350	4350	4350	4350	4350	4406	4406	4463	4521	4581	4643	4643	4643	4643	4643	4643	4643	2551	2551	2551	2551	2532	2532	2532	2514	2496	2496	2496	2496	2478	2478	2460	2443	2443	2443	2443	2426	2426	2426	2426	2426	2426	2409	2409	2426	2426	2426	2426	2426	2443	2426	2443	2426	2426	2426	2426	2409	2409	2409	2409	2409	2409	2409	2426	2426	2426	2426	2426	2426	2426	2426	2426	2426	2443	2443	2426	2443	2443	2443	2443	0	0	0	7779	7779	7779	7779	7779	7779	7779	0	0	0	0	0	0	0	0	0	0	0	0	0	0	0	0	0	0	0	0	2532	2514	2514	2496	2478	2460	2460	2443	2443	2426	2409	2392	2376	2376	2359	2359	2343	2327	2327	2327	2312	2312	2281	2266	2266	2252	2252	2223	2223	2223	2208	2194	2194	2181	2181	2167	2153	2140	2127	2127	2114	2114	2101	2101	2101	2088	2088	2076	2039	2015	2003	1992	1980	1969	1958	1958	1947	1947	1936	1936	1925	1925	1925	1915	1894	1883	1873	1873	1863	1853	1843	1843	1843	1833	1833	1833	1824	1814	1804	1795	1786	1777	1768	1768	1759	1750	1750	1732	1723	1715	1706	1698	1698	1690	1681	1673	1673	1673	0	0	0	0	0	0	0	0	0	0	0	0	0	0	0	0	0	0	0	0	0	0	0	0	0	0	0	0	0	0	0	0	0	0	0	0	0
0	0	0	0	0	0	0	0	0	0	0	0	0	0	0	0	0	0	0	0	0	0	0	0	0	0	0	0	0	0	0	0	0	0	3373	3373	3373	3373	3341	3341	3341	3341	3341	3341	3309	3341	3341	3373	3373	3373	3406	3406	3373	3309	3309	4581	4581	4521	4521	4521	4521	4463	4463	4521	4463	4521	4521	4521	4581	4581	4581	4581	4581	4581	4581	4581	4643	4643	4643	4643	4643	4643	4581	4581	4581	4581	4581	4581	4581	4581	4581	4581	4581	4581	4643	4643	4643	4706	4838	4838	4906	4838	4977	4977	5050	5050	5050	5050	5050	5050	0	6235	6235	6235	6235	6235	6349	6235	6349	6235	6235	6235	6235	6235	6235	6124	6124	6124	6235	6235	6124	6235	6235	6349	6349	6349	6235	6349	6349	6349	6349	6349	6349	6349	6349	6349	6349	6349	6349	6349	0	0	0	0	0	0	0	0	5282	5282	5202	5202	5282	5282	5364	5364	5448	5448	5202	5202	0	5202	5125	5125	5125	5125	0	0	0	0	0	0	0	0	0	0	0	0	0	0	0	0	0	0	0	0	0	0	0	0	0	0	0	0	0	0	0	0	6992	6853	6853	6853	6992	6853	6992	6992	7137	7287	7287	7287	7287	7444	7444	7444	7444	7444	7608	7608	7608	7608	7608	4643	4643	4643	4643	4581	4581	4581	4521	4463	4463	4463	4463	4463	4463	4463	4463	4463	4581	4581	4581	4581	4581	4581	4581	4643	4643	4643	4643	4643	4643	4643	4581	4521	4521	4521	4521	0	4521	4581	4643	4643	4643	4643	4581	4581	4581	4581	3738	3738	3738	3738	3738	3698	3698	3698	3698	3698	3698	3698	3698	3698	3698	3698	3698	3698	3698	3698	3698	3698	3698	0	0	0	0	3738	3738	3738	3738	3738	3698	3698	3698	3698	3659	3659	3659	3698	3698	3659	3659	3698	3698	4771	4771	4706	4643	4643	4643	4643	4643	4643	4643	4643	4643	4581	4581	4581	4581	4581	4581	4581	4581	4581	4581	4581	4581	4581	4581	4581	4581	4581	4581	4581	4581	4581	4581	4581	4581	4581	4581	4581	4581	4581	4581	4581	4521	4521	4463	4406	4406	4350	4406	4350	4350	4350	4350	4350	4296	4350	4350	4350	4350	4350	4350	4350	4350	4350	4350	4350	4350	4350	4350	4350	4350	4350	4350	4350	4350	4350	4406	4406	4463	4521	4581	4643	4643	4643	4643	4643	4581	4581	2570	2570	2551	2551	2532	2532	2532	2514	2496	2496	2478	2478	2478	2478	2460	2443	2443	2443	2443	2426	2426	2426	2426	2426	2426	2409	2409	2426	2426	2426	2426	2426	2443	2426	2426	2426	2426	2426	2426	2409	2426	2409	2409	2409	2426	2409	2426	2426	2426	2426	2426	2426	2426	2426	2426	2426	2443	2426	2426	2426	2426	2443	2443	2443	0	0	7779	7608	7608	7608	7779	7779	7779	7779	0	0	0	0	0	0	0	0	0	0	0	0	0	0	0	0	0	0	0	2532	2532	2514	2496	2478	2478	2460	2460	2443	2426	2426	2392	2376	2376	2359	2359	2343	2327	2327	2312	2312	2312	2281	2266	2266	2266	2252	2237	2237	2223	2208	2208	2194	2181	2181	2167	2153	2140	2127	2127	2114	2114	2101	2101	2101	2088	2076	2063	2039	2003	1992	1992	1980	1969	1958	1958	1947	1947	1936	1936	1925	1925	1925	1915	1904	1883	1883	1873	1863	1853	1843	1843	1843	1833	1833	1833	1814	1804	1795	1795	1786	1777	1768	1768	1759	1759	1750	1732	1723	1706	1706	1698	1698	1690	1681	1673	1673	1673	0	0	0	0	0	0	0	0	0	0	0	0	0	0	0	0	0	0	0	0	0	0	0	0	0	0	0	0	0	0	0	0	0	0	0	0	0
0	0	0	0	0	0	0	0	0	0	0	0	0	0	0	0	0	0	0	0	0	0	0	0	0	0	0	0	0	0	0	0	0	0	0	0	3373	3373	3341	3309	3373	3373	3341	3341	3341	3341	3373	3373	3373	3406	3406	3406	3373	3277	3277	4643	4581	4521	4521	4521	4521	4463	4463	4521	4521	4521	4521	4521	4581	4581	4643	4643	4581	4581	4581	4581	4581	4643	4643	4643	4643	4581	4581	4581	4643	4643	4581	4581	4581	4581	4581	4581	4581	4581	4643	4643	4643	4706	4838	4838	4906	4906	4977	4977	5050	5050	5050	5050	5050	5050	0	6235	6235	6235	6235	6235	6235	6235	6235	6235	6235	6235	6235	6235	6124	6018	6018	6018	6124	6124	6124	6235	6235	6349	6349	6349	6349	6349	6349	6349	6349	6349	6349	6349	6349	6349	6349	6349	6349	6468	6468	0	0	0	0	0	0	0	5282	5282	5282	5282	5448	5448	5448	5448	5448	5535	5535	0	0	0	0	0	0	0	0	0	0	0	0	0	0	0	0	0	0	0	0	0	0	0	0	0	0	0	0	0	0	0	0	0	0	0	0	0	0	0	0	0	6853	6992	6992	6853	6853	6992	7137	7287	7287	7444	7444	7444	7444	7444	7444	7444	7444	7608	7608	7608	7608	7608	4706	4643	4643	4581	4581	4521	4521	4463	4463	4463	4463	4521	4521	4521	4521	4521	4581	4581	4581	4581	4581	4581	4581	4643	4643	4643	4643	4643	4581	4643	4581	4521	4521	4521	4521	4521	4521	4521	4521	4581	4521	4521	4521	4521	4521	4521	3698	3738	3738	3738	3698	3698	3698	3698	3698	3698	3698	3698	3698	3698	3698	3698	3698	3698	3698	3698	3698	3698	3698	0	0	0	0	3738	3738	3738	3738	3698	3698	3698	3698	3659	3659	3659	3659	3698	3698	3659	3659	3659	3659	4771	4706	4706	4643	4643	4643	4643	4643	4643	4643	4643	4643	4581	4581	4581	4581	4581	4581	4581	4581	4581	4581	4581	4581	4581	4581	4521	4521	4581	4581	4581	4581	4581	4581	4581	4581	4581	4581	4581	4581	4581	4521	4521	4521	4521	4463	4406	4406	4406	4350	4350	4350	4350	4296	4296	4296	4350	4350	4350	4350	4350	4350	4350	4350	4350	4350	4350	4350	4350	4350	4350	4350	4350	4350	4350	4350	4350	4406	4406	4463	4521	4521	4643	4643	4643	4643	4581	4581	4581	2570	2570	2551	2551	2532	2532	2532	2514	2496	2496	2478	2478	2478	2478	2460	2443	2443	2443	2426	2426	2426	2426	2426	2426	2426	2426	2409	2426	2426	2426	2426	2426	2426	2426	2426	2426	2426	2426	2426	2426	2426	2409	2409	2426	2426	2426	2426	2426	2426	2426	2426	2426	2409	2426	2426	2426	2443	2443	2426	2426	2426	2443	2443	2443	0	0	0	7608	7608	7608	7608	7608	7608	7779	7779	0	0	0	0	0	0	0	0	0	0	0	0	0	0	0	0	0	0	2532	2514	2514	2496	2478	2478	2460	2460	2443	2426	2426	2409	2376	2376	2359	2359	2343	2327	2327	2327	2312	2312	2297	2281	2266	2266	2252	2237	2237	2237	2208	2208	2194	2181	2167	2167	2153	2140	2140	2127	2127	2114	2101	2101	2101	2088	2076	2076	2039	2015	2003	1992	1992	1969	1958	1958	1947	1936	1936	1936	1925	1925	1915	1915	1904	1883	1873	1873	1863	1853	1843	1843	1843	1833	1833	1824	1814	1804	1795	1786	1777	1768	1768	1768	1759	1759	1750	1732	1723	1715	1706	1698	1698	1690	1681	1673	1673	1673	0	0	0	0	0	0	0	0	0	0	0	0	0	0	0	0	0	0	0	0	0	0	0	0	0	0	0	0	0	0	0	0	0	0	0	0	0
0	0	0	0	0	0	0	0	0	0	0	0	0	0	0	0	0	0	0	0	0	0	0	0	0	0	0	0	0	0	0	0	0	0	0	0	3406	3373	3341	3309	3341	3341	3341	3341	3341	3373	3373	3373	3406	3406	3406	3406	3373	3373	4643	4643	4581	4521	4521	4521	4521	4521	4521	4521	4521	4521	4521	4581	4581	4581	4643	4643	4581	4581	4581	4581	4581	4581	4581	4643	4643	4581	4581	4581	4581	4643	4581	4581	4581	4581	4581	4581	4581	4581	4581	4643	4643	4706	4838	4906	4906	4977	4977	4977	5050	5050	5050	5050	5050	5050	6235	6235	6235	6235	6124	6124	6235	6235	6235	6235	6235	6235	6235	6124	6124	6018	6018	6018	6124	6124	6124	6124	6235	6349	6349	6349	6349	6349	6349	6349	6349	6349	6349	6349	6349	6349	6349	6349	6349	6468	6720	6720	6720	0	0	0	0	0	0	5448	5364	5448	5448	5448	5535	5535	5535	5535	5535	0	0	0	0	0	0	0	0	0	0	0	0	0	0	0	0	0	0	0	0	0	0	0	0	0	0	0	0	0	0	0	0	0	0	0	0	0	0	0	0	0	0	6992	6853	6853	6853	6992	6992	7137	7287	7444	7444	7444	7444	7444	7444	7444	7444	7608	7608	7608	7608	7779	4643	4581	4521	4521	4521	4521	4463	4463	4463	4521	4521	4521	4521	4521	4521	4581	4581	4581	4581	4581	4581	4581	4581	4643	4643	4643	4643	4643	4581	4581	4581	4581	4521	4521	4521	4521	4521	4521	4521	4521	4521	4463	4463	4521	4521	4581	3738	3738	3738	3738	3698	3698	3698	3698	3698	3698	3698	3698	3698	3698	3698	3698	3698	3698	3698	3698	3698	3698	0	0	0	0	0	0	3738	3738	3738	3698	3698	3698	3698	3698	3659	3659	3659	3698	3698	3659	3659	3659	3659	4706	4643	4643	4643	4643	4643	4643	4643	4643	4643	4643	4581	4581	4581	4581	4581	4521	4581	4521	4521	4521	4521	4521	4581	4521	4521	4521	4521	4581	4521	4521	4581	4581	4581	4581	4581	4581	4581	4521	4521	4521	4521	4521	4521	4463	4463	4406	4350	4350	4350	4350	4296	4296	4296	4296	4296	4350	4350	4350	4350	4350	4350	4350	4350	4350	4350	4350	4350	4350	4350	4350	4350	4350	4350	4350	4350	4350	4406	4406	4463	4521	4581	4581	4643	4581	4581	4581	4521	2589	2589	2570	2551	2532	2532	2514	2514	2514	2496	2496	2478	2478	2478	2478	2460	2443	2443	2443	2426	2426	2426	2426	2426	2426	2409	2409	2409	2426	2426	2426	2426	2426	2426	2426	2426	2426	2409	2409	2409	2409	2426	2426	2426	2426	2443	2426	2426	2426	2426	2426	2426	2426	2409	2426	2426	2443	2443	2443	2426	2443	2426	2443	2426	2426	2426	0	0	7608	7444	7444	7444	7608	7608	7608	7608	0	0	0	0	0	0	0	0	0	0	0	0	0	0	0	0	0	0	2514	2514	2496	2496	2478	2460	2460	2460	2443	2426	2409	2409	2376	2376	2359	2343	2343	2327	2327	2327	2312	2312	2297	2281	2266	2266	2252	2252	2237	2237	2208	2208	2194	2181	2181	2167	2153	2153	2140	2140	2127	2114	2114	2114	2101	2088	2076	2063	2039	2015	2003	2003	1992	1969	1958	1958	1947	1936	1936	1936	1925	1925	1915	1915	1904	1883	1883	1873	1873	1863	1853	1843	1843	1833	1833	1824	1804	1804	1795	1786	1786	1777	1768	1768	1759	1759	1759	1732	1723	1715	1706	1706	1706	1690	1690	1673	1673	1673	0	0	0	0	0	0	0	0	0	0	0	0	0	0	0	0	0	0	0	0	0	0	0	0	0	0	0	0	0	0	0	0	0	0	0	0	0
0	0	0	0	0	0	0	0	0	0	0	0	0	0	0	0	0	0	0	0	0	0	0	0	0	0	0	0	0	0	0	0	0	0	0	0	3440	3373	3309	3309	3309	3341	3341	3341	3373	3373	3406	3406	3406	3406	3406	3406	3373	3373	4706	4643	4581	4521	4521	4521	4521	4521	4521	4521	4521	4581	4581	4581	4643	4581	4643	4643	4643	4581	4581	4643	4581	4643	4643	4643	4581	4581	4581	4643	4643	4643	4643	4643	4643	4643	4581	4581	4581	4581	4581	4643	4643	4706	4838	4906	4977	4977	5050	5050	5050	5050	5050	5050	5050	0	6235	6235	6235	6235	6124	6124	6124	6124	6235	6235	6235	6235	6235	6235	6235	6124	6124	6124	6124	6124	6124	6235	6235	6349	6349	6349	6349	6349	6349	6349	6349	6349	6349	6235	6235	6349	6349	6349	6349	6468	6720	6720	6720	0	0	0	0	0	0	5448	5535	5535	5535	5535	5535	5535	5535	5535	5535	5535	0	0	0	0	0	0	0	0	0	0	0	0	0	0	0	0	0	0	0	0	0	0	0	0	0	0	0	0	0	0	0	0	0	0	0	0	0	0	0	0	6853	6853	6853	6853	6853	6853	6992	7137	7287	7444	7444	7444	7444	7444	7444	7444	7608	7608	7608	7608	7608	7608	4521	4521	4521	4521	4521	4521	4521	4463	4463	4521	4463	4521	4521	4521	4521	4581	4581	4581	4581	4581	4581	4643	4581	4643	4643	4643	4643	4643	4581	4581	4581	4521	4521	4463	4463	4463	4463	4463	4463	4463	4463	4463	4463	4463	4463	4463	3738	3738	3738	3738	3738	3698	3698	3698	3698	3698	3698	3698	3698	3698	3698	3698	3698	3698	3698	3698	3698	3698	0	0	0	0	0	0	3738	3738	3738	3738	3698	3698	3698	3698	3698	3698	3659	3698	3698	3659	3659	3659	3659	4706	4643	4643	4643	4643	4643	4643	4643	4643	4643	4643	4581	4581	4521	4521	4521	4521	4521	4463	4521	4521	4521	4521	4521	4521	4521	4463	4463	4521	4521	4521	4521	4521	4521	4521	4521	4521	4521	4463	4463	4463	4463	4463	4406	4406	4406	4350	4350	4350	4350	4350	4296	4296	4296	4296	4296	4350	4350	4350	4350	4350	4350	4350	4350	4350	4350	4350	4350	4350	4350	4350	4350	4350	4350	4350	4350	4350	4406	4406	4463	4521	4581	4581	4581	4581	4581	4521	4521	2609	2609	2609	2551	2514	2514	2496	2496	2496	2496	2496	2478	2478	2478	2478	2460	2460	2443	2443	2426	2426	2426	2426	2409	2409	2409	2409	2409	2426	2426	2426	2426	2409	2409	2392	2392	2409	2392	2409	2409	2409	2426	2426	2426	2426	2443	2426	2426	2426	2426	2409	2426	2426	2409	2426	2426	2426	2443	2426	2426	2426	2426	2426	2426	2426	2426	0	0	0	7444	7444	7444	7608	7608	7608	7608	7608	0	0	0	0	0	0	0	0	0	0	0	0	0	0	0	0	2514	2514	2514	2496	2496	2478	2478	2460	2460	2443	2426	2409	2409	2392	2376	2376	2359	2343	2327	2327	2327	2312	2312	2297	2281	2281	2266	2252	2252	2237	2223	2208	2208	2194	2181	2167	2167	2153	2140	2140	2127	2127	2114	2114	2114	2101	2088	2076	2063	2039	2015	2003	2003	1992	1969	1958	1958	1947	1936	1936	1936	1925	1925	1925	1915	1915	1894	1883	1883	1873	1863	1853	1843	1843	1833	1833	1824	1804	1804	1795	1786	1777	1777	1768	1768	1768	1759	1759	1750	1723	1715	1715	1706	1706	1698	1690	1673	1673	1673	0	0	0	0	0	0	0	0	0	0	0	0	0	0	0	0	0	0	0	0	0	0	0	0	0	0	0	0	0	0	0	0	0	0	0	0	0
0	0	0	0	0	0	0	0	0	0	0	0	0	0	0	0	0	0	0	0	0	0	0	0	4093	4093	4142	4142	0	0	0	0	0	0	0	0	3309	3341	3309	3309	3309	3341	3341	3373	3373	3373	3406	3406	3406	3406	3406	3406	3406	3406	4771	4643	4581	4521	4521	4521	4521	4463	4521	4521	4521	4521	4581	4581	4581	4581	4643	4643	4643	4643	4643	4643	4581	4643	4643	4643	4581	4581	4581	4581	4581	4643	4581	4643	4643	4643	4581	4581	4581	4581	4643	4643	4643	4706	4838	4906	4977	4977	5050	5050	5050	5050	5050	5050	5050	0	0	6235	6235	6124	6124	6124	6124	6124	6124	6124	6124	6124	6235	6235	6235	6235	6235	6124	6235	6235	6124	6349	6349	6349	6349	6349	6349	6349	6349	6349	6349	6349	6235	6235	6235	6235	6349	6349	6349	6468	6720	6720	6720	0	0	0	0	0	0	5535	5535	5626	5626	5535	5535	5535	5535	5535	5535	5535	5535	0	0	0	0	0	0	0	0	0	0	0	0	0	0	0	0	0	0	0	0	0	0	0	0	0	0	0	0	0	0	0	0	0	0	0	0	0	0	0	6853	6853	6853	6853	6853	6853	6853	7137	7137	7444	7444	7444	7444	7444	7444	7444	7444	7444	7608	7608	7608	7608	7608	4521	4463	4521	4521	4463	4463	4463	4463	4521	4463	4521	4521	4521	4521	4581	4581	4581	4581	4581	4581	4581	4581	4643	4643	4643	4643	4643	4581	4581	4581	4521	4521	4521	4463	4463	4463	4463	4463	4463	4463	4406	4406	4406	4406	4406	3738	3738	3738	3738	3738	3698	3698	3698	3698	3698	3698	3698	3698	3698	3698	3738	3738	3698	3698	3698	3659	3659	0	0	0	0	0	0	3738	3738	3738	3738	3698	3698	3698	3698	3698	3698	3698	3698	3698	3659	3659	3659	3621	4643	4643	4643	4581	4643	4643	4643	4643	4643	4581	4581	4581	4521	4463	4463	4463	4463	4463	4463	4463	4463	4463	4406	4463	4406	4406	4406	4406	4406	4406	4406	4463	4463	4463	4521	4521	4521	4521	4463	4463	4463	4406	4406	4406	4350	4350	4350	4350	4350	4350	4350	4296	4296	4296	4296	4296	4350	4350	4350	4350	4350	4350	4350	4350	4350	4350	4350	4350	4350	4350	4350	4350	4350	4350	4350	4350	4350	4350	4406	4463	4521	4521	4581	4581	4521	4521	4521	4521	4463	4463	4406	4406	2514	2514	2496	2496	2496	2496	2478	2478	2478	2478	2478	2460	2460	2443	2443	2426	2426	2426	2426	2409	2409	2409	2409	2409	2409	2409	2426	2409	2409	2409	2409	2409	2409	2409	2409	2409	2409	2426	2426	2426	2443	2443	2426	2426	2426	2426	2409	2409	2409	2409	2426	2426	2426	2443	2426	2426	2426	2426	2426	2409	2409	2409	0	0	7444	7444	7444	7444	7444	7608	7608	7444	7444	0	0	0	0	0	0	0	0	0	0	0	0	0	0	0	0	2514	2496	2496	2496	2478	2478	2478	2460	2460	2426	2409	2409	2392	2392	2376	2376	2359	2343	2327	2327	2327	2312	2312	2297	2281	2266	2266	2252	2252	2237	2237	2208	2208	2194	2181	2167	2167	2153	2140	2140	2127	2114	2114	2114	2101	2101	2088	2076	2063	2039	2027	2015	2003	1992	1980	1958	1958	1947	1936	1936	1936	1925	1925	1925	1915	1915	1894	1894	1883	1883	1863	1853	1843	1843	1833	1824	1824	1804	1795	1795	1786	1786	1777	1777	1768	1768	1759	1759	1741	1723	1723	1715	1715	1706	1698	1690	1673	1673	1673	0	0	0	0	0	0	0	0	0	0	0	0	0	0	0	0	0	0	0	0	0	0	0	0	0	0	0	0	0	0	0	0	0	0	0	0	0
0	0	0	0	0	0	0	0	0	0	0	0	0	0	0	0	0	0	0	3998	3998	3998	0	0	4093	4045	4093	4093	4093	4093	0	0	0	0	0	0	3309	3341	3309	3309	3309	3341	3341	3341	3373	3373	3406	3406	3406	3406	3406	3406	3406	3406	4643	4643	4581	4521	4521	4521	4521	4521	4521	4521	4521	4521	4521	4581	4581	4581	4643	4643	4643	4643	4643	4643	4581	4643	4643	4643	4581	4581	4581	4581	4581	4643	4643	4643	4706	4643	4581	4581	4581	4581	4643	4581	4643	4706	4838	4906	4977	4838	4977	5050	5050	5050	5050	5050	0	0	0	6235	6235	6235	6124	6124	6124	6124	6124	6124	6124	6235	6235	6235	6235	6235	6235	6124	6235	6235	6235	6349	6349	6349	6349	6349	6349	6349	6349	6235	6235	6235	6235	6235	6235	6235	6235	6349	6349	6468	6720	6720	6720	0	0	0	0	0	5626	5626	5626	5626	5626	5535	5535	5535	5535	5535	5448	5448	5448	5448	0	0	0	0	0	0	0	0	0	0	0	0	0	0	0	0	0	0	0	0	0	0	0	0	0	0	0	0	0	0	0	0	0	0	7608	7444	7608	7444	7444	7137	6992	6992	6992	6992	7137	7287	7287	7444	7444	7444	7444	7444	7444	7444	7444	7608	7608	7608	7608	7608	7608	4521	4463	4521	4463	4463	4463	4463	4463	4521	4463	4521	4521	4521	4521	4521	4581	4521	4581	4581	4521	4521	4581	4643	4643	4581	4581	4581	4581	4581	4581	4521	4463	4463	4463	4463	4463	4463	4463	4406	4406	4406	4406	4350	4350	4406	3738	3738	3738	3738	3738	3738	3698	3698	3698	3698	3698	3698	3698	3698	3738	3738	3738	3698	3698	3698	3698	3659	0	0	0	0	0	0	3698	3698	3698	3698	3698	3698	3698	3698	3698	3659	3659	3698	3659	3659	3621	3621	3621	4581	4581	4581	4581	4581	4581	4581	4581	4581	4581	4581	4521	4463	4406	4406	4406	4406	4406	4406	4406	4350	4406	4350	4350	4350	4350	4350	4350	4350	4350	4350	4406	4406	4406	4463	4463	4463	4406	4406	4406	4406	4406	4350	4350	4350	4350	4350	4350	4350	4350	4350	4296	4296	4296	4296	4296	4296	4296	4296	4296	4350	4350	4350	4350	4350	4350	4350	4350	4350	4350	4350	4350	4350	4350	4350	4350	4350	4350	4406	4406	4463	4521	4521	4521	4521	4463	4463	4406	4406	4350	4350	2514	2514	2514	2514	2514	2496	2496	2478	2478	2478	2478	2478	2460	2460	2443	2443	2426	2409	2409	2409	2409	2409	2409	2409	2409	2409	2426	2426	2409	2409	2409	2392	2409	2409	2409	2409	2409	2409	2426	2426	2426	2443	2443	2443	2426	2426	2426	2409	2409	2409	2409	2409	2426	2426	2443	2426	2426	2426	2426	2426	2426	2426	2426	2426	0	7444	7444	7444	7444	7444	7444	7444	7444	7444	0	0	0	0	0	0	0	0	0	0	0	0	0	0	0	0	0	2496	2496	2496	2478	2478	2478	2460	2460	2426	2409	2409	2392	2392	2376	2376	2359	2343	2327	2327	2327	2312	2312	2312	2297	2281	2266	2252	2252	2237	2237	2208	2208	2194	2181	2181	2167	2153	2153	2140	2140	2127	2114	2114	2101	2101	2088	2076	2076	2076	2051	2027	2003	1992	1992	1958	1958	1947	1947	1936	1936	1925	1925	1925	1915	1915	1915	1894	1883	1883	1863	1853	1853	1843	1833	1824	1824	1804	1795	1795	1786	1786	1777	1768	1768	1759	1759	1750	1741	1723	1715	1715	1715	1706	1698	1690	1673	1673	1673	0	0	0	0	0	0	0	0	0	0	0	0	0	0	0	0	0	0	0	0	0	0	0	0	0	0	0	0	0	0	0	0	0	0	0	0	0
0	0	0	0	0	0	0	0	0	0	0	0	0	0	0	0	0	0	0	3998	4045	3998	3998	4045	4093	4045	4045	4045	4045	4093	4093	4093	0	0	0	0	3309	3341	3341	3309	3341	3341	3341	3341	3373	3373	3406	3406	3406	3406	3406	3406	3406	3406	4643	4643	4581	4581	4521	4521	4521	4521	4581	4521	4521	4521	4521	4581	4581	4581	4581	4643	4643	4643	4643	4643	4581	4643	4643	4643	4581	4581	4581	4581	4581	4581	4643	4643	4706	4643	4643	4581	4581	4581	4643	4643	4643	4706	4838	4906	4838	4838	4977	4977	5050	5050	5050	5050	5050	0	6349	6349	6349	6235	6235	6124	6124	6124	6124	6124	6124	6235	6235	6235	6235	6235	6124	6124	6124	6124	6235	6349	6349	6349	6349	6349	6349	6349	6349	6235	6235	6235	6235	6235	6235	6235	6235	6349	6349	6349	6720	6720	6720	0	0	0	0	0	5626	5626	5626	5626	5626	5535	5535	5535	5535	5535	5448	5448	5448	5448	0	0	0	0	0	0	0	0	0	0	0	0	0	0	0	0	0	0	0	0	0	0	0	0	0	7779	7608	7608	7608	7608	7608	0	0	7779	7608	7608	7608	7444	7444	7287	7137	7137	7137	7137	7287	7287	7287	7287	7444	7444	7444	7444	7444	7444	7444	7608	7608	7608	7608	7608	7608	4581	4521	4581	4521	4521	4521	4463	4463	4521	4521	4521	4521	4521	4521	4521	4521	4521	4521	4521	4463	4521	4521	4643	4643	4581	4581	4581	4581	4581	4581	4521	4463	4463	4463	4463	4463	4463	4463	4463	4463	4463	4406	4406	4463	4463	3779	3738	3738	3738	3738	3738	3698	3698	3698	3698	3698	3698	3698	3698	3738	3738	3738	3738	3698	3698	3698	3698	0	0	0	0	0	3659	3698	3698	3698	3698	3698	3698	3698	3698	3698	3659	3659	3698	3659	3621	3621	3621	3621	3583	3583	4581	4581	4581	4581	4581	4581	4581	4521	4521	4521	4463	4406	4406	4350	4350	4350	4350	4350	4350	4350	4350	4350	4350	4350	4350	4350	4350	4350	4350	4350	4350	4350	4406	4406	4406	4406	4406	4406	4350	4350	4350	4350	4350	4296	4350	4296	4296	4350	4296	4296	4296	4243	4243	4243	4243	4296	4296	4350	4296	4350	4350	4350	4350	4350	4350	4350	4350	4350	4350	4350	4350	4350	4350	4350	4350	4406	4406	4406	4463	4463	4521	4463	4463	4406	4406	4350	4296	4296	4243	4243	2514	2514	2514	2514	2514	2496	2496	2478	2478	2478	2478	2478	2460	2460	2460	2426	2426	2409	2409	2409	2409	2409	2409	2409	2409	2426	2426	2409	2409	2409	2409	2409	2409	2392	2409	2409	2409	2426	2426	2443	2443	2443	2443	2426	2426	2409	2409	2409	2409	2426	2426	2426	2443	2443	2426	2426	2426	2426	2426	2426	2426	2426	2426	0	7287	7287	7287	7287	7444	7287	7444	7444	7287	7137	7137	7137	7137	0	0	0	0	0	0	0	0	0	0	0	0	0	2514	2514	2496	2478	2478	2460	2460	2443	2426	2409	2409	2392	2392	2376	2359	2359	2343	2327	2327	2327	2312	2312	2297	2297	2266	2252	2252	2252	2237	2223	2208	2208	2194	2194	2181	2167	2153	2153	2140	2140	2127	2114	2114	2101	2101	2101	2088	2076	2063	2039	2027	2003	1992	1992	1969	1958	1947	1947	1936	1936	1936	1925	1925	1915	1915	1915	1894	1883	1873	1863	1853	1853	1833	1833	1824	1814	1804	1795	1795	1786	1786	1777	1777	1768	1768	1759	1741	1732	1723	1715	1715	1715	1706	1698	1681	1673	1673	1673	0	0	0	0	0	0	0	0	0	0	0	0	0	0	0	0	0	0	0	0	0	0	0	0	0	0	0	0	0	0	0	0	0	0	0	0	0
0	0	0	0	0	0	0	0	0	0	0	0	0	0	0	0	0	0	0	4045	4045	3998	4045	4045	4045	4045	3998	3998	4045	4045	4045	4045	4045	0	0	3309	3309	3309	3309	3341	3341	3341	3341	3373	3373	3373	3406	3406	3406	3406	3406	3406	3406	3406	4706	4643	4581	4581	4581	4521	4581	4521	4581	4521	4521	4521	4521	4521	4581	4581	4581	4581	4581	4643	4643	4643	4581	4643	4643	4643	4581	4581	4581	4581	4581	4581	4643	4643	4706	4706	4643	4643	4643	4643	4643	4706	4706	4771	4838	4838	4838	4771	4906	4906	4906	4906	5050	5050	5050	6349	6349	6349	6349	6235	6235	6124	6124	6124	6124	6124	6124	6235	6235	6235	6124	6124	6124	6124	6124	6124	6124	6349	6349	6349	6349	6349	6349	6349	6235	6235	6235	6235	6235	6235	6235	6235	6235	6349	6349	6349	0	0	0	0	0	0	0	0	5626	5535	5626	5626	5626	5626	5535	5535	5535	5535	5535	5448	5448	5448	0	0	0	0	0	0	0	0	0	0	0	0	0	0	0	0	0	0	0	0	0	0	0	0	7779	7779	7608	7608	7608	7608	7608	7608	7608	7779	7779	7608	7608	7608	7444	7444	7287	7137	7444	7137	7444	7444	7444	7444	7444	7444	7444	7444	7444	7444	7444	7608	7608	7608	7608	7608	7608	4581	4521	4581	4521	4463	4521	4463	4463	4463	4463	4521	4521	4521	4521	4521	4521	4463	4463	4463	4463	4463	4463	4581	4643	4581	4581	4581	4581	4581	4581	4521	4521	4463	4463	4463	4463	4463	4463	4463	4463	4463	4463	4463	4463	4463	4463	3738	3738	3738	3738	3738	3738	3698	3698	3698	3698	3698	3698	3698	3738	3738	3738	3738	3698	3698	3698	3698	0	0	0	0	0	3659	3698	3698	3698	3698	3698	3698	3698	3698	3659	3659	3659	3659	3659	3659	3659	3659	3621	3583	4581	4581	4521	4581	4581	4581	4581	4521	4463	4463	4463	4406	4406	4406	4350	4350	4350	4350	4296	4296	4350	4296	4350	4296	4350	4350	4350	4350	4350	4350	4350	4350	4350	4406	4406	4406	4406	4406	4350	4350	4350	4350	4350	4296	4296	4296	4296	4296	4296	4296	4296	4296	4296	4296	4296	4296	4296	4350	4350	4350	4350	4350	4350	4350	4350	4350	4350	4350	4350	4350	4350	4350	4350	4350	4350	4350	4406	4406	4406	4463	4463	4463	4463	4406	4406	4350	4350	4296	4243	4243	4243	0	0	2496	2496	2496	2496	2478	2478	2478	2478	2478	2478	2478	2460	2443	2426	2426	2426	2409	2409	2409	2409	2409	2409	2409	2426	2426	2426	2409	2409	2409	2409	2409	2392	2392	2409	2409	2409	2426	2426	2443	2443	2443	2426	2426	2426	2409	2409	2426	2426	2426	2426	2443	2443	2443	2443	2443	2426	2426	2426	2426	2426	0	0	7287	7287	7287	7287	7287	7444	7287	7137	7137	7287	7287	7137	7137	7287	7444	7444	0	0	0	0	0	0	0	0	0	0	2514	2514	2514	2496	2478	2478	2460	2443	2426	2409	2409	2392	2392	2376	2359	2359	2343	2343	2327	2327	2312	2312	2297	2297	2266	2252	2252	2252	2237	2237	2208	2208	2194	2181	2167	2167	2153	2153	2140	2140	2127	2114	2114	2101	2101	2101	2088	2076	2076	2039	2015	2003	1992	1980	1958	1958	1947	1947	1936	1936	1936	1925	1925	1915	1915	1904	1894	1883	1873	1863	1863	1843	1833	1833	1814	1814	1804	1795	1795	1795	1786	1777	1777	1768	1768	1759	1750	1732	1723	1715	1715	1715	1706	1698	1690	1673	1673	1673	0	0	0	0	0	0	0	0	0	0	0	0	0	0	0	0	0	0	0	0	0	0	0	0	0	0	0	0	0	0	0	0	0	0	0	0	0
0	0	0	0	0	0	0	0	0	0	0	0	0	0	0	0	0	0	0	4045	4045	3998	4045	4045	4045	4045	4045	3998	3998	4045	4093	4045	4045	3277	3277	3277	3341	3341	3341	3341	3341	3373	3373	3373	3373	3373	3406	3373	3406	3406	3406	3406	3406	3406	4643	4643	4581	4581	4521	4521	4581	4521	4581	4521	4521	4521	4521	4521	4581	4581	4581	4581	4581	4581	4643	4643	4643	4643	4643	4643	4581	4581	4581	4581	4581	4581	4581	4643	4706	4706	4706	4706	4643	4643	4706	4706	4706	4771	4771	4838	4838	4838	4838	4838	4906	4977	5050	5050	0	6349	6349	6235	6235	6235	6235	6124	6124	6235	6235	6235	6124	6235	6235	6235	6235	6235	6235	6124	6124	6124	6124	6349	6349	6349	6349	6349	6235	6349	6235	6235	6235	6235	6235	6235	6124	6235	6235	6235	6349	6349	0	0	0	0	0	0	0	0	0	5626	5719	5719	5626	5626	5626	5626	5626	5535	5535	5448	5448	5448	0	0	0	0	0	0	0	0	0	0	0	0	0	0	0	0	0	0	0	0	0	0	0	0	7779	7779	7608	7608	7608	7608	7608	7608	7608	7608	7779	7608	7608	7608	7444	7444	7444	7444	7444	7287	7444	7444	7444	7444	7444	7444	7444	7444	7444	7444	7444	7608	7608	7608	7608	7608	4581	4521	4521	4521	4463	4463	4521	4463	4463	4463	4463	4521	4521	4463	4463	4463	4463	4463	4463	4463	4463	4463	4463	4581	4643	4581	4581	4581	4581	4581	4581	4521	4521	4521	4463	4463	4463	4463	4463	4463	4463	4463	4463	4406	4463	4463	4463	3779	3779	3738	3738	3738	3698	3698	3698	3698	3698	3698	3698	3698	3738	3738	3738	3698	3698	3698	3659	3659	0	0	0	0	3583	3621	3698	3698	3698	3698	3698	3698	3698	3698	3659	3659	3659	3698	3698	3659	3659	3659	3621	4581	4581	4581	4521	4521	4521	4521	4521	4463	4406	4406	4406	4406	4406	4350	4350	4350	4350	4350	4350	4296	4350	4296	4350	4296	4350	4350	4350	4350	4350	4350	4350	4350	4350	4350	4350	4350	4350	4350	4350	4350	4350	4350	4296	4296	4296	4296	4296	4296	4296	4296	4296	4296	4296	4296	4296	4296	4296	4296	4350	4296	4350	4350	4350	4350	4350	4350	4350	4350	4350	4350	4350	4350	4350	4350	4350	4350	4350	4406	4406	4406	4463	4463	4406	4406	4350	4350	4296	4243	4192	4192	4192	0	0	2496	2496	2496	2496	2496	2478	2478	2478	2478	2460	2460	2443	2443	2426	2426	2426	2426	2409	2409	2409	2409	2409	2409	2426	2426	2426	2426	2426	2426	2426	2426	2409	2409	2409	2409	2409	2426	2426	2443	2443	2443	2443	2443	2426	2426	2426	2426	2426	2426	2443	2443	2443	2443	2443	2443	2443	2443	2443	2443	2426	0	0	7287	7287	7287	7287	7287	7287	7287	7287	7287	7287	7287	7287	7287	7287	7287	7444	7444	0	0	0	0	0	0	0	0	0	2514	2514	2514	2478	2478	2460	2460	2443	2426	2409	2392	2392	2392	2376	2359	2359	2343	2343	2327	2327	2327	2312	2297	2297	2266	2252	2252	2252	2237	2223	2208	2208	2194	2194	2167	2153	2153	2153	2140	2127	2127	2114	2114	2101	2101	2101	2088	2088	2076	2051	2027	2003	1992	1980	1969	1958	1947	1947	1936	1936	1936	1925	1925	1915	1915	1904	1894	1883	1873	1863	1853	1843	1833	1833	1814	1814	1804	1795	1795	1795	1786	1786	1777	1768	1768	1750	1741	1732	1723	1715	1715	1706	1698	1690	1681	1673	1673	1673	0	0	0	0	0	0	0	0	0	0	0	0	0	0	0	0	0	0	0	0	0	0	0	0	0	0	0	0	0	0	0	0	0	0	0	0	0
0	0	0	0	0	0	0	0	0	0	0	0	0	0	0	0	0	0	0	4045	4045	3998	4045	4045	4045	4045	4045	3998	3998	4045	4045	4093	4093	3277	3277	3341	3341	3341	3341	3341	3341	3341	3373	3373	3373	3373	3373	3373	3373	3406	3406	3373	3406	3406	3406	4581	4581	4521	4521	4521	4581	4521	4581	4521	4521	4521	4521	4521	4581	4581	4581	4581	4581	4581	4581	4581	4581	4581	4581	4581	4581	4581	4581	4581	4581	4581	4581	4581	4706	4706	4706	4643	4643	4643	4706	4771	4771	4771	4771	4838	4838	4838	4838	4838	4838	4977	5050	5050	6349	6349	6235	6235	6235	6235	6235	6235	6235	6235	6235	6124	6124	6235	6235	6235	6235	6235	6235	6235	6124	6124	6124	6235	6235	6235	6235	6235	6235	6235	6235	6235	6235	6235	6235	6235	6235	6235	6124	6124	6124	0	0	0	0	0	0	0	0	0	0	5626	5719	5626	5626	5626	5626	5626	5626	5535	5535	5535	5535	0	0	0	0	0	0	0	0	0	0	0	0	0	0	0	0	0	0	0	0	0	0	0	0	0	7779	7779	7779	7608	7608	7608	7608	7608	7779	7779	7608	7608	7608	7608	7608	7608	7608	7444	7444	7444	7444	7444	7444	7444	7444	7444	7444	7444	7444	7444	7608	7608	7608	7608	7608	7444	7444	4521	4521	4521	4463	4463	4463	4463	4463	4463	4463	4521	4521	4463	4463	4463	4463	4463	4463	4463	4463	4406	4463	4463	4643	4581	4643	4643	4643	4581	4581	4521	4521	4521	4463	4463	4463	4463	4463	4463	4406	4463	4463	4463	4406	4463	4463	3738	3738	3738	3738	3698	3698	3698	3698	3698	3698	3698	3698	3698	3698	3738	3738	3698	3698	3698	3698	3583	3583	0	0	0	3583	3659	3659	3698	3698	3698	3698	3698	3698	3659	3659	3659	3659	3698	3698	3659	3659	3659	3621	4581	4643	4581	4521	4521	4521	4521	4463	4463	4406	4406	4406	4406	4406	4406	4350	4406	4350	4350	4350	4350	4350	4350	4350	4350	4350	4350	4350	4350	4350	4350	4350	4350	4350	4350	4350	4350	4350	4350	4350	4350	4350	4296	4296	4296	4296	4296	4296	4296	4296	4296	4296	4296	4296	4296	4296	4296	4296	4296	4296	4296	4350	4350	4350	4350	4350	4350	4350	4350	4350	4350	4350	4350	4350	4350	4350	4350	4350	4350	4406	4406	4406	4406	4406	4350	4350	4350	4296	4243	4192	4192	4192	4192	0	0	2496	2514	2496	2496	2496	2478	2478	2460	2460	2460	2443	2426	2426	2426	2426	2426	2409	2409	2409	2409	2409	2409	2426	2426	2426	2426	2426	2426	2426	2426	2426	2409	2426	2426	2409	2426	2426	2443	2443	2443	2443	2443	2426	2426	2426	2426	2426	2426	2426	2426	2443	2426	2426	2426	2426	2426	2443	2443	0	7608	7444	7444	7444	7444	7444	7287	7287	7287	7287	7287	7287	7137	7287	7287	7287	7287	7444	7444	0	0	0	0	0	0	0	0	0	2532	2514	2514	2478	2478	2460	2460	2443	2426	2409	2392	2392	2392	2376	2359	2359	2343	2343	2327	2327	2312	2312	2297	2297	2266	2252	2252	2252	2237	2223	2223	2208	2194	2194	2181	2153	2153	2153	2140	2127	2114	2114	2101	2101	2101	2101	2088	2076	2076	2051	2027	2003	1992	1980	1969	1958	1947	1947	1936	1936	1936	1925	1925	1925	1915	1915	1904	1883	1873	1863	1853	1843	1833	1824	1814	1804	1804	1804	1795	1795	1786	1786	1777	1768	1759	1741	1741	1732	1732	1715	1715	1706	1698	1690	1690	1681	1673	1673	0	0	0	0	0	0	0	0	0	0	0	0	0	0	0	0	0	0	0	0	0	0	0	0	0	0	0	0	0	0	0	0	0	0	0	0	0
0	0	0	0	0	0	0	0	0	0	0	0	0	0	0	0	0	0	0	4045	4045	3998	4045	4045	4045	4045	4045	3998	3998	4045	4045	4045	4045	3277	3277	3341	3341	3309	3309	3341	3341	3341	3309	3341	3341	3373	3373	3341	3373	3373	3373	3373	3373	4581	4581	4581	4521	4521	4521	4521	4581	4521	4521	4521	4521	4521	4521	4521	4581	4581	4581	4581	4581	4581	4581	4581	4581	4581	4581	4581	4581	4581	4581	4581	4581	4581	4581	4581	4643	4643	4706	4643	4643	4643	4706	4706	4771	4771	4838	4838	4838	4838	4838	4838	4838	4906	5050	5050	6349	6349	6235	6235	6235	6235	6235	6235	6235	6235	6235	6235	6235	6235	6235	6235	6235	6124	6124	6124	6124	6124	6124	6235	6235	6235	6235	6235	6124	6235	6235	6235	6235	6235	6235	6235	6124	6124	6124	6124	6124	6235	0	0	0	0	0	0	0	0	0	0	5719	5719	5719	5626	5626	5626	5626	5626	5535	5535	5535	5535	5535	0	0	0	0	0	0	0	0	0	0	0	0	0	0	0	0	0	0	0	0	0	0	0	7779	7779	7779	7608	7608	7608	7608	7608	7779	7779	7608	7608	7608	7608	7608	7608	7444	7444	7444	7444	7444	7444	7444	7444	7444	7444	7444	7444	7444	7444	7608	7608	7608	7608	7608	7444	7444	4521	4463	4463	4463	4463	4463	4463	4463	4463	4463	4521	4521	4521	4463	4463	4463	4463	4463	4463	4463	4463	4521	4643	4643	4643	4643	4643	4643	4643	4581	4581	4521	4521	4463	4463	4463	4463	4406	4463	4406	4463	4463	4463	4406	4463	4463	3738	3738	3738	3738	3698	3698	3698	3698	3698	3698	3698	3698	3698	3698	3698	3698	3698	3698	3698	3698	3583	3583	0	0	0	3659	3698	3698	3698	3698	3698	3698	3698	3698	3659	3659	3659	3621	3659	3659	3659	3659	3621	3621	4643	4643	4581	4521	4521	4521	4463	4463	4463	4406	4406	4406	4406	4406	4406	4406	4406	4406	4406	4350	4350	4350	4350	4350	4350	4350	4350	4350	4350	4350	4350	4350	4350	4350	4350	4350	4350	4350	4350	4350	4350	4296	4296	4296	4296	4296	4296	4296	4296	4296	4296	4296	4296	4296	4296	4296	4296	4296	4350	4350	4350	4350	4350	4350	4350	4350	4350	4296	4296	4296	4296	4296	4350	4296	4350	4350	4350	4350	4350	4406	4406	4406	4406	4406	4350	4350	4350	4296	4243	4243	4243	4192	4192	0	0	2496	2514	2514	2514	2496	2478	2478	2460	2460	2460	2443	2426	2426	2426	2426	2426	2409	2409	2409	2409	2409	2409	2426	2426	2426	2426	2426	2443	2426	2426	2426	2409	2409	2409	2409	2409	2426	2426	2426	2426	2426	2426	2426	2426	2426	2426	2443	2443	2443	2443	2443	2426	2426	2426	2426	2426	0	0	0	7444	7287	7444	7287	7444	7287	7287	7137	7287	7287	7287	7137	7137	7137	7287	7444	7287	7444	7444	0	0	0	0	0	0	0	0	0	2532	2532	2532	2496	2478	2460	2460	2443	2426	2426	2392	2392	2392	2376	2359	2343	2343	2327	2327	2327	2312	2312	2297	2281	2266	2252	2252	2252	2237	2223	2223	2208	2194	2194	2194	2167	2153	2153	2140	2140	2127	2127	2114	2114	2101	2101	2088	2088	2076	2051	2027	2003	1992	1980	1969	1958	1947	1947	1936	1936	1936	1925	1925	1915	1915	1915	1904	1883	1873	1863	1853	1843	1833	1824	1814	1804	1804	1804	1795	1795	1786	1777	1768	1759	1750	1741	1741	1732	1732	1715	1715	1706	1698	1690	1681	1673	1673	1673	0	0	0	0	0	0	0	0	0	0	0	0	0	0	0	0	0	0	0	0	0	0	0	0	0	0	0	0	0	0	0	0	0	0	0	0	0
0	0	0	0	0	0	0	0	0	0	0	0	0	0	0	0	0	0	0	4045	4045	4045	3998	3998	3998	4045	3998	3998	3998	4045	4045	4045	4045	3277	3341	3341	3341	3341	3309	3309	3341	3341	3341	3341	3373	3373	3373	3341	3341	3373	3373	3373	3373	4521	4521	4521	4521	4521	4581	4581	4581	4581	4581	4521	4521	4521	4581	4521	4581	4581	4581	4643	4581	4581	4581	4581	4581	4581	4581	4581	4581	4581	4581	4581	4643	4643	4581	4581	4581	4581	4581	4581	4581	4581	4643	4771	4771	4771	4838	4838	4838	4838	4838	4838	4906	4906	5050	5050	5050	6235	6235	6124	6124	6235	6235	6235	6235	6235	6235	6235	6235	6235	6235	6235	6124	6124	6124	6124	6124	6124	6124	6235	6235	6235	6235	6235	6124	6235	6235	6235	6235	6235	6124	6124	6124	6124	6124	6124	6124	6124	0	0	0	0	0	0	0	0	0	0	0	5719	5626	5626	5626	5626	5626	5626	5535	5535	5535	5535	5535	0	0	0	0	0	0	0	0	0	0	0	0	0	0	0	0	0	0	0	0	0	0	7779	7608	7608	7608	7608	7608	7608	7608	7608	7608	7779	7608	7608	7608	7608	7608	7608	7444	7444	7444	7444	7444	7444	7444	7444	7444	7444	7444	7444	7444	7608	7608	7608	7608	7608	7608	7444	7444	4521	4521	4463	4463	4463	4463	4463	4463	4463	4463	4521	4521	4521	4463	4463	4463	4463	4463	4406	4463	4463	4521	4643	4643	4643	4643	4643	4643	4643	4581	4581	4581	4521	4463	4463	4463	4406	4406	4406	4406	4463	4463	4463	4463	4463	3738	3738	3738	3738	3698	3698	3698	3698	3698	3698	3698	3698	3698	3698	3698	3698	3698	3698	3698	3698	3698	3583	3583	3583	0	0	3659	3698	3698	3698	3698	3698	3698	3698	3698	3659	3659	3659	3659	3698	3659	3659	3659	3659	3659	4643	4706	4643	4581	4521	4463	4463	4406	4406	4350	4406	4406	4406	4406	4406	4350	4350	4406	4350	4350	4350	4350	4350	4350	4350	4350	4350	4350	4350	4350	4350	4350	4350	4350	4350	4350	4350	4350	4350	4350	4296	4296	4296	4296	4296	4296	4296	4296	4350	4350	4350	4296	4296	4296	4296	4296	4296	4296	4350	4350	4350	4350	4350	4350	4350	4350	4350	4350	4350	4350	4296	4296	4296	4296	4296	4296	4296	4350	4350	4350	4406	4406	4406	4406	4350	4350	4350	4296	4296	4296	4243	4192	4192	0	0	0	2532	2514	2514	2496	2496	2478	2460	2460	2460	2443	2426	2426	2426	2426	2426	2426	2409	2409	2409	2409	2409	2426	2443	2443	2443	2443	2443	2443	2426	2426	2426	2426	2409	2426	2409	2426	2426	2426	2426	2426	2426	2426	2426	2426	2426	2426	2426	2443	2443	2443	2426	2426	2426	2426	2426	0	0	7444	7444	7444	7444	7287	7287	7287	7137	7137	6992	6992	7287	7137	7137	7287	7287	7444	7444	7444	7444	0	0	0	0	0	0	0	2589	2589	2551	2532	2532	2514	2478	2460	2460	2443	2426	2426	2392	2392	2376	2343	2343	2343	2327	2327	2327	2327	2312	2312	2297	2297	2266	2252	2252	2252	2237	2223	2223	2208	2194	2194	2194	2167	2153	2153	2153	2140	2140	2127	2114	2114	2101	2101	2101	2088	2076	2039	2015	2003	1992	1980	1969	1958	1947	1947	1936	1936	1936	1925	1925	1915	1915	1915	1904	1883	1873	1863	1853	1843	1833	1833	1814	1814	1804	1804	1804	1795	1786	1777	1768	1759	1750	1741	1732	1732	1723	1723	1706	1706	1698	1690	1690	1681	1673	1673	0	0	0	0	0	0	0	0	0	0	0	0	0	0	0	0	0	0	0	0	0	0	0	0	0	0	0	0	0	0	0	0	0	0	0	0	0
0	0	0	0	0	0	0	0	0	0	0	0	0	0	0	0	0	0	0	4045	4045	4045	4045	3998	3998	4045	3998	3952	3952	3998	4045	4045	4045	4045	3341	3341	3341	3341	3309	3373	3373	3373	3373	3406	3373	3373	3373	3341	3341	3373	3341	3341	3341	4521	4521	4521	4521	4521	4581	4581	4581	4581	4581	4521	4581	4521	4581	4521	4581	4581	4581	4643	4643	4581	4581	4581	4581	4581	4581	4581	4581	4581	4581	4581	4643	4643	4581	4581	4581	4581	4581	4581	4581	4581	4643	4771	4771	4838	4838	4838	4838	4838	4906	4906	4906	4906	4906	5050	5050	6235	6235	6124	6235	6235	6235	6235	6235	6235	6235	6235	6235	6235	6235	6235	6124	6124	6124	6124	6124	6124	6124	6235	6235	6235	6235	6124	6124	6235	6235	6235	6235	6235	6235	6235	6235	6235	6235	6235	6235	6235	0	0	0	0	0	0	0	0	0	0	0	0	5626	5626	5626	5719	5626	5626	5535	5535	5535	5535	5535	0	0	0	0	0	0	0	0	0	0	0	0	0	0	0	0	0	0	0	0	0	0	7608	7608	7608	7608	7608	7608	7608	7608	7608	7608	7779	7608	7608	7608	7608	7608	7608	7608	7444	7444	7444	7444	7444	7444	7444	7287	7287	7444	7444	7444	7608	7608	7608	7608	7608	7608	7608	4581	4581	4521	4521	4463	4463	4463	4463	4463	4463	4463	4521	4521	4463	4463	4463	4463	4463	4463	4406	4463	4463	4521	4581	4581	4643	4643	4643	4643	4643	4581	4581	4581	4521	4463	4463	4463	4406	4406	4406	4406	4463	4463	4463	4463	4463	3738	3738	3738	3738	3698	3698	3698	3698	3698	3698	3698	3698	3698	3698	3698	3698	3698	3698	3698	3698	3698	3659	3583	3583	0	0	0	3698	3698	3698	3738	3698	3698	3698	3698	3659	3659	3659	3659	3659	3659	3698	3698	3698	3698	4771	4706	4643	4581	4521	4463	4463	4463	4463	4406	4406	4406	4406	4463	4406	4406	4406	4406	4350	4350	4350	4350	4350	4350	4350	4350	4350	4350	4350	4350	4350	4350	4350	4350	4350	4350	4350	4350	4350	4350	4296	4296	4296	4296	4296	4296	4296	4296	4350	4350	4296	4296	4296	4296	4296	4296	4350	4350	4350	4350	4350	4350	4350	4350	4350	4350	4350	4350	4350	4350	4350	4296	4296	4296	4296	4296	4350	4350	4350	4350	4350	4350	4350	4350	4350	4350	4350	4350	4296	4296	4243	4243	4243	0	0	0	2532	2532	2532	2514	2496	2478	2478	2460	2460	2460	2443	2426	2426	2426	2426	2426	2426	2426	2409	2409	2426	2443	2443	2443	2443	2443	2443	2443	2426	2426	2426	2426	2409	2409	2409	2426	2426	2426	2426	2426	2426	2426	2426	2426	2426	2443	2443	2443	2443	2460	2426	2426	2426	2426	0	0	0	7444	7444	7287	7444	7287	7287	7287	7287	7137	7287	6992	7137	7137	7137	7137	7287	7287	7444	7444	7444	7444	0	0	0	0	0	0	2589	2589	2570	2551	2532	2514	2460	2460	2460	2443	2443	2426	2392	2376	2376	2343	2343	2327	2327	2327	2327	2312	2312	2312	2297	2281	2266	2252	2252	2252	2237	2223	2223	2208	2194	2194	2194	2167	2153	2153	2140	2140	2127	2127	2114	2114	2101	2101	2101	2076	2051	2039	2015	2003	1992	1980	1980	1969	1947	1947	1936	1936	1925	1925	1925	1915	1915	1904	1904	1873	1873	1863	1853	1843	1833	1833	1824	1814	1804	1804	1804	1795	1786	1777	1768	1759	1750	1741	1732	1732	1732	1723	1715	1706	1698	1690	1690	1681	1681	1681	0	0	0	0	0	0	0	0	0	0	0	0	0	0	0	0	0	0	0	0	0	0	0	0	0	0	0	0	0	0	0	0	0	0	0	0	0
0	0	0	0	0	0	0	0	0	0	0	0	0	0	0	0	0	0	0	4045	4045	3998	3998	4045	4045	4045	4045	4045	3998	4045	4045	4045	4045	4045	3341	3373	3373	3341	3309	3341	3341	3341	3373	3373	3373	3373	3373	3341	3341	3373	3341	3341	4406	4521	4521	4521	4521	4521	4581	4581	4581	4581	4581	4581	4581	4581	4581	4581	4581	4643	4643	4706	4643	4581	4581	4581	4581	4581	4581	4581	4581	4581	4581	4581	4581	4643	4581	4581	4581	4581	4581	4581	4581	4581	4643	4706	4771	4771	4771	4838	4838	4838	4906	4906	4906	4977	4906	5050	5050	6235	6235	6124	6124	6124	6124	6235	6235	6235	6235	6235	6235	6235	6235	6124	6124	6124	6124	6124	6124	6124	6124	6235	6235	6235	6235	6124	6235	6235	6235	6235	6235	6235	6235	6235	6235	6235	6235	6235	6235	6235	0	0	0	0	0	0	0	0	0	0	0	5626	5719	5626	5626	5719	5719	5626	5626	5626	5626	5626	5626	0	0	0	0	0	0	0	0	0	0	0	0	0	0	0	0	0	0	0	0	0	0	7444	7608	7608	7608	7608	7608	7608	7608	7608	7608	7779	7779	7779	7779	7608	7608	7608	7444	7444	7444	7444	7444	7444	7444	7287	7287	7287	7287	7444	7444	7608	7608	7608	7608	7608	7608	7608	4521	4521	4521	4521	4463	4463	4463	4463	4463	4463	4463	4463	4521	4463	4463	4463	4463	4463	4463	4406	4463	4463	4521	4581	4643	4643	4643	4643	4643	4581	4581	4581	4581	4521	4463	4463	4463	4406	4406	4406	4406	4463	4463	4463	4463	4463	3738	3738	3738	3738	3698	3698	3659	3659	3659	3659	3659	3659	3698	3698	3698	3698	3698	3698	3698	3698	3698	3659	3583	3583	0	0	0	3698	3698	3738	3738	3698	3698	3698	3698	3659	3659	3659	3659	3698	3698	3698	3698	3698	3698	4706	4706	4643	4581	4521	4521	4463	4463	4406	4406	4350	4350	4406	4463	4406	4406	4406	4406	4406	4350	4350	4350	4350	4350	4350	4350	4350	4350	4350	4350	4350	4350	4350	4350	4350	4350	4350	4350	4350	4350	4350	4296	4296	4296	4296	4296	4296	4296	4350	4350	4296	4296	4296	4296	4296	4296	4350	4350	4350	4350	4350	4350	4350	4350	4350	4350	4350	4350	4350	4350	4350	4350	4350	4296	4296	4296	4296	4350	4350	4350	4350	4350	4350	4350	4350	4350	4350	4350	4350	4296	4296	4243	4243	0	0	0	0	2514	2514	2496	2478	2478	2478	2460	2460	2443	2426	2426	2426	2426	2426	2426	2426	2409	2409	2409	2426	2443	2443	2443	2443	2443	2443	2443	2426	2426	2409	2409	2409	2409	2409	2409	2426	2426	2426	2426	2426	2426	2426	2426	2426	2426	2443	2443	2443	2460	2443	2443	2443	2426	0	0	7444	7444	7444	7287	7444	7444	7287	7287	7287	7287	7287	6992	7137	7137	6992	7137	7137	7287	7287	7287	7444	7444	0	0	0	0	0	0	2589	2589	2570	2570	2532	2496	2460	2460	2460	2443	2443	2443	2409	2392	2376	2343	2343	2327	2327	2327	2327	2327	2312	2312	2297	2281	2266	2252	2252	2252	2237	2223	2223	2208	2208	2194	2181	2167	2153	2153	2153	2140	2140	2127	2114	2114	2101	2101	2101	2076	2051	2039	2015	2003	1992	1992	1980	1969	1947	1936	1936	1936	1925	1925	1925	1915	1915	1904	1894	1873	1873	1863	1853	1843	1833	1833	1824	1814	1804	1804	1804	1795	1786	1777	1768	1759	1750	1741	1741	1732	1732	1723	1715	1706	1706	1698	1690	1690	1681	1681	0	0	0	0	0	0	0	0	0	0	0	0	0	0	0	0	0	0	0	0	0	0	0	0	0	0	0	0	0	0	0	0	0	0	0	0	0
0	0	0	0	0	0	0	0	0	0	0	0	0	0	0	0	0	0	0	4045	3998	3998	3998	4045	4045	4045	3998	3998	4045	4045	4045	4045	4045	4045	0	3341	3373	3341	3341	3341	3341	3341	3373	3373	3373	3373	3341	3341	3341	3341	3341	3341	4463	4521	4521	4521	4521	4521	4581	4581	4581	4521	4521	4521	4521	4581	4581	4581	4581	4643	4643	4643	4643	4581	4581	4581	4581	4581	4581	4581	4581	4581	4581	4581	4643	4581	4581	4581	4581	4581	4581	4521	4521	4581	4643	4706	4706	4771	4838	4838	4906	4906	4906	4977	4977	4977	4906	4906	4906	6235	6235	6235	6235	6235	6124	6124	6235	6235	6235	6235	6235	6235	6235	6235	6124	6124	6124	6124	6124	6124	6124	6235	6235	6235	6235	6235	6235	6235	6235	6235	6235	6235	6235	6235	6235	6235	6235	6235	6235	6235	0	0	0	0	0	0	0	0	0	0	5535	5626	5719	5626	5626	5626	5719	5719	5626	5626	5626	5626	5719	5719	0	0	0	0	0	0	0	0	0	0	0	0	0	0	0	0	0	0	0	0	0	7287	7444	7444	7444	7444	7608	7608	7608	7608	7779	7779	7779	7779	7779	7608	7608	7444	7444	7444	7444	7444	7444	7444	7444	7444	7287	7287	7444	7444	7444	7444	7444	7444	7608	7608	7608	4521	4521	4521	4521	4463	4521	4463	4463	4463	4463	4463	4463	4521	4521	4463	4463	4463	4463	4463	4463	4406	4463	4463	4463	4581	4581	4643	4581	4643	4643	4581	4581	4581	4521	4521	4463	4463	4463	4463	4406	4406	4406	4463	4463	4406	4406	4406	3779	3738	3738	3698	3698	3698	3659	3659	3659	3659	3659	3698	3698	3698	3698	3698	3698	3698	3698	3698	3659	3621	3621	3583	0	0	0	3698	3698	3738	3738	3698	3698	3698	3698	3698	3659	3659	3659	3698	3698	3698	3698	3698	3698	4706	4706	4643	4581	4581	4521	4521	4463	4406	4350	4350	4350	4350	4350	4350	4350	4350	4350	4350	4350	4350	4350	4350	4350	4350	4350	4350	4350	4350	4350	4350	4350	4350	4350	4350	4350	4350	4350	4350	4350	4350	4350	4350	4296	4296	4296	4296	4350	4350	4350	4296	4296	4296	4296	4296	4296	4350	4350	4350	4350	4350	4350	4350	4350	4350	4350	4350	4350	4350	4350	4350	4296	4296	4350	4350	4350	4350	4350	4350	4350	4350	4350	4350	4350	4350	4350	4350	4350	4350	4296	4296	4296	4296	0	0	0	0	2532	2514	2496	2496	2478	2478	2460	2460	2460	2443	2426	2426	2426	2426	2426	2426	2409	2426	2426	2426	2443	2443	2443	2443	2443	2443	2426	2426	2426	2409	2426	2426	2426	2409	2426	2426	2426	2426	2426	2426	2426	2426	2426	2426	2426	2443	2460	2460	2478	2478	2426	2426	0	0	0	7444	7444	7444	7287	7287	7444	7287	7287	7287	7287	0	0	0	0	6992	6992	6992	6992	7287	7287	0	0	0	0	0	0	0	0	0	0	2570	2570	2532	2496	2460	2460	2460	2443	2443	2443	2409	2376	2359	2343	2327	2327	2327	2327	2327	2312	2312	2312	2297	2281	2266	2252	2252	2252	2237	2223	2223	2208	2208	2194	2194	2181	2153	2153	2153	2140	2140	2127	2114	2114	2101	2101	2101	2076	2051	2039	2015	2003	1992	1980	1969	1969	1947	1936	1936	1936	1925	1925	1915	1915	1915	1904	1894	1883	1873	1863	1853	1843	1833	1833	1824	1814	1804	1804	1804	1786	1777	1777	1768	1759	1741	1741	1732	1732	1723	1723	1723	1706	1706	1698	1690	1690	1681	1681	0	0	0	0	0	0	0	0	0	0	0	0	0	0	0	0	0	0	0	0	0	0	0	0	0	0	0	0	0	0	0	0	0	0	0	0	0
0	0	0	0	0	0	0	0	0	0	0	0	0	0	0	0	0	0	0	4045	4045	3998	3998	3998	3998	3998	3998	3998	4045	4045	4045	4045	4045	0	0	3341	3373	3341	3341	3309	3341	3341	3341	3341	3341	3373	3341	3341	3341	3341	3341	4463	4463	4521	4521	4521	4521	4521	4521	4581	4581	4521	4521	4521	4581	4581	4581	4581	4643	4643	4643	4643	4643	4581	4581	4581	4581	4581	4581	4581	4581	4581	4581	4581	4581	4581	4581	4581	4581	4581	4581	4581	4581	4581	4581	4643	4706	4771	4838	4838	4838	4906	4906	4906	4977	4977	4838	4838	6124	6235	6235	6235	6124	6235	6235	6124	6235	6235	6235	6235	6235	6235	6235	6235	6235	6235	6235	6235	6235	6124	6124	6235	6235	6235	6235	6124	6124	6235	6235	6235	6235	6235	6235	6235	6235	6235	6235	6235	6235	6235	0	0	0	0	0	0	0	0	0	0	5535	5626	5719	5626	5626	5626	5626	5719	5626	5626	5626	5626	5719	5719	0	0	0	0	0	0	0	0	0	0	0	0	0	0	0	0	0	0	0	0	6853	7137	7444	7444	7444	7444	7444	7608	7608	7608	7779	7779	7779	7779	7779	7608	7608	7444	7444	7444	7444	7444	7444	7444	7444	7287	7287	7287	7444	7444	7444	7444	7444	7444	7444	7608	7608	4521	4521	4521	4521	4463	4521	4463	4463	4463	4463	4463	4521	4521	4521	4463	4463	4463	4463	4463	4463	4406	4463	4463	4463	4581	4581	4581	4581	4581	4581	4581	4581	4521	4521	4521	4463	4463	4463	4406	4406	4406	4406	4406	4406	4406	4350	4350	3779	3779	3738	3698	3698	3698	3659	3659	3659	3659	3659	3698	3698	3698	3698	3698	3698	3698	3698	3698	3698	3659	3659	0	0	0	0	3698	3698	3698	3738	3698	3698	3698	3698	3698	3659	3659	3659	3698	3698	3698	3698	3698	4771	4706	4706	4643	4581	4581	4521	4521	4463	4406	4350	4350	4350	4350	4350	4350	4350	4350	4350	4350	4350	4350	4350	4350	4350	4350	4350	4350	4350	4350	4350	4350	4350	4350	4350	4350	4350	4350	4350	4350	4350	4350	4350	4350	4350	4296	4296	4350	4350	4350	4350	4350	4350	4296	4296	4296	4243	4350	4350	4350	4350	4350	4350	4350	4350	4350	4350	4350	4296	4350	4350	4350	4350	4350	4350	4350	4350	4350	4350	4350	4350	4350	4350	4350	4350	4350	4350	4350	4350	4350	4350	4296	4296	4296	0	0	0	0	2532	2514	2496	2496	2478	2478	2478	2460	2460	2443	2426	2426	2426	2426	2426	2426	2426	2426	2426	2426	2443	2443	2443	2443	2443	2443	2426	2426	2426	2426	2426	2426	2426	2426	2426	2426	2426	2426	2426	2426	2426	2426	2426	2426	2443	2460	2460	2478	2478	2478	2443	2443	0	0	0	7287	7287	7287	7287	7287	7444	7287	7444	7287	7287	0	0	0	0	0	6992	6992	6992	0	0	0	0	0	0	0	0	0	0	0	0	2570	2551	2532	2514	2460	2460	2460	2443	2443	2426	2409	2392	2376	2359	2343	2327	2327	2327	2312	2312	2312	2297	2297	2281	2266	2252	2252	2252	2237	2237	2223	2223	2208	2194	2194	2181	2153	2153	2153	2140	2140	2127	2114	2114	2101	2101	2088	2076	2051	2039	2027	2003	1992	1980	1980	1969	1947	1936	1936	1936	1925	1925	1915	1915	1904	1904	1894	1883	1863	1863	1853	1843	1833	1833	1824	1814	1804	1804	1804	1786	1777	1768	1768	1759	1750	1732	1732	1723	1723	1723	1723	1706	1706	1698	1690	1690	1681	1681	0	0	0	0	0	0	0	0	0	0	0	0	0	0	0	0	0	0	0	0	0	0	0	0	0	0	0	0	0	0	0	0	0	0	0	0	0
0	0	0	0	0	0	0	0	0	0	0	0	0	0	0	0	0	0	0	4045	4045	4045	4045	4045	3998	4045	4045	3998	0	0	0	0	0	0	0	3341	3341	3341	3341	3309	3341	3341	3373	3341	3341	3373	3341	3373	3341	3341	4463	4463	4406	4521	4521	4521	4521	4521	4581	4581	4581	4521	4521	4521	4581	4581	4581	4581	4581	4581	4643	4643	4643	4581	4581	4643	4581	4581	4581	4581	4581	4581	4581	4581	4643	4643	4643	4643	4581	4581	4581	4581	4581	4581	4581	4643	4706	4771	4771	4838	4838	4906	4906	4977	4977	5050	5050	6124	6124	6235	6235	6235	6124	6235	6235	6235	6235	6235	6235	6235	6235	6235	6235	6235	6235	6235	6124	6124	6124	6124	6124	6235	6235	6235	6235	6235	6235	6235	6235	6235	6235	6235	6235	6235	6235	6235	6235	6235	6235	6235	0	0	0	0	0	0	0	0	0	0	5535	5626	5626	5626	5626	5626	5626	5626	5626	5535	5535	5626	5626	5719	5719	0	0	0	0	0	0	0	0	0	0	0	0	0	0	0	0	0	0	6720	6853	7137	7287	7287	7287	7444	7444	7444	7444	7608	7608	7779	7779	7779	7779	7608	7608	7444	7444	7444	7444	7444	7444	7444	7444	7287	7287	7287	7287	7287	7444	7444	7444	7444	7608	7608	7608	7444	4521	4521	4521	4463	4521	4463	4463	4463	4463	4463	4521	4521	4463	4463	4463	4463	4463	4406	4406	4406	4406	4463	4463	4521	4521	4581	4581	4581	4521	4521	4521	4521	4521	4521	4463	4463	4463	4406	4406	4406	4406	4406	4406	4406	4406	3779	3779	3779	3779	3738	3698	3698	3659	3659	3659	3659	3659	3698	3659	3698	3698	3698	3698	3698	3698	3698	3698	3659	3659	3659	0	3621	3621	3698	3698	3698	3698	3698	3698	3698	3698	3698	3698	3659	3659	3698	3698	3698	3698	3698	4771	4706	4643	4643	4581	4521	4521	4463	4406	4350	4350	4350	4296	4350	4350	4350	4350	4350	4350	4350	4350	4350	4350	4350	4350	4350	4296	4296	4350	4350	4350	4350	4350	4350	4350	4350	4350	4350	4350	4350	4350	4350	4350	4350	4350	4350	4296	4296	4350	4350	4296	4296	4296	4296	4296	4296	4296	4350	4350	4350	4350	4350	4350	4350	4350	4350	4296	4296	4296	4350	4350	4350	4350	4350	4350	4350	4350	4350	4350	4350	4350	4350	4350	4350	4350	4350	4350	4350	4350	4350	4350	4296	4296	4296	0	0	0	0	0	2496	2496	2478	2478	2478	2478	2460	2460	2460	2443	2443	2426	2426	2426	2426	2426	2426	2426	2426	2443	2443	2443	2443	2443	2443	2426	2426	2426	2426	2426	2426	2426	2426	2426	2426	2426	2426	2426	2426	2426	2426	2426	2443	2443	2478	2478	2478	2478	2460	2460	2460	2460	0	0	7287	7287	7287	7287	7444	7444	7287	7444	7287	7287	0	0	0	0	0	0	0	0	0	0	0	0	0	0	0	0	0	0	0	0	2551	2532	2532	2496	2496	2478	2460	2443	2443	2426	2409	2376	2359	2359	2343	2327	2327	2327	2312	2312	2312	2297	2281	2266	2266	2252	2252	2252	2237	2237	2223	2223	2208	2194	2194	2181	2167	2153	2153	2140	2140	2127	2114	2114	2101	2101	2088	2063	2051	2027	2015	2003	1992	1980	1980	1969	1947	1947	1936	1936	1925	1925	1915	1915	1904	1904	1894	1873	1863	1863	1853	1843	1843	1833	1833	1824	1804	1804	1795	1786	1768	1768	1759	1759	1741	1732	1723	1723	1723	1723	1706	1706	1706	1698	1698	1690	1681	1681	0	0	0	0	0	0	0	0	0	0	0	0	0	0	0	0	0	0	0	0	0	0	0	0	0	0	0	0	0	0	0	0	0	0	0	0	0
0	0	0	0	0	0	0	0	0	0	0	0	0	0	0	0	0	0	0	4045	4045	4045	3998	4045	3998	3998	4045	0	0	0	0	0	0	0	3373	3373	3373	3341	3341	3341	3341	3341	3373	3373	3373	3373	3341	3341	3341	3341	4521	4521	4521	4521	4521	4581	4581	4581	4581	4581	4581	4521	4521	4521	4521	4521	4521	4521	4643	4643	4643	4643	4643	4581	4581	4581	4581	4581	4581	4521	4581	4581	4581	4581	4581	4581	4643	4643	4581	4581	4581	4581	4581	4581	4581	4643	4643	4706	4771	4838	4838	4906	4977	4977	5050	5125	5125	6235	6235	6235	6235	6235	6235	6235	6235	6235	6235	6235	6235	6235	6235	6235	6235	6235	6235	6124	6124	6124	6235	6124	6124	6349	6349	6235	6235	6235	6235	6235	6235	6235	6235	6235	6235	6235	6235	6235	6235	6235	6235	6235	0	0	0	0	0	0	0	0	0	0	5535	5626	5626	5626	5626	5535	5535	5535	5535	5535	5626	5626	5719	5719	5719	0	0	0	0	0	0	0	0	0	0	0	0	0	0	0	0	0	0	6720	6853	7137	7287	7287	7287	7444	7444	7444	7444	7608	7608	7608	7608	7779	7779	7608	7608	7444	7608	7444	7444	7444	7444	7444	7444	7444	7287	7287	7287	7444	7444	7444	7444	7444	7444	7444	7444	7444	4521	4521	4521	4521	4521	4463	4463	4463	4463	4463	4521	4463	4463	4463	4463	4463	4406	4406	4406	4406	4406	4463	4463	4521	4521	4521	4521	4581	4521	4521	4521	4521	4521	4521	4463	4463	4406	4406	4406	4406	4406	4406	4406	4406	4406	3779	3779	3779	3779	3738	3698	3698	3659	3659	3659	3659	3659	3698	3698	3659	3698	3698	3698	3698	3698	3698	3659	3621	3583	3583	3583	3621	3659	3698	3698	3698	3698	3698	3698	3698	3698	3698	3698	3659	3659	3698	3698	3659	3698	3698	3698	4706	4581	4521	4521	4463	4406	4406	4350	4350	4350	4296	4296	4296	4296	4296	4296	4350	4350	4350	4350	4350	4350	4350	4350	4350	4350	4296	4350	4350	4350	4406	4406	4350	4406	4350	4350	4350	4350	4350	4350	4350	4350	4350	4350	4350	4350	4350	4350	4350	4350	4296	4350	4296	4296	4296	4296	4296	4350	4350	4350	4350	4350	4350	4350	4350	4350	4350	4350	4350	4350	4350	4350	4350	4350	4350	4350	4350	4350	4350	4350	4350	4350	4350	4350	4350	4350	4350	4350	4350	4350	4350	4296	4296	0	0	0	0	0	2496	2496	2478	2478	2478	2478	2478	2460	2460	2443	2443	2426	2426	2426	2426	2426	2426	2426	2426	2443	2443	2443	2443	2443	2443	2426	2426	2426	2426	2426	2426	2426	2426	2426	2426	2426	2426	2426	2426	2426	2426	2426	2426	2443	2460	2460	2460	2460	2460	2443	2443	2443	0	0	0	7444	7444	7444	7287	7444	7287	7287	7287	7287	0	0	0	0	0	0	0	0	0	0	0	0	0	0	0	0	0	0	0	0	2532	2532	2532	2514	2514	2496	2460	2460	2443	2443	2409	2392	2376	2376	2359	2343	2327	2327	2327	2327	2312	2297	2281	2266	2266	2252	2252	2252	2237	2237	2223	2223	2208	2194	2194	2181	2153	2153	2153	2140	2127	2127	2114	2114	2114	2101	2088	2076	2039	2027	2027	2003	1992	1980	1969	1958	1947	1936	1936	1925	1925	1925	1915	1915	1904	1904	1883	1873	1863	1863	1853	1843	1843	1833	1824	1814	1804	1795	1795	1777	1768	1768	1759	1750	1741	1732	1732	1723	1723	1723	1723	1706	1706	1698	1698	1690	1681	1681	0	0	0	0	0	0	0	0	0	0	0	0	0	0	0	0	0	0	0	0	0	0	0	0	0	0	0	0	0	0	0	0	0	0	0	0	0
0	0	0	0	0	0	0	0	0	0	0	0	0	0	0	0	0	0	0	4045	4045	4045	4045	4045	3998	4045	4045	0	0	0	0	0	0	0	3373	3341	3341	3341	3341	3373	3373	3373	3373	3373	3373	3373	3373	3373	3341	3341	4581	4581	4581	4581	4521	4581	4581	4521	4581	4581	4581	4521	4521	4521	4521	4581	4581	4521	4581	4643	4643	4643	4581	4581	4581	4581	4581	4581	4581	4521	4521	4581	4581	4581	4581	4581	4643	4643	4581	4581	4581	4581	4581	4581	4581	4643	4643	4706	4771	4838	4838	4906	4906	4906	6124	6124	6124	6235	6235	6235	6235	6235	6235	6235	6235	6235	6235	6235	6235	6235	6235	6235	6235	6235	6235	6235	6235	6235	6235	6235	6124	6349	6349	6235	6235	6235	6235	6235	6235	6235	6235	6235	6235	6235	6235	6235	6235	6349	6349	6349	0	0	0	0	0	0	0	0	0	0	5535	5535	5626	5626	5626	5535	5535	5535	5535	5535	5626	5626	5719	5719	5719	0	0	0	0	0	0	0	0	0	0	0	0	0	0	0	0	0	0	6720	6853	6853	6992	6992	7137	7287	7287	7287	7444	7444	7608	7608	7779	7779	7779	7608	7608	7608	7608	7444	7444	7444	7444	7444	7444	7287	7287	7287	7287	7287	7444	7444	7444	7444	7444	7444	7444	7444	4521	4521	4581	4521	4521	4463	4463	4463	4463	4463	4463	4463	4463	4463	4463	4406	4406	4406	4406	4406	4406	4463	4463	4521	4521	4521	4521	4521	4521	4521	4521	4521	4521	4521	4463	4463	4406	4406	4406	4406	4406	4406	4406	4406	4406	4406	3821	3779	3779	3738	3698	3698	3698	3659	3659	3659	3659	3659	3659	3698	3698	3698	3698	3698	3698	3698	3659	3659	3659	3583	3583	3621	3659	3698	3698	3698	3698	3698	3698	3698	3698	3698	3659	3659	3659	3659	3698	3698	3698	3698	3698	4581	4521	4463	4463	4406	4406	4350	4350	4350	4350	4296	4296	4296	4296	4296	4350	4350	4350	4350	4406	4350	4350	4350	4350	4350	4350	4296	4350	4350	4350	4350	4406	4350	4350	4350	4350	4350	4350	4350	4350	4350	4406	4406	4406	4350	4350	4350	4350	4350	4350	4296	4296	4350	4296	4350	4296	4296	4350	4350	4350	4350	4350	4350	4350	4350	4350	4350	4350	4350	4350	4350	4350	4350	4350	4350	4350	4350	4350	4350	4350	4350	4350	4350	4350	4350	4350	4350	4350	4350	4350	4350	4296	4296	0	0	0	0	2496	2496	2478	2460	2460	2460	2460	2460	2460	2443	2443	2443	2443	2426	2426	2426	2426	2426	2426	2426	2443	2443	2426	2443	2426	2426	2426	2426	2409	2409	2426	2426	2426	2426	2426	2426	2426	2426	2426	2426	2426	2426	2426	2443	2443	2460	2460	2460	2460	2460	2460	2460	2443	0	0	7608	7444	7444	7444	7444	7444	7444	7444	7444	7444	0	0	0	0	0	0	0	0	0	0	0	0	0	0	0	0	0	0	0	0	2532	2532	2532	2514	2514	2496	2460	2460	2460	2443	2426	2409	2392	2376	2359	2343	2343	2327	2327	2327	2312	2297	2281	2266	2266	2252	2252	2252	2237	2237	2223	2223	2208	2194	2194	2181	2153	2153	2153	2140	2127	2114	2101	2101	2101	2088	2088	2076	2051	2027	2015	2003	1992	1969	1969	1958	1947	1936	1936	1936	1925	1925	1915	1915	1904	1904	1894	1883	1873	1863	1853	1843	1843	1833	1824	1814	1804	1795	1786	1777	1768	1768	1759	1750	1741	1732	1732	1723	1723	1723	1715	1706	1706	1698	1698	1690	1690	1690	0	0	0	0	0	0	0	0	0	0	0	0	0	0	0	0	0	0	0	0	0	0	0	0	0	0	0	0	0	0	0	0	0	0	0	0	0
0	0	0	0	0	0	0	0	0	0	0	0	0	0	0	0	0	0	0	4045	4045	4045	4045	4045	4045	4045	4045	0	0	0	0	0	0	0	3373	3341	3341	3373	3373	3373	3373	3373	3406	3373	3373	3373	3373	3373	3341	3341	4521	4581	4581	4521	4521	4581	4581	4521	4521	4521	4521	4521	4521	4521	4521	4521	4521	4521	4581	4643	4643	4643	4643	4581	4581	4581	4581	4581	4581	4521	4521	4581	4581	4581	4581	4581	4581	4643	4581	4581	4581	4581	4581	4581	4581	4643	4643	4706	4706	4771	4771	4771	6124	6124	6124	6124	6124	6124	6235	6235	6235	6235	6235	6235	6235	6235	6235	6235	6235	6235	6235	6235	6235	6235	6235	6235	6235	6235	6235	6235	6235	6349	6349	6349	6349	6235	6235	6235	6235	6349	6235	6235	6235	6349	6235	6235	6235	6349	6349	6349	0	0	0	0	0	0	0	0	0	0	5535	5535	5626	5626	5626	5535	5448	5626	5535	5626	5719	5719	5815	5815	5815	0	0	0	0	0	0	0	0	0	0	0	0	0	0	0	0	0	0	0	0	6853	6992	6992	7137	7287	7287	7287	7444	7444	7608	7608	7779	7779	7779	7608	7608	7444	7444	7444	7444	7444	7444	7444	7444	7287	7287	7287	7287	7287	7444	7444	7444	7444	7444	7444	7444	7444	4521	4521	4521	4521	4463	4463	4463	4463	4463	4463	4463	4463	4463	4463	4406	4406	4406	4406	4406	4406	4406	4463	4463	4463	4521	4581	4521	4521	4521	4521	4521	4521	4521	4521	4463	4463	4463	4463	4406	4463	4463	4406	4406	4406	4406	4406	4406	3821	3779	3698	3698	3698	3659	3659	3659	3659	3659	3659	3659	3659	3698	3698	3698	3698	3698	3698	3659	3659	3659	3621	3659	3621	3659	3698	3698	3698	3698	3698	3698	3698	3698	3698	3698	3659	3698	3738	3698	3698	3698	3738	3738	3738	4463	4463	4406	4406	4350	4350	4350	4350	4350	4296	4296	4296	4296	4296	4350	4350	4350	4350	4406	4406	4350	4350	4350	4350	4350	4296	4350	4350	4350	4350	4350	4350	4350	4350	4350	4350	4350	4350	4350	4350	4406	4406	4406	4406	4350	4350	4350	4350	4350	4350	4350	4350	4350	4350	4350	4350	4406	4406	4406	4350	4350	4350	4350	4350	4350	4350	4350	4350	4350	4350	4350	4350	4350	4350	4350	4350	4350	4350	4350	4350	4350	4350	4350	4350	4350	4350	4406	4350	4350	4350	4350	4296	4296	0	0	0	2496	2496	2496	2478	2478	2478	2478	2478	2460	2460	2443	2443	2443	2426	2426	2426	2426	2426	2426	2426	2426	2443	2443	2426	2426	2426	2426	2426	2409	2409	2426	2426	2426	2426	2426	2426	2426	2426	2426	2426	2426	2426	2426	2443	2443	2443	2443	2443	2443	2460	2460	2460	0	0	0	7608	7608	7444	7444	7287	7444	7444	7444	7444	7444	0	0	0	0	0	0	0	0	0	0	0	0	0	0	0	0	0	0	0	2589	2532	2532	2532	2514	2514	2496	2460	2460	2443	2443	2426	2426	2392	2376	2376	2359	2343	2343	2327	2327	2312	2312	2281	2266	2266	2252	2252	2252	2252	2237	2237	2223	2208	2194	2194	2181	2181	2153	2153	2140	2127	2114	2114	2114	2101	2101	2088	2076	2039	2015	2003	1992	1980	1969	1958	1958	1947	1947	1936	1936	1925	1925	1915	1915	1915	1904	1894	1883	1883	1863	1853	1843	1843	1833	1824	1814	1804	1795	1786	1777	1768	1768	1759	1750	1741	1732	1732	1723	1723	1723	1715	1706	1706	1698	1698	1690	1681	1681	0	0	0	0	0	0	0	0	0	0	0	0	0	0	0	0	0	0	0	0	0	0	0	0	0	0	0	0	0	0	0	0	0	0	0	0	0
0	0	0	0	0	0	0	0	0	0	0	0	0	0	0	0	0	0	0	0	4093	4045	4045	4045	4045	4045	4093	4093	0	0	0	0	0	0	3373	3341	3341	3373	3373	3373	3373	3373	3373	3373	3373	3373	3373	3373	3373	3373	4463	4521	4521	4521	4521	4521	4581	4521	4521	4521	4521	4521	4521	4521	4521	4521	4521	4521	4581	4643	4643	4643	4643	4581	4581	4581	4581	4581	4581	4521	4521	4581	4581	4581	4581	4581	4581	4581	4581	4581	4581	4581	4581	4581	4581	4643	4643	4706	4706	6235	6235	6124	6124	6124	6124	6124	6124	6235	6235	6235	6235	6235	6235	6235	6235	6235	6235	6235	6235	6235	6235	6235	6235	6235	6235	6235	6235	6235	6235	6235	6235	6349	6349	6235	6235	6235	6235	6235	6235	6349	6235	6349	6235	6235	6235	6235	6235	6235	6349	6349	0	0	0	0	0	0	0	0	0	0	0	0	0	0	0	0	5448	5448	5535	5535	5535	5719	5815	5815	5815	0	0	0	0	0	0	0	0	0	0	0	0	0	0	0	0	0	0	0	0	0	0	0	0	7287	7287	0	0	0	0	0	0	0	0	0	0	7444	7444	7444	7444	7444	7444	7444	7444	7444	7287	7287	7287	7287	7444	7444	7444	7444	7444	7444	7444	7444	4521	4521	4521	4463	4463	4463	4463	4463	4463	4463	4463	4463	4463	4463	4406	4406	4406	4406	4350	4406	4406	4463	4463	4463	4463	4521	4521	4521	4521	4521	4521	4521	4521	4463	4463	4463	4463	4463	4463	4463	4463	4463	4406	4406	4406	4406	4406	3821	3779	3698	3698	3698	3659	3659	3659	3621	3659	3659	3659	3659	3659	3698	3698	3698	3698	3698	3659	3659	3659	3659	3659	3698	3698	3698	3698	3698	3698	3698	3698	3698	3698	3698	3698	3698	3698	3738	3698	3738	3738	3738	3738	3738	4463	4406	4350	4350	4350	4350	4350	4350	4350	4296	4296	4296	4296	4296	4350	4350	4350	4350	4350	4350	4350	4350	4350	4350	4350	4296	4350	4350	4350	4350	4350	4350	4350	4350	4350	4350	4350	4350	4350	4350	4350	4350	4350	4350	4350	4350	4350	4350	4350	4350	4350	4350	4350	4350	4350	4350	4406	4406	4406	4350	4350	4350	4350	4350	4350	4350	4350	4350	4350	4350	4350	4350	4350	4350	4350	4350	4350	4350	4350	4350	4406	4350	4406	4406	4406	4406	4406	4350	4350	4350	4350	4296	4296	0	0	0	2514	2496	2496	2478	2478	2478	2478	2478	2460	2460	2460	2460	2443	2443	2426	2426	2426	2426	2426	2426	2443	2443	2443	2443	2443	2443	2426	2426	2426	2426	2426	2426	2426	2426	2426	2426	2426	2426	2426	2426	2426	2426	2426	2426	2426	2426	2443	2443	2443	2443	2460	2460	0	0	0	7608	7608	7444	7444	7444	7444	7444	7444	7444	7444	0	0	0	0	0	0	0	0	0	0	0	0	0	0	0	0	0	0	0	2551	2532	2532	2532	2514	2514	2514	2460	2460	2443	2443	2426	2409	2392	2376	2376	2359	2343	2343	2327	2327	2327	2312	2297	2281	2266	2266	2266	2252	2252	2237	2237	2237	2208	2208	2194	2181	2167	2153	2140	2140	2127	2114	2101	2101	2101	2101	2088	2076	2039	2015	2003	1992	1969	1969	1958	1958	1947	1947	1947	1947	1936	1925	1915	1915	1915	1904	1894	1883	1883	1863	1853	1843	1843	1833	1824	1814	1804	1795	1786	1777	1768	1768	1759	1759	1750	1741	1732	1732	1723	1723	1715	1706	1698	1698	1690	1681	1681	1681	0	0	0	0	0	0	0	0	0	0	0	0	0	0	0	0	0	0	0	0	0	0	0	0	0	0	0	0	0	0	0	0	0	0	0	0	0
0	0	0	0	0	0	0	0	0	0	0	0	0	0	0	0	0	0	0	0	4093	4045	4045	4045	4045	4093	4093	4093	0	0	0	0	0	0	0	3341	3341	3341	3373	3373	3373	3373	3373	3373	3373	3373	3373	3341	3341	3341	4463	4463	4521	4521	4521	4581	4581	4521	4521	4581	4581	4521	4521	4521	4521	4581	4581	4521	4581	4643	4643	4643	4643	4581	4581	4581	4581	4581	4581	4581	4581	4581	4581	4581	4581	4581	4581	4581	4581	4581	4581	4581	4581	4581	4581	4581	4581	4581	6349	6235	6235	6235	6124	6235	6235	6235	6235	6235	6235	6235	6235	6235	6124	6124	6124	6124	6124	6235	6235	6235	6235	6235	6235	6235	6235	6235	6235	6235	6235	6235	6235	6349	6235	6235	6235	6235	6235	6235	6235	6235	6235	6235	6235	6235	6235	6235	6235	6235	0	0	0	0	0	0	0	0	0	0	0	0	0	0	0	0	0	0	5448	5448	0	5535	5535	5719	5815	5815	5815	0	0	0	0	0	0	0	0	0	0	0	0	0	0	0	0	0	0	0	0	0	0	0	0	0	0	0	0	0	0	0	0	0	0	0	0	0	7444	7444	7444	7444	7287	7444	7444	7287	7287	7137	7287	7287	7444	7444	7444	7444	7608	7444	7287	7287	0	4521	4521	4463	4463	4463	4463	4463	4463	4463	4463	4463	4463	4406	4406	4406	4406	4406	4406	4406	4406	4406	4463	4463	4521	4521	4521	4521	4521	4521	4521	4521	4521	4521	4521	4463	4463	4463	4463	4463	4463	4463	4463	4463	4406	4406	3821	3821	3779	3779	3738	3698	3698	3698	3659	3659	3659	3659	3659	3659	3659	3698	3698	3698	3698	3698	3659	3659	3659	3659	3659	3698	3698	3698	3698	3698	3698	3698	3698	3698	3698	3698	3698	3698	3659	3738	3698	3698	3738	3738	3738	3738	4406	4350	4350	4350	4350	4350	4350	4350	4350	4296	4296	4296	4296	4296	4350	4350	4350	4350	4350	4350	4350	4350	4350	4350	4350	4350	4350	4350	4350	4350	4350	4350	4350	4350	4350	4350	4350	4350	4350	4350	4350	4350	4350	4350	4350	4350	4350	4350	4350	4350	4350	4350	4350	4350	4350	4350	4406	4406	4406	4406	4350	4406	4406	4350	4350	4350	4350	4350	4350	4350	4350	4406	4350	4350	4350	4350	4350	4350	4350	4350	4350	4350	4406	4350	4350	4406	4406	4406	4350	4350	4350	4296	4243	4243	4243	0	2514	2496	2496	2478	2478	2478	2478	2478	2460	2478	2460	2478	2443	2426	2426	2426	2426	2426	2426	2426	2443	2443	2443	2426	2426	2426	2426	2426	2426	2426	2443	2443	2443	2426	2426	2426	2426	2409	2409	2409	2409	2426	2426	2426	2426	2443	2443	2443	2443	2426	2426	2460	2460	0	0	7608	7444	7287	7287	7444	7444	7444	7444	0	0	0	0	0	0	0	0	0	0	0	0	0	0	0	0	0	0	0	0	0	2551	2532	2532	2532	2514	2514	2514	2460	2460	2443	2426	2426	2426	2392	2392	2376	2376	2343	2343	2327	2327	2312	2312	2297	2281	2266	2266	2266	2252	2252	2237	2237	2223	2208	2194	2194	2181	2167	2140	2140	2140	2127	2114	2101	2101	2101	2101	2088	2076	2051	2015	2015	1992	1980	1969	1958	1958	1947	1947	1947	1947	1936	1925	1925	1915	1915	1904	1894	1883	1873	1863	1853	1833	1833	1824	1814	1804	1804	1795	1786	1777	1768	1768	1759	1759	1750	1741	1732	1732	1732	1723	1715	1706	1698	1690	1690	1681	1673	1673	0	0	0	0	0	0	0	0	0	0	0	0	0	0	0	0	0	0	0	0	0	0	0	0	0	0	0	0	0	0	0	0	0	0	0	0	0
0	0	0	0	0	0	0	0	0	0	0	0	0	0	0	0	0	0	0	0	4045	4045	4045	4045	4045	4045	4045	4045	0	0	0	0	0	0	0	3309	3341	3341	3341	3373	3373	3373	3373	3373	3373	3373	3373	3341	3341	3341	4406	4406	4521	4521	4521	4581	4581	4521	4521	4581	4581	4521	4521	4521	4521	4521	4581	4521	4581	4581	4643	4643	4643	4581	4581	4581	4581	4581	4581	4581	4581	4581	4581	4581	4581	4581	4581	4581	4581	4581	4581	4581	4581	4581	4581	4581	4581	6235	6235	6235	6235	6235	6235	6235	6235	6235	6235	6235	6235	6235	6235	6235	6124	6124	6124	6124	6124	6235	6235	6235	6235	6235	6235	6235	6235	6235	6235	6235	6235	6235	6235	6349	6235	6235	6235	6235	6235	6235	6235	6235	6235	6235	6235	6235	6235	6235	6235	6235	0	0	0	0	0	0	0	0	0	0	0	0	0	0	0	0	0	0	0	0	0	0	0	0	0	0	0	0	0	0	0	0	0	0	0	0	0	0	0	0	0	0	0	0	0	0	0	0	0	0	0	0	0	0	0	0	0	0	0	0	0	0	0	0	0	7444	7444	7444	7287	7444	7444	7444	7287	7444	7287	7287	7287	7444	7444	7444	7608	7444	7444	7287	0	4521	4521	4463	4463	4463	4463	4463	4463	4463	4463	4463	4463	4406	4406	4406	4406	4406	4406	4406	4406	4406	4463	4463	4521	4521	4521	4521	4521	4521	4521	4521	4521	4463	4463	4463	4463	4463	4463	4463	4463	4463	4463	4463	4406	4406	4350	3779	3779	3738	3698	3698	3698	3698	3659	3659	3659	3659	3659	3659	3659	3659	3659	3659	3659	3659	3659	3659	3659	3659	3698	3698	3698	3698	3698	3698	3698	3698	3698	3698	3698	3698	3698	3698	3659	3738	3698	3698	3698	3738	3738	3738	3738	4350	4350	4350	4350	4350	4350	4350	4350	4350	4296	4296	4350	4350	4350	4350	4350	4350	4406	4350	4350	4350	4350	4350	4350	4350	4350	4350	4350	4350	4350	4350	4350	4350	4296	4296	4296	4296	4350	4350	4350	4350	4350	4350	4350	4350	4350	4350	4350	4350	4350	4350	4350	4350	4350	4350	4406	4406	4406	4406	4406	4406	4406	4406	4350	4406	4406	4406	4406	4406	4406	4406	4406	4350	4350	4350	4350	4406	4406	4406	4406	4406	4406	4406	4406	4406	4406	4406	4350	4350	4350	4296	4296	4243	4243	0	0	2478	2478	2478	2478	2478	2478	2478	2460	2460	2460	2460	2426	2426	2426	2426	2426	2426	2426	2426	2443	2443	2443	2426	2426	2426	2426	2426	2426	2426	2426	2443	2443	2426	2426	2426	2426	2409	2409	2409	2409	2426	2426	2426	2426	2426	2426	2443	2426	2426	2443	2460	2460	0	0	7608	7444	7444	7444	7444	7444	7444	0	0	0	0	0	0	0	0	0	0	0	0	0	0	0	0	0	0	0	0	0	0	2551	2532	2532	2532	2514	2514	2514	2460	2460	2443	2443	2426	2426	2409	2392	2392	2376	2359	2343	2327	2327	2312	2297	2281	2266	2266	2266	2266	2266	2252	2237	2237	2223	2208	2194	2194	2167	2167	2140	2140	2127	2127	2114	2114	2101	2101	2101	2088	2076	2051	2027	2015	2003	1980	1969	1958	1958	1947	1947	1947	1947	1936	1925	1915	1915	1915	1904	1894	1883	1873	1863	1853	1833	1833	1824	1824	1804	1804	1795	1795	1786	1768	1768	1759	1759	1750	1741	1732	1732	1732	1723	1715	1715	1706	1698	1690	1681	1681	1681	0	0	0	0	0	0	0	0	0	0	0	0	0	0	0	0	0	0	0	0	0	0	0	0	0	0	0	0	0	0	0	0	0	0	0	0	0
0	0	0	0	0	0	0	0	0	0	0	0	0	0	0	0	0	0	0	0	4045	4045	3998	4045	4045	4045	4045	4045	4045	0	0	0	0	0	3341	3341	3341	3373	3373	3406	3406	3406	3406	3406	3406	3406	3373	3406	3406	3341	4406	4406	4521	4521	4521	4581	4581	4521	4581	4581	4581	4581	4581	4521	4581	4581	4643	4581	4581	4643	4643	4643	4643	4581	4581	4581	4581	4581	4581	4581	4581	4581	4581	4581	4581	4581	4581	4581	4581	4521	4521	4581	4581	4581	4581	4581	4581	6349	6235	6235	6235	6235	6124	6235	6235	6235	6235	6235	6235	6235	6235	6235	6124	6124	6124	6124	6124	6124	6235	6235	6235	6235	6235	6124	6124	6124	6235	6124	6235	6124	6235	6235	6349	6349	6349	6349	6349	6349	6349	6349	6235	6235	6235	6235	6124	6124	6235	0	0	0	0	0	0	0	0	0	0	0	0	0	0	0	0	0	0	0	0	0	0	0	0	0	0	0	0	0	0	0	0	0	0	0	0	0	0	0	0	0	0	0	0	0	0	0	0	0	0	0	0	0	0	0	0	0	0	0	0	0	0	0	0	0	0	0	0	0	7287	7287	7287	7444	7287	7287	7287	7287	7287	0	0	0	0	7444	7444	0	0	4521	4521	4521	4521	4463	4463	4463	4463	4463	4406	4406	4406	4406	4406	4406	4406	4406	4406	4406	4406	4406	4463	4463	4521	4521	4521	4521	4521	4521	4521	4521	4521	4521	4463	4463	4463	4463	4463	4463	4463	4463	4463	4406	4406	4350	4350	3738	3738	3738	3698	3698	3698	3698	3659	3659	3659	3659	3659	3621	3621	3621	3621	3659	3659	3659	3659	3698	3698	3659	3698	3698	3698	3698	3698	3698	3698	3698	3698	3698	3698	3698	3698	3659	3659	3698	3698	3698	3698	3738	3738	3738	3738	3738	3738	4350	4350	4350	4350	4350	4350	4350	4350	4296	4350	4350	4350	4350	4350	4350	4406	4350	4350	4350	4350	4350	4350	4350	4350	4350	4350	4350	4350	4296	4296	4296	4296	4296	4350	4350	4350	4350	4350	4350	4350	4350	4350	4350	4350	4350	4350	4350	4350	4350	4350	4350	4350	4350	4406	4406	4406	4406	4406	4406	4406	4406	4406	4406	4406	4406	4406	4406	4406	4406	4406	4406	4350	4350	4350	4406	4406	4406	4406	4406	4406	4406	4406	4406	4406	4406	4350	4350	4350	4296	4243	4243	0	0	0	2478	2478	2478	2478	2478	2478	2478	2460	2460	2460	2460	2443	2426	2426	2426	2426	2426	2409	2426	2426	2426	2426	2426	2426	2426	2426	2426	2426	2426	2426	2426	2443	2426	2426	2426	2426	2409	2409	2409	2409	2426	2426	2426	2426	2426	2443	2443	2426	2426	2443	2443	2460	0	0	0	0	7444	7444	7444	7444	0	0	0	0	0	0	0	0	0	0	0	0	0	0	0	0	0	0	0	0	0	0	0	2551	2532	2532	2514	2514	2514	2514	2478	2460	2443	2443	2426	2426	2409	2392	2392	2376	2376	2343	2327	2327	2312	2312	2297	2281	2266	2266	2266	2266	2237	2237	2223	2223	2208	2194	2194	2181	2167	2140	2140	2140	2127	2114	2101	2101	2101	2101	2088	2076	2063	2027	2027	2003	1980	1969	1958	1958	1958	1947	1947	1947	1936	1925	1915	1915	1904	1904	1894	1883	1873	1873	1853	1833	1833	1824	1814	1804	1804	1795	1795	1786	1768	1777	1768	1759	1750	1732	1741	1732	1732	1723	1723	1715	1706	1698	1690	1681	1673	1673	0	0	0	0	0	0	0	0	0	0	0	0	0	0	0	0	0	0	0	0	0	0	0	0	0	0	0	0	0	0	0	0	0	0	0	0	0
0	0	0	0	0	0	0	0	0	0	0	0	0	0	0	0	0	0	0	0	4045	4045	3998	4045	4045	4045	4045	4045	4045	4045	4045	0	0	0	3341	3341	3309	3341	3373	3373	3373	3373	3406	3406	3373	3373	3341	3341	3406	0	0	0	4521	4521	4521	4706	4581	4521	4521	4581	4581	4581	4581	4521	4581	4581	4581	4581	4581	4643	4643	4643	4643	4581	4581	4581	4581	4581	4581	4581	4581	4581	4581	4581	4581	4581	4581	4581	4581	4521	4581	4581	4581	4581	4581	6720	6468	6349	6235	6235	6235	6235	6124	6235	6235	6235	6235	6235	6235	6235	6235	6235	6235	6124	6124	6124	6124	6124	6235	6235	6235	6235	6235	6124	6124	6124	6235	6235	6235	6235	6235	6235	6349	6349	6349	6349	6349	6235	6235	6235	6235	6235	6124	6124	6124	6124	0	0	0	0	0	0	0	0	0	0	0	0	0	0	0	0	0	0	0	0	0	0	0	0	0	0	0	0	0	0	0	0	0	0	0	0	0	0	0	0	0	0	0	0	0	0	0	0	0	0	0	0	0	0	0	0	0	0	0	0	0	0	0	0	0	0	0	0	0	0	7287	7287	7287	7287	7287	7287	7287	0	0	0	0	0	0	0	0	0	0	4521	4521	4521	4521	4521	4463	4463	4463	4463	4406	4406	4406	4406	4406	4406	4406	4406	4406	4406	4463	4463	4463	4463	4463	4521	4521	4521	4521	4521	4521	4521	4521	4521	4463	4463	4463	4463	4463	4463	4463	4463	4463	4406	4350	4296	4243	4243	3779	3738	3698	3698	3698	3659	3659	3621	3621	3621	3621	3621	3621	3621	3621	3659	3659	3659	3698	3698	3698	0	0	3698	3698	3698	3698	3698	3698	3698	3698	3698	3698	3698	3698	3698	3659	3738	3738	3698	3698	3698	3738	3738	3738	3738	3738	4350	4350	4350	4350	4350	4350	4350	4350	4350	4350	4350	4350	4350	4350	4350	4350	4350	4350	4350	4350	4350	4350	4350	4350	4350	4350	4350	4296	4296	4296	4296	4296	4350	4350	4350	4350	4350	4350	4350	4350	4350	4350	4296	4296	4350	4350	4350	4350	4350	4350	4350	4350	4350	4406	4406	4406	4406	4406	4406	4406	4406	4406	4406	4406	4406	4406	4406	4406	4406	4406	4406	4406	4406	4406	4406	4406	4406	4406	4406	4406	4406	4406	4406	4406	4350	4350	4350	4296	4296	4243	4243	0	0	0	2478	2478	2478	2478	2478	2478	2478	2478	2460	2460	2460	2443	2426	2426	2426	2426	2426	2426	2426	2426	2426	2426	2426	2426	2426	2426	2426	2426	2426	2426	2426	2426	2426	2409	2409	2409	2409	2409	2409	2426	2426	2426	2426	2426	2426	2443	2443	2443	2443	2443	2460	2460	0	0	0	0	0	0	0	0	0	0	0	0	0	0	0	0	0	0	0	0	0	0	0	0	0	0	0	0	0	0	0	2532	2532	2532	2514	2514	2514	2496	2460	2460	2443	2426	2426	2426	2409	2392	2376	2376	2343	2343	2327	2312	2312	2312	2297	2281	2266	2266	2266	2266	2237	2223	2223	2208	2208	2194	2194	2181	2167	2140	2140	2140	2127	2127	2114	2101	2101	2101	2088	2076	2063	2039	2027	2003	1992	1969	1969	1958	1958	1947	1947	1947	1936	1925	1915	1915	1904	1894	1894	1883	1873	1853	1843	1833	1833	1824	1814	1804	1804	1804	1795	1795	1786	1777	1768	1759	1750	1741	1741	1732	1732	1723	1723	1723	1715	1706	1690	1681	1673	1673	0	0	0	0	0	0	0	0	0	0	0	0	0	0	0	0	0	0	0	0	0	0	0	0	0	0	0	0	0	0	0	0	0	0	0	0	0
0	0	0	0	0	0	0	0	0	0	0	0	0	0	0	0	0	0	0	0	4045	4045	3998	4045	4045	4045	4045	4045	4045	4045	4093	4093	0	0	3309	3309	3341	3373	3373	3373	3406	3406	3406	3406	3373	3373	3341	3341	0	0	0	0	0	4521	4521	4706	4643	4521	4581	4521	4581	4581	4581	4581	4581	4581	4581	4581	4581	4643	4643	4643	4581	4581	4581	4581	4581	4581	4581	4581	4581	4581	4581	4581	4581	4581	4581	4581	4581	4581	4581	4581	4581	4581	4581	4581	6468	6349	6235	6235	6235	6124	6124	6124	6124	6124	6235	6235	6235	6235	6235	6124	6124	6124	6124	6124	6124	6124	6235	6235	6235	6235	6235	6124	6124	6235	6235	6235	6235	6235	6235	6235	6235	6349	6349	6235	6349	6235	6235	6235	6235	6235	6124	6124	6124	0	0	0	0	0	0	0	0	0	0	0	0	0	0	0	0	0	0	0	0	0	0	0	0	0	0	0	0	0	0	0	0	0	0	0	0	0	0	0	0	0	0	0	0	0	0	0	0	0	0	0	0	0	0	0	0	0	0	0	0	0	0	0	0	0	0	0	0	0	0	0	7287	7287	7137	7137	7287	7287	0	0	0	0	0	0	0	0	0	0	0	4521	4521	4521	4521	4463	4463	4463	4463	4463	4406	4406	4406	4406	4406	4406	4406	4406	4406	4463	4463	4463	4463	4463	4463	4463	4463	4463	4463	4521	4521	4521	4521	4521	4463	4521	4521	4463	4463	4463	4463	4463	4463	4406	4350	4296	4243	4243	3779	3779	3698	3698	3659	3659	3659	3659	3621	3621	3621	3621	3621	3621	3621	3621	3621	3659	3659	3659	3698	0	0	0	0	3698	3698	3698	3698	3698	3698	3698	3698	3698	3698	3698	3659	3698	3698	3698	3698	3698	3738	3738	3738	3738	3738	3738	4406	4406	4350	4350	4350	4350	4350	4350	4350	4350	4350	4350	4350	4350	4350	4350	4350	4350	4350	4350	4350	4350	4296	4350	4350	4350	4350	4296	4296	4296	4350	4350	4350	4350	4350	4350	4350	4350	4350	4350	4350	4350	4350	4350	4350	4350	4350	4350	4350	4350	4350	4350	4406	4406	4406	4406	4406	4406	4406	4406	4406	4406	4406	4406	4406	4406	4406	4406	4406	4406	4406	4406	4406	4406	4406	4406	4350	4406	4406	4406	4406	4406	4406	4350	4350	4350	4350	4296	4243	4243	0	0	0	2478	2478	2478	2478	2496	2496	2478	2478	2478	2478	2478	2443	2426	2426	2426	2426	2426	2426	2409	2426	2426	2409	2409	2409	2409	2426	2426	2426	2426	2426	2426	2426	2426	2409	2409	2409	2409	2409	2409	2426	2426	2426	2426	2426	2443	2443	2443	2443	2443	2443	2443	2460	0	0	0	0	0	0	0	0	0	0	0	0	0	0	0	0	0	0	0	0	0	0	0	0	0	0	0	0	0	0	0	2532	2532	2532	2514	2514	2514	2496	2478	2443	2443	2426	2426	2426	2409	2392	2392	2376	2359	2327	2327	2312	2312	2312	2297	2281	2266	2266	2266	2237	2237	2223	2223	2208	2208	2194	2194	2181	2167	2153	2140	2140	2127	2127	2114	2101	2101	2101	2088	2088	2076	2039	2015	2003	1992	1980	1969	1969	1958	1958	1947	1947	1936	1925	1915	1915	1904	1894	1894	1883	1873	1853	1843	1833	1833	1824	1824	1814	1804	1804	1804	1795	1786	1777	1768	1768	1750	1741	1732	1732	1732	1723	1723	1723	1715	1706	1690	1681	1673	1673	0	0	0	0	0	0	0	0	0	0	0	0	0	0	0	0	0	0	0	0	0	0	0	0	0	0	0	0	0	0	0	0	0	0	0	0	0
0	0	0	0	0	0	0	0	0	0	0	0	0	0	0	0	0	0	0	3998	4045	4045	3998	3998	4045	4045	4045	4045	4093	4093	4093	4093	3341	3341	3373	3373	3373	3373	3373	3373	3373	3373	3373	3373	3373	3373	3309	3309	0	0	0	0	0	4521	4521	4706	4643	4581	4581	4521	4581	4581	4581	4581	4581	4581	4581	4581	4581	4581	4643	4643	4581	4581	4581	4581	4581	4581	4581	4581	4581	4581	4581	4581	4581	4581	4581	4581	4581	4581	4581	4643	4643	4643	4581	4581	6468	6349	6235	6235	6235	6124	6124	6124	6124	6124	6235	6124	6235	6235	6235	6124	6124	6124	6124	6124	6124	6124	6235	6235	6235	6235	6235	6124	6124	6124	6124	6124	6124	6124	6124	6235	6349	6349	6349	6235	6235	6235	6235	6235	6124	6124	6018	6018	0	0	0	0	0	0	0	0	0	0	0	0	0	0	0	0	0	0	0	0	0	0	0	0	0	0	0	0	0	0	0	0	0	0	0	0	0	0	0	0	0	0	0	0	0	0	0	0	0	0	0	0	0	0	0	0	0	0	0	0	0	0	0	0	0	0	0	0	0	0	0	0	0	0	7137	7137	0	0	0	0	0	0	0	0	0	0	0	0	0	4521	4521	4463	4463	4463	4463	4463	4463	4463	4406	4406	4406	4406	4406	4406	4406	4406	4406	4463	4463	4406	4406	4406	4463	4463	4463	4463	4463	4521	4521	4521	4521	4521	4463	4463	4521	4463	4463	4463	4463	4463	4406	4406	4350	4296	4243	4243	3738	3738	3738	3698	3659	3659	3659	3659	3621	3621	3621	3621	3621	3621	3621	3621	3659	3659	3659	3659	0	0	0	0	0	3698	3698	3698	3698	3698	3698	3659	3698	3698	3698	3659	3659	3698	3698	3698	3698	3698	3698	3698	3738	3698	3738	3738	4406	4406	4406	4350	4350	4350	4350	4350	4350	4350	4350	4350	4350	4350	4350	4350	4350	4350	4350	4350	4350	4296	4296	4296	4296	4350	4350	4350	4350	4296	4350	4350	4350	4296	4350	4350	4350	4350	4350	4350	4350	4350	4350	4350	4350	4350	4350	4350	4350	4350	4350	4350	4406	4406	4406	4406	4406	4406	4406	4350	4350	4350	4406	4406	4406	4406	4406	4406	4406	4406	4406	4406	4406	4406	4406	4350	4350	4350	4406	4350	4350	4406	4350	4350	4350	4350	4350	4350	4296	4296	0	0	0	2460	2460	2478	2478	2478	2478	2478	2478	2478	2478	2460	2443	2426	2426	2426	2426	2426	2426	2426	2426	2426	2426	2426	2426	2426	2426	2426	2443	2443	2426	2426	2426	2426	2409	2409	2409	2409	2426	2426	2426	2443	2443	2443	2443	2443	2443	2443	2443	2443	2443	2443	0	0	0	0	0	0	0	0	0	0	0	0	0	0	0	0	0	0	0	0	0	0	0	0	0	0	0	0	0	0	0	0	0	2514	2514	2514	2514	2496	2496	2478	2443	2443	2426	2426	2409	2409	2392	2392	2376	2359	2327	2327	2312	2312	2312	2297	2281	2266	2266	2266	2252	2223	2223	2208	2208	2208	2194	2181	2167	2167	2153	2153	2140	2140	2127	2114	2101	2101	2101	2088	2088	2063	2039	2015	2003	1992	1980	1980	1969	1958	1958	1947	1947	1936	1925	1915	1915	1904	1894	1894	1883	1873	1863	1843	1833	1833	1824	1824	1814	1804	1804	1795	1795	1786	1786	1768	1768	1750	1741	1741	1732	1732	1723	1723	1723	1715	1706	1690	1681	1673	1673	0	0	0	0	0	0	0	0	0	0	0	0	0	0	0	0	0	0	0	0	0	0	0	0	0	0	0	0	0	0	0	0	0	0	0	0	0
0	0	0	0	0	0	0	0	0	0	0	0	0	0	0	0	0	0	0	3998	3998	3998	3998	3998	3998	4045	4045	4045	4045	4045	4045	4045	3341	3341	3373	3373	3309	3373	3373	3373	3406	3373	3373	3373	3373	3341	3341	3309	0	0	0	0	0	0	0	4706	4643	4581	4521	4581	4581	4581	4581	4581	4581	4581	4581	4521	4581	4581	4581	4581	4581	4581	4581	4581	4581	4581	4581	4581	4581	4581	4581	4581	4581	4581	4581	4581	4643	4581	4581	4643	4643	4643	4581	4581	6720	6349	6235	6235	6235	6124	6124	6124	6124	6124	6124	6124	6124	6124	6124	6124	6124	6124	6124	6124	6124	6124	6235	6235	6235	6235	6124	6124	6124	6124	6124	6124	6124	6235	6235	6235	6349	6349	6349	6349	6349	6235	6235	6235	6124	6124	6124	6124	0	0	0	0	0	0	0	0	0	0	0	0	0	0	0	0	0	0	0	0	0	0	0	0	0	0	0	0	0	0	0	0	0	0	0	0	0	0	0	0	0	0	0	0	0	0	0	0	0	0	0	0	0	0	0	0	0	0	0	0	0	0	0	0	0	0	0	0	0	0	0	0	0	0	0	0	0	0	0	0	0	0	0	0	0	0	0	0	0	4521	4521	4463	4463	4463	4463	4463	4463	4463	4406	4406	4406	4406	4463	4463	4463	4463	4463	4463	4463	4406	4406	4406	4463	4463	4463	4463	4463	4521	4521	4581	4521	4521	4463	4463	4463	4463	4406	4406	4406	4350	4350	4350	4350	4296	4296	4296	3738	3738	3738	3698	3659	3659	3621	3659	3621	3621	3621	3621	3621	3621	3621	3621	3659	3659	3659	3659	0	0	0	0	0	3698	3698	3698	3698	3698	3659	3659	3659	3659	3659	3659	3621	3698	3698	3698	3698	3698	3698	3698	3738	3698	3738	3738	3738	4406	4406	4350	4406	4406	4406	4350	4350	4350	4350	4350	4350	4350	4350	4350	4350	4350	4350	4350	4296	4296	4296	4296	4296	4350	4350	4350	4350	4350	4350	4350	4350	4350	4350	4350	4350	4350	4350	4350	4350	4350	4350	4350	4350	4350	4350	4350	4350	4350	4350	4350	4406	4406	4406	4406	4406	4406	4406	4350	4350	4350	4350	4406	4406	4406	4406	4406	4406	4406	4406	4406	4350	4406	4406	4350	4350	4350	4350	4350	4350	4350	4350	4350	4350	4350	4350	4350	4296	4296	0	0	0	2460	2460	2478	2478	2478	2478	2478	2478	2478	2478	2478	2460	2443	2443	2443	2443	2443	2426	2426	2443	2426	2426	2426	2409	2409	2426	2426	2426	2426	2409	2426	2409	2409	2409	2409	2409	2409	2426	2426	2443	2443	2443	2443	2443	2443	2460	2443	2443	2443	2443	0	0	0	0	0	0	0	0	0	0	0	0	0	0	0	0	0	0	0	0	0	0	0	0	0	0	0	0	0	0	0	0	0	0	2514	2514	2514	2514	2496	2496	2478	2443	2443	2426	2426	2409	2409	2392	2392	2376	2376	2343	2327	2312	2312	2312	2297	2281	2266	2266	2252	2252	2223	2223	2208	2208	2208	2194	2181	2167	2153	2153	2153	2140	2140	2127	2114	2101	2101	2101	2088	2088	2076	2039	2015	2003	1992	1980	1980	1969	1958	1958	1947	1947	1925	1925	1915	1915	1904	1894	1883	1873	1873	1863	1843	1833	1833	1824	1824	1814	1804	1804	1795	1795	1786	1786	1768	1759	1741	1732	1732	1723	1732	1723	1723	1723	1715	1715	1690	1673	1665	1665	0	0	0	0	0	0	0	0	0	0	0	0	0	0	0	0	0	0	0	0	0	0	0	0	0	0	0	0	0	0	0	0	0	0	0	0	0
0	0	0	0	0	0	0	0	0	0	0	0	0	0	0	0	0	0	0	3998	3998	3998	1618	1618	1618	4045	1626	1626	1626	4093	4093	4093	3406	3406	3406	3406	3406	3406	3406	3406	3406	3373	3406	3373	3373	3341	3309	3309	0	0	0	0	0	0	0	0	4581	4581	4581	4581	4643	4581	4581	4581	4643	4643	4581	4521	4581	4581	4581	4581	4581	4581	4581	4581	4643	4643	4643	4643	4643	4581	4581	4581	4581	4581	4643	4643	4643	4643	4643	4643	4643	4643	4581	4581	6592	6349	6235	6235	6235	6235	6235	6124	6124	6124	6235	6124	6124	6124	6124	6124	6124	6124	6124	6124	6124	6124	6124	6235	6235	6235	6235	6235	6124	6124	6124	6124	6124	6235	6235	6235	6349	6349	6349	6349	6349	6235	6235	6235	6124	6124	6018	6018	0	0	0	0	0	0	0	0	0	0	0	0	0	0	0	0	0	0	0	0	0	0	0	0	0	0	0	0	0	0	0	0	0	0	0	0	0	0	0	0	0	0	0	0	0	0	0	0	0	0	0	0	0	0	0	0	0	0	0	0	0	0	0	0	0	0	0	0	0	0	0	0	0	0	0	0	0	0	0	0	0	0	0	0	0	0	0	0	0	4463	4521	4463	4463	4463	4463	4463	4463	4406	4406	4406	4406	4406	4463	4463	4463	4463	4463	4463	4463	4463	4463	4463	4463	4463	4463	4463	4521	4521	4521	4581	4521	4521	4521	4463	4463	4463	4406	4350	4350	4406	4406	4406	4350	4350	4350	4350	3698	3698	3659	3659	3621	3621	3621	3621	3621	3621	3621	3583	3583	3621	3621	3621	3621	3621	3621	3659	0	0	0	0	0	3659	3698	3698	3698	3698	3659	3659	3659	3659	3659	3659	3621	3659	3659	3659	3659	3659	3659	3659	3659	3659	3698	4521	4463	4406	4406	4406	4406	4406	4406	4406	4350	4350	4350	4350	4350	4350	4350	4350	4350	4350	4350	4350	4296	4296	4296	4296	4296	4350	4350	4350	4350	4350	4296	4350	4296	4296	4350	4350	4350	4350	4350	4350	4350	4350	4350	4350	4350	4350	4350	4350	4350	4350	4350	4350	4350	4406	4406	4406	4406	4406	4350	4350	4350	4350	4350	4406	4406	4406	4406	4406	4406	4406	4406	4350	4350	4350	4350	4350	4350	4350	4350	4350	4350	4350	4350	4350	4350	4350	4350	4350	4296	4296	0	0	0	2460	2443	2460	2478	2478	2478	2478	2478	2478	2478	2478	2460	2443	2443	2443	2443	2443	2443	2426	2443	2426	2426	2426	2426	2426	2426	2426	2426	2426	2409	2409	2409	2409	2392	2392	2392	2409	2426	2426	2443	2443	2443	2443	2443	2443	2460	2443	2443	2443	0	0	0	0	0	0	0	0	0	0	0	0	0	0	0	0	0	0	0	0	0	0	0	0	0	0	0	0	0	0	0	0	0	0	0	2532	2514	2514	2514	2496	2496	2478	2443	2443	2426	2409	2409	2392	2392	2376	2376	2376	2343	2327	2312	2312	2312	2297	2281	2266	2252	2252	2252	2223	2208	2208	2208	2208	2194	2181	2167	2167	2153	2153	2140	2140	2140	2114	2101	2101	2101	2088	2088	2076	2039	2015	2003	1992	1992	1980	1980	1969	1958	1947	1936	1925	1925	1915	1904	1894	1894	1883	1883	1873	1863	1853	1833	1833	1824	1824	1814	1804	1804	1795	1795	1786	1777	1786	1759	1750	1732	1732	1723	1723	1723	1723	1723	1715	1715	1690	1681	1673	1673	0	0	0	0	0	0	0	0	0	0	0	0	0	0	0	0	0	0	0	0	0	0	0	0	0	0	0	0	0	0	0	0	0	0	0	0	0
0	0	0	0	0	0	0	0	0	0	0	0	0	0	0	0	0	0	0	1618	1618	1618	1618	1626	1626	1626	1626	1626	1690	1681	1681	1681	3406	3406	3406	3440	3406	3406	3406	3406	3406	3406	3406	3406	3373	3373	3309	3309	0	0	0	0	0	0	0	4643	4643	4581	4581	4581	4581	4581	4581	4581	4581	4581	4581	4521	4521	4581	4581	4581	4581	4581	4581	4581	4643	4643	4643	4643	4643	4581	4643	4643	4581	4581	4643	4643	4643	4581	4581	4643	4643	4643	4581	4581	6592	6349	6349	6235	6235	6235	6235	6124	6124	6124	6124	6124	6124	6018	6124	6124	6124	6124	6124	6124	6124	6124	6235	6235	6235	6235	6235	6235	6235	6235	6235	6235	6235	6235	6235	6235	6349	6349	6349	6349	6235	6235	6235	6235	6124	6124	6124	6018	0	0	0	0	0	0	0	0	0	0	0	0	0	0	0	0	0	0	0	0	0	0	0	0	0	0	0	0	0	0	0	0	0	0	0	0	0	0	0	0	0	0	0	0	0	0	0	0	0	0	0	0	0	0	0	0	0	0	0	0	0	0	0	0	0	0	0	0	0	0	0	0	0	0	0	0	0	0	0	0	0	0	0	0	0	0	0	4521	4463	4521	4521	4463	4463	4463	4463	4463	4463	4406	4406	4406	4406	4406	4406	4463	4463	4463	4463	4463	4463	4463	4463	4463	4463	4463	4463	4463	4521	4521	4581	4643	4581	4581	4521	4521	4463	4463	4406	4406	4350	4406	4406	4406	4350	4350	4350	4350	3698	3698	3659	3621	3621	3583	3583	3621	3583	3583	3583	3583	3583	3621	3621	3621	3621	3621	3621	0	0	0	0	0	0	3659	3698	3698	3659	3659	3659	3659	3659	3621	3621	3621	3583	3583	3621	3621	3621	3621	3659	3621	3659	3659	3659	3659	4463	4406	4406	4350	4406	4406	4406	4350	4350	4350	4350	4350	4350	4350	4350	4350	4350	4350	4350	4350	4296	4296	4296	4296	4296	4350	4350	4350	4350	4350	4296	4296	4296	4296	4296	4350	4350	4350	4350	4350	4350	4350	4350	4350	4350	4350	4296	4296	4350	4350	4350	4350	4406	4406	4406	4406	4406	4406	4406	4350	4350	4350	4350	4406	4406	4406	4406	4406	4406	4406	4406	4406	4350	4406	4406	4350	4350	4350	4406	4350	4350	4350	4350	4350	4350	4350	4350	4350	4350	4296	4296	0	0	0	2460	2460	2478	2478	2478	2478	2478	2478	2478	2460	2460	2443	2443	2426	2443	2443	2426	2409	2426	2426	2409	2426	2409	2409	2426	2426	2426	2426	2426	2409	2409	2409	2409	2409	2409	2409	2426	2426	2443	2443	2443	2443	2460	2443	2460	2443	2443	2443	0	0	0	0	0	0	0	0	0	0	0	0	0	0	0	0	0	0	0	0	0	0	0	0	0	0	0	0	0	0	0	0	0	0	0	2532	2532	2514	2514	2496	2496	2478	2443	2426	2426	2409	2392	2392	2392	2376	2376	2359	2343	2327	2327	2312	2312	2297	2281	2266	2252	2252	2252	2223	2208	2208	2208	2208	2194	2181	2167	2167	2153	2153	2153	2140	2140	2127	2114	2101	2101	2088	2088	2076	2039	2015	2003	1992	1992	1992	1992	1980	1958	1958	1936	1925	1915	1915	1904	1894	1883	1883	1873	1873	1863	1853	1833	1833	1824	1824	1814	1804	1804	1795	1786	1786	1777	1777	1759	1750	1732	1732	1723	1732	1723	1723	1723	1715	1706	1690	1681	1673	1673	0	0	0	0	0	0	0	0	0	0	0	0	0	0	0	0	0	0	0	0	0	0	0	0	0	0	0	0	0	0	0	0	0	0	0	0	0
0	0	0	0	0	0	0	0	0	0	0	0	0	0	0	0	0	1596	1603	1603	1626	1626	1618	1618	1641	1649	1657	1657	1657	1665	1673	1665	1665	0	0	3440	3440	3440	3406	3406	3406	3406	3406	3373	3373	3341	3309	3309	3246	3246	0	0	0	0	0	4643	4643	4581	4521	4581	4581	4581	4521	4521	4521	4581	4521	4521	4581	4581	4643	4581	4581	4581	4581	4581	4643	4643	4643	4643	4643	4643	4643	4643	4581	4581	4643	4643	4643	4581	4581	4581	4643	4643	4581	4581	6592	6349	6349	6349	6349	6235	6235	6124	6124	6124	6124	6018	6018	5915	5915	5915	6018	6018	6018	6018	6124	6235	6235	6235	6235	6349	6235	6235	6235	6235	6235	6235	6235	6235	6235	6235	6349	6349	6349	6235	6235	6124	6235	6235	6235	6124	6124	0	0	0	0	0	0	0	0	0	0	0	0	0	0	0	0	0	0	0	0	0	0	0	0	0	0	0	0	0	0	0	0	0	0	0	0	0	0	0	0	0	0	0	0	0	0	0	0	0	0	0	0	0	0	0	0	0	0	0	0	0	0	0	0	0	0	0	0	0	0	0	0	0	0	0	0	0	0	0	0	0	0	0	0	0	0	0	4521	4521	4521	4521	4521	4463	4463	4463	4463	4463	4406	4406	4406	4406	4406	4406	4463	4463	4463	4463	4463	4463	4463	4463	4463	4463	4521	4521	4521	4521	4521	4581	4581	4643	4643	4581	4521	4521	4463	4463	4406	4406	4406	4406	4406	4406	4406	4350	4406	4463	3659	3659	3621	3583	3583	3583	3583	3583	3583	3583	3583	3583	3583	3621	3621	3621	3621	3583	3583	0	0	0	0	0	0	3659	3698	3698	3659	3659	3659	3659	3621	3583	3583	3583	3583	3621	3621	3621	3659	3621	3659	3621	3621	3621	3621	3621	4406	4406	4350	4350	4350	4350	4350	4350	4350	4350	4350	4350	4350	4350	4350	4350	4350	4350	4350	4350	4296	4296	4296	4296	4350	4350	4350	4350	4350	4350	4296	4296	4296	4296	4296	4350	4296	4350	4296	4296	4296	4350	4350	4350	4350	4350	4296	4350	4350	4350	4350	4350	4406	4406	4406	4406	4406	4406	4406	4350	4350	4350	4350	4350	4350	4406	4406	4406	4406	4406	4406	4406	4350	4406	4406	4350	4350	4350	4350	4350	4350	4350	4350	4350	4350	4350	4350	4350	4350	4350	4350	0	0	0	2460	2478	2478	2478	2478	2478	2478	2478	2478	2460	2460	2443	2443	2426	2426	2426	2426	2426	2443	2426	2426	2426	2426	2426	2426	2426	2426	2426	2426	2409	2409	2409	2392	2392	2392	2409	2409	2426	2443	2443	2443	2443	2443	2443	2443	2443	2443	0	0	0	0	0	0	0	0	0	0	0	0	0	0	0	0	0	0	0	0	0	0	0	0	0	0	0	0	0	0	0	0	0	0	0	0	2514	2514	2514	2496	2496	2478	2460	2443	2426	2426	2409	2392	2392	2392	2376	2359	2359	2343	2327	2327	2312	2312	2297	2281	2266	2252	2252	2252	2223	2223	2208	2208	2208	2194	2181	2181	2167	2167	2153	2153	2140	2140	2114	2101	2101	2088	2088	2088	2076	2063	2015	2003	1992	1992	1992	1980	1969	1958	1958	1936	1925	1925	1915	1904	1894	1883	1883	1873	1873	1873	1863	1843	1833	1824	1824	1814	1804	1804	1795	1786	1777	1777	1777	1759	1750	1732	1732	1723	1723	1723	1723	1715	1706	1706	1690	1681	1673	1673	0	0	0	0	0	0	0	0	0	0	0	0	0	0	0	0	0	0	0	0	0	0	0	0	0	0	0	0	0	0	0	0	0	0	0	0	0
