0	0	0	0	0	0	0	0	0	0	0	0	0	0	0	0	0	0	0	0	0	0	0	0	0	0	0	0	0	0	0	0	0	0	0	0	0	0	0	0	0	0	0	0	0	0	0	0	0	0	0	0	0	0	0	0	0	0	0	0	0	0	0	0	0	0	0	0	0	0	0	0	0	0	0	0	0	0	4521	4463	4463	4463	4463	4463	4463	4406	4463	4463	4463	4463	4463	4463	4463	4406	4406	4406	4406	4463	4463	4463	4463	4406	4463	4463	4463	4463	4463	0	0	0	0	0	0	0	0	4977	4977	5125	5125	5125	5202	5202	5202	5202	5202	5202	5202	5282	5202	5202	5202	5202	5202	5202	5202	5202	5202	5282	5202	5282	5282	5282	5202	5202	5202	5202	5202	5202	5282	5364	5448	5448	5535	5535	5626	5626	5626	5719	5719	5719	5626	5626	5719	5719	5626	5719	5719	5719	5626	5626	5626	5626	5626	5626	5626	5626	5626	5719	5719	5719	5719	5815	5815	5815	5719	5719	5719	5719	5719	5719	5719	5719	5719	5719	5719	5815	5815	5815	5719	5719	0	0	0	0	0	0	0	0	0	0	0	5719	5626	5626	0	0	0	0	0	5915	5915	5915	6018	5915	5915	5815	5815	0	0	0	0	0	0	0	5719	5719	5719	5626	5719	5719	5626	5719	5719	5719	5719	5719	5719	5719	5719	5719	5719	5719	5719	5719	5719	5719	5719	5719	5719	5719	5719	5626	5626	5719	5719	5719	5719	5719	5719	5719	5719	5719	5719	5626	5719	5719	5719	5719	5719	5719	5719	5719	5719	5719	5719	5719	5719	5719	5719	5719	5719	5719	5626	5719	5719	5719	5719	5626	5719	5719	5719	5719	5719	5719	5719	5719	5719	5719	5719	5719	5719	5719	5719	5719	5815	5815	5815	5815	5815	5815	5815	5815	5815	5815	5815	5815	5815	5815	5815	5815	5815	5815	5719	5719	5815	5815	5815	5719	5719	5815	5719	5719	5719	5719	5719	5719	5719	5815	5815	5815	5815	5815	5815	5815	5815	5815	5719	5719	5719	5719	5719	5815	5815	5815	0	0	0	0	0	0	0	0	0	0	0	0	0	0	0	0	0	0	0	0	0	0	0	0	0	0	0	0	0	0	0	0	0	0	0	0	0	0	0	0	0	0	5815	5815	5815	5815	0	0	5815	5815	5719	5719	5719	5719	5719	5719	5719	5719	5719	5719	5719	5719	5719	5719	5719	5815	5719	5719	5719	5815	5815	5815	5915	5915	5915	5915	5915	5915	5915	5815	5815	5915	5915	5915	5915	5915	5915	5915	5915	5915	5915	5915	5915	5915	5915	5915	5915	5915	5915	6018	6018	6018	5915	5915	5915	5915	5915	5815	5915	5915	5915	5915	5915	5915	5915	5915	5915	5815	5815	5815	5815	5815	5815	5815	5915	5915	5915	5915	5915	5915	5915	5915	5915	5915	5915	5915	5915	5915	5915	5915	5915	5915	5915	0	0	0	0	0	0	0	5915	5815	5815	5815	5815	5815	5815	5815	5915	5915	5915	5915	5915	0	0	0	0	0	0	0	0	0	0	0	0	0	0	0	0	0	0	0	0	0	0	0	0	0	0	5719	5815	5815	5815	5719	5815	5815	5815	0	7608	7608	7779	7608	7608	6018	5915	5915	5915	0	0	0	0	0	0	0	0	0	0	5915	5719	5815	5719	5815	5815	5719	5626	5626	5626	5626	5626	5626	5626	5626	5626	0	0	0	5719	5626	5719	5719	5815	5815	0	0	0	0	0	0	0	0	0	0	0	0	0	0	0	0	0	0	0	0	0	0	0	0	0	0	0	0	0	0	0	0	0	0
0	0	0	0	0	0	0	0	0	0	0	0	0	0	0	0	0	0	0	0	0	0	0	0	0	0	0	0	0	0	0	0	0	0	0	0	0	0	0	0	0	0	0	0	0	0	0	0	0	0	0	0	0	0	0	0	0	0	0	0	0	0	0	0	0	0	0	0	0	0	0	0	0	0	0	0	0	4463	4463	4463	4463	4406	4463	4463	4406	4406	4463	4521	4521	4521	4463	4463	4463	4406	4406	4406	4463	4463	4463	4463	4463	4463	4463	4463	4463	4521	4521	0	0	0	0	0	0	0	4838	4906	4977	5050	5125	5125	5125	5202	5202	5202	5202	5202	5202	5202	5282	5202	5202	5282	5282	5282	5202	5202	5202	5202	5202	5202	5202	5202	5202	5202	5202	5202	5202	5202	5282	5364	5448	5448	5535	5535	5626	5626	5719	5815	5815	5815	5719	5719	5815	5719	5719	5719	5719	5815	5626	5626	5626	5626	5626	5626	5626	5719	5719	5719	5815	5719	5719	5815	5915	5815	5815	5815	5815	5815	5719	5719	5719	5719	5815	5815	5815	5815	5815	5815	5815	5815	0	0	0	0	0	0	0	6018	5915	5915	5815	5719	5719	5719	5719	5815	5815	5915	5915	5915	5915	5915	5915	5915	5815	5815	5915	5915	5915	5815	5915	5815	5815	5815	5815	5815	5915	5815	5719	5719	5719	5719	5719	5719	5719	5719	5719	5719	5719	5719	5719	5719	5719	5719	5719	5719	5719	5719	5719	5719	5719	5719	5719	5719	5719	5719	5719	5719	5719	5719	5719	5719	5719	5719	5719	5719	5719	5719	5719	5719	5719	5719	5719	5719	5719	5719	5719	5815	5719	5719	5719	5719	5719	5719	5719	5719	5719	5719	5719	5719	5719	5719	5719	5719	5719	5719	5719	5719	5719	5815	5719	5719	5719	5719	5815	5815	5815	5815	5815	5815	5815	5815	5815	5815	5815	5815	5815	5815	5815	5815	5815	5815	5815	5815	5815	5815	5815	5815	5815	5815	5719	5719	5719	5815	5719	5719	5815	5815	5815	5815	5815	5815	5815	5815	5815	5815	5815	5815	5815	5815	5815	5815	5915	6018	5915	5915	0	0	0	0	0	0	0	0	0	0	0	0	0	0	0	0	0	0	0	0	0	0	0	0	0	0	0	0	0	0	0	0	0	0	0	0	0	0	5915	5815	5719	5719	5815	5815	5815	5815	5815	5815	5815	5815	5815	5719	5719	5719	5719	5815	5815	5815	5815	5815	5815	5719	5815	5815	5815	5815	5815	5815	5815	5815	5915	5915	5915	5915	5915	5915	5915	5915	5915	5915	5915	5915	6018	6018	6018	6018	5915	5915	5915	5915	5915	5915	5915	5915	5915	5915	5915	5915	5915	5915	5915	5915	5915	5915	5915	5915	5915	5915	5915	5915	5915	5915	5915	5915	5915	5915	5915	5915	5915	5915	5915	5915	5915	5915	5915	5915	5915	5915	5915	5915	5915	5915	5915	5915	5915	5915	5915	5915	5915	5915	5915	5915	0	0	0	0	0	5915	5915	5915	5915	5915	5815	5815	5915	5915	5915	5915	5915	5915	5915	0	0	0	0	0	0	0	0	0	0	0	0	0	0	0	0	0	0	0	0	0	0	0	0	0	0	5815	5815	5815	5815	5815	5815	5815	5815	7444	7444	7444	7779	7608	6018	6018	5915	5915	5915	5915	0	0	0	0	0	0	0	0	5915	5915	5719	5815	5815	5815	5815	5815	5719	5719	5626	5626	5626	5626	5626	5626	5626	0	0	0	5719	5626	5719	5719	5719	5719	0	0	0	0	0	0	0	0	0	0	0	0	0	0	0	0	0	0	0	0	0	0	0	0	0	0	0	0	0	0	0	0	0	0
0	0	0	0	0	0	0	0	0	0	0	0	0	0	0	0	0	0	0	0	0	0	0	0	0	0	0	0	0	0	0	0	0	0	0	0	0	0	0	0	0	0	0	0	0	0	0	0	0	0	0	0	0	0	0	0	0	0	0	0	0	0	0	0	0	0	0	0	0	0	0	0	0	0	0	0	0	4463	4521	4463	4463	4463	4463	4463	4463	4463	4521	4521	4521	4521	4463	4463	4463	4406	4463	4406	4463	4463	4463	4463	4463	4463	4463	4463	4521	4521	4521	4521	4581	4581	0	0	0	0	4838	4977	4977	5050	5125	5125	5202	5202	5202	5202	5202	5202	5202	5202	5202	5202	5202	5202	5202	5282	5202	5202	5202	5202	5202	5202	5202	5202	5202	5202	5202	5202	5202	5202	5282	5364	5448	5448	5535	5535	5626	5626	5626	5815	5915	5815	5815	5815	5815	5815	5815	5815	5815	5815	5719	5719	5719	5626	5719	5626	5626	5719	5815	5815	5815	5815	5915	5915	5915	5915	5915	5915	5915	5815	5815	5815	5815	5815	5815	5815	5915	5915	5915	5915	5815	5915	6018	6018	6018	6018	6124	6124	6124	6018	6018	6018	5915	5815	5815	5815	5815	5915	5915	5915	5915	5915	5915	5915	5915	5915	5815	5815	5915	5815	5815	5815	5815	5815	5915	5915	5815	5915	6018	5915	5915	5815	5719	5719	5719	5719	5719	5719	5719	5719	5719	5719	5719	5719	5719	5815	5719	5719	5719	5815	5815	5719	5719	5815	5815	5815	5815	5815	5815	5815	5719	5815	5815	5815	5815	5719	5719	5815	5719	5719	5719	5719	5719	5719	5719	5719	5719	5719	5719	5815	5719	5719	5719	5719	5719	5815	5719	5719	5719	5719	5719	5719	5719	5719	5719	5719	5719	5815	5815	5719	5719	5719	5719	5719	5719	5719	5719	5815	5815	5815	5815	5815	5815	5815	5815	5815	5815	5815	5815	5815	5815	5815	5815	5815	5815	5815	5815	5815	5815	5815	5815	5815	5719	5719	5719	5815	5815	5815	5815	5815	5815	5815	5815	5815	5815	5815	5815	5815	5815	5815	5815	5815	5815	5815	5915	6018	6018	5915	5915	0	0	0	0	0	0	0	0	0	0	0	0	0	0	0	0	0	0	0	0	0	0	0	0	0	0	0	0	5815	5815	5915	5915	0	0	0	0	5815	5815	5815	5719	5719	5719	5815	5815	5815	5815	5815	5815	5815	5815	5815	5815	5815	5815	5815	5815	5815	5815	5815	5815	5815	5815	5815	5815	5815	5815	5815	5815	5815	5915	5915	5915	5915	5915	5915	5915	5915	5915	5915	5915	5915	6124	6124	6124	6018	5915	5915	5915	5915	5915	5915	5915	5915	5915	5915	5915	5915	5915	5915	5915	5915	5915	5915	5915	5915	5915	5915	5915	5915	6018	5915	5915	5915	5915	5915	5915	5915	5915	5915	5915	5915	5915	5915	5915	5915	5915	5915	5915	5915	5915	5915	5915	5915	5915	5915	5915	6018	5915	6018	6018	6018	0	0	0	0	0	5915	5915	5915	5915	5915	5915	5915	6018	6018	6018	6018	6018	6018	0	0	0	0	0	0	0	0	0	0	0	0	0	0	0	0	0	0	0	0	0	0	0	0	0	5815	5815	5815	5815	5815	5815	5815	5815	5915	5915	7444	7444	7444	7608	7608	6018	6018	5915	5815	5815	5815	5815	5815	0	0	0	0	5815	5719	5719	5815	5719	5719	5815	5815	5815	5815	5719	5815	5719	5719	5626	5626	5626	5626	5626	0	5815	5815	5815	5815	5815	5815	5815	5815	0	0	0	0	0	0	0	0	0	0	0	0	0	0	0	0	0	0	0	0	0	0	0	0	0	0	0	0	0	0	0	0	0	0
0	0	0	0	0	0	0	0	0	0	0	0	0	0	0	0	0	0	0	0	0	0	0	0	0	0	0	0	0	0	0	0	0	0	0	0	0	0	0	0	0	0	0	0	0	0	0	0	0	0	0	0	0	0	0	0	0	0	0	0	0	0	0	0	0	0	0	0	0	0	0	0	0	0	0	0	0	4406	4463	4463	4463	4463	4463	4463	4406	4463	4463	4463	4521	4463	4463	4463	4463	4406	4406	4406	4463	4463	4463	4463	4463	4463	4463	4463	4521	4521	4581	4581	4581	4643	4643	0	0	0	4906	4977	4977	5125	5125	5202	5202	5202	5202	5202	5202	5202	5202	5202	5202	5202	5202	5202	5202	5202	5202	5202	5202	5202	5202	5202	5202	5202	5202	5202	5202	5202	5202	5202	5202	5282	5364	5448	5448	5535	5626	5626	5626	5815	5915	5815	5815	5815	5815	5815	5815	5815	5815	5815	5815	5719	5719	5719	5719	5626	5719	5719	5815	5915	5815	5815	5915	5915	5915	5915	5915	5815	5915	5815	5815	5815	5815	5815	5915	5915	5915	5915	5915	5915	5815	5915	5915	5915	6018	6018	6124	6124	6124	6018	6018	6018	5915	5915	5915	5915	5815	5915	5915	5915	5915	5915	5915	5915	6018	5915	5915	5915	5915	5915	5815	5815	5815	5815	5915	5915	5915	5915	5915	5915	5915	5815	5719	5719	5719	5719	5815	5815	5815	5815	5815	5815	5815	5815	5815	5815	5815	5815	5815	5815	5815	5815	5815	5815	5815	5815	5815	5815	5815	5915	5915	5915	5815	5815	5815	5815	5815	5815	5815	5815	5815	5719	5719	5815	5815	5815	5815	5815	5815	5815	5815	5815	5815	5815	5815	5815	5815	5815	5815	5719	5719	5815	5719	5719	5719	5815	5815	5815	5815	5719	5815	5815	5719	5719	5719	5719	5815	5815	5915	5915	5915	5915	5915	5915	5815	5815	5815	5815	5815	5815	5815	5815	5915	5815	5915	5815	5815	5815	5815	5815	5815	5815	5815	5815	5815	5815	5815	5815	5719	5815	5815	5815	5815	5815	5815	5815	5815	5815	5815	5815	5815	5815	5915	5915	5915	6018	6018	5915	5915	5915	5915	5915	0	0	0	5815	5815	5815	0	0	0	0	0	0	0	0	0	0	0	0	0	0	0	0	0	0	0	5815	5815	5815	5815	5815	5815	5815	5815	5719	5719	5719	5719	5719	5815	5719	5815	5815	5815	5915	5815	5815	5815	5815	5815	5815	5815	5815	5815	5815	5815	5815	5815	5815	5815	5815	5815	5815	5815	5815	5815	5815	5915	5915	6018	5915	6018	5915	6018	5915	5915	5915	6018	6124	6124	6124	6124	6018	5915	5915	5915	5915	5915	5915	5915	5915	5915	5915	5915	5915	5915	5915	5915	5915	5915	5915	5915	5915	5915	5915	6018	6018	6018	6018	6018	6018	5915	5915	6018	6018	6018	6018	6018	5915	5915	5915	5915	5915	5915	5915	5915	5915	6018	6018	6018	5915	5915	5915	5915	6018	5915	5915	6124	6124	0	0	0	0	0	5915	5915	5915	6018	5915	6018	6018	6124	6124	6124	6124	6124	6018	0	0	0	0	0	0	0	0	0	0	0	0	0	0	0	0	0	0	0	0	0	0	0	0	0	5915	5915	5915	5915	5815	5815	5815	5815	5815	7287	7287	7287	7444	7444	6235	6018	6018	5915	5815	5719	5815	5815	5815	5815	0	0	5815	5815	5719	5719	5719	5719	5719	5626	5815	5815	5815	5719	5815	5719	5719	5719	5719	5719	5815	5815	5815	5815	5815	5915	5815	5915	5815	5815	5815	0	0	0	0	0	0	0	0	0	0	0	0	0	0	0	0	0	0	0	0	0	0	0	0	0	0	0	0	0	0	0	0	0	0
0	0	0	0	0	0	0	0	0	0	0	0	0	0	0	0	0	0	0	0	0	0	0	0	0	0	0	0	0	0	0	0	0	0	0	0	0	0	0	0	0	0	0	0	0	0	0	0	0	0	0	0	0	0	0	0	0	0	0	0	0	0	0	0	0	0	0	0	0	0	0	0	0	0	0	0	4406	4406	4406	4463	4463	4463	4463	4463	4406	4463	4463	4463	4463	4463	4463	4463	4463	4406	4406	4406	4463	4463	4463	4463	4463	4463	4521	4463	4521	4521	4521	4521	4581	4643	4643	4643	4706	4706	4838	4977	4977	5202	5202	5202	5202	5202	5202	5202	5202	5202	5202	5202	5202	5202	5202	5202	5202	5202	5202	5202	5202	5202	5202	5202	5202	5202	5202	5202	5202	5202	5202	5202	5202	5282	5364	5364	5448	0	5815	5815	5626	5815	5815	5815	5815	5815	5815	5815	5815	5815	5915	5915	5915	5815	5815	5719	5719	5626	5719	5719	5815	5915	5915	5915	6018	6018	5915	5915	5915	5915	5915	5915	5815	5815	5815	5815	5915	5915	5915	5915	5915	5915	5815	5915	5915	5915	6018	6018	6018	6018	6124	6018	6018	6018	6018	5915	5915	5915	5915	5915	5915	5915	5915	5915	5915	5915	6018	5915	5915	5915	5915	5915	5915	5815	5815	5815	5915	5915	5915	5915	5915	5915	5915	5815	5815	5815	5815	5815	5815	5815	5815	5815	5815	5915	5915	5915	5915	5915	5915	5915	5915	5915	5815	5815	5815	5815	5915	5915	5915	5915	5915	5915	5815	5915	5815	5815	5815	5815	5915	5815	5815	5815	5815	5815	5815	5815	5815	5815	5815	5815	5815	5915	5815	5815	5815	5815	5815	5815	5815	5815	5815	5815	5815	5815	5815	5815	5815	5815	5815	5815	5815	5815	5815	5815	5815	5815	5815	5719	5915	5915	5915	5915	5915	5915	5915	5915	5915	5915	5915	5815	5915	5915	5915	5915	5915	5915	5915	5915	5915	5815	5915	5915	5815	5815	5815	5815	5815	5815	5815	5815	5815	5815	5815	5815	5815	5815	5815	5815	5815	5815	5815	5815	5815	5915	6018	6018	6018	6018	6018	5915	5915	5915	5915	5915	5815	5815	5815	5815	5815	5815	0	0	0	0	0	0	0	0	0	0	0	0	0	0	6018	6018	5915	5815	5815	5815	5815	5815	5815	5815	5815	5719	5815	5719	5815	5815	5815	5815	5815	5815	5815	5815	5815	5815	5815	5915	5815	5815	5915	5915	5915	5915	5915	5915	5915	5915	5815	5815	5815	5815	5815	5815	5815	5815	5915	5815	5915	5915	5915	5915	5915	5915	5915	5915	6018	6124	6124	6124	6235	6235	6235	6124	6018	6018	6018	6018	6018	5915	6018	6018	6018	5915	5915	6018	5915	6018	5915	5915	6018	6018	5915	5915	5915	5915	6018	6018	6018	6018	6018	6018	6018	6018	6018	6018	6018	6018	6018	6018	6018	6018	6018	6018	6018	6018	5915	6018	6018	6018	6018	6018	6018	6018	6018	6018	6018	6124	6124	6124	0	0	6235	6124	6124	6124	6124	6124	6124	6018	6124	6124	6235	6235	6235	6235	6235	6235	0	0	0	0	0	0	0	0	0	0	0	0	0	0	0	0	0	0	0	0	0	0	0	0	0	6018	6124	6018	5915	5915	5915	5915	5915	5915	7287	7287	7137	7287	7287	6235	6235	6018	5915	5815	5815	5915	5915	5815	5719	5719	5815	5915	5815	5719	5719	5719	5719	5719	5719	5815	5815	5719	5815	5815	5915	5815	5815	5815	5815	5815	5815	5815	5815	5815	5815	5915	5915	5915	5915	5915	0	0	0	0	0	0	0	0	0	0	0	0	0	0	0	0	0	0	0	0	0	0	0	0	0	0	0	0	0	0	0	0	0	0
0	0	0	0	0	0	0	0	0	0	0	0	0	0	0	0	0	0	0	0	0	0	0	0	0	0	0	0	0	0	0	0	0	0	0	0	0	0	0	0	0	0	0	0	0	0	0	0	0	0	0	0	0	0	0	0	0	0	0	0	0	0	0	0	0	0	0	0	0	0	0	0	0	0	0	0	4350	4406	4406	4463	4463	4463	4463	4463	4406	4463	4463	4463	4463	4463	4463	4463	4463	4406	4406	4406	4406	4406	4463	4463	4463	4463	4463	4463	4521	4521	4521	4521	4521	4581	4643	4643	4706	4771	4838	4977	5050	5202	5202	5202	5202	5202	5202	5202	5202	5202	5202	5202	5202	5202	5202	5202	5202	5202	5202	5202	5202	5202	5202	5202	5202	5202	5202	5202	5202	5202	5202	5202	5282	5282	5364	5364	0	0	5815	5815	0	5815	5815	5815	5815	5815	5915	5915	5915	5915	5915	5915	5915	5915	5915	5915	5915	5815	5815	5915	5915	5915	5915	5915	6018	5915	5915	5915	5915	5915	5915	5915	5815	5915	5915	5915	6018	6018	6018	6018	6018	5915	5915	5915	5915	6018	6018	6018	6124	6124	6124	6018	6018	6018	6018	6018	5915	5915	5915	5915	6018	6018	6018	6018	6018	6018	6018	5915	5915	5915	5915	5915	5915	5815	5815	5915	5915	6018	5915	6018	6018	6018	5915	5915	5815	5815	5815	5815	5815	5815	5815	5915	6018	6018	6018	6018	6018	6018	5915	5915	5915	5915	5915	5915	5915	5915	6018	6018	6018	5915	5915	5915	5915	5915	5815	5915	5915	5915	5915	5915	5815	5815	5815	5815	5815	5815	5915	5915	5915	5915	5915	5915	5815	5815	5815	5815	5815	5815	5815	5815	5815	5815	5815	5815	5815	5815	5915	5915	5915	5915	5915	5915	5915	5915	5915	5915	5815	5815	5915	5915	5915	6018	5915	5915	6018	6018	6018	6018	5915	5915	5915	5915	5915	5915	5915	5915	5915	5915	5915	5915	5915	5915	5915	5915	5915	5915	5915	5915	5915	5815	5815	5815	5815	5815	5815	5815	5815	5815	5815	5815	5815	5915	5915	5915	6018	5915	6018	6018	5915	5915	5915	5915	5815	5815	5815	5815	5815	5815	5815	5915	5915	0	0	0	0	0	0	0	0	0	6018	6018	6018	6018	6018	6018	5915	5815	5815	5815	5815	5815	5815	5815	5815	5815	5815	5815	5815	5815	5815	5719	5815	5815	5815	5815	5815	5915	5915	5915	5915	5915	5915	5915	5915	5915	5915	5915	5915	5915	5915	5915	5915	5915	5915	5915	5915	5815	5815	5815	6018	5915	5915	5915	5915	6018	6018	6018	6018	6124	6124	6235	6235	6235	6235	6124	6124	6124	6018	6018	6018	6018	6018	6018	6018	5915	6018	6018	6018	6018	5915	6018	6018	6018	5915	5915	6018	6018	6124	6124	6124	6124	6124	6124	6124	6124	6124	6018	6018	6018	6124	6018	6018	6124	6124	6124	6018	6018	6018	6018	6018	6018	6018	6018	6018	6018	6018	6018	6018	6124	6124	6124	6124	0	6235	6124	6124	6018	6124	6124	6018	6018	6124	6124	6235	6124	6235	6235	6235	6124	6124	0	0	0	0	0	5815	5815	5815	5915	5915	0	0	0	0	0	0	6018	6018	6018	0	0	0	6018	6018	6018	6124	6018	6018	5915	5915	6018	6018	6018	6124	6720	6720	6720	6720	6349	6235	6124	5915	5915	5915	5915	5915	5915	5815	5915	5915	5915	5815	5815	5815	5815	5719	5719	5719	5815	5815	5815	5815	5815	5815	5815	5719	5815	5719	5915	5815	5815	5815	5815	5915	5915	5915	5915	5915	5915	0	0	0	0	0	0	0	0	0	0	0	0	0	0	0	0	0	0	0	0	0	0	0	0	0	0	0	0	0	0	0	0	0	0
0	0	0	0	0	0	0	0	0	0	0	0	0	0	0	0	0	0	0	0	0	0	0	0	0	0	0	0	0	0	0	0	0	0	0	0	0	0	0	0	0	0	0	0	0	0	0	0	0	0	0	0	0	0	0	0	0	0	0	0	0	0	0	0	0	0	0	0	0	0	0	0	0	0	0	0	4406	4406	4463	4463	4463	4463	4463	4463	4463	4463	4463	4463	4463	4463	4463	4463	4463	4406	4406	4406	4406	4463	4463	4463	4463	4463	4463	4463	4463	4463	4521	4521	4521	4581	4581	4643	4643	4706	4838	4977	5050	5202	5202	5202	5282	5282	5282	5282	5282	5202	5282	5202	5202	5202	5202	5202	5202	5202	5202	5202	5202	5202	5202	5202	5202	5202	5202	5202	5202	5202	5282	5282	5282	5364	5364	5364	0	0	0	0	0	0	5815	5815	5815	5815	5915	5915	5915	5915	5915	5915	5915	5915	5915	5915	5915	5915	5915	5915	5915	5915	5915	5915	6018	5915	5915	5915	5915	5915	5915	5915	5915	5915	5915	5915	6018	6018	6018	6018	6018	6018	6018	6018	6018	6018	6018	6018	6018	6124	6124	6018	6018	6018	6018	6018	6018	5915	5915	5915	6018	6018	6018	6018	6018	6018	6018	5915	5915	5915	5915	5915	5915	5815	5915	5915	6018	6018	6018	6018	6018	6018	6018	5915	5815	5815	5815	5815	5815	5815	5915	6018	6018	6018	6018	6018	6018	6018	5915	5915	5915	5915	5915	5915	5915	5915	6018	6018	6018	5915	5915	5915	5915	5915	5915	5915	5915	5915	5915	5915	5815	5815	5815	5815	5815	5815	5915	5915	5915	5815	5915	5915	5815	5815	5815	5815	5815	5815	5815	5815	5815	5815	5915	5915	5915	5915	5915	6018	6018	5915	5915	5915	5915	5915	5915	5815	5815	5815	6018	6018	6018	6124	6124	6018	6124	6124	6018	6018	6018	6018	6018	6018	6018	6018	6018	6018	6018	6018	5915	5915	5915	6018	5915	5915	5915	5915	5915	6018	6018	5915	5915	5915	5915	5815	5815	5815	5815	5815	5815	5815	5915	5915	6018	6018	6018	6018	6018	6018	5915	5915	5915	5915	5915	5915	5815	5915	5815	5815	5815	5915	5915	6018	5915	5915	6018	6018	6018	5915	5915	5915	6018	6018	6018	6018	6018	6018	5915	5915	5915	5815	5815	5815	5815	5815	5815	5815	5815	5815	5815	5815	5815	5719	5815	5815	5815	5815	5815	5915	5915	6018	6018	6018	6018	6018	6018	6018	5915	5915	5915	5915	5915	5915	5915	5915	5915	6018	5915	5915	5915	5915	6018	6018	5915	6018	6018	6124	6124	6124	6124	6235	6235	6235	6124	6235	6235	6124	6124	6018	6018	6018	6124	6018	6018	6018	6018	6018	6124	6018	6018	6018	6018	6018	6018	6018	6018	6018	6018	6124	6124	6235	6235	6235	6235	6235	6124	6124	6124	6018	6018	6018	6124	6124	6018	6018	6018	6124	6124	6018	6018	6018	6124	6124	6124	6124	6124	6124	6124	6124	6124	6124	6124	6124	6235	6235	6235	6235	6235	6124	6124	6124	6124	6124	6124	6124	6235	6124	6124	6124	6235	6235	6235	0	0	0	0	5915	5815	5815	5815	5915	5915	5915	5915	6018	6018	6018	6018	6018	6018	6018	6018	6018	6124	6018	6018	6124	6124	6124	6018	5915	6018	6124	6124	6124	6124	6720	6720	6592	6592	6592	6349	6235	6018	5915	5915	5915	5915	6018	5915	5915	5915	5915	5915	5915	5915	5815	5815	5719	5719	5815	5815	5719	5815	5815	5815	5915	5815	5815	5815	5915	5915	5815	5915	5915	5915	5915	6018	6018	6018	6018	0	0	0	0	0	0	0	0	0	0	0	0	0	0	0	0	0	0	0	0	0	0	0	0	0	0	0	0	0	0	0	0	0	0
0	0	0	0	0	0	0	0	0	0	0	0	0	0	0	0	0	0	0	0	0	0	0	0	0	0	0	0	0	0	0	0	0	0	0	0	0	0	0	0	0	0	0	0	0	0	0	0	0	0	0	0	0	0	0	0	0	0	0	0	0	0	0	0	0	0	0	0	0	0	0	0	0	0	0	0	4406	4406	4463	4463	4463	4463	4463	4463	4463	4463	4463	4463	4463	4463	4463	4463	4463	4406	4406	4406	4406	4463	4463	4463	4463	4463	4463	4463	4463	4463	4463	4463	4463	4521	4581	4643	4643	4706	4706	4906	4906	5125	5202	5202	5202	5202	5202	5202	5202	5202	5202	5202	5202	5125	5202	5202	5202	5202	5202	5202	5202	5282	5202	5202	5202	5202	5202	5202	5202	5282	5282	5282	5282	5364	5364	5364	5364	0	0	0	0	0	5815	5815	5815	5815	5815	5815	5815	5915	5915	5915	5915	5915	5915	5915	5915	5915	5915	5915	5915	5915	5915	5915	6018	5915	5915	5915	5915	5915	5915	5915	5915	5915	5915	5915	6018	6018	6018	6018	6018	6018	6018	6018	6018	6018	6018	6124	6124	6124	6124	6124	6018	6018	6018	6018	6018	6018	6018	6018	6018	6018	6018	6018	6018	6018	6018	6018	6018	6018	6018	6018	6018	5915	6018	6018	6018	6018	6018	6018	6018	6018	5915	5915	5815	5815	5815	5815	5815	5915	5915	6018	6018	6018	6018	6018	6018	6018	6018	6018	6018	6018	5915	5915	5915	5915	6018	6018	5915	5915	5915	5915	5915	5915	5915	5915	5915	6018	6018	5915	5915	5915	5915	5915	5915	5915	5915	5915	5915	5915	5915	5915	5915	5915	5815	5815	5815	5815	5815	5815	5815	5815	5915	5915	5915	5915	5915	6018	6018	5915	5915	5915	5915	5915	5915	5815	5915	5915	6124	6124	6124	6124	6124	6124	6124	6124	6124	6018	6018	6018	6018	6018	6018	6018	6018	6018	6018	6018	6018	6018	6018	6018	6018	6018	6018	6018	6018	6018	6018	5915	5915	5915	5915	5815	5815	5915	5915	5915	5915	5915	6018	6018	6018	6018	6018	6018	6018	6018	6018	6018	6018	6018	6018	6018	5915	5915	5915	5915	5915	5915	5915	6018	5915	5915	6018	6018	6018	5915	5915	5915	6018	6018	6018	6018	6018	6018	6018	5915	5915	5815	5815	5815	5815	5815	5815	5815	5815	5815	5815	5815	5815	5815	5815	5815	5815	5815	5815	5915	6018	6018	6018	6018	6018	6018	6018	6018	6018	6018	6018	6018	5915	5915	5915	5915	6018	6018	6018	5915	5915	5915	6124	6124	6018	6018	6124	6124	6235	6235	6235	6235	6235	6235	6235	6235	6235	6124	6124	6124	6018	6018	6124	6018	6124	6124	6124	6124	6124	6124	6018	6018	6018	6124	6124	6124	6018	6124	6124	6124	6235	6235	6235	6235	6235	6235	6235	6124	6124	6018	6018	6018	6124	6018	6018	6018	6124	6124	6124	6124	6018	6124	6124	6124	6124	6124	6124	6018	6235	6124	6124	6124	6235	6124	6235	6235	6235	6235	6235	6124	6124	6235	6235	6124	6235	6235	6235	6235	6235	6235	6235	6235	6235	6235	6235	6235	6235	6124	6018	6018	5915	6018	5915	5915	5915	6018	6018	6018	6018	6018	6018	6018	6124	6018	6018	6018	6124	6124	6124	6124	6018	6018	6124	6235	6124	6235	6235	6235	6468	6468	6592	6124	6349	6349	6018	6018	6018	6018	6018	6018	6018	6018	6018	6018	6018	6018	5915	5915	5915	5719	5815	5815	5815	5719	5815	5815	5915	5915	5915	5915	5815	5915	5915	5915	5815	6018	5915	5915	6018	6018	6018	6018	0	0	0	0	0	0	0	0	0	0	0	0	0	0	0	0	0	0	0	0	0	0	0	0	0	0	0	0	0	0	0	0	0	0
0	0	0	0	0	0	0	0	0	0	0	0	0	0	0	0	0	0	0	0	0	0	0	0	0	0	0	0	0	0	0	0	0	0	0	0	0	0	0	0	0	0	0	0	0	0	0	0	0	0	0	0	0	0	0	0	0	0	0	0	0	0	0	0	0	0	0	0	0	0	0	0	0	0	0	0	0	0	4463	4463	4463	4463	4463	4463	4463	4463	4463	4463	4463	4463	4463	4463	4463	4406	4406	4406	4406	4463	4463	4406	4463	4463	4463	4463	4463	4463	4463	4521	4463	4581	4643	4643	4706	4706	4771	4906	5050	5125	5202	5202	5282	5282	5282	5202	5282	5202	5202	5202	5202	5125	5125	5202	5202	5202	5202	5202	5282	5282	5282	5282	5202	5282	5202	5282	5202	5282	5282	5282	5282	5282	5364	5364	5364	0	0	0	0	0	5719	5815	5815	5815	5915	5915	5915	5915	5915	5915	5915	5915	5915	5915	5915	5915	5915	5915	5915	5915	5915	5915	6018	5915	5915	5915	5915	5915	5915	5915	5915	5915	5915	5915	6124	6124	6018	6018	6018	6018	6018	6018	6018	6018	6124	6124	6124	6124	6124	6124	6124	6018	6018	6018	6018	6018	6018	6018	6018	6018	6018	6018	6018	6018	6018	6018	6018	6018	6018	6018	6018	6018	6018	6124	6124	6124	6124	6018	6018	6018	5915	5915	5815	5815	5815	5815	5915	5915	5915	6018	6018	6018	6018	6018	6018	6018	6018	6018	6018	6018	6018	5915	5915	5915	5915	6018	6018	5915	5915	5915	5915	6018	5915	5915	6018	6018	6018	6018	5915	6018	5915	5915	5915	5915	5915	5915	5915	5915	5915	5915	5915	5915	5815	5915	5915	5915	5915	5915	5915	5915	5915	5915	5915	5915	5915	6018	6018	6018	6018	6018	6018	6018	6018	5915	6018	5915	6124	6124	6124	6124	6124	6124	6124	6124	6124	6124	6124	6018	6018	6018	6018	6124	6018	6124	6124	6124	6018	6018	6018	6124	6018	6018	6018	6018	6018	6018	6018	5915	5915	5915	5915	5915	5915	5915	5915	5915	5915	5915	6018	6018	6018	6018	6018	6124	6018	6124	6018	6018	6018	6018	6018	6018	6018	6018	5915	5915	5915	6018	5915	6018	6018	5915	6018	6018	6018	5915	6018	6018	6018	6018	6018	6018	6018	6018	6018	6018	6018	6018	5915	5915	5815	5815	5915	5815	5815	5915	5915	5915	5815	5815	5815	5915	5915	5915	5915	5915	6018	6018	6124	6124	6018	6124	6018	6018	6018	6018	6018	6018	5915	6018	6018	5915	6018	6018	6018	6018	6018	5915	6018	6018	6018	6018	6124	6124	6235	6235	6235	6235	6235	6235	6235	6235	6235	6124	6124	6124	6124	6124	6124	6124	6124	6124	6124	6124	6124	6124	6124	6124	6124	6124	6124	6124	6124	6124	6235	6235	6235	6235	6235	6235	6235	6235	6349	6349	6124	6018	6018	6018	6124	6018	6018	6018	6018	6124	6124	6124	6124	6124	6124	6124	6124	6124	6124	6124	6124	6124	6124	6235	6235	6235	6235	6235	6235	6235	6235	6124	6124	6235	6235	6124	6235	6235	6235	6235	6235	6235	6235	6235	6235	6235	6235	6235	6235	6235	6124	6124	6124	6124	6124	6018	6018	6124	6124	6124	6018	6018	6018	6018	6124	6124	6124	6124	6124	6124	6124	6124	6124	6124	6235	6235	6124	6124	6124	6349	6235	6235	6124	6124	6235	6235	6018	6018	6018	6124	6018	6018	6018	6018	6018	6018	6018	6018	6018	6018	5915	5915	5915	5915	5915	5815	5915	5915	5915	5915	5815	5915	5915	5915	5915	5915	5815	5915	6018	6018	6018	6018	6018	6018	0	0	0	0	0	0	0	0	0	0	0	0	0	0	0	0	0	0	0	0	0	0	0	0	0	0	0	0	0	0	0	0	0	0
0	0	0	0	0	0	0	0	0	0	0	0	0	0	0	0	0	0	0	0	0	0	0	0	0	0	0	0	0	0	0	0	0	0	0	0	0	0	0	0	0	0	0	0	0	0	0	0	0	0	0	0	0	0	0	0	0	0	0	0	0	0	0	0	0	0	0	0	0	0	0	0	0	0	0	0	0	0	4463	4406	4463	4463	4463	4463	4463	4463	4463	4463	4463	4463	4463	4463	4463	4406	4406	4406	4406	4406	4406	4406	4463	4463	4463	4463	4463	4463	4463	4521	4463	4581	4643	4643	4706	4706	4706	4906	5050	5125	5202	5202	5282	5282	5282	5282	5282	5202	5202	5202	5202	5202	5202	5202	5202	5202	5202	5202	5282	5282	5282	5282	5202	5282	5202	5202	5202	5282	5202	5282	5282	5364	5364	5448	5448	5626	5626	5626	5626	0	5719	5719	5815	5815	5915	5915	5915	5915	5915	5915	6018	5915	5915	5915	5915	5915	5915	5915	5915	5915	5915	5915	6018	6018	5915	5915	5915	5915	5915	5915	5915	5915	5915	5915	6124	6124	6124	6018	6018	6018	6018	6018	6018	6018	6124	6124	6124	6124	6124	6124	6124	6124	6124	6124	6124	6124	6124	6124	6124	6018	6124	6018	6018	6018	6018	6018	6018	6018	6018	6018	6124	6124	6124	6124	6124	6124	6124	6018	6018	6018	5915	5915	5915	5815	5815	5815	5915	5915	5915	6018	6018	6018	6018	6018	6018	6018	6018	6018	6018	6018	6018	5915	5915	5915	6018	6018	6018	6018	6018	6018	6018	6018	6018	6018	6018	6018	6018	6018	6018	6018	6018	6018	6018	6018	6018	6018	6018	5915	5915	5915	5915	5915	5815	5915	5915	5915	5915	5915	5915	5915	5915	5915	5915	5915	5915	6018	6018	6018	6018	6018	6018	6124	6018	6018	6018	6018	6124	6124	6124	6124	6124	6124	6124	6124	6124	6124	6124	6124	6124	6018	6124	6124	6124	6124	6124	6124	6124	6124	6018	6018	6124	6018	6018	6018	6018	6018	6018	6018	6018	6018	6018	6018	6018	6018	6018	6018	6018	6018	6018	6018	6124	6018	6124	6124	6124	6124	6124	6124	6124	6124	6018	6018	6018	6018	6018	6018	6018	6018	6018	6018	6018	6018	6018	6018	6018	6018	6018	6018	6018	6018	6018	6018	6124	6124	6124	6018	6018	6018	5915	5915	5915	5915	6018	5915	5915	6018	6018	6018	5915	5915	5915	5915	5915	6018	5915	6018	6018	6124	6124	6124	6018	6124	6018	6018	6018	6018	6018	6018	6018	6018	6018	6018	6018	6018	6018	6018	6018	6018	6124	6018	6018	6018	6124	6235	6235	6235	6235	6235	6235	6235	6235	6235	6124	6124	6124	6124	6124	6124	6124	6124	6124	6124	6124	6124	6124	6124	6124	6124	6124	6124	6235	6235	6235	6235	6235	6235	6235	6235	6235	6235	6235	6235	6349	6349	6124	6124	6349	6349	6235	6235	6124	6124	6124	6124	6124	6124	6124	6124	6235	6235	6235	6235	6235	6235	6124	6124	6235	6235	6349	6349	6235	6235	6235	6235	6235	6124	6235	6124	6235	6235	6235	6235	6235	6235	6235	6235	6235	6235	6235	6235	6235	6235	6235	6235	6124	6124	6124	6124	6124	6124	6124	6124	6124	6124	6018	6018	6018	6018	6124	6124	6018	6018	6018	6124	6124	6124	6124	6124	6235	6235	6235	6124	6124	6235	6124	6124	6018	6018	6124	6124	6124	6124	6124	6124	6018	6018	6018	6018	6018	6018	6018	6018	6018	6018	6018	6018	6018	5915	5915	5915	5915	5915	5915	5915	5915	5915	6018	6018	5915	5915	5915	5915	5915	5915	6018	6018	6124	6124	0	0	0	0	0	0	0	0	0	0	0	0	0	0	0	0	0	0	0	0	0	0	0	0	0	0	0	0	0	0	0	0	0	0
0	0	0	0	0	0	0	0	0	0	0	0	0	0	0	0	0	0	0	0	0	0	0	0	0	0	0	0	0	0	0	0	0	0	0	0	0	0	0	0	0	0	0	0	0	0	0	0	0	0	0	0	0	0	0	0	0	0	0	0	0	0	0	0	0	0	0	0	0	0	0	0	0	0	0	0	0	0	0	4406	4406	4406	4406	4406	4463	4463	4463	4463	4463	4463	4463	4406	4406	4406	4406	4406	4406	4406	4406	4406	4463	4463	4463	4463	4463	4463	4463	4581	4521	4581	4643	4706	4706	4706	4706	4906	5050	5050	5202	5202	5282	5282	5282	5282	5282	5282	5282	5202	5202	5202	5202	5202	5202	5202	5202	5202	5282	5282	5282	5282	5202	5202	5202	5202	5202	5202	5202	5282	5282	5364	5448	5535	5535	5535	5535	5626	5626	5626	5719	5719	5719	5915	5915	5915	5915	5915	5915	5915	6018	5915	5915	5915	5915	5915	5915	6018	5915	5915	5915	5915	6018	6018	5915	5915	5915	5915	5915	5915	5915	5915	5915	5915	5915	6124	6124	6018	6124	6124	6124	6124	6124	6124	6124	6124	6124	6124	6124	6124	6124	6124	6124	6124	6124	6124	6124	6124	6124	6018	6124	6124	6124	6018	6018	6018	6018	6018	6018	6124	6124	6124	6235	6124	6124	6124	6124	6018	6018	6018	6018	5915	5915	5915	5915	5915	5915	6018	6018	6018	6018	6018	6018	6018	6018	6018	6018	6018	6018	6018	6018	5915	5915	5915	5915	6018	5915	5915	6018	6018	6018	6018	6018	6018	6018	6018	6018	6018	6018	6018	6018	6018	6018	6018	6018	6018	6018	6018	6018	6018	6018	6018	6018	6018	6018	6018	6018	5915	5915	5915	6018	5915	6018	5915	6018	6018	6018	6018	6124	6018	6124	6124	6018	6018	6018	6018	6124	6124	6124	6124	6124	6124	6124	6124	6124	6124	6124	6124	6124	6124	6124	6124	6124	6124	6124	6124	6124	6124	6124	6124	6124	6124	6124	6124	6124	6124	6018	6018	6018	6018	6018	6018	6018	6124	6124	6018	6018	6018	6124	6124	6124	6124	6124	6124	6124	6124	6124	6124	6018	6018	6018	6018	6018	6018	6018	6018	6018	6018	6018	6124	6124	6124	6124	6124	6124	6124	6124	6018	6018	6124	6124	6124	6124	6124	6124	6124	6124	6124	6018	6018	5915	6018	6018	6018	6018	6018	6018	6018	6018	6018	6018	6018	6018	6018	5915	6018	6018	6018	6124	6124	6124	6124	6018	6018	6018	6018	6018	6018	6018	6018	6018	6124	6124	6124	6124	6124	6124	6018	6124	6124	6124	6124	6235	6235	6235	6235	6235	6235	6235	6235	6235	6235	6235	6124	6124	6124	6124	6124	6124	6124	6124	6124	6124	6124	6124	6124	6124	6235	6124	6235	6235	6235	6235	6235	6235	6235	6235	6235	6235	6235	6235	6235	6235	6235	6235	6235	6349	6349	6235	6235	6235	6124	6235	6235	6235	6235	6124	6235	6235	6235	6235	6235	6235	6235	6235	6124	6235	6235	6235	6235	6235	6349	6235	6235	6235	6235	6235	6235	6235	6235	6235	6235	6235	6235	6235	6349	6349	6349	6235	6235	6235	6235	6235	6235	6235	6124	6235	6235	6235	6124	6124	6124	6124	6124	6018	6018	6018	6018	6124	6124	6018	6124	6124	6124	6235	6124	6124	6235	6235	6235	6235	6124	6124	6124	6124	6018	6018	6018	6018	6235	6235	6124	6124	6124	6124	6018	6018	6018	6018	6018	6018	6018	6018	6124	6018	6018	6018	5915	5915	5915	5915	5915	5915	5915	5915	5915	6018	6018	5915	5915	5915	5915	5915	5915	6018	6018	6018	6124	0	0	0	0	0	0	0	0	0	0	0	0	0	0	0	0	0	0	0	0	0	0	0	0	0	0	0	0	0	0	0	0	0	0
0	0	0	0	0	0	0	0	0	0	0	0	0	0	0	0	0	0	0	0	0	0	0	0	0	0	0	0	0	0	0	0	0	0	0	0	0	0	0	0	0	0	0	0	0	0	0	0	0	0	0	0	0	0	0	0	0	0	0	0	0	0	0	0	0	0	0	0	0	0	0	0	0	0	0	0	0	0	0	0	4406	4406	4406	4406	4463	4463	4463	4463	4463	4463	4463	4463	4406	4406	4406	4406	4406	4406	4406	4463	4463	4463	4463	4463	4463	4463	4463	4581	4521	4581	4643	4706	4706	0	0	4977	5050	5125	5202	5202	5282	5282	5282	5282	5282	5282	5282	5202	5202	5202	5202	5202	5202	5202	5282	5282	5282	5282	5282	5282	5282	5282	5202	5282	5202	5282	5282	5282	5282	5364	5448	5535	5535	5626	5626	5626	5626	5626	5719	5719	5719	5915	5915	6018	6018	6018	6018	6018	6018	6018	5915	5915	5915	6018	6018	6018	6018	5915	5915	5915	5915	5915	5915	5915	5915	5915	6018	5915	5915	5915	5915	5915	5915	6124	6124	6124	6124	6124	6124	6124	6124	6124	6235	6235	6235	6235	6235	6235	6235	6235	6235	6124	6124	6124	6124	6235	6235	6235	6235	6124	6124	6124	6124	6124	6124	6124	6124	6124	6124	6124	6235	6235	6124	6124	6124	6124	6124	6018	6018	6018	5915	5915	5915	5915	6018	6018	6018	6018	6018	6018	6018	6018	6018	6018	6018	6124	6018	6018	6018	6018	6018	6018	6018	6018	6018	6018	6018	6018	6018	6018	6018	6124	6124	6124	6124	6124	6018	6018	6018	6018	6018	6018	6018	6018	6018	6018	6018	6018	6018	6018	6018	6018	6018	6018	6018	6018	6018	6018	6018	6018	6018	6018	6018	6018	6018	6124	6124	6124	6124	6124	6124	6018	6124	6124	6124	6124	6124	6124	6124	6124	6124	6124	6124	6124	6124	6124	6124	6124	6124	6124	6124	6124	6124	6124	6124	6124	6124	6124	6124	6124	6124	6124	6124	6124	6124	6018	6124	6018	6018	6124	6124	6124	6124	6124	6124	6124	6124	6124	6124	6124	6124	6124	6124	6124	6124	6124	6124	6124	6124	6124	6018	6018	6124	6018	6124	6124	6124	6124	6124	6124	6124	6124	6124	6124	6124	6018	6124	6124	6124	6124	6124	6124	6124	6124	6124	6124	6124	6018	6018	6018	6018	6018	6018	6018	6018	6018	6018	6018	5915	6018	6018	6018	6018	6018	6018	6124	6124	6124	6124	6124	6018	6018	6018	6018	6018	6018	6018	6124	6124	6124	6124	6124	6124	6124	6124	6018	6124	6235	6124	6235	6235	6235	6235	6349	6349	6235	6349	6235	6235	6235	6235	6235	6235	6124	6124	6235	6235	6235	6124	6124	6124	6124	6124	6124	6235	6235	6235	6235	6235	6235	6235	6235	6235	6235	6235	6235	6235	6235	6235	6349	6349	6349	6349	6349	6349	6349	6235	6235	6235	6235	6235	6235	6235	6235	6235	6235	6235	6235	6235	6235	6124	6235	6235	6124	6235	6235	6235	6349	6235	6349	6349	6349	6349	6349	6349	6235	6235	6235	6235	6235	6235	6235	6349	6349	6349	6349	6349	6349	6235	6235	6235	6235	6235	6235	6235	6235	6235	6235	6235	6235	6235	6235	6124	6124	6124	6124	6235	6124	6235	6124	6235	6235	6235	6235	6235	6235	6235	6235	6235	6124	6124	6124	6124	6018	6018	6018	6018	6349	6349	6349	6349	6124	6018	6018	6018	6018	6018	6018	6124	6124	6124	6235	6124	6124	6124	6018	6018	6018	5915	5915	5915	5915	5915	6018	5915	5915	5915	5915	5915	5915	5915	6018	6018	6018	6018	0	0	0	0	0	0	0	0	0	0	0	0	0	0	0	0	0	0	0	0	0	0	0	0	0	0	0	0	0	0	0	0	0	0	0
0	0	0	0	0	0	0	0	0	0	0	0	0	0	0	0	0	0	0	0	0	0	0	0	0	0	0	0	0	0	0	0	0	0	0	0	0	0	0	0	0	0	0	0	0	0	0	0	0	0	0	0	0	0	0	0	0	0	0	0	0	0	0	0	0	0	0	0	0	0	0	0	0	0	0	0	0	0	0	4406	4406	4406	4406	4463	4463	4463	4463	4463	4463	4463	4406	4406	4406	4406	4406	4406	4406	4406	4463	4463	4463	4463	4463	4463	4463	4463	4463	0	0	0	0	0	0	0	0	4977	5050	5125	5202	5202	5282	5282	5282	5282	5282	5282	5282	5202	5202	5202	5202	5202	5202	5202	5202	5282	5282	5282	5282	5282	5282	5282	5202	5282	5282	5282	5282	5282	5282	5364	5448	5448	5535	5535	5535	5626	5626	5626	5626	5719	5815	5815	6018	6124	6018	6018	6018	6018	6018	6018	6018	6018	6018	6018	6018	6018	6018	6018	6018	5915	5915	5915	5915	5915	5915	5915	6018	6018	6018	6018	6018	6018	6018	6124	6124	6124	6124	6124	6124	6124	6124	6235	6235	6235	6235	6235	6235	6235	6235	6235	6235	6235	6235	6235	6235	6235	6235	6235	6235	6235	6124	6124	6124	6124	6124	6124	6124	6124	6124	6235	6235	6235	6235	6235	6124	6124	6124	6124	6124	6018	6018	6018	6018	6018	6018	6018	6018	6018	6018	6018	6018	6018	6018	6018	6124	6124	6124	6018	6018	6018	6018	6018	6018	6018	6018	6018	6018	6018	6018	6124	6018	6124	6124	6124	6124	6018	6018	6018	6018	6018	6018	6018	6018	6018	6018	6018	6018	6124	6124	6124	6018	6018	6018	6018	6018	6018	6018	6018	6018	6018	6018	6018	6018	6018	6018	6124	6124	6124	6124	6124	6124	6124	6124	6124	6124	6235	6124	6235	6235	6124	6124	6124	6124	6124	6124	6124	6124	6124	6124	6124	6124	6124	6124	6124	6124	6124	6124	6124	6124	6124	6124	6124	6124	6124	6124	6124	6124	6124	6124	6124	6124	6124	6124	6124	6124	6124	6124	6124	6124	6124	6124	6124	6124	6124	6124	6124	6124	6124	6124	6124	6018	6124	6124	6124	6124	6124	6124	6235	6124	6124	6124	6124	6124	6124	6124	6124	6124	6124	6124	6235	6124	6124	6124	6235	6235	6235	6124	6124	6124	6124	6124	6124	6124	6124	6124	6124	6124	6124	6018	6018	6124	6124	6018	6018	6124	6124	6124	6124	6124	6124	6018	6018	6018	6018	6124	6018	6018	6124	6124	6124	6124	6124	6124	6235	6124	6124	6235	6235	6235	6235	6235	6235	6235	6235	6349	6235	6235	6235	6235	6235	6235	6235	6235	6235	6235	6235	6235	6235	6235	6124	6124	6124	6235	6235	6235	6235	6235	6235	6349	6349	6349	6235	6235	6235	6235	6235	6235	6235	6235	6349	6349	6349	6349	6468	6468	6349	6349	6349	6235	6235	6235	6349	6235	6235	6235	6235	6235	6235	6235	6235	6235	6235	6235	6235	6349	6349	6349	6349	6349	6349	6349	6349	6349	6349	6349	6235	6235	6235	6235	6235	6235	6349	6349	6349	6349	6349	6349	6349	6349	6349	6349	6235	6235	6235	6235	6235	6235	6235	6235	6235	6235	6235	6235	6235	6235	6235	6235	6235	6235	6235	6235	6235	6235	6235	6235	6235	6235	6235	6235	6124	6124	6235	6124	6124	6124	6124	6124	6235	6235	6349	6349	0	6018	6018	6018	6018	6018	6124	6124	6235	6235	6235	6235	6235	6018	6018	6018	6018	6018	5915	5915	5915	5915	6018	6018	5915	6018	6018	5915	5915	6018	6018	6124	6124	6124	0	0	0	0	0	0	0	0	0	0	0	0	0	0	0	0	0	0	0	0	0	0	0	0	0	0	0	0	0	0	0	0	0	0	0
0	0	0	0	0	0	0	0	0	0	0	0	0	0	0	0	0	0	0	0	0	0	0	0	0	0	0	0	0	0	0	0	0	0	0	0	0	0	0	0	0	0	0	0	0	0	0	0	0	0	0	0	0	0	0	0	0	0	0	0	0	0	0	0	0	0	0	0	0	0	0	0	0	0	0	0	0	0	0	4406	4406	4406	4406	4463	4463	4463	4463	4463	4463	4463	4406	4406	4406	4406	4406	4406	4406	4406	4406	4463	4463	4463	4463	4463	4521	4521	4463	0	0	0	0	0	0	0	0	0	0	5125	5202	5202	5202	5282	5282	5282	5282	5282	5282	5202	5202	5202	5202	5202	5202	5202	5202	5202	5282	5282	5282	5282	5282	5202	5202	5282	5282	5282	5282	5282	5282	5364	5448	5535	5535	5535	5626	5626	5626	5626	5719	5815	5815	5915	5915	6124	6124	6124	6018	6018	6018	6018	6018	6018	5915	6018	6018	6018	6018	6018	5915	6018	6018	6018	6018	6018	6018	6018	6018	6018	6018	6018	6018	6018	6018	6124	6124	6124	6124	6124	6124	6124	6124	6235	6235	6235	6349	6349	6349	6349	6349	6349	6349	6235	6235	6235	6235	6235	6349	6235	6235	6235	6235	6235	6124	6124	6124	6124	6124	6235	6235	6235	6235	6235	6235	6235	6235	6124	6124	6124	6124	6124	6124	6124	6124	6124	6124	6124	6124	6124	6124	6124	6124	6124	6124	6124	6124	6124	6124	6124	6018	6018	6018	6018	6018	6018	6018	6018	6018	6124	6124	6124	6124	6124	6124	6124	6124	6124	6124	6018	6018	6124	6124	6124	6124	6124	6124	6124	6124	6124	6124	6124	6124	6124	6124	6124	6124	6018	6018	6018	6018	6018	6124	6018	6018	6124	6124	6124	6124	6124	6124	6235	6124	6124	6124	6124	6124	6235	6235	6235	6235	6235	6235	6235	6235	6235	6235	6235	6124	6124	6124	6235	6124	6124	6124	6235	6235	6235	6235	6235	6235	6235	6235	6124	6124	6124	6124	6124	6124	6124	6124	6124	6124	6235	6235	6235	6124	6235	6124	6124	6124	6235	6235	6235	6235	6235	6235	6235	6124	6124	6124	6124	6124	6124	6124	6124	6124	6124	6124	6235	6235	6235	6235	6235	6124	6124	6235	6124	6124	6235	6235	6235	6235	6235	6235	6235	6235	6349	6235	6235	6235	6124	6124	6124	6124	6124	6124	6124	6124	6124	6124	6124	6124	6124	6124	6124	6124	6124	6124	6124	6124	6124	6124	6124	6124	6124	6124	6124	6124	6124	6124	6124	6124	6124	6124	6235	6124	6124	6124	6235	6235	6235	6349	6235	6235	6235	6235	6235	6235	6235	6235	6235	6124	6235	6235	6235	6235	6235	6235	6235	6235	6235	6235	6235	6235	6235	6235	6235	6349	6349	6349	6349	6349	6235	6235	6235	6235	6235	6235	6235	6349	6349	6349	6349	6349	6468	6468	6349	6349	6349	6349	6235	6235	6235	6349	6235	6349	6349	6349	6349	6235	6235	6235	6235	6235	6124	6349	6349	6349	6349	6349	6349	6349	6349	6349	6349	6349	6349	6349	6349	6349	6349	6349	6349	6349	6349	6349	6349	6349	6349	6349	6349	6349	6349	6349	6349	6349	6349	6349	6235	6235	6235	6235	6235	6235	6235	6235	6235	6235	6235	6235	6235	6235	6235	6235	6235	6235	6349	6349	6235	6235	6235	6124	6349	6349	6235	6235	6235	6124	6235	6235	0	0	0	0	0	6018	6018	6124	6124	6235	6235	6235	6235	6235	6235	6235	6124	6124	6124	6018	6018	6018	6018	6018	6018	6018	5915	5915	5915	5915	5915	5915	6018	6124	6124	6124	0	0	0	0	0	0	0	0	0	0	0	0	0	0	0	0	0	0	0	0	0	0	0	0	0	0	0	0	0	0	0	0	0	0	0
0	0	0	0	0	0	0	0	0	0	0	0	0	0	0	0	0	0	0	0	0	0	0	0	0	0	0	0	0	0	0	0	0	0	0	0	0	0	0	0	0	0	0	0	0	0	0	0	0	0	0	0	0	0	0	0	0	0	0	0	0	0	0	0	0	0	0	0	0	0	0	0	0	0	0	0	0	0	0	0	4406	4406	4406	4463	4463	4463	4463	4463	4463	4463	4406	4406	4406	4406	4406	4406	4406	4406	4406	4463	4463	4463	4521	4521	4581	4581	0	0	0	0	0	0	0	0	0	0	0	0	5125	5202	5202	5282	5282	5282	5282	5282	5282	5202	5202	5202	5202	5202	5202	5202	5202	5202	5282	5282	5282	5282	5282	5202	5202	5282	5282	5282	5282	5282	5282	5364	5448	5535	5535	5626	5626	5626	5626	5626	5719	5815	5815	5915	6124	6124	6124	6124	6018	6124	6018	6018	6018	6018	6018	6018	6018	6018	6018	6018	5915	5915	6018	6018	6018	6018	6018	6124	6124	6124	6124	6124	6124	6124	6124	6124	6124	6124	6124	6124	6235	6235	6235	6235	6349	6349	6349	6468	6468	6468	6468	6349	6349	6349	6349	6349	6349	6349	6349	6235	6235	6235	6235	6235	6235	6235	6235	6235	6235	6235	6235	6235	6235	6235	6235	6235	6235	6235	6124	6124	6124	6124	6124	6235	6235	6235	6124	6124	6124	6124	6124	6124	6124	6124	6124	6124	6124	6124	6124	6124	6124	6018	6018	6018	6018	6018	6018	6018	6018	6124	6124	6124	6124	6124	6124	6124	6124	6124	6124	6124	6018	6124	6018	6124	6124	6124	6124	6124	6124	6124	6124	6124	6124	6124	6124	6124	6124	6124	6124	6124	6124	6124	6124	6124	6018	6124	6124	6124	6124	6124	6124	6235	6124	6124	6124	6124	6124	6235	6235	6235	6235	6235	6235	6235	6235	6235	6235	6235	6235	6235	6235	6235	6235	6235	6235	6235	6235	6235	6235	6235	6235	6235	6235	6235	6235	6235	6124	6124	6124	6124	6124	6235	6235	6235	6235	6235	6235	6235	6235	6235	6235	6235	6235	6235	6235	6235	6235	6235	6124	6124	6124	6124	6124	6124	6235	6124	6235	6235	6235	6235	6235	6235	6124	6124	6124	6124	6235	6235	6124	6235	6235	6235	6235	6235	6235	6349	6349	6349	6235	6235	6235	6235	6124	6124	6124	6124	6235	6235	6235	6235	6235	6235	6235	6124	6124	6124	6124	6124	6018	6018	6018	6124	6124	6124	6124	6124	6124	6124	6124	6124	6124	6235	6124	6124	6124	6235	6235	6235	6235	6349	6349	6349	6349	6235	6235	6235	6235	6235	6235	6235	6235	6235	6235	6235	6235	6235	6235	6235	6235	6235	6349	6235	6235	6235	6235	6235	6235	6349	6349	6349	6349	6349	6349	6349	6349	6235	6235	6235	6235	6235	6349	6349	6349	6349	6349	6468	6468	6349	6349	6349	6349	6349	6349	6349	6349	6468	6468	6468	6468	6349	6349	6349	6235	6349	6235	6235	6349	6349	6349	6349	6349	6349	6349	6349	6349	6349	6349	6349	6349	6349	6349	6349	6349	6349	6349	6468	6349	6349	6349	6468	6349	6349	6349	6349	6349	6349	6349	6349	6349	6235	6349	6235	6235	6235	6235	6235	6235	6235	6235	6235	6235	6235	6235	6235	6235	6124	6235	6349	6349	6349	6349	6235	6235	6349	6349	6235	6124	6235	6124	6235	6235	6124	6124	0	0	0	0	0	6018	6018	6124	6235	6235	6235	6349	6349	6349	6235	6124	6124	6018	6124	6018	6018	6018	6018	6018	6018	5915	5915	5915	5915	5915	0	0	0	0	0	0	0	0	0	0	0	0	0	0	0	0	0	0	0	0	0	0	0	0	0	0	0	0	0	0	0	0	0	0	0	0	0	0	0
0	0	0	0	0	0	0	0	0	0	0	0	0	0	0	0	0	0	0	0	0	0	0	0	0	0	0	0	0	0	0	0	0	0	0	0	0	0	0	0	0	0	0	0	0	0	0	0	0	0	0	0	0	0	0	0	0	0	0	0	0	0	0	0	0	0	0	0	0	0	0	0	0	0	0	0	0	0	0	0	4406	4406	4406	4463	4463	4463	4463	4463	4463	4463	4406	4406	4406	4406	4406	4406	4406	4406	4406	4463	4463	4463	4463	4463	4521	4521	0	0	0	0	0	0	0	0	0	0	0	0	5125	5202	5202	5202	5282	5202	5282	5282	5282	5202	5202	5202	5202	5202	5202	5202	5202	5202	5282	5282	5282	5282	5202	5202	5202	5202	5202	5202	5282	5282	5282	5448	5448	5535	5535	5535	5626	5626	5626	5626	5719	5719	5815	5915	6018	6124	6124	6124	6124	6235	6124	6124	6235	6124	6124	6124	6124	6124	6018	6018	5915	6018	6018	6018	6018	6018	6124	6124	6124	6124	6235	6235	6124	6124	6235	6349	6235	6235	6349	6235	6349	6349	6349	6349	6468	6468	6468	6468	6468	6468	6468	6349	6468	6349	6349	6349	6349	6349	6349	6349	6235	6349	6349	6235	6235	6235	6235	6235	6235	6235	6235	6235	6349	6349	6349	6349	6235	6235	6235	6235	6235	6235	6235	6235	6235	6235	6235	6124	6124	6124	6124	6124	6124	6124	6124	6124	6124	6124	6124	6124	6124	6124	6124	6124	6124	6018	6018	6124	6124	6124	6124	6124	6235	6235	6124	6235	6124	6124	6124	6124	6018	6124	6124	6124	6124	6124	6124	6124	6124	6124	6124	6124	6235	6124	6124	6124	6124	6124	6124	6124	6124	6124	6124	6124	6124	6124	6124	6124	6124	6124	6124	6124	6124	6124	6124	6124	6124	6235	6235	6235	6235	6235	6235	6235	6235	6235	6235	6235	6235	6235	6235	6235	6235	6235	6235	6235	6235	6235	6235	6235	6235	6235	6235	6235	6235	6235	6235	6124	6235	6235	6235	6235	6235	6235	6235	6235	6235	6235	6235	6235	6235	6235	6235	6235	6235	6235	6235	6235	6235	6124	6124	6124	6235	6235	6235	6235	6235	6235	6235	6235	6235	6235	6235	6235	6235	6235	6235	6235	6235	6235	6235	6235	6235	6235	6235	6349	6349	6349	6349	6235	6235	6235	6235	6235	6235	6235	6235	6235	6235	6235	6235	6235	6235	6124	6124	6124	6124	6124	6124	6018	6124	6124	6124	6124	6124	6235	6235	6124	6124	6235	6235	6235	6235	6124	6235	6235	6235	6235	6235	6349	6349	6349	6349	6235	6235	6235	6235	6235	6235	6235	6235	6235	6235	6235	6235	6235	6235	6349	6349	6349	6349	6235	6235	6235	6235	6235	6235	6349	6349	6349	6349	6349	6349	6349	6349	6349	6349	6235	6235	6349	6349	6349	6349	6349	6349	6468	6468	6349	6349	6349	6349	6349	6349	6349	6592	6592	6592	6592	6592	6468	6349	6349	6349	6349	6349	6349	6468	6468	6468	6468	6349	6349	6349	6349	6349	6468	6468	6468	6468	6468	6349	6349	6349	6349	6468	6468	6349	6349	6468	6468	6349	6349	6349	6349	6349	6349	6349	6235	6235	6235	6349	6349	6349	6349	6349	6349	6235	6235	6235	6235	6235	6235	6235	6235	6124	6124	6235	6349	6349	6349	6349	6235	6235	6349	6349	6235	6235	6349	6349	6349	6349	6235	6235	0	0	0	0	0	6018	6018	6124	6235	6235	6235	6349	6349	6349	6235	6235	6235	6235	6235	6018	6018	6018	5915	6018	6018	6018	5915	5915	5915	0	0	0	0	0	0	0	0	0	0	0	0	0	0	0	0	0	0	0	0	0	0	0	0	0	0	0	0	0	0	0	0	0	0	0	0	0	0	0	0
0	0	0	0	0	0	0	0	0	0	0	0	0	0	0	0	0	0	0	0	0	0	0	0	0	0	0	0	0	0	0	0	0	0	0	0	0	0	0	0	0	0	0	0	0	0	0	0	0	0	0	0	0	0	0	0	0	0	0	0	0	0	0	0	0	0	0	0	0	0	0	0	0	0	0	0	0	4463	4463	4463	4463	4406	4406	4463	4463	4463	4463	4463	4463	4463	4406	4406	4406	4406	4406	4406	4406	4406	4463	4463	4463	4463	4463	4463	4463	4521	0	0	0	0	0	0	0	0	0	0	0	0	5125	5125	5202	5202	5282	5202	5202	5202	5282	5202	5202	5202	5202	5202	5202	5202	5202	5202	5282	5282	5202	5202	5202	5202	5202	5202	5202	5202	5282	5282	5282	5364	5448	5535	5535	5535	5626	5626	5626	5626	5719	5719	5815	5815	5915	6124	6124	6124	6124	6235	6235	6235	6235	6124	6124	6124	6124	6124	6018	6018	6018	6018	6018	6018	6018	6124	6124	6124	6235	6235	6235	6235	6235	6235	6235	6349	6349	6468	6468	6468	6468	6468	6468	6468	6468	6468	6468	6468	6468	6468	6468	6468	6468	6349	6349	6349	6349	6349	6349	6349	6349	6349	6349	6235	6235	6235	6235	6349	6349	6235	6235	6349	6349	6349	6349	6349	6349	6349	6349	6349	6349	6235	6235	6235	6349	6349	6235	6235	6235	6235	6124	6235	6235	6124	6124	6124	6124	6235	6124	6124	6124	6124	6124	6124	6124	6124	6124	6124	6124	6124	6124	6124	6124	6124	6235	6235	6124	6124	6124	6124	6124	6124	6124	6124	6124	6124	6124	6124	6124	6124	6124	6235	6235	6124	6124	6124	6124	6124	6124	6124	6235	6235	6124	6124	6124	6124	6124	6124	6124	6124	6124	6124	6124	6124	6124	6124	6124	6235	6235	6235	6235	6235	6235	6235	6235	6235	6235	6235	6235	6235	6235	6235	6235	6235	6235	6235	6235	6235	6124	6235	6235	6235	6235	6235	6235	6235	6235	6235	6235	6235	6235	6235	6235	6235	6235	6235	6235	6349	6235	6235	6235	6349	6349	6235	6235	6235	6235	6235	6235	6235	6235	6235	6235	6235	6235	6235	6235	6235	6235	6235	6235	6235	6235	6235	6235	6235	6235	6235	6235	6235	6235	6235	6235	6235	6235	6349	6349	6349	6235	6235	6235	6235	6235	6235	6235	6235	6235	6235	6235	6235	6235	6235	6235	6235	6235	6235	6235	6124	6124	6124	6124	6124	6124	6124	6124	6235	6235	6235	6235	6235	6235	6235	6235	6235	6235	6235	6235	6235	6235	6349	6349	6349	6349	6349	6235	6235	6235	6235	6235	6235	6235	6235	6235	6235	6235	6235	6349	6349	6349	6349	6349	6349	6349	6235	6235	6235	6235	6349	6349	6349	6349	6468	6468	6349	6349	6349	6349	6349	6349	6349	6349	6349	6349	6349	6349	6468	6468	6349	6349	6349	6349	6349	6349	6468	6592	6592	6720	6720	6592	6592	6468	6468	6349	6349	6349	6349	6468	6468	6468	6468	6349	6468	6468	6468	6468	6592	6592	6592	6468	6468	6468	6349	6349	6349	6468	6468	6468	6468	6468	6468	6349	6349	6349	6349	6349	6349	6349	6235	6235	6235	6235	6349	6349	6349	6349	6349	6349	6235	6235	6235	6235	6235	6235	6235	6235	6235	6235	6349	6235	6349	6235	6235	6235	6468	6349	6349	6349	6349	6349	6349	6235	6235	6235	0	0	0	0	0	0	0	0	6235	6349	6349	6349	6349	6349	6349	6349	6349	6349	6235	6124	6018	6018	6018	6018	6018	6018	6018	6018	6018	0	0	0	0	0	0	0	0	0	0	0	0	0	0	0	0	0	0	0	0	0	0	0	0	0	0	0	0	0	0	0	0	0	0	0	0	0	0	0	0
0	0	0	0	0	0	0	0	0	0	0	0	0	0	0	0	0	0	0	0	0	0	0	0	0	0	0	0	0	0	0	0	0	0	0	0	0	0	0	0	0	0	0	0	0	0	0	0	0	0	0	0	0	0	0	0	0	0	0	0	0	0	0	0	0	0	0	0	0	0	0	0	0	0	0	0	4463	4463	4463	4463	4463	4406	4463	4463	4463	4463	4463	4463	4463	4463	4406	4406	4406	4406	4406	4406	4406	4406	4463	4463	4463	4463	4463	4463	4463	0	0	0	0	0	0	0	0	0	4706	4706	0	5050	5125	5125	5125	5202	5282	5202	5202	5202	5282	5202	5202	5202	5202	5202	5282	5282	5282	5282	5282	5282	5282	5202	5202	5202	5202	5202	5202	5282	5282	5364	5282	5448	5448	5535	5535	5535	5626	5626	5626	5626	5719	5815	5815	5815	5815	6124	6124	6235	6235	6349	6235	6235	6235	6235	6124	6124	6124	6124	6124	6018	6018	6018	6018	6018	6124	6124	6235	6235	6235	6235	6235	6235	6349	6349	6349	6468	6468	6468	6468	6468	6468	6468	6468	6468	6468	6468	6468	6468	6468	6468	6468	6468	6468	6468	6468	6468	6468	6349	6349	6349	6349	6349	6349	6349	6349	6235	6235	6349	6349	6349	6235	6349	6349	6349	6349	6349	6349	6349	6349	6349	6235	6235	6235	6235	6349	6349	6349	6349	6349	6235	6235	6235	6235	6235	6235	6124	6124	6235	6124	6124	6124	6124	6124	6235	6235	6235	6235	6235	6124	6124	6124	6235	6235	6235	6235	6235	6235	6235	6124	6124	6124	6235	6124	6124	6124	6124	6124	6124	6124	6124	6235	6235	6235	6235	6235	6235	6235	6124	6124	6235	6235	6235	6235	6124	6124	6124	6124	6124	6124	6124	6124	6124	6124	6124	6124	6124	6124	6124	6235	6235	6235	6235	6235	6235	6235	6235	6235	6235	6235	6235	6235	6235	6235	6235	6235	6235	6235	6235	6235	6235	6235	6235	6235	6235	6235	6235	6235	6235	6235	6235	6235	6349	6235	6235	6349	6349	6349	6349	6349	6349	6235	6349	6349	6349	6235	6235	6235	6235	6235	6235	6235	6235	6235	6235	6235	6235	6235	6235	6235	6235	6235	6235	6235	6235	6349	6349	6349	6235	6235	6235	6235	6235	6235	6349	6349	6349	6349	6349	6235	6235	6235	6235	6235	6235	6235	6235	6349	6349	6349	6235	6235	6235	6235	6235	6235	6235	6235	6235	6124	6124	6124	6124	6124	6235	6235	6235	6235	6235	6235	6235	6235	6235	6235	6235	6235	6235	6235	6235	6235	6349	6349	6349	6349	6349	6349	6235	6349	6349	6349	6235	6235	6235	6235	6235	6235	6349	6349	6349	6349	6349	6349	6349	6349	6349	6235	6349	6349	6349	6468	6468	6468	6468	6468	6349	6349	6349	6349	6349	6349	6349	6468	6468	6349	6468	6468	6468	6468	6468	6349	6468	6468	6349	6468	6468	6468	6592	6592	6592	6592	6468	6468	6349	6349	6349	6349	6235	6349	6468	6468	6468	6468	6468	6468	6468	6468	6592	6592	6592	6468	6468	6468	6349	6349	6468	6468	6468	6468	6468	6468	6468	6468	6468	6349	6349	6349	6349	6349	6235	6235	6235	6349	6349	6349	6349	6349	6349	6349	6349	6235	6235	6235	6235	6235	6235	6235	6235	6235	6235	6235	6349	6235	6235	6349	6468	6349	6349	6349	6349	6349	6349	6349	6349	0	0	0	0	0	0	0	0	0	6349	6349	6349	6468	6468	6468	6468	6468	6349	6349	6235	6124	6018	6018	6018	6018	5915	5915	6018	6018	6018	0	0	0	0	0	0	0	0	0	0	0	0	0	0	0	0	0	0	0	0	0	0	0	0	0	0	0	0	0	0	0	0	0	0	0	0	0	0	0	0
0	0	0	0	0	0	0	0	0	0	0	0	0	0	0	0	0	0	0	0	0	0	0	0	0	0	0	0	0	0	0	0	0	0	0	0	0	0	0	0	0	0	0	0	0	0	0	0	0	0	0	0	0	0	0	0	0	0	0	0	0	0	0	0	0	0	0	0	0	0	0	0	0	0	0	0	4463	4463	4463	4463	4406	4406	4463	4463	4463	4463	4521	4463	4521	4463	4406	4406	4406	4406	4406	4406	4406	4406	4463	4463	4463	4463	4463	4463	4463	0	0	0	0	0	0	0	0	0	4706	4706	4906	5050	5125	5125	5125	5202	5202	5202	5202	5202	5202	5202	5202	5202	5202	5202	5282	5282	5282	5202	5282	5282	5202	5202	5202	5202	5282	5202	5202	5282	5282	5364	5364	5448	5448	5535	5535	5535	5626	5626	5626	5719	5719	5815	5815	5815	5815	5915	6124	6124	6349	6349	6349	6349	6349	6349	6235	6349	6235	6235	6124	6124	6018	6018	6124	6124	6124	6235	6235	6349	6349	6349	6349	6349	6349	6349	6349	6468	6468	6468	6468	6468	6468	6468	6468	6468	6468	6468	6468	6468	6468	6468	6468	6468	6592	6468	6468	6468	6468	6468	6468	6349	6349	6349	6349	6349	6349	6349	6349	6349	6349	6349	6349	6349	6349	6349	6349	6349	6349	6349	6349	6349	6349	6349	6349	6349	6349	6349	6349	6349	6468	6349	6235	6349	6235	6235	6235	6235	6235	6235	6235	6235	6235	6235	6235	6235	6235	6235	6235	6235	6235	6235	6235	6235	6235	6235	6235	6235	6235	6235	6124	6124	6124	6235	6124	6124	6124	6124	6124	6124	6124	6235	6235	6235	6235	6235	6235	6235	6124	6124	6235	6235	6235	6235	6235	6235	6124	6124	6124	6124	6124	6124	6124	6124	6124	6124	6124	6124	6124	6235	6235	6235	6235	6235	6235	6235	6235	6235	6235	6349	6349	6349	6349	6349	6349	6349	6349	6235	6235	6235	6235	6235	6235	6235	6235	6235	6349	6349	6349	6235	6235	6349	6349	6349	6349	6349	6349	6349	6349	6349	6349	6349	6235	6349	6349	6235	6235	6235	6235	6235	6235	6235	6235	6235	6235	6235	6235	6235	6235	6235	6235	6235	6349	6349	6349	6349	6349	6349	6349	6349	6235	6235	6235	6235	6235	6235	6235	6349	6349	6349	6349	6235	6349	6235	6235	6235	6235	6235	6349	6349	6349	6235	6235	6235	6235	6235	6235	6235	6235	6235	6124	6124	6124	6124	6124	6235	6235	6235	6235	6235	6235	6235	6235	6235	6235	6235	6235	6235	6235	6235	6235	6349	6349	6349	6349	6349	6349	6349	6349	6349	6349	6349	6349	6235	6235	6235	6349	6349	6349	6349	6349	6349	6349	6349	6349	6349	6349	6349	6349	6349	6468	6468	6468	6468	6468	6468	6468	6468	6349	6349	6349	6349	6468	6468	6468	6468	6468	6468	6468	6468	6468	6468	6468	6468	6468	6468	6592	6592	6592	6592	6592	6468	6468	6349	6349	6349	6349	6349	6468	6468	6468	6468	6468	6468	6592	6468	6468	6468	6468	6592	6468	6468	6468	6468	6468	6468	6468	6468	6468	6468	6468	6468	6468	6468	6349	6349	6349	6349	6235	6235	6235	6235	6349	6349	6349	6349	6349	6349	6349	6349	6349	6235	6235	6235	6235	6235	6235	6349	6235	6349	6235	6349	6235	6235	6349	6468	6349	6349	6349	6349	6349	6468	6349	6349	6349	6349	6349	0	0	0	0	0	6349	6349	6349	6468	6468	6468	6468	6468	6468	6468	6349	6124	6124	6018	6018	5915	5915	5915	5915	0	0	0	0	0	0	0	0	0	0	0	0	0	0	0	0	0	0	0	0	0	0	0	0	0	0	0	0	0	0	0	0	0	0	0	0	0	0	0	0	0	0	0
0	0	0	0	0	0	0	0	0	0	0	0	0	0	0	0	0	0	0	0	0	0	0	0	0	0	0	0	0	0	0	0	0	0	0	0	0	0	0	0	0	0	0	0	0	0	0	0	0	0	0	0	0	0	0	0	0	0	0	0	0	0	0	0	0	0	0	0	0	0	0	0	0	0	0	0	0	4463	4463	4463	4406	4406	4463	4463	4463	4463	4463	4463	4521	4463	4463	4406	4406	4406	4406	4406	4406	4406	4463	4463	4463	4463	4463	4463	4521	4521	0	0	0	4643	4706	4706	4643	4706	4706	4771	4838	5050	5125	5202	5202	5202	5202	5202	5202	5202	5282	5202	5282	5282	5202	5282	5282	5282	5282	5282	5282	5282	5202	5202	5202	5202	5202	5202	5202	5282	5282	5282	5282	5364	5448	5535	5535	5535	5626	5626	5626	5626	5719	5815	5815	5815	5815	5915	5915	5915	6235	6349	6349	6349	6349	6349	6349	6349	6235	6235	6124	6235	6124	6124	6124	6124	6124	6235	6235	6349	6349	6349	6349	6349	6349	6349	6349	6468	6468	6468	6468	6468	6468	6468	6468	6468	6468	6468	6468	6468	6468	6468	6468	6592	6592	6468	6468	6468	6468	6468	6468	6468	6349	6349	6349	6349	6349	6349	6349	6349	6349	6349	6349	6349	6349	6349	6349	6468	6349	6349	6349	6349	6349	6349	6349	6349	6349	6349	6349	6349	6468	6468	6468	6468	6468	6349	6349	6235	6235	6235	6235	6235	6349	6235	6235	6349	6349	6349	6235	6235	6235	6235	6235	6235	6349	6349	6349	6235	6349	6235	6235	6235	6235	6235	6235	6124	6124	6124	6124	6124	6124	6235	6235	6235	6349	6235	6235	6235	6235	6235	6235	6235	6235	6235	6235	6235	6235	6235	6124	6124	6124	6124	6124	6235	6124	6124	6124	6124	6124	6235	6235	6235	6235	6235	6235	6235	6235	6235	6235	6349	6349	6349	6349	6468	6468	6468	6349	6349	6349	6235	6235	6235	6235	6235	6349	6349	6349	6349	6349	6349	6349	6349	6468	6468	6468	6349	6349	6468	6468	6468	6349	6349	6349	6349	6468	6349	6349	6235	6349	6235	6235	6235	6235	6235	6235	6349	6235	6349	6349	6349	6349	6349	6349	6349	6468	6349	6349	6349	6349	6349	6349	6349	6235	6235	6235	6349	6349	6349	6349	6349	6349	6349	6349	6235	6349	6349	6349	6349	6468	6468	6349	6349	6349	6349	6349	6235	6235	6235	6235	6235	6124	6124	6124	6124	6124	6235	6124	6235	6235	6235	6235	6235	6235	6235	6235	6235	6235	6235	6235	6235	6235	6349	6349	6349	6349	6349	6349	6349	6349	6468	6349	6349	6349	6349	6349	6349	6349	6349	6468	6468	6468	6468	6468	6468	6468	6468	6349	6349	6349	6349	6468	6468	6468	6468	6468	6468	6349	6468	6349	6349	6349	6349	6349	6468	6468	6468	6468	6592	6468	6592	6468	6468	6468	6592	6592	6592	6468	6592	6592	6592	6592	6468	6468	6468	6468	6468	6468	6349	6592	6592	6592	6592	6592	6468	6592	6468	6468	6592	6592	6592	6468	6592	6592	6468	6468	6468	6592	6592	6468	6468	6592	6468	6468	6468	6349	6349	6349	6349	6235	6235	6235	6235	6349	6349	6349	6349	6468	6349	6349	6349	6349	6235	6235	6235	6235	6235	6235	6349	6235	6349	6349	6349	6235	6349	6349	6468	6468	6349	6468	6349	6349	6468	6349	6349	6349	6349	6349	6349	0	0	6349	6349	6349	6349	6349	6468	6468	6468	6592	6592	6592	6468	6468	6468	6468	6018	6018	5915	5915	0	0	0	0	0	0	0	0	0	0	0	0	0	0	0	0	0	0	0	0	0	0	0	0	0	0	0	0	0	0	0	0	0	0	0	0	0	0	0	0	0	0	0	0	0
0	0	0	0	0	0	0	0	0	0	0	0	0	0	0	0	0	0	0	0	0	0	0	0	0	0	0	0	0	0	0	0	0	0	0	0	0	0	0	0	0	0	0	0	0	0	0	0	0	0	0	0	0	0	0	0	0	0	0	0	0	0	0	0	0	0	0	0	0	0	0	0	0	0	0	0	4463	4463	4463	4463	4463	4406	4463	4463	4463	4406	4463	4463	4521	4463	4463	4463	4406	4463	4406	4406	4406	4406	4463	4463	4463	4463	4463	4463	4521	4521	0	0	0	4643	4706	4706	4643	4706	4706	4771	4771	4977	5125	5202	5202	5202	5202	5202	5282	5202	5202	5202	5282	5202	5202	5202	5282	5282	5282	5282	5282	5282	5282	5202	5202	5202	5202	5202	5202	5202	5282	5282	5282	5364	5448	5535	5535	5535	5535	5626	5626	5719	5719	5719	5815	5815	5815	5915	5915	5915	6235	6349	6349	6349	6349	6349	6349	6349	6349	6235	6235	6235	6235	6235	6235	6235	6235	6349	6349	6349	6349	6349	6349	6349	6349	6349	6349	6468	6468	6468	6468	6468	6468	6468	6468	6468	6468	6468	6468	6468	6468	6592	6592	6592	6592	6592	6592	6592	6592	6468	6468	6468	6468	6468	6468	6468	6349	6349	6349	6468	6349	6349	6349	6349	6349	6349	6468	6468	6349	6349	6349	6349	6349	6349	6349	6349	6349	6349	6349	6349	6468	6468	6468	6468	6468	6349	6349	6349	6349	6349	6349	6349	6349	6349	6349	6349	6349	6349	6235	6235	6235	6235	6235	6235	6235	6349	6349	6349	6349	6349	6235	6235	6235	6349	6235	6235	6124	6124	6235	6235	6235	6235	6235	6349	6349	6349	6235	6235	6235	6235	6235	0	6235	6349	6235	6235	6235	6235	6235	6235	6235	6235	6235	6235	6235	6124	6124	6124	6124	6235	6235	6349	6349	6235	6235	6349	6349	6349	6349	6349	6468	6468	6468	6468	6468	6468	6468	6468	6349	6349	6235	6235	6349	6349	6349	6349	6349	6349	6349	6349	6349	6468	6468	6468	6468	6468	6468	6468	6468	6468	6349	6349	6349	6468	6468	6349	6349	6349	6349	6349	6349	6349	6349	6349	6349	6349	6349	6468	6468	6349	6349	6468	6468	6468	6468	6468	6468	6468	6468	6468	6468	6468	6349	6349	6349	6349	6349	6349	6349	6349	6349	6349	6349	6349	6349	6349	6592	6592	6592	6468	6468	6349	6349	6349	6349	6349	6235	6349	6349	6235	6235	6124	6124	6235	6235	6235	6235	6235	6235	6235	6235	6235	6235	6235	6235	6235	6235	6235	6235	6235	6235	6349	6349	6349	6468	6468	6468	6468	6468	6468	6468	6468	6468	6468	6468	6349	6468	6468	6468	6468	6468	6468	6468	6592	6468	6468	6349	6349	6468	6468	6468	6468	6468	6592	6468	6468	6349	6468	6349	6349	6349	6468	6468	6468	6468	6468	6468	6592	6592	6592	6592	6592	6592	6592	6592	6592	6592	6592	6592	6592	6592	6592	6468	6592	6592	6592	6592	6468	6592	6720	6720	6592	6592	6592	6720	6720	6592	6592	6592	6720	6720	6720	6592	6592	6592	6468	6592	6592	6468	6468	6468	6468	6468	6468	6468	6468	6468	6468	6349	6349	6349	6349	6349	6349	6468	6468	6468	6468	6349	6349	6349	6349	6349	6349	6349	6349	6349	6349	6349	6349	6349	6349	6235	6349	6349	6468	6468	6468	6468	6468	6468	6468	6468	6468	6468	6349	6349	6349	6349	6349	6349	6349	6349	6468	6468	6468	6468	6468	6592	6468	6468	6468	6468	5915	5915	0	0	0	0	0	0	0	0	0	0	0	0	0	0	0	0	0	0	0	0	0	0	0	0	0	0	0	0	0	0	0	0	0	0	0	0	0	0	0	0	0	0	0	0	0	0	0	0	0
0	0	0	0	0	0	0	0	0	0	0	0	0	0	0	0	0	0	0	0	0	0	0	0	0	0	0	0	0	0	0	0	0	0	0	0	0	0	0	0	0	0	0	0	0	0	0	0	0	0	0	0	0	0	0	0	0	0	0	0	0	0	0	0	0	0	0	0	0	0	0	0	0	0	0	0	4463	4463	4463	4463	4463	4406	4463	4463	4463	4406	4463	4463	4521	4521	4463	4463	4463	4463	4463	4406	4406	4406	4463	4463	4463	4463	4463	4463	4521	4521	4521	4521	4521	4706	4706	4643	4643	4706	4706	4771	4771	5050	5125	5202	5202	5202	5202	5282	5282	5202	5282	5202	5282	5282	5282	5282	5282	5282	5282	5282	5282	5282	5282	5202	5282	5282	5202	5202	5202	5202	5202	5282	5282	5364	5448	5448	5535	5535	5626	5626	5626	5719	5815	5815	5815	5815	5815	5915	5915	0	0	6349	6349	6468	6349	6349	6349	6349	6349	6349	6235	6349	6235	6235	6349	6349	6349	6349	6349	6349	6468	6468	6349	6349	6349	6349	6349	6468	6468	6592	6592	6592	6468	6592	6468	6468	6468	6468	6592	6592	6592	6592	6592	6592	6592	6592	6592	6592	6592	6468	6468	6468	6468	6468	6468	6468	6468	6349	6349	6468	6468	6468	6349	6349	6468	6468	6468	6468	6468	6468	6468	6468	6349	6468	6349	6349	6468	6349	6468	6468	6468	6468	6592	6468	6468	6468	6349	6349	6349	6349	6349	6349	6349	6349	6349	6468	6468	6349	6235	6349	6349	6349	6349	6349	6349	6349	6349	6349	6349	6349	6349	6235	6235	6349	6349	6235	6124	6235	6235	6235	6235	6235	6235	6349	6349	6349	6349	6349	0	0	0	6349	6349	6349	6349	6235	6349	6235	6349	6349	6349	6349	6349	6349	6235	6235	6235	6235	6235	6235	6235	6349	6349	6349	6349	6349	6349	6349	6349	6468	6468	6592	6592	6592	6468	6468	6468	6468	6349	6349	6349	6349	6349	6349	6349	6349	6468	6468	6468	6468	6468	6468	6468	6468	6468	6468	6468	6468	6468	6468	6468	6468	6468	6468	6468	6468	6349	6349	6349	6349	6349	6349	6349	6349	6349	6468	6349	6468	6468	6468	6468	6468	6468	6468	6468	6468	6468	6468	6468	6468	6468	6468	6349	6349	6349	6349	6349	6349	6468	6349	6468	6349	6349	6468	6468	6592	6592	6592	6468	6468	6468	6349	6349	6349	6349	6349	6349	6349	6349	6349	6235	6235	6235	6235	6235	6235	6235	6235	6235	6235	6235	6235	6235	6235	6349	6235	6235	6235	6235	6235	6235	6349	6349	6468	6468	6592	6592	6468	6468	6468	6468	6468	6468	6468	6468	6468	6468	6468	6468	6592	6468	6468	6592	6592	6592	6592	6468	6468	6592	6468	6468	6468	6592	6592	6592	6468	6468	6468	6468	6468	6349	6468	6592	6592	6468	6468	6468	6592	6592	6592	6592	6592	6592	6592	6720	6592	6468	6592	6592	6592	6592	6592	6592	6592	6592	6592	6592	6468	6592	6592	6592	6592	6592	6720	6720	6720	6720	6720	6720	6720	6720	6720	6720	6592	6592	6592	6592	6592	6592	6592	6592	6592	6592	6592	6592	6592	6592	6468	6468	6349	6349	6349	6349	6468	6468	6468	6468	6468	6468	6349	6468	6468	6349	6468	6468	6468	6468	6468	6349	6468	6349	6349	6235	6349	6349	6468	6468	6468	6468	6468	6468	6468	6468	6468	6468	6468	6468	6468	6349	6349	6349	6468	6468	6468	6468	6468	6468	6468	6468	6468	6468	6468	6468	5915	5915	0	0	0	0	0	0	0	0	0	0	0	0	0	0	0	0	0	0	0	0	0	0	0	0	0	0	0	0	0	0	0	0	0	0	0	0	0	0	0	0	0	0	0	0	0	0	0	0	0
0	0	0	0	0	0	0	0	0	0	0	0	0	0	0	0	0	0	0	0	0	0	0	0	0	0	0	0	0	0	0	0	0	0	0	0	0	0	0	0	0	0	0	0	0	0	0	0	0	0	0	0	0	0	0	0	0	0	0	0	0	0	0	0	0	0	0	0	0	0	0	0	0	0	0	0	4463	4463	4463	4463	4463	4406	4463	4463	4463	4463	4463	4521	4521	4521	4521	4463	4463	4463	4463	4463	4406	4406	4406	4406	4463	4463	4463	4463	4463	4521	4463	4521	4521	4706	4643	4643	4643	4706	4706	4771	4838	5125	5125	5202	5202	5202	5202	5202	5202	5202	5202	5202	5282	5282	5282	5202	5282	5282	5282	5282	5282	5282	5282	5202	5282	5282	5202	5202	5202	5282	5282	5282	5282	5364	5448	5535	5535	5535	5626	5626	5626	5719	5719	5815	0	0	0	0	0	0	0	0	6349	6349	6349	6349	6349	6349	6349	6349	6349	6349	6349	6349	6349	6349	6349	6349	6349	6468	6468	6468	6349	6468	6468	6349	6349	6592	6592	6592	6592	6592	6592	6592	6468	6468	6468	6468	6468	6468	6468	6592	6592	6592	6592	6468	6592	6592	6592	6592	6468	6468	6468	6468	6468	6468	6468	6468	6349	6468	6468	6468	6468	6349	6468	6468	6468	6468	6468	6468	6468	6468	6468	6468	6349	6349	6468	6349	6468	6468	6468	6468	6592	6468	6468	6468	6468	6349	6349	6349	6468	6349	6349	6468	6468	6468	6468	6349	6349	6349	6349	6349	6349	6349	6349	6468	6468	6349	6468	6349	6349	6349	6349	6349	6349	6235	6235	6235	6235	6235	6235	6235	6349	6349	6349	6468	6468	6468	0	0	0	6349	6349	6349	6349	6235	6349	6235	6349	6349	6349	6349	6349	6349	6349	6235	6235	6235	6235	6349	6349	6592	6468	6468	6468	6592	6592	6468	6592	6592	6592	6592	6592	6592	6592	6592	6592	6468	6468	6349	6349	6349	6468	6468	6468	6468	6592	6592	6468	6468	6468	6468	6592	6592	6592	6592	6592	6592	6592	6468	6468	6468	6468	6468	6468	6468	6468	6468	6349	6349	6468	6468	6468	6468	6468	6468	6468	6592	6592	6468	6468	6468	6468	6468	6468	6468	6468	6468	6468	6468	6468	6468	6349	6349	6349	6468	6349	6349	6349	6349	6468	6468	6592	6592	6592	6592	6592	6592	6592	6468	6468	6468	6349	6349	6349	6349	6349	6349	6349	6349	6349	6349	6235	6349	6349	6349	6235	6235	6235	6235	6235	6235	6235	6235	6349	6349	6349	6349	6349	6349	6349	6349	6468	6468	6468	6592	6592	6592	6468	6468	6468	6468	6468	6468	6468	6468	6592	6592	6592	6592	6592	6592	6592	6592	6592	6592	6468	6468	6592	6468	6468	6468	6592	6592	6592	6468	6468	6592	6468	6592	6592	6592	6592	6592	6592	6592	6468	6592	6592	6592	6592	6592	6592	6720	6720	6720	6592	6592	6592	6592	6592	6592	6592	6592	6592	6592	6592	6468	6592	6592	6592	6720	6720	6720	6720	6720	6720	6720	6720	6720	6720	6720	6720	6592	6720	6592	6720	6720	6592	6592	6592	6592	6592	6592	6592	6592	6592	6592	6592	6592	6468	6468	6468	6468	6592	6592	6592	6468	6592	6468	6592	6468	6468	6468	6468	6592	6468	6468	6468	6468	6349	6349	6349	6349	6349	6468	6468	6468	6468	6468	6592	6468	6468	6468	6468	6468	6468	6468	6468	6468	6468	6468	6468	6468	6468	6468	6468	6468	6468	0	0	0	0	0	0	0	0	0	0	0	0	0	0	0	0	0	0	0	0	0	0	0	0	0	0	0	0	0	0	0	0	0	0	0	0	0	0	0	0	0	0	0	0	0	0	0	0	0	0	0	0	0	0	0
0	0	0	0	0	0	0	0	0	0	0	0	0	0	0	0	0	0	0	0	0	0	0	0	0	0	0	0	0	0	0	0	0	0	0	0	0	0	0	0	0	0	0	0	0	0	0	0	0	0	0	0	0	0	0	0	0	0	0	0	0	0	0	0	0	0	0	0	0	0	0	0	0	0	0	0	4463	4463	4463	4463	4406	4406	4463	4463	4463	4463	4463	4463	4521	4521	4463	4463	4463	4406	4406	4406	4406	4406	4406	4463	4463	4463	4463	4521	4521	4521	4463	4521	4581	4706	4643	4643	4643	4706	4706	4771	5125	5125	5125	5202	5202	5202	5202	5202	5202	5202	5282	5282	5282	5282	5202	5202	5202	5282	5282	5282	5282	5282	5282	5282	5282	5282	5282	5202	5282	5282	5282	5282	5282	5364	5535	5535	5535	5626	5626	5626	5719	5719	5719	0	0	0	0	0	0	0	0	0	6349	6349	6349	6349	6349	6468	6468	6468	6349	6468	6349	6349	6349	6349	6349	6349	6349	6468	6468	6468	6468	6468	6468	6468	6349	6592	6592	6592	6592	6592	6468	6468	6468	6468	6468	6468	6468	6468	6468	6468	6592	6592	6592	6468	6592	6592	6592	6592	6468	6468	6468	6468	6468	6468	6468	6468	6468	6468	6468	6468	6468	6468	6468	6468	6468	6468	6468	6468	6468	6468	6468	6468	6468	6468	6468	6468	6468	6468	6592	6468	6592	6468	6592	6468	6468	6468	6468	6468	6468	6468	6468	6468	6468	6468	6468	6468	6468	6468	6349	6349	6349	6468	6468	6468	6468	6468	6468	6468	6468	6468	6349	6468	6468	6468	6349	6235	6235	6349	6235	6235	6349	6349	6468	6468	6468	6468	0	0	0	6349	6468	6468	6468	6349	6349	6349	6349	6349	6235	6349	6349	6349	6349	6349	6349	6349	6349	6468	6592	6592	6468	6592	6592	6592	6592	6592	6592	6592	6592	6592	6592	6592	6592	6592	6592	6592	6468	6349	6349	6468	6468	6468	6468	6468	6468	6592	6592	6592	6468	6592	6592	6592	6592	6592	6592	6592	6592	6468	6468	6468	6468	6468	6468	6349	6468	6468	6349	6349	6468	6468	6468	6468	6468	6592	6592	6592	6592	6592	6592	6468	6468	6468	6468	6468	6468	6592	6592	6468	6468	6468	6349	6468	6349	6468	6468	6468	6468	6468	6468	6468	6592	6592	6592	6592	6592	6592	6592	6468	6468	6349	6468	6468	6468	6468	6349	6468	6468	6468	6468	6468	6349	6468	6468	6468	6349	6349	6349	6349	6235	6235	6235	6349	6349	6349	6349	6349	6349	6349	6349	6592	6468	6468	6468	6592	6592	6592	6468	6592	6468	6592	6592	6592	6592	6592	6592	6720	6720	6720	6592	6592	6592	6592	6592	6592	6468	6468	6592	6468	6468	6468	6468	6468	6468	6468	6468	6592	6592	6592	6592	6720	6720	6720	6592	6592	6468	6592	6592	6720	6720	6592	6592	6720	6720	6720	6592	6592	6592	6592	6592	6468	6468	6592	6592	6592	6592	6468	6468	6720	6592	6592	6720	6720	6720	6720	6720	6720	6720	6720	6720	6720	6720	6720	6720	6720	6592	6592	6592	6592	6592	6592	6592	6592	6592	6592	6720	6592	6592	6720	6592	6592	6592	6592	6592	6592	6592	6592	6592	6592	6592	6468	6468	6468	6468	6592	6592	6592	6468	6468	6468	6468	6349	6349	6349	6468	6468	6592	6592	6592	6592	6592	6468	6468	6468	6468	6468	6468	6592	6592	6468	6468	6468	6468	6468	6468	6468	6468	6468	0	0	0	0	0	0	0	0	0	0	0	0	0	2426	2426	2426	2426	0	0	0	0	0	0	0	0	0	0	0	0	0	0	0	0	0	0	0	0	0	0	0	0	0	0	0	0	0	0	0	0	0	0	0	0	0	0
0	0	0	0	0	0	0	0	0	0	0	0	0	0	0	0	0	0	0	0	0	0	0	0	0	0	0	0	0	0	0	0	0	0	0	0	0	0	0	0	0	0	0	0	0	0	0	0	0	0	0	0	0	0	0	0	0	0	0	0	0	0	0	0	0	0	0	0	0	0	0	0	0	0	0	0	4463	4463	4463	4406	4406	4406	4406	4463	4463	4406	4463	4463	4463	4463	4463	4463	4463	4463	4406	4406	4406	4406	4406	4463	4463	4463	4463	4521	4521	4521	4521	4521	4521	4581	4581	4643	4643	4706	4706	4706	4706	4977	5125	5125	5202	5202	5202	5202	5202	5202	5202	5202	5202	5202	5202	5202	5202	5282	5282	5282	5282	5282	5282	5282	5282	5282	5282	5202	5282	5282	5282	5282	5364	5448	5535	5535	5535	5535	5626	5626	5626	5626	5626	0	0	0	0	0	0	0	0	0	6349	6349	6349	6349	6468	6468	6468	6468	6468	6468	6468	6349	6349	6349	6349	6468	6468	6468	6468	6468	6468	6468	6468	6468	6349	6592	6592	6592	6592	6468	6468	6468	6468	6468	6468	6468	6468	6468	6468	6468	6468	6592	6592	6468	6592	6592	6468	6592	6468	6468	6468	6468	6468	6468	6468	6468	6468	6468	6468	6468	6468	6468	6468	6468	6468	6468	6468	6468	6592	6592	6592	6468	6468	6468	6592	6468	6468	6468	6592	6468	6592	6592	6592	6592	6468	6468	6468	6468	6468	6468	6468	6468	6468	6468	6468	6468	6468	6468	6468	6349	6468	6468	6468	6468	6468	6468	6468	6468	6468	6468	6468	6468	6468	6468	6349	6349	6349	6349	6349	6349	6349	6468	6468	6468	6349	6349	6349	6349	0	6468	6468	6468	6468	6349	6349	6349	6235	6235	6235	6349	6349	6349	6349	6349	6349	6349	6349	6468	6592	6592	6592	6592	6592	6592	6592	6592	6592	6592	6592	6592	6592	6592	6592	6592	6592	6592	6468	6468	6468	6468	6468	6592	6592	6592	6592	6592	6592	6592	6592	6592	6592	6592	6592	6592	6592	6592	6592	6592	6468	6468	6468	6468	6468	6349	6349	6349	6349	6349	6468	6468	6468	6468	6592	6592	6592	6592	6592	6592	6592	6592	6592	6592	6592	6592	6468	6592	6592	6468	6468	6468	6349	6468	6468	6468	6468	6468	6592	6592	6592	6592	6592	6592	6592	6592	6592	6592	6592	6592	6468	6468	6468	6468	6468	6468	6468	6468	6468	6468	6468	6468	6468	6468	6468	6468	6468	6468	6349	6349	6349	6349	6349	6349	6468	6468	6468	6468	6468	6468	6468	6592	6592	6592	6468	6592	6592	6592	6592	6592	6592	6592	6592	6592	6592	6592	6720	6720	6720	6720	6592	6592	6592	6592	6592	6592	6468	6592	6592	6592	6468	6468	6468	6592	6592	6592	6592	6592	6720	6720	6720	6720	6720	6720	6592	6592	6468	6592	6592	6720	6720	6592	6592	6720	6720	6720	6468	6468	6592	6592	6592	6468	6592	6592	6720	6720	6720	6592	6592	6720	6853	6720	6720	6720	6720	6720	6720	6720	6720	6720	6720	6720	6720	6720	6853	6720	6720	6592	6592	6592	6592	6592	6592	6720	6720	6720	6720	6720	6720	6720	6720	6720	6592	6592	6720	6720	6720	6592	6592	6592	6592	6592	6592	6592	6592	6720	6720	6720	6592	6592	6592	6592	6468	6468	6468	6592	6592	6592	6592	6592	6720	6592	6592	6592	6592	6592	6592	6720	6592	6592	6468	6468	6468	6592	6592	6468	6468	6468	0	0	0	0	0	0	0	0	0	0	0	0	2426	2426	2426	2426	2409	2409	2409	0	0	0	0	0	0	0	0	0	0	0	0	0	0	0	0	0	0	0	0	0	0	0	0	0	0	0	0	0	0	0	0	0	0	0	0	0
0	0	0	0	0	0	0	0	0	0	0	0	0	0	0	0	0	0	0	0	0	0	0	0	0	0	0	0	0	0	0	0	0	0	0	0	0	0	0	0	0	0	0	0	0	0	0	0	0	0	0	0	0	0	0	0	0	0	0	0	0	0	0	0	0	0	0	0	0	0	0	0	0	0	0	0	0	4463	4463	4463	4406	4463	4463	4463	4463	4463	4463	4463	4463	4463	4463	4463	4463	4463	4463	4463	4406	4406	4406	4406	4463	4463	4463	4521	4521	4521	4463	4581	4581	4581	4581	4643	4643	4643	4643	4643	4706	4771	4771	5125	5125	5202	5202	5202	5202	5202	5202	5202	5282	5282	5202	5202	5202	5282	5282	5282	5282	5282	5282	5282	5282	5282	5282	5202	5282	5282	5282	5282	5364	5448	5535	5535	5535	5626	5626	5626	5719	5719	5626	0	0	0	0	0	0	0	0	6235	6235	6349	6349	6349	6349	6468	6468	6468	6468	6468	6468	6468	6468	6468	6349	6468	6468	6468	6468	6468	6468	6468	6468	6468	6349	6468	6592	6592	6592	6468	6468	6468	6468	6468	6468	6468	6468	6592	6592	6468	6468	6592	6592	6592	6592	6592	6592	6592	6592	6468	6468	6592	6468	6468	6592	6468	6468	6468	6592	6468	6468	6468	6468	6468	6468	6592	6468	6468	6592	6592	6592	6468	6468	6468	6468	6468	6468	6468	6592	6592	6592	6592	6592	6592	6592	6592	6592	6592	6592	6592	6468	6592	6468	6468	6468	6468	6468	6468	6468	6468	6468	6468	6468	6468	6468	6592	6592	6592	6592	6592	6468	6468	6468	6468	6468	6349	6349	6349	6349	6349	6468	6468	6468	6468	6349	6349	6349	6349	6349	6468	6468	6468	6468	6349	6349	6349	6349	6349	6349	6468	6468	6468	6468	6468	6349	6349	6468	6592	6592	6592	6592	6592	6592	6592	6592	6592	6592	6592	6592	6592	6592	6592	6592	6592	6592	6592	6592	6468	6468	6468	6592	6592	6592	6592	6592	6592	6592	6592	6592	6592	6592	6592	6592	6592	6720	6720	6592	6592	6592	6592	6592	6468	6468	6349	6349	6349	6349	6349	6468	6468	6468	6592	6592	6592	6592	6592	6592	6592	6592	6592	6592	6592	6592	6592	6592	6592	6592	6592	6468	6468	6592	6592	6592	6592	6592	6592	6592	6592	6592	6592	6592	6720	6592	6720	6592	6592	6592	6592	6468	6592	6592	6592	6592	6592	6592	6592	6592	6592	6592	6592	6592	6592	6592	6592	6592	6468	6468	6468	6468	6468	6468	6468	6592	6592	6468	6592	6468	6468	6468	6592	6592	6592	6592	6592	6720	6592	6592	6592	6592	6592	6592	6592	6592	6592	6720	6720	6720	6720	6720	6720	6720	6720	6592	6592	6592	6592	6592	6468	6468	6592	6592	6720	6720	6592	6592	6592	6720	6720	6720	6720	6720	6720	6720	6592	6592	6592	6592	6720	6720	6720	6720	6720	6720	6720	6592	6592	6720	6720	6720	6592	6592	6720	6853	6853	6720	6853	6853	6853	6853	6853	6720	6720	6720	6720	6720	6720	6720	6720	6853	6853	6853	6720	6853	6720	6720	6720	6720	6592	6592	6592	6720	6720	6720	6720	6720	6720	6720	6853	6853	6720	6720	6592	6720	6720	6720	6592	6592	6592	6720	6720	6592	6592	6592	6720	6720	6592	6592	6592	6592	6592	6592	6468	6592	6720	6720	6720	6720	6720	6720	6720	6592	6720	6592	6592	6592	6592	6592	6592	6468	6592	6468	6592	6592	6468	6468	0	0	0	0	0	0	0	0	0	0	0	2409	2409	2426	2426	2426	2426	2409	2409	2409	0	0	0	0	0	0	0	0	0	0	0	0	0	0	0	0	0	0	0	0	0	0	0	0	0	0	0	0	0	0	0	0	0	0	0	0	0
0	0	0	0	0	0	0	0	0	0	0	0	0	0	0	0	0	0	0	0	0	0	0	0	0	0	0	0	0	0	0	0	0	0	0	0	0	0	0	0	0	0	0	0	0	0	0	0	0	0	0	0	0	0	0	0	0	0	0	0	0	0	0	0	0	0	0	0	0	0	0	0	0	0	0	0	0	0	4463	4463	4463	4463	4463	4463	4463	4463	4463	4463	4463	4463	4463	4463	4463	4463	4463	4463	4406	4406	4406	4463	4463	4463	4463	4463	4463	4521	4521	4521	4521	4581	4581	4643	4643	4706	4706	4643	4643	5050	5050	5050	5125	5202	5202	5202	5202	5202	5202	5202	5202	5202	5202	5202	5202	5202	5282	5282	5282	5282	5282	5282	5282	5282	5282	5202	5202	5282	5282	5282	5282	5364	5448	5535	5535	5626	5626	5719	5719	5719	0	0	0	0	0	0	0	0	0	6235	6349	6468	6349	6349	6349	6468	6468	6468	6468	6468	6468	6349	6349	6349	6349	6468	6468	6468	6468	6468	6468	6468	6468	6468	6349	6468	6592	6592	6592	6468	6468	6468	6468	6468	6468	6468	6592	6592	6592	6468	6468	6592	6592	6592	6592	6592	6592	6592	6592	6592	6592	6468	6468	6468	6592	6468	6592	6468	6592	6592	6592	6468	6592	6592	6592	6592	6592	6592	6592	6592	6592	6592	6592	6592	6592	6592	6592	6592	6592	6592	6720	6720	6592	6592	6592	6592	6592	6592	6592	6592	6592	6592	6468	6468	6468	6468	6468	6468	6468	6468	6468	6468	6468	6592	6592	6592	6592	6592	6592	6592	6592	6468	6349	6468	6468	6349	6349	6349	6349	6349	6349	6468	6349	6468	6349	6468	6349	6349	6349	6468	6468	6468	6468	6468	6468	6468	6349	6468	6468	6468	6468	6468	6468	6468	6468	6468	6468	6592	6592	6592	6592	6592	6592	6592	6592	6592	6592	6592	6592	6592	6592	6592	6592	6592	6592	6592	6592	6468	6592	6592	6592	6592	6592	6592	6592	6592	6592	6592	6592	6592	6592	6720	6720	6720	6720	6720	6592	6592	6592	6592	6592	6468	6468	6349	6468	6468	6349	6349	6468	6468	6592	6592	6592	6592	6592	6592	6592	6592	6592	6592	6592	6592	6592	6592	6592	6592	6592	6592	6592	6592	6592	6592	6592	6592	6592	6592	6592	6592	6592	6720	6720	6720	6720	6720	6720	6720	6592	6592	6592	6592	6592	6592	6592	6592	6592	6592	6592	6592	6592	6592	6592	6592	6592	6592	6592	6592	6592	6592	6592	6592	6592	6592	6592	6592	6592	6592	6592	6592	6592	6720	6720	6720	6720	6720	6720	6720	6720	6720	6592	6592	6592	6592	6592	6592	6720	6720	6720	6720	6720	6720	6720	6720	6592	6592	6592	6592	6592	6592	6592	6720	6720	6720	6720	6720	6720	6720	6720	6720	6720	6720	6720	6720	6720	6720	6720	6720	6720	6720	6720	6720	6720	6720	6720	6720	6592	6592	6720	6720	6720	6592	6720	6720	6853	6853	6853	6853	6853	6853	6853	6853	6720	6720	6720	6720	6720	6720	6720	6853	6853	6853	6853	6853	6853	6853	6720	6720	6720	6720	6720	6592	6720	6720	6720	6720	6720	6720	6853	6853	6853	6853	6853	6720	6720	6720	6720	6592	6592	6592	6720	6720	6720	6592	6720	6720	6720	6592	6592	6592	6592	6592	6592	6592	6592	6720	6720	6853	6720	6720	6853	6720	6853	6853	6853	6720	6592	6592	6592	6592	6592	6592	6592	6592	6592	6468	6468	0	0	0	0	0	0	0	0	0	0	0	2409	2426	2426	2426	2426	2426	2409	2409	2409	0	0	0	0	0	0	0	0	0	0	0	0	0	0	0	0	0	0	0	0	0	0	0	0	0	0	0	0	0	0	0	0	0	0	0	0	0
0	0	0	0	0	0	0	0	0	0	0	0	0	0	0	0	0	0	0	0	0	0	0	0	0	0	0	0	0	0	0	0	0	0	0	0	0	0	0	0	0	0	0	0	0	0	0	0	0	0	0	0	0	0	0	0	0	0	0	0	0	0	0	0	0	0	0	0	0	0	0	0	0	0	0	0	0	0	4463	4463	4463	4463	4521	4521	4463	4463	4463	4406	4406	4406	4406	4463	4406	4463	4463	4463	4406	4406	4406	4463	4463	4463	4463	4463	4521	4521	4521	4581	4581	4643	4643	4643	4706	4706	4706	4706	4643	5125	5125	5125	5202	5202	5202	5202	5202	5202	5202	5202	5202	5202	5202	5202	5202	5202	5282	5282	5282	5282	5282	5282	5282	5202	5202	5202	5202	5282	5282	5282	5364	5364	5448	5535	5535	5626	5626	5719	5719	5719	0	0	0	0	0	0	0	0	0	0	6349	6468	6349	6349	6349	6349	6468	6468	6468	6468	6468	6468	6468	6468	6349	6349	6468	6468	6468	6468	6468	6468	6468	6349	6349	6468	6592	6592	6592	6592	6468	6592	6592	6592	6592	6592	6592	6592	6592	6592	6592	6592	6592	6592	6592	6592	6592	6592	6592	6592	6592	6468	6468	6468	6592	6468	6592	6592	6592	6592	6592	6592	6592	6592	6592	6592	6592	6592	6592	6592	6592	6592	6592	6592	6592	6592	6592	6592	6592	6592	6592	6720	6720	6592	6592	6592	6592	6592	6592	6592	6468	6592	6468	6592	6592	6468	6468	6468	6468	6468	6468	6468	6468	6592	6592	6592	6592	6592	6592	6592	6592	6468	6349	6468	6468	6349	6349	6349	6349	6468	6468	6468	6468	6468	6468	6468	6468	6349	6349	6468	6468	6468	6468	6468	6468	6468	6349	6468	6468	6468	6468	6468	6592	6592	6468	6468	6592	6720	6720	6720	6720	6592	6592	6592	6592	6592	6592	6592	6720	6720	6720	6720	6592	6592	6592	6592	6592	6592	6592	6592	6592	6592	6592	6592	6592	6592	6592	6592	6592	6592	6720	6720	6720	6720	6720	6720	6720	6592	6592	6592	6592	6592	6468	6468	6468	6468	6468	6349	6468	6592	6592	6592	6592	6592	6592	6592	6592	6592	6592	6592	6592	6592	6592	6592	6592	6592	6592	6592	6592	6592	6592	6592	6592	6592	6592	6592	6592	6592	6592	6720	6720	6720	6720	6720	6720	6720	6592	6592	6592	6592	6592	6592	6592	6592	6592	6720	6592	6592	6592	6592	6592	6592	6592	6592	6592	6592	6592	6592	6592	6592	6592	6592	6592	6592	6592	6592	6592	6592	6592	6853	6720	6853	6720	6720	6720	6720	6720	6720	6720	6720	6720	6720	6592	6592	6720	6720	6720	6720	6720	6720	6720	6720	6720	6592	6592	6592	6720	6720	6592	6720	6592	6720	6720	6720	6720	6720	6720	6720	6853	6720	6720	6720	6720	6720	6720	6720	6720	6720	6720	6720	6720	6720	6720	6720	6720	6720	6720	6853	6853	6720	6853	6853	6992	6853	6853	6853	6992	6992	6992	6853	6853	6720	6720	6720	6720	6720	6720	6720	6853	6853	6853	6853	6853	6853	6853	6720	6853	6720	6720	6720	6853	6853	6853	6853	6853	6853	6853	6853	6853	6853	6720	6720	6720	6720	6720	6592	6592	6720	6720	6720	6720	6720	6592	6720	6720	6592	6592	6592	6592	6720	6592	6592	6592	6853	6853	6853	6853	6853	6853	6853	6853	6853	6853	6720	6592	6720	6720	6592	6592	6592	6592	6592	0	0	0	0	0	0	0	0	0	0	0	0	2460	2460	2443	2443	2443	2426	2426	2426	2426	2426	2426	0	0	0	0	0	0	0	0	0	0	0	0	0	0	0	0	0	0	0	0	0	0	0	0	0	0	0	0	0	0	0	0	0	0	0	0	0
0	0	0	0	0	0	0	0	0	0	0	0	0	0	0	0	0	0	0	0	0	0	0	0	0	0	0	0	0	0	0	0	0	0	0	0	0	0	0	0	0	0	0	0	0	0	0	0	0	0	0	0	0	0	0	0	0	0	0	0	0	0	0	0	0	0	0	0	0	0	0	0	0	0	0	0	0	0	0	0	0	4521	4521	4521	4521	4463	4463	4406	4406	4406	4406	4406	4463	4463	4463	4463	4463	4463	4463	4463	4463	4463	4463	4463	4521	4581	4521	4581	4643	4643	4643	4643	4706	4706	4706	4643	4643	5125	5125	5125	5202	5202	5202	5202	5202	5202	5202	5202	5202	5202	5202	5202	5202	5282	5282	5282	5282	5282	5282	5282	5202	5202	5202	5202	5202	5282	5282	5282	5364	5364	5448	5535	5535	5626	5626	5719	5719	5719	0	0	0	0	0	0	0	0	0	0	0	0	6349	6349	6349	6349	6468	6468	6468	6468	6468	6468	6468	6468	6468	6468	6468	6468	6468	6468	6468	6468	6468	6349	6349	6468	6592	6592	6592	6592	6592	6592	6592	6592	6592	6592	6592	6592	6592	6592	6592	6592	6592	6592	6592	6592	6592	6592	6592	6592	6592	6592	6592	6592	6592	6592	6592	6592	6592	6592	6592	6592	6592	6592	6592	6592	6592	6592	6592	6592	6592	6592	6592	6592	6592	6592	6592	6592	6592	6592	6720	6720	6720	6720	6592	6592	6592	6592	6592	6592	6592	6592	6592	6592	6592	6592	6592	6592	6468	6468	6592	6592	6592	6592	6592	6592	6592	6592	6592	6592	0	0	6468	6468	6468	6349	6349	6349	6349	6468	6468	6468	6468	6468	6468	6468	6468	6349	6592	6592	6468	6592	6468	6592	6592	6468	6468	6468	6468	6468	6592	6592	6592	6592	6592	6592	6592	6720	6720	6720	6720	6592	6592	6592	6592	6592	6592	6592	6592	6720	6720	6720	6720	6720	6720	6720	6720	6592	6592	6592	6592	6592	6592	6592	6592	6592	6592	6592	6592	6592	6720	6720	6720	6720	6720	6720	6720	6720	6592	6592	6592	6592	6592	6468	6468	6468	6468	6468	6468	6592	6592	6592	6720	6720	6720	6720	6720	6720	6592	6592	6720	6720	6592	6592	6592	6592	6592	6592	6592	6592	6592	6592	6592	6592	6592	6592	6592	6592	6592	6720	6720	6720	6720	6720	6720	6720	6720	6592	6592	6720	6720	6592	6592	6592	6720	6720	6720	6592	6720	6720	6592	6592	6592	6592	6592	6720	6592	6592	6592	6592	6592	6592	6592	6592	6592	6592	6592	6592	6592	6720	6720	6853	6720	6720	6720	6720	6720	6720	6720	6720	6720	6720	6592	6592	6720	6720	6720	6720	6720	6720	6720	6720	6720	6720	6720	6592	6720	6720	6720	6720	6720	6720	6720	6720	6720	6720	6853	6853	6853	6853	6853	6853	6853	6720	6720	6720	6720	6720	6720	6720	6720	6720	6720	6720	6720	6720	6720	6853	6853	6992	6992	6992	6992	6992	6992	6992	6992	6992	6992	6853	6992	6853	6853	6853	6853	6720	6720	6720	6720	6720	6720	6720	6853	6853	6853	6853	6853	6853	6853	6853	6853	6853	6853	6853	6853	6853	6853	0	0	6720	6720	6720	6720	6720	6720	6720	6720	6720	6720	6720	6720	6592	6592	6592	6720	6592	6592	6592	6720	6592	6592	6592	6592	6720	6720	6853	6853	6853	6992	6992	6992	6992	6853	6592	6468	6592	6592	6592	6468	6468	6468	6592	0	0	0	0	0	0	0	0	0	0	0	2460	2460	2460	2443	2443	2443	2443	2426	2426	2426	2426	2426	0	0	0	0	0	0	0	0	0	0	0	0	0	0	0	0	0	0	0	0	0	0	0	0	0	0	0	0	0	0	0	0	0	0	0	0	0
0	0	0	0	0	0	0	0	0	0	0	0	0	0	0	0	0	0	0	0	0	0	0	0	0	0	0	0	0	0	0	0	0	0	0	0	0	0	0	0	0	0	0	0	0	0	0	0	0	0	0	0	0	0	0	0	0	0	0	0	0	0	0	0	0	0	0	0	0	0	0	0	0	0	0	0	0	0	0	0	0	4581	4581	4521	4521	4463	4463	4463	4406	4406	4406	4406	4463	4463	4463	4463	4463	4463	4463	4463	4463	4463	4463	4463	4521	4521	4521	4581	4643	4643	4643	4706	4706	4706	4706	4706	4706	4706	5125	5125	5202	5202	5202	5202	5202	5202	5282	5282	5202	5282	5202	5282	5282	5282	5282	5282	5282	5282	5282	5282	5202	5202	5202	5202	5282	5282	5282	5282	5364	5364	5535	5535	5535	5626	5719	5719	5719	5719	0	0	0	0	0	0	0	0	0	0	0	0	6349	6349	6349	6349	6468	6468	6468	6468	6468	6468	6468	6468	6468	6468	6468	6468	6468	6468	6349	6349	6349	6349	6349	6468	6592	6592	6592	6592	6592	6592	6592	6720	6720	6592	6720	6592	6592	6592	6592	6592	6592	6720	6592	6592	6592	6592	6592	6592	6592	6592	6592	6592	6592	6592	6592	6592	6592	6592	6592	6592	6720	6592	6592	6592	6592	6592	6592	6592	6592	6592	6592	6592	6592	6592	6592	6592	6592	6592	6592	6720	6720	6720	6720	6720	6592	6592	6592	6592	6592	6592	6592	6592	6592	6592	6592	6592	6468	6468	6468	6468	6592	6468	6592	6592	6592	6592	0	0	0	3907	3907	6468	3998	3998	3998	3998	6349	6468	6468	6468	6468	6468	6468	6468	6468	6468	6468	6592	6592	6592	6592	6592	6592	6468	6468	6468	6592	6592	6592	6592	6592	6592	6592	6592	6592	6720	6720	6720	6720	6720	6592	6592	6592	6592	6592	6592	6720	6720	6720	6720	6720	6720	6720	6720	6720	6592	6592	6592	6592	6592	6592	6592	6592	6592	6592	6720	6720	6720	6720	6720	6720	6720	6720	6720	6720	6720	6720	6720	6720	6720	6592	6592	6592	6468	6592	6468	6468	6592	6592	6592	6720	6720	6720	6720	6720	6720	6720	6720	6720	6720	6720	6720	6720	6720	6720	6720	6720	6592	6720	6720	6592	6592	6592	6592	6592	6592	6592	6720	6720	6720	6720	6720	6720	6720	6720	6720	6720	6720	6720	6720	6720	6720	6720	6720	6720	6592	6720	6720	6592	6592	6592	6592	6720	6720	6720	6592	6592	6592	6720	6592	6592	6592	6592	6592	6592	6720	6720	6853	6853	6853	6853	6853	6853	6853	6853	6853	6720	6853	6853	6720	6720	6720	6720	6720	6720	6720	6720	6720	6720	6720	6720	6720	6720	6720	6720	6720	6853	6720	6720	6720	6853	6853	6853	6720	6853	6853	6853	6853	6720	6720	6720	6853	6720	6853	6720	6720	6720	6720	6720	6720	6720	6720	6720	6720	6992	6992	6992	6992	6853	6992	6992	6992	6992	6992	6992	6992	7137	7137	6992	6853	6853	6853	6853	6853	6853	6720	6720	6720	6720	6720	6720	6720	6853	6853	6853	6853	6853	6853	6853	6992	6992	6853	6853	6853	6853	0	0	6592	6592	6592	6720	6720	6720	6720	6720	6720	6720	6720	6720	6720	6592	6592	6720	6720	6592	6592	6592	6720	6592	6592	6720	6720	6853	6853	6853	6853	6992	6992	6992	6992	6853	6853	6853	6592	6592	6592	6468	6468	6468	0	0	0	0	0	0	0	0	0	2514	2496	2478	2460	2460	2460	2443	2443	2443	2443	2426	2426	2426	2426	2426	0	0	0	0	0	0	0	0	0	0	0	0	0	0	0	0	0	0	0	0	0	0	0	0	0	0	0	0	0	0	0	0	0	0	0	0	0
0	0	0	0	0	0	0	0	0	0	0	0	0	0	0	0	0	0	0	0	0	0	0	0	0	0	0	0	0	0	0	0	0	0	0	0	0	0	0	0	0	0	0	0	0	0	0	0	0	0	0	0	0	0	0	0	0	0	0	0	0	0	0	0	0	0	0	0	0	0	0	0	0	0	0	0	0	0	0	0	0	4581	4581	4521	4521	4521	4463	4463	4406	4406	4406	4406	4406	4463	4463	4463	4463	4463	4463	4463	4463	4463	4463	4463	4463	4521	4521	4581	4643	4643	4643	4706	4706	4706	4706	4706	4706	5125	5125	5125	5202	5202	5202	5202	5202	5202	5282	5202	5202	5282	5202	5282	5282	5282	5282	5282	5282	5282	5282	5282	5202	5202	5282	5202	5282	5282	5282	5282	5364	5364	5448	5535	5535	5626	5626	5626	5719	0	0	0	0	0	0	0	0	0	0	0	0	0	0	6349	6349	6349	6468	6468	6468	6468	6468	6468	6468	6468	6468	6468	6468	6468	6468	6468	6349	6349	6349	6468	6468	6592	6592	6592	6720	6592	6592	6720	6720	6720	6720	6720	6720	6720	6720	6592	6720	6720	6720	6720	6720	6592	6592	6592	6592	6592	6592	6592	6592	6592	6592	6592	6592	6592	6720	6592	6592	6592	6720	6592	6592	6592	6592	6720	6592	6592	6592	6592	6592	6592	6592	6592	6592	6592	6592	6592	6720	6720	6720	6720	6720	6720	6592	6592	6592	6592	6592	6592	6592	6592	6592	6592	6592	6592	6592	6592	6592	6592	6592	6592	6592	6592	0	0	0	0	3907	3907	3952	3998	3952	3952	3952	3998	0	6468	6468	6468	6468	6468	6349	6468	6468	6468	6468	6592	6592	6592	6592	6592	6592	6592	6592	6592	6592	6592	6592	6720	6720	6720	6592	6592	6592	6720	6720	6720	6720	6720	6720	6720	6720	6592	6592	6592	6720	6720	6720	6720	6720	6720	6720	6720	6720	6720	6720	6592	6592	6592	6592	6592	6592	6592	6592	6592	6720	6720	6720	6720	6720	6720	6853	6853	6853	6720	6720	6720	6720	6720	6592	6592	6592	6592	6592	6592	6592	6592	6592	6592	6720	6720	6720	6720	6720	6720	6720	6720	6720	6853	6720	6720	6720	6720	6720	6720	6720	6720	6720	6720	6592	6592	6592	6720	6720	6720	6720	6720	6720	6720	6720	6720	6720	6720	6720	6720	6720	6720	6720	6720	6720	6720	6720	6720	6720	6720	6720	6720	6592	6592	6592	6592	6720	6720	6720	6592	6592	6720	6720	6592	6592	6592	6720	6720	6720	6720	6720	6853	6853	6853	6853	6853	6853	6853	6853	6853	6853	6853	6853	6853	6853	6720	6720	6720	6720	6853	6720	6720	6720	6720	6720	6720	6720	6720	6720	6853	6853	6853	6853	6853	6853	6853	6853	6853	6853	6853	6853	6853	6853	6853	6853	6853	6853	6853	6853	6853	6720	6720	6720	6720	6720	6720	6720	6720	6992	6992	6992	6992	6992	6992	6992	6992	6992	6853	6992	6992	7137	7137	7137	6992	6992	6992	6853	6853	6853	6720	6720	6720	6720	6720	6720	6720	6720	6853	6853	6853	6992	7137	7137	7137	7137	7137	7137	6853	6853	0	0	6592	6592	6592	6720	6720	6720	6720	6720	6720	6720	6720	6720	6720	0	0	6720	6720	6720	6720	6720	6720	6720	6592	6720	6720	6720	6853	6853	6853	6992	6992	6853	6992	6853	6853	6853	0	0	0	0	0	0	0	0	0	0	0	0	0	0	2514	2514	2496	2478	2460	2460	2460	2443	2443	2443	2426	2426	2426	2426	2426	2426	0	0	0	0	0	0	0	0	0	0	0	0	0	0	0	0	0	0	0	0	0	0	0	0	0	0	0	0	0	0	0	0	0	0	0	0	0
0	0	0	0	0	0	0	0	0	0	0	0	0	0	0	0	0	0	0	0	0	0	0	0	0	0	0	0	0	0	0	0	0	0	0	0	0	0	0	0	0	0	0	0	0	0	0	0	0	0	0	0	0	0	0	0	0	0	0	0	0	0	0	0	0	0	0	0	0	0	0	0	0	0	0	0	0	0	0	0	0	0	0	4521	4521	4521	4463	4463	4463	4406	4406	4406	4406	4463	4463	4463	4463	4463	4463	4463	4463	4406	4406	4463	4463	4463	4463	4581	4643	4706	4643	4706	4706	4706	4706	4706	4706	5125	5125	5202	5202	5202	5202	5202	5202	5202	5202	5282	5202	5282	5202	5202	5282	5282	5282	5282	5282	5282	5282	5282	5202	5202	5202	5282	5282	5282	5282	5282	5364	5448	5448	5535	5535	5626	5626	5626	0	0	0	0	0	0	0	0	0	0	0	0	0	0	0	6349	6349	6349	6349	6468	6468	6468	6468	6349	6349	6468	6468	6468	6468	6468	6468	6468	6349	6468	6468	6468	6468	6592	6720	6720	6720	6720	6720	6720	6720	6720	6720	6720	6720	6720	6720	6720	6720	6720	6720	6720	6720	6592	6592	6592	6592	6592	6720	6592	6592	6592	6592	6592	6592	6592	6592	6592	6592	6720	6720	6720	6592	6592	6592	6720	6592	6592	6592	6592	6592	6592	6592	6592	6592	6592	6592	6592	6720	6720	6720	6720	6720	6720	6720	6592	6592	6592	6592	6592	6720	6720	6720	6592	6592	6592	6592	6592	6468	6592	6592	6592	0	0	0	0	0	0	3998	3952	3998	3998	3952	3952	3952	0	0	0	0	0	0	0	6468	6468	6468	6468	6468	6592	6592	6592	6592	6720	6720	6592	6592	6592	6720	6720	6720	6720	6720	6720	6720	6720	6720	6720	6853	6720	6720	6720	6720	6720	6720	6720	6720	6720	6720	6720	6720	6720	6720	6720	6720	6720	6720	6720	6720	6720	6720	6720	6720	6720	6592	6720	6720	6720	6720	6720	6720	6720	6720	6720	6853	6853	6853	6853	6720	6720	6720	6720	6720	6592	6592	6592	6592	6592	6592	6592	6720	6720	6720	6720	6720	6720	6720	6720	6720	6720	6853	6853	6720	6720	6720	6720	6720	6720	6720	6720	6720	6720	6720	6720	6720	6720	6720	6853	6720	6853	6720	6720	6720	6720	6720	6720	6720	6720	6720	6720	6720	6720	6720	6720	6720	6720	6720	6720	6720	6720	6720	6720	6592	6592	6720	6720	6720	6720	6720	6720	6720	6720	6592	6592	6720	6720	6720	6720	6720	6853	6853	6853	6853	6853	6853	6992	6853	6853	6853	6853	6853	6853	6853	6720	6720	6853	6853	6853	6853	6853	6853	6720	6720	6720	6720	6720	6853	6853	6720	6853	6853	6853	6853	6853	6853	6853	6853	6853	6853	6853	6853	6853	6853	6992	6992	6992	6992	6853	6853	6853	6720	6720	6720	6720	0	0	0	7137	6992	6992	6853	6853	6853	6853	6853	6853	6853	6992	7137	7137	7137	7137	7137	6992	6992	6853	6853	6720	6720	6720	6720	6720	6720	6720	6720	6853	6853	6992	6992	7137	6992	6992	6992	6992	6992	6992	6992	0	0	0	6592	6720	6720	6720	6720	6720	6720	6720	6720	6720	0	0	0	0	0	0	6720	6720	6720	6720	6720	6592	6720	6720	6720	6853	6853	6853	6853	6992	6992	6992	6853	6853	0	0	0	0	0	0	0	0	0	0	0	0	0	0	0	2514	2496	2496	2478	2478	2478	2478	2443	2443	2443	2443	2426	2426	2426	2443	2443	0	0	0	0	0	0	0	0	0	0	0	0	0	0	0	0	0	0	0	0	0	0	0	0	0	0	0	0	0	0	0	0	0	0	0	0	0
0	0	0	0	0	0	0	0	0	0	0	0	0	0	0	0	0	0	0	0	0	0	0	0	0	0	0	0	0	0	0	0	0	0	0	0	0	0	0	0	0	0	0	0	0	0	0	0	0	0	0	0	0	0	0	0	0	0	0	0	0	0	0	0	0	0	0	0	0	0	0	0	0	0	0	0	0	0	0	0	0	0	4521	4463	4521	4463	4463	4463	4406	4406	4463	4406	4406	4463	4463	4463	4463	4463	4463	4463	4463	4463	4463	4463	4463	4463	4521	4581	4643	4643	4706	4706	4706	4706	4771	4771	4771	5202	5202	5202	5202	5202	5202	5282	5202	5202	5202	5282	5202	5282	5202	5202	5202	5202	5202	5202	5202	5202	5282	5202	5202	5202	5282	5282	5282	5282	5364	5364	5364	5448	5448	5535	5535	5535	5626	5719	5719	0	0	0	0	0	0	0	0	0	0	0	0	0	0	6349	6349	6349	6349	6468	6468	6349	6468	6349	6468	6468	6468	6468	6468	6468	6468	6468	6349	6468	6468	6468	6468	6720	6720	6720	6720	6720	6720	6720	6720	6720	6720	6720	6720	6720	6720	6720	6720	6720	6720	6720	6720	6592	6592	6592	6592	6592	6592	6592	6592	6720	6592	6592	6592	6592	6720	6592	6720	6720	6720	6720	6720	6592	6592	6592	6592	6592	6592	6592	6592	6592	6592	6592	6592	6592	6592	6592	6592	6592	6592	6592	6592	6592	6592	6592	6592	6592	6592	6592	6592	6592	6720	6592	6592	6592	6468	6468	6592	6592	6592	6592	0	0	0	0	0	3998	3998	3952	3952	3998	3952	3952	3952	0	0	0	0	0	0	0	6468	6468	6468	6468	6592	6592	6592	6720	6720	6720	6720	6720	6720	6720	6720	6720	6720	6720	6720	6720	6720	6720	6720	6720	6720	6720	6720	6720	6720	6720	6720	6720	6720	6720	6720	6720	6720	6720	6720	6720	6720	6720	6720	6720	6720	6720	6720	6720	6720	6720	6720	6720	6720	6720	6720	6720	6720	6720	6853	6720	6853	6853	6853	6853	6853	6720	6853	6853	6720	6720	6720	6720	6720	6720	6720	6592	6720	6720	6720	6720	6720	6720	6720	6720	6853	6853	6853	6853	6853	6720	6720	6720	6720	6720	6720	6720	6853	6853	6853	6853	6853	6992	6992	6992	6853	6853	6853	6720	6720	6720	6720	6720	6720	6720	6720	6720	6720	6720	6720	6720	6720	6720	6720	6720	6720	6720	6720	6720	6720	6720	6720	6720	6720	6720	6720	6720	6720	6720	6720	6720	6720	6720	6720	6720	6720	6853	6853	6853	6853	6853	6853	6992	6853	6853	6853	6853	6853	6853	6853	6720	6853	6853	6992	6853	6853	6853	6853	6853	6853	6720	6853	6853	6853	6853	6853	6853	6992	6992	6992	6853	6853	6853	6992	6853	6853	6853	6853	6853	6853	6992	6992	6992	6992	6992	6853	6853	6720	6720	6720	0	0	0	7137	7137	6992	6992	6853	6853	6853	6853	6853	6853	6853	6992	6992	7137	7137	7137	7137	7137	6992	6992	6853	6853	6853	6853	6853	6853	6720	6853	6853	6853	6853	6992	6992	6992	6992	6992	6992	6992	6992	6992	6992	0	0	0	0	6720	6720	6853	6853	6853	6720	6720	6853	6853	0	0	0	0	0	0	0	6720	6720	6720	6720	6720	6592	6720	6720	6720	6853	6853	6853	6853	6853	0	0	0	0	0	0	0	0	0	0	0	0	0	0	0	0	0	0	2496	2496	2478	2460	2460	2460	2460	2443	2443	2443	2443	2443	2443	2443	2443	2443	0	0	0	0	0	0	0	0	0	0	0	0	0	0	0	0	0	0	0	0	0	0	0	0	0	0	0	0	0	0	0	0	0	0	0	0	0
0	0	0	0	0	0	0	0	0	0	0	0	0	0	0	0	0	0	0	0	0	0	0	0	0	0	0	0	0	0	0	0	0	0	0	0	0	0	0	0	0	0	0	0	0	0	0	0	0	0	0	0	0	0	0	0	0	0	0	0	0	0	0	0	0	0	0	0	0	0	0	0	0	0	0	0	0	0	0	0	4463	4463	4463	4463	4463	4463	4463	4406	4406	4406	4463	4406	4406	4521	4521	4463	4463	4463	4463	4463	4463	4463	4463	4463	4463	4463	4521	4581	4643	4643	4643	4706	4706	4771	4771	4771	4771	5125	5125	5125	5202	5202	5202	5202	5202	5202	5202	5282	5202	5282	5202	5202	5202	5202	5202	5202	5202	5202	5282	5202	5202	5202	5202	5282	5282	5282	5282	5282	5364	5364	5364	5448	5535	5535	5626	5626	5719	0	0	0	0	0	0	0	0	0	0	0	0	0	0	6349	6349	6349	6468	6468	6468	6468	6468	6468	6468	6468	6468	6468	6468	6468	6468	6468	6349	6468	6468	6468	6592	6720	6720	6720	6720	6720	6720	6720	6720	6720	6720	6720	6720	6720	6720	6720	6720	6720	6720	6720	6592	6592	6592	6592	6592	6592	6592	6592	6592	6720	6592	6592	6592	6592	6720	6720	6720	6720	6720	6720	6720	6720	6592	6720	6592	6592	6592	6592	6592	6592	6592	6592	6592	6592	6592	6592	6592	6592	6592	6592	6592	6592	6592	6592	6592	6468	6592	6592	6592	6720	6720	6720	6592	6592	6592	6592	6592	6592	0	0	0	0	0	0	0	3952	3952	3952	3952	3952	3952	3952	3952	3952	0	0	0	0	0	0	6468	6592	6592	6592	6592	6592	6592	6720	6720	6720	6720	6720	6720	6592	6592	6720	6720	6720	6720	6720	6592	6592	6720	6720	6720	6720	6720	6720	6720	6720	6720	6720	6720	6720	6720	6720	6720	6720	6720	6720	6720	6720	6720	6720	6720	6720	6720	6720	6720	6720	6720	6720	6720	6720	6720	6720	6720	6720	6720	6720	6853	6853	6853	6853	6853	6853	6853	6853	6720	6720	6720	6720	6720	6720	6720	6720	6720	6720	6853	6853	6720	6853	6853	6853	6853	6853	6853	6853	6853	6853	6853	6853	6853	6720	6720	6720	6853	6853	6853	6853	6992	6992	6992	6992	6853	6992	6853	6853	6720	6720	6853	6853	6853	6853	6853	6853	6853	6853	6853	6853	6853	6853	6853	6853	6720	6720	6720	6720	6720	6720	6720	6720	6720	6720	6720	6720	6720	6720	6720	6720	6720	6720	6720	6720	6720	6853	6853	6853	6853	6853	6853	6992	6853	6853	6853	6853	6853	6853	6853	6853	6853	6853	6853	6853	6853	6853	6853	6853	6853	6853	6853	6853	6853	6853	6992	6992	6992	7137	7137	6992	6992	6992	6992	6853	6853	6853	6853	6853	6853	6992	6992	6992	7137	6992	6992	6992	6992	0	0	0	0	0	7137	7137	6992	7137	6992	6992	6992	6992	6992	6992	6992	6992	7137	7137	7137	7137	7137	7137	6992	6992	6992	6853	6853	6853	6853	6853	6853	6853	6853	6853	6853	6992	6992	7137	6992	7137	6992	6992	6992	6992	6853	6853	0	6853	6853	6720	6720	6853	6853	6853	6853	6720	6853	6853	6853	0	0	0	0	0	0	0	0	0	6720	6720	6720	6720	6592	6592	6720	6720	6853	6853	6853	0	0	0	0	0	0	0	0	0	0	0	0	0	0	0	0	0	2514	2514	2496	2478	2460	2460	2460	2460	2460	2460	2496	2443	2443	2496	2443	2443	2443	0	0	0	0	0	0	0	0	0	0	0	0	0	0	0	0	0	0	0	0	0	0	0	0	0	0	0	0	0	0	0	0	0	0	0	0	0
