0	0	0	0	0	0	0	0	0	0	0	0	0	0	1814	1814	1814	1824	1833	1843	1843	1863	1873	1873	1883	1904	1915	1915	1915	1925	1925	1925	1925	1936	1936	1947	1958	1958	1969	1980	1992	2003	2003	2015	2015	2015	2027	2039	2051	2051	2063	2063	2076	2076	2076	2076	2088	2101	2114	2114	2127	2127	2140	2140	2153	2167	2181	2181	2194	2223	2223	2223	2237	2237	2237	2252	2281	2281	2297	2297	2312	2312	2327	2343	2343	2343	2359	2359	2376	2392	2392	2409	2409	2426	2426	2443	2460	2478	2478	2478	2478	2496	2496	2496	2496	4192	4192	4192	4192	4192	4192	4192	4192	4243	4243	4296	4296	4296	4296	4350	4406	4406	4406	4463	4463	4463	4581	4643	4643	4643	4706	4706	4771	4771	4771	4771	0	0	0	0	0	0	0	0	0	0	0	0	0	0	0	0	0	0	0	0	0	0	0	0	0	0	0	0	0	0	0	0	7444	7444	7444	7444	7444	7444	7287	7608	7779	7959	7779	7779	7959	7959	7959	7959	7779	7608	7608	7608	7608	7608	7444	7444	7444	0	0	0	0	0	0	0	0	0	0	0	0	0	0	0	0	0	0	0	0	0	0	0	0	0	0	0	0	0	0	0	0	0	0	0	0	0	0	0	0	0	0	0	0	0	0	0	0	0	0	0	0	0	0	0	0	0	0	0	0	0	0	0	0	0	0	0	0	0	0	0	0	0	0	0	0	0	0	0	0	0	0	0	0	0	0	0	0	0	0	0	4406	4350	4350	4296	4296	4296	4296	4296	4296	4243	4296	4296	4243	4243	4243	4243	4243	4243	4243	4243	4243	4243	4243	4243	4243	4243	4243	4243	4243	4243	4243	4243	4296	4296	4296	4350	4296	4350	4350	4350	4350	4350	4350	4296	4296	8343	8343	8550	8343	8343	8343	8146	8343	8343	8343	8146	8343	8343	8343	8146	8146	8146	8343	8146	8146	7959	8146	8343	8343	8343	0	0	0	0	0	0	0	0	0	0	0	0	0	0	0	0	0	0	0	0	0	0	0	8343	8146	8146	8343	8146	8146	7959	8146	8146	8146	8146	8146	8146	8146	8146	8146	8146	8146	7959	7779	7779	7608	7608	0	0	0	0	0	0	0	7444	7287	7287	7287	7287	7608	7959	7959	7959	7959	7959	7779	7779	0	6720	6720	0	6468	6468	6349	6349	6349	6349	0	0	0	0	0	0	0	0	0	0	0	0	0	0	0	0	5915	5915	5915	5915	0	0	0	0	0	0	0	0	0	0	0	0	0	0	0	0	0	0	0	0	0	0	0	0	0	0	0	0	0	0	0	0	0	0	0	0	0	0	0	3277	3246	3246	3216	3186	3186	3186	3157	3157	3157	3157	3157	3129	3157	3157	3157	3129	3157	3157	3157	3157	3157	3157	3157	3157	3157	3157	3157	3157	3157	3157	3157	3157	3129	3157	3129	3129	3101	3129	3129	0	0	2153	2140	2140	2140	2140	2127	2127	2127	2127	2127	2127	2114	2114	2114	2101	2101	2088	2088	2076	2076	2051	2003	1992	1969	1958	1947	1947	1947	1936	1936	1925	1925	1915	1915	1904	1915	1904	1904	1904	1904	1894	1894	1894	1894	1894	1894	1894	1894	1894	1894	1894	1894	1894	1894	1894	1894	1894	1894	1883	1883	1883	1894	1894	1894	1894	1894	1894	1894	1904	1915	1915	1915	0	0	0	0	0	0	0	0	0	0	0	0	0	0	0	0	0	0	0	0	0	0	0	0	0	0	0	0	0	0	0	0	0	0	0	0	0
0	0	0	0	0	0	0	0	0	0	0	0	0	0	1814	1814	1814	1824	1833	1833	1843	1853	1863	1863	1873	1904	1904	1915	1925	1925	1925	1925	1936	1936	1936	1947	1947	1958	1958	1980	1992	2003	2015	2015	2015	2027	2027	2039	2051	2051	2063	2076	2076	2076	2076	2088	2101	2101	2114	2114	2127	2127	2140	2140	2153	2167	2167	2181	2181	2194	2223	2223	2237	2237	2252	2266	2281	2281	2281	2297	2297	2312	2312	2327	2343	2343	2359	2359	2359	2392	2392	2409	2426	2426	2426	2443	2460	2478	2478	2496	2496	2514	2496	2496	2496	4192	4142	4142	4142	4192	4192	4192	4243	4243	4296	4296	4296	4350	4350	4350	4406	4406	4406	4463	4463	4521	4643	4643	4643	4643	4643	4706	4706	4706	4771	4771	0	0	0	0	0	0	0	0	0	0	0	0	0	0	0	0	0	0	0	0	0	0	0	0	0	0	0	0	0	0	0	0	7444	7444	7444	7287	7287	7608	7608	7608	7608	7779	7779	7779	7959	7959	7779	7959	7779	7608	7608	7608	7608	7608	7444	7444	7608	7608	0	0	0	0	0	0	0	0	0	0	0	0	0	0	0	0	0	0	0	0	0	0	0	0	0	0	0	0	0	0	0	0	0	0	0	0	0	0	0	0	0	0	0	0	0	0	0	0	0	0	0	0	0	0	0	0	0	0	0	0	0	0	0	0	0	0	0	0	0	0	0	0	0	0	0	0	0	0	0	0	0	0	0	0	0	0	0	0	4406	4406	4406	4350	4350	4296	4296	4296	4296	4296	4243	4243	4243	4296	4243	4243	4243	4243	4243	4192	4192	4192	4192	4192	4243	4243	4243	4243	4243	4243	4243	4243	4243	4243	4296	4296	4296	4296	4296	4350	4350	4350	4350	4350	4350	4350	4296	8550	8550	8550	8343	8343	8146	8146	8146	8146	8146	8146	8343	8343	8343	8343	8146	8146	8343	8146	8146	7959	8146	8146	8146	8343	0	0	0	0	0	0	0	0	0	0	0	0	0	0	0	0	0	0	0	0	0	0	0	8343	8146	8146	8343	8146	8146	7959	8146	8146	8146	8146	8146	8146	8146	8146	8146	8146	7959	7959	7779	7779	7608	7608	0	0	0	0	0	0	0	0	0	7287	7287	7287	7608	7959	7959	7959	7959	7959	7779	7779	6720	6720	6720	6592	6592	6468	6349	6468	6468	0	0	0	0	0	0	0	0	0	0	0	0	0	0	0	0	5915	5915	5915	5915	6124	6235	6235	6235	0	0	0	0	0	0	0	0	0	0	0	0	0	0	0	0	0	0	0	0	0	0	0	0	0	0	0	0	0	0	0	0	0	0	0	3309	3246	3246	3216	3216	3186	3186	3157	3157	3157	3129	3129	3129	3129	3129	3129	3129	3129	3157	3157	3157	3157	3157	3157	3157	3157	3157	3157	3129	3129	3129	3157	3157	3129	3129	3157	3129	3129	3101	3101	3101	0	0	0	2140	2140	2140	2140	2127	2127	2127	2127	2127	2114	2114	2114	2101	2101	2101	2088	2088	2076	2076	2063	2027	1992	1969	1958	1947	1947	1947	1936	1936	1925	1925	1915	1915	1904	1915	1904	1904	1904	1904	1894	1894	1894	1894	1894	1894	1894	1894	1894	1894	1894	1894	1894	1894	1894	1894	1894	1894	1883	1894	1883	1894	1894	1894	1894	1894	1894	1894	1904	1915	1904	1904	0	0	0	0	0	0	0	0	0	0	0	0	0	0	0	0	0	0	0	0	0	0	0	0	0	0	0	0	0	0	0	0	0	0	0	0	0
0	0	0	0	0	0	0	0	0	0	0	0	0	0	1814	1814	1814	1824	1833	1833	1843	1853	1863	1873	1873	1904	1904	1915	1925	1925	1925	1925	1936	1936	1936	1936	1947	1958	1969	1980	1992	2003	2003	2015	2015	2015	2027	2039	2051	2051	2063	2076	2076	2076	2076	2088	2101	2101	2101	2114	2114	2127	2140	2140	2153	2167	2167	2181	2181	2194	2237	2237	2237	2252	2266	2266	2281	2281	2281	2297	2297	2297	2312	2327	2327	2343	2359	2359	2359	2392	2409	2409	2426	2426	2426	2443	2460	2460	2478	2478	2478	2478	2496	2496	2496	4192	4142	4142	4142	4192	4192	4243	4296	4296	4296	4296	4296	4350	4350	4350	4406	4406	4406	4406	4406	4463	4581	4643	4643	4643	4643	4706	4706	4706	4706	4706	0	0	0	0	0	0	0	0	0	0	0	0	0	0	0	0	0	0	0	0	0	0	0	0	0	0	0	0	0	0	0	0	7444	7444	7287	7287	7608	7608	7608	7608	7608	7779	7779	7779	7959	7959	7959	7959	7779	7779	7608	7608	7608	7608	7608	7608	7608	7608	0	0	0	0	0	0	0	0	0	0	0	0	0	0	0	0	0	0	0	0	0	0	0	0	0	0	0	0	0	0	0	0	0	0	0	0	0	0	0	0	0	0	0	0	0	0	0	0	0	0	0	0	0	0	0	0	0	0	0	0	0	0	0	0	0	0	0	0	0	0	0	0	0	0	0	0	0	0	0	0	0	0	0	0	0	0	0	0	4463	4463	4406	4350	4350	4296	4296	4296	4296	4243	4243	4243	4243	4296	4243	4243	4243	4243	4243	4192	4192	4192	4192	4243	4243	4243	4243	4243	4243	4243	4243	4243	4243	4243	4296	4296	4296	4296	4350	4350	4350	4350	4350	4350	4350	4350	0	8343	8550	8343	8146	8146	8146	8146	8146	8146	8146	8146	8343	8343	8343	8343	8343	8343	8343	8146	8146	8146	8146	8343	8343	8343	0	0	0	0	0	0	0	0	0	0	0	0	0	0	0	0	0	0	0	0	0	0	0	0	8146	8146	8343	8146	8146	7959	7959	8146	8146	8146	8146	8146	8146	8146	7959	8146	7959	7959	7959	7779	7779	7779	0	0	0	0	0	0	0	0	0	7287	7287	7444	7608	7959	7959	7959	7959	7959	7779	7287	7287	6853	6720	6592	6592	6592	6468	6468	6468	0	0	0	0	0	0	0	0	0	0	0	0	0	0	5915	6018	6018	6018	6235	6124	6124	6235	6235	6235	0	0	0	0	0	0	0	0	0	0	0	0	0	0	0	0	0	0	0	0	0	0	0	0	0	0	0	0	0	0	0	0	0	0	0	3341	3277	3246	3246	3216	3186	3186	3157	3157	3157	3129	3129	3129	3129	3129	3129	3129	3129	3157	3157	3157	3157	3157	3157	3157	3157	3157	3157	3157	3157	3129	3129	3129	3129	3129	3129	3129	3129	3101	3129	3129	0	0	0	2140	2140	2140	2127	2127	2127	2127	2114	2127	2114	2114	2101	2101	2101	2088	2088	2088	2076	2076	2076	2063	2003	1980	1958	1947	1947	1936	1936	1936	1925	1925	1915	1915	1904	1904	1904	1904	1904	1904	1904	1904	1904	1894	1894	1894	1894	1894	1894	1894	1894	1894	1894	1894	1894	1894	1894	1894	1894	1894	1894	1894	1894	1894	1894	1894	1894	1894	1904	1915	1904	1904	0	0	0	0	0	0	0	0	0	0	0	0	0	0	0	0	0	0	0	0	0	0	0	0	0	0	0	0	0	0	0	0	0	0	0	0	0
0	0	0	0	0	0	0	0	0	0	0	0	0	0	1814	1824	1824	1833	1833	1833	1843	1853	1873	1873	1883	1894	1904	1915	1915	1925	1925	1925	1936	1936	1936	1936	1947	1958	1969	1980	1992	2003	2003	2003	2015	2027	2027	2039	2039	2051	2063	2063	2063	2076	2076	2088	2101	2101	2114	2114	2127	2127	2127	2127	2127	2153	2167	2181	2194	2237	2237	2237	2237	2252	2266	2266	2281	2281	2281	2281	2297	2297	2297	2327	2343	2343	2359	2359	2359	2409	2409	2426	2426	2426	2443	2443	2460	2460	2478	2496	2478	2496	2478	2460	2460	0	4142	4142	4142	4142	4192	4243	4296	4296	4296	4296	4296	4350	4350	4296	4350	4350	4406	4406	4406	4406	4521	4581	4581	4643	4643	4643	4643	4643	4706	4706	0	0	0	0	0	0	0	0	0	0	0	0	0	0	0	0	0	0	0	0	0	0	0	0	0	0	0	0	0	0	0	7137	7444	7444	7608	7444	7608	7608	7608	7608	7608	7779	7779	7779	7959	7959	7959	7959	7959	7779	7779	7608	7779	7608	7608	7608	7608	7608	0	0	0	0	0	0	0	0	0	0	0	0	0	0	0	0	0	0	0	0	0	0	0	0	0	0	0	0	0	0	0	0	0	0	0	0	0	0	0	0	0	0	0	0	0	0	0	0	0	0	0	0	0	0	0	0	0	0	0	0	0	0	0	0	0	0	0	0	0	0	0	0	0	0	0	0	0	0	0	0	0	0	0	0	0	0	0	0	4406	4463	4406	4406	4350	4350	4296	4296	4296	4243	4243	4243	4243	4296	4243	4243	4243	4243	4243	4192	4192	4192	4243	4243	4243	4243	4243	4243	4243	4243	4243	4243	4243	4243	4296	4296	4296	4350	4350	4350	4350	4350	4350	4350	4350	4350	8343	8343	8343	8343	8146	8146	8146	8146	8146	8146	8146	8146	8343	8343	8343	8343	8146	8146	8343	8146	8146	8146	8146	8343	8146	8146	0	0	0	0	0	0	0	0	0	0	0	0	0	0	0	0	0	0	0	0	0	0	0	0	8146	8146	8146	8146	7959	7959	8146	8146	8146	8146	8146	8146	8146	8146	7959	8146	7959	7959	7959	7779	7779	7779	0	0	0	0	0	0	0	0	0	0	0	7444	7608	7959	7959	7959	7959	7779	7779	7444	7444	6853	6720	6720	6720	6720	6592	6592	0	0	0	0	0	0	0	0	0	0	0	0	0	0	0	5915	6018	5915	6018	6018	6018	5915	6124	6235	6124	6124	0	0	0	0	0	0	0	0	0	0	0	0	0	0	0	0	0	0	0	0	0	0	0	0	0	0	0	0	0	0	0	0	0	3341	3341	3277	3246	3246	3216	3216	3186	3157	3157	3157	3157	3129	3129	3129	3129	3129	3129	3129	3157	3157	3157	3157	3157	3157	3157	3157	3157	3157	3157	3129	3129	3129	3129	3129	3129	3129	3129	3129	3101	3101	3101	3101	0	0	2140	2127	2140	2127	2127	2127	2127	2114	2127	2114	2114	2101	2101	2101	2101	2088	2088	2088	2076	2076	2063	1992	1969	1958	1947	1947	1936	1936	1925	1925	1925	1915	1915	1904	1904	1904	1904	1904	1904	1904	1904	1904	1894	1894	1894	1894	1894	1894	1894	1894	1894	1894	1894	1894	1894	1894	1894	1883	1894	1894	1894	1894	1894	1894	1894	1894	1894	1894	1904	1904	1904	0	0	0	0	0	0	0	0	0	0	0	0	0	0	0	0	0	0	0	0	0	0	0	0	0	0	0	0	0	0	0	0	0	0	0	0	0
0	0	0	0	0	0	0	0	0	0	0	0	0	0	1824	1824	1833	1833	1843	1833	1843	1853	1853	1863	1873	1894	1915	1925	1925	1925	1936	1936	1936	1936	1936	1936	1936	1958	1969	1980	1992	2003	2003	2003	2003	2027	2027	2039	2039	2039	2051	2063	2063	2063	2076	2088	2101	2101	2114	2114	2127	2127	2127	2127	2140	2140	2167	2181	2194	2208	2237	2223	2252	2252	2266	2266	2281	2281	2281	2281	2281	2297	2297	2312	2327	2343	2359	2359	2359	2376	2409	2409	2426	2426	2460	2460	2478	2478	2478	2496	2478	2496	2478	2460	2460	0	4142	4142	4142	4142	4142	4192	4296	4243	4296	4296	4296	4350	4350	4296	4350	4350	4406	4406	4406	4406	4463	4521	4521	4581	4643	4643	4643	4643	4643	4643	0	0	0	0	0	0	0	0	0	0	0	0	0	0	0	0	0	0	0	0	0	0	0	0	0	0	0	0	6992	6992	7137	7137	7287	7444	7608	7779	7779	7779	7608	7608	7779	7959	7779	7779	7959	7959	7959	7959	7959	7779	7959	7779	7779	7779	7608	7608	7608	7608	0	0	0	0	0	0	0	0	0	0	0	0	0	0	0	0	0	0	0	0	0	0	0	0	0	0	0	0	0	0	0	0	0	0	0	0	0	0	0	0	0	0	0	0	0	0	0	0	0	0	0	0	0	0	0	0	0	0	0	0	0	0	0	0	0	0	0	0	0	0	0	0	0	0	0	0	0	0	0	0	0	0	0	0	0	0	0	4406	4463	4406	4406	4406	4406	4350	4296	4296	4296	4243	4243	4243	4243	4296	4243	4243	4243	4243	4243	4192	4192	4192	4243	4243	4243	4243	4243	4243	4243	4243	4243	4243	4243	4243	4296	4296	4296	4350	4350	4350	4350	4350	4350	4350	4350	8146	8343	8343	8343	8343	8146	8146	8146	7959	8146	8146	8343	8343	8343	8343	8343	8343	8343	8343	8343	8343	8146	8146	8343	8146	7959	7959	7959	0	0	0	0	0	0	0	0	0	0	0	0	0	0	0	0	0	0	0	0	0	0	0	8343	8343	8343	8146	8146	7959	8146	7959	7959	7959	8146	8146	8146	8146	7959	7959	7959	7959	7959	7779	7779	7779	0	0	0	0	0	0	0	0	0	0	0	0	0	7959	8146	8146	7959	8343	7959	7779	7287	7287	6853	6853	6720	6720	6720	6720	0	0	0	0	0	0	0	0	0	0	0	0	0	6018	5915	5915	5915	5915	5915	5915	5915	5915	6124	6124	6018	6018	5915	6018	6018	6018	0	0	0	0	0	0	0	0	0	0	0	0	0	0	0	0	0	0	0	0	0	0	0	0	0	3510	3510	0	3373	3341	3309	3277	3246	3216	3216	3186	3186	3157	3157	3157	3129	3129	3129	3129	3129	3129	3129	3129	3157	3157	3157	3157	3157	3157	3157	3157	3157	3157	3157	3157	3129	3157	3129	3129	3129	3129	3129	3129	3101	3101	3101	3129	3129	0	0	2127	2140	2140	2127	2127	2127	2114	2127	2114	2114	2101	2101	2101	2101	2088	2088	2088	2076	2076	2063	1980	1969	1958	1947	1947	1936	1936	1936	1925	1925	1915	1915	1904	1904	1904	1904	1894	1904	1904	1894	1894	1894	1894	1894	1894	1894	1894	1894	1894	1894	1894	1894	1894	1894	1894	1883	1883	1894	1894	1894	1894	1894	1894	1894	1894	1894	1894	1904	1904	1904	0	0	0	0	0	0	0	0	0	0	0	0	0	0	0	0	0	0	0	0	0	0	0	0	0	0	0	0	0	0	0	0	0	0	0	0	0
0	0	0	0	0	0	0	0	0	0	0	0	0	0	1824	1824	1824	1833	1833	1833	1843	1853	1863	1863	1873	1894	1904	1915	1925	1925	1925	1925	1936	1936	1947	1936	1947	1958	1969	1980	1992	1992	2003	2015	2015	2027	2027	2027	2039	2039	2039	2063	2063	2063	2076	2088	2088	2088	2101	2114	2114	2127	2127	2127	2140	2153	2167	2181	2194	2208	2223	2223	2237	2266	2266	2266	2266	2281	2281	2281	2281	2297	2297	2312	2327	2327	2359	2359	2359	2376	2409	2426	2426	2443	2460	2460	2478	2478	2478	2496	2496	2496	2478	2478	2478	0	4093	4093	4045	4093	4192	4142	4296	4296	4296	4350	4350	4350	4350	4296	4350	4350	4406	4406	4406	4406	4521	4521	4521	4521	4581	4581	4581	4581	4581	4643	0	0	0	0	0	0	0	0	0	0	0	0	0	0	0	0	0	0	0	0	0	0	0	0	0	0	0	0	6992	6992	7137	7287	7287	7444	7608	7608	7779	7608	7608	7608	7779	7959	7779	7959	7959	7959	8146	8146	8146	7959	8146	7959	7959	7779	7779	7608	7608	7608	0	0	0	0	0	0	0	0	0	0	0	0	0	0	0	0	0	0	0	0	0	0	0	0	0	0	0	0	0	0	0	0	0	0	0	0	0	0	0	0	0	0	0	0	0	0	0	0	0	0	0	0	0	0	0	0	0	0	0	0	0	0	0	0	0	0	0	0	0	0	0	0	0	0	0	0	0	0	0	0	0	0	0	0	0	4350	4406	4406	4406	4406	4406	4406	4406	4350	4296	4296	4296	4243	4243	4243	4243	4296	4243	4243	4243	4243	4243	4192	4192	4192	4243	4243	4243	4243	4243	4243	4243	4243	4243	4243	4243	4243	4243	4296	4296	4350	4350	4350	4296	4296	4243	4243	0	7959	8343	8343	8343	8146	8146	8146	8146	7959	8146	8146	8343	8343	8343	8343	8146	8343	8343	8343	8343	8343	8343	8343	8343	8343	7959	7959	7959	0	0	0	0	0	0	0	0	0	0	0	0	0	0	0	0	0	0	0	0	0	0	0	8146	8146	8146	8146	7959	7959	8146	7959	7959	7959	8146	8146	8146	7959	7959	7959	7959	7959	7959	7779	7779	7779	0	0	0	0	0	0	0	0	0	0	0	0	0	8146	8146	8146	8146	8146	8146	7959	7444	7287	7287	6992	6853	7137	6992	6992	0	0	0	0	0	0	0	0	0	0	0	0	6018	6018	6018	5915	6018	6018	5915	5915	5915	6018	6124	6124	6018	6018	6018	6018	6018	6124	6124	0	0	0	0	0	0	0	0	0	0	0	0	0	0	0	0	0	0	0	0	0	0	0	3475	3475	3440	3406	3373	3341	3309	3277	3246	3216	3216	3216	3216	3186	3157	3157	3129	3129	3129	3129	3129	3129	3129	3129	3157	3157	3129	3129	3157	3157	3157	3157	3157	3157	3157	3157	3129	3129	3129	3129	3129	3129	3129	3129	3129	3129	3129	3129	3129	0	0	2127	2140	2140	2127	2127	2127	2114	2114	2114	2114	2101	2101	2101	2088	2088	2088	2076	2076	2076	2063	1980	1958	1958	1947	1947	1936	1936	1936	1925	1925	1915	1915	1904	1904	1904	1894	1894	1894	1894	1894	1894	1894	1894	1894	1894	1894	1894	1894	1894	1894	1894	1883	1894	1894	1894	1894	1894	1894	1894	1894	1894	1894	1894	1894	1894	1894	1894	1904	1904	1904	0	0	0	0	0	0	0	0	0	0	0	0	0	0	0	0	0	0	0	0	0	0	0	0	0	0	0	0	0	0	0	0	0	0	0	0	0
0	0	0	0	0	0	0	0	0	0	0	0	0	0	1824	1824	1824	1833	1843	1843	1843	1853	1873	1873	1883	1894	1915	1925	1925	1925	1925	1925	1936	1936	1947	1936	1947	1958	1969	1980	2003	2003	2003	2015	2015	2015	2027	2027	2027	2039	2051	2063	2076	2076	2088	2088	2101	2101	2114	2114	2127	2127	2140	2127	2140	2153	2167	2181	2194	2223	2223	2223	2252	2266	2266	2266	2266	2266	2281	2281	2281	2297	2297	2312	2343	2343	2359	2359	2359	2376	2409	2426	2426	2443	2460	2460	2478	2478	2478	2496	2496	2496	2496	2478	2478	0	4045	4142	4045	4045	4142	4243	4296	4296	4296	4296	4350	4350	4350	4296	4350	4350	4406	4406	4406	4406	4521	4521	4521	4521	4581	4581	4581	4581	4581	0	0	0	0	0	0	0	0	0	0	0	0	0	0	0	0	0	0	0	0	0	0	0	0	0	0	0	0	0	0	0	0	7287	7287	7287	7608	7608	7608	7608	7608	7608	7779	7959	7779	7779	7959	7959	7959	8146	8146	7959	8146	7959	7959	7779	7779	7608	7608	7608	0	0	0	0	0	0	0	0	0	0	0	0	0	0	0	0	0	0	0	0	0	0	0	0	0	0	0	0	0	0	0	0	0	0	0	0	0	0	0	0	0	0	0	0	0	0	0	0	0	0	0	0	0	0	0	0	0	0	0	0	0	0	0	0	0	0	0	0	0	0	0	0	0	0	0	0	0	0	0	0	0	0	0	0	0	4350	4406	4406	4406	4406	4350	4406	4350	4350	4296	4296	4296	4243	4243	4243	4243	4243	4243	4243	4243	4243	4243	4192	4192	4192	4243	4243	4243	4243	4243	4243	4243	4243	4243	4243	4243	4243	4296	4296	4296	4350	4350	4296	4296	4296	4243	4243	0	8146	8146	8146	8343	8146	7959	8146	7959	7959	7959	8146	8146	8343	8343	8343	8343	8343	8343	8343	8343	8343	8343	8343	8343	8343	8146	7959	7959	7959	0	0	0	0	0	0	0	0	0	0	0	0	0	0	0	0	0	0	0	0	0	0	8146	8146	8343	8146	7959	7959	8146	7959	7959	7959	7959	7959	7959	7959	7959	0	0	0	0	0	0	0	0	0	0	0	0	0	0	0	0	0	0	0	7959	8146	8146	8146	8146	8146	7959	7959	7608	7444	7444	7287	7287	7287	7137	7137	7137	0	0	0	0	0	0	0	0	0	0	0	6124	6018	6018	6018	5915	6018	6018	6018	6018	6018	6018	6018	6018	6018	6018	6018	6124	6124	6124	6124	0	0	0	0	0	0	0	0	0	0	0	0	0	0	0	0	0	0	0	0	0	0	3475	3475	3440	3406	3373	3341	3309	3246	3246	3216	3216	3216	3186	3157	3157	3129	3129	3129	3129	3129	3129	3129	3129	3129	3157	3157	3157	3129	3129	3129	3157	3129	3157	3129	3129	3129	3129	3129	3129	3129	3129	3129	3129	3129	3101	3129	3129	3129	3129	3129	2140	2140	2140	2140	2140	2127	2127	2127	2114	2114	2101	2101	2088	2088	2088	2088	2076	2076	2076	2076	1992	1980	1958	1947	1947	1936	1936	1936	1936	1925	1915	1915	1904	1904	1904	1904	1894	1894	1894	1894	1894	1894	1894	1894	1894	1894	1883	1894	1883	1883	1883	1883	1873	1894	1894	1894	1894	1894	1894	1894	1894	1894	1894	1894	1894	1894	1894	1894	1904	1904	1904	0	0	0	0	0	0	0	0	0	0	0	0	0	0	0	0	0	0	0	0	0	0	0	0	0	0	0	0	0	0	0	0	0	0	0	0	0
0	0	0	0	0	0	0	0	0	0	0	0	0	0	1824	1824	1824	1833	1833	1833	1843	1853	1873	1873	1883	1904	1915	1915	1925	1925	1925	1925	1936	1936	1947	1947	1947	1958	1969	1980	1992	2003	2003	2003	2003	2003	2015	2015	2027	2039	2063	2063	2076	2076	2088	2101	2101	2101	2114	2114	2127	2127	2140	2140	2140	2153	2167	2181	2194	2208	2223	2237	2237	2252	2252	2266	2266	2281	2281	2266	2281	2297	2312	2312	2327	2343	2359	2359	2359	2376	2409	2426	2426	2443	2443	2460	2460	2478	2478	2496	2496	2496	2478	2478	2478	0	4142	4142	4045	4045	4142	4243	4243	4243	4296	4296	4296	4350	4350	4296	4350	4350	4406	4406	4406	4406	4521	4521	4521	4521	4581	4521	4581	4581	4581	0	0	0	0	0	0	0	0	0	0	0	0	0	0	0	0	0	0	0	0	0	0	0	0	0	0	0	0	0	0	0	0	7287	7287	7287	0	0	7608	7608	7608	7608	7779	7608	7608	7779	7779	7779	7959	7959	8146	8146	8146	7959	8146	7959	7779	7608	7444	7444	0	0	0	0	0	0	0	0	0	0	0	0	0	0	0	0	0	0	0	0	0	0	0	0	0	0	0	0	0	0	0	0	0	0	0	0	0	0	0	0	0	0	0	0	0	0	0	0	0	0	0	0	0	0	0	0	0	0	0	0	0	0	0	0	0	0	0	0	0	0	0	0	0	0	0	0	0	0	0	0	0	0	0	0	0	0	0	4406	4350	4350	4350	4406	4350	4350	4296	4296	4296	4243	4243	4243	4243	4243	4243	4243	4243	4243	4243	4192	4192	4192	4243	4243	4243	4243	4243	4243	4243	4243	4243	4243	4243	4243	4296	4296	4350	4350	4350	4350	4296	4296	4243	4243	4243	8146	8146	8146	8146	8146	7959	8146	7959	8146	8146	8146	8146	8343	8343	8146	8343	8343	8343	8343	8343	8343	8343	8343	8343	8343	7959	7959	7959	7779	7779	0	0	0	0	0	0	0	0	0	0	0	0	0	0	0	0	0	0	0	0	8146	8146	8146	8146	7959	7959	7959	7959	7959	7779	7779	7959	7959	7959	0	0	0	0	0	0	0	0	0	0	0	0	0	0	0	0	0	0	0	0	7779	7959	7959	8146	8146	8146	8146	8146	7959	7959	7608	7444	7444	7444	7287	7287	7287	7287	0	0	0	0	0	0	0	0	0	0	0	6124	6124	6124	6018	6018	6018	6018	6018	6018	5915	6018	6018	6018	6018	6018	6018	6124	6124	6124	6124	0	0	0	0	0	0	0	0	0	0	0	0	0	0	0	0	0	0	0	0	0	0	0	3475	3440	3406	3373	3341	3309	3246	3246	3216	3216	3186	3186	3157	3157	3129	3129	3129	3129	3129	3129	3129	3129	3129	3157	3157	3129	3129	3129	3129	3129	3129	3129	3157	3129	3129	3129	3129	3129	3129	3129	3129	3129	3129	3101	3101	3129	3101	3101	3129	2140	2140	2140	2140	2140	2140	2127	2127	2114	2114	2101	2101	2088	2088	2088	2088	2076	2076	2076	2076	2003	1969	1947	1947	1947	1936	1936	1936	1936	1925	1904	1904	1904	1915	1904	1904	1894	1894	1894	1894	1894	1894	1894	1894	1894	1894	1883	1894	1894	1894	1894	1883	1883	1894	1894	1894	1894	1894	1894	1894	1894	1894	1894	1894	1894	1894	1894	1894	1904	1904	1904	0	0	0	0	0	0	0	0	0	0	0	0	0	0	0	0	0	0	0	0	0	0	0	0	0	0	0	0	0	0	0	0	0	0	0	0	0
0	0	0	0	0	0	0	0	0	0	0	0	0	0	1833	1833	1833	1843	1833	1843	1843	1853	1873	1873	1883	1904	1904	1915	1925	1925	1925	1925	1936	1947	1947	1947	1958	1969	1969	1980	1992	2003	2003	2015	2015	2015	2015	2015	2027	2039	2051	2063	2076	2076	2088	2101	2101	2114	2114	2114	2127	2127	2140	2140	2153	2153	2167	2181	2181	2208	2223	2237	2252	2252	2252	2266	2281	2281	2281	2281	2281	2297	2312	2312	2327	2343	2359	2359	2359	2376	2409	2426	2443	2443	2443	2460	2460	2478	2478	2496	2496	2496	2478	2460	2460	2460	4142	4093	4045	4142	4142	4192	4243	4243	4243	4243	4296	4296	4296	4296	4350	4350	4406	4406	4406	4406	4521	4521	4521	4463	4463	4521	4521	4581	0	0	0	0	0	0	0	0	0	0	0	0	0	0	0	0	0	0	0	0	0	0	0	0	0	0	0	0	0	0	0	0	0	0	0	0	0	0	7608	7608	7608	7444	7444	7608	7608	7608	7779	7779	7959	7959	8146	8146	8146	8146	8146	8146	7959	7779	7779	7444	0	0	0	0	0	0	0	0	0	0	0	0	0	0	0	0	0	0	0	0	0	0	0	0	0	0	0	0	0	0	0	0	0	0	0	0	0	0	0	0	0	0	0	0	0	0	0	0	0	0	0	0	0	0	0	0	0	0	0	0	0	0	0	0	0	0	0	0	0	0	0	0	0	0	0	0	0	0	0	0	0	0	0	0	0	0	0	0	4350	4350	4350	4406	4350	4350	4296	4296	4296	4243	4243	4243	4243	4243	4243	4243	4243	4243	4243	4243	4243	4243	4243	4243	4243	4243	4243	4243	4243	4243	4243	4243	4296	4296	4350	4350	4350	4350	4350	4296	4296	4296	4296	4296	4296	0	8146	8146	8146	8146	8146	8146	8146	8343	8146	8146	8146	8343	8343	8343	8343	8343	8343	8343	8343	8343	8343	8343	8343	8146	7959	7959	7959	7779	7779	0	0	0	0	0	0	0	0	0	0	0	0	0	0	0	0	0	0	0	0	8146	8146	8146	8146	7959	7959	7779	7959	7779	7779	7608	7608	7959	7959	0	0	0	0	0	0	0	0	0	0	0	0	0	0	0	0	7444	7444	7779	7779	7959	7959	8146	8343	8146	8146	8146	7959	8146	7959	7959	7444	7444	7444	7444	7287	7287	7287	7287	0	0	0	0	0	0	0	0	0	0	6124	6124	6124	6018	6018	6018	6018	6018	6018	5915	6018	6018	5915	5915	5915	6018	6124	6124	6235	6235	0	0	0	0	0	0	0	0	0	0	0	0	0	0	0	0	0	0	0	0	0	0	3475	3475	3440	3406	3373	3341	3309	3277	3246	3216	3216	3186	3186	3157	3157	3129	3129	3129	3129	3129	3129	3129	3129	3129	3157	3157	3129	3129	3129	3129	3157	3157	3157	3157	3157	3157	3157	3129	3129	3129	3129	3129	3129	3101	3101	3101	3101	3129	3129	0	2140	2140	2140	2140	2140	2140	2140	2127	2114	2114	2101	2101	2088	2088	2088	2088	2076	2076	2063	2063	1992	1969	1958	1947	1947	1936	1936	1936	1936	1925	1904	1904	1904	1915	1904	1904	1894	1894	1894	1894	1894	1894	1894	1894	1894	1894	1883	1894	1883	1883	1883	1883	1883	1894	1894	1894	1894	1894	1894	1894	1894	1894	1894	1894	1894	1894	1894	1894	1904	1904	1904	0	0	0	0	0	0	0	0	0	0	0	0	0	0	0	0	0	0	0	0	0	0	0	0	0	0	0	0	0	0	0	0	0	0	0	0	0
0	0	0	0	0	0	0	0	0	0	0	0	0	0	1824	1824	1824	1833	1833	1833	1853	1863	1873	1873	1883	1894	1904	1915	1925	1925	1925	1925	1936	1947	1947	1947	1958	1969	1969	1980	1992	2003	2003	2015	2015	2015	2015	2015	2027	2039	2051	2063	2076	2076	2088	2101	2088	2114	2114	2127	2114	2127	2127	2140	2153	2167	2167	2181	2194	2223	2223	2237	2237	2252	2252	2266	2281	2281	2281	2281	2297	2312	2312	2327	2327	2343	2359	2359	2359	2376	2392	2426	2426	2443	2443	2443	2460	2478	2478	2478	2496	2478	2478	2460	2443	2443	0	4192	4142	4142	4192	4192	4243	4243	4243	4243	4296	4296	4296	4296	4350	4406	4406	4406	4406	4406	4463	4463	4463	4463	4463	4521	4521	0	0	0	0	0	0	0	0	0	0	0	0	0	0	0	0	0	0	0	0	0	0	0	0	0	0	0	0	0	0	0	0	0	0	0	0	0	0	0	0	0	0	7444	7444	7608	7608	7608	7779	7608	7779	7959	7959	7959	7959	7959	7959	8146	7779	7444	7444	0	0	0	0	0	0	0	0	0	0	0	0	0	0	0	0	0	0	0	0	0	0	0	0	0	0	0	0	0	0	0	0	0	0	0	0	0	0	0	0	0	0	0	0	0	0	0	0	0	0	0	0	0	0	0	0	0	0	0	0	0	0	0	0	0	0	0	0	0	0	0	0	0	0	0	0	0	0	0	0	0	0	0	0	0	0	0	0	0	4350	4350	4350	4406	4350	4350	4296	4296	4296	4243	4243	4243	4243	4243	4243	4243	4243	4243	4243	4243	4243	4243	4243	4243	4243	4243	4243	4243	4243	4243	4243	4243	4243	4296	4350	4350	4350	4350	4350	4296	4296	4296	4296	4296	4296	0	0	8343	8343	8146	8146	8146	8146	8343	8146	8146	8146	8146	8146	8146	8146	8343	8343	8343	8343	8343	8343	8343	8343	8146	8146	7959	7779	7779	7779	7779	0	0	0	0	0	0	0	0	0	0	0	0	0	0	0	0	0	0	0	8146	8146	8146	8550	7959	7779	7779	7779	7779	7608	7608	7608	0	0	0	0	0	0	0	0	0	0	0	0	0	0	0	0	0	7779	7779	7779	7959	7959	7959	7959	8343	8343	8343	8146	8146	8146	8146	7959	7959	7444	7444	7444	7444	7444	7287	7287	7287	0	0	0	0	0	0	0	0	0	0	6124	6018	6124	6018	6018	6018	6018	6018	6018	5915	5915	5915	5915	5915	5915	5915	5915	6124	6235	6235	0	0	0	0	0	0	0	0	0	0	0	0	0	0	0	0	0	0	0	0	0	0	3475	3475	3406	3373	3373	3341	3309	3277	3246	3216	3216	3186	3186	3186	3157	3129	3129	3129	3129	3129	3129	3129	3101	3129	3129	3129	3129	3129	3129	3129	3157	3157	3157	3157	3157	3157	3157	3129	3129	3129	3129	3129	3129	3129	3129	3129	3101	3101	3101	0	2140	2140	2140	2140	2140	2140	2140	2140	2127	2114	2114	2101	2101	2088	2088	2076	2076	2063	2003	2003	1980	1969	1958	1947	1947	1936	1936	1936	1936	1925	1904	1904	1915	1904	1904	1904	1894	1904	1894	1894	1894	1894	1894	1894	1894	1894	1894	1894	1894	1883	1894	1883	1883	1894	1894	1894	1894	1894	1894	1894	1894	1894	1894	1894	1894	1894	1894	1894	1904	1904	1904	0	0	0	0	0	0	0	0	0	0	0	0	0	0	0	0	0	0	0	0	0	0	0	0	0	0	0	0	0	0	0	0	0	0	0	0	0
0	0	0	0	0	0	0	0	0	0	0	0	0	0	1824	1824	1824	1833	1833	1833	1853	1863	1873	1873	1883	1894	1894	1904	1904	1925	1925	1925	1936	1936	1947	1947	1958	1969	1980	1980	1992	1992	2003	2003	2015	2015	2015	2015	2027	2039	2063	2063	2076	2088	2088	2101	2101	2101	2101	2101	2114	2127	2153	2167	2167	2167	2167	2181	2194	2208	2208	2237	2237	2237	2252	2266	2281	2281	2281	2281	2297	2312	2312	2327	2343	2343	2359	2359	2359	2359	2392	2409	2426	2443	2443	2460	2460	2478	2478	2478	2478	2460	2478	2460	2443	2443	0	4192	4192	4142	4192	4192	4192	4192	4192	4243	4243	4243	4243	4296	4350	4350	4406	4406	4406	4463	4521	4521	4463	4521	4521	4521	4581	4581	0	0	0	0	0	0	0	0	0	0	0	0	0	0	0	0	0	0	0	0	0	0	0	0	0	0	0	0	0	0	0	0	0	0	0	0	0	0	0	0	0	0	7444	7608	7608	7608	7608	7608	7608	7779	7959	7959	7959	7959	7959	7959	7959	7608	7608	0	0	0	0	0	0	0	0	0	0	0	0	0	0	0	0	0	0	0	0	0	0	0	0	0	0	0	0	0	0	0	0	0	0	0	0	0	0	0	0	0	0	0	0	0	0	0	0	0	0	0	0	0	0	0	0	0	0	0	0	0	0	0	0	0	0	0	0	0	0	0	0	0	0	0	0	0	0	0	0	0	0	0	0	0	0	0	0	0	4406	4350	4350	4350	4350	4350	4296	4296	4296	4243	4243	4243	4243	4243	4243	4243	4243	4243	4243	4243	4243	4243	4243	4243	4243	4243	4243	4243	4243	4243	4243	4243	4243	4243	4296	4350	4350	4350	4350	4296	4296	4296	4296	4296	0	0	6720	6720	8343	8146	7959	8343	8146	8343	8146	8146	8146	8146	8146	8146	8146	8343	8343	8343	8343	8146	8146	8146	8146	8146	8146	7959	7779	7779	7959	7779	7779	0	7779	7779	7779	7779	7779	7959	7959	7959	0	0	0	0	0	0	0	0	0	8146	8146	8146	8550	8550	7779	7779	7779	7779	7608	7608	0	0	0	0	0	0	0	0	0	0	0	0	0	0	0	0	0	7959	7959	7779	7779	7959	7959	7959	7959	8146	8343	8146	8146	8146	8146	8146	0	0	0	0	0	0	7444	7287	7287	0	0	0	0	0	0	0	0	0	0	0	0	6018	6124	6018	5915	5915	6018	5915	5915	5915	5915	5915	5915	5915	5915	5915	5915	0	0	0	0	0	0	0	0	0	0	0	0	0	0	0	0	0	0	0	0	0	0	0	0	0	0	3475	3373	3373	3341	3341	3309	3277	3246	3216	3216	3216	3186	3157	3157	3129	3101	3101	3129	3129	3129	3129	3129	3129	3157	3157	3129	3129	3129	3129	3129	3129	3129	3157	3157	3157	3157	3129	3157	3129	3129	3129	3129	3129	3129	3129	3101	3101	3101	0	2140	2140	2140	2140	2140	2140	2140	2140	2127	2127	2114	2114	2101	2088	2088	2076	2076	2063	2003	1992	1969	1958	1947	1947	1947	1947	1936	1936	1936	1936	1915	1915	1915	1904	1904	1904	1894	1894	1894	1894	1894	1894	1894	1894	1894	1894	1894	1894	1894	1883	1894	1883	1883	1894	1894	1894	1894	1894	1894	1894	1894	1894	1894	1894	1894	1883	1883	1894	1894	1904	1904	0	0	0	0	0	0	0	0	0	0	0	0	0	0	0	0	0	0	0	0	0	0	0	0	0	0	0	0	0	0	0	0	0	0	0	0	0
0	0	0	0	0	0	0	0	0	0	0	0	0	0	1833	1833	1824	1833	1833	1833	1853	1863	1873	1883	1883	1894	1894	1904	1904	1915	1925	1925	1936	1936	1947	1947	1958	1969	1980	1980	1980	1992	2003	2015	2015	2015	2015	2027	2039	2051	2063	2063	2076	2088	2088	2088	2101	2101	2114	2127	2127	2140	2153	2167	2167	2167	2167	2194	2194	2208	2208	2223	2237	2237	2237	2252	2266	2281	2281	2281	2297	2312	2312	2327	2327	2343	2359	2359	2359	2359	2376	2392	2426	2426	2426	2426	2460	2478	2478	2478	2478	2478	2478	2460	2460	2443	4192	4192	4192	4142	4192	4192	4192	4192	4192	4192	4192	4192	4243	4296	4350	4406	4406	4406	4406	4463	4581	4521	4521	4521	4581	4643	4706	4706	0	0	0	0	0	0	0	0	0	0	0	0	0	0	0	0	0	0	0	0	0	0	0	0	0	0	0	0	0	0	0	0	0	0	0	0	0	0	0	0	0	7444	7444	7608	7608	7608	7608	7608	7779	7779	7959	7959	7959	7959	7959	7959	7779	7608	7608	0	0	0	0	0	0	0	0	0	0	0	0	0	0	0	0	0	0	0	0	0	0	0	0	0	0	0	0	0	0	0	0	0	0	0	0	0	0	0	0	0	0	0	0	0	0	0	0	0	0	0	0	0	0	0	0	0	0	0	0	0	0	0	0	0	0	0	0	0	0	0	0	0	0	0	0	0	0	0	0	0	0	0	0	0	0	0	0	4463	4406	4350	4350	4350	4350	4350	4296	4296	4296	4243	4243	4243	4243	4243	4243	4243	4243	4243	4243	4243	4243	4243	4243	4243	4243	4243	4243	4243	4243	4243	4243	4243	4296	4243	4350	4350	4350	4350	4350	4350	4296	4350	4350	4350	0	0	6720	6720	0	0	7959	8343	8343	8343	8146	8146	8146	8146	8146	8146	8146	8146	8146	8343	8146	8146	8146	8146	8146	8146	8146	7959	7959	7779	7959	7779	7779	7779	7608	7608	7608	7779	7779	7779	7779	7779	7779	0	0	0	0	0	0	0	0	0	8146	8146	8550	8550	0	0	0	0	0	0	0	0	0	0	0	0	0	0	0	0	0	0	0	0	0	0	0	7779	7779	7779	7779	7959	7779	7959	7959	8146	8343	8343	8146	8146	8146	8146	0	0	0	0	0	0	0	0	0	0	0	0	0	0	0	0	0	0	0	0	0	0	0	6018	6018	6018	6018	5915	5915	5915	6018	6018	5915	5915	5915	0	0	0	0	0	0	0	0	0	0	0	0	0	0	0	0	0	0	0	0	0	0	0	0	0	0	0	3475	3475	3406	3406	3373	3341	3309	3277	3246	3216	3216	3186	3186	3157	3129	3129	3129	3129	3129	3129	3129	3129	3129	3129	3157	3157	3129	3129	3129	3129	3129	3157	3157	3157	3157	3157	3157	3129	3129	3157	3129	3129	3129	3129	3129	3129	3129	3129	3129	0	0	2140	2140	2140	2140	2140	2140	2140	2127	2114	2114	2101	2101	2088	2088	2076	2076	2063	2003	1992	1980	1969	1958	1947	1947	1947	1936	1936	1936	1936	1915	1915	1915	1904	1904	1894	1894	1894	1894	1894	1894	1894	1894	1894	1894	1894	1894	1883	1883	1883	1894	1883	1883	1894	1883	1894	1894	1894	1894	1894	1894	1894	1894	1894	1883	1883	1894	1894	1904	1904	1904	0	0	0	0	0	0	0	0	0	0	0	0	0	0	0	0	0	0	0	0	0	0	0	0	0	0	0	0	0	0	0	0	0	0	0	0	0
0	0	0	0	0	0	0	0	0	0	0	0	0	0	1824	1824	1824	1833	1833	1843	1843	1853	1873	1883	1883	1894	1894	1894	1904	1925	1925	1936	1936	1936	1947	1958	1958	1969	1980	1992	1992	1992	2003	2003	2003	2003	2015	2027	2027	2051	2063	2063	2076	2088	2088	2088	2101	2101	2114	2127	2127	2140	2167	2167	2167	2167	2181	2194	2194	2208	2208	2223	2237	2237	2237	2252	2281	2281	2281	2297	2312	2312	2327	2327	2343	2343	2359	2359	2359	2359	2376	2376	2392	2409	2409	2426	2460	2478	2478	2478	2478	2478	2478	2478	2478	0	4142	4192	4142	4142	4192	4142	4142	4192	4192	4192	4192	4243	4243	4296	4350	4350	4406	4406	4463	4463	4581	4521	4521	4521	4581	4643	4706	4706	0	0	0	0	0	0	0	0	0	0	0	0	0	0	0	0	0	0	0	0	0	0	0	0	0	0	0	0	0	0	0	0	0	0	0	0	0	0	0	0	7608	7444	7608	7608	7608	7608	7608	7608	7608	7779	7779	7779	7779	7779	7779	7959	7779	7608	7608	0	0	0	0	0	0	0	0	0	0	0	0	0	0	0	0	0	0	0	0	0	0	0	0	0	0	0	0	0	0	0	0	0	0	0	0	0	0	0	0	0	0	0	0	0	0	0	0	0	0	0	0	0	0	0	0	0	0	0	0	0	0	0	0	0	0	0	0	0	0	0	0	0	0	0	0	0	0	0	0	6853	6853	0	0	0	0	0	6592	6592	4296	4296	4350	4350	4350	4296	4296	4296	4296	4243	4243	4243	4243	4243	4243	4243	4243	4243	4243	4243	4243	4243	4243	4243	4243	4243	4243	4243	4243	4243	4243	4243	4243	4243	4350	4296	4350	4350	4296	4350	4296	4350	4350	4350	0	0	6720	6720	0	0	6720	6720	6592	6592	7959	7959	7959	8146	8146	8146	8146	8146	8146	8343	8146	8146	8146	8146	8146	8146	7959	7959	7779	7779	7959	7779	7779	7779	7287	7608	7608	7444	7444	7779	7779	7779	7779	0	0	0	0	0	0	0	0	0	8146	8146	0	0	0	0	0	0	0	0	0	0	0	0	0	0	0	0	0	0	0	0	0	0	0	0	0	7959	7779	7779	7779	7959	7959	7959	7959	8146	8343	8146	8146	8146	7959	7959	0	0	0	0	0	0	0	0	0	0	0	0	0	0	0	0	0	0	0	0	0	0	0	6018	6018	6018	6018	5915	5915	6018	6018	6018	0	0	0	0	0	0	0	0	0	0	0	0	0	0	0	0	0	0	0	0	0	0	0	0	0	0	0	0	0	0	3475	3475	3406	3373	3341	3341	3341	3309	3246	3246	3216	3186	3157	3157	3129	3129	3129	3129	3157	3129	3129	3129	3129	3129	3157	3157	3157	3157	3129	3129	3157	3157	3157	3157	3157	3157	3157	3157	3157	3157	3129	3129	3129	3129	3129	3101	3101	3101	3101	3073	3073	2140	2140	2140	2140	2140	2140	2140	2127	2114	2114	2101	2088	2088	2088	2076	2076	2063	1992	1992	1980	1958	1958	1947	1947	1947	1947	1936	1936	1936	1915	1915	1915	1904	1904	1904	1894	1904	1904	1904	1894	1894	1894	1894	1894	1894	1894	1894	1894	1894	1894	1894	1883	1894	1894	1894	1894	1894	1894	1894	1894	1894	1894	1894	1883	1883	1894	1894	1904	1904	1904	0	0	0	0	0	0	0	0	0	0	0	0	0	0	0	0	0	0	0	0	0	0	0	0	0	0	0	0	0	0	0	0	0	0	0	0	0
0	0	0	0	0	0	0	0	0	0	0	0	0	0	1833	1833	1843	1843	1843	1843	1843	1853	1873	1883	1883	1894	1894	1894	1904	1925	1925	1936	1947	1947	1947	1958	1969	1969	1980	1980	1992	1992	1992	2003	2003	2015	2015	2027	2027	2051	2063	2076	2076	2088	2088	2088	2101	2114	2114	2114	2114	2127	2153	2167	2167	2167	2181	2194	2194	2194	2194	2208	2237	2237	2237	2252	2281	2281	2297	2297	2312	2312	2327	2327	2343	2343	2359	2359	2359	2376	2376	2392	2392	2409	2409	2426	2460	2478	2478	2478	2496	2478	2478	2478	2478	0	4142	4142	4192	4192	4192	4142	4192	4192	4192	4192	4192	4192	4243	4296	4350	4350	4406	4406	4463	4463	4581	4581	4521	4581	4581	4706	4771	4771	0	0	0	0	0	0	0	0	0	0	0	0	0	0	0	0	0	0	0	0	0	0	0	0	0	0	0	0	0	0	0	0	0	0	0	0	0	0	0	7444	7444	7444	7444	7444	7608	7608	7608	7608	7608	7779	7779	7779	7959	7959	7959	7959	7959	7779	7779	0	0	0	0	0	0	0	0	0	0	0	0	0	0	0	0	0	0	0	0	0	0	0	0	0	0	0	0	0	0	0	0	0	0	0	0	0	0	0	0	0	0	0	0	0	0	0	0	0	0	0	0	0	0	0	0	0	0	0	0	0	0	0	0	0	0	0	0	0	0	0	0	0	0	0	0	0	6720	6720	6853	6853	6720	6592	6592	6592	6468	6468	6468	6468	4463	4350	4350	4350	4350	4350	4296	4296	4296	4243	4243	4243	4243	4243	4243	4243	4243	4243	4243	4243	4243	4243	4243	4243	4243	4243	4243	4243	4243	4243	4243	4243	4296	4243	4350	4350	4350	4350	4350	4350	4350	4350	4406	4406	4406	0	6592	6592	6592	6592	6592	6592	6592	6592	8146	8146	8146	8146	8146	8146	8146	8146	8146	8146	8146	7959	7959	7959	7959	7959	7959	7959	7959	7779	7959	7779	7779	7137	7287	7444	7608	7608	7608	7779	7779	7779	0	0	0	0	0	0	0	0	0	0	0	0	0	0	0	0	0	0	0	0	0	0	0	0	0	0	0	0	0	0	0	0	0	0	0	0	0	7959	7779	7779	7779	7779	7959	7959	7959	8146	8146	8146	8146	7959	7959	7959	0	0	0	0	0	0	0	0	0	0	0	0	0	0	0	0	0	0	0	0	0	0	0	0	6018	6018	5915	5915	5915	6018	6018	6018	0	0	0	0	0	0	0	0	0	0	0	0	0	0	0	0	0	0	0	0	0	0	0	0	0	0	0	0	0	3659	3659	3406	3406	3406	3373	3341	3341	3341	3277	3246	3216	3186	3186	3157	3157	3157	3129	3157	3129	3129	3129	3129	3129	3129	3157	3157	3129	3129	3129	3129	3157	3157	3157	3157	3157	3157	3157	3157	3157	3157	3129	3129	3129	3129	3129	3101	3101	3101	3073	3073	2140	2140	2127	2127	2127	2140	2140	2140	2127	2114	2114	2101	2101	2088	2088	2076	2076	2063	1992	1992	1980	1969	1958	1947	1947	1947	1947	1936	1936	1925	1915	1915	1915	1904	1904	1904	1904	1904	1904	1904	1894	1904	1894	1904	1904	1894	1894	1894	1894	1894	1894	1883	1883	1883	1883	1883	1883	1894	1894	1894	1894	1894	1894	1894	1883	1883	1894	1894	1904	1904	1904	0	0	0	0	0	0	0	0	0	0	0	0	0	0	0	0	0	0	0	0	0	0	0	0	0	0	0	0	0	0	0	0	0	0	0	0	0
0	0	0	0	0	0	0	0	0	0	0	0	0	0	1833	1833	1833	1843	1843	1843	1853	1863	1873	1873	1883	1894	1894	1894	1904	1915	1936	1947	1947	1947	1958	1958	1958	1969	1969	1980	1992	2003	2003	2015	2015	2015	2015	2027	2027	2051	2063	2076	2076	2076	2088	2088	2101	2101	2114	2114	2114	2127	2153	2167	2167	2167	2167	2181	2181	2194	2194	2208	2237	2237	2252	2266	2281	2281	2297	2297	2312	2312	2327	2343	2327	2359	2359	2359	2359	2376	2376	2392	2409	2409	2426	2426	2460	2460	2478	2478	2496	2478	2478	2478	2478	4142	4142	4142	4142	4192	4192	4142	4192	4192	4192	4192	4192	4243	4243	4243	4350	4350	4406	4406	4463	4463	4581	4521	4521	4643	4643	4706	4838	4906	4977	4977	0	0	0	0	0	0	0	0	0	0	0	0	0	0	0	0	0	0	0	0	0	0	0	0	0	0	0	0	0	0	0	0	0	0	0	0	0	7608	7608	7444	7608	7608	7608	7608	7608	7608	7779	7779	7779	7779	7959	7959	7959	7959	7959	7959	7959	7959	0	0	0	0	0	0	0	0	0	0	0	0	0	0	0	0	0	0	0	0	0	0	0	0	0	0	0	0	0	0	0	0	0	0	0	0	0	0	0	0	0	0	0	0	0	0	0	0	0	0	0	0	0	0	0	0	0	0	0	0	0	0	0	0	0	0	0	0	0	0	0	0	0	0	6720	6592	6592	6592	6720	6592	6720	6592	6592	6592	6468	6468	6592	6468	4406	4350	4350	4350	4350	4350	4296	4296	4296	4243	4243	4243	4243	4243	4243	4243	4243	4243	4243	4243	4243	4243	4243	4243	4243	4243	4243	4243	4243	4243	4243	4243	4296	4296	4350	4350	4350	4350	4350	4350	4350	4406	4406	4406	4463	6853	6853	6720	6720	6720	6720	6592	6592	6720	6720	7959	8146	8146	8146	8146	8146	8146	8146	8146	8146	7959	7959	7959	7959	7959	7959	7779	7779	7779	7959	7287	7137	7137	7287	7444	7608	7444	7444	7779	7779	7779	0	0	0	0	0	0	0	0	0	0	0	0	0	0	0	0	0	0	0	0	0	0	0	0	0	0	0	0	0	0	0	0	0	0	0	0	0	0	0	7779	7779	7779	7959	7959	7959	8146	8146	8146	7959	7959	7959	7959	0	0	0	0	0	0	0	0	0	0	0	0	0	0	0	0	0	0	0	0	0	0	0	0	0	5915	5915	5915	5915	6124	6124	6018	0	0	0	0	0	0	0	0	0	0	0	0	0	0	0	0	0	0	0	0	0	0	0	0	0	0	0	0	3779	3698	3659	3440	3440	3406	3373	3373	3341	3341	3309	3246	3216	3186	3186	3157	3157	3157	3129	3157	3129	3129	3129	3129	3129	3129	3157	3157	3129	3129	3129	3129	3129	3157	3157	3157	3157	3157	3157	3157	3157	3157	3129	3129	3129	3129	3129	3129	3101	3129	3129	3129	3157	2140	2140	2127	2140	2140	2140	2127	2127	2114	2114	2101	2088	2088	2076	2076	2076	2051	2039	1992	1980	1969	1958	1947	1947	1947	1947	1936	1936	1925	1915	1915	1915	1904	1904	1904	1904	1904	1904	1904	1904	1904	1904	1904	1904	1904	1894	1894	1894	1894	1894	1883	1883	1883	1883	1883	1883	1883	1894	1894	1894	1894	1894	1894	1883	1883	1883	1894	1904	1904	1904	0	0	0	0	0	0	0	0	0	0	0	0	0	0	0	0	0	0	0	0	0	0	0	0	0	0	0	0	0	0	0	0	0	0	0	0	0
0	0	0	0	0	0	0	0	0	0	0	0	0	0	1843	1833	1833	1843	1843	1843	1853	1863	1863	1873	1883	1894	1894	1894	1904	1915	1925	1936	1936	1947	1947	1958	1969	1969	1980	1980	1980	1992	1992	2003	2003	2015	2015	2027	2027	2051	2063	2063	2076	2076	2088	2076	2101	2101	2114	2114	2114	2127	2153	2167	2167	2167	2167	2181	2181	2194	2194	2208	2237	2252	2266	2266	2281	2281	2297	2297	2312	2312	2327	2343	2343	2359	2359	2359	2359	2376	2392	2392	2392	2409	2409	2426	2443	2478	2478	2478	2478	2478	2478	2478	0	4093	4093	4142	4142	4142	4142	4142	4142	4142	4192	4192	4243	4243	4243	4296	4350	4350	4350	4406	4406	4463	4521	4581	4581	4643	4706	4771	4906	4977	5050	5050	5050	0	0	0	0	0	0	0	0	0	0	0	0	0	0	0	0	0	0	0	0	0	0	0	0	0	0	0	0	0	0	0	0	0	0	0	0	7608	7608	7608	7608	7608	7779	7608	7608	7608	7608	7608	7779	7779	7779	7779	7779	7959	7959	7959	7959	7959	0	0	0	0	0	0	0	0	0	0	0	0	0	0	0	0	0	0	0	0	0	0	0	0	0	0	0	0	0	0	0	0	0	0	0	0	0	0	0	0	0	0	0	0	0	0	0	0	0	0	0	0	0	0	0	0	0	0	0	0	0	0	0	0	0	0	0	0	0	0	0	0	0	0	6720	6592	6720	6720	6720	6720	6720	6592	6592	6592	6592	6468	6592	6592	4406	4406	4406	4406	4350	4350	4296	4296	4296	4243	4243	4243	4243	4243	4243	4243	4243	4243	4243	4243	4243	4243	4243	4243	4243	4243	4243	4243	4243	4243	4243	4243	4296	4296	4350	4350	4350	4350	4350	4350	4350	4350	4406	4463	4463	6592	6853	6720	6720	6720	6720	6720	6720	6720	6720	7959	8146	8146	8146	8146	7959	7959	7959	7959	7959	7959	7959	7779	7959	7959	7779	7779	7779	7608	7779	7287	7287	7287	7287	7444	7608	7608	7444	7779	7779	7779	7779	7779	0	0	0	0	0	0	0	7444	7287	7287	0	0	0	0	0	0	0	0	0	0	0	0	0	0	0	0	0	0	0	0	0	0	0	0	0	0	0	0	0	7779	7959	7959	7959	8146	8343	8343	8343	7779	7779	7779	0	7444	7444	0	0	7444	7444	7444	7444	0	0	0	0	0	0	0	0	0	0	0	0	0	0	0	0	5915	5915	5915	5915	6124	6124	6124	0	0	0	0	0	0	0	0	0	0	0	0	0	0	0	0	0	0	0	0	0	0	0	0	0	3821	3821	3779	3738	3698	3659	3510	3440	3406	3373	3373	3341	3341	3309	3246	3216	3186	3186	3157	3157	3157	3129	3157	3129	3129	3129	3129	3129	3129	3157	3129	3129	3129	3129	3129	3129	3129	3129	3157	3157	3157	3157	3157	3157	3157	3129	3129	3129	3129	3129	3129	3129	3129	3129	3129	3157	3157	2127	2127	2140	2140	2140	2127	2127	2114	2101	2101	2088	2088	2076	2076	2076	2063	2039	1992	1980	1969	1958	1947	1947	1936	1936	1936	1925	1925	1904	1904	1915	1904	1904	1904	1904	1904	1904	1904	1904	1904	1904	1904	1904	1904	1894	1894	1894	1894	1894	1894	1894	1894	1883	1894	1883	1883	1894	1894	1894	1894	1894	1894	1894	1883	1883	1894	1904	1894	1894	0	0	0	0	0	0	0	0	0	0	0	0	0	0	0	0	0	0	0	0	0	0	0	0	0	0	0	0	0	0	0	0	0	0	0	0	0
0	0	0	0	0	0	0	0	0	0	0	0	0	0	1824	1833	1833	1843	1843	1843	1853	1863	1863	1873	1883	1883	1894	1894	1894	1915	1925	1947	1947	1958	1958	1958	1969	1969	1969	1980	1980	1992	1992	1992	2003	2015	2015	2027	2039	2051	2063	2063	2076	2076	2076	2088	2101	2101	2114	2114	2114	2127	2153	2167	2167	2167	2167	2181	2181	2181	2194	2223	2237	2237	2266	2281	2281	2281	2297	2297	2312	2312	2327	2343	2343	2359	2359	2359	2359	2376	2376	2392	2409	2409	2426	2426	2443	2478	2478	2478	2478	2478	2496	2496	0	4093	4093	4142	4142	4142	4142	4142	4192	4192	4192	4243	4243	4243	4296	4296	4350	4350	4350	4406	4406	4406	4581	4581	4581	4643	4706	4906	4977	4977	5050	5050	5050	5050	0	0	0	0	0	0	0	0	0	0	0	0	0	0	0	0	0	0	0	0	0	0	0	0	0	0	0	0	0	0	0	0	0	0	0	7608	7608	7779	7779	7779	7959	7779	7779	7779	7779	7779	7779	7779	7779	7779	7779	7779	7779	7959	7959	7959	0	0	0	0	0	0	0	0	0	0	0	0	0	0	0	0	0	0	0	0	0	0	0	0	0	0	0	0	0	0	0	0	0	0	0	0	0	0	0	0	0	0	0	0	0	0	0	0	0	0	0	0	0	0	0	0	0	0	0	0	0	0	0	0	0	0	0	0	0	0	0	0	0	6592	6720	6592	6720	6720	6853	6853	6853	6720	6720	6592	6592	6468	6592	6592	4406	4406	4406	4350	4350	4350	4296	4296	4243	4243	4243	4243	4243	4243	4243	4243	4243	4243	4243	4243	4243	4243	4243	4243	4243	4243	4243	4243	4243	4243	4243	4243	4243	4243	4243	4350	4350	4350	4350	4350	4350	4350	4350	4406	4406	6720	6853	6720	6720	6720	6720	6720	6720	6720	7779	8146	8146	8146	8146	8146	8146	7959	7959	7959	7959	7959	7959	7779	7959	7959	7779	7779	7779	7608	7608	7608	7608	7444	7287	7444	7444	7444	7444	7608	7608	7779	7779	7779	0	0	0	0	0	7444	7444	7287	7287	7287	7287	7287	7287	0	0	0	0	0	0	0	0	0	0	0	0	0	0	0	0	0	0	0	0	0	0	0	0	0	0	0	7779	7779	7959	8146	8146	8343	8343	7779	7779	7779	7444	7444	7608	7608	7444	7444	7444	7444	7444	7444	7444	0	0	0	0	0	0	0	0	0	0	0	0	0	0	5915	5915	5915	5915	6124	6124	6124	0	0	0	0	0	0	0	0	0	0	0	0	0	0	0	0	0	0	0	0	0	0	0	0	3864	3821	3821	3779	3738	3698	3659	3475	3440	3406	3373	3373	3341	3341	3277	3246	3216	3216	3186	3157	3157	3157	3157	3157	3129	3129	3129	3129	3129	3129	3157	3129	3129	3129	3129	3129	3129	3129	3129	3157	3157	3157	3157	3157	3157	3129	3129	3101	3101	3129	3129	3129	3129	3129	3157	3157	3157	3186	3186	2127	2140	2127	2140	2127	2127	2114	2101	2088	2088	2088	2076	2076	2076	2063	2039	1992	1980	1969	1958	1947	1947	1947	1936	1936	1925	1925	1915	1904	1915	1904	1904	1904	1904	1904	1904	1904	1904	1904	1904	1904	1904	1904	1894	1894	1894	1894	1894	1894	1894	1894	1883	1883	1883	1883	1894	1883	1883	1883	1894	1883	1894	1883	1883	1883	1894	1894	1894	0	0	0	0	0	0	0	0	0	0	0	0	0	0	0	0	0	0	0	0	0	0	0	0	0	0	0	0	0	0	0	0	0	0	0	0	0
0	0	0	0	0	0	0	0	0	0	0	0	0	0	1824	1833	1843	1843	1843	1853	1853	1863	1863	1873	1883	1894	1894	1894	1904	1915	1925	1936	1958	1958	1958	1958	1958	1969	1969	1969	1980	1980	1992	1992	2003	2015	2015	2027	2039	2051	2063	2063	2076	2076	2076	2088	2101	2114	2127	2127	2127	2140	2153	2153	2167	2167	2167	2181	2181	2181	2194	2194	2223	2237	2252	2281	2281	2281	2297	2297	2312	2312	2327	2327	2343	2343	2359	2359	2359	2376	2392	2392	2409	2409	2426	2426	2460	2478	2478	2478	2496	2478	2478	2478	0	4093	4093	4142	4142	4142	4142	4192	4192	4192	4243	4243	4296	4296	4350	4350	4350	4350	4406	4406	4406	4406	4581	4581	4581	4643	4706	4838	4906	4977	5050	4977	5050	4977	4977	0	0	0	0	0	0	0	0	0	0	0	0	0	0	0	0	0	0	0	0	0	0	0	0	0	0	0	0	0	0	0	0	0	0	7608	7959	7779	7959	7959	7959	7779	7779	7779	7779	7779	7779	7779	7779	7779	7779	7779	7779	7959	7959	7959	0	0	0	0	0	0	0	0	0	0	0	0	0	0	0	0	0	0	0	0	0	0	0	0	0	0	0	0	0	0	0	0	0	0	0	0	0	0	0	0	0	0	0	0	0	0	0	0	0	0	0	0	0	0	0	0	0	0	0	0	0	0	0	0	0	0	0	0	0	0	0	0	0	6592	6592	6592	6720	6720	6992	6992	6992	6720	6720	6592	6592	6592	6592	6592	4406	4406	4406	4406	4350	4350	4296	4296	4243	4243	4243	4243	4243	4243	4243	4243	4243	4243	4243	4243	4243	4243	4243	4192	4243	4243	4192	4192	4192	4243	4243	4243	4296	4296	4350	4350	4350	4350	4350	4350	4350	4350	4350	4406	4406	6853	6720	6720	6720	6720	6720	6720	6720	6853	7779	7959	7959	8146	8146	8146	8146	7959	7959	7959	7959	7959	7959	7779	7959	7959	7779	7779	7779	7608	7608	7608	7608	7444	7444	7608	7608	7608	7444	7444	7608	7779	7779	7779	0	0	7779	7779	0	7287	7444	7287	7287	7137	7287	7287	7444	7444	7444	7444	0	0	0	0	0	0	0	0	0	0	0	0	0	0	0	0	0	0	0	0	0	0	0	0	7779	7779	7779	7959	8146	8146	7959	7959	7959	7959	7779	7779	7779	7608	7444	7444	7444	7444	7444	7444	7444	0	0	0	0	0	0	0	0	0	0	0	0	0	0	0	5915	5915	5915	6124	5915	6124	6124	0	0	0	0	0	0	0	0	0	0	0	0	0	0	0	0	0	0	0	0	0	0	3864	3821	3821	3779	3779	3738	3698	3621	3475	3440	3406	3373	3373	3341	3341	3277	3246	3216	3216	3186	3157	3157	3157	3157	3129	3129	3129	3129	3129	3129	3129	3157	3129	3129	3129	3129	3129	3129	3129	3129	3129	3157	3157	3157	3157	3157	3129	3101	3129	3129	3129	3129	3129	3129	3129	3129	3157	3157	3157	3186	2127	2140	2127	2127	2127	2127	2114	2088	2088	2088	2088	2076	2076	2076	2063	2051	2003	1969	1958	1958	1947	1947	1936	1936	1936	1925	1925	1915	1915	1915	1904	1904	1904	1904	1904	1904	1904	1904	1904	1904	1904	1894	1894	1894	1894	1894	1894	1894	1894	1894	1883	1883	1883	1883	1883	1883	1883	1894	1883	1883	1883	1883	1883	1883	1883	1894	1894	1894	0	0	0	0	0	0	0	0	0	0	0	0	0	0	0	0	0	0	0	0	0	0	0	0	0	0	0	0	0	0	0	0	0	0	0	0	0
0	0	0	0	0	0	0	0	0	0	0	0	0	0	1824	1833	1833	1843	1843	1853	1853	1863	1863	1873	1873	1894	1894	1894	1904	1925	1936	1947	1958	1958	1958	1958	1958	1958	1969	1969	1969	1980	1980	1992	2003	2015	2015	2027	2027	2051	2063	2063	2076	2076	2076	2088	2088	2114	2127	2127	2127	2127	2153	2153	2167	2167	2167	2181	2181	2181	2181	2194	2208	2237	2252	2281	2281	2281	2281	2297	2297	2312	2343	2343	2343	2359	2359	2359	2359	2376	2376	2409	2409	2426	2443	2443	2460	2460	2496	2496	2496	2478	2496	2496	0	4142	4142	4142	4142	4192	4192	4192	4192	4243	4296	4296	4296	4296	4350	4350	4350	4350	4406	4406	4463	4521	4581	4581	4581	4643	4706	4771	4906	4977	4977	4977	4977	4977	4977	0	0	0	0	0	0	0	0	0	0	0	0	0	0	0	0	0	0	0	0	0	0	0	0	0	0	0	0	0	0	0	0	0	0	0	8146	7959	8146	8146	8146	7779	7779	7779	7779	7779	7779	7779	7779	7779	7779	7779	7779	7779	7779	7779	0	0	0	0	0	0	0	0	0	0	0	0	0	0	0	0	0	0	0	0	0	0	0	0	0	0	0	0	0	0	0	0	0	0	0	0	0	0	0	0	0	0	0	0	0	0	0	0	0	0	0	0	0	0	0	0	0	0	0	0	0	0	0	0	0	0	0	0	0	0	0	0	0	0	6592	6592	6720	6720	6853	6992	6853	6853	6853	6720	6592	6592	6592	6592	4406	4406	4406	4350	4350	4350	4296	4296	4243	4243	4243	4243	4243	4243	4243	4243	4243	4243	4243	4243	4243	4192	4192	4192	4192	4192	4192	4192	4243	4243	4243	4243	4296	4296	4350	4350	4350	4350	4350	4350	4350	4350	4350	4406	4406	6992	6853	6853	6720	6720	6720	6720	6853	7137	7779	7959	7959	8343	8343	8146	8146	7959	7959	7779	7779	7779	7779	7779	7779	7779	7779	7779	7608	7608	7608	7444	7444	7444	7444	7444	7608	7608	7608	7608	7608	7608	7779	7779	7779	7779	7779	7779	0	7444	7287	7287	7287	7137	7287	7287	7287	7444	7444	7608	7608	7444	7444	0	0	0	0	0	0	0	0	0	0	0	0	0	0	0	0	0	0	0	0	0	0	0	7779	7959	7959	7959	7959	7959	7959	7779	7779	7779	7779	7608	7444	7444	7444	7444	7444	7444	7444	0	0	0	0	0	0	0	0	0	0	0	0	0	0	0	5915	5915	6018	6124	6124	6124	6124	5915	5915	0	0	0	0	0	0	0	0	0	0	0	0	0	0	0	0	0	0	0	0	3864	3821	3821	3821	3821	3779	3698	3621	3475	3440	3406	3373	3373	3341	3341	3277	3246	3216	3216	3186	3186	3186	3157	3157	3129	3129	3129	3129	3129	3101	3101	3157	3129	3129	3129	3129	3129	3129	3129	3129	3129	3129	3129	3129	3129	3129	3129	3129	3129	3129	3129	3129	3129	3129	3129	3129	3129	3157	3157	3157	3157	2127	2127	2127	2127	2127	2114	2088	2088	2088	2088	2076	2076	2076	2076	2063	2027	1980	1958	1947	1947	1947	1936	1936	1936	1925	1925	1925	1915	1915	1904	1904	1904	1904	1904	1904	1904	1904	1904	1904	1904	1894	1894	1894	1894	1894	1894	1894	1894	1883	1883	1883	1883	1883	1883	1883	1883	1894	1883	1894	1883	1883	1883	1883	1883	1894	1894	1894	0	0	0	0	0	0	0	0	0	0	0	0	0	0	0	0	0	0	0	0	0	0	0	0	0	0	0	0	0	0	0	0	0	0	0	0	0
0	0	0	0	0	0	0	0	0	0	0	0	0	0	1824	1833	1843	1843	1843	1853	1853	1863	1863	1873	1873	1883	1894	1904	1915	1925	1925	1936	1947	1958	1958	1958	1958	1958	1969	1958	1969	1980	1980	1992	1992	2015	2027	2027	2027	2051	2063	2063	2063	2076	2076	2088	2088	2101	2114	2127	2127	2127	2153	2153	2167	2167	2167	2181	2181	2181	2181	2194	2223	2237	2252	2252	2281	2297	2297	2297	2312	2327	2343	2343	2343	2359	2359	2359	2359	2376	2392	2409	2409	2409	2443	2443	2443	2478	2478	2496	2496	2478	2496	2496	0	4142	4142	4142	4192	4192	4192	4192	4192	4243	4296	4296	4296	4350	4350	4350	4350	4406	4406	4406	4463	4406	4521	4581	4581	4581	4643	4706	4706	4838	4838	4838	4838	4977	0	0	0	0	0	0	0	0	0	0	0	0	0	0	0	0	0	0	0	0	0	0	0	0	0	0	0	0	0	0	0	0	0	0	0	8146	8146	8146	8146	7959	7959	7959	7779	7608	7779	7779	7779	7779	7779	7779	7779	7779	7779	7779	7779	7779	0	0	0	0	0	0	0	0	0	0	0	0	0	0	0	0	0	0	0	0	0	0	0	0	0	0	0	0	0	0	0	0	0	0	0	0	0	0	0	0	0	0	0	0	0	0	0	0	0	0	0	0	0	0	0	0	0	0	0	0	0	0	0	0	0	0	0	0	0	0	0	0	0	0	0	6468	6592	6853	6853	6992	6992	6992	6853	6853	6853	6592	6592	6592	4406	4406	4350	4350	4350	4350	4296	4296	4296	4243	4243	4243	4243	4243	4243	4243	4243	4243	4243	4243	4243	4192	4192	4192	4192	4192	4192	4192	4243	4243	4243	4243	4296	4296	4350	4350	4350	4350	4350	4350	4350	4350	4350	4350	4350	6992	6853	6853	6853	6853	6853	6853	7137	7779	7959	8146	8146	8343	8343	8146	8146	7779	7779	7779	7779	7779	7779	7779	7779	7779	7608	7444	7444	7444	7444	7444	7444	7444	7444	7608	7608	7608	7608	7779	7779	7779	7608	7608	7779	7779	7779	7779	7287	7287	7287	7137	7287	6992	7137	7287	7287	7444	7444	7608	7444	7444	7444	0	0	0	0	0	0	0	0	0	0	0	0	0	0	0	0	0	0	0	0	0	0	0	0	7779	7779	8146	8146	7959	7959	7959	7779	7779	7779	7608	7608	7444	7444	7444	7287	7287	7444	7444	0	0	0	0	0	0	0	0	0	0	0	0	0	0	6018	6018	6018	6018	6018	6124	6018	6124	6235	6124	6124	0	0	0	0	0	0	0	0	0	0	0	0	0	0	0	0	0	0	3864	3864	3821	3821	3821	3821	3583	3583	3475	3440	3406	3373	3373	3341	3341	3277	3246	3216	3216	3186	3186	3186	3157	3129	3157	3129	3129	3129	3129	3101	3101	3129	3129	3129	3129	3129	3129	3129	3129	3129	3129	3129	3129	3129	3129	3129	3129	3129	3129	3129	3129	3129	3129	3129	3129	3129	3129	3129	3157	3157	3157	2140	2140	2140	2127	2127	2114	2088	2088	2088	2076	2076	2076	2076	2063	2063	2039	1969	1958	1947	1947	1936	1936	1936	1925	1925	1915	1915	1915	1904	1904	1904	1904	1904	1904	1904	1904	1904	1904	1904	1904	1894	1894	1894	1894	1894	1894	1894	1894	1894	1883	1883	1883	1883	1883	1883	1883	1883	1883	1883	1883	1883	1883	1883	1883	1894	1894	1894	0	0	0	0	0	0	0	0	0	0	0	0	0	0	0	0	0	0	0	0	0	0	0	0	0	0	0	0	0	0	0	0	0	0	0	0	0
0	0	0	0	0	0	0	0	0	0	0	0	0	0	1824	1833	1843	1843	1843	1853	1853	1863	1863	1873	1873	1883	1894	1904	1904	1925	1925	1936	1936	1947	1947	1958	1958	1958	1958	1958	1969	1980	1980	1992	2003	2015	2027	2027	2039	2051	2063	2063	2076	2076	2076	2088	2088	2114	2127	2127	2127	2127	2153	2153	2167	2167	2167	2167	2167	2181	2181	2194	2223	2237	2252	2281	2281	2281	2297	2297	2297	2312	2327	2343	2343	2359	2359	2359	2359	2359	2376	2392	2409	2409	2443	2443	2460	2478	2496	2496	2478	2478	2496	2496	0	4142	4142	4142	4192	4192	4192	4192	4243	4243	4296	4296	4296	4350	4350	4350	4350	4406	4406	4406	4406	4406	4521	4521	4521	4581	4581	4581	4643	4643	4643	4838	4838	0	0	0	0	0	0	0	0	0	0	0	0	0	0	0	0	0	0	0	0	0	0	0	0	0	0	0	0	0	0	0	0	0	0	0	0	8146	8146	8146	8146	7959	7959	7959	7608	7779	7779	7779	7779	7779	7779	7779	7779	7779	7779	7779	7779	0	0	0	0	0	0	0	0	0	0	0	0	0	0	0	0	0	0	0	0	0	0	0	0	0	0	0	0	0	0	0	0	0	0	0	0	0	0	0	0	0	0	0	0	0	0	0	0	0	0	0	0	0	0	0	0	0	0	0	0	0	0	0	0	0	0	0	0	0	0	0	0	0	0	0	0	6235	6235	6992	6992	7287	7137	7137	7137	6853	6853	0	0	0	4350	4406	4350	4350	4350	4350	4296	4296	4296	4243	4243	4243	4243	4243	4243	4243	4243	4243	4243	4243	4243	4192	4192	4192	4192	4192	4192	4192	4243	4243	4243	4243	4296	4296	4350	4350	4350	4350	4350	4350	4350	4350	4296	4350	4350	4350	6853	6992	7137	6992	6992	7137	7444	7779	7959	8146	8146	8146	8146	8146	7959	7779	7779	7779	7779	7779	7779	7779	7779	7779	7608	7608	7444	7608	7444	7444	7444	7444	7608	7779	7779	7608	7779	7779	7779	7959	7779	7779	7779	7779	7779	7779	7779	7287	7287	7137	7287	6992	7287	7287	7287	7287	7444	7444	7287	7287	7287	0	0	0	0	0	0	0	0	0	0	0	0	0	0	0	0	0	0	0	0	0	0	0	7608	7959	7959	8146	7959	8146	8146	8146	8146	7959	7959	7779	7608	7608	7444	7444	7287	7287	7287	7444	0	0	0	0	0	0	0	0	0	0	0	0	0	0	6018	6018	6018	6018	6018	6124	6124	6124	6235	6124	6124	0	0	0	0	0	0	0	0	0	0	0	0	0	0	0	0	0	0	3907	3864	3821	3821	3821	3821	3583	3583	3475	3440	3440	3406	3373	3341	3309	3277	3216	3216	3216	3186	3186	3186	3157	3157	3129	3129	3129	3129	3101	3101	3129	3129	3129	3129	3129	3129	3129	3129	3129	3129	3129	3129	3129	3129	3129	3129	3129	3101	3101	3129	3101	3101	3129	3129	3129	3129	3129	3129	3129	3129	3157	2127	2127	2140	2127	2127	2114	2088	2088	2088	2088	2076	2076	2076	2076	2063	2063	1958	1947	1947	1936	1936	1936	1936	1925	1925	1925	1925	1915	1904	1904	1904	1904	1904	1904	1904	1904	1904	1904	1904	1904	1894	1894	1894	1894	1894	1894	1883	1894	1883	1883	1883	1883	1883	1883	1883	1883	1883	1883	1883	1883	1883	1883	1883	1883	1894	1894	1894	0	0	0	0	0	0	0	0	0	0	0	0	0	0	0	0	0	0	0	0	0	0	0	0	0	0	0	0	0	0	0	0	0	0	0	0	0
0	0	0	0	0	0	0	0	0	0	0	0	0	0	1824	1833	1843	1843	1843	1853	1853	1863	1873	1873	1873	1894	1894	1904	1904	1915	1925	1925	1925	1936	1947	1947	1958	1958	1958	1958	1969	1980	1980	1992	2003	2015	2027	2027	2051	2051	2063	2063	2076	2076	2076	2088	2076	2114	2127	2127	2127	2140	2153	2153	2167	2167	2167	2167	2181	2181	2181	2194	2208	2237	2237	2266	2281	2281	2281	2297	2297	2312	2327	2327	2343	2343	2359	2359	2359	2376	2392	2392	2392	2409	2426	2443	2443	2478	2496	2478	2478	2460	2460	2496	0	4142	4142	4142	4142	4142	4142	4192	4192	4243	4243	4296	4296	4350	4350	4350	4350	4350	4406	4406	4406	4406	4521	4521	4521	4521	4581	4581	4643	4706	4706	4706	0	0	0	0	0	0	0	0	0	0	0	0	0	0	0	0	0	0	0	0	0	0	0	0	0	0	0	0	0	0	0	0	0	0	0	0	0	8146	8146	8146	7959	7959	7959	7779	7779	7608	7608	7779	7779	7779	7779	7779	7779	7779	7779	7608	7608	0	0	0	0	0	0	0	0	0	0	0	0	0	0	0	0	0	0	0	0	0	0	0	0	0	0	0	0	0	0	0	0	0	0	0	0	0	0	0	0	0	0	0	0	0	0	0	0	0	0	0	0	0	0	0	0	0	0	0	0	0	0	0	0	0	0	0	0	0	0	0	0	0	0	0	0	6235	6235	6235	7608	7444	7287	7444	7444	7444	0	0	0	4243	4296	4350	4296	4296	4296	4296	4296	4296	4296	4243	4243	4243	4243	4243	4243	4243	4243	4243	4243	4243	4243	4243	4192	4192	4192	4192	4192	4192	4243	4243	4243	4243	4296	4296	4350	4350	4350	4350	4350	4350	4350	4296	4296	4296	4296	7287	7137	7287	7287	7287	7287	7287	7608	7959	7959	8146	7959	8146	8146	8146	7959	7959	7959	7959	7959	7959	7959	7959	7959	7959	7779	7779	7608	7608	7444	7444	7608	7608	7608	7779	7779	7779	7779	7779	7959	8146	7959	7959	7959	7779	7779	7779	7779	7444	7287	7137	7137	7137	7137	7137	7287	7287	7287	7287	7287	7287	7287	0	0	0	0	0	0	0	0	0	0	0	0	0	0	0	0	0	0	0	0	0	0	0	7779	7959	8146	8146	8146	8343	8343	8146	8146	8146	7959	7779	7779	7608	7444	7444	7444	7287	7287	0	0	0	0	0	0	0	0	0	0	0	0	0	5915	5915	5915	5915	6018	6018	6018	6018	6018	6124	6124	6124	6124	0	0	0	0	0	0	0	0	0	0	0	0	0	0	0	0	0	0	3907	3907	3864	3864	3864	3821	3583	3546	3475	3440	3440	3406	3373	3341	3309	3277	3216	3216	3216	3186	3157	3157	3129	3129	3129	3129	3101	3101	3129	3129	3129	3157	3157	3129	3129	3129	3129	3129	3129	3129	3129	3129	3129	3129	3129	3129	3129	3101	3129	3101	3101	3101	3129	3129	3129	3129	3129	3129	3129	3129	3129	2127	2127	2127	2127	2127	2114	2088	2101	2088	2088	2076	2076	2076	2076	2063	2063	1958	1947	1936	1936	1936	1936	1936	1925	1925	1936	1925	1915	1904	1904	1904	1904	1904	1904	1904	1904	1904	1904	1894	1904	1894	1894	1894	1894	1883	1894	1883	1894	1883	1883	1883	1883	1894	1883	1883	1883	1883	1883	1883	1883	1883	1883	1883	1883	1894	1894	1894	0	0	0	0	0	0	0	0	0	0	0	0	0	0	0	0	0	0	0	0	0	0	0	0	0	0	0	0	0	0	0	0	0	0	0	0	0
0	0	0	0	0	0	0	0	0	0	0	0	0	0	1824	1833	1843	1843	1843	1853	1853	1863	1873	1883	1883	1894	1904	1904	1904	1925	1925	1936	1936	1936	1947	1947	1947	1958	1958	1958	1969	1969	1980	1980	1992	2015	2015	2027	2051	2051	2063	2063	2063	2076	2076	2076	2076	2114	2114	2127	2127	2127	2140	2153	2167	2167	2167	2167	2167	2181	2181	2194	2208	2237	2237	2266	2266	2281	2281	2297	2297	2312	2327	2343	2343	2343	2359	2359	2359	2376	2392	2409	2409	2409	2426	2426	2460	2478	2478	2478	2478	2460	2460	0	0	4142	4142	4142	4142	4192	4192	4192	4192	4243	4243	4296	4296	4350	4350	4350	4350	4350	4406	4406	4406	4406	4521	4521	4581	4581	4581	4643	4643	4706	4706	4706	0	0	0	0	0	0	0	0	0	0	0	0	0	0	0	0	0	0	0	0	0	0	0	0	0	0	0	0	0	0	0	0	0	0	0	0	0	8146	8146	7959	7959	7779	7779	7779	7779	7779	7779	7779	7779	7779	7779	7779	7779	7779	7779	7608	7608	7608	0	0	0	0	0	0	0	0	0	0	0	0	0	0	0	0	0	0	0	0	0	0	0	0	0	0	0	0	0	0	0	0	0	0	0	0	0	0	0	0	0	0	0	0	0	0	0	0	0	0	0	0	0	0	0	0	0	0	0	0	0	0	0	0	0	0	0	0	0	0	0	0	0	0	0	6235	6235	6235	7608	7608	7608	7608	7608	7608	7608	0	0	4243	4243	4243	4296	4296	4296	4296	4296	4296	4296	4243	4243	4243	4243	4243	4243	4243	4243	4243	4243	4243	4243	4192	4192	4192	4192	4192	4192	4192	4243	4243	4243	4243	4296	4296	4350	4350	4350	4350	4350	4350	4296	4296	4350	4296	4296	7287	7287	7287	7287	7287	7444	7444	7959	7959	8146	8146	8146	8146	8146	8146	8146	8146	8146	8146	8146	8146	8146	8146	8146	8146	7959	7779	7779	7779	7608	7608	7608	7779	7779	7959	7779	7779	7959	7959	8146	8146	8146	8146	7959	7959	7959	7779	7779	7608	7287	7137	7137	7137	7137	7137	7137	7287	7287	7287	7287	7287	7287	0	0	0	0	0	0	0	0	0	0	0	0	0	0	0	0	0	0	0	8146	8146	7959	7959	7959	7959	7959	8146	8146	8146	8146	8146	8146	8146	8146	7959	7779	7779	7444	7444	7444	0	0	0	0	0	0	0	0	0	0	0	0	0	0	5815	5815	5815	5915	5915	5915	6124	6124	6235	6235	6235	6235	6124	6124	0	0	0	0	0	0	0	0	0	0	0	0	0	0	0	0	0	0	0	3907	3864	3864	3864	0	0	3510	3475	3440	3440	3406	3373	3341	3277	3246	3246	3216	3216	3186	3186	3157	3129	3129	3101	3101	3101	3129	3129	3129	3129	3157	3157	3129	3129	3129	3129	3129	3129	3129	3129	3129	3129	3129	3129	3129	3129	3101	3101	3101	3101	3101	3129	3129	3129	3129	3129	3129	3129	3129	3129	3129	2127	2127	2127	2114	2114	2114	2101	2088	2088	2088	2088	2076	2076	2063	1958	1947	1947	1936	1936	1936	1936	1936	1936	1936	1936	1925	1925	1904	1904	1904	1904	1904	1904	1904	1904	1894	1894	1894	1894	1894	1894	1894	1894	1883	1883	1883	1883	1883	1883	1883	1883	1894	1883	1883	1883	1883	1883	1883	1883	1883	1883	1883	1883	1894	1894	1894	0	0	0	0	0	0	0	0	0	0	0	0	0	0	0	0	0	0	0	0	0	0	0	0	0	0	0	0	0	0	0	0	0	0	0	0	0
0	0	0	0	0	0	0	0	0	0	0	0	0	0	1824	1833	1843	1843	1843	1843	1853	1853	1863	1873	1873	1894	1894	1904	1904	1915	1925	1936	1936	1936	1947	1947	1947	1958	1958	1958	1969	1980	1980	1992	2003	2015	2015	2027	2039	2051	2063	2063	2063	2076	2076	2076	2088	2114	2114	2127	2127	2127	2140	2153	2167	2167	2167	2167	2167	2181	2181	2208	2223	2223	2237	2266	2266	2281	2281	2297	2297	2312	2327	2327	2343	2343	2359	2359	2376	2392	2392	2409	2409	2426	2426	2443	2460	2478	2478	2478	2478	2460	2460	0	4142	4142	4142	4142	4142	4142	4192	4192	4192	4192	4243	4243	4296	4350	4350	4350	4350	4406	4406	4406	4406	4406	4463	4521	4581	4521	4581	4521	4581	4581	4706	4706	0	0	0	0	0	0	0	0	0	0	0	0	0	0	0	0	0	0	0	0	0	0	0	0	0	0	0	0	0	0	0	0	0	0	0	0	0	0	7959	7959	7779	7779	7608	7779	7779	7779	7779	7779	7779	7779	7779	7779	7779	7779	7779	7608	7608	7608	0	0	0	0	0	0	0	0	0	0	0	0	0	0	0	0	0	0	0	0	0	0	0	0	0	0	0	0	0	0	0	0	0	0	0	0	0	0	0	0	0	0	0	0	0	0	0	0	0	0	0	0	0	0	0	0	0	0	0	0	0	0	0	0	0	0	0	0	0	0	0	0	0	0	0	6235	6235	6235	7779	7779	7608	7608	7608	7608	7608	0	0	4243	4243	4243	4296	4296	4296	4296	4296	4296	4296	4243	4243	4243	4243	4243	4243	4243	4243	4243	4243	4243	4243	4243	4192	4192	4192	4192	4192	4192	4243	4243	4243	4296	4296	4296	4350	4350	4350	4350	4350	4350	4350	4350	4350	4350	4350	7137	7137	7137	7287	7287	7287	8343	8343	8146	8146	8146	8343	8146	8146	8146	8146	8146	8146	8146	8146	8146	8146	8146	7959	7959	7959	7779	7779	7779	7779	7779	7779	7779	7959	7959	7959	7959	7959	8146	8343	8146	7959	7959	7959	7959	7959	7779	7608	7608	7287	7137	7137	7137	7137	7137	7137	7137	7287	7287	7287	7287	7287	0	0	0	0	0	0	0	0	0	0	0	0	0	0	0	0	0	0	8343	8343	8343	8146	7959	7959	7959	8146	8146	8146	8146	8343	8343	8343	8146	8146	7959	7959	7779	7444	7444	0	0	0	0	0	0	0	0	0	0	0	0	0	0	0	5815	5815	5915	5915	5915	6235	6235	6235	6235	6235	6235	6235	6235	6124	0	0	0	0	0	0	0	0	0	0	0	0	0	0	0	0	0	0	0	0	0	0	0	0	0	3510	3475	3440	3440	3406	3373	3341	3309	3246	3216	3216	3216	3186	3186	3157	3129	3129	3129	3129	3129	3129	3129	3129	3129	3157	3129	3129	3129	3129	3129	3129	3129	3129	3129	3129	3129	3129	3129	3129	3129	3129	3129	3129	3129	3129	3129	3129	3129	3129	3129	3129	3129	3129	3129	3129	2127	2127	2127	2127	2114	2101	2088	2088	2088	2088	2076	2076	2076	2076	2063	1947	1947	1936	1936	1936	1936	1936	1936	1936	1925	1925	1925	1915	1904	1904	1904	1904	1904	1904	1904	1904	1904	1894	1894	1894	1894	1894	1894	1883	1883	1894	1883	1883	1883	1883	1883	1894	1883	1883	1883	1883	1883	1873	1873	1873	1873	1873	1873	1894	1894	1894	0	0	0	0	0	0	0	0	0	0	0	0	0	0	0	0	0	0	0	0	0	0	0	0	0	0	0	0	0	0	0	0	0	0	0	0	0
0	0	0	0	0	0	0	0	0	0	0	0	0	0	1824	1833	1843	1843	1843	1843	1853	1853	1863	1873	1863	1883	1894	1904	1904	1915	1925	1925	1936	1936	1936	1947	1947	1947	1958	1958	1969	1980	1992	1992	2003	2015	2015	2027	2027	2039	2039	2063	2063	2076	2076	2088	2088	2101	2114	2127	2127	2127	2140	2153	2153	2167	2167	2167	2181	2181	2181	2208	2223	2223	2237	2237	2266	2281	2281	2297	2297	2312	2327	2327	2343	2343	2359	2359	2359	2376	2392	2409	2426	2426	2426	2443	2443	2478	2478	2460	2460	2460	2460	0	4093	4142	4093	4142	4142	4142	4142	4142	4192	4243	4296	4350	4350	4406	4406	4406	4350	4406	4406	4406	4406	4406	4463	4521	4521	4521	4521	4521	4521	4581	0	0	0	0	0	0	0	0	0	0	0	0	0	0	0	0	0	0	0	0	0	0	0	0	0	0	0	0	0	0	0	0	0	0	0	0	0	0	0	7959	7959	7959	7779	7608	7608	7779	7779	7779	7959	7779	7959	7959	7959	7779	7779	7779	7608	7779	7779	7779	0	0	0	0	0	0	0	0	0	0	0	0	0	0	0	0	0	0	0	0	0	0	0	0	0	0	0	0	0	0	0	0	0	0	0	0	0	0	0	0	0	0	0	0	0	0	0	0	0	0	0	0	0	0	0	0	0	0	0	0	0	0	0	0	0	0	0	0	0	0	0	0	0	0	6235	6124	6124	7959	7959	7959	7779	7608	7608	7779	7779	7779	0	4243	4243	4296	4296	4296	4296	4296	4296	4296	4296	4243	4243	4243	4243	4243	4243	4243	4243	4243	4243	4243	4243	4243	4243	4243	4192	4192	4243	4243	4243	4243	4296	4296	4296	4296	4350	4350	4350	4350	4350	4350	4350	4350	4350	4350	4350	7137	7137	7137	7137	8343	8343	8343	8343	8146	8146	8343	8343	8146	8343	8343	8343	8343	8343	8146	8146	8146	8146	7959	7959	7959	7779	7779	7779	7779	7779	7779	7959	7959	7959	7959	7959	7959	7959	8146	8343	8146	8146	8146	7959	7959	7959	7779	7608	7608	7287	7137	6992	6992	6992	7137	7137	7137	7137	7287	7287	7287	7287	0	0	0	0	0	0	0	0	0	0	0	0	0	0	0	0	0	0	8343	8343	8550	8343	8343	7959	7959	8146	8146	8146	8146	8146	8343	8343	8146	8146	7959	7959	7608	7444	7287	7287	7287	0	0	0	0	0	0	7137	7137	6853	6853	0	0	0	6349	5915	5915	6235	5915	6235	6235	6235	6235	6235	6124	6124	6124	0	0	0	0	0	0	0	0	0	0	0	0	0	0	0	0	0	0	0	0	0	0	0	0	0	0	3510	3475	3440	3440	3406	3406	3341	3309	3277	3216	3216	3186	3186	3157	3157	3129	3101	3101	3129	3129	3101	3129	3101	3129	3157	3129	3129	3129	3129	3129	3129	3129	3129	3129	3129	3129	3129	3129	3129	3129	3129	3129	3129	3129	3129	3129	3129	3129	3101	3129	3101	3129	3101	3129	3129	2114	2114	2114	2114	2114	2114	2101	2088	2088	2088	2076	2076	2076	2076	2027	1958	1947	1947	1947	1947	1936	1936	1936	1936	1925	1925	1915	1915	1904	1904	1904	1904	1904	1904	1904	1904	1904	1894	1894	1894	1894	1894	1883	1883	1883	1883	1883	1883	1873	1883	1883	1883	1883	1883	1883	1883	1883	1873	1873	1873	1873	1883	1883	1894	1894	1894	0	0	0	0	0	0	0	0	0	0	0	0	0	0	0	0	0	0	0	0	0	0	0	0	0	0	0	0	0	0	0	0	0	0	0	0	0
0	0	0	0	0	0	0	0	0	0	0	0	0	0	1814	1833	1833	1833	1843	1843	1853	1853	1853	1853	1863	1883	1894	1894	1925	1925	1925	1936	1936	1936	1936	1936	1947	1958	1958	1969	1980	1992	2003	2003	2003	2003	2015	2027	2027	2027	2063	2063	2063	2076	2076	2088	2088	2101	2114	2114	2127	2127	2140	2153	2153	2167	2167	2167	2167	2181	2181	2223	2223	2237	2237	2237	2266	2281	2281	2281	2297	2312	2327	2327	2343	2343	2359	2359	2376	2392	2392	2409	2426	2426	2426	2443	2460	2460	2460	2443	2443	2478	0	0	4045	4045	4045	4093	4142	4142	4142	4192	4192	4243	4296	4296	4296	4350	4350	4350	4350	4406	4406	4406	4406	4463	4521	4521	4521	4521	4521	4521	4521	0	0	0	0	0	0	0	0	0	0	0	0	0	0	0	0	0	0	0	0	0	0	0	0	0	0	0	0	0	0	0	0	0	0	0	0	0	0	0	0	7959	7779	7779	7608	7608	7608	7608	7779	7779	7779	7959	7959	7959	7959	7779	7779	7779	7779	7779	7779	7779	0	0	0	0	0	0	0	0	0	0	0	0	0	0	0	0	0	0	0	0	0	0	0	0	0	0	0	0	0	0	0	0	0	0	0	0	0	0	0	0	0	0	0	0	0	0	0	0	0	0	0	0	0	0	0	0	0	0	0	0	0	0	0	0	0	0	0	0	0	0	0	0	0	0	6235	6124	6235	7959	7959	8146	7959	7959	7959	7959	7959	7959	7959	0	4243	4296	4296	4296	4296	4296	4296	4296	4296	4243	4243	4243	4243	4243	4243	4243	4243	4243	4243	4243	4243	4243	4243	4243	4243	4192	4243	4243	4243	4243	4243	4243	4296	4296	4350	4350	4350	4350	4350	4350	4350	4350	4350	4350	4296	4296	4296	7137	7608	7779	8146	8146	8146	8146	8146	8146	8146	8146	8146	8146	8343	8343	8146	8146	8146	8146	8146	8146	8146	7959	7959	7959	7959	7959	7959	7959	7959	7959	7959	8146	7959	7959	7959	8146	8343	8146	8146	8146	8146	8146	7959	7779	7608	7608	7287	7137	7137	6992	6992	6992	7137	7137	7137	7137	7137	7137	7137	0	0	0	0	0	0	0	0	0	0	0	0	0	0	0	0	0	0	8343	8343	8343	8343	8343	7959	7959	8146	8146	8146	8146	8146	8343	8343	8146	8146	7959	7959	7608	7287	7287	7287	7287	0	0	6853	6992	6992	6992	6992	6992	6992	6992	6992	0	0	6349	6124	6124	6235	6235	6235	6124	5915	5915	6235	6124	6124	6124	0	0	0	0	0	0	0	0	0	0	0	0	3309	3309	3277	3277	3277	3277	3309	3277	3277	0	0	0	0	0	0	3475	3440	3440	3406	3406	3309	3309	3277	3246	3186	3157	3157	3157	3129	3129	3101	3129	3129	3129	3129	3129	3129	3129	3157	3129	3129	3129	3129	3129	3157	3129	3129	3129	3129	3129	3129	3129	3129	3129	3129	3129	3129	3129	3129	3129	3129	3129	3129	3129	3129	3129	3101	3129	3129	3157	2114	2114	2114	2127	2114	2114	2101	2088	2088	2076	2076	2063	2039	2003	1992	1947	1958	1936	1936	1936	1936	1936	1936	1925	1925	1915	1904	1904	1904	1904	1904	1904	1904	1904	1904	1904	1894	1894	1894	1894	1883	1883	1883	1883	1883	1883	1883	1883	1883	1883	1883	1883	1883	1883	1883	1883	1873	1873	1873	1873	1873	1883	1894	1883	1883	0	0	0	0	0	0	0	0	0	0	0	0	0	0	0	0	0	0	0	0	0	0	0	0	0	0	0	0	0	0	0	0	0	0	0	0	0
0	0	0	0	0	0	0	0	0	0	0	0	0	0	1814	1824	1833	1833	1833	1843	1853	1853	1853	1863	1863	1883	1894	1904	1925	1925	1925	1925	1925	1936	1936	1936	1936	1958	1958	1969	1980	1980	2003	2003	2003	2015	2015	2015	2027	2027	2039	2051	2063	2063	2076	2076	2088	2114	2114	2114	2127	2140	2140	2153	2167	2167	2167	2181	2181	2181	2194	2208	2223	2223	2237	2237	2266	2281	2281	2281	2297	2297	2312	2327	2343	2359	2359	2359	2376	2392	2392	2409	2426	2426	2426	2443	2460	2460	2478	2443	2478	2478	0	0	4045	4045	4093	4142	4142	4142	4192	4192	4192	4192	4243	4243	4243	4350	4350	4406	4406	4406	4463	4463	4463	4463	4521	4521	4521	4521	4521	4521	0	0	0	0	0	0	0	0	0	0	0	0	0	0	0	0	0	0	0	0	0	0	0	0	0	0	0	0	0	0	0	0	0	0	0	0	0	0	0	0	0	7608	7779	7779	7608	7608	7608	7608	7779	7608	7779	7959	7959	7959	7959	7959	7959	7779	7779	7779	7779	0	0	0	0	0	0	0	0	0	0	0	0	0	0	0	0	0	0	9757	9757	0	0	0	0	0	0	0	0	0	0	0	0	0	0	0	0	0	0	0	0	0	0	0	0	0	0	0	0	0	0	0	0	0	0	0	0	0	0	0	0	0	0	0	0	0	0	0	0	0	0	0	0	6349	6349	6235	6235	8146	8146	8146	8146	8146	8146	8146	8146	7959	8146	8146	8146	0	0	4296	4296	4296	4296	4296	4296	4296	4296	4296	4296	4243	4243	4243	4243	4243	4243	4243	4243	4296	4296	4296	4243	4243	4243	4243	4243	4243	4243	4243	4243	4296	4296	4296	4350	4350	4350	4350	4350	4350	4350	4350	4406	4406	7779	7608	7608	7608	7608	7779	7959	8146	8146	8146	8146	8146	8146	8146	8146	8146	8343	8343	8146	8146	8146	8146	8146	7959	7959	7959	7959	7959	7959	7959	8146	7959	7959	8146	8146	8146	8146	8146	8146	8146	8343	8146	8146	8146	8146	8146	7959	7779	7779	7608	7444	7137	7137	7137	6992	6992	7137	7137	7137	7137	7137	7137	7137	0	0	0	0	0	0	0	0	0	0	0	0	0	0	0	0	0	0	8343	8343	8343	8343	8343	8146	7959	8146	8146	8146	8146	8146	8343	8343	8146	8146	7959	7959	7444	7444	7287	7287	7137	7137	6853	6853	6853	6853	6992	6992	6992	6992	6992	6992	0	0	6235	6018	6018	6018	6124	6124	6124	5915	5915	0	0	0	0	0	0	0	0	0	0	0	0	0	0	0	3341	3309	3309	3246	3246	3246	3277	3277	3246	3246	0	0	0	0	0	0	3510	3510	3475	3440	3440	3440	3277	3277	3246	3186	3186	3186	3157	3157	3129	3129	3129	3129	3129	3129	3129	3129	3129	3157	3129	3129	3129	3129	3129	3157	3129	3129	3129	3129	3129	3129	3129	3129	3129	3129	3129	3129	3129	3129	3129	3129	3129	3129	3129	3129	3129	3129	3129	3157	3157	2101	2101	2114	2127	2127	2114	2114	2101	2088	2088	2076	2063	2039	2003	1958	1947	1947	1936	1936	1936	1936	1936	1936	1925	1925	1915	1915	1915	1904	1904	1904	1904	1904	1904	1904	1904	1894	1894	1894	1894	1894	1883	1883	1883	1883	1883	1873	1873	1873	1883	1883	1883	1883	1883	1883	1883	1873	1873	1873	1873	1873	1873	1894	1894	1894	0	0	0	0	0	0	0	0	0	0	0	0	0	0	0	0	0	0	0	0	0	0	0	0	0	0	0	0	0	0	0	0	0	0	0	0	0
0	0	0	0	0	0	0	0	0	0	0	0	0	0	1814	1824	1833	1833	1833	1843	1843	1843	1853	1863	1863	1883	1883	1894	1925	1925	1925	1925	1936	1936	1936	1936	1936	1958	1969	1969	1992	1992	2003	2003	2003	2015	2015	2027	2027	2027	2039	2051	2063	2063	2076	2076	2088	2101	2114	2114	2127	2140	2153	2153	2167	2167	2167	2181	2181	2181	2194	2208	2223	2237	2237	2252	2266	2281	2281	2281	2297	2297	2312	2343	2343	2343	2359	2359	2376	2392	2409	2409	2409	2426	2426	2426	2460	2460	2460	2443	2443	2478	2478	0	4045	4045	4093	4093	4142	4142	4192	4192	4192	4192	4243	4243	4243	4296	4350	4350	4350	4406	4406	4463	4406	4521	4521	4521	4581	4521	4521	4521	0	0	0	0	0	0	0	0	0	0	0	0	0	0	0	0	0	0	0	0	0	0	0	0	0	0	0	0	0	0	0	0	0	0	0	0	0	0	0	0	7608	7608	7608	7608	7608	7608	7608	7779	7779	7959	7779	7959	7959	7959	7959	7779	7779	7779	7959	7959	7959	0	0	0	0	0	0	0	0	0	0	0	0	0	0	0	0	0	0	9757	9757	0	0	0	0	0	0	0	0	0	0	0	0	0	0	0	0	0	0	0	0	0	0	0	0	0	0	0	0	0	0	0	0	0	0	0	0	0	0	0	0	0	0	0	0	0	0	0	0	0	0	0	0	6468	6468	6468	6468	6592	8146	7959	8146	8146	8146	8146	8146	7959	7959	8146	7959	7959	0	4350	4350	4296	4296	4296	4296	4296	4296	4296	4296	4243	4243	4243	4243	4243	4243	4243	4296	4296	4296	4296	4296	4296	4243	4243	4243	4243	4243	4296	4296	4296	4296	4296	4296	4350	4350	4350	4350	4350	4406	4406	4406	4406	7959	7779	7779	7779	7779	7779	7959	7959	8146	8146	8146	8343	8343	8146	8343	8343	8343	8343	8343	8343	8146	8146	8146	7959	8146	7959	7959	7779	7959	7959	8146	7959	8146	8146	8146	8146	8146	7959	7959	8146	8146	8146	8146	8146	8146	7959	7959	7779	7779	7608	7444	7137	7137	7137	6992	6992	6992	6992	7137	6992	7137	7137	7137	0	0	0	0	0	0	0	0	0	0	0	0	0	0	0	0	0	8343	8343	8343	8343	8343	8146	7959	8146	8146	8146	8146	8146	8146	8146	8146	8146	7959	7959	7959	7444	7287	7137	7287	7137	6992	6853	6853	6853	6853	6992	6992	6992	6992	6992	0	0	0	6018	5915	5915	6018	6018	6124	6124	5915	5915	5915	0	0	0	0	0	0	0	0	3621	3621	0	0	3341	3309	3341	3309	3309	3246	3246	3246	3246	3246	3246	3246	0	0	0	0	0	0	3510	3475	3475	3440	3440	3373	3277	3277	3246	3186	3157	3186	3157	3157	3157	3129	3129	3157	3129	3129	3129	3129	3129	3157	3129	3129	3129	3129	3129	3157	3129	3129	3129	3129	3129	3129	3101	3129	3129	3129	3129	3101	3129	3129	3129	3129	3129	3129	3129	3129	3129	3129	3129	3129	3157	2114	2114	2127	2127	2127	2114	2114	2101	2088	2088	2076	2063	2039	2003	1958	1958	1947	1947	1936	1936	1936	1936	1936	1925	1925	1915	1915	1915	1915	1904	1904	1904	1904	1904	1904	1894	1894	1894	1894	1883	1883	1883	1883	1883	1883	1883	1883	1873	1883	1883	1883	1883	1873	1873	1883	1883	1873	1873	1873	1873	1873	1873	1883	1873	1873	0	0	0	0	0	0	0	0	0	0	0	0	0	0	0	0	0	0	0	0	0	0	0	0	0	0	0	0	0	0	0	0	0	0	0	0	0
0	0	0	0	0	0	0	0	0	0	0	0	0	0	1814	1824	1833	1833	1833	1843	1843	1843	1853	1863	1863	1883	1883	1883	1894	1894	1894	1925	1936	1947	1936	1936	1936	1969	1969	1980	1992	2003	2003	2003	2003	2015	2015	2027	2027	2027	2039	2051	2063	2063	2063	2076	2088	2088	2114	2114	2127	2140	2140	2153	2153	2167	2167	2181	2181	2181	2194	2223	2223	2237	2237	2237	2252	2252	2281	2281	2281	2297	2312	2343	2343	2343	2359	2359	2376	2392	2392	2409	2426	2426	2426	2426	2460	2460	2460	2443	2443	2478	2478	0	3998	4045	4093	4142	4142	4142	4192	4192	4192	4192	4243	4243	4243	4296	4296	4296	4296	4406	4463	4521	4463	4581	4581	4581	4521	4521	4521	0	0	0	0	0	0	0	0	0	0	0	0	0	0	0	0	0	0	0	0	0	0	0	0	0	0	0	0	0	0	0	0	0	0	0	0	0	0	0	0	0	7608	7608	7608	7608	7608	7608	7608	7779	7959	7959	7959	7959	7959	7959	7959	7959	7779	7779	7959	7959	7959	0	0	0	0	0	0	0	0	0	0	0	0	0	0	0	0	0	0	0	9757	9757	0	0	0	0	0	0	0	0	0	0	0	0	0	0	0	0	0	0	0	0	0	0	0	0	0	0	0	0	0	0	0	0	0	0	0	0	0	0	0	0	0	0	0	0	0	0	0	0	0	0	0	6468	6468	6468	6468	6468	7959	7959	8146	8146	8146	8146	8146	7959	7959	8146	7959	8146	8146	4350	4350	4350	4350	4350	4350	4296	4296	4296	4296	4296	4296	4243	4243	4243	4296	4296	4296	4296	4296	4296	4296	4296	4243	4243	4243	4243	4243	4296	4296	4296	4296	4296	4350	4350	4350	4350	4350	4350	4406	4406	4406	4406	8343	8343	8146	8146	7959	7959	7959	7959	8146	8146	8146	8146	8146	8146	8146	8146	8343	8343	8343	8343	8146	8146	8146	8146	8146	7959	7959	7779	7959	7959	8146	8146	8146	8146	8146	8146	8146	8146	7959	7959	7959	8146	8146	8146	8146	8146	7959	7959	7779	7779	7608	7287	7287	7137	7137	6992	6992	7137	7137	7137	7137	7137	7137	0	0	0	0	0	0	0	0	0	0	0	0	0	0	0	0	0	8146	8343	8146	8146	8343	8343	8146	8146	8343	8146	8343	8343	8146	8146	7959	7779	7959	7779	7608	7287	7287	7287	7287	7137	7137	6992	6992	6853	0	0	7137	7137	7137	0	0	0	0	5915	5915	5915	5915	5915	6018	6018	5915	5915	5915	0	0	0	0	0	0	3510	3510	3475	3406	3373	3373	3341	3341	3341	3341	3309	3246	3246	3246	3246	3246	3216	3216	0	0	0	0	0	0	3475	3475	3475	3440	3440	3373	3309	3277	3246	3157	3157	3157	3157	3157	3129	3157	3157	3129	3129	3129	3129	3129	3129	3157	3157	3157	3157	3157	3157	3157	3129	3129	3129	3129	3129	3129	3101	3129	3129	3129	3129	3101	3101	3129	3157	3157	3129	3157	3129	3129	3129	3129	3129	3129	0	2127	2127	2127	2127	2127	2114	2101	2101	2088	2088	2076	2076	2039	2003	1980	1958	1947	1936	1936	1936	1936	1936	1936	1925	1925	1925	1915	1915	1904	1904	1904	1904	1894	1904	1894	1894	1894	1894	1894	1883	1894	1894	1883	1873	1883	1883	1873	1873	1873	1883	1883	1873	1873	1873	1883	1873	1873	1873	1873	1873	1863	1883	1883	1873	1873	0	0	0	0	0	0	0	0	0	0	0	0	0	0	0	0	0	0	0	0	0	0	0	0	0	0	0	0	0	0	0	0	0	0	0	0	0
0	0	0	0	0	0	0	0	0	0	0	0	0	0	1814	1814	1833	1833	1833	1843	1843	1843	1853	1853	1863	1873	1873	1883	1894	1904	1925	1925	1936	1936	1936	1936	1936	1969	1969	1980	1980	2003	2003	2003	2003	2015	2015	2027	2027	2027	2039	2051	2063	2063	2076	2076	2088	2101	2114	2114	2127	2140	2153	2153	2153	2167	2167	2181	2181	2181	2208	2223	2237	2237	2237	2237	2252	2281	2281	2297	2297	2297	2327	2327	2343	2343	2359	2359	2359	2392	2409	2409	2426	2426	2426	2426	2443	2460	2460	2443	2460	2478	2460	2460	3998	4045	4093	4093	4142	4142	4142	4192	4192	4192	4243	4243	4243	4296	4296	4350	4296	4350	4406	4463	4463	4521	4581	4581	4581	4581	4581	0	0	0	0	0	0	0	0	0	0	0	0	0	0	0	0	0	0	0	0	0	0	0	0	0	0	0	0	0	0	0	0	0	0	0	0	0	0	0	0	0	0	7608	7608	7608	7608	7608	7608	7779	7959	7959	7779	7779	7959	7959	7779	7779	7779	7779	7779	7959	7959	0	0	0	0	0	0	0	0	0	0	0	0	0	0	0	0	0	0	9757	9757	9757	9757	0	0	0	0	0	0	0	0	0	0	0	0	0	0	0	0	0	0	0	0	0	0	0	0	0	0	0	0	0	0	0	0	0	0	0	0	0	0	0	0	0	0	0	0	0	0	0	0	0	0	6349	6468	6349	6349	7959	7959	7959	8146	8146	8146	7959	7959	7959	7959	7959	7959	7959	7959	7959	0	4350	4350	4406	4406	4350	4350	4296	4296	4296	4296	4243	4243	4243	4296	4296	4296	4296	4296	4296	4296	4296	4296	4296	4296	4296	4296	4296	4296	4296	4296	4296	4350	4350	4350	4350	4350	4350	4350	4406	8550	8550	8343	8343	8146	8146	7959	7959	7959	7959	8146	8146	8146	8146	8146	8146	8146	8146	8343	8343	8343	8343	8146	8146	8146	8146	8146	8146	7959	7959	7959	7959	8146	8146	8146	8146	8343	8146	8146	8146	7959	7959	7959	8146	8146	8146	8146	8146	7959	7959	7959	7779	7779	7608	7287	7287	7137	7137	7137	7137	7137	7137	7137	7137	7137	7137	0	0	0	0	0	0	0	0	0	0	0	0	0	0	0	0	8146	8343	8146	8343	8343	8146	8146	8146	8146	8146	8146	8146	8146	8146	7779	7779	7779	7608	7287	7137	7137	7137	7287	7137	7137	7137	6992	0	0	0	7137	7137	7137	0	0	0	0	5915	5915	5915	5915	5915	6018	5915	5915	5915	5915	0	0	0	0	0	3510	3475	3475	3440	3406	3373	3341	3341	3309	3309	3309	3277	3246	3216	3216	3216	3216	3216	3216	0	0	0	0	0	3475	3475	3475	3440	3406	3406	3341	3341	3277	3246	3216	3157	3186	3157	3157	3129	3157	3186	3186	3129	3129	3129	3129	3129	3157	3157	3157	3157	3157	3157	3157	3129	3129	3129	3157	3129	3129	3129	3129	3129	3129	3157	3129	3129	3129	3157	3157	3129	3129	3129	3129	3129	3129	3129	0	0	2127	2127	2127	2127	2127	2114	2101	2101	2088	2088	2076	2076	2039	2003	1980	1958	1947	1936	1936	1936	1936	1936	1925	1925	1925	1925	1915	1915	1904	1904	1904	1894	1894	1894	1894	1894	1894	1894	1894	1894	1894	1894	1883	1883	1883	1883	1873	1873	1873	1883	1883	1873	1873	1873	1883	1873	1873	1873	1873	1873	1863	1863	1873	1873	1873	0	0	0	0	0	0	0	0	0	0	0	0	0	0	0	0	0	0	0	0	0	0	0	0	0	0	0	0	0	0	0	0	0	0	0	0	0
0	0	0	0	0	0	0	0	0	0	0	0	0	0	1814	1814	1824	1833	1833	1833	1843	1843	1843	1853	1863	1883	1883	1883	1925	1925	1925	1925	1936	1936	1936	1947	1947	1958	1969	1969	1980	1992	2003	2003	2003	2015	2015	2027	2027	2027	2039	2051	2063	2063	2076	2076	2088	2101	2114	2114	2127	2140	2153	2153	2167	2167	2181	2181	2194	2194	2223	2223	2237	2237	2237	2237	2252	2252	2281	2281	2312	2312	2312	2327	2343	2343	2343	2359	2359	2392	2409	2409	2409	2426	2426	2426	2443	2460	2460	2460	2460	2478	2478	2460	2460	4045	4093	4093	4142	4142	4142	4192	4192	4192	4243	4243	4243	4296	4296	4296	4296	4350	4406	4463	4463	4521	4643	4643	4643	4643	4706	4706	0	0	0	0	0	0	0	0	0	0	0	0	0	0	0	0	0	0	0	0	0	0	0	0	0	0	0	0	0	0	0	0	0	0	0	0	0	0	0	0	0	7608	7608	7608	7608	7608	7779	7779	7959	7959	7779	7779	7779	7959	7779	7779	7608	7779	7779	7959	7959	0	0	0	0	0	0	0	0	0	0	0	0	0	0	0	0	0	0	9757	9757	9757	9757	0	0	0	0	0	0	0	0	0	0	0	0	0	0	0	0	0	0	0	0	0	0	0	0	0	0	0	0	0	0	0	0	0	0	0	0	0	0	0	0	0	0	0	0	0	0	0	0	0	0	6349	6349	6349	6349	7959	7959	7959	8146	8146	8146	7959	8146	7959	7959	7959	7959	7959	7959	8146	8146	8146	0	4406	4406	4350	4350	4296	4350	4296	4296	4296	4296	4296	4296	4296	4296	4296	4296	4296	4296	4296	4296	4296	4296	4296	4296	4296	4296	4296	4296	4296	4296	4296	8550	8550	8343	8550	8550	8343	8343	8343	8146	8146	7959	7959	7959	7959	7959	7959	7959	8146	8146	8146	8146	8146	8146	8146	8343	8343	8343	8343	8146	7959	7959	7959	8146	7959	7959	7959	8146	8146	8343	8343	8343	8343	8343	8146	8146	8146	7959	7959	7959	7959	7959	8146	8146	8146	7959	7959	7959	7959	7779	7779	7608	7608	7608	7444	7287	7287	7287	7287	7137	7137	7137	7137	0	0	0	0	0	0	0	0	0	0	0	0	0	0	0	0	8343	8343	8146	8146	8146	8146	8146	8146	8343	8146	8146	8146	7959	7959	7779	7779	7779	7444	7444	7137	7137	7137	7137	6992	6992	6992	6992	0	0	0	0	0	0	0	0	0	0	5915	5915	5915	5915	5915	6018	5915	5915	5915	5915	0	0	0	0	3510	3510	3475	3440	3440	3373	3373	3341	3341	3309	3309	3277	3246	3216	3216	3186	3216	3216	3216	3216	0	0	0	3475	3475	3475	3475	3475	3440	3406	3373	3309	3309	3246	3216	3186	3157	3157	3186	3186	3129	3186	3216	3216	3129	3129	3129	3129	3129	3157	3157	3157	3157	3157	3157	3157	3157	3157	3157	3157	3129	3157	3157	3157	3186	3157	3157	3129	3129	3157	3157	3157	3129	3157	3129	3129	3129	3129	3129	3129	0	2127	2127	2127	2127	2127	2114	2114	2101	2101	2088	2088	2076	2039	2003	1980	1958	1947	1936	1936	1936	1936	1936	1925	1925	1925	1925	1925	1915	1904	1904	1904	1894	1894	1894	1904	1894	1894	1894	1894	1894	1894	1894	1883	1883	1883	1894	1873	1873	1873	1883	1883	1873	1873	1873	1883	1873	1873	1873	1873	1873	1873	1873	1873	1883	1883	0	0	0	0	0	0	0	0	0	0	0	0	0	0	0	0	0	0	0	0	0	0	0	0	0	0	0	0	0	0	0	0	0	0	0	0	0
0	0	0	0	0	0	0	0	0	0	0	0	0	0	0	1814	1824	1824	1833	1843	1843	1843	1843	1853	1873	1883	1883	1894	1925	1925	1925	1925	1936	1947	1947	1947	1947	1958	1969	1969	1980	1992	1992	2003	2003	2015	2027	2027	2027	2027	2051	2051	2063	2076	2076	2076	2088	2101	2114	2114	2127	2140	2153	2167	2167	2167	2181	2181	2181	2194	2208	2223	2223	2223	2223	2223	2237	2266	2281	2281	2312	2312	2312	2327	2327	2343	2343	2359	2376	2392	2392	2409	2409	2409	2426	2426	2443	2460	2460	2460	2460	2478	2478	2460	2460	0	4093	4142	4142	4142	4142	4142	4192	4192	4243	4243	4243	4296	4296	4350	4296	4350	4406	4463	4463	4581	4643	4643	4643	4643	4643	4706	4771	4771	0	0	0	0	0	0	0	0	0	0	0	0	0	0	0	0	0	0	0	0	0	0	0	0	0	0	0	0	0	0	0	0	0	0	0	0	0	0	0	7608	7608	7608	7779	7779	7779	7779	7779	7959	7779	7779	7959	7959	7779	7779	7779	7779	7779	7959	7959	0	0	0	0	0	0	0	0	0	0	0	0	0	0	0	0	9757	9757	0	9757	9757	0	0	0	0	0	0	0	0	0	0	0	0	0	0	0	0	0	0	0	0	0	0	0	0	0	0	0	0	0	0	0	0	0	0	0	0	0	0	0	0	0	0	0	0	0	0	0	0	0	0	0	6468	6468	6468	6468	7959	7959	7959	8146	8146	8146	8146	8146	8146	7959	8146	8146	8146	8146	8146	8146	8146	8146	0	4406	7959	4350	4350	4350	4350	4296	4296	4296	4296	4296	4296	4296	4296	4296	4296	4296	4296	4296	4296	4296	4296	4296	4296	4296	4296	4296	4296	4296	8146	8343	8343	8343	8550	8550	8343	8343	8343	8343	8146	7959	7959	7959	7959	7959	7959	7959	8146	8146	8146	8146	8146	8146	8146	8343	8343	8343	8343	7959	7959	7959	7959	7959	7959	7959	7959	8146	8146	8343	8343	8343	8343	8146	8146	8146	7959	7959	7959	7959	7959	8146	8146	8146	8146	7959	7959	7959	7959	7959	7959	7959	7779	7779	7779	7608	7608	7444	7444	7287	7287	7137	7137	7137	0	0	0	0	0	0	0	0	0	0	0	0	0	8343	8146	8343	8343	8343	8146	8146	8146	8146	8146	8343	8146	8146	8146	8146	7959	7779	7779	7779	7608	7444	7287	7137	7137	7287	6992	6992	6992	6992	0	0	0	0	0	0	0	0	0	0	5915	5915	5915	5915	5915	5915	5915	5915	5915	5915	0	0	0	0	3475	3475	3440	3406	3406	3373	3341	3341	3309	3277	3277	3246	3246	3216	3186	3157	3186	3186	3186	3216	3406	3406	3510	3475	3475	3475	3475	3475	3440	3373	3341	3309	3309	3277	3246	3216	3157	3157	3186	3186	3186	3186	3216	3216	3216	3186	3129	3157	3157	3157	3186	3186	3186	3186	3186	3157	3157	3157	3157	3186	3157	3186	3246	3246	3186	3157	3157	3129	3157	3157	3157	3157	3129	3157	3129	3129	3129	3129	3129	3129	0	2127	2127	2140	2127	2127	2114	2114	2101	2101	2088	2088	2076	2076	2003	1980	1969	1947	1947	1936	1936	1936	1936	1925	1925	1925	1925	1925	1915	1915	1904	1904	1894	1894	1894	1904	1894	1894	1894	1894	1894	1894	1894	1883	1883	1883	1883	1873	1873	1873	1883	1883	1873	1873	1873	1873	1873	1873	1873	1873	1873	1873	1873	1873	1883	1883	0	0	0	0	0	0	0	0	0	0	0	0	0	0	0	0	0	0	0	0	0	0	0	0	0	0	0	0	0	0	0	0	0	0	0	0	0
0	0	0	0	0	0	0	0	0	0	0	0	0	0	0	1814	1824	1833	1833	1843	1843	1853	1853	1873	1873	1894	1894	1904	1915	1915	1925	1925	1936	1936	1936	1936	1947	1958	1969	1969	1980	1992	1992	2003	2003	2015	2027	2027	2027	2039	2051	2051	2063	2076	2076	2076	2088	2088	2114	2127	2140	2140	2167	2167	2167	2167	2181	2194	2194	2208	2208	2223	2223	2223	2237	2237	2237	2266	2281	2281	2312	2312	2312	2327	2327	2327	2343	2359	2359	2376	2392	2392	2409	2409	2409	2426	2426	2443	2460	2460	2460	2478	2460	2443	2443	0	4093	4093	4142	4142	4192	4192	4192	4192	4243	4243	4243	4350	4350	4296	4296	4350	4406	4406	4406	4406	4521	4521	4643	4643	4706	4706	4706	4706	0	0	0	0	0	0	0	0	0	0	0	0	0	0	0	0	0	0	0	0	0	0	0	0	0	0	0	0	0	0	0	0	0	0	0	0	0	0	0	7608	7608	7608	7779	7779	7779	7779	7779	7959	7779	7779	7779	7779	7779	7779	7779	7779	7779	7959	7959	7959	0	0	0	0	0	0	0	0	0	0	0	0	0	0	9757	9757	9757	9757	9757	0	0	0	0	0	0	0	0	0	0	0	0	0	0	0	0	0	0	0	0	0	0	0	0	0	0	0	0	0	0	0	0	0	0	0	0	0	0	0	0	0	0	0	0	0	0	0	0	0	0	0	0	6468	6468	6468	6592	8146	8146	8146	8146	8343	8146	8146	8146	8146	8146	8146	8146	8146	8146	8343	8343	8146	8146	8146	0	7959	4350	4406	4406	4350	4350	4350	4296	4296	4296	4296	4296	4296	4296	4296	4296	4296	4296	4296	4296	4296	4296	4296	4296	4296	4296	4296	4296	8146	8550	8343	8343	8550	8550	8343	8343	8343	8343	8146	8146	7959	7959	7959	7959	7959	8146	8146	8146	8146	8146	8146	8146	8146	8146	8146	8146	8146	7959	7959	7959	8146	8146	7959	7959	7959	8146	8146	8343	8146	8146	8146	8146	8146	8146	7959	7959	7959	7959	7959	8146	8146	8146	8146	7959	7959	7959	8146	7959	8146	8146	7959	7959	7779	7608	7608	7608	7444	7287	7287	7287	7137	7137	0	0	0	0	0	0	0	0	0	0	0	0	0	8343	8343	8343	8343	8343	8343	8146	8146	8146	8343	8343	8343	8146	8146	8146	7959	7779	7608	7608	7444	7287	7137	7137	7287	7287	6992	6992	6992	0	0	0	0	0	0	0	0	0	0	0	5915	5915	5915	5915	5915	5915	5915	5915	5915	5915	0	0	3475	3475	3475	3440	3440	3406	3373	3373	3341	3309	3309	3277	3246	3216	3216	3186	3186	3157	3186	3186	3186	3216	3406	3406	3440	3406	3475	3475	3440	3440	3440	3373	3341	3341	3309	3277	3277	3246	3186	3186	3186	3216	3216	3216	3246	3246	3246	3216	3216	3216	3216	3186	3216	3216	3246	3216	3216	3216	3186	3186	3186	3186	3186	3216	3246	3186	3186	3157	3157	3129	3129	3129	3129	3157	3129	3157	3129	3129	3129	3129	3129	3129	0	0	0	2140	2140	2127	2114	2101	2101	2088	2088	2076	2076	2063	1992	1980	1969	1947	1947	1936	1936	1936	1936	1925	1925	1925	1925	1925	1925	1915	1904	1904	1904	1894	1904	1904	1904	1894	1894	1894	1894	1894	1894	1894	1883	1883	1883	1883	1873	1873	1883	1883	1883	1873	1873	1883	1873	1873	1873	1873	1873	1873	1873	1873	1883	1883	0	0	0	0	0	0	0	0	0	0	0	0	0	0	0	0	0	0	0	0	0	0	0	0	0	0	0	0	0	0	0	0	0	0	0	0	0
0	0	0	0	0	0	0	0	0	0	0	0	0	0	0	1824	1824	1833	1833	1833	1843	1843	1853	1853	1873	1883	1894	1904	1915	1925	1925	1925	1936	1947	1947	1936	1947	1947	1958	1969	1980	1992	2003	2003	2015	2015	2027	2027	2039	2051	2051	2063	2063	2063	2076	2076	2076	2088	2101	2114	2127	2140	2153	2153	2167	2167	2167	2181	2181	2194	2223	2223	2223	2237	2237	2237	2237	2266	2281	2281	2312	2312	2312	2327	2327	2327	2343	2359	2376	2376	2392	2392	2409	2409	2409	2409	2426	2443	2443	2460	2460	2460	2460	2460	2460	0	4045	4093	4142	4142	4142	4142	4192	4192	4243	4243	4243	4243	4296	4243	4243	4296	4350	4350	4350	4350	4581	4643	4643	4643	4706	4706	4706	4706	0	0	0	0	0	0	0	0	0	0	0	0	0	0	0	0	0	0	0	0	0	0	0	0	0	0	0	0	0	0	0	0	0	0	0	0	0	0	0	7608	7608	7608	7779	7779	7779	7779	7779	7959	7779	7959	7959	7959	7779	7779	7779	7779	7779	7779	7959	7959	0	0	0	0	0	0	0	0	0	0	0	0	0	0	9757	9757	9757	9757	9757	0	0	0	0	0	0	0	0	0	0	0	0	0	0	0	0	0	0	0	0	0	0	0	0	0	0	0	0	0	0	0	0	0	0	0	0	0	0	0	0	0	0	0	0	0	0	0	0	0	0	0	0	6592	6468	6468	6592	6592	8343	8146	8343	8343	8146	8146	8146	8146	8146	8146	8146	8343	8343	8343	8343	8146	8146	7959	8146	8146	4463	4406	4406	4406	4350	4350	4296	4296	4296	4296	4296	4296	4296	4296	4296	4296	4296	4296	4296	4350	4350	4296	4296	4296	4296	4296	4296	8343	8550	8343	8343	8550	8550	8550	8550	8550	8343	8343	8146	8146	7959	7959	7959	7959	8146	8146	8146	8146	8146	8146	8146	8146	8146	8343	8343	8343	8343	8146	8146	8146	8146	8146	7959	7959	8146	8146	8146	8146	8146	8146	8146	8146	7959	7959	7959	7959	7959	7959	7959	7959	7959	7959	7959	7959	8146	8146	8146	8146	8146	7959	7959	7779	7779	7779	7608	7608	7444	7287	7137	7137	7137	7137	0	0	0	0	0	0	0	0	0	0	0	0	8550	8343	8343	8343	8343	8146	8146	8146	8146	8146	8343	8343	8343	8343	8146	7959	7608	7444	7444	7444	7287	7287	7444	7444	7287	7287	6992	6992	0	0	0	0	0	0	0	0	0	0	0	5915	5915	5915	5915	5915	5915	5915	6018	5915	5915	0	3510	3475	3475	3475	3440	3406	3373	3373	3341	3341	3309	3277	3246	3246	3216	3216	3186	3186	3157	3186	3186	3186	3216	3309	3341	3406	3406	3440	3440	3373	3373	3341	3373	3341	3309	3309	3277	3277	3246	3216	3186	3216	3216	3216	3216	3216	3216	3246	3216	3216	3246	3216	3246	3246	3246	3246	3216	3216	3216	3186	3186	3216	3216	3216	3216	3216	3216	3216	3157	3157	3129	3129	3129	3129	3129	3129	3129	3129	3129	3129	3129	3129	3129	0	0	0	0	2127	2127	2114	2101	2101	2088	2076	2076	2076	2063	1992	1980	1958	1947	1936	1936	1936	1936	1936	1925	1925	1925	1925	1925	1925	1915	1904	1904	1894	1894	1904	1904	1904	1894	1894	1894	1894	1894	1894	1894	1883	1894	1894	1883	1883	1883	1883	1883	1883	1873	1873	1883	1883	1883	1873	1873	1873	1873	1873	1873	1883	1883	0	0	0	0	0	0	0	0	0	0	0	0	0	0	0	0	0	0	0	0	0	0	0	0	0	0	0	0	0	0	0	0	0	0	0	0	0
0	0	0	0	0	0	0	0	0	0	0	0	0	0	0	1824	1833	1833	1843	1843	1843	1843	1853	1853	1863	1883	1894	1904	1915	1925	1925	1925	1936	1936	1947	1936	1936	1947	1958	1958	1969	1992	2003	2015	2015	2027	2027	2027	2039	2039	2051	2051	2063	2076	2076	2076	2088	2088	2101	2114	2127	2127	2153	2153	2167	2167	2167	2181	2181	2194	2208	2223	2223	2237	2237	2237	2252	2266	2266	2281	2297	2312	2312	2312	2327	2327	2359	2376	2359	2376	2392	2392	2409	2409	2409	2409	2426	2426	2443	2460	2443	2460	2443	2443	2443	0	4045	4093	4142	4142	4142	4142	4192	4192	4243	4243	4243	4243	4296	4243	4243	4296	4296	4350	4350	4406	4406	4643	4643	4643	4706	4706	4706	4771	4771	4771	0	0	0	0	0	0	0	0	0	0	0	0	0	0	0	0	0	0	0	0	0	0	0	0	0	0	0	0	0	0	0	0	0	0	0	0	0	0	7608	7779	7779	7779	7959	7779	7779	7779	7779	7959	7959	7959	7779	7779	7959	7779	7779	7779	7959	8146	8146	8146	0	0	0	0	0	0	0	0	0	0	0	0	0	9757	9757	9757	9757	0	0	0	0	0	0	0	0	0	0	0	0	0	0	0	0	0	0	0	0	0	0	0	0	0	0	0	0	0	0	0	0	0	0	0	0	0	0	0	0	0	0	0	0	0	0	0	0	0	6592	6592	6592	6592	6592	6468	6349	6349	8343	8146	8343	8343	8146	8146	8146	8146	8146	8146	8146	8146	8146	8146	8343	8146	8146	8146	8146	8146	4406	4406	4406	4406	4406	4350	4350	4296	4296	4296	4296	4296	4296	4296	4296	4296	4296	4296	4296	4296	4296	4296	4296	4296	4296	4296	4296	8343	8550	8550	8343	8550	8550	8550	8550	8343	8343	8550	8343	8146	7959	7959	7779	7959	7959	8146	8146	8146	8146	8343	8343	8146	8146	8343	8343	8343	8343	8146	8146	8146	8146	7959	7959	7959	8146	8146	8146	8146	8146	8146	8146	8146	7959	7959	7959	7959	7959	7959	7959	7959	7959	8146	7959	7959	8146	8146	8146	8146	8146	7959	7959	7779	7608	7608	7608	7444	7287	7287	7137	7137	6992	6992	0	0	0	0	0	0	0	0	0	0	0	0	8343	8343	8343	8343	8343	8146	8146	8146	8146	8343	8343	8550	8550	8550	8343	8146	7779	7444	7444	7444	7287	7287	7287	7444	7287	7287	0	0	0	0	0	0	0	0	0	0	0	0	0	5915	5915	6018	5915	5915	5915	6018	6018	0	0	0	3510	3510	3475	3475	3440	3373	3373	3341	3341	3309	3277	3246	3246	3246	3216	3216	3186	3186	3157	3186	3246	3246	3277	3309	3309	3341	3373	3341	3373	3341	3341	3341	3309	3277	3246	3246	3277	3277	3246	3216	3216	3216	3216	3216	3216	3216	3216	3216	3216	3216	3246	3216	3246	3246	3246	3246	3246	3216	3216	3186	3216	3216	3216	3216	3216	3246	3246	3216	3157	3157	3129	3129	3129	3129	3129	3129	3129	3129	3129	3129	3129	3129	3129	3129	0	0	0	2127	2127	2114	2101	2101	2088	2076	2076	2063	2063	1992	1969	1958	1947	1936	1936	1936	1936	1936	1925	1925	1925	1925	1925	1925	1915	1915	1904	1894	1894	1904	1904	1894	1894	1894	1894	1894	1894	1894	1894	1894	1894	1883	1883	1873	1873	1883	1883	1883	1873	1873	1883	1883	1873	1873	1873	1873	1873	1873	1873	1883	1883	0	0	0	0	0	0	0	0	0	0	0	0	0	0	0	0	0	0	0	0	0	0	0	0	0	0	0	0	0	0	0	0	0	0	0	0	0
0	0	0	0	0	0	0	0	0	0	0	0	0	0	0	1824	1833	1833	1843	1833	1843	1843	1843	1853	1853	1894	1894	1915	1925	1925	1925	1936	1936	1936	1947	1936	1947	1947	1958	1958	1969	1992	2003	2015	2015	2027	2027	2027	2039	2039	2051	2051	2063	2076	2076	2076	2088	2101	2114	2114	2127	2127	2167	2167	2167	2167	2167	2181	2194	2194	2208	2223	2223	2237	2237	2252	2252	2266	2266	2281	2312	2312	2312	2312	2343	2359	2359	2376	2376	2376	2392	2392	2409	2409	2409	2426	2426	2443	2460	2460	2443	2460	2460	2460	2460	0	0	4142	4142	4142	4142	4142	4192	4192	4243	4243	4296	4296	4296	4296	4296	4296	4350	4350	4350	4406	4406	4643	4643	4643	4706	4706	4706	4771	4771	4838	4838	0	0	0	0	0	0	0	0	0	0	0	0	0	0	0	0	0	0	0	0	0	0	0	0	0	0	0	0	0	0	0	0	0	0	0	0	0	7779	7779	7959	7959	7959	7779	7779	7779	7779	7959	7959	7959	7779	7779	7959	7959	7779	7959	8146	8146	8343	8343	8343	0	0	0	0	0	0	0	0	0	0	0	0	0	0	0	0	0	0	0	0	0	0	0	0	0	0	0	0	0	0	0	0	0	0	0	0	0	0	0	0	0	0	0	0	0	0	0	0	0	0	0	0	0	0	0	0	0	0	0	0	0	0	0	0	0	6592	6592	6720	6592	6592	6468	6468	8343	8343	8146	8146	8146	8146	8146	8146	8146	8146	8146	8146	8146	8146	8146	8343	8146	8146	8146	8146	8146	4406	4406	4406	4406	4406	4350	4350	4296	4296	4296	4296	4296	4296	4296	4296	4296	4296	4296	4296	4296	4296	4296	4296	4296	4296	4296	4296	8343	8550	8550	8343	8550	8550	8550	8550	8550	8550	8343	8343	8146	8550	8550	7779	7959	8146	8146	8146	8146	8146	8343	8343	8146	8146	8343	8343	8343	8146	8146	8146	8146	7959	7959	7959	7959	7959	7959	7959	7959	7959	8146	7959	7959	7959	7959	7959	7959	7959	7959	7959	7959	7959	7959	7959	7959	7959	7959	8146	8146	8146	7959	7959	7779	7608	7444	7444	7444	7287	7287	7137	7137	7137	6992	6992	0	0	0	0	0	0	0	0	0	0	0	8550	8343	8343	8343	8343	8343	8146	8146	8146	8146	8343	8550	8343	8550	8343	8146	7779	7444	7444	7444	7444	7444	7444	0	0	0	0	0	0	0	0	0	0	0	0	0	0	0	0	0	6018	6018	5915	5915	5915	5915	6018	0	0	3510	3510	3475	3475	3440	3406	3373	3341	3309	3309	3277	3277	3246	3246	3216	3186	3186	3186	3157	3157	3186	3246	3246	3277	3277	3309	3309	3341	3309	3309	3309	3309	3277	3246	3216	3216	3186	3186	3186	3186	3186	3216	3216	3216	3216	3216	3216	3216	3216	3216	3216	3216	3216	3216	3246	3246	3246	3246	3216	3216	3216	3216	3216	3216	3216	3216	3216	3216	3186	3157	3157	3157	3129	3129	3129	3129	3129	3129	3129	3129	3129	3129	3129	3101	3101	0	0	0	2127	2127	2114	2101	2101	2088	2076	2076	2063	2076	2076	1969	1958	1947	1936	1936	1936	1936	1936	1925	1925	1925	1925	1925	1925	1915	1915	1904	1894	1894	1904	1904	1904	1894	1894	1894	1894	1894	1894	1894	1894	1894	1883	1883	1883	1883	1883	1883	1883	1883	1883	1883	1883	1873	1873	1873	1873	1863	1873	1873	1873	1883	1883	0	0	0	0	0	0	0	0	0	0	0	0	0	0	0	0	0	0	0	0	0	0	0	0	0	0	0	0	0	0	0	0	0	0	0	0
0	0	0	0	0	0	0	0	0	0	0	0	0	0	0	1833	1833	1833	1843	1833	1843	1843	1843	1853	1853	1894	1904	1925	1925	1925	1936	1936	1936	1936	1936	1936	1936	1947	1969	1969	1980	1992	2003	2015	2015	2015	2027	2027	2027	2039	2039	2051	2051	2076	2088	2088	2088	2101	2114	2127	2127	2127	2153	2167	2167	2167	2167	2181	2194	2194	2194	2208	2223	2237	2237	2237	2252	2252	2266	2281	2297	2312	2312	2312	2327	2359	2359	2359	2376	2376	2392	2392	2409	2409	2409	2426	2426	2443	2478	2460	2443	2460	2460	2460	2460	2460	0	4142	4093	4093	4142	4142	4192	4243	4243	4243	4243	4296	4296	4296	4296	4296	4350	4350	4350	4406	4581	4643	4643	4643	4706	4706	4771	4771	4771	4838	4838	4838	0	0	0	0	0	0	0	0	0	0	0	0	0	0	0	0	0	0	0	0	0	0	0	0	0	0	0	0	0	0	0	0	0	0	0	0	7779	7959	7959	7959	7959	7779	7959	7959	7779	7779	7959	7959	7779	7779	7959	7959	7959	7959	8146	8146	8146	8343	8343	8343	0	0	0	0	0	0	0	0	0	0	0	0	0	0	0	0	0	0	0	0	0	0	0	0	0	0	0	0	0	0	0	0	0	0	0	0	0	0	0	0	0	0	0	0	0	0	0	0	0	0	0	0	0	0	0	0	0	0	0	0	0	0	0	0	0	0	6853	6592	6592	6592	6592	6592	6592	8146	8146	8146	8146	8146	8146	8146	8146	8146	8146	8343	8343	8343	8343	8343	8343	8146	8146	0	4406	4406	4406	4406	4406	4350	4350	4350	4350	4296	4296	4296	4296	4350	4296	4350	4350	4350	4296	4296	4296	4296	4296	4296	4296	4296	4296	8550	8550	8550	8550	8550	8550	8550	8343	8343	8146	8343	8343	0	8550	8550	0	0	7959	8146	8146	8146	8146	8146	8343	8146	8146	8146	8146	8343	8146	8146	8146	8146	8146	7959	7959	7959	7959	7959	7959	7959	7959	8146	7959	7959	7959	7959	7959	7959	7959	7959	7959	7959	7959	7959	7959	7959	7959	7959	7959	7959	7959	7959	7608	7608	7608	7444	7444	7444	7287	7287	7137	7137	7137	7137	6992	0	0	0	0	0	0	0	0	0	0	0	8343	8343	8146	8146	8343	8146	8146	8146	8146	8146	8550	8550	8550	8550	8343	8146	7959	7779	7779	7779	7779	7779	7444	0	0	0	0	0	0	0	0	0	0	0	0	0	0	0	0	0	6018	6018	6018	5915	5915	5915	0	0	3510	3510	3510	3475	3475	3440	3406	3341	3341	3309	3309	3277	3246	3246	3246	3216	3186	3186	3186	3157	3157	3157	3246	3246	3246	3246	3246	3277	3277	3246	3246	3246	3216	3216	3216	3186	3186	3186	3186	3186	3216	3216	3216	3216	3216	3216	3216	3216	3186	3216	3216	3216	3216	3216	3216	3246	3246	3246	3216	3216	3216	3186	3216	3216	3216	3216	3216	3216	3186	3186	3157	3157	3157	3129	3129	3129	3129	3129	3129	3129	3101	3129	3129	3101	3073	3073	0	0	0	2127	2114	2101	2101	2101	2088	2076	2076	2063	2063	1992	1958	1958	1947	1936	1936	1936	1936	1925	1925	1925	1925	1925	1925	1925	1915	1915	1904	1894	1894	1904	1894	1894	1894	1894	1894	1894	1894	1894	1894	1894	1894	1894	1883	1883	1883	1883	1883	1883	1883	1883	1883	1883	1873	1873	1873	1873	1863	1873	1873	1883	1883	1883	0	0	0	0	0	0	0	0	0	0	0	0	0	0	0	0	0	0	0	0	0	0	0	0	0	0	0	0	0	0	0	0	0	0	0	0
