0	0	0	0	0	0	0	0	0	0	0	0	0	1673	1673	1681	1681	1681	1690	1690	1690	1690	1698	1698	1706	1706	1723	1723	1732	1732	1732	1723	1723	1732	1741	1741	1750	1759	1759	1768	1768	1768	2532	2532	2532	2532	2514	2496	2478	2478	2478	2478	2496	2496	2496	2532	2532	2514	2496	2496	2514	2496	2496	2496	2478	2478	2496	2496	2478	2478	2478	2478	2478	2478	2478	2496	2496	2496	2496	2478	2496	2496	2478	2478	2478	2478	2478	2478	2478	2478	2496	2514	2496	2496	2496	2496	2478	2532	2514	2514	2514	2514	2514	2532	2532	2532	2532	2532	2532	2532	2532	2532	2532	2532	2532	2532	2514	2532	2532	2551	2551	2532	2532	2532	2551	2551	2551	3341	3341	3373	3373	3373	3373	3373	3373	3341	3373	3373	3373	3440	3406	3406	3406	3373	3373	3373	3373	3373	3373	3373	3373	3341	3341	3341	3341	3341	3341	3341	3341	3341	3341	3341	3341	3341	3341	3309	3341	3406	3440	3440	3510	3510	3510	3546	3510	3510	3546	3546	3546	3546	3546	3546	3583	3583	3583	3621	3621	3659	3659	3659	3659	3659	3621	3621	3621	3659	3621	3621	3621	3621	3621	3659	3659	3659	3659	3659	2942	2942	2942	2942	2942	2942	2942	2917	2917	2917	2893	2893	2893	2869	2893	2917	2917	2917	2893	2893	2893	2893	2869	2869	2869	2845	2845	2845	2845	2845	2845	2845	2845	2845	2869	2869	2893	2869	2869	2869	2869	2869	2869	2869	2869	2893	2893	2893	2869	2869	2869	2893	2893	2869	2869	2869	2869	2869	2869	2893	2893	2893	2893	2893	2893	2917	2917	2917	2917	2942	2917	2942	2942	2942	2942	2942	2942	2942	2942	2942	2942	2967	2967	2993	2993	2967	2967	2967	2967	2967	2967	2967	2967	2967	2967	2967	2967	2967	2967	3659	3621	3621	3583	3583	3583	3583	3583	3583	3583	3583	3621	3621	3621	3621	3583	3583	3583	3583	3583	3583	3583	3621	3621	3621	3621	3621	3621	3621	3621	3621	3621	3621	3583	3583	3583	3583	3583	3621	3621	3621	3621	3621	3621	3621	3621	3621	3621	3621	3621	3583	3583	3583	3583	3583	3583	3583	3583	3583	3583	3583	3583	3583	3583	3583	3621	3621	3621	3621	3621	3621	3621	3621	3621	3621	3621	3621	3621	3621	3583	3583	3583	3583	3583	3621	3621	3659	3621	3621	3621	3621	3621	3621	3659	3621	3621	3621	3621	3621	3621	3621	3621	3621	3621	3621	3621	3621	3621	3621	3659	3621	3621	3621	3621	3621	3621	3621	3621	3621	3621	3621	3621	3621	3621	3621	3621	3621	3621	3621	3583	3621	3583	3583	3621	3621	3583	3621	3583	3621	3621	3621	3621	3621	3621	3621	3583	3583	3583	3583	3583	3583	3583	3583	3583	3583	3546	3546	3546	3546	3510	3510	2252	2237	2237	2223	2223	2208	2208	2194	2181	2167	2140	2127	2114	2101	2088	2076	2063	2051	2051	2027	2015	1992	1992	1980	1969	1958	1947	1915	1915	1904	1894	1894	1883	1873	1863	1853	1843	1843	1843	0	0	0	0	0	0	0	0	0	0	0	0	0	0	0	0	0	0	0	0	0	0	0	0	0	0	0	0	0	0	0	0	0	0	0	0	0	0	0	0	0	0	0	0	0	0	0	0	0	0	0	0	0	0	0	0	0	0	0	0	0	0	0	0	0	0	0	0	0	0	0	0	0	0	0	0	0	0	0	0	0	0	0	0	0	0	0	0	0	0	0	0	0	0	0	0	0	0	0	0	0	0	0	0	0	0	0	0	0	0	0	0	0	0	0	0	0	0	0	0	0	0	0	0	0	0	0	0	0	0	0	0	0	0	0
0	0	0	0	0	0	0	0	0	0	0	0	0	1673	1673	1690	1690	1690	1690	1698	1698	1698	1698	1698	1698	1706	1723	1723	1723	1723	1723	1723	1732	1732	1741	1741	1759	1759	1768	1768	1768	1768	1768	2532	2532	2532	2514	2496	2496	2496	2478	2496	2496	2496	2478	2478	2478	2532	2496	2496	2496	2496	2496	2478	2478	2478	2496	2496	2478	2478	2478	2478	2478	2478	2478	2496	2496	2496	2496	2478	2478	2478	2478	2478	2478	2478	2478	2478	2478	2478	2496	2496	2496	2496	2496	2496	2496	2496	2496	2514	2514	2532	2514	2551	2532	2532	2532	2532	2532	2532	2532	2532	2532	2532	2532	2514	2514	2532	2532	2532	2532	2532	2532	2532	2532	2532	2532	3373	3373	3373	3406	3373	3373	3373	3373	3373	3373	3373	3406	3406	3406	3406	3406	3373	3373	3373	3373	3373	3373	3373	3373	3373	3373	3373	3373	3373	3373	3341	3341	3341	3341	3341	3341	3341	3341	3341	3373	3440	3440	3406	3510	3510	3510	3546	3510	3510	3546	3546	3546	3546	3546	3546	3583	3583	3583	3621	3621	3659	3659	3659	3659	3659	3621	3621	3621	3621	3621	3621	3621	3621	3659	3659	3659	3621	3659	3659	2942	2942	2942	2942	2942	2942	2917	2917	2917	2893	2893	2893	2869	2869	2893	2893	2917	2917	2893	2893	2893	2893	2869	2869	2869	2845	2845	2845	2845	2845	2845	2845	2845	2845	2869	2869	2893	2893	2869	2869	2869	2869	2869	2869	2869	2893	2893	2893	2893	2893	2893	2893	2893	2893	2893	2869	2869	2869	2869	2869	2893	2893	2893	2917	2893	2917	2917	2917	2917	2942	2942	2942	2942	2942	2942	2942	2942	2942	2942	2942	2967	2967	2967	2993	2993	2967	2967	2942	2942	2942	2967	2967	2967	2967	2967	2967	2967	2967	2967	3659	3621	3621	3583	3583	3583	3583	3583	3583	3583	3621	3621	3621	3621	3583	3583	3583	3583	3583	3583	3583	3583	3621	3621	3621	3621	3621	3621	3621	3621	3621	3583	3583	3583	3583	3583	3583	3583	3621	3621	3621	3621	3621	3621	3621	3621	3621	3583	3583	3583	3583	3583	3583	3583	3583	3583	3583	3583	3583	3583	3583	3583	3621	3583	3621	3621	3621	3621	3621	3621	3621	3621	3621	3621	3621	3621	3621	3621	3621	3583	3583	3583	3583	3583	3621	3621	3621	3621	3621	3621	3621	3621	3621	3621	3621	3621	3621	3621	3621	3621	3621	3621	3621	3621	3621	3621	3621	3621	3621	3621	3621	3621	3621	3621	3621	3621	3621	3621	3621	3621	3621	3621	3621	3621	3621	3621	3621	3621	3621	3583	3621	3583	3583	3621	3621	3621	3621	3583	3621	3621	3621	3621	3621	3621	3621	3583	3583	3583	3583	3583	3583	3583	3583	3546	3546	3546	3546	3546	3510	3510	3510	0	2237	2237	2223	2223	2223	2208	2194	2181	2167	2140	2127	2114	2101	2088	2076	2063	2051	2051	2027	2015	1992	1992	1980	1969	1958	1936	1915	1904	1904	1894	1894	1883	1883	1863	1863	1843	1843	1843	0	0	0	0	0	0	0	0	0	0	0	0	0	0	0	0	0	0	0	0	0	0	0	0	0	0	0	0	0	0	0	0	0	0	0	0	0	0	0	0	0	0	0	0	0	0	0	0	0	0	0	0	0	0	0	0	0	0	0	0	0	0	0	0	0	0	0	0	0	0	0	0	0	0	0	0	0	0	0	0	0	0	0	0	0	0	0	0	0	0	0	0	0	0	0	0	0	0	0	0	0	0	0	0	0	0	0	0	0	0	0	0	0	0	0	0	0	0	0	0	0	0	0	0	0	0	0	0	0	0	0	0	0	0	0
0	0	0	0	0	0	0	0	0	0	0	0	0	1665	1673	1681	1690	1690	1698	1698	1698	1706	1706	1706	1715	1715	1723	1732	1732	1732	1732	1732	1732	1741	1750	1750	1759	1768	1777	1777	1777	1777	1795	1795	1795	2532	2551	2496	2496	2496	2478	2496	2478	2478	2478	2478	2532	2496	2496	2496	2496	2496	2496	2496	2478	2496	2496	2496	2478	2478	2478	2478	2478	2478	2478	2496	2496	2514	2496	2478	2496	2478	2478	2478	2478	2496	2478	2496	2496	2478	2496	2514	2496	2496	2496	2496	2496	2496	2496	2514	2532	2532	2532	2551	2532	2532	2532	2532	2532	2532	2514	2514	2532	2514	2514	2514	2514	2514	2532	2532	2532	2532	2532	2532	2532	2532	3510	3406	3475	3475	3440	3440	3406	3373	3373	3373	3406	3373	3406	3406	3406	3406	3440	3406	3406	3406	3406	3406	3406	3406	3406	3406	3373	3373	3373	3373	3373	3341	3341	3341	3341	3341	3373	3341	3373	3373	3440	3475	3475	3440	3510	3510	3546	3546	3546	3546	3546	3546	3546	3546	3546	3546	3583	3583	3583	3621	3621	3659	3659	3659	3659	3659	3659	3659	3659	3621	3621	3621	3621	3621	3621	3621	3621	3621	3621	3621	2942	2942	2942	2942	2942	2942	2917	2917	2917	2917	2893	2893	2869	2845	2869	2893	2893	2917	2893	2893	2917	2893	2893	2869	2869	2869	2845	2845	2845	2845	2845	2845	2845	2845	2893	2893	2893	2893	2869	2893	2893	2893	2869	2869	2869	2869	2893	2893	2893	2893	2917	2893	2893	2893	2893	2869	2869	2869	2893	2893	2893	2893	2893	2917	2917	2917	2917	2917	2917	2942	2942	2942	2942	2942	2942	2942	2942	2942	2942	2942	2967	2967	2967	2993	2993	2993	2967	2967	2967	2967	2967	2967	2967	2967	2967	2967	2967	2967	3738	3698	3659	3621	3583	3583	3583	3546	3583	3583	3583	3621	3621	3621	3621	3583	3546	3546	3546	3546	3583	3583	3583	3621	3621	3621	3621	3621	3621	3621	3621	3621	3583	3583	3583	3583	3583	3583	3583	3621	3621	3621	3621	3621	3621	3621	3621	3583	3583	3583	3583	3583	3583	3583	3583	3583	3583	3583	3583	3583	3583	3583	3583	3621	3583	3621	3621	3621	3621	3621	3621	3621	3621	3621	3621	3621	3621	3621	3621	3621	3583	3583	3583	3583	3583	3621	3621	3621	3621	3621	3621	3621	3621	3621	3621	3621	3621	3621	3621	3621	3621	3621	3621	3621	3621	3621	3621	3621	3659	3621	3621	3621	3621	3621	3621	3621	3583	3583	3621	3621	3621	3621	3621	3621	3621	3621	3621	3621	3621	3621	3621	3621	3583	3583	3583	3621	3621	3621	3621	3621	3621	3621	3621	3583	3583	3583	3583	3583	3583	3583	3583	3583	3583	3583	3583	3583	3546	3546	3546	3546	3546	3546	0	2223	2223	2223	2223	2223	2208	2194	2181	2153	2140	2127	2114	2101	2088	2076	2063	2051	2051	2027	2015	2015	1992	1980	1969	1958	1947	1915	1915	1904	1904	1894	1883	1873	1863	1853	1833	1833	1833	0	0	0	0	0	0	0	0	0	0	0	0	0	0	0	0	0	0	0	0	0	0	0	0	0	0	0	0	0	0	0	0	0	0	0	0	0	0	0	0	0	0	0	0	0	0	0	0	0	0	0	0	0	0	0	0	0	0	0	0	0	0	0	0	0	0	0	0	0	0	0	0	0	0	0	0	0	0	0	0	0	0	0	0	0	0	0	0	0	0	0	0	0	0	0	0	0	0	0	0	0	0	0	0	0	0	0	0	0	0	0	0	0	0	0	0	0	0	0	0	0	0	0	0	0	0	0	0	0	0	0	0	0	0	0
0	0	0	0	0	0	0	0	0	0	0	0	0	1665	1673	1681	1690	1698	1698	1706	1706	1715	1715	1723	1732	1732	1732	1732	1732	1732	1732	1732	1732	1741	1750	1750	1759	1768	1777	1777	1777	1786	1795	1795	1795	1795	1804	1804	1824	1824	2478	2496	2478	2496	2478	2478	2496	2496	2496	2496	2496	2496	2496	2496	2496	2496	2496	2496	2478	2478	2478	2478	2478	2478	2478	2478	2496	2496	2496	2478	2478	2478	2478	2478	2478	2478	2478	2496	2496	2496	2496	2532	2496	2496	2496	2496	2496	2496	2496	2514	2532	2532	2514	2514	2532	2532	2532	2514	2514	2532	2514	2514	2514	2514	2514	2496	2496	2514	2514	2532	2532	2532	2551	2551	2570	2570	3546	3510	3510	3510	3475	3475	3406	3406	3406	3373	3406	3406	3406	3406	3406	3440	3440	3406	3440	3475	3475	3475	3475	3475	3440	3440	3406	3406	3406	3373	3373	3373	3373	3373	3373	3373	3406	3406	3406	3406	3440	3510	3510	3475	3510	3546	3546	3546	3546	3546	3546	3546	3546	3546	3546	3583	3583	3583	3583	3583	3621	3621	3659	3659	3659	3659	3659	3659	3621	3621	3621	3583	3621	3583	3621	3621	3621	3621	3621	3659	2942	2942	2942	2942	2942	2917	2917	2917	2917	2917	2893	2893	2869	2845	2869	2893	2893	2917	2893	2893	2917	2917	2893	2869	2869	2869	2845	2845	2845	2845	2845	2845	2845	2845	2893	2893	2893	2893	2893	2893	2893	2893	2893	2869	2869	2893	2893	2893	2893	2917	2917	2893	2893	2893	2893	2893	2869	2869	2893	2893	2893	2893	2893	2917	2917	2917	2917	2917	2917	2942	2942	2942	2942	2942	2942	2942	2942	2942	2942	2942	2967	2967	2967	2967	2967	2967	2967	2967	2942	2942	2942	2942	2942	2942	2942	2942	2942	3738	3738	3698	3659	3621	3583	3583	3583	3583	3583	3583	3583	3621	3621	3621	3621	3621	3583	3583	3583	3546	3546	3546	3583	3583	3621	3621	3621	3621	3621	3621	3621	3621	3621	3583	3583	3583	3583	3583	3583	3621	3583	3621	3621	3583	3583	3583	3583	3583	3583	3583	3583	3583	3583	3583	3583	3621	3583	3583	3583	3583	3583	3583	3583	3583	3583	3621	3621	3621	3621	3621	3621	3621	3621	3621	3621	3583	3583	3621	3621	3621	3583	3583	3583	3583	3583	3621	3621	3659	3659	3621	3621	3659	3621	3659	3659	3621	3621	3621	3621	3621	3621	3621	3621	3621	3621	3621	3621	3621	3659	3621	3621	3621	3621	3621	3621	3621	3621	3621	3621	3621	3621	3621	3621	3621	3621	3621	3621	3621	3621	3621	3621	3621	3583	3583	3583	3621	3621	3621	3621	3621	3621	3621	3583	3583	3583	3583	3583	3546	3546	3583	3583	3583	3583	3621	3621	3583	3546	3546	3546	3546	3546	3546	0	2223	2237	2223	2223	2223	2208	2194	2181	2153	2140	2127	2114	2101	2088	2076	2063	2051	2051	2027	2027	2015	2003	1992	1980	1958	1947	1915	1904	1904	1894	1894	1883	1873	1863	1853	1843	1833	1824	1824	0	0	0	0	0	0	0	0	0	0	0	0	0	0	0	0	0	0	0	0	0	0	0	0	0	0	0	0	0	0	0	0	0	0	0	0	0	0	0	0	0	0	0	0	0	0	0	0	0	0	0	0	0	0	0	0	0	0	0	0	0	0	0	0	0	0	0	0	0	0	0	0	0	0	0	0	0	0	0	0	0	0	0	0	0	0	0	0	0	0	0	0	0	0	0	0	0	0	0	0	0	0	0	0	0	0	0	0	0	0	0	0	0	0	0	0	0	0	0	0	0	0	0	0	0	0	0	0	0	0	0	0	0	0
0	0	0	0	0	0	0	0	0	0	0	0	0	1657	1665	1673	1681	1690	1698	1698	1706	1715	1715	1723	1732	1732	1741	1741	1741	1732	1741	1732	1732	1741	1750	1759	1759	1768	1777	1777	1777	1786	1786	1795	1795	1804	1804	1814	1824	1824	0	2496	2478	2496	2478	2478	2496	2496	2496	2496	2496	2496	2496	2478	2478	2496	2496	2478	2478	2478	2478	2478	2478	2478	2478	2478	2496	2514	2496	2496	2478	2496	2478	2478	2478	2496	2496	2496	2496	2496	2496	2496	2496	2496	2496	2496	2496	2496	2496	2514	2532	2532	2532	2514	2496	2514	2514	2514	2514	2514	2514	2514	2514	2514	2514	2514	2496	2514	2514	2514	2532	2532	2532	2551	2570	2570	3546	3510	3510	3510	3510	3510	3510	3475	3475	3406	3440	3440	3406	3440	3406	3440	3440	3440	3475	3510	3510	3510	3510	3510	3510	3475	3440	3440	3440	3406	3406	3373	3406	3406	3440	3406	3475	3475	3440	3440	3475	3510	3510	3510	3546	3546	3546	3546	3546	3546	3546	3546	3546	3546	3583	3583	3583	3583	3583	3583	3621	3621	3659	3659	3659	3659	3659	3659	3659	3621	3621	3621	3621	3583	3583	3583	3583	3621	3621	3621	3621	2942	2942	2942	2942	2917	2917	2917	2917	2917	2893	2893	2893	2869	2893	2893	2893	2893	2893	2893	2893	2893	2893	2893	2869	2869	2845	2845	2845	2845	2845	2845	2845	2845	2845	2893	2893	2893	2869	2893	2893	2893	2893	2869	2869	2893	2893	2893	2893	2893	2893	2893	2893	2893	2893	2893	2893	2893	2917	2893	2893	2893	2893	2917	2917	2917	2917	2917	2942	2942	2942	2942	2942	2942	2942	2942	2942	2942	2942	2942	2967	2967	2967	2967	2967	2967	2942	2942	2942	2942	2942	2942	2942	2942	2942	2942	2942	3738	3738	3698	3659	3621	3583	3583	3583	3583	3583	3583	3583	3621	3621	3621	3621	3546	3546	3546	3583	3546	3583	3583	3583	3583	3621	3621	3621	3621	3621	3621	3621	3621	3583	3583	3583	3583	3583	3583	3583	3621	3583	3621	3583	3583	3583	3583	3583	3583	3583	3583	3583	3583	3583	3583	3583	3621	3583	3583	3583	3583	3583	3583	3583	3583	3583	3583	3621	3621	3621	3621	3621	3621	3621	3621	3621	3621	3621	3621	3621	3621	3583	3583	3583	3621	3621	3659	3621	3659	3659	3659	3621	3621	3621	3659	3659	3621	3621	3621	3621	3621	3621	3621	3621	3621	3621	3621	3621	3621	3659	3659	3621	3621	3621	3621	3621	3621	3621	3583	3583	3621	3621	3621	3621	3621	3621	3621	3621	3621	3621	3621	3621	3621	3583	3583	3583	3621	3621	3621	3621	3621	3621	3621	3621	3583	3583	3583	3583	3583	3583	3583	3583	3583	3583	3621	3621	3621	3583	3546	3583	3583	3546	3546	0	0	2237	2223	2223	2223	2208	2194	2181	2153	2140	2114	2101	2101	2088	2076	2063	2051	2039	2027	2027	2015	2003	1992	1980	1958	1947	1925	1915	1904	1894	1894	1883	1873	1863	1853	1853	1843	1843	1824	0	0	0	0	0	0	0	0	0	0	0	0	0	0	0	0	0	0	0	0	0	0	0	0	0	0	0	0	0	0	0	0	0	0	0	0	0	0	0	0	0	0	0	0	0	0	0	0	0	0	0	0	0	0	0	0	0	0	0	0	0	0	0	0	0	0	0	0	0	0	0	0	0	0	0	0	0	0	0	0	0	0	0	0	0	0	0	0	0	0	0	0	0	0	0	0	0	0	0	0	0	0	0	0	0	0	0	0	0	0	0	0	0	0	0	0	0	0	0	0	0	0	0	0	0	0	0	0	0	0	0	0	0	0
0	0	0	0	0	0	0	0	0	0	0	0	0	1649	1657	1665	1673	1681	1690	1698	1698	1706	1715	1715	1732	1732	1732	1741	1741	1741	1741	1732	1741	1741	1759	1759	1768	1768	1777	1777	1777	1786	1786	1795	1795	1804	1804	1804	1824	1824	0	2478	2478	2478	2460	2460	2478	2496	2496	2496	2496	2496	2496	2478	2478	2496	2496	2478	2478	2478	2478	2478	2478	2478	2478	2496	2496	2514	2514	2496	2496	2496	2496	2496	2496	2496	2496	2496	2496	2496	2496	2496	2496	2496	2496	2496	2496	2496	2514	2532	2532	2532	2532	2532	2532	2532	2514	2514	2514	2514	2514	2514	2532	2514	2514	2496	2496	2496	2496	2496	2514	2514	2532	2551	2570	2570	0	3546	3510	3510	3475	3475	3475	3475	3440	3440	3440	3440	3440	3440	3440	3475	3475	3475	3475	3475	3475	3510	3546	3510	3510	3510	3510	3475	3475	3475	3475	3440	3475	3440	3475	3475	3510	3475	3475	3475	3475	3510	3510	3510	3546	3546	3546	3546	3546	3546	3546	3546	3546	3546	3583	3583	3583	3583	3583	3583	3621	3621	3659	3659	3659	3659	3659	3659	3621	3621	3583	3583	3583	3583	3583	3583	3583	3583	3583	3621	3621	2942	2942	2917	2917	2917	2917	2917	2917	2917	2893	2893	2869	2869	2869	2869	2893	2893	2893	2893	2893	2893	2893	2869	2869	2869	2845	2845	2845	2845	2845	2845	2845	2845	2869	2893	2893	2893	2893	2893	2893	2893	2893	2893	2869	2893	2893	2893	2893	2893	2893	2893	2893	2893	2893	2893	2893	2893	2917	2893	2917	2893	2893	2917	2917	2917	2917	2917	2917	2942	2917	2942	2942	2942	2942	2942	2942	2942	2942	2942	2967	2967	2967	2967	2942	2942	2942	2942	2942	2942	2942	2942	2942	2942	2942	2942	2942	3738	3738	3738	3659	3621	3583	3583	3583	3583	3583	3583	3583	3621	3621	3621	3621	3546	3546	3583	3546	3583	3583	3583	3583	3621	3621	3621	3621	3621	3621	3621	3621	3583	3621	3583	3583	3583	3583	3583	3621	3583	3583	3583	3583	3583	3583	3583	3583	3583	3583	3583	3583	3583	3583	3583	3583	3583	3583	3583	3583	3583	3583	3583	3583	3583	3583	3583	3621	3621	3621	3621	3621	3621	3621	3621	3583	3583	3583	3621	3621	3621	3583	3583	3583	3621	3583	3621	3621	3659	3659	3659	3621	3621	3621	3621	3621	3621	3621	3659	3621	3621	3621	3621	3621	3621	3621	3621	3621	3621	3659	3621	3621	3621	3621	3621	3621	3621	3621	3621	3621	3621	3621	3621	3621	3621	3621	3621	3621	3621	3621	3621	3621	3621	3621	3583	3583	3621	3583	3621	3621	3621	3621	3621	3621	3583	3621	3583	3583	3583	3583	3583	3583	3583	3583	3583	3621	3583	3583	3583	3583	3583	3583	3546	0	0	2237	2223	2223	2208	2208	2194	2181	2167	2140	2127	2101	2101	2088	2076	2063	2051	2039	2039	2027	2015	2003	1992	1969	1958	1947	1925	1915	1904	1894	1894	1883	1873	1863	1853	1853	1843	1843	0	0	0	0	0	0	0	0	0	0	0	0	0	0	0	0	0	0	0	0	0	0	0	0	0	0	0	0	0	0	0	0	0	0	0	0	0	0	0	0	0	0	0	0	0	0	0	0	0	0	0	0	0	0	0	0	0	0	0	0	0	0	0	0	0	0	0	0	0	0	0	0	0	0	0	0	0	0	0	0	0	0	0	0	0	0	0	0	0	0	0	0	0	0	0	0	0	0	0	0	0	0	0	0	0	0	0	0	0	0	0	0	0	0	0	0	0	0	0	0	0	0	0	0	0	0	0	0	0	0	0	0	0	0	0
0	0	0	0	0	0	0	0	0	0	0	0	0	1641	1649	1657	1673	1681	1690	1698	1698	1706	1706	1706	1715	1723	1723	1741	1741	1750	1759	1750	1759	1759	1768	1768	1768	1768	1777	1777	1777	1786	1795	1795	1795	1804	1814	1814	1824	1833	1843	1843	2478	2478	2460	2460	2478	2478	2478	2496	2496	2496	2496	2478	2496	2496	2496	2478	2478	2478	2478	2478	2478	2478	2478	2496	2496	2496	2514	2496	2496	2496	2496	2496	2496	2496	2496	2496	2496	2496	2496	2514	2496	2496	2496	2496	2496	2496	2514	2514	2532	2532	2551	2551	2532	2514	2514	2514	2514	2514	2514	2514	2514	2514	2514	2496	2496	2496	2496	2496	2514	2514	2514	2532	2532	2570	3546	3546	3510	3510	3510	3510	3510	3475	3475	3475	3475	3475	3475	3440	3475	3475	3475	3475	3475	3510	3510	3510	3510	3510	3510	3510	3510	3475	3475	3510	3510	3510	3510	3510	3510	3510	3510	3510	3475	3475	3475	3510	3510	3546	3510	3546	3546	3546	3546	3546	3546	3546	3546	3546	3583	3583	3583	3583	3583	3583	3583	3621	3621	3621	3659	3659	3659	3659	3659	3621	3583	3583	3583	3583	3583	3583	3583	3621	3621	3621	2942	2942	2942	2917	2917	2917	2917	2917	2917	2917	2893	2893	2893	2893	2893	2893	2893	2893	2893	2893	2893	2893	2893	2869	2845	2869	2845	2845	2845	2845	2845	2845	2845	2845	2893	2893	2893	2893	2893	2893	2893	2893	2893	2893	2893	2893	2893	2893	2893	2893	2893	2893	2893	2893	2893	2893	2893	2893	2917	2893	2893	2893	2893	2893	2893	2917	2917	2917	2917	2917	2917	2942	2942	2942	2942	2942	2942	2942	2942	2942	2942	2942	2942	2967	2942	2942	2942	2942	2942	2942	2942	2942	2942	2942	2942	2942	2942	3779	3738	3698	3659	3621	3621	3583	3583	3583	3583	3583	3583	3621	3621	3621	3621	3621	3546	3583	3546	3583	3583	3583	3583	3621	3621	3621	3621	3621	3621	3621	3621	3621	3621	3583	3583	3583	3583	3621	3621	3621	3583	3583	3583	3583	3583	3583	3583	3583	3583	3583	3583	3583	3583	3583	3583	3583	3583	3583	3583	3583	3583	3583	3583	3583	3583	3583	3621	3621	3621	3583	3621	3621	3621	3621	3621	3583	3621	3621	3621	3621	3583	3583	3583	3583	3583	3621	3621	3621	3621	3621	3621	3621	3621	3621	3621	3621	3621	3621	3621	3621	3621	3621	3621	3621	3621	3621	3621	3621	3621	3621	3621	3621	3621	3621	3621	3621	3621	3621	3583	3621	3621	3583	3583	3621	3621	3621	3621	3621	3621	3621	3621	3621	3621	3583	3583	3621	3621	3621	3621	3621	3621	3621	3621	3583	3583	3583	3583	3583	3583	3583	3583	3583	3583	3583	3621	3583	3583	3583	3583	3583	3546	3546	0	0	0	2223	2223	2223	2208	2194	2181	2167	2140	2127	2114	2101	2088	2076	2063	2051	2039	2039	2027	2015	2003	1992	1980	1958	1936	1925	1915	1904	1894	1894	1883	1873	1863	1863	1853	1853	1853	0	0	0	0	0	0	0	0	0	0	0	0	0	0	0	0	0	0	0	0	0	0	0	0	0	0	0	0	0	0	0	0	0	0	0	0	0	0	0	0	0	0	0	0	0	0	0	0	0	0	0	0	0	0	0	0	0	0	0	0	0	0	0	0	0	0	0	0	0	0	0	0	0	0	0	0	0	0	0	0	0	0	0	0	0	0	0	0	0	0	0	0	0	0	0	0	0	0	0	0	0	0	0	0	0	0	0	0	0	0	0	0	0	0	0	0	0	0	0	0	0	0	0	0	0	0	0	0	0	0	0	0	0	0	0
0	0	0	0	0	0	0	0	0	0	0	0	0	1634	1641	1649	1657	1665	1673	1673	1690	1690	1698	1698	1706	1723	1732	1741	1741	1759	1759	1759	1759	1759	1768	1768	1768	1777	1777	1777	1777	1795	1795	1795	1804	1804	1814	1814	1824	1843	1843	1843	1843	1873	1873	2443	2460	2478	2478	2478	2478	2496	2478	2496	2496	2532	2496	2496	2478	2496	2478	2478	2478	2478	2478	2478	2478	2496	2514	2496	2496	2496	2496	2496	2496	2496	2496	2478	2496	2496	2496	2496	2496	2496	2496	2496	2514	2514	2532	2532	2532	2551	2532	2551	2514	2514	2514	2514	2514	2514	2514	2514	2514	2514	2514	2496	2496	2496	2496	2496	2514	2514	2514	2532	2532	0	3546	3546	3546	3546	3510	3510	3510	3510	3475	3475	3510	3510	3475	3475	3510	3510	3510	3510	3510	3510	3510	3510	3510	3510	3546	3510	3546	3510	3510	3510	3510	3510	3510	3510	3510	3510	3510	3510	3510	3475	3510	3510	3546	3546	3510	3510	3546	3546	3510	3546	3546	3546	3546	3546	3583	3583	3583	3583	3583	3546	3546	3583	3583	3621	3621	3621	3659	3659	3659	3583	3583	3583	3583	3583	3583	3583	3583	3583	3621	3621	2942	2942	2942	2917	2917	2917	2917	2917	2917	2917	2917	2917	2893	2893	2893	2893	2893	2893	2893	2893	2893	2893	2869	2869	2845	2845	2845	2845	2845	2845	2845	2845	2845	2845	2893	2893	2893	2893	2893	2893	2917	2893	2893	2893	2893	2893	2893	2893	2893	2893	2893	2869	2893	2893	2893	2893	2893	2893	2917	2917	2917	2917	2917	2917	2917	2917	2917	2917	2917	2917	2917	2942	2942	2942	2942	2942	2942	2942	2967	2967	2967	2942	2942	2942	2942	2942	2942	2942	2942	2942	2942	2942	2942	2942	2942	2942	2942	2942	2942	3698	3621	3621	3621	3583	3583	3583	3583	3583	3583	3621	3621	3621	3621	3621	3583	3621	3621	3621	3621	3583	3583	3583	3621	3621	3621	3621	3621	3621	3621	3583	3583	3583	3583	3621	3621	3621	3621	3621	3583	3621	3583	3583	3583	3583	3583	3583	3583	3583	3583	3583	3583	3583	3583	3583	3583	3583	3583	3583	3583	3583	3583	3583	3583	3583	3583	3621	3583	3583	3583	3583	3583	3621	3621	3583	3621	3621	3621	3621	3583	3583	3583	3583	3583	3583	3621	3621	3621	3621	3621	3621	3621	3621	3621	3621	3621	3621	3621	3621	3621	3621	3621	3621	3621	3621	3621	3621	3621	3621	3621	3621	3621	3621	3621	3621	3621	3621	3621	3621	3621	3583	3583	3621	3621	3621	3621	3621	3621	3621	3621	3621	3621	3583	3583	3583	3621	3621	3621	3621	3621	3621	3621	3583	3583	3583	3583	3583	3583	3583	3583	3583	3583	3583	3621	3583	3583	3583	3583	3621	3583	3583	0	0	0	2237	2223	2223	2208	2194	2181	2167	2140	2127	2114	2101	2088	2076	2063	2051	2039	2039	2027	2015	2003	1992	1980	1958	1947	1936	1915	1904	1894	1894	1883	1873	1863	1863	1853	1853	1853	0	0	0	0	0	0	0	0	0	0	0	0	0	0	0	0	0	0	0	0	0	0	0	0	0	0	0	0	0	0	0	0	0	0	0	0	0	0	0	0	0	0	0	0	0	0	0	0	0	0	0	0	0	0	0	0	0	0	0	0	0	0	0	0	0	0	0	0	0	0	0	0	0	0	0	0	0	0	0	0	0	0	0	0	0	0	0	0	0	0	0	0	0	0	0	0	0	0	0	0	0	0	0	0	0	0	0	0	0	0	0	0	0	0	0	0	0	0	0	0	0	0	0	0	0	0	0	0	0	0	0	0	0	0	0
0	0	0	0	0	0	0	0	0	0	0	0	0	1634	1641	1641	1657	1665	1673	1673	1681	1690	1698	1698	1706	1715	1732	1741	1741	1759	1759	1759	1768	1768	1768	1777	1768	1777	1795	1777	1777	1795	1804	1804	1814	1824	1824	1824	1833	1843	1843	1853	1873	1883	1883	1883	1894	1894	1894	2496	2496	2496	2496	2496	2514	2532	2514	2496	2496	2496	2496	2478	2496	2478	2478	2478	2478	2496	2514	2496	2496	2496	2496	2496	2496	2496	2478	2478	2478	2478	2496	2496	2496	2496	2496	2514	2514	2514	2514	2532	2532	2551	2532	2551	2514	2514	2514	2514	2514	2514	2514	2514	2514	2514	2514	2514	2496	2496	2496	2496	2514	2514	2514	2532	2532	0	3546	3546	3510	3546	3510	3510	3510	3510	3510	3510	3510	3510	3475	3475	3510	3510	3510	3510	3510	3546	3546	3510	3510	3546	3546	3546	3546	3510	3510	3546	3510	3510	3510	3510	3510	3510	3510	3510	3510	3510	3510	3510	3546	3546	3510	3510	3546	3546	3546	3546	3546	3546	3546	3583	3583	3583	3583	3621	3546	3546	3546	3546	3583	3583	3583	3583	3659	3659	3659	3583	3583	3583	3583	3583	3583	3583	3583	3583	3621	3659	2942	2917	2917	2917	2917	2917	2917	2917	2917	2917	2917	2917	2917	2917	2917	2917	2917	2917	2917	2917	2893	2893	2893	2869	2845	2845	2845	2845	2845	2845	2845	2845	2845	2845	2845	2893	2893	2893	2917	2917	2917	2917	2917	2917	2893	2893	2893	2893	2893	2893	2893	2893	2893	2893	2893	2893	2917	2893	2917	2917	2917	2917	2917	2917	2917	2917	2917	2917	2917	2917	2917	2917	2942	2942	2942	2942	2942	2942	2967	2967	2942	2942	2942	2942	2942	2942	2942	2942	2942	2942	2942	2942	2942	2942	2942	2942	2942	2942	2942	3659	3621	3621	3583	3583	3583	3583	3583	3583	3583	3621	3621	3621	3621	3621	3621	3621	3621	3621	3621	3621	3621	3621	3621	3621	3621	3621	3621	3621	3621	3621	3621	3621	3621	3621	3621	3621	3621	3583	3583	3583	3583	3583	3583	3583	3583	3583	3621	3583	3583	3583	3583	3583	3583	3583	3583	3583	3583	3583	3583	3583	3583	3583	3583	3583	3583	3621	3583	3583	3621	3621	3621	3583	3583	3583	3583	3583	3583	3583	3583	3583	3583	3583	3583	3621	3621	3621	3621	3621	3621	3621	3621	3621	3621	3621	3621	3621	3621	3621	3621	3621	3621	3659	3621	3621	3621	3621	3621	3621	3621	3621	3621	3621	3621	3621	3621	3621	3621	3583	3621	3583	3583	3583	3583	3621	3621	3583	3583	3621	3621	3621	3621	3583	3583	3583	3583	3583	3583	3583	3583	3583	3583	3583	3583	3583	3583	3583	3583	3583	3583	3583	3583	3583	3621	3583	3583	3583	3583	3621	3621	3583	0	0	0	2223	2223	2223	2208	2194	2181	2167	2153	2127	2114	2101	2088	2076	2063	2051	2039	2039	2027	2015	2003	1992	1980	1958	1947	1936	1915	1904	1894	1894	1883	1873	1863	1863	1853	1853	1853	1853	0	0	0	0	0	0	0	0	0	0	0	0	0	0	0	0	0	0	0	0	0	0	0	0	0	0	0	0	0	0	0	0	0	0	0	0	0	0	0	0	0	0	0	0	0	0	0	0	0	0	0	0	0	0	0	0	0	0	0	0	0	0	0	0	0	0	0	0	0	0	0	0	0	0	0	0	0	0	0	0	0	0	0	0	0	0	0	0	0	0	0	0	0	0	0	0	0	0	0	0	0	0	0	0	0	0	0	0	0	0	0	0	0	0	0	0	0	0	0	0	0	0	0	0	0	0	0	0	0	0	0	0	0	0
0	0	0	0	0	0	0	0	0	0	0	0	0	1634	1641	1649	1657	1665	1673	1681	1681	1690	1690	1698	1706	1715	1723	1723	1732	1741	1759	1759	1759	1768	1777	1786	1795	1795	1804	1795	1804	1804	1804	1824	1824	1833	1833	1833	1843	1843	1853	1863	1883	1883	1883	1894	1894	1904	1904	1904	1904	2514	2496	2496	2514	2514	2496	2496	2496	2496	2496	2496	2496	2496	2496	2496	2496	2496	2514	2496	2496	2496	2496	2496	2496	2496	2478	2478	2478	2478	2496	2514	2496	2496	2496	2514	2514	2514	2514	2532	2532	2532	2532	2532	2514	2514	2514	2514	2514	2514	2514	2514	2514	2514	2514	2514	2514	2496	2496	2496	2514	2514	2532	2551	2551	0	3583	3546	3546	3546	3510	3546	3510	3510	3510	3510	3510	3510	3510	3510	3510	3510	3510	3510	3510	3546	3546	3510	3546	3546	3546	3546	3546	3510	3510	3546	3546	3546	3510	3510	3510	3510	3510	3510	3510	3510	3510	3510	3546	3546	3510	3510	3546	3546	3546	3546	3546	3546	3546	3583	3583	3583	3583	3621	3546	3546	3546	3546	3546	3583	3583	3583	3621	3621	3621	3583	3583	3583	3583	3583	3546	3546	3546	3583	3621	3659	2917	2917	2917	2917	2917	2917	2893	2893	2893	2893	2917	2917	2917	2917	2917	2917	2917	2917	2893	2893	2893	2869	2869	2869	2845	2845	2845	2845	2845	2845	2845	2845	2845	2845	2845	2893	2893	2893	2917	2917	2917	2917	2917	2917	2917	2893	2893	2893	2893	2893	2893	2893	2893	2893	2893	2917	2917	2917	2917	2917	2917	2917	2917	2917	2917	2917	2917	2917	2917	2917	2917	2942	2942	2942	2942	2942	2942	2942	2967	2967	2942	2942	2942	2942	2942	2942	2942	2942	2942	2942	2942	2942	2942	2942	2942	2942	2942	2942	2942	3621	3621	3583	3583	3583	3583	3583	3583	3583	3583	3621	3621	3621	3621	3621	3621	3621	3621	3621	3621	3621	3621	3621	3621	3621	3621	3621	3621	3621	3621	3621	3621	3583	3621	3621	3621	3621	3621	3621	3583	3621	3583	3583	3583	3583	3583	3583	3621	3583	3583	3583	3583	3583	3583	3583	3583	3583	3583	3583	3583	3583	3583	3583	3583	3583	3583	3621	3621	3583	3621	3621	3621	3583	3583	3583	3583	3583	3583	3583	3583	3583	3583	3583	3583	3621	3621	3621	3621	3621	3621	3621	3621	3621	3621	3621	3621	3621	3621	3621	3621	3621	3621	3621	3621	3621	3621	3621	3621	3621	3621	3621	3621	3621	3621	3621	3621	3621	3583	3621	3621	3583	3583	3583	3583	3583	3621	3621	3621	3621	3621	3621	3621	3621	3583	3583	3583	3583	3583	3583	3583	3583	3583	3583	3583	3583	3583	3583	3583	3583	3621	3583	3583	3583	3621	3583	3583	3583	3583	3621	3621	3621	0	0	0	2237	2223	2223	2208	2194	2181	2167	2153	2140	2114	2101	2088	2076	2063	2051	2039	2039	2027	2003	1992	1992	1980	1958	1947	1936	1915	1904	1894	1894	1883	1873	1863	1863	1853	1853	1853	1853	0	0	0	0	0	0	0	0	0	0	0	0	0	0	0	0	0	0	0	0	0	0	0	0	0	0	0	0	0	0	0	0	0	0	0	0	0	0	0	0	0	0	0	0	0	0	0	0	0	0	0	0	0	0	0	0	0	0	0	0	0	0	0	0	0	0	0	0	0	0	0	0	0	0	0	0	0	0	0	0	0	0	0	0	0	0	0	0	0	0	0	0	0	0	0	0	0	0	0	0	0	0	0	0	0	0	0	0	0	0	0	0	0	0	0	0	0	0	0	0	0	0	0	0	0	0	0	0	0	0	0	0	0	0
0	0	0	0	0	0	0	0	0	0	0	0	0	1641	1649	1657	1657	1665	1673	1673	1673	1681	1681	1690	1698	1706	1715	1723	1723	1732	1750	1750	1759	1768	1777	1786	1786	1795	1804	1804	1804	1804	1814	1824	1833	1833	1833	1833	1843	1843	1843	1873	1883	1883	1883	1894	1904	1904	1904	1904	1915	1915	2496	2514	2514	2514	2496	2496	2496	2496	2496	2496	2496	2496	2496	2496	2496	2496	2514	2496	2514	2496	2496	2496	2496	2496	2478	2496	2478	2478	2478	2496	2496	2496	2496	2496	2514	2514	2514	2514	2514	2532	2532	2532	2514	2514	2514	2496	2496	2514	2514	2514	2514	2514	2514	2514	2514	2496	2496	2496	2514	2514	2532	2532	2551	3621	3583	3546	3546	3546	3510	3546	3510	3510	3510	3546	3546	3510	3510	3510	3510	3510	3510	3510	3510	3510	3510	3510	3510	3546	3546	3546	3546	3510	3510	3546	3510	3510	3510	3510	3510	3510	3510	3510	3510	3510	3510	3510	3546	3546	3510	3510	3546	3546	3510	3546	3546	3546	3546	3546	3583	3583	3621	3621	3583	3546	3546	3546	3583	3583	3583	3583	3621	3621	3621	3583	3583	3583	3583	3583	3546	3583	3546	3583	3621	3659	2917	2917	2917	2917	2917	2917	2893	2893	2893	2917	2893	2893	2917	2917	2917	2917	2893	2893	2893	2893	2893	2869	2869	2845	2845	2845	2845	2845	2845	2845	2845	2845	2845	2845	2845	2893	2893	2917	2917	2917	2917	2917	2917	2942	2917	2917	2893	2893	2893	2893	2893	2893	2893	2893	2893	2917	2917	2917	2917	2917	2917	2917	2917	2917	2893	2893	2917	2917	2917	2917	2917	2917	2942	2942	2942	2942	2942	2942	2942	2942	2942	2942	2942	2942	2942	2942	2942	2942	2942	2942	2942	2942	2942	2942	2942	2942	2942	2942	2942	3621	3583	3583	3583	3583	3583	3583	3583	3583	3583	3621	3621	3621	3621	3621	3621	3621	3621	3621	3621	3621	3621	3621	3621	3621	3621	3621	3621	3621	3621	3583	3583	3583	3583	3621	3621	3621	3621	3621	3621	3621	3583	3583	3583	3583	3583	3583	3583	3583	3583	3583	3583	3583	3583	3583	3583	3583	3583	3583	3583	3583	3583	3583	3583	3583	3583	3583	3583	3583	3583	3583	3583	3583	3583	3583	3583	3583	3583	3583	3583	3583	3583	3583	3583	3621	3621	3621	3621	3621	3621	3621	3621	3621	3621	3621	3621	3621	3621	3621	3621	3621	3621	3621	3621	3621	3621	3621	3621	3621	3621	3621	3621	3621	3621	3621	3621	3621	3621	3621	3621	3583	3583	3583	3583	3621	3621	3621	3621	3621	3621	3621	3621	3621	3583	3583	3583	3621	3583	3583	3583	3583	3583	3583	3583	3583	3583	3583	3583	3583	3583	3583	3583	3583	3583	3583	3583	3546	3546	3621	3621	3621	0	0	0	2223	2223	2194	2194	2194	2181	2167	2153	2140	2114	2101	2088	2076	2063	2051	2039	2039	2015	2003	1992	1980	1969	1958	1947	1936	1915	1904	1894	1894	1883	1873	1863	1863	1853	1853	1843	1843	0	0	0	0	0	0	0	0	0	0	0	0	0	0	0	0	0	0	0	0	0	0	0	0	0	0	0	0	0	0	0	0	0	0	0	0	0	0	0	0	0	0	0	0	0	0	0	0	0	0	0	0	0	0	0	0	0	0	0	0	0	0	0	0	0	0	0	0	0	0	0	0	0	0	0	0	0	0	0	0	0	0	0	0	0	0	0	0	0	0	0	0	0	0	0	0	0	0	0	0	0	0	0	0	0	0	0	0	0	0	0	0	0	0	0	0	0	0	0	0	0	0	0	0	0	0	0	0	0	0	0	0	0	0
0	0	0	0	0	0	0	0	0	0	0	0	0	1641	1649	1657	1657	1665	1673	1673	1673	1681	1681	1690	1690	1706	1715	1715	1715	1732	1741	1750	1759	1777	1777	1786	1786	1795	1804	1804	1824	1824	1833	1833	1833	1843	1843	1843	1853	1843	1853	1873	1883	1883	1894	1894	1904	1904	1915	1915	1915	1925	1925	1925	1925	2514	2496	2496	2496	2496	2496	2496	2496	2496	2478	2478	2496	2496	2514	2514	2514	2478	2496	2496	2496	2496	2496	2496	2478	2478	2496	2514	2496	2496	2496	2514	2514	2514	2514	2514	2514	2514	2514	2514	2514	2514	2514	2496	2514	2514	2514	2514	2514	2514	2514	2532	2514	2496	2496	2496	2514	2514	2532	2532	2532	3621	3583	3546	3546	3546	3546	3546	3546	3510	3510	3510	3510	3510	3510	3510	3510	3510	3510	3510	3510	3546	3546	3510	3510	3546	3546	3546	3546	3510	3510	3546	3510	3510	3510	3510	3510	3510	3510	3510	3510	3510	3510	3510	3546	3546	3546	3546	3546	3546	3510	3546	3546	3546	3546	3546	3546	3583	3583	3621	3583	3583	3546	3583	3583	3583	3583	3583	3621	3621	3621	3583	3583	3583	3583	3583	3583	3583	3546	3583	3583	3621	2893	2893	2917	2917	2917	2893	2893	2893	2893	2893	2893	2893	2917	2917	2917	2917	2893	2893	2893	2893	2893	2869	2869	2845	2845	2845	2845	2845	2845	2845	2845	2845	2845	2845	2845	2893	2893	2917	2917	2917	2917	2917	2917	2942	2917	2917	2917	2893	2893	2917	2893	2893	2893	2893	2893	2917	2917	2917	2917	2917	2917	2917	2893	2893	2893	2893	2917	2917	2917	2917	2917	2917	2942	2942	2942	2942	2942	2942	2942	2967	2942	2942	2942	2942	2942	2942	2942	2942	2942	2942	2942	2942	2942	2942	2942	2942	2942	2942	2942	3621	3583	3583	3583	3583	3583	3583	3583	3583	3583	3583	3621	3621	3621	3621	3621	3621	3621	3621	3621	3621	3621	3621	3621	3621	3621	3621	3621	3621	3621	3583	3583	3583	3583	3583	3621	3583	3583	3621	3583	3621	3583	3583	3583	3583	3583	3583	3583	3583	3583	3583	3583	3583	3583	3583	3583	3583	3583	3583	3583	3583	3583	3583	3583	3583	3583	3583	3583	3583	3583	3583	3583	3583	3583	3583	3583	3583	3583	3583	3583	3583	3583	3583	3583	3621	3621	3621	3621	3621	3621	3621	3621	3621	3621	3621	3621	3621	3621	3621	3621	3621	3621	3621	3621	3621	3621	3621	3621	3621	3621	3621	3621	3621	3621	3621	3621	3621	3621	3621	3621	3621	3583	3583	3583	3583	3583	3583	3621	3621	3621	3621	3621	3621	3583	3583	3621	3621	3583	3583	3583	3583	3583	3583	3583	3583	3583	3583	3583	3583	3583	3583	3583	3583	3583	3583	3583	3583	3583	3621	3621	3621	3621	0	0	2223	2208	2194	2194	2181	2181	2167	2153	2140	2114	2101	2088	2076	2076	2051	2039	2039	2015	2003	1992	1980	1980	1958	1947	1936	1936	1915	1894	1894	1883	1873	1863	1863	1853	1853	1843	1843	1843	0	0	0	0	0	0	0	0	0	0	0	0	0	0	0	0	0	0	0	0	0	0	0	0	0	0	0	0	0	0	0	0	0	0	0	0	0	0	0	0	0	0	0	0	0	0	0	0	0	0	0	0	0	0	0	0	0	0	0	0	0	0	0	0	0	0	0	0	0	0	0	0	0	0	0	0	0	0	0	0	0	0	0	0	0	0	0	0	0	0	0	0	0	0	0	0	0	0	0	0	0	0	0	0	0	0	0	0	0	0	0	0	0	0	0	0	0	0	0	0	0	0	0	0	0	0	0	0	0	0	0	0	0
0	0	0	0	0	0	0	0	0	0	0	0	0	1641	1649	1657	1665	1673	1673	1681	1681	1681	1690	1690	1690	1698	1706	1715	1715	1732	1741	1750	1759	1759	1768	1777	1786	1795	1804	1804	1814	1824	1833	1843	1843	1843	1853	1853	1863	1863	1873	1873	1883	1894	1904	1904	1904	1904	1915	1915	1915	1925	1925	1925	1936	1958	1947	1947	1947	1947	2496	2460	2478	2496	2478	2478	2496	2496	2514	2496	2496	2496	2496	2496	2478	2496	2496	2496	2478	2478	2496	2514	2514	2514	2496	2514	2514	2514	2514	2514	2514	2514	2514	2532	2532	2514	2514	2514	2514	2514	2514	2514	2514	2514	2514	2514	2514	2496	2496	2514	2514	2514	2532	2514	2514	0	3583	3583	3546	3546	3546	3546	3546	3546	3510	3546	3546	3510	3510	3510	3510	3510	3510	3510	3510	3546	3546	3510	3510	3546	3546	3546	3546	3510	3510	3510	3510	3510	3510	3510	3510	3510	3510	3510	3510	3510	3510	3510	3546	3546	3510	3510	3546	3546	3510	3546	3546	3546	3546	3546	3583	3583	3621	3621	3621	3583	3583	3583	3583	3583	3583	3583	3583	3621	3621	3583	3583	3583	3546	3583	3583	3583	3583	3621	3659	3659	2893	2893	2917	2917	2893	2893	2893	2893	2893	2893	2893	2893	2917	2917	2917	2917	2893	2893	2893	2893	2869	2869	2845	2845	2845	2845	2845	2845	2845	2845	2845	2845	2845	2845	2845	2893	2893	2917	2917	2917	2917	2917	2917	2942	2942	2917	2917	2917	2917	2917	2917	2917	2917	2917	2917	2917	2942	2917	2917	2917	2917	2917	2917	2917	2917	2917	2917	2917	2917	2917	2942	2942	2942	2942	2942	2942	2942	2942	2967	2967	2942	2942	2942	2942	2942	2942	2942	2942	2942	2942	2942	2942	2942	2942	2942	2942	2942	2942	2942	3621	3583	3583	3583	3583	3583	3583	3583	3583	3583	3621	3621	3621	3621	3621	3621	3621	3621	3621	3621	3621	3621	3621	3621	3621	3621	3621	3621	3621	3621	3583	3583	3583	3583	3583	3583	3583	3583	3583	3583	3621	3621	3583	3583	3583	3583	3583	3583	3583	3583	3583	3583	3583	3583	3583	3583	3583	3583	3583	3583	3583	3583	3583	3583	3583	3583	3583	3583	3583	3583	3583	3583	3583	3583	3583	3583	3583	3583	3583	3583	3583	3583	3583	3583	3621	3621	3621	3621	3621	3621	3621	3621	3621	3621	3621	3621	3621	3621	3621	3621	3621	3621	3621	3621	3621	3621	3621	3621	3621	3621	3621	3621	3621	3621	3621	3621	3621	3583	3621	3621	3583	3583	3583	3583	3583	3583	3583	3621	3621	3621	3621	3621	3583	3583	3583	3621	3621	3583	3583	3583	3583	3583	3583	3546	3546	3583	3583	3583	3583	3583	3583	3583	3583	3583	3546	3583	3546	3583	3583	3621	3621	3621	0	0	2208	2194	2194	2194	2181	2181	2167	2153	2140	2114	2101	2088	2076	2063	2051	2051	2039	2015	2003	1992	1992	1980	1969	1958	1947	1936	1915	1904	1894	1883	1873	1863	1853	1853	1843	1833	1833	1824	1814	1814	0	0	0	0	0	0	0	0	0	0	0	0	0	0	0	0	0	0	0	0	0	0	0	0	0	0	0	0	0	0	0	0	0	0	0	0	0	0	0	0	0	0	0	0	0	0	0	0	0	0	0	0	0	0	0	0	0	0	0	0	0	0	0	0	0	0	0	0	0	0	0	0	0	0	0	0	0	0	0	0	0	0	0	0	0	0	0	0	0	0	0	0	0	0	0	0	0	0	0	0	0	0	0	0	0	0	0	0	0	0	0	0	0	0	0	0	0	0	0	0	0	0	0	0	0	0	0	0	0	0	0
0	0	0	0	0	0	0	0	0	0	0	0	0	1641	1649	1657	1665	1665	1673	1673	1681	1681	1681	1690	1690	1698	1715	1715	1723	1723	1732	1741	1741	1759	1768	1777	1795	1804	1804	1814	1814	1824	1833	1843	1853	1853	1863	1863	1863	1873	1873	1873	1883	1883	1894	1894	1894	1904	1915	1915	1915	1925	1936	1936	1925	1958	1958	1958	1947	1947	2003	1992	1992	2496	2496	2496	2514	2514	2514	2514	2514	2496	2496	2496	2478	2496	2496	2496	2478	2478	2496	2514	2514	2514	2496	2496	2496	2514	2514	2514	2514	2514	2514	2514	2514	2514	2514	2514	2514	2514	2514	2514	2514	2514	2514	2514	2514	2496	2496	2514	2514	2514	2514	2514	2514	2514	3583	3510	3510	3510	3546	3546	3546	3546	3546	3546	3546	3546	3510	3510	3510	3510	3510	3546	3546	3546	3546	3546	3510	3510	3546	3546	3510	3510	3510	3510	3510	3510	3510	3510	3510	3510	3510	3510	3510	3510	3510	3510	3546	3546	3510	3510	3546	3546	3510	3546	3546	3546	3546	3546	3546	3583	3583	3621	3583	3583	3583	3583	3583	3583	3583	3583	3583	3583	3621	3621	3583	3583	3621	3583	3583	3583	3583	3621	3659	3621	2869	2893	2893	2893	2893	2893	2893	2893	2893	2893	2893	2893	2917	2917	2917	2893	2893	2893	2893	2869	2869	2845	2845	2845	2845	2845	2845	2845	2845	2845	2845	2845	2845	2845	2845	2869	2893	2893	2917	2917	2917	2917	2917	2917	2917	2942	2942	2942	2942	2942	2942	2917	2917	2917	2917	2942	2942	2942	2917	2917	2917	2917	2917	2917	2917	2917	2917	2917	2942	2917	2942	2942	2942	2942	2942	2942	2942	2942	2967	2967	2967	2942	2942	2942	2942	2942	2942	2942	2942	2942	2942	2942	2942	2942	2942	2942	2942	2942	2942	3621	3583	3583	3583	3583	3583	3583	3583	3583	3583	3621	3621	3621	3621	3621	3621	3621	3621	3621	3621	3621	3621	3621	3621	3621	3621	3621	3621	3583	3621	3583	3583	3583	3583	3583	3621	3621	3583	3583	3583	3621	3621	3583	3583	3583	3583	3583	3583	3583	3583	3583	3583	3583	3583	3583	3583	3583	3583	3583	3583	3583	3583	3583	3583	3583	3583	3583	3583	3583	3583	3583	3583	3583	3583	3583	3583	3583	3583	3583	3583	3583	3583	3583	3583	3621	3621	3621	3621	3621	3621	3621	3621	3621	3621	3621	3621	3621	3621	3621	3621	3621	3621	3621	3621	3621	3621	3621	3621	3621	3621	3621	3621	3621	3621	3621	3621	3621	3583	3583	3583	3583	3583	3583	3583	3583	3583	3583	3621	3621	3621	3621	3621	3583	3583	3583	3621	3621	3583	3583	3583	3583	3583	3546	3546	3546	3583	3583	3583	3583	3583	3583	3583	3583	3583	3583	3583	3546	3546	3621	3621	3621	3621	0	0	2208	2194	2194	2194	2181	2181	2167	2153	2140	2114	2101	2088	2076	2076	2063	2051	2039	2015	2003	1992	1980	1980	1969	1958	1947	1936	1915	1904	1894	1883	1873	1863	1853	1853	1843	1833	1833	1824	1814	1804	1804	0	0	0	0	0	0	0	0	0	0	0	0	0	0	0	0	0	0	0	0	0	0	0	0	0	0	0	0	0	0	0	0	0	0	0	0	0	0	0	0	0	0	0	0	0	0	0	0	0	0	0	0	0	0	0	0	0	0	0	0	0	0	0	0	0	0	0	0	0	0	0	0	0	0	0	0	0	0	0	0	0	0	0	0	0	0	0	0	0	0	0	0	0	0	0	0	0	0	0	0	0	0	0	0	0	0	0	0	0	0	0	0	0	0	0	0	0	0	0	0	0	0	0	0	0	0	0	0	0	0
0	0	0	0	0	0	0	0	0	0	0	0	0	1641	1649	1657	1657	1665	1665	1673	1673	1681	1690	1690	1698	1698	1706	1706	1706	1723	1732	1732	1741	1759	1768	1777	1786	1795	1804	1814	1814	1824	1824	1833	1843	1853	1863	1863	1863	1873	1873	1873	1883	1883	1894	1894	1915	1915	1915	1925	1925	1925	1936	1936	1925	1958	1958	1969	1969	2003	2003	1992	2003	2015	2015	2015	2532	2514	2514	2514	2514	2496	2496	2496	2478	2496	2496	2496	2496	2496	2496	2514	2514	2514	2514	2514	2496	2514	2514	2514	2514	2514	2496	2514	2514	2514	2514	2514	2514	2532	2514	2514	2514	2514	2532	2514	2532	2514	2514	2514	2514	2514	2514	2514	2514	2514	3475	3510	3510	3510	3546	3546	3546	3546	3510	3546	3546	3510	3510	3510	3510	3510	3510	3510	3546	3546	3546	3546	3510	3510	3510	3510	3510	3510	3510	3510	3510	3510	3510	3510	3510	3510	3510	3510	3510	3510	3510	3510	3546	3546	3546	3510	3546	3546	3546	3546	3546	3546	3546	3546	3546	3546	3583	3621	3583	3583	3583	3583	3583	3583	3583	3583	3583	3583	3583	3583	3583	3621	3583	3583	3583	3583	3621	3621	3659	3659	2869	2893	2893	2893	2893	2893	2893	2893	2893	2893	2893	2893	2917	2917	2917	2893	2869	2893	2869	2869	2845	2845	2845	2845	2845	2845	2845	2845	2845	2845	2845	2845	2845	2845	2845	2869	2893	2893	2893	2917	2917	2917	2917	2942	2942	2942	2942	2942	2942	2942	2942	2917	2917	2917	2917	2942	2942	2917	2917	2917	2893	2869	2893	2893	2917	2917	2917	2917	2917	2942	2917	2917	2942	2942	2942	2942	2942	2942	2942	2942	2942	2942	2942	2942	2942	2942	2942	2942	2942	2942	2942	2942	2942	2942	2942	2942	2942	2942	2942	3583	3583	3583	3583	3583	3583	3583	3583	3583	3583	3621	3621	3621	3621	3621	3621	3621	3621	3621	3621	3621	3621	3621	3621	3621	3621	3621	3621	3583	3583	3583	3583	3583	3583	3583	3583	3583	3583	3583	3583	3621	3583	3583	3583	3583	3583	3583	3583	3583	3583	3583	3583	3583	3583	3583	3583	3583	3583	3583	3583	3583	3583	3583	3583	3583	3583	3583	3583	3583	3583	3583	3583	3583	3583	3583	3583	3583	3583	3583	3583	3583	3583	3583	3583	3621	3621	3621	3621	3621	3621	3621	3621	3621	3621	3621	3621	3621	3621	3621	3621	3621	3621	3621	3621	3621	3621	3621	3659	3621	3621	3621	3621	3621	3621	3583	3583	3583	3583	3583	3583	3583	3546	3546	3583	3583	3583	3583	3621	3583	3621	3621	3583	3583	3583	3583	3583	3583	3583	3583	3583	3583	3583	3546	3546	3546	3546	3546	3546	3546	3546	3583	3583	3546	3583	3546	3583	3546	3546	3583	3583	3583	0	0	0	2208	2194	2194	2194	2181	2167	2167	2140	2140	2114	2101	2088	2076	2076	2063	2051	2039	2027	1992	1992	1980	1980	1969	1958	1947	1936	1915	1904	1894	1883	1873	1863	1853	1853	1843	1833	1833	1824	1814	1804	1804	1804	0	0	0	0	0	0	0	0	0	0	0	0	0	0	0	0	0	0	0	0	0	0	0	0	0	0	0	0	0	0	0	0	0	0	0	0	0	0	0	0	0	0	0	0	0	0	0	0	0	0	0	0	0	0	0	0	0	0	0	0	0	0	0	0	0	0	0	0	0	0	0	0	0	0	0	0	0	0	0	0	0	0	0	0	0	0	0	0	0	0	0	0	0	0	0	0	0	0	0	0	0	0	0	0	0	0	0	0	0	0	0	0	0	0	0	0	0	0	0	0	0	0	0	0	0	0	0	0	0
0	0	0	0	0	0	0	0	0	0	0	0	0	1641	1649	1657	1657	1665	1673	1673	1673	1681	1681	1690	1698	1698	1715	1706	1715	1715	1723	1732	1741	1759	1759	1768	1777	1795	1804	1804	1804	1814	1824	1833	1843	1853	1853	1863	1873	1873	1883	1883	1883	1894	1904	1915	1915	1915	1925	1925	1936	1936	1936	1936	1925	1958	1958	1969	1992	2003	2003	2003	2003	2015	2015	2027	2027	2027	2514	2514	2514	2514	2496	2514	2496	2496	2514	2514	2514	2514	2496	2514	2514	2514	2496	2496	2496	2496	2514	2514	2514	2514	2532	2532	2514	2514	2514	2496	2514	2514	2514	2514	2514	2514	2514	2514	2514	2514	2514	2496	2514	2514	2514	2496	2496	0	3475	3475	3510	3510	3546	3546	3546	3546	3546	3546	3546	3546	3510	3510	3510	3510	3510	3510	3510	3546	3546	3510	3546	3510	3510	3510	3510	3510	3510	3510	3510	3510	3510	3510	3510	3510	3510	3510	3510	3510	3510	3510	3546	3546	3546	3510	3546	3546	3546	3546	3546	3510	3546	3546	3546	3546	3583	3583	3583	3583	3583	3583	3583	3583	3583	3583	3583	3583	3583	3583	3621	3621	3621	3583	3583	3621	3621	3621	3621	3583	2869	2893	2869	2893	2869	2893	2893	2893	2893	2893	2893	2917	2917	2917	2893	2893	2869	2893	2869	2869	2845	2845	2845	2845	2845	2845	2845	2845	2845	2845	2845	2845	2845	2845	2845	2845	2893	2893	2917	2893	2893	2917	2917	2942	2942	2942	2942	2942	2942	2942	2942	2942	2917	2917	2917	2942	2942	2917	2917	2893	2893	2893	2893	2893	2893	2917	2917	2917	2917	2917	2917	2917	2917	2942	2942	2942	2942	2942	2942	2942	2942	2942	2942	2942	2942	2942	2942	2942	2917	2917	2942	2942	2942	2942	2942	2942	2967	2942	2942	3583	3583	3583	3583	3583	3583	3583	3583	3583	3583	3583	3621	3583	3583	3583	3583	3583	3583	3583	3621	3583	3621	3621	3621	3621	3621	3621	3621	3583	3583	3583	3583	3583	3583	3583	3583	3583	3583	3583	3583	3583	3583	3583	3583	3583	3583	3583	3583	3583	3583	3583	3583	3583	3583	3583	3583	3583	3583	3583	3583	3583	3583	3583	3583	3583	3583	3583	3583	3583	3583	3583	3583	3583	3583	3583	3583	3583	3583	3583	3583	3583	3583	3583	3583	3621	3621	3621	3621	3621	3621	3621	3621	3621	3621	3621	3621	3621	3621	3621	3621	3621	3621	3621	3621	3621	3621	3621	3621	3621	3621	3621	3621	3621	3583	3583	3583	3583	3583	3583	3583	3583	3583	3583	3583	3621	3583	3621	3621	3621	3621	3621	3583	3583	3583	3583	3583	3583	3583	3583	3583	3583	3583	3546	3546	3546	3546	3546	3546	3546	3546	3546	3546	3546	3583	3546	3546	3546	3546	3583	3583	3621	3621	0	0	2194	2194	2194	2194	2181	2167	2153	2140	2127	2114	2101	2088	2076	2076	2063	2051	2039	2027	1992	1992	1980	1980	1969	1958	1947	1936	1915	1904	1894	1883	1873	1863	1853	1853	1843	1833	1833	1824	1814	1804	1804	1804	0	0	0	0	0	0	0	0	0	0	0	0	0	0	0	0	0	0	0	0	0	0	0	0	0	0	0	0	0	0	0	0	0	0	0	0	0	0	0	0	0	0	0	0	0	0	0	0	0	0	0	0	0	0	0	0	0	0	0	0	0	0	0	0	0	0	0	0	0	0	0	0	0	0	0	0	0	0	0	0	0	0	0	0	0	0	0	0	0	0	0	0	0	0	0	0	0	0	0	0	0	0	0	0	0	0	0	0	0	0	0	0	0	0	0	0	0	0	0	0	0	0	0	0	0	0	0	0	0
0	0	0	0	0	0	0	0	0	0	0	0	0	1641	1649	1657	1665	1665	1673	1673	1673	1681	1681	1690	1698	1698	1706	1706	1715	1715	1723	1732	1732	1741	1759	1768	1777	1795	1795	1795	1795	1804	1804	1804	1824	1843	1853	1873	1873	1873	1873	1883	1883	1904	1915	1925	1925	1925	1925	1936	1947	1936	1936	1936	1947	1936	1958	1980	1980	1992	1992	1992	1992	2015	2027	2039	2051	2051	2063	2063	2514	2514	2514	2514	2514	2514	2514	2514	2514	2514	2496	2514	2514	2514	2496	2496	2496	2496	2514	2514	2514	2514	2496	2514	2514	2514	2496	2496	2496	2514	2496	2496	2496	2514	2514	2514	2514	2514	2514	2514	2514	2514	2514	2496	2496	0	3475	3475	3510	3510	3546	3546	3546	3546	3546	3546	3546	3546	3546	3546	3510	3510	3510	3510	3546	3546	3546	3546	3510	3510	3510	3510	3510	3510	3510	3510	3510	3510	3510	3510	3510	3510	3510	3510	3510	3475	3510	3510	3546	3546	3546	3510	3546	3510	3510	3546	3510	3510	3510	3546	3546	3546	3546	3583	3583	3583	3583	3583	3583	3583	3583	3583	3583	3583	3583	3583	3621	3621	3621	3583	3621	3621	3621	3621	3621	3583	3621	2893	2893	2893	2869	2869	2869	2893	2893	2893	2893	2893	2917	2917	2893	2893	2869	2869	2869	2869	2845	2845	2845	2845	2845	2845	2845	2845	2845	2845	2845	2845	2845	2845	2845	2893	2893	2893	2893	2893	2893	2917	2917	2917	2942	2942	2942	2942	2942	2942	2942	2942	2942	2942	2917	2942	2917	2917	2917	2917	2893	2869	2893	2893	2893	2917	2917	2917	2917	2917	2917	2917	2917	2942	2917	2917	2942	2942	2942	2942	2942	2942	2942	2942	2942	2942	2942	2942	2917	2942	2942	2942	2942	2942	2942	2942	2967	2967	2967	3583	3583	3583	3583	3583	3583	3583	3583	3583	3583	3583	3583	3583	3583	3583	3583	3583	3583	3583	3583	3583	3583	3583	3621	3621	3621	3621	3583	3583	3583	3583	3583	3583	3583	3583	3583	3583	3583	3583	3583	3583	3583	3583	3583	3583	3583	3583	3583	3583	3583	3583	3583	3583	3583	3583	3583	3583	3583	3583	3583	3583	3583	3583	3583	3583	3583	3583	3583	3583	3583	3583	3583	3583	3583	3583	3583	3583	3583	3583	3583	3583	3583	3583	3583	3621	3621	3621	3621	3621	3621	3621	3621	3621	3621	3621	3621	3621	3621	3621	3621	3621	3621	3621	3621	3621	3621	3621	3621	3621	3621	3621	3621	3583	3583	3583	3583	3583	3583	3583	3583	3583	3546	3546	3583	3583	3583	3583	3621	3583	3583	3583	3583	3583	3583	3583	3583	3583	3583	3583	3583	3546	3546	3546	3546	3546	3546	3546	3546	3546	3546	3546	3546	3546	3546	3546	3583	3546	3546	3583	3583	3583	3621	0	0	2194	2194	2194	2181	2181	2167	2167	2140	2140	2114	2088	2088	2076	2076	2063	2051	2039	2027	2003	1992	1980	1969	1958	1947	1947	1936	1915	1904	1894	1883	1873	1863	1853	1853	1843	1843	1824	1824	1814	1804	1804	0	0	0	0	0	0	0	0	0	0	0	0	0	0	0	0	0	0	0	0	0	0	0	0	0	0	0	0	0	0	0	0	0	0	0	0	0	0	0	0	0	0	0	0	0	0	0	0	0	0	0	0	0	0	0	0	0	0	0	0	0	0	0	0	0	0	0	0	0	0	0	0	0	0	0	0	0	0	0	0	0	0	0	0	0	0	0	0	0	0	0	0	0	0	0	0	0	0	0	0	0	0	0	0	0	0	0	0	0	0	0	0	0	0	0	0	0	0	0	0	0	0	0	0	0	0	0	0	0	0
0	0	0	0	0	0	0	0	0	0	0	0	0	1641	1649	1657	1657	1665	1665	1673	1673	1673	1673	1690	1690	1698	1706	1706	1715	1715	1723	1732	1741	1741	1759	1759	1768	1768	1786	1786	1795	1795	1804	1804	1814	1843	1843	1863	1863	1873	1873	1883	1883	1904	1915	1925	1925	1936	1936	1936	1947	1936	1947	1947	1958	1958	1958	1969	1980	1992	1992	2003	2003	2015	2027	2039	2051	2051	2051	2051	2532	2532	2532	2532	2514	2514	2514	2514	2514	2514	2496	2496	2514	2514	2496	2496	2496	2496	2514	2514	2514	2496	2496	2514	2496	2496	2496	2496	2514	2514	2496	2514	2514	2514	2514	2514	2514	2514	2514	2514	2514	2514	2514	2496	2496	0	3475	3475	3510	3510	3546	3546	3546	3546	3546	3546	3583	3546	3510	3546	3510	3510	3510	3510	3510	3546	3546	3546	3510	3510	3510	3510	3510	3510	3510	3510	3510	3510	3510	3510	3510	3510	3510	3510	3510	3510	3510	3510	3546	3510	3510	3510	3510	3510	3546	3510	3510	3510	3510	3546	3546	3546	3546	3583	3583	3583	3583	3583	3546	3546	3583	3583	3583	3583	3583	3583	3621	3621	3583	3583	3583	3621	3621	3621	3621	3583	3583	2893	2893	2893	2869	2893	2893	2893	2893	2893	2869	2893	2893	2893	2893	2869	2869	2869	2869	2845	2845	2845	2845	2845	2845	2845	2845	2845	2845	2845	2845	2845	2845	2845	2845	2893	2893	2893	2893	2893	2917	2917	2917	2942	2942	2942	2942	2942	2942	2942	2942	2942	2942	2942	2942	2942	2942	2942	2942	2917	2917	2917	2917	2917	2917	2917	2917	2917	2917	2942	2917	2917	2917	2917	2917	2917	2917	2942	2942	2942	2942	2942	2942	2942	2942	2942	2917	2942	2917	2942	2942	2942	2942	2942	2967	2942	2967	2967	3583	3583	3583	3583	3583	3583	3583	3583	3583	3583	3583	3583	3621	3621	3583	3583	3583	3583	3583	3583	3583	3583	3583	3583	3621	3621	3621	3621	3583	3583	3583	3583	3583	3583	3583	3583	3583	3583	3583	3583	3583	3583	3583	3583	3583	3583	3583	3583	3583	3583	3583	3583	3583	3583	3546	3546	3583	3583	3583	3583	3583	3583	3583	3583	3583	3583	3583	3583	3583	3583	3583	3583	3583	3583	3583	3583	3583	3583	3583	3583	3583	3583	3583	3583	3583	3621	3621	3583	3583	3583	3621	3621	3621	3621	3621	3621	3621	3621	3621	3621	3621	3621	3621	3621	3621	3621	3621	3621	3621	3621	3621	3583	3583	3583	3583	3583	3583	3583	3583	3583	3583	3583	3583	3546	3583	3583	3583	3583	3583	3583	3583	3583	3546	3583	3583	3583	3546	3546	3546	3546	3546	3546	3546	3546	3546	3546	3546	3510	3546	3546	3546	3546	3546	3546	3583	3546	3546	3546	3546	3546	3546	3546	0	0	0	2194	2194	2194	2181	2181	2167	2153	2140	2127	2114	2101	2088	2076	2076	2063	2051	2039	2027	2003	1992	1980	1969	1958	1947	1936	1936	1925	1904	1894	1883	1873	1863	1853	1853	1843	1843	1824	1824	1824	1804	1804	0	0	0	0	0	0	0	0	0	0	0	0	0	0	0	0	0	0	0	0	0	0	0	0	0	0	0	0	0	0	0	0	0	0	0	0	0	0	0	0	0	0	0	0	0	0	0	0	0	0	0	0	0	0	0	0	0	0	0	0	0	0	0	0	0	0	0	0	0	0	0	0	0	0	0	0	0	0	0	0	0	0	0	0	0	0	0	0	0	0	0	0	0	0	0	0	0	0	0	0	0	0	0	0	0	0	0	0	0	0	0	0	0	0	0	0	0	0	0	0	0	0	0	0	0	0	0	0	0	0
0	0	0	0	0	0	0	0	0	0	0	0	0	1634	1641	1649	1657	1665	1665	1673	1673	1673	1681	1690	1698	1698	1706	1706	1706	1715	1723	1732	1732	1732	1759	1759	1768	1786	1786	1786	1786	1795	1804	1804	1814	1824	1833	1843	1863	1873	1873	1883	1883	1894	1904	1915	1915	1925	1925	1936	1947	1947	1947	1958	1958	1958	1958	1969	1969	1992	1992	2003	2003	2015	2039	2051	2063	2063	2063	2063	2063	2076	2076	2532	2514	2514	2514	2514	2514	2514	2496	2496	2514	2514	2496	2496	2514	2514	2496	2496	2514	2496	2496	2514	2496	2514	2514	2514	2514	2514	2496	2514	2514	2514	2514	2514	2514	2514	2514	2514	2514	2514	2496	2514	2514	0	3475	3510	3510	3510	3510	3546	3546	3546	3546	3583	3583	3546	3546	3546	3510	3510	3510	3510	3546	3546	3546	3546	3546	3510	3510	3510	3510	3510	3510	3510	3510	3510	3510	3510	3510	3510	3510	3510	3510	3475	3475	3475	3510	3510	3510	3510	3546	3510	3546	3510	3510	3510	3510	3546	3546	3546	3546	3583	3583	3583	3583	3583	3583	3546	3583	3583	3583	3583	3583	3583	3621	3621	3621	3583	3583	3621	3583	3583	3583	3583	3583	2893	2893	2893	2893	2893	2893	2893	2893	2893	2869	2845	2917	2893	2893	2893	2893	2869	2869	2869	2845	2845	2845	2845	2845	2845	2845	2845	2845	2845	2845	2845	2845	2845	2845	2893	2893	2893	2917	2917	2917	2942	2942	2942	2942	2942	2942	2942	2942	2942	2942	2942	2942	2942	2942	2942	2942	2942	2942	2917	2917	2917	2917	2917	2917	2917	2917	2917	2942	2942	2917	2917	2917	2917	2917	2917	2917	2942	2942	2942	2942	2942	2942	2942	2942	2942	2942	2942	2942	2942	2942	2942	2942	2942	2967	2942	2942	3583	3583	3583	3583	3583	3583	3583	3583	3583	3583	3583	3583	3621	3621	3621	3621	3583	3583	3583	3583	3583	3583	3583	3583	3583	3621	3621	3583	3583	3583	3583	3583	3583	3583	3583	3583	3583	3583	3583	3583	3583	3583	3583	3583	3583	3583	3583	3583	3583	3583	3583	3583	3583	3546	3583	3546	3546	3583	3583	3583	3583	3583	3583	3583	3583	3583	3583	3583	3583	3583	3583	3583	3583	3583	3583	3583	3583	3583	3583	3583	3583	3583	3583	3546	3546	3546	3546	3583	3583	3583	3621	3621	3621	3621	3621	3621	3621	3621	3621	3621	3621	3621	3621	3621	3621	3621	3621	3621	3621	3621	3621	3621	3621	3583	3583	3583	3583	3583	3583	3546	3583	3583	3583	3546	3583	3583	3583	3583	3583	3583	3583	3583	3583	3546	3546	3546	3546	3546	3546	3510	3546	3546	3546	3546	3510	3510	3546	3546	3510	3546	3546	3546	3546	3546	3546	3546	3546	3546	3546	3546	3546	3546	3546	3546	0	0	2194	2194	2194	2194	2181	2167	2153	2140	2127	2127	2101	2088	2076	2076	2063	2039	2039	2027	2003	1992	1980	1969	1958	1947	1936	1936	1925	1904	1894	1883	1883	1863	1853	1853	1843	1843	1833	1824	1824	0	0	0	0	0	0	0	0	0	0	0	0	0	0	0	0	0	0	0	0	0	0	0	0	0	0	0	0	0	0	0	0	0	0	0	0	0	0	0	0	0	0	0	0	0	0	0	0	0	0	0	0	0	0	0	0	0	0	0	0	0	0	0	0	0	0	0	0	0	0	0	0	0	0	0	0	0	0	0	0	0	0	0	0	0	0	0	0	0	0	0	0	0	0	0	0	0	0	0	0	0	0	0	0	0	0	0	0	0	0	0	0	0	0	0	0	0	0	0	0	0	0	0	0	0	0	0	0	0	0	0	0
0	0	0	0	0	0	0	0	0	0	0	0	0	1626	1641	1649	1657	1657	1665	1673	1673	1665	1673	1681	1681	1698	1698	1706	1715	1715	1723	1723	1732	1732	1759	1759	1768	1777	1777	1786	1786	1795	1795	1804	1814	1824	1833	1843	1853	1863	1873	1873	1883	1883	1904	1904	1915	1925	1925	1947	1947	1947	1947	1958	1958	1958	1958	1969	1969	1992	2003	2015	2015	2015	2039	2051	2063	2063	2063	2063	2076	2076	2088	2088	2076	2076	2496	2514	2496	2496	2496	2496	2514	2514	2496	2496	2496	2496	2496	2496	2496	2496	2496	2514	2496	2496	2496	2514	2514	2514	2496	2514	2496	2514	2514	2496	2514	2496	2514	2496	2514	2496	2514	2514	2514	3475	3510	3510	3510	3510	3510	3546	3546	3546	3546	3583	3583	3546	3510	3510	3510	3510	3510	3510	3510	3546	3546	3510	3510	3510	3510	3510	3510	3475	3475	3510	3510	3510	3510	3510	3510	3510	3510	3510	3510	3475	3475	3475	3546	3510	3546	3510	3546	3546	3546	3510	3510	3510	3510	3546	3546	3546	3546	3583	3583	3583	3546	3583	3546	3546	3546	3583	3546	3583	3583	3583	3621	3621	3621	3621	3621	3621	3621	3583	3583	3583	3583	2893	2893	2893	2893	2893	2893	2893	2893	2893	2845	2845	2845	2917	2893	2893	2893	2869	2869	2869	2869	2845	2845	2845	2845	2845	2845	2845	2845	2845	2845	2845	2845	2845	2869	2893	2893	2893	2917	2917	2917	2942	2917	2917	2942	2942	2942	2942	2942	2942	2942	2942	2942	2942	2942	2942	2942	2942	2942	2917	2917	2917	2917	2917	2917	2917	2917	2917	2917	2917	2917	2893	2917	2917	2917	2917	2917	2942	2942	2942	2942	2942	2942	2917	2917	2942	2917	2942	2942	2942	2967	2967	2967	2967	2967	3583	3583	3583	3583	3546	3583	3583	3583	3583	3583	3583	3583	3583	3583	3621	3621	3621	3621	3621	3583	3583	3583	3583	3583	3583	3583	3583	3621	3621	3621	3583	3583	3583	3583	3583	3583	3583	3583	3583	3583	3583	3583	3583	3583	3583	3583	3583	3583	3583	3583	3583	3583	3583	3583	3583	3546	3583	3583	3583	3583	3583	3583	3583	3583	3583	3583	3583	3583	3583	3583	3583	3583	3583	3583	3583	3583	3583	3583	3583	3583	3583	3583	3583	3546	3546	3546	3546	3546	3583	3583	3583	3583	3583	3583	3621	3621	3621	3621	3621	3621	3621	3621	3621	3621	3621	3621	3621	3621	3621	3621	3621	3621	3621	3621	3583	3583	3583	3583	3583	3583	3583	3546	3583	3583	3583	3583	3583	3583	3583	3583	3583	3583	3583	3583	3583	3583	3583	3583	3546	3546	3546	3510	3546	3510	3510	3510	3510	3510	3510	3510	3510	3546	3510	3546	3546	3546	3546	3546	3546	3546	3546	3546	3583	3546	3546	3546	0	0	2194	2208	2208	2194	2181	2167	2167	2140	2140	2127	2101	2088	2076	2076	2051	2039	2027	2015	2003	1992	1980	1969	1947	1947	1936	1936	1925	1904	1894	1894	1883	1863	1853	1853	1843	1843	1824	1824	1824	0	0	0	0	0	0	0	0	0	0	0	0	0	0	0	0	0	0	0	0	0	0	0	0	0	0	0	0	0	0	0	0	0	0	0	0	0	0	0	0	0	0	0	0	0	0	0	0	0	0	0	0	0	0	0	0	0	0	0	0	0	0	0	0	0	0	0	0	0	0	0	0	0	0	0	0	0	0	0	0	0	0	0	0	0	0	0	0	0	0	0	0	0	0	0	0	0	0	0	0	0	0	0	0	0	0	0	0	0	0	0	0	0	0	0	0	0	0	0	0	0	0	0	0	0	0	0	0	0	0	0	0
0	0	0	0	0	0	0	0	0	0	0	0	0	1626	1641	1649	1649	1657	1657	1665	1665	1665	1673	1681	1698	1698	1706	1706	1723	1723	1723	1723	1732	1741	1759	1768	1768	1768	1777	1777	1786	1795	1804	1804	1814	1824	1833	1833	1843	1853	1863	1873	1873	1883	1904	1915	1915	1925	1925	1936	1947	1947	1958	1958	1958	1969	1969	1980	1992	1992	2003	2015	2015	2027	2027	2051	2076	2076	2076	2076	2076	2088	2088	2088	2088	2088	2127	2114	2114	2496	2496	2496	2514	2514	2496	2496	2496	2496	2496	2496	2496	2496	2496	2514	2496	2496	2496	2496	2514	2496	2496	2496	2496	2496	2496	2496	2514	2496	2496	2496	2496	2496	2496	2496	0	3510	3510	3510	3510	3510	3546	3546	3546	3546	3546	3546	3583	3546	3510	3510	3510	3510	3510	3510	3510	3546	3510	3510	3510	3510	3475	3475	3475	3475	3475	3475	3510	3510	3510	3510	3510	3510	3510	3510	3510	3475	3475	3475	3546	3546	3546	3510	3546	3546	3510	3510	3510	3510	3510	3546	3546	3546	3546	3546	3583	3583	3583	3583	3583	3546	3583	3583	3546	3583	3583	3583	3583	3621	3621	3583	3583	3621	3583	3583	3546	3546	3546	3583	2893	2893	2893	2893	2893	2893	2893	2893	2869	2869	2917	2917	2917	2893	2893	2893	2893	2869	2869	2869	2845	2845	2845	2845	2845	2845	2845	2845	2845	2845	2845	2845	2869	2893	2893	2893	2917	2917	2917	2942	2917	2942	2942	2942	2942	2942	2942	2942	2942	2942	2942	2942	2942	2942	2942	2917	2942	2917	2917	2917	2917	2917	2917	2917	2917	2917	2942	2942	2917	2893	2917	2917	2917	2917	2917	2942	2942	2942	2942	2942	2942	2917	2917	2942	2917	2917	2942	2942	2967	2967	2967	2967	3583	3583	3583	3583	3546	3546	3583	3583	3583	3583	3583	3583	3583	3583	3583	3621	3621	3621	3621	3621	3583	3583	3583	3583	3583	3583	3583	3583	3621	3621	3621	3621	3583	3583	3583	3583	3583	3583	3583	3583	3583	3583	3583	3583	3583	3583	3583	3583	3583	3583	3583	3583	3583	3583	3583	3583	3546	3583	3583	3583	3583	3583	3583	3583	3583	3583	3583	3583	3583	3583	3583	3583	3583	3583	3583	3583	3583	3583	3583	3583	3583	3583	3583	3583	3583	3546	3546	3583	3583	3583	3621	3621	3621	3621	3621	3621	3621	3621	3621	3621	3621	3621	3621	3621	3621	3621	3621	3621	3621	3621	3621	3583	3583	3583	3583	3583	3583	3583	3583	3583	3583	3583	3583	3583	3583	3583	3583	3583	3583	3583	3583	3583	3583	3583	3583	3621	3583	3583	3583	3546	3546	3510	3510	3510	3510	3510	3510	3510	3510	3510	3546	3546	3546	3546	3546	3546	3546	3546	3546	3546	3546	3546	3546	3546	3546	3546	3546	0	0	0	2208	2208	2194	2181	2181	2167	2153	2140	2114	2101	2088	2076	2076	2051	2039	2027	2015	2003	1992	1980	1958	1947	1947	1936	1925	1915	1904	1894	1894	1883	1863	1853	1853	1843	1843	1833	1833	0	0	0	0	0	0	0	0	0	0	0	0	0	0	0	0	0	0	0	0	0	0	0	0	0	0	0	0	0	0	0	0	0	0	0	0	0	0	0	0	0	0	0	0	0	0	0	0	0	0	0	0	0	0	0	0	0	0	0	0	0	0	0	0	0	0	0	0	0	0	0	0	0	0	0	0	0	0	0	0	0	0	0	0	0	0	0	0	0	0	0	0	0	0	0	0	0	0	0	0	0	0	0	0	0	0	0	0	0	0	0	0	0	0	0	0	0	0	0	0	0	0	0	0	0	0	0	0	0	0	0	0	0
0	0	0	0	0	0	0	0	0	0	0	0	0	1626	1626	1641	1649	1649	1657	1665	1673	1665	1673	1690	1690	1698	1706	1715	1723	1723	1723	1732	1732	1750	1768	1768	1768	1768	1777	1777	1786	1786	1795	1804	1804	1824	1833	1843	1843	1853	1853	1873	1873	1883	1904	1915	1915	1925	1925	1936	1936	1947	1958	1958	1958	1958	1969	1969	1992	1992	2015	2015	2015	2027	2039	2063	2076	2076	2076	2076	2088	2088	2088	2101	2101	2114	2140	2140	2140	2496	2496	2496	2514	2514	2496	2496	2514	2514	2496	2496	2496	2496	2514	2496	2496	2496	2496	2496	2496	2496	2496	2496	2496	2496	2496	2496	2496	2496	2496	2496	2496	2496	2496	2496	0	3510	3510	3510	3546	3546	3546	3546	3546	3546	3546	3546	3546	3546	3510	3510	3510	3510	3510	3510	3510	3510	3510	3510	3510	3510	3475	3475	3475	3475	3475	3510	3510	3510	3510	3510	3510	3510	3510	3510	3475	3475	3475	3475	3510	3510	3510	3510	3546	3510	3510	3510	3510	3510	3510	3546	3546	3546	3546	3546	3583	3583	3583	3583	3583	3583	3583	3583	3546	3546	3583	3583	3583	3621	3583	3583	3583	3621	3583	3583	3546	3546	3546	3583	2893	2893	2893	2893	2893	2893	2893	2893	2869	2893	2917	2917	2893	2893	2893	2893	2893	2869	2869	2869	2869	2845	2845	2845	2845	2845	2845	2845	2845	2845	2845	2869	2869	2893	2893	2893	2917	2942	2942	2942	2942	2942	2942	2942	2942	2942	2942	2942	2942	2942	2942	2942	2917	2942	2942	2917	2917	2917	2917	2917	2917	2917	2917	2917	2917	2917	2942	2942	2917	2893	2893	2917	2917	2917	2917	2942	2942	2942	2942	2942	2942	2942	2917	2942	2917	2942	2942	2967	2967	2967	2967	2967	3583	3583	3583	3583	3546	3546	3583	3583	3583	3583	3583	3583	3583	3583	3583	3621	3621	3621	3621	3583	3583	3583	3583	3583	3583	3583	3583	3621	3621	3621	3621	3621	3621	3621	3583	3583	3583	3583	3583	3583	3583	3583	3583	3583	3583	3583	3583	3583	3583	3583	3583	3583	3583	3583	3583	3583	3583	3583	3583	3583	3583	3583	3583	3583	3583	3583	3583	3583	3583	3583	3583	3583	3546	3546	3583	3583	3583	3583	3583	3583	3583	3583	3583	3583	3583	3546	3546	3546	3583	3583	3583	3621	3621	3621	3621	3621	3621	3621	3621	3621	3621	3621	3621	3621	3621	3621	3621	3621	3621	3621	3583	3583	3583	3583	3583	3583	3583	3583	3583	3583	3583	3583	3583	3583	3583	3583	3583	3583	3583	3583	3583	3583	3583	3583	3583	3583	3583	3583	3546	3546	3546	3510	3510	3510	3546	3546	3546	3546	3546	3546	3546	3546	3546	3546	3546	3546	3546	3546	3546	3546	3546	3546	3546	3546	3546	3546	3546	0	0	0	2223	2208	2208	2194	2181	2167	2153	2140	2127	2101	2088	2076	2063	2051	2039	2027	2015	2003	1992	1980	1958	1947	1936	1936	1925	1915	1904	1894	1894	1883	1863	1853	1853	1843	1843	1833	1833	1833	0	0	0	0	0	0	0	0	0	0	0	0	0	0	0	0	0	0	0	0	0	0	0	0	0	0	0	0	0	0	0	0	0	0	0	0	0	0	0	0	0	0	0	0	0	0	0	0	0	0	0	0	0	0	0	0	0	0	0	0	0	0	0	0	0	0	0	0	0	0	0	0	0	0	0	0	0	0	0	0	0	0	0	0	0	0	0	0	0	0	0	0	0	0	0	0	0	0	0	0	0	0	0	0	0	0	0	0	0	0	0	0	0	0	0	0	0	0	0	0	0	0	0	0	0	0	0	0	0	0	0	0
0	0	0	0	0	0	0	0	0	0	0	0	0	1626	1634	1641	1649	1649	1657	1665	1673	1665	1673	1690	1698	1698	1706	1715	1723	1723	1723	1723	1741	1750	1759	1768	1768	1768	1777	1777	1786	1786	1804	1804	1804	1814	1833	1833	1843	1853	1853	1863	1873	1883	1894	1915	1915	1925	1925	1925	1936	1947	1958	1969	1958	1969	1969	1980	1992	1992	2015	2027	2027	2039	2051	2063	2076	2076	2088	2088	2101	2101	2114	2114	2114	2127	2140	2127	2127	2140	2153	2153	2514	2514	2496	2496	2496	2514	2496	2496	2496	2496	2496	2496	2496	2496	2496	2496	2496	2496	2496	2496	2496	2496	2496	2496	2496	2496	2496	2496	2496	2496	2496	2496	0	3546	3546	3546	3546	3546	3546	3546	3546	3546	3546	3546	3546	3546	3510	3510	3510	3510	3510	3510	3510	3510	3510	3510	3510	3475	3475	3475	3475	3475	3475	3475	3475	3510	3510	3510	3510	3510	3510	3510	3510	3475	3475	3475	3510	3510	3510	3510	3510	3510	3510	3510	3510	3510	3510	3510	3546	3546	3546	3546	3583	3583	3546	3583	3546	3583	3583	3583	3546	3583	3583	3583	3583	3583	3583	3583	3583	3583	3583	3583	3546	3546	3546	3546	3546	3583	2893	2893	2893	2917	2917	2893	2869	2869	2917	2917	2917	2917	2893	2893	2893	2869	2869	2845	2869	2845	2845	2845	2845	2845	2845	2845	2845	2869	2869	2869	2869	2917	2917	2917	2917	2917	2942	2942	2917	2917	2942	2917	2942	2942	2942	2942	2942	2942	2942	2942	2942	2942	2942	2917	2942	2942	2917	2917	2917	2917	2917	2917	2917	2917	2917	2917	2917	2893	2893	2917	2917	2917	2917	2942	2942	2942	2942	2942	2942	2942	2917	2942	2942	2942	2942	2967	2967	2967	3583	3583	3583	3583	3583	3583	3583	3583	3583	3583	3583	3583	3583	3583	3583	3583	3583	3583	3621	3621	3621	3621	3621	3583	3621	3583	3583	3583	3621	3621	3621	3621	3621	3621	3621	3583	3583	3583	3583	3583	3583	3583	3583	3583	3583	3583	3583	3583	3583	3583	3583	3583	3583	3583	3583	3583	3583	3583	3583	3583	3583	3583	3583	3583	3583	3583	3583	3583	3583	3583	3583	3583	3583	3583	3583	3583	3583	3583	3583	3583	3583	3583	3583	3583	3583	3583	3583	3546	3546	3583	3583	3583	3621	3621	3621	3621	3621	3621	3621	3621	3621	3621	3621	3621	3621	3621	3621	3621	3621	3621	3621	3621	3583	3583	3583	3583	3583	3583	3583	3583	3583	3583	3583	3583	3583	3621	3621	3621	3621	3583	3583	3583	3583	3583	3583	3583	3583	3583	3583	3583	3546	3546	3546	3510	3510	3510	3510	3510	3510	3546	3510	3510	3546	3546	3546	3546	3546	3546	3546	3546	3546	3546	3546	3546	3546	3583	3546	3583	3583	0	0	0	2223	2208	2208	2194	2181	2167	2153	2140	2127	2114	2088	2076	2063	2039	2039	2027	2015	2003	1992	1980	1958	1947	1947	1936	1925	1915	1904	1894	1894	1883	1863	1853	1853	1843	1833	1824	1824	1824	0	0	0	0	0	0	0	0	0	0	0	0	0	0	0	0	0	0	0	0	0	0	0	0	0	0	0	0	0	0	0	0	0	0	0	0	0	0	0	0	0	0	0	0	0	0	0	0	0	0	0	0	0	0	0	0	0	0	0	0	0	0	0	0	0	0	0	0	0	0	0	0	0	0	0	0	0	0	0	0	0	0	0	0	0	0	0	0	0	0	0	0	0	0	0	0	0	0	0	0	0	0	0	0	0	0	0	0	0	0	0	0	0	0	0	0	0	0	0	0	0	0	0	0	0	0	0	0	0	0	0	0
0	0	0	0	0	0	0	0	0	0	0	0	0	1634	1634	1641	1649	1649	1657	1665	1665	1665	1673	1690	1698	1698	1706	1715	1723	1723	1732	1732	1741	1759	1759	1768	1759	1768	1777	1777	1786	1786	1795	1804	1804	1814	1833	1843	1843	1853	1853	1863	1873	1883	1894	1904	1915	1915	1925	1925	1936	1936	1947	1969	1958	1969	1969	1980	2003	1992	2015	2015	2027	2039	2051	2063	2088	2088	2088	2101	2101	2114	2114	2114	2127	2127	2140	2140	2127	2140	2153	2153	2496	2496	2496	2496	2496	2514	2514	2496	2496	2496	2496	2496	2496	2496	2496	2496	2496	2496	2496	2496	2496	2496	2496	2496	2496	2496	2478	2478	2478	2478	2478	2478	0	3621	3621	3621	3546	3546	3546	3546	3546	3546	3510	3546	3546	3546	3510	3510	3510	3510	3510	3510	3510	3510	3510	3510	3510	3475	3475	3440	3475	3475	3475	3475	3475	3510	3510	3510	3510	3510	3510	3510	3510	3475	3475	3475	3510	3510	3510	3510	3510	3510	3510	3510	3510	3510	3510	3510	3546	3546	3546	3546	3583	3583	3583	3583	3583	3583	3583	3583	3546	3583	3583	3583	3583	3583	3583	3583	3583	3583	3583	3583	3546	3583	3583	3583	3546	3583	3583	3546	2917	2917	2917	2917	2893	2893	2917	2917	2917	2917	2917	2917	2893	2893	2869	2869	2869	2845	2845	2845	2845	2845	2845	2845	2869	2869	2845	2869	2869	2917	2917	2917	2917	2942	2942	2942	2917	2942	2942	2942	2942	2942	2942	2942	2942	2942	2942	2942	2942	2942	2942	2942	2942	2942	2917	2917	2917	2917	2917	2917	2917	2917	2917	2917	2917	2917	2917	2917	2942	2917	2942	2942	2942	2942	2942	2942	2917	2942	2917	2942	2942	2967	2967	2967	2967	3583	3583	3583	3583	3583	3583	3583	3583	3583	3583	3583	3583	3583	3583	3583	3583	3583	3583	3621	3621	3621	3621	3621	3621	3621	3621	3621	3621	3621	3621	3621	3621	3621	3621	3621	3621	3621	3583	3583	3583	3583	3583	3583	3583	3583	3583	3583	3583	3583	3583	3583	3583	3583	3583	3583	3583	3583	3583	3583	3546	3546	3583	3583	3583	3583	3583	3583	3583	3583	3583	3583	3583	3583	3583	3583	3583	3583	3583	3583	3583	3583	3583	3583	3583	3583	3583	3583	3583	3583	3583	3583	3583	3583	3621	3621	3621	3621	3621	3621	3621	3621	3621	3621	3621	3621	3621	3621	3621	3621	3621	3621	3621	3621	3583	3583	3583	3583	3583	3583	3583	3621	3621	3621	3583	3621	3621	3621	3621	3621	3621	3583	3583	3583	3583	3583	3621	3621	3621	3621	3583	3583	3583	3546	3546	3546	3510	3510	3546	3546	3546	3546	3510	3546	3546	3546	3546	3546	3546	3583	3546	3546	3546	3546	3546	3546	3546	3583	3583	3583	3583	3583	0	2237	2237	2223	2208	2194	2181	2167	2153	2140	2114	2088	2088	2076	2063	2039	2039	2027	2015	2003	1992	1980	1969	1958	1947	1936	1925	1915	1904	1894	1894	1883	1873	1853	1843	1833	1833	1824	1824	1824	0	0	0	0	0	0	0	0	0	0	0	0	0	0	0	0	0	0	0	0	0	0	0	0	0	0	0	0	0	0	0	0	0	0	0	0	0	0	0	0	0	0	0	0	0	0	0	0	0	0	0	0	0	0	0	0	0	0	0	0	0	0	0	0	0	0	0	0	0	0	0	0	0	0	0	0	0	0	0	0	0	0	0	0	0	0	0	0	0	0	0	0	0	0	0	0	0	0	0	0	0	0	0	0	0	0	0	0	0	0	0	0	0	0	0	0	0	0	0	0	0	0	0	0	0	0	0	0	0	0	0	0
0	0	0	0	0	0	0	0	0	0	0	0	0	1634	1634	1641	1649	1657	1657	1665	1673	1673	1690	1690	1698	1698	1706	1715	1723	1732	1732	1732	1741	1750	1750	1759	1759	1768	1768	1777	1786	1795	1804	1804	1814	1824	1833	1843	1843	1853	1853	1863	1873	1873	1883	1894	1904	1904	1915	1925	1925	1936	1947	1958	1958	1958	1969	1969	1992	2003	2015	2039	2039	2051	2063	2076	2076	2088	2088	2101	2114	2114	2114	2114	2127	2127	2140	2140	2153	2167	2167	2167	2208	2208	2496	2496	2496	2514	2496	2496	2496	2496	2496	2496	2496	2496	2496	2496	2496	2496	2496	2496	2496	2496	2496	2496	2496	2478	2478	2478	2478	2478	2460	2460	0	3621	3621	3546	3546	3546	3546	3546	3546	3510	3510	3546	3546	3546	3546	3510	3510	3510	3510	3510	3510	3510	3510	3510	3510	3510	3475	3475	3475	3475	3475	3475	3475	3510	3510	3510	3510	3510	3510	3510	3510	3475	3475	3475	3510	3510	3510	3510	3510	3510	3510	3510	3510	3510	3510	3510	3546	3546	3546	3546	3583	3583	3583	3583	3583	3583	3583	3583	3583	3583	3583	3583	3583	3583	3583	3583	3583	3583	3583	3583	3583	3583	3583	3583	3583	3583	3583	3621	3546	2942	2917	2917	2917	2917	2942	2942	2942	2917	2917	2917	2893	2893	2869	2869	2869	2845	2845	2845	2845	2845	2845	2845	2869	2869	2869	2869	2869	2917	2917	2917	2917	2942	2942	2917	2917	2917	2917	2942	2942	2942	2942	2942	2942	2942	2942	2942	2942	2942	2942	2942	2942	2942	2917	2942	2917	2917	2917	2917	2917	2917	2917	2917	2917	2917	2917	2917	2942	2942	2942	2942	2942	2942	2942	2942	2917	2942	2917	2942	2942	2993	2993	3583	3583	3621	3583	3583	3583	3583	3583	3583	3583	3583	3583	3583	3583	3583	3583	3583	3583	3583	3583	3621	3621	3621	3621	3621	3621	3621	3621	3583	3583	3583	3621	3621	3621	3621	3621	3621	3621	3621	3583	3583	3583	3583	3583	3583	3583	3583	3583	3583	3583	3583	3583	3583	3583	3583	3583	3583	3583	3583	3583	3583	3583	3546	3583	3583	3583	3583	3583	3583	3583	3583	3583	3583	3583	3583	3583	3583	3583	3583	3583	3583	3583	3583	3583	3583	3583	3583	3583	3583	3583	3583	3583	3583	3583	3621	3621	3621	3621	3621	3621	3621	3621	3621	3621	3621	3621	3621	3621	3621	3621	3621	3621	3621	3621	3621	3583	3583	3583	3583	3583	3583	3583	3583	3583	3583	3583	3583	3583	3621	3621	3583	3583	3583	3583	3583	3583	3621	3621	3621	3621	3621	3621	3583	3583	3546	3546	3546	3546	3546	3546	3546	3546	3546	3546	3546	3546	3546	3546	3546	3546	3546	3546	3546	3546	3546	3546	3546	3546	3546	3621	3583	3583	3583	0	2237	2237	2237	2223	2208	2194	2181	2153	2140	2127	2114	2088	2076	2063	2039	2039	2027	2015	2003	1992	1980	1969	1958	1947	1936	1925	1915	1904	1894	1894	1883	1873	1853	1843	1833	1824	1814	1814	1814	0	0	0	0	0	0	0	0	0	0	0	0	0	0	0	0	0	0	0	0	0	0	0	0	0	0	0	0	0	0	0	0	0	0	0	0	0	0	0	0	0	0	0	0	0	0	0	0	0	0	0	0	0	0	0	0	0	0	0	0	0	0	0	0	0	0	0	0	0	0	0	0	0	0	0	0	0	0	0	0	0	0	0	0	0	0	0	0	0	0	0	0	0	0	0	0	0	0	0	0	0	0	0	0	0	0	0	0	0	0	0	0	0	0	0	0	0	0	0	0	0	0	0	0	0	0	0	0	0	0	0	0
0	0	0	0	0	0	0	0	0	0	0	0	0	1634	1641	1649	1657	1657	1657	1665	1665	1681	1690	1690	1690	1698	1706	1706	1723	1732	1732	1732	1741	1750	1750	1759	1759	1759	1768	1777	1786	1804	1814	1814	1824	1824	1833	1843	1843	1843	1853	1863	1873	1873	1883	1883	1894	1904	1915	1915	1925	1936	1936	1958	1958	1958	1969	1980	1992	2015	2015	2027	2039	2039	2051	2076	2076	2088	2101	2101	2114	2127	2114	2127	2127	2127	2153	2140	2153	2167	2181	2208	2208	2208	2208	2208	2496	2496	2496	2496	2496	2496	2496	2496	2478	2496	2478	2478	2496	2496	2496	2496	2496	2496	2496	2496	2478	2478	2478	2478	2478	2478	2478	2478	3659	3583	3583	3583	3546	3546	3546	3546	3546	3510	3510	3510	3546	3510	3510	3510	3510	3510	3510	3510	3510	3510	3510	3510	3510	3475	3475	3475	3475	3475	3475	3475	3475	3510	3510	3510	3510	3510	3510	3510	3510	3510	3510	3510	3510	3510	3510	3510	3510	3510	3475	3475	3510	3475	3510	3510	3510	3546	3546	3546	3583	3583	3583	3583	3546	3546	3583	3583	3583	3583	3583	3583	3583	3583	3583	3583	3583	3583	3583	3583	3583	3583	3583	3583	3583	3583	3583	3583	3546	3546	2917	2917	2917	2917	2942	2942	2917	2917	2917	2917	2893	2893	2869	2869	2845	2845	2845	2845	2845	2845	2845	2845	2869	2869	2869	2869	2869	2917	2893	2893	2893	2893	2917	2917	2917	2917	2917	2942	2942	2942	2942	2942	2942	2942	2942	2942	2942	2942	2942	2942	2942	2942	2942	2942	2917	2917	2917	2917	2917	2917	2917	2917	2917	2917	2917	2917	2942	2942	2942	2942	2942	2942	2942	2942	2942	2967	2942	2942	3621	3621	3621	3583	3621	3621	3621	3621	3583	3583	3583	3583	3583	3583	3583	3583	3583	3583	3583	3583	3583	3583	3583	3621	3621	3621	3621	3621	3621	3621	3621	3621	3621	3621	3621	3621	3621	3621	3621	3621	3621	3583	3583	3583	3583	3583	3583	3583	3583	3583	3583	3583	3583	3583	3583	3583	3583	3583	3583	3583	3583	3583	3583	3583	3583	3583	3583	3583	3583	3583	3583	3583	3583	3583	3583	3583	3583	3583	3583	3583	3583	3583	3583	3583	3583	3583	3583	3583	3583	3583	3583	3583	3583	3583	3583	3583	3583	3621	3621	3621	3621	3621	3621	3621	3621	3621	3621	3621	3621	3621	3621	3621	3621	3621	3621	3621	3621	3621	3583	3583	3583	3583	3583	3583	3583	3583	3583	3583	3583	3621	3621	3621	3621	3583	3583	3583	3583	3583	3583	3621	3621	3621	3621	3583	3583	3583	3583	3546	3546	3546	3546	3546	3546	3546	3546	3546	3546	3546	3546	3546	3546	3546	3546	3546	3546	3546	3546	3546	3546	3546	3546	3583	3621	3621	3621	3621	0	2237	2237	2237	2223	2208	2194	2181	2167	2140	2127	2114	2088	2076	2051	2039	2039	2027	2015	2003	1992	1980	1969	1958	1947	1936	1925	1915	1904	1894	1894	1883	1873	1853	1843	1833	1824	1814	1814	1814	0	0	0	0	0	0	0	0	0	0	0	0	0	0	0	0	0	0	0	0	0	0	0	0	0	0	0	0	0	0	0	0	0	0	0	0	0	0	0	0	0	0	0	0	0	0	0	0	0	0	0	0	0	0	0	0	0	0	0	0	0	0	0	0	0	0	0	0	0	0	0	0	0	0	0	0	0	0	0	0	0	0	0	0	0	0	0	0	0	0	0	0	0	0	0	0	0	0	0	0	0	0	0	0	0	0	0	0	0	0	0	0	0	0	0	0	0	0	0	0	0	0	0	0	0	0	0	0	0	0	0	0
0	0	0	0	0	0	0	0	0	0	0	0	0	1641	1641	1649	1657	1657	1657	1665	1673	1681	1690	1690	1690	1690	1698	1706	1723	1723	1732	1741	1741	1750	1750	1759	1759	1759	1768	1777	1786	1804	1814	1814	1814	1824	1833	1833	1843	1853	1853	1863	1873	1873	1873	1883	1883	1904	1915	1925	1936	1936	1947	1958	1958	1958	1969	1980	2003	2015	2015	2027	2027	2027	2051	2076	2076	2101	2101	2114	2127	2127	2127	2140	2140	2140	2153	2153	2153	2167	2167	2208	2208	2223	2223	2223	2223	2496	2496	2496	2478	2478	2478	2478	2478	2478	2478	2478	2478	2496	2496	2496	2496	2496	2496	2496	2478	2478	2478	2478	2478	2478	2478	2478	3621	3621	3621	3621	3583	3583	3546	3546	3546	3510	3510	3510	3510	3510	3510	3510	3510	3510	3510	3546	3510	3510	3510	3510	3510	3510	3475	3475	3475	3475	3475	3475	3510	3510	3510	3510	3510	3510	3510	3510	3510	3510	3510	3475	3510	3510	3510	3510	3510	3475	3475	3475	3475	3475	3475	3510	3510	3510	3546	3546	3546	3583	3583	3583	3546	3583	3583	3583	3583	3583	3621	3583	3621	3583	3583	3583	3583	3583	3583	3583	3583	3583	3583	3583	3583	3583	3583	3583	3546	3546	3546	3546	2917	2917	2942	2942	2917	2917	2917	2917	2893	2893	2869	2845	2845	2845	2845	2845	2845	2845	2845	2869	2869	2869	2869	2869	2869	2893	2893	2893	2893	2893	2893	2917	2917	2917	2942	2942	2942	2942	2942	2942	2967	2967	2942	2942	2942	2942	2942	2942	2942	2942	2942	2942	2917	2917	2917	2917	2893	2917	2917	2917	2917	2917	2917	2917	2942	2942	2942	2942	2942	2942	2942	2942	2942	2967	2942	3621	3621	3583	3583	3583	3583	3583	3583	3583	3583	3583	3583	3583	3583	3583	3583	3583	3583	3583	3583	3583	3583	3583	3583	3583	3583	3583	3583	3583	3621	3583	3621	3621	3621	3621	3621	3621	3621	3621	3621	3621	3583	3583	3583	3583	3583	3583	3583	3583	3583	3583	3583	3583	3583	3583	3583	3583	3583	3583	3583	3583	3583	3583	3583	3583	3583	3583	3583	3583	3583	3583	3583	3583	3583	3583	3583	3583	3583	3583	3583	3583	3583	3583	3583	3583	3583	3583	3583	3583	3583	3583	3583	3583	3583	3583	3583	3583	3583	3621	3621	3621	3621	3621	3621	3621	3621	3621	3621	3621	3621	3621	3621	3621	3621	3621	3621	3621	3621	3621	3621	3583	3621	3621	3583	3583	3546	3583	3583	3583	3583	3583	3583	3583	3583	3583	3583	3546	3583	3583	3583	3621	3621	3621	3621	3583	3583	3583	3546	3546	3546	3546	3546	3546	3546	3546	3546	3583	3546	3546	3546	3546	3546	3546	3546	3546	3546	3546	3546	3546	3546	3546	3546	3583	3583	3583	3583	3583	0	2237	2237	2237	2223	2208	2181	2167	2153	2140	2127	2114	2088	2076	2051	2039	2039	2027	2015	2003	1992	1980	1980	1969	1947	1936	1925	1915	1904	1894	1894	1873	1863	1853	1843	1833	1824	1814	1814	1814	0	0	0	0	0	0	0	0	0	0	0	0	0	0	0	0	0	0	0	0	0	0	0	0	0	0	0	0	0	0	0	0	0	0	0	0	0	0	0	0	0	0	0	0	0	0	0	0	0	0	0	0	0	0	0	0	0	0	0	0	0	0	0	0	0	0	0	0	0	0	0	0	0	0	0	0	0	0	0	0	0	0	0	0	0	0	0	0	0	0	0	0	0	0	0	0	0	0	0	0	0	0	0	0	0	0	0	0	0	0	0	0	0	0	0	0	0	0	0	0	0	0	0	0	0	0	0	0	0	0	0	0
0	0	0	0	0	0	0	0	0	0	0	0	0	1641	1641	1657	1657	1657	1657	1665	1673	1673	1681	1690	1690	1690	1698	1706	1715	1723	1732	1732	1732	1750	1750	1759	1759	1768	1768	1768	1786	1795	1814	1814	1814	1824	1833	1833	1843	1843	1853	1853	1873	1873	1873	1883	1894	1904	1915	1925	1936	1936	1947	1958	1958	1958	1969	1969	2003	2015	2003	2027	2027	2027	2051	2063	2076	2088	2088	2114	2127	2127	2127	2127	2140	2140	2153	2153	2153	2167	2181	2194	2208	2208	2223	2223	2223	2237	2237	2496	2478	2478	2478	2460	2460	2460	2478	2478	2478	2496	2496	2496	2496	2496	2496	2496	2478	2478	2496	2496	2496	2496	2496	2496	2496	3621	3621	3583	3583	3546	3546	3546	3546	3510	3510	3510	3510	3510	3510	3510	3510	3510	3510	3510	3510	3510	3510	3510	3510	3510	3510	3475	3510	3510	3475	3510	3510	3510	3510	3510	3510	3510	3510	3475	3475	3475	3475	3475	3510	3510	3510	3510	3510	3475	3475	3475	3475	3475	3475	3475	3546	3583	3583	3583	3583	3583	3583	3583	3546	3583	3583	3583	3583	3583	3583	3621	3621	3583	3583	3583	3583	3583	3583	3583	3583	3583	3583	3583	3583	3583	3583	3583	3546	3583	3546	3546	2917	2917	2917	2917	2917	2917	2917	2917	2893	2893	2869	2869	2845	2845	2845	2845	2845	2845	2845	2845	2845	2869	2869	2869	2869	2893	2893	2893	2893	2893	2893	2917	2917	2917	2942	2942	2942	2942	2942	2967	2967	2967	2967	2942	2942	2942	2942	2942	2942	2942	2942	2942	2917	2917	2917	2917	2893	2917	2917	2917	2917	2917	2917	2917	2917	2942	2942	2942	2942	2942	2942	2942	2967	3659	3659	3621	3583	3583	3583	3583	3583	3583	3583	3583	3583	3583	3583	3583	3583	3583	3583	3583	3583	3583	3583	3583	3583	3583	3546	3583	3583	3583	3583	3583	3621	3583	3621	3621	3621	3621	3621	3621	3621	3621	3621	3621	3583	3583	3583	3583	3583	3583	3583	3583	3583	3583	3583	3583	3583	3583	3583	3583	3583	3621	3583	3583	3583	3583	3583	3583	3583	3583	3546	3583	3583	3583	3583	3583	3583	3583	3583	3583	3583	3583	3583	3583	3583	3583	3583	3583	3583	3583	3583	3583	3583	3583	3583	3583	3583	3583	3583	3583	3583	3621	3621	3621	3621	3621	3621	3621	3621	3621	3621	3621	3621	3621	3621	3621	3621	3621	3621	3621	3621	3621	3621	3621	3621	3621	3583	3583	3546	3583	3583	3583	3583	3583	3583	3583	3583	3546	3546	3546	3546	3546	3583	3583	3583	3621	3583	3583	3583	3546	3546	3546	3510	3546	3546	3546	3546	3583	3546	3546	3546	3546	3546	3546	3546	3546	3546	3546	3546	3546	3546	3546	3546	3546	3546	3583	3583	3621	3583	3583	0	2237	2237	2237	2223	2208	2167	2153	2140	2140	2127	2114	2088	2076	2051	2039	2039	2027	2015	2015	2003	1992	1980	1969	1947	1936	1936	1925	1904	1894	1894	1883	1873	1853	1843	1833	1824	1814	1814	1814	0	0	0	0	0	0	0	0	0	0	0	0	0	0	0	0	0	0	0	0	0	0	0	0	0	0	0	0	0	0	0	0	0	0	0	0	0	0	0	0	0	0	0	0	0	0	0	0	0	0	0	0	0	0	0	0	0	0	0	0	0	0	0	0	0	0	0	0	0	0	0	0	0	0	0	0	0	0	0	0	0	0	0	0	0	0	0	0	0	0	0	0	0	0	0	0	0	0	0	0	0	0	0	0	0	0	0	0	0	0	0	0	0	0	0	0	0	0	0	0	0	0	0	0	0	0	0	0	0	0	0	0
0	0	0	0	0	0	0	0	0	0	0	0	0	1641	1641	1657	1657	1657	1657	1665	1673	1681	1681	1690	1690	1690	1698	1698	1715	1723	1732	1732	1732	1741	1750	1759	1759	1759	1768	1768	1786	1795	1795	1814	1814	1824	1833	1843	1843	1853	1853	1863	1873	1873	1873	1873	1883	1894	1894	1915	1925	1936	1947	1958	1958	1958	1969	1980	2003	2003	2003	2015	2027	2027	2051	2063	2063	2076	2088	2101	2114	2127	2127	2140	2153	2153	2153	2153	2167	2181	2181	2208	2208	2223	2223	2223	2237	2237	2237	2252	2266	2478	2460	2409	2460	2460	2460	2478	2478	2478	2496	2496	2496	2496	2496	2478	2478	2478	2496	2496	2496	2496	2496	2532	2532	0	3621	3583	3546	3546	3546	3546	3546	3510	3510	3510	3510	3510	3510	3546	3510	3510	3510	3510	3510	3510	3510	3510	3510	3510	3510	3510	3510	3510	3510	3510	3510	3510	3510	3510	3475	3475	3475	3475	3475	3475	3475	3475	3510	3510	3510	3510	3510	3475	3510	3510	3510	3510	3475	3510	3546	3621	3621	3583	3583	3583	3546	3546	3546	3546	3546	3546	3546	3583	3583	3583	3583	3583	3583	3583	3546	3583	3583	3546	3546	3583	3583	3583	3583	3583	3583	3583	3583	3546	3546	3546	3510	3510	2917	2917	2917	2917	2917	2917	2917	2893	2869	2869	2845	2845	2845	2845	2845	2845	2845	2845	2869	2845	2869	2869	2869	2893	2893	2893	2893	2893	2893	2917	2917	2917	2942	2942	2942	2967	2967	2967	2967	2967	2967	2942	2942	2942	2942	2942	2942	2942	2942	2942	2917	2917	2917	2917	2893	2893	2917	2917	2917	2917	2917	2917	2917	2942	2942	2942	2942	2942	2942	2942	2942	3621	3621	3583	3583	3583	3583	3583	3583	3621	3583	3621	3583	3583	3583	3583	3583	3583	3583	3583	3583	3583	3583	3583	3583	3583	3546	3583	3583	3583	3621	3583	3621	3621	3621	3621	3621	3621	3621	3621	3621	3583	3583	3583	3583	3583	3583	3583	3583	3583	3583	3583	3583	3583	3583	3583	3583	3583	3621	3583	3583	3621	3583	3583	3583	3583	3583	3583	3583	3546	3546	3546	3583	3583	3583	3583	3583	3583	3583	3583	3583	3583	3583	3583	3583	3583	3583	3583	3583	3583	3583	3583	3583	3583	3583	3583	3583	3583	3583	3583	3583	3621	3621	3621	3621	3621	3621	3621	3621	3621	3621	3621	3621	3621	3621	3621	3621	3621	3621	3621	3621	3621	3621	3621	3621	3621	3583	3583	3583	3583	3583	3583	3583	3583	3583	3583	3583	3546	3546	3546	3546	3583	3583	3583	3583	3583	3583	3583	3546	3546	3546	3546	3546	3546	3546	3546	3546	3546	3583	3546	3546	3546	3546	3546	3546	3546	3546	3546	3546	3546	3546	3546	3546	3546	3546	3546	3583	3583	3583	3583	0	2237	2237	2237	2223	2194	2167	2153	2140	2140	2127	2114	2088	2076	2051	2039	2039	2027	2015	2003	2003	1992	1980	1969	1947	1936	1936	1925	1915	1904	1894	1883	1873	1853	1843	1833	1824	1814	1814	1814	0	0	0	0	0	0	0	0	0	0	0	0	0	0	0	0	0	0	0	0	0	0	0	0	0	0	0	0	0	0	0	0	0	0	0	0	0	0	0	0	0	0	0	0	0	0	0	0	0	0	0	0	0	0	0	0	0	0	0	0	0	0	0	0	0	0	0	0	0	0	0	0	0	0	0	0	0	0	0	0	0	0	0	0	0	0	0	0	0	0	0	0	0	0	0	0	0	0	0	0	0	0	0	0	0	0	0	0	0	0	0	0	0	0	0	0	0	0	0	0	0	0	0	0	0	0	0	0	0	0	0	0
0	0	0	0	0	0	0	0	0	0	0	0	0	1641	1649	1657	1657	1657	1665	1665	1673	1681	1681	1681	1690	1690	1698	1706	1715	1715	1723	1732	1732	1741	1750	1750	1759	1759	1759	1768	1768	1795	1804	1814	1824	1824	1833	1843	1843	1853	1863	1873	1873	1873	1873	1873	1883	1894	1904	1915	1925	1936	1947	1947	1958	1958	1969	1969	1980	1992	2003	2015	2015	2027	2039	2051	2063	2076	2088	2101	2127	2127	2140	2140	2153	2153	2153	2153	2167	2167	2194	2208	2223	2223	2223	2237	2237	2237	2252	2252	2266	2281	2312	2327	2359	2359	2359	2460	2478	2478	2478	2496	2478	2478	2478	2478	2478	2478	2496	2496	2496	2496	2496	2496	2532	2532	3583	3583	3546	3546	3546	3546	3546	3510	3510	3510	3510	3510	3510	3546	3546	3510	3510	3510	3510	3510	3510	3510	3510	3510	3510	3510	3510	3510	3510	3510	3510	3510	3510	3510	3475	3475	3475	3475	3475	3475	3475	3475	3475	3510	3510	3510	3510	3510	3510	3510	3510	3510	3510	3546	3546	3621	3621	3583	3583	3583	3583	3546	3546	3546	3546	3546	3546	3583	3583	3583	3583	3583	3583	3583	3583	3583	3583	3546	3546	3546	3583	3583	3583	3583	3583	3583	3583	3546	3546	3546	3546	3546	3583	2917	2917	2917	2917	2917	2917	2893	2869	2869	2869	2845	2845	2845	2845	2845	2845	2845	2845	2845	2845	2845	2845	2893	2893	2893	2893	2893	2917	2917	2917	2942	2942	2942	2967	2967	2967	2967	2967	2967	2967	2942	2942	2942	2942	2942	2942	2942	2942	2942	2917	2917	2917	2893	2893	2917	2917	2917	2917	2917	2917	2917	2917	2917	2942	2942	2942	2942	2942	2993	2993	3621	3583	3583	3583	3583	3583	3583	3583	3583	3583	3583	3583	3583	3583	3583	3583	3583	3583	3583	3583	3583	3583	3583	3583	3583	3546	3583	3583	3583	3583	3583	3583	3583	3621	3621	3621	3583	3583	3583	3583	3583	3583	3583	3583	3583	3583	3583	3583	3583	3583	3583	3546	3583	3583	3583	3583	3583	3583	3583	3583	3621	3583	3583	3583	3583	3583	3583	3583	3546	3546	3583	3583	3583	3583	3583	3583	3583	3583	3583	3583	3583	3583	3583	3583	3583	3583	3583	3583	3583	3583	3583	3583	3583	3583	3583	3583	3583	3583	3583	3583	3583	3621	3621	3621	3621	3621	3621	3621	3621	3621	3621	3621	3621	3621	3621	3621	3621	3621	3583	3621	3621	3583	3583	3621	3621	3583	3583	3583	3583	3583	3583	3583	3583	3583	3583	3583	3546	3546	3546	3583	3583	3583	3583	3583	3583	3583	3583	3546	3546	3546	3546	3546	3546	3546	3583	3583	3583	3583	3583	3546	3546	3546	3546	3546	3546	3546	3546	3546	3546	3546	3546	3546	3510	3546	3546	3546	3546	3546	3546	0	0	2237	2237	2208	2194	2181	2167	2153	2140	2127	2114	2088	2076	2063	2051	2039	2027	2015	2003	2003	1992	1980	1969	1958	1947	1925	1925	1915	1904	1894	1883	1873	1853	1843	1833	1824	1814	1804	1804	0	0	0	0	0	0	0	0	0	0	0	0	0	0	0	0	0	0	0	0	0	0	0	0	0	0	0	0	0	0	0	0	0	0	0	0	0	0	0	0	0	0	0	0	0	0	0	0	0	0	0	0	0	0	0	0	0	0	0	0	0	0	0	0	0	0	0	0	0	0	0	0	0	0	0	0	0	0	0	0	0	0	0	0	0	0	0	0	0	0	0	0	0	0	0	0	0	0	0	0	0	0	0	0	0	0	0	0	0	0	0	0	0	0	0	0	0	0	0	0	0	0	0	0	0	0	0	0	0	0	0	0
0	0	0	0	0	0	0	0	0	0	0	0	0	1641	1649	1657	1649	1657	1665	1673	1673	1681	1681	1681	1690	1690	1698	1698	1706	1715	1723	1732	1732	1732	1741	1741	1759	1759	1768	1768	1777	1795	1804	1814	1824	1824	1833	1843	1843	1853	1863	1873	1873	1873	1873	1873	1883	1904	1915	1925	1936	1947	1947	1958	1958	1958	1969	1969	1980	1992	2003	2015	2015	2027	2039	2051	2063	2063	2076	2101	2114	2127	2127	2140	2153	2153	2153	2167	2167	2181	2194	2223	2223	2223	2237	2237	2252	2252	2252	2266	2266	2281	2312	2327	2327	2327	2359	2359	2460	2478	2460	2478	2478	2478	2478	2478	2478	2478	2496	2496	2496	2496	2514	2496	2532	2532	3621	3546	3546	3510	3510	3510	3510	3510	3510	3510	3510	3510	3510	3510	3510	3510	3510	3510	3510	3510	3510	3510	3510	3510	3510	3510	3510	3510	3510	3510	3510	3510	3510	3475	3475	3475	3475	3475	3475	3475	3475	3475	3510	3510	3510	3510	3510	3510	3510	3546	3510	3546	3546	3546	3583	3621	3621	3583	3583	3546	3546	3546	3546	3546	3546	3546	3546	3546	3583	3583	3583	3583	3583	3583	3546	3583	3546	3546	3546	3546	3546	3546	3546	3546	3546	3546	3583	3546	3546	3546	3546	3546	3583	2917	2917	2917	2917	2917	2917	2893	2869	2869	2869	2845	2845	2845	2845	2845	2845	2845	2845	2845	2845	2845	2845	2893	2893	2893	2893	2893	2917	2917	2942	2942	2942	2942	2967	2967	2967	2967	2967	2967	2967	2942	2942	2942	2942	2942	2942	2942	2917	2917	2917	2917	2917	2917	2917	2917	2917	2917	2917	2917	2917	2917	2917	2942	2942	2967	2967	2967	2967	3019	3019	3621	3583	3583	3583	3583	3583	3583	3583	3583	3583	3583	3583	3583	3583	3583	3583	3583	3583	3583	3583	3583	3583	3583	3583	3583	3583	3583	3583	3583	3583	3583	3583	3583	3621	3621	3583	3583	3583	3583	3583	3583	3583	3583	3583	3583	3583	3583	3546	3583	3583	3583	3546	3583	3583	3583	3583	3583	3583	3583	3583	3583	3583	3583	3583	3583	3583	3583	3583	3583	3546	3546	3583	3583	3583	3583	3583	3583	3583	3583	3583	3583	3583	3583	3583	3583	3583	3583	3583	3583	3583	3583	3583	3583	3583	3546	3546	3583	3583	3583	3583	3583	3583	3621	3621	3583	3583	3621	3621	3621	3621	3621	3621	3621	3621	3621	3621	3621	3583	3583	3621	3621	3621	3621	3621	3621	3621	3621	3583	3583	3583	3583	3583	3583	3583	3583	3583	3546	3546	3546	3583	3546	3583	3583	3583	3583	3546	3546	3546	3546	3546	3546	3546	3546	3546	3546	3546	3546	3546	3546	3546	3546	3546	3546	3546	3546	3546	3546	3546	3546	3546	3546	3546	3510	3510	3546	3546	3510	3510	3510	0	0	2237	2237	2223	2194	2181	2167	2153	2140	2127	2114	2088	2076	2063	2051	2039	2027	2015	2015	2003	1992	1980	1969	1947	1936	1925	1925	1915	1904	1894	1873	1863	1853	1843	1843	1824	1814	1804	1804	0	0	0	0	0	0	0	0	0	0	0	0	0	0	0	0	0	0	0	0	0	0	0	0	0	0	0	0	0	0	0	0	0	0	0	0	0	0	0	0	0	0	0	0	0	0	0	0	0	0	0	0	0	0	0	0	0	0	0	0	0	0	0	0	0	0	0	0	0	0	0	0	0	0	0	0	0	0	0	0	0	0	0	0	0	0	0	0	0	0	0	0	0	0	0	0	0	0	0	0	0	0	0	0	0	0	0	0	0	0	0	0	0	0	0	0	0	0	0	0	0	0	0	0	0	0	0	0	0	0	0	0
0	0	0	0	0	0	0	0	0	0	0	0	0	1649	1657	1657	1657	1665	1665	1673	1673	1681	1681	1681	1690	1690	1698	1698	1706	1715	1715	1732	1732	1741	1741	1750	1759	1759	1768	1768	1777	1795	1804	1814	1814	1824	1824	1843	1843	1853	1863	1873	1873	1883	1873	1883	1883	1904	1915	1925	1925	1936	1947	1947	1958	1958	1969	1969	1980	1992	2003	2003	2015	2015	2039	2051	2063	2063	2076	2076	2101	2114	2127	2140	2140	2153	2167	2167	2167	2181	2181	2208	2223	2223	2237	2237	2281	2281	2281	2281	2297	2297	2312	2327	2327	2327	2343	2376	2392	2460	2443	2460	2460	2460	2460	2478	2478	2478	2496	2496	2496	2514	2514	2514	2514	3546	3583	3546	3546	3546	3546	3546	3546	3510	3510	3510	3510	3510	3510	3510	3510	3510	3510	3510	3510	3510	3510	3510	3510	3510	3510	3510	3510	3510	3510	3510	3510	3510	3510	3475	3475	3475	3475	3475	3475	3475	3475	3475	3510	3510	3510	3546	3546	3510	3510	3546	3546	3546	3546	3546	3546	3583	3583	3546	3546	3546	3546	3546	3546	3546	3546	3546	3546	3546	3546	3583	3583	3583	3583	3583	3546	3546	3546	3546	3546	3546	3546	3546	3546	3546	3546	3546	3546	3546	3546	3546	3546	3583	3583	3659	2917	2917	2917	2917	2917	2893	2893	2869	2869	2845	2869	2845	2845	2845	2845	2845	2845	2845	2845	2845	2845	2869	2893	2893	2893	2893	2917	2917	2942	2942	2942	2942	2967	2967	2967	2967	2967	2993	2967	2942	2942	2942	2942	2942	2942	2917	2917	2917	2917	2917	2917	2917	2917	2917	2917	2942	2942	2917	2917	2942	2942	2942	2942	2967	2967	2967	2967	2967	3621	3621	3583	3583	3583	3583	3583	3583	3583	3583	3583	3583	3583	3583	3583	3546	3583	3583	3546	3583	3583	3583	3583	3583	3583	3583	3583	3621	3583	3583	3583	3583	3583	3583	3621	3621	3583	3583	3583	3583	3583	3583	3583	3583	3583	3583	3583	3583	3583	3583	3583	3583	3546	3583	3583	3583	3583	3583	3583	3583	3583	3583	3583	3583	3583	3583	3583	3583	3583	3583	3546	3546	3583	3583	3583	3583	3583	3583	3583	3583	3583	3583	3583	3583	3583	3583	3583	3583	3583	3583	3583	3583	3583	3583	3546	3546	3546	3546	3546	3546	3546	3583	3583	3583	3583	3583	3583	3621	3621	3621	3621	3621	3621	3621	3621	3621	3621	3583	3583	3583	3621	3621	3621	3621	3621	3621	3621	3583	3583	3583	3583	3583	3583	3583	3583	3583	3583	3546	3546	3546	3546	3546	3546	3546	3546	3546	3546	3546	3546	3546	3546	3546	3546	3546	3546	3546	3546	3546	3546	3546	3546	3546	3546	3546	3546	3546	3546	3546	3546	3546	3546	3546	3546	3510	3510	3546	3510	3510	3510	3510	0	0	2237	2237	2223	2194	2181	2167	2153	2140	2127	2114	2101	2076	2063	2051	2039	2027	2027	2015	2003	1992	1980	1969	1947	1936	1925	1925	1915	1904	1894	1873	1863	1853	1843	1843	1833	1824	1814	1814	1814	0	0	0	0	0	0	0	0	0	0	0	0	0	0	0	0	0	0	0	0	0	0	0	0	0	0	0	0	0	0	0	0	0	0	0	0	0	0	0	0	0	0	0	0	0	0	0	0	0	0	0	0	0	0	0	0	0	0	0	0	0	0	0	0	0	0	0	0	0	0	0	0	0	0	0	0	0	0	0	0	0	0	0	0	0	0	0	0	0	0	0	0	0	0	0	0	0	0	0	0	0	0	0	0	0	0	0	0	0	0	0	0	0	0	0	0	0	0	0	0	0	0	0	0	0	0	0	0	0	0	0
0	0	0	0	0	0	0	0	0	0	0	0	0	1641	1649	1657	1657	1665	1665	1673	1673	1673	1673	1681	1681	1690	1698	1706	1715	1723	1732	1732	1741	1741	1750	1759	1759	1768	1768	1768	1777	1786	1795	1804	1814	1814	1824	1833	1843	1863	1863	1873	1883	1883	1873	1883	1883	1904	1915	1925	1925	1936	1947	1947	1947	1958	1969	1969	1980	1992	1992	2003	2015	2015	2027	2051	2063	2063	2076	2076	2101	2114	2127	2127	2140	2153	2153	2153	2167	2167	2167	2208	2223	2237	2252	2266	2281	2281	2266	2266	2281	2297	2312	2327	2327	2343	2343	2359	2376	2409	2409	2426	2426	2443	2443	2460	2460	2478	2496	2496	2496	2514	2514	2514	3510	3510	3510	3510	3510	3510	3510	3546	3546	3510	3510	3510	3510	3510	3510	3510	3510	3510	3510	3510	3510	3510	3510	3510	3510	3510	3510	3510	3510	3510	3510	3546	3510	3510	3510	3475	3475	3475	3475	3475	3475	3475	3475	3475	3510	3510	3510	3510	3510	3510	3510	3546	3546	3546	3546	3546	3546	3583	3583	3546	3546	3546	3546	3546	3546	3546	3546	3546	3546	3546	3546	3546	3546	3546	3546	3546	3546	3546	3546	3546	3546	3546	3546	3546	3546	3546	3546	3546	3546	3546	3546	3546	3546	3546	3546	3621	2917	2917	2942	2917	2917	2917	2893	2869	2869	2869	2869	2845	2845	2845	2845	2845	2845	2845	2845	2845	2845	2869	2893	2893	2893	2917	2917	2917	2942	2942	2942	2942	2967	2967	2967	2967	2967	2993	2967	2942	2942	2942	2942	2942	2942	2917	2917	2917	2917	2893	2893	2917	2917	2917	2942	2942	2942	2942	2942	2942	2942	2942	2942	2967	2967	2967	2967	2967	3621	3621	3583	3583	3583	3583	3583	3583	3583	3583	3583	3583	3583	3583	3546	3546	3583	3583	3546	3583	3583	3583	3583	3583	3583	3546	3546	3583	3583	3583	3583	3583	3583	3583	3583	3583	3583	3583	3583	3583	3583	3583	3583	3583	3583	3583	3583	3583	3583	3583	3583	3583	3583	3583	3583	3583	3583	3583	3583	3546	3583	3583	3583	3583	3583	3583	3583	3583	3583	3583	3546	3546	3546	3546	3546	3583	3583	3583	3583	3583	3583	3583	3583	3546	3583	3546	3546	3546	3546	3546	3546	3546	3546	3546	3546	3546	3546	3546	3546	3546	3546	3583	3583	3583	3583	3583	3583	3621	3621	3621	3621	3621	3621	3621	3621	3621	3583	3583	3583	3583	3583	3583	3583	3583	3621	3621	3583	3583	3583	3583	3583	3583	3583	3583	3583	3583	3583	3546	3546	3546	3546	3546	3546	3546	3546	3546	3546	3546	3546	3546	3546	3546	3546	3546	3546	3546	3546	3546	3546	3546	3546	3546	3546	3546	3546	3546	3546	3546	3546	3546	3546	3510	3510	3510	3510	3546	3510	3510	3510	3510	0	0	2237	2223	2194	2194	2181	2153	2153	2140	2127	2114	2101	2076	2063	2051	2039	2027	2027	2015	2003	1992	1980	1969	1947	1936	1925	1915	1904	1904	1883	1873	1863	1853	1853	1843	1833	1824	1814	1814	1814	0	0	0	0	0	0	0	0	0	0	0	0	0	0	0	0	0	0	0	0	0	0	0	0	0	0	0	0	0	0	0	0	0	0	0	0	0	0	0	0	0	0	0	0	0	0	0	0	0	0	0	0	0	0	0	0	0	0	0	0	0	0	0	0	0	0	0	0	0	0	0	0	0	0	0	0	0	0	0	0	0	0	0	0	0	0	0	0	0	0	0	0	0	0	0	0	0	0	0	0	0	0	0	0	0	0	0	0	0	0	0	0	0	0	0	0	0	0	0	0	0	0	0	0	0	0	0	0	0	0	0
0	0	0	0	0	0	0	0	0	0	0	0	0	1634	1657	1657	1649	1649	1665	1665	1673	1673	1673	1681	1690	1690	1698	1706	1715	1723	1732	1732	1741	1741	1750	1759	1759	1768	1768	1777	1777	1786	1795	1804	1814	1824	1824	1833	1843	1863	1863	1863	1873	1883	1873	1883	1894	1904	1915	1915	1925	1936	1947	1947	1947	1958	1969	1969	1980	1980	1992	2003	2015	2015	2039	2051	2051	2063	2063	2063	2076	2101	2114	2127	2127	2140	2153	2153	2153	2167	2181	2194	2223	2237	2252	2266	2281	2281	2281	2281	2281	2297	2312	2327	2327	2343	2359	2376	2392	2409	2409	2409	2426	2426	2426	2443	2460	2478	2496	2496	2496	2514	2514	2514	3475	3475	3510	3510	3510	3510	3510	3510	3546	3510	3510	3510	3510	3510	3510	3510	3510	3510	3510	3510	3510	3510	3510	3510	3510	3510	3510	3546	3510	3510	3510	3510	3510	3510	3510	3475	3475	3475	3475	3475	3475	3475	3475	3475	3510	3510	3510	3510	3510	3510	3510	3546	3546	3546	3546	3546	3546	3583	3583	3546	3546	3546	3546	3546	3546	3546	3546	3546	3546	3546	3546	3546	3546	3583	3546	3546	3546	3546	3546	3546	3546	3546	3546	3546	3546	3546	3546	3546	3546	3546	3546	3546	3546	3546	3546	3621	2893	2917	2917	2917	2917	2917	2893	2893	2869	2869	2869	2845	2845	2845	2845	2845	2845	2845	2845	2845	2845	2869	2893	2893	2893	2917	2917	2942	2942	2942	2942	2942	2967	2967	2967	2967	2967	2967	2967	2942	2942	2942	2942	2942	2942	2917	2917	2917	2917	2917	2917	2917	2917	2917	2942	2942	2942	2942	2942	2942	2942	2942	2942	2967	2967	2967	2967	3621	3583	3583	3583	3583	3583	3583	3583	3583	3583	3583	3583	3583	3583	3583	3546	3546	3546	3583	3546	3583	3546	3583	3583	3583	3583	3546	3546	3583	3583	3583	3583	3583	3583	3583	3583	3583	3583	3583	3583	3583	3583	3583	3583	3583	3583	3583	3583	3583	3583	3583	3583	3583	3583	3583	3583	3583	3583	3583	3583	3583	3583	3583	3583	3583	3583	3583	3583	3583	3583	3546	3546	3546	3546	3546	3583	3583	3583	3583	3583	3583	3583	3583	3583	3546	3583	3546	3546	3546	3546	3546	3546	3546	3546	3546	3546	3546	3546	3546	3546	3546	3546	3583	3583	3583	3583	3583	3583	3621	3621	3621	3621	3621	3583	3583	3583	3583	3583	3583	3583	3583	3583	3583	3583	3583	3583	3583	3583	3583	3583	3583	3583	3583	3583	3583	3583	3583	3583	3583	3583	3546	3546	3546	3546	3546	3546	3546	3546	3546	3546	3546	3546	3546	3546	3546	3546	3546	3546	3546	3546	3546	3546	3546	3546	3546	3546	3546	3546	3546	3546	3546	3546	3510	3510	3510	3510	3546	3546	3510	3510	3510	3510	0	0	2208	2208	2181	2181	2167	2153	2140	2127	2114	2114	2076	2063	2051	2039	2027	2027	2015	2003	1992	1980	1969	1947	1936	1925	1915	1904	1904	1883	1873	1873	1853	1843	1843	1833	1824	1814	1804	1804	0	0	0	0	0	0	0	0	0	0	0	0	0	0	0	0	0	0	0	0	0	0	0	0	0	0	0	0	0	0	0	0	0	0	0	0	0	0	0	0	0	0	0	0	0	0	0	0	0	0	0	0	0	0	0	0	0	0	0	0	0	0	0	0	0	0	0	0	0	0	0	0	0	0	0	0	0	0	0	0	0	0	0	0	0	0	0	0	0	0	0	0	0	0	0	0	0	0	0	0	0	0	0	0	0	0	0	0	0	0	0	0	0	0	0	0	0	0	0	0	0	0	0	0	0	0	0	0	0	0	0
