0	0	0	0	0	0	0	0	0	0	0	0	0	1665	1665	1657	1657	1665	1681	1681	1681	1690	1690	1698	1706	1715	1715	1723	1723	1732	1732	1723	1723	1723	2514	2532	2570	2570	2551	2532	2532	2514	2514	2514	2514	2514	2496	2496	2496	2496	2496	2496	2478	2478	2496	2496	2496	2496	2496	2496	2496	2496	2496	2478	2478	2496	2496	2496	2478	2496	2496	2496	2478	2478	2478	2514	2514	2496	2514	2496	2496	2514	2514	2514	2514	2496	2532	2496	2496	2532	2514	2514	2514	2514	2514	2514	2514	2496	2514	2514	2514	2514	2514	2514	2532	2532	2532	2532	2532	2532	2532	2532	2532	2532	2532	2514	2514	2514	2514	2532	2532	2532	2532	2551	2551	2570	2570	2570	3341	3341	3309	3341	3341	3309	3309	3309	3277	3277	3246	3246	3277	3246	3277	3277	3309	3277	3277	3277	3277	3216	3216	3216	3309	3309	3341	3341	3341	3309	3309	3309	3309	3341	3341	3373	3373	3373	3406	3440	3440	3475	3510	3510	3546	3546	3546	3546	3546	3546	3546	3546	3546	3583	3583	3621	3621	3621	3583	3621	3621	3621	3621	3621	3621	3621	3621	3659	3621	3659	3659	3621	3659	3659	3129	3129	3157	3129	3129	3101	3101	3101	3073	3073	3101	0	0	0	0	3046	3046	3046	3046	3046	3046	3046	3046	3046	3046	3046	3046	3019	3019	3019	3019	3019	3019	3019	3019	3046	3046	3046	3046	3046	3046	3046	3046	3019	3019	3019	3019	3019	3046	3019	3019	3019	3046	3046	3046	3046	3046	3046	3046	3046	3046	3046	3073	3073	3073	3073	3073	3073	3101	3101	3101	3101	3101	3101	3101	3129	3129	3101	3129	3101	3101	0	0	0	0	0	3157	3129	3129	3129	3157	3129	3101	3101	3101	3101	3101	3621	3621	3621	3621	3583	3583	3583	3583	3621	3621	3621	3621	3621	3621	3621	3621	3659	3659	3659	3659	3621	3621	3621	3621	3621	3621	3621	3621	3621	3621	3621	3621	3621	3621	3621	3621	3621	3621	3583	3583	3583	3621	3621	3621	3621	3621	3621	3621	3621	3621	3621	3621	3621	3621	3621	3621	3621	3621	3621	3583	3583	3583	3583	3583	3621	3621	3621	3621	3621	3621	3621	3621	3583	3621	3621	3621	3621	3621	3621	3621	3621	3621	3621	3583	3621	3583	3583	3583	3583	3583	3583	3583	3621	3659	3659	3621	3621	3621	3621	3621	3621	3621	3621	3621	3621	3621	3621	3621	3621	3621	3621	3621	3659	3621	3659	3659	3621	3621	3621	3621	3621	3621	3621	3621	3621	3621	3621	3621	3621	3621	3583	3583	3583	3583	3583	3583	3583	3583	3583	3621	3621	3621	3621	3621	3621	3621	3621	3621	3621	3621	3621	3621	3583	3583	3583	3583	3583	3583	3583	3583	3546	3546	3583	0	0	0	2223	2223	2237	2223	2223	2208	2194	2194	2194	2181	2167	2140	2140	2127	2101	2088	2076	2063	2051	2027	2027	2015	1992	1992	1980	1969	1958	1947	1925	1915	1904	1894	1894	1883	1873	1863	1853	1843	1843	1843	0	0	0	0	0	0	0	0	0	0	0	0	0	0	0	0	0	0	0	0	0	0	0	0	0	0	0	0	0	0	0	0	0	0	0	0	0	0	0	0	0	0	0	0	0	0	0	0	0	0	0	0	0	0	0	0	0	0	0	0	0	0	0	0	0	0	0	0	0	0	0	0	0	0	0	0	0	0	0	0	0	0	0	0	0	0	0	0	0	0	0	0	0	0	0	0	0	0	0	0	0	0	0	0	0	0	0	0	0	0	0	0	0	0	0	0	0	0	0	0	0	0	0	0	0	0	0	0	0	0	0	0	0	0	0
0	0	0	0	0	0	0	0	0	0	0	0	0	1673	1673	1681	1681	1681	1690	1690	1690	1690	1690	1698	1706	1715	1715	1723	1723	1732	1723	1723	1723	1723	1723	0	2570	2609	2589	2551	2551	2514	2532	2514	2514	2514	2514	2496	2496	2496	2496	2496	2496	2496	2496	2496	2496	2496	2496	2496	2496	2496	2496	2478	2478	2496	2496	2478	2478	2478	2478	2478	2496	2478	2478	2478	2496	2496	2496	2496	2496	2514	2514	2514	2514	2496	2514	2496	2496	2514	2514	2514	2514	2496	2496	2496	2496	2496	2514	2514	2514	2532	2532	2514	2514	2532	2532	2514	2532	2532	2514	2532	2532	2532	2532	2532	2514	2514	2532	2532	2532	2532	2532	2551	2551	2570	2570	2570	3341	3341	3341	3341	3341	3341	3309	3309	3309	3341	3341	3373	3373	3341	3309	3309	3341	3309	3309	3309	3309	3309	3309	3309	3309	3341	3341	3341	3341	3341	3341	3341	3309	3341	3341	3373	3373	3373	3406	3440	3440	3440	3475	3510	3510	3510	3546	3546	3546	3546	3546	3546	3546	3583	3583	3583	3621	3621	3583	3621	3621	3659	3621	3621	3621	3621	3621	3659	3621	3659	3621	3621	3659	3659	3659	3129	3129	3129	3129	3101	3073	3073	3019	3019	0	0	0	0	0	0	3046	3046	3046	3046	3046	3046	3046	3046	3019	3019	3019	3019	3019	3019	3019	3019	3019	3019	3019	3046	3046	3046	3046	3046	3046	3046	3046	3019	3019	3019	3019	3019	3046	3019	3019	3019	3019	3046	3019	3019	3046	3046	3046	3046	3046	3046	3046	3073	3073	3073	3073	3073	3073	3073	3073	3101	3129	3129	3129	3129	3129	3129	3129	3101	3101	0	0	0	0	0	3157	3129	3157	3129	3129	3129	3101	3101	3129	3129	3129	3621	3621	3621	3621	3583	3583	3583	3583	3583	3583	3583	3583	3583	3583	3583	3621	3659	3659	3659	3659	3621	3621	3621	3621	3583	3583	3621	3621	3621	3621	3659	3621	3621	3621	3621	3621	3621	3621	3583	3583	3583	3621	3621	3621	3621	3621	3621	3621	3621	3621	3621	3621	3621	3621	3621	3621	3621	3621	3621	3583	3621	3583	3583	3583	3583	3583	3583	3583	3583	3583	3583	3621	3583	3621	3621	3621	3621	3621	3621	3621	3621	3621	3621	3621	3583	3583	3583	3583	3583	3583	3583	3583	3621	3659	3659	3659	3659	3621	3659	3621	3621	3621	3621	3621	3621	3621	3621	3621	3621	3621	3621	3621	3659	3621	3659	3659	3621	3621	3621	3621	3621	3621	3621	3621	3621	3621	3621	3621	3621	3621	3621	3583	3583	3583	3583	3583	3583	3583	3621	3621	3621	3621	3621	3621	3621	3621	3621	3583	3621	3621	3621	3583	3583	3583	3583	3583	3583	3583	3546	3546	3546	3546	3546	0	0	0	0	2223	2237	2223	2223	2208	2194	2194	2194	2181	2167	2140	2140	2127	2101	2088	2076	2063	2051	2039	2027	2015	2003	1992	1980	1969	1958	1947	1925	1915	1904	1894	1883	1883	1873	1863	1853	1843	1843	0	0	0	0	0	0	0	0	0	0	0	0	0	0	0	0	0	0	0	0	0	0	0	0	0	0	0	0	0	0	0	0	0	0	0	0	0	0	0	0	0	0	0	0	0	0	0	0	0	0	0	0	0	0	0	0	0	0	0	0	0	0	0	0	0	0	0	0	0	0	0	0	0	0	0	0	0	0	0	0	0	0	0	0	0	0	0	0	0	0	0	0	0	0	0	0	0	0	0	0	0	0	0	0	0	0	0	0	0	0	0	0	0	0	0	0	0	0	0	0	0	0	0	0	0	0	0	0	0	0	0	0	0	0	0	0
0	0	0	0	0	0	0	0	0	0	0	0	0	1673	1673	1681	1681	1690	1690	1690	1690	1690	1690	1698	1698	1715	1715	1723	1723	1723	1723	1723	1723	1732	1741	1732	1732	1759	1759	2551	2551	2514	2514	2514	2514	2514	2514	2496	2496	2496	2496	2496	2478	2478	2496	2514	2532	2514	2496	2496	2496	2496	2496	2478	2478	2478	2496	2478	2478	2478	2478	2478	2478	2478	2478	2496	2514	2496	2496	2496	2496	2514	2514	2514	2496	2514	2496	2496	2496	2514	2514	2514	2514	2496	2496	2496	2496	2496	2514	2514	2532	2532	2532	2532	2532	2532	2532	2514	2532	2532	2532	2532	2532	2532	2532	2532	2514	2532	2532	2551	2551	2532	2532	2532	2551	2570	2570	3373	3373	3373	3373	3373	3373	3341	3341	3341	3341	3373	3373	3406	3406	3373	3341	3341	3341	3373	3341	3341	3341	3341	3341	3341	3341	3341	3341	3341	3341	3341	3341	3341	3309	3341	3373	3373	3373	3373	3406	3440	3440	3440	3475	3510	3510	3510	3546	3546	3546	3546	3546	3546	3583	3583	3583	3583	3621	3621	3621	3621	3659	3659	3659	3659	3621	3621	3621	3659	3621	3621	3621	3621	3621	3659	3621	3129	3129	3129	3129	3101	3073	3046	3019	3019	0	0	0	0	0	0	3046	3046	3046	3046	3046	3046	3046	3046	3019	3019	3019	3019	3019	3019	3019	3019	3019	3019	3019	3046	3046	3046	3046	3046	3046	3046	3046	3019	3019	3019	2993	3019	3019	3019	3019	3019	3019	3046	3019	3019	3019	3019	3046	3046	3046	3046	3046	3046	3046	3073	3073	3073	3073	3101	3101	3101	3129	3129	3129	3129	3129	3129	3101	3073	3073	0	0	0	0	0	3157	3157	3157	3157	3129	3129	3101	3129	3129	3129	3129	3659	3621	3621	3583	3583	3583	3583	3583	3583	3583	3583	3583	3583	3583	3583	3621	3621	3659	3659	3659	3621	3621	3621	3583	3583	3621	3621	3621	3621	3621	3621	3621	3621	3621	3621	3621	3621	3621	3621	3621	3583	3583	3583	3621	3621	3621	3621	3621	3621	3621	3621	3621	3621	3621	3621	3621	3621	3621	3583	3583	3583	3583	3583	3583	3583	3583	3583	3583	3583	3583	3583	3621	3583	3583	3621	3621	3621	3621	3621	3621	3621	3621	3621	3621	3621	3583	3583	3583	3583	3583	3583	3583	3621	3659	3659	3659	3659	3659	3659	3659	3621	3621	3621	3621	3621	3621	3621	3621	3621	3621	3621	3621	3659	3659	3659	3659	3659	3659	3621	3621	3621	3621	3621	3621	3621	3621	3621	3621	3621	3621	3621	3621	3621	3583	3583	3583	3621	3621	3621	3621	3621	3621	3621	3621	3621	3621	3621	3583	3621	3621	3621	3583	3583	3583	3583	3583	3583	3583	3583	3546	3546	3546	3546	0	0	0	0	2223	2223	2223	2223	2208	2208	2194	2194	2181	2167	2140	2140	2127	2101	2088	2088	2063	2063	2039	2027	2015	1992	1992	1980	1969	1958	1947	1925	1915	1904	1894	1883	1873	1863	1863	1853	1843	1843	1843	0	0	0	0	0	0	0	0	0	0	0	0	0	0	0	0	0	0	0	0	0	0	0	0	0	0	0	0	0	0	0	0	0	0	0	0	0	0	0	0	0	0	0	0	0	0	0	0	0	0	0	0	0	0	0	0	0	0	0	0	0	0	0	0	0	0	0	0	0	0	0	0	0	0	0	0	0	0	0	0	0	0	0	0	0	0	0	0	0	0	0	0	0	0	0	0	0	0	0	0	0	0	0	0	0	0	0	0	0	0	0	0	0	0	0	0	0	0	0	0	0	0	0	0	0	0	0	0	0	0	0	0	0	0	0
0	0	0	0	0	0	0	0	0	0	0	0	0	1673	1673	1690	1681	1690	1690	1690	1690	1690	1690	1698	1698	1715	1715	1723	1732	1723	1723	1723	1732	1732	1750	1741	1750	1759	1759	1759	1759	1759	2514	2514	2532	2514	2514	2496	2496	2478	2496	2496	2496	2478	2478	2514	2532	2514	2496	2496	2496	2478	2478	2478	2478	2478	2478	2478	2478	2478	2478	2478	2478	2478	2478	2496	2514	2514	2496	2478	2478	2514	2514	2496	2496	2496	2496	2496	2496	2496	2514	2514	2496	2496	2496	2496	2496	2496	2514	2532	2532	2551	2551	2551	2532	2532	2532	2532	2532	2532	2532	2532	2532	2532	2532	2532	2514	2532	2532	2532	2532	2532	2532	2532	2551	2551	3373	3373	3373	3373	3373	3373	3373	3341	3341	3341	3373	3373	3373	3440	3406	3373	3373	3373	3373	3373	3373	3373	3373	3373	3373	3373	3373	3373	3373	3373	3373	3341	3341	3341	3341	3373	3373	3406	3373	3373	3440	3440	3440	3440	3510	3510	3510	3546	3546	3546	3546	3546	3546	3546	3546	3546	3583	3583	3583	3621	3621	3659	3659	3659	3659	3659	3621	3621	3621	3659	3621	3621	3621	3583	3583	3583	3621	3157	3157	3129	3129	3101	3073	3046	3019	3019	0	0	0	0	0	0	3046	3046	3046	3046	3046	3019	3019	3019	3019	3019	3019	3019	3019	3019	3019	3019	3019	3019	3019	3046	3046	3046	3046	3046	3046	3046	3046	3019	3019	3019	3019	3019	3019	3019	3019	3019	3019	3046	3019	3019	3019	3046	3046	3046	3046	3046	3046	3046	3046	3073	3073	3073	3073	3073	3101	3101	3129	3129	3129	3157	3129	3101	3101	3073	3073	3073	0	0	0	0	3157	3129	3129	3129	3129	3129	3101	3101	3101	3101	3101	3659	3621	3583	3583	3583	3583	3583	3583	3583	3583	3583	3583	3583	3583	3583	3583	3621	3621	3659	3621	3621	3583	3583	3583	3583	3583	3621	3621	3621	3621	3621	3621	3621	3621	3621	3621	3621	3621	3621	3621	3583	3583	3583	3583	3621	3621	3621	3621	3621	3621	3621	3621	3621	3621	3621	3621	3621	3621	3583	3583	3583	3583	3583	3583	3583	3583	3583	3583	3583	3583	3583	3621	3583	3621	3621	3621	3621	3621	3621	3621	3621	3621	3621	3621	3621	3583	3583	3583	3583	3583	3583	3583	3621	3659	3659	3621	3659	3659	3659	3659	3621	3621	3621	3621	3621	3621	3621	3621	3621	3621	3621	3621	3621	3621	3659	3659	3621	3621	3621	3621	3621	3621	3621	3621	3621	3621	3621	3621	3621	3621	3621	3621	3621	3621	3621	3621	3621	3621	3621	3621	3621	3621	3621	3621	3621	3621	3621	3621	3621	3621	3621	3583	3583	3583	3583	3583	3583	3583	3583	3546	3583	3546	3583	3583	0	0	0	0	2237	2223	2223	2223	2208	2194	2194	2181	2167	2140	2140	2127	2101	2101	2088	2063	2051	2051	2027	2015	2003	1992	1980	1969	1958	1947	1925	1915	1894	1894	1883	1873	1863	1853	1843	1843	1833	1833	0	0	0	0	0	0	0	0	0	0	0	0	0	0	0	0	0	0	0	0	0	0	0	0	0	0	0	0	0	0	0	0	0	0	0	0	0	0	0	0	0	0	0	0	0	0	0	0	0	0	0	0	0	0	0	0	0	0	0	0	0	0	0	0	0	0	0	0	0	0	0	0	0	0	0	0	0	0	0	0	0	0	0	0	0	0	0	0	0	0	0	0	0	0	0	0	0	0	0	0	0	0	0	0	0	0	0	0	0	0	0	0	0	0	0	0	0	0	0	0	0	0	0	0	0	0	0	0	0	0	0	0	0	0	0
0	0	0	0	0	0	0	0	0	0	0	0	0	1665	1673	1690	1690	1690	1690	1690	1690	1698	1698	1698	1698	1706	1723	1723	1723	1732	1732	1723	1732	1741	1750	1750	1759	1759	1768	1768	1768	1768	1777	1777	2532	2514	2514	2496	2496	2496	2496	2496	2478	2496	2496	2496	2496	2514	2496	2496	2496	2496	2496	2478	2478	2478	2496	2478	2478	2478	2478	2478	2478	2478	2478	2496	2496	2496	2496	2478	2478	2496	2514	2496	2496	2496	2496	2496	2496	2496	2514	2514	2496	2496	2496	2496	2496	2496	2514	2551	2551	2551	2570	2551	2551	2532	2532	2532	2532	2532	2532	2532	2532	2532	2532	2532	2514	2532	2532	2532	2532	2532	2532	2532	2551	2551	2551	3406	3406	3406	3406	3373	3373	3373	3406	3373	3373	3373	3406	3475	3440	3440	3440	3440	3406	3406	3406	3373	3373	3373	3373	3373	3373	3373	3373	3373	3373	3373	3373	3341	3341	3373	3373	3406	3406	3406	3440	3475	3440	3440	3510	3510	3510	3546	3546	3546	3546	3546	3546	3546	3546	3546	3583	3583	3583	3621	3621	3659	3659	3659	3659	3659	3621	3621	3621	3621	3621	3621	3583	3583	3583	3583	3583	3157	3157	3129	3129	3101	3073	3046	3019	3019	0	0	0	0	0	3046	3046	3046	3046	3046	3019	3019	3019	3019	3019	3019	3019	3019	3019	3019	3019	3019	3019	3019	3019	3046	3046	3046	3046	3046	3046	3046	3046	3046	3046	3019	3019	3019	3019	3019	3019	3019	3019	3019	3019	3046	3046	3046	3046	3046	3046	3046	3046	3046	3046	3073	3073	3073	3073	3073	3101	3101	3129	3129	3129	3129	3129	3101	3101	3073	3046	3046	0	0	0	0	3157	3157	3129	3129	3157	3129	3101	3101	3101	3073	3073	3659	3621	3583	3583	3583	3583	3583	3583	3583	3583	3583	3583	3583	3583	3583	3583	3621	3621	3659	3659	3621	3583	3583	3583	3583	3621	3621	3621	3621	3621	3621	3621	3621	3621	3621	3621	3621	3583	3583	3583	3583	3583	3583	3583	3621	3583	3621	3621	3621	3621	3621	3621	3621	3621	3621	3621	3621	3583	3583	3583	3583	3583	3583	3583	3583	3583	3583	3583	3583	3583	3621	3621	3621	3621	3621	3621	3621	3621	3621	3621	3621	3621	3621	3621	3621	3583	3583	3583	3583	3583	3583	3583	3621	3621	3621	3621	3621	3621	3621	3621	3621	3621	3621	3621	3621	3621	3621	3621	3621	3621	3621	3621	3621	3621	3621	3621	3621	3621	3621	3621	3621	3621	3621	3621	3621	3621	3621	3621	3621	3621	3621	3621	3621	3621	3621	3621	3621	3621	3621	3621	3621	3621	3621	3621	3621	3621	3621	3583	3621	3621	3621	3583	3583	3583	3583	3583	3583	3546	3546	3546	3546	3546	3546	3583	3621	3621	0	0	2223	2223	2223	2208	2208	2194	2194	2181	2167	2140	2127	2127	2101	2088	2076	2063	2051	2039	2027	2015	2003	1992	1980	1969	1958	1947	1915	1904	1894	1894	1883	1873	1863	1863	1853	1843	1843	1833	0	0	0	0	0	0	0	0	0	0	0	0	0	0	0	0	0	0	0	0	0	0	0	0	0	0	0	0	0	0	0	0	0	0	0	0	0	0	0	0	0	0	0	0	0	0	0	0	0	0	0	0	0	0	0	0	0	0	0	0	0	0	0	0	0	0	0	0	0	0	0	0	0	0	0	0	0	0	0	0	0	0	0	0	0	0	0	0	0	0	0	0	0	0	0	0	0	0	0	0	0	0	0	0	0	0	0	0	0	0	0	0	0	0	0	0	0	0	0	0	0	0	0	0	0	0	0	0	0	0	0	0	0	0	0
0	0	0	0	0	0	0	0	0	0	0	0	0	1665	1673	1681	1690	1690	1698	1698	1698	1698	1706	1706	1706	1715	1732	1732	1732	1732	1732	1732	1732	1741	1750	1759	1759	1768	1768	1777	1777	1777	1795	1795	1795	2514	2514	2496	2496	2496	2496	2496	2478	2478	2478	2478	2514	2496	2496	2496	2496	2496	2496	2496	2478	2496	2496	2496	2478	2478	2478	2478	2478	2478	2478	2478	2478	2496	2478	2478	2478	2514	2514	2514	2496	2514	2514	2514	2514	2514	2514	2514	2514	2496	2496	2496	2496	2496	2514	2532	2570	2551	2570	2551	2551	2532	2532	2532	2532	2532	2532	2532	2532	2532	2532	2514	2514	2514	2496	2496	2496	2514	2514	2532	2514	2514	2551	3440	3475	3475	3440	3440	3440	3440	3440	3440	3440	3440	3475	3475	3475	3475	3475	3475	3440	3440	3406	3406	3406	3406	3406	3406	3406	3406	3373	3373	3373	3341	3373	3373	3373	3373	3475	3475	3475	3475	3510	3510	3475	3475	3510	3510	3546	3546	3546	3546	3546	3546	3546	3546	3546	3546	3546	3583	3583	3621	3621	3659	3659	3659	3659	3659	3621	3621	3621	3621	3621	3621	3583	3583	3583	3583	3583	3546	3129	3129	3101	3101	3073	3046	3019	3019	3019	0	0	0	0	3046	3046	3046	3046	3019	3019	3019	3019	3019	3019	3019	3019	3019	3019	3019	3019	3019	3019	3019	3019	3046	3046	3046	3046	3046	3046	3046	3046	3046	3046	3046	3019	3019	3019	3019	3019	3046	3046	3046	3046	3046	3046	3046	3046	3046	3046	3046	3073	3046	3046	3073	3073	3073	3073	3073	3101	3101	3129	3129	3129	3129	3101	3073	3073	3046	3019	3019	0	3019	3019	0	3129	3157	3129	3129	3129	3129	3101	3101	3073	3073	3073	3621	3621	3583	3583	3583	3583	3583	3583	3583	3583	3583	3583	3546	3583	3583	3583	3621	3621	3659	3621	3583	3583	3583	3583	3583	3583	3583	3621	3621	3621	3621	3621	3621	3621	3621	3583	3583	3583	3583	3583	3583	3583	3583	3583	3583	3583	3621	3621	3621	3621	3621	3621	3621	3621	3621	3621	3583	3583	3583	3583	3583	3583	3583	3583	3583	3583	3583	3583	3583	3583	3621	3621	3621	3621	3621	3621	3621	3621	3621	3621	3621	3621	3621	3621	3621	3583	3583	3583	3583	3583	3583	3583	3621	3659	3621	3621	3621	3621	3659	3621	3621	3621	3621	3621	3621	3621	3621	3621	3621	3621	3621	3621	3621	3621	3621	3621	3621	3621	3621	3621	3621	3621	3621	3621	3621	3621	3621	3621	3621	3621	3621	3621	3621	3621	3621	3621	3621	3621	3621	3621	3621	3621	3621	3621	3621	3621	3621	3621	3621	3583	3583	3583	3546	3583	3583	3546	3583	3583	3583	3583	3583	3546	3583	3583	3583	3583	0	0	2223	2223	2208	2208	2208	2194	2194	2181	2167	2140	2127	2127	2114	2101	2088	2063	2051	2051	2027	2015	2015	1992	1980	1969	1958	1947	1925	1915	1904	1894	1883	1873	1863	1863	1853	1843	1843	0	0	0	0	0	0	0	0	0	0	0	0	0	0	0	0	0	0	0	0	0	0	0	0	0	0	0	0	0	0	0	0	0	0	0	0	0	0	0	0	0	0	0	0	0	0	0	0	0	0	0	0	0	0	0	0	0	0	0	0	0	0	0	0	0	0	0	0	0	0	0	0	0	0	0	0	0	0	0	0	0	0	0	0	0	0	0	0	0	0	0	0	0	0	0	0	0	0	0	0	0	0	0	0	0	0	0	0	0	0	0	0	0	0	0	0	0	0	0	0	0	0	0	0	0	0	0	0	0	0	0	0	0	0	0	0
0	0	0	0	0	0	0	0	0	0	0	0	0	1665	1673	1681	1690	1690	1698	1698	1698	1706	1715	1723	1723	1732	1732	1732	1732	1732	1732	1732	1732	1741	1750	1759	1759	1768	1777	1777	1777	1786	1786	1795	1795	1804	1804	1804	1804	2532	2496	2496	2496	2496	2496	2496	2514	2496	2496	2496	2496	2496	2496	2478	2496	2496	2496	2496	2478	2478	2478	2478	2478	2478	2478	2478	2478	2478	2478	2478	2478	2496	2514	2514	2514	2514	2514	2514	2514	2514	2514	2532	2496	2496	2496	2496	2514	2514	2532	2551	2551	2551	2551	2551	2514	2514	2514	2514	2514	2532	2532	2532	2532	2532	2532	2514	2496	2496	2496	2514	2532	2532	2532	2551	2570	2570	3546	3546	3510	3510	3475	3475	3475	3475	3475	3475	3475	3475	3475	3475	3475	3475	3475	3475	3510	3475	3440	3440	3440	3440	3440	3440	3440	3475	3440	3440	3475	3440	3440	3440	3406	3406	3546	3510	3510	3510	3510	3510	3510	3475	3510	3510	3546	3546	3546	3546	3546	3546	3546	3546	3546	3546	3583	3583	3583	3583	3583	3621	3621	3659	3659	3659	3659	3621	3621	3621	3621	3583	3583	3583	3583	3546	3546	3546	3129	3129	3101	3101	3073	3046	3019	3019	3019	0	0	0	0	3046	3046	3046	3046	3019	3019	3019	3019	3019	3019	3019	3019	3019	3019	3019	3019	3019	3019	3019	3019	3046	3046	3046	3046	3046	3046	3046	3046	3046	3046	3046	3046	3046	3046	3046	3019	3046	3019	3046	3046	3046	3046	3046	3046	3046	3046	3046	3073	3073	3046	3073	3073	3073	3073	3073	3073	3101	3129	3129	3129	3129	3101	3073	3073	3046	3019	3019	3019	3019	3046	3073	3101	3101	3101	3129	3129	3129	3101	3101	3073	3073	3073	3621	3583	3583	3583	3583	3583	3583	3583	3583	3583	3583	3583	3546	3583	3583	3583	3621	3659	3659	3621	3621	3583	3583	3583	3583	3583	3583	3621	3621	3621	3621	3621	3621	3621	3583	3583	3583	3583	3583	3583	3583	3583	3583	3583	3583	3583	3583	3621	3621	3583	3621	3621	3621	3621	3621	3583	3583	3583	3583	3583	3583	3583	3583	3583	3583	3583	3583	3583	3583	3583	3621	3621	3621	3621	3621	3621	3621	3621	3621	3621	3621	3621	3621	3621	3621	3583	3583	3583	3583	3583	3583	3583	3621	3659	3659	3659	3659	3659	3659	3659	3621	3621	3621	3621	3621	3621	3621	3621	3621	3621	3621	3621	3621	3621	3621	3621	3621	3621	3621	3621	3621	3583	3621	3621	3621	3621	3621	3621	3621	3621	3621	3621	3621	3621	3621	3621	3621	3621	3621	3621	3621	3621	3621	3621	3621	3621	3621	3583	3583	3583	3583	3583	3546	3546	3546	3583	3583	3583	3583	3583	3583	3583	3583	3583	3546	3546	0	0	2223	2223	2208	2208	2208	2208	2194	2181	2153	2140	2127	2114	2101	2101	2088	2063	2051	2039	2027	2015	2015	2003	1992	1980	1958	1947	1925	1904	1904	1894	1894	1883	1873	1863	1853	1843	1843	1843	0	0	0	0	0	0	0	0	0	0	0	0	0	0	0	0	0	0	0	0	0	0	0	0	0	0	0	0	0	0	0	0	0	0	0	0	0	0	0	0	0	0	0	0	0	0	0	0	0	0	0	0	0	0	0	0	0	0	0	0	0	0	0	0	0	0	0	0	0	0	0	0	0	0	0	0	0	0	0	0	0	0	0	0	0	0	0	0	0	0	0	0	0	0	0	0	0	0	0	0	0	0	0	0	0	0	0	0	0	0	0	0	0	0	0	0	0	0	0	0	0	0	0	0	0	0	0	0	0	0	0	0	0	0	0
0	0	0	0	0	0	0	0	0	0	0	0	0	1657	1665	1681	1681	1690	1698	1698	1698	1706	1715	1723	1732	1732	1741	1741	1741	1741	1732	1732	1732	1741	1750	1759	1768	1768	1777	1777	1786	1786	1795	1795	1795	1804	1804	1804	1804	1804	2496	2514	2496	2496	2496	2496	2532	2496	2496	2496	2496	2496	2496	2478	2496	2496	2496	2496	2478	2478	2478	2478	2478	2478	2478	2478	2496	2496	2478	2496	2496	2514	2514	2514	2496	2514	2514	2514	2514	2514	2514	2514	2496	2496	2496	2496	2532	2514	2532	2551	2551	2551	2551	2532	2514	2514	2514	2514	2532	2532	2514	2514	2532	2532	2514	2514	2496	2496	2514	2514	2514	2514	2532	2551	2551	2570	3546	3546	3510	3510	3510	3510	3510	3475	3475	3475	3475	3475	3475	3475	3475	3510	3510	3510	3475	3510	3475	3475	3475	3475	3475	3440	3475	3475	3475	3475	3475	3475	3475	3475	3510	3546	3546	3546	3510	3510	3510	3510	3510	3510	3510	3510	3546	3546	3546	3546	3546	3546	3546	3546	3546	3546	3583	3583	3583	3583	3583	3621	3621	3621	3659	3659	3659	3659	3621	3621	3621	3621	3583	3583	3546	3546	3546	3659	3073	3101	3101	3073	3073	3046	3046	3019	3019	0	0	0	0	3046	3046	3046	3019	3019	3019	3019	3019	3019	3019	3019	3019	3019	3019	3019	3019	3019	3019	3019	3019	3046	3046	3046	3046	3046	3046	3046	3046	3046	3046	3046	3046	3046	3046	3046	3019	3046	3046	3046	3046	3046	3046	3073	3073	3073	3046	3073	3073	3073	3046	3046	3073	3073	3073	3073	3073	3101	3101	3101	3101	3129	3129	3101	3073	3046	3019	3019	3019	3019	3046	3073	3073	3129	3101	3129	3129	3129	3101	3101	3073	3046	3046	3583	3583	3583	3583	3583	3583	3621	3621	3583	3583	3583	3583	3583	3583	3583	3583	3621	3621	3621	3621	3621	3583	3583	3583	3583	3583	3583	3583	3621	3621	3621	3621	3621	3621	3583	3583	3583	3583	3583	3583	3583	3583	3583	3583	3621	3583	3583	3583	3583	3583	3583	3583	3583	3583	3583	3583	3583	3583	3583	3583	3583	3583	3583	3583	3583	3583	3583	3583	3583	3583	3621	3621	3621	3621	3621	3621	3621	3621	3621	3621	3621	3621	3621	3621	3621	3583	3583	3583	3583	3583	3583	3583	3621	3659	3659	3659	3659	3621	3659	3621	3621	3621	3621	3621	3621	3621	3621	3621	3621	3621	3621	3621	3621	3621	3621	3621	3621	3621	3621	3621	3621	3583	3583	3583	3583	3583	3621	3621	3621	3621	3621	3621	3621	3621	3621	3621	3621	3621	3621	3621	3621	3621	3621	3621	3621	3621	3621	3583	3583	3583	3583	3583	3546	3546	3583	3546	3583	3583	3583	3583	3583	3583	3583	3583	3546	3546	3546	0	2223	2237	2223	2223	2223	2208	2194	2181	2153	2140	2127	2114	2101	2088	2076	2063	2051	2039	2027	2027	2015	2003	1980	1969	1958	1947	1925	1915	1904	1894	1894	1883	1863	1863	1853	1853	1843	1843	0	0	0	0	0	0	0	0	0	0	0	0	0	0	0	0	0	0	0	0	0	0	0	0	0	0	0	0	0	0	0	0	0	0	0	0	0	0	0	0	0	0	0	0	0	0	0	0	0	0	0	0	0	0	0	0	0	0	0	0	0	0	0	0	0	0	0	0	0	0	0	0	0	0	0	0	0	0	0	0	0	0	0	0	0	0	0	0	0	0	0	0	0	0	0	0	0	0	0	0	0	0	0	0	0	0	0	0	0	0	0	0	0	0	0	0	0	0	0	0	0	0	0	0	0	0	0	0	0	0	0	0	0	0	0
0	0	0	0	0	0	0	0	0	0	0	0	0	1649	1657	1665	1673	1673	1690	1698	1698	1715	1723	1723	1732	1732	1741	1741	1741	1741	1741	1732	1732	1741	1759	1759	1768	1768	1786	1786	1786	1795	1795	1795	1795	1804	1804	1795	1804	1804	0	2514	2514	2496	2496	2496	2496	2496	2496	2496	2496	2496	2496	2478	2496	2496	2496	2496	2478	2478	2478	2478	2478	2478	2496	2496	2496	2496	2496	2496	2496	2514	2514	2514	2514	2532	2514	2514	2514	2514	2514	2496	2496	2496	2496	2496	2532	2532	2532	2551	2551	2551	2551	2532	2532	2514	2514	2514	2514	2532	2514	2514	2532	2532	2514	2496	2496	2496	2496	2496	2514	2496	2496	2496	2496	0	3546	3510	3546	3510	3510	3510	3510	3510	3475	3475	3475	3475	3510	3475	3510	3510	3510	3510	3510	3510	3510	3475	3475	3475	3475	3475	3475	3475	3475	3510	3510	3510	3510	3475	3510	3546	3546	3546	3546	3546	3510	3546	3510	3546	3546	3546	3546	3546	3546	3546	3546	3546	3546	3546	3583	3583	3583	3583	3583	3583	3583	3621	3621	3621	3659	3659	3659	3659	3621	3621	3621	3621	3583	3583	3546	3546	3546	3101	3101	3101	3101	3073	3073	3073	3046	3019	3019	0	0	0	3019	3019	3046	3046	3019	3019	3019	3019	3019	3019	3019	3019	3019	3019	3019	3019	3019	3019	3019	3019	3019	3046	3046	3046	3046	3046	3046	3046	3073	3046	3073	3046	3046	3046	3046	3046	3046	3046	3046	3046	3046	3073	3073	3073	3073	3073	3073	3073	3073	3073	3073	3046	3073	3073	3073	3073	3073	3073	3101	3101	3101	3101	3101	3073	3046	3046	3019	3019	3019	3019	3046	3073	3073	3073	3073	3101	3101	3101	3073	3073	3073	3046	3621	3583	3583	3583	3583	3583	3583	3583	3621	3583	3583	3583	3583	3583	3583	3583	3583	3621	3621	3621	3621	3621	3583	3583	3583	3621	3621	3621	3621	3621	3621	3621	3621	3621	3583	3583	3583	3583	3583	3583	3583	3583	3583	3583	3583	3583	3583	3583	3583	3583	3583	3583	3583	3583	3621	3583	3583	3583	3583	3583	3583	3583	3583	3583	3583	3583	3583	3583	3583	3583	3583	3583	3621	3621	3621	3621	3621	3621	3621	3621	3621	3621	3621	3621	3621	3583	3583	3583	3583	3583	3621	3621	3583	3621	3659	3659	3621	3621	3621	3621	3621	3621	3621	3621	3621	3621	3621	3621	3621	3621	3621	3621	3621	3621	3621	3621	3621	3621	3621	3621	3583	3583	3583	3583	3583	3621	3621	3621	3621	3621	3621	3621	3621	3621	3621	3621	3621	3621	3621	3621	3621	3621	3621	3621	3621	3621	3621	3621	3583	3583	3621	3583	3583	3583	3583	3583	3546	3583	3583	3583	3583	3583	3583	3583	3546	3546	3546	3546	0	2223	2237	2223	2223	2223	2194	2194	2181	2153	2140	2127	2114	2101	2088	2076	2063	2051	2039	2039	2027	2015	2003	1980	1969	1947	1936	1925	1915	1904	1894	1883	1883	1863	1863	1853	1843	1843	1843	0	0	0	0	0	0	0	0	0	0	0	0	0	0	0	0	0	0	0	0	0	0	0	0	0	0	0	0	0	0	0	0	0	0	0	0	0	0	0	0	0	0	0	0	0	0	0	0	0	0	0	0	0	0	0	0	0	0	0	0	0	0	0	0	0	0	0	0	0	0	0	0	0	0	0	0	0	0	0	0	0	0	0	0	0	0	0	0	0	0	0	0	0	0	0	0	0	0	0	0	0	0	0	0	0	0	0	0	0	0	0	0	0	0	0	0	0	0	0	0	0	0	0	0	0	0	0	0	0	0	0	0	0	0	0
0	0	0	0	0	0	0	0	0	0	0	0	0	1641	1649	1665	1665	1673	1681	1698	1690	1698	1698	1706	1715	1723	1723	1732	1732	1741	1750	1750	1750	1750	1768	1777	1777	1786	1786	1786	1786	1786	1795	1795	1795	1804	1804	1804	1833	1833	1843	1843	2514	2496	2478	2478	2478	2478	2478	2496	2496	2496	2496	2496	2496	2514	2496	2496	2478	2478	2478	2478	2478	2478	2478	2478	2478	2496	2496	2496	2496	2514	2514	2514	2514	2532	2514	2514	2532	2514	2514	2514	2496	2496	2496	2532	2532	2532	2532	2532	2532	2532	2551	2532	2514	2514	2514	2514	2514	2514	2514	2514	2514	2514	2514	2496	2496	2496	2496	2496	2514	2496	2514	2514	2514	0	3546	3510	3510	3510	3510	3546	3510	3510	3475	3510	3510	3510	3510	3475	3510	3510	3510	3546	3546	3546	3510	3510	3510	3510	3510	3475	3510	3475	3475	3510	3510	3510	3510	3510	3510	3546	3546	3546	3546	3546	3510	3546	3546	3546	3546	3546	3546	3546	3546	3546	3546	3546	3546	3546	3583	3583	3583	3583	3583	3583	3583	3621	3621	3621	3659	3659	3659	3659	3621	3621	3621	3621	3583	3583	3546	3546	3046	3073	3073	3101	3101	3073	3101	3073	3046	3046	3019	3019	0	0	3019	3019	3046	3019	3019	3019	3019	3019	3019	3019	3019	3019	3019	3019	3019	3019	3019	3019	3019	3019	3019	3046	3046	3046	3046	3046	3046	3046	3073	3073	3073	3073	3073	3073	3073	3046	3046	3046	3046	3046	3073	3073	3073	3073	3073	3073	3073	3073	3073	3073	3046	3046	3073	3046	3046	3073	3073	3073	3101	3101	3073	3101	3101	3073	3073	3046	3046	3046	3019	3046	3046	3046	3046	3073	3073	3073	3101	3073	3073	3073	3073	3046	3621	3621	3583	3583	3583	3583	3583	3621	3621	3621	3583	3583	3583	3583	3583	3583	3583	3621	3621	3621	3621	3621	3583	3583	3621	3621	3621	3621	3621	3621	3621	3621	3621	3621	3621	3621	3583	3583	3583	3583	3583	3583	3583	3583	3583	3583	3583	3583	3583	3583	3583	3583	3583	3583	3621	3621	3583	3583	3583	3583	3583	3583	3583	3583	3583	3583	3583	3583	3583	3583	3583	3583	3621	3621	3621	3621	3621	3621	3621	3621	3621	3621	3621	3621	3621	3621	3583	3583	3583	3583	3583	3583	3583	3583	3583	3621	3621	3621	3621	3621	3621	3621	3621	3621	3621	3621	3621	3621	3621	3621	3621	3621	3621	3621	3621	3621	3621	3621	3621	3621	3621	3583	3583	3583	3583	3583	3583	3583	3583	3583	3621	3621	3621	3621	3621	3621	3621	3621	3621	3621	3621	3621	3621	3621	3621	3621	3621	3621	3621	3583	3583	3583	3583	3583	3546	3546	3546	3583	3546	3583	3583	3583	3583	3546	3546	3546	3546	0	0	2223	2237	2223	2223	2223	2194	2194	2181	2153	2140	2127	2114	2101	2088	2076	2063	2051	2039	2039	2027	2015	2003	1992	1969	1958	1936	1925	1915	1904	1894	1894	1883	1873	1863	1853	1853	1843	1843	1843	0	0	0	0	0	0	0	0	0	0	0	0	0	0	0	0	0	0	0	0	0	0	0	0	0	0	0	0	0	0	0	0	0	0	0	0	0	0	0	0	0	0	0	0	0	0	0	0	0	0	0	0	0	0	0	0	0	0	0	0	0	0	0	0	0	0	0	0	0	0	0	0	0	0	0	0	0	0	0	0	0	0	0	0	0	0	0	0	0	0	0	0	0	0	0	0	0	0	0	0	0	0	0	0	0	0	0	0	0	0	0	0	0	0	0	0	0	0	0	0	0	0	0	0	0	0	0	0	0	0	0	0	0	0
0	0	0	0	0	0	0	0	0	0	0	0	0	1641	1641	1649	1657	1665	1673	1681	1681	1690	1698	1706	1715	1723	1732	1741	1741	1750	1750	1750	1750	1750	1759	1777	1768	1795	1795	1795	1795	1795	1804	1804	1804	1804	1804	1804	1833	1833	1843	1843	1843	2496	2426	2426	2460	2460	2478	2496	2496	2496	2496	2496	2514	2514	2514	2496	2496	2496	2496	2496	2478	2478	2478	2478	2478	2496	2496	2496	2496	2514	2514	2532	2514	2532	2514	2496	2514	2514	2496	2514	2496	2496	2496	2514	2514	2514	2514	2532	2532	2532	2532	2532	2514	2496	2496	2496	2514	2514	2514	2514	2514	2514	2514	2496	2496	2496	2496	2496	2514	2514	2514	2514	2514	0	3546	3546	3510	3510	3510	3510	3510	3510	3475	3475	3510	3510	3510	3510	3510	3546	3546	3546	3546	3583	3546	3510	3510	3510	3510	3510	3510	3510	3510	3510	3510	3510	3510	3510	3510	3510	3546	3546	3546	3546	3546	3546	3546	3546	3546	3546	3546	3546	3546	3546	3546	3546	3546	3583	3621	3621	3621	3583	3583	3583	3583	3583	3621	3621	3621	3621	3659	3659	3621	3621	3621	3583	3583	3583	3546	3546	3073	3073	3073	3101	3073	3073	3073	3073	3046	3046	3046	3019	0	0	3019	3046	3046	3046	3019	3019	3019	3019	3019	3019	3019	3019	3019	3019	3019	3019	3019	3019	3019	3019	3019	3046	3046	3046	3046	3046	3046	3046	3073	3073	3073	3073	3073	3046	3046	3046	3046	3073	3046	3046	3073	3073	3073	3073	3073	3073	3073	3073	3073	3073	3073	3073	3073	3073	3073	3073	3073	3073	3073	3073	3073	3101	3101	3101	3073	3046	3046	3073	3046	3046	3073	3073	3073	3073	3073	3101	3101	3101	3073	3073	3073	3046	3046	3621	3621	3621	3583	3583	3583	3583	3621	3621	3583	3583	3583	3583	3583	3583	3583	3621	3621	3621	3621	3621	3621	3621	3621	3621	3621	3621	3621	3621	3621	3621	3621	3621	3621	3621	3583	3583	3583	3583	3583	3583	3621	3621	3621	3621	3583	3583	3583	3583	3583	3583	3583	3621	3621	3621	3621	3583	3583	3583	3621	3583	3583	3583	3583	3583	3583	3583	3583	3583	3583	3583	3583	3621	3583	3583	3621	3621	3621	3621	3621	3621	3621	3621	3621	3621	3583	3583	3583	3583	3583	3583	3583	3583	3621	3621	3621	3621	3621	3621	3621	3621	3621	3621	3621	3621	3621	3621	3621	3621	3621	3621	3621	3621	3621	3621	3621	3621	3621	3621	3621	3583	3583	3621	3621	3583	3621	3583	3583	3583	3583	3621	3583	3621	3621	3621	3621	3621	3621	3621	3621	3621	3621	3621	3621	3621	3621	3621	3583	3583	3583	3583	3583	3583	3546	3546	3546	3583	3546	3583	3583	3583	3583	3546	3510	3546	3546	0	0	0	2237	2223	2223	2223	2208	2194	2181	2153	2140	2127	2114	2101	2088	2076	2063	2039	2039	2027	2027	2015	2003	1992	1969	1958	1936	1936	1915	1904	1894	1894	1883	1873	1863	1853	1853	1853	1843	1843	0	0	0	0	0	0	0	0	0	0	0	0	0	0	0	0	0	0	0	0	0	0	0	0	0	0	0	0	0	0	0	0	0	0	0	0	0	0	0	0	0	0	0	0	0	0	0	0	0	0	0	0	0	0	0	0	0	0	0	0	0	0	0	0	0	0	0	0	0	0	0	0	0	0	0	0	0	0	0	0	0	0	0	0	0	0	0	0	0	0	0	0	0	0	0	0	0	0	0	0	0	0	0	0	0	0	0	0	0	0	0	0	0	0	0	0	0	0	0	0	0	0	0	0	0	0	0	0	0	0	0	0	0	0
0	0	0	0	0	0	0	0	0	0	0	0	0	1641	1641	1641	1657	1665	1665	1673	1681	1690	1698	1706	1706	1715	1732	1732	1741	1750	1759	1750	1759	1768	1777	1786	1786	1795	1795	1795	1795	1795	1804	1804	1804	1814	1814	1814	1833	1843	1843	1843	1863	1883	1894	1894	1894	1894	1904	1904	2514	2514	2496	2514	2514	2514	2514	2514	2496	2496	2496	2496	2496	2496	2478	2478	2478	2496	2496	2496	2496	2514	2514	2514	2514	2532	2514	2496	2496	2496	2496	2496	2496	2496	2496	2514	2514	2514	2514	2532	2532	2532	2532	2532	2514	2496	2496	2496	2496	2514	2514	2514	2514	2514	2514	2496	2496	2496	2496	2496	2514	2532	2532	2532	2514	3583	3510	3510	3510	3510	3510	3510	3510	3475	3475	3475	3510	3510	3510	3475	3510	3510	3510	3510	3546	3546	3546	3546	3510	3546	3510	3510	3510	3510	3510	3510	3510	3510	3510	3510	3510	3546	3546	3546	3546	3546	3546	3546	3546	3546	3510	3510	3546	3546	3546	3546	3546	3546	3546	3583	3583	3621	3621	3621	3583	3583	3583	3583	3583	3621	3621	3621	3621	3659	3621	3621	3621	3621	3583	3583	3583	3546	3046	3073	3073	3073	3073	3073	3073	3073	3046	3046	3046	3046	3046	0	0	3019	3046	3046	3046	3046	3046	3046	3046	3019	3019	3019	3019	3019	3019	3019	3019	3019	3019	3019	3019	3046	3046	3046	3046	3046	3046	3046	3073	3073	3073	3073	3046	3046	3046	3046	3046	3046	3046	3046	3073	3073	3073	3073	3073	3073	3073	3073	3073	3073	3073	3073	3073	3073	3073	3073	3073	3073	3073	3073	3073	3073	3073	3101	3101	3101	3073	3073	3073	3073	3073	3073	3073	3073	3073	3073	3101	3073	3073	3073	3073	3046	3046	3621	3621	3621	3583	3583	3583	3621	3621	3621	3583	3583	3583	3583	3583	3583	3583	3621	3621	3621	3621	3621	3621	3621	3621	3621	3621	3621	3621	3621	3621	3621	3621	3621	3621	3621	3621	3583	3583	3583	3583	3583	3621	3583	3621	3583	3583	3583	3583	3583	3583	3583	3583	3621	3621	3621	3621	3583	3583	3583	3583	3583	3583	3583	3583	3583	3583	3583	3583	3583	3583	3583	3583	3621	3583	3583	3621	3621	3621	3621	3621	3583	3583	3583	3583	3583	3583	3583	3583	3583	3583	3583	3583	3583	3621	3621	3621	3621	3621	3621	3621	3621	3621	3621	3621	3621	3621	3621	3621	3621	3621	3621	3621	3621	3621	3621	3621	3621	3621	3621	3621	3583	3583	3583	3583	3583	3583	3583	3583	3583	3583	3583	3583	3583	3583	3621	3621	3621	3621	3621	3621	3583	3621	3621	3583	3583	3583	3583	3583	3583	3583	3583	3583	3583	3583	3583	3583	3583	3583	3583	3583	3583	3583	3546	3510	3546	3546	0	0	0	2237	2237	2223	2223	2208	2194	2181	2167	2140	2127	2114	2101	2088	2076	2051	2051	2039	2039	2027	2015	1992	1992	1969	1958	1947	1936	1915	1904	1894	1894	1883	1873	1863	1853	1853	1853	1853	1843	1843	0	0	0	0	0	0	0	0	0	0	0	0	0	0	0	0	0	0	0	0	0	0	0	0	0	0	0	0	0	0	0	0	0	0	0	0	0	0	0	0	0	0	0	0	0	0	0	0	0	0	0	0	0	0	0	0	0	0	0	0	0	0	0	0	0	0	0	0	0	0	0	0	0	0	0	0	0	0	0	0	0	0	0	0	0	0	0	0	0	0	0	0	0	0	0	0	0	0	0	0	0	0	0	0	0	0	0	0	0	0	0	0	0	0	0	0	0	0	0	0	0	0	0	0	0	0	0	0	0	0	0	0	0
0	0	0	0	0	0	0	0	0	0	0	0	0	1634	1641	1649	1657	1665	1665	1673	1681	1681	1690	1698	1706	1706	1723	1723	1732	1741	1741	1750	1759	1768	1777	1795	1795	1804	1804	1804	1804	1804	1814	1824	1814	1833	1824	1824	1833	1843	1843	1843	1894	1894	1904	1894	1894	1894	1904	1894	1894	2514	2496	2514	2514	2514	2514	2496	2496	2496	2496	2496	2496	2496	2478	2478	2496	2496	2496	2496	2496	2496	2514	2514	2514	2514	2496	2496	2496	2496	2514	2514	2496	2496	2496	2514	2514	2496	2496	2532	2514	2532	2514	2514	2514	2514	2496	2496	2496	2514	2514	2514	2514	2496	2496	2496	2496	2496	2496	2514	2532	2532	2551	2551	0	3546	3546	3546	3510	3510	3510	3510	3510	3510	3510	3510	3510	3510	3510	3475	3510	3510	3510	3510	3546	3546	3546	3510	3510	3546	3510	3510	3510	3510	3510	3510	3510	3510	3510	3510	3510	3546	3546	3546	3546	3546	3546	3546	3546	3510	3510	3510	3510	3546	3546	3546	3546	3546	3583	3583	3583	3621	3621	3621	3583	3583	3583	3583	3583	3583	3621	3583	3621	3621	3621	3621	3621	3583	3621	3583	3583	3046	3046	3046	3073	3073	3073	3073	3073	3073	3073	3046	3019	3019	3019	3019	3019	3019	3046	3046	3046	3046	3046	3046	3046	3019	3019	3019	3019	3019	3019	3019	3019	3019	3019	3019	3019	3046	3046	3046	3046	3046	3046	3046	3073	3073	3073	3073	3073	3046	3046	3046	3046	3046	3046	3046	3073	3073	3073	3073	3073	3073	3073	3073	3073	3073	3073	3073	3073	3073	3073	3073	3073	3073	3073	3073	3073	3101	3129	3129	3129	3129	3101	3101	3073	3073	3073	3073	3073	3073	3073	3073	3073	3073	3073	3073	3073	3046	3046	3046	3659	3621	3583	3659	3621	3621	3621	3583	3583	3583	3583	3583	3583	3583	3583	3621	3621	3621	3621	3621	3621	3621	3621	3621	3621	3621	3621	3621	3621	3621	3621	3621	3621	3621	3621	3583	3583	3583	3583	3583	3621	3621	3621	3621	3583	3621	3583	3583	3583	3621	3621	3621	3621	3583	3621	3583	3583	3583	3583	3583	3583	3583	3621	3583	3621	3621	3583	3583	3583	3583	3583	3583	3621	3583	3621	3621	3583	3583	3583	3583	3583	3583	3583	3583	3583	3583	3583	3583	3583	3583	3583	3583	3621	3621	3621	3621	3621	3621	3621	3621	3621	3621	3621	3621	3621	3621	3621	3621	3621	3621	3621	3621	3621	3621	3621	3621	3621	3621	3621	3621	3583	3621	3583	3583	3621	3583	3583	3583	3583	3583	3583	3621	3621	3621	3621	3621	3621	3621	3621	3583	3621	3621	3583	3583	3583	3583	3583	3583	3583	3583	3583	3583	3583	3583	3583	3583	3583	3583	3583	3583	3583	3546	3510	3546	3546	0	0	0	0	2237	2223	2223	2208	2194	2181	2153	2153	2140	2114	2101	2076	2076	2051	2039	2039	2027	2015	2003	1992	1980	1969	1958	1947	1936	1915	1904	1904	1894	1883	1873	1863	1853	1853	1853	1853	1853	1853	0	0	0	0	0	0	0	0	0	0	0	0	0	0	0	0	0	0	0	0	0	0	0	0	0	0	0	0	0	0	0	0	0	0	0	0	0	0	0	0	0	0	0	0	0	0	0	0	0	0	0	0	0	0	0	0	0	0	0	0	0	0	0	0	0	0	0	0	0	0	0	0	0	0	0	0	0	0	0	0	0	0	0	0	0	0	0	0	0	0	0	0	0	0	0	0	0	0	0	0	0	0	0	0	0	0	0	0	0	0	0	0	0	0	0	0	0	0	0	0	0	0	0	0	0	0	0	0	0	0	0	0	0
0	0	0	0	0	0	0	0	0	0	0	0	0	1641	1641	1657	1657	1665	1665	1673	1673	1681	1681	1690	1698	1706	1715	1723	1723	1732	1741	1750	1759	1777	1777	1786	1795	1804	1814	1814	1814	1814	1824	1833	1824	1833	1833	1833	1843	1843	1843	1853	1883	1883	1894	1894	1894	1904	1904	1904	1915	1915	2496	2514	2532	2514	2496	2478	2496	2496	2496	2478	2496	2496	2496	2496	2496	2478	2496	2496	2514	2514	2514	2532	2514	2532	2514	2514	2496	2496	2496	2496	2496	2496	2496	2514	2496	2496	2514	2514	2496	2532	2514	2514	2514	2496	2496	2496	2496	2496	2496	2496	2514	2496	2496	2496	2496	2496	2496	2496	2532	2532	2551	2551	0	3621	3546	3546	3510	3510	3510	3510	3510	3510	3510	3510	3510	3510	3510	3475	3510	3510	3510	3510	3510	3510	3510	3510	3510	3546	3546	3510	3510	3510	3510	3510	3510	3510	3510	3510	3510	3546	3546	3546	3546	3546	3546	3546	3546	3510	3510	3510	3510	3510	3510	3546	3546	3546	3546	3583	3583	3583	3621	3621	3583	3583	3583	3583	3583	3583	3583	3583	3621	3621	3621	3621	3583	3583	3583	3583	3583	3583	3046	3046	3073	3073	3073	3073	3073	3073	3073	3046	3046	3019	3019	3019	3046	3046	3046	3046	3046	3046	3046	3046	3046	3019	3019	3019	3019	3019	3019	3019	3019	3019	3019	3019	3019	3046	3046	3046	3046	3046	3073	3073	3073	3073	3073	3073	3073	3046	3046	3046	3046	3046	3046	3073	3073	3073	3073	3073	3073	3073	3073	3073	3073	3073	3073	3073	3073	3073	3073	3073	3073	3073	3073	3101	3101	3101	3129	3129	3129	3129	3101	3101	3101	3073	3073	3073	3073	3073	3073	3073	3073	3073	3073	3073	3046	3046	3046	3046	3659	3659	3621	3621	3621	3621	3621	3583	3583	3583	3583	3583	3583	3583	3583	3621	3621	3621	3621	3621	3621	3621	3621	3621	3621	3621	3621	3621	3621	3621	3621	3621	3621	3621	3621	3583	3583	3583	3583	3583	3621	3583	3621	3621	3621	3621	3583	3583	3583	3621	3621	3621	3621	3583	3583	3583	3583	3583	3583	3583	3583	3583	3621	3583	3621	3621	3583	3583	3583	3583	3583	3583	3583	3583	3583	3583	3583	3583	3583	3583	3583	3583	3583	3583	3583	3583	3583	3583	3583	3583	3583	3583	3621	3621	3621	3621	3621	3621	3621	3621	3621	3621	3621	3621	3621	3621	3621	3621	3621	3621	3621	3621	3621	3621	3621	3621	3621	3621	3621	3621	3621	3621	3583	3583	3583	3583	3583	3583	3583	3621	3583	3621	3621	3621	3621	3621	3621	3621	3621	3583	3583	3621	3583	3583	3583	3583	3583	3583	3583	3583	3583	3583	3583	3583	3583	3583	3583	3546	3583	3583	3583	3546	3510	3546	3546	0	0	0	0	2237	2223	2208	2194	2194	2181	2167	2153	2140	2114	2101	2076	2076	2051	2039	2039	2027	2015	1992	1980	1980	1969	1958	1947	1936	1936	1915	1904	1894	1883	1873	1863	1853	1853	1853	1853	1853	1853	0	0	0	0	0	0	0	0	0	0	0	0	0	0	0	0	0	0	0	0	0	0	0	0	0	0	0	0	0	0	0	0	0	0	0	0	0	0	0	0	0	0	0	0	0	0	0	0	0	0	0	0	0	0	0	0	0	0	0	0	0	0	0	0	0	0	0	0	0	0	0	0	0	0	0	0	0	0	0	0	0	0	0	0	0	0	0	0	0	0	0	0	0	0	0	0	0	0	0	0	0	0	0	0	0	0	0	0	0	0	0	0	0	0	0	0	0	0	0	0	0	0	0	0	0	0	0	0	0	0	0	0	0
0	0	0	0	0	0	0	0	0	0	0	0	0	1641	1641	1657	1657	1665	1665	1673	1673	1681	1681	1690	1690	1698	1706	1715	1715	1723	1732	1741	1759	1777	1777	1786	1795	1804	1814	1814	1824	1824	1833	1833	1833	1833	1833	1843	1843	1853	1853	1853	1883	1894	1904	1894	1904	1904	1915	1915	1915	1925	1925	1925	2532	2514	2496	2496	2496	2496	2496	2478	2478	2514	2496	2478	2496	2478	2496	2496	2514	2532	2514	2532	2514	2532	2514	2514	2514	2496	2514	2514	2514	2514	2514	2514	2514	2514	2514	2514	2514	2514	2514	2514	2496	2496	2496	2496	2496	2496	2496	2496	2514	2514	2496	2514	2514	2496	2496	2496	2514	2532	2551	2532	2532	3621	3583	3546	3510	3510	3510	3510	3510	3510	3510	3510	3510	3510	3510	3510	3510	3510	3510	3510	3510	3510	3510	3510	3510	3546	3546	3510	3510	3510	3510	3510	3510	3510	3510	3510	3510	3546	3546	3546	3546	3546	3546	3546	3546	3546	3510	3510	3510	3546	3510	3546	3546	3546	3546	3546	3546	3583	3621	3621	3621	3621	3583	3583	3583	3583	3621	3621	3621	3621	3621	3621	3621	3583	3621	3583	3621	3019	3019	3046	3046	3073	3073	3073	3073	3046	3046	3046	3019	3019	3019	3019	3046	3046	3046	3073	3073	3046	3046	3046	3046	3019	3019	3019	3019	3019	3019	3019	3019	3019	3019	3019	3019	3046	3046	3046	3046	3046	3073	3073	3073	3073	3073	3073	3073	3073	3073	3046	3046	3073	3046	3073	3073	3073	3073	3073	3073	3073	3073	3073	3073	3073	3073	3073	3073	3073	3073	3073	3073	3073	3073	3101	3101	3101	3129	3129	3129	3129	3101	3101	3101	3073	3073	3073	3073	3073	3073	3073	3073	3073	3073	3073	3073	3046	3046	3659	3659	3659	3621	3621	3621	3621	3621	3583	3583	3583	3583	3583	3583	3583	3583	3583	3621	3621	3621	3621	3621	3621	3621	3621	3621	3621	3621	3621	3621	3621	3621	3621	3621	3621	3621	3583	3583	3583	3583	3583	3583	3583	3583	3583	3583	3583	3583	3583	3583	3583	3621	3621	3621	3583	3583	3583	3583	3583	3583	3583	3583	3583	3621	3583	3621	3583	3583	3583	3583	3583	3583	3583	3583	3583	3583	3583	3583	3583	3583	3583	3583	3583	3583	3583	3583	3583	3583	3583	3583	3583	3583	3583	3621	3621	3621	3621	3621	3621	3621	3621	3621	3621	3621	3621	3621	3621	3621	3621	3621	3621	3621	3621	3621	3621	3621	3621	3621	3621	3621	3621	3621	3621	3621	3621	3621	3583	3583	3583	3583	3583	3583	3621	3621	3621	3621	3621	3621	3621	3621	3583	3621	3621	3583	3583	3583	3583	3583	3583	3583	3583	3583	3621	3583	3583	3583	3583	3583	3583	3583	3583	3583	3583	3546	3583	3583	3583	0	0	0	2237	2208	2208	2194	2181	2181	2167	2153	2140	2114	2101	2088	2076	2063	2039	2039	2027	2015	2003	1992	1980	1969	1958	1947	1947	1936	1915	1904	1894	1883	1873	1863	1853	1853	1853	1853	1853	1853	0	0	0	0	0	0	0	0	0	0	0	0	0	0	0	0	0	0	0	0	0	0	0	0	0	0	0	0	0	0	0	0	0	0	0	0	0	0	0	0	0	0	0	0	0	0	0	0	0	0	0	0	0	0	0	0	0	0	0	0	0	0	0	0	0	0	0	0	0	0	0	0	0	0	0	0	0	0	0	0	0	0	0	0	0	0	0	0	0	0	0	0	0	0	0	0	0	0	0	0	0	0	0	0	0	0	0	0	0	0	0	0	0	0	0	0	0	0	0	0	0	0	0	0	0	0	0	0	0	0	0	0	0
0	0	0	0	0	0	0	0	0	0	0	0	0	1641	1649	1657	1657	1665	1673	1673	1681	1681	1681	1690	1690	1698	1698	1715	1715	1723	1732	1741	1759	1759	1768	1786	1786	1804	1804	1814	1814	1824	1833	1833	1833	1843	1843	1853	1853	1863	1863	1873	1883	1894	1894	1894	1904	1915	1904	1915	1915	1925	1925	1925	1936	1947	1947	2514	2514	2514	2514	2478	2478	2514	2496	2478	2496	2478	2478	2496	2496	2514	2514	2514	2496	2514	2514	2514	2514	2496	2514	2514	2514	2514	2514	2514	2496	2514	2514	2514	2496	2514	2514	2532	2532	2496	2496	2496	2496	2514	2514	2496	2514	2514	2514	2514	2514	2496	2496	2496	2514	2532	2532	2532	2532	0	3621	3546	3546	3546	3510	3510	3510	3510	3510	3510	3510	3510	3510	3510	3510	3510	3510	3510	3510	3510	3510	3510	3510	3510	3510	3510	3510	3510	3510	3510	3510	3510	3510	3510	3510	3546	3546	3546	3546	3546	3546	3546	3546	3546	3510	3510	3510	3546	3546	3546	3546	3546	3546	3546	3546	3583	3583	3621	3621	3621	3583	3583	3583	3621	3621	3621	3621	3621	3621	3621	3583	3583	3583	3583	3621	3046	3046	3046	3046	3073	3073	3046	3046	3046	3046	3046	3046	3046	3046	3046	3046	3046	3046	3046	3073	3046	3046	3046	3046	3019	3019	3019	3019	3019	3019	3019	3019	3019	3019	3019	3019	3046	3046	3046	3046	3046	3073	3073	3073	3073	3073	3073	3073	3073	3073	3046	3046	3073	3046	3046	3046	3073	3073	3073	3073	3073	3073	3073	3073	3073	3073	3073	3073	3073	3073	3073	3073	3073	3073	3101	3101	3101	3129	3157	3129	3129	3129	3101	3101	3073	3073	3073	3073	3073	3073	3073	3073	3073	3073	3073	3046	3046	3046	3659	3659	3659	3621	3621	3621	3621	3621	3583	3583	3583	3583	3583	3583	3583	3583	3621	3621	3621	3621	3621	3621	3621	3621	3621	3621	3621	3621	3621	3621	3621	3621	3621	3621	3621	3621	3583	3583	3583	3583	3583	3583	3583	3583	3583	3583	3621	3621	3583	3583	3583	3621	3621	3583	3583	3583	3583	3583	3583	3583	3583	3583	3583	3583	3583	3583	3583	3583	3583	3583	3583	3583	3583	3583	3583	3583	3583	3583	3583	3583	3583	3583	3583	3583	3583	3583	3583	3583	3583	3583	3583	3583	3583	3621	3621	3621	3621	3621	3621	3621	3621	3621	3621	3621	3621	3621	3621	3621	3621	3621	3621	3621	3621	3621	3621	3621	3621	3621	3621	3621	3621	3621	3621	3583	3583	3583	3583	3583	3583	3583	3583	3583	3583	3621	3621	3621	3621	3621	3621	3621	3621	3621	3621	3583	3583	3583	3583	3583	3583	3583	3583	3583	3583	3583	3583	3583	3583	3583	3583	3583	3583	3583	3583	3546	3583	3583	3583	0	0	0	2223	2208	2194	2194	2181	2181	2167	2153	2140	2101	2088	2076	2076	2063	2051	2039	2039	2015	2003	1992	1980	1980	1969	1958	1947	1936	1915	1904	1894	1883	1873	1863	1853	1853	1843	1843	1843	1843	0	0	0	0	0	0	0	0	0	0	0	0	0	0	0	0	0	0	0	0	0	0	0	0	0	0	0	0	0	0	0	0	0	0	0	0	0	0	0	0	0	0	0	0	0	0	0	0	0	0	0	0	0	0	0	0	0	0	0	0	0	0	0	0	0	0	0	0	0	0	0	0	0	0	0	0	0	0	0	0	0	0	0	0	0	0	0	0	0	0	0	0	0	0	0	0	0	0	0	0	0	0	0	0	0	0	0	0	0	0	0	0	0	0	0	0	0	0	0	0	0	0	0	0	0	0	0	0	0	0	0	0	0
0	0	0	0	0	0	0	0	0	0	0	0	0	1641	1649	1649	1657	1665	1665	1673	1681	1681	1681	1690	1690	1698	1698	1715	1723	1723	1732	1732	1741	1741	1768	1786	1786	1795	1804	1804	1814	1824	1833	1843	1843	1853	1853	1863	1863	1863	1873	1873	1873	1883	1883	1883	1894	1894	1904	1915	1925	1925	1936	1936	1936	1958	1947	1958	1958	2514	2532	2015	2015	2514	2496	2496	2514	2496	2496	2496	2496	2514	2514	2514	2496	2514	2532	2514	2496	2496	2514	2514	2514	2514	2514	2514	2496	2496	2514	2496	2496	2496	2514	2514	2496	2496	2496	2496	2496	2514	2514	2514	2514	2514	2514	2514	2514	2496	2496	2514	2514	2532	2532	2514	2514	0	3510	3510	3510	3510	3510	3510	3510	3510	3510	3510	3546	3510	3510	3510	3510	3510	3510	3510	3510	3546	3510	3510	3510	3510	3510	3510	3510	3510	3510	3510	3510	3510	3510	3510	3510	3546	3546	3546	3546	3546	3546	3546	3546	3510	3510	3510	3510	3510	3510	3546	3546	3546	3546	3546	3546	3583	3583	3621	3621	3583	3583	3583	3583	3583	3583	3583	3583	3583	3621	3621	3621	3583	3621	3583	3621	3621	3046	3046	3046	3073	3046	3046	3046	3046	3046	3046	3046	3046	3046	3046	3046	3073	3073	3046	3046	3046	3046	3046	3019	3019	3019	3019	3019	3019	3019	3019	3019	3019	3019	3019	3019	3046	3046	3046	3046	3046	3073	3073	3073	3073	3073	3073	3073	3073	3073	3046	3046	3073	3046	3073	3073	3073	3073	3073	3073	3073	3073	3073	3073	3073	3073	3073	3073	3073	3073	3073	3073	3073	3073	3101	3101	3101	3129	3129	3129	3129	3101	3101	3101	3101	3073	3073	3073	3073	3073	3073	3073	3073	3073	3073	3073	3046	3046	3698	3659	3659	3621	3621	3621	3583	3583	3583	3583	3583	3583	3583	3583	3583	3583	3621	3621	3621	3621	3621	3621	3621	3621	3621	3621	3621	3621	3621	3621	3621	3621	3621	3621	3583	3583	3583	3583	3583	3583	3583	3583	3583	3583	3583	3583	3621	3621	3583	3583	3583	3621	3621	3583	3583	3583	3583	3583	3583	3583	3583	3583	3583	3583	3583	3583	3583	3583	3583	3583	3583	3583	3583	3583	3583	3583	3583	3583	3583	3583	3583	3583	3583	3583	3583	3583	3583	3583	3583	3583	3583	3583	3583	3621	3621	3621	3621	3621	3621	3621	3621	3621	3621	3621	3621	3621	3621	3621	3621	3621	3621	3621	3621	3621	3621	3621	3621	3621	3621	3621	3583	3621	3583	3583	3583	3583	3583	3583	3583	3583	3583	3583	3583	3621	3621	3621	3621	3583	3583	3583	3583	3583	3621	3583	3583	3583	3583	3583	3583	3583	3583	3583	3583	3583	3583	3621	3583	3583	3583	3621	3583	3583	3583	3546	3546	3546	3546	0	0	0	2208	2194	2194	2194	2181	2167	2153	2140	2140	2101	2088	2076	2076	2063	2051	2039	2039	2015	2003	1992	1992	1980	1969	1958	1947	1936	1915	1904	1894	1883	1873	1863	1853	1853	1843	1843	1843	1843	0	0	0	0	0	0	0	0	0	0	0	0	0	0	0	0	0	0	0	0	0	0	0	0	0	0	0	0	0	0	0	0	0	0	0	0	0	0	0	0	0	0	0	0	0	0	0	0	0	0	0	0	0	0	0	0	0	0	0	0	0	0	0	0	0	0	0	0	0	0	0	0	0	0	0	0	0	0	0	0	0	0	0	0	0	0	0	0	0	0	0	0	0	0	0	0	0	0	0	0	0	0	0	0	0	0	0	0	0	0	0	0	0	0	0	0	0	0	0	0	0	0	0	0	0	0	0	0	0	0	0	0	0
0	0	0	0	0	0	0	0	0	0	0	0	0	1641	1649	1657	1657	1665	1665	1673	1673	1681	1681	1690	1690	1698	1698	1706	1715	1715	1723	1732	1741	1759	1759	1768	1786	1795	1804	1804	1804	1833	1833	1843	1843	1853	1853	1863	1863	1863	1873	1873	1873	1883	1883	1883	1904	1904	1915	1925	1925	1936	1936	1936	1947	1958	1947	1980	1992	2003	2003	2003	2003	2003	2496	2496	2514	2478	2496	2496	2496	2514	2514	2514	2496	2532	2514	2532	2532	2532	2514	2514	2532	2514	2514	2514	2496	2496	2514	2496	2496	2496	2514	2514	2514	2496	2496	2496	2496	2514	2514	2514	2514	2514	2514	2514	2514	2514	2514	2514	2514	2514	2514	2514	2514	0	3510	3510	3510	3510	3510	3510	3510	3510	3510	3510	3510	3510	3510	3510	3510	3510	3510	3510	3546	3546	3510	3510	3510	3510	3510	3510	3510	3510	3510	3510	3510	3510	3510	3510	3510	3546	3546	3546	3546	3546	3546	3546	3546	3546	3510	3510	3510	3546	3546	3546	3546	3546	3546	3546	3546	3546	3583	3621	3583	3583	3583	3583	3583	3583	3583	3583	3583	3583	3621	3621	3621	3583	3583	3583	3621	3621	3019	3019	3046	3046	3046	3046	3046	3046	3046	3046	3046	3046	3046	3046	3046	3073	3046	3073	3046	3046	3046	3046	3019	3019	3019	3019	3019	3019	3019	3019	3019	3019	2993	3019	3019	3046	3046	3046	3046	3046	3073	3046	3046	3046	3046	3073	3073	3073	3073	3073	3073	3073	3073	3046	3073	3073	3073	3046	3073	3073	3073	3073	3073	3073	3073	3073	3073	3073	3073	3073	3073	3073	3073	3101	3101	3101	3129	3129	3129	3101	3101	3101	3101	3073	3073	3073	3073	3073	3073	3073	3073	3073	3073	3073	3073	3046	3046	3698	3621	3621	3621	3621	3583	3583	3583	3583	3583	3583	3583	3583	3583	3583	3583	3583	3621	3583	3583	3583	3583	3621	3621	3621	3621	3621	3621	3621	3621	3621	3621	3583	3583	3583	3583	3583	3583	3583	3583	3583	3583	3583	3583	3583	3583	3621	3583	3583	3583	3583	3583	3583	3583	3583	3583	3583	3583	3583	3583	3583	3583	3583	3583	3583	3583	3583	3583	3583	3583	3583	3583	3583	3583	3583	3583	3583	3583	3583	3583	3583	3583	3583	3583	3583	3583	3583	3583	3583	3583	3583	3583	3583	3621	3621	3621	3621	3621	3621	3621	3621	3621	3621	3621	3621	3621	3621	3621	3621	3621	3621	3621	3621	3659	3621	3621	3621	3621	3621	3621	3583	3583	3583	3583	3583	3583	3583	3546	3546	3583	3583	3583	3583	3621	3621	3621	3621	3583	3583	3583	3583	3583	3583	3583	3583	3583	3583	3583	3583	3583	3583	3583	3583	3583	3583	3583	3583	3583	3583	3583	3583	3583	3546	3546	3546	3546	3546	0	0	0	2208	2208	2194	2194	2181	2167	2153	2140	2140	2101	2088	2076	2076	2063	2051	2051	2039	2027	2003	1992	1980	1980	1969	1958	1947	1936	1915	1904	1894	1883	1873	1863	1853	1853	1843	1843	1843	1843	0	0	0	0	0	0	0	0	0	0	0	0	0	0	0	0	0	0	0	0	0	0	0	0	0	0	0	0	0	0	0	0	0	0	0	0	0	0	0	0	0	0	0	0	0	0	0	0	0	0	0	0	0	0	0	0	0	0	0	0	0	0	0	0	0	0	0	0	0	0	0	0	0	0	0	0	0	0	0	0	0	0	0	0	0	0	0	0	0	0	0	0	0	0	0	0	0	0	0	0	0	0	0	0	0	0	0	0	0	0	0	0	0	0	0	0	0	0	0	0	0	0	0	0	0	0	0	0	0	0	0	0	0
0	0	0	0	0	0	0	0	0	0	0	0	0	1641	1657	1657	1657	1665	1665	1673	1673	1681	1681	1690	1690	1698	1706	1706	1706	1706	1723	1732	1741	1759	1759	1768	1777	1795	1804	1804	1804	1814	1824	1833	1843	1843	1863	1863	1863	1863	1883	1883	1883	1883	1894	1894	1904	1915	1915	1925	1947	1936	1947	1936	1947	1958	1958	1980	1992	2003	2003	2003	2003	2015	2027	2027	2514	2496	2496	2496	2514	2532	2514	2532	2532	2532	2514	2532	2532	2532	2532	2514	2514	2514	2514	2496	2496	2496	2514	2514	2514	2514	2514	2514	2514	2496	2496	2496	2496	2514	2514	2514	2514	2514	2514	2514	2514	2496	2514	2496	2514	2514	2514	2514	2514	0	3510	3510	3510	3510	3546	3546	3546	3510	3546	3546	3546	3510	3510	3510	3510	3510	3510	3510	3510	3546	3546	3510	3510	3510	3510	3510	3510	3510	3510	3510	3510	3510	3510	3510	3510	3546	3546	3546	3546	3546	3546	3546	3546	3546	3546	3510	3546	3546	3546	3546	3546	3510	3546	3546	3546	3546	3583	3583	3583	3583	3583	3583	3583	3583	3583	3583	3583	3583	3621	3621	3621	3621	3621	3621	3621	3621	3046	3046	3046	3046	3046	3046	3046	3046	3046	3046	3046	3046	3046	3046	3046	3046	3046	3046	3046	3046	3046	3019	3019	3019	3019	3019	3019	3019	3019	3019	3019	3019	3019	3019	3019	3046	3046	3046	3046	3046	3073	3073	3073	3073	3073	3073	3073	3073	3073	3073	3073	3073	3073	3073	3073	3073	3073	3046	3073	3073	3073	3073	3073	3073	3073	3073	3073	3073	3073	3073	3073	3101	3101	3101	3101	3101	3129	3129	3129	3101	3101	3101	3101	3101	3073	3073	3073	3073	3073	3073	3073	3073	3073	3073	3046	3046	3046	3659	3621	3621	3621	3621	3583	3583	3583	3583	3583	3583	3583	3583	3583	3546	3546	3583	3621	3583	3583	3583	3583	3583	3583	3621	3621	3583	3621	3621	3621	3621	3621	3583	3583	3583	3583	3583	3583	3583	3583	3583	3583	3583	3583	3583	3583	3583	3583	3583	3583	3583	3583	3583	3583	3583	3583	3583	3583	3583	3583	3583	3583	3583	3583	3583	3583	3583	3583	3583	3583	3583	3583	3583	3583	3583	3583	3583	3583	3583	3583	3583	3583	3583	3583	3583	3583	3583	3583	3583	3583	3583	3583	3583	3621	3621	3621	3621	3621	3621	3621	3621	3621	3621	3621	3621	3621	3621	3621	3621	3621	3621	3621	3621	3621	3621	3621	3621	3621	3621	3583	3583	3621	3583	3583	3583	3583	3583	3583	3583	3583	3621	3583	3583	3621	3621	3621	3621	3583	3583	3583	3583	3583	3583	3583	3583	3583	3546	3583	3546	3583	3583	3583	3583	3583	3583	3583	3583	3583	3546	3583	3583	3583	3546	3546	3546	3546	3546	0	0	0	2194	2194	2194	2181	2167	2167	2153	2140	2127	2101	2088	2076	2076	2063	2063	2051	2039	2027	2003	1992	1992	1980	1969	1958	1947	1936	1915	1904	1894	1883	1873	1863	1853	1853	1843	1843	1843	1843	0	0	0	0	0	0	0	0	0	0	0	0	0	0	0	0	0	0	0	0	0	0	0	0	0	0	0	0	0	0	0	0	0	0	0	0	0	0	0	0	0	0	0	0	0	0	0	0	0	0	0	0	0	0	0	0	0	0	0	0	0	0	0	0	0	0	0	0	0	0	0	0	0	0	0	0	0	0	0	0	0	0	0	0	0	0	0	0	0	0	0	0	0	0	0	0	0	0	0	0	0	0	0	0	0	0	0	0	0	0	0	0	0	0	0	0	0	0	0	0	0	0	0	0	0	0	0	0	0	0	0	0	0
0	0	0	0	0	0	0	0	0	0	0	0	0	1634	1657	1657	1665	1665	1665	1673	1673	1681	1681	1690	1690	1698	1706	1706	1715	1715	1723	1732	1732	1750	1759	1768	1777	1795	1786	1786	1795	1795	1814	1824	1833	1863	1863	1873	1863	1863	1873	1883	1883	1883	1894	1904	1915	1915	1925	1947	1947	1947	1947	1947	1958	1958	1958	1969	1980	1992	1992	2003	2003	2015	2027	2051	2039	2051	2051	2514	2514	2532	2532	2532	2532	2532	2532	2532	2532	2532	2532	2514	2532	2514	2514	2514	2496	2496	2514	2514	2514	2514	2496	2496	2496	2496	2496	2496	2496	2514	2514	2514	2514	2514	2514	2514	2514	2514	2514	2514	2514	2514	2514	2496	2496	0	3475	3510	3510	3510	3510	3546	3546	3546	3546	3546	3546	3546	3510	3510	3510	3510	3510	3510	3546	3546	3546	3510	3510	3510	3510	3510	3510	3510	3510	3510	3510	3510	3510	3510	3510	3546	3546	3546	3546	3546	3546	3546	3546	3510	3546	3510	3546	3546	3546	3546	3546	3510	3510	3546	3546	3546	3546	3583	3583	3583	3583	3583	3583	3583	3583	3583	3583	3583	3583	3621	3621	3621	3583	3621	3621	3621	3046	3046	3073	3046	3046	3046	3046	3046	3046	3046	3046	3046	3046	3046	3073	3073	3073	3073	3073	3046	3046	3019	3019	3019	3019	3019	3019	3019	3019	3019	3019	3019	2993	2993	3019	3046	3046	3046	3046	3073	3073	3073	3073	3073	3073	3073	3073	3073	3073	3073	3073	3073	3073	3073	3073	3073	3046	3046	3046	3046	3073	3073	3073	3073	3073	3046	3073	3073	3073	3073	3073	3101	3101	3101	3101	3101	3101	3101	3101	3101	3101	3101	3101	3073	3073	3073	3073	3073	3073	3073	3073	3073	3073	3073	3046	3046	3698	3659	3621	3621	3621	3621	3583	3583	3583	3583	3583	3583	3583	3583	3583	3583	3546	3583	3583	3583	3583	3583	3583	3583	3583	3583	3583	3583	3583	3621	3621	3621	3583	3583	3583	3583	3583	3583	3583	3583	3583	3583	3583	3583	3583	3583	3583	3583	3583	3583	3583	3583	3583	3583	3583	3583	3583	3583	3583	3583	3583	3583	3583	3583	3583	3583	3583	3583	3583	3583	3583	3583	3583	3583	3583	3583	3583	3583	3583	3583	3583	3583	3583	3583	3583	3583	3583	3583	3583	3583	3583	3583	3583	3583	3621	3621	3621	3621	3621	3621	3621	3621	3621	3621	3621	3621	3621	3621	3621	3621	3621	3621	3621	3621	3621	3621	3621	3621	3621	3621	3583	3583	3583	3583	3583	3583	3583	3583	3546	3546	3583	3583	3583	3583	3583	3583	3583	3621	3583	3583	3583	3583	3583	3583	3583	3583	3583	3546	3546	3546	3546	3546	3546	3546	3546	3546	3546	3583	3546	3546	3546	3546	3583	3546	3546	3546	3546	3510	3510	0	0	2194	2194	2194	2181	2167	2167	2153	2140	2127	2101	2088	2076	2076	2063	2063	2051	2039	2027	2003	1992	1992	1980	1958	1947	1947	1936	1915	1904	1894	1883	1873	1863	1853	1853	1843	1843	1843	1843	0	0	0	0	0	0	0	0	0	0	0	0	0	0	0	0	0	0	0	0	0	0	0	0	0	0	0	0	0	0	0	0	0	0	0	0	0	0	0	0	0	0	0	0	0	0	0	0	0	0	0	0	0	0	0	0	0	0	0	0	0	0	0	0	0	0	0	0	0	0	0	0	0	0	0	0	0	0	0	0	0	0	0	0	0	0	0	0	0	0	0	0	0	0	0	0	0	0	0	0	0	0	0	0	0	0	0	0	0	0	0	0	0	0	0	0	0	0	0	0	0	0	0	0	0	0	0	0	0	0	0	0	0
0	0	0	0	0	0	0	0	0	0	0	0	0	1649	1657	1657	1657	1665	1665	1665	1673	1673	1681	1690	1690	1698	1706	1706	1715	1715	1723	1723	1741	1750	1759	1759	1768	1768	1786	1786	1795	1795	1804	1804	1814	1853	1843	1853	1853	1853	1863	1873	1883	1883	1894	1915	1915	1925	1936	1947	1958	1947	1947	1947	1958	1958	1958	1969	1969	1992	1992	2003	2003	2015	2027	2051	2039	2063	2063	2063	2514	2532	2532	2551	2532	2532	2532	2532	2532	2532	2532	2514	2514	2514	2514	2496	2496	2496	2514	2514	2514	2496	2496	2496	2496	2496	2496	2496	2514	2514	2514	2514	2514	2514	2514	2514	2514	2514	2514	2514	2514	2514	2514	2496	2496	0	3475	3510	3510	3510	3510	3546	3546	3546	3546	3546	3546	3546	3510	3510	3510	3510	3510	3510	3510	3546	3546	3510	3510	3510	3510	3510	3510	3510	3510	3510	3510	3510	3510	3510	3510	3546	3546	3546	3546	3546	3546	3546	3546	3546	3546	3546	3546	3546	3546	3546	3510	3510	3510	3546	3510	3546	3546	3583	3583	3583	3583	3583	3583	3583	3583	3583	3583	3583	3583	3621	3621	3583	3583	3583	3583	3583	3073	3073	3073	3046	3046	3046	3046	3046	3046	3046	3046	3046	3046	3046	3073	3073	3073	3073	3073	3046	3046	3019	3019	3019	3019	3019	3019	3019	3019	3019	3019	2993	2993	3019	3019	3046	3046	3046	3073	3073	3073	3073	3073	3073	3073	3073	3073	3073	3073	3073	3073	3073	3073	3073	3073	3073	3073	3046	3046	3073	3073	3073	3073	3073	3073	3073	3073	3073	3073	3073	3073	3101	3101	3101	3101	3101	3101	3101	3101	3101	3101	3101	3101	3101	3073	3073	3073	3073	3073	3073	3073	3073	3073	3073	3073	3073	3659	3659	3621	3621	3583	3583	3583	3583	3583	3583	3583	3583	3583	3583	3583	3583	3583	3583	3583	3583	3583	3583	3583	3583	3583	3583	3583	3583	3583	3583	3621	3621	3583	3583	3583	3583	3583	3583	3583	3583	3583	3583	3583	3583	3583	3583	3583	3583	3583	3583	3583	3583	3583	3583	3583	3583	3583	3583	3583	3583	3583	3583	3583	3583	3583	3583	3583	3583	3583	3583	3583	3583	3583	3583	3583	3583	3583	3583	3583	3583	3583	3583	3583	3583	3583	3583	3583	3583	3583	3583	3583	3583	3546	3583	3583	3621	3621	3621	3621	3621	3621	3621	3621	3621	3621	3621	3621	3621	3621	3621	3659	3621	3621	3621	3621	3621	3621	3621	3621	3621	3583	3583	3621	3583	3583	3583	3583	3583	3546	3546	3546	3583	3583	3583	3583	3583	3583	3583	3583	3583	3583	3583	3546	3546	3546	3546	3546	3546	3546	3546	3546	3546	3546	3546	3546	3546	3583	3583	3546	3583	3583	3546	3546	3546	3546	3546	3546	3510	3510	0	0	2194	2194	2194	2181	2181	2167	2153	2140	2127	2101	2088	2076	2076	2063	2063	2051	2039	2027	2003	2003	1992	1980	1958	1947	1936	1925	1925	1904	1894	1883	1883	1863	1853	1853	1843	1843	1843	1843	0	0	0	0	0	0	0	0	0	0	0	0	0	0	0	0	0	0	0	0	0	0	0	0	0	0	0	0	0	0	0	0	0	0	0	0	0	0	0	0	0	0	0	0	0	0	0	0	0	0	0	0	0	0	0	0	0	0	0	0	0	0	0	0	0	0	0	0	0	0	0	0	0	0	0	0	0	0	0	0	0	0	0	0	0	0	0	0	0	0	0	0	0	0	0	0	0	0	0	0	0	0	0	0	0	0	0	0	0	0	0	0	0	0	0	0	0	0	0	0	0	0	0	0	0	0	0	0	0	0	0	0	0
0	0	0	0	0	0	0	0	0	0	0	0	0	1634	1649	1649	1657	1657	1665	1673	1673	1681	1681	1690	1698	1698	1706	1706	1715	1715	1715	1723	1732	1750	1759	1768	1768	1786	1786	1786	1795	1795	1804	1804	1824	1843	1843	1853	1853	1853	1863	1873	1873	1883	1883	1894	1904	1925	1936	1947	1958	1958	1958	1958	1958	1958	1958	1969	1969	1980	1992	2003	2003	2027	2027	2051	2051	2051	2063	2076	2088	2088	2088	2532	2532	2514	2532	2532	2532	2532	2532	2514	2514	2514	2514	2496	2514	2514	2496	2496	2496	2496	2496	2496	2496	2496	2496	2514	2514	2514	2496	2514	2514	2514	2514	2514	2514	2514	2514	2514	2514	2514	2496	2514	2514	0	3510	3510	3510	3510	3510	3546	3546	3546	3546	3546	3546	3546	3510	3510	3510	3510	3510	3510	3510	3546	3546	3510	3510	3510	3510	3510	3510	3510	3510	3510	3510	3510	3510	3510	3510	3546	3546	3546	3546	3546	3546	3546	3546	3510	3546	3546	3546	3546	3546	3510	3510	3510	3510	3546	3546	3546	3546	3546	3583	3583	3546	3583	3583	3583	3583	3583	3583	3583	3583	3621	3621	3583	3583	3621	3621	3659	3073	3073	3073	3046	3046	3046	3046	3046	3046	3046	3046	3046	3073	3073	3073	3073	3073	3046	3046	3046	3046	3019	3019	3019	3019	3019	3019	3019	3019	3019	3019	2993	2993	3019	3019	3046	3046	3073	3073	3073	3073	3073	3073	3073	3073	3073	3073	3073	3073	3073	3073	3073	3073	3073	3073	3073	3046	3046	3046	3046	3073	3046	3046	3073	3046	3046	3073	3073	3073	3073	3073	3073	3101	3073	3101	3101	3101	3101	3101	3101	3101	3101	3101	3101	3073	3073	3073	3073	3073	3073	3073	3073	3073	3073	3073	3073	3659	3621	3621	3583	3583	3583	3583	3583	3583	3583	3583	3583	3583	3583	3583	3583	3546	3583	3583	3583	3583	3583	3583	3583	3583	3583	3583	3583	3583	3583	3583	3583	3583	3583	3583	3583	3583	3583	3583	3583	3583	3583	3583	3583	3583	3583	3583	3583	3583	3583	3583	3583	3583	3583	3583	3583	3583	3583	3583	3583	3583	3583	3583	3583	3583	3583	3583	3583	3583	3583	3583	3583	3583	3583	3583	3583	3583	3583	3583	3583	3583	3583	3583	3583	3583	3583	3583	3583	3546	3583	3546	3546	3583	3546	3621	3621	3621	3621	3621	3621	3621	3621	3621	3621	3621	3621	3621	3621	3621	3621	3621	3621	3621	3621	3621	3621	3621	3621	3621	3621	3583	3583	3583	3583	3583	3583	3583	3583	3546	3546	3583	3583	3583	3583	3583	3583	3583	3583	3546	3546	3546	3546	3546	3546	3510	3546	3546	3510	3546	3546	3510	3546	3546	3546	3546	3546	3546	3583	3583	3583	3583	3546	3546	3546	3546	3510	3510	3510	3510	0	0	2194	2194	2194	2194	2181	2167	2153	2140	2127	2114	2088	2076	2076	2063	2063	2051	2039	2027	2015	1992	1992	1969	1958	1947	1936	1925	1915	1904	1894	1894	1883	1873	1863	1853	1843	1843	1843	1843	0	0	0	0	0	0	0	0	0	0	0	0	0	0	0	0	0	0	0	0	0	0	0	0	0	0	0	0	0	0	0	0	0	0	0	0	0	0	0	0	0	0	0	0	0	0	0	0	0	0	0	0	0	0	0	0	0	0	0	0	0	0	0	0	0	0	0	0	0	0	0	0	0	0	0	0	0	0	0	0	0	0	0	0	0	0	0	0	0	0	0	0	0	0	0	0	0	0	0	0	0	0	0	0	0	0	0	0	0	0	0	0	0	0	0	0	0	0	0	0	0	0	0	0	0	0	0	0	0	0	0	0	0
0	0	0	0	0	0	0	0	0	0	0	0	0	1634	1641	1649	1657	1657	1665	1673	1673	1673	1673	1681	1690	1698	1698	1706	1723	1723	1723	1732	1741	1741	1768	1768	1768	1786	1786	1786	1795	1795	1804	1804	1814	1833	1843	1843	1843	1853	1853	1873	1873	1883	1883	1894	1904	1915	1925	1947	1947	1947	1958	1958	1958	1958	1958	1969	1969	1980	1992	2015	2015	2027	2039	2039	2051	2051	2063	2063	2076	2088	2101	2101	2101	2101	2514	2532	2514	2514	2514	2514	2514	2496	2496	2496	2496	2514	2496	2496	2496	2496	2496	2496	2496	2496	2496	2514	2514	2514	2496	2514	2514	2514	2514	2514	2514	2496	2514	2514	2514	2496	2496	2514	2514	0	3510	3510	3510	3510	3510	3546	3546	3546	3546	3546	3546	3546	3510	3510	3510	3510	3510	3510	3510	3510	3510	3510	3510	3510	3510	3510	3510	3510	3475	3510	3510	3510	3510	3510	3510	3510	3546	3546	3546	3510	3546	3546	3546	3546	3546	3546	3546	3546	3546	3510	3510	3510	3510	3546	3546	3546	3546	3546	3583	3583	3546	3583	3583	3583	3583	3583	3583	3583	3583	3583	3621	3583	3583	3621	3659	3659	3073	3073	3073	3073	3046	3046	3046	3046	3046	3046	3046	3046	3046	3046	3073	3073	3046	3046	3046	3046	3046	3019	3019	3019	3019	3019	3019	3019	3019	3019	3019	3019	3019	3019	3019	3046	3046	3073	3073	3073	3073	3073	3073	3073	3073	3073	3073	3073	3073	3073	3073	3073	3073	3073	3073	3073	3073	3046	3046	3046	3046	3046	3046	3046	3046	3046	3073	3073	3073	3073	3073	3073	3073	3073	3073	3073	3101	3101	3101	3073	3101	3101	3073	3073	3073	3073	3073	3073	3073	3073	3073	3073	3073	3073	3073	3073	3621	3621	3583	3583	3583	3583	3583	3583	3583	3583	3583	3583	3583	3583	3583	3583	3583	3621	3621	3621	3583	3583	3583	3546	3583	3583	3583	3583	3583	3583	3583	3583	3583	3583	3583	3583	3583	3583	3583	3583	3583	3583	3583	3621	3583	3583	3583	3583	3583	3583	3583	3583	3583	3583	3583	3583	3583	3583	3583	3583	3583	3583	3583	3583	3583	3583	3583	3583	3583	3583	3583	3583	3583	3583	3583	3583	3583	3583	3583	3583	3583	3583	3583	3583	3583	3583	3583	3546	3546	3583	3546	3546	3546	3546	3583	3583	3583	3583	3621	3621	3621	3621	3621	3621	3621	3621	3621	3621	3621	3621	3621	3621	3621	3621	3621	3621	3621	3621	3621	3621	3583	3621	3621	3583	3583	3583	3583	3583	3546	3546	3583	3583	3583	3583	3583	3583	3583	3583	3583	3583	3583	3546	3546	3546	3510	3546	3510	3510	3546	3546	3510	3510	3546	3510	3546	3546	3546	3546	3546	3546	3546	3546	3546	3546	3546	3510	3510	3510	3510	0	0	2194	2208	2194	2194	2181	2167	2153	2140	2127	2114	2088	2076	2076	2076	2063	2051	2039	2027	2003	1992	1980	1969	1958	1947	1936	1925	1915	1894	1894	1894	1883	1873	1863	1853	1843	1843	1843	0	0	0	0	0	0	0	0	0	0	0	0	0	0	0	0	0	0	0	0	0	0	0	0	0	0	0	0	0	0	0	0	0	0	0	0	0	0	0	0	0	0	0	0	0	0	0	0	0	0	0	0	0	0	0	0	0	0	0	0	0	0	0	0	0	0	0	0	0	0	0	0	0	0	0	0	0	0	0	0	0	0	0	0	0	0	0	0	0	0	0	0	0	0	0	0	0	0	0	0	0	0	0	0	0	0	0	0	0	0	0	0	0	0	0	0	0	0	0	0	0	0	0	0	0	0	0	0	0	0	0	0	0	0
0	0	0	0	0	0	0	0	0	0	0	0	0	1634	1641	1649	1649	1649	1657	1665	1665	1665	1673	1681	1690	1698	1698	1706	1715	1715	1732	1732	1750	1759	1768	1768	1768	1768	1786	1786	1795	1795	1804	1804	1814	1824	1833	1833	1843	1843	1853	1873	1873	1883	1894	1904	1915	1915	1925	1947	1947	1947	1958	1958	1958	1958	1969	1969	1969	1980	2015	2027	2027	2027	2027	2039	2051	2063	2063	2063	2076	2101	2114	2114	2114	2127	2140	2140	2140	2496	2496	2514	2514	2514	2496	2514	2514	2496	2496	2496	2496	2496	2496	2496	2496	2496	2496	2514	2514	2514	2496	2496	2496	2514	2514	2496	2496	2496	2496	2496	2496	2496	2496	2496	2496	0	3510	3510	3510	3510	3510	3546	3546	3546	3546	3546	3546	3546	3510	3510	3510	3510	3510	3510	3510	3510	3510	3510	3510	3510	3475	3510	3475	3475	3475	3475	3475	3510	3510	3510	3510	3546	3546	3546	3546	3510	3546	3546	3546	3546	3546	3546	3546	3546	3546	3510	3510	3510	3510	3546	3546	3546	3546	3546	3546	3583	3546	3583	3583	3583	3583	3583	3583	3583	3583	3583	3583	3583	3621	3621	3659	3698	3101	3101	3073	3073	3073	3046	3046	3046	3046	3046	3046	3046	3046	3046	3073	3073	3046	3046	3046	3046	3046	3019	3019	3019	3019	3019	3019	3019	3019	3019	3019	3019	3019	3019	3019	3046	3046	3046	3073	3073	3073	3073	3073	3073	3073	3073	3073	3073	3073	3073	3073	3073	3073	3073	3073	3073	3073	3073	3046	3046	3046	3046	3046	3046	3046	3046	3073	3073	3073	3073	3073	3073	3073	3073	3073	3101	3101	3101	3101	3101	3101	3101	3101	3101	3101	3073	3073	3073	3073	3073	3073	3073	3073	3073	3073	3073	3621	3621	3583	3583	3583	3583	3583	3583	3583	3583	3583	3583	3583	3583	3583	3583	3583	3621	3621	3621	3621	3583	3583	3583	3583	3583	3583	3583	3583	3583	3621	3621	3583	3583	3583	3583	3583	3583	3583	3583	3583	3583	3583	3583	3583	3583	3583	3583	3583	3583	3583	3583	3583	3583	3583	3583	3583	3583	3546	3583	3583	3583	3583	3583	3583	3583	3583	3583	3583	3583	3583	3583	3583	3583	3583	3583	3583	3583	3583	3583	3583	3583	3583	3583	3583	3583	3583	3583	3583	3583	3583	3583	3583	3583	3583	3621	3621	3621	3621	3621	3621	3621	3621	3621	3621	3621	3621	3621	3621	3621	3621	3621	3621	3621	3621	3621	3621	3621	3621	3621	3621	3621	3621	3583	3583	3583	3583	3583	3583	3546	3546	3583	3583	3583	3583	3583	3583	3583	3583	3583	3583	3546	3546	3546	3510	3510	3510	3510	3546	3546	3510	3546	3546	3546	3546	3546	3546	3546	3546	3546	3546	3546	3546	3546	3510	3510	3510	3510	3510	0	0	0	2208	2194	2194	2181	2181	2167	2153	2140	2114	2088	2088	2076	2076	2063	2051	2039	2027	2003	1992	1980	1969	1958	1947	1936	1925	1915	1904	1894	1894	1883	1873	1863	1853	1843	1843	1833	1833	0	0	0	0	0	0	0	0	0	0	0	0	0	0	0	0	0	0	0	0	0	0	0	0	0	0	0	0	0	0	0	0	0	0	0	0	0	0	0	0	0	0	0	0	0	0	0	0	0	0	0	0	0	0	0	0	0	0	0	0	0	0	0	0	0	0	0	0	0	0	0	0	0	0	0	0	0	0	0	0	0	0	0	0	0	0	0	0	0	0	0	0	0	0	0	0	0	0	0	0	0	0	0	0	0	0	0	0	0	0	0	0	0	0	0	0	0	0	0	0	0	0	0	0	0	0	0	0	0	0	0	0	0
0	0	0	0	0	0	0	0	0	0	0	0	0	1626	1634	1641	1649	1649	1657	1665	1665	1673	1673	1681	1690	1698	1706	1715	1723	1723	1732	1741	1759	1759	1768	1768	1768	1768	1786	1786	1795	1795	1804	1804	1804	1814	1824	1833	1833	1843	1853	1863	1873	1883	1894	1904	1915	1915	1925	1936	1936	1947	1958	1958	1958	1958	1969	1980	1969	1992	2015	2027	2027	2027	2039	2051	2063	2063	2063	2076	2088	2088	2101	2101	2101	2127	2140	2140	2140	2140	2514	2514	2514	2514	2496	2514	2514	2514	2496	2496	2496	2496	2496	2496	2496	2496	2496	2496	2496	2496	2496	2496	2496	2496	2496	2496	2496	2496	2496	2496	2496	2496	2478	2478	2496	3510	3510	3510	3546	3510	3546	3546	3546	3546	3546	3546	3546	3510	3510	3510	3510	3510	3510	3510	3510	3510	3510	3510	3510	3510	3475	3475	3475	3475	3475	3475	3475	3510	3510	3510	3510	3546	3546	3546	3546	3510	3510	3510	3546	3546	3546	3510	3546	3510	3510	3510	3510	3510	3510	3510	3510	3546	3546	3546	3583	3583	3546	3583	3583	3583	3583	3583	3583	3546	3583	3583	3583	3583	3583	3621	3621	3073	3073	3073	3073	3073	3046	3046	3046	3046	3046	3046	3046	3046	3046	3046	3073	3073	3046	3046	3046	3046	3046	3019	3019	3019	3019	3019	3019	3019	3019	3019	3019	3019	3019	3019	3019	3046	3046	3046	3073	3073	3073	3073	3073	3073	3073	3073	3073	3073	3073	3073	3073	3073	3073	3073	3073	3073	3073	3073	3046	3046	3046	3046	3046	3046	3046	3046	3046	3073	3073	3073	3073	3073	3073	3073	3073	3101	3101	3101	3101	3101	3129	3101	3101	3101	3101	3073	3073	3073	3073	3073	3073	3073	3073	3073	3073	3073	3621	3621	3583	3583	3583	3583	3583	3583	3583	3583	3583	3583	3583	3583	3583	3583	3583	3621	3621	3621	3621	3583	3583	3583	3583	3583	3583	3583	3583	3583	3621	3621	3621	3583	3583	3583	3583	3583	3583	3583	3583	3583	3583	3583	3583	3583	3583	3583	3583	3583	3583	3583	3583	3583	3583	3583	3583	3583	3583	3583	3583	3583	3583	3583	3583	3583	3583	3583	3583	3583	3583	3583	3583	3583	3546	3546	3546	3583	3583	3583	3583	3583	3583	3583	3583	3583	3583	3583	3583	3583	3583	3546	3583	3583	3583	3621	3621	3621	3621	3621	3621	3621	3621	3621	3621	3621	3621	3621	3621	3621	3621	3621	3621	3621	3621	3621	3621	3621	3583	3621	3621	3621	3621	3621	3583	3583	3583	3583	3583	3583	3583	3583	3583	3583	3583	3583	3583	3583	3583	3583	3583	3546	3546	3546	3510	3546	3546	3546	3546	3546	3546	3546	3546	3546	3546	3546	3546	3546	3546	3546	3546	3546	3546	3546	3510	3510	3510	3546	3546	0	0	0	2208	2194	2194	2181	2181	2167	2153	2140	2127	2088	2088	2076	2063	2051	2039	2039	2027	2003	1992	1980	1958	1947	1936	1936	1925	1915	1894	1894	1894	1883	1873	1863	1853	1843	1843	1833	1824	1824	0	0	0	0	0	0	0	0	0	0	0	0	0	0	0	0	0	0	0	0	0	0	0	0	0	0	0	0	0	0	0	0	0	0	0	0	0	0	0	0	0	0	0	0	0	0	0	0	0	0	0	0	0	0	0	0	0	0	0	0	0	0	0	0	0	0	0	0	0	0	0	0	0	0	0	0	0	0	0	0	0	0	0	0	0	0	0	0	0	0	0	0	0	0	0	0	0	0	0	0	0	0	0	0	0	0	0	0	0	0	0	0	0	0	0	0	0	0	0	0	0	0	0	0	0	0	0	0	0	0	0	0
0	0	0	0	0	0	0	0	0	0	0	0	0	1634	1634	1641	1649	1657	1657	1665	1673	1673	1673	1690	1698	1698	1715	1723	1723	1732	1732	1732	1759	1759	1768	1759	1768	1768	1777	1777	1795	1795	1804	1804	1804	1824	1833	1833	1833	1843	1843	1863	1873	1883	1894	1904	1915	1915	1925	1925	1936	1947	1958	1958	1958	1969	1969	1980	1980	2003	2003	2027	2027	2039	2051	2051	2063	2063	2063	2076	2114	2114	2114	2127	2127	2140	2153	2140	2153	2153	2514	2514	2514	2514	2496	2514	2514	2514	2496	2496	2496	2496	2496	2496	2496	2496	2496	2496	2496	2496	2496	2496	2496	2496	2496	2496	2496	2496	2496	2496	2496	2496	2496	2496	0	3546	3546	3546	3546	3510	3546	3546	3546	3546	3546	3546	3546	3546	3510	3510	3510	3510	3510	3510	3510	3510	3510	3510	3510	3475	3475	3475	3475	3475	3475	3475	3475	3510	3510	3510	3510	3546	3546	3546	3546	3546	3546	3546	3546	3546	3510	3510	3510	3510	3510	3510	3510	3510	3510	3510	3510	3546	3546	3546	3546	3583	3546	3583	3583	3583	3583	3583	3583	3546	3583	3583	3583	3583	3583	3621	3621	3583	3073	3073	3073	3073	3073	3046	3073	3046	3046	3046	3046	3046	3073	3073	3073	3073	3046	3046	3046	3046	3046	3019	3019	3019	3019	3019	3019	3019	3019	3019	3019	3019	3019	3019	3019	3046	3046	3046	3073	3073	3073	3073	3073	3073	3073	3073	3073	3073	3073	3073	3073	3073	3073	3073	3073	3073	3073	3073	3073	3073	3046	3046	3046	3046	3046	3046	3073	3073	3073	3073	3073	3073	3073	3073	3073	3101	3101	3101	3101	3101	3101	3129	3129	3101	3101	3073	3073	3073	3073	3073	3073	3073	3073	3073	3073	3621	3621	3621	3583	3583	3583	3583	3583	3583	3583	3583	3583	3583	3583	3583	3583	3583	3583	3583	3621	3621	3621	3621	3621	3583	3621	3583	3583	3583	3583	3621	3621	3621	3621	3621	3583	3583	3583	3583	3583	3583	3583	3583	3583	3583	3583	3583	3583	3583	3583	3583	3583	3583	3583	3583	3583	3583	3583	3583	3583	3583	3583	3583	3583	3583	3583	3583	3583	3583	3583	3583	3583	3583	3583	3583	3583	3583	3583	3583	3583	3583	3583	3583	3583	3583	3583	3583	3583	3583	3583	3583	3583	3546	3583	3583	3583	3621	3621	3621	3621	3621	3621	3621	3621	3621	3621	3621	3621	3621	3621	3621	3621	3621	3621	3621	3621	3621	3621	3621	3583	3621	3621	3621	3621	3621	3583	3621	3583	3583	3583	3583	3583	3583	3583	3583	3583	3583	3583	3583	3583	3583	3583	3546	3546	3546	3510	3546	3546	3546	3546	3546	3546	3546	3546	3546	3546	3546	3546	3546	3546	3546	3546	3546	3546	3546	3546	3510	3510	3546	3546	0	0	0	0	2194	2194	2181	2181	2167	2153	2140	2127	2088	2088	2076	2063	2051	2039	2039	2027	2015	1992	1980	1958	1958	1947	1936	1925	1915	1894	1894	1894	1883	1873	1863	1853	1843	1833	1824	1824	1824	0	0	0	0	0	0	0	0	0	0	0	0	0	0	0	0	0	0	0	0	0	0	0	0	0	0	0	0	0	0	0	0	0	0	0	0	0	0	0	0	0	0	0	0	0	0	0	0	0	0	0	0	0	0	0	0	0	0	0	0	0	0	0	0	0	0	0	0	0	0	0	0	0	0	0	0	0	0	0	0	0	0	0	0	0	0	0	0	0	0	0	0	0	0	0	0	0	0	0	0	0	0	0	0	0	0	0	0	0	0	0	0	0	0	0	0	0	0	0	0	0	0	0	0	0	0	0	0	0	0	0	0
0	0	0	0	0	0	0	0	0	0	0	0	0	1634	1634	1641	1649	1649	1657	1665	1673	1673	1673	1690	1698	1706	1715	1723	1732	1732	1741	1741	1750	1750	1759	1759	1768	1768	1777	1777	1795	1795	1804	1804	1804	1824	1833	1833	1843	1843	1853	1863	1863	1883	1894	1904	1915	1915	1915	1925	1936	1936	1947	1958	1958	1958	1969	1980	1980	1992	2015	2027	2027	2039	2063	2076	2076	2088	2088	2101	2114	2127	2127	2127	2140	2140	2153	2140	2153	2167	2167	2167	2496	2496	2496	2514	2496	2496	2496	2496	2496	2496	2496	2496	2496	2496	2496	2496	2496	2496	2496	2496	2496	2496	2496	2496	2478	2478	2478	2496	2496	2478	2478	2478	2478	3546	3583	3583	3546	3546	3546	3546	3546	3510	3510	3510	3510	3510	3510	3510	3510	3510	3510	3510	3510	3510	3510	3510	3510	3475	3475	3475	3475	3475	3475	3475	3475	3510	3510	3510	3510	3546	3546	3546	3546	3546	3546	3546	3546	3546	3546	3510	3510	3510	3510	3510	3510	3510	3510	3510	3510	3546	3546	3546	3583	3583	3583	3583	3583	3583	3583	3583	3583	3583	3583	3583	3583	3546	3583	3583	3583	3546	3073	3073	3073	3073	3073	3046	3073	3073	3046	3046	3046	3073	3073	3046	3046	3073	3046	3046	3046	3046	3046	3019	3019	3019	3019	3019	3019	3019	3019	3019	3019	3019	3019	3019	3019	3046	3046	3073	3073	3073	3073	3073	3073	3073	3073	3073	3073	3073	3073	3073	3073	3073	3073	3073	3073	3073	3073	3073	3073	3073	3046	3046	3046	3046	3046	3046	3073	3073	3073	3073	3073	3073	3073	3073	3101	3101	3101	3101	3129	3101	3129	3101	3101	3101	3101	3073	3073	3073	3073	3073	3073	3073	3073	3073	3073	3621	3621	3621	3583	3583	3583	3583	3583	3583	3583	3583	3583	3583	3583	3583	3583	3583	3583	3621	3621	3621	3621	3621	3621	3583	3621	3583	3583	3583	3621	3621	3621	3621	3621	3621	3583	3583	3583	3583	3583	3583	3583	3583	3583	3583	3583	3583	3583	3583	3583	3583	3583	3583	3583	3583	3583	3583	3583	3583	3546	3546	3583	3583	3583	3583	3583	3583	3583	3583	3583	3583	3583	3583	3583	3583	3583	3583	3583	3583	3583	3583	3583	3583	3583	3583	3583	3583	3583	3583	3583	3583	3583	3583	3583	3583	3583	3621	3621	3621	3621	3621	3621	3621	3621	3621	3621	3621	3621	3621	3621	3621	3621	3621	3583	3583	3583	3583	3621	3583	3583	3621	3621	3621	3583	3621	3583	3621	3583	3583	3583	3583	3583	3583	3583	3583	3583	3583	3583	3583	3583	3583	3583	3546	3546	3546	3546	3546	3546	3546	3546	3546	3546	3510	3546	3546	3546	3546	3546	3546	3546	3546	3546	3546	3546	3546	3546	3510	3510	3510	3510	0	0	0	0	2194	2194	2194	2181	2153	2153	2140	2127	2114	2088	2076	2063	2051	2039	2039	2027	2015	1992	1992	1969	1958	1947	1936	1925	1915	1904	1894	1894	1883	1873	1863	1853	1843	1833	1824	1824	1824	0	0	0	0	0	0	0	0	0	0	0	0	0	0	0	0	0	0	0	0	0	0	0	0	0	0	0	0	0	0	0	0	0	0	0	0	0	0	0	0	0	0	0	0	0	0	0	0	0	0	0	0	0	0	0	0	0	0	0	0	0	0	0	0	0	0	0	0	0	0	0	0	0	0	0	0	0	0	0	0	0	0	0	0	0	0	0	0	0	0	0	0	0	0	0	0	0	0	0	0	0	0	0	0	0	0	0	0	0	0	0	0	0	0	0	0	0	0	0	0	0	0	0	0	0	0	0	0	0	0	0	0
0	0	0	0	0	0	0	0	0	0	0	0	0	1634	1634	1641	1649	1657	1657	1665	1673	1673	1681	1690	1698	1706	1715	1723	1732	1732	1741	1741	1750	1750	1759	1759	1768	1768	1768	1786	1795	1804	1814	1814	1814	1824	1833	1833	1843	1843	1853	1863	1863	1873	1883	1894	1904	1904	1915	1925	1925	1925	1936	1958	1958	1958	1969	1980	1980	2003	2015	2015	2027	2051	2063	2076	2076	2076	2088	2101	2114	2140	2127	2140	2140	2140	2153	2153	2153	2167	2167	2167	2208	2208	2496	2496	2496	2514	2496	2478	2496	2496	2496	2496	2496	2496	2496	2496	2496	2496	2496	2496	2496	2496	2496	2496	2478	2478	2478	2478	2478	2478	2460	2460	2478	3583	3583	3546	3546	3546	3546	3546	3546	3510	3510	3510	3546	3510	3510	3510	3510	3510	3510	3510	3510	3510	3510	3510	3510	3475	3475	3475	3475	3475	3475	3475	3475	3510	3510	3510	3510	3546	3546	3546	3546	3546	3546	3510	3510	3546	3510	3510	3510	3510	3510	3510	3510	3510	3510	3510	3546	3546	3546	3546	3583	3583	3583	3583	3583	3583	3583	3583	3583	3583	3583	3583	3583	3583	3583	3583	3621	3546	3659	3073	3073	3073	3073	3073	3073	3073	3046	3046	3046	3073	3073	3073	3073	3073	3073	3046	3046	3046	3046	3019	3019	3019	3019	3019	3019	3019	3019	3019	3019	3019	3019	3019	3019	3073	3073	3073	3073	3073	3073	3073	3073	3073	3073	3101	3073	3073	3073	3073	3073	3073	3073	3073	3073	3073	3073	3073	3073	3073	3046	3046	3046	3073	3073	3073	3073	3073	3073	3073	3073	3073	3073	3073	3101	3101	3101	3129	3129	3129	3129	3101	3101	3101	3101	3073	3073	3073	3073	3073	3073	3073	3073	3073	3621	3621	3621	3621	3583	3583	3583	3583	3583	3583	3583	3583	3583	3583	3583	3583	3583	3583	3583	3621	3621	3621	3621	3621	3621	3583	3583	3583	3583	3583	3621	3621	3621	3621	3621	3621	3583	3583	3583	3583	3583	3583	3583	3583	3583	3583	3583	3583	3583	3583	3583	3583	3583	3583	3583	3583	3583	3583	3583	3583	3583	3546	3583	3583	3583	3583	3583	3583	3583	3583	3583	3583	3583	3583	3583	3583	3583	3583	3583	3583	3583	3583	3583	3583	3583	3583	3583	3583	3583	3583	3583	3583	3583	3583	3583	3583	3583	3621	3621	3621	3621	3621	3621	3621	3621	3621	3621	3621	3621	3621	3621	3621	3621	3621	3583	3583	3621	3621	3621	3583	3583	3583	3621	3583	3583	3583	3583	3583	3583	3583	3583	3546	3583	3583	3583	3583	3583	3583	3621	3583	3583	3583	3583	3583	3546	3546	3546	3546	3546	3546	3546	3583	3546	3546	3546	3546	3546	3546	3546	3546	3546	3546	3546	3546	3546	3546	3546	3510	3546	3510	3510	0	0	0	0	2208	2208	2194	2181	2153	2153	2140	2127	2114	2088	2076	2063	2051	2039	2039	2027	2015	1992	1992	1969	1958	1947	1936	1925	1915	1894	1894	1883	1883	1873	1863	1853	1833	1833	1824	1814	1814	0	0	0	0	0	0	0	0	0	0	0	0	0	0	0	0	0	0	0	0	0	0	0	0	0	0	0	0	0	0	0	0	0	0	0	0	0	0	0	0	0	0	0	0	0	0	0	0	0	0	0	0	0	0	0	0	0	0	0	0	0	0	0	0	0	0	0	0	0	0	0	0	0	0	0	0	0	0	0	0	0	0	0	0	0	0	0	0	0	0	0	0	0	0	0	0	0	0	0	0	0	0	0	0	0	0	0	0	0	0	0	0	0	0	0	0	0	0	0	0	0	0	0	0	0	0	0	0	0	0	0	0
0	0	0	0	0	0	0	0	0	0	0	0	0	1634	1641	1649	1657	1657	1657	1665	1673	1681	1690	1690	1690	1690	1706	1706	1732	1732	1741	1741	1741	1750	1759	1759	1759	1768	1768	1786	1804	1814	1814	1814	1824	1833	1833	1833	1843	1843	1853	1863	1863	1873	1883	1894	1904	1904	1904	1915	1925	1925	1925	1958	1958	1958	1969	1980	1992	2003	2015	2027	2027	2039	2051	2076	2088	2101	2101	2114	2140	2153	2127	2153	2153	2140	2153	2153	2153	2167	2181	2181	2208	2208	2223	2223	2496	2496	2478	2478	2478	2478	2496	2478	2496	2478	2496	2496	2496	2496	2496	2496	2496	2496	2496	2496	2478	2478	2478	2478	2478	2478	2478	2478	3621	3621	3583	3583	3546	3546	3546	3546	3546	3546	3546	3510	3546	3510	3510	3510	3510	3510	3510	3546	3510	3510	3510	3510	3510	3475	3475	3475	3475	3475	3475	3475	3475	3510	3510	3510	3510	3546	3546	3546	3546	3546	3546	3546	3510	3546	3510	3510	3510	3510	3510	3510	3510	3510	3510	3510	3546	3546	3546	3546	3583	3583	3583	3583	3583	3583	3583	3583	3583	3583	3583	3583	3583	3583	3583	3583	3621	3583	3621	3073	3073	3073	3046	3046	3073	3073	3046	3046	3046	3073	3073	3073	3073	3073	3073	3046	3046	3046	3019	3019	3019	3019	3019	3019	3019	3019	3019	3019	3019	3019	3019	3019	3019	3073	3073	3073	3073	3073	3073	3073	3073	3073	3073	3073	3073	3073	3101	3073	3073	3101	3073	3073	3073	3073	3073	3073	3073	3073	3073	3073	3073	3073	3073	3073	3073	3073	3073	3073	3073	3073	3073	3073	3101	3101	3129	3129	3129	3129	3129	3129	3101	3101	3101	3101	3073	3073	3073	3101	3073	3073	3073	3583	3621	3621	3621	3621	3583	3583	3583	3583	3583	3583	3583	3583	3583	3583	3583	3583	3583	3583	3583	3621	3621	3621	3621	3621	3621	3583	3583	3583	3583	3583	3621	3621	3621	3621	3621	3621	3583	3583	3583	3583	3583	3583	3583	3583	3583	3583	3583	3583	3583	3583	3583	3583	3583	3583	3583	3583	3583	3583	3583	3583	3583	3583	3583	3583	3583	3583	3583	3583	3583	3583	3583	3583	3583	3583	3583	3583	3583	3583	3583	3583	3583	3583	3583	3583	3583	3583	3583	3583	3583	3583	3583	3583	3583	3583	3583	3583	3583	3621	3621	3621	3621	3621	3621	3621	3621	3621	3621	3621	3621	3621	3621	3621	3621	3621	3621	3621	3621	3621	3621	3621	3583	3621	3621	3621	3583	3583	3583	3583	3583	3583	3546	3546	3583	3583	3583	3583	3583	3583	3583	3583	3583	3583	3583	3583	3546	3583	3583	3546	3546	3583	3583	3583	3546	3546	3546	3546	3546	3546	3546	3546	3546	3546	3546	3546	3546	3546	3546	3546	3546	3510	3510	0	0	0	0	2208	2208	2194	2181	2167	2153	2140	2127	2114	2101	2076	2063	2051	2051	2039	2027	2015	1992	1992	1980	1958	1947	1936	1925	1915	1894	1894	1883	1883	1873	1863	1853	1843	1824	1824	1814	1814	0	0	0	0	0	0	0	0	0	0	0	0	0	0	0	0	0	0	0	0	0	0	0	0	0	0	0	0	0	0	0	0	0	0	0	0	0	0	0	0	0	0	0	0	0	0	0	0	0	0	0	0	0	0	0	0	0	0	0	0	0	0	0	0	0	0	0	0	0	0	0	0	0	0	0	0	0	0	0	0	0	0	0	0	0	0	0	0	0	0	0	0	0	0	0	0	0	0	0	0	0	0	0	0	0	0	0	0	0	0	0	0	0	0	0	0	0	0	0	0	0	0	0	0	0	0	0	0	0	0	0	0
0	0	0	0	0	0	0	0	0	0	0	0	0	1634	1641	1649	1649	1657	1657	1665	1673	1681	1690	1690	1690	1690	1698	1715	1723	1723	1732	1732	1741	1750	1759	1759	1759	1759	1768	1786	1786	1804	1814	1824	1824	1833	1833	1833	1843	1853	1853	1863	1863	1873	1883	1894	1894	1904	1915	1925	1925	1925	1947	1947	1958	1958	1969	1969	2003	2003	2015	2015	2027	2027	2051	2063	2076	2101	2101	2114	2140	2153	2140	2167	2153	2153	2153	2153	2167	2181	2181	2194	2208	2223	2223	2223	2223	2237	2478	2478	2460	2478	2478	2460	2478	2478	2478	2478	2478	2496	2496	2496	2496	2496	2496	2496	2478	2478	2478	2478	2478	2478	2478	2478	3621	3621	3621	3621	3583	3583	3546	3583	3546	3546	3546	3510	3546	3510	3510	3510	3510	3510	3510	3546	3510	3510	3510	3510	3510	3510	3475	3475	3475	3475	3475	3475	3510	3510	3510	3510	3510	3546	3546	3546	3546	3546	3546	3510	3510	3546	3510	3510	3510	3510	3510	3510	3510	3510	3510	3510	3510	3510	3546	3546	3546	3583	3583	3583	3583	3583	3583	3583	3583	3583	3621	3583	3583	3583	3583	3583	3583	3583	3621	3659	3073	3073	3073	3073	3073	3073	3046	3046	3046	3073	3101	3073	3073	3073	3073	3046	3046	3046	3019	3019	3019	3019	3019	3019	3019	3019	3019	3019	3019	3019	3019	3019	3019	3073	3073	3073	3073	3073	3073	3073	3073	3073	3073	3073	3073	3101	3101	3101	3101	3101	3073	3073	3073	3073	3073	3073	3073	3073	3073	3073	3073	3073	3073	3073	3073	3073	3073	3073	3073	3073	3073	3073	3101	3101	3129	3129	3129	3129	3129	3129	3157	3129	3129	3129	3101	3101	3101	3073	3073	3583	3583	3583	3583	3583	3621	3621	3583	3583	3583	3583	3583	3583	3583	3583	3583	3583	3583	3583	3583	3583	3583	3621	3621	3621	3583	3583	3583	3583	3583	3583	3583	3583	3583	3583	3583	3621	3583	3621	3583	3583	3583	3583	3583	3583	3583	3583	3583	3583	3583	3583	3583	3583	3583	3583	3583	3583	3583	3583	3583	3583	3583	3583	3583	3583	3583	3583	3583	3583	3583	3583	3583	3583	3583	3583	3583	3583	3583	3583	3583	3583	3583	3583	3583	3583	3583	3583	3583	3583	3583	3583	3583	3583	3583	3583	3583	3583	3583	3583	3583	3621	3621	3621	3621	3621	3621	3621	3621	3621	3621	3621	3621	3621	3621	3621	3621	3621	3621	3621	3621	3621	3621	3621	3583	3583	3621	3583	3583	3583	3583	3583	3583	3546	3546	3546	3546	3583	3583	3583	3583	3583	3583	3583	3583	3583	3583	3546	3546	3546	3546	3546	3546	3583	3583	3583	3583	3583	3583	3546	3546	3546	3546	3546	3546	3546	3546	3510	3546	3546	3546	3546	3546	3510	3510	0	0	0	0	2223	2208	2194	2167	2153	2153	2140	2127	2114	2101	2076	2063	2051	2039	2039	2027	2015	1992	1992	1980	1958	1947	1936	1936	1915	1904	1894	1883	1873	1863	1853	1853	1843	1833	1824	1824	1824	0	0	0	0	0	0	0	0	0	0	0	0	0	0	0	0	0	0	0	0	0	0	0	0	0	0	0	0	0	0	0	0	0	0	0	0	0	0	0	0	0	0	0	0	0	0	0	0	0	0	0	0	0	0	0	0	0	0	0	0	0	0	0	0	0	0	0	0	0	0	0	0	0	0	0	0	0	0	0	0	0	0	0	0	0	0	0	0	0	0	0	0	0	0	0	0	0	0	0	0	0	0	0	0	0	0	0	0	0	0	0	0	0	0	0	0	0	0	0	0	0	0	0	0	0	0	0	0	0	0	0	0
0	0	0	0	0	0	0	0	0	0	0	0	0	1641	1641	1649	1657	1657	1657	1665	1673	1673	1681	1690	1690	1690	1698	1715	1715	1723	1732	1732	1732	1741	1750	1750	1759	1768	1768	1777	1786	1795	1814	1814	1814	1824	1833	1833	1843	1843	1853	1853	1873	1873	1873	1883	1894	1894	1915	1925	1936	1936	1947	1947	1947	1958	1958	1969	2003	2003	2015	2015	2015	2027	2027	2063	2076	2101	2101	2127	2153	2167	2140	2167	2167	2153	2167	2167	2167	2181	2194	2194	2208	2223	2223	2237	2237	2237	2252	2478	2460	2478	2460	2460	2460	2460	2478	2478	2496	2496	2496	2496	2496	2496	2496	2496	2478	2478	2496	2496	2496	2496	2496	2496	3621	3583	3583	3583	3546	3546	3546	3546	3546	3546	3546	3510	3510	3510	3510	3510	3510	3510	3510	3546	3510	3510	3510	3510	3510	3510	3475	3475	3475	3475	3475	3475	3510	3510	3510	3510	3510	3546	3546	3546	3510	3546	3546	3510	3510	3546	3510	3510	3510	3510	3510	3510	3510	3510	3475	3510	3546	3583	3583	3583	3583	3583	3583	3583	3583	3583	3583	3583	3583	3583	3583	3583	3583	3583	3583	3583	3583	3583	3583	3583	3046	3046	3046	3046	3073	3073	3046	3046	3073	3101	3101	3101	3073	3101	3073	3046	3046	3046	3019	3019	3019	3019	3019	3019	3019	3019	3019	3019	3019	3019	3019	3019	3019	3073	3073	3073	3073	3073	3073	3073	3073	3073	3073	3073	3073	3101	3101	3101	3101	3101	3073	3073	3073	3073	3073	3073	3073	3073	3073	3073	3073	3073	3073	3073	3073	3073	3073	3073	3073	3073	3073	3073	3101	3101	3129	3129	3129	3129	3157	3129	3157	3157	3157	3698	3698	3698	3659	3621	3621	3583	3583	3583	3583	3621	3621	3621	3583	3583	3583	3583	3583	3583	3583	3583	3583	3583	3583	3583	3583	3583	3546	3583	3621	3583	3583	3583	3583	3583	3621	3621	3583	3583	3583	3583	3583	3583	3583	3583	3583	3583	3583	3583	3583	3583	3583	3583	3583	3583	3583	3583	3583	3583	3583	3583	3621	3621	3621	3583	3583	3583	3583	3583	3583	3583	3546	3583	3583	3583	3583	3583	3583	3583	3583	3583	3583	3583	3583	3583	3583	3583	3583	3583	3583	3583	3583	3583	3583	3583	3583	3583	3583	3583	3583	3583	3583	3583	3583	3583	3583	3621	3621	3621	3621	3621	3621	3621	3621	3621	3621	3621	3621	3621	3621	3621	3621	3621	3621	3621	3621	3621	3621	3621	3583	3583	3583	3583	3583	3583	3583	3583	3583	3546	3546	3546	3546	3546	3583	3583	3583	3583	3583	3583	3583	3583	3546	3546	3546	3546	3546	3546	3546	3583	3546	3546	3546	3546	3546	3546	3583	3546	3546	3546	3546	3546	3546	3510	3546	3546	3546	3546	3546	3510	3510	0	0	0	0	2223	2194	2181	2167	2153	2140	2140	2127	2127	2114	2076	2063	2051	2051	2039	2027	2015	2003	1992	1980	1958	1947	1936	1936	1925	1904	1894	1894	1883	1873	1853	1843	1843	1824	1814	1814	1814	0	0	0	0	0	0	0	0	0	0	0	0	0	0	0	0	0	0	0	0	0	0	0	0	0	0	0	0	0	0	0	0	0	0	0	0	0	0	0	0	0	0	0	0	0	0	0	0	0	0	0	0	0	0	0	0	0	0	0	0	0	0	0	0	0	0	0	0	0	0	0	0	0	0	0	0	0	0	0	0	0	0	0	0	0	0	0	0	0	0	0	0	0	0	0	0	0	0	0	0	0	0	0	0	0	0	0	0	0	0	0	0	0	0	0	0	0	0	0	0	0	0	0	0	0	0	0	0	0	0	0	0
0	0	0	0	0	0	0	0	0	0	0	0	0	1641	1641	1657	1649	1657	1657	1665	1673	1681	1681	1690	1690	1690	1698	1706	1715	1715	1723	1732	1732	1732	1750	1750	1759	1759	1768	1777	1786	1795	1804	1804	1814	1824	1833	1833	1843	1853	1853	1863	1873	1873	1873	1883	1883	1894	1915	1915	1936	1936	1936	1947	1958	1958	1958	1969	1992	2003	2003	2015	2027	2027	2051	2063	2076	2088	2101	2114	2153	2153	2167	2167	2167	2167	2181	2181	2181	2194	2194	2208	2208	2223	2223	2237	2237	2252	2252	2252	2281	2478	2460	2443	2443	2460	2460	2478	2478	2478	2496	2496	2496	2496	2496	2496	2478	2478	2496	2496	2496	2496	2496	2496	2551	2551	3583	3583	3546	3546	3546	3546	3546	3546	3546	3546	3546	3510	3510	3510	3510	3510	3510	3510	3510	3510	3510	3510	3510	3510	3510	3475	3475	3475	3510	3510	3510	3510	3510	3510	3510	3546	3546	3510	3510	3546	3546	3510	3510	3546	3510	3546	3510	3510	3510	3546	3510	3510	3510	3546	3546	3583	3583	3583	3583	3583	3583	3583	3583	3583	3583	3583	3583	3583	3583	3583	3583	3583	3583	3583	3546	3546	3546	3546	3546	3546	3073	3073	3073	3101	3046	3046	3046	3101	3101	3101	3101	3101	3101	3046	3046	3046	3019	3019	3019	3019	3019	3019	3019	3019	3019	3019	3019	3019	3019	3019	3046	3073	3073	3073	3073	3073	3073	3073	3073	3073	3073	3073	3073	3073	3101	3101	3101	3101	3101	3101	3073	3073	3073	3073	3073	3073	3073	3073	3073	3073	3073	3073	3073	3073	3073	3073	3073	3073	3073	3101	3101	3101	3129	3129	3129	3129	3129	3157	3129	3129	3659	3659	3659	3659	3621	3621	3583	3583	3583	3583	3583	3621	3583	3621	3583	3583	3583	3583	3583	3583	3583	3583	3583	3583	3583	3583	3583	3583	3546	3583	3583	3583	3583	3583	3583	3583	3583	3621	3583	3583	3583	3583	3583	3583	3583	3583	3583	3583	3583	3583	3583	3583	3546	3546	3583	3583	3583	3583	3583	3583	3583	3583	3621	3621	3583	3583	3583	3583	3583	3583	3583	3546	3546	3546	3546	3583	3583	3583	3583	3583	3583	3583	3583	3583	3583	3583	3583	3583	3583	3583	3583	3583	3583	3583	3583	3583	3583	3583	3583	3583	3583	3583	3583	3583	3583	3583	3583	3583	3621	3621	3621	3621	3621	3621	3621	3621	3621	3621	3621	3621	3621	3621	3621	3621	3621	3621	3621	3621	3621	3621	3621	3583	3621	3583	3583	3583	3583	3583	3546	3546	3546	3510	3546	3546	3583	3583	3583	3583	3583	3583	3583	3583	3583	3546	3546	3546	3546	3546	3546	3546	3583	3546	3546	3583	3583	3583	3583	3546	3546	3546	3546	3546	3546	3546	3546	3546	3546	3546	3546	3510	3510	0	0	0	0	2223	2194	2194	2167	2153	2140	2140	2127	2127	2114	2088	2063	2051	2051	2039	2027	2015	2003	1992	1980	1969	1947	1947	1936	1925	1915	1894	1894	1883	1873	1853	1843	1843	1824	1814	1814	1814	0	0	0	0	0	0	0	0	0	0	0	0	0	0	0	0	0	0	0	0	0	0	0	0	0	0	0	0	0	0	0	0	0	0	0	0	0	0	0	0	0	0	0	0	0	0	0	0	0	0	0	0	0	0	0	0	0	0	0	0	0	0	0	0	0	0	0	0	0	0	0	0	0	0	0	0	0	0	0	0	0	0	0	0	0	0	0	0	0	0	0	0	0	0	0	0	0	0	0	0	0	0	0	0	0	0	0	0	0	0	0	0	0	0	0	0	0	0	0	0	0	0	0	0	0	0	0	0	0	0	0	0
0	0	0	0	0	0	0	0	0	0	0	0	0	1641	1657	1657	1657	1665	1665	1665	1681	1681	1681	1690	1690	1690	1698	1706	1715	1715	1723	1723	1732	1732	1750	1750	1759	1759	1759	1768	1768	1795	1804	1814	1824	1824	1833	1843	1843	1853	1853	1863	1873	1873	1873	1873	1883	1894	1904	1915	1925	1936	1936	1947	1947	1958	1958	1969	1980	1992	2003	2015	2015	2027	2039	2051	2063	2076	2088	2101	2140	2153	2167	2167	2167	2153	2167	2181	2181	2194	2208	2208	2223	2223	2237	2237	2237	2252	2252	2252	2281	2297	2312	2327	2343	2359	2392	2392	2478	2478	2478	2496	2496	2478	2478	2496	2478	2478	2496	2496	2496	2496	2496	2496	2496	3510	3583	3583	3546	3546	3546	3546	3546	3546	3546	3510	3546	3510	3510	3510	3510	3510	3510	3510	3510	3510	3510	3510	3510	3510	3510	3510	3510	3510	3510	3510	3510	3510	3510	3510	3475	3546	3510	3510	3510	3510	3510	3510	3510	3510	3546	3546	3546	3510	3510	3546	3510	3546	3546	3546	3546	3583	3583	3583	3583	3583	3583	3546	3546	3583	3583	3583	3583	3583	3583	3583	3583	3583	3583	3583	3583	3583	3546	3546	3546	3546	3546	3546	3101	3101	3101	3046	3129	3129	3101	3101	3101	3101	3101	3073	3046	3046	3046	3019	3019	3019	3019	3019	3019	3019	3019	3019	3019	3019	3019	3019	3019	3073	3073	3073	3073	3073	3073	3073	3073	3073	3073	3073	3101	3101	3101	3101	3101	3101	3101	3101	3073	3073	3073	3073	3073	3073	3073	3073	3073	3073	3073	3073	3073	3073	3073	3073	3073	3073	3073	3101	3101	3101	3129	3129	3129	3129	3129	3157	3157	3621	3621	3621	3621	3621	3621	3583	3583	3583	3583	3583	3583	3583	3583	3583	3583	3583	3583	3583	3583	3583	3583	3583	3583	3583	3583	3583	3583	3583	3546	3583	3583	3583	3583	3583	3583	3583	3583	3621	3583	3583	3583	3583	3583	3583	3583	3583	3583	3583	3583	3583	3583	3583	3583	3583	3583	3583	3583	3583	3583	3583	3583	3583	3583	3583	3583	3583	3583	3583	3583	3583	3583	3546	3546	3546	3546	3583	3583	3583	3583	3583	3583	3583	3583	3583	3583	3583	3583	3583	3583	3583	3583	3583	3583	3583	3583	3583	3583	3583	3583	3583	3583	3583	3583	3583	3583	3583	3583	3621	3583	3621	3621	3621	3621	3621	3621	3621	3621	3621	3621	3621	3621	3621	3621	3621	3621	3621	3621	3621	3621	3621	3621	3583	3621	3583	3583	3583	3583	3583	3583	3546	3546	3546	3546	3546	3583	3583	3583	3583	3583	3583	3583	3583	3546	3546	3546	3546	3546	3583	3583	3583	3583	3583	3583	3583	3583	3546	3583	3546	3546	3546	3546	3546	3546	3510	3546	3546	3546	3546	3510	3510	3510	0	0	0	0	0	2194	2194	2181	2153	2153	2140	2127	2114	2101	2088	2076	2063	2051	2039	2027	2015	2003	1992	1980	1969	1947	1947	1936	1915	1904	1894	1894	1883	1873	1853	1843	1843	1824	1814	1814	1814	0	0	0	0	0	0	0	0	0	0	0	0	0	0	0	0	0	0	0	0	0	0	0	0	0	0	0	0	0	0	0	0	0	0	0	0	0	0	0	0	0	0	0	0	0	0	0	0	0	0	0	0	0	0	0	0	0	0	0	0	0	0	0	0	0	0	0	0	0	0	0	0	0	0	0	0	0	0	0	0	0	0	0	0	0	0	0	0	0	0	0	0	0	0	0	0	0	0	0	0	0	0	0	0	0	0	0	0	0	0	0	0	0	0	0	0	0	0	0	0	0	0	0	0	0	0	0	0	0	0	0	0
0	0	0	0	0	0	0	0	0	0	0	0	0	1641	1657	1649	1657	1657	1665	1665	1681	1681	1681	1681	1690	1690	1698	1698	1706	1715	1723	1723	1723	1732	1741	1741	1759	1759	1768	1768	1777	1795	1804	1814	1824	1824	1833	1833	1843	1853	1853	1863	1873	1873	1873	1873	1894	1904	1915	1925	1936	1936	1947	1947	1947	1958	1958	1969	1980	1992	2003	2015	2015	2027	2039	2051	2063	2076	2076	2088	2127	2140	2140	2153	2167	2153	2181	2181	2181	2194	2208	2208	2223	2223	2237	2237	2252	2266	2266	2266	2281	2281	2312	2312	2327	2327	2359	2359	2460	2478	2460	2478	2478	2478	2478	2478	2478	2478	2496	2496	2496	2514	2514	2496	2496	3546	3546	3546	3546	3546	3546	3510	3546	3546	3510	3510	3546	3510	3510	3510	3510	3510	3510	3510	3510	3510	3510	3510	3510	3510	3510	3510	3510	3510	3510	3510	3510	3510	3510	3510	3475	3475	3510	3510	3510	3510	3546	3546	3510	3510	3546	3546	3546	3510	3510	3546	3546	3546	3546	3546	3546	3621	3583	3583	3583	3583	3583	3546	3546	3546	3583	3546	3546	3583	3583	3583	3583	3583	3583	3583	3546	3546	3546	3546	3546	3510	3546	3546	3073	3073	3046	3046	3101	3101	3101	3101	3101	3101	3101	3073	3046	3046	3046	3019	3019	3019	3019	3019	3019	3019	3019	3019	3019	3019	3019	3019	3019	3019	3073	3073	3073	3073	3073	3073	3073	3073	3073	3073	3073	3101	3101	3101	3101	3101	3101	3101	3101	3073	3073	3073	3073	3073	3073	3073	3073	3073	3073	3073	3073	3073	3073	3073	3073	3073	3073	3073	3073	3101	3101	3129	3129	3129	3129	3157	3621	3621	3621	3621	3621	3621	3621	3583	3583	3583	3583	3583	3583	3583	3583	3583	3583	3583	3583	3583	3583	3583	3583	3583	3583	3583	3583	3583	3583	3583	3546	3583	3583	3583	3583	3583	3583	3583	3583	3583	3583	3583	3583	3583	3583	3583	3583	3583	3583	3583	3583	3583	3583	3583	3546	3583	3583	3583	3583	3583	3583	3583	3583	3583	3583	3583	3583	3583	3583	3583	3583	3583	3583	3546	3546	3546	3546	3546	3583	3583	3583	3583	3583	3583	3583	3583	3583	3583	3583	3583	3583	3583	3583	3583	3583	3583	3583	3583	3583	3583	3546	3583	3583	3583	3583	3546	3546	3546	3583	3583	3583	3621	3621	3621	3621	3621	3621	3621	3621	3621	3621	3621	3621	3621	3621	3621	3621	3621	3621	3621	3621	3621	3621	3621	3621	3583	3583	3583	3583	3583	3583	3546	3546	3546	3583	3583	3583	3583	3583	3583	3583	3546	3546	3546	3546	3546	3546	3546	3546	3546	3546	3546	3546	3546	3546	3583	3583	3583	3583	3583	3546	3546	3546	3546	3546	3546	3546	3546	3546	3510	3510	3510	3510	0	0	0	0	0	2208	2194	2181	2167	2153	2140	2127	2127	2114	2088	2076	2063	2051	2039	2027	2015	2003	1992	1980	1969	1947	1936	1925	1915	1904	1904	1883	1873	1863	1853	1843	1843	1833	1824	1814	1814	0	0	0	0	0	0	0	0	0	0	0	0	0	0	0	0	0	0	0	0	0	0	0	0	0	0	0	0	0	0	0	0	0	0	0	0	0	0	0	0	0	0	0	0	0	0	0	0	0	0	0	0	0	0	0	0	0	0	0	0	0	0	0	0	0	0	0	0	0	0	0	0	0	0	0	0	0	0	0	0	0	0	0	0	0	0	0	0	0	0	0	0	0	0	0	0	0	0	0	0	0	0	0	0	0	0	0	0	0	0	0	0	0	0	0	0	0	0	0	0	0	0	0	0	0	0	0	0	0	0	0	0
