0	0	0	0	0	0	0	0	0	0	0	0	0	1833	1833	1843	1843	1853	1863	1863	1883	1894	1894	1904	1904	1904	1915	1915	1936	1936	1936	1936	1936	1947	1947	1947	1969	1980	1992	2003	2003	2015	2015	2027	2039	2039	2039	2039	2051	2051	2063	2063	2076	2076	2088	2101	2101	2114	2114	2127	2140	2140	2153	2181	2194	2194	2194	2194	2208	2223	2223	2237	2237	2252	2266	2281	2297	2297	2297	2297	2312	2312	2327	2327	2343	2359	2392	2409	2426	2426	2426	2426	2443	2426	2443	2496	2496	2496	2514	2532	2532	2570	2570	2551	2551	0	0	0	0	0	0	0	0	0	0	9235	9235	9235	9235	9235	9235	9235	9235	9235	9235	9489	9489	9489	9489	0	0	0	0	0	0	0	0	0	0	9757	9757	9757	0	9489	9489	9489	0	0	0	0	0	0	0	0	0	0	0	0	0	0	0	8767	8767	8343	8550	8550	8995	8995	0	0	0	0	0	0	0	0	0	0	0	0	0	0	0	0	0	0	9489	9489	9489	9489	9757	9757	9757	9489	9489	9757	9757	9757	9757	0	0	0	0	0	0	0	0	0	0	9757	9757	0	0	0	0	0	0	0	0	0	9489	9489	9489	9489	9489	9489	9489	9757	9757	9489	9757	9757	0	0	0	0	0	0	0	0	0	0	0	0	9489	9757	9757	9757	9757	9757	9757	9235	8995	9235	9235	9489	9489	9489	0	0	0	0	0	0	9757	9757	9757	9757	0	0	0	0	0	0	0	0	0	0	0	0	0	0	0	9489	9489	9757	9757	0	0	0	0	0	0	0	0	0	0	0	0	0	0	4243	4243	4243	4243	4243	4243	4243	4192	4192	4192	4192	4192	4192	4192	4192	4243	4243	4243	4243	4243	4243	4243	4192	4192	4243	4243	4243	4243	4243	4243	4243	4192	4192	4243	4192	4192	4192	4192	4192	4192	4192	4192	4192	4192	4243	4243	4243	4296	4243	4296	4296	4296	4296	4296	0	0	0	0	0	0	0	0	0	0	0	0	0	0	0	0	0	0	0	0	0	0	0	0	0	0	0	0	0	0	0	0	0	0	0	0	0	0	0	0	0	0	0	0	0	0	0	0	0	0	0	0	0	0	0	0	0	0	9757	9757	9757	9757	9757	9757	0	0	0	0	0	9757	9757	9489	8995	8995	8767	8550	8550	8550	8550	8550	8767	8767	0	0	0	0	0	0	0	0	0	0	0	0	0	0	0	0	0	0	0	0	0	0	0	0	0	0	0	0	0	0	0	0	0	0	0	0	0	0	0	0	0	0	0	0	0	0	0	0	0	0	0	0	5626	5626	5626	5535	5535	5535	5448	5448	5448	5448	5448	5364	5364	5448	5364	5364	5282	5282	5282	5282	5282	0	0	0	0	0	2114	2114	2114	2101	2101	2101	2076	2076	2076	2076	2076	2063	2063	2063	2063	2063	2063	2063	2063	2063	2063	2063	2051	2051	2039	2039	2039	2039	2039	2027	2027	2027	2039	2039	2039	2027	2027	2027	2027	2027	2027	2039	2051	2051	2051	2051	2051	2039	2039	2039	2027	2015	2015	1992	1980	1969	1958	1947	1947	1947	1936	1936	1936	1936	1925	1925	1925	1925	1925	1925	1925	1915	1915	1915	1915	1915	1904	1915	1904	1904	1915	1915	1904	1904	1904	1904	1904	0	0	0	0	0	0	0	0	0	0	0	0	0	0	0	0	0	0	0	0	0	0	0	0	0	0	0	0	0	0	0	0	0	0	0	0	0	0
0	0	0	0	0	0	0	0	0	0	0	0	0	1824	1833	1843	1843	1853	1853	1863	1883	1883	1894	1894	1904	1904	1904	1904	1915	1925	1925	1925	1936	1936	1936	1947	1958	1980	1992	2003	2015	2015	2027	2027	2039	2039	2039	2039	2051	2051	2063	2063	2063	2076	2088	2101	2101	2114	2114	2127	2140	2140	2181	2181	2194	2194	2194	2194	2208	2223	2223	2237	2237	2252	2266	2281	2281	2297	2297	2297	2312	2312	2327	2327	2359	2376	2392	2409	2409	2426	2426	2426	2443	2443	2460	2496	2496	2496	2514	2532	2532	2551	2551	2532	2532	0	0	0	0	0	0	0	0	0	0	9235	9235	9235	9235	9235	9489	9489	9489	9489	9757	9757	9489	9489	9489	9489	0	0	0	0	0	0	0	0	0	9757	9757	9757	0	9489	9489	9235	9235	0	0	0	0	0	0	0	0	0	0	0	0	0	0	8767	8343	8343	8550	8550	0	0	0	0	0	0	0	0	0	0	0	0	0	0	0	0	0	0	0	0	0	0	0	0	0	9757	9757	9489	9489	9757	9757	9757	9757	0	0	0	0	0	0	0	0	0	0	0	0	0	0	0	0	0	0	0	0	0	0	9757	9757	9757	9757	9757	9489	9757	9757	9757	9757	9757	9757	9757	9757	0	0	0	0	0	0	0	0	0	9489	9757	9757	9757	9757	9757	9757	9235	9235	9489	9489	9489	9489	9489	0	0	0	0	0	0	0	0	0	0	0	0	0	0	0	0	0	0	0	0	0	0	0	0	0	0	0	0	0	0	0	0	0	0	0	0	0	0	0	0	0	0	4296	4243	4243	4243	4243	4243	4243	4243	4192	4192	4192	4192	4192	4192	4192	4192	4192	4243	4243	4243	4243	4192	4243	4192	4243	4243	4243	4243	4192	4243	4243	4192	4192	4192	4192	4192	4192	4192	4192	4192	4192	4192	4192	4192	4243	4243	4243	4296	4296	4296	4296	4296	4243	4243	4243	0	0	0	0	0	0	0	0	0	0	0	0	0	0	0	0	0	0	0	0	0	0	0	0	0	0	0	0	0	0	0	0	0	0	0	0	0	0	0	0	0	0	0	0	0	0	0	0	0	0	0	0	0	0	0	0	0	0	0	9757	9757	9757	9757	0	0	0	0	0	0	0	9757	9235	8767	8767	8767	8550	8550	8550	8550	8550	8550	8767	0	0	0	0	0	0	0	0	0	0	0	0	0	0	0	0	0	0	0	0	0	0	0	0	0	0	0	0	0	0	0	0	0	0	0	0	0	0	0	0	0	0	0	0	0	0	0	0	0	0	5719	5626	5626	5626	5626	5626	5535	5535	5448	5448	5448	5448	5448	5364	5364	5364	5364	5364	5282	5282	5282	5282	5282	0	0	0	0	0	2114	2114	2101	2101	2101	2101	2088	2076	2076	2076	2076	2076	2063	2063	2063	2063	2063	2063	2063	2063	2063	2051	2051	2051	2039	2039	2039	2039	2039	2039	2039	2039	2039	2039	2039	2027	2027	2027	2027	2027	2027	2039	2051	2051	2051	2051	2051	2039	2039	2039	2027	2027	2015	2003	1980	1969	1958	1947	1947	1947	1936	1936	1936	1936	1925	1925	1925	1925	1925	1925	1925	1915	1915	1915	1915	1915	1915	1915	1904	1915	1894	1894	1904	1904	1904	1904	1904	0	0	0	0	0	0	0	0	0	0	0	0	0	0	0	0	0	0	0	0	0	0	0	0	0	0	0	0	0	0	0	0	0	0	0	0	0	0
0	0	0	0	0	0	0	0	0	0	0	0	0	1824	1824	1833	1843	1853	1843	1863	1863	1883	1883	1883	1894	1894	1894	1904	1915	1925	1936	1936	1947	1936	1947	1969	1969	1980	1992	2003	2027	2015	2027	2027	2039	2039	2039	2039	2051	2063	2063	2063	2063	2076	2088	2101	2101	2114	2127	2127	2140	2140	2167	2181	2194	2194	2194	2194	2208	2223	2223	2237	2252	2252	2266	2281	2281	2281	2297	2297	2312	2312	2327	2327	2343	2376	2409	2409	2426	2426	2426	2426	2443	2443	2460	2460	2478	2496	2496	2514	2532	2532	2532	2532	2532	0	0	0	0	0	0	0	0	0	0	9489	9235	9489	9489	9489	9757	9757	9757	9757	9757	9757	9489	9489	9489	9489	0	0	0	0	0	0	0	0	0	0	9757	9757	9757	9757	9757	9235	9235	0	0	0	0	0	0	0	0	0	0	0	0	0	0	0	8343	8343	0	0	0	0	0	0	0	0	0	0	0	0	0	0	0	0	0	0	0	0	0	0	0	0	0	0	0	0	0	0	0	0	0	0	0	0	0	0	0	0	0	0	0	0	0	0	0	0	0	0	0	0	0	0	0	0	0	9757	9757	9757	9757	9757	9757	9757	9757	9757	9757	9757	9757	9757	9757	9757	9757	0	0	0	0	0	0	0	0	0	9757	9757	0	9757	9757	9489	9489	9757	9757	9757	9489	0	0	0	0	0	0	0	0	0	0	0	0	0	0	0	0	0	0	0	0	0	0	0	0	0	0	0	0	0	0	0	0	0	0	0	0	0	0	0	0	0	0	0	4243	4243	4243	4243	4243	4243	4243	4243	4192	4192	4192	4192	4192	4192	4192	4192	4243	4243	4243	4243	4192	4192	4192	4192	4243	4192	4192	4192	4192	4243	4192	4192	4192	4192	4192	4192	4192	4192	4142	4192	4192	4192	4192	4192	4243	4243	4243	4243	4296	4243	4243	4243	4243	4243	4243	0	0	0	0	0	0	0	0	0	0	0	0	0	0	0	0	0	0	0	0	0	0	0	0	0	0	0	0	0	0	0	0	0	0	0	0	0	0	0	0	0	0	0	0	0	0	0	0	0	0	0	0	0	0	0	0	0	0	0	0	9757	9757	9757	0	0	0	0	0	0	0	9757	9489	8995	8767	8767	8767	8550	8550	8550	8550	8550	0	0	0	0	0	0	0	0	0	0	0	0	0	0	0	0	0	0	0	0	0	0	0	0	0	0	0	0	0	0	0	0	0	0	0	0	0	0	0	0	0	0	0	0	0	0	0	0	0	0	0	5719	5626	5626	5626	5626	5535	5535	5535	5535	5448	5448	5448	5448	5448	5364	5364	5448	5364	5282	5364	5364	5364	5282	0	0	0	0	0	2114	2114	2114	2114	2114	2101	2101	2076	2076	2076	2076	2063	2063	2063	2063	2063	2063	2063	2063	2063	2063	2063	2051	2051	2051	2051	2051	2039	2039	2039	2039	2039	2039	2039	2039	2027	2027	2027	2027	2027	2027	2039	2039	2039	2039	2051	2051	2039	2039	2039	2027	2027	2015	1992	1980	1969	1958	1947	1947	1947	1936	1936	1925	1925	1925	1925	1915	1925	1925	1925	1925	1915	1915	1925	1915	1925	1915	1915	1904	1915	1894	1894	1904	1904	1904	1904	1904	0	0	0	0	0	0	0	0	0	0	0	0	0	0	0	0	0	0	0	0	0	0	0	0	0	0	0	0	0	0	0	0	0	0	0	0	0	0
0	0	0	0	0	0	0	0	0	0	0	0	0	1833	1833	1833	1843	1843	1853	1863	1883	1883	1883	1894	1894	1894	1894	1904	1915	1925	1925	1936	1947	1936	1947	1969	1969	1980	1992	2003	2015	2015	2027	2027	2039	2039	2039	2051	2051	2063	2076	2076	2076	2088	2088	2101	2101	2114	2114	2127	2127	2140	2153	2181	2181	2194	2194	2194	2208	2223	2237	2252	2252	2252	2266	2266	2266	2281	2297	2297	2312	2312	2327	2327	2343	2376	2392	2409	2409	2426	2426	2426	2426	2443	2460	2460	2478	2496	2496	2514	2532	2532	2514	2514	2514	0	0	0	0	0	0	0	0	0	0	9489	9489	9757	9757	9489	9757	9757	9757	9757	9757	0	0	9757	9757	0	0	0	0	0	0	0	0	0	0	0	9757	9757	9757	9757	9757	9757	0	0	0	0	0	0	0	0	0	0	0	0	0	0	0	0	0	0	0	0	0	0	0	0	0	0	0	0	0	0	0	0	0	0	0	0	0	0	0	0	0	0	0	0	0	0	0	0	0	0	0	0	0	0	0	0	0	0	0	0	0	0	0	0	0	0	0	0	0	0	0	0	0	0	0	0	9757	9757	0	0	9757	9757	0	9757	9757	9757	9757	0	0	9757	9757	0	0	0	0	0	0	0	0	0	0	0	0	0	0	9489	9489	9489	9757	9757	0	0	0	0	0	0	0	0	0	0	0	0	0	0	0	0	0	0	0	0	0	0	0	0	0	0	0	0	0	0	0	0	0	0	0	0	0	0	0	0	0	0	0	4296	4243	4243	4243	4243	4243	4243	4243	4243	4192	4192	4192	4192	4192	4192	4142	4192	4243	4243	4243	4243	4192	4192	4192	4192	4192	4192	4192	4192	4192	4243	4192	4192	4192	4192	4192	4192	4192	4142	4142	4142	4192	4142	4142	4192	4243	4243	4243	4296	4296	4243	4243	4243	4296	4296	4296	4296	0	0	0	0	0	0	0	0	0	0	0	0	0	0	0	0	0	0	0	0	0	0	0	0	0	0	0	0	0	0	0	0	0	0	0	0	0	0	0	0	0	0	0	0	0	0	0	0	0	0	0	0	0	0	0	0	0	0	0	0	0	0	0	0	0	0	0	0	0	9489	9235	8995	8767	8767	8767	8550	8767	8550	8550	8550	0	0	0	0	0	0	0	0	0	0	0	0	0	0	0	0	0	0	0	0	0	0	0	0	0	0	0	0	0	0	0	0	0	0	0	0	0	0	0	0	0	0	0	0	0	0	0	0	0	0	0	5626	5626	5535	5626	5626	5535	5535	5535	5535	5448	5448	5448	5448	5448	5448	5448	5364	5364	5282	5282	5282	5282	0	0	0	0	0	0	0	2114	2114	2114	2114	2101	2101	2076	2076	2076	2076	2063	2063	2063	2063	2063	2063	2063	2063	2063	2063	2051	2051	2051	2051	2051	2051	2039	2051	2039	2039	2039	2039	2039	2039	2027	2027	2027	2027	2027	2027	2027	2039	2039	2039	2039	2039	2039	2039	2039	2027	2027	2015	2003	1980	1980	1958	1947	1936	1936	1936	1936	1936	1925	1925	1925	1925	1925	1925	1925	1925	1925	1925	1915	1915	1925	1915	1915	1915	1915	1915	1894	1904	1904	1904	1904	1904	0	0	0	0	0	0	0	0	0	0	0	0	0	0	0	0	0	0	0	0	0	0	0	0	0	0	0	0	0	0	0	0	0	0	0	0	0	0
0	0	0	0	0	0	0	0	0	0	0	0	0	1833	1833	1843	1853	1853	1863	1873	1883	1883	1883	1894	1894	1894	1904	1915	1925	1925	1925	1936	1936	1936	1958	1969	1969	1992	1992	2003	2015	2015	2027	2027	2027	2039	2039	2051	2051	2063	2076	2076	2076	2076	2088	2088	2088	2101	2114	2127	2140	2153	2153	2181	2181	2194	2194	2194	2208	2223	2237	2237	2252	2252	2266	2266	2266	2266	2297	2297	2312	2312	2343	2343	2359	2359	2376	2376	2409	2409	2409	2426	2426	2443	2443	2460	2478	2496	2496	2496	2514	2514	2496	2496	2496	0	0	0	0	0	0	0	0	0	0	9489	9489	9757	9757	0	0	0	0	9757	9757	0	0	9757	9757	0	0	0	0	0	0	0	0	0	0	0	0	9757	9757	9757	9757	9757	9757	0	0	0	0	0	0	0	0	0	0	0	0	0	0	0	0	0	0	0	0	0	0	0	0	0	0	0	0	0	0	0	0	0	0	0	0	0	0	0	0	0	0	0	0	0	0	0	0	0	0	0	0	0	0	0	0	0	0	0	0	0	0	0	0	0	0	0	0	0	0	0	0	0	0	0	0	0	0	0	0	0	0	0	9757	9757	0	0	0	9757	9757	0	9757	9757	0	0	0	0	0	0	0	0	0	0	0	9489	9489	9489	0	0	0	0	0	0	0	0	0	0	0	0	0	0	0	0	0	0	0	0	0	0	0	0	0	0	0	0	0	0	0	0	0	0	0	0	0	0	0	0	0	0	0	0	0	4243	4243	4243	4192	4192	4192	4243	4243	4243	4243	4243	4192	4192	4192	4192	4142	4192	4243	4243	4192	4192	4142	4142	4142	4142	4192	4192	4192	4192	4192	4192	4192	4192	4192	4192	4192	4192	4192	4142	4142	4142	4142	4142	4142	4192	4243	4243	4243	4243	4296	4243	4243	4243	4296	4296	4296	4296	0	0	0	0	0	0	0	0	0	0	0	0	0	0	0	0	0	0	0	0	0	0	0	0	0	0	0	0	0	0	0	0	0	0	0	0	0	0	0	0	0	0	0	0	0	0	0	0	0	0	0	0	0	0	0	0	0	0	0	0	0	0	0	0	0	0	0	0	0	9489	9235	8995	8995	8767	8767	8767	8767	8550	8550	8550	0	0	0	0	0	0	0	0	0	0	0	0	0	0	0	0	0	0	0	0	0	0	0	0	0	0	0	0	0	0	0	0	0	0	0	0	0	0	0	0	0	0	0	0	0	0	0	0	0	0	0	5626	5535	5535	5626	5626	5626	5535	5535	5535	5448	5448	5448	5448	5448	5448	5448	5364	5364	5282	5282	5282	5282	0	0	0	0	0	0	2127	2127	2114	2114	2114	2114	2101	2076	2076	2076	2076	2063	2063	2063	2063	2063	2051	2051	2063	2063	2063	2051	2051	2051	2051	2051	2051	2051	2051	2039	2039	2039	2039	2039	2039	2039	2027	2027	2027	2039	2027	2027	2039	2039	2039	2039	2051	2051	2051	2039	2039	2015	2015	1992	1980	1980	1969	1958	1936	1936	1936	1936	1936	1925	1925	1925	1925	1925	1925	1925	1925	1915	1915	1915	1915	1925	1915	1915	1915	1915	1904	1894	1904	1904	1904	1904	1904	0	0	0	0	0	0	0	0	0	0	0	0	0	0	0	0	0	0	0	0	0	0	0	0	0	0	0	0	0	0	0	0	0	0	0	0	0	0
0	0	0	0	0	0	0	0	0	0	0	0	0	1843	1843	1853	1863	1853	1863	1873	1883	1883	1883	1894	1894	1894	1904	1915	1925	1936	1936	1936	1936	1936	1958	1980	1980	1992	2003	2003	2003	2003	2015	2027	2027	2039	2039	2051	2051	2063	2076	2076	2076	2076	2076	2088	2088	2101	2101	2127	2127	2140	2153	2181	2181	2194	2194	2194	2208	2237	2237	2252	2252	2252	2266	2266	2266	2281	2281	2297	2312	2327	2343	2359	2359	2359	2376	2376	2376	2409	2409	2409	2426	2443	2443	2460	2478	2496	2496	2496	2532	2532	2532	2532	2496	0	0	0	0	0	0	0	0	0	0	0	0	0	0	0	0	0	0	0	0	0	0	9757	9757	0	0	0	0	0	0	0	0	0	0	0	0	9757	9757	9757	9757	9757	9757	0	0	0	0	0	0	0	0	0	0	0	0	0	0	0	0	0	0	0	0	0	0	0	0	0	0	0	0	0	0	0	0	0	0	0	0	0	0	0	0	0	0	0	0	0	0	0	0	0	0	0	0	0	0	0	0	0	0	0	0	0	0	0	0	0	0	0	0	0	0	0	0	0	0	0	0	0	0	0	0	0	0	0	0	0	0	0	0	9757	9757	9757	9757	9489	9489	0	0	0	0	0	0	0	0	0	0	0	0	0	0	0	0	0	0	0	0	0	0	0	0	0	0	0	0	0	0	0	0	0	0	0	0	0	0	0	0	0	0	0	0	0	0	0	0	0	0	0	0	0	0	0	0	0	4243	4243	4243	4243	4192	4243	4243	4243	4243	4243	4243	4192	4192	4192	4192	4192	4142	4192	4192	4243	4243	4243	4192	4192	4192	4142	4192	4192	4142	4192	4192	4243	4192	4192	4192	4192	4192	4192	4192	4142	4142	4142	4142	4142	4142	4142	4243	4243	4243	4243	4296	4243	4243	4192	4192	4243	4243	4243	0	0	0	0	0	0	0	0	0	0	0	0	0	0	0	0	0	0	0	0	0	0	0	0	0	0	0	0	0	0	0	0	0	0	0	0	0	0	0	0	0	0	0	0	0	0	0	0	0	0	0	0	0	0	0	0	0	0	0	0	0	0	0	0	0	0	0	0	0	9489	8995	8995	8767	8767	8767	8767	8767	8550	8550	0	0	0	0	0	0	0	0	0	0	0	0	0	0	0	0	0	0	0	0	0	0	0	0	0	0	0	0	0	0	0	0	0	0	0	0	0	0	0	0	0	0	0	0	0	0	0	0	0	0	0	0	5535	5535	5535	5535	5626	5535	5535	5535	5535	5448	5448	5448	5448	5448	5448	5364	5364	5364	5282	5202	5202	5202	0	0	0	0	0	0	2140	2127	2114	2114	2114	2114	2101	2076	2076	2076	2076	2063	2063	2063	2063	2063	2063	2051	2051	2051	2063	2051	2051	2051	2051	2051	2051	2051	2051	2051	2039	2039	2051	2039	2039	2039	2027	2027	2027	2027	2039	2039	2039	2039	2039	2039	2051	2051	2051	2051	2039	2015	2003	2003	1980	1980	1969	1958	1947	1947	1936	1936	1936	1936	1925	1925	1925	1925	1925	1915	1925	1915	1915	1915	1915	1915	1915	1915	1915	1915	1904	1894	1904	1904	1904	1904	1904	0	0	0	0	0	0	0	0	0	0	0	0	0	0	0	0	0	0	0	0	0	0	0	0	0	0	0	0	0	0	0	0	0	0	0	0	0	0
0	0	0	0	0	0	0	0	0	0	0	0	0	1843	1843	1853	1863	1853	1863	1873	1883	1883	1894	1894	1894	1904	1904	1915	1915	1925	1925	1936	1936	1936	1958	1969	1969	1992	2003	2003	2015	2015	2027	2027	2027	2039	2039	2051	2051	2063	2076	2076	2076	2076	2076	2076	2088	2088	2114	2127	2140	2140	2153	2167	2181	2194	2208	2208	2223	2237	2237	2237	2237	2252	2252	2266	2266	2266	2281	2297	2312	2312	2343	2359	2359	2376	2376	2376	2376	2376	2409	2426	2426	2443	2460	2478	2496	2496	2496	2514	2514	2532	2514	2514	0	0	0	0	0	0	0	0	0	0	0	0	0	0	0	0	0	0	0	0	0	0	0	9757	9757	0	0	0	0	0	0	0	0	0	0	0	0	0	0	0	0	0	0	0	0	0	0	0	0	0	0	0	0	0	0	0	0	0	0	0	0	0	0	0	0	0	0	0	0	0	0	0	0	0	0	0	0	0	0	0	0	0	0	0	0	0	0	0	0	0	0	0	0	0	0	0	0	0	0	0	0	0	0	0	0	0	0	0	0	0	0	0	0	0	0	0	0	0	0	0	0	0	0	0	0	0	0	0	0	0	9757	9489	9489	9757	9757	9489	9489	9489	0	0	0	0	0	0	0	0	0	0	0	0	0	0	0	0	0	0	0	0	0	0	0	0	0	0	0	0	0	0	0	0	0	0	0	0	0	0	0	0	0	0	0	0	0	0	0	0	0	0	0	0	0	0	0	0	4243	4243	4243	4243	4243	4243	4243	4243	4243	4243	4243	4192	4192	4192	4192	4192	4192	4192	4243	4243	4243	4243	4192	4192	4192	4142	4192	4192	4192	4192	4192	4243	4192	4243	4192	4192	4192	4192	4192	4142	4142	4192	4142	4142	4142	4243	4243	4243	4243	4243	4243	4243	4243	4243	4243	4243	4243	4243	0	0	0	0	0	0	0	0	0	0	0	0	0	0	0	0	0	0	0	0	0	0	0	0	0	0	0	0	0	0	0	0	0	0	0	0	0	0	0	0	0	0	0	0	0	0	0	0	0	0	0	0	0	0	0	0	0	0	0	0	0	0	0	0	0	0	0	0	0	0	8995	8767	8767	8767	8767	8550	8550	0	0	0	0	0	0	0	0	0	0	0	0	0	0	0	0	0	0	0	0	0	0	0	0	0	0	0	0	0	0	0	0	0	0	0	0	0	0	0	0	0	0	0	0	0	0	0	0	0	0	0	0	0	0	5535	5535	5626	5626	5626	5535	5535	5535	5535	5448	5535	5448	5448	5448	5448	5448	5364	5364	5364	5282	5282	5202	0	0	0	0	0	2153	2140	2127	2114	2114	2114	2114	2101	2076	2076	2063	2076	2063	2063	2063	2063	2051	2051	2051	2063	2051	2063	2051	2063	2051	2051	2051	2051	2051	2051	2051	2039	2039	2051	2039	2039	2039	2027	2039	2027	2039	2039	2027	2039	2039	2051	2039	2051	2051	2051	2051	2039	2027	2003	1992	1980	1980	1969	1958	1947	1947	1936	1936	1936	1936	1925	1925	1925	1925	1925	1925	1925	1915	1915	1915	1915	1915	1915	1915	1915	1915	1904	1904	1904	1904	1904	1904	1904	0	0	0	0	0	0	0	0	0	0	0	0	0	0	0	0	0	0	0	0	0	0	0	0	0	0	0	0	0	0	0	0	0	0	0	0	0	0
0	0	0	0	0	0	0	0	0	0	0	0	0	1833	1843	1843	1853	1853	1863	1873	1883	1883	1894	1894	1894	1904	1904	1915	1915	1925	1925	1936	1936	1947	1969	1980	1969	1992	1992	2003	2003	2015	2027	2027	2027	2039	2039	2051	2051	2051	2076	2076	2076	2088	2076	2088	2088	2101	2114	2127	2140	2140	2153	2167	2181	2194	2194	2208	2223	2223	2223	2237	2237	2252	2252	2266	2266	2281	2281	2297	2297	2312	2327	2327	2359	2376	2376	2376	2376	2376	2409	2426	2443	2443	2460	2478	2496	2496	2496	2496	2496	2514	2514	2514	0	0	0	0	0	0	0	0	0	0	0	0	0	0	0	0	0	0	0	0	0	0	0	0	0	0	0	0	0	0	0	0	0	0	0	0	0	0	0	0	0	0	0	0	0	0	0	0	0	0	0	0	0	0	0	0	0	0	0	0	0	0	0	0	0	0	0	0	0	0	0	0	0	0	0	0	0	0	0	0	0	0	0	0	0	0	0	0	0	0	0	0	0	0	0	0	0	0	0	0	0	0	0	0	0	0	0	0	0	0	0	0	0	0	0	0	0	0	0	0	0	0	0	0	0	0	0	9757	9757	9757	9757	9489	9489	9757	9757	9489	9489	9489	0	0	0	0	0	0	0	0	0	0	0	0	0	0	0	0	0	0	0	0	0	0	0	0	0	0	0	0	0	0	0	0	0	0	0	0	0	0	0	0	0	0	0	0	0	0	0	0	0	0	0	0	0	0	0	0	4243	4243	4243	4243	4192	4243	4192	4243	4243	4243	4243	4243	4192	4192	4192	4192	4192	4192	4243	4243	4243	4192	4192	4142	4142	4142	4142	4192	4142	4192	4192	4243	4192	4243	4192	4192	4192	4192	4142	4192	4192	4192	4192	4142	4142	4142	4243	4243	4243	4296	4296	4243	4243	4243	4243	4243	4243	4243	0	0	0	0	0	0	0	0	0	0	0	0	0	0	0	0	0	0	0	0	0	0	0	0	0	0	0	0	0	0	0	0	0	0	0	0	0	0	0	0	0	0	0	0	0	0	0	0	0	0	0	0	0	0	0	0	0	0	0	0	0	0	0	0	0	0	0	0	0	0	0	8767	8767	8767	8550	8550	8550	0	0	0	0	0	0	0	0	0	0	0	0	0	0	0	0	0	0	0	0	0	0	0	0	0	0	0	0	0	0	0	0	0	0	0	0	0	0	0	0	0	0	0	0	0	0	0	0	0	0	0	0	0	0	0	5719	5626	5626	5535	5535	5535	5535	5535	5448	5448	5448	5448	5448	5448	5448	5364	5364	5364	5282	5282	0	0	0	0	0	0	2153	2153	2127	2114	2114	2114	2114	2101	2076	2076	2076	2076	2063	2063	2063	2063	2063	2051	2051	2051	2051	2051	2051	2051	2051	2051	2051	2051	2051	2051	2039	2051	2039	2051	2039	2039	2039	2039	2039	2039	2039	2039	2027	2039	2039	2039	2039	2051	2039	2039	2051	2039	2003	1992	1992	1980	1980	1969	1958	1958	1947	1947	1936	1936	1936	1925	1925	1925	1925	1925	1925	1925	1915	1915	1915	1915	1915	1915	1915	1915	1915	1904	1904	1915	1904	1904	1904	1904	0	0	0	0	0	0	0	0	0	0	0	0	0	0	0	0	0	0	0	0	0	0	0	0	0	0	0	0	0	0	0	0	0	0	0	0	0	0
0	0	0	0	0	0	0	0	0	0	0	0	0	1843	1853	1853	1863	1853	1863	1883	1883	1894	1894	1894	1894	1904	1915	1915	1925	1925	1936	1936	1936	1947	1969	1980	1980	1980	1992	2003	2003	2015	2027	2027	2027	2039	2039	2051	2051	2063	2076	2076	2076	2076	2076	2076	2088	2088	2101	2127	2140	2140	2153	2153	2167	2181	2194	2194	2208	2223	2223	2237	2237	2237	2252	2252	2266	2266	2281	2297	2312	2312	2312	2327	2359	2359	2376	2359	2376	2376	2376	2426	2443	2443	2460	2478	2478	2496	2496	2496	2496	2514	2514	2514	0	0	0	0	0	0	0	0	0	0	0	0	0	0	0	0	0	0	0	0	0	0	0	0	0	0	0	0	0	0	0	0	0	0	0	0	0	0	0	0	0	0	0	0	0	0	0	0	0	0	0	0	0	0	0	0	0	0	0	0	0	0	0	0	0	0	0	0	0	0	0	0	0	0	0	0	0	0	0	0	0	0	0	0	0	0	0	0	0	0	0	0	0	0	0	0	0	0	0	0	0	0	0	0	0	0	0	0	0	0	0	0	0	0	0	0	0	0	0	0	0	0	0	0	0	0	0	9757	9757	9757	9757	0	0	0	0	0	0	0	0	0	0	0	0	0	0	0	0	0	0	0	0	0	0	0	0	9757	9489	9757	9757	9757	0	0	0	0	0	0	0	0	0	0	0	0	0	0	0	0	0	0	0	0	0	0	0	0	0	0	0	0	0	0	0	0	0	0	0	4243	4243	4243	4192	4243	4243	4243	4192	4243	4243	4243	4192	4192	4192	4142	4142	4192	4192	4243	4192	4192	4192	4142	4142	4142	4142	4192	4192	4192	4192	4192	4192	4192	4192	4192	4192	4142	4142	4142	4192	4192	4192	4142	4142	4243	4243	4243	4243	4243	4296	4243	4243	4243	4243	4243	4243	4243	4243	0	0	0	0	0	0	0	0	0	0	0	0	0	0	0	0	0	0	0	0	0	0	0	0	0	0	0	0	0	0	0	0	0	0	0	0	0	0	0	0	0	0	0	0	0	0	0	0	0	0	0	0	0	0	0	0	0	0	0	0	0	0	0	0	0	0	0	0	0	0	8767	8767	8767	8550	8550	8550	0	0	0	0	0	0	0	0	0	0	0	0	0	0	0	0	0	0	0	0	0	0	0	0	0	0	0	0	0	0	0	0	0	0	0	0	0	0	0	0	0	0	0	0	0	0	0	0	0	0	0	0	0	0	0	5719	5626	5626	5535	5535	5535	5448	5448	5448	5448	5448	5448	5448	5448	5448	5448	5364	5364	5364	5364	0	0	0	0	0	0	2167	2153	2127	2114	2114	2114	2114	2101	2076	2076	2076	2076	2063	2063	2063	2063	2051	2051	2051	2051	2051	2051	2051	2051	2051	2051	2051	2051	2039	2039	2039	2039	2039	2039	2039	2039	2039	2039	2039	2039	2039	2039	2027	2027	2039	2039	2039	2039	2039	2051	2051	2039	2003	2003	1992	1980	1980	1969	1969	1958	1947	1947	1947	1936	1936	1936	1925	1925	1925	1925	1925	1925	1915	1915	1915	1915	1915	1915	1915	1915	1915	1915	1904	1915	1904	1904	1904	1904	0	0	0	0	0	0	0	0	0	0	0	0	0	0	0	0	0	0	0	0	0	0	0	0	0	0	0	0	0	0	0	0	0	0	0	0	0	0
0	0	0	0	0	0	0	0	0	0	0	0	0	1833	1843	1843	1853	1853	1863	1883	1883	1894	1894	1894	1894	1904	1915	1925	1925	1925	1936	1936	1947	1947	1969	1969	1980	1980	1992	1992	2003	2015	2015	2027	2027	2039	2039	2051	2051	2063	2076	2076	2076	2076	2076	2088	2088	2101	2101	2127	2127	2140	2140	2140	2167	2167	2181	2194	2208	2208	2208	2223	2237	2237	2252	2266	2266	2281	2281	2297	2312	2312	2327	2343	2343	2376	2376	2359	2376	2376	2376	2426	2443	2443	2443	2460	2478	2478	2496	2496	2496	2532	2514	2514	2514	0	0	0	0	0	0	0	0	0	0	0	0	0	0	0	0	0	0	0	0	0	0	0	0	0	0	0	0	0	0	0	0	0	0	0	0	0	0	0	0	0	0	0	0	0	0	0	0	0	0	0	0	0	0	0	0	0	0	0	0	0	0	0	0	0	0	0	0	0	0	0	0	0	0	0	0	0	0	0	0	0	0	0	0	0	0	0	0	0	0	0	0	0	0	0	0	0	0	0	0	0	0	0	0	0	0	0	0	0	0	0	0	0	0	0	0	0	0	0	0	0	0	0	0	0	0	0	0	0	0	0	0	0	0	0	0	0	0	0	0	0	0	0	0	0	0	0	0	0	0	0	0	0	0	9757	9489	9757	9757	9757	0	0	0	0	0	0	0	0	0	0	0	0	0	0	0	0	0	0	0	0	0	0	0	0	0	0	0	0	0	0	0	0	0	0	0	4243	4243	4243	4192	4243	4243	4243	4243	4243	4243	4243	4192	4192	4192	4142	4192	4192	4192	4243	4192	4192	4192	4192	4142	4142	4142	4192	4192	4192	4192	4192	4192	4192	4192	4192	4192	4142	4142	4192	4192	4192	4192	4142	4142	4243	4243	4243	4243	4243	4296	4243	4243	4243	4243	4243	4243	4296	4296	0	0	0	0	0	0	0	0	0	0	0	0	0	0	0	0	0	0	0	0	0	0	0	0	0	0	0	0	0	0	0	0	0	0	0	0	0	0	0	0	0	0	0	0	0	0	0	0	0	0	0	0	0	0	0	0	0	0	0	0	0	0	0	0	0	0	0	0	0	0	0	0	8767	8550	8550	0	0	0	0	0	0	0	0	0	0	0	0	0	0	0	0	0	0	0	0	0	0	0	0	0	0	0	0	0	0	0	0	0	0	0	0	0	0	0	0	0	0	0	0	0	0	0	0	0	0	0	0	0	0	0	0	0	0	5626	5535	5535	5535	5535	5448	5448	5448	5448	5448	5448	5448	5448	5448	5448	5364	5364	5364	0	0	0	0	0	0	2167	2167	2167	2114	2114	2114	2114	2101	2076	2076	2076	2063	2063	2051	2051	2063	2063	2063	2051	2051	2051	2051	2051	2051	2051	2051	2039	2051	2039	2039	2039	2039	2039	2051	2051	2039	2039	2039	2039	2039	2039	2039	2027	2027	2039	2051	2051	2051	2039	2051	2051	2039	2027	2003	1992	1980	1980	1969	1969	1958	1947	1947	1947	1936	1936	1925	1925	1925	1915	1925	1915	1925	1915	1915	1915	1915	1915	1915	1915	1915	1915	1904	1894	1904	1904	1904	1894	1894	0	0	0	0	0	0	0	0	0	0	0	0	0	0	0	0	0	0	0	0	0	0	0	0	0	0	0	0	0	0	0	0	0	0	0	0	0	0
0	0	0	0	0	0	0	0	0	0	0	0	0	1843	1853	1843	1853	1853	1873	1883	1883	1894	1904	1904	1904	1904	1915	1925	1925	1936	1936	1947	1947	1947	1947	1969	1980	1980	1992	1992	2003	2015	2015	2027	2027	2039	2039	2051	2063	2063	2076	2076	2076	2088	2088	2088	2088	2101	2127	2127	2140	2140	2140	2153	2153	2181	2194	2208	2208	2208	2208	2223	2237	2237	2252	2281	2281	2297	2297	2297	2312	2312	2327	2327	2343	2359	2359	2359	2376	2376	2426	2426	2443	2443	2443	2478	2478	2478	2496	2496	2496	2514	2514	2514	2514	0	0	0	0	0	0	0	0	0	0	0	0	0	0	0	0	0	0	0	0	0	0	0	0	0	0	0	0	0	0	0	0	0	0	0	0	0	0	0	0	0	0	0	0	0	0	0	0	0	0	0	0	0	0	0	0	0	0	0	0	0	0	0	0	0	0	0	0	0	0	0	0	0	0	0	0	0	0	0	0	0	0	0	0	0	0	0	0	0	0	0	0	0	0	0	0	0	0	0	0	0	0	0	0	0	0	0	0	0	0	0	0	0	0	0	0	0	0	0	0	0	0	0	0	0	0	0	0	0	0	0	0	0	0	0	0	0	0	0	0	0	0	0	0	0	0	0	0	0	0	0	0	0	0	0	0	0	0	0	0	0	0	0	0	0	0	0	0	0	0	0	0	0	0	0	0	0	0	0	0	0	0	0	0	0	0	0	0	0	0	0	0	0	0	4243	4243	4243	4192	4243	4192	4243	4243	4243	4243	4243	4192	4192	4192	4142	4142	4192	4192	4243	4192	4192	4192	4192	4192	4142	4142	4192	4192	4192	4192	4192	4192	4192	4192	4192	4192	4142	4142	4192	4192	4192	4142	4142	4142	4192	4243	4243	4243	4243	4243	4243	4243	4243	4243	4296	4243	4296	4296	0	0	0	0	0	0	0	0	0	0	0	0	0	0	0	0	0	0	0	0	0	0	0	0	0	0	0	0	0	0	0	0	0	0	0	0	0	0	0	0	0	0	0	0	0	0	0	0	0	0	0	0	0	0	0	0	0	0	0	0	0	0	0	0	0	0	0	0	0	0	0	0	0	0	0	0	0	0	0	0	0	0	0	0	0	0	7959	8146	8146	0	0	0	0	0	0	0	0	0	0	0	0	0	0	0	0	0	0	0	0	0	0	0	0	0	0	0	0	0	0	0	0	0	0	0	0	0	0	0	0	0	0	0	0	5626	5535	5535	5535	5535	5535	5448	5448	5448	5448	5448	5448	5448	5448	5364	5364	5364	5202	5202	0	0	0	0	0	2167	2167	2167	2114	2114	2114	2114	2101	2088	2076	2076	2076	2063	2063	2063	2063	2063	2063	2051	2051	2051	2051	2051	2051	2051	2039	2039	2039	2039	2039	2039	2039	2039	2051	2051	2039	2039	2039	2039	2039	2039	2039	2039	2039	2039	2051	2051	2051	2039	2051	2051	2051	2027	1992	1992	1980	1980	1969	1969	1958	1958	1947	1947	1936	1936	1925	1925	1925	1925	1925	1925	1925	1925	1915	1915	1915	1904	1915	1915	1915	1904	1904	1904	1904	1894	1894	1894	1894	0	0	0	0	0	0	0	0	0	0	0	0	0	0	0	0	0	0	0	0	0	0	0	0	0	0	0	0	0	0	0	0	0	0	0	0	0	0
0	0	0	0	0	0	0	0	0	0	0	0	0	1843	1843	1853	1853	1863	1873	1883	1883	1904	1904	1904	1904	1915	1915	1925	1936	1936	1936	1947	1947	1947	1947	1969	1980	1980	1992	1992	2003	2015	2015	2027	2027	2039	2039	2051	2051	2063	2063	2076	2076	2101	2088	2101	2101	2101	2127	2127	2127	2140	2140	2153	2167	2181	2194	2208	2208	2208	2208	2208	2237	2252	2266	2281	2281	2297	2297	2297	2312	2312	2327	2327	2343	2359	2359	2359	2376	2376	2426	2426	2443	2443	2443	2460	2478	2478	2496	2496	2514	2514	2514	2514	2514	0	0	0	0	0	0	0	0	0	0	0	0	0	0	0	0	0	0	0	0	0	0	0	0	0	0	0	0	0	0	0	0	0	0	0	0	0	0	0	0	0	0	0	0	0	0	0	0	0	0	0	0	0	0	0	0	0	0	0	0	0	0	0	0	0	0	0	0	0	0	0	0	0	0	0	0	0	0	0	0	0	0	0	0	0	0	0	0	0	0	0	0	0	0	0	0	0	0	0	0	0	0	0	0	0	0	0	0	0	0	0	0	0	0	0	0	0	0	0	0	0	0	0	0	0	0	0	0	0	0	0	0	0	0	0	0	0	0	0	0	0	0	0	0	0	0	0	0	0	0	0	0	0	0	0	0	0	0	0	0	0	0	0	0	0	0	0	0	0	0	0	0	0	0	0	0	0	0	0	0	0	0	0	0	0	0	0	0	0	0	0	0	0	0	4243	4243	4243	4192	4243	4192	4243	4243	4243	4243	4243	4192	4192	4192	4142	4192	4192	4192	4243	4192	4192	4192	4192	4192	4142	4142	4142	4192	4192	4192	4192	4192	4192	4192	4192	4192	4192	4192	4192	4192	4192	4192	4192	4192	4243	4243	4243	4243	4296	4296	4296	4296	4243	4296	4296	4296	4350	4350	0	0	0	0	0	0	0	0	0	0	0	0	0	0	0	0	0	0	0	0	0	0	0	0	0	0	0	0	0	0	0	0	0	0	0	0	0	0	0	0	0	0	0	0	0	0	0	8146	8146	8146	8146	0	0	0	0	0	0	0	0	0	0	0	0	0	0	0	0	0	0	0	0	0	0	0	8343	8146	8343	8146	8146	8146	8146	0	0	0	0	7959	7959	7959	7959	8146	8146	8146	0	0	0	0	0	0	0	0	0	0	0	0	0	0	0	0	0	0	0	0	0	0	0	0	0	0	0	0	0	0	0	0	0	0	0	0	0	0	0	0	0	5626	5535	5535	5535	5535	5535	5448	5448	5448	5448	5448	5448	5448	5448	5448	5448	5364	5364	5202	0	0	0	0	0	0	0	0	2114	2127	2127	2114	2101	2088	2076	2076	2076	2076	2063	2063	2063	2063	2063	2051	2051	2051	2063	2063	2063	2051	2051	2051	2039	2039	2039	2039	2039	2039	2051	2051	2039	2039	2039	2039	2039	2051	2039	2039	2039	2039	2051	2039	2039	2039	2039	2039	2039	2027	2003	1992	1992	1980	1980	1980	1958	1958	1947	1947	1947	1936	1936	1925	1936	1925	1925	1915	1915	1915	1904	1904	1915	1904	1904	1915	1915	1904	1904	1904	1904	1894	1894	1894	1894	0	0	0	0	0	0	0	0	0	0	0	0	0	0	0	0	0	0	0	0	0	0	0	0	0	0	0	0	0	0	0	0	0	0	0	0	0	0
0	0	0	0	0	0	0	0	0	0	0	0	0	1843	1843	1843	1853	1863	1863	1883	1883	1904	1904	1904	1904	1915	1915	1925	1936	1936	1936	1947	1947	1947	1958	1969	1980	1980	1992	1992	2003	2003	2015	2027	2027	2027	2039	2039	2051	2076	2076	2088	2088	2101	2088	2088	2101	2114	2127	2127	2127	2127	2140	2153	2153	2181	2194	2194	2208	2208	2208	2223	2237	2252	2266	2281	2281	2297	2297	2297	2312	2312	2327	2327	2343	2359	2359	2359	2376	2409	2426	2426	2443	2443	2443	2460	2460	2478	2478	2496	2496	2514	2496	2496	2514	0	0	0	0	0	0	0	0	0	0	0	0	0	0	0	0	0	0	0	0	0	0	0	0	0	0	0	0	0	0	0	0	0	0	0	0	0	0	0	0	0	0	0	0	0	0	0	0	0	0	0	0	0	0	0	0	0	0	0	0	0	0	0	0	0	0	0	0	0	0	0	0	0	0	0	0	0	0	0	0	0	0	0	0	0	0	0	0	0	0	0	0	0	0	0	0	0	0	0	0	0	0	0	0	0	0	0	0	0	0	0	0	0	0	0	0	0	0	0	0	0	0	0	0	0	0	0	0	0	0	0	0	0	0	0	0	0	0	0	0	0	0	0	0	0	0	0	0	0	0	0	0	0	0	0	0	0	0	0	0	0	0	0	0	0	0	0	0	0	0	0	0	0	0	0	0	0	0	0	0	0	0	0	0	0	0	0	0	0	0	0	0	0	0	0	4243	4243	4243	4243	4192	4192	4243	4243	4192	4243	4192	4192	4192	4142	4192	4192	4192	4243	4192	4192	4192	4142	4142	4142	4142	4192	4142	4192	4192	4192	4142	4142	4142	4192	4192	4192	4192	4192	4192	4142	4142	4142	4142	4192	4243	4243	4296	4296	4296	4296	4243	4243	4243	4243	4192	4296	4296	0	0	0	0	0	0	0	0	0	0	0	0	0	0	0	0	0	0	0	0	0	8343	8343	0	0	0	0	0	0	0	0	0	0	0	0	0	0	0	0	0	0	0	0	0	0	0	0	8146	8146	8146	8146	8343	8343	8343	8343	8343	0	0	0	0	0	0	0	0	0	0	0	8767	8767	0	0	0	0	0	8146	8146	8146	8146	7959	8146	8146	8146	8146	0	0	8146	7959	7959	7959	7959	7959	8146	8146	0	0	0	0	0	0	0	0	0	0	0	0	0	0	0	0	0	0	0	0	0	0	0	0	0	0	0	0	0	0	0	0	0	0	0	0	0	0	0	0	5535	5535	5535	5626	5535	5535	5448	5448	5448	5448	5448	5448	5448	5448	5448	5448	5448	5448	5448	0	0	0	0	0	0	0	0	2114	2127	2114	2114	2101	2088	2076	2076	2063	2063	2063	2051	2063	2063	2063	2051	2051	2051	2063	2063	2063	2051	2051	2051	2051	2039	2039	2039	2039	2027	2027	2039	2039	2039	2039	2039	2039	2039	2039	2039	2039	2039	2039	2039	2039	2027	2039	2039	2039	2027	1992	1992	1992	1992	1980	1980	1969	1958	1947	1947	1936	1936	1936	1925	1925	1925	1925	1925	1925	1915	1915	1915	1915	1915	1915	1915	1915	1915	1904	1904	1904	1894	1894	1894	1894	0	0	0	0	0	0	0	0	0	0	0	0	0	0	0	0	0	0	0	0	0	0	0	0	0	0	0	0	0	0	0	0	0	0	0	0	0	0
0	0	0	0	0	0	0	0	0	0	0	0	0	1833	1843	1843	1853	1853	1863	1883	1883	1894	1904	1904	1904	1904	1915	1925	1936	1936	1936	1947	1947	1947	1958	1969	1969	1980	1980	1992	2003	2003	2003	2015	2027	2039	2039	2051	2051	2076	2076	2088	2088	2101	2101	2101	2114	2127	2127	2127	2127	2140	2140	2153	2167	2181	2194	2194	2208	2223	2223	2223	2237	2252	2266	2281	2281	2297	2297	2312	2312	2312	2327	2327	2343	2359	2359	2359	2376	2409	2426	2426	2443	2443	2443	2443	2443	2460	2478	2478	2496	2514	2496	2496	0	0	0	0	0	0	0	0	0	0	0	0	0	0	0	0	0	0	0	0	0	0	0	0	0	0	0	0	0	0	0	0	0	0	0	0	0	0	0	0	0	0	0	0	0	0	0	0	0	0	0	0	0	0	0	0	0	0	0	0	0	0	0	0	0	0	0	0	0	0	0	0	0	0	0	0	0	0	0	0	0	0	0	0	0	0	0	0	0	0	0	0	0	0	0	0	0	0	0	0	0	0	0	0	0	0	0	0	0	0	0	0	0	0	0	0	0	0	0	0	0	0	0	0	0	0	0	0	0	0	0	0	0	0	0	0	0	0	0	0	0	0	0	0	0	0	0	0	0	0	0	0	0	0	0	0	0	0	0	0	0	0	0	0	0	0	0	0	0	0	0	0	0	0	0	0	0	0	0	0	0	0	0	0	0	0	0	0	0	0	0	0	0	0	0	0	4296	4243	4243	4243	4192	4243	4243	4243	4243	4243	4243	4192	4192	4192	4192	4192	4192	4192	4192	4192	4192	4142	4192	4142	4142	4192	4192	4192	4192	4192	4142	4142	4142	4192	4192	4142	4192	4192	4142	4142	4142	4142	4142	4192	4192	4243	4296	4243	4296	4243	4243	4243	4243	4243	4243	4296	4296	0	0	0	0	0	0	0	0	0	0	0	0	0	0	0	0	0	0	0	0	0	8343	8343	7959	7779	7779	7779	8550	8550	0	0	0	0	0	0	0	0	0	0	0	0	0	0	0	8343	8343	8343	8146	8146	8146	8146	8343	8343	8343	8343	8550	8550	0	0	0	0	0	0	0	0	8146	8146	8343	8343	8550	8550	0	8343	8343	8146	8146	8146	8146	7959	7959	8146	8146	7959	8146	8146	8146	7959	7959	7959	7959	7959	7959	8146	0	0	0	0	0	0	0	0	0	0	0	0	0	0	0	0	0	0	0	0	0	0	0	0	0	0	0	0	0	0	0	0	0	0	0	0	0	0	0	0	5719	5535	5535	5626	5535	5535	5448	5448	5448	5448	5448	5448	5448	5448	5448	5448	5448	5448	5448	5448	0	0	0	0	0	0	0	2114	2127	2127	2114	2114	2088	2076	2076	2076	2063	2051	2051	2063	2063	2051	2051	2051	2051	2063	2063	2063	2051	2051	2051	2051	2039	2027	2027	2039	2027	2039	2039	2039	2039	2051	2039	2039	2039	2039	2039	2039	2039	2039	2039	2039	2027	2027	2027	2027	2015	2003	1992	1992	1992	1980	1969	1969	1958	1958	1958	1947	1936	1936	1925	1925	1925	1925	1925	1925	1915	1915	1915	1915	1915	1915	1915	1915	1904	1904	1904	1904	1894	1894	1894	1894	0	0	0	0	0	0	0	0	0	0	0	0	0	0	0	0	0	0	0	0	0	0	0	0	0	0	0	0	0	0	0	0	0	0	0	0	0	0
0	0	0	0	0	0	0	0	0	0	0	0	0	1833	1833	1843	1843	1853	1863	1883	1883	1894	1915	1915	1904	1915	1915	1925	1936	1936	1936	1947	1947	1947	1958	1958	1969	1980	1980	1992	2003	2003	2003	2015	2027	2039	2039	2063	2063	2076	2076	2088	2088	2088	2101	2101	2101	2114	2127	2127	2127	2140	2167	2181	2181	2194	2194	2194	2208	2223	2223	2223	2237	2252	2252	2266	2281	2281	2297	2297	2312	2312	2327	2327	2343	2359	2359	2359	2376	2392	2426	2443	2443	2443	2460	2460	2460	2460	2478	2496	2496	2514	2514	2496	0	0	0	0	0	0	0	0	0	0	0	0	0	0	0	0	0	0	0	0	0	0	0	0	0	0	0	0	0	0	0	0	0	0	0	0	0	0	0	0	0	0	0	0	0	0	0	0	0	0	0	0	0	0	0	0	0	0	0	0	0	0	0	0	0	0	0	0	0	0	0	0	0	0	0	0	0	0	0	0	0	0	0	0	0	0	0	0	0	0	0	0	0	0	0	0	0	0	0	0	0	0	0	0	0	0	0	0	0	0	0	0	0	0	0	0	0	0	0	0	0	0	0	0	0	0	0	0	0	0	0	0	0	0	0	0	0	0	0	0	0	0	0	0	0	0	0	0	0	0	0	0	0	0	0	0	0	0	0	0	0	0	0	0	0	0	0	0	0	0	0	0	0	0	0	0	0	0	0	0	0	0	0	0	0	0	0	0	0	0	0	0	0	0	0	0	4296	4243	4243	4243	4243	4243	4243	4243	4243	4243	4243	4243	4243	4192	4192	4192	4243	4192	4192	4192	4192	4142	4142	4142	4142	4142	4142	4142	4142	4142	4142	4142	4142	4142	4192	4142	4192	4192	4142	4142	4142	4142	4142	4192	4192	4243	4243	4243	4243	4243	4243	4243	4243	4243	4243	4296	4296	0	0	0	0	0	0	0	8343	8343	8550	8550	8550	8550	8550	8146	7959	8146	8343	8343	7959	8343	8343	8343	8146	8146	8146	8146	8343	8550	8550	8550	8343	8550	8343	8550	8343	8343	8343	8343	0	0	0	0	0	8146	8343	8343	8343	8146	8550	8343	8343	8343	8343	8343	8343	8343	8343	7959	8146	8146	0	0	0	8146	8146	8343	8343	8550	8550	8550	8550	8343	8343	8343	8146	8146	8146	7959	7959	8146	8146	8146	8146	8146	8146	8146	7959	7959	7959	7779	7779	0	0	0	0	0	0	0	0	0	0	0	0	0	0	0	0	0	0	0	0	0	0	0	0	0	0	0	0	0	0	0	0	0	0	0	0	0	0	0	0	0	5719	5626	5626	5626	5626	5535	5535	5448	5448	5448	5448	5364	5448	5448	5448	5448	5448	5448	5448	5448	0	0	0	0	0	0	0	2114	2114	2127	2127	2114	2101	2076	2076	2063	2063	2063	2051	2063	2063	2051	2051	2051	2051	2051	2063	2063	2051	2051	2051	2051	2039	2039	2039	2039	2039	2039	2039	2039	2039	2039	2039	2039	2039	2039	2039	2039	2039	2039	2039	2039	2039	2039	2039	2039	2027	2003	1992	1992	1992	1980	1969	1969	1969	1958	1958	1936	1936	1936	1925	1925	1925	1925	1925	1925	1915	1915	1904	1915	1915	1915	1915	1915	1915	1904	1904	1904	1894	1894	1894	1894	0	0	0	0	0	0	0	0	0	0	0	0	0	0	0	0	0	0	0	0	0	0	0	0	0	0	0	0	0	0	0	0	0	0	0	0	0	0
0	0	0	0	0	0	0	0	0	0	0	0	0	1833	1833	1843	1843	1853	1853	1883	1883	1894	1904	1904	1915	1904	1915	1925	1925	1936	1947	1947	1958	1947	1958	1969	1969	1969	1980	1992	2003	2003	2015	2015	2015	2027	2039	2051	2051	2076	2076	2076	2088	2088	2101	2101	2114	2114	2127	2127	2127	2140	2153	2167	2181	2194	2194	2208	2208	2223	2223	2223	2237	2252	2252	2266	2281	2281	2297	2312	2312	2312	2312	2327	2327	2359	2359	2376	2376	2392	2426	2426	2443	2443	2460	2460	2460	2460	2478	2478	2496	2514	2514	0	0	0	0	0	0	0	0	0	0	0	0	0	0	0	0	0	0	0	0	0	0	0	0	0	0	0	0	0	0	0	0	0	0	0	0	0	0	0	0	0	0	0	0	0	0	0	0	0	0	0	0	0	0	0	0	0	0	0	0	0	0	0	0	0	0	0	0	0	0	0	0	0	0	0	0	0	0	0	0	0	0	0	0	7779	7779	0	0	0	0	0	0	0	0	0	0	0	0	0	0	0	0	0	0	0	0	0	0	0	0	0	0	0	0	0	0	0	0	0	0	0	0	0	0	0	0	0	0	0	0	0	0	0	0	0	0	0	0	0	0	0	0	0	0	0	0	0	0	0	0	0	0	0	0	0	0	0	0	0	0	0	0	0	0	0	0	0	0	0	0	0	0	0	0	0	0	0	0	0	0	0	0	0	0	0	0	0	0	0	8550	8550	8550	8343	8343	8343	8343	0	4296	4243	4243	4243	4243	4243	4243	4243	4243	4243	4243	4243	4243	4192	4192	4192	4243	4243	4192	4192	4192	4142	4142	4142	4142	4142	4142	4142	4142	4142	4142	4142	4142	4142	4142	4192	4192	4192	4192	4142	4142	4142	4192	4243	4243	4243	4243	4243	4243	4243	4243	4243	4192	4192	4243	4243	4243	4243	8343	8343	8343	8343	8343	8343	8343	8550	8550	8343	8550	8343	8146	8146	7959	8146	8146	8146	7959	8146	8146	8146	8146	8146	8146	8146	8343	8343	8343	8550	8343	8343	8343	8550	8343	8343	8343	8146	8146	8146	0	0	8146	8343	8343	8343	8550	8343	8550	8343	8343	8343	8343	8343	8343	8343	8343	8146	8343	8146	8146	8146	8343	8146	8146	8146	8146	8550	8550	8550	8550	8343	8343	8146	8146	8146	8146	8146	7959	7959	7959	7959	7959	7959	8146	8146	7959	7959	7959	7959	7779	0	0	0	0	0	0	0	0	0	0	0	0	0	0	0	0	0	0	0	0	0	0	0	0	0	0	0	0	0	0	0	0	0	0	0	0	0	0	0	0	0	5626	5626	5626	5626	5535	5535	5535	5448	5448	5448	5448	5364	5448	5448	5448	5448	5448	5448	5448	5448	0	0	0	0	0	0	0	2127	2127	2127	2127	2114	2101	2088	2076	2076	2063	2063	2063	2063	2063	2063	2051	2051	2051	2051	2063	2063	2051	2051	2051	2051	2051	2039	2039	2039	2039	2039	2039	2039	2039	2039	2039	2039	2039	2039	2039	2039	2039	2051	2051	2051	2051	2039	2039	2039	2027	2003	1992	1992	1992	1980	1980	1969	1969	1958	1958	1947	1947	1936	1936	1925	1936	1925	1925	1925	1915	1915	1904	1915	1915	1915	1915	1915	1915	1915	1915	1894	1894	1894	1883	1883	0	0	0	0	0	0	0	0	0	0	0	0	0	0	0	0	0	0	0	0	0	0	0	0	0	0	0	0	0	0	0	0	0	0	0	0	0	0
0	0	0	0	0	0	0	0	0	0	0	0	0	1843	1843	1843	1843	1843	1853	1873	1883	1883	1894	1904	1915	1915	1925	1925	1936	1936	1947	1947	1947	1958	1958	1969	1969	1980	1980	1992	2003	2003	2015	2015	2027	2027	2039	2051	2051	2063	2076	2076	2088	2088	2101	2101	2101	2114	2127	2127	2127	2140	2153	2181	2181	2194	2194	2208	2208	2223	2223	2223	2237	2252	2252	2266	2281	2297	2297	2312	2312	2312	2312	2327	2327	2359	2359	2376	2376	2409	2426	2426	2443	2426	2443	2443	2460	2460	2478	2496	2496	2514	2514	0	0	0	0	0	0	0	0	0	0	0	0	0	0	0	0	0	0	0	0	0	0	0	0	0	0	0	0	0	0	0	0	0	0	0	0	0	0	0	0	0	0	0	0	0	0	0	0	0	0	0	0	0	0	0	0	0	0	0	0	0	0	0	0	0	0	0	0	0	0	0	0	0	0	0	0	0	0	0	0	0	0	0	7779	7779	7779	7779	0	0	0	0	0	0	0	0	0	0	0	0	0	0	0	0	0	0	0	0	0	0	0	0	0	0	0	0	0	0	0	0	0	0	0	0	0	0	0	0	0	0	0	0	0	0	0	0	0	0	0	0	0	0	0	0	0	0	0	0	0	0	0	0	0	0	0	0	0	0	0	0	0	0	0	0	0	0	0	0	0	0	0	0	8343	8343	8343	8343	8146	8146	8146	0	0	0	0	0	8343	8343	0	0	8343	8343	8550	8343	8343	8343	8343	8343	8343	0	4296	4296	4296	4243	4243	4243	4243	4243	4243	4243	4243	4243	4243	4192	4192	4192	4243	4192	4142	4142	4142	4142	4142	4142	4142	4142	4142	4142	4142	4142	4142	4142	4142	4142	4142	4142	4192	4192	4192	4192	4192	4142	4243	4243	4243	4243	4243	4243	4243	4243	4243	4243	4192	4192	4192	4243	8343	8343	8343	8550	8550	8550	8550	8343	8343	8550	8550	8550	8550	8550	8343	8146	8146	8146	8343	8343	8146	8146	8343	8343	8343	8343	8146	8146	8343	8343	8343	8343	8343	8343	8343	8550	8550	8343	8343	8146	8146	8146	8146	8146	8146	8343	8550	8550	8550	8550	8343	8343	8343	8343	8343	8343	8343	8343	8343	8343	8343	8146	8146	8343	8343	7959	7959	7959	8146	8343	8343	8343	8550	8343	8343	8146	8146	8146	8146	8146	7959	7959	8146	7959	8146	8146	8146	8146	7959	7779	7779	7779	0	0	0	0	0	0	0	0	0	0	0	0	0	0	0	0	0	0	0	0	0	0	0	0	0	0	0	0	0	0	0	0	0	0	0	0	0	0	0	0	0	0	5626	5626	5626	5535	5535	5535	5448	5448	5448	5448	5364	5364	5448	5448	5448	5448	5448	5448	5448	5448	0	0	0	0	0	0	0	2127	2127	2127	2127	2114	2114	2088	2088	2076	2063	2063	2063	2051	2063	2063	2051	2051	2051	2063	2063	2063	2063	2051	2063	2051	2051	2039	2039	2039	2039	2039	2039	2039	2039	2039	2039	2039	2039	2039	2039	2051	2051	2051	2051	2051	2051	2039	2039	2039	2027	2015	1992	1992	1992	1980	1980	1969	1969	1958	1958	1947	1947	1936	1936	1925	1936	1925	1925	1925	1915	1915	1904	1915	1904	1915	1915	1915	1915	1915	1915	1894	1894	1894	1883	1883	0	0	0	0	0	0	0	0	0	0	0	0	0	0	0	0	0	0	0	0	0	0	0	0	0	0	0	0	0	0	0	0	0	0	0	0	0	0
0	0	0	0	0	0	0	0	0	0	0	0	0	1833	1833	1833	1843	1853	1853	1873	1883	1883	1894	1904	1904	1915	1915	1925	1925	1936	1936	1947	1947	1958	1958	1969	1969	1980	1980	1992	1992	2003	2015	2027	2027	2027	2039	2051	2051	2063	2063	2063	2076	2076	2088	2088	2101	2114	2114	2127	2127	2140	2140	2181	2194	2194	2194	2208	2194	2208	2223	2237	2252	2252	2252	2266	2281	2297	2312	2312	2312	2312	2327	2327	2359	2359	2359	2376	2376	2409	2426	2426	2443	2443	2443	2443	2443	2460	2460	2460	2478	0	0	0	0	0	0	0	0	0	0	0	0	0	0	0	0	0	0	0	0	0	0	0	0	0	0	0	0	0	0	0	0	0	0	0	0	0	0	0	0	0	0	0	0	0	0	0	0	0	0	0	0	0	0	0	0	0	0	0	0	0	0	0	0	0	0	0	0	0	0	0	0	8146	8343	8343	8343	8343	0	0	0	0	0	0	0	7779	7779	7959	7959	7959	7959	0	0	0	0	0	0	0	0	0	0	0	0	0	0	0	0	0	0	0	0	0	0	0	0	0	0	0	0	0	0	0	0	0	0	0	0	0	0	0	0	0	0	0	0	0	0	0	0	0	0	0	0	0	0	0	0	0	0	0	0	0	0	0	0	0	0	0	0	0	0	0	0	0	0	0	0	0	0	0	0	0	8343	8343	8343	8343	8343	8343	8343	8343	8343	8343	8343	8343	8343	8343	8343	8343	8343	8343	8343	8343	8550	8343	8343	8343	8343	8343	8343	0	4296	4296	4296	4243	4243	4243	4243	4243	4243	4243	4243	4243	4243	4243	4243	4192	4192	4192	4142	4142	4142	4142	4142	4142	4142	4142	4142	4142	4142	4142	4142	4142	4142	4142	4142	4142	4142	4192	4192	4192	4192	4192	4243	4296	4243	4296	4243	4243	4243	4243	4192	4192	4192	4192	4192	8550	8767	8550	8343	8550	8550	8550	8550	8343	8343	8550	8550	8550	8550	8550	8343	8146	8146	8343	8343	8343	8146	8146	8343	8343	8343	8343	8146	8146	8343	8146	8343	8343	8146	8146	8146	8550	8550	8343	8343	8146	8146	8146	8343	8146	8146	8146	8550	8550	8550	8550	8550	8343	8343	8343	8343	8343	8343	8343	8343	8343	8343	8343	8343	8343	8343	8343	8146	7959	8146	8146	8146	8343	8343	8343	8146	8146	8146	8146	8146	8146	7959	8146	8146	8146	8146	8146	8146	8146	8146	7779	7779	7779	0	0	0	0	0	0	0	0	0	0	0	0	0	0	0	0	0	0	0	0	0	0	0	0	0	0	0	0	0	0	0	0	0	0	0	0	0	0	0	0	0	5815	5626	5626	5626	5535	5535	5448	5448	5448	5364	5364	5282	5448	5448	5448	5448	5364	5448	5448	5448	5448	0	0	0	0	0	0	0	2127	2127	2127	2127	2114	2101	2101	2088	2076	2063	2063	2063	2051	2051	2063	2051	2051	2051	2051	2063	2063	2063	2063	2063	2051	2051	2051	2039	2039	2039	2039	2039	2039	2039	2039	2039	2039	2039	2039	2039	2039	2039	2039	2039	2039	2039	2039	2039	2039	2027	2015	1992	1992	1992	1980	1980	1969	1969	1969	1958	1947	1947	1947	1936	1925	1936	1925	1925	1925	1925	1915	1915	1904	1915	1915	1915	1904	1915	1915	1925	1894	1894	1894	1894	1894	0	0	0	0	0	0	0	0	0	0	0	0	0	0	0	0	0	0	0	0	0	0	0	0	0	0	0	0	0	0	0	0	0	0	0	0	0	0
0	0	0	0	0	0	0	0	0	0	0	0	0	1824	1824	1833	1843	1843	1853	1873	1873	1883	1894	1904	1904	1904	1915	1915	1925	1925	1936	1936	1947	1947	1958	1969	1969	1980	1980	1980	1992	1992	2015	2027	2027	2027	2039	2051	2039	2063	2063	2076	2088	2088	2088	2088	2088	2101	2114	2114	2127	2140	2140	2181	2194	2194	2194	2194	2194	2208	2223	2237	2237	2237	2252	2266	2281	2297	2312	2312	2312	2312	2312	2327	2327	2359	2359	2376	2376	2409	2409	2426	2426	2443	2443	2460	2460	2460	2460	2496	2496	0	0	0	0	0	0	0	0	0	0	0	0	0	0	0	0	0	0	0	0	0	0	0	0	0	0	0	0	0	0	0	0	0	0	0	0	0	0	0	0	0	0	0	0	0	0	0	0	0	0	0	0	0	0	0	0	0	0	0	0	0	0	0	0	0	0	0	0	0	0	0	8343	8343	8343	8343	8343	8343	8343	0	0	0	0	0	7959	7779	7959	7959	7959	7959	7959	7959	0	0	0	0	0	0	0	0	0	0	0	0	0	0	0	0	0	0	0	0	0	0	0	0	0	0	0	0	0	0	0	0	0	0	0	0	0	0	0	0	0	0	0	0	0	0	0	0	0	0	0	0	0	0	0	0	0	0	0	0	0	0	0	0	0	0	0	0	0	0	0	0	0	0	0	0	0	0	8550	8550	8343	8343	8343	8343	8343	8343	8343	8343	8343	8343	8343	8343	8343	8343	8343	8343	8343	8343	8343	8343	8343	8343	8343	8343	8343	8343	8343	0	0	4296	4296	4243	4243	4243	4243	4243	4243	4243	4243	4243	4243	4243	4243	4192	4192	4192	4142	4142	4142	4142	4142	4142	4142	4192	4142	4142	4142	4142	4142	4142	4142	4142	4142	4142	4142	4192	4192	4192	4192	4192	4243	4243	4243	4243	4243	4243	4243	4192	4192	4192	4192	4192	4192	8550	8767	8550	8550	8550	8550	8550	8550	8343	8550	8550	8550	8343	8550	8343	8343	8146	8146	8343	8146	8343	8146	8146	8343	8343	8343	8343	8343	8343	8146	8146	8146	8146	8146	8146	8146	8550	8550	8146	8146	8146	8146	8146	8343	8146	8146	8146	8343	8343	8550	8343	8343	8343	8343	8343	8343	8343	8343	8146	8343	8343	8343	8343	8550	8550	8550	8343	8343	8343	8146	8146	8146	8146	8146	8343	8146	8146	8146	8146	8146	8146	7959	7959	8146	8146	8146	8146	8146	8146	8146	0	0	0	0	0	0	0	0	0	0	0	0	0	0	0	0	0	0	0	0	0	0	0	0	0	0	0	0	0	0	0	0	0	0	0	0	0	0	0	0	0	0	0	5915	5815	5815	5626	5626	5535	5535	5535	5448	5448	5448	5448	5448	5448	5448	5448	5448	5364	5448	5448	5448	0	0	0	0	0	0	0	0	2140	2127	2127	2127	2114	2114	2101	2088	2076	2076	2063	2063	2051	2063	2051	2051	2039	2051	2051	2063	2051	2039	2051	2063	2051	2051	2039	2039	2039	2039	2039	2039	2039	2039	2039	2039	2039	2039	2039	2039	2039	2039	2039	2039	2039	2039	2039	2039	2039	2027	2003	1992	2015	1980	1980	1969	1969	1969	1969	1958	1947	1947	1936	1936	1925	1925	1925	1925	1925	1925	1915	1915	1915	1915	1915	1915	1894	1894	1915	1925	1904	1894	1894	1894	1894	0	0	0	0	0	0	0	0	0	0	0	0	0	0	0	0	0	0	0	0	0	0	0	0	0	0	0	0	0	0	0	0	0	0	0	0	0	0
0	0	0	0	0	0	0	0	0	0	0	0	0	1824	1824	1833	1843	1843	1853	1873	1873	1883	1883	1894	1904	1904	1915	1915	1925	1925	1936	1936	1947	1958	1958	1969	1969	1980	1980	1992	1992	1992	2003	2027	2027	2039	2039	2051	2039	2063	2076	2076	2076	2076	2088	2088	2088	2101	2114	2114	2127	2140	2153	2181	2181	2194	2194	2194	2194	2208	2223	2223	2237	2237	2237	2252	2266	2297	2312	2312	2312	2312	2312	2327	2327	2327	2359	2376	2392	2392	2426	2426	2443	2443	2443	2443	2460	2478	2496	2514	2514	2514	0	0	0	0	0	0	0	0	0	0	0	0	0	0	0	0	0	0	0	0	0	8343	8343	8343	8343	0	0	0	0	0	0	0	0	0	0	0	0	0	0	0	0	0	0	0	0	0	0	0	0	0	0	0	0	0	0	0	0	0	0	0	0	0	0	0	0	0	0	0	0	0	8343	8343	8343	8550	8343	8343	8343	0	0	8146	8146	7959	7959	7959	7959	7779	8146	7959	7779	7779	0	0	0	0	0	0	0	0	0	0	0	0	0	0	0	0	0	0	0	0	0	0	0	0	0	0	0	0	0	0	0	0	0	0	0	0	0	0	0	0	0	0	0	0	0	0	0	0	0	0	0	0	0	0	0	0	0	0	0	0	0	0	0	0	0	0	0	0	0	0	0	0	0	0	0	0	0	8343	8550	8550	8343	8343	8343	8343	8343	8343	8343	8343	8146	8146	8343	8343	8343	8343	8343	8343	8343	8343	8343	8343	8343	8343	8343	8343	8343	8146	8343	8343	0	4296	4296	4243	4243	4243	4243	4243	4243	4243	4243	4243	4243	4243	4192	4192	4192	4192	4142	4142	4142	4142	4142	4142	4142	4192	4142	4142	4142	4142	4142	4142	4142	4142	4142	4142	4142	4142	4142	4142	4142	4142	4192	4243	4192	4243	4243	4243	4243	4243	4243	4243	4192	4192	4192	8550	8767	8550	8550	8550	8550	8550	8550	8343	8550	8550	8343	8343	8343	8343	8343	8146	8146	8343	8343	8343	8343	8146	8343	8343	8343	8343	8343	8343	8146	8146	8146	8146	8146	8146	8146	8343	8343	8343	8343	8146	8146	8146	8343	8146	8146	8146	8343	8343	8550	8343	8343	8343	8343	8343	8343	8343	8146	8146	8343	8343	8343	8343	8550	8343	8550	8343	8343	8343	7959	7959	7959	7959	8146	8146	8146	8146	8146	8146	8146	8146	8146	8146	8146	8146	8146	8146	8146	8146	8146	0	0	0	0	0	0	0	0	0	0	0	0	0	0	0	0	0	0	0	0	0	0	0	0	0	0	0	0	0	0	0	0	0	0	0	0	0	0	0	0	0	0	6018	5915	5815	5815	5626	5626	5535	5535	5535	5448	5448	5364	5364	5364	5364	5448	5364	5448	5364	5448	5448	5448	0	0	0	0	0	0	0	2127	2127	2127	2127	2127	2127	2114	2101	2101	2076	2076	2063	2063	2063	2063	2051	2051	2039	2039	2051	2051	2051	2039	2051	2063	2051	2051	2051	2051	2051	2051	2039	2039	2039	2039	2039	2039	2039	2039	2039	2039	2039	2039	2063	2063	2051	2051	2051	2027	2027	2027	2015	2015	2003	1980	1980	1969	1969	1969	1969	1958	1958	1947	1936	1936	1925	1925	1925	1925	1925	1925	1925	1915	1925	1925	1915	1915	1894	1894	1894	1915	1904	1894	1894	1894	1894	0	0	0	0	0	0	0	0	0	0	0	0	0	0	0	0	0	0	0	0	0	0	0	0	0	0	0	0	0	0	0	0	0	0	0	0	0	0
0	0	0	0	0	0	0	0	0	0	0	0	0	1833	1824	1843	1843	1843	1853	1863	1873	1873	1883	1894	1904	1904	1915	1915	1925	1936	1936	1936	1947	1958	1969	1969	1980	1980	1980	1992	1992	1992	2003	2027	2015	2027	2039	2039	2051	2051	2063	2076	2076	2076	2088	2088	2088	2088	2114	2127	2127	2127	2153	2167	2181	2194	2181	2194	2194	2208	2208	2223	2237	2237	2237	2252	2266	2297	2297	2312	2312	2312	2312	2327	2327	2359	2359	2392	2409	2409	2426	2426	2443	2443	2443	2443	2478	2478	2496	2514	2514	2514	2514	0	0	0	0	0	0	0	0	8146	8146	8146	0	0	0	0	0	0	8343	8343	8343	8343	8343	8343	8146	8146	8146	0	0	0	0	0	0	0	0	0	0	0	0	0	0	0	0	0	0	0	0	0	0	0	0	0	0	0	0	0	0	0	0	0	0	0	0	0	0	0	0	0	0	0	0	0	8343	8343	8343	7959	8146	8146	8146	8146	7959	7959	7959	7959	7959	7959	7779	7959	7779	7779	7779	0	0	0	0	0	0	0	0	0	0	0	0	0	0	0	0	0	0	0	0	0	0	0	0	0	0	0	0	0	0	0	0	0	0	0	0	0	0	0	0	0	0	0	0	0	0	0	0	0	0	0	0	0	0	0	0	0	0	0	0	0	0	0	0	0	0	0	0	0	0	0	0	0	0	0	0	8343	8343	8343	8343	8343	8343	8343	8343	8343	8343	8343	8343	8146	8146	8343	8343	8146	8146	8146	8146	8343	8343	8146	8343	8343	8343	8343	8343	8343	8343	8343	0	4296	4296	4243	4243	4243	4243	4243	4243	4243	4243	4243	4243	4192	4192	4192	4192	4192	4142	4142	4142	4142	4142	4192	4142	4192	4192	4142	4142	4142	4142	4142	4142	4142	4142	4142	4142	4142	4142	4142	4142	4142	4243	4243	4192	4243	4243	4243	4243	4243	4243	4243	4192	4192	4192	0	8767	8550	8550	8550	8550	8550	8550	8343	8343	8343	8146	8146	8146	8343	8343	8343	8146	8343	8343	8343	8343	8146	8343	8343	8343	8343	8343	8343	8146	8146	8146	8146	8146	8146	8146	8343	8343	8343	8343	8146	8146	8343	8343	8146	8146	8343	8343	8343	8550	8343	8550	8343	8343	8343	8343	8343	8146	8146	8146	8146	7959	8343	8550	8343	8550	8343	8343	8343	7959	7959	7959	8146	8146	8343	8343	8146	8343	8343	8343	8343	8146	8146	8343	8146	8146	8146	0	0	0	0	0	0	0	0	0	0	0	0	0	0	0	0	0	0	0	0	0	0	0	0	0	0	0	0	0	0	0	0	0	0	0	0	0	0	0	0	0	0	0	0	0	5915	5915	5815	5815	5626	5626	5535	5535	5448	5448	5448	5364	5364	5364	5364	5448	5448	5448	5448	5448	5448	5448	0	0	0	0	0	0	0	2127	2127	2127	2127	2127	2114	2114	2114	2101	2088	2076	2063	2063	2063	2063	2051	2051	2039	2039	2051	2051	2051	2039	2051	2051	2051	2051	2051	2051	2051	2039	2039	2039	2039	2039	2039	2039	2039	2039	2039	2039	2039	2039	2051	2063	2063	2063	2063	2027	2027	2039	2027	2027	2015	2003	1980	1969	1969	1969	1969	1958	1958	1947	1947	1936	1925	1925	1925	1925	1925	1925	1925	1915	1915	1915	1915	1904	1894	1894	1894	1904	1894	1894	1894	1894	1894	0	0	0	0	0	0	0	0	0	0	0	0	0	0	0	0	0	0	0	0	0	0	0	0	0	0	0	0	0	0	0	0	0	0	0	0	0	0
0	0	0	0	0	0	0	0	0	0	0	0	0	1833	1833	1843	1843	1843	1853	1863	1873	1873	1883	1883	1894	1904	1915	1915	1925	1925	1936	1936	1947	1947	1969	1980	1980	1980	1992	1980	1992	1992	2003	2027	2027	2027	2039	2039	2051	2051	2063	2076	2076	2076	2088	2088	2088	2088	2101	2127	2127	2127	2153	2167	2181	2181	2181	2194	2194	2194	2208	2223	2223	2237	2237	2252	2266	2297	2312	2312	2312	2312	2312	2327	2343	2359	2376	2392	2392	2409	2409	2426	2426	2443	2443	2478	2478	2496	2514	2514	2514	2514	2514	2514	0	0	0	0	0	0	0	8343	8146	8146	0	0	0	0	0	8343	8343	8343	8343	8343	8343	8343	8343	8343	8343	0	0	0	0	0	0	0	0	0	0	0	0	0	0	0	0	0	0	0	0	0	0	0	0	0	0	0	0	0	0	0	0	0	0	0	0	0	0	0	0	0	0	0	0	0	8343	8343	8343	8146	8146	7959	8146	8146	7959	7959	7959	7959	7959	7779	7779	7779	7779	7608	7608	0	0	0	0	0	0	0	0	0	0	0	0	0	0	0	0	0	0	0	0	0	0	0	0	0	0	0	0	0	0	0	0	0	0	0	0	0	0	0	0	0	0	0	0	0	0	0	0	0	0	0	0	0	0	0	0	0	0	0	0	0	0	0	0	0	0	0	0	0	0	0	0	0	0	0	0	8343	8343	8343	8343	8343	8343	8343	8343	8343	8343	8343	8343	8343	8343	8343	8343	8343	8343	8146	8146	8146	8146	8146	8343	8343	8343	8146	8343	8146	8146	0	0	4243	4243	4243	4243	4243	4243	4243	4243	4243	4243	4243	4243	4192	4192	4142	4192	4142	4142	4142	4142	4142	4142	4192	4142	4192	4142	4142	4142	4142	4142	4142	4142	4142	4142	4142	4142	4142	4142	4142	4142	4142	4192	4192	4192	4192	4192	4243	4243	4243	4243	4243	4192	4243	4243	4243	8550	8550	8550	8550	8550	8550	8550	8550	8343	8550	8343	8146	8343	8343	8343	8146	8146	8343	8343	8343	8343	8343	8343	8343	8343	8550	8343	8343	8146	8343	8343	8343	8343	8146	7959	8343	8343	8343	8343	8146	8343	8343	8343	8343	8146	8343	8343	8550	8550	8343	8343	8343	8343	8343	8343	8146	8146	8146	8146	7959	7959	8343	8550	8550	8550	8343	8343	8343	8343	8146	7959	7959	8146	8146	8146	8146	8146	8146	8343	8343	8146	8343	8146	7959	7959	0	0	0	0	0	0	0	0	0	0	0	0	0	0	0	0	0	0	0	0	0	0	0	0	0	0	0	0	0	0	0	0	0	0	0	0	0	0	0	0	0	0	0	0	0	0	5915	5815	5815	5815	5626	5626	5535	5535	5448	5448	5448	5364	5364	5364	5364	5448	5448	5448	5448	5448	5448	5282	5282	0	0	0	0	0	0	2127	2127	2127	2127	2127	2114	2114	2114	2101	2088	2076	2063	2063	2063	2063	2051	2051	2039	2039	2051	2051	2051	2051	2051	2051	2051	2051	2051	2051	2039	2039	2039	2039	2039	2039	2039	2039	2039	2039	2039	2039	2039	2039	2039	2039	2051	2051	2063	0	0	2039	2027	2015	2015	2003	1992	1969	1969	1969	1969	1969	1958	1958	1947	1936	1936	1925	1925	1925	1936	1925	1925	1925	1915	1915	1915	1915	1894	1894	1904	1915	1915	1894	1894	1894	1894	0	0	0	0	0	0	0	0	0	0	0	0	0	0	0	0	0	0	0	0	0	0	0	0	0	0	0	0	0	0	0	0	0	0	0	0	0	0
0	0	0	0	0	0	0	0	0	0	0	0	0	1833	1824	1843	1843	1843	1853	1863	1873	1883	1883	1883	1894	1904	1915	1915	1915	1925	1936	1936	1947	1958	1969	1980	1980	1980	1980	1992	1992	1992	2003	2003	2027	2039	2039	2039	2039	2051	2063	2076	2076	2076	2088	2088	2088	2088	2101	2127	2127	2140	2140	2153	2167	2167	2181	2181	2181	2181	2194	2223	2237	2237	2237	2266	2266	2297	2297	2312	2312	2312	2327	2327	2343	2376	2376	2392	2409	2409	2409	2426	2443	2443	2443	2478	2496	2496	2514	2514	2514	2514	2532	2532	2532	0	0	0	8343	8343	8343	8343	8146	8146	8343	8343	0	8343	8343	8343	8343	8343	8343	8343	8343	8343	8343	8146	8343	8343	8343	0	0	0	0	0	0	0	0	0	0	0	0	0	0	0	0	0	0	0	0	0	0	0	0	0	0	0	0	0	0	0	0	0	0	0	0	0	0	0	0	0	0	8343	8343	8343	8343	7959	8343	7959	8146	8146	7959	7959	7959	7959	7959	7779	7959	7779	7779	7779	7779	8550	8550	0	0	0	0	0	0	0	0	0	0	0	0	0	0	0	0	0	0	0	0	0	0	0	0	0	0	0	0	0	0	0	0	0	0	0	0	0	0	0	0	0	0	0	0	0	0	0	0	0	0	0	0	0	0	0	0	0	0	0	0	0	0	0	0	0	0	0	0	0	0	0	0	0	0	8343	8343	8343	8343	8343	8343	8343	8550	8343	8343	8343	8343	8343	8343	8343	8343	8343	8343	8146	8146	8343	8146	8146	8343	8343	8343	8146	8343	8146	8146	0	0	4243	4243	4243	4243	4243	4243	4243	4243	4243	4243	4243	4243	4192	4192	4142	4142	4142	4142	4142	4142	4142	4142	4142	4142	4142	4142	4142	4142	4142	4142	4142	4192	4142	4142	4142	4142	4142	4142	4142	4142	4142	4142	4192	4192	4192	4192	4192	4243	4243	4243	4243	4192	4243	4243	4243	8550	8767	8767	8550	8550	8550	8550	8550	8343	8343	8343	8343	8343	8343	8343	8343	8343	8343	8343	8343	8343	8343	8343	8343	8550	8550	8550	8550	8550	8343	8343	8343	8343	8343	8146	8343	8550	8550	8343	8343	8343	8343	8550	8343	8343	8343	8343	8343	8343	8343	8343	8343	8343	8343	8146	8146	7959	8146	8146	7959	7959	8343	8550	8550	8550	8343	8343	8343	7959	7959	7959	7959	7959	8146	8146	8146	8146	8146	8146	8343	8146	8343	8343	8146	8146	0	0	0	0	0	0	0	0	0	0	0	0	0	0	0	0	0	0	0	0	0	0	0	0	0	0	0	0	0	0	0	0	0	0	0	0	0	0	0	0	0	0	0	0	0	0	5815	5815	5815	5815	5719	5626	5535	5535	5448	5448	5448	5364	5364	5364	5364	5448	5448	5448	5448	5448	5448	5448	5282	0	0	0	0	0	0	2140	2140	2127	2127	2127	2114	2114	2101	2101	2088	2076	2063	2063	2063	2051	2051	2051	2027	2027	2051	2051	2051	2051	2051	2051	2051	2051	2051	2051	2051	2039	2039	2039	2039	2039	2039	2039	2039	2039	2039	2039	2039	2027	2039	2051	2051	2051	0	0	0	2027	2015	2015	2015	2003	1992	1980	1969	1969	1969	1969	1958	1958	1947	1936	1936	1925	1925	1925	1936	1936	1925	1925	1915	1915	1904	1904	1894	1894	1904	1904	1904	1894	1894	1894	1894	0	0	0	0	0	0	0	0	0	0	0	0	0	0	0	0	0	0	0	0	0	0	0	0	0	0	0	0	0	0	0	0	0	0	0	0	0	0
0	0	0	0	0	0	0	0	0	0	0	0	0	1824	1824	1833	1843	1843	1853	1863	1863	1883	1883	1883	1894	1894	1904	1904	1915	1925	1936	1936	1947	1958	1969	1980	1980	1980	1980	1992	1992	1992	1992	2003	2027	2039	2039	2039	2051	2063	2076	2076	2076	2076	2088	2088	2101	2101	2114	2114	2127	2127	2140	2153	2167	2181	2181	2194	2194	2194	2194	2208	2237	2237	2252	2252	2266	2297	2297	2297	2312	2312	2312	2343	2359	2359	2376	2392	2409	2409	2426	2426	2443	2443	2443	2443	2478	2496	2496	2514	2532	2532	2532	2532	2532	0	0	0	8343	8343	8343	8343	8343	8343	8343	8343	8343	8343	8343	8343	8343	8343	8146	8146	8343	8343	8343	8343	8343	8343	8343	8343	0	0	0	0	0	0	0	0	0	0	0	0	0	0	0	0	0	0	0	0	0	0	0	0	0	0	0	0	0	0	0	0	0	0	0	0	0	0	0	0	0	8343	8146	8146	8146	7959	7959	8343	8146	8146	7959	7959	7959	7959	7959	7959	7959	7959	7959	7779	7779	8550	8550	0	0	0	0	0	0	0	0	0	0	0	0	0	0	0	0	0	0	0	0	0	0	0	0	0	0	0	0	0	0	0	0	0	0	0	0	0	0	0	0	0	0	0	0	0	0	0	0	0	0	0	0	0	0	0	0	0	0	0	0	0	0	0	0	0	0	0	0	0	0	0	0	0	0	8343	8343	8343	8343	8343	8343	8550	8550	8343	8343	8343	8343	8343	8343	8343	8343	8343	8343	8146	8146	8146	8146	8146	8146	8343	8343	8343	8343	8343	8146	0	4243	4243	4243	4243	4192	4243	4243	4243	4243	4243	4243	4243	4192	4192	4142	4142	4142	4142	4142	4142	4142	4142	4142	4142	4142	4142	4192	4142	4142	4142	4142	4142	4142	4142	4142	4142	4142	4142	4142	4142	4142	4142	4142	4142	4192	4192	4192	4192	4243	4243	4243	4243	4192	4192	4192	4192	0	8767	8767	8767	8550	8550	8550	8550	8343	8343	8343	8343	8343	8146	8146	8146	8343	8343	8343	8343	8343	8343	8343	8550	8550	8550	8550	8550	8550	8550	8550	8550	8550	8343	8146	8343	8343	8550	8343	8343	8343	8343	8550	8343	8343	8343	8146	8343	8343	8343	8343	8146	8146	8343	8146	8146	7959	8146	8146	8146	8146	8343	8550	8550	8550	7959	7959	7959	7959	7959	7959	8146	8146	8146	8146	8146	8146	8146	8343	8343	8146	8146	7959	7959	8146	0	0	0	0	0	0	0	0	0	0	0	0	0	0	0	0	0	0	0	0	0	0	0	0	0	0	0	0	0	0	0	0	0	0	0	0	0	0	0	0	0	0	0	0	0	0	5815	5815	5815	5815	5815	5626	5535	5535	5535	5448	5448	5364	5448	5364	5448	5448	5364	5448	5448	5448	5448	5448	0	0	0	0	0	0	0	2153	2140	2140	2127	2127	2114	2114	2101	2101	2088	2076	2063	2063	2063	2051	2051	2039	2027	2027	2039	2051	2051	2051	2051	2051	2051	2051	2051	2051	2051	2051	2039	2039	2039	2039	2039	2039	2039	2039	2039	2039	2039	2027	2039	2051	2051	0	0	0	0	2027	2015	2015	2003	1992	1980	1980	1969	1969	1969	1958	1958	1947	1947	1936	1936	1925	1925	1925	1936	1936	1925	1925	1915	1915	1915	1904	1894	1894	1894	1894	1894	1894	1894	1894	1894	0	0	0	0	0	0	0	0	0	0	0	0	0	0	0	0	0	0	0	0	0	0	0	0	0	0	0	0	0	0	0	0	0	0	0	0	0	0
0	0	0	0	0	0	0	0	0	0	0	0	0	1824	1824	1833	1843	1843	1853	1863	1873	1873	1883	1873	1883	1894	1904	1904	1915	1925	1936	1936	1936	1947	1969	1969	1980	1980	1980	1980	1992	1992	1992	2003	2015	2039	2027	2039	2039	2063	2076	2076	2076	2088	2088	2088	2101	2114	2127	2127	2127	2140	2140	2153	2167	2194	2194	2194	2194	2194	2208	2208	2237	2237	2252	2266	2281	2297	2297	2312	2312	2312	2327	2343	2359	2376	2392	2409	2409	2426	2426	2426	2443	2443	2460	2460	2478	2496	2496	2514	2532	2551	2551	2551	2551	0	0	0	8343	8343	8343	8343	8343	8343	8343	8343	8146	8343	8146	8343	8146	8146	8146	8146	8343	8343	8343	8343	8343	8550	8550	8550	0	0	0	0	0	0	0	0	0	0	0	0	0	0	0	0	0	0	0	0	0	0	0	0	0	0	0	0	0	0	0	0	0	0	0	0	0	0	0	0	0	0	7959	7959	7959	7959	7959	8343	8146	8146	7959	8146	7959	7959	7959	7959	7959	7959	7959	7779	7779	0	0	0	0	0	0	0	0	0	0	0	0	0	0	0	0	0	0	0	0	0	0	0	0	0	0	0	0	0	0	0	0	0	0	0	0	0	0	0	0	0	0	0	0	0	0	0	0	0	0	0	0	0	0	0	0	0	0	0	0	0	0	0	0	0	0	0	0	0	0	0	0	0	0	0	0	8146	8146	8146	8343	8343	8343	8343	8550	8550	8550	8343	8343	8343	8343	8343	8343	8343	8343	8146	8146	8343	8146	8146	8146	8343	8343	8146	8146	8146	0	0	4243	4243	4243	4192	4192	4243	4243	4243	4243	4243	4243	4243	4192	4142	4142	4142	4142	4142	4142	4142	4142	4142	4142	4142	4142	4142	4142	4142	4142	4142	4142	4142	4142	4142	4142	4142	4142	4142	4142	4142	4142	4142	4142	4142	4192	4192	4192	4192	4243	4243	4243	4243	4192	4243	4192	4243	4243	8767	8767	8550	8550	8550	8550	8550	8343	8343	8343	8146	8146	8146	8146	8146	8146	8343	8343	8343	8343	8343	8343	8343	8343	8550	8550	8550	8550	8550	8550	8550	8550	8550	8343	8343	8343	8550	8343	8343	8343	8343	8550	8343	8343	8343	8146	8343	8343	8343	8343	8343	8343	8343	8343	8146	7959	7959	8146	7959	7959	8146	8146	8343	7959	7959	7959	7959	7959	7959	7959	7959	8146	8146	8146	8146	8146	8146	8146	8343	8146	8146	7959	7959	0	0	0	0	0	0	0	0	0	0	0	0	0	0	0	0	0	0	0	0	0	0	0	0	0	0	0	0	0	0	0	0	0	0	0	0	0	0	0	0	0	0	0	0	0	0	0	5815	5815	5815	5815	5815	5626	5626	5535	5535	5448	5448	5535	5448	5448	5448	5448	5364	5448	5448	5448	5448	5282	5202	5202	0	0	0	0	0	2140	2127	2127	2127	2127	2114	2114	2101	2101	2088	2076	2063	2063	2051	2051	2051	2039	2027	2027	2039	2039	2051	2051	2051	2051	2051	2051	2051	2051	2051	2051	2039	2039	2039	2039	2039	2039	2039	2039	2051	2039	2039	2027	2039	2039	2051	0	0	0	0	0	2015	2003	2015	1992	1980	1980	1980	1969	1969	1969	1958	1958	1947	1936	1936	1925	1925	1936	1936	1936	1925	1925	1925	1915	1904	1904	1894	1894	1894	1894	1894	1894	1904	1894	1894	0	0	0	0	0	0	0	0	0	0	0	0	0	0	0	0	0	0	0	0	0	0	0	0	0	0	0	0	0	0	0	0	0	0	0	0	0	0
0	0	0	0	0	0	0	0	0	0	0	0	0	1824	1824	1833	1843	1853	1853	1863	1873	1873	1873	1873	1883	1894	1904	1915	1915	1925	1936	1936	1947	1947	1969	1969	1969	1980	1980	1980	1992	1980	1992	2003	2015	2015	2039	2051	2051	2076	2076	2076	2088	2088	2101	2101	2114	2114	2127	2127	2127	2140	2140	2153	2181	2194	2194	2208	2208	2194	2208	2223	2237	2252	2252	2266	2281	2281	2297	2297	2312	2312	2327	2359	2359	2376	2392	2409	2409	2426	2426	2426	2443	2443	2460	2478	2496	2496	2496	2514	2532	2551	2551	2570	2570	0	0	0	8343	8343	8343	8343	8343	8343	8343	8146	8146	8146	8146	8146	8146	8146	8146	8146	8146	8343	8146	8146	8146	8146	8550	8550	0	0	0	0	0	0	0	0	0	0	0	0	0	0	0	0	0	0	0	0	0	0	0	0	0	0	0	0	0	0	0	0	0	0	0	0	0	0	0	0	0	0	7959	7959	7959	7959	8146	8343	8343	8146	8146	7959	7959	7779	7959	7959	7959	7959	7959	7959	7959	8343	8343	0	0	0	0	0	0	0	0	0	0	0	0	0	0	0	0	0	0	0	0	0	0	0	0	0	0	0	0	0	0	0	0	0	0	0	0	0	0	0	0	0	0	0	0	0	0	0	0	0	0	0	0	0	0	0	0	0	0	0	0	0	0	0	0	0	0	0	0	0	0	0	0	0	0	8146	7959	7959	8146	8146	8343	8343	8550	8550	8343	8343	8343	8343	8343	8343	8343	8343	8343	8146	8146	8146	8146	8146	8146	8343	8343	8343	8146	8146	0	0	4243	4243	4243	4243	4243	4243	4243	4243	4243	4192	4192	4192	4142	4142	4142	4142	4142	4142	4142	4142	4142	4142	4142	4142	4142	4142	4142	4142	4142	4142	4142	4142	4142	4142	4142	4142	4142	4142	4142	4142	4142	4142	4142	4142	4142	4192	4192	4192	4243	4243	4243	4243	4192	4243	4192	4192	4243	8767	8767	8550	8550	8550	8550	8550	8343	8343	8343	8146	8343	8146	8146	8146	8146	8146	8343	8343	8343	8343	8343	8343	8343	8550	8550	8550	8550	8550	8550	8550	8550	8550	8343	8343	8343	8550	8343	8343	8343	8343	8343	8343	8343	8343	8146	8343	8550	8343	8343	8550	8343	8550	8343	8146	8146	7959	7959	7959	7959	7959	8146	8146	8146	7959	8146	7959	7959	7959	7959	7959	7959	8146	8146	8146	8146	8146	8343	8343	8343	8343	0	0	0	0	0	0	0	0	0	0	0	0	0	0	0	0	0	0	0	0	0	0	0	0	0	0	0	0	0	0	0	0	0	0	0	0	0	0	0	0	0	0	0	0	0	0	0	0	0	0	5815	5815	5815	5626	5626	5626	5626	5535	5535	5535	5448	5448	5448	5448	5448	5448	5448	5448	5448	5448	5282	3157	3129	3129	0	0	0	0	2140	2127	2127	2127	2114	2114	2114	2114	2101	2088	2088	2063	2063	2051	2051	2039	2039	2039	2027	2039	2039	2039	2039	2051	2051	2051	2051	2051	2051	2051	2051	2039	2039	2039	2039	2039	2039	2039	2039	2051	2039	2039	2039	2039	2039	0	0	0	0	0	0	2015	2003	2003	1992	1980	1980	1980	1969	1969	1969	1958	1958	1947	1936	1936	1936	1925	1925	1936	1936	1925	1925	1915	1915	1915	1904	1894	1894	1894	1894	1894	1904	1904	1894	1894	0	0	0	0	0	0	0	0	0	0	0	0	0	0	0	0	0	0	0	0	0	0	0	0	0	0	0	0	0	0	0	0	0	0	0	0	0	0
0	0	0	0	0	0	0	0	0	0	0	0	0	1824	1824	1833	1843	1853	1853	1863	1873	1873	1883	1873	1883	1894	1904	1915	1915	1936	1936	1936	1947	1947	1969	1969	1969	1969	1969	1980	1980	1980	1980	2003	2015	2027	2039	2039	2051	2063	2076	2076	2088	2088	2101	2114	2127	2127	2140	2127	2127	2140	2140	2167	2167	2194	2194	2208	2208	2194	2194	2223	2237	2252	2252	2266	2281	2281	2297	2297	2312	2312	2343	2359	2359	2376	2376	2409	2409	2409	2426	2426	2426	2443	2478	2478	2496	2496	2496	2514	2532	2532	2551	2551	2551	0	0	0	8343	8343	8343	8343	8146	8343	8343	8146	8146	8146	8146	8146	8146	7959	7959	7959	8146	8146	8146	8146	8146	8146	8550	0	0	0	0	0	0	0	0	0	0	0	0	0	0	0	0	0	0	0	0	0	0	0	0	0	0	0	0	0	0	0	0	0	0	0	0	0	0	0	7444	7444	7608	7608	7779	7779	7959	7779	7959	8343	8343	8146	7959	7959	7779	7779	7779	7959	7959	7959	7959	7959	7959	7959	8343	0	0	0	0	0	0	0	0	0	0	0	0	0	0	0	0	0	0	0	0	0	0	0	0	0	0	0	0	0	0	0	0	0	0	0	0	0	0	0	0	0	0	0	0	0	0	0	0	0	0	0	0	0	0	0	0	0	0	0	0	0	0	0	0	0	0	0	0	0	0	0	0	0	0	8146	8146	8146	8146	8343	8343	8343	8550	8550	8550	8343	8343	8343	8343	8343	8343	8343	8343	8146	8146	8146	8146	8146	8146	8343	8146	8146	8343	8343	0	0	4296	4243	4243	4243	4243	4243	4243	4243	4243	4192	4192	4192	4142	4093	4142	4142	4142	4142	4142	4142	4142	4142	4142	4142	4142	4093	4142	4142	4142	4093	4093	4142	4142	4142	4142	4142	4142	4142	4142	4142	4142	4142	4142	4142	4142	4142	4192	4192	4243	4243	4243	4243	4192	4192	4192	4192	0	8550	8550	8550	8550	8550	8550	8550	8550	8550	8343	8343	8343	8146	8343	8146	8146	8146	8146	8343	8343	8343	8343	8343	8343	8550	8550	8550	8550	8550	8550	8550	8550	8550	8343	8343	8343	8343	8343	8343	8550	8343	8550	8550	8343	8343	8343	8343	8550	8550	8550	8550	8550	8550	8343	8343	8146	8343	8146	8146	8146	7959	7959	7959	7959	7959	8146	7959	7959	7959	7959	7959	7959	8146	8146	8146	8146	8146	8343	8343	8343	8343	0	0	0	0	0	0	0	0	0	0	0	0	0	0	0	0	0	0	0	0	0	0	0	0	0	0	0	0	0	0	0	0	0	0	0	0	0	0	0	0	0	0	0	0	0	0	0	0	0	0	5815	5815	5815	5815	5719	5719	5626	5535	5535	5535	5448	5364	5448	5448	5448	5448	5448	3129	3129	3129	3157	3157	3129	3157	3157	0	0	0	2140	2127	2127	2114	2114	2114	2114	2114	2101	2088	2088	2063	2063	2051	2051	2051	2039	2039	2027	2039	2039	2039	2039	2039	2039	2039	2039	2039	2039	2039	2039	2039	2039	2039	2039	2039	2039	2039	2039	2051	2039	2039	2039	2039	2039	0	0	0	0	0	0	2015	2003	2003	1980	1980	1980	1980	1969	1969	1969	1958	1958	1947	1936	1936	1936	1925	1925	1925	1936	1925	1915	1915	1915	1904	1904	1894	1894	1894	1894	1894	1904	1894	1894	1894	0	0	0	0	0	0	0	0	0	0	0	0	0	0	0	0	0	0	0	0	0	0	0	0	0	0	0	0	0	0	0	0	0	0	0	0	0	0
0	0	0	0	0	0	0	0	0	0	0	0	0	1824	1824	1833	1843	1853	1853	1863	1873	1873	1883	1873	1883	1894	1904	1915	1925	1936	1936	1936	1947	1947	1947	1969	1969	1969	1980	1980	1980	1980	1992	2015	2027	2039	2039	2039	2051	2063	2076	2088	2088	2101	2114	2127	2127	2127	2140	2140	2127	2140	2140	2153	2167	2181	2181	2181	2181	2181	2194	2237	2237	2252	2252	2266	2266	2281	2281	2297	2312	2312	2343	2359	2359	2376	2392	2392	2409	2426	2426	2426	2426	2443	2443	2478	2478	2496	2496	2514	2551	2532	2551	2551	2551	2551	2551	0	8343	8343	8343	8343	8146	8343	8343	8146	8146	8146	8146	7959	7959	7959	8146	8146	8146	8146	8146	8146	8146	8146	0	0	0	0	0	0	0	0	0	0	0	0	0	0	0	0	0	0	0	0	0	0	0	0	0	0	0	0	0	0	0	0	0	0	0	0	0	0	0	0	7444	7608	7779	7779	7959	7959	7959	7779	7959	8146	8146	8146	7779	7779	7779	7779	7779	7959	7959	7959	8146	8146	8343	8550	8550	0	0	0	0	0	0	0	0	0	0	0	0	0	0	0	0	0	0	0	0	0	0	0	0	0	0	0	0	0	0	0	0	0	0	0	0	0	0	0	0	0	0	0	0	0	0	0	0	0	0	0	0	0	0	0	0	0	0	0	0	0	0	0	0	0	0	0	0	0	0	0	0	0	8146	8343	8146	8146	8146	8146	8343	8343	8550	8343	8550	8343	8343	8550	8343	8343	8343	8343	8343	8343	8343	8343	8343	8343	8146	8343	8343	8343	8146	8146	0	0	4296	4243	4243	4243	4243	4243	4243	4243	4243	4192	4192	4192	4142	4093	4142	4142	4192	4192	4192	4142	4142	4142	4142	4142	4093	4093	4142	4142	4142	4142	4142	4142	4142	4142	4093	4093	4093	4093	4142	4142	4142	4142	4142	4142	4142	4142	4192	4192	4243	4243	4243	4243	4192	4192	4142	4142	4192	8550	8550	8550	8550	8550	8550	8550	8550	8550	8343	8343	8343	8343	8343	8343	8343	8343	8343	8343	8343	8343	8343	8343	8343	8550	8550	8550	8550	8550	8550	8550	8550	8550	8343	8343	8343	8343	8343	8343	8550	8550	8550	8550	8550	8343	8343	8343	8343	8343	8550	8550	8550	8550	8550	8343	8343	8343	8146	8343	8146	8146	8146	8146	8146	7959	8146	7959	7959	7959	7959	8146	8146	8146	8146	7959	7959	8146	0	0	0	0	0	0	0	0	0	0	0	0	0	0	0	0	0	0	0	0	0	0	0	0	0	0	0	0	0	0	0	0	0	0	0	0	0	0	0	0	0	0	0	0	0	0	0	0	0	0	0	0	0	0	5815	5815	5719	5815	5815	5719	0	0	3101	3129	3129	5448	5448	5448	3186	3186	3216	3129	3129	3129	3157	3157	3157	3157	3129	3157	3157	0	0	2140	2127	2127	2114	2114	2114	2114	2101	2101	2076	2076	2063	2063	2051	2051	2051	2039	2039	2039	2051	2051	2039	2039	2039	2039	2039	2039	2039	2039	2039	2039	2039	2039	2039	2039	2039	2039	2039	2051	2051	2039	2039	2039	2039	2039	0	0	0	0	0	2015	2003	2003	1980	1980	1980	1980	1969	1969	1969	1958	1958	1958	1947	1936	1936	1925	1925	1925	1925	1925	1925	1915	1915	1915	1904	1894	1894	1894	1894	1894	1894	1894	1894	1894	0	0	0	0	0	0	0	0	0	0	0	0	0	0	0	0	0	0	0	0	0	0	0	0	0	0	0	0	0	0	0	0	0	0	0	0	0	0
0	0	0	0	0	0	0	0	0	0	0	0	0	1824	1824	1833	1843	1853	1853	1863	1873	1873	1883	1883	1883	1894	1904	1904	1925	1925	1936	1947	1947	1958	1969	1969	1969	1969	1980	1980	1980	1980	1992	2015	2015	2027	2039	2039	2051	2063	2076	2088	2101	2101	2114	2127	2127	2127	2140	2140	2140	2140	2140	2167	2167	2181	2181	2181	2181	2181	2194	2237	2237	2252	2252	2266	2266	2281	2281	2297	2312	2327	2343	2359	2359	2359	2392	2392	2409	2409	2409	2426	2426	2443	2443	2443	2478	2496	2496	2514	2532	2532	2551	2551	2551	2551	2551	0	0	0	8146	8146	8146	8146	8343	8146	8146	8146	7959	8146	8146	7779	8146	8146	8146	8146	8146	8146	8146	0	0	0	0	0	0	0	0	0	0	0	0	0	0	0	0	0	0	0	0	0	0	0	0	0	0	0	0	0	0	0	0	0	0	0	0	0	0	0	0	0	7444	7608	7779	7959	7959	8146	7959	7959	7959	7959	8146	7959	7779	7779	7779	7779	7959	7959	7959	8146	8146	8146	8343	8343	8550	0	0	0	0	0	0	0	0	0	0	0	0	0	0	0	0	0	0	0	0	0	0	0	0	0	0	0	0	0	0	0	0	0	0	0	0	0	0	0	0	0	0	0	0	0	0	0	0	0	0	0	0	0	0	0	0	0	0	0	0	0	0	0	0	0	0	0	0	0	0	0	0	0	8146	8343	8146	8146	8146	8146	8343	8343	8343	8343	8343	8343	8343	8343	8343	8343	8343	8343	8343	8343	8343	8343	8146	8343	8146	8146	8146	8146	8146	8146	0	0	4243	4243	4243	4243	4243	4243	4243	4192	4192	4192	4192	4192	4142	4142	4142	4142	4192	4192	4192	4142	4142	4142	4142	4142	4093	4093	4093	4142	4093	4093	4093	4093	4093	4093	4093	4093	4093	4142	4142	4142	4142	4142	4142	4142	4142	4142	4192	4192	4192	4192	4192	4192	4142	4142	4142	4142	4192	8550	8550	8550	8550	8550	8343	8343	8343	8550	8343	8343	8343	8343	8343	8343	8146	8146	8146	8343	8343	8343	8343	8343	8343	8343	8550	8550	8550	8550	8550	8550	8550	8550	8343	8343	8343	8343	8343	8343	8343	8343	8343	8550	8343	8343	8343	8343	8343	8550	8550	8550	8550	8550	8550	8550	8343	8343	8343	8343	8343	8146	8146	8146	8146	8146	8146	7959	7959	7959	7959	8146	7959	8146	8146	7959	7959	0	0	0	0	0	0	0	0	0	0	0	0	0	0	0	0	0	0	0	0	0	0	0	0	0	0	0	0	0	0	0	0	0	0	0	0	0	0	0	0	0	0	0	0	0	0	0	0	0	0	0	0	0	0	0	5815	5815	5815	5815	5815	0	0	0	3129	3157	3157	3186	3186	3186	3186	3186	3186	3129	3129	3129	3157	3157	3157	3157	3157	3186	3186	0	0	2140	2127	2127	2127	2114	2114	2114	2101	2088	2076	2063	2063	2051	2051	2051	2051	2039	2039	2039	2039	2039	2039	2039	2027	2039	2039	2039	2039	2039	2039	2039	2039	2039	2039	2039	2039	2039	2039	2051	2051	2051	2051	2051	2051	2051	0	0	0	0	0	2015	1992	2003	1980	1980	1980	1980	1969	1969	1958	1958	1958	1947	1947	1936	1936	1936	1936	1925	1925	1925	1925	1925	1925	1915	1894	1894	1894	1894	1894	1894	1883	1883	1894	1894	0	0	0	0	0	0	0	0	0	0	0	0	0	0	0	0	0	0	0	0	0	0	0	0	0	0	0	0	0	0	0	0	0	0	0	0	0	0
0	0	0	0	0	0	0	0	0	0	0	0	0	1824	1833	1843	1853	1853	1853	1863	1863	1873	1873	1873	1883	1894	1904	1915	1925	1936	1936	1947	1947	1958	1958	1969	1969	1980	1980	1980	1980	1992	1992	2015	2015	2027	2039	2039	2039	2063	2076	2088	2101	2114	2114	2127	2127	2127	2140	2140	2127	2140	2153	2167	2167	2181	2181	2181	2181	2181	2194	2237	2237	2252	2252	2266	2281	2297	2297	2297	2312	2327	2343	2343	2359	2359	2376	2376	2409	2409	2409	2426	2426	2443	2443	2460	2478	2496	2496	2496	2514	2514	2514	2514	2551	2551	0	0	0	0	8343	8343	8343	8343	8343	8343	8146	8146	8146	8146	8146	8146	8146	8146	8146	8146	8146	8146	8146	0	0	0	0	0	0	0	0	0	0	0	0	0	0	0	0	0	0	0	0	0	0	0	0	0	0	0	0	0	0	0	0	0	0	0	0	0	0	0	0	0	7444	7608	7959	7959	7959	7959	7959	7959	7959	8146	8146	7959	7779	7779	7779	7959	7959	7959	7959	8146	8146	8146	8146	8146	0	0	0	0	0	0	0	0	0	0	0	0	0	0	0	0	0	0	0	0	0	0	0	0	0	0	0	0	0	0	0	0	0	0	0	0	0	0	0	0	0	0	0	0	0	0	0	0	0	0	0	0	0	0	0	0	0	0	0	0	0	0	0	0	0	0	0	0	0	0	0	0	0	8343	8343	8343	8146	8146	8146	8146	8146	8343	8343	8343	8343	8343	8343	8343	8343	8343	8343	8343	8343	8343	8343	8343	8343	8343	8146	8146	8146	8146	8146	8146	0	0	4243	4243	4243	4243	4243	4243	4243	4243	4243	4192	4192	4192	4192	4142	4142	4142	4192	4192	4192	4142	4142	4142	4142	4093	4093	4093	4093	4093	4093	4093	4093	4093	4093	4093	4093	4093	4093	4093	4093	4142	4142	4142	4142	4142	4142	4192	4192	4192	4192	4192	4192	4192	4192	4142	4142	4142	0	8550	8550	8343	8550	8550	8343	8343	8343	8550	8343	8343	8343	8343	8343	8146	8146	8146	8343	8343	8146	8343	8343	8343	8343	8343	8550	8550	8550	8550	8550	8550	8550	8550	8343	8343	8343	8550	8343	8343	8343	8343	8343	8343	8343	8343	8343	8343	8343	8343	8550	8550	8550	8550	8550	8550	8343	8343	8146	8146	8146	7959	7959	8146	8146	8146	8146	8146	7959	8146	8146	7959	7959	7959	7959	0	0	0	0	0	0	0	0	0	0	0	0	0	0	0	0	0	0	0	0	0	0	0	0	0	0	0	0	0	0	0	0	0	0	0	0	0	0	0	0	0	0	0	0	0	0	0	0	0	0	0	0	0	0	0	0	0	5815	5815	5815	5815	5815	0	0	0	3129	3157	3157	3186	3186	3216	3216	3186	3186	3186	3186	3157	3157	3157	3157	3157	3157	3186	3157	3157	0	0	2114	2127	2114	2114	2114	2114	2101	2088	2076	2063	2063	2051	2051	2051	2051	2039	2039	2039	2039	2039	2039	2039	2039	2039	2039	2039	2039	2039	2039	2039	2039	2039	2039	2039	2039	2039	2039	2039	2051	2051	2051	2051	2063	2063	0	0	0	0	0	0	1992	2003	1992	1980	1980	1980	1980	1980	1969	1969	1958	1947	1947	1947	1936	1936	1936	1936	1925	1925	1925	1925	1925	1925	1915	1894	1894	1894	1894	1894	1894	1883	1894	1894	0	0	0	0	0	0	0	0	0	0	0	0	0	0	0	0	0	0	0	0	0	0	0	0	0	0	0	0	0	0	0	0	0	0	0	0	0	0
0	0	0	0	0	0	0	0	0	0	0	0	0	1824	1833	1833	1843	1853	1853	1863	1873	1873	1873	1883	1894	1894	1904	1915	1936	1947	1947	1947	1958	1958	1958	1958	1969	1969	1980	1980	1992	1992	2003	2015	2015	2027	2039	2039	2039	2063	2063	2088	2101	2101	2114	2114	2127	2127	2140	2127	2127	2140	2153	2167	2181	2181	2194	2194	2194	2194	2194	2237	2237	2252	2252	2252	2281	2297	2297	2297	2312	2327	2343	2359	2359	2359	2376	2392	2409	2409	2409	2426	2426	2426	2443	2460	2460	2460	2496	2496	2514	2514	2514	2514	0	0	0	0	0	8343	8343	8343	8343	8343	8343	8343	8146	8146	7959	8146	8146	8146	8146	8146	8146	8146	8146	8146	8146	0	0	0	0	0	0	0	0	0	0	0	0	0	0	0	0	0	0	0	0	0	0	0	0	0	0	0	0	0	0	0	0	0	0	0	0	0	0	0	0	0	0	0	7959	7959	7959	8146	8146	8146	8146	8146	8146	7959	7779	7779	7779	7779	7959	7959	7959	8146	8146	8146	8146	8146	0	0	0	0	0	0	0	0	0	0	0	0	0	0	0	0	0	0	0	0	0	0	0	0	0	0	0	0	0	0	0	0	0	0	0	0	0	0	0	0	0	0	0	0	0	0	0	0	0	0	0	0	0	0	0	0	0	0	0	0	0	0	0	0	0	0	0	0	0	0	0	0	8343	8343	8343	8343	8343	8146	8343	8146	8343	8343	8343	8343	8343	8343	8343	8343	8343	8343	8343	8343	8343	8343	8343	8343	8343	8343	8343	8146	8146	8146	8146	8146	0	4243	4243	4243	4243	4192	4243	4243	4192	4192	4192	4192	4192	4192	4192	4142	4142	4142	4192	4192	4192	4142	4142	4142	4142	4093	4093	4093	4093	4093	4093	4093	4093	4093	4093	4093	4093	4093	4093	4093	4093	4093	4093	4142	4142	4142	4192	4192	4192	4192	4192	4192	4192	4192	4192	4142	4142	4142	4142	8550	8550	8343	8550	8550	8343	8550	8550	8550	8343	8343	8343	8343	8343	8146	8146	8146	8146	8343	8146	8343	8343	8343	8343	8343	8550	8550	8550	8550	8343	8550	8343	8343	8343	8146	8146	8343	8343	8343	8550	8550	8550	8343	8343	8146	8146	8343	8343	8343	8550	8550	8550	8550	8550	8550	8343	8343	8146	8146	8146	7959	7959	8146	8146	8146	8146	8146	7959	8146	7959	7959	7959	7959	7959	0	0	0	0	0	0	0	0	0	0	0	0	0	0	0	0	0	0	0	0	0	0	0	0	0	0	0	0	0	0	0	0	0	0	0	0	0	0	0	0	0	0	0	0	0	0	0	0	0	0	0	0	0	0	0	0	0	0	5815	5815	5815	0	0	0	0	3157	3186	3186	3186	3216	3216	3216	3186	3186	3186	3186	3186	3157	3157	3157	3157	3186	3186	3157	3157	0	0	2101	2114	2114	2114	2114	2114	2101	2088	2076	2076	2063	2051	2051	2051	2051	2051	2051	2039	2039	2039	2039	2039	2039	2027	2039	2039	2039	2039	2039	2039	2039	2039	2039	2027	2039	2039	2027	2039	2039	2051	2051	2063	2063	2063	0	0	0	0	0	0	0	2003	1992	1980	1980	1980	1980	1980	1969	1969	1958	1958	1947	1947	1936	1936	1936	1925	1925	1925	1925	1925	1925	1915	1915	1894	1894	1904	1894	1894	1894	1883	1894	1894	0	0	0	0	0	0	0	0	0	0	0	0	0	0	0	0	0	0	0	0	0	0	0	0	0	0	0	0	0	0	0	0	0	0	0	0	0	0
0	0	0	0	0	0	0	0	0	0	0	0	0	1824	1824	1843	1843	1853	1853	1863	1873	1873	1873	1883	1894	1894	1904	1915	1936	1936	1936	1947	1947	1958	1958	1958	1969	1980	1980	1980	1992	1992	2003	2027	2027	2027	2039	2039	2051	2063	2063	2076	2101	2101	2114	2114	2127	2127	2127	2114	2127	2140	2153	2167	2181	2181	2194	2194	2194	2194	2208	2223	2237	2252	2252	2252	2281	2297	2297	2297	2312	2343	2343	2343	2343	2359	2359	2376	2392	2392	2409	2409	2426	2443	2443	2443	2460	2478	2496	2496	2496	2496	2496	2514	0	0	0	0	0	8343	8343	8343	8343	8343	8343	8146	8343	8146	8146	8146	8146	8146	8146	8146	8146	8146	8146	8146	8146	8146	0	0	0	0	0	0	0	0	0	0	0	0	0	0	0	0	0	0	0	0	0	0	0	0	0	0	0	0	0	0	0	0	0	0	0	0	0	0	0	0	0	7608	7779	7959	7959	8146	8146	8146	8146	8146	8343	8146	7779	7779	7779	7779	7779	7959	7959	7959	8146	8146	8146	8146	0	0	0	0	0	0	0	0	0	0	0	0	0	0	0	0	0	0	0	0	0	0	0	0	0	0	0	0	0	0	0	0	0	0	0	0	0	0	0	0	0	0	0	0	0	0	0	0	0	0	0	0	0	0	0	0	0	0	0	0	0	0	0	0	0	0	0	0	0	0	0	0	8343	8343	8343	8343	8343	8343	8343	8146	8343	8146	8343	8343	8343	8343	8343	8146	8146	8343	8343	8343	8343	8343	8343	8343	8343	8343	8343	8343	8146	8146	8146	8146	0	4243	4243	4243	4243	4192	4243	4243	4192	4192	4192	4192	4192	4192	4192	4142	4142	4142	4192	4142	4142	4142	4142	4142	4093	4093	4093	4093	4093	4093	4093	4093	4093	4093	4093	4093	4093	4093	4093	4093	4093	4093	4142	4142	4192	4142	4192	4192	4192	4192	4192	4192	4192	4192	4192	4142	4142	4142	4142	8550	8343	8343	8550	8550	8343	8550	8550	8550	8343	8343	8343	8343	8146	8146	8146	8146	8146	8146	8146	8146	8343	8343	8343	8550	8550	8550	8550	8343	8343	8343	8343	8343	8343	8343	8343	8343	8343	8343	8343	8550	8550	8343	8343	8343	8146	8343	8343	8343	8343	8550	8550	8550	8550	8343	8550	8343	8146	8146	8146	8146	8343	8146	8343	8343	8343	8146	8146	8146	7959	7779	7779	7959	0	0	0	0	0	0	0	0	0	0	0	0	0	0	0	0	0	0	0	0	0	0	0	0	0	0	0	0	0	0	0	0	0	0	0	0	0	0	0	0	0	0	0	0	0	0	0	0	0	0	0	0	0	0	0	0	0	0	0	0	0	0	0	0	0	0	3129	3157	3157	3216	3216	3216	3216	3216	3216	3186	3186	3186	3157	3157	3157	3157	3157	3157	3129	3129	0	2088	2101	2114	2114	2114	2114	2114	2101	2101	2076	2076	2063	2063	2063	2051	2051	2051	2051	2051	2051	2039	2039	2039	2039	2039	2039	2039	2039	2039	2039	2039	2039	2027	2027	2027	2027	2027	2027	2039	2039	2051	2051	2063	2063	2063	0	0	0	0	0	0	0	1992	1992	1980	1980	1980	1980	1969	1969	1969	1958	1947	1947	1947	1947	1936	1936	1925	1925	1915	1915	1915	1915	1915	1904	1904	1904	1904	1894	1894	1894	1883	1894	1894	0	0	0	0	0	0	0	0	0	0	0	0	0	0	0	0	0	0	0	0	0	0	0	0	0	0	0	0	0	0	0	0	0	0	0	0	0	0
0	0	0	0	0	0	0	0	0	0	0	0	0	0	1833	1843	1843	1843	1853	1863	1873	1873	1873	1883	1894	1894	1904	1904	1925	1936	1936	1947	1947	1958	1958	1958	1958	1980	1980	1992	1992	1992	2003	2015	2027	2027	2027	2039	2039	2051	2063	2076	2076	2101	2114	2114	2127	2127	2127	2140	2140	2140	2153	2167	2167	2181	2194	2194	2194	2194	2208	2223	2223	2237	2237	2252	2252	2281	2297	2297	2297	2327	2327	2327	2343	2359	2359	2376	2392	2392	2409	2426	2426	2443	2443	2443	2460	2460	2478	2496	2496	2496	2496	0	0	0	0	0	8343	8343	8343	8343	8343	8343	8343	8146	8146	8146	8146	8146	8146	8146	8146	8146	8146	8146	8146	8343	8146	8146	0	0	0	0	0	0	0	0	0	0	0	0	0	0	0	0	0	0	0	0	0	0	0	0	0	0	0	0	0	0	0	0	0	0	0	0	0	0	0	0	7444	7444	7779	7959	7959	7959	8146	7959	8146	8343	8146	8146	8146	8146	7959	7959	7959	7959	7959	7959	8146	8146	8146	8146	0	0	0	0	0	0	0	0	0	0	0	0	0	0	0	0	0	0	0	0	0	0	0	0	0	0	0	0	0	0	0	0	0	0	0	0	0	0	0	0	0	0	0	0	0	0	0	0	0	0	0	0	0	0	0	0	0	0	0	0	0	0	0	0	0	0	0	0	0	0	0	0	0	8550	8343	8343	8343	8343	8343	8343	8343	8343	8343	8146	8146	8146	8146	8146	8146	8146	8146	8146	8146	8343	8343	8343	8343	8343	8343	8343	8146	8146	8146	8146	0	4243	4243	4192	4243	4192	4243	4243	4243	4192	4192	4192	4192	4192	4192	4142	4192	4142	4192	4142	4142	4142	4142	4093	4093	4093	4093	4093	4093	4093	4093	4093	4093	4093	4093	4093	4093	4093	4093	4093	4093	4093	4093	4142	4142	4142	4142	4142	4192	4192	4192	4192	4192	4192	4192	4142	4142	4142	4142	4142	8550	8550	8550	8550	8343	8550	8550	8550	8343	8343	8343	8343	8146	8146	8146	8146	8146	8146	8146	8343	8343	8343	8343	8550	8343	8343	8343	8343	8343	8343	8343	8343	8343	8343	8343	8343	8343	8343	8343	8550	8550	8550	8343	8343	8146	8146	8146	8146	8343	8343	8550	8343	8343	8343	8343	8343	8343	8146	8343	8343	8343	8343	8343	8343	8343	8146	8146	8146	7959	7779	7779	0	0	0	0	0	0	0	0	0	0	0	0	0	0	0	0	0	0	0	0	0	0	0	0	0	0	0	0	0	0	0	0	0	0	0	0	0	0	0	0	0	0	0	0	0	0	0	0	0	0	0	0	0	0	0	0	0	0	0	0	0	0	0	0	0	0	0	3129	3129	3157	3157	3186	3186	3216	3216	3216	3216	3186	3186	3186	3186	3157	3157	3157	3157	3157	3157	0	2088	2114	2127	2114	2114	2114	2114	2101	2101	2076	2076	2063	2063	2063	2051	2051	2051	2051	2051	2039	2039	2039	2039	2027	2027	2039	2039	2039	2039	2039	2039	2027	2027	2027	2027	2027	2027	2039	2039	2063	2063	2063	2063	2063	2063	0	0	0	0	0	0	0	1992	1992	1980	1980	1980	1980	1969	1958	1958	1958	1947	1947	1947	1936	1936	1936	1925	1925	1915	1915	1915	1915	1915	1904	1904	1894	1894	1894	1894	1894	1894	1894	1894	1894	0	0	0	0	0	0	0	0	0	0	0	0	0	0	0	0	0	0	0	0	0	0	0	0	0	0	0	0	0	0	0	0	0	0	0	0	0
0	0	0	0	0	0	0	0	0	0	0	0	0	0	1833	1843	1843	1843	1843	1863	1863	1873	1873	1883	1894	1894	1904	1915	1925	1936	1936	1936	1947	1947	1947	1958	1969	1980	1980	1992	2003	2003	2003	2015	2027	2027	2027	2027	2039	2051	2051	2076	2088	2101	2114	2114	2127	2127	2127	2140	2140	2140	2140	2153	2167	2181	2181	2194	2194	2194	2194	2208	2237	2237	2237	2252	2266	2266	2297	2297	2312	2312	2327	2327	2343	2359	2359	2376	2392	2392	2409	2409	2426	2443	2443	2443	2443	2460	2478	2514	2496	2496	2496	0	0	0	0	8343	8343	8343	8343	8343	8343	8343	8343	8343	8343	8146	8146	8146	8146	8146	8146	8146	8146	8343	8146	8343	8343	8343	0	0	0	0	0	0	0	0	0	0	0	0	0	0	0	0	0	0	0	0	0	0	0	0	0	0	0	0	0	0	0	0	0	0	0	0	0	0	0	0	7608	7444	7779	7779	7959	7959	8146	8146	8146	8146	8146	8146	8146	7959	7959	7959	7959	7959	7959	7959	7959	8146	8146	8146	0	0	0	0	0	0	0	0	0	0	0	0	0	0	0	0	0	0	0	0	0	0	0	0	0	0	0	0	0	0	0	0	0	0	0	0	0	0	0	0	0	0	0	0	0	0	0	0	0	0	0	0	0	0	0	0	0	0	0	0	0	0	0	0	0	0	0	0	0	0	0	0	0	8550	8343	8343	8343	8343	8343	8343	8343	8146	8343	8343	8146	8146	8146	8146	8146	8146	8146	8146	8146	8343	8343	8343	8343	8343	8343	8343	8343	8343	8146	8146	0	4243	4192	4192	4192	4192	4192	4192	4192	4192	4192	4192	4192	4142	4142	4142	4142	4142	4192	4142	4142	4142	4142	4093	4093	4093	4093	4093	4093	4142	4093	4093	4093	4093	4093	4093	4093	4093	4093	4093	4142	4142	4142	4142	4142	4142	4142	4142	4192	4192	4192	4192	4192	4192	4192	4142	4142	4142	4142	4142	8550	8550	8550	8550	8550	8550	8343	8550	8343	8343	8343	8343	8343	8343	8146	8343	8343	8146	8146	8343	8343	8343	8343	8343	8343	8343	8343	8343	8343	8343	8343	8343	8343	8343	8343	8343	8343	8343	8343	8343	8343	8343	8343	8146	8146	8146	8146	8146	8146	8146	8550	8550	8550	8550	8550	8550	8146	8146	8146	8343	8343	8343	8343	8343	8343	8146	8146	8146	7959	7959	7779	0	0	0	0	0	0	0	0	0	0	0	0	0	0	0	0	0	0	0	0	0	0	0	0	0	0	0	0	0	0	0	0	0	0	0	0	0	0	0	0	0	0	0	0	0	0	0	0	0	0	0	0	0	0	0	0	0	0	0	0	0	0	0	0	0	0	0	3157	3157	3157	3186	3186	3216	3216	3216	3216	3216	3186	3186	3186	3186	3157	3157	3157	3157	3129	3129	0	2101	2101	2114	2114	2114	2114	2114	2101	2101	2088	2076	2063	2063	2063	2051	2051	2051	2051	2051	2051	2039	2039	2039	2027	2027	2039	2039	2039	2039	2039	2039	2027	2027	2027	2027	2027	2027	2027	2039	2051	2051	2051	2063	2063	2063	0	0	0	0	0	0	0	0	2003	1992	1980	1980	1969	1969	1958	1958	1958	1947	1947	1947	1936	1936	1925	1925	1915	1915	1915	1915	1915	1915	1904	1904	1894	1894	1894	1894	1894	1894	1894	1894	1894	0	0	0	0	0	0	0	0	0	0	0	0	0	0	0	0	0	0	0	0	0	0	0	0	0	0	0	0	0	0	0	0	0	0	0	0	0
0	0	0	0	0	0	0	0	0	0	0	0	0	0	1824	1833	1843	1843	1853	1863	1873	1873	1873	1883	1883	1894	1904	1904	1915	1925	1925	1936	1947	1947	1947	1958	1969	1980	1980	1992	1992	2003	2003	2015	2027	2027	2027	2039	2039	2051	2051	2063	2088	2088	2101	2114	2114	2114	2127	2140	2140	2153	2153	2167	2167	2181	2181	2181	2194	2194	2208	2223	2223	2237	2252	2252	2266	2281	2297	2297	2312	2327	2327	2327	2343	2359	2359	2376	2376	2376	2392	2409	2426	2426	2443	2443	2443	2478	2496	2496	2496	2496	2496	0	0	0	0	8343	8343	8343	8343	8343	8343	8343	8343	8343	8343	8343	8343	8343	8146	8343	8343	8146	8146	8343	8146	8146	8146	8146	0	0	0	0	0	0	0	0	0	0	0	0	0	0	0	0	0	0	0	0	0	0	0	0	0	0	0	0	0	0	0	0	0	0	0	0	0	0	0	0	7608	7444	7779	7959	7959	7959	8146	7959	8146	8146	8146	8146	8146	7959	7959	7959	7959	7959	7959	7959	7959	8146	8146	8146	0	0	0	0	0	0	0	0	0	0	0	0	0	0	0	0	0	0	0	0	0	0	0	0	0	0	0	0	0	0	0	0	0	0	0	0	0	0	0	0	0	0	0	0	0	0	0	0	0	0	0	0	0	0	0	0	0	0	0	0	0	0	0	0	0	0	0	0	0	0	0	0	0	8550	8550	8550	8343	8343	8343	8343	8343	8343	8343	8146	8343	8343	8343	8146	8146	8343	8343	8146	8146	8343	8343	8343	8343	8343	8343	8343	8343	8343	8146	8146	8146	0	4243	4192	4192	4192	4192	4243	4243	4192	4192	4192	4192	4142	4142	4142	4142	4093	4142	4142	4142	4142	4142	4093	4093	4093	4142	4093	4093	4142	4093	4093	4093	4093	4093	4093	4093	4093	4093	4142	4093	4093	4093	4142	4142	4142	4142	4142	4192	4192	4192	4192	4192	4192	4192	4142	4142	4142	4142	0	8550	8343	8550	8550	8343	8550	8343	8343	8343	8343	8343	8343	8343	8343	8146	8146	8146	8146	8146	8146	8343	8343	8343	8343	8343	8343	8343	8343	8343	8343	8343	8343	8343	8343	8343	8343	8343	8343	8343	8343	8343	8550	8343	8146	8146	8146	7959	8146	8146	8146	8343	8343	8550	8343	8550	8550	8550	8550	8146	8343	8343	8550	8343	8343	7959	8146	8146	8146	7959	7959	0	0	0	0	0	0	0	0	0	0	0	0	0	0	0	0	0	0	0	0	0	0	0	0	0	0	0	0	0	0	0	0	0	0	0	0	0	0	0	0	0	0	0	0	0	0	0	0	0	0	0	0	0	0	0	0	0	0	0	0	0	0	0	0	0	0	0	0	3129	3129	3157	3186	3186	3186	3216	3216	3216	3216	3186	3186	3186	3186	3157	3157	3157	3157	3157	3157	0	2101	2101	2114	2101	2114	2101	2101	2101	2101	2088	2076	2076	2063	2051	2051	2051	2051	2051	2051	2039	2039	2039	2027	2027	2027	2027	2039	2027	2027	2039	2027	2027	2027	2027	2027	2027	2027	2039	2039	2039	2051	2063	2063	2076	0	0	0	0	0	0	0	0	0	2003	1980	1980	1980	1969	1969	1958	1958	1958	1947	1947	1947	1936	1936	1925	1925	1925	1915	1915	1915	1915	1915	1894	1894	1894	1894	1894	1894	1894	1894	1894	1894	1894	0	0	0	0	0	0	0	0	0	0	0	0	0	0	0	0	0	0	0	0	0	0	0	0	0	0	0	0	0	0	0	0	0	0	0	0	0
0	0	0	0	0	0	0	0	0	0	0	0	0	0	1814	1824	1824	1843	1853	1863	1873	1873	1873	1873	1883	1894	1894	1904	1915	1925	1915	1936	1947	1947	1947	1958	1958	1969	1980	1992	1992	2003	2015	2015	2027	2027	2027	2039	2039	2051	2051	2063	2076	2088	2101	2101	2088	2114	2127	2140	2140	2140	2153	2153	2167	2167	2181	2194	2194	2223	2223	2223	2237	2237	2252	2252	2252	2266	2297	2297	2312	2327	2327	2343	2359	2359	2359	2376	2376	2392	2392	2409	2426	2426	2443	2443	2443	2460	2496	2496	2496	2514	2514	2514	0	0	0	8343	8146	8146	8343	8343	8343	8343	8343	8343	8343	8343	8343	8343	8146	8146	8146	8146	8146	8146	8146	8146	8146	8146	0	0	0	0	0	0	0	0	0	0	0	0	0	0	0	0	0	0	0	0	0	0	0	0	0	0	0	0	0	0	0	0	0	0	0	0	0	0	0	7444	7444	7444	7779	7779	7779	7959	7779	7959	8146	8146	8146	8146	8146	8146	7959	7959	7959	7959	7959	7959	7959	7959	7959	7959	0	0	0	0	0	0	0	0	0	0	0	0	0	0	0	0	0	0	0	0	0	0	0	0	0	0	0	0	0	0	0	0	0	0	0	0	0	0	0	0	0	0	0	0	0	0	0	0	0	0	0	0	0	0	0	0	0	0	0	0	0	0	0	0	0	0	0	0	0	0	0	0	0	8550	8550	8550	8343	8343	8343	8343	8343	8343	8343	8343	8343	8343	8146	8146	8146	8146	8146	8146	8146	8343	8343	8343	8343	8343	8343	8343	8343	8343	8343	8146	8146	4243	4243	4243	4192	4192	4192	4192	4243	4192	4192	4192	4192	4192	4192	4192	4093	4093	4093	4142	4142	4142	4142	4093	4093	4142	4142	4093	4093	4142	4142	4093	4142	4093	4093	4093	4093	4093	4142	4093	4093	4093	4093	4093	4142	4142	4142	4142	4142	4192	4192	4192	4192	4192	4192	4142	4142	4142	4142	0	8550	8550	8550	8343	8343	8343	8343	8343	8343	8343	8343	8343	8343	8146	8146	8146	8343	8146	8146	8343	8343	8343	8343	8343	8343	8343	8343	8343	8343	8343	8343	8343	8343	8343	8343	8343	8343	8343	8343	8343	8343	8343	8343	8146	8146	8146	7959	8146	8146	8146	8343	8343	8343	8550	8550	8343	8343	8550	8146	8343	8343	8146	8146	8343	8146	8146	8146	8146	7959	7959	0	0	0	0	0	0	0	0	0	0	0	0	0	0	0	0	0	0	0	0	0	0	0	0	0	0	0	0	0	0	0	0	0	0	0	0	0	0	0	0	0	0	0	0	0	0	0	0	0	0	0	0	0	0	0	0	0	0	0	0	0	0	0	0	0	0	0	0	3157	3129	3157	3186	3186	3186	3216	3186	3186	3216	3186	3186	3186	3186	3157	3157	3157	3186	3186	3157	0	0	2101	2114	2101	2114	2101	2101	2088	2101	2088	2076	2076	2063	2051	2051	2051	2051	2039	2039	2039	2039	2039	2027	2027	2027	2027	2039	2027	2027	2039	2027	2027	2027	2027	2027	2039	2039	2039	2039	2051	2063	2051	2051	2076	0	0	0	0	0	0	0	0	0	0	1980	1980	1969	1969	1958	1958	1958	1947	1947	1947	1947	1936	1936	1925	1925	1925	1915	1915	1915	1894	1915	1904	1904	1894	1894	1894	1883	1883	1894	1894	1894	1894	0	0	0	0	0	0	0	0	0	0	0	0	0	0	0	0	0	0	0	0	0	0	0	0	0	0	0	0	0	0	0	0	0	0	0	0	0
0	0	0	0	0	0	0	0	0	0	0	0	0	0	1814	1824	1833	1843	1853	1863	1863	1873	1873	1873	1883	1883	1894	1894	1915	1915	1925	1936	1947	1947	1947	1947	1958	1969	1980	1992	2003	2015	2015	2027	2027	2027	2039	2039	2039	2051	2051	2063	2076	2088	2088	2088	2088	2114	2127	2127	2140	2140	2153	2167	2167	2181	2194	2194	2208	2223	2223	2223	2237	2252	2252	2252	2252	2266	2281	2297	2312	2327	2327	2343	2359	2359	2359	2376	2376	2392	2392	2409	2426	2443	2443	2443	2460	2460	2496	2514	2514	2514	2514	2514	0	0	0	0	8146	8146	8343	8343	8343	8343	8343	8343	8343	8343	8343	8343	8146	8343	8146	8146	8146	8343	8343	8146	8146	8146	0	0	0	0	0	0	0	0	0	0	0	0	0	0	0	0	0	0	0	0	0	0	0	0	0	0	0	0	0	0	0	0	0	0	0	0	0	0	0	7444	7444	7444	7779	7779	7779	7779	7779	8146	8146	8146	8146	8146	8146	8146	7959	7959	7959	7959	7959	7959	7959	7959	7959	7959	0	0	0	0	0	0	0	0	0	0	0	0	0	0	0	0	0	0	0	0	0	0	0	0	0	0	0	0	0	0	0	0	0	0	0	0	0	0	0	0	0	0	0	0	0	0	0	0	0	0	0	0	0	0	0	0	0	0	0	0	0	0	0	0	0	0	0	0	0	0	0	0	0	8550	8550	8550	8343	8343	8343	8343	8343	8343	8343	8343	8343	8343	8146	8343	8343	8343	8146	8146	8146	8343	8343	8343	8343	8343	8343	8343	8343	8343	8343	8343	8343	4192	4243	4192	4192	4192	4192	4192	4243	4192	4192	4142	4142	4142	4142	4142	4093	4093	4142	4142	4142	4142	4142	4142	4142	4142	4142	4142	4093	4142	4142	4093	4142	4093	4142	4142	4093	4142	4142	4093	4093	4093	4093	4093	4142	4142	4142	4142	4142	4142	4142	4192	4142	4192	4192	4142	4142	4142	4142	0	8550	8550	8550	8550	8343	8343	8343	8343	8550	8550	8550	8550	8343	8343	8146	8146	8343	8146	8343	8343	8343	8343	8343	8343	8343	8343	8343	8343	8343	8343	8343	8343	8146	8343	8146	8343	8343	8343	8343	8343	8343	8550	8343	8343	8146	8146	8146	8146	8146	8146	8343	8343	8343	8550	8550	8343	8343	8343	8343	8343	8343	8550	8550	8343	8343	8146	8146	8146	0	0	0	0	0	0	0	0	0	0	0	0	0	0	0	0	0	0	0	0	0	0	0	0	0	0	0	0	0	0	0	0	0	0	0	0	0	0	0	0	0	0	0	0	0	0	0	0	0	0	0	0	0	0	0	0	0	0	0	0	0	0	0	0	0	0	0	0	0	0	3157	3157	3186	3186	3186	3186	3186	3186	3186	3186	3186	3186	3186	3186	3186	3186	3186	3186	3186	0	0	0	2101	2101	2101	2101	2101	2101	2088	2088	2076	2076	2076	2063	2051	2051	2051	2051	2039	2039	2039	2027	2039	2027	2027	2027	2027	2027	2027	2027	2027	2027	2027	2027	2027	2027	2027	2039	2039	2039	2039	2051	2051	2051	0	0	0	0	0	0	0	0	0	0	0	1980	1969	1969	1969	1958	1958	1947	1947	1947	1936	1936	1936	1936	1925	1925	1915	1915	1904	1904	1894	1904	1894	1894	1894	1894	1894	1894	1894	1894	1894	1894	1894	0	0	0	0	0	0	0	0	0	0	0	0	0	0	0	0	0	0	0	0	0	0	0	0	0	0	0	0	0	0	0	0	0	0	0	0	0
0	0	0	0	0	0	0	0	0	0	0	0	0	0	1814	1824	1824	1843	1853	1863	1873	1873	1883	1883	1894	1894	1894	1904	1904	1915	1915	1936	1936	1947	1947	1947	1958	1969	1980	1992	2003	2015	2015	2027	2027	2027	2039	2039	2039	2039	2051	2063	2063	2088	2088	2101	2114	2114	2127	2127	2127	2140	2140	2167	2167	2181	2181	2194	2208	2223	2237	2223	2237	2252	2252	2252	2252	2266	2281	2297	2312	2327	2327	2343	2343	2359	2359	2376	2376	2392	2409	2409	2426	2443	2443	2443	2460	2460	2496	2514	2514	2514	2514	2532	2532	0	0	0	8146	8146	8146	8343	8343	8343	8343	8343	8343	8343	8146	8146	8146	8146	8146	8146	8146	8343	8343	8146	8146	8146	0	0	0	0	0	0	0	0	0	0	0	0	0	0	0	0	0	0	0	0	0	0	0	0	0	0	0	0	0	0	0	0	0	0	0	0	0	0	0	7444	7444	7444	7608	7608	7779	7779	7779	7779	8146	8146	7779	8146	8146	8146	7959	7959	7959	7959	7959	7959	7959	7959	7959	0	0	0	0	0	0	0	0	0	0	0	0	0	0	0	0	0	0	0	0	0	0	0	0	0	0	0	0	0	0	0	0	0	0	0	0	0	0	0	0	0	0	0	0	0	0	0	0	0	0	0	0	0	0	0	0	0	0	0	0	0	0	0	0	0	0	0	0	0	0	0	0	0	0	8550	8550	8550	8343	8343	8343	8343	8343	8343	8343	8343	8343	8343	8343	8343	8343	8343	8146	8146	8146	8343	8343	8343	8343	8343	8343	8343	8343	8343	8343	8343	8343	4243	4243	4192	4192	4142	4142	4142	4142	4142	4142	4142	4192	4093	4093	4093	4093	4093	4093	4142	4142	4142	4142	4142	4142	4142	4142	4142	4093	4093	4142	4142	4142	4142	4142	4142	4142	4142	4142	4142	4093	4093	4093	4093	4142	4142	4142	4142	4142	4142	4142	4142	4142	4192	4192	4142	4142	4142	4142	0	8767	8550	8550	8550	8146	8146	8343	8343	8550	8550	8550	8550	8550	8343	8343	8146	8343	8343	8343	8343	8343	8343	8343	8343	8343	8343	8146	8146	8146	8343	8343	8343	8146	8343	8146	8343	8343	8343	8343	8343	8343	8550	8343	8343	8146	8146	8146	8146	8146	8146	8146	8146	8343	8343	8550	8343	8343	8343	8343	8343	8343	8343	8550	8146	7779	8146	8146	8146	0	0	0	0	0	0	0	0	0	0	0	0	0	0	0	0	0	0	0	0	0	0	0	0	0	0	0	0	0	0	0	0	0	0	0	0	0	0	0	0	0	0	0	0	0	0	0	0	0	0	0	0	0	0	0	0	0	0	0	0	0	0	0	0	0	0	0	0	0	3157	3157	3157	3186	3157	3186	3186	3186	3157	3157	3157	3186	3186	3186	3186	3186	3186	3186	3186	3157	3157	0	0	2101	2101	2101	2101	2088	2088	2076	2076	2076	2076	2063	2063	2051	2051	2051	2051	2039	2039	2039	2027	2027	2027	2027	2027	2027	2027	2027	2027	2027	2027	2027	2027	2027	2027	2039	2039	2039	2051	2051	2051	2051	0	0	0	0	0	0	0	0	0	0	0	0	1980	1980	1969	1969	1958	1947	1947	1947	1936	1936	1936	1925	1925	1925	1915	1915	1904	1904	1894	1894	1894	1894	1894	1883	1883	1894	1883	1894	1894	1894	1894	1894	0	0	0	0	0	0	0	0	0	0	0	0	0	0	0	0	0	0	0	0	0	0	0	0	0	0	0	0	0	0	0	0	0	0	0	0	0
0	0	0	0	0	0	0	0	0	0	0	0	0	0	1814	1814	1824	1833	1843	1863	1873	1873	1883	1883	1894	1894	1894	1904	1904	1915	1925	1947	1958	1958	1947	1947	1958	1969	1969	1980	2003	2003	2015	2015	2027	2027	2039	2039	2051	2051	2063	2063	2076	2088	2101	2101	2114	2114	2127	2127	2140	2140	2153	2153	2167	2167	2181	2194	2208	2223	2223	2237	2237	2252	2252	2252	2252	2266	2281	2312	2312	2327	2327	2343	2359	2359	2359	2376	2376	2392	2409	2426	2443	2443	2443	2443	2460	2460	2478	2496	2532	2532	2532	2532	2532	0	0	0	8146	8146	8146	8146	8343	8343	8146	8146	8343	8146	8146	8146	8146	8146	8146	8146	8146	8343	8343	8146	8146	8146	0	0	0	0	0	0	0	0	0	0	0	0	0	0	0	0	0	0	0	0	0	0	0	0	0	0	0	0	0	0	0	0	0	0	0	0	0	0	0	0	0	0	7608	7608	7779	7608	7779	7779	8146	7779	7779	8146	8146	8146	7959	7959	7959	7959	7959	7779	7959	7959	7959	0	0	0	0	0	0	0	0	0	0	0	0	0	0	0	0	0	0	0	0	0	0	0	0	0	0	0	0	0	0	0	0	0	0	0	0	0	0	0	0	0	0	0	0	0	0	0	0	0	0	0	0	0	0	0	0	0	0	0	0	0	0	0	0	0	0	0	0	0	0	0	0	0	0	8550	8550	8343	8343	8343	8343	8343	8343	8343	8343	8343	8343	8343	8343	8343	8343	8343	8146	8146	8146	8146	8146	8146	8146	8343	8343	8343	8343	8343	8343	8343	8343	4192	4192	4142	4142	4142	4142	4142	4142	4142	4142	4142	4142	4093	4093	4093	4093	4093	4093	4142	4142	4142	4142	4142	4142	4142	4142	4142	4093	4142	4142	4142	4142	4142	4142	4142	4142	4142	4093	4093	4093	4093	4093	4093	4093	4142	4142	4142	4142	4142	4142	4142	4142	4192	4192	4142	4142	4142	4093	4093	8767	8550	8550	8550	8146	8343	8343	8343	8550	8550	8550	8550	8343	8343	8146	8146	8343	8343	8343	8343	8343	8343	8343	8343	8343	8343	8343	8343	8343	8343	8343	8343	8146	8343	8146	8343	8343	8343	8343	8343	8343	8343	8343	8343	8146	8146	8146	8146	8146	8146	8146	8146	8343	8343	8343	8343	8343	8343	8146	8146	8146	8146	8146	7959	8146	8146	8146	0	0	0	0	0	0	0	0	0	0	0	0	0	0	0	0	0	0	0	0	0	0	0	0	0	0	0	0	0	0	0	0	0	0	0	0	0	0	0	0	0	0	0	0	0	0	0	0	0	0	0	0	0	0	0	0	0	0	0	0	0	0	0	0	0	0	0	0	0	0	3157	3129	3129	3157	3157	3157	3157	3157	3157	3186	3186	3186	3186	3186	3186	3186	3186	3186	3157	3157	3157	0	0	2101	2101	2101	2101	2088	2088	2076	2076	2076	2076	2063	2063	2051	2051	2051	2039	2039	2039	2039	2027	2027	2027	2027	2027	2027	2027	2027	2027	2027	2027	2027	2027	2027	2027	2027	2039	2039	2039	2039	2039	2039	0	0	0	0	0	0	0	0	0	0	0	0	0	1980	1969	1969	1958	1947	1947	1936	1936	1936	1936	1925	1925	1915	1915	1904	1904	1894	1894	1894	1894	1883	1883	1883	1883	1883	1883	1894	1894	1894	1894	1894	0	0	0	0	0	0	0	0	0	0	0	0	0	0	0	0	0	0	0	0	0	0	0	0	0	0	0	0	0	0	0	0	0	0	0	0	0
0	0	0	0	0	0	0	0	0	0	0	0	0	0	1814	1824	1833	1843	1853	1863	1863	1873	1883	1883	1894	1894	1904	1904	1904	1915	1915	1925	1936	1958	1947	1947	1958	1958	1969	1980	1980	1992	2015	2027	2027	2039	2039	2051	2051	2051	2051	2051	2063	2088	2088	2101	2101	2114	2127	2127	2140	2140	2153	2167	2167	2167	2181	2194	2208	2223	2237	2237	2237	2252	2252	2252	2252	2266	2297	2312	2312	2327	2343	2343	2359	2359	2359	2376	2376	2392	2409	2409	2426	2443	2443	2443	2460	2496	2496	2514	2532	2532	2532	2532	2551	2551	0	0	8146	8146	8146	8146	8146	8146	7959	7959	8146	8146	8146	8146	8146	8146	8146	8343	8146	8343	8146	8146	8343	8343	0	0	0	0	0	0	0	0	0	0	0	0	0	0	0	0	0	0	0	0	0	0	0	0	0	0	0	0	0	0	0	0	0	0	0	0	0	0	0	0	0	0	0	0	0	7779	7959	7959	7959	7779	7779	7779	8146	8146	7959	7959	8146	8146	8146	7959	8146	8146	8146	0	0	0	0	0	0	0	0	0	0	0	0	0	0	0	0	0	0	0	0	0	0	0	0	0	0	0	0	0	0	0	0	0	0	0	0	0	0	0	0	0	0	0	0	0	0	0	0	0	0	0	0	0	0	0	0	0	0	0	0	0	0	0	0	0	0	0	0	0	0	0	0	0	0	8550	8550	8343	8343	8343	8343	8343	8343	8343	8343	8343	8343	8343	8343	8343	8343	8343	8343	8146	8146	8343	8146	8146	8146	8343	8343	8343	8343	8343	8343	8343	8343	4192	4243	4192	4142	4142	4142	4142	4093	4142	4142	4142	4142	4093	4093	4093	4093	4045	4142	4142	4142	4142	4142	4142	4142	4142	4142	4142	4093	4142	4142	4093	4142	4093	4093	4093	4093	4142	4093	4093	4093	4093	4093	4093	4093	4093	4093	4093	4142	4142	4142	4142	4142	4142	4192	4142	4142	4142	4093	4093	4093	8550	8343	8343	8146	8146	8343	8343	8343	8343	8343	8550	8146	8146	8146	8146	8343	8343	8343	8343	8343	8343	8550	8146	8343	8343	8146	8146	8146	8343	8146	8146	8146	8146	8146	8146	8343	8343	8550	8343	8343	8343	8343	8343	8146	8146	8146	8146	8146	8146	8146	8146	8343	8343	8343	8343	8343	8146	8146	7959	7959	7959	7959	7959	7959	8146	8146	0	0	0	0	0	0	0	0	0	0	0	0	0	0	0	0	0	0	0	0	0	0	0	0	0	0	0	0	0	0	0	0	0	0	0	0	0	0	0	0	0	0	0	0	0	0	0	0	0	0	0	0	0	0	0	0	0	0	0	0	0	0	0	0	0	0	0	0	0	0	0	3129	3129	3157	3157	3157	3157	3157	3157	3157	3157	3157	3186	3186	3186	3186	3186	3186	3186	3157	3157	0	0	2101	2101	2101	2088	2088	2076	2076	2076	2076	2063	2063	2051	2051	2039	2039	2039	2039	2039	2039	2027	2027	2027	2027	2027	2027	2027	2027	2027	2027	2027	2027	2027	2027	2027	2027	2027	2027	2027	2027	2027	2027	0	0	0	0	0	0	0	0	0	0	0	0	0	0	1958	1958	1958	1947	1947	1936	1947	1936	1936	1925	1925	1915	1915	1904	1904	1894	1894	1894	1894	1883	1883	1883	1883	1883	1883	1883	1894	1894	1894	1894	0	0	0	0	0	0	0	0	0	0	0	0	0	0	0	0	0	0	0	0	0	0	0	0	0	0	0	0	0	0	0	0	0	0	0	0	0
