0	0	0	0	0	0	0	0	0	1512	1512	1560	1567	1581	1589	1589	1596	1596	1603	1603	1603	1603	1603	0	0	2376	2376	2376	2376	2359	2376	2359	2359	2359	2359	2359	2359	2359	2359	2376	2392	2409	2392	2376	2376	2376	2359	2359	2359	2359	2359	2376	2376	2359	2376	2376	2376	2376	2376	2376	2376	2392	2376	2392	2392	2392	2392	2392	2409	2409	2409	2409	2409	2409	2409	2392	2392	2376	2376	2376	2376	2376	2359	2376	2376	2376	2376	2376	2376	2376	2376	2376	2359	2376	2376	2392	2392	2392	2392	2392	2392	2376	2376	2376	2376	2359	2359	2359	2359	2359	2359	2359	2359	2426	2532	2532	2532	2532	2532	2551	2551	2551	2551	2551	2551	2551	2551	2551	2551	2551	2551	2551	2551	2532	2532	2532	3186	3216	3216	3216	3216	3216	3216	3216	3216	3246	3216	3216	3216	3246	3216	3216	3216	3216	3216	3216	3186	3186	3186	3186	3186	3186	3216	3246	3246	3246	3246	3659	3659	3659	3659	3659	3698	3698	3698	3698	3698	3698	3698	3698	3698	3698	3698	3698	3698	3698	3698	3738	3738	3738	3738	3738	3738	3779	3779	3779	3779	3779	3779	3821	3821	3821	3821	3821	3821	3779	3779	3738	3738	3738	3779	3779	3738	3738	3779	3779	3821	3821	3821	3779	3779	3738	3738	3738	3738	3738	3738	3779	3738	3779	3821	3821	3864	3821	3779	3779	3779	3779	3779	3779	3779	3779	3779	3821	3779	3779	3738	3738	3738	3738	3738	3779	3779	3779	3779	3821	3779	3779	3779	3738	3738	3738	3738	3738	3738	3738	3738	3738	3738	3738	3738	3779	3779	3779	3738	3738	3738	3738	3738	3738	3738	3738	3738	3738	3738	3738	3738	3738	3738	3738	3738	3738	3698	3698	3738	3738	3738	3738	3738	3738	3779	3779	0	0	2993	2993	2967	2967	2967	2967	2967	2967	2993	2993	2993	2993	2967	2967	2967	2967	2967	2967	2967	2967	2993	2993	2993	2993	3019	3019	2993	2993	2993	2993	2993	2993	3738	3738	3779	3779	3779	3779	3779	3779	3779	3779	3779	3738	3738	3738	3738	3738	3738	3738	3738	3738	3738	3738	3738	3738	3738	3738	3738	3738	3738	3738	3738	3738	3738	3738	3738	3738	3738	3738	3738	3738	3738	3738	3738	3779	3738	3738	3738	3738	3738	3738	3738	3738	3738	3738	3738	3738	3738	3738	3738	3738	3738	3738	3738	3738	3738	3779	3779	3779	3779	3779	3779	3779	3779	3779	3779	3779	3779	3779	3779	3779	3779	3779	3779	3779	3779	3779	3779	3779	3779	3779	3779	3779	3779	3779	3779	3779	3779	3779	3779	3779	3779	3779	3779	3779	3779	3821	3821	3821	3779	3779	3779	3779	3779	3779	3779	3779	3779	3779	3779	3779	3779	3779	3779	3779	3779	3779	3779	3779	3779	3821	3779	3779	3779	3779	3779	3779	3779	3779	3779	3821	3779	3779	3779	3779	3779	3779	3779	3779	3779	3779	3779	3779	3779	3779	3821	3821	3821	3779	3779	3779	3779	3779	3779	3821	3821	3821	3821	3821	3821	3821	3821	3779	3821	3779	3779	3779	3779	3821	3821	3821	3821	3821	3821	3821	3821	3821	3779	3779	3779	3779	3779	3779	3779	3779	3779	3779	3779	3779	3779	3779	3779	3779	3779	3738	3779	3738	3738	3738	3738	3738	3738	3738	3738	3738	3738	3738	3738	3698	3698	3738	3738	3698	3738	3738	3738	3738	3738	3738	3698	3738	3738	3738	3698	3659	3698	3698	3698	3698	3698	3698	3698	3659	3659	3698	3698	3698	3698	3698	3698	3698	3698	3698	3698	3659	3698	3698	3659	3698	3698	3698	3698	0	0	0	0	0	0	0	0	0	0	0	0	0	0	0	0	0	0	0	0	0	0	0	0	0	0	0	0	0	0	0	0	0	0	0	0	0	0	0	0	0	0	0
0	0	0	0	0	0	0	0	0	1512	1525	1567	1581	1589	1589	1596	1596	1603	1603	1603	1603	1603	1603	1634	1634	2376	2376	2376	2376	2376	2376	2376	2359	2359	2359	2359	2359	2359	2359	2409	2392	2392	2392	2392	2392	2392	2376	2376	2376	2376	2376	2376	2376	2376	2376	2392	2376	2392	2392	2392	2392	2392	2392	2392	2392	2392	2392	2392	2409	2409	2426	2426	2426	2426	2426	2409	2409	2392	2392	2392	2376	2392	2376	2376	2392	2392	2392	2392	2376	2376	2376	2376	2376	2376	2392	2392	2392	2392	2392	2392	2392	2392	2376	2376	2376	2376	2359	2376	2376	2392	2409	2409	2426	2426	2426	2496	2532	2532	2532	2551	2551	2551	2551	2551	2570	2570	2570	2551	2551	2551	2551	2551	2551	2532	2532	2532	3216	3216	3216	3216	3216	3246	3246	3246	3246	3246	3246	3246	3246	3246	3216	3216	3216	3216	3246	3246	3216	3216	3216	3216	3216	3216	3246	3246	3246	3246	3246	3659	3659	3659	3698	3659	3698	3698	3698	3698	3698	3698	3698	3698	3698	3698	3698	3698	3698	3698	3698	3698	3738	3738	3738	3738	3738	3779	3779	3779	3779	3779	3779	3779	3779	3779	3821	3821	3779	3779	3738	3738	3738	3738	3779	3779	3738	3738	3779	3779	3779	3779	3779	3738	3738	3698	3698	3698	3738	3738	3779	3779	3779	3779	3821	3864	3779	3779	3779	3779	3779	3779	3779	3779	3779	3779	3779	3779	3738	3738	3738	3738	3738	3738	3738	3779	3779	3779	3779	3821	3779	3779	3738	3738	3738	3738	3738	3738	3738	3738	3738	3738	3738	3738	3738	3779	3779	3779	3738	3779	3738	3738	3738	3738	3738	3738	3738	3738	3738	3738	3738	3738	3738	3698	3738	3738	3738	3738	3738	3738	3738	3738	3738	3779	3779	3779	0	0	2993	2993	2967	2967	2967	2967	2967	2967	2993	2993	2993	2967	2967	2967	2967	2967	2967	2967	2967	2967	2993	2993	2993	2993	3019	3046	3019	3019	2993	2993	2993	2993	3738	3738	3738	3779	3779	3779	3779	3779	3779	3779	3779	3738	3738	3738	3738	3738	3738	3738	3738	3738	3779	3779	3738	3738	3738	3738	3738	3738	3738	3738	3738	3779	3779	3738	3738	3738	3738	3738	3738	3738	3738	3738	3738	3738	3738	3738	3738	3738	3738	3738	3738	3738	3738	3738	3738	3738	3738	3738	3738	3738	3738	3738	3738	3738	3738	3779	3779	3779	3779	3779	3779	3779	3779	3779	3779	3779	3821	3821	3821	3821	3779	3779	3779	3779	3779	3779	3779	3779	3779	3779	3779	3779	3779	3779	3779	3779	3779	3779	3779	3779	3779	3779	3779	3779	3779	3821	3779	3779	3779	3779	3779	3779	3779	3779	3779	3779	3779	3779	3779	3779	3779	3779	3779	3779	3779	3779	3779	3779	3779	3779	3779	3779	3779	3779	3779	3779	3779	3779	3779	3779	3779	3779	3779	3779	3779	3779	3779	3779	3779	3779	3779	3779	3779	3779	3821	3821	3821	3821	3821	3821	3821	3821	3821	3821	3821	3821	3821	3821	3821	3821	3821	3821	3779	3779	3779	3779	3821	3821	3821	3821	3821	3821	3821	3821	3821	3821	3821	3779	3779	3779	3779	3779	3779	3779	3779	3779	3779	3779	3779	3779	3779	3779	3779	3779	3779	3779	3738	3738	3738	3738	3738	3738	3738	3698	3738	3698	3698	3659	3698	3698	3698	3698	3698	3738	3738	3738	3738	3738	3698	3738	3738	3698	3698	3698	3738	3698	3698	3738	3698	3698	3698	3659	3659	3698	3698	3698	3698	3698	3698	3698	3698	3698	3698	3659	3698	3698	3698	3698	3698	3698	3698	3698	0	0	0	0	0	0	0	0	0	0	0	0	0	0	0	0	0	0	0	0	0	0	0	0	0	0	0	0	0	0	0	0	0	0	0	0	0	0	0	0	0	0
0	0	0	0	0	0	0	0	0	0	1525	1581	1589	1589	1596	1596	1603	1618	1618	1626	1626	1626	1634	1634	1634	1634	2376	2376	2376	2376	2376	2376	2359	2376	2376	2376	2359	2376	2392	2409	2426	2409	2409	2409	2392	2392	2392	2376	2376	2376	2376	2392	2392	2392	2392	2392	2392	2392	2392	2392	2409	2392	2409	2409	2409	2409	2409	2409	2409	2409	2426	2426	2426	2426	2426	2426	2409	2409	2409	2392	2392	2392	2392	2392	2409	2409	2409	2409	2392	2392	2392	2392	2392	2392	2392	2392	2409	2409	2409	2409	2392	2392	2392	2392	2392	2392	2376	2392	2392	2392	2409	2409	2426	2426	2426	2478	2496	2514	2532	2551	2551	2551	2551	2570	2570	2570	2570	2551	2551	2551	2551	2551	2551	2532	2532	2532	3216	3246	3246	3246	3246	3246	3246	3246	3246	3246	3246	3246	3246	3246	3246	3246	3246	3246	3246	3246	3216	3216	3216	3216	3246	3216	3246	3277	3277	3277	3277	3277	3659	3659	3659	3659	3659	3698	3698	3698	3698	3698	3698	3698	3698	3659	3698	3698	3698	3698	3698	3698	3738	3738	3738	3738	3779	3779	3779	3779	3779	3738	3738	3779	3779	3779	3821	3821	3779	3779	3738	3738	3738	3738	3779	3779	3779	3738	3779	3779	3779	3779	3779	3738	3698	3698	3698	3698	3698	3738	3738	3779	3779	3779	3779	3779	3779	3779	3738	3779	3779	3779	3779	3779	3779	3779	3779	3779	3738	3738	3738	3738	3738	3738	3738	3738	3779	3779	3779	3779	3779	3779	3779	3738	3738	3738	3738	3738	3738	3738	3738	3738	3738	3738	3738	3779	3779	3779	3738	3738	3738	3738	3738	3738	3738	3738	3738	3738	3738	3738	3738	3738	3738	3738	3738	3738	3738	3738	3738	3738	3738	3738	3738	3738	3738	3779	3779	0	0	2993	2967	2967	2967	2967	2967	2993	2993	2993	2967	2967	2967	2967	2967	2967	2967	2967	2967	2967	2993	2993	2993	2993	3019	3019	3019	2993	2993	2993	2993	2967	2967	3779	3779	3779	3779	3779	3779	3779	3779	3779	3779	3738	3738	3738	3738	3738	3738	3738	3738	3738	3779	3779	3738	3738	3738	3738	3738	3738	3738	3738	3738	3738	3738	3738	3738	3738	3738	3738	3738	3738	3738	3738	3738	3738	3738	3738	3738	3738	3738	3738	3738	3738	3738	3738	3738	3738	3738	3738	3738	3738	3738	3738	3738	3738	3738	3738	3779	3779	3779	3779	3779	3779	3779	3779	3779	3779	3779	3779	3821	3779	3779	3779	3779	3779	3779	3779	3779	3779	3779	3779	3779	3779	3779	3779	3779	3779	3779	3779	3779	3779	3738	3779	3779	3779	3779	3779	3779	3779	3779	3779	3779	3779	3779	3779	3779	3779	3779	3779	3779	3779	3779	3779	3779	3779	3779	3779	3779	3779	3779	3779	3779	3779	3779	3779	3779	3779	3779	3779	3779	3821	3779	3779	3779	3779	3779	3779	3779	3779	3779	3779	3779	3779	3779	3779	3821	3821	3821	3821	3821	3821	3821	3779	3779	3821	3821	3821	3821	3821	3821	3821	3821	3821	3821	3821	3779	3779	3821	3821	3821	3821	3821	3821	3821	3821	3821	3821	3821	3821	3779	3779	3821	3779	3779	3779	3779	3779	3779	3779	3779	3779	3779	3779	3779	3738	3779	3779	3738	3738	3738	3698	3698	3698	3738	3738	3738	3738	3698	3698	3698	3738	3698	3698	3698	3738	3698	3738	3738	3738	3738	3738	3738	3738	3738	3738	3738	3738	3738	3738	3698	3698	3698	3659	3659	3698	3698	3698	3698	3698	3698	3698	3698	3698	3698	3698	3698	3698	3698	3698	3698	3698	3698	3698	0	0	0	0	0	0	0	0	0	0	0	0	0	0	0	0	0	0	0	0	0	0	0	0	0	0	0	0	0	0	0	0	0	0	0	0	0	0	0	0	0	0
0	0	0	0	0	0	0	0	0	0	1574	1581	1596	1596	1596	1596	1603	1626	1618	1626	1626	1618	1626	1626	1634	1634	0	2376	2376	2392	2376	2376	2376	2376	2376	2392	2392	2392	2409	2409	2409	2409	2409	2409	2392	2409	2392	2392	2392	2376	2392	2409	2409	2409	2409	2409	2409	2409	2409	2409	2409	2409	2409	2409	2426	2409	2409	2409	2426	2426	2426	2426	2426	2426	2426	2426	2426	2409	2409	2409	2409	2409	2409	2409	2426	2426	2426	2426	2426	2426	2426	2409	2409	2409	2409	2409	2409	2409	2409	2409	2409	2409	2409	2409	2392	2392	2392	2392	2392	2409	2409	2409	2426	2426	2426	2443	2460	2496	2532	2551	2551	2551	2551	2570	2570	2570	2570	2551	2551	2551	2551	2551	2551	2532	2532	2532	3277	3277	3246	3246	3277	3277	3277	3246	3246	3246	3246	3246	3246	3246	3246	3246	3246	3246	3246	3277	3246	3246	3246	3246	3216	3246	3277	3277	3277	3277	3277	3277	3659	3659	3659	3659	3659	3659	3698	3698	3698	3698	3698	3698	3659	3659	3698	3698	3698	3698	3698	3738	3738	3738	3738	3779	3779	3779	3779	3779	3779	3738	3738	3779	3821	3779	3779	3738	3779	3779	3779	3738	3738	3738	3779	3779	3779	3779	3779	3779	3779	3779	3779	3738	3738	3698	3738	3738	3738	3738	3779	3779	3779	3779	3779	3779	3779	3738	3738	3779	3779	3779	3779	3779	3779	3779	3779	3779	3738	3738	3738	3738	3738	3738	3738	3738	3738	3779	3779	3821	3779	3779	3779	3779	3738	3738	3738	3698	3698	3698	3738	3738	3738	3738	3738	3779	3779	3779	3738	3738	3738	3738	3738	3738	3738	3738	3738	3738	3738	3738	3738	3738	3738	3738	3738	3738	3738	3738	3738	3738	3738	3738	3738	3738	3738	3738	3738	0	0	2967	2967	2967	2967	2967	2967	2967	2993	2993	2967	2967	2967	2967	2967	2967	2967	2967	2967	2967	2993	2993	2993	2993	3019	3019	3019	2993	2993	2993	2993	2967	2967	2967	3779	3779	3779	3779	3779	3779	3779	3779	3779	3738	3738	3738	3738	3738	3738	3738	3738	3738	3779	3779	3738	3779	3738	3738	3738	3738	3738	3738	3738	3738	3738	3738	3738	3738	3738	3738	3738	3738	3738	3738	3738	3738	3738	3738	3738	3738	3738	3738	3738	3738	3738	3738	3738	3738	3738	3738	3738	3738	3738	3738	3738	3738	3738	3738	3779	3779	3779	3779	3779	3779	3779	3779	3779	3779	3779	3779	3821	3779	3779	3779	3779	3779	3779	3779	3779	3779	3779	3779	3779	3779	3779	3779	3779	3779	3779	3779	3779	3779	3779	3779	3779	3779	3779	3779	3779	3779	3821	3779	3779	3779	3779	3779	3779	3779	3779	3779	3779	3779	3779	3779	3779	3779	3779	3779	3779	3779	3779	3779	3779	3779	3779	3779	3779	3779	3779	3779	3779	3821	3821	3821	3821	3779	3779	3779	3779	3779	3779	3779	3779	3779	3779	3779	3821	3821	3821	3821	3821	3821	3821	3779	3779	3821	3821	3821	3821	3821	3821	3821	3821	3821	3821	3821	3779	3779	3821	3821	3821	3821	3821	3821	3821	3821	3821	3821	3821	3821	3779	3779	3779	3779	3779	3779	3779	3779	3779	3779	3779	3779	3779	3779	3779	3738	3738	3738	3738	3738	3738	3698	3698	3698	3698	3698	3738	3698	3698	3698	3698	3698	3698	3698	3698	3698	3698	3738	3738	3738	3738	3698	3738	3738	3779	3779	3779	3738	3738	3738	3738	3659	3659	3659	3621	3698	3659	3698	3698	3698	3698	3698	3698	3659	3698	3659	3698	3698	3698	3698	3698	3698	3698	3698	3698	0	0	0	0	0	0	0	0	0	0	0	0	0	0	0	0	0	0	0	0	0	0	0	0	0	0	0	0	0	0	0	0	0	0	0	0	0	0	0	0	0
0	0	0	0	0	0	0	0	0	0	1574	1596	1596	1603	1603	1603	1611	1611	1611	1611	1618	1618	1626	1634	1634	1634	1634	2376	2376	2392	2392	2392	2376	2392	2392	2392	2392	2409	2409	2426	2426	2409	2409	2409	2409	2409	2392	2392	2392	2392	2392	2409	2409	2409	2409	2409	2409	2409	2409	2409	2409	2409	2409	2409	2426	2426	2409	2409	2426	2426	2426	2426	2426	2426	2426	2426	2426	2426	2426	2426	2426	2426	2443	2426	2426	2426	2426	2426	2426	2426	2426	2426	2426	2426	2426	2426	2426	2409	2409	2409	2409	2409	2409	2409	2409	2409	2392	2409	2409	2409	2426	2426	2426	2426	2443	2460	2460	2478	2532	2551	2551	2551	2551	2570	2570	2570	2570	2570	2551	2551	2551	2551	2551	2551	2532	2532	2532	3277	3277	3246	3277	3277	3277	3277	3277	3246	3277	3246	3246	3246	3246	3246	3246	3246	3277	3277	3246	3246	3246	3246	3246	3246	3246	3277	3246	3277	3246	3246	3698	3738	3659	3659	3659	3659	3698	3698	3698	3698	3698	3698	3659	3659	3698	3698	3698	3698	3738	3738	3779	3738	3738	3779	3779	3779	3779	3779	3779	3738	3738	3779	3779	3779	3779	3738	3779	3779	3779	3738	3738	3779	3779	3779	3821	3821	3779	3779	3779	3779	3779	3738	3738	3738	3738	3738	3738	3779	3779	3779	3779	3779	3779	3779	3738	3738	3738	3779	3738	3738	3779	3779	3779	3779	3779	3779	3738	3738	3738	3738	3738	3738	3738	3779	3779	3779	3821	3821	3821	3779	3779	3779	3738	3738	3738	3698	3738	3698	3698	3738	3738	3738	3738	3738	3779	3738	3738	3738	3738	3738	3738	3738	3738	3738	3738	3738	3738	3738	3738	3738	3698	3738	3738	3738	3738	3738	3738	3738	3738	3738	3738	3738	3738	3738	3738	0	0	2967	2967	2967	2967	2967	2967	2967	2993	2993	2993	2967	2967	2967	2967	2967	2967	2967	2967	2967	2993	2993	2993	2993	2993	3019	3019	3019	2993	2993	2993	2967	2967	2967	3779	3779	3779	3779	3779	3779	3779	3738	3738	3738	3738	3738	3738	3738	3738	3738	3779	3738	3779	3779	3779	3779	3738	3738	3738	3738	3738	3738	3738	3738	3738	3738	3738	3738	3738	3738	3738	3738	3738	3738	3738	3738	3738	3738	3738	3738	3738	3738	3738	3738	3738	3738	3738	3738	3738	3738	3738	3738	3738	3738	3738	3738	3738	3738	3779	3779	3779	3779	3779	3779	3779	3779	3779	3779	3821	3821	3821	3779	3779	3779	3779	3779	3779	3779	3779	3779	3779	3779	3779	3779	3779	3779	3779	3779	3779	3779	3779	3779	3779	3779	3779	3779	3779	3779	3821	3779	3779	3779	3779	3779	3779	3779	3779	3779	3779	3779	3779	3779	3779	3779	3779	3779	3779	3779	3779	3779	3779	3779	3779	3779	3779	3821	3821	3779	3779	3779	3821	3821	3821	3821	3821	3779	3779	3779	3779	3779	3779	3779	3779	3779	3779	3779	3821	3821	3821	3821	3821	3779	3779	3779	3779	3779	3821	3821	3821	3821	3821	3821	3821	3821	3821	3821	3779	3779	3821	3821	3821	3821	3821	3821	3821	3821	3821	3821	3821	3821	3779	3779	3779	3779	3779	3779	3779	3779	3779	3779	3779	3779	3779	3779	3779	3779	3779	3698	3698	3738	3698	3698	3698	3698	3698	3738	3738	3698	3698	3698	3698	3698	3698	3698	3698	3698	3698	3738	3738	3738	3738	3698	3738	3738	3738	3698	3779	3738	3738	3738	3738	3659	3659	3621	3698	3659	3698	3738	3738	3738	3698	3698	3698	3698	3698	3659	3738	3738	3738	3738	3738	3738	3698	3698	3698	0	0	0	0	0	0	0	0	0	0	0	0	0	0	0	0	0	0	0	0	0	0	0	0	0	0	0	0	0	0	0	0	0	0	0	0	0	0	0	0	0
0	0	0	0	0	0	0	0	0	0	0	1603	1603	1603	1603	1611	1611	1618	1618	1618	1618	1618	1626	1626	1626	1626	1634	1634	2376	2376	2392	2392	2392	2392	2392	2409	2409	2409	2426	2426	2426	2426	2426	2409	2409	2409	2409	2409	2409	2409	2426	2426	2426	2426	2426	2426	2426	2443	2426	2426	2426	2426	2426	2426	2426	2426	2426	2426	2443	2443	2460	2443	2443	2443	2443	2443	2426	2426	2426	2426	2426	2443	2443	2443	2443	2426	2426	2426	2426	2426	2426	2426	2426	2426	2426	2426	2426	2426	2426	2409	2426	2426	2426	2409	2409	2409	2409	2409	2409	2409	2426	2426	2426	2426	2443	2443	2443	2460	2514	2532	2551	2551	2551	2570	2570	2570	2570	2570	2570	2570	2551	2551	2551	2551	2551	2551	3277	3277	3277	3277	3277	3277	3277	3277	3277	3277	3277	3246	3246	3277	3277	3277	3277	3277	3277	3277	3277	3277	3277	3277	3277	3246	3246	3246	3246	3246	3216	3216	3698	3698	3659	3659	3659	3659	3698	3659	3698	3698	3698	3698	3659	3659	3698	3698	3698	3698	3698	3738	3779	3738	3738	3779	3779	3779	3779	3738	3738	3738	3738	3738	3738	3738	3738	3738	3779	3779	3738	3779	3738	3779	3779	3779	3779	3779	3738	3738	3738	3738	3738	3738	3738	3738	3738	3738	3738	3779	3779	3779	3779	3779	3779	3738	3738	3738	3738	3738	3738	3738	3779	3779	3779	3779	3779	3738	3738	3738	3738	3738	3738	3738	3738	3738	3738	3779	3779	3821	3779	3779	3779	3779	3738	3738	3738	3738	3738	3698	3738	3738	3738	3738	3738	3738	3738	3738	3738	3738	3738	3738	3738	3738	3738	3738	3738	3738	3738	3738	3738	3738	3698	3738	3738	3738	3698	3738	3738	3738	3738	3738	3738	3738	3738	3738	3738	3738	0	2967	2967	2967	2967	2967	2967	2967	2993	2993	2993	2993	2993	2993	2967	2967	2967	2967	2967	2993	2993	2993	2993	2993	2993	2993	2993	2993	2993	2993	2993	2967	2967	2967	3779	3779	3779	3779	3779	3779	3738	3738	3738	3738	3738	3738	3738	3738	3738	3738	3779	3779	3779	3779	3779	3779	3779	3738	3738	3738	3738	3738	3738	3738	3779	3738	3738	3738	3738	3738	3738	3738	3738	3738	3738	3738	3738	3738	3738	3738	3738	3738	3738	3738	3738	3738	3738	3738	3738	3738	3738	3738	3738	3738	3738	3738	3738	3738	3779	3779	3821	3779	3779	3779	3779	3779	3779	3821	3779	3779	3821	3779	3779	3779	3779	3779	3779	3779	3779	3779	3779	3779	3779	3779	3779	3779	3779	3779	3779	3779	3779	3779	3779	3779	3779	3779	3779	3779	3779	3779	3779	3779	3779	3779	3779	3779	3779	3779	3779	3779	3779	3779	3779	3779	3779	3779	3779	3779	3779	3779	3821	3779	3779	3779	3821	3821	3821	3779	3779	3779	3821	3821	3821	3821	3821	3779	3779	3779	3779	3779	3779	3779	3779	3779	3779	3779	3821	3821	3821	3779	3821	3821	3821	3779	3779	3779	3821	3821	3821	3821	3821	3821	3821	3821	3821	3821	3821	3779	3821	3821	3821	3821	3821	3821	3821	3821	3821	3821	3821	3821	3779	3779	3779	3779	3779	3821	3779	3779	3779	3779	3779	3779	3779	3779	3779	3738	3738	3738	3738	3738	3738	3738	3738	3738	3698	3698	3698	3738	3698	3698	3698	3698	3698	3698	3698	3698	3698	3738	3738	3738	3738	3698	3738	3738	3779	3698	3779	3738	3738	3738	3659	3659	3698	3698	3698	3659	3698	3698	3738	3738	3738	3738	3698	3698	3698	3698	3738	3738	3738	3738	3738	3738	3698	3698	3698	0	0	0	0	0	0	0	0	0	0	0	0	0	0	0	0	0	0	0	0	0	0	0	0	0	0	0	0	0	0	0	0	0	0	0	0	0	0	0	0	0
0	0	0	0	0	0	0	0	0	0	0	1603	1618	1611	1618	1618	1618	1618	1618	1618	1626	1626	1634	1626	1634	1634	1641	1641	1649	1649	2392	2409	2409	2409	2426	2443	2443	2443	2443	2443	2443	2426	2426	2426	2409	2426	2426	2426	2426	2426	2443	2443	2443	2443	2443	2443	2443	2443	2443	2443	2443	2443	2443	2426	2443	2443	2443	2443	2460	2460	2478	2460	2460	2460	2460	2443	2443	2443	2443	2443	2443	2443	2460	2443	2443	2443	2443	2443	2443	2443	2426	2443	2426	2443	2426	2443	2443	2426	2443	2426	2443	2443	2426	2426	2426	2426	2409	2426	2426	2426	2426	2426	2426	2426	2443	2443	2443	2443	2478	2532	2532	2532	2551	2551	2551	2570	2570	2570	2570	2570	2570	2570	2570	2551	2551	2551	3277	3277	3277	3277	3309	3309	3277	3277	3277	3277	3277	3277	3277	3277	3277	3277	3277	3277	3277	3277	3277	3277	3277	3277	3277	3246	3246	3246	3246	3246	3216	3216	3698	3698	3698	3659	3659	3659	3698	3659	3659	3698	3659	3698	3659	3659	3698	3698	3698	3698	3698	3738	3738	3738	3779	3779	3779	3779	3779	3779	3738	3738	3738	3738	3738	3738	3738	3779	3779	3779	3779	3779	3779	3779	3738	3738	3738	3738	3738	3738	3698	3698	3738	3738	3698	3738	3738	3738	3738	3779	3779	3779	3779	3779	3779	3779	3738	3738	3738	3779	3738	3738	3779	3779	3779	3779	3779	3738	3738	3738	3738	3738	3738	3738	3738	3738	3738	3738	3779	3779	3779	3779	3779	3779	3738	3738	3738	3738	3738	3698	3738	3738	3738	3738	3738	3738	3779	3779	3738	3738	3738	3738	3738	3738	3738	3738	3738	3738	3738	3738	3738	3738	3738	3738	3738	3738	3698	3698	3698	3698	3738	3738	3738	3738	3738	3738	3738	3738	0	2967	2967	2967	2967	2967	2967	2967	2993	2993	2993	2993	2993	2967	2967	2967	2967	2967	2967	2967	2967	2967	2967	2993	2993	2993	2993	3019	3019	2993	2993	2993	2993	2993	3779	3779	3779	3779	3779	3779	3738	3738	3738	3738	3738	3738	3738	3738	3738	3738	3779	3779	3779	3779	3779	3779	3738	3738	3738	3738	3738	3738	3738	3779	3779	3779	3738	3738	3738	3738	3738	3738	3698	3738	3738	3738	3738	3738	3738	3738	3738	3738	3738	3738	3738	3738	3738	3738	3738	3738	3738	3738	3738	3738	3738	3738	3738	3738	3821	3779	3779	3779	3779	3779	3779	3779	3779	3779	3779	3779	3779	3779	3779	3779	3779	3779	3779	3779	3779	3779	3779	3779	3779	3779	3779	3779	3779	3779	3779	3779	3779	3779	3779	3779	3779	3779	3779	3779	3779	3779	3779	3779	3779	3779	3779	3779	3779	3779	3779	3779	3779	3779	3779	3779	3779	3779	3779	3779	3779	3779	3779	3821	3779	3779	3821	3821	3779	3779	3779	3779	3779	3779	3779	3779	3779	3779	3779	3779	3779	3779	3779	3779	3779	3779	3779	3738	3738	3821	3821	3821	3821	3821	3821	3821	3821	3821	3821	3821	3821	3821	3821	3821	3821	3821	3821	3821	3779	3779	3821	3821	3821	3779	3821	3821	3821	3821	3821	3821	3779	3821	3821	3779	3821	3779	3779	3779	3779	3779	3738	3779	3779	3779	3779	3779	3779	3738	3738	3738	3738	3738	3738	3738	3738	3698	3738	3738	3698	3698	3698	3698	3698	3738	3698	3738	3698	3698	3698	3738	3738	3738	3738	3738	3738	3779	3779	3779	3779	3738	3698	3659	3659	3659	3659	3659	3659	3698	3659	3698	3738	3698	3698	3698	3659	3698	3698	3738	3738	3738	3738	3738	3738	3738	3738	3738	3698	0	0	0	0	0	0	0	0	0	0	0	0	0	0	0	0	0	0	0	0	0	0	0	0	0	0	0	0	0	0	0	0	0	0	0	0	0	0	0	0	0
0	0	0	0	0	0	0	0	0	0	0	1603	1618	1618	1618	1618	1626	1626	1626	1626	1626	1634	1634	1634	1634	1641	1641	1641	1649	1649	1665	1665	1665	2409	2426	2460	2460	2460	2460	2443	2443	2443	2443	2426	2426	2426	2443	2443	2443	2443	2460	2443	2443	2460	2443	2460	2460	2460	2460	2443	2460	2443	2460	2443	2443	2460	2460	2460	2478	2478	2478	2478	2460	2460	2460	2460	2443	2443	2443	2460	2460	2460	2478	2460	2460	2460	2460	2443	2443	2443	2426	2443	2443	2443	2443	2443	2443	2460	2460	2443	2460	2460	2443	2443	2443	2426	2426	2443	2426	2443	2443	2426	2426	2443	2443	2443	2443	2443	2478	2514	2514	2532	2551	2551	2551	2551	2570	2570	2570	2570	2570	2570	2570	2570	2570	2570	3277	3277	3277	3277	3309	3309	3309	3277	3277	3277	3277	3277	3277	3277	3277	3277	3277	3277	3277	3309	3309	3277	3277	3277	3277	3277	3277	3277	3246	3246	3246	3246	3698	3698	3659	3659	3659	3659	3659	3659	3659	3659	3659	3698	3659	3659	3659	3698	3698	3698	3698	3698	3738	3779	3779	3779	3779	3779	3779	3779	3738	3738	3738	3738	3738	3738	3738	3779	3779	3779	3779	3779	3779	3779	3779	3738	3779	3779	3738	3738	3698	3698	3738	3738	3698	3738	3738	3738	3738	3779	3779	3779	3779	3779	3779	3779	3738	3738	3738	3779	3738	3738	3779	3779	3779	3779	3779	3738	3738	3738	3738	3738	3738	3738	3779	3779	3738	3738	3779	3779	3779	3738	3738	3779	3738	3738	3738	3738	3738	3738	3738	3738	3738	3738	3738	3738	3738	3738	3738	3738	3738	3738	3738	3738	3738	3738	3738	3738	3738	3738	3738	3738	3738	3738	3738	3738	3698	3738	3698	3738	3738	3738	3738	3738	3738	3738	3738	3738	0	0	2967	2967	2967	2967	2967	2967	2993	2993	2993	2993	2967	2967	2967	2967	2967	2967	2967	2967	2967	2967	2993	2993	2993	2993	2993	3019	3019	3019	3019	3019	3019	3019	3019	3738	3738	3779	3738	3738	3738	3738	3738	3738	3738	3738	3738	3738	3779	3779	3779	3779	3779	3779	3779	3779	3738	3738	3738	3738	3738	3738	3738	3738	3779	3779	3738	3738	3738	3738	3738	3738	3698	3738	3738	3738	3738	3738	3738	3738	3738	3738	3738	3738	3738	3738	3738	3738	3738	3738	3738	3738	3738	3738	3738	3738	3738	3738	3821	3779	3821	3779	3779	3779	3779	3779	3779	3779	3779	3779	3779	3779	3779	3779	3779	3779	3779	3779	3779	3779	3779	3779	3779	3779	3779	3779	3779	3779	3779	3779	3779	3779	3779	3779	3779	3779	3779	3821	3779	3779	3779	3779	3779	3779	3779	3779	3779	3779	3738	3779	3779	3779	3779	3779	3779	3779	3779	3779	3779	3779	3821	3821	3779	3779	3821	3821	3779	3779	3779	3779	3779	3779	3779	3779	3779	3779	3779	3779	3779	3779	3779	3779	3738	3779	3738	3738	3779	3821	3821	3779	3821	3821	3821	3821	3821	3821	3821	3821	3821	3821	3821	3821	3821	3821	3821	3821	3779	3821	3821	3779	3821	3779	3821	3821	3821	3821	3821	3821	3821	3821	3821	3779	3779	3779	3779	3779	3738	3779	3738	3779	3738	3779	3738	3779	3779	3738	3738	3738	3738	3738	3659	3698	3738	3698	3738	3738	3738	3738	3698	3698	3698	3738	3738	3738	3698	3698	3698	3738	3698	3738	3738	3698	3738	3738	3779	3738	3738	3738	3698	3659	3659	3659	3659	3659	3659	3698	3698	3698	3698	3738	3698	3698	3698	3698	3698	3738	3738	3738	3738	3738	3738	3738	3738	3738	0	0	0	0	0	0	0	0	0	0	0	0	0	0	0	0	0	0	0	0	0	0	0	0	0	0	0	0	0	0	0	0	0	0	0	0	0	0	0	0	0	0
0	0	0	0	0	0	0	0	0	0	0	0	1626	1626	1626	1626	1626	1626	1626	1634	1634	1634	1641	1634	1641	1641	1649	1649	1657	1657	1665	1665	1665	1665	0	2460	2460	2460	2460	2443	2443	2443	2443	2426	2443	2426	2443	2460	2460	2460	2478	2460	2460	2460	2460	2460	2460	2478	2478	2478	2460	2460	2460	2460	2460	2460	2460	2460	2478	2478	2478	2478	2460	2460	2460	2460	2443	2443	2443	2443	2460	2460	2460	2460	2478	2478	2460	2460	2460	2460	2443	2443	2460	2460	2443	2460	2460	2460	2460	2460	2460	2460	2460	2460	2460	2460	2443	2460	2460	2460	2460	2460	2443	2443	2443	2443	2443	2460	2478	2496	2496	2514	2532	2551	2551	2551	2551	2570	2570	2570	2570	2570	2570	2551	2551	2551	3309	3309	3309	3309	3341	3341	3309	3309	3309	3309	3309	3277	3277	3309	3277	3309	3277	3309	3309	3309	3309	3277	3309	3277	3309	3277	3277	3277	3277	3277	3309	3277	3277	3698	3659	3659	3659	3659	3659	3659	3659	3659	3659	3698	3659	3659	3659	3659	3698	3698	3698	3698	3738	3738	3779	3779	3779	3779	3779	3738	3738	3738	3738	3738	3738	3738	3779	3779	3779	3779	3779	3779	3779	3779	3738	3738	3779	3779	3738	3738	3698	3698	3738	3738	3738	3738	3779	3779	3779	3779	3779	3779	3738	3738	3779	3738	3738	3738	3738	3738	3738	3738	3779	3779	3779	3779	3779	3738	3738	3738	3738	3738	3738	3779	3779	3779	3779	3738	3779	3779	3779	3779	3738	3779	3738	3738	3738	3738	3738	3738	3738	3738	3738	3738	3738	3738	3738	3738	3738	3738	3738	3738	3738	3738	3738	3738	3738	3738	3738	3738	3738	3738	3738	3738	3738	3738	3738	3698	3698	3698	3738	3738	3738	3738	3738	3738	3738	3738	3019	3019	2993	2967	2967	2967	2967	2967	2993	2967	2967	2967	2967	2967	2967	2967	2967	2942	2942	2942	2967	2967	2993	2993	2993	2993	2993	2993	2993	3019	3019	3019	3046	3046	3046	3738	3738	3779	3738	3738	3738	3738	3738	3738	3738	3738	3779	3738	3779	3779	3779	3779	3738	3779	3738	3779	3738	3738	3738	3738	3738	3738	3738	3738	3738	3738	3738	3738	3738	3738	3738	3738	3738	3738	3738	3738	3738	3738	3738	3738	3738	3738	3738	3738	3738	3738	3738	3738	3738	3738	3738	3738	3738	3738	3738	3738	3779	3738	3821	3779	3821	3821	3779	3779	3779	3779	3779	3779	3779	3779	3779	3779	3779	3779	3779	3779	3779	3779	3779	3779	3779	3779	3779	3779	3779	3779	3779	3779	3779	3779	3779	3779	3779	3779	3779	3779	3821	3821	3779	3779	3779	3779	3779	3779	3779	3738	3738	3738	3738	3738	3779	3779	3779	3779	3779	3779	3779	3779	3779	3779	3779	3821	3779	3779	3821	3779	3779	3779	3779	3779	3738	3779	3779	3779	3779	3779	3779	3779	3779	3779	3779	3779	3779	3738	3738	3738	3779	3779	3779	3779	3821	3821	3821	3779	3779	3821	3821	3821	3821	3821	3821	3821	3821	3821	3821	3821	3779	3821	3821	3779	3821	3779	3821	3821	3821	3821	3821	3821	3821	3821	3821	3779	3779	3779	3779	3779	3738	3738	3698	3738	3738	3738	3738	3738	3779	3738	3738	3779	3738	3738	3738	3738	3738	3738	3738	3738	3738	3738	3738	3738	3738	3738	3738	3738	3698	3698	3698	3698	3738	3738	3738	3738	3738	3738	3779	3738	3738	3738	3698	3698	3698	3659	3659	3659	3659	3698	3698	3698	3698	3698	3698	3698	3698	3698	3698	3698	3698	3738	3738	3738	3738	3738	3738	3738	0	0	0	0	0	0	0	0	0	0	0	0	0	0	0	0	0	0	0	0	0	0	0	0	0	0	0	0	0	0	0	0	0	0	0	0	0	0	0	0	0	0
0	0	0	0	0	0	0	0	0	0	0	0	1626	1641	1634	1634	1634	1634	1634	1641	1641	1641	1641	1641	1649	1649	1649	1649	1657	1665	1673	1665	1665	1673	1673	0	2460	2460	2460	2460	2460	2460	2443	2443	2443	2443	2460	2478	2478	2478	2478	2478	2478	2478	2478	2478	2478	2478	2478	2478	2478	2478	2478	2460	2460	2460	2460	2478	2478	2478	2478	2478	2478	2478	2478	2460	2460	2460	2460	2460	2478	2478	2478	2478	2478	2478	2478	2460	2460	2460	2460	2460	2460	2460	2460	2460	2478	2478	2478	2460	2478	2478	2478	2478	2478	2460	2460	2460	2460	2478	2478	2460	2478	2478	2460	2460	2460	2460	2478	2496	2496	2514	2532	2532	2532	2551	2551	2551	2551	2570	2551	2570	2551	2551	2551	2551	3309	3309	3309	3341	3309	3341	3341	3341	3309	3309	3309	3309	3309	3309	3309	3309	3309	3309	3341	3341	3341	3341	3341	3309	3341	3309	3277	3309	3309	3277	3309	3277	3277	3277	3621	3621	3659	3659	3659	3659	3659	3659	3659	3659	3659	3659	3659	3698	3698	3698	3698	3738	3779	3779	3779	3779	3779	3779	3779	3779	3779	3738	3738	3779	3738	3779	3779	3779	3779	3779	3779	3779	3779	3779	3738	3738	3738	3738	3738	3698	3698	3698	3698	3738	3698	3738	3779	3779	3779	3779	3779	3779	3779	3738	3738	3738	3738	3738	3738	3738	3738	3738	3779	3779	3779	3779	3738	3738	3738	3738	3738	3738	3738	3738	3779	3779	3738	3738	3738	3779	3779	3779	3738	3738	3738	3738	3738	3738	3738	3738	3738	3738	3738	3738	3738	3738	3738	3738	3738	3738	3738	3738	3738	3738	3738	3738	3738	3738	3738	3738	3698	3738	3738	3738	3738	3738	3738	3698	3698	3698	3698	3698	3698	3698	3698	3738	3073	3073	3019	3019	2993	2993	2967	2967	2967	2967	2967	2967	2967	2993	2967	2993	2967	2967	2967	2967	2967	2967	2967	2967	2967	2967	2993	2993	2993	2993	2993	3019	3019	3019	3046	3046	3046	3738	3738	3779	3738	3738	3738	3738	3738	3738	3738	3738	3779	3779	3738	3738	3738	3779	3738	3738	3738	3779	3738	3738	3738	3738	3738	3738	3738	3738	3738	3738	3738	3738	3738	3738	3738	3738	3698	3738	3738	3738	3738	3738	3738	3738	3738	3738	3738	3738	3738	3738	3738	3738	3738	3738	3738	3738	3738	3738	3738	3738	3738	3779	3821	3821	3821	3779	3779	3779	3779	3779	3779	3779	3779	3779	3779	3779	3779	3779	3779	3779	3779	3779	3779	3779	3779	3779	3779	3779	3779	3779	3779	3779	3779	3779	3779	3779	3779	3779	3779	3779	3779	3821	3779	3779	3779	3779	3779	3779	3738	3738	3738	3738	3738	3738	3738	3738	3738	3738	3779	3779	3779	3779	3779	3779	3779	3779	3779	3779	3821	3779	3779	3779	3779	3779	3779	3779	3779	3779	3779	3779	3779	3779	3779	3779	3779	3738	3738	3738	3738	3738	3779	3779	3779	3779	3779	3821	3821	3779	3779	3779	3821	3821	3821	3821	3821	3821	3821	3821	3821	3821	3821	3821	3821	3821	3821	3779	3821	3779	3779	3821	3821	3821	3779	3821	3821	3779	3779	3779	3779	3779	3738	3738	3698	3738	3738	3738	3738	3738	3738	3738	3738	3738	3738	3738	3738	3738	3779	3738	3779	3738	3738	3779	3738	3738	3738	3738	3738	3698	3698	3698	3698	3738	3738	3738	3738	3738	3738	3738	3738	3738	3698	3738	3698	3659	3659	3659	3659	3698	3659	3698	3698	3698	3698	3659	3698	3698	3698	3698	3698	3698	3698	3698	3738	3738	3738	3738	3738	3738	0	0	0	0	0	0	0	0	0	0	0	0	0	0	0	0	0	0	0	0	0	0	0	0	0	0	0	0	0	0	0	0	0	0	0	0	0	0	0	0	0	0
0	0	0	0	0	0	0	0	0	0	0	0	1657	1649	1649	1641	1641	1641	1641	1649	1641	1649	1649	1649	1657	1657	1657	1657	1665	1665	1665	1665	1673	1673	1690	1690	1690	2460	2460	2460	2478	2460	2460	2460	2460	2443	2460	2460	2478	2478	2478	2478	2478	2478	2478	2478	2478	2478	2496	2496	2496	2478	2478	2478	2460	2460	2460	2478	2478	2478	2478	2478	2478	2478	2478	2478	2478	2478	2478	2478	2478	2478	2478	2496	2478	2478	2478	2478	2478	2478	2478	2478	2478	2478	2478	2478	2478	2496	2478	2478	2478	2478	2478	2478	2478	2478	2478	2478	2478	2478	2478	2478	2478	2460	2460	2460	2460	2460	2478	2496	2496	2514	2514	2532	2532	2532	2551	2551	2551	2570	2551	2551	2551	2551	2551	2551	3373	3373	3341	3341	3341	3341	3341	3341	3341	3341	3341	3309	3309	3309	3309	3309	3341	3341	3373	3373	3373	3373	3373	3341	3373	3341	3341	3309	3341	3341	3341	3309	3309	3373	3475	3546	3621	3621	3659	3659	3659	3659	3659	3698	3659	3698	3659	3698	3698	3698	3698	3738	3738	3738	3738	3779	3779	3779	3779	3779	3779	3738	3779	3738	3738	3779	3779	3779	3779	3738	3738	3738	3779	3738	3738	3738	3738	3738	3698	3698	3698	3698	3698	3738	3738	3698	3779	3779	3779	3779	3738	3779	3738	3738	3738	3738	3738	3738	3738	3779	3779	3779	3779	3779	3779	3779	3738	3738	3738	3738	3738	3738	3738	3738	3738	3779	3738	3738	3738	3738	3779	3779	3738	3779	3738	3738	3738	3738	3738	3738	3738	3738	3738	3738	3738	3738	3738	3738	3738	3738	3738	3738	3738	3738	3738	3738	3698	3738	3738	3698	3698	3698	3738	3738	3738	3738	3698	3698	3698	3698	3698	3698	3698	3698	3738	3046	3073	3073	3046	3019	2993	2993	2967	2967	2967	2967	2967	2993	2993	2993	2993	2993	2967	2967	2967	2967	2967	2967	2967	2967	2967	2967	2967	2967	2993	2993	2993	2993	2993	3019	3019	3019	3738	3738	3738	3738	3738	3738	3738	3738	3738	3738	3738	3738	3779	3779	3779	3738	3738	3738	3738	3738	3738	3738	3738	3738	3738	3738	3738	3738	3738	3738	3738	3738	3738	3738	3738	3738	3738	3738	3698	3698	3738	3738	3738	3738	3738	3738	3738	3738	3738	3738	3738	3698	3738	3738	3738	3738	3738	3738	3738	3738	3738	3738	3738	3738	3821	3779	3779	3779	3779	3779	3779	3779	3779	3779	3779	3779	3779	3779	3779	3779	3779	3779	3779	3779	3779	3779	3779	3779	3779	3779	3779	3779	3779	3779	3779	3779	3779	3779	3779	3779	3779	3779	3779	3779	3779	3779	3779	3779	3779	3738	3738	3738	3738	3738	3698	3738	3738	3738	3738	3738	3738	3779	3779	3779	3779	3779	3779	3779	3779	3779	3779	3779	3779	3779	3779	3779	3779	3779	3738	3779	3779	3779	3779	3779	3779	3779	3738	3738	3738	3738	3738	3738	3779	3779	3779	3779	3779	3821	3821	3779	3779	3779	3821	3821	3821	3779	3821	3821	3821	3821	3821	3821	3821	3821	3821	3779	3779	3779	3779	3821	3821	3821	3821	3821	3821	3821	3821	3821	3821	3779	3779	3779	3738	3738	3738	3738	3738	3779	3779	3779	3779	3738	3738	3738	3738	3698	3738	3738	3738	3738	3779	3738	3738	3779	3738	3738	3738	3698	3738	3738	3698	3738	3698	3738	3738	3738	3738	3738	3738	3738	3738	3738	3698	3698	3698	3698	3659	3659	3698	3659	3659	3698	3698	3738	3698	3659	3698	3698	3698	3698	3698	3698	3698	3698	3738	3738	3698	3738	3738	0	0	0	0	0	0	0	0	0	0	0	0	0	0	0	0	0	0	0	0	0	0	0	0	0	0	0	0	0	0	0	0	0	0	0	0	0	0	0	0	0	0	0
0	0	0	0	0	0	0	0	0	0	0	0	1681	1657	1657	1657	1649	1649	1657	1657	1649	1649	1657	1657	1665	1657	1657	1665	1665	1665	1673	1673	1673	1681	1690	1698	1690	1690	0	2460	2478	2478	2478	2460	2460	2460	2478	2478	2496	2496	2496	2496	2496	2478	2496	2478	2478	2496	2496	2496	2496	2496	2496	2478	2478	2478	2478	2478	2478	2478	2496	2496	2478	2496	2496	2478	2496	2478	2496	2496	2496	2496	2496	2496	2496	2496	2496	2478	2478	2478	2478	2478	2478	2496	2496	2496	2496	2496	2496	2496	2478	2478	2496	2478	2478	2478	2478	2478	2478	2478	2478	2478	2478	2478	2478	2478	2478	2478	2478	2496	2496	2514	2514	2514	2514	2532	2532	2532	2551	2551	2551	2551	2551	2551	2551	2551	3373	3341	3341	3341	3341	3341	3341	3341	3341	3341	3341	3341	3309	3309	3341	3341	3341	3373	3373	3406	3406	3373	3373	3373	3373	3341	3341	3309	3341	3341	3341	3373	3373	3373	3406	3440	3621	3621	3659	3659	3698	3698	3659	3698	3698	3698	3698	3698	3698	3698	3698	3738	3738	3738	3738	3738	3738	3779	3779	3779	3779	3779	3779	3779	3779	3779	3779	3779	3779	3779	3779	3779	3779	3738	3738	3738	3738	3738	3698	3698	3698	3698	3698	3698	3698	3698	3738	3738	3738	3779	3738	3738	3738	3738	3738	3738	3738	3738	3779	3779	3779	3779	3779	3779	3779	3738	3738	3738	3738	3738	3738	3738	3738	3779	3779	3779	3738	3738	3738	3738	3738	3738	3738	3738	3738	3738	3738	3779	3779	3779	3738	3738	3738	3738	3738	3738	3738	3738	3738	3738	3738	3738	3738	3738	3738	3738	3738	3738	3738	3738	3738	3738	3738	3738	3738	3738	3698	3698	3698	3698	3698	3698	3698	3698	3738	3046	3046	3046	3046	3046	2993	2993	2993	2967	2967	2967	2993	2993	2993	2993	2993	2993	2993	2967	2967	2967	2967	2967	2967	2967	2967	2967	2967	2967	2993	2993	2993	2993	3019	3073	3073	3073	3738	3738	3738	3779	3738	3738	3738	3738	3738	3738	3738	3738	3779	3779	3738	3738	3738	3738	3738	3738	3738	3738	3738	3738	3738	3738	3738	3738	3738	3738	3738	3738	3738	3738	3738	3738	3738	3738	3738	3698	3738	3738	3738	3738	3738	3738	3738	3738	3738	3738	3738	3738	3738	3738	3738	3738	3738	3738	3738	3738	3738	3738	3738	3738	3779	3779	3779	3779	3779	3779	3779	3779	3779	3779	3779	3779	3779	3779	3779	3779	3779	3779	3779	3779	3779	3779	3779	3779	3779	3779	3779	3779	3779	3779	3779	3779	3779	3779	3779	3779	3779	3779	3779	3779	3779	3738	3738	3738	3738	3738	3738	3738	3738	3738	3698	3738	3738	3738	3738	3738	3738	3779	3779	3779	3779	3779	3779	3779	3779	3779	3779	3779	3779	3738	3779	3738	3779	3738	3738	3779	3779	3779	3779	3779	3779	3779	3738	3738	3738	3738	3698	3698	3779	3779	3821	3821	3821	3821	3821	3821	3821	3779	3821	3779	3779	3779	3779	3821	3821	3821	3821	3821	3821	3821	3821	3779	3821	3821	3821	3821	3821	3821	3821	3821	3821	3821	3821	3821	3821	3779	3779	3779	3738	3738	3738	3738	3738	3738	3779	3738	3779	3738	3698	3738	3738	3698	3738	3738	3738	3738	3779	3738	3738	3738	3738	3738	3738	3738	3698	3738	3698	3738	3698	3738	3738	3738	3738	3738	3738	3738	3738	3698	3698	3698	3698	3659	3659	3659	3698	3698	3659	3698	3698	3698	3698	3659	3698	3698	3698	3698	3698	3698	3698	3698	3698	3738	3698	3698	3698	0	0	0	0	0	0	0	0	0	0	0	0	0	0	0	0	0	0	0	0	0	0	0	0	0	0	0	0	0	0	0	0	0	0	0	0	0	0	0	0	0	0	0
0	0	0	0	0	0	0	0	0	0	0	0	1665	1665	1657	1657	1657	1657	1657	1657	1657	1657	1665	1657	1665	1665	1665	1665	1665	1673	1673	1673	1673	1681	1690	1698	1698	1715	1723	1723	2478	2478	2478	2478	2478	2478	2496	2496	2514	2514	2514	2496	2496	2496	2496	2496	2496	2496	2496	2496	2496	2496	2496	2496	2496	2496	2496	2496	2496	2496	2496	2496	2496	2496	2496	2496	2496	2496	2496	2496	2496	2496	2496	2496	2496	2496	2496	2496	2496	2496	2496	2478	2496	2496	2496	2496	2514	2496	2496	2496	2496	2478	2478	2478	2478	2478	2478	2496	2496	2496	2496	2496	2496	2496	2496	2496	2496	2496	2496	2496	2496	2514	2514	2514	2514	2532	2532	2532	2551	2551	2551	2551	2551	2551	2551	2551	3373	3373	3373	3373	3341	3341	3341	3341	3341	3341	3341	3341	3341	3309	3341	3341	3373	3373	3373	3373	3373	3373	3373	3373	3373	3373	3373	3341	3341	3373	3373	3373	3373	3373	3406	3406	3406	3583	3621	3659	3698	3659	3659	3659	3659	3698	3659	3698	3698	3698	3698	3738	3738	3779	3738	3738	3738	3779	3738	3779	3779	3738	3779	3779	3779	3779	3779	3779	3779	3738	3779	3738	3779	3779	3738	3738	3738	3738	3698	3698	3698	3698	3698	3698	3698	3698	3738	3738	3738	3738	3738	3738	3738	3738	3738	3738	3738	3738	3779	3779	3779	3779	3779	3779	3779	3738	3738	3738	3738	3738	3738	3738	3738	3779	3779	3779	3779	3738	3738	3738	3738	3738	3738	3738	3738	3738	3738	3738	3738	3779	3738	3738	3738	3738	3738	3738	3738	3738	3738	3738	3738	3738	3738	3738	3738	3738	3738	3738	3738	3738	3738	3738	3738	3738	3738	3738	3698	3698	3698	3698	3698	2967	2967	2993	3046	3046	3046	3073	3046	3046	3019	2993	2993	2967	2967	2967	2993	2993	2993	2993	2993	2993	2967	2967	2967	2967	2942	2967	2967	2967	2967	2967	2967	2967	2993	2993	2993	2993	3019	3073	3073	3738	3738	3738	3738	3738	3738	3738	3738	3779	3779	3779	3738	3779	3779	3779	3738	3738	3738	3738	3738	3738	3738	3738	3738	3738	3738	3738	3738	3738	3738	3738	3738	3738	3738	3738	3738	3738	3738	3738	3738	3738	3738	3738	3738	3738	3738	3738	3738	3738	3738	3738	3738	3738	3738	3738	3738	3738	3738	3738	3738	3738	3738	3738	3738	3738	3738	3779	3779	3779	3779	3779	3779	3779	3779	3779	3779	3779	3779	3779	3779	3779	3779	3779	3779	3779	3779	3779	3779	3779	3779	3779	3779	3779	3779	3779	3779	3779	3779	3779	3779	3779	3779	3779	3779	3779	3779	3779	3779	3779	3738	3738	3738	3738	3738	3738	3698	3738	3698	3698	3698	3738	3738	3779	3738	3738	3779	3779	3779	3779	3779	3779	3779	3779	3738	3738	3738	3738	3779	3738	3738	3779	3779	3779	3779	3779	3779	3779	3738	3738	3738	3698	3698	3738	3779	3779	3821	3821	3821	3821	3821	3821	3821	3779	3821	3779	3779	3779	3779	3821	3821	3821	3821	3821	3821	3821	3821	3821	3821	3821	3821	3821	3821	3821	3821	3821	3821	3821	3821	3821	3821	3779	3779	3779	3738	3738	3738	3779	3738	3738	3779	3738	3779	3738	3698	3738	3738	3738	3779	3779	3779	3738	3779	3738	3738	3738	3738	3698	3698	3698	3738	3738	3738	3738	3698	3698	3738	3738	3738	3738	3738	3738	3738	3738	3698	3698	3698	3698	3698	3698	3698	3698	3659	3698	3698	3698	3698	3698	3698	3698	3698	3698	3698	3698	3698	3698	3698	3698	3698	3698	3698	3698	0	0	0	0	0	0	0	0	0	0	0	0	0	0	0	0	0	0	0	0	0	0	0	0	0	0	0	0	0	0	0	0	0	0	0	0	0	0	0	0	0	0
0	0	0	0	0	0	0	0	0	0	0	1665	1665	1665	1665	1665	1665	1665	1681	1657	1657	1665	1665	1665	1665	1665	1673	1673	1673	1673	1681	1681	1681	1690	1690	1698	1698	1715	1715	1715	1715	2478	2478	2496	2514	2496	2514	2496	2514	2514	2532	2532	2514	2514	2514	2496	2496	2496	2496	2514	2514	2514	2514	2514	2514	2514	2496	2496	2496	2496	2496	2496	2496	2514	2514	2496	2496	2496	2514	2496	2514	2496	2496	2514	2514	2496	2496	2514	2496	2496	2496	2496	2496	2496	2514	2496	2514	2514	2514	2496	2496	2496	2496	2478	2496	2496	2496	2496	2496	2496	2496	2496	2496	2496	2496	2496	2496	2496	2496	2514	2514	2514	2532	2532	2532	2532	2532	2532	2551	2551	2551	2551	2551	2551	2551	3373	3373	3373	3373	3373	3341	3341	3341	3341	3341	3341	3373	3341	3341	3341	3341	3341	3373	3373	3406	3406	3406	3406	3406	3406	3406	3373	3373	3373	3373	3373	3373	3373	3373	3373	3406	3406	3406	3583	3621	3659	3698	3698	3698	3698	3698	3698	3698	3698	3698	3698	3738	3779	3779	3779	3738	3738	3738	3738	3738	3738	3738	3738	3779	3779	3779	3779	3779	3779	3779	3779	3779	3779	3779	3779	3738	3738	3738	3738	3738	3698	3698	3698	3698	3698	3698	3698	3738	3738	3698	3738	3738	3738	3738	3738	3738	3738	3738	3779	3779	3779	3779	3779	3779	3779	3779	3738	3738	3738	3738	3738	3738	3738	3738	3779	3738	3779	3779	3738	3738	3738	3738	3738	3738	3738	3738	3738	3738	3738	3738	3779	3738	3779	3738	3738	3738	3738	3738	3738	3738	3738	3738	3738	3738	3738	3738	3738	3738	3738	3738	3738	3738	3738	3738	3738	3738	3738	3738	3698	3698	3698	3698	2967	2967	2967	3073	3073	3046	3073	3046	3046	3046	2993	2993	2967	2967	2967	2993	2993	2993	2993	2993	2993	2993	2967	2967	2967	2967	2967	2967	2967	2967	2967	2967	2967	2993	2993	2993	2993	3019	3073	3073	3738	3738	3738	3738	3738	3738	3779	3779	3779	3779	3779	3779	3779	3779	3738	3738	3738	3738	3738	3738	3738	3738	3738	3738	3738	3738	3738	3738	3738	3738	3738	3738	3738	3738	3738	3738	3738	3738	3738	3738	3738	3738	3738	3738	3738	3738	3738	3738	3738	3738	3738	3698	3698	3738	3738	3738	3738	3738	3738	3738	3738	3738	3698	3698	3698	3738	3779	3779	3779	3779	3779	3779	3779	3779	3779	3779	3779	3779	3779	3779	3779	3779	3779	3779	3779	3779	3738	3738	3738	3738	3738	3779	3738	3779	3779	3779	3779	3779	3779	3779	3779	3779	3779	3779	3779	3779	3738	3779	3738	3779	3738	3779	3738	3738	3738	3738	3738	3738	3698	3698	3698	3738	3779	3738	3738	3779	3779	3779	3779	3779	3779	3779	3779	3738	3738	3738	3738	3779	3779	3738	3779	3779	3779	3779	3779	3779	3779	3738	3738	3738	3738	3698	3738	3779	3779	3821	3821	3821	3821	3821	3821	3821	3821	3821	3821	3821	3821	3821	3821	3821	3821	3821	3821	3821	3821	3821	3821	3821	3821	3821	3821	3821	3821	3821	3821	3821	3821	3821	3821	3821	3821	3779	3779	3779	3738	3738	3779	3738	3738	3738	3738	3738	3738	3738	3779	3779	3779	3779	3779	3779	3738	3738	3738	3738	3738	3738	3698	3698	3698	3698	3698	3738	3738	3698	3698	3738	3738	3738	3738	3738	3698	3738	3698	3698	3698	3698	3698	3698	3698	3698	3698	3698	3738	3698	3738	3698	3698	3738	3738	3698	3698	3698	3698	3698	3698	3698	3698	3698	3698	3698	3698	0	0	0	0	0	0	0	0	0	0	0	0	0	0	0	0	0	0	0	0	0	0	0	0	0	0	0	0	0	0	0	0	0	0	0	0	0	0	0	0	0	0
0	0	0	0	0	0	0	0	0	0	0	1673	1673	1665	1665	1665	1665	1665	1665	1665	1665	1673	1673	1673	1673	1673	1681	1681	1681	1681	1681	1681	1690	1690	1690	1698	1698	1706	1706	1706	1706	0	0	2496	2514	2532	2514	2496	2496	2514	2514	2514	2514	2514	2514	2496	2514	2514	2514	2514	2514	2514	2532	2532	2532	2532	2532	2514	2514	2514	2514	2514	2514	2514	2514	2514	2514	2514	2514	2514	2514	2514	2514	2514	2514	2514	2514	2514	2514	2514	2514	2496	2496	2514	2514	2514	2514	2514	2514	2514	2514	2514	2514	2496	2496	2496	2496	2496	2496	2496	2496	2496	2496	2514	2496	2496	2496	2514	2514	2514	2532	2532	2532	2532	2532	2532	2532	2551	2551	2551	2551	2551	2551	2551	3373	3373	3373	3406	3373	3373	3373	3373	3373	3373	3373	3341	3373	3373	3373	3373	3373	3373	3373	3406	3406	3440	3406	3406	3406	3406	3406	3406	3373	3373	3373	3373	3373	3373	3373	3373	3406	3406	3406	3475	3583	3621	3659	3659	3698	3659	3659	3659	3698	3698	3698	3698	3738	3779	3779	3779	3738	3738	3738	3738	3738	3738	3738	3738	3779	3779	3779	3779	3779	3779	3779	3779	3779	3779	3779	3779	3779	3779	3779	3779	3738	3738	3698	3738	3738	3738	3738	3738	3738	3738	3698	3738	3738	3738	3738	3738	3738	3738	3738	3779	3779	3779	3779	3779	3779	3779	3738	3738	3738	3738	3738	3738	3738	3738	3738	3779	3779	3779	3779	3738	3738	3738	3779	3738	3738	3738	3738	3738	3738	3738	3738	3738	3738	3738	3738	3738	3738	3738	3738	3738	3738	3738	3738	3738	3738	3738	3738	3738	3738	3738	3738	3738	3738	3738	3738	3738	3738	3738	3738	3698	3698	3698	3738	3738	3698	3698	3073	3073	3073	3073	3046	3046	3046	3019	2993	2967	2967	2967	2993	2993	2993	2993	2993	2993	2993	2993	2967	2967	2967	2967	2967	2967	2967	2993	2993	2993	2993	2993	2993	2993	2993	3698	3738	3738	3738	3738	3738	3738	3738	3738	3779	3779	3779	3779	3779	3779	3779	3738	3738	3738	3738	3738	3738	3738	3738	3779	3779	3779	3779	3738	3738	3738	3738	3738	3738	3738	3738	3738	3738	3738	3738	3738	3738	3738	3738	3738	3738	3738	3738	3738	3738	3738	3698	3738	3698	3698	3738	3738	3738	3738	3738	3738	3738	3738	3738	3698	3698	3698	3779	3738	3779	3779	3779	3779	3779	3779	3779	3779	3779	3779	3779	3779	3779	3779	3779	3779	3779	3738	3738	3738	3738	3738	3738	3738	3738	3738	3779	3779	3779	3779	3779	3779	3779	3779	3779	3779	3738	3738	3738	3738	3738	3738	3779	3738	3779	3779	3779	3738	3738	3738	3738	3698	3698	3738	3738	3779	3779	3738	3779	3779	3779	3779	3779	3738	3779	3738	3738	3738	3779	3779	3779	3779	3779	3779	3779	3779	3779	3779	3779	3779	3738	3738	3738	3738	3738	3738	3779	3779	3821	3821	3821	3821	3821	3821	3821	3821	3821	3821	3821	3779	3821	3821	3779	3821	3821	3821	3779	3779	3821	3821	3821	3779	3779	3821	3821	3821	3821	3821	3821	3821	3821	3821	3821	3821	3779	3779	3779	3779	3738	3779	3738	3738	3738	3738	3738	3738	3738	3779	3738	3738	3738	3779	3779	3738	3738	3738	3738	3698	3698	3698	3698	3698	3698	3698	3738	3738	3698	3698	3698	3738	3698	3738	3738	3738	3738	3698	3698	3698	3698	3698	3698	3698	3698	3698	3698	3779	3738	3738	3738	3738	3738	3738	3698	3698	3698	3698	3698	3698	3698	3738	3698	3698	3698	3698	3698	0	0	0	0	0	0	0	0	0	0	0	0	0	0	0	0	0	0	0	0	0	0	0	0	0	0	0	0	0	0	0	0	0	0	0	0	0	0	0	0	0
0	0	0	0	0	0	0	0	0	0	0	1673	1673	1673	1673	1665	1665	1673	1673	1673	1673	1681	1681	1681	1681	1681	1690	1690	1690	1690	1690	1690	1690	1690	1698	1698	1698	1706	1715	1715	1715	1715	0	2496	2514	2514	2514	2496	2496	2496	2514	2532	2532	2532	2532	2514	2514	2514	2514	2514	2514	2514	2514	2532	2532	2532	2532	2514	2514	2514	2514	2514	2514	2532	2532	2532	2532	2532	2532	2514	2514	2514	2514	2514	2514	2514	2514	2514	2514	2514	2514	2514	2514	2514	2514	2514	2514	2514	2532	2532	2532	2514	2514	2514	2514	2496	2514	2514	2514	2514	2496	2514	2514	2514	2514	2514	2514	2514	2514	2532	2532	2532	2532	2551	2551	2532	2532	2551	2532	2551	2551	2551	2570	2570	2589	2589	3373	3406	3373	3406	3406	3406	3406	3406	3406	3373	3406	3373	3373	3373	3373	3373	3373	3406	3406	3440	3406	3406	3406	3406	3406	3406	3406	3373	3373	3373	3373	3373	3373	3373	3373	3406	3406	3440	3621	3659	3698	3659	3698	3698	3659	3698	3698	3698	3698	3738	3779	3779	3779	3779	3779	3738	3738	3738	3738	3738	3738	3738	3779	3779	3821	3821	3779	3779	3779	3779	3779	3738	3779	3738	3738	3779	3779	3779	3779	3738	3738	3738	3738	3738	3738	3738	3698	3698	3698	3738	3738	3738	3738	3738	3738	3738	3738	3779	3821	3779	3779	3779	3779	3779	3738	3738	3738	3738	3738	3738	3738	3738	3738	3738	3779	3779	3779	3738	3738	3738	3779	3738	3738	3738	3738	3738	3738	3738	3738	3738	3738	3738	3738	3738	3738	3738	3738	3738	3738	3738	3738	3738	3738	3738	3738	3738	3738	3738	3738	3738	3738	3738	3738	3738	3738	3738	3738	3698	3698	3698	3698	3738	3738	3738	3738	3738	3073	3073	3046	3046	3046	3019	2993	2967	2967	2967	2993	2993	2993	2993	2993	2993	2993	2993	2967	2967	2967	2967	2993	2967	2993	2993	2993	2993	2993	2993	2993	2993	2993	3738	3738	3738	3738	3738	3738	3738	3738	3779	3779	3779	3779	3779	3779	3779	3738	3738	3738	3738	3738	3738	3738	3738	3738	3779	3738	3779	3779	3738	3738	3738	3738	3738	3738	3738	3738	3738	3738	3738	3738	3738	3738	3738	3738	3738	3738	3738	3738	3738	3738	3738	3738	3738	3698	3738	3738	3738	3738	3738	3738	3738	3738	3738	3738	3698	3698	3698	3779	3738	3779	3779	3779	3779	3779	3779	3779	3779	3779	3779	3779	3779	3779	3779	3779	3779	3738	3738	3738	3738	3738	3738	3738	3738	3738	3738	3779	3779	3779	3779	3779	3779	3779	3779	3779	3779	3738	3738	3738	3738	3738	3738	3738	3779	3779	3779	3779	3738	3738	3738	3738	3698	3698	3698	3738	3738	3738	3738	3738	3779	3779	3779	3738	3738	3738	3738	3738	3738	3779	3779	3779	3779	3779	3779	3779	3779	3779	3779	3779	3779	3779	3738	3738	3738	3738	3738	3779	3821	3821	3821	3821	3821	3821	3821	3821	3821	3779	3779	3779	3779	3821	3821	3821	3821	3821	3821	3821	3779	3779	3779	3821	3779	3779	3779	3779	3779	3779	3821	3821	3821	3821	3821	3821	3821	3821	3779	3779	3779	3738	3738	3738	3738	3738	3738	3738	3738	3738	3779	3738	3738	3738	3738	3738	3738	3738	3738	3738	3698	3698	3698	3698	3738	3698	3738	3738	3738	3698	3698	3698	3738	3738	3738	3738	3738	3738	3738	3698	3698	3698	3698	3698	3698	3698	3698	3698	3779	3738	3738	3738	3738	3738	3698	3698	3698	3698	3698	3698	3738	3738	3738	3698	3738	3738	3738	3698	3698	0	0	0	0	0	0	0	0	0	0	0	0	0	0	0	0	0	0	0	0	0	0	0	0	0	0	0	0	0	0	0	0	0	0	0	0	0	0	0	0
0	0	0	0	0	0	0	0	0	0	0	1673	1673	1673	1673	1673	1673	1673	1673	1690	1690	1690	1690	1690	1690	1690	1690	1690	1690	1690	1690	1690	1690	1698	1698	1706	1706	1715	1723	1723	1723	1732	1732	0	2514	2514	2514	2514	2514	2532	2532	2551	2551	2532	2532	2532	2514	2514	2514	2514	2514	2514	2532	2532	2551	2551	2551	2532	2532	2532	2532	2514	2532	2532	2532	2532	2532	2532	2532	2532	2514	2514	2514	2514	2514	2514	2514	2532	2532	2532	2532	2532	2514	2532	2532	2514	2532	2514	2532	2532	2532	2514	2532	2514	2532	2514	2514	2514	2514	2514	2514	2514	2514	2532	2514	2532	2514	2532	2551	2551	2551	2551	2551	2551	2551	2551	2551	2551	2551	2570	2570	2570	2589	2589	2609	2609	3440	3440	3440	3406	3406	3406	3406	3406	3406	3406	3406	3373	3373	3373	3373	3406	3406	3406	3440	3440	3406	3440	3406	3406	3406	3406	3406	3406	3406	3406	3373	3373	3373	3406	3406	3406	3406	3440	3621	3659	3659	3659	3698	3659	3659	3698	3698	3698	3698	3738	3779	3779	3779	3779	3738	3738	3738	3698	3698	3738	3738	3738	3738	3779	3779	3779	3779	3779	3779	3779	3779	3738	3779	3738	3779	3779	3779	3779	3779	3738	3738	3738	3738	3738	3698	3698	3698	3698	3698	3698	3738	3738	3738	3738	3738	3738	3738	3779	3779	3779	3779	3738	3738	3738	3738	3738	3738	3738	3738	3738	3738	3738	3738	3779	3779	3779	3779	3779	3779	3738	3779	3738	3738	3738	3738	3738	3738	3738	3738	3738	3738	3738	3738	3738	3738	3738	3738	3738	3738	3738	3738	3738	3738	3738	3738	3738	3738	3738	3738	3738	3738	3738	3738	3738	3738	3738	3738	3698	3698	3738	3738	3738	3738	3738	3738	3738	3046	3046	3046	3046	3046	3019	2993	2993	2967	2967	2993	2993	2993	2993	2993	2993	2993	2993	2967	2967	2967	2967	2993	2967	2993	2993	2993	2993	2993	2993	2993	2993	2993	3698	3738	3738	3738	3738	3738	3738	3738	3738	3738	3738	3738	3738	3738	3738	3738	3738	3738	3738	3738	3738	3738	3738	3738	3738	3738	3738	3779	3738	3779	3779	3738	3738	3738	3738	3738	3738	3738	3738	3738	3738	3738	3738	3738	3738	3738	3738	3738	3738	3738	3738	3738	3738	3738	3738	3738	3738	3738	3738	3738	3738	3738	3738	3738	3698	3698	3698	3779	3738	3779	3779	3779	3779	3779	3779	3779	3779	3779	3779	3779	3779	3779	3779	3779	3779	3738	3738	3738	3738	3738	3738	3738	3738	3738	3738	3738	3738	3779	3779	3779	3779	3779	3779	3779	3779	3738	3738	3738	3738	3738	3738	3738	3738	3738	3779	3779	3738	3738	3738	3738	3738	3738	3738	3738	3779	3738	3738	3779	3779	3779	3738	3738	3738	3738	3738	3738	3738	3779	3779	3779	3779	3779	3779	3779	3779	3779	3779	3779	3779	3779	3738	3738	3738	3738	3738	3821	3821	3821	3821	3821	3821	3821	3821	3821	3821	3821	3779	3779	3821	3821	3821	3821	3821	3821	3821	3821	3779	3821	3821	3821	3821	3779	3779	3779	3779	3779	3779	3779	3821	3821	3821	3821	3821	3821	3821	3779	3779	3779	3779	3738	3738	3738	3738	3738	3738	3738	3779	3738	3738	3738	3738	3738	3738	3738	3738	3738	3698	3698	3698	3698	3738	3698	3738	3738	3738	3698	3698	3698	3738	3738	3698	3698	3738	3738	3738	3698	3698	3659	3698	3698	3698	3659	3659	3659	3698	3698	3738	3738	3698	3738	3738	3698	3698	3738	3738	3698	3698	3698	3738	3698	3698	3659	3659	3659	3659	0	0	0	0	0	0	0	0	0	0	0	0	0	0	0	0	0	0	0	0	0	0	0	0	0	0	0	0	0	0	0	0	0	0	0	0	0	0	0	0
0	0	0	0	0	0	0	0	0	0	0	0	1673	1673	1673	1673	1673	1681	1681	1690	1681	1690	1690	1698	1698	1698	1698	1698	1698	1690	1690	1690	1690	1698	1698	1698	1706	1715	1715	1715	1723	1732	1732	1732	2514	2514	2532	2514	2514	2532	2551	2551	2551	2551	2532	2532	2532	2532	2514	2514	2532	2532	2532	2551	2551	2551	2551	2551	2532	2532	2532	2514	2532	2532	2532	2532	2532	2532	2532	2532	2532	2532	2532	2532	2532	2532	2532	2551	2551	2551	2551	2532	2532	2532	2532	2514	2532	2532	2532	2532	2551	2532	2551	2532	2551	2532	2532	2532	2532	2514	2514	2532	2514	2532	2532	2532	2532	2532	2551	2551	2551	2551	2551	2551	2551	2551	2551	2551	2551	2570	2570	2570	2589	2609	2609	2609	3406	3440	3440	3440	3406	3406	3406	3406	3406	3406	3406	3406	3406	3406	3406	3406	3406	3406	3440	3440	3440	3440	3440	3406	3406	3406	3406	3406	3406	3406	3406	3406	3406	3406	3406	3406	3406	3440	3583	3621	3659	3659	3698	3659	3659	3659	3659	3698	3698	3698	3738	3738	3738	3738	3738	3738	3698	3698	3698	3698	3738	3698	3738	3779	3779	3779	3779	3779	3738	3738	3738	3738	3738	3738	3779	3779	3779	3779	3779	3779	3738	3738	3738	3738	3738	3738	3698	3698	3698	3738	3738	3738	3738	3738	3738	3779	3779	3821	3779	3779	3738	3738	3738	3738	3738	3738	3738	3738	3738	3738	3738	3738	3738	3779	3779	3779	3779	3779	3779	3738	3779	3738	3738	3738	3738	3738	3738	3738	3738	3738	3738	3738	3738	3738	3738	3738	3738	3738	3738	3738	3738	3738	3738	3738	3738	3738	3738	3738	3738	3738	3738	3738	3738	3738	3738	3738	3738	3698	3698	3698	3698	3738	3738	3738	3738	3738	3738	3738	3046	3046	3046	3019	2993	2993	2967	2967	2993	2993	2993	2993	2993	2993	2993	2993	2967	2967	2967	2967	2993	2993	2993	2993	2993	2993	2993	2993	2993	2993	3698	3698	3738	3738	3738	3738	3738	3738	3738	3738	3738	3779	3738	3738	3738	3738	3738	3738	3738	3738	3738	3738	3738	3738	3738	3738	3738	3738	3779	3779	3779	3779	3779	3779	3738	3738	3738	3738	3738	3738	3738	3738	3738	3738	3738	3738	3738	3738	3738	3738	3738	3738	3738	3738	3738	3738	3738	3738	3738	3738	3738	3738	3738	3738	3698	3698	3698	3698	3779	3738	3779	3779	3779	3779	3779	3779	3779	3779	3779	3779	3779	3779	3779	3779	3779	3779	3738	3738	3738	3738	3738	3738	3738	3738	3738	3738	3779	3779	3779	3779	3779	3779	3779	3779	3779	3738	3738	3698	3738	3738	3738	3738	3779	3779	3779	3779	3779	3779	3779	3779	3779	3738	3738	3738	3779	3779	3738	3738	3738	3738	3779	3738	3738	3738	3738	3738	3738	3738	3779	3779	3779	3779	3779	3779	3779	3779	3779	3779	3779	3779	3779	3779	3738	3738	3738	3779	3821	3821	3821	3821	3821	3821	3821	3821	3821	3821	3821	3821	3821	3821	3821	3821	3821	3821	3821	3779	3779	3779	3779	3821	3821	3821	3779	3779	3779	3779	3779	3779	3779	3779	3821	3821	3821	3821	3779	3821	3779	3779	3779	3738	3738	3738	3738	3698	3698	3738	3738	3779	3738	3738	3738	3738	3738	3738	3698	3698	3698	3698	3698	3698	3698	3738	3738	3738	3738	3738	3738	3738	3738	3738	3738	3738	3738	3738	3738	3738	3738	3698	3659	3698	3698	3698	3659	3659	3659	3698	3698	3738	3738	3698	3738	3738	3738	3738	3738	3738	3698	3698	3698	3698	3698	3698	3659	3698	3698	3698	0	0	0	0	0	0	0	0	0	0	0	0	0	0	0	0	0	0	0	0	0	0	0	0	0	0	0	0	0	0	0	0	0	0	0	0	0	0	0	0
0	0	0	0	0	0	0	0	0	0	0	1690	1681	1681	1690	1681	1681	1690	1681	1690	1690	1690	1698	1698	1698	1698	1698	1698	1698	1698	1698	1698	1698	1698	1698	1706	1706	1715	1715	1715	1723	1732	1732	1732	1732	2514	2514	2496	2514	2532	2551	2551	2551	2551	2551	2551	2532	2532	2532	2514	2532	2514	2532	2551	2551	2551	2551	2551	2551	2551	2551	2532	2532	2532	2532	2532	2551	2551	2551	2532	2532	2532	2532	2532	2532	2532	2532	2551	2551	2551	2551	2551	2551	2551	2532	2532	2551	2532	2551	2551	2551	2551	2551	2551	2551	2551	2551	2551	2551	2532	2532	2551	2551	2551	2551	2551	2532	2551	2551	2551	2551	2551	2551	2551	2551	2551	2551	2570	2570	2570	2570	2570	2570	2609	2609	2609	3406	3440	3440	3440	3440	3406	3406	3406	3406	3406	3406	3406	3406	3406	3406	3440	3406	3440	3475	3440	3440	3440	3440	3406	3406	3406	3406	3406	3406	3406	3406	3406	3406	3406	3406	3406	3406	3440	3475	3621	3659	3659	3659	3659	3659	3659	3659	3659	3698	3698	3738	3738	3779	3779	3738	3738	3698	3698	3698	3698	3698	3698	3738	3738	3738	3779	3779	3779	3779	3779	3779	3738	3738	3738	3779	3779	3779	3779	3779	3738	3738	3738	3738	3738	3738	3698	3698	3698	3698	3738	3738	3738	3738	3738	3738	3738	3779	3779	3779	3738	3738	3738	3738	3738	3738	3738	3738	3738	3738	3738	3738	3738	3738	3738	3738	3738	3738	3738	3738	3738	3738	3738	3738	3738	3738	3738	3738	3738	3738	3738	3738	3738	3738	3738	3738	3738	3738	3738	3738	3738	3738	3738	3738	3738	3738	3738	3738	3738	3738	3738	3738	3738	3738	3738	3738	3738	3738	3698	3738	3738	3738	3738	3738	3738	3738	3738	3738	3738	3738	3738	2993	2993	2993	2967	2967	2967	2993	2993	2993	2993	2993	2993	2993	2993	2967	2967	2967	2967	2993	2993	2993	2993	2993	2993	2993	2993	2993	2993	3738	3738	3738	3738	3738	3738	3738	3738	3738	3738	3738	3738	3738	3738	3738	3738	3738	3738	3738	3738	3738	3738	3738	3738	3738	3738	3738	3738	3779	3779	3779	3779	3779	3738	3738	3738	3738	3738	3738	3738	3738	3738	3738	3738	3738	3738	3738	3738	3738	3738	3738	3738	3738	3738	3738	3738	3738	3738	3738	3738	3738	3738	3738	3738	3698	3698	3698	3738	3779	3779	3779	3779	3779	3779	3779	3779	3779	3779	3779	3779	3779	3779	3779	3779	3779	3779	3738	3738	3738	3738	3738	3738	3738	3738	3738	3779	3779	3779	3779	3779	3779	3779	3779	3779	3779	3738	3738	3738	3738	3738	3738	3738	3779	3779	3779	3779	3779	3779	3779	3779	3779	3779	3738	3738	3779	3779	3738	3738	3738	3738	3738	3738	3738	3738	3738	3738	3738	3738	3779	3779	3779	3779	3779	3779	3779	3779	3779	3779	3779	3779	3738	3738	3738	3738	3779	3738	3821	3779	3821	3821	3821	3821	3821	3821	3821	3821	3821	3821	3821	3821	3821	3821	3821	3821	3821	3821	3779	3779	3779	3821	3821	3821	3779	3779	3779	3779	3779	3779	3779	3821	3821	3821	3821	3821	3821	3821	3779	3779	3779	3738	3738	3738	3738	3738	3738	3738	3738	3779	3779	3779	3738	3738	3738	3738	3698	3698	3698	3698	3698	3698	3738	3738	3738	3738	3738	3738	3698	3698	3698	3698	3698	3698	3738	3738	3738	3738	3698	3698	3698	3698	3698	3698	3659	3659	3659	3698	3698	3738	3698	3698	3738	3738	3698	3698	3698	3698	3698	3698	3698	3698	3698	3698	3659	3698	3698	3698	0	0	0	0	0	0	0	0	0	0	0	0	0	0	0	0	0	0	0	0	0	0	0	0	0	0	0	0	0	0	0	0	0	0	0	0	0	0	0	0
0	0	0	0	0	0	0	0	0	0	0	1698	1690	1690	1690	1690	1690	1690	1690	1690	1698	1698	1698	1698	1698	1698	1698	1698	1698	1698	1698	1698	1698	1698	1698	1706	1715	1723	1715	1723	1732	1732	1732	1741	1759	1759	2514	2496	2496	2514	2532	2551	2551	2551	2551	2551	2551	2532	2532	2532	2532	2532	2532	2551	2551	2551	2551	2551	2551	2551	2551	2532	2532	2532	2551	2551	2551	2551	2551	2532	2532	2532	2532	2532	2532	2532	2551	2551	2551	2551	2551	2551	2551	2551	2551	2532	2532	2532	2532	2532	2532	2551	2551	2551	2551	2551	2551	2551	2551	2551	2551	2551	2589	2570	2551	2551	2551	2551	2551	2551	2551	2551	2551	2551	2551	2551	2551	2570	2570	2570	2570	2570	2570	2570	2570	2570	3440	3475	3440	3440	3440	3440	3406	3406	3406	3406	3406	3406	3406	3406	3406	3440	3440	3475	3475	3475	3475	3440	3440	3440	3440	3440	3440	3406	3406	3406	3440	3440	3406	3406	3440	3440	3440	3440	3510	3546	3621	3621	3659	3659	3659	3659	3659	3659	3659	3698	3738	3779	3779	3779	3738	3738	3698	3698	3698	3698	3698	3698	3698	3738	3738	3738	3738	3779	3738	3738	3779	3738	3738	3738	3779	3779	3779	3738	3738	3738	3738	3738	3738	3738	3738	3698	3698	3698	3698	3738	3738	3738	3738	3738	3738	3738	3779	3779	3738	3738	3738	3738	3738	3738	3738	3738	3738	3738	3738	3738	3738	3738	3738	3738	3738	3738	3738	3738	3779	3738	3738	3738	3738	3738	3738	3698	3738	3738	3738	3738	3698	3738	3738	3738	3738	3738	3738	3738	3738	3738	3738	3738	3738	3738	3738	3738	3738	3738	3738	3738	3738	3698	3738	3738	3738	3738	3738	3698	3738	3698	3698	3738	3738	3738	3738	3738	3738	3738	3738	3698	3698	2993	2967	2967	2967	2967	2993	2993	2993	2993	2993	2993	2993	2993	2967	2993	2967	2967	2993	2993	2993	2993	2993	2993	2993	2993	2993	2993	3698	3698	3738	3738	3738	3738	3738	3738	3738	3738	3738	3738	3738	3738	3738	3738	3738	3738	3738	3738	3738	3738	3738	3738	3738	3738	3738	3779	3779	3779	3779	3779	3779	3738	3738	3738	3738	3738	3738	3738	3738	3738	3738	3738	3738	3738	3738	3738	3738	3738	3738	3738	3738	3738	3738	3738	3738	3738	3738	3738	3698	3738	3738	3738	3698	3698	3698	3738	3779	3779	3779	3779	3779	3779	3779	3779	3779	3779	3779	3779	3779	3779	3779	3779	3779	3779	3738	3738	3738	3738	3738	3738	3738	3738	3738	3779	3779	3779	3779	3779	3779	3779	3779	3779	3779	3738	3738	3738	3738	3738	3779	3779	3779	3779	3779	3779	3779	3779	3779	3779	3779	3738	3738	3738	3779	3779	3738	3738	3738	3738	3738	3738	3738	3738	3738	3738	3738	3738	3738	3779	3779	3779	3779	3779	3779	3779	3779	3779	3779	3779	3738	3779	3738	3738	3738	3738	3779	3779	3779	3779	3821	3779	3779	3779	3821	3821	3821	3779	3821	3821	3821	3821	3779	3779	3821	3821	3779	3779	3779	3821	3821	3821	3779	3779	3779	3779	3821	3779	3779	3779	3821	3821	3821	3821	3821	3821	3779	3779	3779	3738	3738	3779	3779	3738	3738	3738	3738	3779	3779	3779	3779	3779	3738	3738	3738	3698	3698	3698	3698	3698	3738	3738	3738	3738	3779	3738	3738	3698	3698	3698	3698	3698	3738	3738	3698	3698	3698	3698	3698	3698	3698	3698	3698	3659	3698	3698	3738	3738	3738	3738	3738	3738	3738	3738	3698	3738	3698	3698	3698	3698	3698	3698	3698	3698	3698	0	0	0	0	0	0	0	0	0	0	0	0	0	0	0	0	0	0	0	0	0	0	0	0	0	0	0	0	0	0	0	0	0	0	0	0	0	0	0	0	0
0	0	0	0	0	0	0	0	0	0	0	1715	1698	1698	1698	1706	1698	1698	1698	1698	1698	1698	1706	1706	1706	1706	1706	1706	1706	1706	1706	1698	1698	1706	1706	1715	1715	1723	1723	1723	1741	1741	1741	1741	1759	1768	1768	1759	1759	2514	2532	2570	2551	2551	2551	2551	2551	2551	2532	2532	2532	2532	2551	2551	2551	2551	2551	2551	2551	2551	2551	2532	2532	2551	2551	2551	2551	2551	2551	2551	2532	2532	2532	2532	2532	2532	2532	2551	2551	2551	2551	2551	2551	2551	2551	2532	2532	2532	2532	2532	2532	2551	2551	2551	2551	2551	2551	2551	2551	2532	2532	2551	2551	2570	2551	2551	2551	2551	2551	2551	2551	2551	2551	2551	2551	2551	2570	2570	2570	2570	2589	2589	2570	2589	2589	2589	3475	3510	3475	3475	3475	3440	3440	3406	3406	3406	3406	3406	3406	3440	3440	3440	3440	3475	3510	3510	3475	3475	3475	3475	3440	3440	3440	3440	3440	3440	3440	3440	3406	3440	3440	3475	3475	3475	3510	3546	3583	3621	3659	3659	3659	3659	3659	3659	3659	3698	3738	3779	3779	3779	3738	3738	3738	3698	3698	3698	3698	3698	3738	3738	3779	3779	3779	3779	3738	3738	3738	3738	3738	3738	3738	3738	3738	3738	3698	3698	3698	3698	3698	3738	3738	3698	3698	3698	3698	3738	3738	3738	3738	3738	3738	3738	3779	3779	3738	3738	3738	3738	3738	3738	3738	3738	3738	3738	3738	3738	3738	3738	3738	3738	3779	3779	3779	3779	3779	3738	3738	3738	3738	3738	3738	3698	3738	3698	3738	3738	3698	3698	3738	3738	3738	3738	3738	3738	3738	3738	3738	3738	3738	3738	3738	3738	3738	3738	3738	3738	3738	3698	3698	3738	3738	3738	3738	3698	3698	3698	3698	3738	3738	3738	3738	3738	3738	3738	3738	3738	3698	2967	2967	2967	2967	2967	2993	2993	2993	2993	2993	2993	2993	2993	2993	2993	2993	2993	2993	2993	2993	2993	2993	2993	2967	2967	3738	3738	3738	3738	3738	3738	3738	3738	3738	3738	3738	3738	3738	3738	3738	3738	3738	3738	3738	3738	3738	3738	3738	3738	3738	3738	3738	3738	3738	3738	3779	3779	3779	3779	3779	3738	3738	3738	3738	3738	3738	3738	3738	3738	3738	3738	3738	3738	3738	3738	3738	3738	3738	3738	3738	3738	3738	3698	3738	3738	3738	3738	3738	3738	3738	3738	3738	3698	3738	3738	3779	3779	3779	3779	3779	3779	3779	3779	3779	3779	3779	3779	3779	3779	3779	3779	3779	3779	3738	3738	3738	3738	3738	3738	3738	3738	3738	3779	3738	3779	3738	3779	3779	3779	3779	3779	3779	3738	3779	3738	3738	3738	3738	3779	3779	3779	3779	3779	3779	3779	3779	3779	3779	3779	3738	3738	3738	3738	3738	3738	3738	3738	3738	3738	3738	3738	3738	3738	3738	3738	3738	3779	3779	3779	3779	3779	3779	3779	3779	3779	3779	3738	3738	3738	3738	3738	3738	3738	3779	3779	3779	3779	3821	3779	3779	3779	3779	3821	3779	3779	3821	3821	3821	3779	3779	3779	3821	3821	3779	3779	3821	3821	3821	3821	3779	3779	3779	3779	3779	3779	3779	3779	3821	3821	3821	3821	3821	3821	3779	3779	3779	3738	3738	3779	3779	3738	3738	3738	3738	3779	3738	3738	3738	3738	3738	3738	3738	3698	3698	3698	3698	3738	3738	3738	3738	3738	3738	3698	3698	3698	3698	3698	3698	3698	3698	3738	3698	3698	3698	3698	3698	3698	3698	3659	3659	3659	3698	3738	3738	3738	3738	3738	3738	3738	3698	3738	3738	3738	3698	3698	3698	3698	3698	3698	3659	3698	3698	0	0	0	0	0	0	0	0	0	0	0	0	0	0	0	0	0	0	0	0	0	0	0	0	0	0	0	0	0	0	0	0	0	0	0	0	0	0	0	0	0
0	0	0	0	0	0	0	0	0	0	0	1750	1706	1706	1706	1706	1706	1706	1698	1698	1706	1706	1706	1706	1715	1715	1715	1715	1715	1715	1715	1706	1706	1715	1715	1723	1723	1723	1723	1732	1741	1750	1741	1750	1768	1777	1768	1777	1768	1768	0	2551	2551	2551	2551	2551	2551	2551	2551	2551	2551	2551	2551	2551	2551	2551	2551	2551	2551	2551	2551	2551	2532	2551	2551	2551	2551	2551	2551	2551	2551	2532	2532	2532	2532	2532	2532	2551	2551	2551	2551	2551	2532	2532	2532	2532	2532	2532	2532	2532	2532	2551	2551	2551	2551	2551	2551	2551	2551	2551	2532	2551	2551	2551	2551	2551	2551	2551	2551	2551	2551	2551	2551	2551	2551	2551	2551	2570	2570	2570	2589	2589	2589	2589	2589	2589	3475	3510	3510	3475	3475	3440	3440	3440	3440	3406	3406	3406	3440	3440	3440	3475	3475	3510	3510	3510	3510	3510	3510	3475	3475	3475	3475	3440	3440	3440	3440	3440	3440	3440	3475	3475	3475	3475	3510	3546	3583	3583	3621	3621	3621	3659	3659	3659	3659	3698	3738	3738	3779	3779	3779	3738	3738	3738	3698	3698	3698	3738	3738	3738	3738	3738	3738	3738	3738	3738	3738	3738	3738	3738	3738	3738	3698	3698	3698	3698	3698	3698	3698	3698	3698	3698	3698	3698	3698	3738	3738	3738	3738	3738	3738	3738	3779	3779	3738	3738	3738	3738	3738	3738	3738	3738	3738	3738	3738	3738	3738	3738	3738	3738	3738	3738	3738	3779	3779	3738	3738	3738	3738	3738	3738	3698	3738	3698	3738	3738	3698	3698	3698	3738	3698	3698	3698	3738	3738	3738	3738	3738	3738	3738	3738	3738	3738	3738	3738	3738	3738	3698	3698	3738	3738	3738	3738	3738	3738	3738	3738	3738	3738	3738	3738	3738	3738	3738	3738	3738	3698	3698	2967	2967	2993	2993	2993	2993	2993	2993	2993	2993	2993	2993	2993	2993	2993	2967	2967	2967	2967	2967	2967	2993	2967	2967	3738	3738	3738	3738	3738	3738	3738	3738	3738	3738	3738	3738	3738	3738	3738	3738	3738	3738	3738	3738	3738	3738	3738	3738	3738	3738	3738	3738	3738	3738	3738	3738	3779	3779	3738	3738	3738	3738	3738	3738	3738	3738	3738	3738	3738	3738	3738	3738	3738	3738	3738	3738	3738	3738	3738	3738	3738	3738	3738	3698	3738	3738	3738	3738	3738	3738	3738	3738	3738	3738	3779	3779	3779	3779	3779	3779	3779	3779	3779	3779	3779	3779	3779	3779	3779	3779	3779	3738	3738	3738	3738	3738	3738	3738	3738	3738	3738	3738	3738	3738	3738	3738	3738	3738	3738	3738	3738	3738	3738	3738	3738	3738	3738	3779	3779	3779	3779	3779	3779	3779	3738	3738	3738	3738	3738	3738	3738	3738	3738	3738	3738	3698	3738	3698	3698	3698	3738	3738	3738	3738	3738	3779	3779	3779	3779	3779	3779	3779	3779	3738	3738	3738	3738	3779	3738	3779	3779	3779	3821	3779	3779	3779	3779	3779	3779	3779	3821	3821	3779	3779	3821	3821	3821	3779	3779	3779	3821	3821	3779	3779	3779	3779	3821	3821	3779	3779	3779	3779	3779	3779	3779	3779	3779	3821	3821	3821	3821	3821	3779	3779	3779	3738	3738	3738	3738	3738	3738	3738	3738	3738	3738	3738	3738	3738	3738	3738	3738	3738	3738	3698	3698	3738	3738	3738	3738	3738	3738	3698	3698	3698	3698	3698	3698	3698	3698	3698	3698	3698	3698	3698	3698	3698	3659	3659	3659	3659	3659	3698	3738	3738	3738	3738	3738	3738	3698	3738	3738	3738	3738	3698	3698	3698	3698	3698	3659	3698	3698	3698	0	0	0	0	0	0	0	0	0	0	0	0	0	0	0	0	0	0	0	0	0	0	0	0	0	0	0	0	0	0	0	0	0	0	0	0	0	0	0	0
0	0	0	0	0	0	0	0	0	0	0	1750	1732	1723	1706	1715	1715	1723	1706	1706	1706	1715	1723	1715	1741	1723	1732	1723	1723	1723	1723	1715	1723	1723	1732	1732	1732	1732	1732	1741	1750	1750	1741	1750	1768	1768	1777	1777	1777	1777	1777	2551	2551	2551	2551	2551	2551	2551	2532	2532	2532	2532	2551	2551	2551	2551	2551	2551	2551	2551	2551	2551	2551	2551	2551	2551	2551	2551	2551	2551	2551	2532	2551	2532	2551	2551	2551	2551	2551	2551	2551	2551	2532	2532	2532	2532	2532	2532	2532	2532	2532	2551	2551	2551	2551	2551	2551	2532	2532	2532	2532	2551	2551	2551	2551	2551	2551	2551	2551	2551	2551	2532	2532	2551	2551	2551	2551	2570	2570	2570	2570	2589	2589	2589	2589	2589	3475	3510	3510	3510	3510	3475	3475	3440	3440	3440	3440	3440	3475	3475	3475	3475	3510	3510	3510	3510	3510	3510	3510	3510	3475	3475	3475	3475	3475	3475	3475	3475	3475	3475	3510	3510	3510	3510	3510	3546	3546	3583	3621	3621	3621	3621	3659	3659	3659	3698	3698	3738	3738	3738	3738	3738	3738	3698	3698	3698	3698	3698	3738	3738	3738	3738	3738	3738	3738	3738	3738	3738	3738	3738	3738	3698	3698	3698	3698	3698	3698	3698	3698	3698	3698	3698	3698	3698	3698	3738	3738	3738	3738	3738	3738	3738	3738	3779	3738	3738	3738	3738	3738	3738	3738	3738	3738	3738	3738	3738	3738	3738	3738	3738	3738	3738	3738	3779	3779	3738	3738	3738	3738	3738	3738	3698	3738	3698	3698	3698	3698	3698	3698	3698	3698	3698	3698	3738	3738	3738	3738	3738	3738	3738	3738	3738	3738	3738	3738	3738	3738	3738	3698	3738	3738	3738	3738	3738	3738	3738	3738	3738	3738	3738	3738	3738	3738	3738	3738	3738	3698	3698	2967	2967	2993	2967	2993	2993	2993	2993	2993	2993	2993	2993	2967	2967	2967	2967	2967	2967	2967	2967	2967	2967	2967	2967	3738	3738	3738	3738	3738	3738	3738	3738	3738	3738	3738	3738	3738	3738	3738	3738	3738	3738	3738	3738	3738	3738	3738	3738	3738	3738	3738	3738	3738	3738	3738	3738	3779	3779	3779	3738	3738	3738	3738	3738	3738	3738	3738	3738	3738	3738	3738	3738	3738	3738	3738	3738	3738	3738	3738	3738	3738	3738	3738	3698	3698	3698	3698	3738	3738	3738	3738	3738	3738	3738	3779	3779	3779	3779	3779	3779	3779	3779	3779	3779	3779	3779	3779	3779	3779	3738	3738	3738	3738	3698	3738	3738	3738	3738	3738	3738	3738	3738	3779	3738	3738	3738	3738	3738	3738	3738	3738	3738	3738	3698	3738	3738	3738	3738	3738	3779	3779	3779	3779	3779	3738	3738	3738	3738	3738	3738	3738	3738	3738	3738	3738	3738	3738	3698	3698	3698	3698	3698	3698	3698	3738	3738	3738	3779	3779	3779	3779	3779	3779	3738	3738	3738	3738	3738	3738	3779	3779	3779	3821	3779	3779	3821	3821	3821	3821	3821	3821	3821	3821	3779	3821	3821	3821	3779	3779	3779	3779	3779	3779	3779	3779	3779	3821	3821	3821	3779	3779	3779	3779	3779	3779	3779	3779	3779	3821	3821	3821	3821	3779	3779	3779	3738	3738	3738	3738	3738	3738	3738	3738	3738	3738	3738	3738	3738	3738	3738	3738	3738	3738	3698	3698	3698	3738	3698	3698	3698	3698	3698	3698	3698	3698	3698	3698	3698	3698	3698	3698	3698	3698	3698	3698	3659	3659	3659	3659	3659	3659	3698	3698	3698	3698	3738	3738	3738	3698	3738	3738	3738	3698	3698	3698	3698	3659	3659	3659	3659	3659	3698	0	0	0	0	0	0	0	0	0	0	0	0	0	0	0	0	0	0	0	0	0	0	0	0	0	0	0	0	0	0	0	0	0	0	0	0	0	0	0	0
0	0	0	0	0	0	0	0	0	0	1741	1741	1732	1732	1732	1723	1723	1732	1732	1732	1732	1750	1732	1732	1750	1732	1732	1723	1732	1723	1732	1723	1723	1732	1732	1732	1732	1732	1732	1741	1741	1741	1741	1750	1768	1777	1777	1777	1786	1786	1786	2551	2551	2551	2570	2551	2551	2551	2551	2551	2551	2551	2551	2551	2551	2551	2551	2551	2551	2551	2551	2551	2551	2551	2551	2551	2551	2551	2551	2551	2551	2551	2551	2551	2551	2551	2551	2551	2551	2551	2532	2532	2532	2532	2532	2532	2532	2532	2532	2532	2551	2551	2551	2551	2551	2551	2551	2532	2532	2532	2532	2532	2532	2551	2551	2551	2551	2551	2551	2551	2532	2532	2532	2551	2551	2551	2551	2551	2570	2570	2570	2570	2570	2570	2570	2570	3475	3510	3510	3510	3510	3510	3475	3475	3475	3440	3475	3475	3475	3510	3510	3510	3510	3546	3546	3510	3510	3510	3510	3510	3475	3510	3510	3510	3510	3510	3510	3510	3510	3510	3510	3510	3510	3510	3510	3546	3546	3583	3583	3583	3621	3621	3659	3659	3659	3698	3698	3698	3698	3698	3738	3738	3698	3698	3698	3698	3698	3738	3738	3738	3738	3738	3738	3779	3738	3738	3738	3738	3738	3738	3738	3698	3698	3698	3698	3698	3698	3698	3698	3698	3698	3698	3698	3738	3698	3738	3738	3738	3738	3738	3738	3738	3738	3779	3738	3738	3738	3738	3738	3738	3738	3738	3738	3738	3738	3738	3738	3738	3738	3738	3738	3738	3738	3738	3779	3779	3738	3738	3738	3738	3738	3698	3698	3698	3698	3698	3698	3698	3698	3698	3698	3698	3698	3698	3738	3738	3698	3698	3738	3738	3738	3738	3738	3698	3698	3698	3698	3698	3698	3698	3738	3738	3738	3738	3738	3738	3738	3738	3738	3738	3738	3738	3738	3738	3738	3698	3698	3698	2967	2967	2993	2993	2993	2993	2993	2993	2993	2993	2967	2967	2967	2993	2993	2967	2993	2993	2993	2993	2993	2993	2967	2967	3738	3738	3738	3738	3738	3738	3738	3738	3738	3738	3738	3738	3738	3738	3738	3738	3738	3738	3738	3738	3738	3738	3738	3738	3738	3738	3738	3738	3738	3738	3738	3738	3738	3738	3738	3738	3738	3738	3738	3738	3738	3738	3738	3738	3738	3738	3738	3738	3738	3738	3738	3738	3738	3738	3738	3738	3738	3738	3738	3698	3698	3698	3698	3738	3698	3738	3738	3738	3738	3738	3779	3779	3779	3779	3779	3779	3779	3779	3779	3779	3779	3738	3738	3738	3738	3738	3738	3698	3698	3698	3698	3698	3738	3738	3738	3738	3738	3738	3779	3738	3738	3738	3738	3738	3738	3738	3738	3738	3738	3698	3738	3738	3738	3738	3738	3738	3738	3779	3779	3738	3738	3738	3738	3738	3698	3738	3738	3738	3738	3738	3738	3738	3738	3738	3698	3698	3738	3698	3698	3738	3738	3738	3779	3779	3779	3779	3779	3779	3738	3738	3738	3738	3738	3738	3738	3738	3738	3738	3779	3779	3779	3779	3821	3779	3779	3821	3821	3821	3821	3821	3821	3821	3821	3779	3779	3779	3779	3779	3779	3779	3779	3779	3821	3821	3821	3779	3779	3779	3779	3779	3779	3779	3779	3779	3821	3779	3779	3779	3779	3779	3779	3738	3738	3738	3738	3738	3738	3738	3698	3738	3738	3738	3738	3779	3738	3738	3779	3738	3738	3698	3698	3698	3738	3698	3698	3698	3738	3698	3698	3698	3698	3698	3698	3698	3698	3698	3698	3698	3698	3698	3698	3698	3698	3659	3659	3659	3659	3698	3698	3698	3698	3698	3698	3738	3698	3738	3738	3698	3698	3698	3698	3698	3698	3698	3659	3659	3659	3659	0	0	0	0	0	0	0	0	0	0	0	0	0	0	0	0	0	0	0	0	0	0	0	0	0	0	0	0	0	0	0	0	0	0	0	0	0	0	0	0
0	0	0	0	0	0	0	0	0	0	1715	1723	1723	1723	1723	1759	1750	1750	1750	1759	1759	1759	1759	1759	1759	1759	1750	1750	1750	1750	1750	1732	1732	1741	1741	1741	1732	1732	1732	1741	1741	1750	1750	1750	1768	1777	1777	1777	1786	1795	1795	0	2551	2551	2551	2551	2551	2551	2551	2532	2551	2532	2551	2551	2551	2551	2551	2551	2551	2551	2551	2551	2551	2551	2551	2551	2551	2551	2551	2551	2551	2551	2551	2551	2551	2551	2551	2551	2551	2551	2532	2532	2532	2532	2532	2532	2532	2532	2532	2551	2551	2551	2551	2551	2551	2551	2551	2532	2514	2514	2532	2514	2514	2532	2551	2551	2551	2551	2551	2551	2551	2551	2551	2551	2551	2551	2551	2551	2551	2551	2570	2570	2570	2570	2570	2570	3475	3510	3510	3510	3510	3510	3475	3475	3510	3475	3510	3510	3510	3510	3510	3546	3546	3546	3546	3546	3546	3546	3546	3546	3510	3510	3510	3510	3510	3510	3510	3510	3510	3510	3510	3510	3546	3510	3510	3546	3546	3583	3583	3583	3583	3583	3621	3621	3659	3698	3698	3698	3698	3738	3738	3738	3698	3698	3698	3698	3698	3738	3738	3698	3738	3738	3738	3738	3738	3738	3738	3738	3738	3738	3738	3698	3698	3698	3698	3659	3698	3698	3698	3698	3698	3698	3698	3738	3698	3738	3738	3738	3738	3738	3738	3738	3779	3779	3738	3738	3738	3738	3738	3738	3738	3738	3738	3738	3738	3738	3738	3738	3738	3738	3738	3738	3738	3738	3738	3738	3738	3738	3738	3738	3738	3698	3698	3698	3698	3698	3698	3698	3698	3698	3698	3698	3698	3698	3698	3738	3698	3698	3698	3698	3698	3738	3738	3698	3698	3698	3698	3698	3698	3698	3698	3738	3738	3738	3738	3738	3738	3738	3738	3738	3738	3738	3698	3738	3738	3698	3698	3698	2967	2967	2993	2967	2993	2993	2993	2993	2993	2993	2993	2993	2993	2993	2993	2993	2993	2993	2993	2993	2993	2993	2993	3738	3738	3738	3738	3738	3738	3738	3738	3738	3738	3738	3738	3738	3738	3738	3738	3738	3738	3738	3738	3738	3738	3738	3738	3738	3738	3738	3738	3738	3738	3738	3738	3738	3738	3738	3738	3738	3738	3738	3698	3698	3698	3738	3698	3738	3738	3738	3738	3738	3738	3738	3738	3738	3738	3738	3738	3738	3738	3738	3738	3698	3698	3698	3698	3698	3698	3738	3738	3738	3738	3738	3779	3779	3779	3779	3779	3779	3779	3779	3779	3738	3779	3738	3738	3738	3698	3698	3698	3698	3698	3698	3698	3698	3738	3738	3738	3738	3738	3738	3738	3738	3738	3738	3738	3738	3738	3738	3738	3738	3738	3698	3738	3738	3738	3738	3738	3738	3738	3779	3738	3738	3738	3738	3738	3738	3738	3738	3738	3738	3738	3738	3738	3738	3738	3738	3698	3698	3698	3698	3698	3698	3738	3738	3779	3779	3779	3779	3779	3779	3738	3738	3738	3738	3738	3738	3738	3738	3738	3738	3779	3779	3779	3779	3779	3779	3779	3821	3821	3821	3821	3779	3821	3821	3779	3779	3738	3738	3738	3738	3738	3738	3738	3738	3779	3779	3779	3779	3779	3779	3779	3779	3779	3779	3779	3779	3821	3821	3779	3779	3779	3779	3779	3738	3738	3738	3738	3738	3698	3698	3698	3738	3738	3738	3738	3738	3738	3738	3738	3738	3738	3698	3698	3698	3698	3698	3698	3698	3738	3698	3698	3698	3698	3698	3698	3698	3698	3659	3698	3698	3698	3659	3698	3659	3659	3659	3621	3621	3621	3659	3659	3698	3698	3698	3698	3698	3698	3738	3738	3698	3698	3698	3698	3698	3659	3698	3659	3659	3659	3659	0	0	0	0	0	0	0	0	0	0	0	0	0	0	0	0	0	0	0	0	0	0	0	0	0	0	0	0	0	0	0	0	0	0	0	0	0	0	0	0
0	0	0	0	0	0	0	0	0	0	1759	1759	1759	1759	1759	1759	1759	1759	1759	1759	1759	1759	1759	1759	1759	1759	1759	1759	1759	1750	1750	1750	1750	1759	1759	1750	1741	1741	1741	1750	1750	1750	1750	1759	1768	1777	1777	1786	1786	1795	1804	1795	1795	2551	2570	2551	2551	2551	2532	2532	2551	2532	2551	2551	2551	2551	2551	2551	2551	2551	2551	2551	2551	2551	2551	2551	2551	2551	2551	2551	2551	2551	2551	2551	2551	2551	2551	2551	2551	2551	2532	2532	2532	2551	2532	2551	2532	2532	2532	2551	2551	2551	2551	2551	2551	2551	2532	2514	2514	2514	2496	2514	2514	2532	2532	2551	2551	2551	2551	2551	2551	2532	2532	2551	2532	2532	2532	2551	2551	2551	2570	2570	2570	2570	2570	3510	3510	3546	3546	3546	3510	3510	3510	3510	3510	3510	3510	3510	3546	3546	3546	3546	3546	3583	3583	3546	3546	3546	3546	3546	3510	3546	3510	3510	3510	3510	3510	3510	3510	3510	3510	3546	3546	3546	3546	3546	3546	3546	3583	3583	3583	3621	3621	3659	3659	3698	3698	3698	3698	3738	3738	3738	3698	3698	3698	3698	3738	3738	3738	3738	3738	3738	3738	3738	3738	3738	3738	3738	3738	3738	3738	3698	3698	3698	3698	3698	3698	3698	3698	3698	3698	3698	3698	3738	3698	3738	3738	3738	3738	3738	3738	3738	3779	3779	3779	3738	3738	3738	3738	3738	3738	3738	3738	3738	3738	3738	3738	3738	3738	3738	3738	3738	3738	3738	3738	3738	3738	3738	3738	3738	3738	3698	3698	3698	3698	3698	3698	3698	3698	3698	3698	3698	3698	3698	3698	3698	3698	3698	3698	3698	3698	3738	3738	3698	3698	3698	3698	3698	3698	3698	3698	3738	3738	3738	3738	3738	3738	3738	3698	3738	3738	3738	3698	3738	3738	3738	3698	3698	2967	2967	2967	2993	2993	2993	2993	3019	2993	2993	2993	2993	2993	2993	2993	2993	2993	2993	3019	3019	2993	2993	2993	3779	3738	3738	3738	3738	3738	3738	3738	3738	3738	3738	3738	3738	3738	3738	3738	3738	3738	3738	3738	3738	3738	3738	3738	3738	3738	3738	3738	3738	3738	3738	3738	3738	3738	3738	3738	3738	3738	3698	3698	3698	3698	3738	3698	3698	3738	3738	3738	3738	3738	3738	3738	3738	3738	3698	3738	3738	3698	3698	3698	3698	3698	3698	3698	3738	3698	3738	3738	3738	3738	3738	3779	3779	3779	3779	3738	3738	3738	3738	3738	3738	3738	3738	3738	3738	3698	3698	3698	3698	3698	3698	3698	3698	3738	3738	3738	3738	3738	3738	3738	3698	3738	3738	3738	3698	3738	3738	3738	3738	3698	3698	3738	3738	3738	3698	3698	3698	3738	3779	3738	3738	3738	3698	3738	3738	3698	3698	3738	3738	3738	3738	3779	3738	3779	3738	3738	3738	3738	3698	3698	3738	3738	3738	3779	3779	3779	3779	3779	3738	3738	3738	3738	3698	3698	3738	3738	3738	3738	3738	3779	3779	3779	3779	3779	3779	3779	3821	3779	3821	3779	3779	3821	3779	3779	3738	3738	3738	3738	3738	3738	3738	3738	3738	3779	3779	3779	3738	3738	3738	3738	3738	3738	3738	3779	3779	3779	3779	3779	3779	3779	3738	3779	3738	3738	3738	3738	3738	3698	3698	3698	3738	3738	3738	3738	3738	3738	3738	3738	3738	3698	3698	3698	3698	3698	3698	3698	3698	3698	3698	3698	3698	3698	3698	3698	3659	3659	3659	3659	3659	3659	3659	3698	3659	3659	3659	3659	3621	3659	3659	3659	3659	3659	3698	3698	3738	3738	3738	3738	3738	3698	3698	3698	3698	3659	3698	3659	3659	3659	3659	0	0	0	0	0	0	0	0	0	0	0	0	0	0	0	0	0	0	0	0	0	0	0	0	0	0	0	0	0	0	0	0	0	0	0	0	0	0	0	0
0	0	0	0	0	0	0	0	0	0	1759	1759	1759	1759	1759	1759	1759	1759	1759	1768	1768	1768	1768	1768	1759	1759	1759	1759	1759	1759	1750	1759	1750	1750	1750	1750	1750	1750	1750	1750	1750	1759	1759	1759	1777	1777	1777	1786	1795	1804	1804	1804	1804	0	2570	2551	2551	2532	2551	2532	2551	2532	2551	2551	2551	2551	2551	2551	2551	2551	2551	2551	2551	2551	2551	2551	2551	2551	2551	2551	2551	2551	2551	2551	2551	2551	2551	2551	2532	2532	2532	2532	2532	2551	2551	2551	2532	2532	2532	2551	2551	2551	2551	2551	2551	2551	2532	2532	2514	2514	2514	2514	2514	2514	2532	2532	2551	2551	2551	2551	2551	2532	2532	2532	2532	2532	2532	2532	2551	2551	2570	2570	2570	2570	2570	3546	3510	3546	3546	3546	3546	3546	3510	3510	3510	3510	3546	3546	3546	3546	3546	3546	3546	3583	3583	3583	3583	3583	3546	3546	3546	3546	3546	3510	3510	3546	3546	3546	3546	3546	3546	3546	3583	3583	3546	3583	3583	3583	3583	3583	3583	3621	3659	3659	3698	3698	3698	3698	3698	3698	3698	3698	3698	3698	3698	3738	3738	3738	3738	3738	3738	3738	3738	3738	3738	3738	3738	3738	3738	3738	3738	3698	3698	3698	3698	3698	3698	3698	3698	3698	3698	3698	3698	3698	3698	3698	3738	3738	3738	3738	3738	3738	3738	3738	3738	3738	3738	3738	3738	3738	3738	3738	3738	3738	3738	3738	3738	3698	3698	3738	3738	3738	3738	3738	3779	3738	3738	3738	3738	3738	3738	3698	3698	3698	3698	3698	3698	3698	3698	3698	3698	3698	3698	3698	3698	3698	3698	3698	3698	3698	3698	3738	3738	3698	3738	3738	3738	3698	3698	3698	3698	3738	3738	3738	3738	3738	3738	3698	3698	3698	3698	3698	3698	3698	3698	3698	3698	3698	3698	2967	3019	2993	3046	3019	3019	3019	2993	2993	2993	2993	2993	2993	2993	2993	3019	3019	3019	3019	2993	2993	2993	2993	3779	3738	3738	3738	3738	3738	3738	3738	3738	3738	3738	3738	3738	3738	3738	3738	3738	3738	3738	3738	3738	3738	3738	3738	3738	3738	3738	3738	3738	3738	3738	3738	3738	3738	3738	3738	3738	3698	3698	3698	3698	3738	3698	3738	3738	3738	3738	3738	3738	3738	3738	3738	3698	3698	3698	3698	3698	3698	3698	3698	3738	3698	3698	3738	3738	3738	3738	3738	3738	3738	3779	3779	3738	3738	3738	3738	3738	3738	3738	3738	3738	3738	3738	3738	3698	3698	3698	3698	3698	3698	3698	3698	3738	3738	3738	3738	3738	3738	3738	3698	3738	3738	3738	3738	3738	3738	3738	3738	3698	3698	3698	3698	3698	3698	3698	3738	3738	3779	3779	3738	3738	3738	3738	3738	3698	3738	3738	3738	3738	3738	3779	3779	3779	3738	3738	3738	3738	3698	3698	3738	3738	3738	3779	3779	3779	3779	3779	3738	3738	3738	3738	3698	3738	3698	3738	3738	3738	3698	3779	3779	3779	3779	3779	3779	3779	3779	3779	3779	3779	3779	3779	3779	3779	3738	3738	3738	3738	3738	3738	3738	3738	3738	3779	3738	3738	3738	3738	3738	3698	3738	3738	3738	3738	3738	3779	3779	3779	3738	3779	3738	3738	3738	3698	3698	3698	3698	3698	3698	3698	3738	3738	3738	3738	3738	3738	3738	3738	3698	3698	3698	3698	3698	3698	3698	3698	3698	3698	3698	3698	3698	3698	3659	3659	3659	3659	3659	3659	3659	3659	3659	3659	3659	3659	3659	3621	3621	3621	3659	3621	3659	3659	3659	3698	3738	3698	3738	3738	3698	3698	3698	3698	3698	3659	3698	3659	3659	3659	3659	0	0	0	0	0	0	0	0	0	0	0	0	0	0	0	0	0	0	0	0	0	0	0	0	0	0	0	0	0	0	0	0	0	0	0	0	0	0	0	0
0	0	0	0	0	0	0	0	0	0	0	1759	1759	1768	1768	1768	1768	1768	1768	1768	1768	1768	1768	1768	1768	1768	1768	1768	1768	1759	1759	1759	1759	1759	1750	1750	1750	1750	1750	1750	1759	1759	1759	1768	1777	1777	1777	1786	1795	1804	1804	1804	1814	1814	1814	2551	2532	2532	2532	2532	2532	2532	2551	2551	2551	2551	2551	2551	2551	2551	2551	2551	2551	2551	2551	2532	2551	2551	2532	2551	2551	2551	2551	2551	2551	2551	2551	2551	2532	2532	2514	2532	2532	2551	2551	2551	2551	2551	2551	2551	2551	2551	2551	2551	2551	2551	2551	2532	2514	2514	2514	2514	2514	2514	2532	2551	2551	2551	2551	2551	2551	2532	2532	2532	2532	2532	2532	2532	2551	2551	2551	2551	2551	2551	3583	3546	3546	3546	3583	3583	3583	3546	3546	3546	3546	3546	3546	3546	3546	3546	3546	3583	3583	3583	3583	3583	3583	3583	3546	3546	3546	3546	3546	3546	3546	3546	3546	3546	3546	3546	3546	3583	3583	3583	3583	3583	3583	3621	3621	3621	3621	3621	3659	3659	3698	3698	3698	3698	3698	3698	3698	3698	3698	3659	3698	3698	3698	3738	3738	3698	3698	3698	3698	3698	3738	3738	3738	3738	3738	3738	3738	3698	3698	3698	3698	3698	3698	3698	3698	3698	3698	3698	3698	3698	3698	3698	3738	3738	3738	3738	3738	3738	3779	3738	3779	3738	3779	3738	3738	3738	3738	3738	3738	3738	3738	3738	3698	3738	3738	3738	3738	3738	3738	3738	3738	3738	3738	3738	3738	3738	3698	3698	3698	3698	3698	3738	3698	3698	3698	3698	3698	3698	3698	3698	3698	3698	3698	3698	3698	3698	3698	3738	3738	3698	3698	3738	3738	3738	3698	3698	3698	3738	3738	3738	3698	3698	3698	3698	3698	3698	3698	3698	3698	3698	3698	3698	3698	3698	3698	2993	3019	3019	3046	3046	3019	3019	3019	2993	2993	2993	2993	2993	2993	3019	3019	3019	3046	3046	3019	3019	2993	2993	3779	3779	3779	3738	3738	3738	3738	3738	3738	3738	3738	3738	3738	3738	3738	3738	3738	3738	3738	3738	3738	3738	3738	3738	3738	3738	3738	3698	3738	3738	3738	3738	3738	3738	3738	3738	3738	3698	3698	3698	3698	3698	3698	3738	3738	3738	3738	3738	3738	3738	3738	3738	3698	3698	3698	3698	3698	3698	3698	3698	3738	3698	3698	3738	3738	3738	3738	3738	3738	3738	3738	3738	3738	3738	3738	3738	3738	3738	3738	3738	3738	3738	3738	3738	3738	3698	3698	3698	3698	3698	3698	3698	3738	3738	3738	3698	3698	3738	3738	3698	3738	3738	3738	3738	3738	3738	3738	3738	3698	3698	3698	3698	3698	3738	3738	3738	3738	3779	3779	3779	3738	3738	3738	3698	3698	3698	3698	3738	3738	3738	3738	3738	3738	3738	3738	3738	3698	3698	3698	3738	3738	3738	3738	3738	3779	3738	3738	3698	3698	3738	3738	3698	3738	3738	3738	3698	3698	3698	3738	3779	3738	3779	3779	3779	3779	3779	3821	3779	3779	3779	3779	3779	3779	3738	3738	3738	3738	3738	3738	3738	3738	3738	3738	3738	3698	3738	3738	3738	3698	3738	3738	3738	3738	3738	3738	3779	3738	3738	3738	3698	3738	3738	3698	3698	3698	3698	3698	3698	3698	3738	3738	3738	3738	3738	3738	3738	3698	3698	3698	3698	3698	3698	3698	3698	3698	3698	3698	3698	3698	3698	3698	3659	3659	3659	3659	3659	3659	3659	3659	3659	3659	3659	3659	3659	3621	3583	3583	3659	3621	3659	3659	3659	3659	3698	3698	3698	3698	3698	3698	3698	3698	3698	3698	3698	3659	3659	3659	3659	0	0	0	0	0	0	0	0	0	0	0	0	0	0	0	0	0	0	0	0	0	0	0	0	0	0	0	0	0	0	0	0	0	0	0	0	0	0	0	0
0	0	0	0	0	0	0	0	0	0	0	1768	1768	1768	1777	1768	1768	1768	1768	1777	1768	1768	1768	1768	1768	1768	1768	1768	1768	1768	1768	1768	1759	1759	1759	1759	1759	1759	1759	1759	1759	1759	1759	1759	1777	1777	1777	1795	1795	1804	1804	1814	1814	1814	1814	1814	2532	2532	2532	2514	2496	2532	2551	2551	2551	2551	2551	2551	2551	2551	2551	2551	2551	2551	2532	2532	2532	2532	2532	2532	2551	2551	2551	2551	2551	2551	2551	2551	2532	2532	2532	2532	2551	2551	2551	2551	2551	2551	2551	2551	2551	2551	2551	2551	2551	2551	2551	2532	2514	2514	2496	2496	2496	2514	2514	2532	2532	2532	2532	2551	2551	2551	2551	2551	2551	2532	2532	2532	2551	2551	2551	2551	2551	2551	3583	3546	3546	3583	3583	3583	3621	3583	3546	3546	3546	3546	3546	3546	3583	3583	3583	3621	3621	3621	3621	3621	3583	3583	3583	3583	3583	3583	3583	3583	3583	3583	3583	3583	3546	3546	3583	3583	3621	3583	3583	3583	3583	3621	3621	3621	3621	3659	3659	3659	3698	3698	3698	3698	3698	3698	3698	3698	3698	3659	3698	3698	3698	3738	3738	3698	3698	3698	3698	3698	3698	3698	3738	3738	3738	3738	3738	3698	3698	3698	3698	3698	3698	3698	3698	3698	3698	3698	3698	3698	3698	3698	3738	3738	3738	3738	3738	3738	3738	3738	3779	3738	3738	3738	3738	3738	3738	3738	3738	3738	3738	3738	3738	3738	3738	3738	3738	3738	3738	3738	3738	3738	3738	3738	3738	3738	3738	3698	3698	3698	3738	3738	3698	3698	3698	3698	3698	3698	3698	3698	3698	3698	3698	3698	3698	3698	3698	3738	3738	3698	3738	3738	3738	3738	3698	3698	3738	3738	3738	3738	3738	3738	3738	3698	3698	3698	3698	3698	3698	3698	3698	3698	3698	3698	3698	2993	3019	3019	3046	3046	3046	3019	3019	3019	3019	3019	3019	3019	3019	3046	3046	3046	3046	3046	3046	3019	3019	3019	3821	3779	3779	3738	3738	3738	3738	3738	3738	3738	3738	3738	3738	3738	3738	3738	3738	3738	3738	3738	3738	3738	3738	3738	3738	3738	3738	3698	3738	3738	3738	3738	3738	3738	3738	3738	3738	3698	3698	3698	3698	3698	3698	3698	3738	3738	3738	3738	3738	3738	3738	3738	3738	3698	3698	3698	3738	3698	3698	3698	3698	3698	3698	3698	3698	3698	3698	3698	3698	3698	3738	3738	3738	3738	3738	3738	3738	3738	3738	3738	3738	3738	3738	3738	3738	3698	3698	3698	3698	3698	3698	3698	3698	3738	3738	3698	3698	3698	3738	3738	3738	3738	3738	3738	3738	3738	3738	3738	3698	3698	3698	3738	3738	3738	3738	3738	3779	3779	3779	3738	3738	3738	3738	3698	3698	3698	3698	3738	3738	3738	3738	3738	3738	3738	3738	3738	3698	3698	3698	3698	3698	3698	3738	3738	3698	3698	3698	3698	3698	3698	3698	3698	3698	3698	3698	3698	3698	3698	3738	3738	3738	3779	3779	3779	3779	3779	3779	3779	3779	3779	3779	3779	3738	3738	3738	3738	3738	3738	3738	3738	3738	3738	3738	3698	3698	3698	3698	3698	3698	3738	3738	3738	3738	3738	3738	3738	3738	3698	3698	3698	3698	3698	3698	3698	3698	3738	3698	3738	3738	3738	3738	3738	3738	3738	3738	3698	3698	3698	3698	3698	3698	3698	3698	3698	3698	3698	3698	3698	3698	3698	3698	3659	3659	3659	3659	3659	3659	3659	3659	3659	3659	3659	3659	3621	3621	3621	3621	3659	3659	3659	3659	3659	3698	3698	3698	3698	3698	3698	3698	3698	3659	3698	3698	3698	3659	3659	3621	3621	0	0	0	0	0	0	0	0	0	0	0	0	0	0	0	0	0	0	0	0	0	0	0	0	0	0	0	0	0	0	0	0	0	0	0	0	0	0	0	0
0	0	0	0	0	0	0	0	0	0	0	1777	1777	1777	1777	1777	1777	1777	1777	1786	1786	1777	1777	1777	1777	1777	1777	1777	1777	1777	1777	1777	1777	1777	1768	1768	1768	1768	1768	1759	1759	1768	1768	1768	1777	1777	1777	1786	1795	1804	1804	1814	1814	1824	1824	1824	1824	1824	2532	2551	2551	2532	2551	2551	2551	2532	2551	2551	2551	2551	2551	2551	2551	2532	2532	2514	2532	2532	2532	2532	2551	2551	2551	2551	2551	2551	2551	2551	2551	2551	2551	2551	2551	2551	2551	2551	2551	2551	2551	2551	2551	2551	2551	2551	2551	2551	2551	2532	2514	2514	2496	2496	2496	2514	2514	2532	2532	2551	2551	2551	2551	2551	2551	2551	2551	2551	2532	2532	2551	2551	2551	2551	2532	2551	2551	3583	3583	3621	3621	3621	3621	3621	3583	3583	3546	3583	3583	3583	3583	3583	3583	3621	3621	3659	3659	3659	3621	3621	3621	3621	3583	3583	3583	3583	3583	3583	3583	3583	3583	3583	3583	3621	3621	3621	3621	3621	3621	3621	3621	3621	3621	3659	3659	3698	3698	3698	3698	3698	3698	3698	3698	3698	3698	3698	3698	3698	3738	3738	3738	3738	3698	3698	3698	3698	3698	3698	3698	3738	3738	3738	3698	3698	3698	3698	3698	3698	3698	3698	3698	3698	3738	3698	3698	3698	3698	3698	3738	3738	3738	3738	3738	3738	3738	3738	3738	3738	3738	3738	3738	3738	3738	3738	3738	3738	3738	3738	3738	3738	3738	3738	3738	3738	3738	3738	3738	3738	3738	3738	3698	3738	3738	3698	3698	3698	3738	3738	3698	3698	3738	3698	3698	3698	3698	3698	3698	3698	3698	3698	3698	3698	3698	3738	3698	3698	3698	3738	3738	3738	3698	3698	3698	3738	3738	3698	3698	3698	3698	3698	3698	3698	3698	3698	3698	3698	3698	3698	3698	3698	3698	3738	3019	3019	3073	3046	3046	3046	3019	3019	3019	3019	3019	3019	3046	3046	3046	3046	3073	3073	3046	3046	3019	3019	3821	3779	3779	3738	3738	3738	3738	3738	3738	3738	3738	3738	3738	3738	3738	3738	3738	3738	3738	3738	3738	3738	3738	3738	3738	3738	3738	3698	3738	3738	3698	3738	3698	3738	3738	3738	3698	3698	3698	3698	3698	3698	3698	3698	3738	3738	3738	3738	3738	3738	3738	3738	3738	3698	3698	3738	3698	3698	3698	3698	3698	3698	3698	3698	3698	3698	3698	3698	3698	3698	3738	3738	3738	3738	3738	3738	3738	3738	3738	3738	3738	3738	3738	3738	3738	3698	3698	3738	3698	3698	3698	3698	3698	3738	3698	3698	3698	3698	3738	3738	3738	3738	3738	3738	3738	3738	3738	3738	3738	3698	3738	3738	3738	3738	3738	3738	3779	3779	3779	3738	3738	3738	3738	3698	3698	3698	3698	3738	3738	3738	3738	3738	3738	3738	3738	3738	3738	3698	3698	3698	3698	3698	3698	3698	3698	3698	3698	3659	3698	3698	3698	3698	3698	3698	3698	3698	3698	3659	3738	3738	3738	3738	3738	3738	3738	3779	3779	3738	3738	3779	3779	3738	3738	3738	3738	3738	3738	3738	3738	3738	3738	3738	3738	3698	3698	3698	3698	3698	3698	3698	3738	3738	3738	3738	3698	3738	3698	3698	3698	3698	3698	3698	3698	3698	3698	3738	3698	3738	3738	3738	3738	3738	3738	3738	3738	3698	3698	3698	3698	3698	3698	3698	3698	3698	3698	3698	3698	3698	3698	3698	3698	3659	3659	3659	3659	3659	3659	3659	3659	3659	3659	3659	3659	3621	3583	3621	3621	3659	3659	3659	3659	3659	3659	3698	3698	3698	3698	3698	3698	3698	3659	3698	3698	3698	3659	3659	3621	3621	0	0	0	0	0	0	0	0	0	0	0	0	0	0	0	0	0	0	0	0	0	0	0	0	0	0	0	0	0	0	0	0	0	0	0	0	0	0	0	0
0	0	0	0	0	0	0	0	0	0	0	1786	1786	1786	1786	1786	1786	1786	1786	1786	1786	1786	1786	1786	1786	1786	1786	1786	1777	1777	1777	1777	1777	1777	1768	1768	1768	1768	1768	1768	1768	1768	1768	1768	1777	1777	1777	1786	1795	1804	1814	1814	1824	1824	1824	1833	1833	1833	1843	1843	2551	2551	2551	2551	2551	2551	2551	2551	2551	2551	2551	2551	2532	2532	2532	2514	2514	2532	2514	2532	2532	2551	2551	2551	2551	2551	2551	2551	2551	2551	2551	2551	2551	2551	2551	2551	2551	2551	2551	2551	2551	2551	2551	2551	2551	2551	2551	2532	2532	2532	2514	2496	2514	2514	2514	2532	2532	2551	2551	2551	2551	2551	2532	2532	2551	2532	2532	2532	2551	2551	2551	2551	2532	2532	3583	3583	3583	3621	3659	3621	3659	3621	3621	3583	3621	3621	3621	3621	3621	3583	3621	3621	3621	3621	3621	3621	3621	3621	3621	3621	3621	3621	3621	3583	3621	3621	3621	3583	3583	3583	3621	3621	3621	3621	3621	3621	3621	3659	3659	3621	3659	3659	3659	3698	3698	3698	3698	3698	3659	3659	3659	3659	3659	3659	3698	3698	3738	3738	3738	3738	3738	3738	3698	3698	3698	3698	3698	3698	3698	3698	3698	3698	3698	3698	3698	3698	3698	3698	3698	3698	3698	3698	3698	3698	3698	3698	3738	3738	3738	3738	3738	3738	3738	3738	3738	3738	3738	3738	3738	3738	3738	3738	3738	3738	3738	3738	3738	3738	3738	3738	3738	3738	3738	3738	3738	3738	3738	3738	3698	3698	3698	3698	3698	3698	3698	3738	3698	3698	3738	3698	3698	3698	3698	3698	3698	3698	3698	3698	3698	3698	3698	3738	3738	3698	3698	3738	3738	3738	3698	3698	3698	3698	3698	3698	3698	3698	3698	3698	3698	3698	3698	3698	3698	3698	3698	3698	3698	3698	3698	3738	3019	3046	3073	3046	3046	3046	3046	3046	3019	3019	3019	3046	3046	3046	3073	3073	3073	3073	3046	3046	3046	3046	3821	3779	3779	3738	3738	3738	3738	3738	3738	3738	3738	3738	3738	3738	3738	3738	3738	3738	3738	3738	3738	3738	3738	3738	3738	3738	3698	3698	3738	3698	3698	3738	3698	3738	3698	3698	3698	3698	3698	3698	3698	3698	3698	3738	3738	3738	3738	3738	3738	3738	3738	3738	3738	3698	3698	3738	3738	3698	3698	3698	3698	3698	3698	3698	3698	3698	3698	3698	3698	3698	3738	3738	3738	3738	3738	3738	3738	3738	3738	3738	3738	3738	3738	3738	3738	3738	3738	3738	3738	3698	3738	3698	3738	3738	3698	3698	3698	3698	3698	3698	3738	3738	3738	3738	3738	3738	3738	3738	3738	3698	3738	3738	3738	3738	3738	3779	3779	3779	3779	3738	3738	3738	3738	3698	3698	3698	3698	3698	3698	3698	3738	3738	3738	3738	3738	3738	3738	3738	3738	3698	3698	3659	3659	3659	3659	3659	3659	3659	3659	3698	3659	3659	3659	3659	3659	3659	3659	3659	3698	3698	3698	3698	3698	3738	3738	3738	3738	3738	3738	3779	3738	3738	3738	3738	3738	3738	3738	3738	3738	3738	3738	3738	3738	3698	3698	3698	3698	3698	3698	3738	3738	3738	3738	3738	3738	3738	3698	3698	3698	3698	3698	3698	3698	3698	3698	3698	3738	3738	3738	3738	3738	3738	3738	3738	3698	3698	3698	3698	3698	3698	3698	3698	3698	3698	3698	3698	3698	3698	3698	3659	3659	3659	3659	3659	3659	3659	3659	3659	3659	3659	3659	3621	3621	3659	3621	3659	3621	3659	3659	3659	3659	3698	3698	3698	3698	3698	3698	3698	3698	3698	3659	3659	3698	3698	3659	3621	3621	3621	0	0	0	0	0	0	0	0	0	0	0	0	0	0	0	0	0	0	0	0	0	0	0	0	0	0	0	0	0	0	0	0	0	0	0	0	0	0	0	0
