0	0	0	0	795	795	795	797	798	798	800	802	804	804	817	819	819	819	821	823	823	823	825	835	837	841	845	848	850	852	854	854	856	862	867	869	869	871	873	875	878	887	889	891	894	898	898	901	903	913	913	917	917	932	935	937	937	940	953	955	958	961	963	969	969	977	983	985	988	991	994	997	1003	1006	1006	1014	1017	1023	1030	1036	1052	1058	1058	1061	1064	1068	1068	1071	1071	1078	1081	1085	1088	1088	1088	1091	1091	1091	0	0	0	0	0	0	0	0	0	4771	4771	4706	4706	4706	4706	4706	4706	4706	4771	4771	4771	4771	4771	4771	4771	4771	4771	4771	4771	4706	4706	4706	4771	4771	4771	4771	4771	4771	4771	4771	4771	4771	4771	4771	4771	4706	4771	4706	4706	4706	4706	4706	4706	4643	4581	4406	4406	6468	6235	6235	6235	6235	6235	6235	6235	6235	6235	6235	6235	6235	6349	6349	6349	6349	6349	6349	6349	6349	6349	6349	6349	6235	6235	6235	6124	6124	6124	6124	6124	6235	6124	6124	6235	6235	6235	7608	7608	7779	7608	7779	7779	7959	7779	7959	7959	7959	7779	7779	7779	7779	7779	7779	7779	7779	7959	7959	7959	7959	7959	7959	7959	7959	7959	7779	7959	7959	7959	7959	7959	7959	7959	8146	8146	7959	7959	7959	7959	7959	7959	7959	7959	7959	7959	7959	7959	7959	7959	7959	7779	7779	7959	7779	7959	7959	7959	7959	8146	8146	8146	8146	8146	8146	8343	8343	8343	8343	8343	8343	8343	8343	8343	8146	8146	8146	3864	3864	8343	3821	3821	3821	3779	3779	3738	3738	3738	3738	3738	3738	3738	3698	3738	3738	3738	3738	3738	3738	3738	3738	3738	3738	3738	3738	3738	3779	3779	3779	3779	3779	3738	3738	3738	3738	3738	3698	3698	3698	3738	3738	3738	3738	3779	3779	3779	3779	3779	3779	3779	3779	4906	4771	4771	4706	4643	4706	4643	4706	4706	4706	4706	4771	4771	4771	4706	4706	4706	4706	4706	4706	4706	4706	4706	4706	4706	4643	4643	4581	4521	4521	4521	4521	4521	4521	4581	4581	4643	4643	4643	4643	4643	4643	4643	4643	4643	4643	4706	4706	4706	4706	4643	4643	4643	4706	4643	4706	4706	4771	4771	4706	4771	4706	4706	4643	4643	4643	4643	4643	4581	4581	4581	4581	4581	4581	4581	4581	4581	4581	4581	4581	4581	4581	4581	4581	4643	4706	4706	4706	4706	4706	4706	4643	4643	4581	4581	4581	4581	4581	4521	4521	4521	4463	4521	4581	4581	4581	4643	4643	4706	4643	4581	4581	4643	4643	4643	4581	4643	4643	4643	4643	4581	4581	4581	4643	4581	4581	4581	4581	4581	4581	4581	4581	4581	4581	4581	4581	4581	4581	4581	4581	4581	4581	4643	4581	4581	4581	4581	4581	4581	4643	4643	4581	4581	4706	4706	4706	4643	4643	4643	4643	4643	4581	4581	4521	4521	4521	4521	4463	4406	4406	4406	4406	4350	4406	4463	4521	4581	4581	4643	4581	4581	4643	4643	7779	7779	7779	7959	7959	7959	7959	7959	7959	7959	7959	7959	7959	7959	7959	7779	7608	7608	7608	7608	7608	7779	7779	7779	7959	7959	7959	7959	7959	7959	7959	7779	7779	7779	7779	7779	7779	7779	7779	7779	0	0	0	0	0	7959	7779	7779	7779	7779	7959	7959	7959	7959	7959	8146	8146	7959	7959	7959	7959	0	0	0	5448	5448	5719	5719	5719	5719	5626	5626	5626	5535	5535	5535	5448	5448	5626	5626	5815	5815	5915	5915	5915	0	0	0	0	0	0	0	0	0	0	0	0	0	0	0	0	0	0	0	0	0	0	0	0	0	0	0	0	0	0	0	0	0	0	0	0	0	0	0	0	0	0	0	0	0	0
0	0	0	0	797	797	797	797	797	797	798	804	806	812	817	817	819	819	819	821	821	821	823	835	837	839	845	848	850	852	854	856	856	860	862	867	867	869	873	875	880	887	889	891	896	898	901	901	905	913	913	915	922	932	935	937	937	942	953	955	958	961	961	966	969	977	983	985	988	991	997	997	1006	1008	1014	1017	1017	1020	1030	1033	1048	1058	1058	1061	1064	1064	1068	1071	1074	1078	1081	1085	1085	1088	1088	1088	1088	1088	0	0	0	0	0	0	0	0	0	4771	4771	4706	4706	4706	4706	4706	4706	4706	4771	4771	4771	4771	4771	4771	4771	4771	4706	4706	4706	4706	4706	4706	4771	4771	4771	4771	4771	4771	4771	4706	4771	4771	4771	4706	4771	4706	4771	4706	4706	4706	4706	4706	4706	4643	4581	4463	4463	6349	6235	6235	6235	6235	6124	6124	6124	6124	6235	6235	6235	6235	6235	6235	6235	6235	6349	6349	6349	6349	6235	6349	6349	6235	6235	6235	6124	6124	6124	6124	6124	6235	6124	6124	6124	6124	6124	7608	7608	7608	7608	7779	7779	7779	7779	7959	7779	7959	7779	7779	7779	7779	7779	7779	7779	7779	7959	7959	7959	7959	7959	7959	7959	7959	7959	7779	7959	7959	7959	7959	7959	7959	7959	8146	8146	7959	7959	7779	7959	7779	7779	7779	7779	7959	7959	7959	7959	7959	7959	7959	7779	7959	7959	7959	7959	7959	7959	8146	8146	8146	8146	8146	8146	8146	8343	8343	8343	8343	8343	8343	8343	8146	8146	8146	8146	8343	8343	8343	8343	3821	3821	3779	3779	3779	3738	3738	3738	3738	3738	3738	3738	3738	3738	3738	3738	3738	3738	3738	3738	3738	3738	3738	3738	3738	3779	3779	3821	3821	3779	3779	3738	3738	3738	3738	3738	3698	3698	3698	3738	3738	3738	3738	3738	3779	3779	3779	3779	3779	3779	4977	4906	4771	4771	4706	4643	4706	4643	4706	4706	4706	4706	4771	4771	4706	4706	4706	4706	4706	4706	4706	4706	4706	4706	4706	4706	4643	4643	4581	4521	4521	4463	4521	4521	4521	4581	4581	4643	4643	4643	4643	4643	4643	4643	4643	4706	4706	4706	4706	4706	4706	4706	4706	4706	4706	4706	4706	4706	4706	4706	4706	4706	4706	4706	4643	4643	4643	4643	4643	4581	4581	4581	4581	4521	4521	4521	4581	4581	4581	4581	4581	4521	4581	4581	4581	4643	4643	4643	4706	4706	4706	4706	4643	4643	4581	4581	4581	4581	4581	4581	4521	4463	4463	4463	4521	4581	4581	4643	4643	4706	4643	4643	4581	4643	4643	4643	4581	4581	4581	4643	4643	4581	4581	4581	4581	4581	4581	4581	4581	4581	4581	4581	4581	4581	4581	4581	4581	4581	4581	4581	4581	4581	4581	4643	4643	4581	4643	4643	4581	4643	4643	4643	4643	4643	4706	4706	4706	4643	4643	4581	4581	4643	4581	4521	4521	4521	4521	4521	4463	4463	4406	4406	4406	4350	4350	4406	4521	4581	4581	4581	4581	4581	4643	4643	7959	7959	7959	7959	7959	7959	7959	7959	7959	7959	7959	7959	7959	7959	7959	7779	7608	7779	7608	7608	7608	7779	7779	7779	7959	7959	7959	7959	7959	7959	7779	7779	7779	7444	7608	7444	7444	7779	7779	0	0	0	0	0	0	7959	7779	7779	7779	7779	7959	7959	7959	7959	7959	7959	7959	7779	7779	7779	7779	0	0	0	5448	5448	5815	5719	5719	5719	5626	5535	5626	5535	5535	5535	5535	5448	5535	5719	5815	5915	5915	6018	5915	5815	5815	0	0	0	0	0	0	0	0	0	0	0	0	0	0	0	0	0	0	0	0	0	0	0	0	0	0	0	0	0	0	0	0	0	0	0	0	0	0	0	0	0	0	0	0
0	0	0	0	793	795	795	795	797	795	798	804	806	815	817	819	819	819	819	821	821	823	827	833	835	837	845	848	850	852	854	856	856	860	862	867	869	871	875	878	880	889	889	891	894	896	903	903	910	913	913	915	920	930	935	937	937	945	953	955	958	958	958	961	963	972	983	985	988	991	994	1000	1006	1008	1014	1014	1017	1017	1030	1036	1048	1058	1058	1061	1064	1068	1071	1071	1074	1078	1081	1085	1088	1088	1088	1091	1091	1095	1095	0	0	0	0	0	0	0	0	4771	4771	4771	4706	4706	4706	4706	4706	4706	4771	4771	4771	4771	4771	4771	4706	4706	4706	4706	4706	4706	4706	4706	4771	4771	4771	4771	4771	4771	4771	4706	4771	4706	4706	4706	4706	4706	4706	4706	4706	4706	4706	4706	4706	4643	4643	4463	4406	4406	6235	6235	6235	6124	6124	6124	6124	6124	6235	6124	6235	6235	6235	6235	6235	6235	6349	6349	6235	6349	6235	6349	6349	6235	6235	6235	6124	6124	6124	6124	6124	6124	6124	6124	6235	6235	6235	7444	7444	7608	7608	7608	7779	7779	7779	7779	7779	7779	7779	7779	7779	7779	7779	7779	7779	7959	8146	8146	8146	8146	8146	7959	7959	7959	7959	7779	7959	7959	7959	8146	7959	7959	7959	8146	8146	7959	7959	7959	7779	7779	7779	7779	7779	7959	7959	7959	7959	7959	7959	7959	7959	7959	7959	7959	7959	7959	7959	8146	7959	8146	8146	8146	8146	8146	8146	8343	8146	8146	8146	8146	8146	8146	8146	8146	8343	8343	8343	8343	8343	3821	3821	3779	3779	3779	3738	3738	3738	3738	3738	3738	3738	3738	3738	3738	3738	3738	3738	3738	3738	3738	3738	3738	3779	3779	3779	3821	3864	3864	3821	3779	3779	3738	3738	3738	3738	3698	3698	3698	3738	3738	3738	3738	3738	3779	3779	3779	3779	3779	3779	4977	4906	4838	4771	4706	4706	4706	4706	4706	4706	4706	4706	4706	4706	4706	4706	4706	4706	4706	4706	4706	4706	4706	4706	4706	4706	4643	4643	4581	4521	4521	4463	4463	4521	4521	4581	4643	4643	4643	4643	4643	4643	4643	4643	4643	4643	4643	4643	4643	4706	4706	4706	4706	4643	4706	4643	4643	4706	4706	4643	4643	4706	4643	4643	4643	4643	4643	4643	4643	4581	4581	4581	4521	4521	4521	4521	4521	4521	4521	4521	4521	4521	4521	4521	4581	4581	4643	4643	4643	4643	4643	4643	4643	4581	4581	4581	4581	4581	4581	4521	4521	4463	4406	4406	4463	4581	4581	4581	4643	4706	4643	4581	4581	4643	4643	4643	4581	4581	4643	4643	4643	4581	4581	4643	4581	4581	4581	4581	4581	4643	4581	4581	4581	4581	4581	4581	4581	4581	4581	4581	4581	4581	4581	4581	4581	4581	4581	4581	4581	4643	4643	4643	4643	4643	4643	4643	4643	4643	4581	4581	4581	4581	4581	4521	4521	4521	4521	4521	4463	4463	4350	4406	4350	4350	4350	4463	4521	4581	4581	4581	4581	4581	4643	4706	4838	4838	7959	7959	7959	7959	7959	7959	7959	7959	7959	7959	7959	7959	7779	7779	7608	7608	7608	7608	7608	7779	7779	7959	7959	7959	7959	7959	7959	7779	7779	7608	7779	7287	7287	7137	7137	0	0	0	0	0	0	0	0	0	0	0	0	7779	7959	7959	7779	7959	7959	7959	7959	7779	7779	7779	7779	0	0	0	0	5915	5815	5719	5719	5719	5626	5626	5535	5535	5535	5448	5448	5448	5535	5535	5719	5815	6018	6018	6018	5915	5915	0	0	0	0	0	0	0	0	0	0	0	0	0	0	0	0	0	0	0	0	0	0	0	0	0	0	0	0	0	0	0	0	0	0	0	0	0	0	0	0	0	0	0	0
0	0	0	0	791	791	793	793	795	795	797	802	806	817	819	819	819	819	819	821	821	823	825	833	835	837	843	845	850	852	854	856	856	862	867	869	869	871	875	880	884	889	891	891	894	898	903	901	910	913	915	917	922	927	930	932	937	940	953	953	958	958	958	961	963	974	983	985	988	988	994	1003	1008	1011	1014	1017	1017	1020	1030	1030	1045	1055	1055	1058	1064	1068	1071	1071	1074	1078	1081	1085	1088	1088	1091	1095	1095	1098	1098	0	0	0	0	0	0	0	0	4771	4771	4706	4706	4706	4706	4706	4706	4771	4771	4771	4771	4771	4771	4771	4706	4706	4706	4706	4706	4706	4706	4771	4771	4771	4771	4771	4706	4706	4706	4706	4706	4706	4706	4706	4706	4706	4706	4706	4706	4706	4706	4706	4706	4706	4643	4521	4463	6235	6235	6235	6235	6124	6124	6124	6124	6124	6124	6124	6235	6235	6235	6235	6235	6235	6349	6235	6235	6235	6235	6235	6349	6235	6235	6235	6235	6235	6124	6124	6124	6235	6235	6124	6235	6349	6349	7444	7444	7608	7608	7608	7608	7779	7779	7779	7779	7779	7779	7779	7779	7779	7779	7779	7779	7959	8146	8146	8146	8146	8146	7959	7959	7959	7959	7779	7779	7779	7959	7959	7959	7959	7959	7959	8146	7959	7959	7779	7779	7779	7779	7779	7959	7959	7959	7959	7959	8146	8146	7959	7959	7959	7959	7959	7959	7959	8146	8146	8146	8146	8146	8146	8146	8146	8146	8343	8146	8146	8146	8343	8146	8146	8343	8343	8343	8343	8343	8343	0	3821	3821	3779	3779	3779	3738	3738	3738	3738	3738	3738	3738	3738	3738	3738	3738	3738	3738	3738	3738	3738	3738	3738	3779	3779	3779	3821	3821	3821	3821	3779	3779	3779	3738	3738	3738	3698	3698	3698	3738	3738	3738	3738	3738	3779	3779	3779	3779	3779	3779	4977	4906	4838	4771	4771	4706	4771	4706	4771	4706	4706	4706	4706	4771	4706	4706	4706	4706	4706	4706	4706	4706	4706	4706	4706	4706	4643	4643	4581	4521	4463	4463	4463	4521	4521	4581	4643	4706	4706	4643	4643	4643	4643	4643	4643	4643	4643	4706	4643	4706	4706	4706	4706	4643	4706	4706	4643	4706	4643	4643	4643	4643	4643	4643	4643	4643	4643	4643	4581	4581	4581	4521	4521	4521	4521	4463	4521	4521	4521	4521	4521	4521	4521	4521	4581	4581	4643	4643	4643	4643	4643	4643	4643	4706	4643	4643	4581	4643	4581	4521	4463	4406	4350	4350	4521	4521	4581	4581	4643	4706	4643	4643	4643	4643	4643	4643	4643	4643	4643	4643	4643	4581	4581	4581	4581	4581	4581	4643	4643	4643	4643	4643	4581	4581	4581	4581	4581	4581	4581	4581	4581	4581	4581	4581	4581	4581	4581	4581	4581	4643	4643	4643	4643	4643	4643	4643	4643	4643	4581	4581	4581	4581	4581	4521	4521	4521	4521	4521	4521	4463	4406	4406	4350	4350	4350	4406	4463	4521	4581	4581	4581	4581	4643	4706	4838	4838	4581	4581	8146	7959	7959	7959	7959	7959	7959	7959	7959	7959	7959	7779	7779	7779	7779	7608	7608	7779	7779	7959	7959	7959	7959	7959	7779	7779	7608	7444	7287	7137	7137	7137	6992	6992	0	0	0	0	0	0	0	0	0	0	0	0	7959	7959	7779	7959	7959	7959	7779	7779	7779	7779	0	0	0	0	0	6018	5815	5815	5719	5719	5626	5626	5626	5535	5535	5535	5535	5448	5535	5626	5626	5815	6018	6124	6124	6124	6124	0	0	0	0	0	0	0	0	0	0	0	0	0	0	0	0	0	0	0	0	0	0	0	0	0	0	0	0	0	0	0	0	0	0	0	0	0	0	0	0	0	0	0	0
0	0	0	0	788	789	791	793	793	795	798	800	814	817	817	819	819	819	819	821	821	823	827	833	835	837	843	843	850	852	854	856	856	860	865	869	869	871	875	880	884	891	894	894	894	898	901	901	908	913	915	920	925	925	930	935	937	942	953	955	958	958	958	961	966	972	980	985	985	988	991	1000	1006	1011	1014	1017	1017	1020	1026	1030	1048	1055	1055	1058	1061	1068	1071	1071	1078	1081	1085	1085	1088	1088	1091	1095	1095	1095	1098	0	0	0	0	0	0	0	4771	4771	4771	4771	4706	4706	4706	4771	4706	4771	4771	4771	4771	4771	4771	4771	4706	4706	4706	4706	4706	4706	4706	4706	4706	4706	4706	4706	4706	4706	4706	4706	4706	4706	4706	4706	4706	4706	4706	4706	4706	4706	4706	4706	4706	4643	4581	4521	4463	6235	6235	6235	6235	6124	6124	6124	6124	6124	6124	6124	6124	6235	6235	6235	6235	6235	6235	6235	6349	6235	6235	6235	6349	6235	6235	6235	6124	6124	6124	6124	6124	6124	6124	6124	6235	6124	7444	7444	7608	7608	7608	7608	7779	7779	7779	7779	7779	7779	7779	7779	7779	7779	7779	7779	7779	7959	8146	8146	8146	7959	8146	7959	7959	7959	7959	7959	7779	7959	7959	8146	7959	7959	7959	7959	8146	7959	7959	7779	7779	7779	7779	7779	7779	7959	7959	7959	8146	8146	8146	8146	8146	8146	8146	7959	8146	8146	8146	8146	8146	8146	8146	8146	8146	8146	8146	8146	8146	8146	8146	8146	8146	8146	8343	8343	8343	8343	8550	8550	0	3864	3821	3821	3821	3779	3738	3738	3738	3738	3738	3738	3738	3738	3738	3738	3738	3738	3738	3738	3738	3738	3738	3738	3779	3779	3779	3779	3864	3821	3821	3779	3738	3738	3738	3738	3738	3738	3698	3698	3738	3738	3738	3738	3738	3779	3779	3779	3779	3779	3779	4977	4906	4838	4771	4771	4706	4771	4771	4771	4771	4771	4771	4771	4771	4706	4706	4706	4706	4706	4706	4706	4706	4706	4706	4706	4706	4643	4643	4581	4521	4463	4463	4463	4521	4581	4581	4643	4643	4706	4643	4643	4643	4643	4643	4643	4643	4706	4706	4643	4706	4643	4643	4643	4643	4643	4643	4643	4643	4643	4643	4643	4643	4643	4643	4643	4643	4643	4643	4581	4581	4581	4521	4521	4521	4463	4463	4521	4521	4521	4521	4521	4521	4521	4521	4581	4581	4581	4643	4643	4643	4643	4643	4643	4706	4706	4643	4643	4643	4581	4581	4463	4350	4350	4350	4350	4521	4521	4581	4643	4643	4643	4643	4643	4643	4643	4643	4643	4643	4643	4643	4643	4581	4581	4581	4581	4581	4581	4581	4643	4581	4581	4581	4581	4581	4581	4581	4581	4581	4581	4581	4581	4581	4581	4581	4581	4581	4581	4581	4581	4643	4643	4643	4643	4643	4643	4643	4643	4643	4581	4581	4581	4581	4581	4521	4521	4521	4521	4521	4463	4463	4406	4406	4350	4350	4350	4406	4463	4521	4581	4581	4581	4581	4581	4643	4643	4643	4521	4521	8550	8343	8146	8146	7959	7959	7959	7959	7959	7959	7779	7779	7779	7779	7779	7608	7608	7779	7779	7779	7959	7959	7959	7959	7779	7608	7444	7287	7137	7137	7137	6992	6992	6992	0	0	0	0	0	0	0	0	0	0	0	0	0	0	0	7959	7959	7959	7779	7779	7779	7779	0	0	0	0	0	5915	5815	5719	5719	5719	5626	5535	5535	5535	5448	5535	5448	5448	5448	5535	5535	6124	6124	6124	6124	6124	6124	0	0	0	0	0	0	0	0	0	0	0	0	0	0	0	0	0	0	0	0	0	0	0	0	0	0	0	0	0	0	0	0	0	0	0	0	0	0	0	0	0	0	0	0
0	0	0	0	788	789	791	791	793	793	797	798	798	817	817	819	819	819	819	821	821	823	829	833	835	835	839	839	850	852	854	856	856	860	865	869	871	873	880	882	887	889	889	891	894	898	898	903	910	913	917	920	925	930	932	935	937	940	953	955	958	958	958	961	966	974	980	985	985	988	991	1000	1008	1011	1017	1017	1017	1020	1023	1026	1048	1052	1055	1058	1061	1064	1068	1071	1078	1081	1085	1085	1088	1088	1091	1095	1095	1095	0	0	0	0	0	0	0	0	4838	4771	4771	4771	4706	4706	4706	4771	4706	4771	4771	4771	4771	4706	4706	4706	4706	4706	4706	4706	4706	4706	4706	4706	4706	4771	4706	4706	4706	4706	4706	4706	4706	4706	4706	4706	4706	4706	4706	4706	4706	4706	4706	4643	4643	4643	4581	4521	4521	6349	6235	6235	6235	6124	6124	6124	6124	6124	6124	6124	6124	6235	6235	6235	6235	6349	6349	6349	6349	6235	6235	6235	6349	6235	6235	6124	6124	6124	6124	6124	6124	6124	6124	6124	6124	6124	7444	7444	7608	7608	7608	7608	7779	7779	7779	7779	7779	7779	7779	7779	7779	7779	7779	7779	7779	7959	7959	7959	7959	7959	7959	7959	7959	7959	7959	7959	7779	7959	7959	7959	7959	7959	7959	7959	7959	7959	7959	7779	7779	7779	7779	7779	7779	7959	7959	7959	8146	8146	8146	8146	8146	8146	8146	8146	8146	8146	8146	8146	8146	8146	8146	8146	8146	8146	8146	8146	8146	8146	8146	8146	8146	8146	8343	8343	8343	8550	8550	8550	0	3864	3779	3821	3821	3779	3779	3738	3738	3738	3738	3738	3738	3738	3738	3738	3738	3738	3738	3738	3738	3738	3738	3779	3779	3779	3779	3779	3864	3779	3779	3738	3738	3738	3738	3738	3738	3738	3738	3698	3738	3738	3738	3738	3738	3738	3779	3779	3779	3779	3779	4977	4906	4838	4771	4771	4706	4771	4771	4771	4771	4771	4771	4706	4706	4706	4706	4706	4706	4706	4706	4706	4706	4706	4643	4643	4643	4643	4643	4581	4521	4521	4521	4521	4581	4581	4581	4643	4706	4643	4643	4643	4643	4643	4643	4643	4643	4706	4706	4643	4706	4643	4643	4643	4643	4643	4643	4643	4643	4643	4643	4643	4643	4643	4643	4581	4643	4643	4643	4581	4581	4581	4521	4521	4463	4463	4463	4521	4521	4521	4521	4521	4521	4521	4521	4581	4581	4581	4643	4643	4643	4643	4643	4643	4643	4581	4581	4581	4581	4581	4521	4406	4350	4350	4296	4350	4350	4521	4521	4643	4643	4643	4643	4643	4643	4643	4643	4643	4643	4581	4643	4643	4581	4581	4581	4581	4581	4581	4581	4643	4581	4581	4581	4581	4581	4581	4581	4581	4581	4581	4581	4581	4581	4581	4581	4581	4581	4581	4581	4581	4581	4581	4643	4643	4643	4643	4643	4643	4643	4581	4581	4581	4581	4581	4521	4521	4521	4521	4521	4463	4463	4406	4406	4350	4350	4350	4350	4406	4463	4521	4521	4581	4643	4643	4643	4706	4643	4643	4643	8343	8343	8146	8146	8146	7959	7959	7959	7959	7959	7959	7779	7779	7779	7779	7608	7608	7779	7779	7959	7959	7959	7959	7779	7779	7608	7287	7137	7137	7137	6992	6992	6853	6853	0	0	0	0	0	0	0	0	0	0	0	0	0	0	0	0	0	0	0	7608	7608	0	0	0	0	0	0	5815	5719	5626	5626	5535	5535	5535	5448	5448	5448	5448	5448	5448	5448	5535	5719	5719	5815	6018	6124	6018	6124	6124	0	0	0	0	0	0	0	0	0	0	0	0	0	0	0	0	0	0	0	0	0	0	0	0	0	0	0	0	0	0	0	0	0	0	0	0	0	0	0	0	0	0	0
0	0	0	0	784	786	788	789	791	793	795	797	797	817	817	817	819	819	819	821	823	823	829	833	835	835	839	839	837	854	856	856	858	862	865	867	869	871	878	882	887	887	889	891	894	898	903	903	910	913	917	920	925	927	930	935	937	940	948	953	958	958	961	963	969	972	980	985	985	988	988	1000	1008	1011	1014	1014	1017	1020	1023	1026	1045	1048	1055	1058	1061	1064	1068	1071	1074	1078	1081	1085	1085	1088	1091	1095	1095	1095	0	0	0	0	0	0	0	0	4838	4771	4771	4771	4706	4706	4706	4771	4706	4706	4771	4706	4706	4706	4706	4706	4706	4706	4706	4706	4706	4706	4706	4771	4771	4771	4706	4706	4706	4706	4706	4706	4706	4706	4706	4706	4706	4706	4706	4706	4643	4643	4643	4643	4643	4643	4643	4521	4521	6349	6235	6235	6235	6124	6124	6235	6124	6124	6124	6124	6124	6235	6235	6235	6235	6349	6349	6349	6349	6349	6349	6235	6349	6235	6235	6235	6124	6124	6124	6124	6124	6124	6124	6124	6124	6124	6124	7608	7608	7779	7608	7608	7779	7779	7779	7779	7779	7779	7779	7779	7779	7779	7959	7779	7779	7959	7959	7959	7959	7959	7959	7959	7779	7959	7959	7959	7779	7959	7959	7959	7959	7959	7959	7959	7959	7959	7779	7779	7779	7779	7779	7779	7779	7959	7959	7959	7959	8146	8146	8146	8146	8146	8146	8146	8146	8146	7959	8146	8146	8146	8146	8146	8146	8146	8146	8146	8146	8146	8146	8146	8146	8343	8343	8343	8343	8550	8550	8550	0	0	3779	3779	3821	3779	3779	3738	3738	3738	3738	3738	3738	3738	3738	3738	3738	3738	3738	3738	3738	3738	3738	3779	3779	3821	3821	3864	3864	3779	3779	3738	3738	3738	3738	3738	3738	3738	3738	3698	3738	3738	3738	3738	3738	3738	3779	3779	3779	3779	3779	4977	4906	4838	4771	4771	4706	4771	4771	4771	4771	4771	4771	4771	4771	4706	4706	4706	4706	4706	4706	4706	4643	4706	4643	4643	4643	4581	4581	4581	4581	4521	4463	4521	4521	4581	4581	4581	4706	4706	4706	4643	4706	4643	4643	4643	4643	4706	4706	4643	4643	4581	4581	4643	4581	4643	4643	4643	4643	4643	4643	4643	4643	4643	4643	4581	4581	4581	4581	4581	4581	4521	4463	4521	4463	4463	4463	4463	4463	4521	4521	4521	4521	4521	4521	4581	4581	4581	4643	4643	4643	4643	4643	4643	4643	4581	4581	4581	4581	4521	4521	4463	4350	4350	4296	4350	4463	4521	4521	4581	4643	4643	4643	4643	4643	4706	4643	4643	4643	4643	4643	4643	4581	4581	4581	4581	4643	4581	4581	4643	4581	4581	4581	4581	4581	4581	4581	4581	4581	4581	4581	4581	4581	4581	4581	4581	4581	4581	4581	4581	4581	4643	4643	4643	4643	4643	4643	4643	4581	4581	4581	4581	4581	4581	4521	4521	4521	4521	4463	4521	4463	4463	4406	4406	4350	4296	4350	4350	4406	4521	4581	4581	4643	4643	4771	4771	4838	4643	4643	8767	8550	8343	8146	8146	7959	7959	7959	7959	7959	7959	7779	7779	7779	7779	7608	7779	7779	7779	7959	7959	7959	7959	7779	7608	7287	7137	7137	7137	7137	6992	6992	6853	6853	0	0	7137	7137	0	0	0	0	0	0	0	0	0	0	0	0	0	0	0	7608	7608	0	0	0	0	0	0	5815	5815	5719	5626	5626	5535	5535	5448	5448	5448	5448	5448	5448	5448	5535	5626	5719	5815	5815	5719	5815	5815	5815	0	0	0	0	0	0	0	0	0	0	0	0	0	0	0	0	0	0	0	0	0	0	0	0	0	0	0	0	0	0	0	0	0	0	0	0	0	0	0	0	0	0	0
0	0	0	0	784	786	788	789	791	791	795	797	797	814	814	817	817	817	819	821	823	823	827	831	833	835	837	837	839	852	856	858	862	862	867	867	869	871	875	880	884	887	889	891	894	898	901	903	910	913	917	920	925	927	930	932	937	937	945	953	958	961	961	963	969	974	980	985	985	988	991	1000	1011	1014	1014	1017	1020	1020	1023	1030	1045	1045	1052	1055	1061	1068	1071	1074	1078	1081	1085	1085	1085	1088	1091	1095	1095	1095	1095	0	0	0	0	0	0	0	4838	4771	4771	4771	4706	4706	4706	4706	4706	4706	4771	4771	4771	4706	4706	4706	4706	4706	4706	4706	4706	4771	4771	4771	4771	4771	4706	4706	4706	4706	4706	4706	4706	4706	4706	4706	4706	4706	4706	4706	4643	4643	4643	4643	4643	4643	4643	4643	4643	6349	6349	6235	6235	6235	6124	6235	6124	6124	6124	6124	6124	6235	6235	6235	6235	6235	6235	6349	6349	6235	6235	6235	6235	6235	6235	6235	6235	6124	6124	6124	6124	6124	6124	6124	6124	6124	7608	7608	7608	7779	7608	7608	7779	7779	7779	7779	7779	7779	7779	7779	7779	7779	7779	7779	7779	7959	7959	7959	7959	7959	7959	7959	7779	7959	7959	7959	7779	7779	7959	7959	7779	7779	7779	7959	7959	7959	7779	7959	7959	7959	7959	7779	7959	7959	7959	8146	8146	8146	8146	8343	8146	8146	8146	8146	8146	8146	7959	8146	8146	8146	8146	8146	8343	8343	8146	8146	8146	8146	8146	8146	8146	8343	8343	8343	8343	8343	8550	8550	0	0	3779	3779	3779	3779	3779	3738	3738	3738	3738	3738	3738	3738	3738	3738	3738	3738	3738	3738	3738	3738	3738	3779	3779	3821	3821	3864	3864	3821	3779	3738	3738	3738	3738	3738	3738	3738	3738	3698	3738	3738	3738	3738	3738	3779	3779	3779	3821	3821	3821	3821	4838	4838	4771	4771	4706	4771	4771	4771	4706	4771	4706	4706	4706	4706	4706	4706	4706	4706	4643	4643	4643	4643	4643	4643	4643	4581	4581	4581	4581	4521	4521	4521	4581	4581	4581	4581	4581	4581	4706	4643	4706	4706	4643	4643	4643	4706	4643	4643	4643	4581	4581	4581	4581	4581	4581	4643	4643	4643	4643	4643	4643	4706	4643	4581	4581	4581	4581	4521	4521	4521	4463	4463	4463	4463	4521	4521	4521	4521	4521	4521	4521	4521	4521	4581	4581	4581	4643	4643	4643	4643	4643	4643	4643	4643	4581	4581	4581	4521	4521	4463	4406	4350	4350	4406	4463	4521	4521	4581	4581	4581	4581	4643	4643	4643	4643	4643	4643	4643	4643	4643	4581	4581	4581	4581	4581	4581	4643	4643	4643	4643	4581	4581	4581	4581	4581	4581	4581	4581	4581	4581	4581	4581	4581	4581	4581	4581	4581	4581	4643	4643	4643	4643	4706	4643	4643	4643	4581	4581	4581	4581	4581	4521	4521	4521	4521	4521	4463	4463	4463	4463	4406	4350	4350	4350	4350	4406	4406	4521	4581	4643	4643	4643	4771	4771	4838	4706	4706	4706	8767	8550	8343	8146	7959	7959	7959	7959	7959	7959	7779	7779	7779	7779	7608	7779	7779	7959	7959	8146	8146	8146	7287	7287	7287	7137	7137	7137	7137	6992	7137	6992	7137	7137	7137	6592	6592	0	0	6720	6720	6720	6720	0	0	0	0	0	0	0	0	0	0	0	0	0	0	0	0	0	5815	5719	5626	5626	5535	5535	5448	5448	5448	5448	5448	5448	5448	5448	5535	5448	5535	5535	5535	5535	5626	5626	5815	0	0	0	0	0	0	0	0	0	0	0	0	0	0	0	0	0	0	0	0	0	0	0	0	0	0	0	0	0	0	0	0	0	0	0	0	0	0	0	0	0	0	0
0	0	0	0	784	786	788	791	791	791	791	791	791	814	814	817	815	817	817	821	825	825	829	831	833	833	833	837	841	841	856	858	862	867	869	869	869	871	873	878	884	887	891	891	894	898	901	903	908	913	917	922	925	927	930	932	935	937	940	953	958	961	963	963	969	972	980	983	985	988	988	997	1008	1011	1014	1017	1020	1023	1026	1030	1039	1042	1048	1052	1058	1071	1074	1078	1078	1081	1085	1085	1085	1088	1091	1095	1095	1095	1095	0	0	0	0	0	0	0	4706	4706	4706	4706	4706	4643	4706	4771	4706	4771	4771	4771	4771	4771	4706	4706	4771	4706	4771	4706	4706	4771	4771	4771	4771	4771	4706	4706	4706	4706	4706	4706	4706	4706	4706	4706	4706	4706	4643	4643	4643	4643	4643	4643	4643	4643	4581	4581	4581	6592	6349	6235	6235	6235	6124	6235	6124	6124	6124	6124	6124	6124	6124	6235	6235	6235	6235	6235	6349	6235	6235	6235	6235	6235	6235	6235	6235	6124	6124	6124	6124	6124	6124	6018	6018	6018	7608	7608	7608	7779	7608	7779	7779	7779	7779	7779	7779	7779	7779	7779	7779	7779	7779	7779	7779	7779	7779	7779	7779	7779	7779	7959	7779	7959	7959	7959	7779	7779	7779	7959	7779	7779	7779	7959	7959	7959	7959	7959	7959	7959	7959	7959	7959	7959	7959	8146	8146	8146	8146	8146	8146	8146	7959	7959	7959	7959	7959	7959	7959	8146	8146	8146	8343	8343	8343	8146	8146	8343	8343	8146	8343	8343	8343	8343	8343	8343	8343	8343	0	0	3779	3779	3821	3779	3779	3779	3779	3779	3738	3738	3738	3738	3738	3738	3738	3738	3738	3738	3738	3738	3779	3821	3821	3864	3864	3864	3864	3821	3779	3738	3738	3738	3738	3738	3738	3738	3738	3738	3738	3738	3738	3738	3738	3779	3779	3779	3821	3821	3821	3821	4838	4838	4771	4771	4706	4771	4706	4706	4706	4706	4706	4706	4706	4706	4643	4643	4643	4643	4706	4643	4643	4643	4643	4643	4643	4581	4581	4581	4581	4521	4521	4521	4581	4581	4643	4706	4706	4706	4706	4706	4706	4706	4643	4643	4643	4643	4643	4643	4581	4581	4581	4581	4581	4581	4581	4581	4643	4643	4643	4643	4643	4521	4643	4581	4463	4463	4521	4463	4463	4463	4463	4463	4463	4463	4521	4521	4521	4521	4521	4521	4521	4521	4521	4521	4581	4581	4643	4706	4643	4643	4643	4643	4643	4643	4581	4581	4521	4521	4463	4406	4350	4350	4406	4463	4521	4581	4521	4581	4581	4581	4643	4643	4643	4706	4643	4643	4643	4643	4643	4643	4581	4581	4581	4581	4581	4581	4643	4643	4643	4581	4581	4581	4581	4581	4581	4581	4581	4581	4581	4581	4581	4581	4581	4581	4581	4581	4581	4581	4643	4643	4643	4643	4643	4643	4643	4581	4581	4581	4581	4521	4581	4521	4521	4521	4521	4521	4521	4521	4521	4521	4406	4406	4350	4350	4350	4350	4406	4521	4581	4581	4643	4706	4771	4838	4977	4977	5050	5050	8767	8550	8550	8343	8146	7959	7959	7959	7959	7779	7779	7779	7779	7779	8146	8146	7959	7959	8146	8146	8146	8146	7287	7287	0	7137	7137	0	7137	7137	6992	6992	6853	6853	7137	6720	6592	6468	6720	6720	6720	6720	6720	0	0	0	0	0	0	0	0	0	0	0	0	0	0	0	0	0	5719	5719	5626	5626	5535	5535	5448	5448	5448	5448	5448	5448	5448	5448	5448	5448	5448	5448	5448	5448	5535	5448	5448	0	0	0	0	0	0	0	0	0	0	0	0	0	0	0	0	0	0	0	0	0	0	0	0	0	0	0	0	0	0	0	0	0	0	0	0	0	0	0	0	0	0	0
0	0	0	0	784	786	788	789	789	791	791	791	812	814	814	815	815	817	819	823	823	825	825	831	835	835	843	841	845	852	856	856	860	865	867	869	869	869	873	875	882	887	891	894	894	896	898	901	903	910	917	922	925	927	930	932	937	937	945	955	958	961	966	969	972	974	980	983	983	985	988	994	1006	1011	1014	1017	1020	1023	1026	1030	1039	1039	1048	1055	1061	1071	1074	1074	1078	1081	1081	1081	1081	1085	1088	1091	1091	1095	0	0	0	0	0	0	0	0	4706	4706	4706	4706	4643	4643	4706	4771	4706	4706	4771	4706	4771	4706	4706	4706	4771	4706	4771	4771	4771	4771	4771	4771	4771	4771	4771	4706	4706	4706	4706	4706	4706	4706	4706	4706	4706	4706	4706	4706	4643	4643	4643	4643	4643	4643	4581	4581	6468	6468	6468	6349	6349	6235	6235	6235	6124	6124	6124	6124	6124	6124	6124	6235	6235	6235	6235	6349	6349	6235	6235	6235	6235	6235	6235	6235	6235	6124	6124	6124	6124	6124	6124	6018	6124	6124	0	0	7608	7779	7779	7779	7779	7779	7779	7779	7779	7779	7779	7779	7779	7779	7779	7779	7779	7779	7779	7779	7779	7779	7779	7779	7779	7779	7779	7779	7779	7779	7779	7779	7779	7779	7779	7779	7959	7959	7959	7959	7959	7959	7959	7959	7959	7959	7959	8146	8146	8146	8146	8343	8146	8146	7959	7959	7959	7959	7959	7959	7959	8146	8146	8146	8146	8146	8343	8146	8343	8343	8343	8343	8343	8343	8343	8343	8343	8343	8343	8343	0	0	0	3779	3779	3779	3779	3779	3738	3738	3738	3738	3738	3738	3738	3738	3738	3738	3779	3779	3779	3779	3779	3821	3779	3779	3907	3864	3864	3779	3779	3738	3738	3738	3738	3738	3738	3738	3738	3698	3738	3738	3738	3738	3738	3779	3779	3779	3779	3779	3779	3779	4838	4838	4771	4771	4771	4771	4706	4706	4643	4643	4706	4706	4706	4706	4706	4706	4706	4706	4706	4643	4643	4643	4643	4643	4643	4581	4581	4581	4581	4521	4521	4581	4581	4643	4643	4706	4706	4706	4706	4706	4706	4706	4706	4643	4643	4643	4643	4581	4643	4643	4581	4581	4581	4643	4643	4643	4643	4643	4643	4581	4581	4521	4521	4521	4463	4521	4463	4463	4463	4463	4463	4463	4463	4463	4521	4521	4521	4521	4521	4521	4521	4521	4521	4521	4581	4581	4581	4643	4643	4643	4643	4643	4643	4643	4581	4581	4521	4521	4463	4406	4406	4406	4406	4463	4521	4581	4581	4581	4581	4581	4581	4643	4643	4643	4643	4706	4643	4643	4643	4643	4581	4581	4581	4581	4581	4581	4581	4643	4643	4581	4581	4581	4581	4581	4581	4581	4581	4581	4581	4581	4581	4581	4581	4581	4581	4643	4581	4581	4643	4643	4581	4643	4643	4581	4581	4581	4581	4581	4581	4581	4581	4521	4521	4521	4521	4521	4521	4521	4521	4521	4406	4350	4350	4350	4350	4350	4406	4521	4581	4581	4643	4706	4771	4906	4977	5050	5125	5202	5202	8767	8550	8550	8146	7959	7959	7959	7959	7779	7779	5050	4977	4977	4977	4977	7959	7959	7959	7959	0	0	0	0	0	0	0	0	7137	7137	6992	6992	7137	7137	6992	6720	6720	6720	6720	6720	6720	6853	6720	6720	0	0	0	0	0	0	0	0	0	0	0	0	0	0	0	5815	5719	5719	5719	5626	5535	5535	5448	5448	5448	5364	5364	5448	5448	5448	5448	5448	5448	5448	5448	5448	5448	5448	5448	0	0	0	0	0	0	0	0	0	0	0	0	0	0	0	0	0	0	0	0	0	0	0	0	0	0	0	0	0	0	0	0	0	0	0	0	0	0	0	0	0	0	0
0	0	0	0	784	786	788	789	791	791	791	812	812	812	812	814	814	814	819	823	825	829	833	833	835	835	843	841	850	852	858	858	860	862	865	867	867	869	871	878	880	884	889	894	894	898	901	903	908	910	917	922	925	927	930	935	940	940	950	955	961	963	966	969	974	974	977	983	983	988	991	997	1006	1008	1014	1017	1023	1023	1026	1030	1036	1033	1042	1058	1064	1068	1071	1074	1074	1078	1081	1081	1081	1081	1085	1088	1088	0	0	0	0	0	0	0	0	0	4706	4706	4706	4706	4706	4643	4643	4706	4706	4706	4706	4706	4706	4706	4706	4771	4771	4771	4771	4771	4771	4771	4771	4771	4771	4771	4771	4706	4706	4706	4706	4706	4706	4706	4706	4706	4706	4706	4706	4706	4706	4706	4643	4643	4643	4643	4581	4581	6592	6468	6468	6349	6235	6235	6235	6235	6235	6124	6124	6124	6124	6124	6235	6235	6349	6235	6235	6349	6235	6235	6235	6124	6124	6235	6124	6124	6124	6124	6124	6124	6018	6124	6018	6018	6018	6018	0	0	7608	7779	7779	7779	7779	7959	7959	7959	7779	7779	7779	7779	7779	7779	7779	7779	7779	7779	7779	7779	7779	7779	7779	7779	7779	7779	7779	7779	7779	7779	7779	7779	7779	7779	7779	7779	7959	7959	7959	7959	7959	7959	7959	7959	7959	7959	7959	8146	8146	8146	8146	8343	8146	7959	7959	7959	7959	7959	7959	7959	7959	7959	7959	7959	8146	8146	8146	8146	8343	8343	8343	8343	8343	8343	8343	8343	8343	8343	8343	8343	0	0	0	3779	3779	3779	3779	3738	3738	3738	3738	3738	3738	3738	3738	3738	3738	3738	3779	3779	3779	3779	3779	3821	3821	3821	3907	3907	3864	3779	3779	3779	3738	3738	3738	3738	3738	3738	3738	3698	3738	3738	3738	3738	3779	3779	3779	3779	3779	3779	3779	3779	4771	4771	4771	4771	4706	4706	4706	4706	4643	4643	4706	4706	4706	4706	4706	4706	4771	4706	4706	4643	4643	4643	4581	4643	4581	4581	4581	4581	4581	4581	4521	4521	4581	4581	4643	4643	4706	4706	4706	4706	4706	4706	4706	4643	4643	4643	4643	4581	4643	4643	4581	4581	4643	4643	4643	4643	4581	4581	4581	4581	4581	4581	4581	4521	4521	4463	4463	4521	4463	4521	4463	4463	4463	4463	4521	4521	4521	4521	4521	4521	4521	4521	4521	4521	4581	4581	4581	4643	4643	4643	4643	4581	4643	4581	4581	4581	4521	4521	4463	4406	4406	4406	4406	4463	4521	4521	4521	4521	4581	4581	4581	4643	4581	4643	4643	4643	4643	4643	4643	4643	4581	4581	4581	4581	4581	4581	4581	4643	4581	4581	4581	4581	4581	4581	4581	4581	4581	4581	4581	4581	4581	4581	4581	4581	4581	4643	4643	4643	4581	4581	4581	4581	4581	4581	4581	4581	4581	4581	4581	4521	4581	4581	4581	4581	4521	4521	4521	4521	4521	4463	4406	4350	4350	4350	4406	4406	4406	4521	4581	4581	4643	4706	4771	4906	4977	5050	5125	5202	5202	5202	8343	8343	8146	7959	7959	7959	7959	7779	5050	5050	5050	5050	5050	4977	5050	5050	5050	7959	0	0	0	0	0	0	0	0	0	0	0	0	6992	6992	6992	6853	6853	6720	6853	6853	6720	6853	6720	6720	6720	0	0	0	0	0	0	0	0	0	0	0	0	0	0	5719	5719	5626	5626	5626	5535	5535	5448	5448	5448	5364	5364	5364	5448	5448	5448	5448	5448	5448	5448	5448	5448	5364	5364	5364	0	0	0	0	0	0	0	0	0	0	0	0	0	0	0	0	0	0	0	0	0	0	0	0	0	0	0	0	0	0	0	0	0	0	0	0	0	0	0	0	0	0
0	0	0	0	0	782	786	789	791	791	793	793	814	814	814	815	815	819	823	825	827	829	833	833	835	837	845	848	848	852	856	858	860	862	867	867	867	869	871	878	880	884	889	894	894	898	901	905	910	913	917	920	922	927	930	935	940	940	948	955	958	963	966	969	972	972	977	983	985	991	994	1000	1006	1008	1014	1017	1023	1023	1023	1030	1030	1033	1045	1045	1061	1068	1071	1074	1074	1078	1081	1081	1081	1081	1085	1088	1088	0	0	0	0	0	0	0	0	0	0	0	4706	4706	4706	4643	4643	4706	4643	4706	4706	4706	4706	4706	4706	4771	4771	4771	4771	4771	4771	4771	4771	4771	4771	4771	4771	4706	4706	4706	4706	4706	4706	4706	4706	4706	4706	4706	4706	4706	4643	4643	4643	4643	4643	4643	4581	4581	4581	6468	6468	6349	6235	6235	6235	6235	6235	6235	6235	6235	6124	6235	6235	6235	6349	6235	6235	6235	6235	6235	6235	6235	6124	6235	6124	6124	6124	6124	6124	6018	6018	6018	6124	6124	6124	6124	0	0	0	7779	7779	0	0	7959	7959	7959	7959	7959	7779	7779	7779	7779	7779	7779	7779	7779	7779	7779	7779	7779	7779	7779	7779	7779	7779	7779	7779	7779	7779	7779	7779	7779	7779	7779	7779	7959	7959	7959	7959	7959	7959	7959	7959	7959	8146	8146	8146	8146	8146	8343	8146	7959	7959	7959	7959	7959	7959	7959	7959	7959	7959	7959	8146	8146	8146	8146	8343	8343	8343	8343	8343	8343	8343	8343	7959	7959	7959	0	0	0	3821	3779	3779	3779	3779	3738	3738	3738	3738	3738	3738	3738	3738	3779	3738	3779	3779	3779	3779	3779	3821	3864	3864	3821	3907	3907	3864	3821	3779	3779	3779	3738	3738	3738	3738	3738	3738	3698	3738	3738	3738	3779	3779	3779	3779	3779	3779	3779	3779	3738	3738	4771	4771	4771	4706	4706	4706	4706	4643	4643	4706	4706	4706	4706	4706	4706	4771	4706	4706	4706	4706	4706	4643	4706	4643	4643	4643	4643	4581	4581	4521	4521	4521	4581	4581	4643	4643	4643	4706	4706	4706	4706	4643	4643	4643	4643	4581	4581	4581	4581	4581	4581	4581	4643	4643	4643	4581	4581	4581	4581	4581	4581	4581	4521	4521	4521	4521	4463	4463	4463	4463	4463	4463	4463	4521	4521	4521	4521	4521	4521	4521	4521	4521	4521	4581	4581	4581	4643	4581	4643	4643	4581	4581	4581	4581	4581	4581	4521	4463	4406	4406	4406	4406	4463	4463	4521	4581	4581	4581	4581	4643	4581	4581	4643	4643	4643	4643	4643	4643	4643	4643	4581	4581	4643	4581	4581	4581	4643	4643	4581	4581	4581	4581	4581	4581	4581	4581	4581	4581	4581	4581	4581	4581	4581	4581	4581	4581	4581	4643	4581	4581	4581	4581	4581	4521	4521	4521	4581	4521	4521	4581	4581	4581	4581	4581	4581	4521	4521	4521	4521	4406	4350	4350	4350	4406	4406	4463	4581	4581	4581	4643	4706	4838	4906	4977	5125	5125	5202	5202	5202	8343	8146	7959	7959	7959	8146	7959	5050	5050	5125	5050	5050	5050	5050	5050	5050	5050	0	0	0	0	0	0	0	0	0	0	0	0	6853	6853	6853	6853	6853	6853	6853	6853	6853	6853	6853	6720	6720	6720	0	0	0	0	0	0	0	0	0	0	0	0	0	0	5815	5626	5626	5535	5535	5535	5535	5448	5448	5448	5364	5364	5364	5448	5448	5448	5448	5448	5448	5448	5364	5448	5364	5364	5364	0	0	0	0	0	0	0	0	0	0	0	0	0	0	0	0	0	0	0	0	0	0	0	0	0	0	0	0	0	0	0	0	0	0	0	0	0	0	0	0	0	0
0	0	0	0	777	780	780	789	791	817	810	814	814	814	815	815	815	819	825	827	827	829	833	833	835	837	843	845	845	850	856	858	860	862	867	867	867	869	871	875	880	884	891	894	894	901	901	908	913	913	917	920	922	927	930	935	940	940	948	953	958	963	966	969	974	974	980	983	988	994	997	1000	1003	1006	1011	1017	1017	1023	1026	1030	1039	1036	1048	1058	1061	1068	1071	1074	1074	1078	1081	1081	1081	1081	1085	1088	1088	0	0	0	0	0	0	0	0	0	0	0	0	0	4643	4643	4643	4706	4706	4706	4706	4706	4706	4706	4706	4771	4771	4771	4771	4771	4838	4838	4838	4771	4771	4771	4771	4706	4706	4706	4706	4706	4706	4706	4706	4706	4706	4706	4706	4643	4643	4643	4643	4643	4643	4643	4643	4643	4643	6468	6468	6349	6349	6235	6235	6235	6235	6235	6235	6235	6235	6235	6235	6349	6349	6235	6235	6235	6235	6235	6235	6124	6124	6124	6124	6124	6124	6124	6018	6018	6018	6018	6124	6124	6124	6124	0	0	0	0	0	0	0	0	7959	7959	7959	7779	7779	7779	7779	7779	7779	7779	7779	7779	7779	7779	7779	7779	7779	7779	7779	7779	7779	7779	7779	7779	7779	7779	7779	7959	7959	7959	7959	7959	7959	7959	7959	7959	7959	7959	7959	7959	8146	8146	8146	8146	8146	8343	8146	7959	7959	7959	7959	7959	7959	7959	7959	7959	7959	7959	7959	8146	8343	8146	8343	8343	8343	8343	8343	8146	8146	8146	7959	7779	7779	0	0	0	3821	3779	3779	3779	3779	3738	3738	3738	3738	3738	3738	3738	3738	3779	3738	3779	3779	3779	3779	3779	3779	3779	3864	0	3907	3907	3864	3864	3821	3779	3779	3738	3738	3738	3738	3738	3738	3698	3738	3738	3738	3779	3779	3779	3779	3779	3779	3779	3738	3738	4771	4771	4771	4706	4706	4706	4706	4643	4643	4643	4706	4706	4706	4706	4706	4706	4771	4706	4706	4706	4706	4706	4706	4706	4706	4643	4643	4643	4643	4463	4463	4463	4521	4521	4581	4581	4643	4643	4643	4706	4706	4643	4643	4643	4643	4643	4581	4581	4581	4581	4581	4581	4581	4643	4643	4581	4581	4521	4521	4581	4581	4581	4581	4521	4521	4521	4463	4463	4463	4463	4406	4463	4463	4463	4521	4463	4463	4521	4521	4521	4521	4521	4521	4521	4521	4581	4581	4643	4581	4643	4643	4643	4643	4643	4581	4581	4643	4581	4521	4406	4406	4463	4463	4463	4521	4521	4581	4581	4581	4581	4581	4581	4581	4581	4581	4581	4643	4643	4643	4643	4643	4581	4581	4643	4643	4581	4581	4643	4643	4581	4581	4581	4581	4581	4581	4581	4581	4581	4581	4581	4581	4581	4581	4581	4581	4581	4581	4643	4581	4581	4581	4581	4581	4581	4581	4581	4581	4581	4581	4521	4581	4581	4581	4581	4581	4581	4521	4521	4521	4463	4406	4350	4350	4350	4350	4406	4463	4521	4581	4581	4643	4706	4838	4906	4977	5050	5125	5125	5125	5125	5125	5125	8146	8146	7959	8146	8146	5125	5125	5125	5125	5125	5050	5050	5050	0	0	0	0	0	0	0	0	0	0	0	0	0	0	6853	6853	7137	6992	6853	6853	6853	6853	6853	6853	6992	6720	6720	6720	0	0	0	0	0	0	0	0	0	0	0	0	0	5719	5719	5626	5719	5626	5626	5626	5535	5535	5448	5448	5448	5448	5364	5364	5364	5364	5364	5448	5448	5448	5364	5448	5364	5364	5364	5364	0	0	0	0	0	0	0	0	0	0	0	0	0	0	0	0	0	0	0	0	0	0	0	0	0	0	0	0	0	0	0	0	0	0	0	0	0	0	0	0	0
0	0	0	0	777	784	788	789	791	817	810	812	814	814	815	815	817	821	825	827	829	831	833	835	837	839	843	845	845	850	854	858	858	862	865	867	865	867	869	875	878	884	894	894	896	901	905	910	913	915	917	920	922	927	930	937	940	942	945	950	961	963	966	969	974	974	980	983	988	988	994	1000	1000	1006	1008	1014	1020	1023	1030	1036	1039	1039	1048	1055	1061	1064	1068	1071	1074	1078	1081	1081	1081	1085	1088	1088	1088	0	0	0	0	0	0	0	0	0	0	0	0	0	4643	4706	4706	4706	4706	4706	4706	4706	4706	4706	4706	4771	4771	4771	4771	4771	4838	4838	4838	4838	4771	4771	4706	4706	4706	4706	4643	4706	4706	4706	4706	4706	4706	4706	4706	4643	4643	4706	4643	4643	4643	4643	4643	4706	4706	6468	6349	6349	6235	6235	6235	6235	6235	6124	6235	6235	6235	6235	6235	6235	6235	6235	6235	6235	6124	6124	6124	6124	6124	6124	6124	6124	6124	6018	6018	6018	6018	6018	6124	6124	0	0	0	0	0	0	0	0	0	0	7959	7959	7959	7779	7779	7779	7779	7779	7779	7779	7779	7779	7779	7779	7779	7779	7779	7779	7779	7779	7779	7779	7779	7779	7779	7779	7779	7959	7959	7779	7779	7959	7959	7959	7959	7959	7959	7959	7959	7959	7959	8146	8146	7959	8146	8146	8146	7959	7959	7959	7959	7959	7959	7959	7959	7959	7959	7959	8146	7959	7959	7959	8146	8146	8146	8146	8146	8146	8146	8146	7779	7779	7779	0	0	0	3821	3779	3779	3779	3779	3738	3738	3738	3738	3738	3738	3779	3779	3779	3779	3779	3779	3779	3821	3821	3779	3779	0	0	0	3907	3864	3864	3821	3779	3779	3779	3738	3738	3738	3738	3698	3698	3698	3698	3738	3738	3779	3779	3779	3779	3779	3738	3738	3698	4771	4771	4771	4771	4706	4706	4706	4643	4643	4643	4643	4643	4643	4706	4706	4706	4706	4706	4706	4706	4706	4706	4706	4706	4706	4643	4643	4643	4643	4643	4521	4521	4521	4521	4521	4521	4581	4643	4643	4706	4706	4706	4643	4643	4643	4581	4581	4581	4581	4581	4581	4581	4581	4643	4581	4581	4581	4521	4521	4581	4581	4581	4581	4581	4581	4581	4521	4463	4463	4463	4463	4463	4463	4463	4521	4521	4463	4521	4521	4521	4521	4521	4521	4521	4521	4581	4581	4581	4581	4643	4643	4643	4643	4643	4643	4643	4643	4581	4521	4521	4463	4406	4406	4463	4463	4521	4581	4581	4581	4581	4581	4581	4581	4581	4581	4581	4581	4581	4581	4643	4643	4643	4643	4643	4643	4581	4581	4643	4643	4581	4581	4581	4581	4581	4581	4581	4581	4581	4581	4581	4581	4581	4581	4581	4581	4581	4581	4643	4581	4581	4581	4581	4581	4581	4581	4581	4581	4581	4581	4581	4581	4581	4581	4581	4581	4581	4521	4521	4463	4463	4406	4350	4350	4350	4406	4406	4521	4581	4581	4581	4643	4643	4838	4906	5050	5125	5125	5202	5125	5125	5202	5202	5125	5125	5125	5125	5125	5125	5125	5125	5125	5125	0	0	0	0	0	0	0	0	0	0	0	0	0	0	0	0	6853	6853	6992	6992	6853	6853	6853	6853	6853	6853	6853	6992	6853	6720	6592	6235	6124	6124	0	0	0	0	0	0	0	5626	5719	5626	5719	5626	5626	5626	5626	5535	5535	5535	5535	5535	5448	5448	5448	5448	5364	5364	5364	5364	5448	5448	5448	5364	5364	5364	5364	5364	5364	0	0	0	0	0	0	0	0	0	0	0	0	0	0	0	0	0	0	0	0	0	0	0	0	0	0	0	0	0	0	0	0	0	0	0	0	0	0	0	0	0
0	0	0	0	779	784	786	789	793	806	808	812	812	814	815	815	819	823	827	829	831	831	833	835	837	841	845	845	848	850	854	858	858	860	865	865	865	867	871	875	878	887	896	896	896	901	901	910	913	915	917	920	922	927	932	937	942	942	948	953	958	963	966	969	972	974	974	983	988	994	994	1000	1003	1006	1008	1014	1023	1026	1030	1036	1039	1039	1048	1055	1061	1064	1068	1071	1074	1078	1081	1081	1085	1085	1088	1091	1091	0	0	0	0	0	0	0	0	0	0	0	0	0	0	4706	4706	4643	4706	4706	4706	4706	4706	4706	4706	4771	4771	4771	4771	4771	4771	4771	4771	4771	4771	4771	4706	4706	4706	4643	4643	4643	4643	4643	4643	4643	4706	4706	4706	4706	4706	4706	4643	4643	4643	4643	4706	4706	4706	6349	6349	6349	6235	6124	6124	6124	6235	6124	6235	6124	6124	6235	6235	6235	6235	6235	6124	6124	6124	6124	6124	6124	6124	6124	6124	6124	6018	6018	6018	5915	5915	0	0	0	0	0	0	0	0	0	0	0	0	0	7779	7779	7779	7779	7779	7779	7779	7779	7779	7779	7779	7779	7779	7779	7779	7779	7779	7779	7779	7779	7959	7779	7959	7779	7959	7959	7959	7959	7959	7959	7779	7959	7959	7959	7959	7959	7959	7959	7959	7959	7959	7959	7959	7959	7959	8146	8146	7959	7959	7959	7959	7959	7959	7959	7779	7779	7779	7779	7959	7959	7959	8146	8146	8146	8146	8146	8146	8146	8146	8146	7779	7779	7779	0	0	0	3821	3821	3779	3779	3779	3738	3738	3738	3738	3738	3738	3779	3779	3779	3779	3779	3779	3779	3779	3779	3779	3779	0	0	0	0	3864	3864	3821	3821	3821	3779	3738	3738	3738	3738	3698	3698	3698	3738	3738	3779	3779	3779	3779	3779	3738	3738	3698	3698	4771	4771	4771	4706	4706	4706	4706	4643	4643	4643	4643	4643	4643	4706	4706	4706	4706	4706	4706	4643	4643	4706	4706	4706	4706	4643	4643	4706	4706	4706	4521	4521	4521	4521	4521	4521	4581	4581	4581	4643	4643	4643	4581	4581	4581	4581	4581	4581	4581	4581	4581	4581	4581	4581	4581	4581	4581	4581	4581	4643	4581	4581	4581	4643	4581	4581	4521	4463	4463	4521	4463	4463	4463	4463	4521	4463	4463	4463	4463	4463	4463	4463	4463	4521	4521	4521	4581	4581	4581	4581	4581	4581	4581	4643	4643	4643	4643	4643	4581	4521	4463	4463	4406	4406	4463	4521	4581	4581	4643	4643	4643	4581	4581	4581	4581	4581	4581	4581	4581	4581	4581	4643	4643	4643	4643	4643	4643	4643	4643	4581	4581	4581	4581	4581	4581	4581	4581	4581	4581	4581	4581	4581	4581	4581	4581	4581	4581	4581	4643	4581	4521	4521	4581	4581	4581	4581	4581	4581	4581	4581	4581	4581	4581	4581	4581	4581	4521	4521	4463	4463	4406	4350	4350	4350	4406	4463	4463	4521	4581	4581	4643	4643	4706	4838	4977	5125	5202	5202	5202	5125	5125	5125	5050	5050	5050	5125	5125	5125	5125	5125	5125	5125	0	0	0	0	0	0	0	0	0	0	0	0	0	0	0	6720	6992	6853	6853	6853	6853	6853	6853	6853	6853	6853	6853	6992	6853	6720	6592	6592	6124	6124	0	0	0	0	0	0	0	5535	5719	5626	5719	5626	5626	5626	5535	5535	5626	5535	5535	5535	5448	5448	5448	5448	5364	5364	5364	5364	5364	5364	5364	5364	5364	5364	5364	5364	5364	0	0	0	0	0	0	0	0	0	0	0	0	0	0	0	0	0	0	0	0	0	0	0	0	0	0	0	0	0	0	0	0	0	0	0	0	0	0	0	0	0
0	0	0	0	779	782	786	791	800	806	808	812	812	812	815	817	821	823	827	827	829	829	833	835	837	841	843	845	848	850	854	856	858	860	862	865	867	869	873	878	880	884	896	896	898	903	903	910	913	915	917	917	920	927	932	940	940	945	948	950	955	963	966	969	974	977	980	985	991	994	994	1000	1003	1006	1008	1017	1023	1026	1030	1036	1039	1042	1048	1055	1061	1064	1068	1068	1071	1078	1081	1081	1081	1085	1088	1088	1088	0	0	0	0	0	0	0	0	0	0	0	4706	4706	0	4706	4706	4706	4706	4706	4706	4706	4706	4706	4706	4706	4771	4706	4771	4771	4771	4771	4771	4771	4771	4771	4706	4706	4706	4643	4643	4643	4643	4643	4643	4706	4706	4706	4706	4643	4643	4706	4643	4643	4643	4706	4706	4706	4706	4706	6349	6349	6235	6235	6124	6124	6124	6124	6235	6124	6235	6235	6235	6235	6235	6235	6124	6124	6124	6124	6124	6124	6124	6124	6124	6018	6018	6018	5915	5915	5915	0	0	0	0	0	0	0	0	0	0	0	0	0	7779	7779	7779	7779	7779	7779	7779	7779	7779	7779	7779	7779	7779	7779	7779	7779	7779	7779	7779	7779	7959	7959	7959	7959	7959	7959	7959	7959	7959	7959	7959	7959	7959	7779	7959	7779	7959	7779	7779	7779	7959	7959	7959	7959	7959	8146	7959	7959	7959	7959	7959	7779	7779	7779	7779	7779	7779	7959	7959	7959	7959	7959	7959	8146	7959	7959	8146	7959	8146	7959	7779	7779	7779	7779	0	0	3821	3821	3779	3779	3738	3738	3738	3738	3738	3738	3738	3779	3779	3779	3779	3779	3779	3779	3821	3779	3779	0	0	0	0	0	0	0	3821	3821	3779	3779	3738	3738	3738	3738	3738	3698	3698	3738	3738	3738	3738	3738	3779	3779	3738	3738	3698	3698	4771	4771	4771	4706	4706	4706	4706	4643	4643	4643	4643	4643	4706	4706	4706	4706	4706	4706	4706	4706	4643	4706	4706	4706	4706	4706	4706	4706	4706	4581	4406	4463	4463	4521	4463	4463	4581	4581	4643	4581	4581	4581	4581	4581	4581	4581	4581	4581	4581	4581	4581	4521	4521	4581	4581	4581	4581	4581	4581	4643	4643	4581	4581	4643	4643	4643	4581	4581	4581	4581	4521	4521	4463	4463	4463	4463	4463	4463	4463	4463	4463	4463	4463	4521	4521	4521	4521	4581	4581	4581	4581	4581	4581	4643	4643	4643	4643	4643	4581	4521	4463	4463	4406	4406	4463	4521	4581	4581	4643	4581	4581	4581	4581	4581	4521	4521	4581	4581	4581	4581	4581	4581	4643	4643	4581	4581	4581	4581	4581	4581	4581	4581	4581	4581	4581	4581	4581	4581	4581	4581	4581	4581	4581	4581	4581	4581	4581	4581	4581	4521	4521	4521	4521	4581	4581	4581	4581	4643	4581	4581	4521	4521	4521	4521	4521	4521	4521	4463	4463	4463	4406	4350	4350	4350	4406	4463	4463	4521	4521	4581	4581	4581	4706	4838	5050	5125	5125	5125	5125	5125	5125	5125	5050	5050	5050	5050	5050	5125	5125	5125	5125	0	0	0	0	0	0	0	0	0	0	0	0	0	0	0	6853	6853	6992	6992	6992	6992	6853	6853	6853	6853	6992	6853	6853	6992	6853	7137	6720	6720	6720	0	0	0	0	0	0	0	0	5535	5719	5535	5626	5626	5626	5626	5535	5535	5719	5535	5535	5535	5448	5448	5448	5448	5364	5364	5364	5364	5364	5364	5364	5364	5364	5364	5364	5364	5364	5364	0	0	0	0	0	0	0	0	0	0	0	0	0	0	0	0	0	0	0	0	0	0	0	0	0	0	0	0	0	0	0	0	0	0	0	0	0	0	0	0
0	0	0	0	779	780	782	782	798	802	804	808	808	810	817	819	823	823	827	829	829	829	831	833	835	837	841	845	848	850	854	858	858	860	862	865	867	875	878	880	880	884	894	896	898	903	903	908	913	913	913	915	917	917	917	945	948	945	948	948	950	950	963	969	972	977	983	988	991	994	997	1000	1006	1011	1014	1020	1023	1026	1030	1036	1042	1045	1052	1055	1058	1061	1064	1068	1071	1078	1081	1081	1085	1085	1091	1091	1091	1091	0	0	0	0	0	0	0	0	4771	4706	4706	4706	4771	4706	4706	4706	4706	4706	4706	4706	4643	4706	4706	4706	4771	4706	4771	4771	4771	4771	4771	4771	4771	4771	4706	4706	4643	4643	4581	4643	4643	4643	4643	4706	4706	4706	4706	4643	4643	4706	4643	4643	4706	4706	4706	4771	4771	4771	6349	6349	6235	6235	6124	6124	6235	6124	6235	6124	6235	6235	6124	6124	6124	6124	6124	6124	6124	6124	6124	6124	6124	6124	6124	6018	6018	5915	5915	5915	0	0	0	0	0	0	0	0	0	0	0	0	0	0	7779	7779	7779	7779	7779	7779	7779	7779	7779	7779	7779	7779	7779	7779	7779	7779	7779	7779	7779	7959	7959	7959	7959	7959	7959	7959	7959	7959	7959	7959	7959	7959	7959	7779	7959	7779	7959	7779	7779	7779	7959	7959	7779	7959	7959	7959	7959	7959	7779	7779	7779	7779	7779	7779	7779	7779	7779	7959	7959	7959	7959	7959	7959	7959	7959	7959	7959	7959	7959	7959	7779	7779	7959	7959	0	0	3864	3821	3779	3779	3779	3738	3738	3738	3738	3738	3738	3779	3779	3779	3779	3779	3779	3779	3821	3779	3779	0	0	0	0	0	0	0	3821	3779	3779	3779	3738	3738	3738	3738	3738	3698	3698	3738	3738	3738	3779	3738	3779	3779	3738	3738	3738	4838	4771	4771	4771	4706	4706	4706	4643	4643	4643	4643	4643	4643	4643	4706	4706	4706	4706	4706	4706	4706	4706	4706	4706	4706	4706	4643	4706	4643	4581	4581	4406	4406	4406	4463	4406	4406	4521	4581	4581	4521	4521	4581	4581	4581	4581	4581	4581	4521	4521	4521	4521	4521	4521	4581	4581	4581	4581	4521	4581	4643	4643	4643	4643	4643	4706	4706	4643	4643	4581	4581	4581	4521	4521	4463	4463	4463	4406	4463	4406	4406	4406	4406	4406	4463	4521	4521	4581	4581	4581	4581	4581	4581	4581	4581	4643	4643	4643	4643	4643	4643	4406	4406	4406	4521	4521	4581	4581	4581	4643	4581	4581	4581	4521	4521	4521	4521	4521	4581	4581	4581	4581	4581	4581	4581	4581	4581	4581	4581	4581	4581	4581	4581	4581	4581	4643	4581	4581	4581	4581	4581	4581	4581	4581	4581	4581	4581	4581	4581	4581	4521	4463	4521	4521	4521	4581	4521	4581	4643	4581	4521	4521	4521	4521	4521	4521	4521	4521	4463	4463	4463	4406	4406	4350	4406	4463	4521	4521	4521	4581	4581	4581	4581	4581	4906	4977	5050	5125	5125	5125	5125	5125	5125	5050	5050	5050	5050	5050	5125	5125	5125	5125	0	0	0	0	0	0	0	0	0	0	0	0	0	0	0	6992	6853	6992	6992	6992	6992	6853	6853	6992	6853	6992	6853	6853	6853	6853	6853	6720	6720	6720	6592	6592	0	0	0	0	0	0	0	0	5535	5535	5448	5626	5535	5535	5535	5535	5535	5535	5535	5448	5448	5448	5448	5364	5364	5364	5364	5364	5364	5364	5364	5364	5364	5364	5364	5364	5364	0	0	0	0	0	0	0	0	0	0	0	0	0	0	0	0	0	0	0	0	0	0	0	0	0	0	0	0	0	0	0	0	0	0	0	0	0	0	0	0
0	0	0	0	779	780	782	791	797	798	798	804	806	810	814	821	825	827	829	829	829	829	831	833	835	835	839	841	848	850	854	858	858	860	862	865	867	875	878	880	882	887	896	898	901	905	908	910	910	913	915	915	917	917	942	945	945	945	948	948	950	953	963	969	974	980	983	985	991	994	997	1000	1006	1014	1014	1020	1023	1026	1030	1039	1045	1048	1052	1052	1055	1058	1061	1068	1071	1078	1085	1085	1085	1085	1091	1091	1091	1091	1091	0	0	0	0	0	0	0	4771	4771	4706	4771	4771	4706	4706	4706	4706	4706	4706	4706	4706	4706	4706	4706	4706	4706	4706	4706	4706	4706	4771	4771	4706	4706	4706	4643	4643	4643	4643	4643	4643	4643	4643	4706	4706	4706	4706	4643	4643	4643	4706	4706	4706	4706	4706	4771	4771	4771	6468	6349	6235	6235	6124	6124	6235	6124	6235	6124	6235	6235	6124	6124	6124	6124	6124	6124	6124	6124	6124	6124	6124	6124	6124	6018	6018	6018	6018	6018	0	0	0	0	0	0	5364	5364	5448	5535	5535	5535	5448	5364	7779	7779	7779	7779	7779	7779	7779	7779	7779	7779	7779	7779	7779	7779	7779	7779	7959	7959	7959	7959	7959	7959	7959	8146	7959	7959	7959	7959	7959	7959	7959	7959	7779	7779	7779	7779	7779	7779	7779	7779	7779	7779	7779	7779	7779	7959	7959	7959	7779	7779	7779	7959	7959	7779	7959	7959	7959	7959	7959	7959	7959	7959	7959	7959	7959	7959	7959	7959	7959	7959	7779	7779	7959	7959	0	0	3864	3864	3821	3779	3779	3779	3779	3779	3779	3738	3779	3779	3779	3779	3779	3779	3779	3779	3821	3821	3779	3779	0	0	0	0	0	0	3779	3821	3779	3779	3738	3738	3738	3738	3738	3738	3738	3738	3738	3738	3738	3738	3779	3779	3738	3738	3738	4838	4771	4771	4771	4706	4706	4706	4706	4643	4643	4643	4643	4643	4643	4706	4706	4706	4706	4706	4706	4706	4706	4706	4706	4706	4706	4706	4706	4643	4581	4581	4463	4463	4463	4463	4406	4406	4463	4521	4521	4521	4463	4521	4521	4521	4521	4521	4521	4521	4521	4521	4521	4521	4521	4521	4581	4581	4581	4521	4581	4581	4643	4643	4643	4643	4643	4706	4643	4643	4581	4581	4581	4521	4521	4463	4463	4463	4406	4406	4406	4406	4406	4406	4406	4463	4521	4521	4581	4581	4581	4581	4581	4581	4643	4581	4581	4643	4643	4643	4643	4643	4350	4521	4521	4521	4521	4521	4581	4581	4581	4581	4521	4521	4521	4521	4463	4463	4463	4463	4521	4521	4581	4581	4581	4581	4581	4521	4521	4521	4521	4581	4581	4581	4643	4581	4643	4581	4581	4643	4581	4581	4581	4581	4581	4581	4581	4521	4521	4521	4521	4521	4463	4463	4463	4463	4521	4521	4643	4643	4581	4581	4581	4581	4521	4521	4521	4521	4463	4463	4463	4463	4463	4406	4406	4406	4463	4521	4521	4521	4581	4581	4581	4581	4643	4977	5050	5125	5125	5202	5125	5125	5125	5125	5125	5050	5050	5050	5050	5125	5125	5125	0	0	0	0	0	0	0	0	0	0	0	0	0	0	0	0	6992	6853	6992	6992	6992	6992	6853	6853	6853	6853	6853	6853	6853	6853	6853	6853	6720	6720	6720	6592	6468	6468	0	0	0	0	0	0	0	5535	5535	5448	5535	5535	5448	5448	5719	5535	5535	5535	5448	5448	5448	5364	5364	5364	5364	5364	5364	5364	5364	5364	5364	5364	5364	5364	5364	5364	0	0	0	0	0	0	0	0	0	0	0	0	0	0	0	0	0	0	0	0	0	0	0	0	0	0	0	0	0	0	0	0	0	0	0	0	0	0	0	0
0	0	0	0	779	780	784	797	797	798	798	800	802	806	806	821	823	825	827	829	829	829	831	833	835	835	837	839	845	850	854	856	860	860	865	867	869	875	878	880	882	889	896	896	903	905	908	910	913	913	915	915	917	917	942	945	945	945	948	948	950	953	966	972	974	980	983	985	988	991	994	997	1008	1014	1014	1020	1023	1026	1030	1042	1048	1048	1052	1052	1055	1058	1064	1071	1074	1085	1085	1085	1085	1088	1091	1091	1095	1095	1091	0	0	0	0	0	0	0	4771	4771	4771	4771	4771	4771	4706	4706	4706	4706	4706	4706	4706	4706	4706	4706	4706	4706	4706	4706	4706	4706	4706	4706	4706	4706	4706	4643	4643	4643	4643	4643	4643	4643	4643	4706	4706	4706	4706	4643	4643	4643	4706	4706	4706	4706	4706	4771	4771	4771	6468	6349	6235	6124	6235	6124	6235	6235	6235	6235	6235	6235	6235	6124	6124	6124	6124	6124	6124	6124	6124	6124	6124	6124	6124	6124	6124	6124	6124	6124	0	0	0	0	0	0	5282	5364	5448	5535	5535	5626	5535	5448	7779	7779	7779	7779	7779	7779	7779	7779	7779	7779	7779	7779	7779	7779	7779	7959	7959	7959	7959	7959	7959	7959	8146	8146	7959	8146	8146	7959	7959	7959	7779	7779	7779	7779	7779	7779	7779	7779	7779	7779	7779	7779	7779	7779	7779	7959	7779	7779	7779	7959	7959	7959	7959	7959	7959	7959	7959	7959	7959	7959	7959	7959	7959	7959	7779	7779	7779	7779	7959	7959	7779	7779	7779	7779	0	0	3864	3864	3821	3821	3821	3779	3779	3779	3779	3738	3779	3779	3779	3779	3738	3738	3779	3779	3821	3821	3821	3779	0	0	0	0	0	0	3779	3821	3821	3779	3738	3779	3738	3738	3738	3738	3738	3779	3738	3779	3779	3738	3779	3779	3779	3738	3738	4771	4771	4771	4771	4706	4706	4706	4706	4706	4706	4643	4643	4643	4643	4643	4706	4706	4643	4706	4706	4706	4706	4706	4706	4706	4643	4643	4706	4643	4581	4521	4406	4406	4406	4406	4406	4406	4406	4521	4521	4463	4406	4463	4463	4463	4521	4521	4521	4463	4521	4521	4463	4521	4463	4521	4521	4581	4581	4581	4581	4581	4581	4581	4581	4643	4643	4643	4643	4581	4581	4581	4581	4521	4521	4463	4521	4463	4406	4406	4406	4406	4406	4406	4406	4406	4463	4463	4521	4581	4581	4521	4581	4581	4581	4581	4581	4581	4581	4581	4581	4581	4350	4350	4350	4350	4463	4463	4521	4521	4521	4521	4463	4463	4463	4463	4406	4406	4406	4406	4463	4521	4521	4463	4463	4463	4463	4463	4463	4463	4521	4581	4581	4581	4581	4581	4643	4643	4643	4643	4581	4581	4581	4581	4581	4581	4581	4581	4521	4521	4521	4406	4406	4406	4463	4463	4521	4521	4521	4643	4581	4581	4581	4581	4521	4521	4463	4463	4463	4406	4463	4463	4463	4463	4406	4406	4406	4521	4521	4521	4581	4581	4581	4521	4581	4581	5050	5125	5125	5202	5202	5125	5125	5125	5125	5050	5050	5050	5050	5050	5125	5125	0	0	0	0	0	0	0	0	0	0	0	0	0	0	0	0	0	6853	6992	6992	6992	6992	6992	6853	6853	6853	6992	6853	6853	6853	6992	6992	6853	6853	6853	6853	6468	6468	0	0	0	0	0	0	0	0	0	5448	5626	5535	5535	5535	5719	5535	5626	5535	5448	5448	5448	5448	5364	5364	5364	5364	5364	5364	5364	5364	5364	5364	5364	5448	5448	5364	0	0	0	0	0	0	0	0	0	0	0	0	0	0	0	0	0	0	0	0	0	0	0	0	0	0	0	0	0	0	0	0	0	0	0	0	0	0	0	0
0	0	0	0	779	782	784	797	798	798	798	798	804	808	806	817	821	823	825	829	829	829	831	833	833	835	835	837	843	850	854	858	860	860	862	867	869	869	875	878	880	884	898	901	903	905	908	908	910	913	913	915	915	917	917	945	945	948	948	948	950	955	963	972	974	980	983	983	988	991	994	1000	1008	1014	1014	1020	1023	1026	1030	1042	1045	1048	1052	1052	1055	1058	1064	1074	1078	1081	1081	1081	1081	1085	1088	1091	1091	1095	0	0	0	0	0	0	0	0	4771	4771	4706	4706	4771	4706	4706	4706	4706	4706	4706	4706	4706	4706	4706	4706	4706	4706	4706	4706	4706	4706	4706	4706	4706	4771	4706	4706	4643	4643	4643	4643	4643	4706	4706	4706	4706	4706	4706	4706	4643	4643	4706	4706	4706	4706	4706	4771	4771	4771	4771	6349	6349	6235	6235	6235	6235	6235	6235	6235	6235	6235	6235	6124	6124	6124	6124	6124	6124	6124	6124	6124	6235	6124	6124	6124	6124	6124	6124	6124	0	0	0	0	0	0	5282	5364	5448	5535	5535	5535	5448	5448	7779	7779	7779	7779	7779	7779	7779	7779	7779	7779	7779	7779	7779	7779	7779	7959	7959	8146	8146	7959	7959	7959	8146	8146	7959	7959	7959	7959	7959	7779	7779	7779	7779	7779	7779	7779	7779	7779	7779	7779	7779	7779	7779	7779	7779	7779	7779	7779	7779	7779	7779	7959	7959	7779	7959	7959	7959	7959	7959	7959	7959	7959	7779	7779	7779	7779	7779	7779	7959	7959	7779	7608	7608	7779	0	0	0	3821	3779	3779	3821	3779	3779	3779	3779	3738	3779	3779	3738	3779	3738	3779	3779	3779	3821	3821	3821	0	0	0	0	0	0	0	3779	3821	3779	3779	3779	3779	3779	3738	3738	3738	3738	3779	3738	3738	3738	3738	3779	3779	3779	3779	3779	4771	4771	4771	4771	4706	4706	4706	4706	4706	4706	4643	4643	4643	4706	4643	4643	4643	4643	4643	4643	4643	4643	4706	4706	4706	4643	4643	4643	4643	4581	4521	4406	4406	4406	4406	4406	4350	4406	4463	4463	4406	4406	4406	4406	4406	4521	4521	4521	4521	4463	4463	4463	4463	4463	4521	4521	4521	4581	4521	4521	4521	4521	4521	4581	4581	4643	4643	4643	4581	4581	4581	4521	4521	4521	4463	4463	4463	4406	4406	4350	4350	4350	4406	4350	4406	4406	4463	4463	4521	4521	4521	4521	4581	4581	4581	4581	4581	4581	4521	4521	4350	4350	4350	4350	4350	4350	4406	4463	4463	4463	4463	4463	4350	4406	4406	4406	4350	4296	4296	4350	4350	4350	4350	4350	4406	4350	4350	4406	4406	4463	4521	4521	4581	4581	4581	4643	4643	4643	4643	4581	4581	4581	4581	4581	4581	4581	4521	4521	4521	4521	4521	4406	4406	4463	4463	4521	4521	4521	4581	4581	4581	4521	4521	4463	4463	4406	4406	4406	4350	4350	4350	4463	4463	4406	4406	4463	4521	4521	4581	4581	4581	4581	4581	4643	4643	5050	5202	5282	5202	5202	5125	5125	5125	5125	5125	5125	5125	5050	5125	5125	5125	0	0	0	0	0	0	0	0	0	0	0	0	0	0	0	0	0	6853	6853	6992	6992	6992	6992	6992	6992	6853	6853	6853	6853	6853	6992	6853	6853	6853	6853	6720	6720	0	0	0	0	0	0	0	0	0	0	0	5626	5626	5535	5535	5719	5626	5626	5535	5448	5448	5448	5364	5364	5364	5364	5364	5364	5364	5364	5364	5364	5364	5364	5448	5448	0	0	0	0	0	0	0	0	0	0	0	0	0	0	0	0	0	0	0	0	0	0	0	0	0	0	0	0	0	0	0	0	0	0	0	0	0	0	0	0	0
0	0	0	0	779	780	782	798	798	798	798	798	802	806	810	815	819	819	821	827	829	829	833	833	833	835	835	837	841	848	852	856	856	860	865	869	871	875	875	878	880	887	896	901	903	905	905	908	910	913	913	915	917	917	917	942	945	948	948	950	953	955	961	969	972	980	980	985	988	994	997	1003	1011	1014	1017	1023	1023	1026	1030	1039	1045	1048	1048	1052	1055	1061	1068	1074	1078	1081	1081	1081	1081	1085	1088	1091	1091	0	0	0	0	0	0	0	0	0	4706	4706	4706	4706	4771	4706	4706	4706	4706	4706	4706	4706	4706	4706	4706	4706	4706	4706	4706	4706	4706	4706	4706	4706	4771	4771	4706	4706	4706	4706	4706	4706	4706	4706	4706	4706	4706	4706	4706	4706	4643	4643	4706	4706	4706	4706	4706	4771	4771	4771	4771	6235	6235	6124	6124	6124	6124	6124	6235	6235	6349	6235	6235	6124	6124	6124	6124	6124	6124	6124	6124	6124	6235	6235	6235	6124	6124	6124	6124	6124	0	0	0	0	0	0	5282	5364	5364	5364	5448	5535	5448	5535	5626	7779	7779	7779	7779	7779	7779	7779	7779	7779	7779	7779	7779	7779	7779	7779	7779	8146	8146	7959	7959	7959	7959	7959	7959	7779	7779	7779	7779	7779	7779	7779	7779	7779	7779	7779	7779	7779	7779	7779	7779	7779	7779	7779	7779	7779	7779	7779	7779	7779	7959	7959	7959	7779	7779	7779	7779	7959	7779	7779	7779	7779	7779	7779	7779	7779	7779	7779	7959	7959	7959	7779	7779	7779	0	0	0	3821	3821	3821	3821	3779	3779	3779	3779	3779	3779	3779	3738	3738	3738	3779	3779	3779	3779	3821	3821	0	0	0	0	0	0	0	3779	3821	3821	3779	3779	3779	3779	3779	3738	3738	3738	3779	3779	3738	3779	3779	3779	3779	3779	3779	3779	3779	4771	4771	4771	4706	4706	4706	4706	4706	4706	4643	4643	4643	4706	4643	4643	4643	4643	4706	4643	4643	4643	4706	4706	4706	4643	4643	4643	4581	4581	4521	4463	4406	4406	4406	4350	4350	4406	4406	4406	4406	4406	4406	4406	4406	4406	4406	4406	4406	4463	4463	4463	4463	4463	4463	4521	4521	4581	4521	4521	4521	4521	4521	4521	4581	4581	4643	4643	4581	4581	4581	4521	4521	4463	4463	4463	4406	4406	4406	4350	4350	4350	4406	4350	4350	4406	4406	4463	4463	4463	4463	4521	4521	4521	4521	4521	4581	4581	4463	4406	4350	4350	4350	4350	4350	4350	4350	4406	4406	4406	4406	4406	4350	4350	4350	4350	4350	4296	4296	4350	4350	4350	4350	4350	4350	4350	4350	4350	4406	4406	4463	4463	4521	4581	4581	4581	4581	4581	4581	4643	4581	4581	4581	4581	4581	4521	4521	4463	4463	4406	4350	4350	4406	4406	4406	4463	4406	4581	4581	4521	4521	4463	4463	4406	4406	4350	4350	4350	4350	4296	4350	4350	4350	4406	4406	4463	4463	4521	4521	4581	4581	4581	4581	4771	4771	5050	5202	5202	5202	5125	5125	5125	5125	5125	5125	5125	5125	5125	5125	5125	0	0	0	0	0	0	0	0	0	0	0	0	0	0	0	0	0	0	6992	7137	7137	7137	7137	6992	6992	6992	6853	6853	6720	6720	6853	6992	6853	6853	6853	6853	6853	6720	0	0	0	0	0	0	0	0	0	0	0	5448	5448	5448	5448	5719	5719	5626	5535	5448	5448	5448	5448	5448	5364	5364	5364	5364	5364	5364	5364	5448	5364	5364	5364	5448	0	0	0	0	0	0	0	0	0	0	0	0	0	0	0	0	0	0	0	0	0	0	0	0	0	0	0	0	0	0	0	0	0	0	0	0	0	0	0	0	0
0	0	0	0	777	782	784	797	798	798	797	798	802	804	806	817	819	819	821	827	827	829	833	833	833	833	835	837	839	843	852	856	860	862	867	869	871	873	875	878	880	884	896	903	905	905	908	908	910	913	913	915	917	917	917	945	948	948	950	953	955	958	963	969	972	977	980	983	988	994	1000	1003	1011	1017	1020	1023	1023	1026	1030	1036	1042	1045	1052	1055	1055	1068	1071	1078	1078	1078	1078	1078	1081	1081	1085	1088	1088	0	0	0	0	0	0	0	0	0	4706	4706	4706	4706	4771	4706	4771	4706	4706	4706	4706	4706	4706	4706	4706	4706	4706	4706	4706	4706	4706	4706	4771	4771	4771	4771	4771	4706	4706	4706	4706	4706	4706	4706	4706	4771	4706	4706	4706	4706	4643	4643	4643	4706	4643	4643	4706	4771	4771	4771	4771	4771	4771	4977	4977	6124	6124	6124	6124	6235	6468	6468	6349	6349	6235	6235	6235	6124	6124	6235	6124	6124	6235	6235	6235	6235	6235	6124	6235	6235	0	0	0	0	0	0	5282	5282	5282	5364	5448	5448	5448	5535	5535	7959	7959	7779	7779	7779	7779	7779	7779	7779	7779	7779	7779	7779	7779	7779	7779	8146	7959	7779	7779	7779	7779	7779	7779	7779	7779	7779	7779	7779	7608	7608	7608	7608	7608	7779	7779	7779	7779	7779	7779	7779	7779	7779	7779	7779	7779	7779	7779	7959	7959	7959	7959	7959	7959	7959	7959	7959	7959	7779	7779	7779	7779	7779	7779	7779	7779	7779	7959	7959	7959	7779	7779	7779	0	0	0	0	3821	3864	3864	3821	3779	3779	3779	3779	3779	3738	3738	3738	3738	3779	3779	3779	3779	3738	3738	0	0	0	0	0	0	0	0	3821	3821	3779	3779	3779	3779	3779	3738	3738	3738	3779	3738	3738	3779	3779	3779	3779	3779	3779	3779	4771	4771	4771	4771	4706	4706	4706	4706	4706	4706	4706	4643	4706	4706	4643	4643	4643	4643	4706	4643	4643	4706	4706	4771	4706	4643	4643	4706	4581	4581	4521	4463	4406	4406	4406	4350	4350	4350	4406	4406	4406	4406	4406	4406	4406	4406	4463	4406	4406	4463	4463	4463	4463	4463	4463	4463	4463	4463	4463	4463	4463	4463	4463	4463	4521	4581	4581	4643	4581	4581	4581	4521	4521	4463	4463	4463	4406	4406	4406	4350	4406	4406	4406	4350	4406	4406	4463	4463	4406	4463	4463	4521	4463	4521	4521	4581	4581	4406	4406	4406	4350	4296	4350	4350	4350	4350	4350	4350	4350	4350	4350	4350	4350	4350	4350	4350	4350	4296	4296	4296	4350	4296	4296	4296	4296	4296	4296	4350	4350	4406	4406	4406	4463	4521	4521	4581	4581	4581	4581	4581	4643	4581	4581	4581	4581	4521	4463	4463	4350	4406	4350	4350	4350	4406	4406	4406	4406	4463	4463	4406	4350	4350	4350	4350	4350	4350	4350	4350	4350	4296	4296	4350	4350	4406	4406	4463	4463	4521	4581	4581	4581	4581	4771	4838	4838	5125	5125	5202	5202	5125	5125	5125	5125	5125	5125	5125	5125	5125	5125	5125	0	0	0	0	0	0	0	0	7287	7137	7137	6853	6853	6992	6992	0	0	0	6992	7137	7137	7137	7137	6992	6992	6853	6853	6853	6853	6853	6853	6853	6853	6853	6853	6853	6720	6720	0	0	0	0	0	0	0	0	0	0	0	5448	5448	5448	5448	5719	5719	5626	5535	5448	5448	5448	5364	5364	5364	5364	5364	5364	5448	5448	5448	5448	5448	5448	5448	0	0	0	0	0	0	0	0	0	0	0	0	0	0	0	0	0	0	0	0	0	0	0	0	0	0	0	0	0	0	0	0	0	0	0	0	0	0	0	0	0	0
0	0	0	0	777	784	786	795	798	798	797	798	802	804	810	817	817	817	819	821	823	823	833	833	835	835	837	837	839	843	856	858	862	865	867	869	871	871	873	878	878	882	898	903	905	908	908	908	910	913	913	915	920	920	942	945	948	950	950	950	955	958	963	969	969	977	977	983	988	997	1000	1003	1011	1017	1020	1023	1023	1026	1026	1036	1042	1045	1055	1058	1058	1071	1071	1074	1074	1078	1081	1081	1081	1085	1088	1088	1088	0	0	0	0	0	0	0	0	4643	4706	4706	4706	4706	4771	4706	4771	4706	4706	4706	4706	4706	4706	4706	4706	4706	4643	4706	4706	4706	4706	4706	4706	4771	4771	4771	4771	4771	4706	4706	4706	4706	4706	4706	4706	4706	4706	4706	4706	4706	4643	4643	4643	4706	4643	4643	4643	4706	4771	4771	4771	4771	4906	4977	4977	0	0	6124	6124	6235	6468	6468	6468	6349	6235	6235	6235	6124	6124	6235	6235	6235	6235	6235	6235	6235	6235	6235	6235	6235	0	0	0	0	0	0	5282	5282	5282	5364	5448	5448	5448	5535	5535	5535	7959	7779	7779	7779	7779	7779	7779	7779	7779	7779	7779	7779	7779	7779	7779	7779	7959	7779	7779	7779	7779	7779	7779	7779	7779	7608	7608	7608	7608	7608	7608	7608	7608	7608	7779	7779	7779	7779	7779	7779	7779	7779	7779	7779	7779	7779	7779	7959	7959	7959	7959	7959	7959	7959	7959	7959	7959	7779	7779	7779	7779	7779	7779	7779	7779	7779	7959	7959	7959	7779	7779	7779	0	0	0	0	3864	3864	3864	3821	3821	3779	3779	3779	3779	3779	3738	3738	3738	3779	3779	3779	3779	3738	3738	0	0	0	0	0	0	0	0	3821	3821	3821	3821	3779	3779	3779	3738	3738	3738	3779	3738	3738	3779	3779	3779	3779	3779	3779	3779	4771	4771	4771	4771	4771	4771	4771	4771	4706	4706	4706	4706	4706	4706	4643	4643	4643	4643	4706	4706	4643	4643	4706	4706	4706	4643	4581	4581	4581	4521	4463	4406	4350	4350	4350	4350	4350	4350	4406	4406	4406	4406	4463	4463	4463	4463	4463	4463	4463	4463	4463	4463	4463	4463	4463	4463	4463	4463	4463	4463	4463	4463	4463	4463	4521	4521	4581	4581	4581	4581	4581	4521	4521	4521	4521	4463	4463	4463	4463	4406	4406	4406	4406	4406	4406	4406	4463	4463	4406	4463	4463	4521	4521	4521	4521	4521	4521	4406	4406	4350	4350	4296	4350	4350	4350	4296	4296	4296	4350	4350	4350	4350	4350	4296	4350	4350	4350	4296	4296	4296	4296	4296	4296	4296	4296	4296	4350	4350	4350	4350	4406	4406	4463	4521	4581	4581	4581	4581	4581	4581	4643	4581	4581	4581	4581	4521	4463	4406	4406	4350	4406	4350	4350	4406	4350	4350	4350	4350	4350	4350	4350	4350	4350	4406	4350	4350	4296	4296	4296	4296	4350	4350	4350	4350	4406	4406	4463	4521	4521	4581	4581	4581	4643	4838	4838	5050	5125	5202	5125	5125	5125	5125	5125	5125	5125	5050	5050	5050	5050	0	0	0	0	0	0	0	0	7137	7137	6992	6992	6853	6992	6992	6992	6992	6853	6853	6992	7137	6992	7137	6992	6992	6853	6853	6853	6720	6720	6720	6720	6720	6720	6853	6853	6853	6853	6720	0	0	0	0	0	0	0	0	0	0	0	0	5448	5448	5448	5719	5719	5626	5448	5448	5448	5364	5364	5364	5364	5364	5364	5364	5448	5364	5448	5448	5448	5448	5448	0	0	0	0	0	0	0	0	0	0	0	0	0	0	0	0	0	0	0	0	0	0	0	0	0	0	0	0	0	0	0	0	0	0	0	0	0	0	0	0	0	0
0	0	0	0	779	784	786	797	798	798	798	798	802	804	808	812	817	817	819	821	823	827	833	833	835	835	837	837	839	843	856	858	862	865	867	869	869	871	873	875	878	880	894	905	905	908	908	910	913	915	915	917	922	922	937	945	948	948	950	950	953	958	961	966	966	972	977	980	988	1000	1003	1003	1008	1011	1017	1020	1023	1026	1030	1036	1042	1045	1055	1055	1061	1071	1074	1074	1078	1078	1078	1078	1081	1085	1088	1088	1091	1091	0	0	0	0	0	0	0	4643	4706	4706	4706	4706	4771	4771	4771	4771	4706	4706	4706	4706	4706	4706	4706	4706	4706	4706	4643	4706	4706	4706	4771	4771	4771	4771	4771	4706	4706	4706	4706	4706	4706	4706	4706	4706	4706	4706	4706	4706	4706	4643	4643	4706	4643	4643	4643	4643	4706	4771	4838	4906	4906	4977	5050	5050	0	0	0	0	0	6468	6468	6349	6235	6235	6235	6124	6124	6235	6235	6235	6235	6235	6235	6235	6235	6235	6235	6235	0	0	0	0	0	0	5202	5282	5282	5364	5364	5448	5448	5535	5535	5535	7959	7779	7779	7779	7779	7779	7779	7779	7779	7779	7779	7779	7779	7779	7779	7959	7779	7779	7779	7608	7779	7608	7779	7608	7608	7608	7608	7608	7608	7444	7608	7608	7608	7608	7608	7779	7779	7779	7779	7779	7779	7779	7779	7779	7779	7779	7779	7959	7959	7959	7959	7959	7959	7959	7959	7959	7779	7779	7779	7779	7779	7779	7779	7779	7779	7779	7779	7779	7779	7779	7779	7779	0	0	0	0	3864	3821	3864	3821	3779	3779	3779	3779	3779	3738	3738	3738	3738	3738	3779	3779	3779	3738	3738	0	0	0	0	0	0	0	0	0	3821	3821	3821	3821	3779	3779	3779	3738	3738	3779	3779	3779	3779	3779	3779	3779	3779	3738	3738	4838	4771	4771	4771	4771	4771	4771	4771	4771	4771	4706	4706	4706	4706	4706	4706	4643	4643	4706	4706	4643	4643	4706	4643	4706	4643	4581	4581	4581	4521	4521	4406	4350	4350	4350	4350	4350	4350	4406	4406	4406	4406	4406	4406	4463	4463	4463	4463	4463	4521	4463	4463	4463	4463	4463	4463	4463	4463	4463	4463	4463	4463	4463	4463	4521	4521	4521	4521	4521	4581	4521	4521	4521	4463	4463	4463	4463	4463	4463	4406	4463	4463	4463	4406	4406	4406	4463	4406	4350	4463	4463	4521	4521	4521	4521	4521	4521	4406	4406	4350	4350	4296	4296	4350	4350	4350	4350	4350	4350	4350	4350	4350	4350	4296	4350	4350	4350	4296	4296	4296	4296	4296	4296	4296	4296	4296	4296	4350	4350	4350	4350	4406	4406	4463	4521	4521	4521	4581	4581	4581	4581	4581	4581	4581	4521	4521	4463	4406	4350	4350	4350	4350	4350	4350	4350	4350	4350	4350	4350	4350	4350	4350	4350	4350	4350	4296	4296	4296	4296	4296	4296	4296	4296	4296	4350	4406	4463	4521	4521	4581	4581	4581	4643	4706	4838	5050	5125	5202	5202	5125	5125	5125	5125	5125	5125	4977	4977	4977	4977	0	0	0	0	0	0	0	0	6992	6992	7137	6853	6853	6853	6992	6853	6853	6853	6992	6992	6992	6992	6992	6992	6992	6853	6853	6853	6720	6720	6720	6720	6720	6720	6720	6720	6720	6720	0	0	0	0	0	0	0	0	0	0	0	0	0	0	0	0	0	5719	5626	5448	5448	5448	5364	5364	5364	5364	5364	5364	5364	5448	5448	5448	5448	5448	5448	5448	0	0	0	0	0	0	0	0	0	0	0	0	0	0	0	0	0	0	0	0	0	0	0	0	0	0	0	0	0	0	0	0	0	0	0	0	0	0	0	0	0	0
0	0	0	0	780	788	791	795	797	797	797	798	802	802	808	810	817	817	819	823	823	827	833	831	833	835	839	839	843	845	856	858	862	867	869	869	869	871	871	875	878	880	882	903	905	908	908	910	913	917	917	920	925	927	932	942	945	948	953	953	955	958	961	966	966	972	977	980	994	1000	1000	1003	1006	1006	1014	1020	1023	1023	1030	1036	1039	1048	1058	1061	1064	1071	1074	1074	1078	1078	1081	1081	1081	1088	1088	1091	1091	1091	0	0	0	0	0	0	0	0	4643	4643	4643	4706	4771	4771	4771	4771	4706	4706	4706	4706	4706	4706	4706	4706	4706	4706	4706	4706	4706	4706	4706	4706	4771	4771	4771	4706	4706	4706	4706	4706	4706	4706	4706	4706	4706	4706	4706	4706	4706	4643	4643	4643	4643	4643	4643	4643	4706	4771	4906	4977	4977	5050	5050	5050	0	0	0	0	0	0	0	0	6235	6235	6235	6124	6124	6124	6124	6124	6124	6235	6235	6235	6235	6124	6235	6235	0	0	0	0	0	0	5202	5282	5282	5282	5364	5364	5364	5448	5535	5535	5535	7779	7779	7779	7779	7779	7779	7779	7608	7779	7779	7779	7779	7779	7779	7779	7779	7608	7608	7608	7608	7608	7608	7608	7608	7608	7608	7608	7608	7444	7608	7608	7608	7608	7779	7779	7779	7779	7779	7779	7779	7779	7779	7779	7779	7959	7959	7959	7959	8146	7959	7959	7959	8146	8146	7959	7959	7779	7779	7779	7779	7779	7779	7779	7779	7779	7779	7779	7779	7779	7779	7779	0	0	0	0	3821	3779	3821	3821	3779	3738	3738	3738	3738	3738	3738	3738	3738	3738	3779	3779	3738	3738	3738	0	0	0	0	0	0	0	0	0	3864	3821	3821	3821	3821	3779	3779	3738	3738	3738	3779	3779	3779	3779	3779	3779	3738	3738	3738	4838	4771	4771	4771	4771	4771	4771	4771	4771	4771	4706	4706	4706	4706	4706	4643	4643	4643	4643	4643	4643	4643	4706	4643	4706	4643	4581	4581	4581	4521	4463	4406	4406	4406	4406	4406	4406	4406	4463	4463	4463	4463	4463	4463	4463	4463	4521	4521	4521	4521	4463	4521	4463	4463	4463	4463	4406	4463	4463	4463	4463	4463	4521	4521	4521	4521	4581	4521	4521	4581	4521	4521	4521	4521	4521	4521	4521	4521	4521	4463	4521	4463	4463	4463	4406	4463	4463	4463	4350	4463	4463	4521	4463	4521	4521	4521	4521	4463	4463	4406	4406	4350	4350	4350	4350	4350	4350	4350	4350	4350	4350	4350	4296	4296	4296	4350	4350	4296	4296	4296	4296	4296	4296	4296	4296	4296	4296	4350	4350	4350	4350	4350	4406	4406	4521	4463	4463	4581	4581	4581	4581	4581	4521	4521	4521	4521	4463	4406	4350	4350	4350	4350	4350	4350	4350	4296	4296	4296	4296	4296	4296	4296	4296	4350	4350	4296	4296	4296	4296	4296	4296	4296	4296	4296	4350	4350	4406	4463	4521	4581	4581	4581	4643	4706	4838	5050	5125	5125	5125	5125	5125	5125	5125	5125	5125	4977	4977	4977	4977	0	0	0	0	0	0	0	6992	6992	6992	6853	6853	6853	6853	6853	6853	6853	6992	7137	6992	7137	6992	7137	7137	6992	6853	6853	6720	6720	6720	6720	6720	6720	6720	6720	6592	6592	6720	0	0	0	0	0	0	0	0	0	0	0	0	0	0	0	0	0	0	0	0	0	5364	5364	5364	5364	5364	5364	5364	5364	5448	5448	5448	5448	5448	5448	5448	0	0	0	0	0	0	0	0	0	0	0	0	0	0	0	0	0	0	0	0	0	0	0	0	0	0	0	0	0	0	0	0	0	0	0	0	0	0	0	0	0	0
0	0	0	0	782	788	791	795	797	797	798	800	804	804	808	812	815	817	821	823	823	827	831	831	831	835	839	841	845	848	854	858	860	865	867	869	869	869	871	875	878	880	882	903	905	905	908	913	915	917	917	925	927	927	930	935	940	948	953	953	955	958	961	963	966	969	974	988	997	997	1000	1003	1003	1006	1020	1023	1023	1026	1030	1036	1042	1048	1055	1058	1061	1071	1074	1074	1078	1078	1081	1081	1081	1088	1091	1091	1091	1091	1091	0	0	0	0	0	0	0	4643	4643	4643	4706	4771	4706	4771	4771	4706	4706	4706	4706	4706	4706	4706	4706	4706	4706	4706	4706	4706	4706	4706	4706	4771	4771	4771	4706	4706	4706	4706	4706	4706	4706	4706	4706	4706	4706	4706	4706	4706	4706	4643	4643	4643	4643	4643	4643	4706	4706	4838	4977	4977	5050	5125	5125	0	0	0	0	0	0	0	0	0	0	6235	6124	6124	6235	6124	6124	6124	6235	6235	6235	6235	6124	6124	6124	0	0	0	0	0	0	5202	5202	5202	5282	5282	5364	5282	5364	5448	5448	5448	5448	5535	7779	7779	7779	7779	7608	7608	7608	7608	7608	7608	7608	7779	7779	7779	7608	7608	7608	7608	7608	7608	7608	7608	7608	7608	7608	7608	7444	7444	7608	7608	7608	7608	7779	7779	7779	7779	7779	7779	7779	7779	7779	7779	7959	7959	7959	7959	8146	7959	7959	7959	7779	7779	7779	7779	7779	7779	7779	7779	7779	7779	7779	7779	7779	7779	7779	7779	7779	7779	7779	0	0	0	0	3821	3821	3821	3779	3779	3738	3738	3738	3738	3738	3738	3738	3738	3738	3738	3738	3738	3738	3738	0	0	0	0	0	0	0	0	0	3864	3821	3821	3821	3779	3779	3738	3738	3738	3779	3738	3738	3738	3779	3738	3738	3738	3738	3738	4838	4771	4771	4771	4771	4771	4771	4771	4706	4706	4706	4706	4706	4643	4643	4643	4643	4643	4643	4643	4643	4643	4643	4643	4706	4643	4643	4581	4581	4521	4521	4406	4406	4406	4406	4406	4463	4463	4463	4521	4521	4521	4521	4581	4581	4581	4581	4581	4581	4581	4521	4521	4521	4521	4463	4521	4463	4521	4463	4521	4463	4521	4521	4521	4581	4581	4581	4581	4581	4581	4581	4521	4521	4521	4521	4521	4521	4581	4521	4521	4521	4463	4463	4463	4463	4463	4463	4463	4463	4463	4463	4521	4463	4521	4521	4581	4581	4521	4463	4463	4406	4406	4350	4406	4350	4350	4350	4350	4350	4350	4350	4350	4350	4296	4296	4350	4350	4350	4296	4296	4296	4296	4296	4296	4243	4243	4296	4350	4350	4350	4350	4350	4350	4350	4406	4406	4406	4521	4521	4581	4581	4581	4521	4521	4521	4521	4406	4350	4350	4350	4350	4350	4350	4350	4296	4296	4296	4296	4296	4296	4296	4296	4296	4296	4296	4296	4296	4296	4296	4296	4296	4296	4296	4243	4296	4350	4406	4463	4521	4521	4581	4581	4643	4706	4906	5050	5050	5125	5125	5125	5125	5125	5125	5125	4977	4977	4977	4977	0	0	0	0	0	0	0	0	7137	7137	6992	6853	6853	6853	6992	6992	6992	6992	6992	7137	6992	7137	6992	6992	6992	6992	6853	6853	6720	6720	6720	6592	6592	6720	6720	6720	6592	6592	0	0	0	0	0	0	0	0	0	0	0	0	0	0	0	0	0	0	0	0	0	0	5364	5364	5448	5364	5364	5364	5364	5364	5448	5364	5364	5364	5448	5448	5448	0	0	0	0	0	0	0	0	0	0	0	0	0	0	0	0	0	0	0	0	0	0	0	0	0	0	0	0	0	0	0	0	0	0	0	0	0	0	0	0	0	0
0	0	0	0	784	786	791	795	797	797	800	802	802	804	810	814	817	819	821	823	825	825	831	831	833	837	841	843	850	850	856	858	860	862	867	867	869	869	871	875	878	882	882	898	903	905	908	913	915	917	920	925	927	927	930	932	937	945	953	955	955	958	961	963	966	966	972	994	997	1000	1000	1000	1003	1006	1017	1020	1026	1030	1033	1036	1042	1048	1055	1058	1061	1071	1071	1074	1078	1081	1081	1081	1088	1091	1091	1091	1091	1091	1091	0	0	0	0	0	0	0	0	4706	4706	4706	4771	4771	4771	4771	4706	4706	4706	4706	4706	4706	4706	4706	4706	4706	4706	4706	4706	4706	4706	4706	4771	4771	4771	4706	4706	4706	4706	4706	4706	4706	4706	4706	4706	4706	4706	4706	4706	4643	4643	4643	4643	4643	4643	4643	4643	4706	4838	4977	5050	5125	5125	5125	0	0	0	0	0	0	0	0	0	0	0	6124	6124	6235	6124	6124	6124	6124	6124	6235	6235	6124	6124	6124	0	0	0	0	0	0	5125	5125	5202	5202	5202	5202	5282	5364	5448	5535	5535	5535	5535	5535	5535	7608	7608	7608	7608	7608	7608	7608	7608	7608	7444	7608	7608	7444	7444	7444	7444	7608	7608	7608	7608	7608	7608	7608	7608	7608	7608	7608	7608	7608	7608	7779	7779	7608	7608	7608	7779	7779	7779	7779	7779	7959	7959	7959	7959	7959	7779	7779	7779	7779	7779	7779	7779	7779	7779	7779	7779	7779	7608	7779	7779	7779	7779	7779	7959	7779	7779	7779	0	0	0	0	3864	3821	3821	3821	3779	3738	3738	3738	3738	3738	3738	3738	3738	3738	3738	3738	3738	3738	3738	0	0	0	0	0	0	0	0	0	3821	3821	3821	3821	3779	3779	3738	3738	3738	3779	3738	3738	3738	3738	3738	3779	3738	3738	3738	4838	4771	4771	4771	4771	4771	4771	4771	4706	4706	4706	4706	4706	4643	4643	4643	4643	4643	4643	4643	4643	4643	4643	4643	4643	4581	4643	4581	4581	4521	4521	4463	4463	4463	4463	4406	4463	4521	4581	4581	4581	4581	4581	4581	4581	4581	4643	4643	4643	4581	4581	4581	4521	4521	4463	4521	4463	4521	4521	4521	4521	4581	4581	4581	4581	4581	4643	4581	4581	4521	4581	4581	4581	4521	4581	4581	4581	4581	4581	4581	4581	4581	4581	4581	4521	4581	4521	4521	4521	4521	4521	4581	4581	4581	4581	4581	4581	4581	4521	4521	4463	4463	4463	4406	4406	4350	4350	4350	4350	4350	4350	4296	4296	4296	4296	4350	4350	4350	4296	4296	4296	4243	4296	4296	4243	4243	4296	4296	4296	4296	4296	4296	4350	4350	4350	4350	4350	4350	4463	4521	4521	4581	4521	4463	4406	4406	4350	4350	4350	4350	4350	4350	4296	4296	4296	4296	4296	4296	4296	4296	4243	4296	4296	4296	4296	4296	4296	4296	4296	4296	4296	4296	4243	4243	4296	4350	4406	4463	4521	4581	4581	4581	4643	4643	4906	5050	5050	5125	5125	5125	5125	5125	5125	5125	4977	4906	4838	4838	0	0	0	0	0	0	0	0	7137	7137	7137	7137	6853	6853	6992	6992	6992	6992	6992	7137	7137	7137	6992	6992	6992	6992	6992	6853	6853	6720	6720	6592	6592	6592	6592	6592	6468	6468	0	0	0	0	0	0	0	0	0	0	0	0	0	0	0	0	0	0	0	0	0	0	0	5364	5448	5448	5448	5364	5364	5364	5448	5364	5364	5364	5364	5364	5364	0	0	0	0	0	0	0	0	0	0	0	0	0	0	0	0	0	0	0	0	0	0	0	0	0	0	0	0	0	0	0	0	0	0	0	0	0	0	0	0	0	0
0	0	0	0	784	788	791	793	797	798	802	802	802	804	806	810	817	821	823	823	825	825	831	831	833	837	843	843	850	850	858	860	862	862	867	867	869	869	871	875	878	882	882	894	901	905	908	915	917	920	922	925	927	930	932	935	937	948	953	955	958	958	963	966	969	972	977	977	991	997	1000	1000	1003	1003	1008	1020	1026	1030	1036	1042	1045	1052	1055	1058	1061	1071	1071	1071	1074	1081	1085	1088	1091	1095	1095	1091	1091	1091	0	0	0	0	0	0	0	0	0	4706	4771	4771	4771	4771	4771	4771	4771	4706	4706	4706	4706	4706	4706	4706	4706	4706	4706	4706	4706	4706	4706	4706	4706	4706	4706	4706	4706	4706	4706	4706	4643	4706	4706	4706	4706	4706	4706	4706	4706	4643	4643	4643	4643	4643	4643	4643	4706	4706	4838	4977	4977	5050	5125	5125	5125	0	0	0	0	0	0	0	0	0	0	0	0	6235	6124	6124	6018	6124	6124	6124	6124	6124	6124	6124	0	0	0	0	0	0	5125	5125	5125	5202	5202	5202	5202	5282	5364	5448	5448	5448	5448	5535	5535	5535	7779	7779	7608	7608	7608	7608	7608	7444	7608	7608	7608	7444	7444	7444	7444	7608	7608	7608	7608	7608	7608	7608	7608	7779	7779	7608	7608	7608	7608	7779	7779	7608	7608	7608	7608	7608	7608	7779	7779	7779	7959	7779	7779	7779	7779	7779	7779	7779	7779	7779	7779	7779	7779	7779	7779	7779	7608	7779	7779	7779	7779	7779	7779	7779	7779	7779	0	0	0	0	3821	3779	3779	3779	3779	3779	3738	3738	3738	3738	3738	3738	3738	3738	3738	3779	3738	3779	3779	0	0	0	0	0	0	0	0	0	3864	3864	3821	3821	3779	3779	3738	3738	3738	3779	3738	3738	3738	3779	3738	3738	3738	3698	3698	3698	4771	4771	4771	4771	4771	4771	4771	4706	4706	4706	4706	4643	4643	4643	4643	4643	4643	4643	4643	4643	4643	4706	4643	4643	4581	4643	4643	4581	4581	4521	4406	4406	4463	4463	4521	4521	4581	4581	4581	4643	4581	4581	4581	4581	4643	4643	4643	4643	4643	4643	4581	4581	4581	4521	4581	4521	4581	4581	4581	4581	4643	4643	4581	4581	4581	4581	4581	4581	4581	4581	4581	4581	4581	4581	4581	4581	4643	4643	4643	4581	4643	4643	4581	4581	4643	4581	4581	4581	4581	4581	4581	4581	4581	4581	4581	4581	4581	4521	4521	4521	4463	4463	4463	4406	4406	4350	4350	4350	4350	4296	4296	4296	4296	4296	4350	4350	4350	4296	4296	4296	4243	4296	4243	4243	4192	4243	4296	4296	4296	4296	4296	4296	4350	4296	4296	4296	4350	4350	4406	4521	4406	4463	4463	4406	4463	4406	4350	4350	4350	4350	4350	4350	4296	4296	4296	4296	4296	4296	4296	4243	4296	4296	4296	4296	4296	4296	4296	4296	4296	4296	4296	4296	4243	4296	4296	4296	4350	4521	4521	4581	4581	4581	4581	4581	5125	5125	5125	5202	5125	5125	5125	5125	5050	5050	4906	4838	4838	4838	0	0	0	0	0	0	0	0	7287	7137	7137	6992	6992	6992	6992	6992	6992	6992	7137	6992	6992	6992	6992	6992	6992	6853	6853	6853	6720	6720	6720	6592	6592	6592	6592	6468	6349	6349	0	0	0	0	0	0	0	0	0	0	0	0	0	0	0	0	0	0	0	0	0	0	5364	5364	5364	5364	5364	5364	5364	5448	5364	5364	5282	5282	5282	5202	5202	0	0	0	0	0	0	0	0	0	0	0	0	0	0	0	0	0	0	0	0	0	0	0	0	0	0	0	0	0	0	0	0	0	0	0	0	0	0	0	0	0
0	0	0	0	784	786	788	791	797	800	802	804	804	804	806	814	817	821	823	823	823	825	829	831	835	837	841	843	850	850	858	860	860	862	865	867	867	869	871	875	878	882	882	894	898	901	905	915	917	917	920	925	925	930	932	932	937	940	950	955	958	961	961	966	969	977	985	985	994	997	1000	1000	1003	1003	1011	1017	1023	1030	1033	1036	1045	1052	1055	1055	1061	1068	1071	1071	1074	1081	1085	1088	1091	1095	1098	1095	1095	1095	0	0	0	0	0	0	0	0	0	0	4771	4771	4771	4706	4706	4706	4706	4706	4706	4706	4706	4706	4706	4706	4706	4706	4706	4706	4706	4706	4706	4706	4706	4706	4706	4643	4643	4643	4643	4643	4643	4706	4706	4706	4706	4706	4706	4706	4706	4706	4643	4643	4643	4706	4643	4643	4706	4771	4838	4906	4977	5050	5050	5050	5125	5125	5125	0	0	0	0	0	0	0	0	0	0	0	6124	6018	6018	6018	6124	6235	6124	6018	6018	6124	0	0	0	0	0	0	0	5125	5125	5202	5202	5202	5282	5282	5282	5364	5448	5448	5448	5535	5535	5535	7779	7779	7608	7444	7444	7444	7608	7608	7608	7608	7608	7444	7444	7444	7444	7444	7608	7608	7608	7608	7779	7779	7608	7608	7608	7608	7608	7608	7608	7608	7608	7608	7608	7608	7608	7608	7608	7779	7779	7959	7959	7779	7779	7779	7779	7779	7779	7779	7779	7959	7959	7959	7959	7959	7779	7779	7779	7779	7779	7779	7779	7779	7959	7959	7779	7779	0	0	0	0	3864	3779	3779	3779	3779	3738	3738	3738	3738	3738	3738	3738	3738	3738	3738	3779	3738	3738	3779	0	0	0	0	0	0	0	0	0	3821	3821	3821	3821	3779	3779	3779	3738	3738	3779	3738	3738	3738	3738	3738	3738	3738	3698	3659	3659	4771	4771	4771	4706	4771	4706	4706	4706	4706	4706	4706	4643	4643	4643	4643	4643	4706	4643	4643	4643	4706	4706	4643	4643	4643	4643	4581	4581	4521	4521	4406	4406	4463	4521	4521	4581	4581	4581	4643	4643	4581	4581	4581	4643	4643	4643	4643	4643	4643	4643	4643	4581	4581	4521	4581	4643	4581	4581	4581	4643	4643	4643	4643	4643	4581	4643	4643	4581	4581	4581	4581	4581	4581	4581	4643	4581	4643	4581	4643	4643	4643	4643	4643	4643	4643	4581	4581	4581	4581	4581	4581	4581	4581	4521	4521	4521	4521	4521	4463	4463	4463	4463	4463	4463	4406	4350	4350	4350	4350	4350	4350	4296	4296	4296	4296	4296	4350	4296	4296	4296	4296	4296	4296	4243	4243	4296	4296	4296	4296	4296	4296	4296	4296	4296	4296	4296	4296	4350	4350	4350	4406	4406	4463	4406	4463	4406	4350	4406	4406	4350	4350	4350	4296	4296	4296	4296	4296	4296	4296	4243	4296	4296	4296	4296	4296	4296	4296	4296	4296	4296	4296	4243	4243	4243	4296	4296	4350	4521	4521	4521	4521	4581	4581	4581	5050	5125	5125	5202	5125	5125	5125	5050	5050	5050	5050	4838	4838	4838	0	0	0	0	0	0	0	0	7287	7137	7137	6992	6992	6992	6992	6992	6853	6992	6992	6992	6992	6853	6853	6992	6992	6853	6853	6720	6720	6720	6720	6592	6592	6592	6468	6349	6349	6349	0	0	0	0	0	0	0	0	0	0	0	0	0	0	0	0	0	0	0	0	0	0	5364	5364	5364	5364	5364	5448	5364	5364	5364	5282	5202	5282	5202	5125	5125	0	0	0	0	0	0	0	0	0	0	0	0	0	0	0	0	0	0	0	0	0	0	0	0	0	0	0	0	0	0	0	0	0	0	0	0	0	0	0	0	0
0	0	0	0	784	786	788	791	797	802	804	804	804	804	808	812	815	819	823	823	825	827	831	831	835	837	841	843	850	850	856	858	860	862	865	867	867	869	873	878	880	884	882	889	896	898	901	908	913	915	915	920	930	932	935	937	937	940	940	953	958	958	961	963	972	980	980	988	991	997	997	1000	1003	1006	1011	1017	1026	1030	1033	1036	1045	1048	1055	1055	1061	1064	1068	1071	1074	1081	1085	1088	1091	1095	1098	1098	1098	1098	0	0	0	0	0	0	0	0	0	0	4771	4771	4706	4706	4706	4771	4706	4706	4771	4706	4706	4706	4771	4706	4706	4706	4706	4706	4706	4643	4643	4706	4643	4706	4643	4643	4643	4643	4643	4643	4643	4706	4706	4706	4706	4706	4706	4706	4706	4706	4643	4643	4643	4706	4706	4643	4706	4771	4906	4906	4977	4977	5050	5050	5050	5125	5125	0	0	0	0	0	0	0	0	0	0	0	0	6018	6018	6018	6124	6124	6124	6124	6018	0	0	0	0	0	0	0	0	5125	5125	5202	5202	5202	5202	5282	5282	5364	5448	5448	5535	5535	5535	5535	0	0	0	7444	7444	7608	7608	7608	7779	7779	7779	7608	7444	7287	7444	7444	7608	7444	7608	7608	7779	7779	7608	7608	7608	7608	7608	7608	7608	7608	7779	7608	7608	7779	7779	7779	7779	7959	7959	7959	7959	7779	7779	7779	7779	7779	7779	7779	7779	7959	7779	7959	7959	7959	7779	7779	7779	7959	7779	7779	7779	7779	7779	7959	7959	7959	7959	0	0	0	3738	3738	3779	3738	3738	3738	3738	3738	3738	3738	3779	3779	3779	3738	3779	3779	3779	3779	3779	0	0	0	0	0	0	0	0	0	3821	3821	3821	3779	3779	3779	3738	3738	3738	3779	3738	3738	3738	3738	3738	3738	3738	3698	3659	3621	3621	4771	4771	4706	4771	4706	4706	4706	4706	4706	4706	4643	4643	4643	4643	4643	4643	4643	4643	4643	4643	4706	4706	4643	4643	4643	4643	4581	4521	4463	4406	4406	4406	4463	4521	4581	4581	4643	4643	4643	4581	4581	4581	4643	4643	4643	4643	4643	4643	4643	4643	4581	4581	4521	4581	4581	4581	4581	4581	4643	4643	4643	4643	4643	4643	4643	4643	4581	4581	4581	4581	4581	4581	4581	4581	4581	4643	4643	4643	4706	4643	4643	4643	4643	4643	4581	4581	4581	4581	4581	4581	4581	4581	4521	4521	4521	4521	4521	4463	4463	4463	4463	4463	4463	4406	4350	4350	4350	4350	4350	4350	4296	4296	4296	4296	4296	4296	4296	4296	4296	4296	4296	4296	4243	4243	4243	4243	4296	4296	4296	4296	4296	4296	4296	4296	4243	4296	4296	4350	4350	4350	4406	4406	4406	4463	4406	4350	4350	4406	4350	4350	4350	4350	4350	4296	4296	4296	4296	4243	4296	4296	4296	4296	4296	4296	4296	4296	4296	4296	4296	4243	4243	4243	4243	4243	4296	4350	4350	4521	4521	4521	4581	4581	4581	4581	5282	5202	5202	5202	5125	5125	5125	5050	5050	5050	4838	4838	4838	0	0	0	0	0	0	0	0	7287	7137	6992	6992	6992	6992	6992	6992	6853	6992	6992	6992	6992	6853	6992	6992	6992	6853	6853	6853	6853	6720	6720	6592	6720	6592	6592	6468	6468	0	0	0	0	0	0	0	0	0	0	0	0	0	0	0	0	0	0	0	0	0	0	5364	5364	5364	5364	5364	5364	5364	5364	5364	5364	5282	5202	5202	5125	5125	5050	5050	0	0	0	0	0	0	0	0	0	0	0	0	0	0	0	0	0	0	0	0	0	0	0	0	0	0	0	0	0	0	0	0	0	0	0	0	0	0	0	0
0	0	0	0	786	786	788	789	795	795	804	804	806	808	810	814	815	821	825	825	827	829	831	831	833	835	839	841	848	848	856	858	860	862	865	865	867	869	875	880	882	884	887	889	889	896	898	905	910	913	915	925	925	932	935	937	937	940	940	953	958	961	963	966	977	977	985	988	991	994	997	1000	1003	1006	1017	1017	1023	1030	1036	1036	1045	1048	1055	1055	1061	1064	1068	1068	1074	1081	1085	1085	1088	1091	1098	1095	1095	1098	0	0	0	0	0	0	0	0	0	4643	4643	4643	4706	4706	4706	4706	4706	4706	4706	4706	4706	4771	4771	4771	4706	4706	4706	4706	4706	4643	4643	4706	4706	4706	4643	4643	4643	4643	4643	4643	4643	4643	4706	4706	4706	4706	4706	4706	4706	4706	4706	4643	4643	4706	4706	4706	4771	4771	4906	4977	4977	4977	5050	5050	5050	5050	5125	0	0	0	0	0	0	0	0	0	0	0	0	6018	6018	6018	6124	6124	6124	6124	0	0	0	0	0	0	0	0	0	5125	5202	5202	5202	5202	5202	5282	5282	5364	5364	5364	5448	5448	5535	5535	0	0	0	0	7444	7608	7608	7608	7779	7779	7608	7287	7287	7287	7287	7287	7608	7608	7608	7608	7779	7608	7608	7608	7779	7608	7608	7779	7779	7779	7779	7608	7608	7779	7779	7779	7779	7959	7959	7959	7959	7779	7779	7608	7779	7608	7608	7779	7779	7959	7959	7959	7959	7959	7779	7779	7779	7959	7959	7959	7779	7779	7959	7959	7959	7959	7959	0	0	3779	3779	3779	3779	3779	3738	3738	3738	3738	3738	3738	3779	3779	3779	3779	3779	3779	3779	3779	3779	0	0	0	0	0	0	0	0	0	3821	3821	3821	3779	3779	3779	3738	3738	3738	3779	3738	3738	3738	3738	3738	3738	3738	3698	3659	3659	4771	4771	4771	4706	4706	4706	4706	4706	4706	4643	4643	4643	4643	4581	4581	4581	4643	4643	4643	4643	4643	4706	4706	4643	4643	4643	4643	4581	4521	4406	4406	4406	4406	4406	4521	4581	4581	4581	4643	4643	4581	4581	4581	4581	4643	4643	4581	4581	4581	4643	4643	4581	4581	4521	4581	4643	4581	4581	4581	4643	4643	4643	4643	4706	4706	4643	4643	4643	4581	4581	4581	4581	4581	4581	4581	4581	4643	4643	4643	4706	4643	4643	4706	4643	4643	4581	4643	4581	4581	4581	4581	4581	4581	4521	4521	4521	4521	4521	4463	4463	4463	4463	4463	4463	4406	4350	4350	4350	4296	4296	4296	4296	4296	4296	4296	4296	4296	4296	4296	4296	4296	4296	4296	4296	4296	4296	4296	4350	4350	4296	4296	4350	4296	4296	4296	4243	4243	4296	4296	4350	4350	4406	4463	4406	4463	4406	4406	4406	4350	4350	4350	4350	4350	4350	4350	4350	4296	4296	4243	4296	4192	4192	4243	4243	4243	4296	4296	4296	4296	4296	4296	4296	4243	4296	4296	4350	4406	4463	4521	4521	4521	4581	4581	4581	4581	5282	5282	5202	5202	5125	5125	5125	5125	5125	4906	4838	4838	4838	0	0	0	0	0	0	0	0	0	0	6992	6853	6992	6992	6992	6853	6853	6853	7137	6853	6853	6853	6853	6853	6853	6853	6853	6853	6853	6853	6720	6720	6720	6720	6592	6592	6592	0	0	0	0	0	0	0	0	0	0	0	0	0	0	0	0	0	0	0	0	0	0	5364	5364	5364	5364	5448	5448	5448	5364	5364	5202	5202	5125	5125	5125	5125	5125	5125	5125	0	0	0	0	0	0	0	0	0	0	0	0	0	0	0	0	0	0	0	0	0	0	0	0	0	0	0	0	0	0	0	0	0	0	0	0	0	0	0
0	0	0	0	788	788	788	789	793	793	806	806	810	810	812	814	815	821	825	825	827	829	833	833	835	835	837	841	845	848	858	860	860	862	865	865	867	871	875	875	884	887	889	889	894	896	901	908	913	913	915	920	927	927	932	937	937	940	940	955	958	961	963	969	977	980	985	985	988	991	994	1000	1003	1006	1011	1017	1026	1026	1033	1039	1045	1048	1055	1058	1061	1064	1068	1068	1071	1078	1081	1081	1085	1088	1088	1098	1098	1098	0	0	0	0	0	0	0	0	0	4643	4643	4643	4643	4643	4643	4706	4771	4706	4771	4771	4706	4771	4771	4771	4706	4706	4706	4706	4643	4643	4643	4643	4643	4643	4643	4643	4643	4643	4643	4643	4643	4643	4643	4706	4706	4706	4706	4643	4706	4706	4706	4643	4706	4706	4706	4706	4771	4771	4977	4977	4977	4977	5050	5050	5050	5050	0	0	0	0	0	0	0	0	0	0	6018	6124	6124	0	0	0	0	0	0	0	0	0	0	0	0	0	0	0	0	0	5202	5125	5202	5202	5202	5282	5282	5364	5364	5364	5448	5448	5535	5535	0	0	0	0	0	0	0	0	0	7779	7608	7287	7287	7287	7287	7287	7608	7608	7608	7608	7608	7608	7779	7779	7779	7779	7779	7779	7779	7779	7608	7608	7608	7779	7779	7779	7779	7959	7779	7779	7779	7779	7779	7779	7779	7779	7779	7779	7779	7779	7779	7959	7959	7959	7959	7959	7959	7959	7959	8146	7959	8146	8146	8146	8146	7959	7959	0	0	3779	3779	3779	3738	3738	3738	3738	3779	3779	3779	3779	3779	3779	3779	3779	3779	3779	3779	3779	3779	0	0	0	0	0	0	0	0	0	3821	3821	3779	3779	3779	3779	3738	3738	3738	3738	3738	3738	3738	3738	3738	3738	3738	3698	3659	3659	4771	4771	4706	4706	4706	4643	4643	4643	4643	4643	4643	4643	4643	4643	4643	4643	4643	4643	4643	4643	4706	4706	4706	4643	4643	4706	4643	4581	4581	4463	4406	4406	4406	4406	4521	4581	4581	4643	4643	4581	4581	4581	4581	4581	4581	4581	4643	4581	4581	4643	4581	4581	4581	4581	4581	4581	4581	4581	4581	4643	4643	4643	4643	4643	4643	4643	4643	4581	4581	4581	4643	4581	4581	4581	4581	4581	4643	4643	4643	4643	4643	4706	4706	4643	4643	4581	4643	4581	4581	4581	4581	4581	4581	4581	4581	4521	4521	4521	4463	4463	4521	4463	4521	4463	4406	4350	4350	4350	4296	4296	4296	4296	4296	4296	4296	4296	4296	4296	4350	4296	4296	4296	4296	4296	4296	4296	4296	4350	4350	4350	4350	4350	4350	4350	4296	4243	4243	4296	4350	4350	4350	4406	4463	4406	4463	4463	4406	4406	4406	4350	4350	4350	4350	4350	4350	4296	4296	4296	4296	4296	4243	4243	4296	4296	4296	4296	4296	4296	4350	4296	4296	4296	4296	4296	4296	4350	4406	4463	4521	4521	4581	4581	4581	4581	5050	5202	5202	5202	5125	5125	5125	5125	5125	5125	5125	4838	4838	0	0	0	0	0	0	0	0	0	0	0	0	6853	6853	6853	6853	6853	6853	6992	6992	6853	6853	6853	6853	6853	6992	6853	6853	6853	6853	6720	6720	6720	6720	6720	6592	6592	6592	0	0	0	0	0	0	0	0	0	0	0	0	0	0	0	0	0	0	0	0	0	0	5282	5364	5364	5364	5364	5364	5364	5364	5364	5202	5125	5125	5125	5050	5050	5050	5125	5125	0	0	0	0	0	0	0	0	0	0	0	0	0	0	0	0	0	0	0	0	0	0	0	0	0	0	0	0	0	0	0	0	0	0	0	0	0	0	0
0	0	0	0	788	788	789	791	795	795	795	808	810	812	814	815	815	819	823	825	827	829	833	833	835	837	839	841	848	848	858	860	860	862	862	867	869	871	875	878	884	887	889	889	894	898	903	908	910	910	913	915	920	920	937	937	940	940	948	955	958	961	963	966	966	977	980	985	985	991	994	1000	1003	1008	1008	1014	1026	1026	1033	1039	1045	1048	1052	1058	1061	1064	1068	1068	1071	1074	1078	1081	1078	1078	1078	1098	1098	1098	0	0	0	0	0	0	4771	4771	4706	4706	4643	4643	4643	4706	4706	4706	4771	4771	4771	4771	4771	4771	4771	4771	4706	4706	4643	4643	4643	4643	4643	4643	4643	4643	4643	4643	4643	4643	4643	4643	4643	4643	4643	4643	4643	4643	4643	4643	4706	4706	4706	4643	4706	4706	4706	4706	4771	4838	4906	4977	4977	4977	5050	5050	5050	0	0	0	6124	6235	6124	6235	6124	6124	6124	6124	6018	6124	6124	6124	6124	6018	6018	6124	6018	6018	6018	6018	0	0	0	0	0	0	0	0	5202	5202	5202	5282	5282	5282	5282	5364	5364	5364	5448	5448	5448	5535	0	0	0	0	0	0	0	0	0	0	0	0	0	0	0	0	0	0	0	7608	7608	7608	7779	7779	7779	7779	7779	7779	7779	7779	7779	7779	7779	7779	7779	7779	7779	7779	7779	7779	7779	7779	7779	7779	7779	7779	7779	7779	7779	7779	7959	7959	7959	8146	8146	8146	7959	8146	7959	8146	8146	8146	8146	8146	7959	7959	7959	0	3779	3779	3779	3779	3738	3738	3738	3738	3738	3779	3738	3738	3779	3738	3821	3821	3779	3738	3738	3738	0	0	0	0	0	0	0	0	0	3821	3821	3821	3779	3779	3779	3738	3738	3738	3738	3738	3738	3738	3738	3738	3738	3738	3738	3698	3698	3698	4771	4706	4706	4706	4706	4643	4643	4643	4643	4643	4643	4643	4643	4643	4643	4643	4643	4643	4643	4643	4706	4706	4706	4643	4643	4643	4581	4581	4521	4406	4406	4406	4406	4406	4521	4581	4581	4581	4581	4581	4581	4581	4581	4581	4581	4581	4581	4581	4643	4581	4643	4581	4581	4581	4581	4581	4581	4581	4581	4643	4706	4643	4643	4643	4643	4581	4643	4581	4581	4581	4581	4581	4581	4581	4581	4581	4643	4643	4643	4643	4706	4706	4706	4643	4643	4643	4643	4581	4581	4581	4581	4581	4581	4581	4581	4521	4521	4521	4521	4521	4463	4463	4463	4463	4406	4350	4350	4350	4296	4296	4296	4296	4296	4296	4296	4296	4296	4350	4406	4350	4350	4350	4350	4350	4296	4350	4350	4350	4406	4406	4406	4406	4350	4350	4350	4296	4296	4350	4350	4350	4521	4521	4521	4463	4521	4521	4463	4463	4406	4350	4350	4406	4350	4350	4350	4350	4350	4350	4350	4350	4296	4296	4350	4350	4350	4350	4350	4350	4350	4350	4296	4296	4296	4296	4296	4350	4406	4463	4521	4521	4581	4581	4581	4581	5050	5050	5125	5125	5125	5125	5125	5125	5125	5125	5125	0	0	0	0	0	0	0	0	0	0	0	0	0	0	0	6853	6992	6992	6992	6853	6853	6853	6853	6853	6853	6853	6853	6992	6853	6853	6853	6853	6720	6720	6720	6720	6720	6720	6720	6720	0	0	0	0	0	0	0	0	0	0	0	0	0	0	0	0	0	0	0	0	0	0	5364	5364	5364	5364	5364	5364	5364	5364	5364	5202	5125	5125	5125	5050	5050	5050	5050	5050	0	0	0	0	0	0	0	0	0	0	0	0	0	0	0	0	0	0	0	0	0	0	0	0	0	0	0	0	0	0	0	0	0	0	0	0	0	0	0
