0	0	0	0	0	0	0	0	0	1480	1480	1486	1486	1486	1486	1492	1492	1486	1492	1486	1486	1492	1492	1486	1480	1480	1486	1480	1480	1480	1480	1480	1486	1486	1486	1492	1492	1512	1519	1519	1525	1525	1532	1532	1814	1824	1824	1814	1814	1824	1814	1814	1824	1814	1824	1814	1804	1804	1804	1824	1824	1814	1824	1824	1824	1824	1824	1824	1814	1814	1804	1804	1804	1804	1814	1814	1814	1824	1833	1843	1843	1843	1843	1853	1843	1843	2589	2570	2589	2570	2570	2570	2570	2570	2570	2570	2570	2570	2570	2570	2570	2570	2570	2551	2570	2551	2570	2551	2570	2570	2570	2570	2570	2570	2570	2570	2551	2551	2551	2551	2551	2551	2551	2551	2570	2570	2589	2589	2589	2570	2570	2570	2570	2570	2570	2570	2570	2570	2570	2570	2570	2570	2570	2570	2570	2570	2570	2570	2570	2570	2570	2570	2570	2570	3621	3583	3583	3546	3583	3583	3621	3621	3621	3583	3583	3583	3583	3583	3583	3583	3583	3583	3583	3546	3583	3583	3583	3583	3583	3621	3621	3583	3583	3546	3583	3583	3583	3583	3621	3659	3659	3659	3659	3659	3698	3698	3698	3698	3698	3698	3698	3698	3698	3698	3698	3738	3738	3738	3738	3738	3738	3738	3779	3779	3738	3738	3738	3738	3738	3738	3738	3698	3698	3698	3698	3698	3698	3698	3698	3698	3698	3698	3698	3698	3738	3738	3738	3779	3779	3779	3738	3738	3738	3738	3738	3738	3738	3738	3738	3738	3738	3779	3779	3779	3779	3779	3779	3779	3779	3779	3738	3738	3738	3738	3738	3738	3738	3738	3698	3698	3698	3698	3698	3698	3738	3738	3738	3738	3738	3738	3738	3738	3738	3738	3738	3738	3738	3738	3698	3698	3698	3698	3698	3698	3698	3698	3698	3698	3738	3738	3738	3738	3738	3738	3738	3738	3738	3738	3738	3738	3698	3738	3698	3738	3738	3738	3738	3738	3738	3779	3779	3779	3779	0	0	0	2711	2690	2690	2669	2669	2669	2690	2690	2690	2690	2690	2690	2690	2690	2690	2690	2690	2690	2669	2690	2690	2669	2669	2669	2669	2690	2669	2669	2690	2690	2690	2690	2711	2711	2711	2711	2711	2711	2711	2690	2690	0	3621	3698	3738	3698	3698	3738	3738	3738	3738	3738	3738	3738	3738	3738	3738	3738	3738	3738	3738	3698	3738	3738	3779	3779	3779	3738	3738	3738	3738	3738	3738	3779	3779	3738	3779	3779	3779	3779	3779	3738	3738	3738	3738	3779	3779	3779	3779	3779	3779	3779	3779	3779	3779	3779	3779	3779	3738	3738	3738	3738	3738	3738	3738	3779	3738	3738	3738	3738	3738	3738	3738	3738	3738	3738	3738	3738	3779	3779	3779	3779	3779	3779	3779	3738	3738	3738	3738	3738	3738	3779	3779	3779	3779	3779	3738	3738	3738	3738	3738	3779	3779	3779	3821	3779	3779	3779	3738	3738	3738	3738	3738	3738	3738	3738	3779	3738	3779	3738	3779	3779	3779	3779	3779	3779	3779	3779	3738	3738	3738	3779	3779	3779	3738	3738	3779	3779	3779	3779	3779	3779	3821	3821	3821	3821	3821	3779	3821	3779	3779	3779	3779	3779	3779	3779	3779	3779	3779	3738	3738	3738	3738	3779	3738	3779	3779	3779	3779	3779	3779	3779	3779	3779	3779	3779	3738	3738	3779	3779	3779	3779	3779	3821	3821	3821	3821	3821	3779	3821	3779	3779	3779	3779	3738	3738	3738	3738	3738	0	0	0	0	0	0	0	0	0	0	0	0	0	0	1131	1127	1127	1123	1120	1120	1116	1113	1109	1102	1098	1098	1095	1091	1091	1091	1091	0	0	0	0	0	0	0	0	0	0	0	0	0	0	0	0	0	0	0	0	0	0	0	0	0	0	0	0	0	0	0	0	0	0	0	0	0	0	0	0	0	0	0	0
0	0	0	0	0	0	0	0	0	1486	1486	1492	1486	1486	1486	1486	1492	1486	1486	1486	1486	1492	1492	1486	1480	1486	1486	1480	1480	1473	1480	1480	1480	1486	1486	1486	1492	1532	1519	1525	1532	1532	1539	1539	1843	1833	1833	1824	1824	1833	1824	1824	1824	1824	1824	1824	1824	1814	1824	1824	1833	1833	1833	1833	1833	1833	1833	1833	1824	1824	1814	1814	1804	1814	1814	1814	1814	1824	1833	1843	1843	1843	1853	1853	1853	1853	0	2570	2589	2570	2570	2570	2570	2570	2570	2570	2570	2570	2570	2570	2570	2570	2551	2551	2551	2551	2551	2551	2551	2551	2570	2570	2570	2570	2570	2570	2551	2551	2551	2551	2551	2551	2551	2551	2570	2570	2570	2589	2570	2570	2570	2570	2570	2570	2570	2570	2570	2570	2570	2570	2570	2570	2570	2570	2570	2570	2570	2570	2570	2570	2570	2570	2570	2570	3621	3583	3621	3583	3583	3583	3621	3621	3621	3621	3583	3583	3583	3583	3583	3583	3583	3583	3583	3583	3583	3583	3621	3621	3621	3621	3621	3659	3659	3583	3583	3621	3621	3621	3621	3659	3659	3659	3659	3659	3698	3698	3698	3698	3698	3698	3698	3698	3698	3698	3698	3738	3738	3738	3738	3738	3738	3738	3779	3779	3779	3738	3738	3738	3738	3738	3738	3698	3698	3698	3698	3698	3698	3698	3698	3698	3698	3698	3698	3698	3738	3698	3738	3738	3738	3738	3738	3738	3738	3738	3738	3738	3738	3738	3779	3738	3738	3738	3738	3779	3779	3779	3779	3779	3779	3779	3738	3738	3738	3738	3738	3738	3738	3738	3698	3698	3698	3698	3698	3738	3738	3738	3738	3738	3738	3738	3738	3738	3738	3738	3738	3738	3698	3738	3698	3698	3698	3698	3698	3698	3738	3738	3738	3738	3738	3738	3738	3738	3738	3738	3738	3738	3738	3738	3738	3738	3698	3738	3698	3779	3779	3738	3738	3738	3738	3779	3779	3779	3779	0	0	0	2711	2690	2690	2690	2690	2690	2690	2690	2690	2690	2690	2690	2690	2690	2690	2690	2690	2690	2669	2690	2690	2669	2690	2690	2669	2690	2669	2669	2690	2690	2690	2711	2711	2711	2733	2733	2711	2711	2711	2690	2690	2690	3659	3698	3698	3698	3698	3738	3738	3738	3738	3738	3738	3738	3738	3738	3738	3738	3738	3738	3738	3698	3738	3738	3779	3779	3779	3779	3779	3738	3738	3738	3738	3779	3738	3738	3738	3779	3779	3779	3738	3738	3738	3738	3738	3779	3779	3779	3779	3779	3779	3779	3779	3779	3779	3779	3779	3779	3738	3779	3738	3779	3738	3738	3738	3779	3779	3738	3738	3738	3738	3738	3738	3698	3698	3698	3738	3738	3779	3779	3779	3779	3779	3779	3738	3738	3738	3738	3738	3738	3738	3738	3779	3779	3779	3738	3738	3698	3698	3698	3698	3738	3779	3779	3779	3779	3779	3779	3738	3738	3738	3779	3738	3779	3779	3779	3779	3779	3779	3779	3779	3779	3779	3779	3779	3779	3779	3779	3738	3738	3738	3738	3738	3738	3738	3779	3779	3779	3779	3779	3779	3779	3821	3821	3821	3779	3779	3779	3821	3779	3779	3779	3779	3779	3779	3779	3779	3779	3779	3779	3779	3738	3738	3779	3779	3779	3779	3779	3738	3779	3779	3779	3779	3779	3779	3738	3738	3738	3779	3779	3779	3779	3779	3821	3821	3821	3821	3821	3779	3821	3779	3779	3779	3779	3779	3738	3738	3738	3738	0	0	0	0	0	0	0	0	0	0	0	0	0	0	1131	1127	1123	1123	1120	1120	1116	1113	1109	1091	1095	1095	1095	1091	1091	1091	1091	0	0	0	0	0	0	0	0	0	0	0	0	0	0	0	0	0	0	0	0	0	0	0	0	0	0	0	0	0	0	0	0	0	0	0	0	0	0	0	0	0	0	0	0
0	0	0	0	0	0	0	0	0	1492	1492	1486	1492	1486	1486	1486	1486	1486	1486	1480	1486	1486	1486	1486	1480	1480	1486	1486	1486	1473	1486	1486	1486	1486	1486	1492	1499	1519	1519	1525	1532	1546	1553	1553	1843	1843	1833	1833	1833	1833	1833	1833	1833	1833	1833	1833	1824	1824	1833	1833	1843	1843	1843	1843	1843	1833	1833	1833	1833	1833	1824	1824	1814	1824	1833	1833	1824	1833	1843	1843	1843	1853	1853	1863	1863	1904	1904	2570	2589	2570	2570	2570	2570	2570	2570	2570	2570	2570	2570	2570	2570	2570	2551	2551	2551	2551	2551	2551	2551	2551	2570	2570	2570	2570	2570	2570	2570	2551	2551	2551	2551	2551	2551	2570	2570	2570	2570	2589	2589	2589	2570	2570	2570	2570	2570	2570	2570	2570	2570	2570	2570	2570	2570	2570	2570	2570	2570	2570	2570	2570	2570	2570	2570	3659	3621	3621	3583	3583	3583	3583	3659	3621	3621	3621	3621	3621	3583	3583	3583	3583	3621	3621	3583	3583	3583	3621	3621	3621	3621	3621	3621	3659	3659	3659	3659	3621	3621	3621	3621	3659	3659	3659	3659	3659	3698	3698	3698	3698	3698	3738	3738	3698	3698	3698	3698	3698	3738	3738	3738	3738	3738	3738	3779	3779	3779	3738	3738	3738	3738	3738	3698	3698	3698	3698	3698	3698	3698	3698	3698	3698	3698	3698	3698	3738	3738	3698	3738	3738	3738	3738	3738	3738	3738	3738	3738	3738	3738	3738	3738	3738	3738	3738	3738	3779	3738	3779	3738	3738	3738	3738	3738	3738	3738	3738	3738	3738	3738	3738	3698	3698	3698	3698	3738	3738	3738	3738	3738	3738	3738	3738	3738	3738	3738	3738	3738	3738	3738	3738	3738	3738	3698	3698	3698	3698	3738	3738	3738	3738	3738	3738	3738	3779	3738	3738	3738	3738	3738	3738	3738	3738	3738	3698	3738	3779	3779	3738	3738	3779	3779	3779	3779	3779	3779	0	2754	2733	2733	2733	2711	2711	2690	2711	2711	2690	2690	2690	2690	2690	2690	2690	2669	2669	2690	2669	2669	2669	2690	2669	2690	2690	2669	2690	2669	2669	2690	2690	2690	2711	2711	2711	2733	2733	2711	2711	2711	2690	2690	2690	3621	3659	3698	3698	3698	3698	3738	3738	3738	3738	3738	3738	3738	3738	3738	3738	3738	3738	3738	3698	3698	3738	3779	3779	3779	3779	3738	3738	3738	3738	3738	3738	3738	3738	3738	3779	3779	3779	3738	3738	3738	3738	3738	3779	3779	3779	3779	3779	3779	3779	3779	3779	3779	3779	3779	3779	3779	3779	3779	3779	3738	3738	3779	3779	3779	3779	3738	3738	3738	3738	3738	3698	3698	3698	3698	3698	3738	3738	3779	3779	3779	3779	3738	3738	3738	3738	3738	3738	3738	3779	3779	3779	3779	3738	3738	3698	3698	3698	3698	3738	3779	3779	3779	3779	3779	3779	3738	3738	3779	3779	3779	3779	3779	3779	3779	3779	3779	3779	3779	3821	3821	3779	3779	3779	3779	3779	3779	3738	3738	3738	3738	3738	3738	3738	3738	3779	3779	3738	3779	3738	3779	3779	3779	3779	3779	3779	3779	3779	3779	3779	3779	3779	3779	3779	3738	3779	3738	3738	3738	3738	3738	3779	3779	3779	3779	3738	3738	3738	3738	3738	3738	3698	3738	3698	3738	3738	3779	3779	3779	3779	3779	3821	3779	3821	3779	3779	3779	3779	3779	3779	3779	3779	3779	3738	3779	3738	3738	0	0	0	0	0	0	0	0	0	0	0	0	0	0	0	1127	1127	1123	1120	1116	1113	1109	1105	1095	1095	1095	1091	1091	1091	1088	1088	0	0	0	0	0	0	0	0	0	0	0	0	0	0	0	0	0	0	0	0	0	0	0	0	0	0	0	0	0	0	0	0	0	0	0	0	0	0	0	0	0	0	0	0
0	0	0	0	0	0	0	0	0	1492	1492	1492	1492	1486	1486	1486	1486	1486	1486	1486	1480	1480	1486	1480	1480	1467	1473	1473	1473	1473	1473	1473	1486	1486	1486	1492	1499	1519	1519	1525	1532	1539	1539	1539	1853	1843	1843	1843	1833	1833	1833	1833	1833	1833	1833	1833	1833	1833	1843	1843	1843	1843	1853	1853	1843	1843	1843	1833	1833	1833	1833	1824	1824	1833	1833	1833	1824	1833	1843	1843	1853	1853	1863	1863	1883	1883	1883	1894	1894	2570	2570	2570	2570	2570	2570	2570	2570	2570	2570	2570	2570	2551	2551	2551	2551	2551	2551	2551	2551	2570	2570	2570	2570	2570	2570	2570	2570	2570	2551	2551	2551	2551	2570	2570	2570	2570	2570	2589	2589	2589	2570	2570	2570	2570	2570	2570	2570	2570	2570	2570	2570	2570	2570	2551	2570	2570	2551	2570	2570	2570	2570	2570	2570	3659	3621	3621	3583	3621	3621	3621	3659	3659	3659	3659	3621	3621	3583	3583	3583	3583	3621	3621	3621	3621	3621	3621	3621	3621	3621	3659	3698	3698	3659	3659	3659	3659	3659	3659	3659	3659	3659	3659	3659	3659	3698	3698	3698	3698	3738	3738	3779	3738	3698	3738	3738	3738	3738	3821	3738	3738	3698	3738	3738	3738	3738	3738	3738	3738	3738	3738	3698	3698	3698	3698	3698	3698	3698	3698	3698	3698	3698	3698	3698	3738	3738	3698	3738	3738	3738	3738	3738	3738	3738	3738	3738	3738	3738	3738	3738	3738	3738	3738	3738	3779	3738	3738	3738	3738	3738	3738	3738	3738	3738	3738	3738	3738	3738	3738	3698	3698	3698	3738	3738	3738	3738	3738	3738	3738	3738	3738	3738	3738	3738	3738	3738	3738	3738	3738	3738	3738	3738	3738	3738	3738	3738	3738	3738	3738	3738	3738	3738	3738	3738	3738	3738	3738	3738	3738	3738	3738	3698	3698	3738	3779	3779	3779	3738	3779	3779	3779	3779	3779	2733	2733	2754	2754	2733	2733	2733	2733	2690	2690	2690	2690	2690	2690	2690	2690	2690	2690	2669	2669	2690	2690	2669	2669	2669	2669	2690	2690	2690	2690	2690	2690	2690	2711	2711	2711	2711	2711	2733	2733	2711	2711	2711	2711	2711	2711	3583	3659	3659	3698	3698	3698	3738	3738	3738	3738	3738	3738	3738	3738	3738	3738	3738	3738	3738	3698	3738	3738	3779	3779	3779	3779	3738	3738	3738	3738	3738	3779	3738	3738	3738	3779	3779	3779	3738	3738	3738	3738	3738	3779	3779	3779	3779	3779	3779	3779	3779	3779	3779	3779	3738	3779	3779	3738	3738	3738	3738	3738	3738	3738	3738	3738	3738	3738	3738	3738	3738	3738	3738	3738	3738	3738	3738	3738	3779	3779	3738	3738	3738	3698	3698	3738	3738	3738	3738	3738	3779	3779	3738	3738	3738	3698	3738	3738	3698	3779	3779	3779	3779	3738	3738	3738	3738	3738	3738	3779	3779	3779	3779	3779	3821	3779	3821	3779	3821	3821	3821	3779	3779	3779	3779	3779	3738	3738	3738	3738	3738	3738	3738	3738	3738	3738	3738	3738	3738	3738	3779	3779	3779	3779	3779	3779	3779	3779	3779	3738	3738	3738	3738	3779	3738	3779	3779	3779	3779	3738	3738	3738	3738	3738	3738	3738	3738	3738	3738	3779	3738	3738	3738	3738	3738	3738	3779	3779	3821	3779	3779	3779	3779	3779	3779	3779	3779	3779	3779	3779	3779	3779	3779	3738	3738	3779	3779	3779	0	0	0	0	0	0	0	0	0	0	0	0	0	0	1127	1123	1120	1116	1116	1113	1109	1105	1102	1098	1095	1095	1091	1091	1091	1091	0	0	0	0	0	0	0	0	0	0	0	0	0	0	0	0	0	0	0	0	0	0	0	0	0	0	0	0	0	0	0	0	0	0	0	0	0	0	0	0	0	0	0	0
0	0	0	0	0	0	0	0	0	1480	1480	1486	1492	1486	1486	1486	1486	1486	1486	1486	1486	1486	1486	1480	1480	1467	1467	1467	1480	1473	1492	1486	1492	1492	1492	1506	1506	1512	1512	1519	1519	1525	1525	1539	1843	1843	1843	1843	1843	1843	1843	1843	1843	1843	1843	1843	1843	1843	1843	1853	1853	1853	1853	1853	1853	1853	1843	1843	1843	1843	1843	1843	1843	1843	1843	1843	1833	1843	1843	1863	1873	1873	1883	1894	1894	1904	1904	1904	1904	2570	2570	2570	2570	2570	2570	2570	2570	2570	2570	2570	2570	2551	2551	2551	2551	2551	2551	2551	2551	2551	2551	2551	2570	2570	2570	2570	2570	2551	2551	2551	2551	2551	2570	2570	2570	2570	2570	2570	2589	2589	2570	2570	2570	2570	2570	2570	2570	2570	2570	2570	2570	2570	2570	2551	2551	2551	2551	2551	2551	2551	2551	2551	3659	3659	3659	3621	3621	3621	3621	3621	3659	3659	3659	3659	3621	3621	3621	3583	3698	3698	3621	3621	3621	3621	3621	3621	3621	3621	3621	3659	3659	3698	3698	3698	3698	3659	3659	3659	3659	3659	3659	3659	3659	3659	3659	3698	3698	3698	3738	3779	3779	3738	3698	3738	3738	3738	3738	3738	3738	3738	3698	3738	3738	3738	3738	3738	3738	3698	3698	3698	3698	3698	3698	3698	3698	3698	3698	3698	3698	3698	3698	3698	3698	3738	3738	3698	3738	3738	3738	3738	3738	3738	3738	3738	3738	3738	3738	3738	3738	3738	3738	3738	3738	3738	3738	3738	3738	3738	3738	3738	3738	3738	3738	3738	3738	3738	3738	3738	3698	3738	3698	3738	3738	3738	3738	3738	3738	3738	3738	3738	3738	3738	3738	3738	3738	3738	3738	3738	3738	3738	3738	3738	3738	3738	3738	3738	3738	3738	3738	3779	3779	3738	3738	3738	3738	3738	3738	3738	3738	3738	3698	3698	3738	3779	3779	3779	3779	3779	3779	3779	3779	3779	2733	2754	2754	2754	2754	2754	2754	2733	2690	2690	2690	2690	2690	2690	2690	2690	2690	2669	2669	2669	2669	2690	2669	2669	2669	2690	2690	2690	2669	2690	2690	2690	2690	2690	2711	2711	2711	2733	2733	2733	2733	2711	2711	2711	2711	2711	2711	3659	3659	3659	3698	3738	3738	3738	3738	3738	3738	3738	3738	3738	3738	3738	3738	3738	3738	3738	3738	3738	3779	3779	3779	3779	3779	3738	3738	3738	3738	3779	3738	3738	3738	3738	3779	3738	3738	3738	3738	3738	3779	3779	3779	3779	3779	3779	3779	3779	3779	3779	3779	3779	3738	3738	3779	3779	3738	3738	3738	3738	3779	3779	3738	3738	3738	3738	3738	3738	3738	3738	3738	3738	3738	3738	3738	3738	3779	3779	3738	3738	3738	3738	3738	3738	3698	3698	3738	3738	3738	3738	3738	3738	3738	3698	3738	3738	3738	3779	3779	3779	3779	3738	3738	3738	3738	3738	3738	3779	3779	3779	3779	3779	3821	3821	3779	3779	3821	3821	3821	3779	3779	3779	3779	3779	3779	3779	3738	3738	3738	3738	3738	3738	3738	3738	3738	3738	3738	3738	3779	3779	3779	3779	3779	3779	3779	3779	3738	3738	3738	3779	3779	3779	3779	3779	3779	3779	3738	3738	3738	3738	3738	3738	3738	3738	3738	3738	3779	3779	3738	3738	3738	3738	3738	3738	3779	3779	3779	3779	3779	3779	3779	3779	3779	3779	3779	3779	3779	3779	3779	3779	3779	3779	3779	3779	3779	3779	0	0	0	0	0	0	0	0	0	0	0	0	0	0	1123	1123	1120	1116	1116	1109	1105	1105	1102	1098	1095	1095	1095	1095	1095	1095	0	0	0	0	0	0	0	0	0	0	0	0	0	0	0	0	0	0	0	0	0	0	0	0	0	0	0	0	0	0	0	0	0	0	0	0	0	0	0	0	0	0	0	0
0	0	0	0	0	0	0	0	0	1486	1480	1480	1486	1467	1473	1467	1473	1480	1486	1480	1480	1486	1486	1480	1480	1467	1467	1473	1473	1473	1480	1480	1486	1492	1492	1499	1506	1506	1512	1512	1519	1519	1519	0	1843	1853	1843	1843	1843	1843	1843	1843	1843	1843	1843	1843	1843	1843	1853	1853	1863	1853	1863	1863	1853	1863	1863	1863	1863	1863	1863	1863	1863	1863	1863	1853	1863	1863	1863	1863	1873	1883	1883	1894	1894	1904	1915	1915	1915	0	2570	2570	2570	2570	2570	2570	2570	2570	2551	2551	2551	2551	2551	2551	2551	2551	2551	2551	2551	2551	2551	2551	2570	2570	2570	2551	2551	2551	2551	2551	2570	2570	2570	2570	2570	2570	2570	2570	2570	2589	2570	2570	2570	2570	2570	2570	2570	2551	2551	2551	2551	2551	2570	2551	2551	2551	2551	2551	2551	2551	2551	3698	3659	3659	3659	3621	3621	3621	3621	3621	3659	3659	3659	3659	3659	3621	3659	3621	3621	3698	3621	3621	3659	3659	3659	3659	3659	3659	3659	3659	3659	3659	3698	3698	3659	3659	3659	3659	3659	3659	3659	3659	3621	3659	3659	3698	3698	3698	3738	3738	3738	3698	3698	3738	3738	3738	3738	3738	3738	3738	3738	3738	3738	3738	3738	3738	3698	3698	3698	3698	3698	3698	3698	3698	3698	3698	3698	3698	3698	3698	3698	3698	3698	3698	3698	3698	3698	3738	3738	3738	3738	3738	3738	3738	3738	3738	3738	3738	3738	3738	3738	3738	3738	3738	3738	3738	3738	3738	3738	3738	3738	3738	3738	3738	3738	3738	3738	3738	3738	3738	3698	3738	3738	3738	3738	3738	3738	3738	3738	3738	3738	3738	3738	3738	3738	3738	3738	3738	3738	3738	3738	3738	3738	3738	3738	3738	3738	3738	3738	3779	3779	3738	3738	3738	3738	3738	3738	3738	3738	3738	3738	3698	3738	3779	3779	3779	3779	3779	3779	3779	3779	2777	2777	2777	2777	2777	2754	2754	2754	0	0	0	2690	2690	2690	2690	2690	2690	2690	2669	2669	2669	2669	2690	2669	2690	2669	2690	2690	2690	2669	2690	2690	2690	2690	2711	2711	2733	2733	2754	2754	2754	2754	2711	2711	2711	2711	2711	2711	3659	3659	3698	3698	3698	3698	3738	3738	3738	3738	3738	3738	3738	3738	3738	3738	3738	3738	3738	3738	3738	3779	3779	3779	3779	3779	3738	3738	3738	3738	3779	3738	3738	3738	3738	3738	3738	3738	3738	3738	3738	3779	3779	3779	3779	3779	3779	3779	3779	3779	3779	3779	3779	3738	3738	3779	3738	3738	3738	3738	3738	3779	3779	3779	3738	3738	3738	3738	3738	3738	3698	3698	3738	3738	3738	3738	3738	3779	3738	3738	3738	3738	3698	3698	3738	3738	3738	3738	3738	3738	3738	3738	3738	3738	3698	3738	3738	3738	3738	3779	3779	3779	3779	3738	3779	3779	3738	3779	3779	3779	3779	3821	3821	3821	3821	3779	3821	3821	3821	3821	3821	3821	3821	3821	3779	3779	3738	3738	3738	3738	3738	3738	3738	3738	3738	3738	3738	3738	3738	3779	3779	3779	3779	3779	3738	3779	3738	3738	3738	3738	3738	3738	3738	3738	3738	3738	3738	3698	3698	3698	3698	3698	3698	3738	3738	3738	3698	3738	3738	3738	3738	3698	3698	3698	3738	3738	3779	3779	3779	3779	3779	3779	3779	3779	3779	3779	3779	3779	3779	3779	3779	3779	3738	3738	3779	3738	3738	0	0	0	0	0	0	0	0	0	0	0	0	0	0	1123	1120	1116	1116	1113	1109	1105	1105	1102	1098	1098	1095	1098	1098	1098	1098	0	0	0	0	0	0	0	0	0	0	0	0	0	0	0	0	0	0	0	0	0	0	0	0	0	0	0	0	0	0	0	0	0	0	0	0	0	0	0	0	0	0	0	0
0	0	0	0	0	0	0	0	0	1486	1486	1492	1486	1480	1480	1480	1486	1486	1486	1486	1486	1486	1486	1486	1480	1480	1473	1473	1473	1473	1480	1486	1486	1492	1492	1506	1506	1506	1506	1512	1512	1519	1519	0	1853	1853	1853	1843	1853	1853	1863	1853	1863	1863	1863	1873	1873	1873	1873	1873	1873	1873	1873	1873	1873	1873	1873	1873	1873	1873	1873	1873	1873	1863	1863	1863	1863	1873	1873	1873	1883	1883	1894	1894	1894	1904	1915	1915	1915	1915	2570	2570	2570	2570	2570	2570	2570	2570	2551	2551	2551	2551	2551	2551	2551	2551	2551	2551	2551	2551	2551	2551	2570	2570	2570	2570	2551	2551	2551	2551	2570	2570	2570	2570	2570	2589	2570	2570	2570	2589	2570	2570	2570	2570	2570	2570	2570	2551	2570	2551	2551	2551	2551	2551	2551	2551	2551	2551	2551	2551	2551	2551	3698	3659	3659	3621	3621	3621	3621	3621	3659	3659	3659	3659	3659	3621	3659	3621	3698	3698	3698	3659	3659	3659	3659	3659	3659	3659	3659	3698	3659	3659	3698	3698	3698	3698	3659	3659	3659	3659	3659	3659	3659	3659	3698	3698	3698	3698	3738	3738	3738	3738	3738	3738	3738	3738	3738	3738	3738	3738	3738	3779	3738	3738	3738	3738	3738	3698	3698	3698	3698	3698	3698	3698	3698	3698	3698	3698	3698	3698	3698	3698	3698	3698	3698	3698	3698	3738	3738	3738	3738	3738	3738	3738	3738	3738	3738	3738	3738	3779	3738	3738	3738	3738	3738	3738	3738	3738	3738	3738	3738	3738	3738	3738	3738	3738	3738	3738	3738	3738	3738	3738	3738	3738	3738	3738	3738	3738	3738	3738	3738	3738	3738	3738	3738	3738	3738	3738	3738	3738	3738	3738	3738	3738	3738	3779	3738	3738	3738	3779	3779	3738	3738	3738	3738	3738	3738	3698	3698	3738	3698	3698	3738	3738	3779	3779	3779	3779	3779	3779	3779	3779	2777	2777	2777	2754	2754	2754	2754	0	0	0	2690	2711	2690	2690	2690	2690	2690	2669	2669	2690	2669	2690	2669	2669	2669	2690	2690	2690	2669	2690	2690	2690	2690	2711	2711	2733	2733	2733	2754	2733	2733	0	2711	2711	0	2711	2711	3659	3698	3698	3698	3698	3738	3738	3738	3738	3738	3738	3738	3738	3738	3738	3738	3738	3738	3738	3738	3738	3779	3779	3779	3779	3779	3779	3738	3779	3779	3779	3738	3738	3738	3738	3779	3738	3738	3738	3738	3738	3779	3779	3779	3779	3779	3779	3779	3779	3779	3779	3779	3779	3738	3738	3779	3738	3738	3738	3738	3779	3779	3779	3779	3738	3738	3738	3738	3738	3738	3698	3698	3738	3738	3738	3738	3738	3738	3738	3738	3738	3738	3698	3738	3738	3738	3698	3738	3738	3738	3738	3738	3738	3738	3698	3738	3738	3738	3738	3738	3779	3738	3738	3738	3779	3738	3738	3779	3779	3779	3821	3821	3821	3821	3821	3779	3821	3779	3779	3779	3779	3779	3779	3779	3779	3779	3779	3738	3738	3738	3738	3738	3738	3738	3738	3738	3738	3738	3698	3738	3779	3779	3779	3779	3738	3779	3738	3738	3738	3738	3738	3738	3738	3738	3738	3738	3738	3698	3698	3698	3698	3698	3698	3698	3698	3698	3698	3698	3698	3698	3698	3698	3698	3698	3738	3779	3779	3779	3779	3779	3779	3779	3779	3779	3779	3779	3738	3738	3738	3738	3738	3738	3738	3738	3738	3738	3738	0	0	0	0	0	0	0	0	0	0	0	0	0	0	1123	1116	1116	1113	1113	1109	1105	1102	1102	1098	1098	1095	1098	1098	1098	1098	0	0	0	0	0	0	0	0	0	0	0	0	0	0	0	0	0	0	0	0	0	0	0	0	0	0	0	0	0	0	0	0	0	0	0	0	0	0	0	0	0	0	0	0
0	0	0	0	0	0	0	0	0	1480	1480	1486	1486	1480	1480	1467	1486	1492	1486	1486	1486	1486	1486	1486	1480	1467	1467	1467	1473	1473	1473	1480	1486	1492	1499	1499	1506	1506	1512	1512	1512	1519	1519	1519	1853	1873	1873	1863	1873	1873	1873	1873	1873	1873	1873	1883	1883	1883	1883	1883	1883	1883	1883	1873	1873	1873	1883	1873	1873	1873	1873	1873	1873	1873	1873	1873	1873	1873	1873	1883	1894	1894	1894	1894	1894	1915	1915	1915	1915	1925	1925	2570	2570	2570	2570	2570	2570	2570	2551	2551	2551	2551	2551	2551	2551	2551	2551	2551	2551	2551	2551	2551	2570	2570	2570	2570	2551	2551	2551	2551	2570	2570	2570	2570	2570	2570	2570	2570	2570	2570	2570	2570	2570	2570	2570	2570	2570	2551	2570	2551	2551	2551	2570	2570	2551	2551	2551	2551	2551	2551	2551	2551	3659	3659	3659	3621	3621	3621	3621	3621	3659	3659	3659	3659	3659	3698	3698	3659	3698	3698	3698	3659	3659	3659	3659	3659	3659	3659	3659	3698	3698	3698	3698	3659	3659	3698	3659	3659	3659	3659	3659	3659	3659	3659	3659	3698	3698	3698	3738	3738	3738	3738	3698	3698	3698	3698	3698	3738	3738	3738	3779	3779	3738	3738	3738	3738	3738	3698	3698	3698	3698	3698	3698	3698	3698	3698	3698	3698	3698	3698	3698	3698	3698	3698	3698	3698	3698	3738	3738	3738	3738	3738	3738	3738	3738	3738	3738	3738	3779	3779	3779	3779	3738	3738	3738	3738	3738	3738	3738	3738	3738	3738	3738	3738	3738	3738	3738	3738	3738	3738	3738	3738	3738	3738	3738	3738	3738	3738	3738	3738	3738	3738	3738	3738	3738	3738	3738	3738	3738	3738	3738	3738	3738	3738	3738	3779	3738	3738	3738	3779	3779	3738	3738	3738	3738	3738	3698	3698	3698	3738	3698	3698	3698	3738	3779	3738	3738	3738	3738	3779	3738	3738	2754	2754	2754	2754	2754	2754	2754	0	0	0	2690	2690	2690	2690	2690	2690	2690	2690	2690	2690	2690	2690	2669	2669	2669	2669	2690	2690	2669	2690	2690	2690	2690	2690	2711	2711	2711	2711	2711	2711	2711	0	0	0	0	0	0	3659	3698	3698	3698	3698	3698	3738	3738	3738	3738	3738	3738	3738	3738	3738	3738	3738	3738	3738	3738	3738	3779	3779	3779	3779	3779	3779	3738	3779	3738	3779	3738	3738	3738	3738	3738	3738	3738	3738	3738	3738	3779	3779	3779	3779	3779	3779	3779	3779	3779	3779	3779	3738	3738	3738	3779	3738	3738	3738	3738	3738	3779	3738	3738	3738	3779	3738	3738	3738	3738	3698	3698	3738	3738	3738	3738	3738	3738	3738	3738	3738	3738	3698	3738	3738	3738	3738	3738	3738	3738	3738	3738	3738	3738	3698	3738	3738	3738	3738	3738	3779	3738	3738	3738	3738	3738	3738	3738	3779	3779	3821	3821	3821	3821	3779	3779	3821	3779	3779	3779	3779	3779	3779	3779	3779	3779	3779	3738	3738	3738	3738	3738	3738	3738	3738	3738	3738	3738	3698	3738	3738	3738	3738	3738	3738	3738	3738	3738	3738	3738	3738	3738	3738	3738	3738	3738	3738	3698	3698	3698	3698	3698	3698	3698	3698	3698	3698	3698	3698	3698	3698	3698	3698	3698	3738	3738	3779	3779	3779	3779	3779	3738	3738	3738	3738	3738	3738	3738	3738	3738	3738	3738	3738	3738	3738	3738	3738	0	0	0	0	0	0	0	0	0	0	0	0	0	0	0	1116	1116	1113	1113	1109	1105	1105	1102	1102	1098	1095	1098	1098	1098	1098	0	0	0	0	0	0	0	0	0	0	0	0	0	0	0	0	0	0	0	0	0	0	0	0	0	0	0	0	0	0	0	0	0	0	0	0	0	0	0	0	0	0	0	0
0	0	0	0	0	0	0	0	0	1480	1480	1480	1480	1480	1480	1480	1480	1480	1486	1486	1486	1492	1486	1486	1486	1486	1473	1473	1473	1473	1473	1480	1486	1492	1499	1506	1506	1506	1512	1512	1512	1512	1512	1519	1883	1883	1883	1883	1883	1883	1894	1883	1883	1883	1883	1883	1883	1883	1904	1883	1894	1883	1883	1883	1883	1883	1894	1883	1883	1883	1873	1873	1873	1873	1873	1873	1873	1883	1883	1894	1894	1894	1894	1894	1894	1915	1915	1915	1925	1925	1925	0	2551	2551	2570	2570	2551	2570	2551	2551	2551	2551	2551	2551	2551	2551	2551	2551	2551	2570	2551	2551	2570	2570	2570	2570	2551	2551	2551	2551	2570	2570	2570	2570	2570	2570	2570	2570	2570	2570	2570	2570	2570	2570	2570	2570	2570	2570	2570	2551	2551	2551	2551	2551	2551	2551	2551	2532	2532	2532	2532	2532	3659	3659	3621	3621	3621	3621	3621	3621	3659	3659	3659	3659	3659	3659	3659	3659	3659	3659	3659	3659	3659	3659	3659	3659	3659	3659	3659	3698	3698	3698	3659	3659	3659	3659	3659	3659	3659	3659	3659	3659	3659	3659	3659	3698	3698	3698	3738	3738	3738	3738	3738	3738	3698	3698	3698	3698	3738	3738	3738	3738	3738	3738	3738	3738	3738	3698	3698	3698	3698	3698	3698	3698	3698	3698	3698	3698	3698	3698	3698	3698	3698	3698	3698	3698	3698	3738	3738	3738	3738	3738	3738	3738	3738	3738	3738	3738	3738	3779	3779	3738	3738	3738	3738	3738	3738	3738	3738	3738	3738	3738	3738	3738	3738	3738	3738	3738	3738	3738	3738	3738	3738	3738	3738	3738	3738	3738	3738	3738	3738	3738	3738	3738	3738	3738	3738	3738	3738	3738	3738	3738	3738	3738	3738	3779	3738	3738	3738	3738	3738	3738	3738	3738	3738	3738	3738	3738	3698	3738	3698	3698	3698	3738	3779	3738	3738	3738	3779	3779	3738	3738	2754	2754	2754	2754	2733	2733	2733	0	2711	2711	2690	2690	2690	2711	2690	2690	2690	2690	2690	2690	2669	2690	2690	2690	2669	2669	2669	2690	2669	2690	2690	2690	2690	2690	2690	2690	2690	2711	2711	2711	2711	0	0	0	0	0	3738	3698	3698	3698	3698	3698	3698	3738	3738	3738	3738	3738	3738	3738	3738	3738	3738	3738	3738	3738	3738	3738	3779	3779	3779	3779	3779	3738	3738	3738	3738	3738	3738	3738	3738	3738	3738	3738	3738	3738	3738	3738	3779	3779	3779	3779	3779	3779	3779	3779	3779	3779	3779	3779	3738	3738	3738	3738	3738	3698	3738	3738	3738	3738	3738	3738	3738	3738	3738	3738	3738	3698	3698	3738	3698	3738	3738	3738	3738	3738	3698	3738	3698	3698	3698	3698	3738	3738	3738	3738	3738	3738	3738	3738	3738	3738	3738	3738	3738	3738	3738	3738	3738	3738	3698	3738	3738	3738	3738	3779	3779	3821	3821	3821	3779	3779	3779	3779	3738	3738	3738	3779	3779	3779	3779	3738	3738	3738	3738	3698	3738	3738	3738	3698	3738	3738	3738	3738	3738	3698	3698	3738	3738	3738	3738	3738	3738	3738	3738	3738	3738	3738	3738	3738	3738	3738	3698	3738	3698	3698	3698	3698	3698	3698	3698	3698	3698	3698	3698	3698	3698	3698	3698	3698	3698	3698	3738	3779	3779	3779	3779	3738	3738	3738	3738	3738	3738	3738	3738	3738	3738	3738	3738	3738	3738	3738	3738	3738	0	0	0	0	0	0	0	0	0	0	0	0	0	0	1120	1116	1116	1113	1113	1105	1105	1102	1102	1102	1098	1098	1098	1098	1098	1098	0	0	0	0	0	0	0	0	0	0	0	0	0	0	0	0	0	0	0	0	0	0	0	0	0	0	0	0	0	0	0	0	0	0	0	0	0	0	0	0	0	0	0	0
0	0	0	0	0	0	0	0	0	1480	1480	1480	1473	1473	1473	1473	1473	1486	1486	1486	1486	1492	1492	1492	1486	1480	1480	1473	1473	1480	1473	1480	1486	1492	1492	1499	1506	1506	1512	1512	1512	1512	1512	0	1894	1883	1894	1894	1894	1894	1894	1894	1894	1894	1915	1915	1915	1915	1915	1915	1904	1894	1894	1883	1894	1894	1894	1894	1883	1883	1883	1883	1883	1883	1883	1883	1894	1894	1894	1904	1904	1904	1904	1904	1904	1915	1915	1915	1925	1925	1936	1936	1936	2551	2570	2570	2551	2570	2551	2551	2551	2551	2551	2551	2551	2551	2551	2551	2570	2570	2551	2570	2570	2570	2570	2570	2551	2551	2551	2551	2551	2570	2570	2570	2570	2570	2570	2570	2570	2570	2551	2551	2551	2551	2551	2570	2570	2551	2551	2551	2551	2551	2551	2551	2551	2551	2551	2551	2551	2532	2532	2532	3659	3659	3621	3621	3621	3621	3621	3583	3621	3621	3621	3659	3659	3659	3659	3659	3659	3659	3659	3659	3659	3659	3659	3659	3659	3659	3659	3659	3659	3659	3659	3659	3659	3659	3659	3659	3659	3659	3659	3659	3659	3659	3659	3698	3698	3698	3738	3738	3738	3738	3738	3738	3698	3698	3698	3698	3738	3738	3738	3738	3738	3738	3738	3738	3698	3698	3698	3698	3698	3698	3698	3698	3698	3698	3698	3698	3698	3698	3698	3698	3698	3698	3698	3698	3698	3738	3738	3738	3738	3738	3738	3738	3738	3738	3738	3738	3779	3779	3779	3779	3779	3738	3738	3738	3738	3738	3738	3738	3738	3738	3738	3738	3738	3738	3738	3738	3738	3738	3738	3738	3738	3738	3738	3738	3738	3738	3738	3738	3738	3738	3738	3738	3738	3738	3738	3738	3738	3738	3738	3738	3738	3738	3738	3738	3738	3738	3738	3738	3738	3738	3738	3738	3738	3738	3738	3738	3738	3698	3698	3698	3698	3738	3738	3738	3738	3738	3738	3738	3738	3738	2754	2754	2777	2754	2733	2733	2711	2711	2690	2690	2669	2690	2690	2690	2690	2690	2690	2690	2690	2690	2690	2690	2690	2669	2669	2669	2669	2669	2669	2669	2669	2669	2690	2690	2690	2711	2690	2690	2711	2711	2711	0	0	0	3779	3779	3738	3738	3738	3738	3738	3738	3738	3738	3738	3738	3738	3738	3738	3738	3738	3738	3738	3738	3738	3738	3738	3738	3779	3779	3738	3779	3738	3738	3738	3738	3738	3738	3738	3738	3738	3738	3738	3738	3738	3738	3779	3779	3779	3779	3779	3779	3779	3779	3779	3779	3779	3738	3779	3738	3738	3738	3738	3738	3738	3698	3738	3738	3738	3738	3738	3738	3738	3738	3738	3698	3698	3698	3698	3698	3698	3738	3738	3738	3738	3738	3738	3738	3698	3698	3698	3698	3698	3698	3738	3698	3738	3738	3738	3738	3738	3738	3738	3738	3738	3738	3779	3738	3738	3698	3698	3738	3738	3738	3738	3779	3779	3779	3779	3779	3779	3779	3738	3779	3738	3738	3738	3738	3738	3738	3738	3738	3738	3698	3698	3698	3738	3738	3698	3698	3698	3738	3738	3738	3738	3738	3738	3738	3738	3738	3738	3738	3738	3738	3738	3738	3738	3738	3738	3738	3738	3738	3698	3738	3698	3698	3698	3698	3698	3698	3698	3698	3698	3698	3698	3698	3698	3698	3698	3698	3698	3698	3738	3738	3738	3738	3738	3738	3738	3738	3738	3738	3738	3738	3738	3738	3738	3698	3698	3738	3738	3738	3738	0	0	0	0	0	0	0	0	0	0	0	0	0	0	1116	1116	1116	1116	1113	1109	1105	1105	1102	1102	1102	1098	1098	1098	1098	1098	1098	0	0	0	0	0	0	0	0	0	0	0	0	0	0	0	0	0	0	0	0	0	0	0	0	0	0	0	0	0	0	0	0	0	0	0	0	0	0	0	0	0	0	0	0
0	0	0	0	0	0	0	0	0	0	1480	1473	1473	1473	1467	1473	1473	1480	1480	1486	1486	1492	1492	1492	1486	1486	1480	1473	1480	1480	1480	1480	1486	1492	1492	1492	1506	1506	1506	1506	1506	1512	1512	0	1904	1894	1904	1894	1904	1904	1915	1894	1904	1904	1915	1904	1915	1925	1925	1915	1915	1904	1904	1894	1904	1904	1904	1904	1894	1894	1894	1894	1894	1894	1904	1904	1904	1904	1904	1915	1915	1915	1904	1904	1904	1915	1915	1915	1925	1925	1936	1936	1936	0	2551	2551	2551	2570	2551	2551	2551	2551	2551	2551	2551	2551	2551	2570	2570	2570	2570	2570	2570	2570	2570	2570	2551	2551	2551	2551	2570	2570	2570	2570	2570	2570	2570	2570	2551	2551	2570	2551	2570	2570	2551	2570	2570	2570	2570	2551	2551	2551	2551	2551	2551	2551	2551	2551	2551	2532	2532	2532	3659	3621	3621	3583	3583	3583	3583	3583	3583	3583	3621	3659	3659	3659	3698	3698	3698	3659	3659	3659	3698	3659	3659	3659	3659	3659	3659	3659	3659	3659	3659	3659	3659	3659	3659	3659	3659	3659	3659	3659	3659	3659	3659	3698	3698	3698	3698	3698	3698	3698	3698	3698	3698	3698	3698	3698	3738	3738	3738	3738	3698	3738	3738	3698	3698	3698	3698	3698	3698	3698	3698	3698	3698	3698	3698	3698	3698	3698	3698	3698	3698	3698	3698	3698	3698	3698	3738	3738	3738	3738	3738	3738	3738	3738	3738	3738	3738	3738	3738	3738	3779	3738	3738	3738	3738	3738	3738	3738	3738	3738	3738	3738	3738	3738	3738	3738	3738	3738	3738	3738	3738	3738	3738	3738	3738	3738	3738	3738	3738	3738	3738	3738	3738	3738	3738	3738	3738	3738	3738	3738	3738	3738	3738	3738	3738	3738	3738	3738	3738	3738	3738	3738	3738	3738	3738	3738	3738	3698	3698	3698	3698	3738	3779	3738	3738	3738	3738	3738	3738	3738	0	0	2777	2754	2733	2711	2711	2711	2669	2669	2669	2690	2690	2711	2690	2690	2690	2690	2690	2690	2690	2690	2690	2669	2669	2669	2669	2669	2669	2669	2669	2690	2690	2690	2690	2690	2690	2711	2711	2711	2711	0	0	0	3821	3779	3779	3738	3738	3738	3738	3738	3738	3738	3738	3738	3738	3738	3738	3738	3738	3738	3738	3698	3738	3738	3738	3738	3779	3779	3779	3779	3779	3738	3738	3738	3738	3738	3738	3738	3738	3738	3738	3738	3738	3738	3738	3738	3779	3779	3779	3779	3779	3779	3779	3779	3779	3738	3779	3738	3738	3738	3738	3738	3738	3738	3738	3738	3738	3738	3738	3698	3738	3738	3698	3698	3698	3659	3698	3738	3698	3738	3738	3738	3738	3738	3738	3738	3698	3698	3738	3738	3738	3698	3738	3698	3738	3738	3738	3738	3738	3738	3738	3738	3738	3738	3779	3738	3738	3698	3698	3738	3738	3738	3738	3738	3779	3779	3779	3779	3779	3738	3738	3738	3738	3738	3738	3738	3738	3738	3738	3698	3698	3698	3698	3698	3738	3738	3698	3698	3738	3738	3738	3738	3738	3738	3738	3738	3738	3738	3698	3698	3738	3738	3738	3738	3738	3738	3738	3738	3738	3738	3698	3698	3698	3698	3698	3659	3698	3698	3698	3698	3698	3698	3698	3698	3698	3698	3698	3698	3698	3698	3738	3738	3738	3738	3738	3738	3738	3738	3738	3738	3738	3738	3738	3738	3738	3698	3698	3698	3738	3738	3738	0	0	0	0	0	0	0	0	0	0	0	0	0	0	1116	1116	1116	1116	1113	1109	1105	1105	1105	1102	1102	1102	1102	1102	1102	1102	1102	0	0	0	0	0	0	0	0	0	0	0	0	0	0	0	0	0	0	0	0	0	0	0	0	0	0	0	0	0	0	0	0	0	0	0	0	0	0	0	0	0	0	0	0
0	0	0	0	0	0	0	0	0	1480	1480	1473	1473	1473	1467	1473	1473	1480	1480	1486	1486	1486	1486	1486	1486	1480	1480	1480	1480	1473	1473	1473	1480	1486	1486	1486	1492	1499	1506	1506	1506	1506	1512	1915	1915	1915	1915	1904	1915	1904	1904	1904	1904	1915	1915	1915	1915	1925	1925	1915	1915	1915	1915	1904	1915	1915	1915	1915	1915	1915	1904	1904	1904	1915	1915	1915	1915	1915	1915	1925	1925	1915	1915	1915	1915	1915	1915	1915	1925	1925	1936	1936	1936	1936	2551	2551	2551	2551	2551	2551	2551	2551	2551	2551	2551	2551	2551	2570	2570	2570	2570	2570	2570	2570	2570	2570	2551	2551	2551	2551	2551	2551	2551	2551	2570	2570	2570	2570	2551	2551	2570	2551	2551	2551	2551	2570	2570	2551	2551	2551	2551	2551	2551	2551	2551	2551	2532	2532	2551	2532	2532	2532	3583	3583	3546	3546	3546	3546	3546	3546	3583	3583	3659	3621	3621	3698	3659	3698	3659	3659	3659	3659	3659	3659	3659	3659	3659	3659	3659	3659	3659	3659	3659	3659	3659	3659	3659	3659	3659	3659	3698	3659	3659	3659	3659	3698	3698	3698	3698	3698	3698	3698	3698	3698	3698	3698	3698	3698	3738	3738	3738	3738	3738	3738	3738	3738	3698	3698	3698	3698	3698	3698	3698	3698	3698	3698	3698	3698	3698	3698	3698	3698	3698	3698	3698	3698	3698	3738	3738	3738	3738	3738	3738	3738	3738	3738	3738	3738	3738	3779	3738	3738	3738	3738	3738	3738	3738	3738	3738	3738	3738	3738	3738	3738	3738	3738	3738	3738	3738	3738	3738	3738	3738	3738	3738	3738	3738	3738	3738	3738	3738	3738	3738	3738	3738	3738	3738	3738	3738	3738	3738	3738	3738	3738	3738	3738	3738	3738	3738	3738	3738	3738	3738	3738	3738	3738	3738	3738	3738	3698	3698	3698	3738	3738	3779	3738	3738	3779	3779	3738	3738	3738	0	0	0	2733	2733	2711	2690	2649	2669	2669	2690	2690	2690	2711	2690	2690	2690	2690	2690	2690	2690	2690	2669	2669	2669	2669	2669	2669	2669	2669	2669	2690	2690	2690	2690	2711	2711	2711	2733	2733	2733	0	0	0	3738	3738	3738	3738	3738	3738	3738	3698	3738	3738	3738	3738	3738	3738	3738	3698	3698	3698	3698	3698	3698	3738	3738	3738	3779	3779	3779	3779	3779	3738	3738	3738	3738	3738	3738	3738	3779	3738	3738	3738	3738	3738	3738	3738	3738	3779	3779	3738	3738	3738	3738	3738	3738	3738	3738	3738	3738	3738	3738	3738	3738	3738	3738	3738	3738	3738	3738	3698	3698	3698	3698	3659	3659	3659	3659	3698	3698	3698	3698	3738	3738	3738	3738	3738	3698	3698	3738	3738	3738	3738	3738	3738	3738	3738	3738	3698	3698	3738	3738	3738	3698	3738	3738	3738	3738	3698	3698	3698	3738	3738	3779	3779	3779	3779	3779	3779	3738	3738	3738	3738	3738	3738	3738	3738	3738	3738	3738	3698	3698	3698	3698	3698	3698	3698	3698	3698	3698	3698	3738	3738	3738	3738	3738	3738	3738	3738	3698	3738	3738	3738	3738	3738	3738	3738	3738	3738	3738	3738	3738	3738	3738	3698	3698	3698	3698	3698	3698	3698	3698	3698	3698	3698	3698	3698	3738	3698	3698	3698	3738	3738	3738	3738	3738	3738	3738	3738	3738	3738	3738	3698	3738	3738	3738	3698	3698	3738	3738	3738	3738	0	0	0	0	0	0	0	0	0	0	0	0	0	0	1116	1116	1116	1116	1116	1113	1109	1105	1105	1105	1102	1102	1102	1102	1102	1102	1102	0	0	0	0	0	0	0	0	0	0	0	0	0	0	0	0	0	0	0	0	0	0	0	0	0	0	0	0	0	0	0	0	0	0	0	0	0	0	0	0	0	0	0	0
0	0	0	0	0	0	0	0	0	1480	1480	1480	1473	1473	1473	1473	1473	1480	1480	1486	1486	1486	1486	1486	1486	1480	1486	1480	1473	1473	1473	1473	1480	1480	1486	1486	1499	1506	1506	1512	1506	1506	0	1925	1925	1915	1925	1915	1915	1915	1915	1915	1915	1915	1915	1915	1915	1915	1915	1915	1915	1915	1915	1915	1915	1915	1915	1925	1925	1925	1915	1915	1915	1915	1915	1915	1915	1915	1915	1925	1925	1925	1925	1915	1915	1915	1925	1915	1925	1925	1936	1936	1936	1969	1980	1980	2551	2551	2551	2551	2532	2551	2551	2551	2551	2551	2570	2570	2570	2570	2570	2570	2570	2570	2570	2570	2551	2551	2551	2551	2551	2551	2551	2570	2570	2570	2570	2570	2570	2551	2551	2551	2551	2551	2551	2551	2551	2551	2551	2551	2551	2551	2551	2551	2551	2551	2551	2551	2551	2532	2532	2532	3546	3546	3510	3510	3510	3510	3510	3510	3546	3546	3583	3621	3621	3621	3621	3659	3659	3659	3659	3659	3659	3659	3659	3659	3659	3659	3659	3659	3659	3659	3659	3659	3659	3659	3659	3659	3659	3659	3698	3659	3659	3659	3659	3698	3698	3698	3698	3698	3698	3698	3698	3698	3698	3698	3698	3698	3738	3738	3779	3779	3738	3738	3738	3738	3738	3698	3698	3698	3738	3738	3738	3698	3698	3698	3698	3698	3698	3698	3698	3698	3698	3698	3698	3698	3698	3738	3738	3738	3738	3738	3738	3738	3738	3738	3738	3738	3738	3738	3738	3738	3738	3738	3738	3738	3738	3738	3738	3738	3738	3738	3738	3738	3738	3738	3738	3738	3738	3738	3738	3738	3738	3738	3738	3738	3738	3738	3738	3738	3738	3738	3738	3738	3738	3738	3738	3738	3738	3738	3738	3738	3738	3738	3738	3738	3738	3738	3698	3698	3698	3738	3738	3738	3698	3698	3698	3698	3698	3698	3698	3738	3738	3738	3779	3779	3779	3779	3779	3779	3779	3779	0	0	2777	2754	2733	2711	2711	2649	2649	2649	2669	2690	2690	2711	2690	2690	2690	2690	2690	2690	2669	2690	2669	2669	2669	2669	2669	2669	2669	2669	2669	2690	2690	2690	2690	2711	2711	2711	2711	2711	2711	0	0	0	3779	3738	3738	3698	3738	3698	3698	3698	3738	3738	3738	3738	3738	3738	3698	3698	3698	3698	3698	3698	3698	3738	3698	3698	3698	3779	3738	3779	3738	3738	3738	3738	3738	3738	3738	3738	3779	3738	3738	3738	3738	3738	3738	3738	3738	3779	3779	3738	3738	3779	3738	3738	3738	3738	3738	3738	3738	3738	3738	3738	3738	3738	3738	3738	3738	3738	3698	3698	3698	3698	3698	3659	3659	3659	3659	3698	3698	3698	3698	3738	3738	3698	3738	3738	3698	3698	3738	3738	3738	3738	3738	3738	3738	3738	3738	3698	3698	3698	3738	3698	3698	3738	3738	3738	3698	3698	3698	3698	3738	3738	3738	3738	3738	3738	3738	3738	3738	3698	3698	3698	3738	3698	3738	3738	3738	3738	3738	3698	3698	3698	3698	3698	3698	3698	3698	3698	3698	3738	3738	3738	3738	3738	3738	3738	3738	3738	3698	3738	3738	3738	3738	3738	3738	3779	3779	3738	3738	3738	3738	3738	3738	3698	3698	3698	3698	3698	3698	3698	3698	3698	3698	3698	3698	3698	3698	3698	3698	3698	3738	3738	3738	3738	3738	3738	3738	3738	3738	3738	3738	3738	3738	3738	3738	3698	3698	3698	3698	3698	0	0	0	0	0	0	0	0	0	0	0	0	0	0	0	1120	1120	1120	1116	1116	1109	1109	1105	1105	1105	1102	1105	1102	1102	1102	1102	1102	0	0	0	0	0	0	0	0	0	0	0	0	0	0	0	0	0	0	0	0	0	0	0	0	0	0	0	0	0	0	0	0	0	0	0	0	0	0	0	0	0	0	0	0
0	0	0	0	0	0	0	0	0	0	1480	1480	1473	1473	1473	1473	1473	1480	1480	1480	1480	1480	1480	1480	1473	1473	1473	1473	1473	1467	1473	1473	1473	1480	1480	1486	1499	1506	1506	1512	1512	1532	1532	1925	1925	1925	1925	1925	1925	1925	1925	1925	1925	1925	1925	1925	1925	1925	1925	1925	1925	1925	1925	1915	1925	1915	1925	1925	1925	1925	1925	1925	1925	1925	1925	1925	1925	1925	1925	1936	1936	1925	1925	1925	1925	1925	1925	1925	1925	1925	1936	1936	1947	1958	1969	1969	1969	2551	2551	2551	2551	2551	2551	2551	2551	2551	2551	2570	2570	2570	2570	2570	2570	2570	2570	2570	2551	2551	2551	2551	2551	2551	2551	2551	2570	2570	2551	2551	2551	2551	2551	2551	2551	2551	2551	2570	2570	2570	2551	2570	2551	2570	2570	2551	2551	2551	2551	2551	2551	2532	2532	2532	3546	3546	3510	3510	3510	3510	3510	3510	3546	3546	3546	3621	3621	3583	3621	3621	3659	3659	3659	3659	3659	3659	3659	3659	3659	3659	3659	3659	3659	3659	3659	3659	3659	3698	3698	3698	3698	3698	3698	3698	3659	3659	3659	3659	3698	3698	3698	3698	3738	3698	3738	3698	3698	3698	3698	3698	3738	3738	3779	3779	3738	3738	3738	3738	3738	3698	3698	3698	3698	3738	3738	3738	3738	3698	3698	3698	3698	3698	3698	3698	3698	3698	3698	3698	3698	3738	3738	3738	3738	3738	3738	3738	3738	3738	3738	3738	3738	3738	3738	3738	3738	3738	3738	3738	3738	3738	3738	3738	3738	3738	3738	3738	3738	3738	3738	3738	3738	3738	3738	3738	3738	3738	3738	3738	3738	3738	3738	3738	3738	3738	3738	3738	3738	3738	3738	3738	3738	3738	3738	3738	3698	3698	3698	3698	3698	3698	3698	3698	3698	3698	3698	3698	3698	3698	3698	3698	3738	3698	3698	3698	3738	3738	3779	3779	3779	3779	3821	3779	3779	3779	0	0	2777	2754	2690	2711	2711	2649	2649	2649	2690	2690	2711	2711	2690	2690	2690	2690	2690	2690	2690	2690	2669	2669	2669	2669	2669	2669	2669	2690	2690	2690	2690	2690	2711	2711	2711	2711	2733	2733	2733	0	0	0	3779	3779	3738	3738	3738	3698	3698	3698	3738	3738	3738	3738	3738	3738	3738	3738	3738	3698	3698	3698	3698	3698	3698	3698	3738	3738	3738	3738	3738	3738	3738	3738	3738	3738	3738	3738	3779	3738	3738	3738	3738	3738	3738	3738	3738	3779	3779	3738	3738	3738	3738	3738	3738	3738	3738	3738	3738	3738	3738	3738	3738	3738	3738	3738	3738	3738	3698	3698	3698	3698	3698	3659	3659	3659	3659	3698	3698	3698	3698	3698	3738	3698	3698	3698	3698	3698	3738	3698	3738	3738	3738	3738	3738	3738	3738	3738	3738	3738	3738	3698	3698	3738	3738	3738	3698	3698	3698	3738	3738	3738	3738	3738	3698	3698	3738	3698	3698	3698	3698	3738	3738	3738	3738	3738	3738	3738	3738	3698	3698	3698	3698	3698	3698	3698	3698	3698	3698	3738	3738	3738	3738	3738	3738	3738	3738	3738	3738	3738	3738	3738	3738	3738	3738	3738	3738	3738	3738	3738	3738	3738	3738	3698	3698	3698	3698	3698	3698	3698	3698	3698	3698	3698	3698	3698	3698	3698	3698	3698	3738	3738	3698	3698	3698	3738	3738	3738	3738	3738	3738	3738	3738	3698	3698	3698	3698	3698	3698	3698	0	0	0	0	0	0	0	0	0	0	0	0	0	0	0	1120	1120	1120	1116	1116	1113	1109	1105	1105	1105	1105	1105	1102	1102	1102	1102	1102	0	0	0	0	0	0	0	0	0	0	0	0	0	0	0	0	0	0	0	0	0	0	0	0	0	0	0	0	0	0	0	0	0	0	0	0	0	0	0	0	0	0	0	0
0	0	0	0	0	0	0	0	0	0	1480	1480	1480	1473	1473	1473	1473	1480	1480	1473	1473	1480	1480	1480	1473	1480	1480	1473	1473	1473	1473	1473	1473	1480	1480	1480	1492	1499	1506	1512	1512	1532	1532	0	1936	1936	1925	1925	1925	1925	1925	1936	1925	1947	1947	1936	1936	1936	1925	1925	1925	1915	1925	1915	1915	1915	1925	1925	1925	1925	1925	1925	1925	1936	1925	1925	1925	1925	1925	1936	1936	1936	1936	1936	1925	1925	1925	1925	1936	1936	1936	1947	1947	1958	1969	1969	1969	0	2609	2551	2551	2551	2551	2551	2551	2551	2551	2570	2570	2570	2570	2570	2570	2570	2570	2570	2551	2551	2551	2551	2551	2551	2551	2551	2551	2570	2551	2551	2551	2551	2551	2551	2551	2551	2551	2570	2570	2570	2551	2570	2570	2570	2570	2551	2551	2551	2551	2551	2551	2532	2532	2532	3546	3510	3510	3510	3510	3510	3510	3510	3546	3546	3546	3583	3583	3546	3583	3583	3621	3621	3621	3621	3659	3659	3659	3659	3659	3659	3659	3659	3659	3659	3659	3659	3659	3659	3698	3698	3698	3698	3698	3659	3659	3659	3659	3659	3698	3698	3698	3698	3738	3738	3738	3698	3698	3698	3698	3738	3738	3738	3779	3779	3738	3738	3738	3738	3738	3698	3698	3698	3698	3738	3738	3738	3738	3738	3698	3698	3698	3698	3698	3698	3698	3698	3698	3698	3698	3738	3738	3738	3738	3738	3738	3738	3738	3738	3738	3738	3738	3738	3738	3738	3738	3738	3738	3738	3738	3738	3738	3738	3738	3738	3738	3738	3738	3738	3738	3738	3738	3738	3738	3738	3738	3738	3738	3738	3738	3738	3738	3738	3698	3698	3738	3738	3738	3738	3738	3738	3738	3738	3738	3738	3698	3738	3698	3698	3698	3698	3698	3698	3698	3698	3698	3698	3698	3698	3738	3738	3738	3698	3698	3698	3738	3738	3779	3779	3779	3821	3821	3821	3821	0	0	0	0	0	2711	2690	2690	0	0	2649	2711	2711	2711	2711	2711	2711	2711	2711	2690	2690	2690	2690	2669	2669	2669	2669	2669	2669	2690	2690	2690	2690	2690	2711	2711	2711	2711	2733	2733	2733	2733	0	0	0	0	3779	3738	3698	3738	3698	3698	3698	3738	3738	3738	3738	3738	3738	3738	3698	3698	3698	3698	3698	3698	3698	3698	3698	3738	3738	3738	3738	3738	3738	3738	3738	3738	3738	3738	3779	3779	3738	3738	3738	3738	3738	3738	3738	3779	3779	3779	3738	3738	3779	3738	3779	3738	3738	3738	3738	3738	3738	3738	3738	3738	3738	3738	3738	3738	3738	3698	3659	3659	3659	3659	3659	3659	3659	3659	3659	3659	3698	3698	3698	3738	3698	3698	3738	3738	3738	3738	3738	3738	3738	3738	3738	3738	3738	3738	3738	3738	3738	3698	3698	3698	3698	3738	3698	3698	3698	3698	3738	3698	3698	3698	3698	3698	3698	3698	3698	3698	3698	3698	3738	3738	3738	3738	3738	3738	3738	3738	3738	3698	3698	3698	3698	3698	3698	3698	3698	3698	3698	3738	3738	3738	3738	3738	3738	3738	3738	3738	3738	3738	3738	3738	3738	3738	3738	3738	3738	3738	3738	3779	3779	3738	3698	3698	3698	3698	3698	3698	3698	3698	3698	3698	3698	3698	3698	3698	3698	3698	3659	3698	3698	3698	3698	3698	3698	3738	3738	3738	3738	3738	3738	3738	3738	3738	3698	3698	3698	3698	3698	0	0	0	0	0	0	0	0	0	0	0	0	0	0	1120	1120	1116	1116	1116	1116	1113	1113	1109	1109	1105	1105	1105	1102	1102	1102	1102	1102	0	0	0	0	0	0	0	0	0	0	0	0	0	0	0	0	0	0	0	0	0	0	0	0	0	0	0	0	0	0	0	0	0	0	0	0	0	0	0	0	0	0	0	0
0	0	0	0	0	0	0	0	0	0	1480	1473	1480	1480	1473	1473	1473	1473	1480	1473	1473	1473	1473	1473	1473	1473	1473	1473	1473	1473	1473	1473	1480	1480	1480	1486	1492	1506	1506	1519	1519	1525	1519	1519	1936	1947	1947	1947	1936	1936	1936	1936	1947	1947	1947	1936	1936	1936	1936	1925	1925	1915	1925	1915	1915	1925	1925	1936	1936	1936	1936	1936	1936	1936	1925	1925	1936	1936	1936	1936	1947	1947	1947	1947	1936	1936	1936	1936	1936	1936	1947	1947	1958	1958	1969	1969	1969	0	2609	2551	2532	2532	2551	2551	2551	2551	2551	2570	2570	2570	2551	2551	2551	2551	2551	2551	2551	2551	2551	2551	2551	2551	2551	2551	2551	2551	2551	2551	2551	2551	2551	2551	2551	2551	2551	2551	2551	2551	2551	2570	2570	2570	2570	2551	2551	2551	2551	2551	2551	2551	2532	2532	3546	3510	3510	3510	3510	3475	3510	3510	3510	3546	3546	3546	3546	3546	3546	3583	3583	3621	3621	3621	3659	3659	3659	3659	3659	3659	3659	3659	3659	3659	3659	3659	3659	3659	3659	3698	3698	3698	3698	3659	3659	3659	3659	3698	3698	3698	3698	3698	3738	3738	3738	3738	3738	3738	3738	3738	3738	3738	3738	3738	3738	3738	3698	3698	3698	3698	3698	3698	3698	3738	3698	3698	3698	3698	3698	3698	3698	3698	3698	3698	3698	3698	3698	3698	3698	3738	3738	3738	3738	3738	3738	3738	3738	3738	3738	3738	3738	3738	3738	3738	3738	3738	3738	3738	3738	3738	3738	3738	3738	3738	3738	3738	3738	3738	3738	3738	3738	3738	3738	3738	3738	3738	3738	3738	3738	3738	3738	3738	3698	3738	3738	3738	3738	3738	3738	3738	3738	3738	3738	3738	3698	3698	3698	3698	3698	3698	3698	3698	3698	3698	3698	3698	3698	3698	3698	3698	3698	3698	3698	3698	3698	3738	3779	3779	3779	3821	3821	3821	3821	3821	0	0	0	0	2711	2690	2690	0	0	0	2711	2711	2711	2733	2711	2711	2711	2711	2690	2690	2690	2690	2690	2690	2690	2690	2690	2690	2690	2690	2690	2690	2690	2711	2711	2711	2711	2711	2711	0	0	0	0	0	0	3779	3738	3738	3738	3698	3698	3698	3738	3738	3738	3738	3738	3738	3738	3698	3698	3698	3698	3698	3698	3698	3698	3698	3738	3738	3738	3738	3738	3738	3738	3738	3738	3738	3779	3779	3779	3738	3738	3738	3738	3738	3738	3738	3738	3779	3738	3738	3738	3738	3738	3779	3738	3738	3738	3738	3738	3738	3738	3738	3738	3738	3738	3738	3738	3738	3698	3698	3698	3659	3659	3659	3659	3659	3659	3659	3698	3698	3698	3698	3738	3698	3698	3698	3698	3738	3738	3738	3738	3738	3738	3738	3738	3738	3738	3738	3698	3698	3698	3698	3698	3738	3738	3738	3698	3738	3738	3738	3738	3698	3698	3698	3698	3698	3698	3698	3698	3698	3698	3738	3738	3738	3738	3738	3738	3738	3738	3698	3698	3698	3698	3698	3698	3698	3698	3698	3738	3738	3738	3738	3738	3738	3738	3738	3738	3738	3738	3738	3738	3738	3738	3738	3738	3738	3738	3738	3738	3779	3779	3779	3779	3738	3738	3698	3738	3698	3698	3698	3698	3698	3698	3698	3698	3698	3698	3698	3698	3659	3698	3698	3698	3698	3698	3698	3738	3738	3738	3738	3738	3738	3738	3738	3738	3698	3698	3698	3698	3698	0	0	0	0	0	0	0	0	0	0	0	0	0	0	1120	1120	1116	1116	1116	1116	1113	1113	1109	1105	1105	1105	1105	1102	1102	1102	1102	1102	0	0	0	0	0	0	0	0	0	0	0	0	0	0	0	0	0	0	0	0	0	0	0	0	0	0	0	0	0	0	0	0	0	0	0	0	0	0	0	0	0	0	0	0
0	0	0	0	0	0	0	0	0	0	1473	1473	1480	1473	1473	1473	1473	1473	1480	1473	1473	1473	1467	1467	1467	1467	1473	1473	1473	1473	1473	1480	1480	1480	1486	1486	1499	1506	1506	1506	1506	1506	1519	1519	0	1958	1958	1947	1936	1947	1947	1947	1947	1958	1958	1947	1947	1936	1936	1925	1925	1925	1925	1925	1925	1925	1936	1947	1947	1947	1947	1947	1947	1936	1936	1936	1936	1936	1936	1947	1958	1947	1958	1958	1947	1936	1936	1947	1936	1947	1947	1958	1969	1969	1969	1969	1969	0	2629	2551	2532	2532	2551	2551	2551	2551	2551	2551	2551	2570	2551	2551	2551	2551	2551	2551	2551	2551	2551	2570	2551	2551	2570	2551	2570	2570	2551	2551	2551	2551	2551	2551	2551	2551	2551	2570	2551	2551	2551	2570	2570	2570	2570	2551	2551	2570	2551	2551	2551	2551	2551	2551	3510	3475	3475	3475	3475	3475	3475	3475	3510	3510	3546	3546	3546	3546	3546	3546	3583	3583	3621	3621	3659	3659	3659	3659	3659	3659	3659	3659	3659	3659	3659	3659	3659	3659	3659	3698	3698	3698	3698	3659	3659	3659	3659	3698	3698	3698	3698	3698	3738	3738	3738	3738	3698	3738	3738	3738	3738	3738	3738	3738	3738	3738	3698	3698	3698	3738	3698	3698	3698	3738	3698	3698	3698	3698	3698	3698	3698	3698	3698	3698	3698	3698	3698	3698	3698	3738	3738	3738	3738	3698	3738	3738	3738	3738	3738	3738	3738	3738	3738	3738	3738	3738	3738	3738	3738	3738	3738	3738	3738	3738	3738	3738	3738	3738	3738	3738	3738	3738	3738	3738	3738	3738	3738	3738	3738	3738	3738	3738	3698	3738	3738	3738	3738	3738	3738	3738	3738	3738	3738	3698	3698	3698	3698	3698	3698	3698	3698	3698	3698	3698	3698	3698	3698	3698	3698	3698	3698	3698	3698	3698	3698	3698	3779	3779	3779	3779	3779	3779	3821	3821	0	0	0	0	0	0	0	0	0	0	0	0	0	2733	2733	2711	2711	2711	2690	2690	2690	2690	2690	2690	2690	2690	2690	2690	2690	2690	2690	2690	2711	2711	2711	2711	2711	2733	2733	0	0	0	0	0	0	3779	3738	3738	3738	3698	3698	3698	3738	3738	3738	3738	3738	3738	3738	3698	3698	3698	3698	3698	3698	3698	3698	3698	3738	3738	3738	3738	3738	3738	3738	3738	3738	3738	3738	3779	3779	3738	3738	3738	3738	3738	3738	3738	3738	3779	3738	3738	3738	3738	3738	3779	3738	3738	3738	3738	3738	3738	3738	3738	3779	3779	3738	3738	3738	3738	3698	3698	3698	3659	3659	3659	3659	3659	3659	3659	3659	3698	3698	3698	3738	3738	3698	3738	3698	3698	3738	3738	3738	3738	3738	3738	3738	3698	3698	3698	3698	3698	3698	3698	3698	3738	3738	3738	3738	3738	3738	3738	3738	3738	3698	3698	3698	3698	3698	3698	3698	3738	3698	3738	3738	3738	3738	3738	3738	3738	3738	3738	3698	3698	3698	3698	3698	3698	3698	3698	3698	3738	3738	3738	3738	3738	3738	3738	3738	3738	3738	3738	3738	3738	3738	3738	3738	3738	3738	3738	3738	3779	3779	3779	3779	3738	3698	3738	3738	3698	3698	3698	3698	3698	3698	3698	3698	3698	3698	3698	3659	3659	3698	3698	3698	3698	3698	3698	3738	3738	3738	3738	3738	3738	3738	3738	3738	3698	3698	3698	3698	0	0	0	0	0	0	0	0	0	0	0	0	0	0	0	1120	1120	1116	1116	1116	1116	1113	1113	1109	1105	1105	1105	1105	1102	1102	1102	1105	1105	0	0	0	0	0	0	0	0	0	0	0	0	0	0	0	0	0	0	0	0	0	0	0	0	0	0	0	0	0	0	0	0	0	0	0	0	0	0	0	0	0	0	0	0
0	0	0	0	0	0	0	0	0	0	1473	1473	1473	1473	1473	1473	1473	1473	1480	1473	1467	1467	1467	1467	1467	1467	1467	1467	1467	1473	1473	1486	1486	1486	1486	1492	1499	1506	1506	1506	1512	1512	1512	1512	0	1980	1969	1958	1958	1958	1958	1958	1958	1958	1958	1958	1947	1947	1947	1936	1936	1936	1936	1947	1936	1947	1958	1958	1958	1958	1958	1947	1958	1947	1947	1947	1947	1947	1947	1947	1958	1958	1969	1969	1958	1947	1958	1958	1947	1947	1958	1958	1969	1969	1980	1980	1992	1992	2649	2649	2514	2532	2551	2551	2551	2551	2551	2551	2551	2551	2551	2551	2551	2551	2551	2551	2551	2551	2551	2551	2551	2551	2551	2551	2570	2551	2551	2551	2551	2551	2551	2551	2551	2551	2551	2551	2551	2551	2551	2570	2570	2570	2570	2551	2551	2551	2551	2551	2551	2551	2551	2551	3475	3475	3475	3475	3475	3475	3475	3475	3510	3510	3546	3510	3510	3510	3510	3546	3546	3583	3583	3621	3659	3698	3659	3659	3659	3659	3659	3659	3659	3659	3659	3659	3659	3659	3698	3698	3659	3698	3698	3659	3659	3659	3659	3698	3698	3698	3698	3738	3738	3738	3738	3738	3738	3738	3738	3738	3738	3738	3738	3738	3698	3698	3698	3698	3698	3738	3698	3698	3698	3738	3698	3698	3698	3698	3698	3738	3698	3698	3698	3698	3698	3698	3698	3698	3698	3738	3738	3738	3738	3738	3738	3738	3738	3738	3738	3738	3738	3738	3738	3738	3738	3738	3738	3738	3738	3738	3738	3738	3738	3738	3738	3738	3738	3738	3738	3738	3738	3738	3738	3738	3738	3738	3738	3738	3738	3738	3738	3698	3698	3738	3738	3738	3738	3738	3738	3738	3738	3738	3698	3698	3698	3698	3698	3698	3698	3698	3698	3698	3698	3698	3698	3698	3698	3698	3698	3698	3698	3698	3698	3698	3698	3738	3779	3779	3779	3821	3821	3821	3821	3821	0	0	0	0	0	0	0	0	0	0	0	0	0	0	2733	2733	2733	2711	2711	2711	2690	2690	2690	2690	2690	2690	2690	2690	2690	2711	2711	2711	2711	2711	2711	2711	2733	2733	2754	2754	0	0	0	0	0	0	3738	3698	3698	3698	3698	3698	3698	3738	3738	3738	3738	3738	3738	3698	3698	3698	3698	3698	3698	3698	3698	3698	3738	3738	3738	3738	3738	3738	3738	3738	3738	3738	3779	3779	3779	3738	3738	3738	3738	3738	3738	3738	3738	3738	3738	3738	3779	3779	3738	3738	3738	3738	3738	3738	3738	3738	3738	3738	3738	3738	3738	3738	3738	3738	3698	3698	3659	3659	3659	3659	3659	3659	3659	3659	3698	3698	3698	3698	3738	3738	3698	3698	3698	3698	3738	3738	3738	3738	3738	3738	3738	3698	3698	3698	3698	3698	3698	3659	3659	3738	3738	3738	3738	3738	3738	3738	3738	3738	3738	3738	3738	3738	3738	3698	3698	3698	3698	3698	3738	3738	3738	3738	3738	3738	3738	3738	3738	3698	3698	3698	3698	3698	3698	3698	3698	3738	3698	3738	3738	3738	3738	3738	3738	3738	3738	3738	3738	3738	3738	3738	3738	3738	3738	3738	3738	3779	3779	3779	3779	3738	3738	3738	3738	3738	3738	3738	3738	3698	3698	3698	3698	3698	3698	3698	3659	3659	3698	3698	3698	3698	3698	3698	3738	3738	3738	3738	3738	3738	3738	3738	3738	3738	3698	3698	3698	3698	0	0	0	0	0	0	0	0	0	0	0	0	0	0	1120	1120	1116	1116	1116	1116	1113	1113	1109	1109	1109	1105	1105	1105	1102	1098	1098	1098	0	0	0	0	0	0	0	0	0	0	0	0	0	0	0	0	0	0	0	0	0	0	0	0	0	0	0	0	0	0	0	0	0	0	0	0	0	0	0	0	0	0	0	0
0	0	0	0	0	0	0	0	0	0	1473	1473	1480	1473	1473	1473	1473	1473	1480	1473	1467	1467	1467	1467	1467	1467	1467	1467	1467	1473	1473	1480	1480	1486	1486	1492	1499	1506	1512	1512	1512	1519	1519	1519	0	1992	1980	1969	1958	1969	1958	1958	1958	1969	1958	1958	1958	1958	1958	1947	1947	1947	1947	1958	1958	1958	1958	1969	1958	1969	1958	1958	1958	1958	1958	1958	1958	1958	1958	1969	1969	1969	1969	1969	1969	1969	1969	1969	1958	1969	1969	1980	1980	1980	1992	1992	2003	2003	2015	2015	2514	2532	2551	2551	2551	2551	2551	2551	2551	2551	2551	2551	2551	2551	2551	2551	2551	2551	2551	2570	2551	2551	2551	2551	2551	2551	2551	2551	2551	2551	2551	2551	2551	2551	2551	2551	2551	2551	2551	2570	2570	2570	2570	2551	2551	2551	2551	2551	2551	2551	2551	2551	2551	3475	3475	3475	3475	3475	3475	3475	3510	3510	3546	3510	3510	3510	3510	3546	3546	3546	3583	3621	3659	3659	3659	3659	3659	3659	3659	3659	3659	3659	3659	3698	3698	3698	3698	3698	3698	3698	3698	3659	3659	3659	3659	3698	3698	3698	3738	3738	3738	3738	3738	3738	3738	3738	3738	3738	3738	3738	3738	3738	3738	3698	3698	3698	3698	3698	3698	3698	3698	3698	3698	3698	3698	3698	3698	3698	3698	3698	3698	3698	3698	3698	3698	3698	3698	3738	3738	3738	3738	3698	3698	3698	3738	3738	3738	3738	3738	3738	3738	3738	3738	3738	3738	3738	3738	3738	3738	3738	3738	3738	3738	3738	3738	3738	3738	3738	3738	3738	3738	3738	3738	3738	3738	3738	3738	3738	3738	3698	3698	3698	3738	3738	3738	3738	3738	3738	3738	3738	3698	3698	3698	3698	3738	3738	3698	3698	3698	3698	3698	3698	3698	3698	3698	3698	3698	3698	3698	3698	3698	3698	3698	3738	3779	3779	3779	3821	3779	3779	3779	0	0	0	0	0	0	0	0	0	0	0	0	0	0	0	2733	2733	2733	2711	2711	2711	2690	2690	2711	2690	2690	2711	2711	2711	2711	2711	2711	2711	2711	2711	2711	2733	2733	2733	2754	2754	0	0	0	0	0	0	3738	3698	3698	3698	3698	3738	3738	3738	3738	3738	3738	3738	3738	3698	3698	3698	3698	3698	3698	3698	3698	3698	3738	3738	3698	3698	3738	3698	3738	3738	3779	3779	3779	3779	3779	3738	3738	3738	3738	3738	3738	3738	3779	3779	3738	3738	3738	3738	3738	3779	3738	3738	3738	3738	3738	3738	3698	3738	3738	3738	3738	3738	3738	3738	3698	3698	3659	3659	3659	3659	3659	3659	3659	3659	3659	3698	3698	3698	3738	3738	3698	3738	3698	3698	3738	3738	3738	3738	3738	3738	3738	3698	3698	3698	3698	3698	3698	3659	3659	3738	3738	3738	3738	3738	3738	3738	3738	3738	3738	3738	3738	3738	3738	3698	3698	3738	3738	3698	3738	3738	3738	3738	3738	3738	3738	3738	3738	3738	3698	3698	3698	3698	3698	3698	3738	3738	3698	3738	3738	3738	3738	3738	3738	3738	3738	3738	3738	3738	3738	3738	3738	3738	3738	3738	3738	3779	3779	3738	3738	3738	3738	3738	3738	3738	3738	3738	3738	3738	3698	3698	3698	3698	3698	3698	3659	3659	3698	3698	3659	3698	3698	3698	3738	3738	3738	3738	3738	3738	3779	3738	3738	3738	3698	3738	3738	3698	0	0	0	0	0	0	0	0	0	0	0	0	0	0	0	1116	1116	1116	1113	1116	1113	1113	1109	1105	1105	1105	1105	1102	1098	1098	1098	1098	0	0	0	0	0	0	0	0	0	0	0	0	0	0	0	0	0	0	0	0	0	0	0	0	0	0	0	0	0	0	0	0	0	0	0	0	0	0	0	0	0	0	0	0
0	0	0	0	0	0	0	0	0	0	1473	1480	1480	1473	1473	1473	1473	1473	1480	1473	1467	1467	1467	1467	1461	1467	1467	1467	1467	1467	1473	1480	1486	1486	1486	1492	1499	1506	1512	1512	1519	1519	1519	1519	0	1992	1980	1980	1969	1969	1969	1969	1969	1969	1969	1969	1969	1969	1958	1958	1958	1958	1958	1969	1958	1969	1969	1969	1969	1969	1969	1958	1969	1969	1969	1969	1969	1958	1969	1969	1980	1980	1980	1980	1980	1980	1992	1992	1980	1980	1980	1992	1980	1992	1992	1992	2003	2003	2015	2015	0	2551	2551	2551	2551	2551	2551	2551	2551	2551	2551	2551	2551	2551	2551	2551	2551	2551	2551	2551	2551	2551	2551	2551	2551	2551	2551	2551	2551	2551	2551	2551	2551	2551	2551	2551	2551	2551	2551	2570	2570	2570	2570	2551	2570	2551	2551	2551	2551	2551	2551	2551	2551	3475	3510	3510	3510	3475	3475	3475	3510	3546	3546	3546	3546	3546	3510	3546	3546	3546	3583	3621	3659	3659	3659	3659	3659	3659	3659	3659	3659	3659	3659	3659	3698	3698	3659	3659	3659	3659	3659	3659	3698	3659	3659	3698	3698	3698	3738	3738	3738	3738	3738	3738	3738	3738	3738	3738	3738	3738	3738	3738	3698	3698	3698	3698	3698	3698	3698	3698	3698	3698	3698	3698	3698	3698	3698	3698	3698	3698	3698	3698	3698	3698	3698	3698	3698	3738	3698	3738	3698	3698	3698	3738	3738	3738	3738	3738	3738	3738	3738	3698	3738	3738	3738	3738	3698	3698	3738	3738	3738	3738	3738	3738	3738	3738	3738	3738	3738	3738	3738	3738	3738	3738	3738	3738	3738	3738	3738	3698	3698	3698	3698	3698	3738	3738	3698	3738	3738	3738	3698	3698	3698	3698	3738	3738	3738	3698	3698	3698	3698	3698	3698	3698	3698	3698	3698	3698	3698	3698	3698	3698	3698	3698	3738	3738	3738	3738	3779	3779	3779	3779	0	0	0	0	0	0	0	0	0	0	0	0	0	0	2733	2733	2711	2711	2711	2711	2711	2711	2711	2690	2711	2711	2711	2711	2711	2711	2711	2711	2711	2711	2733	2733	2733	2733	2733	2754	0	0	0	0	0	0	3738	3738	3698	3698	3698	3738	3738	3738	3738	3738	3738	3738	3738	3698	3698	3698	3698	3698	3698	3698	3698	3698	3738	3698	3698	3698	3698	3698	3698	3738	3738	3779	3779	3738	3779	3738	3779	3738	3738	3738	3779	3738	3738	3738	3738	3738	3779	3738	3738	3738	3738	3738	3738	3698	3738	3698	3698	3698	3738	3738	3738	3738	3738	3738	3738	3698	3698	3698	3659	3659	3659	3659	3659	3659	3659	3698	3698	3698	3738	3738	3698	3698	3698	3698	3698	3698	3698	3698	3698	3698	3698	3698	3698	3698	3698	3698	3698	3659	3659	3738	3738	3738	3738	3738	3738	3738	3738	3738	3738	3738	3738	3738	3738	3738	3698	3738	3738	3698	3738	3738	3738	3738	3738	3738	3738	3738	3738	3738	3698	3698	3698	3698	3698	3698	3738	3738	3698	3738	3738	3738	3698	3698	3698	3698	3698	3698	3698	3698	3698	3698	3738	3738	3738	3738	3738	3738	3738	3738	3698	3698	3698	3738	3738	3738	3738	3738	3738	3738	3738	3698	3698	3698	3698	3698	3698	3659	3698	3698	3698	3698	3698	3698	3698	3738	3738	3738	3738	3738	3779	3779	3738	3738	3698	3698	3698	3698	0	0	0	0	0	0	0	0	0	0	0	0	0	0	1120	1116	1116	1116	1113	1116	1113	1105	1105	1105	1105	1105	1105	1102	1098	1095	1095	1095	0	0	0	0	0	0	0	0	0	0	0	0	0	0	0	0	0	0	0	0	0	0	0	0	0	0	0	0	0	0	0	0	0	0	0	0	0	0	0	0	0	0	0	0
0	0	0	0	0	0	0	0	0	0	1473	1473	1480	1473	1467	1467	1473	1473	1473	1467	1467	1467	1467	1467	1467	1467	1467	1467	1467	1473	1473	1480	1486	1486	1486	1492	1492	1499	1506	1512	1519	1519	1519	1519	0	2003	1992	1980	1980	1980	1980	1969	1969	1969	1969	1969	1969	1969	1969	1969	1958	1969	1980	1992	1980	1980	1969	1969	1969	1969	1980	1980	1980	1980	1980	1980	1980	1969	1980	1992	1992	1992	1992	1992	1992	2003	2003	2003	1992	2003	2003	2003	2003	2003	2003	2003	2003	2003	2015	2015	2015	2015	2551	2551	2551	2551	2551	2551	2551	2551	2551	2551	2551	2551	2551	2551	2551	2551	2551	2551	2551	2551	2551	2551	2551	2551	2551	2551	2551	2551	2551	2551	2551	2551	2551	2551	2551	2551	2551	2551	2551	2570	2551	2551	2551	2551	2551	2551	2551	2551	2570	2609	2609	3475	3475	3510	3510	3475	3475	3510	3510	3546	3546	3546	3546	3510	3510	3546	3546	3546	3583	3621	3659	3659	3659	3659	3659	3659	3659	3659	3659	3659	3659	3698	3698	3659	3659	3659	3659	3659	3659	3698	3698	3698	3698	3698	3698	3698	3738	3698	3698	3698	3738	3698	3698	3738	3738	3738	3738	3738	3738	3738	3698	3698	3698	3698	3698	3698	3698	3698	3698	3698	3698	3698	3698	3698	3698	3698	3698	3698	3698	3698	3698	3698	3698	3698	3698	3738	3698	3738	3698	3698	3698	3738	3738	3738	3698	3738	3738	3738	3698	3698	3698	3698	3698	3698	3698	3738	3738	3738	3738	3738	3738	3738	3738	3738	3738	3738	3738	3738	3738	3738	3738	3738	3738	3738	3738	3738	3738	3698	3698	3698	3698	3698	3698	3698	3698	3698	3698	3698	3698	3698	3698	3698	3738	3698	3698	3698	3698	3698	3698	3698	3698	3698	3698	3698	3698	3698	3698	3698	3698	3698	3698	3698	3698	3738	3738	3779	3779	3779	3779	3779	0	0	0	0	0	0	0	0	0	0	0	0	0	0	2733	2733	2733	2711	2711	2711	2711	2711	2711	2711	2711	2711	2711	2711	2711	2711	2711	2711	2711	2711	2711	2733	2711	2733	2733	0	0	0	0	0	0	0	3738	3738	3698	3698	3698	3738	3738	3738	3738	3738	3738	3738	3738	3698	3698	3698	3698	3698	3698	3698	3698	3698	3698	3698	3698	3698	3698	3698	3738	3738	3738	3738	3779	3738	3779	3738	3738	3738	3738	3738	3738	3738	3738	3738	3738	3738	3779	3738	3738	3738	3738	3738	3738	3698	3698	3698	3698	3698	3738	3738	3738	3738	3698	3738	3738	3698	3698	3659	3659	3659	3659	3659	3659	3659	3659	3698	3698	3698	3738	3738	3698	3698	3698	3698	3698	3698	3698	3698	3698	3698	3698	3698	3659	3659	3698	3698	3698	3698	3698	3738	3738	3738	3738	3738	3738	3738	3738	3738	3738	3738	3779	3779	3779	3738	3738	3738	3738	3738	3738	3698	3698	3698	3698	3698	3698	3698	3698	3698	3698	3698	3698	3698	3698	3698	3738	3738	3698	3738	3738	3738	3738	3738	3698	3698	3698	3698	3698	3698	3698	3698	3698	3698	3698	3738	3738	3738	3738	3738	3738	3738	3738	3738	3738	3738	3779	3738	3738	3738	3738	3698	3698	3698	3698	3698	3698	3659	3698	3698	3698	3698	3698	3698	3698	3738	3738	3738	3738	3738	3738	3738	3738	3738	3698	3698	3698	3698	0	0	0	0	0	0	0	0	0	0	0	0	0	0	1120	1116	1116	1113	1113	1113	1113	1109	1109	1105	1105	1105	1105	1102	1098	1098	1095	1095	0	0	0	0	0	0	0	0	0	0	0	0	0	0	0	0	0	0	0	0	0	0	0	0	0	0	0	0	0	0	0	0	0	0	0	0	0	0	0	0	0	0	0	0
0	0	0	0	0	0	0	0	0	0	1467	1473	1480	1467	1467	1467	1473	1467	1473	1467	1467	1467	1467	1467	1467	1467	1467	1467	1467	1473	1473	1480	1480	1486	1486	1492	1492	1499	1506	1506	1519	1519	1519	0	0	2003	1992	1992	1992	1992	1980	1980	1980	1980	1980	1980	1969	1969	1969	1969	1980	1980	1992	2003	2003	2003	2003	1992	1992	1992	1992	1992	1992	1992	1992	1992	1992	1980	1992	2003	2003	2003	2003	2003	2003	2015	2015	2003	2003	2015	2015	2015	2015	2003	2015	2003	2015	2015	2015	2015	2015	2015	2551	2551	2551	2551	2551	2551	2551	2551	2551	2551	2551	2570	2570	2551	2551	2551	2551	2551	2551	2551	2551	2551	2551	2551	2551	2551	2551	2570	2570	2551	2551	2551	2551	2551	2551	2551	2551	2570	2570	2570	2551	2551	2551	2551	2551	2551	2551	2570	2570	2570	2570	3440	3475	3475	3475	3510	3475	3510	3546	3546	3546	3546	3546	3546	3510	3510	3546	3546	3583	3621	3621	3659	3659	3659	3659	3659	3659	3698	3698	3698	3698	3698	3698	3659	3659	3659	3659	3659	3659	3659	3659	3659	3698	3698	3698	3698	3738	3698	3698	3698	3698	3698	3698	3738	3738	3738	3738	3738	3738	3738	3698	3698	3698	3698	3698	3698	3698	3698	3698	3698	3698	3698	3698	3698	3698	3698	3698	3698	3698	3698	3698	3698	3698	3698	3698	3738	3698	3738	3738	3698	3698	3698	3698	3698	3698	3698	3698	3698	3698	3698	3698	3698	3698	3698	3698	3738	3738	3738	3738	3738	3738	3738	3738	3738	3738	3738	3738	3738	3738	3738	3738	3738	3738	3738	3738	3738	3738	3698	3698	3698	3698	3698	3698	3698	3698	3698	3698	3698	3698	3698	3698	3698	3698	3698	3698	3698	3698	3698	3698	3698	3698	3698	3698	3698	3698	3698	3698	3698	3698	3698	3698	3738	3738	3738	3738	3779	3779	3779	3779	0	0	0	0	0	0	0	0	0	0	0	0	0	0	0	2733	2711	2733	2711	2711	2711	2711	2711	2711	2711	2711	2711	2711	2711	2711	2711	2711	2711	2711	2711	2711	2711	2711	2711	2711	2711	0	0	0	0	0	0	0	3738	3698	3698	3738	3738	3738	3738	3738	3738	3738	3738	3738	3698	3698	3698	3698	3698	3698	3698	3698	3698	3698	3698	3698	3698	3738	3698	3738	3738	3738	3738	3738	3738	3738	3738	3738	3738	3738	3738	3738	3738	3738	3738	3738	3738	3738	3738	3738	3738	3738	3738	3738	3698	3698	3698	3698	3698	3698	3738	3738	3738	3698	3698	3738	3698	3698	3659	3659	3659	3659	3659	3659	3659	3659	3659	3659	3698	3698	3698	3698	3698	3698	3698	3698	3698	3698	3698	3698	3698	3698	3698	3659	3659	3659	3698	3698	3698	3698	3738	3738	3738	3738	3738	3738	3738	3738	3698	3738	3698	3779	3779	3779	3738	3738	3738	3738	3698	3698	3698	3698	3698	3698	3698	3698	3698	3698	3698	3698	3698	3698	3698	3698	3698	3738	3698	3698	3698	3738	3738	3738	3698	3698	3698	3698	3698	3698	3698	3698	3698	3698	3698	3738	3738	3698	3738	3738	3698	3698	3738	3738	3738	3738	3738	3779	3738	3738	3738	3698	3698	3698	3698	3698	3698	3698	3698	3698	3738	3698	3698	3698	3698	3698	3738	3738	3738	3738	3738	3738	3738	3738	3698	3698	3698	3698	0	0	0	0	0	0	0	0	0	0	0	0	0	0	0	1120	1120	1116	1116	1116	1116	1113	1109	1109	1105	1105	1105	1105	1102	1102	1098	1098	1098	0	0	0	0	0	0	0	0	0	0	0	0	0	0	0	0	0	0	0	0	0	0	0	0	0	0	0	0	0	0	0	0	0	0	0	0	0	0	0	0	0	0	0	0
0	0	0	0	0	0	0	0	0	0	1467	1467	1473	1467	1467	1467	1473	1467	1473	1467	1467	1467	1467	1467	1467	1467	1467	1467	1467	1467	1467	1473	1480	1486	1486	1492	1492	1499	1499	1506	1512	1512	1519	0	2015	2003	2003	2003	2003	2003	1992	1992	1992	1992	1992	1992	1980	1980	1980	1992	1992	1992	2003	2003	2003	2003	2003	1992	2003	2003	2003	1992	1992	1992	2003	1992	2003	1992	1992	1992	2015	2003	2015	2003	2015	2015	2015	2015	2015	2015	2015	2015	2015	2015	2015	2015	2015	2015	2027	2027	2015	2015	2015	2015	2551	2551	2570	2551	2551	2551	2551	2551	2551	2570	2551	2570	2551	2551	2551	2551	2551	2551	2551	2551	2551	2551	2551	2551	2570	2570	2570	2551	2551	2551	2551	2551	2551	2551	2551	2551	2551	2551	2551	2551	2551	2551	2551	2551	2551	2570	2570	2570	2570	3440	3475	3475	3475	3475	3475	3510	3510	3546	3546	3546	3546	3546	3510	3510	3510	3546	3583	3583	3621	3659	3659	3659	3659	3659	3659	3659	3698	3698	3659	3698	3659	3659	3659	3659	3659	3659	3659	3659	3659	3659	3659	3659	3698	3698	3698	3698	3698	3698	3698	3698	3698	3698	3738	3738	3738	3738	3738	3698	3698	3698	3698	3698	3698	3698	3698	3698	3698	3698	3698	3698	3698	3698	3698	3698	3698	3698	3698	3698	3698	3698	3698	3698	3698	3738	3738	3738	3738	3738	3698	3738	3698	3698	3698	3698	3698	3698	3698	3698	3698	3698	3698	3698	3698	3738	3738	3738	3738	3738	3738	3738	3698	3698	3738	3738	3738	3738	3738	3738	3738	3738	3738	3738	3738	3738	3738	3698	3698	3698	3698	3698	3698	3698	3698	3698	3698	3698	3698	3698	3698	3698	3698	3738	3738	3698	3698	3698	3698	3698	3698	3698	3698	3698	3698	3698	3698	3698	3698	3698	3698	3738	3779	3738	3779	3779	3779	3779	3779	0	0	0	0	2754	2754	2754	2777	2777	0	0	0	0	0	0	2711	2711	2711	2711	2711	2711	2711	2711	2711	2711	2711	2733	2711	2711	2711	2711	2711	2711	2711	2711	2711	2711	2711	2711	2711	2711	0	0	0	0	0	0	0	3738	3698	3698	3698	3738	3738	3738	3738	3738	3738	3738	3698	3698	3698	3698	3698	3698	3698	3698	3698	3698	3698	3698	3698	3738	3738	3698	3738	3738	3738	3738	3738	3738	3738	3738	3738	3738	3738	3738	3738	3738	3738	3738	3738	3738	3738	3738	3738	3738	3738	3738	3698	3698	3698	3698	3698	3698	3698	3698	3698	3738	3698	3738	3738	3698	3698	3698	3659	3659	3659	3659	3659	3659	3659	3659	3659	3698	3738	3698	3698	3698	3698	3698	3698	3698	3698	3698	3698	3698	3698	3698	3659	3659	3659	3698	3698	3698	3698	3738	3738	3738	3738	3698	3698	3738	3738	3738	3738	3779	3779	3779	3779	3738	3738	3698	3698	3698	3698	3698	3698	3698	3698	3698	3698	3698	3698	3698	3698	3698	3698	3698	3698	3698	3698	3698	3698	3738	3738	3738	3738	3698	3698	3698	3698	3698	3698	3698	3698	3698	3698	3698	3698	3698	3698	3698	3698	3698	3698	3698	3698	3738	3738	3738	3738	3738	3738	3738	3738	3698	3698	3698	3698	3698	3698	3698	3698	3738	3738	3698	3698	3698	3698	3738	3738	3738	3738	3738	3738	3738	3738	3738	3698	3698	3659	3659	0	0	0	0	0	0	0	0	0	0	0	0	0	0	1120	1123	1120	1116	1116	1116	1113	1109	1109	1105	1105	1105	1105	1102	1102	1098	1098	1098	0	0	0	0	0	0	0	0	0	0	0	0	0	0	0	0	0	0	0	0	0	0	0	0	0	0	0	0	0	0	0	0	0	0	0	0	0	0	0	0	0	0	0	0
0	0	0	0	0	0	0	0	0	0	1467	1467	1467	1467	1467	1467	1473	1467	1467	1467	1467	1467	1467	1467	1467	1467	1467	1467	1467	1467	1467	1473	1480	1486	1492	1492	1492	1499	1499	1506	1512	1512	0	0	2015	2015	2015	2003	2003	2003	2003	2003	2003	2003	1992	2003	1992	1992	1992	2003	2003	2003	2003	2003	2003	2003	2003	2003	2003	2003	2003	2003	2003	2003	2003	2003	2003	2003	2003	2003	2015	2015	2015	2015	2015	2015	2015	2015	2015	2015	2027	2015	2015	2015	2015	2015	2015	2015	2027	2027	2027	2027	2027	2027	2570	2551	2570	2551	2570	2551	2551	2551	2551	2551	2551	2551	2551	2551	2551	2551	2551	2551	2551	2551	2551	2551	2551	2570	2570	2570	2570	2570	2551	2551	2551	2551	2551	2551	2551	2551	2570	2570	2551	2551	2551	2551	2551	2551	2551	2570	2570	2570	0	3475	3475	3475	3475	3475	3475	3475	3475	3510	3510	3510	3510	3510	3510	3510	3546	3546	3583	3583	3621	3659	3659	3659	3621	3621	3621	3659	3659	3659	3659	3659	3659	3659	3659	3659	3659	3659	3621	3659	3659	3659	3659	3698	3698	3698	3698	3698	3698	3698	3698	3698	3698	3698	3738	3738	3738	3738	3698	3698	3698	3698	3698	3698	3698	3698	3698	3698	3698	3698	3698	3698	3698	3698	3698	3698	3698	3698	3698	3698	3698	3698	3698	3698	3698	3698	3738	3738	3738	3738	3738	3738	3698	3698	3698	3698	3698	3698	3698	3698	3698	3698	3698	3698	3698	3698	3698	3738	3738	3738	3738	3738	3698	3698	3738	3738	3738	3738	3738	3738	3738	3738	3738	3738	3738	3738	3698	3698	3698	3698	3698	3698	3698	3698	3698	3698	3698	3698	3698	3698	3698	3698	3698	3698	3698	3698	3698	3698	3698	3698	3698	3698	3698	3698	3698	3698	3698	3698	3698	3698	3698	3738	3738	3738	3779	3779	3779	3779	3779	3779	2754	2754	2777	2777	2777	2777	2777	2777	0	0	0	0	0	0	2711	2711	2711	2711	2711	2711	2711	2711	2733	2711	2711	2733	2711	2733	2733	2711	2711	2711	2733	2711	2711	2711	2711	2711	2711	2711	0	0	0	0	0	0	0	3698	3659	3659	3698	3698	3738	3698	3698	3738	3738	3698	3698	3698	3698	3698	3698	3698	3698	3698	3698	3698	3738	3738	3738	3738	3738	3698	3738	3738	3738	3738	3738	3738	3779	3738	3738	3738	3738	3738	3738	3738	3738	3738	3738	3738	3738	3738	3738	3738	3698	3698	3698	3698	3698	3698	3698	3698	3698	3738	3738	3738	3698	3698	3698	3698	3698	3698	3698	3659	3659	3659	3659	3659	3659	3698	3698	3698	3738	3738	3738	3698	3698	3698	3698	3698	3698	3698	3698	3698	3698	3698	3698	3659	3698	3698	3698	3698	3698	3738	3738	3738	3738	3698	3698	3738	3738	3698	3738	3738	3779	3738	3738	3738	3698	3698	3698	3698	3698	3698	3698	3698	3698	3698	3698	3698	3698	3698	3698	3698	3698	3698	3698	3698	3698	3698	3698	3698	3698	3738	3698	3698	3698	3698	3698	3698	3698	3698	3698	3698	3698	3698	3698	3698	3698	3698	3738	3698	3698	3738	3698	3738	3738	3738	3738	3738	3738	3738	3698	3698	3698	3698	3698	3698	3698	3698	3698	3738	3738	3698	3698	3698	3698	3698	3738	3738	3738	3738	3738	3738	3738	3698	3698	3659	3659	3659	0	0	0	0	0	0	0	0	0	0	0	0	0	0	1131	1127	1123	1120	1120	1116	1116	1113	1109	1109	1105	1105	1105	1102	1102	1098	1098	1098	0	0	0	0	0	0	0	0	0	0	0	0	0	0	0	0	0	0	0	0	0	0	0	0	0	0	0	0	0	0	0	0	0	0	0	0	0	0	0	0	0	0	0	0
0	0	0	0	0	0	0	0	0	0	1467	1467	1467	1467	1467	1467	1467	1473	1467	1467	1467	1467	1467	1467	1467	1467	1467	1467	1467	1467	1467	1473	1480	1480	1486	1492	1492	1499	1499	1506	1512	1512	0	0	2027	2015	2015	2003	2015	2015	2015	2003	2015	2015	2015	2015	2015	2015	2015	2015	2015	2015	2015	2015	2015	2015	2003	2003	2015	2015	2003	2015	2003	2015	2015	2003	2003	2003	2003	2003	2015	2015	2015	2015	2015	2027	2015	2015	2027	2027	2027	2027	2027	2027	2027	2027	2027	2027	2027	2027	2027	2039	2039	2039	2570	2551	2570	2551	2570	2551	2551	2551	2570	2551	2551	2551	2551	2551	2551	2551	2551	2551	2551	2551	2551	2551	2551	2570	2570	2570	2570	2570	2551	2551	2551	2551	2551	2551	2551	2551	2551	2570	2551	2551	2551	2551	2551	2551	2551	2551	2570	2570	0	3475	3475	3475	3475	3475	3475	3475	3510	3510	3510	3510	3510	3510	3510	3510	3510	3546	3583	3583	3621	3659	3659	3659	3659	3659	3621	3659	3659	3659	3659	3659	3659	3659	3659	3659	3659	3659	3621	3659	3659	3659	3659	3659	3698	3698	3698	3698	3698	3698	3698	3698	3698	3698	3738	3738	3738	3738	3698	3698	3698	3698	3698	3698	3698	3698	3698	3698	3698	3698	3698	3698	3698	3698	3698	3659	3698	3698	3698	3698	3659	3659	3659	3659	3698	3738	3738	3738	3738	3738	3738	3738	3698	3698	3698	3698	3698	3698	3698	3698	3698	3698	3698	3698	3698	3698	3698	3698	3738	3738	3738	3738	3738	3698	3738	3738	3698	3698	3698	3698	3698	3698	3698	3698	3698	3698	3698	3698	3698	3698	3698	3698	3698	3698	3698	3698	3698	3698	3698	3698	3698	3698	3698	3698	3698	3698	3698	3698	3698	3698	3698	3698	3698	3698	3698	3698	3698	3698	3698	3698	3698	3698	3738	3738	3738	3779	3779	3779	2869	2822	2777	2777	2777	2777	2777	2777	2777	2777	0	0	0	0	0	0	2711	2711	2733	2711	2711	2733	2733	2733	2733	2733	2733	2733	2733	2733	2711	2711	2711	2711	2733	2711	2711	2711	2711	2711	2690	2690	0	0	0	0	0	2777	2777	2777	3659	3659	3698	3698	3738	3698	3698	3738	3698	3698	3698	3698	3698	3698	3698	3698	3698	3698	3698	3698	3738	3738	3698	3738	3738	3698	3738	3738	3738	3738	3738	3738	3738	3738	3738	3738	3738	3738	3738	3738	3738	3738	3738	3738	3738	3738	3738	3698	3698	3698	3698	3698	3698	3698	3698	3698	3698	3698	3698	3698	3698	3698	3698	3698	3698	3698	3698	3698	3659	3698	3698	3698	3659	3698	3698	3659	3698	3698	3698	3698	3698	3698	3698	3698	3698	3698	3698	3698	3698	3698	3659	3659	3659	3698	3698	3659	3698	3738	3738	3738	3738	3698	3738	3738	3738	3738	3738	3738	3779	3738	3698	3698	3698	3698	3698	3698	3698	3698	3698	3698	3698	3698	3698	3698	3698	3698	3698	3698	3698	3698	3698	3698	3698	3698	3698	3698	3698	3738	3698	3698	3698	3698	3698	3698	3698	3698	3698	3698	3698	3698	3698	3698	3698	3698	3698	3698	3698	3698	3698	3738	3738	3738	3738	3738	3738	3738	3698	3698	3698	3698	3698	3698	3698	3698	3698	3738	3738	3698	3698	3698	3698	3738	3738	3738	3738	3738	3738	3738	3738	3698	3698	3659	3698	3698	3698	0	0	0	0	0	0	0	0	0	0	0	0	0	1131	1127	1123	1120	1116	1116	1116	1113	1109	1105	1105	1105	1102	1098	1098	1098	1098	1098	0	0	0	0	0	0	0	0	0	0	0	0	0	0	0	0	0	0	0	0	0	0	0	0	0	0	0	0	0	0	0	0	0	0	0	0	0	0	0	0	0	0	0	0
0	0	0	0	0	0	0	0	0	0	1467	1467	1467	1467	1467	1467	1467	1467	1467	1467	1467	1467	1467	1467	1467	1467	1467	1467	1467	1467	1467	1473	1480	1480	1486	1492	1492	1492	1492	1499	1499	1512	0	2027	2027	2027	2027	2015	2015	2015	2015	2015	2015	2015	2015	2027	2027	2027	2051	2051	2027	2015	2015	2015	2015	2015	2015	2015	2015	2015	2015	2015	2015	2015	2015	2015	2015	2015	2015	2015	2027	2027	2027	2027	2027	2027	2027	2027	2027	2039	2039	2039	2027	2039	2039	2039	2039	2039	2039	2039	2039	2051	2063	2063	0	2551	2570	2551	2570	2551	2551	2551	2570	2570	2551	2551	2551	2551	2551	2551	2551	2551	2551	2551	2551	2570	2570	2570	2570	2570	2570	2570	2570	2551	2551	2551	2551	2551	2551	2551	2551	2570	2570	2551	2551	2551	2551	2551	2551	2551	2551	2570	3440	3475	3440	3440	3440	3475	3475	3475	3510	3510	3510	3510	3510	3510	3510	3510	3510	3546	3546	3546	3583	3621	3621	3659	3621	3621	3621	3659	3659	3659	3659	3659	3659	3659	3659	3659	3659	3621	3621	3621	3659	3659	3659	3659	3698	3698	3698	3698	3698	3698	3698	3698	3698	3698	3738	3738	3738	3738	3698	3698	3698	3698	3698	3698	3698	3698	3698	3698	3698	3698	3698	3698	3698	3698	3698	3698	3698	3698	3659	3659	3659	3659	3659	3659	3698	3738	3738	3738	3738	3738	3738	3738	3738	3698	3698	3698	3698	3698	3698	3698	3698	3698	3698	3698	3698	3698	3698	3698	3738	3738	3738	3738	3738	3698	3698	3698	3698	3698	3698	3698	3698	3698	3698	3698	3698	3698	3698	3698	3698	3698	3698	3698	3698	3698	3698	3698	3698	3698	3698	3698	3698	3698	3698	3698	3698	3698	3698	3698	3698	3698	3698	3698	3698	3698	3698	3698	3698	3698	3698	3698	3698	3698	3738	3738	3738	3779	3779	3779	3779	2799	2777	2777	2777	2777	2777	2777	2777	2777	0	0	0	0	0	2690	2711	2711	2711	2711	2711	2711	2711	2733	2733	2733	2733	2733	2711	2711	2711	2711	2711	2711	2711	2711	2711	2711	2711	2711	2690	2690	2690	0	2799	2799	2777	2777	2777	2777	3659	3659	3698	3698	3698	3698	3698	3738	3698	3698	3698	3698	3698	3698	3698	3698	3698	3698	3698	3698	3738	3738	3738	3738	3738	3738	3738	3738	3698	3738	3738	3738	3738	3738	3738	3738	3738	3698	3738	3738	3738	3738	3738	3738	3738	3738	3738	3738	3698	3698	3698	3698	3659	3659	3659	3698	3659	3698	3698	3698	3698	3698	3698	3698	3698	3698	3698	3698	3698	3698	3698	3698	3698	3698	3698	3659	3698	3698	3698	3698	3698	3698	3698	3698	3698	3698	3698	3698	3698	3698	3698	3698	3698	3698	3698	3698	3698	3738	3738	3738	3738	3698	3738	3738	3698	3698	3738	3738	3738	3698	3698	3698	3698	3698	3698	3698	3698	3698	3698	3698	3698	3698	3698	3698	3698	3698	3698	3698	3698	3698	3698	3698	3698	3698	3698	3698	3698	3738	3738	3698	3698	3698	3698	3698	3698	3698	3698	3698	3698	3698	3698	3698	3659	3698	3698	3698	3698	3738	3698	3738	3698	3738	3738	3698	3698	3698	3698	3698	3698	3698	3698	3698	3698	3698	3698	3738	3738	3738	3738	3738	3738	3738	3738	3738	3738	3738	3738	3738	3698	3698	3659	3659	3659	3546	3546	0	0	0	0	0	0	0	0	0	0	0	0	1134	1131	1127	1123	1120	1120	1116	1116	1113	1113	1109	1105	1105	1102	1102	1098	1098	1098	1098	0	0	0	0	0	0	0	0	0	0	0	0	0	0	0	0	0	0	0	0	0	0	0	0	0	0	0	0	0	0	0	0	0	0	0	0	0	0	0	0	0	0	0	0
0	0	0	0	0	0	0	0	0	0	1461	1467	1467	1467	1467	1467	1467	1473	1467	1473	1473	1467	1467	1467	1467	1467	1467	1467	1467	1467	1467	1467	1480	1480	1486	1492	1492	1492	1492	1499	1499	0	0	2039	2039	2039	2039	2027	2015	2027	2027	2027	2027	2027	2027	2039	2039	2063	2063	2051	2051	2051	2027	2015	2027	2027	2015	2015	2027	2027	2027	2027	2027	2027	2027	2027	2015	2015	2015	2015	2039	2039	2039	2039	2039	2039	2039	2039	2039	2051	2039	2039	2027	2039	2039	2039	2039	2051	2051	2051	2051	2063	2063	2063	2063	2063	2570	2570	2570	2551	2551	2551	2551	2551	2551	2551	2551	2551	2551	2551	2551	2551	2551	2551	2570	2570	2570	2570	2570	2570	2570	2570	2570	2551	2551	2551	2551	2551	2551	2551	2551	2551	2570	2551	2551	2551	2551	2551	2551	2551	2551	0	3440	3475	3475	3475	3475	3475	3475	3475	3510	3510	3510	3510	3510	3510	3510	3510	3510	3546	3546	3546	3583	3621	3621	3621	3621	3621	3621	3659	3659	3659	3659	3659	3659	3659	3659	3659	3659	3659	3659	3659	3659	3659	3659	3659	3698	3698	3698	3698	3698	3698	3698	3698	3698	3698	3738	3738	3738	3698	3698	3698	3698	3698	3698	3698	3698	3698	3698	3698	3698	3698	3698	3698	3698	3698	3698	3698	3698	3698	3659	3659	3659	3659	3659	3698	3698	3738	3738	3738	3738	3738	3738	3738	3738	3698	3698	3698	3698	3698	3698	3698	3698	3698	3698	3698	3698	3698	3698	3698	3738	3738	3738	3738	3698	3698	3698	3698	3698	3698	3698	3698	3698	3698	3698	3698	3698	3698	3698	3698	3698	3698	3698	3698	3698	3698	3698	3698	3698	3698	3698	3698	3698	3698	3698	3698	3698	3698	3698	3698	3698	3698	3698	3698	3738	3738	3698	3698	3698	3698	3698	3698	3698	3698	3738	3738	3738	3864	3864	3907	3864	2799	2777	2777	2777	2777	2754	2754	2754	2711	2711	2690	2690	0	2690	2690	2711	2711	2711	2711	2711	2711	2733	2733	2733	2733	2733	2733	2711	2711	2711	2711	2711	2711	2711	2711	2711	2711	2711	2711	2690	2690	2690	0	2799	2799	2799	2799	2777	2777	2777	3659	3698	3698	3698	3698	3698	3738	3698	3698	3698	3698	3738	3738	3698	3698	3698	3698	3698	3698	3779	3779	3779	3779	3779	3738	3738	3738	3698	3738	3738	3738	3738	3738	3738	3738	3738	3698	3698	3698	3698	3738	3698	3698	3738	3698	3738	3698	3698	3698	3698	3698	3698	3659	3659	3659	3659	3698	3698	3698	3659	3659	3698	3698	3698	3698	3698	3698	3698	3698	3698	3698	3698	3698	3698	3698	3698	3698	3698	3698	3698	3738	3738	3698	3698	3698	3698	3698	3698	3698	3698	3698	3698	3698	3698	3659	3698	3698	3738	3738	3738	3698	3698	3698	3698	3698	3738	3738	3738	3698	3698	3698	3698	3698	3698	3698	3698	3698	3698	3698	3698	3698	3698	3698	3698	3698	3698	3698	3698	3698	3698	3698	3698	3698	3698	3698	3698	3698	3698	3698	3698	3698	3698	3698	3698	3698	3698	3698	3698	3698	3698	3698	3659	3698	3698	3698	3698	3698	3698	3698	3698	3738	3738	3698	3698	3698	3698	3698	3698	3698	3698	3698	3698	3698	3698	3698	3738	3738	3738	3738	3698	3738	3738	3698	3738	3738	3738	3738	3698	3698	3659	3659	3583	3546	3546	0	0	0	0	0	0	0	0	0	0	0	0	1134	1134	1131	1123	1123	1120	1116	1116	1113	1113	1109	1109	1105	1102	1102	1102	1098	1098	1098	0	0	0	0	0	0	0	0	0	0	0	0	0	0	0	0	0	0	0	0	0	0	0	0	0	0	0	0	0	0	0	0	0	0	0	0	0	0	0	0	0	0	0	0
0	0	0	0	0	0	0	0	0	0	1467	1467	1467	1467	1467	1467	1467	1467	1467	1467	1467	1467	1467	1467	1461	1467	1467	1467	1467	1467	1473	1473	1480	1480	1480	1492	1492	1492	1492	1492	1492	0	0	2051	2051	2051	2039	2039	2027	2027	2039	2027	2027	2051	2051	2051	2051	2063	2063	2051	2051	2039	2039	2027	2027	2027	2027	2027	2027	2027	2039	2039	2027	2027	2027	2027	2027	2027	2027	2039	2051	2051	2051	2051	2051	2051	2051	2051	2051	2051	2051	2051	2051	2051	2051	2051	2051	2063	2063	2063	2063	2063	2076	2076	2076	2076	2076	2551	2551	2551	2551	2551	2570	2551	2551	2551	2551	2551	2551	2551	2551	2551	2551	2551	2551	2570	2570	2570	2570	2570	2570	2570	2570	2551	2551	2551	2551	2551	2551	2551	2551	2570	2570	2551	2551	2551	2551	2551	2551	2551	2551	0	3440	3475	3475	3475	3475	3475	3475	3475	3510	3510	3510	3510	3510	3510	3510	3510	3510	3546	3546	3583	3583	3621	3621	3621	3621	3621	3621	3621	3659	3659	3659	3659	3659	3659	3659	3621	3621	3621	3659	3659	3659	3659	3659	3659	3698	3698	3698	3698	3698	3698	3698	3698	3698	3698	3738	3738	3738	3698	3698	3698	3698	3698	3659	3659	3659	3698	3698	3698	3698	3698	3698	3698	3698	3698	3698	3698	3698	3698	3659	3698	3698	3698	3659	3659	3698	3738	3738	3738	3738	3738	3738	3738	3738	3738	3698	3698	3738	3738	3738	3738	3698	3698	3698	3698	3698	3698	3698	3698	3698	3698	3698	3698	3698	3698	3698	3698	3698	3698	3698	3698	3698	3698	3698	3698	3698	3698	3698	3698	3698	3698	3698	3698	3698	3698	3698	3698	3698	3698	3698	3698	3698	3698	3698	3698	3698	3698	3698	3698	3698	3698	3698	3698	3698	3698	3698	3698	3698	3698	3698	3698	3698	3698	3738	3738	3738	3907	3907	3952	2777	2777	2777	2777	2777	2777	2754	2754	2754	2690	2690	2690	2669	2690	2690	2690	2690	2711	2711	2711	2733	2733	2733	2733	2733	2733	2733	2733	2711	2711	2711	2711	2711	2711	2711	2711	2711	2711	2711	2711	2690	2711	2733	2733	2799	2799	2799	2799	2777	2777	2754	2754	2711	2711	2711	3698	3698	3738	3698	3698	3698	3698	3738	3698	3698	3698	3698	3698	3698	3698	3738	3779	3738	3779	3779	3738	3738	3738	3698	3738	3738	3738	3738	3738	3738	3738	3738	3698	3738	3698	3738	3738	3698	3698	3738	3738	3738	3738	3738	3698	3698	3698	3698	3659	3659	3659	3659	3698	3698	3698	3698	3698	3698	3698	3698	3698	3698	3698	3698	3698	3698	3698	3698	3698	3698	3698	3698	3698	3698	3698	3698	3738	3738	3698	3698	3698	3698	3698	3659	3659	3659	3659	3659	3659	3659	3659	3659	3698	3698	3698	3698	3698	3698	3698	3698	3698	3738	3738	3738	3698	3698	3698	3698	3698	3698	3698	3698	3698	3698	3698	3698	3698	3698	3698	3698	3698	3698	3698	3698	3698	3698	3698	3698	3698	3698	3698	3698	3698	3698	3698	3698	3698	3698	3698	3698	3698	3698	3698	3698	3698	3698	3698	3698	3698	3698	3698	3698	3738	3698	3698	3738	3738	3738	3698	3698	3698	3698	3698	3698	3698	3698	3698	3698	3698	3698	3738	3738	3738	3738	3698	3698	3698	3698	3698	3698	3738	3738	3738	3698	3698	3698	3659	3659	3546	3546	0	0	0	0	0	0	0	0	0	0	0	0	1131	1131	1131	1123	1123	1120	1116	1116	1113	1113	1109	1105	1105	1102	1102	1098	1098	1098	1098	0	0	0	0	0	0	0	0	0	0	0	0	0	0	0	0	0	0	0	0	0	0	0	0	0	0	0	0	0	0	0	0	0	0	0	0	0	0	0	0	0	0	0	0
0	0	0	0	0	0	0	0	0	0	1467	1467	1467	1467	1467	1467	1467	1467	1467	1467	1467	1467	1467	1467	1461	1461	1467	1467	1467	1467	1473	1473	1480	1480	1486	1492	1492	1492	1492	1499	1499	1499	0	2063	2063	2051	2051	2051	2039	2039	2039	2039	2051	2063	2051	2063	2063	2063	2063	2051	2051	2051	2039	2039	2039	2039	2051	2039	2039	2051	2051	2051	2051	2039	2039	2039	2039	2039	2039	2051	2063	2063	2063	2063	2063	2063	2063	2063	2063	2063	2063	2063	2063	2063	2063	2063	2063	2063	2076	2076	2076	2076	2076	2076	2076	2076	2076	2088	2088	2088	2551	2551	2551	2551	2551	2551	2551	2551	2551	2551	2551	2551	2551	2551	2551	2570	2570	2570	2570	2570	2570	2570	2570	2551	2551	2551	2551	2551	2551	2551	2551	2551	2570	2551	2551	2551	2551	2551	2551	2551	2551	0	3475	3510	3475	3475	3475	3475	3475	3475	3475	3510	3510	3510	3510	3510	3510	3510	3510	3510	3546	3583	3583	3621	3621	3621	3621	3621	3621	3621	3659	3659	3659	3659	3659	3659	3659	3621	3621	3659	3659	3659	3659	3659	3659	3659	3659	3698	3698	3698	3698	3698	3698	3698	3698	3698	3738	3738	3738	3698	3698	3698	3698	3659	3659	3659	3698	3698	3698	3698	3698	3698	3698	3698	3698	3698	3698	3698	3698	3698	3698	3698	3698	3698	3698	3659	3659	3738	3738	3738	3738	3738	3738	3738	3738	3738	3738	3698	3738	3738	3738	3738	3738	3698	3698	3698	3698	3698	3698	3698	3738	3738	3698	3698	3698	3698	3698	3698	3698	3698	3698	3698	3698	3698	3698	3698	3698	3698	3698	3698	3698	3698	3698	3698	3698	3698	3698	3698	3698	3698	3698	3698	3698	3698	3698	3698	3698	3698	3698	3738	3698	3698	3698	3698	3698	3698	3698	3698	3698	3698	3698	3698	3698	3698	3738	3698	2754	2777	2777	2777	2777	2777	2777	2777	2777	2754	2754	2754	2733	2690	2690	2669	2669	2690	2711	2711	2711	2711	2711	2711	2733	2711	2733	2733	2733	2733	2733	2733	2711	2711	2711	2711	2711	2711	2711	2711	2711	2711	2711	2711	2711	2711	2711	2733	2777	2777	2777	2777	2777	2754	2754	2754	2711	2711	2754	2754	3738	3738	3698	3698	3698	3738	3738	3698	3698	3698	3698	3698	3698	3698	3779	3779	3738	3779	3779	3779	3779	3779	3738	3738	3738	3738	3738	3738	3738	3738	3738	3698	3738	3698	3738	3738	3738	3698	3698	3698	3738	3738	3698	3698	3698	3698	3698	3698	3698	3698	3698	3698	3698	3698	3698	3698	3698	3698	3698	3698	3698	3698	3698	3698	3698	3698	3698	3698	3698	3698	3659	3659	3698	3698	3698	3698	3698	3698	3698	3698	3698	3659	3659	3659	3659	3659	3659	3659	3659	3659	3659	3698	3698	3698	3698	3698	3698	3698	3698	3738	3738	3738	3738	3698	3698	3698	3698	3698	3698	3698	3698	3698	3698	3698	3698	3698	3698	3698	3698	3698	3698	3698	3698	3698	3698	3698	3698	3698	3698	3698	3698	3698	3698	3698	3698	3698	3698	3698	3698	3698	3698	3698	3698	3698	3698	3698	3698	3698	3698	3698	3698	3738	3698	3698	3698	3698	3698	3698	3698	3698	3698	3698	3698	3698	3698	3698	3698	3698	3698	3738	3738	3738	3738	3698	3698	3698	3698	3698	3698	3738	3738	3738	3698	3698	3698	3659	3621	3621	0	0	0	0	0	0	0	0	0	0	0	0	0	1134	1131	1131	1127	1123	1120	1116	1113	1113	1113	1109	1105	1105	1102	1102	1098	1098	1098	1098	0	0	0	0	0	0	0	0	0	0	0	0	0	0	0	0	0	0	0	0	0	0	0	0	0	0	0	0	0	0	0	0	0	0	0	0	0	0	0	0	0	0	0	0
0	0	0	0	0	0	0	0	0	0	1467	1467	1467	1461	1467	1467	1467	1467	1467	1467	1467	1467	1467	1467	1461	1461	1467	1467	1467	1473	1480	1473	1480	1486	1486	1486	1486	1492	1492	1499	1499	1499	0	2063	2063	2063	2051	2051	2051	2051	2051	2051	2051	2063	2063	2063	2063	2063	2063	2063	2063	2051	2051	2051	2051	2051	2051	2051	2051	2063	2063	2063	2063	2063	2063	2063	2063	2063	2063	2063	2076	2076	2076	2076	2076	2063	2063	2076	2076	2076	2076	2076	2063	2076	2076	2076	2076	2076	2076	2076	2076	2076	2076	2088	2088	2088	2088	2101	2088	2088	2101	2101	2551	2551	2551	2551	2551	2551	2551	2551	2551	2551	2551	2570	2570	2570	2570	2570	2570	2570	2570	2570	2551	2551	2551	2551	2551	2570	2551	2551	2551	2570	2570	2551	2551	2551	2551	2551	2532	2532	2532	0	3475	3510	3475	3475	3475	3475	3475	3475	3475	3510	3510	3510	3475	3475	3475	3510	3510	3510	3546	3583	3583	3621	3621	3621	3621	3621	3621	3621	3659	3659	3659	3659	3659	3659	3659	3621	3659	3659	3659	3659	3659	3659	3659	3659	3659	3698	3698	3698	3698	3698	3698	3698	3738	3738	3738	3738	3738	3698	3698	3698	3698	3698	3659	3698	3698	3698	3698	3698	3698	3698	3698	3698	3698	3698	3698	3698	3698	3698	3698	3698	3698	3659	3659	3659	3659	3738	3698	3738	3698	3738	3738	3738	3738	3738	3738	3738	3738	3738	3738	3738	3738	3698	3698	3698	3698	3698	3698	3698	3738	3738	3698	3698	3698	3698	3698	3698	3698	3698	3698	3698	3698	3698	3698	3698	3698	3698	3698	3698	3698	3698	3698	3698	3698	3698	3698	3698	3698	3698	3698	3698	3698	3698	3698	3698	3698	3698	3698	3738	3698	3698	3698	3738	3698	3698	3698	3698	3698	3698	3698	3698	3698	3698	2754	2754	2754	2754	2777	2777	2777	2777	2777	2777	2777	2754	2733	2733	2711	2690	2690	2690	2690	2690	2711	2711	2711	2711	2711	2711	2733	2733	2733	2733	2711	2711	2711	2711	2711	2711	2711	2711	2711	2711	2711	2711	2711	2711	2711	2711	2711	2711	2711	2733	2754	2777	2777	2777	2754	2754	2754	2754	2711	2733	2733	2733	2733	2711	2711	3698	3738	3738	3738	3738	3698	3698	3698	3698	3698	3698	3738	3779	3738	3779	3779	3779	3779	3779	3738	3738	3738	3738	3738	3738	3738	3738	3738	3698	3738	3698	3698	3738	3698	3698	3698	3698	3698	3698	3698	3698	3698	3698	3698	3698	3698	3698	3698	3698	3698	3698	3698	3698	3698	3698	3698	3698	3698	3698	3698	3698	3698	3698	3698	3698	3698	3698	3659	3698	3698	3698	3698	3698	3698	3698	3698	3698	3698	3659	3659	3659	3659	3659	3659	3659	3659	3659	3659	3698	3698	3698	3698	3698	3698	3698	3738	3738	3738	3738	3738	3698	3698	3698	3698	3698	3698	3698	3698	3698	3698	3698	3698	3698	3698	3698	3698	3698	3698	3698	3698	3698	3698	3698	3698	3698	3698	3698	3698	3698	3698	3698	3698	3698	3698	3698	3698	3698	3698	3698	3698	3698	3698	3698	3698	3698	3698	3698	3698	3738	3698	3698	3698	3698	3698	3698	3698	3698	3698	3698	3698	3698	3698	3698	3698	3698	3698	3738	3738	3738	3738	3738	3698	3698	3698	3698	3698	3738	3698	3698	3698	3698	3698	3698	3659	3659	0	0	0	0	0	0	0	0	0	0	0	0	0	1134	1131	1131	1123	1123	1120	1116	1113	1113	1113	1109	1105	1105	1102	1102	1098	1098	1095	1095	0	0	0	0	0	0	0	0	0	0	0	0	0	0	0	0	0	0	0	0	0	0	0	0	0	0	0	0	0	0	0	0	0	0	0	0	0	0	0	0	0	0	0	0
0	0	0	0	0	0	0	0	0	0	1461	1461	1461	1461	1461	1461	1461	1467	1461	1467	1467	1461	1461	1467	1461	1461	1467	1467	1467	1467	1473	1473	1480	1480	1486	1486	1486	1492	1492	1492	1492	1499	2076	2076	2063	2063	2063	2063	2063	2063	2063	2063	2063	2076	2076	2076	2076	2076	2088	2076	2063	2063	2051	2051	2051	2051	2063	2063	2063	2063	2063	2063	2063	2063	2063	2063	2076	2063	2076	2076	2076	2076	2076	2076	2076	2076	2076	2076	2076	2076	2076	2076	2076	2088	2088	2088	2076	2088	2076	2088	2088	2076	2076	2088	2088	2101	2101	2101	2101	2101	2101	2101	2551	2551	2551	2551	2551	2551	2551	2551	2551	2551	2551	2551	2570	2570	2570	2570	2570	2570	2551	2551	2551	2551	2551	2551	2551	2570	2551	2551	2551	2551	2570	2551	2551	2551	2551	2551	2532	2514	2514	0	3440	3510	3475	3475	3475	3475	3475	3475	3475	3510	3510	3510	3475	3475	3475	3510	3510	3510	3546	3583	3621	3621	3621	3659	3621	3659	3621	3621	3659	3659	3659	3659	3659	3659	3659	3659	3659	3659	3659	3659	3659	3659	3659	3659	3659	3698	3698	3698	3698	3698	3698	3738	3738	3738	3779	3779	3738	3738	3698	3698	3698	3698	3659	3698	3698	3698	3698	3698	3698	3698	3698	3698	3698	3698	3698	3698	3698	3698	3698	3698	3698	3698	3659	3659	3659	3698	3698	3698	3698	3698	3738	3738	3738	3698	3738	3738	3698	3738	3738	3738	3738	3698	3698	3698	3698	3698	3698	3698	3738	3738	3698	3698	3698	3698	3698	3698	3698	3698	3698	3698	3698	3698	3698	3698	3698	3698	3698	3698	3698	3698	3698	3698	3698	3698	3698	3698	3698	3698	3698	3698	3698	3698	3698	3698	3698	3698	3698	3698	3698	3698	3698	3698	3698	3698	3698	3698	3698	3698	3698	3659	3659	3659	2777	2777	2777	2777	2777	2777	2777	2777	2754	2754	2733	2733	2711	2711	2711	2711	2690	2690	2690	2690	2711	2711	2711	2711	2711	2711	2733	2711	2711	2711	2711	2711	2711	2711	2711	2711	2711	2711	2711	2711	2711	2711	2711	2711	2711	2711	2711	2711	2711	2733	2754	2754	2754	2754	2754	2733	2733	2733	2711	2711	2733	2733	2733	2711	2711	3738	3738	3738	3738	3698	3698	3698	3698	3698	3698	3698	3738	3738	3738	3738	3779	3738	3779	3779	3738	3738	3738	3738	3738	3738	3738	3738	3738	3698	3738	3698	3698	3738	3698	3698	3698	3698	3698	3738	3698	3698	3698	3698	3698	3659	3659	3659	3698	3659	3698	3698	3659	3698	3698	3698	3659	3698	3698	3698	3698	3698	3698	3698	3698	3698	3698	3659	3659	3659	3659	3698	3698	3698	3698	3698	3698	3698	3659	3659	3659	3659	3659	3659	3659	3659	3659	3659	3659	3698	3698	3698	3698	3698	3698	3698	3738	3738	3738	3738	3738	3698	3698	3698	3698	3698	3698	3698	3698	3698	3698	3698	3698	3698	3698	3698	3698	3698	3698	3738	3698	3698	3698	3698	3698	3698	3698	3698	3698	3698	3698	3698	3698	3698	3698	3698	3698	3698	3698	3698	3698	3698	3698	3698	3698	3698	3698	3698	3698	3738	3698	3698	3698	3738	3698	3698	3698	3698	3698	3698	3698	3698	3698	3698	3698	3698	3698	3738	3738	3738	3738	3738	3698	3698	3698	3698	3698	3698	3698	3698	3738	3738	3738	3738	3698	3698	0	0	0	0	0	0	0	0	0	0	0	0	0	1131	1131	1131	1127	1123	1120	1120	1116	1113	1113	1109	1105	1105	1102	1102	1098	1098	1095	1095	0	0	0	0	0	0	0	0	0	0	0	0	0	0	0	0	0	0	0	0	0	0	0	0	0	0	0	0	0	0	0	0	0	0	0	0	0	0	0	0	0	0	0	0
0	0	0	0	0	0	0	0	0	0	1461	1467	1467	1467	1467	1467	1467	1461	1467	1467	1467	1467	1461	1467	1467	1461	1467	1461	1461	1467	1473	1467	1473	1480	1486	1486	1486	1492	1492	1492	1492	0	2088	2088	2088	2076	2076	2076	2076	2076	2076	2076	2076	2076	2088	2076	2076	2076	2088	2088	2076	2076	2063	2063	2063	2063	2063	2063	2063	2063	2076	2076	2076	2076	2076	2076	2088	2076	2076	2076	2088	2088	2076	2076	2076	2076	2076	2088	2101	2088	2088	2088	2088	2088	2088	2088	2088	2088	2088	2088	2088	2088	2088	2101	2114	2114	2114	2114	2114	2127	2127	2127	2127	2551	2551	2551	2551	2551	2551	2551	2551	2551	2551	2551	2570	2570	2551	2551	2551	2551	2551	2551	2551	2551	2551	2551	2551	2570	2551	2551	2551	2551	2570	2551	2551	2551	2551	2532	2532	2532	2532	0	3510	3510	3475	3440	3475	3475	3475	3475	3475	3510	3510	3475	3475	3475	3475	3510	3510	3510	3546	3621	3621	3659	3621	3659	3659	3659	3659	3659	3659	3659	3659	3659	3659	3659	3659	3659	3659	3659	3659	3659	3659	3659	3659	3659	3659	3659	3698	3698	3698	3698	3698	3698	3738	3738	3738	3738	3738	3738	3698	3698	3698	3698	3659	3698	3698	3698	3698	3698	3698	3698	3698	3698	3698	3698	3698	3698	3698	3698	3698	3698	3698	3698	3659	3659	3659	3698	3698	3698	3698	3698	3738	3738	3738	3738	3738	3698	3698	3698	3698	3698	3698	3698	3698	3698	3698	3698	3698	3698	3738	3698	3698	3698	3698	3698	3698	3698	3698	3698	3698	3698	3698	3698	3698	3698	3698	3698	3698	3698	3698	3698	3698	3698	3698	3698	3698	3698	3698	3698	3698	3698	3698	3698	3698	3698	3698	3698	3698	3698	3698	3698	3698	3698	3698	3698	3698	3698	3698	3698	3659	3659	3659	2777	2799	2799	2777	2777	2777	2777	2777	2777	2754	2733	2733	2711	2711	2711	2711	2711	2711	2711	2690	2690	2711	2711	2711	2711	2711	2711	2711	2711	2711	2711	2711	2711	2711	2711	2711	2711	2711	2711	2711	2711	2711	2711	2711	2711	2690	2690	2690	2711	2711	2711	2733	2733	2733	2733	2733	2733	2733	2733	2733	2733	2733	2733	2733	2733	2733	2733	2733	3738	3738	3738	3698	3698	3698	3698	3698	3698	3738	3738	3738	3738	3738	3738	3738	3738	3738	3738	3738	3738	3738	3738	3738	3738	3738	3698	3698	3659	3698	3698	3698	3698	3698	3659	3659	3698	3698	3659	3698	3698	3698	3659	3659	3659	3698	3659	3659	3659	3659	3659	3659	3659	3659	3659	3698	3698	3698	3698	3698	3698	3698	3698	3659	3659	3659	3659	3659	3659	3698	3698	3698	3698	3698	3659	3659	3659	3659	3659	3659	3659	3659	3659	3659	3659	3659	3698	3698	3698	3698	3698	3698	3698	3698	3738	3738	3698	3698	3698	3698	3698	3698	3698	3698	3698	3698	3698	3698	3698	3698	3698	3738	3698	3698	3698	3698	3738	3698	3698	3698	3698	3698	3698	3698	3698	3698	3698	3698	3698	3698	3698	3698	3698	3698	3698	3698	3698	3698	3698	3698	3698	3698	3698	3698	3698	3698	3738	3698	3698	3698	3698	3698	3698	3698	3698	3698	3698	3698	3698	3698	3698	3698	3698	3698	3738	3738	3738	3738	3738	3698	3698	3698	3698	3698	3698	3698	3698	3738	3738	3738	3738	3738	3738	0	0	0	0	0	0	0	0	0	0	0	0	1134	1131	1131	1131	1123	1123	1120	1116	1113	1113	1113	1109	1105	1105	1102	1102	1098	1098	1095	1095	0	0	0	0	0	0	0	0	0	0	0	0	0	0	0	0	0	0	0	0	0	0	0	0	0	0	0	0	0	0	0	0	0	0	0	0	0	0	0	0	0	0	0	0
