0	0	0	0	0	0	0	0	0	1291	1291	1296	1296	1316	1316	1316	1316	1316	1321	1321	1321	1326	1331	1336	1336	0	0	1741	1741	1741	1741	1741	1741	1741	1741	0	0	0	0	0	0	0	0	0	0	0	0	0	0	0	0	0	0	0	0	0	0	0	1443	1443	1443	1449	1443	1443	1443	0	1449	1455	1449	1437	1431	1425	1425	1431	1431	1425	1425	0	0	0	0	0	0	0	0	0	0	0	0	0	1532	1532	0	0	0	0	0	0	1546	1546	0	0	0	0	0	0	1618	1618	1618	1618	1618	1626	1641	1649	1649	1649	0	0	0	0	0	0	0	0	0	0	0	0	0	0	0	0	0	0	0	0	0	0	0	0	0	0	0	0	0	0	0	0	0	0	0	0	0	0	0	0	0	0	0	0	0	0	0	0	0	0	0	0	0	0	0	8550	8550	8550	8550	8550	8550	8550	8550	8550	8550	8550	8550	8550	8550	8550	8550	8343	8550	8550	8550	8550	8550	8550	8550	8550	8550	8550	8343	8343	8343	8343	8343	8343	8343	8550	8550	8550	8343	8550	8343	8343	8550	8550	8550	8343	8343	8343	8343	8550	8550	8550	8550	8550	8550	8550	8550	8343	8343	8343	8343	8343	8343	8343	8343	8343	8343	8343	0	0	0	0	0	0	0	0	0	0	0	0	0	0	0	0	0	0	0	6720	6592	6592	6592	6592	6468	6468	6468	6468	6468	6468	6468	6592	6592	6592	6592	6592	6592	6592	6592	6592	6592	6592	6592	6592	6592	6592	6468	6468	6468	6468	6468	6468	6468	6468	6468	6592	6592	6592	6592	6592	4045	4093	4093	4045	4045	4045	4045	4045	4045	4045	3998	3998	3998	3952	3952	3998	4045	4045	4045	4045	4045	4045	4045	3998	3998	3998	3998	4045	4045	4093	4093	4093	4093	4045	4093	4093	4093	4093	4093	4093	4093	4093	4093	4045	4093	4093	4093	4093	4093	4142	4142	4142	4192	4192	0	0	0	0	0	0	0	0	0	0	0	0	0	0	0	0	0	0	0	0	0	0	6720	6720	6720	6720	6720	6720	6720	6720	6720	6592	6592	6592	6592	6592	6592	6592	6592	6592	6592	6592	6592	6592	6592	6592	6720	6720	6720	6720	6720	6592	6592	6592	6592	6592	6592	6592	6720	6720	6720	6592	6592	6592	6592	6592	6592	6592	6592	6592	6592	6592	6592	6592	6592	6592	6592	6592	6592	0	0	0	0	0	0	0	4706	4706	4706	4706	4706	4706	0	0	0	0	0	0	6592	6592	6592	6592	6592	6592	6468	6349	6468	6349	6349	6349	6468	6468	6468	6468	6592	6592	6592	6592	6592	6592	6592	6468	6468	6349	6235	6235	6235	6124	6124	6018	6018	6018	6018	6018	5915	6018	5915	5915	5815	5815	5719	5626	5719	5815	5815	5915	5915	6018	6018	5915	5915	5915	5815	5815	5815	5719	5719	5719	5626	5719	5719	5719	5626	5626	5535	5448	5448	5448	5364	5364	5282	5282	5282	5282	5282	5202	5125	5125	5125	5050	5050	5050	4977	4906	4906	4906	4906	4838	4838	4771	4771	4838	4838	4771	4771	4771	4771	4706	4581	4581	4581	4581	4521	4521	4521	4521	4521	4521	4463	4406	4350	4350	4296	4296	4296	4243	4243	4243	4243	4142	4142	4093	4093	4093	4093	4093	4045	4045	4045	4045	4045	3998	3998	3952	3952	3907	3907	3907	3864	3821	3864	3821	3821	0	0	0	0	0	0	0	0	0	0	0	0	0	0	0	0	0	0	0	0	0	0	0	0	0	0	0	0	0	0	0	0	0	0	0	0	0	0	0	0	0	0	0	0	0
0	0	0	0	0	0	0	0	0	1287	1291	1296	1296	1316	1316	1316	1316	1316	1321	1321	1321	1326	1326	1336	1336	1342	1342	1741	1741	1741	1741	1741	1741	1741	1741	0	0	0	0	0	0	0	0	0	0	0	0	0	0	0	0	0	0	0	0	0	0	0	1455	1455	1455	1455	1449	1449	1443	0	1449	1455	1455	1437	1437	1431	1431	1431	1437	1425	1431	1431	0	0	0	0	0	0	0	0	0	0	0	0	1532	1532	1532	0	0	0	0	0	1546	1546	1546	0	0	0	0	0	1618	1618	1611	1611	1618	1618	1626	1641	1641	1641	0	0	0	0	0	0	0	0	0	0	0	0	0	0	0	0	0	0	0	0	0	0	0	0	0	0	0	0	0	0	0	0	0	0	0	0	0	0	0	0	0	0	0	0	0	0	0	0	0	0	0	0	0	0	0	8343	8343	8550	8343	8550	8343	8550	8550	8550	8550	8550	8550	8550	8550	8550	8550	8343	8343	8550	8550	8550	8550	8550	8550	8550	8343	8550	8343	8343	8343	8550	8343	8343	8343	8343	8343	8343	8343	8343	8343	8343	8343	8550	8550	8343	8343	8343	8550	8550	8550	8550	8550	8550	8550	8550	8343	8343	8343	8343	8343	8343	8343	8343	8343	8343	8343	8343	0	0	0	0	0	0	0	0	0	0	0	0	0	0	0	0	0	0	0	0	6592	6592	6592	6592	6468	6468	6468	6468	6468	6468	6468	6468	6592	6592	6592	6592	6592	6592	6592	6592	6592	6592	6592	6592	6592	6468	6468	6468	6468	6468	6468	6468	6468	6468	6468	6592	6592	6592	6592	6592	4045	4045	4093	4045	4045	4045	4045	4045	4045	4045	3998	3998	3998	3952	3952	3998	4045	4045	4045	4045	4045	4045	4045	4045	4045	3998	4045	4045	4045	4045	4093	4045	4045	4045	4093	4093	4093	4093	4093	4093	4093	4093	4045	4045	4093	4093	4093	4093	4093	4142	4093	4142	4142	4192	4192	0	0	0	0	0	0	0	0	0	0	0	0	0	0	0	0	0	0	0	0	0	6720	6720	6720	6720	6720	6720	6720	6720	6720	6720	6720	6592	6592	6592	6592	6592	6592	6592	6592	6592	6592	6592	6592	6592	6592	6592	6592	6720	6720	6592	6592	6592	6592	6592	6592	6592	6720	6592	6592	6720	6720	6720	6592	6592	6592	6720	6720	6592	6592	6592	6592	6592	6592	6592	6592	6720	6720	0	0	0	0	0	4643	4643	4706	4706	4706	4706	4643	4643	4706	4706	4771	4771	0	6720	6720	6592	6592	6592	6592	6592	6468	6468	6468	6468	6468	6468	6468	6468	6592	6592	6592	6720	6720	6592	6592	6592	6468	6468	6349	6349	6235	6235	6235	6124	6124	6018	6018	6018	6018	6018	5915	5915	5915	5815	5815	5815	5719	5719	5719	5815	5815	5915	5915	6018	6018	5915	5915	5915	5815	5815	5815	5815	5719	5719	5719	5719	5719	5719	5626	5719	5535	5448	5448	5448	5364	5364	5282	5282	5282	5282	5282	5202	5125	5125	5125	5050	5050	5050	4977	4906	4906	4906	4906	4838	4838	4838	4771	4771	4838	4771	4771	4771	4771	4706	4581	4581	4581	4581	4581	4521	4521	4521	4521	4463	4463	4406	4350	4350	4350	4296	4296	4296	4296	4243	4243	4192	4142	4142	4093	4093	4093	4093	4045	4045	4045	4045	4045	3998	3998	3952	3952	3952	3907	3907	3907	3864	3864	3821	3821	0	0	0	0	0	0	0	0	0	0	0	0	0	0	0	0	0	0	0	0	0	0	0	0	0	0	0	0	0	0	0	0	0	0	0	0	0	0	0	0	0	0	0	0	0
0	0	0	0	0	0	0	0	0	1291	1291	1296	1301	1306	1306	1306	1311	1316	1316	1316	1321	1321	1326	1331	1336	1336	1342	0	1750	1750	1750	1750	1750	1750	1750	0	0	0	0	0	0	0	0	0	0	0	0	0	0	0	0	0	0	0	0	0	0	0	1455	1449	1449	1455	1455	1449	0	0	1437	1437	1431	1437	1437	1431	1437	1437	1437	1431	1437	1437	1437	0	0	0	0	0	0	0	0	0	0	1525	1525	1532	1525	1525	0	0	0	0	1553	1546	1546	0	0	0	0	1618	1618	1611	1611	1611	1618	1618	1618	1649	1649	1649	0	0	0	0	0	0	0	0	0	0	0	0	0	0	0	0	0	0	0	0	0	0	0	0	0	0	0	0	0	0	0	0	0	0	0	0	0	0	0	0	0	0	0	0	0	0	0	0	0	0	0	0	0	0	0	8343	8343	8343	8343	8550	8343	8550	8343	8550	8550	8550	8550	8550	8550	8550	8550	8550	8550	8550	8550	8550	8550	8550	8550	8550	8343	8343	8343	8343	8343	8343	8343	8343	8146	8146	8146	8146	8146	8146	8343	8343	8343	8343	8343	8343	8343	8343	8343	8343	8550	8550	8550	8550	8343	8550	8343	8343	8343	8343	8343	8343	8343	8146	8146	8146	8146	0	0	0	0	0	0	0	0	0	0	0	0	0	0	0	0	0	0	0	0	6720	6720	6592	6592	6592	6468	6468	6468	6468	6468	6592	6592	6592	6592	6592	6592	6592	6592	6592	6592	6592	6592	6592	6592	6592	6592	6592	6468	6592	6468	6468	6468	6468	6468	6468	6468	6468	6468	6592	6592	4045	4045	4045	4045	4045	4045	4045	4045	4045	3998	4045	3998	3998	3998	3998	3998	3998	4045	4045	4045	4093	4045	4045	4045	3998	3998	3998	3998	4045	4045	4045	4093	4093	4093	4093	4093	4093	4045	4093	4093	4093	4093	4093	4093	4093	4093	4093	4093	4093	4093	4093	4093	4093	4142	4142	4243	4243	0	0	0	0	0	0	0	0	0	0	0	0	0	0	0	0	0	0	0	0	6720	6720	6720	6720	6720	6720	6720	6720	6720	6720	6720	6720	6720	6592	6592	6592	6592	6592	6592	6592	6592	6592	6592	6592	6592	6592	6592	6720	6720	6592	6592	6592	6592	6592	6592	6592	6720	6720	6720	6720	6720	6720	6592	6592	6720	6720	6720	6592	6720	6592	6720	6592	6592	6720	6592	6592	6720	0	0	0	0	4643	4706	4643	4643	4706	4706	4706	4643	4643	4706	4771	4771	4771	4771	6592	6592	6592	6592	6592	6592	6592	6468	6468	6468	6468	6468	6468	6468	6592	6592	6592	6592	6720	6720	6592	6592	6592	6468	6468	6349	6349	6235	6235	6235	6124	6018	6018	6018	6018	6018	5915	5915	5915	5915	5815	5815	5719	5719	5626	5626	5719	5815	5915	5915	6018	6018	6018	5915	5915	5815	5815	5815	5815	5719	5719	5719	5719	0	0	5719	5815	5719	5626	2266	2266	2266	2266	5448	5282	5282	5282	5202	5202	2237	2237	5125	5125	5125	5050	4977	4906	4906	4906	4906	4838	4838	4838	4771	4838	4838	4771	4771	4771	4706	4706	4581	4581	4581	4581	4581	4521	4521	4521	4521	4463	4406	4350	4350	4350	4296	4296	4296	4296	4296	4243	4243	4192	4192	4142	4142	4093	4093	4093	4093	4045	4045	4045	4045	3998	3998	3998	3952	3952	3952	3952	3907	3864	3864	3821	3821	0	0	0	0	0	0	0	0	0	0	0	0	0	0	0	0	0	0	0	0	0	0	0	0	0	0	0	0	0	0	0	0	0	0	0	0	0	0	0	0	0	0	0	0	0
0	0	0	0	0	0	0	0	0	1291	1291	1296	1301	1306	1306	1306	1311	1311	1316	1316	1316	1316	1321	1326	1336	1336	0	1759	1759	1759	1759	1759	1759	1759	1759	0	0	0	0	0	0	0	0	0	0	0	0	0	0	0	0	0	0	0	0	0	0	0	1455	1449	1449	1455	1455	0	0	0	1437	1437	1431	1437	1437	1431	1431	1437	1437	1431	1431	1443	1437	1431	1431	0	0	0	0	0	0	0	0	1525	1519	1519	1519	1525	0	0	0	0	1553	1553	1553	0	0	0	0	1618	1611	1611	1611	1603	1603	1603	1603	1603	1649	1649	0	0	0	0	0	0	0	0	0	0	0	0	0	0	0	0	0	0	0	0	0	0	0	0	0	0	0	0	0	0	0	0	0	0	0	0	0	0	0	0	0	0	0	0	0	0	0	0	0	0	0	0	0	0	0	0	0	8343	8343	8343	8343	8343	8343	8550	8550	8550	8343	8550	8550	8550	8550	8550	8550	8550	8550	8550	8550	8550	8550	8550	8343	8343	8343	8146	8146	8146	8146	7779	7608	7608	7959	8146	8146	8146	8146	8146	8146	8343	8343	8146	8146	8146	8343	8343	8343	8343	8343	8343	8343	8343	8343	8343	8146	8146	6592	6592	6592	6592	6592	8146	8146	0	0	0	6592	6592	0	0	0	0	0	0	0	0	0	6468	6592	6592	6592	6720	6720	6720	6720	6592	6592	6592	6468	6468	6468	6468	6468	6468	6592	6592	6592	6592	6592	6592	6592	6592	6592	6592	6592	6592	6592	6592	6592	6592	6468	6592	6468	6468	6468	6592	6468	6468	6468	6468	6592	6592	4142	4045	4045	3998	4045	3998	3998	4045	3998	3998	3998	3998	3998	3998	3998	3998	3998	3998	4045	4093	4093	4093	4045	4093	4045	3998	3998	3952	3952	3998	3998	4045	4045	4045	4045	4045	4045	4045	4045	4093	4093	4093	4093	4093	4093	4093	4093	4093	4093	4093	4093	4093	4093	4093	4142	4142	4142	4142	0	0	0	0	0	0	0	0	0	0	0	0	0	0	0	0	0	0	0	0	6720	6720	6720	6720	6720	6720	6720	6720	6592	6720	6720	6720	6592	6592	6592	6592	6592	6592	6592	6592	6592	6592	6592	6592	6592	6592	6592	6720	6720	6592	6592	6592	6592	6720	6720	6720	6720	6720	6720	6720	6720	6720	6720	6592	6720	6720	6720	6720	6720	6720	6720	6720	6720	6720	6720	6592	0	0	0	0	4643	4706	4706	4706	4706	4706	4706	4706	4643	4643	4706	4706	4771	4771	4771	4771	4771	6720	6720	6592	6592	6592	6592	6592	6468	6468	6468	6592	6592	6720	6720	6720	6720	6720	6720	6592	6592	6592	6468	6349	6235	6235	6235	6235	6124	6124	6124	6018	6018	6018	6018	6018	5915	5915	5915	5815	5815	5815	5719	5626	5626	5719	5815	6018	5915	6018	6018	6018	5915	5915	5815	5815	5815	5815	5815	5719	0	0	0	0	5815	2312	2281	2266	2266	2266	2266	2266	2266	2266	5282	5282	5202	2252	2237	2237	2237	2223	2208	2208	5050	4906	4838	4906	4906	4838	4838	4838	4838	4838	4838	4771	4771	4771	4706	4643	4581	4581	4581	4581	4521	4521	4521	4521	4521	4463	4406	4350	4350	4350	4296	4296	4296	4296	4296	4243	4243	4243	4192	4192	4142	4142	4093	4093	4093	4045	4045	4093	4045	3998	3998	3998	3998	3952	3952	3952	3952	3952	3864	0	0	0	0	0	0	0	0	0	0	0	0	0	0	0	0	0	0	0	0	0	0	0	0	0	0	0	0	0	0	0	0	0	0	0	0	0	0	0	0	0	0	0	0	0	0	0
0	0	0	0	0	0	0	0	0	1291	1291	1296	1301	1301	1306	1306	1306	1311	1311	1316	1316	1316	1321	1326	1331	1331	0	1768	1768	1768	1768	1768	1768	1759	1759	0	0	0	0	0	0	0	0	0	0	0	0	0	0	0	0	0	0	0	0	0	0	0	0	0	0	0	0	0	1425	1431	1431	1425	1425	1431	1431	1419	1419	1431	1437	1431	1431	1443	1437	1437	1437	0	0	0	0	0	0	0	0	0	1519	1519	1519	0	0	0	0	0	1553	1560	1560	1560	1567	1567	1596	1596	1611	1611	1611	1603	1611	1603	1603	1603	0	0	0	0	0	0	0	0	0	0	0	0	0	0	0	0	0	0	0	0	0	0	0	0	0	0	0	0	0	0	0	0	0	0	0	0	0	0	0	0	0	0	0	0	0	0	0	0	0	0	0	0	0	0	0	0	0	0	0	0	6992	8146	8146	8343	8146	8343	8343	8343	8343	8343	8343	8550	8550	8550	8550	8550	8550	8550	8550	6592	6592	6592	6592	6592	6592	6592	6720	7137	7137	7444	7137	7137	7137	7287	7444	7779	7779	6853	6720	6720	6992	6992	8146	8146	8146	8146	8343	8343	8343	8343	6592	6592	6592	6592	6592	6592	6592	6592	6592	6592	6592	6592	6592	6592	6592	6592	6592	6592	6592	6592	6592	6592	6592	6592	6468	6468	6468	6468	6468	6592	6592	6720	6720	6720	6592	6720	6592	6592	6592	6468	6468	6468	6468	6468	6592	6592	6592	6592	6592	6592	6592	6592	6592	6592	6592	6592	6592	6592	6592	6592	6592	6592	6592	6592	6468	6592	6468	6468	6468	6468	6468	4142	4142	4093	4045	3998	4045	3998	3998	4045	3998	3998	3998	3998	3998	3998	3998	3998	3998	4045	4045	4093	4093	4093	4093	4045	4045	3998	3998	3952	3952	3998	3998	4045	4045	4045	4045	4045	4045	4045	4045	4045	4093	4093	4093	4093	4093	4093	4093	4045	4093	4093	4093	4093	4093	4093	4142	4142	4142	4142	0	0	0	0	0	0	0	0	0	0	0	0	0	0	0	0	0	0	0	6592	6592	6720	6720	6592	6592	6592	6720	6592	6592	6592	6592	6720	6720	6592	6592	6592	6592	6592	6592	6592	6592	6592	6592	6592	6592	6592	6592	6592	6720	6592	6592	6592	6592	6720	6720	6720	6720	6720	6720	6720	6720	6720	6720	6592	6720	6720	6720	6720	6720	6720	6720	6720	6720	6720	6720	6720	0	0	0	0	4706	4706	4771	4706	4706	4706	4706	4706	4706	4643	4706	4706	4771	4771	4771	4771	4771	4771	4771	6720	6720	6720	6592	6592	6592	6592	6592	6720	6592	6720	7779	6853	6720	6720	6720	6592	6468	6349	6349	6235	6235	6235	6235	6235	6124	6124	6018	6018	6018	6018	6018	6018	5915	5915	5915	5815	5815	5719	5719	5626	5626	5719	5815	5815	5815	5815	5915	6018	5915	5915	5815	5815	5815	5815	5815	0	0	0	0	0	2343	2312	2281	2266	2266	2266	2266	2252	2237	2237	2252	2252	2237	2237	2223	2237	2223	2223	2208	2208	2208	2208	4838	4906	4906	4906	4838	4838	4838	4838	4838	4771	4771	4706	4706	4643	4581	4581	4581	4581	4581	4521	4521	4521	4521	4463	4406	4350	4350	4296	4296	4296	4296	4296	4296	4296	4296	4243	4192	4142	4142	4142	4093	4093	4093	4045	4045	4093	4045	3998	3998	3998	3998	3952	3952	3952	3952	3952	0	0	0	0	0	0	0	0	0	0	0	0	0	0	0	0	0	0	0	0	0	0	0	0	0	0	0	0	0	0	0	0	0	0	0	0	0	0	0	0	0	0	0	0	0	0	0	0
0	0	0	0	0	0	0	0	0	1291	1291	1296	1296	1301	1301	1301	1306	1306	1311	1311	1316	1316	1316	1321	1326	1326	0	1777	1777	1777	1777	1777	1777	1777	0	0	0	0	0	0	0	0	0	0	0	0	0	0	0	0	0	0	0	0	0	0	0	0	0	0	0	0	0	0	1431	1431	1431	1425	1425	1431	1425	1419	1419	1431	1437	1431	1431	1443	1437	1437	1431	1431	0	0	0	0	0	0	0	0	1512	1512	1512	1512	1519	1519	1539	1539	1560	1560	1567	1567	1567	1581	1589	1596	1603	1611	1611	1611	1611	1618	1641	1649	1649	0	0	0	0	0	0	0	0	0	0	0	0	0	0	0	0	0	0	0	0	0	0	0	0	0	0	0	0	0	0	0	0	0	0	0	0	0	0	0	0	0	0	0	0	0	0	0	0	0	0	0	0	0	0	0	0	0	0	0	6853	6992	7137	7137	6992	6720	6720	6720	6720	8550	8550	8550	8550	6720	6720	6720	6720	6720	6720	6592	6592	6592	6592	6592	6592	6592	6720	6720	6853	7137	6992	6992	6992	6853	6853	6992	7137	6853	6720	6720	6992	7137	7287	7287	6592	6592	7779	7779	6592	6592	6592	6592	6592	6592	6592	6592	6592	6592	6592	6592	6468	6592	6592	6592	6592	6592	6592	6592	6592	6592	6592	6468	6468	6468	6468	6468	6468	6468	6468	6468	6592	6592	6592	6592	6592	6592	6592	6592	6592	6468	6468	6592	6468	6592	6592	6592	6592	6592	6592	6592	6592	6592	6592	6592	6592	6592	6592	6592	6592	6592	6592	6592	6592	6592	6592	6592	6468	6468	6468	6349	4093	4093	4093	4045	4045	3998	4045	3998	3998	3998	3998	3998	3998	3998	3998	3998	3998	3998	3998	3998	4045	4045	4093	4093	4045	4045	4045	4045	3998	3952	3952	3998	3998	4045	4045	4045	4045	4045	4045	4045	4045	4045	4093	4045	4093	4093	4045	4045	4045	4045	4045	4093	4093	4093	4093	4093	4142	4142	4142	4192	4192	0	0	0	0	0	0	0	0	0	0	0	0	0	0	0	0	0	0	6720	6592	6592	6720	6592	6592	6720	6720	6720	6720	6720	6720	6720	6720	6720	6720	6720	6720	6592	6592	6592	6592	6592	6592	6592	6592	6592	6592	6592	6592	6592	6592	6592	6720	6720	6720	6720	6720	6592	6592	6592	6592	6592	6592	6592	6592	6720	6720	6720	6592	6592	6720	6592	6720	6720	6720	6720	0	0	0	0	4706	4706	4771	4706	4706	4706	4706	4706	4706	4643	4643	4706	4771	4771	4771	4838	4838	4838	4838	7959	7959	6853	6720	6720	6720	8146	8343	8343	8146	8146	7959	7779	7779	6720	6720	6720	6349	6349	6235	6235	6235	6235	6235	6235	6124	6124	6018	6018	5915	6018	6018	5915	5915	5915	5815	5815	5815	5815	5719	5719	5626	5626	5815	5815	5815	5915	5915	5915	5915	5915	5815	5815	5815	5815	5815	0	0	2327	2327	2327	2327	2312	2281	2266	2266	2266	2266	2252	2237	2237	2237	2237	2237	2237	2223	2237	2223	2223	2223	2223	2208	2194	2194	0	4906	4906	4906	4838	4838	4838	4838	4771	4771	4706	4706	4643	4581	4581	4581	4581	4581	4521	4521	4521	4521	4463	4463	4406	4350	4350	4350	4350	4296	4296	4296	4296	4296	4296	4243	4192	4142	4142	4142	4093	4093	4045	4045	4093	4045	3998	4045	3998	3998	3952	3952	3952	3952	3952	0	0	0	0	0	0	0	2114	2101	2101	2101	0	0	0	0	0	0	0	0	0	0	0	0	0	0	0	0	0	0	0	0	0	0	0	0	0	0	0	0	0	0	0	0	0	0	0	0	0
0	0	0	0	0	0	0	0	0	1291	1291	1296	1296	1301	1301	1301	1306	1306	1306	1311	1316	1316	1316	1321	1321	1326	0	1795	1786	1795	1795	1795	1795	1777	0	0	0	0	0	0	0	0	0	0	0	0	0	0	0	0	0	0	0	0	0	0	0	0	0	0	0	0	0	1425	1425	1425	1425	1419	1419	1425	1419	1413	1413	1413	1431	1425	1431	1437	1443	1449	1449	1431	0	0	0	0	0	0	0	0	1506	1512	1512	1519	1532	1532	1546	1560	1560	1560	1567	1567	1567	1574	1574	1581	1596	1611	1611	1603	1603	1618	1641	1649	1657	1657	0	0	0	0	0	0	0	0	0	0	0	0	0	0	0	0	0	0	0	0	0	0	0	0	0	0	0	0	0	0	0	0	0	0	0	0	0	0	0	0	0	0	0	0	0	0	0	0	0	0	0	0	0	0	0	0	0	6853	6720	6853	6853	7137	6720	6720	6720	6592	6592	6592	6592	6592	6592	6720	6720	6720	6720	6720	6720	6592	6592	6592	6592	6468	6468	6592	6592	6592	6592	6720	6853	6853	6720	6720	6720	6720	6720	6720	6720	6720	6853	6853	6992	6853	6720	6720	6720	6720	6720	6592	6592	6592	6592	6592	6592	6592	6592	6592	6592	6592	6468	6592	6592	6592	6592	6592	6592	6592	6592	6592	6468	6468	6468	6468	6468	6468	6468	6468	6468	6468	6468	6592	6592	6592	6592	6592	6592	6592	6592	6468	6592	6592	6592	6592	6592	6592	6592	6592	6592	6592	6592	6592	6592	6592	6592	6592	6592	6592	6592	6592	6592	6592	6592	6592	6592	6592	6468	6468	6349	6349	4093	4093	4093	4045	4045	3998	3998	3998	3998	3998	3998	3998	3998	3998	3998	3998	3998	3998	3998	3998	4045	4045	4045	4045	4045	3998	3998	3998	3998	3952	3998	3998	3998	4045	4045	4045	4045	4045	4045	4045	4045	4045	4045	4045	4045	4045	4045	4045	4045	4045	4045	4093	4093	4093	4093	4093	4142	4142	4142	4192	4192	0	0	0	0	0	0	0	0	0	0	0	0	0	0	0	0	0	0	6720	6720	6720	6720	6720	6720	6720	6720	6720	6720	6720	6720	6720	6720	6592	6592	6720	6720	6592	6592	6592	6592	6592	6592	6592	6592	6592	6592	6592	6592	6592	6592	6592	6720	6720	6720	6592	6592	6592	6592	6592	6592	6592	6592	6592	6592	6720	6720	0	6592	6592	6720	6592	6720	6720	6720	0	0	0	4706	4706	4706	4771	4771	4706	4706	4706	4706	4706	4706	4706	4706	4706	4771	4771	4771	4706	4706	4838	7959	8146	8343	8343	8343	8343	8343	8146	8343	8343	8146	8146	8343	7959	8146	8146	8146	6349	6349	6235	6235	6235	6235	6235	6235	6235	6124	6124	6124	6018	6018	6018	6018	6018	5915	5915	5815	5815	5719	5719	5719	5719	5719	5719	5815	5815	5815	5915	6018	6018	6018	6018	5815	5815	5815	5815	0	0	2343	2343	2327	2327	2327	2312	2297	2266	2266	2266	2266	2252	2237	2237	2237	2223	2223	2223	2223	2237	2223	2223	2223	2223	2208	2208	2208	0	0	4906	4838	4838	4771	4838	4838	4771	4706	4643	4643	4643	4581	4581	4581	4581	4521	4521	4521	4521	4521	4463	4463	4406	4350	4350	4350	4350	4296	4296	4296	4296	4296	4296	4192	4192	4142	4142	4142	4093	4093	4045	4045	4093	4045	3998	3998	3998	3952	3952	3952	3952	3952	3952	0	0	0	0	0	0	0	2140	2127	2114	2114	0	0	0	0	0	0	0	0	0	0	0	0	0	0	0	0	0	0	0	0	0	0	0	0	0	0	0	0	0	0	0	0	0	0	0	0	0
0	0	0	0	0	0	0	0	0	1291	1291	1296	1296	1301	1301	1301	1306	1306	1306	1311	1316	1316	1316	1321	1321	1321	0	1814	1804	1804	1804	1814	1814	1814	0	0	0	0	0	0	0	0	0	0	0	0	0	0	0	0	0	0	0	0	0	0	0	0	0	0	0	0	0	1431	1425	1425	1419	1419	1419	1419	1413	1413	1413	1419	1419	1419	1413	1413	1431	1431	1431	0	0	0	0	0	0	0	0	0	1512	1512	1512	1519	1525	1532	1539	1553	1553	1553	1560	1560	1567	1567	1574	1581	1589	1611	1603	1603	1611	1626	1641	1649	1657	1665	1665	1665	1665	0	0	0	0	0	0	0	0	0	0	0	0	0	0	0	0	0	0	0	0	0	0	0	0	0	0	0	0	0	0	0	0	0	0	0	0	0	0	0	0	0	0	0	0	0	0	0	0	0	0	0	0	0	6853	6853	6720	6853	6720	6720	6720	6592	6592	6592	6592	6592	6592	6592	6592	6592	6720	6720	6592	6720	6720	6592	6592	6592	6592	6468	6592	6592	6592	6592	6592	6720	6720	6720	6720	6592	6592	6720	6720	6720	6592	6592	6720	6720	6720	6720	6592	6592	6720	6720	6720	6592	6592	6592	6592	6592	6592	6592	6592	6592	6592	6592	6592	6592	6592	6592	6592	6592	6592	6592	6592	6592	6592	6468	6468	6468	6468	6468	6468	6468	6468	6468	6468	6592	6592	6592	6592	6592	6592	6592	6592	6592	6592	6592	6592	6592	6592	6592	6592	6592	6592	6592	6592	6592	6592	6592	6592	6592	6592	6592	6592	6592	6592	6592	6592	6592	6592	6592	6468	6468	6349	6349	4093	4045	4093	4045	4045	3998	4045	3998	3998	3998	3998	3998	3998	3998	3998	3998	3998	3998	3998	3998	4045	4045	4045	4045	3998	3998	3998	4045	3998	3998	3998	3998	4045	4045	4045	4045	4045	4045	4045	4045	4045	4045	4045	4045	4045	4045	4045	4045	4045	4045	4045	4045	4093	4093	4093	4093	4142	4142	4142	4142	4192	4192	0	0	0	0	0	0	0	0	0	0	0	0	0	0	0	0	0	6720	6720	6592	6720	6592	6720	6720	6592	6592	6592	6720	6592	6720	6720	6720	6720	6720	6720	6592	6592	6592	6592	6592	6592	6592	6592	6592	6592	6592	6592	6592	6592	6592	6720	6720	6720	6592	6592	6592	6592	0	0	0	0	0	0	0	0	0	0	0	0	0	6720	6720	0	0	0	0	4771	4771	4771	4771	4771	4771	4706	4706	4706	4706	4643	4643	4706	4706	4706	4706	4706	4706	4706	0	8343	8343	8343	8343	8343	8343	8343	8343	8343	8146	8343	8343	8343	7959	8146	8146	8146	8146	6349	6235	6235	6235	6235	6235	6235	6235	6124	6124	6124	6124	6124	6124	6124	6018	5915	5815	5815	5815	5719	5719	5719	5719	5626	5719	5815	5815	5815	5915	5915	6018	6018	6018	5815	5815	0	0	0	0	2343	2327	2327	2312	2312	2297	2297	2297	2297	2266	2266	2252	2223	2223	2223	2223	2223	2223	2223	2237	2223	2223	2223	2223	2208	2208	2208	0	0	4906	4838	4838	4838	4838	4838	4771	4643	4643	4643	4643	4581	4581	4581	4581	4581	4521	4521	4521	4521	4463	4463	4406	4350	4350	4350	4350	4296	4296	4296	4296	4296	4243	4243	4192	4192	4192	4192	4192	4142	4093	4045	4093	4045	3998	4045	3998	3998	3952	3907	3907	3907	0	0	0	0	0	0	0	2153	2140	2127	2114	2114	0	0	0	0	0	0	0	0	0	0	0	0	0	0	0	0	0	0	0	0	0	0	0	0	0	0	0	0	0	0	0	0	0	0	0	0	0
0	0	0	0	0	0	0	0	0	1291	1291	1296	1296	1296	1301	1301	1301	1301	1306	1311	1316	1311	1311	1311	1311	1321	1824	1824	1804	1804	1814	1814	1824	1824	0	0	0	0	0	0	0	0	0	0	0	0	0	0	0	0	0	0	0	0	0	0	0	0	0	0	0	0	0	1413	1425	1425	1419	1419	1419	1419	1413	1413	1407	1407	1407	1425	1419	1431	1437	1437	1455	1455	0	0	0	0	0	0	0	1506	1512	1512	1512	1512	1519	1519	1532	1546	1546	1560	1567	1567	1567	1567	1574	1581	1596	1611	1611	1618	1626	1634	1641	1649	1657	1665	1665	1665	1665	0	0	0	0	0	0	0	0	0	0	0	0	0	0	0	0	0	0	0	0	0	0	0	0	0	0	0	0	0	0	0	0	0	0	0	0	0	0	0	0	0	0	0	0	0	0	0	0	0	6853	6720	6720	6720	6720	6720	6720	6720	6720	6720	6592	6592	6592	6592	6592	6592	6592	6592	6592	6592	6720	6592	6592	6720	6592	6592	6592	6592	6592	6592	6592	6592	6592	6592	6592	6720	6720	6720	6592	6592	6592	6592	6592	6592	6592	6592	6592	6720	6720	6592	6592	6592	6592	6592	6592	6592	6592	6592	6592	6592	6592	6592	6592	6592	6592	6592	6592	6592	6592	6592	6592	6592	6592	6592	6592	6592	6592	6468	6592	6468	6468	6468	6468	6468	6468	6468	6468	6592	6592	6592	6592	6592	6592	6592	6592	6592	6592	6592	6592	6592	6592	6592	6592	6592	6592	6592	6592	6592	6592	6592	6592	6592	6592	6592	6592	6592	6592	6592	6592	6592	6592	6592	6468	6468	6468	6235	4045	4045	4045	4045	4045	3998	3998	3998	3998	3952	3998	3952	3998	3998	3998	3998	3998	3998	3998	3998	4045	4045	4045	3998	3998	3998	3998	3998	3998	3998	3998	4045	4045	4045	3998	3998	4045	4045	4045	4045	4045	3998	4045	4045	4045	4045	4045	4045	4045	4045	4045	4045	4093	4093	4093	4093	4142	4142	4142	4142	4142	4142	4142	0	0	0	0	0	0	0	0	0	0	0	0	0	0	0	0	6720	6720	6720	6720	6720	6720	6720	6592	6720	6592	6592	6592	6720	6720	6720	6720	6720	6720	6720	6592	6592	6592	6592	6592	6592	6592	6592	6592	6592	6592	6592	6468	6468	6720	6720	6720	0	0	0	0	0	0	0	0	0	0	0	0	0	0	0	0	0	0	0	0	0	0	0	4771	4771	4771	4771	4771	4771	4706	4706	4706	4706	4643	4643	4643	4643	4706	4706	4706	4706	4706	0	8343	8343	8343	8343	8343	8343	8343	8343	8343	8343	8343	8343	8343	8146	8146	8343	8343	8343	6235	6235	6235	6235	6235	6124	6235	6235	6124	6124	6124	6124	6124	6124	6124	6124	5915	5815	5815	5719	5719	5719	5719	5719	5626	5719	5815	5815	5815	5915	5915	0	0	0	0	0	0	2343	2343	2343	2343	2343	2312	2297	2312	2281	2281	2297	2297	2266	2252	2237	2223	2208	2223	2223	2223	2223	2223	2237	2223	2223	2223	2223	2208	2208	2208	2194	2194	4906	4838	4838	4838	4771	4838	4643	4643	4643	4643	4643	4581	4581	4581	4581	4581	4521	4521	4521	4521	4463	4406	4350	4350	4350	4350	4350	4296	4296	4296	4296	4243	4243	4243	4192	4192	4192	4192	4192	4142	4093	4045	4093	4045	3998	4045	3998	3998	3952	3952	3952	3907	0	2194	2194	2181	2167	2167	2167	2153	2153	2127	2127	2127	0	0	0	0	0	0	0	0	0	0	0	0	0	0	0	0	0	0	0	0	0	0	0	0	0	0	0	0	0	0	0	0	0	0	0	0	0
0	0	0	0	0	0	0	0	0	1291	1291	1296	1296	1296	1301	1301	1301	1306	1311	1311	1311	1311	1316	1316	1316	1316	1316	1824	1824	1814	1814	1824	1824	1824	0	0	0	0	0	0	0	0	0	0	0	0	0	0	0	0	0	0	0	0	0	0	0	0	0	0	0	0	1419	1419	1413	1425	1425	1425	1419	1431	1419	1419	1413	1413	1413	1425	1419	1431	1437	1437	1437	1455	0	0	0	0	0	0	0	1506	1512	1512	1512	1512	1519	1519	1525	1539	1539	1560	1567	1567	1567	1567	1574	1581	1603	1618	1618	1618	1626	1634	1641	1649	1665	1665	1673	1657	1657	0	0	0	0	0	0	0	0	0	0	0	0	0	0	0	0	0	0	0	0	0	0	0	0	0	0	0	0	0	0	0	0	0	0	0	0	0	0	0	0	0	0	0	0	0	0	0	0	6592	6720	6720	6720	6720	6720	6720	6720	6720	6720	6720	6592	6592	6592	6592	6592	6592	6592	6592	6592	6592	6720	6592	6592	6720	6592	6592	6592	6592	6592	6592	6592	6592	6592	6592	6592	6592	6592	6592	6592	6592	6592	6592	6592	6592	6592	6592	6592	6592	6592	6720	6592	6592	6592	6592	6592	6592	6592	6592	6592	6592	6592	6592	6592	6592	6592	6592	6468	6468	6468	6592	6592	6592	6592	6592	6592	6592	6592	6468	6592	6468	6468	6468	6468	6468	6468	6468	6468	6592	6592	6592	6592	6592	6592	6592	6592	6592	6592	6592	6592	6592	6592	6592	6592	6592	6592	6592	6592	6592	6592	6592	6592	6592	6592	6592	6592	6592	6592	6592	6592	6592	6592	6592	6468	6592	6468	6235	4045	4045	4045	4045	4045	3998	3998	3998	3998	3998	3998	3998	3998	3998	3998	3998	3998	3998	3998	3998	4045	3998	3998	3998	3952	3952	3998	4045	3998	3998	3998	3998	3998	3998	3998	3998	3998	4045	3998	3998	3998	3998	4045	3998	4045	4045	4045	4045	4045	4045	4045	4045	4093	4093	4093	4093	4093	4142	4142	4142	4142	4142	4142	0	0	0	0	0	0	0	0	0	0	0	0	0	0	0	0	0	6720	6720	6720	6720	6720	6720	6720	6720	6592	6592	6720	6720	6720	6720	6720	6720	6720	6720	6592	6592	6592	6592	6592	6592	6592	6592	6592	6592	6592	6468	6468	6468	0	0	0	0	0	0	0	0	0	0	0	0	0	0	0	0	0	0	0	0	0	0	0	0	0	4838	4771	4771	4771	4771	4771	4771	4706	4706	4706	4706	4706	4643	4643	4643	4706	4706	4706	4706	4706	0	8146	8146	8343	8343	8343	8550	8343	8343	8343	8343	8343	8343	8343	8146	8146	8146	8146	8146	6235	6235	6235	6235	6235	6235	6235	6235	6124	6124	6124	6235	6235	6235	6124	6124	5915	5915	5815	5719	5719	5719	5719	5719	5626	5719	5719	5815	0	0	0	0	0	0	0	0	0	2343	2343	2343	2343	2343	2312	2281	2281	2281	2281	0	0	0	2252	2237	2223	2237	2237	2223	2223	2223	2223	2237	2223	2223	2223	2223	2208	2208	2208	2181	2181	2181	2181	4838	4838	4771	4771	4581	4581	4581	4643	4643	4581	4581	4581	4581	4521	4521	4521	4521	4463	4463	4406	4406	4350	4350	4350	4350	4296	4296	4296	4243	4243	4243	4243	4192	4192	4192	4192	0	0	4093	4045	4093	4093	4045	4045	4045	3998	3998	2194	2194	2181	2181	2181	2181	2181	2167	2167	2167	2153	2153	2127	2127	2127	0	0	0	0	0	0	0	0	0	0	0	0	0	0	0	0	0	0	0	0	0	0	0	0	0	0	0	0	0	0	0	0	0	0	0	0	0
0	0	0	0	0	0	0	0	0	1287	1291	1296	1296	1296	1301	1306	1306	1306	1311	1316	1316	1311	1316	1316	1316	1316	1316	0	1824	1824	1824	1824	1824	1824	0	0	0	0	0	0	0	0	0	0	0	0	0	0	0	0	0	0	0	0	0	0	0	0	1385	1385	1385	1379	1379	1413	1413	1431	1437	1425	1431	1431	1431	1425	1413	1413	1413	1425	1419	1431	1443	1443	1443	0	0	0	0	0	0	0	0	1512	1512	1512	1512	1519	1519	1519	1525	1532	1539	1560	1560	1560	1567	1567	1567	1574	1596	1596	1618	1626	1634	1641	1641	1649	1657	1673	1681	1665	1665	0	0	0	0	0	0	0	0	0	0	0	0	0	0	0	0	0	0	0	0	0	0	0	0	0	0	0	0	0	0	0	0	0	0	0	0	0	0	0	0	0	0	0	0	0	0	6720	6592	6592	6720	6720	6592	6720	6720	6720	6720	6592	6592	6592	6592	6592	6592	6592	6592	6592	6592	6592	6592	6592	6592	6592	6592	6592	6592	6592	6592	6592	6592	6592	6592	6592	6592	6592	6592	6592	6592	6592	6592	6592	6592	6592	6592	6592	6592	6592	6592	6592	6592	6592	6592	6592	6592	6592	6592	6592	6592	6592	6592	6592	6592	6592	6468	6468	6468	6468	6468	6592	6592	6592	6592	6592	6592	6592	6592	6592	6592	6592	6592	6592	6468	6468	6468	6468	6468	6468	6468	6468	6592	6592	6592	6592	6592	6592	6592	6592	6592	6592	6592	6592	6592	6592	6592	6592	6592	6592	6592	6592	6592	6592	6592	6592	6592	6592	6592	6592	6592	6592	6592	6592	6592	6592	6592	6592	6468	4045	4045	4045	4045	4045	4045	4045	4045	3998	3998	3998	3998	3998	3998	3998	3998	3998	3998	3998	3998	3998	3998	3998	3998	3952	3952	3952	3998	3998	3998	3998	3998	4045	3998	4045	3998	3998	3998	3998	3998	3998	3998	3998	3998	3998	3998	4045	4045	4045	4045	4045	4045	4045	4045	4093	4093	4093	4142	4142	4142	4142	4142	4142	0	0	0	0	0	0	0	0	0	0	0	0	0	0	0	0	0	0	6853	6720	6720	6720	6720	6720	6720	6720	6592	6592	6592	6720	6720	6720	6720	6720	6720	6592	6592	6592	6592	6592	6592	6592	6592	6592	6468	6592	6468	6468	6468	6468	0	0	0	0	0	0	0	0	0	0	0	0	0	0	0	0	0	0	0	0	0	0	0	0	0	4838	4771	4771	4771	4771	4771	4771	4706	4706	4706	4706	4706	4706	4643	4643	4706	4706	4706	4706	4771	4771	8146	8343	8343	8343	8343	8550	8343	8343	8343	8343	8343	8343	8343	8146	8146	8343	8343	8146	0	6235	6235	6235	6124	6235	6235	6235	6235	6235	6235	6235	6468	6349	6349	6124	5915	5915	5815	5719	5719	5719	5719	5719	5626	5719	5719	0	0	0	0	0	0	0	0	0	0	2343	2343	2343	2343	2327	2297	2281	2281	2281	0	0	0	0	0	2223	2237	2237	2237	2237	2223	2223	2223	2223	2223	2223	2208	2223	2208	2208	2208	2194	2194	2181	2181	2181	0	0	4771	4643	4581	4643	4643	4581	4581	4581	4581	4581	4521	4521	4521	4521	4521	4463	4463	4406	4350	4350	4350	4350	4296	4296	4243	4243	4243	4243	4192	4192	4192	0	0	0	0	0	0	4093	4093	4045	4045	3998	2223	2223	2194	2181	2181	2181	2181	2181	2167	2167	2167	2167	2153	2153	2140	2127	2127	0	0	0	0	0	0	0	0	0	0	0	0	0	0	0	0	0	0	0	0	0	0	0	0	0	0	0	0	0	0	0	0	0	0	0	0	0
0	0	0	0	0	0	0	0	0	1287	1287	1291	1296	1296	1301	1306	1311	1311	1316	1316	1316	1316	1316	1316	1316	1316	0	0	1824	1824	1833	1824	1824	1824	0	0	0	0	0	0	0	0	0	0	0	0	0	0	0	0	0	0	0	0	0	0	0	1379	1385	1385	1385	1379	1379	1407	1407	1443	1437	1431	1431	1431	1431	1431	1431	1419	1431	1431	1425	1431	1437	1437	1437	0	0	0	0	0	0	0	1512	1512	1519	1519	1519	1519	1519	1519	1525	1539	1539	1560	1560	1560	1560	1560	1560	1567	1589	1589	1626	1626	1634	1649	1641	1649	1649	1657	1665	1665	1681	1706	1706	0	0	0	0	0	0	0	0	0	0	0	0	0	0	0	0	0	0	0	0	0	0	0	0	0	0	0	0	0	0	0	0	0	0	0	0	0	0	0	0	0	0	0	0	6720	6592	6592	6720	6592	6592	6720	6592	6592	6592	6592	6592	6592	6592	6592	6592	6592	6592	6592	6592	6592	6592	6592	6592	6592	6592	6592	6592	6592	6592	6592	6592	6592	6592	6592	6592	6592	6592	6592	6720	6592	6592	6592	6592	6592	6592	6592	6592	6592	6592	6592	6592	6592	6592	6592	6592	6592	6592	6592	6592	6592	6592	6592	6592	6592	6592	6592	6592	6592	6592	6592	6592	6592	6592	6592	6592	6592	6592	6592	6592	6592	6592	6468	6468	6468	6468	6468	6468	6468	6468	6468	6592	6592	6468	6592	6592	6592	6592	6592	6592	6592	6592	6592	6592	6592	6592	6592	6592	6592	6592	6592	6592	6592	6592	6592	6592	6592	6592	6720	6720	6720	6592	6592	6592	6592	6468	6468	6468	4045	4045	4093	4045	4045	4045	4045	4045	4045	4045	3998	3998	3998	3998	3998	4045	3998	3998	3952	3952	3952	3998	3952	3952	3952	3952	3952	3952	3998	3998	3998	3998	3998	3998	4045	3998	3998	3998	3998	3998	3998	3998	3998	3998	3998	3998	3998	3998	3998	3998	4045	4045	4045	4093	4093	4093	4093	4093	4093	4093	4093	4093	4093	0	0	0	0	0	0	0	0	0	0	0	0	0	0	0	0	0	0	6853	6720	6720	6720	6720	6720	6720	6720	6592	6720	6592	6592	6592	6720	6592	6720	6720	6720	6592	6592	6592	6592	6592	6592	6592	6592	6468	6468	6468	6468	6468	0	0	0	0	0	0	0	0	0	0	0	0	0	0	0	0	0	0	0	0	0	0	0	0	0	0	4771	4771	4771	4706	4706	4706	4706	4706	4643	4643	4706	4643	4643	4643	4643	4706	4706	4706	4706	4706	4771	8343	8343	8343	8343	8343	8343	8343	8343	8343	8343	8343	8343	8343	8146	8146	8343	8343	0	0	6235	6235	6235	6124	6235	6235	6235	6235	6468	6468	6592	6468	6468	6349	6124	6018	5915	5815	5719	5719	5719	5719	5626	5626	5719	5719	0	0	0	0	0	0	0	0	0	2343	2327	2327	2327	2327	2297	2297	2266	2266	2281	0	0	0	0	0	2223	2237	2237	2237	2237	2223	2223	2223	2223	2223	2208	2208	2208	2208	2208	2208	2194	2194	2194	2181	2181	2181	0	0	4581	4581	4643	4643	4643	4581	4581	4581	4581	4521	4521	4521	4521	4521	4521	4463	4406	4406	4350	4350	4350	4296	4296	4243	4243	4243	4243	4243	4192	4192	0	0	0	0	0	0	0	0	0	0	3998	2223	2223	2194	2181	2181	2181	2181	2181	2167	2167	2167	2167	2167	2153	2140	2127	2127	0	0	0	0	0	0	0	0	0	0	0	0	0	0	0	0	0	0	0	0	0	0	0	0	0	0	0	0	0	0	0	0	0	0	0	0	0
0	0	0	0	0	0	0	0	0	1287	1287	1291	1296	1296	1301	1306	1311	1311	1316	1316	1316	1316	1316	1316	0	0	0	0	0	0	1833	1833	1833	1833	1824	1824	0	0	0	0	0	0	0	0	0	0	0	0	0	0	0	0	0	0	0	0	1379	1379	1385	1385	1385	1379	1385	1396	1402	1437	1437	1431	1431	1431	1431	1431	1431	1425	1437	1431	1437	1437	1437	1437	1437	0	0	0	0	0	0	0	1506	1512	1512	1512	1512	1519	1519	1519	1525	1539	1546	1560	1553	1560	1560	1560	1560	1567	1567	1567	1634	1634	1641	1649	1641	1649	1649	1657	1665	1665	1673	1698	1698	1698	1690	1690	0	0	0	0	0	0	0	0	0	0	0	0	0	0	0	0	0	0	0	0	0	0	0	0	0	0	0	0	0	0	0	0	0	0	0	0	0	0	0	0	0	6720	6592	6592	6592	6592	6592	6720	6592	6592	6592	6592	6592	6592	6592	6592	6592	6592	6592	6592	6592	6592	6592	6592	6592	6592	6592	6592	6592	6592	6592	6592	6592	6592	6592	6592	6592	6592	6592	6592	6592	6592	6592	6592	6592	6592	6592	6592	6592	6592	6592	6592	6592	6592	6592	6592	6592	6592	6592	6592	6592	6592	6592	6592	6592	6592	6592	6592	6592	6592	6592	6592	6592	6592	6592	6592	6592	6592	6592	6592	6592	6592	6592	6592	6592	6468	6468	6592	6468	6468	6592	6468	6592	6592	6592	6592	6592	6592	6592	6592	6592	6592	6592	6592	6592	6592	6592	6592	6592	6592	6592	6592	6592	6592	6592	6592	6592	6592	6592	6592	6720	6720	6592	6592	6592	6592	6468	6592	6468	4045	4045	4045	4045	4045	4045	4045	4045	4045	4045	4045	3998	3998	3998	3998	3998	3998	3998	3998	3952	3952	3998	3952	3952	3952	3952	3952	3952	3998	3998	3998	3998	3998	3998	3998	3998	3952	3998	3998	3998	3998	3998	3998	3998	3998	3998	3998	3998	3998	3998	4045	4045	4045	4093	4093	4093	4093	4093	4093	4093	4093	4093	4093	0	0	0	0	0	0	0	0	0	0	0	0	0	0	0	0	0	0	6853	6853	6720	6720	6720	6720	6720	6720	6720	6720	6720	6720	6592	6592	6592	6720	6720	6592	6592	6592	6592	6592	6592	6592	6592	6592	6592	6592	6592	6468	6468	0	0	0	0	0	0	0	0	0	0	0	0	0	0	0	0	0	0	0	0	0	0	0	0	0	0	4771	4771	4771	4706	4771	4771	4771	4706	4643	4643	4706	4706	4706	4643	4706	4706	4706	4706	4706	4706	0	8343	8343	8343	8343	8343	8550	8343	8343	8343	8343	8343	8343	8146	8146	8146	8146	8146	0	0	6235	6235	6235	6124	6235	6235	6349	6349	6468	6592	6592	6592	6468	6468	6235	6018	5915	5815	5719	5719	5719	5719	5626	5626	5626	5626	0	0	0	0	0	0	0	0	0	2343	2327	2327	2327	2327	2297	2297	2297	2266	0	0	0	0	0	0	0	2237	2237	2237	2237	2223	2223	2223	2223	2223	2208	2208	2208	2208	2208	2208	2181	2181	2181	2181	2181	2181	2181	0	4581	4581	4581	4581	4581	4581	4581	4581	4581	4581	4521	4521	4521	4521	4521	4406	4406	4350	4350	4350	4350	4296	4296	4243	4243	4243	4192	4243	4243	4243	0	0	0	0	0	0	0	0	0	0	2237	2223	2223	2194	2181	2181	2181	2181	2181	2167	2167	2167	2167	2167	2153	2140	2127	2127	0	0	0	0	0	0	0	0	0	0	0	0	0	0	0	0	0	0	0	0	0	0	0	0	0	0	0	0	0	0	0	0	0	0	0	0	0
0	0	0	0	0	0	0	0	0	1287	1287	1291	1291	1296	1301	1311	1311	1316	1316	1316	1316	1321	1321	1321	0	0	0	0	0	0	1833	1833	1833	1833	1824	1824	0	0	0	0	0	0	0	0	0	0	0	0	0	0	0	0	0	0	0	0	1379	1379	1379	1385	1385	1379	1390	1402	1402	1437	1437	1431	1431	1431	1431	1431	1431	1425	1437	1431	1437	1437	1437	1437	1437	0	0	0	0	0	0	0	1506	1512	1512	1512	1512	1519	1519	1519	1525	1532	1539	1553	1546	1560	1560	1560	1567	1567	1567	1567	1626	1626	1634	1641	1641	1641	1641	1649	1649	1649	1657	1657	1698	1698	1690	1690	0	0	0	0	0	0	0	0	0	0	0	0	0	0	0	0	0	0	0	0	0	0	0	0	0	0	0	0	0	0	0	0	0	0	0	0	0	0	0	0	0	6592	6592	6592	6592	6592	6592	6592	6592	6592	6592	6592	6592	6592	6592	6592	6592	6592	6592	6592	6592	6592	6592	6592	6592	6592	6592	6592	6592	6592	6592	6592	6592	6592	6592	6592	6592	6592	6592	6592	6592	6592	6592	6592	6592	6592	6592	6592	6592	6592	6592	6592	6592	6592	6592	6592	6592	6592	6592	6592	6592	6592	6592	6592	6592	6592	6592	6592	6592	6592	6592	6592	6592	6592	6592	6592	6592	6592	6592	6592	6592	6592	6592	6592	6592	6592	6592	6592	6592	6592	6592	6468	6592	6592	6592	6592	6592	6592	6592	6592	6592	6592	6592	6592	6592	6592	6592	6592	6592	6592	6592	6592	6592	6592	6592	6592	6592	6592	6592	6592	6720	6592	6720	6592	6592	6592	6468	6592	6468	4045	4045	4045	4045	4045	4045	4045	4045	4045	4045	4045	4045	4045	3998	3998	3998	3998	3952	3952	3952	3952	3952	3952	3952	3952	3952	3952	3952	3998	3998	3998	3998	3998	3998	3998	3998	3952	3952	3998	3952	3952	3952	3998	3998	3998	3998	3998	3998	3998	4045	4045	4045	4093	4093	4093	4093	4093	4093	4093	4093	4093	4093	4093	0	0	0	0	0	0	0	0	0	0	0	0	0	0	0	0	0	0	0	6853	6720	6720	6720	6720	6720	6720	6592	6592	6592	6592	6592	6592	6720	6720	6720	6720	6592	6720	6592	6592	6592	6592	6592	6592	6592	6592	6592	6592	6592	0	0	0	0	0	0	0	0	0	0	0	0	0	0	0	0	0	0	0	0	0	0	0	0	0	0	0	4771	4771	4706	4771	4771	4771	4706	4706	4706	4706	4706	4706	4643	4643	4706	4706	4706	4706	4706	0	8343	8343	8343	8343	8343	8343	8343	8343	8343	8343	8343	8343	8146	8146	7959	7959	7959	0	0	6349	6235	6235	6124	6235	6349	6349	6468	6468	6592	6720	6592	6592	6592	6468	6124	5815	5815	5719	5626	5719	5719	5626	5626	5626	5626	0	0	0	0	0	0	0	0	0	2343	2327	2327	2327	2312	2312	2297	2297	0	0	0	0	0	0	0	0	2252	2252	2237	2223	2223	2223	2223	2223	2223	2208	2208	2208	2208	2208	2208	2194	2194	2194	2181	2181	2194	2181	2181	0	4581	4643	4643	4643	4643	4581	4581	4581	4581	4521	4521	4521	4521	4521	4406	4406	4350	4350	4350	4350	4296	4296	4243	4243	4192	4192	4192	4243	4243	0	0	0	0	0	0	0	0	2237	2237	2237	2223	2223	2208	2194	2181	2181	2181	2181	2167	2167	2167	2167	2167	2153	2140	2127	2127	0	0	0	0	0	0	0	0	0	0	0	0	0	0	0	0	0	0	0	0	0	0	0	0	0	0	0	0	0	0	0	0	0	0	0	0	0
0	0	0	0	0	0	0	0	0	1282	1287	1287	1291	1296	1306	1306	1311	1316	1316	1316	1321	1321	1316	1316	0	0	0	0	0	0	0	0	0	0	0	0	0	0	0	0	0	0	0	0	0	0	0	0	0	0	0	0	0	0	0	0	1374	1374	1379	1379	1385	1385	1390	1407	1407	1437	1425	1431	1431	1431	1431	1431	1431	1431	1437	1437	1437	1437	1437	1437	1437	0	0	0	0	0	0	0	1506	1512	1512	1519	1519	1519	1519	1519	1525	1532	1539	1553	1553	1560	1560	1560	1567	1567	1567	1567	1618	1618	1626	1641	1641	1641	1641	1641	1649	1649	1657	1657	0	0	0	0	0	0	0	0	0	0	0	0	0	0	0	0	0	0	0	0	0	0	0	0	0	0	0	0	0	0	0	0	0	0	0	0	0	0	0	0	0	0	0	0	0	6720	6592	6592	6592	6592	6592	6592	6592	6592	6592	6592	6592	6592	6592	6592	6592	6592	6592	6592	6592	6592	6592	6592	6592	6592	6592	6592	6592	6592	6592	6592	6592	6592	6592	6592	6592	6720	6592	6592	6592	6592	6592	6592	6592	6592	6592	6592	6592	6592	6592	6592	6592	6592	6592	6592	6592	6592	6468	6592	6592	6592	6592	6592	6592	6592	6592	6592	6592	6592	6592	6592	6592	6592	6592	6592	6592	6592	6592	6592	6592	6592	6592	6592	6592	6592	6592	6592	6592	6592	6592	6592	6592	6592	6592	6592	6592	6592	6592	6592	6592	6592	6592	6592	6592	6592	6592	6592	6592	6592	6592	6592	6592	6592	6592	6592	6592	6592	6592	6592	6592	6592	6592	6592	6592	6592	6592	6592	6468	3998	3998	4045	4045	4045	3998	4045	4045	4045	4045	4045	4045	4045	3998	3998	3998	3998	3952	3952	3952	3952	3952	3952	3952	3952	3952	3952	3952	3952	3998	3952	3952	3952	3952	3952	3952	3952	3952	3952	3952	3952	3998	3998	3952	3998	3998	3998	3998	3998	4045	4045	4093	4093	4093	4093	4093	4093	4093	4093	4093	4093	4093	4093	0	0	0	0	0	0	0	0	0	0	0	0	0	0	0	0	0	0	0	6720	6720	6720	6720	6720	6592	6720	6592	6592	6592	6592	6592	6592	6720	6720	6720	6720	6720	6720	6592	6592	6592	6592	6592	6592	6592	6592	6468	6468	6592	0	0	0	0	0	0	0	0	0	0	0	0	0	0	0	0	0	0	0	0	0	0	0	0	0	0	0	0	4771	4706	4771	4771	4771	4706	4706	4706	4771	4706	4706	4706	4706	4706	4706	4706	4706	4706	0	8343	8343	8343	8343	8343	8343	8343	8343	8343	8343	8343	8343	8146	8146	7959	7959	7959	0	0	6349	6349	6235	6235	6349	6349	6468	6468	6468	6592	6592	6592	6468	6468	6235	6124	5815	5815	5719	5626	5626	5626	5626	5626	5626	0	0	0	0	0	0	0	0	0	0	2343	2327	2327	2327	2327	2327	2312	2312	0	0	0	0	0	0	0	0	2252	2237	2237	2223	2223	2223	2223	2223	2208	2208	2208	2208	2208	2208	2208	2181	2181	2181	2181	2181	2181	2181	2167	2167	0	4643	4771	4643	4643	4581	4581	4581	4581	4581	4521	4521	4521	4521	4463	4406	4406	4350	4350	4350	4296	4296	4243	4243	4243	4192	4192	4192	4243	0	0	0	0	0	0	0	0	2237	2237	2237	2223	2223	2208	2194	2181	2181	2181	2181	2167	2167	2167	2167	2153	2140	2127	2114	2114	0	0	0	0	0	0	0	0	0	0	0	0	0	0	0	0	0	0	0	0	0	0	0	0	0	0	0	0	0	0	0	0	0	0	0	0	0
0	0	0	0	0	0	0	0	0	1287	1291	1291	1291	1301	1306	1311	1316	1316	1316	1316	1321	1321	1316	1316	0	0	0	0	0	0	0	0	0	0	0	0	0	0	0	0	0	0	0	0	0	0	0	0	0	0	0	0	0	0	0	0	1368	1368	1374	1379	1385	1385	1425	1419	1419	1437	1431	1431	1431	1431	1431	1431	1431	1431	1437	1437	1437	1437	1437	0	0	0	0	0	0	0	0	0	0	0	1519	1519	1519	1519	1525	1525	1525	1532	1539	1553	1553	1560	1560	1560	1567	1567	1567	0	1603	1603	1626	1641	1641	1641	1641	1641	1649	1649	1649	1649	0	0	0	0	0	0	0	0	0	0	0	0	0	0	0	0	0	0	0	0	0	0	0	0	0	0	0	0	0	0	0	0	0	0	0	0	0	0	0	0	0	0	0	0	0	6720	6592	6592	6592	6592	6592	6720	6592	6592	6592	6592	6592	6592	6592	6592	6720	6592	6592	6592	6592	6592	6592	6592	6592	6592	6592	6592	6592	6592	6592	6592	6592	6592	6592	6592	6720	6720	6592	6592	6592	6592	6592	6592	6592	6592	6592	6592	6592	6592	6592	6592	6592	6592	6592	6592	6592	6592	6468	6592	6592	6592	6592	6592	6592	6592	6592	6592	6592	6592	6592	6592	6592	6592	6592	6592	6592	6468	6468	6468	6468	6592	6592	6592	6592	6592	6592	6592	6592	6592	6592	6592	6592	6592	6592	6592	6592	6592	6592	6592	6592	6592	6592	6592	6592	6592	6592	6592	6592	6592	6592	6592	6592	6592	6592	6592	6592	6592	6592	6720	6592	6592	6592	6592	6592	6592	6592	6592	6468	6592	4045	4045	4045	4045	4045	4045	4045	4045	4045	4045	4045	4045	3998	3998	3998	3998	3998	3952	3952	3952	3952	3952	3952	3952	3952	3952	3952	3952	3952	3952	3952	3952	3952	3952	3952	3952	3952	3952	3952	3952	3998	3952	3952	3952	3952	3998	3998	3998	4045	4045	4093	4093	4093	4093	4093	4093	4093	4093	4093	4093	4093	4093	0	0	0	0	0	0	0	0	0	0	0	0	0	0	0	0	0	0	0	6720	6720	6720	6720	6592	6592	6592	6592	6592	6592	6592	6592	6592	6720	6720	6720	6720	6720	6720	6592	6592	6592	6592	6592	6592	6592	6592	6468	6468	0	0	0	0	0	0	0	0	0	0	0	0	0	0	0	0	0	0	0	0	0	0	0	0	0	0	0	0	0	0	0	4771	4706	4706	4706	4706	4706	4771	4706	4706	4706	4771	4771	4771	4771	4771	4771	4771	8146	8146	8343	8146	8343	8343	8343	8343	8343	8343	8343	8343	8146	8146	7959	7959	7959	0	0	6468	6468	6349	6349	6468	6592	6592	6592	6592	6592	6592	6592	6468	6468	6349	6349	5915	5815	5719	5626	5626	5626	5626	5626	0	0	0	0	0	0	0	0	0	0	0	0	0	2327	2327	2327	2327	2297	2297	0	0	0	0	0	0	0	0	2252	2252	2237	2223	2223	2223	2208	2208	2208	2208	2194	2208	2208	2208	2208	2181	2181	2181	2181	2181	2181	2181	2167	2167	0	0	4838	4771	4643	4643	4643	4581	4581	4521	4521	4521	4521	4521	4463	4406	4406	4406	4350	4350	4350	4296	4243	4243	4243	4243	4192	4192	0	0	0	0	0	0	0	0	0	2237	2223	2237	2223	2223	2208	2194	2194	2181	2181	2181	2181	2167	2167	2167	2153	2140	2127	2114	2114	0	0	0	0	0	0	0	0	0	0	0	0	0	0	0	0	0	0	0	0	0	0	0	0	0	0	0	0	0	0	0	0	0	0	0	0	0
0	0	0	0	0	0	0	0	0	1291	1291	1291	1296	1301	1306	1306	1311	1311	1316	1316	1321	1321	1321	1321	0	0	0	0	0	0	0	0	0	0	0	0	0	0	0	0	0	0	0	0	0	0	0	0	0	0	0	0	0	0	0	0	1368	1368	1368	1379	1385	1390	1425	1425	1431	1437	1437	1437	1431	1431	1431	1431	1431	1431	1431	1431	1431	0	0	0	0	0	0	0	0	0	0	0	0	0	1512	1525	1519	1525	1525	1525	1532	1532	1539	1553	1560	1560	1560	1560	1560	1567	1567	0	1603	1603	1596	1596	1596	1596	1641	1641	1649	1649	1649	1649	0	0	0	0	0	0	0	0	0	0	0	0	0	0	0	0	0	0	0	0	0	0	0	0	0	0	0	0	0	0	0	0	0	0	0	0	0	0	0	0	0	0	0	0	6720	6720	6592	6592	6592	6592	6592	6720	6592	6592	6592	6592	6592	6592	6592	6592	6592	6592	6592	6592	6592	6592	6592	6592	6592	6592	6592	6592	6592	6592	6592	6592	6592	6592	6592	6592	6592	6592	6592	6592	6592	6592	6592	6592	6592	6592	6592	6592	6592	6592	6592	6592	6592	6592	6592	6592	6592	6592	6592	6592	6592	6592	6592	6592	6592	6592	6592	6592	6592	6592	6592	6592	6592	6592	6592	6592	6592	6468	6468	6468	6468	6592	6592	6592	6592	6592	6592	6592	6592	6468	6592	6592	6468	6592	6592	6592	6592	6592	6592	6592	6592	6592	6592	6592	6592	6592	6592	6592	6592	6592	6592	6592	6592	6592	6592	6592	6592	6592	6592	6720	6592	6592	6592	6592	6592	6592	6592	6592	6468	6592	3998	4045	4045	4045	4045	4045	4045	4045	4045	4045	4045	4045	3998	3998	3998	3952	3952	3952	3907	3907	3952	3952	3952	3952	3952	3952	3952	3952	3952	3952	3952	3952	3952	3952	3952	3952	3952	3952	3952	3952	3952	3952	3952	3998	3952	3998	3998	3998	4045	4045	4093	4093	4093	4093	4093	4093	4093	4093	4093	4093	4093	0	0	0	0	0	0	0	0	0	0	0	0	0	0	0	0	0	0	0	0	0	6720	6720	6720	6720	6592	6592	6592	6592	6592	6592	6592	6592	6720	6720	6720	6720	6720	6720	6720	6592	6592	6592	6592	6592	6468	6468	6468	6468	0	0	0	0	0	0	0	0	0	0	0	0	0	0	0	0	0	0	0	0	0	0	0	0	0	0	0	0	0	0	0	4771	4771	4706	4771	4706	4706	4771	4706	4771	4771	4771	4771	4771	4838	4838	4838	8146	8146	8146	8146	8146	8146	8146	8146	8146	8146	8146	8146	8343	8146	8146	8146	8146	0	0	0	6468	6468	6349	6468	6592	6592	6592	6592	6592	6592	6592	6592	6592	6468	6468	6468	5915	5815	5626	5626	5626	5626	5626	5626	0	0	0	0	0	0	0	0	0	0	0	0	0	2312	2312	2312	2312	2297	2297	0	0	0	0	0	0	0	0	2252	2237	2237	2223	2223	2208	2208	2208	2208	2194	2194	2194	2194	2194	2194	2181	2181	2181	2181	2181	2181	2181	2167	2194	2194	0	4838	4771	4771	4643	4581	4581	4581	4521	4521	4521	4521	4521	4463	4406	4406	4406	4350	4350	4350	4296	4243	4243	4243	4243	4192	4192	0	0	0	0	0	0	0	0	0	2237	2223	2237	2223	2223	2208	2194	2181	2181	2181	2181	2181	2167	2167	2167	2153	2140	2127	2114	2114	0	0	0	0	0	0	0	0	0	0	0	0	0	0	0	0	0	0	0	0	0	0	0	0	0	0	0	0	0	0	0	0	0	0	0	0	0
0	0	0	0	0	0	0	0	0	1291	1291	1291	1296	1301	1306	1306	1306	1311	1316	1321	1321	1326	1326	1326	0	0	0	0	0	0	0	0	0	0	0	0	0	0	0	0	0	0	0	0	0	0	0	0	0	0	0	0	0	0	0	0	0	1363	1368	1374	1385	1390	1402	1419	1413	1425	1431	1437	1431	1431	1431	1431	1431	1425	1431	1425	1425	0	0	0	0	0	0	0	0	0	0	0	0	0	1506	1519	1512	1519	1525	1525	1525	1532	1539	1546	1553	1553	1560	1560	1560	1567	1567	0	0	0	1596	1596	1596	1596	1641	1641	0	0	0	0	0	0	0	0	0	0	0	0	0	0	0	0	0	0	0	0	0	0	0	0	0	0	0	0	0	0	0	0	0	0	0	0	0	0	0	0	0	0	0	0	0	0	0	0	6720	6720	6720	6592	6720	6592	6592	6720	6592	6592	6592	6592	6592	6592	6592	6592	6592	6592	6592	6592	6592	6592	6592	6592	6592	6592	6592	6592	6592	6592	6592	6592	6592	6468	6592	6592	6592	6592	6592	6592	6592	6592	6592	6592	6592	6592	6592	6592	6592	6592	6592	6592	6592	6592	6592	6592	6592	6592	6592	6592	6592	6592	6592	6592	6592	6592	6592	6592	6592	6592	6592	6592	6592	6592	6592	6592	6468	6468	6468	6468	6468	6592	6592	6592	6592	6592	6592	6592	6468	6468	6468	6468	6468	6592	6592	6592	6592	6592	6592	6592	6592	6592	6592	6592	6468	6592	6592	6592	6592	6592	6592	6592	6592	6592	6592	6592	6592	6592	6592	6592	6592	6592	6592	6592	6592	6592	6592	6592	6592	6592	3998	4045	4045	4045	4045	4045	4045	4045	4045	4045	4045	4045	3998	3998	3952	3952	3952	3952	3907	3907	3907	3952	3952	3952	3952	3952	3952	3952	3952	3952	3952	3952	3952	3952	3952	3952	3952	3952	3952	3952	3952	3952	3998	3998	3998	3998	3998	3998	4045	4093	4093	4093	4093	4093	4093	4093	4093	4093	4093	4093	4093	4093	0	0	0	0	0	0	0	0	0	0	0	0	0	0	0	0	0	0	0	0	6720	6720	6720	6720	6592	6592	6592	6592	6592	6592	6592	6592	6592	6720	6720	6720	6720	6720	6720	6592	6592	6592	6592	6592	6468	6468	6468	6468	0	0	0	0	0	0	0	0	0	0	0	0	0	0	0	0	0	0	0	0	0	0	0	0	0	0	0	0	0	0	0	4706	4706	4643	4706	4706	4706	4771	4771	4771	4771	4771	4838	4838	4838	4906	4906	8343	8146	8146	8146	8146	8146	8146	8146	8146	8146	8146	8343	8343	8146	8146	8146	8146	8146	0	0	6468	6468	6349	6468	6592	6592	6592	6592	6592	6592	6592	6592	6592	6592	6592	6592	0	5815	5626	5626	5626	5626	5626	5626	0	0	0	0	0	0	0	0	0	0	0	0	0	2312	2312	2327	2327	2327	2327	2327	0	0	0	0	0	0	0	2252	2252	2237	2223	2223	2208	2208	2208	2194	2194	2181	2194	2194	2208	2194	2181	2181	2181	2181	2181	2181	2181	2181	2194	2194	2194	0	4771	4771	4771	4643	4643	4581	4581	4581	4521	4521	4521	4521	4406	4406	4350	4350	4350	4296	4296	4296	4243	4243	4243	4192	4142	4093	4093	0	0	0	0	0	0	0	2237	2223	2223	2223	2223	2208	2194	2181	2181	2181	2181	2167	2167	2167	2153	2153	2140	2127	2114	2114	0	0	0	0	0	0	0	0	0	0	0	0	0	0	0	0	0	0	0	0	0	0	0	0	0	0	0	0	0	0	0	0	0	0	0	0	0
0	0	0	0	0	0	0	0	0	1291	1291	1291	1296	1301	1301	1301	1306	1311	1311	1316	1321	1321	1326	1326	0	0	0	0	0	0	0	0	0	0	0	0	0	0	0	0	0	0	0	0	0	0	0	0	0	0	0	0	0	0	0	0	0	1363	1363	1368	1379	1385	1385	1419	1437	1425	1431	1437	1431	1431	1419	1431	1425	1419	1425	1425	1425	0	0	0	0	0	0	0	0	0	0	1467	1480	1467	1499	1506	1506	1506	1512	1512	1512	1525	1532	1539	1553	1553	1553	1560	1553	1553	1567	0	0	0	0	0	1603	1603	1603	0	0	0	0	0	0	0	0	0	0	0	0	0	0	0	0	0	0	0	0	0	0	0	0	0	0	0	0	0	0	0	0	0	0	0	0	0	0	0	0	0	0	0	0	0	0	0	0	0	6720	6853	6720	6720	6720	6720	6592	6592	6592	6592	6592	6592	6592	6592	6592	6592	6720	6592	6592	6592	6592	6592	6592	6592	6592	6592	6592	6592	6592	6592	6468	6468	6592	6468	6592	6592	6592	6592	6592	6592	6592	6592	6592	6592	6592	6592	6592	6592	6592	6592	6592	6592	6592	6592	6592	6592	6592	6592	6592	6592	6592	6592	6592	6592	6720	6720	6592	6592	6592	6592	6592	6592	6592	6592	6592	6592	6468	6468	6468	6468	6468	6468	6592	6592	6592	6592	6592	6592	6468	6468	6468	6468	6468	6468	6592	6592	6592	6592	6592	6592	6592	6592	6592	6592	6468	6592	6592	6592	6592	6592	6592	6592	6592	6592	6468	6592	6592	6592	6592	6592	6592	6592	6592	6592	6592	6592	6592	6592	6592	4045	4045	4045	4045	4045	4045	4045	4045	4045	4045	4045	4045	3998	3998	3998	3952	3952	3952	3952	3907	3907	3952	3952	3952	3952	3952	3952	3952	3952	3952	3952	3952	3952	3952	3952	3952	3952	3952	3952	3952	3952	3952	3952	3952	3998	3998	3998	4045	4045	4045	4093	4093	4093	4093	4093	4093	4093	4093	4093	4093	4093	4093	4093	0	0	0	0	0	0	0	0	0	0	0	0	0	0	0	0	0	0	0	6853	6720	6720	6720	6720	6592	6592	6592	6592	6592	6592	6592	6592	6592	6720	6720	6720	6720	6720	6720	6720	6592	6592	6720	6592	6592	6592	6592	0	0	0	0	0	0	0	0	0	0	0	0	0	0	0	0	0	0	0	0	0	0	0	0	0	0	0	0	0	0	0	0	4771	4771	4771	4706	4771	4771	4771	4771	4771	4771	4838	4838	4838	4838	4906	4906	8343	8146	8146	8146	8146	8343	8146	8146	8343	8343	8146	8343	8343	8343	8343	8343	8146	8146	0	0	6468	6468	6468	6468	6592	6592	6592	6592	6592	6592	6592	6592	6592	6592	6592	6592	0	0	5626	5626	5626	5719	5719	0	0	0	0	0	0	0	0	0	0	0	0	0	0	2327	2327	2327	2327	2327	2312	2312	0	0	0	0	0	0	0	2252	2237	2223	2223	2223	2208	2208	2208	2194	2194	2194	2208	2208	2208	2194	2194	2181	2181	2181	2181	2181	2181	2167	2181	2181	2181	0	0	4771	4771	4706	4643	4581	4581	4521	4521	4463	4521	4463	4406	4350	4350	4350	4350	4296	4296	4243	4243	4142	4142	4093	4045	4045	4045	0	0	0	0	0	0	0	2237	2223	2237	2237	2223	2223	2194	2181	2181	2181	2181	2167	2167	2167	2153	2153	2140	2127	2114	2114	0	0	0	0	0	0	0	0	0	0	0	0	0	0	0	0	0	0	0	0	0	0	0	0	0	0	0	0	0	0	0	0	0	0	0	0	0
0	0	0	0	0	0	0	0	0	1296	1296	1296	1296	1301	1301	1301	1306	1306	1306	1316	1316	1321	1321	1321	0	0	0	0	0	0	0	0	0	0	0	0	0	0	0	0	0	0	0	0	0	0	0	0	0	0	0	0	0	0	0	0	0	0	1363	1368	1374	1379	1379	0	1437	1425	1425	1425	1425	1425	1413	1413	1413	1413	1413	1425	0	0	0	0	0	0	0	0	0	0	0	1461	1461	1467	1467	1486	1499	1506	1512	1512	1525	1525	1532	1546	1553	1553	1560	1560	1553	1553	0	0	0	0	0	1611	1603	1603	1603	0	0	0	0	0	0	0	0	0	0	0	0	0	0	0	0	0	0	0	0	0	0	0	0	0	0	0	0	0	0	0	0	0	0	0	0	0	0	0	0	0	0	0	0	0	0	0	0	0	6853	6720	6720	6592	6720	6720	6592	6720	6592	6592	6720	6720	6592	6592	6592	6592	6592	6592	6592	6592	6592	6592	6592	6592	6592	6592	6592	6592	6592	6592	6592	6592	6592	6592	6592	6592	6592	6592	6592	6592	6592	6592	6592	6592	6592	6592	6592	6592	6592	6592	6592	6592	6592	6592	6592	6592	6592	6592	6592	6592	6592	6592	6592	6592	6592	6592	6592	6592	6592	6592	6592	6592	6592	6592	6592	6592	6468	6468	6468	6592	6592	6592	6592	6592	6592	6592	6592	6592	6468	6468	6468	6468	6468	6468	6468	6592	6592	6592	6592	6592	6592	6592	6592	6468	6468	6468	6592	6592	6468	6592	6592	6592	6592	6592	6592	6592	6592	6592	6592	6592	6592	6592	6592	6592	6592	6592	6592	6592	6592	4045	4045	4045	4045	4045	4045	4045	4045	4045	4045	4045	4045	3998	3998	3998	3952	3952	3952	3952	3907	3907	3952	3952	3952	3952	3952	3952	3952	3952	3952	3952	3952	3952	3952	3952	3952	3952	3952	3952	3952	3952	3952	3952	3952	3998	3998	3998	4045	4045	4045	4093	4093	4093	4093	4093	4093	4093	4093	4093	4093	4093	4093	4093	0	0	0	0	0	0	0	0	0	0	0	0	0	0	0	0	0	0	0	6720	6720	6720	6720	6592	6592	6592	6592	6592	6592	6592	6592	6592	6592	6720	6720	6720	6720	6720	6720	6720	6720	6592	6720	6720	6592	6592	6592	0	0	0	0	0	0	0	0	0	0	0	0	0	0	0	0	0	0	0	0	0	0	0	0	0	0	0	0	0	0	0	4771	4771	4771	4771	4771	4771	4771	4771	4771	4771	4838	4838	4838	4838	4838	4838	4838	4906	4838	4838	8146	8146	8146	8146	8343	8343	8343	8343	8343	8550	8343	8550	8550	8343	8343	8343	0	6592	6468	6468	6468	6592	6592	6592	6592	6592	6592	6592	6592	6592	6592	6592	6592	0	0	0	0	5626	5719	5719	0	0	0	0	0	0	0	0	0	0	0	0	0	0	2343	2327	2327	2327	2327	2312	2312	2312	0	0	0	0	0	0	2252	2223	2223	2208	2208	2208	2194	2194	2181	2194	2194	2194	2194	2208	2194	2194	2181	2181	2181	2181	2181	2181	2167	2167	2167	2167	0	0	4838	4838	4771	4643	4643	4581	4521	4521	4463	4463	4463	4406	4350	4350	4350	4350	4296	4296	4243	4192	4093	4093	4045	4045	4045	4045	4045	3998	4045	3998	4045	4045	2237	2237	2223	2237	2237	2223	2223	2194	2181	2181	2181	2181	2167	2167	2167	2153	2153	2140	2127	2127	2127	0	0	0	0	0	0	0	0	0	0	0	0	0	0	0	0	0	0	0	0	0	0	0	0	0	0	0	0	0	0	0	0	0	0	0	0	0
0	0	0	0	0	0	0	0	0	1296	1296	1296	1301	1301	1301	1306	1306	1306	1311	1316	1316	1316	1321	1321	0	0	0	0	0	0	0	0	0	0	0	0	0	0	0	0	0	0	0	0	0	0	0	0	0	0	0	0	0	0	0	0	0	0	1363	1368	1385	1385	1379	0	0	0	1425	1431	1431	1413	1413	1402	1407	1402	1402	0	0	0	0	0	0	0	0	0	0	0	0	1455	1467	1467	1467	1486	1492	1499	1506	1506	1519	1519	1532	1546	1553	1560	1560	1560	1553	1553	0	0	0	0	0	1611	1611	1611	1611	0	0	0	0	0	0	0	0	0	0	0	0	0	0	0	0	0	0	0	0	0	0	0	0	0	0	0	0	0	0	0	0	0	0	0	0	0	0	0	0	0	0	0	0	0	0	0	0	0	6853	6720	6720	6720	6720	6720	6720	6720	6592	6592	6592	6720	6592	6592	6720	6720	6720	6720	6592	6592	6592	6592	6592	6592	6592	6592	6592	6720	6720	6592	6592	6592	6592	6592	6720	6592	6592	6592	6592	6592	6592	6592	6592	6592	6592	6592	6592	6592	6592	6592	6592	6592	6592	6592	6592	6592	6592	6592	6592	6592	6592	6592	6592	6592	6592	6592	6592	6592	6592	6592	6592	6592	6592	6592	6592	6592	6592	6468	6592	6592	6592	6592	6592	6592	6592	6592	6592	6468	6468	6468	6468	6468	6468	6468	6468	6592	6592	6592	6592	6592	6592	6592	6592	6468	6468	6468	6592	6592	6468	6592	6592	6592	6592	6592	6592	6592	6592	6592	6592	6592	6592	6592	6592	6592	6592	6592	6592	6592	6592	4045	4045	4045	4045	4045	4045	4045	4045	4045	4045	4045	4045	3998	3998	3998	3952	3952	3952	3952	3907	3907	3952	3952	3952	3952	3952	3952	3952	3952	3952	3952	3952	3952	3952	3952	3952	3952	3952	3952	3952	3952	3952	3952	3952	3998	3998	3998	4045	4045	4045	4093	4093	4093	4093	4093	4142	4093	4093	4093	4093	4093	4093	4093	0	0	0	0	0	0	0	0	0	0	0	0	0	0	0	0	0	0	0	6853	6720	6720	6720	6720	6592	6592	6592	6592	6592	6592	6592	6592	6592	6720	6720	6720	6720	6720	6720	6720	6720	6720	6720	6720	6592	6592	0	0	0	0	0	0	0	0	0	0	0	0	0	0	0	0	0	0	0	0	0	0	0	0	0	0	0	0	0	0	0	0	4838	4838	4838	4771	4771	4771	4771	4771	4771	4838	4838	4838	4838	4838	4838	4838	4906	4838	4838	4906	4906	7959	8146	8146	8343	8343	8343	8343	8550	8550	8550	8550	8550	8550	8550	8343	0	6468	6468	6468	6468	6592	6592	6592	6592	6592	6592	6592	6592	6468	6468	6592	0	0	0	0	0	0	0	0	0	0	0	0	0	0	0	0	0	0	0	0	0	0	2343	2327	2327	2327	2327	2312	2312	2312	0	0	0	0	0	0	2223	2223	2223	2208	2223	2223	2181	2181	2181	2194	2194	2194	2194	2208	2194	2208	2194	2194	2181	2181	2181	2181	2167	2181	2167	2167	0	0	4771	4771	4771	4643	4581	4581	4521	4521	4463	4463	4463	4350	4350	4350	4350	4350	4296	4243	4243	4142	4045	4045	3998	3998	3998	3998	3998	3998	3998	3998	3998	4045	2237	2237	2223	2237	2237	2223	2223	2208	2194	2181	2181	2181	2181	2167	2167	2153	2153	2153	2153	2153	2153	0	0	0	0	0	0	0	0	0	0	0	0	0	0	0	0	0	0	0	0	0	0	0	0	0	0	0	0	0	0	0	0	0	0	0	0	0
0	0	0	0	0	0	0	0	0	1296	1296	1296	1301	1301	1301	1301	1306	1306	1306	1311	1316	1316	1316	1321	0	0	0	0	0	0	0	0	0	0	0	0	0	0	0	0	0	0	0	0	0	0	0	0	0	0	0	0	0	0	0	0	0	0	0	0	1385	1385	0	0	0	0	1425	1431	1431	1431	1413	1390	1390	1402	1402	0	0	0	0	0	0	0	0	0	0	0	1455	1455	1455	1461	1467	1480	1486	1499	1499	1499	1512	1512	1532	1539	1553	1553	1560	1560	1553	1546	1546	0	0	0	0	1618	1618	1618	1618	0	0	0	0	0	0	0	0	0	0	0	0	0	0	0	0	0	0	0	0	0	0	0	0	0	0	0	0	0	0	0	0	0	0	0	0	0	0	0	0	0	0	0	0	0	0	0	0	6992	6992	6853	6853	6720	6720	6720	6720	6720	6592	6592	6592	6720	6720	6720	6720	6720	6720	6720	6720	6592	6592	6592	6592	6592	6592	6592	6592	6720	6720	6592	6592	6592	6592	6592	6720	6592	6592	6720	6592	6592	6592	6592	6592	6592	6592	6592	6592	6592	6592	6592	6592	6592	6592	6592	6592	6592	6592	6592	6592	6592	6592	6592	6592	6592	6592	6592	6592	6592	6592	6592	6592	6592	6592	6592	6592	6592	6592	6592	6592	6592	6592	6592	6592	6592	6592	6592	6592	6592	6592	6468	6468	6468	6468	6468	6468	6468	6468	6592	6592	6592	6592	6592	6592	6468	6468	6468	6592	6592	6592	6592	6592	6592	6592	6592	6592	6592	6592	6592	6592	6592	6592	6592	6592	6592	6592	6592	6592	6592	6592	4045	4045	4045	4045	4045	4045	4045	4045	4045	4045	4045	4045	4045	3998	3998	3952	3952	3952	3952	3952	3907	3952	3998	3952	3952	3952	3952	3952	3952	3952	3952	3952	3952	3952	3952	3952	3952	3952	3952	3952	3952	3952	3952	3952	3998	3998	3998	3998	3998	4045	4045	4093	4093	4093	4093	4142	4093	4093	4093	4093	4093	4093	4093	0	0	0	0	0	0	0	0	0	0	0	0	0	0	0	0	0	0	0	6853	6853	6720	6720	6720	6592	6592	6592	6592	6592	6592	6592	6592	6592	6720	6720	6720	6720	6720	6720	6720	6720	6720	6720	6720	6592	6592	0	0	0	0	0	0	0	0	0	0	0	0	0	0	0	0	0	0	0	0	0	0	0	0	0	0	0	0	0	0	4838	4838	4838	4838	4838	4771	4771	4771	4771	4838	4838	4838	4838	4838	4838	4838	4838	4838	4906	4838	4838	4838	4838	4838	4838	8343	8343	8550	8550	8550	8550	8550	8550	8550	8550	8550	8550	8550	0	6468	6235	6349	6349	6468	6468	6468	6468	6468	6468	6468	6468	6468	6468	0	0	0	0	0	0	0	0	0	0	0	0	0	0	0	0	0	0	0	0	0	2343	2343	2327	2312	2312	2312	2297	2281	2281	0	0	0	0	2223	2223	2223	2223	2223	2223	2208	2208	2208	2181	2181	2181	2194	2167	2208	2208	2208	2208	2208	2208	2194	2181	2181	2181	2181	2167	2181	2167	2167	2167	0	4771	4771	4706	4643	4581	4581	4521	4521	4463	4463	4463	4350	4350	4350	4296	4296	4243	3952	3952	3998	3998	3998	3998	3998	3998	3998	4045	3998	3998	3952	3998	3998	3998	2237	2237	2237	2237	2223	2223	2208	2181	2181	2181	2181	2167	2167	2167	2153	2167	2153	2153	2153	2153	0	0	0	0	0	0	0	0	0	0	0	0	0	0	0	0	0	0	0	0	0	0	0	0	0	0	0	0	0	0	0	0	0	0	0	0	0
0	0	0	0	0	0	0	0	0	1291	1296	1296	1296	1296	1301	1301	1306	1306	1306	1311	1316	1316	1316	0	0	0	0	0	0	0	0	0	0	0	0	0	0	0	0	0	0	0	0	0	0	0	0	0	0	0	0	0	0	0	0	0	0	0	0	0	0	0	0	0	0	0	0	1431	1431	1431	1413	1385	1385	0	0	0	0	0	0	0	0	0	0	0	0	1455	1455	1449	1455	1467	1473	1480	1486	1492	1492	1492	1499	1506	1519	1539	1546	1553	1553	1553	1553	1546	1546	0	0	0	0	1618	1618	1618	1618	1618	0	0	0	0	0	0	0	0	0	0	0	0	0	0	0	0	0	0	0	0	0	0	0	0	0	0	0	0	0	0	0	0	0	0	0	0	0	0	0	0	0	0	0	0	0	0	0	6992	6992	6853	6853	6853	6853	6720	6720	6720	6592	6592	6592	6592	6592	6592	6720	6720	6720	6592	6592	6592	6592	6592	6592	6592	6592	6592	6592	6720	6720	6592	2869	2869	2845	2845	2845	6592	6592	6720	6720	6720	6592	6592	6592	6592	6592	6592	6592	6592	6592	6592	6592	6592	6592	6592	6592	6592	6592	6592	6592	6592	6592	6592	6592	6592	6592	6592	6592	6592	6592	6592	6592	6592	6592	6592	6592	6592	6592	6592	6592	6592	6592	6592	6592	6592	6592	6592	6592	6592	6592	6592	6468	6468	6468	6468	6468	6468	6468	6468	6468	6592	6592	6592	6592	6468	6468	6468	6468	6592	6468	6468	6592	6592	6592	6592	6592	6592	6592	6592	6592	6592	6592	6592	6592	6592	6592	6592	6592	6592	6592	4045	4093	4045	4045	4045	4045	4045	4045	4045	4045	4045	4045	3998	3998	3998	3952	3952	3952	3907	3907	3907	3952	3998	3952	3952	3952	3952	3952	3952	3952	3952	3952	3952	3952	3952	3952	3952	3952	3952	3952	3952	3952	3952	3952	3998	3998	3998	4045	3998	4045	4045	4045	4045	4093	4093	4093	4093	4093	4093	4093	4093	4093	4093	0	0	0	0	0	0	0	0	0	0	0	0	0	0	0	0	0	0	0	6992	6853	6720	6720	6720	6592	6592	6592	6592	6592	6592	6592	6592	6592	6720	6720	6720	6720	6592	6592	6720	6720	6592	6592	6720	6468	6349	6349	0	0	0	0	0	0	0	0	0	0	0	0	0	0	0	0	0	0	0	0	0	0	0	0	0	0	0	0	4906	4906	4906	4838	4838	4838	4838	4838	4771	4771	4838	4838	4838	4838	4838	4838	4838	4838	4838	4838	4838	4838	4838	4838	4838	4838	4838	4838	8550	8550	8550	8550	8550	8550	8550	8550	8550	8550	8550	0	6235	6235	6349	6349	6468	6468	6468	6468	6468	6468	6468	6468	6468	0	0	0	0	0	0	0	0	0	0	0	0	0	0	0	0	0	0	0	0	0	2359	2359	2343	2327	2312	2312	2297	2297	2281	2281	0	0	0	0	2223	2223	2223	2223	2223	2223	2208	2194	2194	0	0	0	0	2167	2167	2194	2194	2194	2194	2194	2194	2181	2181	2181	2181	2181	2181	2167	2167	2167	0	0	4706	4706	4643	4581	4581	4521	4521	4463	4463	4296	4296	4296	4296	4243	4243	3952	3952	3952	3998	3952	3952	3952	3952	3998	3998	4045	3998	3998	3952	3998	3998	3998	2223	2223	2223	2223	2223	2223	2208	2194	2194	2181	2181	2181	2181	2167	2167	2167	2167	2153	2167	2167	0	0	0	0	0	0	0	0	0	0	0	0	0	0	0	0	0	0	0	0	0	0	0	0	0	0	0	0	0	0	0	0	0	0	0	0	0
0	0	0	0	0	0	0	0	0	1291	1291	1291	1296	1296	1301	1301	1306	1306	1306	1316	1321	1321	1316	0	0	0	0	0	0	0	0	0	0	0	0	0	0	0	0	0	0	0	0	0	0	0	0	0	0	0	0	0	0	0	0	0	0	0	0	0	0	0	0	0	0	0	0	0	0	0	0	1385	1385	0	0	0	0	0	0	0	0	0	0	0	1455	1449	1449	1449	1455	1461	1473	1480	1486	1486	1492	1492	1492	1506	1512	1525	1539	1553	1553	1553	1553	1546	1546	1546	1567	1567	0	1618	1618	1618	1618	1618	0	0	0	0	0	0	0	0	0	0	0	0	0	0	0	0	0	0	0	0	0	0	0	0	0	0	0	0	0	0	0	0	0	0	0	0	0	0	0	0	0	0	0	0	0	0	0	7137	6992	6992	6853	6853	6853	6720	6720	6720	6592	6592	6592	6592	6592	6592	6720	6592	6720	6592	6592	6592	6592	6592	6592	6592	6592	6592	0	0	0	0	2869	2869	2845	2845	2845	2845	0	6720	6720	6720	6720	6592	6592	6592	6592	6592	6592	6592	6592	6592	6592	6592	6592	6592	6592	6592	6592	6592	6592	6592	6592	6592	6592	6592	6592	6592	6592	6592	6592	6592	6592	6592	6592	6592	6592	6592	6592	6592	6592	6592	6592	6592	6592	6592	6592	6592	6592	6592	6592	6592	6468	6468	6468	6468	6468	6468	6468	6468	6468	6592	6592	6468	6592	6468	6468	6468	6468	6468	6468	6468	6592	6592	6592	6592	6592	6592	6592	6592	6592	6592	6592	6592	6592	6468	6468	6468	6592	6592	4093	4093	4093	4093	4045	4045	4045	4045	4045	4045	4045	4045	4045	4045	3998	3998	3952	3952	3952	3952	3907	3907	3952	3998	3952	3952	3952	3952	3952	3952	3998	3998	3998	3952	3998	3952	3952	3952	3952	3952	3952	3952	3952	3952	3952	3998	3998	3998	3998	3998	4045	4045	4045	4093	4093	4093	4093	4093	4093	4093	4093	4093	4093	4093	4093	0	0	0	0	0	0	0	0	0	0	0	0	0	0	0	0	0	0	6853	6720	6720	6720	6720	6592	6592	6592	6592	6592	6720	6720	6720	6720	6592	6720	6592	6592	6592	6592	6592	6720	6592	6592	6720	6592	6468	6468	0	0	0	0	0	0	0	0	0	0	0	0	0	0	0	0	0	0	0	0	0	0	0	0	0	0	4906	4906	4906	4906	4906	4838	4838	4838	4838	4838	4838	4838	4838	4838	4838	4838	4838	4838	4838	4838	4838	4838	4838	4838	4838	4838	4838	4838	4771	4771	8767	8767	8550	8550	8550	8550	8550	8550	8343	8343	8343	0	6235	6235	6349	6349	6468	6468	6349	6349	6349	6349	6349	6349	6468	0	0	0	0	0	0	0	0	0	0	0	0	0	0	0	0	0	0	0	0	0	2359	2359	2343	2343	2312	2312	2297	2281	2281	2266	2266	2266	2266	2266	2266	2223	2223	2223	2223	2223	2208	2208	2194	0	0	0	0	2181	2181	2194	2194	2194	2194	2194	2194	2181	2181	2181	2181	2181	2181	2167	2167	2167	2167	2167	4706	4706	4581	4581	4521	4521	4463	4350	4463	4296	4243	4296	4243	4142	3952	3952	3952	3952	3952	3952	3952	3952	3952	3998	3998	3998	3998	3998	3952	3998	2237	2237	2237	2237	2237	2237	2237	2223	2223	2194	2194	2194	2194	2194	2181	2181	2181	2181	2167	2167	2167	2167	0	0	0	0	0	0	0	0	0	0	0	0	0	0	0	0	0	0	0	0	0	0	0	0	0	0	0	0	0	0	0	0	0	0	0	0	0
0	0	0	0	0	0	0	0	0	1287	1287	1291	1296	1296	1296	1301	1306	1306	1306	1311	1311	1321	0	0	0	0	0	0	0	0	0	0	0	0	0	0	0	0	0	0	0	0	0	0	0	0	0	0	0	0	0	0	0	0	0	0	0	0	0	0	0	0	0	0	0	0	0	0	0	0	0	1385	1385	0	0	0	0	0	0	0	0	0	0	1449	1449	1449	1449	1443	1455	1461	1473	1486	1480	1486	1492	1492	1499	1506	1512	1525	1539	1560	1553	1567	1560	1546	1553	1560	1567	1574	1574	0	1611	1611	1611	1618	0	0	0	0	0	0	0	0	0	0	0	0	0	0	0	0	0	0	0	0	0	0	0	0	0	0	0	0	0	0	0	0	0	0	0	0	0	0	0	0	0	0	0	0	0	0	0	7137	6992	6992	6853	6853	6720	6720	6720	6720	6592	6592	6592	6592	6592	6592	6592	6592	6592	6592	6592	6592	6592	6468	6468	6468	6468	6468	0	0	0	0	2845	2845	2845	2845	2845	2845	0	0	6720	6720	6720	6592	6592	6592	6592	6592	6592	6592	6592	6592	6592	6592	6592	6592	6592	6592	6592	6592	6592	6592	6592	6592	6592	6592	6592	6592	6592	6592	6592	6592	6592	6592	6592	6592	6592	6592	6592	6592	6592	6592	6592	6592	6592	6592	6592	6592	6592	6592	6592	6592	6468	6468	6468	6468	6468	6468	6468	6468	6468	6592	6592	6592	6592	6592	6468	6468	6592	6468	6468	6468	6592	6592	6592	6592	6592	6592	6592	6592	6592	6468	6468	6468	6592	6468	6468	6592	6468	6592	6592	4093	4093	4045	4045	4045	4045	4045	4045	4045	3998	4045	4045	4045	3998	3998	3952	3952	3952	3952	3907	3907	3952	3952	3952	3952	3952	3952	3952	3952	3998	3998	3998	3952	3998	3998	3952	3952	3952	3952	3952	3952	3952	3952	3952	3952	3998	3998	3998	3998	3998	4045	4045	4093	4093	4093	4093	4093	4093	4093	4093	4093	4093	4093	4093	0	0	0	0	0	0	0	0	0	0	0	0	0	0	0	0	0	0	6720	6720	6720	6720	6592	6592	6592	6720	6592	6720	6720	6720	6720	6720	6592	6592	6592	6592	6592	6592	6592	6592	6592	6592	6592	6592	6468	6468	0	0	0	0	0	0	0	0	0	0	0	0	0	0	0	0	0	0	0	0	0	0	0	0	0	4906	4906	4906	4906	4906	4906	4838	4838	4838	4838	4838	4838	4838	4838	4838	4838	4838	4838	4838	4838	4838	4838	4838	4771	4838	4838	4838	4838	4838	4838	4838	4838	4771	4706	4706	8550	8550	8550	8343	8343	8343	8343	0	6235	6235	6349	6349	6468	6349	6349	6349	6349	6349	6235	6235	0	0	0	0	0	0	0	0	0	0	0	0	0	0	0	0	0	0	0	0	0	0	2376	2359	2343	2343	2327	2312	2297	2281	2281	2266	2266	2266	2266	2252	2252	2208	2208	2223	2208	2208	2208	2208	0	0	0	0	2194	2181	2194	2194	2194	2194	2194	2194	2194	2194	2194	2194	2194	2181	2194	2181	2167	2167	2167	2181	2167	2167	4581	4581	4463	4463	4463	4406	4406	4406	4296	4296	4296	4243	4093	3998	3952	3952	3952	3952	3952	3907	3952	3952	3952	3952	3998	3952	3952	2266	2237	2237	2237	2237	2237	2237	2223	2223	2223	2223	2208	2208	2208	2208	2208	2194	2194	2194	2181	2181	2181	2181	0	0	0	0	0	0	0	0	0	0	0	0	0	0	0	0	0	0	0	0	0	0	0	0	0	0	0	0	0	0	0	0	0	0	0	0	0
0	0	0	0	0	0	0	0	0	1287	1287	1291	1291	1296	1296	1301	1306	1301	1306	1306	1306	0	0	0	0	0	0	0	0	0	0	0	0	0	0	0	0	0	0	0	0	0	0	0	0	0	0	0	0	0	0	0	0	1363	1363	1363	0	0	0	0	0	0	0	0	0	0	0	0	0	0	0	1385	1385	0	0	0	0	0	0	0	0	0	1443	1443	1449	1449	1443	1443	1449	1467	1473	1480	1480	1486	1492	1492	1499	1506	1519	1532	1539	1539	1546	1567	1560	1546	1553	1560	1567	1574	1581	1581	1603	1596	1596	0	0	0	0	0	0	0	0	0	0	0	0	0	0	0	0	0	0	0	0	0	0	0	0	0	0	0	0	0	0	0	0	0	0	0	0	0	0	0	0	0	0	0	0	0	0	0	0	7137	6992	6992	6853	6720	6720	6720	6720	6720	6592	6592	6592	6592	6592	6592	6592	6592	6592	6592	6592	6592	6592	6468	6468	6468	6468	6468	0	0	0	0	2845	2845	2845	2845	2845	2845	0	0	6992	6720	6720	6592	6592	6592	6592	6592	6592	6592	6592	6592	6592	6592	6592	6592	6592	6592	6592	6592	6592	6592	6592	6592	6592	6592	6592	6592	6592	6592	6468	6592	6592	6592	6592	6592	6592	6592	6592	6592	6592	6592	6592	6592	6592	6592	6592	6592	6592	6468	6592	6592	6468	6468	6468	6468	6468	6468	6468	6468	6468	6592	6592	6592	6592	6592	6592	6468	6592	6592	6468	6468	6592	6592	6592	6592	6592	6592	6592	6592	6592	6468	6468	6468	6468	6468	6468	6592	6468	6592	6592	4093	4045	4045	4045	3998	3998	3998	4045	3998	3998	3998	4045	4045	3998	3998	3952	3952	3952	3952	3907	3907	3952	3952	3952	3952	3952	3952	3952	3952	3952	3998	3998	3952	3998	3998	3952	3952	3952	3952	3952	3952	3952	3952	3952	3998	3998	3952	3952	3998	3998	4045	4045	4045	4093	4093	4093	4093	4093	4093	4093	4093	4093	4093	4093	0	0	0	0	0	0	0	0	0	0	0	0	0	0	0	0	0	0	6720	6720	6720	6592	6592	6592	6592	6720	6592	6592	6720	6720	6720	6720	6720	6720	6592	6592	6592	6592	6592	6592	6592	6592	6592	6468	6468	6349	6349	0	0	0	0	0	0	0	0	0	0	0	0	0	0	0	0	0	0	0	0	0	0	0	0	4838	4838	4906	4906	4906	4838	4838	4838	4838	4838	4838	4838	4838	4838	4838	4838	4838	4838	4771	4771	4771	4771	4838	4771	4838	4838	4838	4838	4838	4838	4838	4838	4771	4706	4706	8343	8550	8146	8343	8146	8146	8146	0	6592	6468	6468	6468	6468	6468	6349	6349	6349	6349	6235	6235	0	0	0	0	0	0	0	0	0	0	0	0	0	0	0	0	0	0	0	0	0	0	2376	2343	2343	2312	2312	2297	2281	2281	2281	2281	2266	2266	2266	2266	2266	2266	2223	2223	2223	2223	2208	2208	0	0	0	0	2194	2181	2181	2181	2194	2194	2194	2194	2194	2194	2194	2194	2194	2181	2194	2181	2181	2181	2181	2181	2167	2167	2167	4581	4463	4406	4350	4406	4463	4406	4296	4296	4296	4243	4093	3952	3952	3907	3952	3907	3907	3907	3907	3952	3952	3952	3998	2281	2281	2281	2252	2252	2237	2237	2237	2237	2237	2237	2237	2237	2223	2223	2223	2223	2223	2208	2208	2208	2194	2181	2181	2181	0	0	0	0	0	0	0	0	0	0	0	0	0	0	0	0	0	0	0	0	0	0	0	0	0	0	0	0	0	0	0	0	0	0	0	0	0
0	0	0	0	0	0	0	0	0	1287	1287	1287	1291	1291	1296	1296	1301	1301	1306	1306	1306	0	0	0	0	0	0	0	0	0	0	0	0	0	0	0	0	0	0	0	0	0	0	0	0	0	0	0	0	0	0	0	0	1363	1363	1363	0	0	0	0	0	0	0	0	0	0	0	0	0	0	0	0	0	0	0	0	0	0	0	0	0	0	1443	1443	1443	1443	1449	1449	1455	1467	1473	1473	1480	1480	1486	1486	1492	1499	1512	1519	1532	1539	1546	1560	1560	1546	1553	1560	1567	1567	1581	1581	1603	1603	1611	1618	1626	1626	0	0	0	0	0	0	0	0	0	0	0	0	0	0	0	0	0	0	0	0	0	0	0	0	0	0	0	0	0	0	0	0	0	0	0	0	0	0	0	0	0	0	0	0	0	0	6992	6992	6853	6853	6720	6720	6720	6592	6592	6592	6592	6592	6592	6592	6592	6592	6592	6592	6592	6592	6592	6468	6468	6468	6468	0	0	0	0	2845	2845	2845	2845	2845	2845	2822	2822	0	6992	7137	6853	6720	6592	6592	6592	6592	6592	6592	6592	6592	6592	6592	6592	6592	6592	6592	6592	6592	6592	6592	6592	6592	6592	6592	6592	6592	6592	6592	6592	6592	6592	6592	6592	6592	6468	6592	6592	6592	6592	6592	6592	6592	6592	6592	6592	6468	6468	6592	6592	6592	6592	6468	6468	6468	6468	6468	6468	6468	6468	6592	6592	6592	6592	6592	6592	6468	6592	6468	6468	6468	6468	6592	6592	6592	6592	6592	6592	6592	6592	6592	6468	6468	6468	6468	6468	6592	6468	6592	6468	4093	4093	4045	4045	3998	3998	3998	3998	3998	3998	3998	4045	3998	3998	3952	3952	3952	3952	3907	3907	3907	3952	3952	3952	3952	3952	3952	3952	3952	3998	3952	3952	3952	3952	3952	3952	3952	3952	3952	3952	3952	3952	3952	3952	3998	3998	3952	3952	3998	3998	4045	4045	4045	4093	4093	4093	4093	4093	4093	4093	4142	4142	4142	4142	0	0	0	0	0	0	0	0	0	0	0	0	0	0	0	0	0	0	6720	6720	6592	6592	6592	6592	6592	6592	6592	6720	6720	6720	6720	6720	6592	6592	6592	6592	6592	6592	6592	6592	6592	6592	6592	6592	6468	6468	6468	0	0	0	0	0	0	0	0	0	0	0	0	0	0	0	0	0	0	0	0	4977	4906	4906	4906	4838	4906	4838	4906	4906	4838	4838	4838	4838	4838	4838	4838	4838	4838	4838	4838	4838	4771	4771	4771	4771	4771	4838	4838	4771	4838	4838	4838	4838	4838	4838	4771	4771	4771	4706	4706	4706	7959	7959	7959	7959	8146	0	6592	6468	6349	6349	6349	6349	6349	6349	6349	6349	6235	2754	2754	2733	2711	2733	2754	2754	2754	0	0	0	0	0	0	0	0	0	0	0	0	0	0	0	0	2343	2327	2312	2312	2297	2281	2281	2281	2281	2281	2266	2266	2266	2252	2252	2223	2223	2223	2223	0	0	0	0	0	2194	2194	2181	2181	2181	2194	2194	2194	2194	2181	2181	2194	2181	2181	2181	2181	2181	2194	2181	2181	2181	2181	2167	2167	2167	2101	2101	2101	4350	2051	2051	2051	4192	4296	4142	3998	3952	3952	3907	3907	3907	3907	3907	3952	3952	2327	2327	2327	2312	2281	2281	2266	2252	2252	2252	2252	2252	2252	2252	2237	2237	2237	2223	2223	2223	2223	2223	2223	2223	2208	2194	2194	2194	0	0	0	0	0	0	0	0	0	0	0	0	0	0	0	0	0	0	0	0	0	0	0	0	0	0	0	0	0	0	0	0	0	0	0	0	0
0	0	0	0	0	0	0	0	0	1291	1287	1291	1291	1296	1296	1296	1311	1306	1311	1311	1321	1321	0	0	0	1379	1379	1385	1390	1385	1385	0	0	0	0	0	0	0	0	0	0	0	0	0	0	0	0	0	0	0	0	0	1363	1363	1363	1363	1363	0	0	0	0	0	0	0	0	0	0	0	0	0	0	0	0	0	0	0	0	0	0	0	0	0	1443	1443	1443	1443	1443	1449	1455	1467	1473	1473	1480	1486	1486	1486	1492	1499	1512	1519	1525	1532	1539	1553	1560	1546	1553	1560	1567	1574	1581	1596	1596	1596	1611	1618	1626	1626	0	0	0	0	0	0	0	0	0	0	0	0	0	0	0	0	0	0	0	0	0	0	0	0	0	0	0	0	0	0	0	0	0	0	0	0	0	0	0	0	0	0	0	0	0	0	6853	6992	6853	6720	6720	6720	6592	6592	6592	6592	6592	6592	6592	6592	6592	6592	6592	6592	6592	6592	6468	6468	6468	6468	6468	0	0	0	2845	2869	2845	2845	2845	2845	2845	2822	2822	2822	2822	2893	2917	2917	6720	6592	6592	6592	6592	6592	6468	6592	6592	6592	6592	6592	6592	6592	6592	6592	6592	6592	6592	6592	6592	6592	6592	6592	6592	6592	6592	6592	6592	6592	6592	6592	6592	6592	6592	6592	6592	6592	6592	6592	6592	6592	6592	6468	6468	6592	6592	6592	6592	6468	6468	6468	6468	6468	6468	6468	6468	6468	6592	6468	6592	6592	6592	6592	6592	6592	6592	6592	6592	6592	6592	6468	6592	6592	6592	6592	6592	6468	6468	6468	6468	6468	6468	6468	6468	6468	6468	4093	4093	4045	4045	4045	3998	3998	3998	3998	3998	3998	3998	3998	3998	3952	3952	3952	3952	3907	3907	3907	3907	3952	3952	3952	3952	3952	3952	3952	3952	3952	3952	3952	3952	3952	3952	3952	3952	3952	3952	3952	3952	3952	3952	3952	3998	3952	3952	3998	4045	4045	4045	4045	4093	4093	4093	4093	4093	4093	4142	4142	4142	4142	4142	4142	0	0	0	0	0	0	0	0	0	0	0	0	0	0	0	0	6853	6720	6720	6720	6592	6592	6592	6592	6592	6592	6592	6720	6720	6720	6720	6720	6720	6592	6592	6592	6592	6592	6592	6592	6592	6592	6468	6468	6468	6468	0	0	0	0	0	0	0	0	0	0	0	0	0	0	0	0	0	0	0	0	4977	4906	4906	4906	4906	4906	4906	4906	4838	4838	4838	4838	4838	4838	4838	4838	4838	4771	4838	4838	4771	4771	4771	4771	4771	4771	4838	4838	4838	4838	4838	4838	4838	4771	4771	4771	4771	4771	4771	4706	4706	4706	4706	4706	7959	0	0	0	6592	6468	6468	6468	6349	6349	6349	6349	2799	2799	2777	2754	2754	2754	2754	2754	2754	2777	2777	0	0	0	0	0	0	0	0	0	0	0	0	0	0	0	0	2327	2327	0	0	2297	2281	2281	2281	2281	2281	2266	2266	2266	2252	2252	2223	2223	0	0	0	0	0	0	2194	2194	2181	2181	2181	2194	2194	2194	2181	2181	2181	2181	2181	2181	2181	2181	2181	2181	2181	2181	2167	2167	2167	2167	2114	2114	2101	2088	2063	2051	2051	2051	4192	0	4045	3998	3952	3952	3907	3907	3907	3907	2312	2312	2312	2327	2327	2327	2327	2297	2297	2281	2281	2281	2281	2266	2252	2252	2252	2252	2237	2237	2223	2223	2237	2223	2223	2223	2223	2223	2223	2208	2208	0	0	0	0	0	0	0	0	0	0	0	0	0	0	0	0	0	0	0	0	0	0	0	0	0	0	0	0	0	0	0	0	0	0	0	0	0
0	0	0	0	0	0	0	0	0	1287	1287	1287	1287	1291	1296	1301	1301	1306	1316	1316	1321	1321	1321	1347	1374	1379	1379	1379	1385	1385	1385	1385	0	0	0	0	0	0	0	0	0	0	0	0	0	0	0	0	0	0	0	0	1363	1363	1363	1363	1363	0	0	0	0	0	0	0	0	0	0	1402	1402	0	0	0	0	0	0	0	0	0	0	0	0	1449	1443	1443	1443	1449	1449	1455	1461	1467	1473	1473	1473	1480	1486	1486	1486	1492	1519	1525	1525	1532	1532	1539	1546	1546	1553	1560	1567	1574	1581	1589	1589	1581	1581	1603	1603	1626	0	0	0	0	0	0	0	0	0	0	0	0	0	0	0	0	0	0	0	0	0	0	0	0	0	0	0	0	0	0	0	0	0	0	0	0	0	0	0	0	0	0	0	0	0	0	6853	6853	6853	6720	6720	6592	6592	6592	6592	6592	6592	6592	6592	6592	6592	6592	6592	6592	6592	6592	6468	6468	6468	6468	0	0	0	0	2869	2869	2869	2845	2845	2845	2845	2822	2822	2845	2845	2893	2917	2917	2917	2917	6592	6592	6592	6592	6468	6592	6592	6592	6592	6592	6592	6592	6592	6592	6592	6592	6592	6592	6592	6592	6592	6592	6592	6592	6592	6592	6592	6592	6468	6592	6592	6592	6592	6592	6592	6592	6592	6592	6592	6468	6592	6468	6592	6592	6592	6592	6592	6592	6592	6468	6592	6468	6468	6468	6468	6468	6468	6468	6468	6468	6468	6592	6592	6592	6592	6592	6592	6468	6592	6592	6592	6592	6592	6592	6592	6592	6592	6592	6468	6468	6468	6468	6468	6468	6468	4093	4093	4093	4045	4045	3998	3998	3998	3998	3998	3998	3998	3998	3998	3952	3952	3907	3952	3907	3907	3907	3907	3952	3952	3952	3952	3952	3952	3952	3952	3952	3952	3952	3952	3952	3952	3907	3952	3952	3952	3952	3952	3952	3952	3952	3952	3952	3952	3998	4045	4045	4045	4093	4093	4093	4093	4093	4093	4093	4142	4142	4142	4093	4093	4093	0	0	0	0	0	0	0	0	0	0	0	0	0	7444	7444	7137	6853	6720	6720	6720	6592	6592	6592	6592	6592	6592	6720	6720	6720	6720	6720	6720	6720	6592	6592	6592	6592	6592	6592	6592	6592	6592	6468	6468	6468	0	0	0	0	0	0	0	0	0	0	0	0	0	0	0	0	0	0	0	0	4977	4977	4906	4906	4906	4906	4838	4838	4838	4838	4838	4838	4838	4838	4838	4838	4838	4838	4771	4771	4838	4771	4771	4771	4771	4771	4771	4838	4771	4771	4838	4838	4838	4838	4771	4771	4771	4771	4771	4771	4706	4771	4771	4771	4771	0	0	0	0	6592	6592	6592	6468	0	0	0	2822	2799	2777	2777	2754	2754	2754	2777	2754	2754	2777	2777	0	0	0	0	0	0	0	0	0	0	0	0	0	0	0	0	0	0	0	0	2297	2281	2281	2281	0	2281	2266	2266	2266	2252	2252	0	0	0	0	0	0	0	0	2194	2194	2181	2181	2181	2181	2194	2181	2181	2167	2167	2181	2181	2181	2181	2181	2181	2181	2181	2181	2167	2167	2167	2167	2153	2114	2101	2101	2101	2051	2051	4093	4093	4045	4045	3998	3998	3952	3907	3907	2312	2327	2312	2312	2343	2327	2327	2312	2297	2297	2297	2297	2281	2281	2281	2281	2266	2266	2266	2266	2266	2252	2252	2237	2252	2237	2237	2237	2252	2252	2266	2252	2252	0	0	0	0	0	0	0	0	0	0	0	0	0	0	0	0	0	0	0	0	0	0	0	0	0	0	0	0	0	0	0	0	0	0	0	0	0
0	0	0	0	0	0	0	0	0	1287	1287	1287	1287	1296	1301	1306	1311	1311	1316	1316	1321	1321	1331	1342	1347	1374	1374	1374	1379	1379	1379	1385	0	0	0	0	0	0	0	0	0	0	0	0	0	0	0	0	0	0	0	1368	1363	1363	1363	1363	1363	0	0	0	0	0	0	0	0	0	1413	1407	1407	0	0	0	0	0	0	0	0	0	0	0	0	1443	1443	1443	1443	1449	1449	1455	1461	1467	1473	1473	1473	1480	1480	1480	1486	1486	1506	1519	1525	1525	1532	1539	1546	1546	1560	1560	1567	1567	1574	1581	1581	1581	1581	1596	1596	1626	0	0	0	0	0	0	0	0	0	0	0	0	0	0	0	0	0	0	0	0	0	0	0	0	0	0	0	0	0	0	0	0	0	0	0	0	0	0	0	0	0	0	0	0	0	0	0	6853	6720	6720	6720	6592	6592	6592	6592	6592	6592	6592	6592	6592	6592	6592	6592	6592	6468	6592	6592	6468	6468	6468	0	0	0	0	2869	2869	2869	2845	2845	2822	2822	2822	2822	2822	2845	2893	2917	2917	2917	2917	0	6592	6592	6592	6592	6592	6592	6592	6592	6592	6592	6592	6592	6592	6592	6592	6592	6592	6468	6592	6592	6592	6592	6592	6592	6592	6592	6592	6468	6592	6592	6592	6592	6592	6592	6592	6592	6592	6592	6592	6592	6468	6468	6592	6592	6592	6592	6592	6468	6468	6592	6468	6468	6468	6468	6468	6592	6592	6592	6468	6592	6592	6592	6592	6592	6592	6592	6592	6592	6592	6592	6592	6592	6592	6592	6592	6592	6592	6592	6592	6468	6592	6592	6592	6592	4093	4093	4093	4045	4045	3998	3998	3998	3998	3998	3998	3998	3998	3952	3952	3952	3907	3907	3907	3907	3907	3907	3907	3952	3952	3952	3952	3952	3952	3952	3952	3952	3952	3952	3952	3952	3907	3952	3952	3952	3952	3952	3952	3952	3952	3952	3952	3952	3998	4045	4045	4045	4093	4093	4093	4093	4093	4093	4093	4142	4142	4142	4142	4093	4093	0	0	0	0	0	0	0	0	0	0	0	0	0	7444	7444	7137	6853	6720	6720	6720	6592	6592	6592	6592	6592	6592	6592	6592	6720	6592	6592	6592	6592	6592	6592	6592	6592	6592	6592	6592	6592	6468	6468	6468	6468	6468	0	0	0	0	0	0	0	0	0	0	0	0	0	0	0	0	0	0	4977	4977	4977	4906	4906	4906	4906	4906	4838	4838	4838	4838	4838	4838	4838	4838	4838	4838	4838	4771	4838	4838	4771	4771	4771	4771	4771	4771	4771	4771	4771	4838	4838	4838	4838	4771	4771	4771	4771	4771	4771	4771	4771	4771	4771	4771	4771	0	0	0	6592	6592	6592	0	0	0	0	2822	2799	2799	2777	2754	2754	2754	2777	2754	2777	2777	2777	2777	0	0	0	0	0	0	0	0	0	0	0	0	0	0	0	0	0	0	0	0	2281	2281	0	0	0	0	0	0	2266	2266	2266	0	0	0	0	0	0	0	2194	2194	2181	2181	2181	2181	2181	2181	2181	2167	2167	2181	2181	2167	2181	2181	2181	2181	2181	2167	2181	2167	2167	2167	2153	2127	2114	2101	2101	2051	2051	4093	4093	4045	4093	3998	3998	3952	3907	3907	2312	2312	2327	2327	2343	2327	2327	2327	2312	2312	2312	2297	2297	2297	2297	2297	2297	2297	2281	2281	2281	2281	2266	2266	2266	2252	2266	2266	2266	2281	2297	2281	2281	0	0	0	0	0	0	0	0	0	0	0	0	0	0	0	0	0	0	0	0	0	0	0	0	0	0	0	0	0	0	0	0	0	0	0	0	0
0	0	0	0	0	0	0	0	0	1287	1287	1287	1287	1291	1301	1306	1311	1316	1316	1316	1316	1316	1321	1331	1331	1374	1374	1374	1379	1379	1379	0	0	0	0	0	0	0	0	0	0	0	0	0	0	0	0	0	0	0	0	1363	1363	1363	1363	1363	1363	0	0	0	0	0	0	0	0	0	1431	1407	1407	0	0	0	0	0	0	0	0	0	0	0	0	1443	1449	1443	1443	1449	1449	1455	1455	1461	1467	1473	1473	1473	1480	1480	1486	1492	1512	1519	1519	1525	1532	1539	1539	1546	1560	1567	1567	1574	1574	1581	1589	1581	1581	1589	1589	0	0	0	0	0	0	0	0	0	0	0	0	0	0	0	0	0	0	0	0	0	0	0	0	0	0	0	0	0	0	0	0	0	0	0	0	0	0	0	0	0	0	0	0	0	0	0	0	6720	6720	6720	6720	6592	6592	6592	6592	6592	6592	6592	6592	6592	6592	6592	6592	6592	6592	6592	6592	6468	6468	6468	0	0	0	0	2869	2869	2845	2845	2845	2822	2822	2822	2822	2845	2845	2869	2917	2917	2917	2942	2942	2942	6592	6592	6592	6592	6592	6592	6592	6592	6592	6592	6592	6592	6592	6592	6592	6592	6468	6592	6468	6592	6592	6592	6592	6592	6468	6592	6468	6592	6592	6592	6592	6592	6592	6592	6592	6592	6592	6592	6592	6468	6468	6468	6468	6592	6592	6592	6592	6592	6592	6592	6592	6592	6592	6592	6592	6592	6592	6592	6592	6592	6592	6592	6592	6592	6592	6592	6592	6592	6592	6592	6592	6592	6592	6592	6592	6592	6592	6468	6468	6468	6468	6468	6468	6468	4093	4093	4045	4045	4045	4045	3998	3998	3998	3998	3998	3998	3952	3907	3907	3907	3907	3907	3907	3907	3907	3952	3952	3952	3952	3952	3907	3907	3907	3907	3907	3907	3907	3952	3952	3907	3907	3907	3952	3952	3952	3952	3952	3952	3952	3952	3952	3952	3998	4045	4045	4045	4093	4093	4093	4093	4093	4093	4142	4142	4142	4093	4093	4093	0	0	0	0	0	0	0	0	0	0	0	0	0	0	0	0	6853	6720	6720	6720	6592	6592	6592	6592	6720	6592	6592	6592	6720	6592	6592	6592	6592	6592	6592	6592	6592	6592	6592	6592	6592	6468	6468	6468	6468	6468	0	0	0	0	0	0	0	0	0	0	0	0	0	0	0	0	0	5050	4977	4977	4977	4906	4906	4906	4906	4906	4838	4838	4838	4838	4838	4838	4771	4771	4771	4771	4771	4771	4771	4838	4771	4771	4771	4771	4771	4771	4771	4771	4838	4838	4771	4771	4771	4771	4771	4771	4771	4771	4771	4771	4771	4771	4771	4771	4771	0	0	0	0	0	0	0	0	0	2822	2822	2799	2777	2754	2754	2754	2754	2777	2754	2754	2777	2754	2754	2754	2754	2754	2754	0	0	0	0	0	0	0	0	0	0	0	0	0	0	0	0	0	0	0	0	0	0	0	2266	2266	2266	2266	2266	2237	2223	2223	2223	0	0	2208	2194	2194	2181	2181	2194	2194	2181	2181	2167	2167	2181	2167	2167	2167	2181	2181	2181	2167	2167	2181	2167	2167	2167	2167	2140	2127	2127	2063	2063	2063	4093	4093	4093	4243	4243	3952	3952	2392	2392	2327	2327	2327	2327	2327	2327	2327	2327	2312	2327	2327	2312	2312	2297	2297	2297	2297	2297	2297	2297	2297	2297	2297	2297	2297	2297	2297	2297	2297	2312	2297	2297	2297	0	0	0	0	0	0	0	0	0	0	0	0	0	0	0	0	0	0	0	0	0	0	0	0	0	0	0	0	0	0	0	0	0	0	0	0	0
0	0	0	0	0	0	0	0	0	1282	1282	1282	1287	1287	1296	1306	1316	1316	1316	1316	1316	1316	1321	1321	1374	1374	1374	1374	1379	1379	1379	1379	1379	0	0	0	0	0	0	0	0	0	0	0	0	0	0	0	0	0	1363	1363	1363	1363	1363	1363	1368	1368	0	0	0	0	0	1413	1413	1413	1425	1413	1413	0	0	0	0	1385	1385	0	0	0	0	0	1431	1437	1437	1437	1443	1443	1449	1455	1455	1461	1467	1467	1467	1473	1480	1480	1486	1486	1492	1512	1525	1525	1532	1539	1546	1546	1553	1560	1567	1567	1574	1581	1589	1581	1581	1589	1596	1546	1539	1539	0	0	0	0	0	0	0	0	0	0	0	0	0	0	0	0	0	0	0	0	0	0	0	0	0	0	0	0	0	0	0	0	0	0	0	0	0	0	0	0	0	0	0	0	6992	6853	6720	6720	6720	6592	6592	6592	6592	6592	6592	6592	6592	6592	6592	6592	6592	6592	6592	6592	6468	6468	6468	0	0	0	0	0	2869	2869	2845	2845	2845	2845	2845	2822	2822	2845	2845	2869	2893	2917	2917	2942	2967	2967	0	0	6592	6592	6592	6592	6592	6592	6592	6592	6592	6592	6592	6468	6468	6592	6468	6592	6592	6592	6592	6592	6592	6592	6592	6468	6468	6468	6468	6592	6592	6592	6592	6592	6592	6592	6592	6468	6468	6468	6468	6468	6592	6592	6592	6592	6592	6592	6592	6592	6592	6592	6592	6592	6592	6592	6592	6592	6592	6592	6592	6592	6592	6592	6592	6592	6468	6592	6592	6592	6592	6592	6592	6592	6592	6592	6468	6468	6468	6468	6468	6468	6468	6468	4093	4093	4045	4045	4045	4045	3998	3998	3998	3998	3998	3952	3952	3952	3907	3907	3907	3907	3907	3907	3907	3952	3952	3952	3952	3952	3907	3907	3907	3907	3907	3907	3907	3907	3907	3907	3907	3952	3952	3952	3952	3952	3952	3952	3952	3952	3952	3952	3998	4045	4045	4045	4093	4093	4093	4093	4093	4093	4142	4142	4142	4142	4142	4093	0	0	0	0	0	0	0	0	0	0	0	0	0	0	0	0	0	6720	6720	6720	6592	6592	6592	6592	6592	6592	6592	6592	6720	6592	6592	6592	6592	6720	6592	6592	6592	6592	6592	6592	6592	6468	6468	6468	6468	0	0	0	0	0	0	0	0	0	0	0	0	0	0	0	0	0	4977	4977	4977	4906	4977	4906	4906	4838	4838	4838	4838	4838	4838	4838	4838	4838	4771	4771	4771	4771	4771	4771	4771	4838	4771	4771	4771	4771	4771	4771	4771	4771	4771	4771	4771	4771	4771	4771	4771	4771	4771	4771	4771	4771	4838	4771	4838	4838	4838	4838	0	0	0	0	0	0	0	2845	2845	2822	2822	2799	2777	2754	2733	2754	2754	2754	2754	2777	2711	2711	2754	2754	2754	2733	2754	2733	2754	2754	2733	2733	2733	0	0	0	0	0	0	0	0	0	0	0	0	0	0	0	0	2266	2266	2266	2266	2252	2237	2223	2223	2208	2208	2208	2208	2208	2194	2194	2194	2181	2194	2181	2181	2167	2167	2167	2167	2167	2167	2167	2181	2167	2167	2167	2167	2167	2167	2167	2167	2153	2140	2140	2153	2153	2063	0	4093	4093	4093	4093	3952	3952	2392	2392	2343	2343	2343	2327	2343	2327	2327	2327	2327	2327	2327	2327	2327	2312	2312	2312	2312	2312	2312	2312	2312	2327	2327	2327	2327	2327	2327	2327	2327	2327	2327	2312	2312	0	0	0	0	0	0	0	0	0	0	0	0	0	0	0	0	0	0	0	0	0	0	0	0	0	0	0	0	0	0	0	0	0	0	0	0	0
0	0	0	0	0	0	0	0	0	1282	1282	1282	1282	1287	1296	1306	1316	1316	1316	1316	1321	1321	1326	1326	1326	1374	1374	1374	1379	1379	1379	1379	1379	1379	1379	1379	1379	0	0	0	0	0	0	0	0	0	0	0	0	0	1368	1368	1368	1363	1368	1368	1368	1368	0	0	0	0	1396	1402	1402	1407	1413	1402	1390	1390	1390	1385	1379	1379	1379	0	0	0	0	0	1431	1437	1443	1443	1443	1443	1449	1449	1455	1461	1461	1467	1473	1480	1480	1480	1486	1486	1492	1512	1525	1532	1532	1539	1546	1546	1553	1560	1567	1567	1567	1581	1581	1581	1581	1589	1589	1560	1560	1539	0	0	0	0	0	0	0	0	0	0	0	0	0	0	0	0	0	0	0	0	0	0	0	0	0	0	0	0	0	0	0	0	0	0	0	0	0	0	0	0	0	0	0	0	6992	6853	6720	6720	6592	6592	6592	6592	6592	6592	6592	6592	6592	6592	6592	6592	6592	6468	6592	6468	6468	6468	0	0	0	0	0	0	2869	2845	2845	2845	2845	2822	2822	2822	2845	2845	2845	2869	2893	2917	2917	2942	2967	3019	3019	3019	6592	6592	6592	6592	6592	6592	6592	6592	6592	6468	6468	6468	6468	6468	6468	6468	6592	6592	6592	6592	6592	6592	6592	6468	6468	6468	6468	6468	6468	6468	6468	6592	6592	6592	6592	6468	6592	6592	6592	6592	6592	6592	6592	6592	6592	6592	6592	6592	6592	6592	6592	6592	6592	6592	6592	6592	6592	6592	6592	6592	6592	6592	6592	6592	6468	6468	6468	6468	6592	6592	6592	6592	6592	6592	6592	6592	6592	6468	6468	6468	6468	6349	4142	4093	4093	4045	4045	4045	4045	3998	3998	3998	3998	3998	3952	3907	3907	3907	3907	3907	3907	3907	3907	3952	3952	3952	3952	3952	3907	3907	3907	3907	3907	3907	3907	3907	3907	3907	3907	3907	3952	3952	3952	3952	3952	3952	3952	3952	3952	3952	3998	4045	4045	4093	4093	4093	4093	4093	4093	4093	4142	4142	4142	4093	4093	0	0	0	0	0	0	0	0	0	0	0	0	0	0	0	0	0	0	6720	6720	6720	6592	6592	6592	6592	6720	6592	6592	6592	6592	6592	6592	6592	6592	6720	6720	6720	6720	6720	6592	6592	6592	6592	6592	6592	6592	0	0	0	0	0	0	0	0	0	0	0	0	0	0	0	0	5050	4977	4977	4977	4906	4906	4906	4838	4838	4838	4838	4838	4838	4838	4838	4838	4838	4771	4771	4771	4771	4771	4771	4771	4771	4771	4771	4771	4771	4771	4771	4771	4771	4771	4771	4771	4771	4771	4771	4771	4771	4771	4771	4771	4838	4838	4838	4838	4838	4838	4838	0	0	0	0	0	0	0	2845	2845	2845	2822	2822	2799	2754	2733	2754	2754	2754	2733	2733	2711	2711	2754	2733	2733	2733	2733	2733	2733	2733	2733	2733	2733	0	0	0	0	0	0	0	0	0	0	0	0	0	0	0	0	0	2266	2266	2266	2252	2237	2223	2223	2208	2208	2208	2208	2208	2208	2194	2194	2194	2181	2181	2167	2167	2167	2167	2167	2167	2167	2167	2167	2167	2167	2167	2167	2167	2167	2167	2167	2153	2153	2153	2153	2153	2153	2153	2153	4093	4093	4093	0	0	2426	2409	2392	2376	2359	2343	2343	2343	2343	2327	2327	2343	2343	2343	2343	2327	2327	2343	2327	2327	2327	2327	2327	2327	2343	2359	2359	2359	2343	2343	2343	2343	2327	2327	2327	0	0	0	0	0	0	0	0	0	0	0	0	0	0	0	0	0	0	0	0	0	0	0	0	0	0	0	0	0	0	0	0	0	0	0	0	0
0	0	0	0	0	0	0	0	0	1282	1277	1282	1282	1291	1301	1311	1316	1316	1316	1321	1321	1321	1321	1331	1331	1379	1379	1379	1385	1379	1379	1379	1379	1379	1379	1374	1379	1379	0	0	0	0	0	0	0	0	0	0	1368	1368	1368	1368	1368	1368	1368	1374	1379	1379	1385	1390	1390	1390	1396	1402	1402	1407	1407	1402	1396	1390	1390	1390	1385	1385	1385	0	0	0	0	0	0	1443	1425	1425	1443	1449	1449	1449	1455	1455	1461	1467	1467	1480	1480	1480	1486	1486	1499	1512	1525	1525	1532	1539	1539	1546	1553	1560	1567	1567	1567	1574	1581	1574	1567	1581	1560	1553	1546	1546	0	0	0	0	0	0	0	0	0	0	0	0	0	0	0	0	0	0	0	0	0	0	0	0	0	0	0	0	0	0	0	0	0	0	0	0	0	0	0	0	0	0	0	0	0	6992	6853	6720	6592	6592	6592	6592	6592	6592	6592	6592	6592	6592	6592	6592	6468	6468	6468	6468	6468	0	0	0	0	0	0	0	2869	2845	2845	2845	2845	2845	2845	2845	2845	2845	2869	2869	2893	2893	2917	2942	2967	2993	3019	3019	0	0	6592	6592	6592	6592	6592	6592	6592	6592	6468	6468	6468	6468	6468	6592	6468	6592	6592	6592	6592	6592	6592	6592	6468	6468	6468	6468	6468	6468	6592	6592	6468	6592	6592	6468	6592	6592	6468	6592	6592	6592	6592	6592	6592	6592	6592	6592	6592	6592	6592	6592	6592	6592	6592	6592	6592	6592	6592	6592	6592	6592	6592	6592	6468	6468	6468	6468	6592	6592	6592	6592	6592	6592	6592	6592	6592	6468	6468	6468	6468	6349	4142	4142	4093	4093	4045	4045	4045	4045	4045	4045	3998	3998	3952	3952	3907	3907	3907	3907	3907	3907	3907	3952	3952	3952	3952	3952	3907	3907	3907	3907	3907	3907	3907	3907	3907	3907	3952	3952	3952	3952	3952	3952	3952	3952	3952	3952	3952	3952	3998	4045	4045	4093	4093	4093	4093	4093	4093	4093	4093	4142	4093	4093	4093	0	0	0	0	0	0	0	0	0	0	0	0	0	0	0	0	0	0	6720	6720	6720	6720	6592	6592	6592	6592	6592	6592	6592	6592	6592	6592	6592	6592	6720	6720	6720	6720	6720	6720	6720	6592	6592	6592	6592	6592	0	0	0	0	0	0	8767	8767	8767	8767	8767	8767	0	0	4643	5050	5050	4977	4977	4977	4906	4906	4906	4906	4838	4838	4838	4838	4838	4838	4838	4838	4771	4771	4771	4771	4771	4771	4771	4771	4771	4771	4771	4838	4771	4771	4771	4771	4771	4838	4771	4771	4771	4771	4771	4771	4771	4771	4771	4838	4838	4838	4838	4838	4838	0	0	0	0	0	0	0	0	0	2869	2845	2822	2822	2799	2777	2754	2733	2733	2733	2733	2733	2733	2711	2733	2754	2754	2733	2733	2733	2733	2733	2733	2711	2711	2733	2733	0	0	0	0	0	0	0	0	0	0	0	0	0	0	0	2281	2266	2266	2266	2252	2237	2223	2223	2223	2223	2223	2223	2208	2208	2194	2194	2194	2181	2181	2181	2167	2181	2167	2167	2167	2167	2167	2167	2167	2167	2167	2167	2167	2167	2167	2153	2153	2153	2153	2167	2167	2153	2153	2153	0	0	0	2409	2409	2409	2409	2392	2392	2359	2343	2359	2343	2343	2343	2327	2343	2343	2343	2359	2343	2343	2343	2343	2343	2343	2343	2343	2343	2343	2359	2359	2359	2359	2359	2359	2359	2343	2343	2327	0	0	0	0	0	0	0	0	0	0	0	0	0	0	0	0	0	0	0	0	0	0	0	0	0	0	0	0	0	0	0	0	0	0	0	0	0
0	0	0	0	0	0	0	0	0	0	1277	1282	1282	1287	1301	1311	1311	1316	1316	1321	1326	1326	1331	1331	1331	1374	1374	1379	1385	1379	1379	1379	1379	1379	1379	1374	1374	1368	1374	1374	0	0	0	0	0	0	0	0	1363	1363	1363	1363	1368	1368	1368	1374	1379	1379	1390	1390	1390	1390	1396	1402	1402	1407	1413	1407	1413	1425	1413	1390	1390	1390	1385	1385	0	1407	1407	0	0	1443	1443	1449	1443	1443	1449	1449	1449	1455	1455	1467	1467	1473	1473	1480	1486	1486	1492	1506	1519	1525	1532	1532	1539	1539	1546	1553	1560	1567	1567	1574	1581	1581	1574	1581	1574	1560	1553	1553	0	0	0	0	0	0	0	0	0	0	0	0	0	0	0	0	0	0	0	0	0	0	0	0	0	0	0	0	0	0	0	0	0	0	0	0	0	0	0	0	0	0	0	0	0	6992	6853	6720	6592	6592	6592	6592	6592	6592	6592	6592	6592	6592	6592	6592	6349	6468	6468	6468	0	0	0	0	0	0	0	0	2869	2845	2845	2845	2845	2845	2845	2845	2845	2845	2869	2869	2893	2917	2917	2942	2967	2993	3019	3019	3019	0	6592	6592	6592	6592	6592	6592	6592	6592	6592	6468	6468	6468	6468	6468	6468	6592	6592	6592	6592	6592	6468	6468	6468	6468	6468	6468	6468	6468	6592	6592	6468	6468	6468	6468	6592	6592	6468	6468	6468	6468	6592	6592	6468	6592	6592	6592	6592	6468	6592	6592	6592	6592	6592	6592	6592	6592	6592	6592	6592	6592	6592	6592	6468	6468	6468	6468	6592	6592	6592	6592	6592	6592	6592	6592	6592	6592	6468	6468	6468	6349	6349	4142	4093	4093	4045	4045	4045	4045	4045	4045	3998	3998	3952	3952	3907	3907	3907	3907	3907	3907	3907	3952	3952	3952	3952	3952	3907	3907	3907	3907	3907	3907	3907	3907	3907	3907	3907	3907	3952	3952	3952	3952	3952	3952	3952	3952	3952	3952	3998	3998	4045	4045	4093	4093	4142	4142	4142	4142	4093	4142	4093	4093	4093	0	0	0	0	0	0	0	0	0	0	0	0	0	0	0	0	0	0	6720	6720	6720	6720	6592	6592	6592	6592	6592	6592	6592	6592	6592	6592	6592	6592	6592	6720	6720	6720	6720	6592	6720	6592	6592	6592	6720	6720	0	0	0	8767	8767	8767	8767	8767	8550	8767	8550	8767	8767	4706	4706	5050	5050	4977	4977	4977	4906	4906	4906	4906	4838	4838	4838	4838	4838	4838	4838	4838	4771	4771	4706	4771	4706	4706	4706	4771	4771	4771	4838	4838	4771	4771	4771	4838	4771	4771	4771	4771	4771	4771	4771	4771	4771	4771	4771	4838	4838	4906	4838	4838	4838	0	0	0	0	0	0	0	0	0	2822	2822	2799	2799	2799	2822	2822	2733	2733	2711	2711	2711	2711	2711	2711	2733	2711	2711	2711	2733	2733	2733	2733	2711	2711	2733	2733	0	0	0	0	0	0	0	0	0	0	0	0	0	0	0	2281	2266	2266	2252	2237	2237	2223	2223	2223	2223	2223	2208	2208	2208	2194	2194	2181	2181	2167	2181	2167	2181	2181	2181	2167	2167	2167	2167	2167	2167	2167	2167	2167	2167	2167	2153	2153	2153	2167	2167	2153	2153	2153	0	0	2443	2426	2409	2426	2409	2409	2392	2392	2376	2359	2359	2359	2359	2343	2343	2359	2359	2376	2376	2376	2359	2359	2359	2359	2359	2343	2343	2359	2359	2376	2376	2376	2359	2359	2359	2359	2343	2359	2359	0	0	0	0	0	0	0	0	0	0	0	0	0	0	0	0	0	0	0	0	0	0	0	0	0	0	0	0	0	0	0	0	0	0	0	0	0
0	0	0	0	0	0	0	0	0	0	1277	1282	1287	1291	1291	1301	1311	1316	1316	1321	1326	1326	1336	1342	1342	1358	1358	1379	1385	1379	1379	1379	1379	1379	1374	1374	1368	1374	1374	1374	0	0	0	0	0	0	0	0	1363	1363	1363	1363	1368	1368	1368	1374	1379	1379	1385	1390	1390	1390	1390	1390	1390	1407	1407	1407	1413	1419	1413	1407	1407	1407	1407	1407	1407	1407	1407	0	1431	1437	1443	1443	1443	1443	1443	1449	1449	1455	1455	1461	1461	1473	1467	1473	1480	1492	1499	1506	1512	1519	1525	1532	1532	1539	1539	1553	1560	1567	1567	1574	1581	1581	1574	1581	1567	1560	1560	1553	0	0	0	0	0	0	0	0	0	0	0	0	0	0	0	0	0	0	0	0	0	0	0	0	0	0	0	0	0	0	0	0	0	0	0	0	0	0	0	0	0	0	0	0	0	6992	6853	6853	6592	6592	6592	6592	6592	6592	6592	6592	6592	6720	6592	6592	6468	6468	6349	6349	0	0	0	0	0	0	0	0	2845	2845	2845	2845	2845	2845	2845	2845	2845	2845	2869	2869	2869	2893	2942	2942	2967	2967	3019	3019	2993	2993	0	6592	6720	6592	6592	6592	6468	6468	6468	6468	6468	6468	6468	6468	6468	6468	6592	6592	6592	6592	6592	6592	6468	6468	6468	6468	6468	6468	6592	6592	6468	6468	6468	6468	6592	6468	6468	6468	6592	6468	6592	6592	6468	6592	6592	6592	6592	6592	6592	6592	6592	6592	6592	6592	6592	6592	6592	6592	6592	6592	6592	6592	6468	6468	6468	6468	6468	6468	6592	6592	6592	6592	6592	6592	6592	6592	6468	6468	6468	6468	6349	4142	4093	4093	4093	4045	4045	4045	4045	4045	4045	3998	3952	3952	3907	3907	3907	3907	3907	3907	3907	3952	3952	3952	3952	3952	3907	3907	3907	3907	3907	3907	3907	3907	3907	3907	3907	3907	3907	3952	3952	3952	3952	3952	3952	3952	3952	3952	3952	3998	4045	4045	4093	4142	4142	4142	4142	4142	4142	4142	4093	4093	4093	0	8767	8767	8550	8550	0	8550	8550	8550	8550	0	0	0	0	0	0	0	0	0	6720	6720	6720	6592	6592	6592	6720	6592	6592	6592	6592	6592	6592	6592	6592	6592	6720	6720	6720	6720	6720	6720	6592	6592	6592	6720	6720	0	0	8767	8767	8767	8767	8550	8550	8550	8550	8550	8550	8550	4771	4771	5050	5050	5050	4977	4977	4977	4977	4906	4906	4906	4838	4838	4838	4838	4838	4771	4771	4771	4706	4643	4643	4706	4706	4706	4771	4771	4771	4838	4838	4771	4771	4838	4838	4771	4838	4771	4771	4771	4771	4771	4771	4771	4771	4771	4838	4906	4906	4906	4838	4838	0	0	0	0	0	0	0	0	2869	2822	2799	2799	2799	2799	2822	2822	0	0	2711	2711	2711	2711	2711	2711	2711	2711	2711	2711	2711	2733	2733	2733	2711	2711	2733	2733	0	0	0	0	0	0	0	0	0	0	0	0	0	0	0	2266	2266	2266	2252	2252	2237	2237	2237	2223	2223	2223	2208	2208	2208	2194	2194	2194	2181	2181	2181	2167	2181	2181	2167	2167	2167	2167	2167	2167	2167	2167	2167	2167	2167	2167	2167	2153	2153	2153	2153	2153	2153	2153	2460	2460	2443	2426	2426	2426	2409	2409	2409	2392	2392	2376	2376	2376	2359	2359	2359	2376	2376	2392	2392	2392	2376	2376	2376	2376	2376	2376	2359	2359	2376	2392	2392	2392	2376	2376	2376	2359	2359	2359	2359	2359	0	0	0	0	0	0	0	0	0	0	0	0	0	0	0	0	0	0	0	0	0	0	0	0	0	0	0	0	0	0	0	0	0	0	0	0
