0	0	0	0	0	920	922	925	930	932	932	940	940	942	945	953	958	958	958	961	963	969	972	974	977	980	980	985	988	991	994	994	1003	1006	1011	1014	1017	1020	1023	1033	1033	1036	1036	1042	1042	1045	1055	1061	1064	1064	1068	1068	1071	1071	1074	1074	1074	1074	0	0	0	0	0	0	0	0	0	5282	5282	5282	5202	5202	5202	5202	0	0	0	0	0	0	0	0	0	0	0	0	0	0	0	0	0	0	0	5719	5815	5815	5815	5915	5915	5915	0	0	0	0	0	0	0	0	0	0	0	0	0	0	0	0	0	0	0	0	0	0	0	0	0	0	0	0	0	0	0	0	0	0	0	0	0	0	0	0	1804	1804	1804	1795	1786	1777	1786	1786	1786	1786	1777	1777	1777	1786	0	0	0	0	8550	8343	8343	8343	8343	8343	8343	8343	8343	8343	8343	8343	8343	8343	8343	8343	8343	8343	8343	8343	8343	8343	8343	8146	8146	8146	8146	8146	8146	8146	8146	8146	8146	8146	8146	8146	8146	8146	8146	8146	8146	8146	8146	8146	8146	8343	8146	8146	8146	8146	8146	8146	8146	8146	8146	8146	8146	8146	7959	7959	8343	8343	8343	8146	8146	8146	8146	7959	7959	7779	7779	7959	0	0	3341	3309	3309	3309	3277	3309	3277	3277	3277	3277	3277	3277	3277	3246	3216	3186	3186	3186	3186	3157	3186	3157	3186	3186	3186	3186	3186	3157	3157	3157	3186	3186	3186	3186	3186	3157	3186	3186	3186	3186	3186	3186	3186	3186	3186	3186	3186	3186	3186	3186	3186	3186	3186	3186	3186	3186	3216	3246	3246	3277	3277	3309	3309	3309	3277	3277	3277	3277	3277	3277	3277	8343	8343	8343	8343	8343	8343	8343	8343	8343	8146	8146	8146	8146	8146	8343	8343	8550	8550	8343	8343	8550	8550	8550	8550	8550	8550	8550	8343	8343	8343	8343	8343	8343	8343	8343	8550	8550	8550	8550	8550	8550	8550	8550	8550	8343	8343	8343	8343	8343	8146	8343	8343	8343	8343	8343	8343	8343	8343	8343	8343	8343	8343	8343	8343	8343	8343	8146	8146	8146	8146	8146	8146	8146	8146	8343	8146	8146	8146	8343	8146	8343	8146	8146	8146	8146	8146	8146	8146	8146	8146	8146	8146	8146	8146	8146	8146	8146	8146	8343	8343	8343	8146	8343	8343	8343	8146	8146	8146	8343	8343	8146	8146	8146	8146	8146	8146	8146	8146	8146	8146	8146	8146	8146	8146	8146	8146	8146	8146	8146	8146	8146	8146	8146	8146	8146	8146	7959	7959	8146	8146	8146	8146	8146	8146	8146	8146	8146	8146	8146	8146	7959	7959	7959	7959	7959	7959	7959	7959	7959	7959	7959	7959	7959	7959	7959	7959	7959	7959	7959	7959	7959	7959	8146	7959	7959	8146	8146	7959	7959	7959	8146	8146	8146	8146	8146	8146	8146	8146	8146	8146	8146	8146	8146	8146	8146	8146	8146	8146	8343	8343	8343	8343	8343	8550	8550	8550	8550	8343	8343	8343	8146	8146	8343	8343	8343	8146	8146	8146	8343	8146	8146	8146	8146	8343	8343	8343	8343	8343	8146	8146	8343	8146	8146	8146	8146	8146	8343	8343	8343	8343	8343	8343	8343	8146	8146	8343	8146	8146	8146	7959	8146	8146	8146	8146	8146	8146	8343	8343	8146	8146	8343	8146	8146	8343	8343	8343	8343	8343	8343	8343	8343	8550	8550	8550	8550	8343	8343	8550	8550	0	0	0	0	0	0	0	0	0	0	0	0	0	0	0	0	0	0	0	0	0	0	0	0	0	0	0	0	0	0	0	0	0	0	0	0	0	0	0	0	0	0	0	0	0	0	0	0	0	0	0	0	0	0	0	0	0	0
0	0	0	0	0	920	922	925	927	930	935	937	942	945	948	955	958	958	961	961	963	969	974	977	977	980	980	983	985	991	994	994	1003	1006	1011	1014	1014	1017	1020	1033	1036	1036	1036	1042	1045	1048	1055	1058	1064	1064	1068	1068	1071	1071	1074	1074	1074	1074	0	0	0	0	0	0	0	0	0	5364	5364	5282	5202	5202	5202	5050	5050	0	0	0	0	0	0	0	0	0	0	0	0	0	0	0	0	0	0	5815	5815	5915	5915	5915	5915	6018	6124	6235	6235	0	0	0	0	0	0	0	0	0	0	0	0	0	0	0	0	0	0	0	0	0	0	0	0	0	0	0	0	0	0	0	0	0	0	0	0	0	1804	1804	1795	1795	1786	1777	1786	1786	1786	1795	1795	1795	1795	0	0	0	0	0	8343	8343	8343	8343	8343	8343	8343	8343	8343	8343	8343	8343	8343	8343	8146	8343	8146	8146	8146	8146	8146	8146	8146	8146	8146	8146	8146	8146	8146	8146	8146	8146	8146	8146	8146	8146	8146	8146	8146	8146	8146	8146	8146	8146	8146	8146	8146	8146	8146	8146	8146	8146	8146	8146	8146	8146	8146	8146	8343	7959	8343	8343	8343	8146	8146	8146	8146	7959	7959	7959	7779	0	0	0	3341	3341	3341	3309	3309	3309	3277	3277	3277	3277	3277	3277	3277	3246	3216	3186	3186	3186	3186	3157	3157	3157	3157	3157	3157	3157	3157	3157	3157	3186	3186	3186	3186	3186	3186	3186	3186	3186	3186	3186	3186	3186	3186	3186	3186	3186	3186	3186	3186	3186	3186	3186	3186	3186	3186	3186	3216	3246	3246	3277	3277	3309	3309	3309	3277	3277	3277	3277	3277	3277	3277	0	8343	8343	8343	8343	8343	8343	8146	8146	8146	8146	8146	8146	8146	8343	8343	8550	8550	8343	8550	8550	8550	8550	8550	8550	8550	8550	8343	8343	8343	8343	8146	8146	8343	8343	8343	8550	8550	8550	8550	8550	8550	8550	8550	8550	8343	8343	8343	8343	8343	8343	8343	8343	8343	8550	8550	8550	8550	8343	8343	8343	8343	8343	8343	8343	8343	8146	8146	8146	8146	8146	8146	8146	8146	8146	8146	8146	8146	8146	8146	8343	8146	8146	8146	8146	8146	8146	8146	8146	8146	8146	8146	8146	8146	8146	7959	8146	8146	8146	8146	8146	8146	8146	8343	8146	8146	8146	8146	8146	8343	8146	8146	8146	8146	8146	8146	8146	8146	8146	8146	8146	8146	8146	8146	7959	7959	8146	8146	8146	8146	7959	7959	8146	8146	8146	8146	8146	8146	8146	8146	8146	8146	8146	8146	8146	8146	8146	8146	8146	8146	7959	7959	7959	7959	7959	7959	7959	7959	7959	7959	7959	7959	7959	7959	7959	7959	7959	7959	7959	7959	7959	7959	7959	7959	7959	7959	7959	7959	7959	7959	8146	8146	8146	8146	8146	8146	8146	8146	8146	8146	8146	8146	8146	8146	8146	8146	8343	8343	8343	8343	8343	8343	8343	8550	8343	8343	8343	8343	8343	8343	8146	8343	8343	8343	8343	8343	8343	8343	8343	8343	8343	8146	8146	8146	8146	8146	8146	8146	8146	8146	8343	8343	8343	8146	8343	8343	8343	8343	8343	8343	8343	8343	8343	8146	8146	8146	8146	8146	8146	7959	8146	8146	8146	8146	8146	8146	8343	8343	8343	8343	8343	8343	8343	8343	8343	8343	8343	8550	8343	8343	8343	8550	8550	8550	8343	8343	8343	8343	8343	0	0	0	0	0	0	0	0	0	0	0	0	0	0	0	0	0	0	0	0	0	0	0	0	0	0	0	0	0	0	0	0	0	0	0	0	0	0	0	0	0	0	0	0	0	0	0	0	0	0	0	0	0	0	0	0	0	0
0	0	0	0	0	920	922	925	927	930	937	940	948	950	950	955	958	958	958	961	963	969	974	977	977	980	980	983	985	988	991	994	1003	1008	1011	1014	1017	1017	1020	1033	1036	1039	1039	1042	1045	1052	1055	1058	1061	1064	1068	1068	1071	1071	1074	1074	1074	1074	0	0	0	0	0	0	0	0	0	5448	5448	5364	5282	5282	5282	5125	5282	5282	0	0	0	5448	5448	5448	0	5448	5448	0	0	0	0	0	0	0	5815	5815	5815	5915	5915	5915	5915	6018	6124	6124	6124	0	0	0	0	0	0	0	0	0	0	0	0	0	0	0	0	0	0	0	0	0	0	0	0	0	0	0	0	0	0	0	0	0	0	0	0	0	0	0	1795	1786	1786	1777	1786	1777	1777	1777	1777	1795	1795	0	0	0	8146	8146	8146	8146	8343	8343	8343	8343	8343	8343	8343	8343	8343	8343	8343	8343	8343	8343	8146	8146	8146	8146	8146	8146	8146	8146	8146	8146	8146	8146	8146	8146	8146	8146	8146	8146	8146	8146	8146	8146	7959	8146	8146	8146	8146	8146	8146	8146	8146	8146	8146	8146	8146	8146	8146	8146	8146	8146	8146	8146	8343	8343	8343	8343	8146	8146	8146	8146	8146	7959	7959	7959	0	0	0	0	3309	3309	3309	3309	3277	3277	3277	3277	3277	3277	3277	3277	3277	3246	3216	3186	3186	3186	3157	3157	3157	3157	3157	3157	3157	3157	3157	3157	3157	3186	3186	3186	3186	3186	3186	3186	3186	3186	3186	3186	3186	3186	3186	3186	3186	3186	3186	3186	3186	3186	3186	3186	3186	3186	3186	3186	3216	3246	3246	3277	3277	3277	3309	3309	3277	3277	3277	3277	3277	3277	3277	3277	8343	8343	8343	8343	8343	8343	8146	8146	8146	8146	8343	8343	8343	8550	8343	8550	8550	8343	8343	8343	8343	8550	8550	8550	8343	8343	8343	8343	8343	8343	8146	8146	8343	8343	8343	8343	8343	8550	8550	8550	8550	8550	8550	8550	8550	8343	8343	8343	8343	8343	8343	8550	8550	8550	8550	8550	8550	8343	8343	8343	8343	8146	8343	8343	8146	8146	8146	8146	8146	8146	8146	8146	8146	8146	8343	8343	8146	8146	8146	8343	8146	8146	8146	7959	8146	8146	7959	8146	8146	8146	8146	8146	8146	8146	7959	8146	8146	8146	8146	8146	8146	8146	8343	8146	8146	8146	8146	8146	8146	8146	8343	8343	8146	8146	8146	8146	8146	8146	8146	8146	8146	8146	8146	7959	7959	8146	8146	8146	8146	8146	7959	8146	8146	8146	8146	8146	8146	8146	8146	8146	8146	8146	8146	8146	8146	8146	8146	8146	8146	7959	7959	7959	7959	7959	7959	8146	7959	7959	7959	7959	7959	7959	7779	7779	7959	7959	7959	7959	7959	7959	7959	8146	7959	7959	7959	7959	7959	7959	7959	8146	8146	8146	8146	8146	8146	8146	8146	8146	8146	8146	8146	8146	8343	8146	8146	8343	8343	8343	8343	8343	8343	8343	8343	8343	8343	8343	8343	8343	8343	8343	8343	8343	8343	8343	8343	8343	8343	8343	8343	8343	8146	8146	8146	8146	8146	8146	8146	8146	8343	8343	8343	8146	8146	8146	8343	8343	8343	8343	8343	8343	8343	8343	8146	8146	8146	8146	8146	8146	8146	8146	8146	8146	8146	8146	8146	8343	8343	8343	8343	8343	8343	8343	8550	8343	8343	8343	8550	8343	8343	8343	8550	8343	8343	8343	8343	8343	8343	8343	0	0	0	0	0	0	0	0	0	0	0	0	0	0	0	0	0	0	0	0	0	0	0	0	0	0	0	0	0	0	0	0	0	0	0	0	0	0	0	0	0	0	0	0	0	0	0	0	0	0	0	0	0	0	0	0	0	0
0	0	0	0	0	920	922	925	927	930	932	942	950	950	953	955	958	958	958	961	963	966	974	980	980	980	980	983	983	985	991	991	1006	1008	1011	1014	1017	1020	1023	1033	1036	1039	1039	1042	1045	1052	1055	1058	1061	1061	1064	1068	1068	1074	1074	1074	1078	1078	0	0	0	0	0	0	0	0	0	5448	5364	5282	5282	5282	5282	5282	5282	5282	0	0	5448	5535	5535	5535	5535	5448	5448	0	0	0	0	0	0	0	5815	5815	5815	5915	5915	5915	5915	5915	6018	6018	6124	0	0	0	0	0	0	0	0	0	0	0	0	0	0	0	0	0	0	0	0	0	0	0	0	0	0	0	0	0	0	0	0	0	0	0	0	0	0	0	0	1786	1777	1768	1777	1777	1777	1777	1777	0	0	0	0	0	8146	8146	8146	8146	8146	8343	8343	8343	8146	8343	8343	8343	8343	8343	8343	8343	8343	8146	8146	8146	8146	8146	8146	8146	8146	8146	8146	8146	8146	8146	8146	8146	8343	8343	8343	8146	8146	8146	8146	8146	7959	8146	8146	8146	8146	8343	8146	8146	8146	8146	8146	7959	7959	7959	8146	8146	8146	8146	8146	8146	8343	8343	8343	8146	8146	8146	8146	8146	8146	8146	8146	8146	0	0	0	0	3309	3309	3309	3309	3277	3277	3277	3277	3277	3277	3277	3277	3277	3246	3216	3186	3157	3157	3157	3157	3157	3157	3157	3157	3157	3157	3157	3157	3157	3186	3186	3186	3186	3186	3186	3186	3186	3186	3186	3186	3186	3186	3186	3186	3186	3186	3186	3186	3186	3186	3186	3186	3186	3186	3186	3186	3186	3216	3246	3246	3277	3277	3309	3309	3277	3277	3277	3277	3277	3277	3277	3277	0	8343	8343	8343	8343	8146	8146	8146	8146	8146	8343	8343	8343	8550	8550	8550	8550	8343	8343	8343	8343	8550	8550	8550	8343	8343	8343	8343	8343	8343	8146	8343	8343	8343	8343	8550	8550	8550	8550	8550	8550	8550	8550	8550	8550	8343	8343	8343	8343	8343	8343	8550	8550	8343	8343	8343	8343	8343	8343	8343	8343	8146	8343	8343	8146	8146	8146	8146	8146	8146	8146	8146	8343	8343	8343	8146	8146	8146	8146	8146	8146	8146	7959	7959	7959	7959	7959	7959	8146	8146	8146	8146	8146	8146	7959	8146	8146	8146	8146	8146	8146	8146	8146	8146	8146	8146	8146	8146	8146	8146	8146	8146	8146	8146	8146	8146	8146	7959	7959	8146	8146	7959	7959	7959	7959	8146	8146	8146	8146	8146	8146	8146	8146	8146	8146	8146	8146	8146	8146	8146	8146	8146	8146	8146	8146	8146	8146	7959	7959	7959	7959	7959	7959	7959	7959	7959	7959	7959	7959	7959	7959	7959	7779	7779	7959	7959	7959	7959	7959	7959	7959	8146	7959	7959	7959	7959	7959	7959	7959	8146	8146	8146	8146	8146	8146	8146	8146	8146	8146	8146	8146	8146	8146	8146	8146	8343	8343	8343	8343	8343	8146	8343	8343	8343	8343	8343	8343	8343	8343	8343	8343	8343	8343	8343	8343	8343	8343	8343	8146	8146	8146	8146	8146	8146	8146	8146	8146	8146	8343	8343	8343	8343	8146	8343	8343	8343	8343	8343	8343	8343	8343	8343	8343	8146	8146	8146	8146	8146	8146	8146	8146	8146	8146	8146	8146	8343	8343	8343	8343	8343	8146	8343	8550	8343	8343	8343	8550	8550	8343	8343	8343	8343	8343	8343	8343	8343	8343	8343	8343	0	0	0	0	0	0	0	0	0	0	0	0	0	0	0	0	0	0	0	0	0	0	0	0	0	0	0	0	0	0	0	0	0	0	0	0	0	0	0	0	0	0	0	0	0	0	0	0	0	0	0	0	0	0	0	0	0
0	0	0	0	0	922	922	925	927	930	942	942	945	948	950	953	955	958	958	961	961	963	977	980	980	980	983	983	985	985	991	991	1006	1011	1014	1017	1020	1020	1026	1033	1036	1039	1039	1042	1045	1052	1055	1058	1061	1061	1064	1068	1071	1074	1074	1078	1078	1078	0	0	0	0	0	0	0	0	0	5364	5364	5282	5202	5202	5282	5282	5202	5282	5364	5364	5448	5448	5535	5535	5535	5448	5448	0	0	0	0	0	0	0	5719	5719	5815	5815	5815	5815	5915	5915	5915	5915	6124	0	0	0	0	0	0	0	0	0	0	0	0	0	0	0	0	0	0	0	0	0	0	0	0	0	0	0	0	0	0	0	0	0	0	0	0	0	0	0	0	0	1777	1768	1777	1777	1777	0	0	0	0	0	0	0	7779	7959	8146	8146	8146	8146	8146	8146	8146	8343	8343	8343	8343	8343	8343	8343	8343	8343	8146	8146	8146	8146	8146	8146	8146	8146	8146	8146	8146	8146	8146	8343	8343	8343	8343	8343	8146	8146	8146	8146	8146	8146	8146	8146	8146	8343	8146	8146	8146	8146	8146	8146	8146	8146	8146	8146	8146	8146	8146	8146	8343	8343	8343	8343	8146	8146	8146	8146	8146	8146	8146	8146	0	0	0	0	3277	3277	3309	3309	3277	3277	3277	3277	3277	3277	3277	3277	3277	3246	3246	3186	3157	3157	3186	3157	3186	3157	3157	3157	3157	3157	3157	3157	3157	3186	3186	3186	3186	3186	3186	3186	3186	3186	3186	3186	3186	3186	3186	3186	3186	3186	3186	3157	3186	3186	3186	3186	3186	3186	3186	3186	3216	3246	3246	3277	3277	3277	3309	3277	3277	3277	3277	3277	3277	3277	3309	3309	0	8343	8343	8343	8343	8146	8343	8343	8343	8343	8343	8343	8343	8550	8343	8343	8343	8343	8343	8343	8343	8343	8343	8343	8343	8343	8343	8343	8343	8343	8343	8343	8343	8343	8343	8550	8550	8550	8550	8550	8550	8550	8550	8550	8550	8343	8343	8343	8343	8343	8343	8343	8343	8343	8343	8343	8343	8343	8343	8343	8146	8146	8146	8146	8146	8146	8146	8146	8146	8146	8343	8146	8146	8343	8343	8146	8146	7959	7959	7959	7959	7959	7959	7959	7959	7959	8146	7959	8146	8146	8146	8146	8146	8146	8146	8146	8146	8146	8146	8146	8146	8146	8146	8146	8146	8146	8146	8146	8343	8343	8343	8343	8146	8146	8146	8146	8146	7959	7959	7959	7959	7959	7959	7959	7959	7959	7959	8146	8146	8146	8146	8146	8146	8146	8146	8146	8146	8146	8146	8146	8146	8146	8146	8146	8146	8146	8146	7959	7959	7959	7959	7959	7959	7959	7959	7959	7959	7959	8146	7959	7959	7959	7959	7959	7959	7959	7959	7959	7959	7959	7959	8146	8146	8146	8146	8146	7959	7959	7959	8146	8146	8146	8146	8146	8146	8146	8146	8146	8146	8146	8146	8146	8146	8146	8146	8146	8343	8146	8343	8146	8146	8146	8343	8343	8343	8343	8343	8343	8343	8343	8343	8343	8343	8343	8343	8343	8343	8343	8146	8146	8146	8146	8146	8146	8146	8146	8146	8146	8343	8343	8343	8146	8343	8343	8343	8343	8343	8343	8343	8343	8343	8343	8343	8343	8343	8343	8343	8146	8146	8146	8146	8146	8146	8146	8146	8146	8146	8343	8343	8343	8343	8343	8550	8550	8343	8343	8550	8343	8343	8343	8343	8343	8343	8343	8343	8343	8343	8343	8343	0	0	0	0	0	0	0	0	0	0	0	0	0	0	0	0	0	0	0	0	0	0	0	0	0	0	0	0	0	0	0	0	0	0	0	0	0	0	0	0	0	0	0	0	0	0	0	0	0	0	0	0	0	0	0	0	0
0	0	0	0	0	922	922	925	927	937	942	942	945	948	948	950	955	958	958	961	961	963	977	977	980	980	983	983	985	988	991	991	1006	1011	1014	1017	1017	1020	1023	1030	1033	1039	1039	1042	1045	1048	1055	1058	1061	1061	1064	1068	1071	1074	1074	1074	1078	1078	0	0	0	0	0	0	0	0	0	5202	5202	5125	5125	5282	5282	5282	5282	5282	5364	5364	5448	5448	5448	5448	5448	0	0	0	0	0	0	0	0	0	5719	5815	5815	5815	5815	5915	5915	5915	6018	6018	0	0	0	0	0	0	0	0	0	0	0	0	0	0	0	0	0	0	0	0	0	0	0	0	0	0	0	0	0	0	0	0	0	0	0	0	0	0	0	0	0	0	0	0	0	0	0	0	0	0	0	0	0	0	8146	8146	8146	8146	8146	8146	8146	8146	8146	8343	8343	8343	8343	8343	8343	8343	8343	8146	8343	8343	8343	8343	8146	8343	8343	8146	8146	8146	8146	8146	8343	8343	8550	8343	8343	8343	8343	8146	8146	8146	8146	8146	8146	8146	8146	8146	8146	8146	8146	8146	8146	8146	8146	8146	8146	8146	8146	8146	8146	8146	8146	8146	8343	8146	8146	8146	8146	8146	8146	8146	8146	8146	0	0	0	0	3309	3309	3277	3277	3277	3277	3277	3277	3277	3277	3277	3277	3277	3246	3246	3186	3157	3157	3186	3157	3186	3186	3157	3157	3157	3157	3157	3157	3157	3186	3186	3186	3186	3186	3186	3186	3186	3186	3186	3186	3186	3186	3186	3186	3186	3186	3186	3186	3186	3186	3186	3186	3186	3186	3186	3186	3216	3246	3246	3277	3277	3277	3277	3277	3277	3277	3277	3277	3277	3277	3277	3277	0	8343	8343	8343	8343	8146	8343	8343	8343	8343	8343	8343	8343	8550	8550	8550	8550	8343	8343	8343	8343	8343	8550	8550	8343	8343	8343	8550	8343	8343	8343	8343	8343	8343	8343	8343	8343	8550	8550	8550	8550	8550	8550	8550	8550	8343	8343	8343	8343	8343	8343	8343	8343	8343	8343	8146	8146	8146	8146	8343	8343	8343	8343	8343	8343	8146	8146	8146	8146	8343	8343	8343	8146	8343	8146	8146	7959	7959	7959	7959	7959	7959	7959	7959	7959	7959	7959	7959	7959	7959	8146	7959	8146	7959	7959	7959	8146	8146	8146	8146	8146	8146	8146	8146	8146	8146	8146	8146	8343	8343	8343	8343	8146	8146	8146	8146	8146	8146	8146	8146	7959	7959	7959	7959	7959	8146	8146	8146	8146	8146	8146	8146	8146	8146	8146	8146	8146	8146	8146	8146	8146	8146	8146	8146	8146	8146	8146	8146	8146	7959	7959	7959	7959	7959	7959	7959	7959	7959	8146	7959	7959	7959	7959	7959	7959	7959	7959	7959	8146	8146	8146	8146	8146	8146	8146	8146	7959	7959	7959	8146	8146	8146	8146	8146	8146	8146	8146	8343	8343	8343	8146	8146	8146	8146	8146	8146	8146	8146	8146	8146	8146	8146	8146	8146	8146	8343	8343	8343	8343	8343	8343	8343	8343	8343	8343	8343	8343	8343	8343	8146	8343	8146	8146	8146	8146	8146	8343	8343	8343	8343	8146	8146	8146	8343	8343	8343	8343	8343	8343	8343	8343	8343	8343	8343	8343	8343	8343	8146	8146	8146	8146	8146	8146	8146	8146	8146	8146	8343	8343	8343	8343	8343	8550	8550	8343	8343	8343	8343	8343	8343	8343	8343	8146	8146	8146	8343	8343	8146	8146	0	0	0	0	0	0	0	0	0	0	0	0	0	0	0	0	0	0	0	0	0	0	0	0	0	0	0	0	0	0	0	0	0	0	0	0	0	0	0	0	0	0	0	0	0	0	0	0	0	0	0	0	0	0	0	0	0
0	0	0	0	0	925	925	927	930	930	940	945	945	948	950	950	953	958	958	961	963	969	974	977	980	983	983	985	985	988	991	991	1003	1011	1014	1017	1017	1020	1020	1023	1030	1036	1039	1039	1045	1048	1055	1058	1064	1064	1068	1071	1071	1071	1074	1078	1078	1085	1085	0	0	0	0	0	0	0	0	5202	5202	5125	5202	5282	5282	5282	5202	5282	5282	5282	5364	5364	5448	5448	5448	0	0	0	0	0	0	0	0	0	5815	5815	5815	5815	5815	5915	5915	5915	5915	5915	0	0	0	0	0	0	0	0	0	0	0	0	0	0	0	0	0	0	0	0	0	0	0	0	0	0	0	7287	7137	7287	7287	0	0	0	0	0	0	0	0	0	0	0	0	0	0	0	0	0	0	0	0	0	0	0	8146	8146	8146	8146	8146	8146	8146	8146	8146	8146	8146	8146	8146	8343	8343	8343	8343	8343	8146	8343	8343	8343	8146	8146	8146	8146	8146	8146	8146	8146	8343	8343	8343	8343	8343	8343	8343	8343	8343	8146	8146	8146	8146	8146	8146	8146	8146	8146	8146	8146	8146	7959	8146	8146	8146	8146	8146	8146	8146	8146	8146	8146	8343	8343	8146	8146	8146	8146	8146	8146	8146	8146	0	0	0	0	3246	3277	3277	3277	3277	3277	3277	3277	3277	3277	3277	3277	3277	3246	3216	3186	3157	3157	3157	3157	3186	3157	3157	3157	3157	3157	3157	3157	3157	3186	3186	3186	3186	3186	3186	3186	3186	3186	3186	3186	3186	3186	3186	3186	3186	3186	3186	3186	3186	3186	3186	3186	3186	3186	3186	3186	3186	3216	3246	3246	3277	3277	3277	3277	3277	3277	3277	3277	3277	3309	3309	3309	0	8550	8343	8343	8343	8343	8343	8343	8343	8343	8343	8343	8343	8550	8343	8343	8343	8343	8343	8343	8343	8343	8343	8343	8343	8343	8343	8343	8343	8343	8343	8343	8343	8343	8343	8343	8343	8550	8343	8550	8550	8343	8146	8146	8343	8343	8343	8343	8343	8343	8343	8343	8343	8343	8146	8146	8146	8146	8343	8343	8343	8146	8343	8146	8146	8146	8146	8146	8146	8343	8343	8343	8146	8146	8146	8146	7959	7959	7959	7959	7959	7959	7959	7959	7959	7959	8146	7959	8146	8146	8146	7959	7959	8146	8146	8343	8343	8146	8146	8146	8146	8146	8146	8146	8146	8146	8146	8146	8343	8343	8343	8343	8146	8146	8146	8146	8146	8146	8146	8146	8146	8146	8146	8146	8146	8146	8146	8146	8146	8146	8146	8146	8146	8146	8146	8146	7959	7959	8146	7959	8146	8146	8146	8146	8146	8146	8146	8146	8146	8146	7959	7959	7959	7959	7959	7959	7959	7959	7959	7959	7959	7959	7959	7779	7779	7779	7779	7959	8146	8146	8146	8146	8146	8146	8146	8146	7959	7959	7959	8146	8146	8146	8146	8146	8146	8146	8146	8343	8343	8343	8146	8146	8146	8146	8146	8146	8146	8146	8146	7959	7959	8146	8146	8146	8146	8343	8343	8343	8146	8146	8343	8343	8343	8146	8146	8343	8343	8343	8146	8146	8343	8146	8146	8146	8146	8343	8343	8146	8146	8146	8146	8146	8146	8343	8343	8343	8343	8343	8343	8343	8343	8343	8343	8343	8343	8343	8343	8343	8343	8146	8343	8146	8146	8146	8146	8146	8146	8343	8343	8343	8343	8343	8343	8550	8550	8343	8550	8343	8343	8146	8146	8146	8146	8146	8146	8146	8146	8146	8146	0	0	0	0	0	0	0	0	0	0	0	0	0	0	0	0	0	0	0	0	0	0	0	0	0	0	0	0	0	0	0	0	0	0	0	0	0	0	0	0	0	0	0	0	0	0	0	0	0	0	0	0	0	0	0	0	0
0	0	0	0	0	925	927	927	930	930	940	942	945	948	950	953	955	958	961	961	963	969	974	977	980	983	983	985	988	991	991	991	1006	1011	1014	1017	1017	1020	1020	1026	1033	1039	1039	1042	1045	1048	1052	1055	1061	1064	1064	1068	1071	1071	1074	1078	1078	1078	1085	0	0	0	0	0	0	0	0	5202	5202	5202	5202	5202	5202	5202	5202	5202	5282	5364	5448	5448	5448	0	0	0	0	0	0	0	0	0	0	0	5815	5815	5815	5815	5815	5815	5915	5915	5915	5915	0	0	0	0	0	0	0	0	0	0	0	0	0	0	0	0	0	0	0	0	0	0	0	0	0	0	0	7287	7287	7287	7287	7287	0	0	0	0	0	0	0	0	0	0	0	0	0	0	0	0	0	0	0	0	0	8146	8146	8146	8146	8146	8146	8146	8146	8146	8146	8146	8146	8146	8146	8343	8343	8343	8343	8343	8146	8146	8146	8146	8146	8146	8146	8146	8146	8146	8146	8146	8146	8343	8343	8343	8343	8343	8343	8343	8343	8146	8146	8146	8146	8146	8146	8146	7959	8146	8146	8146	8146	8146	8146	8146	8146	8146	8146	8146	8146	8146	7959	8343	8146	8146	8343	8343	8146	8146	8146	8146	8146	8146	0	0	0	3277	3309	3309	3277	3277	3277	3277	3277	3277	3277	3277	3277	3277	3246	3246	3246	3216	3157	3157	3157	3157	3157	3157	3157	3157	3157	3157	3157	3157	3157	3186	3186	3186	3186	3186	3186	3186	3186	3186	3186	3186	3186	3186	3186	3186	3186	3186	3186	3186	3186	3186	3186	3186	3186	3186	3186	3186	3186	3186	3246	3277	3277	3277	3277	3277	3277	3277	3277	3277	3309	3309	3309	3309	3309	8550	8343	8343	8343	8343	8343	8343	8343	8343	8343	8343	8343	8550	8343	8343	8343	8343	8343	8343	8343	8343	8343	8343	8343	8343	8343	8343	8343	8343	8343	8343	8343	8343	8343	8343	8343	8343	8343	8343	8343	8146	8146	8146	8146	8343	8343	8343	8343	8343	8343	8343	8343	8146	8146	8146	8146	8146	8146	8343	8343	8343	8343	8146	8146	8343	8146	8146	8146	8343	8343	8343	8146	8146	8146	8146	7959	7959	7959	7959	7959	7959	7959	7959	7959	7959	7959	7959	7959	7959	8146	8146	7959	8146	8146	8343	8343	8146	8343	8146	8146	8146	8146	8146	8146	8146	8146	8146	8343	8343	8343	8343	8343	8343	8343	8343	8146	8146	8146	8146	8146	8146	8146	8146	8146	8146	8146	8146	8146	8146	8146	8146	8146	8146	8146	8146	7959	7959	8146	7959	8146	8146	8146	8146	8146	8146	8146	8146	8146	8146	8146	8146	8146	8146	8146	7959	7959	7959	7959	7959	7959	7959	7959	7959	7779	7959	7959	7959	8146	7959	8146	8146	8146	8146	8146	8146	7959	7959	7959	8146	8146	8146	8146	8146	8146	8146	8146	8343	8343	8343	8146	8146	7959	7959	8146	8146	8146	8146	8146	7959	7959	8146	8146	8146	8146	8146	8146	8343	8146	8146	8343	8343	8343	8146	8146	8343	8146	8146	8146	8146	8146	8146	8146	8146	8146	8146	8343	8343	8343	8343	8343	8343	8343	8343	8343	8343	8343	8343	8343	8343	8343	8343	8343	8146	8146	8343	8146	8146	8146	8146	8146	8146	8146	8146	8146	8146	8146	8343	8343	8343	8343	8343	8550	8550	8550	8343	8550	8343	8343	8146	8146	8146	8146	8146	8146	8146	8146	8146	8146	0	0	0	0	0	0	0	0	0	0	0	0	0	0	0	0	0	0	0	0	0	0	0	0	0	0	0	0	0	0	0	0	0	0	0	0	0	0	0	0	0	0	0	0	0	0	0	0	0	0	0	0	0	0	0	0	0
0	0	0	0	0	925	925	930	930	937	940	940	945	945	948	953	955	958	961	961	963	969	974	977	983	985	985	988	988	991	991	991	997	1011	1014	1014	1017	1020	1020	1023	1033	1039	1039	1042	1045	1048	1048	1055	1061	1061	1064	1068	1071	1071	1071	1071	1071	1074	0	0	0	0	0	0	0	0	0	5202	5202	5202	5202	5202	5202	5202	5202	5202	5282	5364	5364	5448	5448	0	0	0	0	0	0	0	0	0	0	5719	5815	5815	5815	5815	5815	5815	5815	5915	5815	5815	5815	0	0	0	0	0	0	0	0	0	0	0	0	0	0	0	0	0	0	0	0	0	0	0	0	0	0	7137	7137	7137	7287	7287	7444	7444	0	0	0	0	0	0	0	0	0	0	0	0	0	0	0	0	0	0	8343	8343	8343	8343	8343	8343	8146	8146	8146	8146	8146	8146	8146	8146	8146	8146	8146	8343	8343	8343	8343	8343	8343	8343	8146	8146	8146	8146	8146	8146	8146	8146	8146	8146	8343	8343	8343	8343	8343	8343	8146	8146	8146	8146	8146	8146	8146	8146	8146	8146	8146	8146	8146	8146	8146	8146	8146	8146	8146	8146	8146	8146	8146	8343	8146	8146	8343	8146	8146	8146	8146	8146	8343	8343	0	0	0	3277	3309	3309	3277	3277	3277	3277	3277	3277	3277	3277	3277	3277	3246	3246	3216	3216	3186	3157	3157	3157	3157	3157	3157	3157	3157	3157	3186	3186	3186	3186	3186	3186	3186	3186	3186	3186	3186	3186	3186	3186	3186	3186	3186	3186	3186	3186	3186	3186	3186	3186	3186	3186	3157	3157	3186	3186	3186	3216	3216	3246	3277	3277	3277	3277	3277	3277	3277	3277	3277	3309	3309	3277	3277	0	8343	8343	8343	8343	8343	8343	8343	8343	8343	8343	8343	8550	8343	8343	8343	8343	8343	8343	8343	8343	8343	8343	8146	8343	8343	8343	8343	8343	8343	8343	8343	8343	8343	8343	8343	8343	8343	8343	8343	8146	8146	8146	8343	8343	8343	8343	8343	8343	8343	8343	8343	8146	8146	8146	8146	8146	8146	8343	8343	8343	8343	8343	8343	8343	8343	8343	8343	8343	8343	8146	8146	8146	8146	8146	8146	8146	7959	7959	7959	7959	7959	7959	7959	7959	8146	8146	8146	7959	8146	8146	7959	8146	8146	8343	8343	8343	8343	8146	8146	8146	8146	8146	8146	8146	8146	8343	8343	8343	8343	8343	8146	8146	8146	8146	8146	8146	8146	8146	8146	8146	8146	8146	8146	8146	8146	8146	8146	8146	8146	8146	8146	8146	7959	7959	7959	7959	7959	7959	7959	7959	7959	7959	8146	8146	8146	8146	8146	8146	8146	8146	8146	8146	8146	7959	7959	7959	7959	7959	7959	7959	7959	7959	7959	7959	8146	8146	8146	7959	7959	8146	7959	7959	7959	7959	7959	7959	7959	8146	8146	8146	8146	8146	8146	8146	8146	8146	8343	8343	7959	7959	7959	7959	7959	8146	7959	7959	7959	7959	7959	7959	7959	8146	8146	8146	8146	8146	8146	8146	8146	8343	8146	8146	8146	8146	8146	8146	8146	8146	8146	8146	8146	8146	8146	8146	8146	8343	8343	8343	8343	8343	8343	8343	8343	8343	8343	8343	8343	8343	8343	8343	8343	8343	8146	8343	8343	8343	8343	8343	8146	8343	8146	8146	8146	8146	8146	8146	8343	8343	8343	8343	8550	8550	8343	8343	8343	8146	8146	8146	8146	8146	8146	8146	8146	8146	8146	8146	8146	0	0	0	0	0	0	0	0	0	0	0	0	0	0	0	0	0	0	0	0	0	0	0	0	0	0	0	0	0	0	0	0	0	0	0	0	0	0	0	0	0	0	0	0	0	0	0	0	0	0	0	0	0	0	0	0	0
0	0	0	0	0	0	932	937	937	940	940	942	942	945	948	950	955	958	961	961	963	969	974	977	983	985	985	988	988	991	991	991	997	1008	1014	1014	1017	1017	1020	1026	1036	1039	1042	1045	1045	1045	1048	1055	1055	1061	1064	1068	1071	1071	1078	1074	1078	1078	0	0	0	0	0	0	0	0	0	5202	5202	5202	5202	5202	5202	5202	5202	5202	5282	5364	5364	5364	5364	0	0	0	0	0	0	0	0	0	0	5719	5815	5815	5815	5815	5815	5815	5815	5815	5815	5815	5815	0	0	0	0	0	0	0	0	0	0	0	0	0	0	0	0	0	0	0	0	0	0	0	0	6853	6992	7137	7137	7137	7137	7287	7444	7444	7444	0	0	0	0	0	0	0	0	0	0	0	0	0	0	0	0	8343	8343	8146	8343	8343	8343	8343	8343	8343	8146	8146	8146	8146	8146	8146	8146	8146	8146	8343	8343	8343	8343	8343	8343	8343	8146	8146	8146	8146	8146	8146	8146	8146	8146	8146	8343	8343	8343	8343	8146	8146	8146	8146	7959	7959	7959	8146	8146	8146	8146	8146	8146	8146	8146	8146	8146	8146	8146	8146	8146	8146	8146	8146	8146	8146	8146	8146	8146	8146	8146	8146	8146	8343	8343	8343	0	0	0	3277	3309	3309	3277	3277	3277	3277	3277	3277	3277	3277	3277	3246	3246	3246	3216	3216	3157	3157	3157	3157	3186	3186	3186	3186	3186	3157	3186	3186	3186	3186	3186	3186	3186	3186	3186	3157	3186	3186	3186	3186	3186	3186	3186	3186	3186	3186	3186	3186	3186	3186	3186	3186	3157	3157	3157	3186	3186	3186	3216	3246	3277	3277	3277	3277	3277	3277	3277	3277	3277	3277	3277	3277	3277	0	8550	8550	8343	8343	8343	8343	8343	8343	8343	8343	8343	8550	8343	8343	8343	8343	8343	8343	8343	8343	8343	8343	8146	8343	8343	8550	8550	8550	8343	8343	8343	8343	8343	8343	8343	8343	8343	8343	8343	8343	8146	8343	8343	8343	8343	8343	8343	8343	8343	8343	8146	8146	8146	8146	8146	8146	8146	8343	8343	8343	8343	8343	8343	8343	8343	8343	8343	8343	8343	8343	8343	8146	8146	8146	7959	7959	7959	7959	7959	7959	7959	7959	7959	7959	8146	7959	8146	8146	8146	8146	7959	8146	8146	8343	8343	8343	8343	8146	8146	8146	8146	8146	8146	8146	8146	8146	8146	8146	8343	8146	8146	8146	8146	8146	8146	8146	8146	8146	8146	8146	8146	8146	8146	8146	8146	8146	8146	8146	8146	8146	8146	8146	7959	8146	7959	7959	7959	7959	7959	8146	8146	7959	8146	8146	8146	8146	8146	8146	8146	8146	8146	8146	8146	7959	7959	7959	7959	7959	7959	7959	7959	7959	7959	7959	8146	8146	8146	7959	7959	7959	7959	7959	7959	7959	7959	7959	7959	8146	8146	8146	8146	8343	8146	8146	8146	8146	8146	8343	7959	7959	7959	7959	7959	7959	7959	7959	8146	8146	8146	8146	8146	8146	8146	8146	8146	8146	8146	8146	8146	8146	8146	8146	8146	8146	8146	8343	8343	8343	8343	8343	8146	8146	8146	8146	8146	8343	8343	8343	8343	8343	8343	8343	8343	8343	8343	8343	8343	8343	8343	8343	8343	8146	8146	8343	8146	8343	8343	8343	8343	8343	8343	8146	8146	8146	8146	8146	8343	8343	8343	8343	8550	8550	8343	8343	8146	8146	7959	7959	7959	8146	8146	8146	8146	8146	8146	8146	8146	0	0	0	0	0	0	0	0	0	0	0	0	0	0	0	0	0	0	0	0	0	0	0	0	0	0	0	0	0	0	0	0	0	0	0	0	0	0	0	0	0	0	0	0	0	0	0	0	0	0	0	0	0	0	0	0	0
0	0	0	0	0	0	935	937	937	940	940	942	942	945	948	950	953	958	961	961	966	972	974	977	983	985	985	988	991	991	991	997	1003	1006	1011	1011	1011	1014	1014	1014	1039	1039	1039	1042	1045	1048	1048	1055	1064	1064	1064	1068	1071	1071	1071	1071	1071	1078	0	0	0	0	0	0	0	0	5125	5202	5202	5202	5202	5202	5202	5202	5202	5202	5282	5282	5364	5364	5364	0	0	0	0	0	0	0	0	0	0	0	5815	5815	5815	5815	5815	5815	5815	5815	5815	5815	5815	5815	0	0	0	0	0	0	0	0	0	0	6468	6468	6468	0	0	0	0	0	0	0	0	0	6853	6853	6853	6853	6992	7137	7137	7287	7444	7444	7444	7608	7608	7608	0	0	0	0	0	7444	7444	7444	0	0	0	0	0	8146	8146	8146	8146	8343	8343	8343	8343	8146	8146	8146	8146	8146	8146	8146	8146	8146	8146	8343	8343	8343	8343	8343	8343	8146	8146	8146	8146	8146	8146	8146	8146	8146	8343	8146	8343	8343	8146	8343	8146	8146	8146	8146	8146	8146	8146	8146	8146	8146	8146	8146	8146	8146	8146	8146	8146	8146	8146	8146	8146	8146	8146	8146	8146	8146	8146	8146	8146	8146	7959	8146	8146	8343	8343	0	0	0	3246	3246	3309	3277	3277	3277	3277	3277	3277	3277	3277	3277	3277	3246	3246	3216	3216	3216	3157	3157	3157	3157	3157	3157	3157	3186	3186	3186	3186	3186	3186	3157	3186	3157	3186	3157	3157	3157	3157	3157	3157	3157	3157	3157	3186	3186	3186	3186	3186	3186	3186	3186	3186	3186	3186	3157	3186	3186	3186	3186	3216	3216	3246	3246	3277	3246	3277	3277	3277	3277	3277	3277	3277	3277	3277	0	8550	8343	8343	8343	8343	8343	8343	8343	8343	8343	8343	8550	8343	8343	8343	8343	8343	8343	8146	8343	8343	8343	8343	8343	8343	8343	8550	8550	8343	8343	8343	8343	8343	8343	8343	8343	8550	8343	8343	8343	8146	8343	8343	8343	8343	8343	8343	8343	8343	8343	8343	8343	8343	8343	8343	8146	8146	8343	8343	8343	8146	8343	8343	8343	8343	8343	8343	8343	8343	8146	8146	8146	8146	8146	7959	8146	8146	7959	7959	7959	7959	7959	7959	7959	8146	8146	8146	8146	8146	8146	8146	8146	8146	8343	8343	8343	8146	8146	8146	8146	8146	8146	8146	8146	8146	8146	8146	8146	8146	8146	8146	8146	8146	8146	8146	8146	8146	8146	8146	8146	8146	8146	8146	8146	8146	8146	8146	8146	8146	8146	8146	7959	7959	7959	7959	7959	7959	7959	7959	7959	7959	7959	7959	7959	8146	8146	8146	8146	8146	8146	8146	8146	8146	7959	7959	7959	7959	7959	8146	8146	8146	8146	7959	7959	7959	7959	7959	7959	7959	7959	7959	7959	8146	7959	7959	7959	8146	8343	8146	8343	8343	8343	8343	8146	8146	8146	8146	8343	8146	7959	7959	7959	7959	7959	7959	7959	7959	8146	8146	7959	8146	8146	8146	8146	8146	8146	8146	8146	8146	8146	8146	8146	8146	8343	8343	8343	8343	8343	8343	8343	8146	8146	8146	8146	8146	8343	8343	8343	8343	8343	8343	8343	8343	8343	8343	8343	8343	8343	8343	8343	8343	8343	8146	8343	8146	8343	8146	8146	8343	8343	8343	8146	8146	8146	8146	8146	8343	8343	8343	8343	8550	8550	8343	8343	8146	8146	7959	7959	7959	8146	7959	8146	8146	8146	8146	8146	0	0	0	0	0	0	0	0	0	0	0	0	0	0	0	0	0	0	0	0	0	0	0	0	0	0	0	0	0	0	0	0	0	0	0	0	0	0	0	0	0	0	0	0	0	0	0	0	0	0	0	0	0	0	0	0	0	0
0	0	0	0	0	0	937	940	940	940	942	942	945	945	948	948	955	958	958	961	966	972	974	977	980	985	985	988	991	991	997	1000	1003	1006	1006	1006	1011	1014	1017	1017	1039	1039	1042	1048	1048	1048	1048	1058	1064	1064	1068	1068	1071	1071	1074	1071	1071	0	0	0	0	0	0	0	0	0	5125	5202	5202	5202	5202	5202	5202	5202	5202	5282	5364	5364	5364	5364	5364	5364	0	0	0	0	0	0	0	0	0	0	5915	5915	5915	5915	5815	5915	5915	5915	5815	5719	5719	5815	0	0	0	0	0	0	6349	6349	6468	6468	6468	6468	6468	6468	6468	6468	0	0	0	6720	6720	6853	6853	6853	6853	6853	6992	6992	7137	7287	7287	7287	7287	7444	7444	7444	7608	7608	7608	7608	7608	7608	7444	7608	7608	0	7959	7959	8146	8343	8343	8343	8343	8343	8343	8343	8343	8343	8146	8146	8146	8146	8146	8146	8146	8146	8146	8343	8343	8146	8146	8146	8343	8146	8146	8146	8146	8146	8146	8146	8146	8146	8343	8146	8146	8146	8146	8146	8146	7959	8146	8146	7959	8146	7959	8146	8146	8146	8146	8146	8146	8146	8146	8146	8146	8146	8146	8146	8146	8146	8146	8146	8146	8146	8146	8146	8146	8146	8146	8146	8146	8343	8343	0	0	3309	3277	3277	3277	3277	3277	3277	3277	3277	3277	3277	3277	3277	3246	3246	3216	3216	3186	3186	3157	3157	3186	3157	3157	3186	3157	3186	3186	3186	3186	3186	3157	3157	3157	3157	3157	3157	3157	3157	3157	3157	3157	3186	3186	3186	3186	3186	3186	3186	3186	3186	3186	3186	3186	3186	3186	3186	3186	3186	3186	3186	3186	3186	3246	3246	3277	3277	3277	3277	3277	3277	3277	3277	3277	3277	3277	0	8550	8343	8343	8343	8343	8343	8343	8343	8343	8343	8343	8550	8343	8343	8343	8550	8343	8343	8146	8343	8343	8343	8343	8343	8343	8343	8550	8343	8343	8343	8343	8343	8343	8343	8343	8343	8343	8343	8343	8343	8146	8343	8343	8343	8343	8343	8343	8343	8343	8343	8343	8343	8343	8343	8343	8343	8343	8343	8343	8146	8343	8343	8343	8343	8343	8343	8343	8343	8343	8146	8146	8146	8146	8146	8146	8343	8146	8146	8146	7959	8146	8146	8146	8146	8146	8146	8146	8146	8146	8146	8146	7959	8146	8343	8343	8343	8146	8146	8146	8146	8146	8146	8146	8146	8146	8146	8146	8146	8146	8146	8146	8343	8343	8343	8146	8146	8146	8146	8146	8146	8146	8146	8146	8146	8146	8146	8146	8146	8146	8146	8146	8146	8146	8146	8146	7959	7959	7959	7959	7959	7959	7959	7959	7959	8146	8146	7959	8146	8146	8146	7959	7959	7959	7959	7959	7959	7959	7959	8146	7959	7959	7959	7959	7959	7959	7959	7959	7959	7959	7959	7959	7959	7959	7959	7959	7959	8146	8146	8146	8146	8146	8343	8146	8146	8146	8146	8146	8146	8146	7959	7959	7959	7959	7959	7959	7959	7959	7959	7959	7959	8146	8146	8146	8146	8146	8146	8146	8146	8146	8146	8146	8146	8146	8146	8146	8343	8343	8343	8343	8343	8146	8146	8146	7959	7959	7959	8343	8343	8343	8343	8343	8343	8343	8343	8343	8343	8343	8343	8343	8343	8343	8343	8146	8343	8146	8146	8146	8343	8343	8343	8343	8146	8343	8343	8146	8343	8343	8343	8343	8343	8550	8343	8343	8343	8146	8146	7959	8146	8146	8146	8146	8146	8343	8343	8343	0	0	0	0	0	0	0	0	0	0	0	0	0	0	0	0	0	0	0	0	0	0	0	0	0	0	0	0	0	0	0	0	0	0	0	0	0	0	0	0	0	0	0	0	0	0	0	0	0	0	0	0	0	0	0	0	0	0	0
0	0	0	0	0	0	937	937	940	940	942	942	945	948	948	948	955	955	958	961	966	966	972	974	980	980	983	988	991	994	994	1000	1003	1006	1006	1008	1011	1011	1017	1033	1039	1039	1042	1045	1048	1048	1052	1055	1058	1061	1068	1068	1071	1074	1074	1074	1071	1071	0	0	0	0	0	0	0	0	5125	5202	5202	5202	5202	5202	5202	5202	5282	5282	5448	5448	5364	5364	5364	5364	0	0	0	0	0	0	0	0	0	0	5915	5915	5915	5915	5915	5815	5815	5815	5815	5815	5815	5815	0	0	0	0	0	0	6468	6349	6468	6468	6468	6468	6468	6468	6349	6349	6468	6468	6468	6592	6592	6720	6720	6720	6720	6853	6853	6853	7137	7287	7287	7287	7287	7444	7444	7444	7608	7444	7608	7444	7444	7444	7444	7444	7608	7608	7959	7959	8146	8146	8343	8343	8343	8343	8343	8343	8343	8343	8343	8146	8146	8146	8146	8146	8146	8146	8146	8146	8146	8146	8146	8146	8343	8146	8146	8146	8146	8146	8146	8146	8146	8146	8146	8146	8146	8146	8146	8146	8146	7959	7959	8146	8146	7959	7959	7959	7959	8146	8146	8146	8146	8146	8146	8146	8146	8146	8146	8146	8146	8146	8146	8146	8146	8146	8146	8146	8146	8146	8146	8146	8146	8343	8767	8767	0	3309	3277	3277	3277	3277	3277	3277	3277	3277	3277	3277	3246	3246	3246	3216	3216	3216	3186	3186	3186	3157	3157	3157	3157	3157	3157	3186	3186	3157	3157	3157	3157	3157	3157	3157	3157	3157	3157	3157	3157	3157	3157	3186	3186	3157	3157	3186	3186	3186	3186	3186	3186	3186	3186	3186	3186	3157	3157	3186	3186	3186	3186	3186	3216	3246	3246	3277	3277	3277	3277	3277	3277	3277	3277	3277	3277	0	8550	8550	8343	8343	8343	8343	8343	8343	8343	8343	8343	8146	8146	8343	8343	8343	8550	8343	8343	8343	8550	8343	8343	8550	8343	8343	8343	8343	8343	8343	8343	8343	8343	8343	8146	8343	8550	8343	8343	8343	8343	8343	8343	8343	8343	8343	8343	8343	8343	8343	8343	8343	8343	8343	8343	8343	8343	8343	8343	8146	8343	8343	8343	8343	8343	8343	8146	8343	8146	8146	8146	8146	8146	8343	8146	8343	8146	8146	8146	8146	8146	8146	8146	8146	8146	8146	8146	8146	8146	7959	7959	7959	7959	8343	8343	8343	8146	8146	8146	8146	8146	8146	8146	8146	8146	8146	8146	8146	8146	8146	8146	8343	8343	8343	8146	8146	8343	8146	8146	8146	8146	8146	8146	8146	8146	8146	8146	7959	7959	8146	8146	7959	8146	8146	7959	7959	7959	7959	7959	7959	8146	7959	8146	8146	8146	8146	7959	8146	8146	8146	7959	7959	8146	7959	7959	7959	7959	7959	7959	7959	7959	7959	7959	7959	7959	7959	7959	7959	7959	7959	7959	7959	7959	7959	7959	7959	8146	8146	8146	8146	8343	8343	8146	8146	8146	8146	8146	8146	8146	7959	7959	7959	7959	7959	7959	7959	7959	8146	7959	8146	8146	8146	8146	8146	8146	8146	8146	8146	8146	8146	8146	8146	8146	8343	8146	8343	8343	8343	8343	8146	8146	8146	7959	7959	7959	7959	7959	8146	8146	8146	8343	8343	8343	8343	8146	8343	8343	8343	8343	8343	8343	8343	8146	8146	8146	8146	8146	8343	8343	8146	8343	8146	8343	8343	8343	8343	8343	8343	8343	8343	8550	8343	8343	8343	8146	8146	8146	8146	8146	8146	7959	8146	8146	8343	8343	0	0	0	0	0	0	0	0	0	0	0	0	0	0	0	0	0	0	0	0	0	0	0	0	0	0	0	0	0	0	0	0	0	0	0	0	0	0	0	0	0	0	0	0	0	0	0	0	0	0	0	0	0	0	0	0	0	0	0
0	0	0	0	0	0	935	937	937	940	942	940	942	945	945	948	950	958	961	961	966	969	972	977	977	980	983	988	991	994	997	1003	1006	1006	1008	1008	1011	1011	1026	1033	1039	1039	1042	1045	1045	1048	1052	1055	1058	1058	1064	1068	1071	1071	1074	1071	1071	1071	0	0	0	0	0	0	0	0	0	5202	5202	5202	5202	5282	5202	5282	5282	5364	5448	5448	5448	5448	5448	5448	0	0	0	0	0	0	0	0	0	0	5915	5915	5915	5915	5915	5815	5815	5815	5815	5815	5815	5815	0	0	0	0	0	6349	6349	6349	6349	6349	6349	6349	6349	6468	6349	6468	6468	6468	6468	6592	6592	6592	6592	6720	6592	6720	6853	6853	7137	7287	7287	7287	7287	7444	7444	7444	7608	7444	7444	7444	7608	7444	7444	7608	7608	7779	7959	7959	8146	8146	8343	8343	8343	8343	8343	8343	8343	8343	8343	8343	8146	8146	8146	8146	8146	8146	8146	8146	8146	8146	8146	8146	8343	8146	8146	8146	8146	8146	8146	8146	8146	8146	8146	8146	8146	8146	8146	8146	8146	7959	7959	8146	8146	7959	7959	7959	7959	8146	8146	8146	8146	8146	8146	8146	8146	8146	8146	8146	8146	8146	8146	8146	8146	8146	8146	8146	8146	8146	8146	8146	8146	8343	8343	8767	0	3309	3277	3277	3309	3277	3277	3277	3277	3277	3277	3277	3277	3277	3246	3216	3216	3186	3186	3186	3186	3157	3157	3157	3157	3157	3157	3157	3157	3157	3157	3157	3157	3157	3157	3157	3157	3157	3157	3157	3157	3157	3157	3186	3157	3157	3157	3157	3186	3186	3186	3186	3186	3186	3186	3186	3186	3186	3186	3186	3186	3186	3216	3216	3216	3246	3246	3277	3277	3246	3277	3277	3277	3277	3277	3277	3277	0	8550	8550	8343	8343	8343	8343	8343	8343	8343	8343	8343	8146	8343	8343	8343	8550	8550	8343	8343	8550	8550	8343	8550	8550	8343	8343	8343	8343	8343	8343	8343	8343	8343	8343	8343	8343	8550	8550	8343	8343	8343	8343	8343	8343	8343	8146	8146	8343	8343	8343	8343	8343	8550	8550	8343	8343	8343	8343	8343	8146	8146	8146	8343	8343	8343	8146	8146	8343	8146	8146	8343	8146	8343	8343	8146	8343	8146	8146	8146	8146	8146	8146	8146	8146	8146	8146	8146	8146	8146	7959	8146	7959	7959	8146	8343	8146	8146	8146	8146	8146	8146	8146	8146	8146	8146	8146	8146	8146	8146	8146	8146	8343	8146	8343	8146	8146	8146	8146	8146	8146	8146	8146	8146	8146	8146	8146	8146	7959	7959	8146	8146	7959	7959	8146	8146	8146	8146	7959	7959	7959	7959	7959	7959	8146	7959	7959	7959	8146	7959	8146	7959	7959	7959	7959	7959	7959	7959	7959	7959	7959	7959	7959	7959	7959	7959	7959	7959	7959	7959	7959	7959	7959	7959	7959	7959	7959	8146	8146	8146	8146	8146	8343	8146	8146	8146	8146	8146	8146	8146	8146	8146	7959	8146	8146	7959	8146	8146	8146	8146	8146	8146	8146	8146	8146	8146	8146	8146	8146	8146	8146	8146	8343	8146	8343	8343	8343	8343	8343	8343	8343	8146	8146	8146	8146	7959	7959	8146	8146	8343	8343	8343	8343	8146	8146	8146	8343	8343	8343	8343	8146	8146	8146	8146	8146	7959	8146	8146	8146	8146	8146	8343	8146	8146	8343	8146	8343	8343	8146	8343	8343	8550	8343	8343	8343	8343	8146	8146	8146	8146	8146	8146	8146	8343	8343	8343	0	0	0	0	0	0	0	0	0	0	0	0	0	0	0	0	0	0	0	0	0	0	0	0	0	0	0	0	0	0	0	0	0	0	0	0	0	0	0	0	0	0	0	0	0	0	0	0	0	0	0	0	0	0	0	0	0	0	0
0	0	0	0	0	0	930	930	935	937	937	940	942	945	948	948	953	958	961	961	963	969	972	972	977	980	983	985	985	991	997	1000	1006	1006	1006	1008	1014	1023	1026	1033	1039	1036	1039	1042	1045	1045	1052	1055	1061	1064	1068	1068	1071	1071	1071	1071	1071	1071	0	0	0	0	0	0	0	0	0	5202	5202	5202	5202	5282	5282	5364	5364	5448	5448	5448	5448	5448	5448	5448	5448	0	0	0	0	0	0	0	0	0	5915	5915	5915	5915	5915	5815	5815	5815	5815	5815	5815	5815	0	0	5915	6018	6018	6349	6349	6349	6349	6349	6349	6349	6468	6468	6468	6468	6592	6592	6592	6592	6592	6720	6720	6720	6720	6853	6853	6853	6853	7137	7287	7287	7287	7444	7444	7444	7444	7444	7444	7444	7444	7608	7608	7608	7779	7779	7959	7959	8146	8146	8343	8146	8343	8343	8343	8343	8343	8343	8343	8343	8343	8146	8146	8343	8146	8146	8146	8146	8146	8146	8146	8146	8146	8146	8146	8146	8146	8146	8146	8146	8146	8146	8146	8146	8146	8146	8146	8146	8146	7959	7959	7959	7959	7959	7959	7959	7959	8146	7959	7959	8146	8146	8146	8146	8146	8146	8146	8146	8146	8146	8146	8146	8146	8146	8146	8146	8146	8146	8146	8146	8146	8146	8146	0	0	3341	3309	3277	3277	3277	3277	3277	3277	3277	3277	3277	3277	3277	3277	3216	3216	3216	3186	3186	3186	3157	3157	3157	3157	3157	3157	3157	3157	3157	3157	3157	3157	3157	3157	3157	3157	3157	3157	3157	3157	3157	3157	3157	3186	3186	3186	3186	3186	3186	3186	3157	3186	3186	3186	3186	3186	3186	3186	3186	3186	3186	3186	3186	3216	3216	3246	3277	3277	3246	3277	3277	3277	3277	3277	3246	3246	0	8343	8343	8343	8343	8343	8343	8343	8343	8343	8343	8343	8146	8343	8343	8343	8343	8550	8550	8550	8550	8550	8343	8343	8343	8343	8343	8343	8343	8343	8343	8343	8343	8343	8343	8146	8343	8343	8343	8343	8343	8343	8343	8343	8343	8146	8146	8146	8343	8343	8343	8343	8343	8550	8550	8343	8343	8343	8343	8343	8146	8146	8146	8343	8146	8146	8146	8146	8146	8146	8146	8146	8146	8343	8343	8343	8343	8146	8146	8146	8146	8146	8146	8146	8146	8146	8146	8146	8146	7959	7959	7959	7959	7959	8146	8146	8146	8146	8146	8146	8146	8146	8146	8146	8146	8146	8146	8146	8146	8146	8146	8146	8343	8146	8146	8146	8146	8146	8146	8146	8146	8146	8146	8146	8146	8146	7959	7959	7959	7959	7959	7959	7959	8146	8146	8146	8146	8146	8146	8146	7959	8146	7959	8146	8146	8146	8146	7959	8146	7959	7959	7959	7959	7959	7959	7959	7959	7959	7959	7959	7959	7959	7959	7959	7959	7959	7959	7959	7959	7779	7779	7959	7959	7959	7959	7959	7959	8146	8146	8146	8146	8343	8343	8343	8146	8146	8146	8146	8146	8146	8146	8146	7959	8146	8146	8146	8343	8146	8146	8146	8146	8146	8146	8146	8146	8146	8146	8146	8146	8146	8146	8343	8343	8146	8343	8343	8343	8343	8343	8343	8343	8146	8146	8146	8146	8146	8146	8146	8146	8343	8146	8146	8146	8146	8146	8146	8146	8146	8146	8146	8146	8146	8146	8146	8146	7959	7959	8146	8146	8146	8146	8343	8146	8146	8146	8146	8146	8146	8146	8146	8343	8343	8343	8343	8343	8146	8146	8146	8146	8146	8146	8146	8343	8343	8550	8550	0	0	0	0	0	0	0	0	0	0	0	0	0	0	0	0	0	0	0	0	0	0	0	0	0	0	0	0	0	0	0	0	0	0	0	0	0	0	0	0	0	0	0	0	0	0	0	0	0	0	0	0	0	0	0	0	0	0	0
0	0	0	0	0	0	930	930	935	940	942	940	942	945	948	948	953	958	961	961	966	966	972	972	974	980	980	983	983	994	1000	1003	1006	1008	1008	1008	1014	1023	1030	1036	1036	1039	1042	1042	1045	1048	1055	1058	1064	1064	1068	1068	1071	1071	1071	1071	1071	1071	0	0	0	0	0	0	0	0	5125	5202	5202	5202	5202	5202	5282	5448	5364	5448	5448	5448	5448	5364	5364	5448	5448	0	0	0	0	0	0	0	0	0	0	5915	5915	5915	5915	5815	5815	5815	5815	5815	5815	5815	0	0	5915	5915	6018	6349	6468	6468	6349	6468	6468	6468	6592	6592	6592	6592	6592	6592	6592	6592	6720	6720	6720	6720	6720	6853	6853	6853	6992	7137	7287	7287	7287	7287	7287	7444	7444	7444	7444	7444	7444	7608	7608	7444	7608	7608	7779	7779	8146	8146	8343	8343	8343	8343	8343	8343	8343	8343	8343	8343	8343	8146	8146	8146	8146	8146	7959	8146	8146	8146	8146	8146	8146	8146	8146	8146	8146	8146	8146	8146	8146	8146	8146	8146	8146	8146	8146	8146	8146	7959	7779	7959	7959	7959	7959	7959	7959	8146	8146	7959	8146	8146	8146	8146	8146	8146	8146	8146	8146	8146	8146	8146	8146	8146	8146	8146	7959	8146	7959	7959	8146	8146	8146	0	0	3277	3277	3277	3277	3277	3277	3277	3277	3277	3277	3277	3277	3277	3277	3216	3216	3186	3186	3186	3186	3186	3186	3157	3157	3157	3157	3157	3157	3157	3157	3157	3157	3157	3157	3157	3129	3157	3157	3157	3157	3157	3157	3157	3186	3186	3157	3186	3186	3157	3157	3157	3157	3186	3186	3186	3186	3186	3186	3186	3186	3186	3186	3186	3216	3246	3246	3277	3277	3277	3277	3246	3246	3246	3277	3246	3246	0	8343	8343	8343	8343	8343	8343	8343	8343	8343	8343	8343	8146	8343	8343	8343	8550	8550	8343	8550	8343	8343	8343	8343	8343	8146	8343	8343	8343	8343	8343	8343	8343	8343	8343	8343	8343	8343	8343	8343	8343	8343	8343	8343	8343	8146	8146	8146	8146	8343	8343	8343	8343	8343	8550	8343	8343	8343	8146	8146	8146	8146	8146	8146	8146	8146	7959	8146	8146	8146	8146	8146	8146	8146	8146	8146	8343	8146	8343	8146	8343	8343	8146	8146	8146	8146	8146	8146	8146	7959	7959	7959	7959	7959	8146	8146	8146	8146	8146	8146	8146	8146	8146	8146	8146	8146	8146	8146	8146	8146	8146	8146	8146	8146	8146	8146	8146	8146	8146	8146	8146	8146	8146	8146	8146	8146	7959	7959	7959	7959	7959	7959	7959	8146	8146	8146	8146	8146	8146	8146	8146	8146	7959	8146	8146	8146	7959	7959	7959	7959	7959	7959	7959	7959	7959	7959	7959	7959	7959	7959	7959	7959	7959	8146	7959	7959	7959	7959	7959	7779	7779	7959	7959	7959	7959	7959	7959	8146	8146	8146	8146	8343	8343	8343	8146	8146	8146	8146	8146	8146	8146	7959	8146	8146	8146	8343	8343	8343	8343	8343	8343	8146	8146	8146	8146	8146	8146	8146	7959	8146	8146	8343	8343	8146	8343	8343	8343	8343	8343	8343	8146	8146	7959	8146	7959	8146	8146	8146	8146	8146	8146	8146	8146	8146	8146	8146	8146	8146	8146	8146	8146	8146	8146	8146	8146	7959	8146	8146	8146	8146	8146	8343	8146	8146	8146	8146	8146	8146	8146	8146	8343	8343	8343	8343	8343	8146	8146	8146	8146	8146	8146	8146	8146	8343	8550	8550	0	0	0	0	0	0	0	0	0	0	0	0	0	0	0	0	0	0	0	0	0	0	0	0	0	0	0	0	0	0	0	0	0	0	0	0	0	0	0	0	0	0	0	0	0	0	0	0	0	0	0	0	0	0	0	0	0	0	0
0	0	0	0	0	0	927	930	935	937	940	940	942	945	948	948	955	961	961	963	966	966	969	972	974	974	980	983	983	1000	1000	1003	1006	1006	1011	1014	1017	1017	1023	1030	1036	1039	1042	1042	1045	1045	1058	1061	1064	1064	1068	1068	1071	1071	1071	1071	1071	0	0	0	0	0	0	0	0	5125	5125	5202	5202	5202	5202	5282	5282	5448	5364	5448	5448	5448	5448	5364	5364	5448	5448	0	0	0	0	0	0	0	0	0	5815	5815	5915	5815	5815	5815	5815	5815	5815	5815	5815	5815	0	0	5915	5915	0	6349	6468	6349	6349	6349	6468	6468	6468	6468	6592	6592	6592	6592	6592	6592	6720	6720	6720	6720	6720	6853	6853	6853	6992	7137	7137	7137	7137	7287	7287	7287	7444	7287	7444	7444	7444	7444	7444	7444	7608	7608	7779	7779	7959	8146	8343	8146	8343	8343	8343	8343	8343	8343	8343	8343	8343	8146	8146	8146	8146	8146	7959	8146	8146	8146	7959	7959	7959	8146	8146	8146	8146	8146	8146	8146	8146	8146	8146	8146	8146	8146	8146	8146	8146	7959	7959	7959	7959	7959	7959	7959	7959	8146	8146	8146	8146	8146	8146	8146	8146	8146	8146	8146	8146	8146	8146	8146	8146	8146	8146	8146	8146	8146	8146	8146	8146	8146	8550	8550	0	3277	3277	3246	3246	3277	3277	3277	3277	3277	3277	3277	3277	3216	3216	3216	3186	3186	3186	3186	3186	3186	3186	3186	3186	3157	3157	3157	3157	3157	3157	3157	3157	3157	3157	3157	3129	3157	3129	3157	3157	3157	3157	3157	3186	3186	3157	3157	3157	3157	3157	3157	3157	3186	3186	3186	3186	3186	3186	3186	3186	3186	3216	3186	3216	3246	3246	3277	3277	3246	3277	3277	3277	3277	3277	3277	3277	0	8343	8343	8343	8343	8343	8343	8343	8343	8343	8343	8343	8146	8343	8343	8343	8550	8550	8550	8550	8550	8550	8343	8343	8343	8343	8146	8343	8146	8343	8343	8343	8343	8343	8343	8343	8343	8343	8343	8343	8343	8343	8343	8343	8343	8146	8146	8146	7959	8146	8146	8343	8550	8550	8550	8343	8343	8343	8146	8146	8146	8146	8146	8146	8146	8146	8146	7959	8146	8146	8146	8146	7959	8146	8146	8146	8343	8146	8343	8146	8343	8146	8146	8146	8146	8146	8146	8146	7959	7959	7959	7959	7959	7959	8146	8146	8146	8146	8146	8146	7959	8146	8146	8146	8146	8146	8146	8146	8146	8146	8146	8146	8146	8146	8146	8146	8146	8146	8146	8146	8146	8146	8146	8146	8146	7959	7959	7959	7959	7959	7959	7959	7959	8146	8146	8146	8146	8146	8146	8146	8146	8146	7959	7959	7959	7959	7959	7959	7959	7959	7959	7959	7959	7959	7959	7959	7959	7959	7959	7959	7959	7959	7959	7959	7959	7959	7959	7959	7959	7959	7959	7959	7959	7959	7959	7959	7959	8146	8146	8343	8146	8343	8343	8343	8146	8146	8146	8146	8146	8146	8146	7959	8146	8146	8146	8146	8343	8146	8343	8146	8343	8146	8146	8146	7959	7959	7959	7959	7959	8146	8146	8146	8146	8146	8146	8146	8343	8343	8146	8146	8146	8146	7959	8146	7959	7959	8146	8146	8146	8146	8146	8146	8146	8146	8146	8146	8146	8146	8343	8146	8146	8146	8146	8146	7959	7959	7959	8146	8146	8146	8146	8146	8146	8146	8146	8146	8343	8146	8146	8146	8343	8550	8343	8343	8343	8343	8343	8146	8146	8146	8146	8146	8343	8343	8343	8343	0	0	0	0	0	0	0	0	0	0	0	0	0	0	0	0	0	0	0	0	0	0	0	0	0	0	0	0	0	0	0	0	0	0	0	0	0	0	0	0	0	0	0	0	0	0	0	0	0	0	0	0	0	0	0	0	0	0	0
0	0	0	0	0	0	930	930	935	937	940	940	940	942	948	948	955	961	961	963	963	966	969	969	972	977	977	983	983	1003	1003	1003	1006	1006	1011	1011	1014	1014	1023	1030	1036	1039	1042	1042	1045	1052	1058	1061	1064	1064	1068	1068	1071	1071	1071	1071	1071	0	0	0	0	0	0	0	0	5125	5202	5202	5282	5202	5202	5282	5364	5364	5364	5448	5448	5448	5448	5448	5364	5364	5448	0	0	0	0	0	0	0	0	5915	5815	5815	5815	5815	5719	5815	5815	5815	5815	5815	5815	5815	0	0	0	0	0	0	6468	6468	6349	6468	6468	6468	6468	6468	6592	6592	6592	6592	6592	6592	6720	6720	6720	6720	6720	6853	6992	6992	6992	7137	7137	7137	7137	7137	7287	7287	7287	7287	7287	7444	7444	7444	7444	7444	7444	7608	7779	7779	7959	8146	8343	8343	8343	8343	8343	8343	8343	8343	8343	8343	8343	8146	8146	8146	8146	7959	7959	7959	7959	7959	7959	8146	8146	8146	8146	8146	8146	8146	8146	8146	8146	8146	8146	8146	8146	8146	8146	8146	7959	7959	7959	7959	7959	7959	7959	7959	7959	7959	7959	7959	8146	8146	8146	8146	8146	8146	8146	8146	8146	8146	8146	8146	8146	8146	8146	8146	8146	8146	8146	8146	8343	8343	8550	8550	0	3277	3246	3246	3246	3246	3246	3246	3246	3246	3277	3246	3246	3216	3216	3216	3186	3186	3186	3186	3186	3186	3186	3186	3186	3186	3186	3186	3157	3157	3157	3157	3157	3157	3157	3157	3129	3157	3157	3157	3157	3157	3186	3186	3186	3186	3157	3157	3157	3157	3157	3157	3157	3186	3186	3186	3186	3186	3186	3186	3186	3186	3216	3216	3216	3216	3246	3246	3277	3277	3277	3277	3277	3277	3277	3277	3277	0	8343	8343	8343	8343	8343	8343	8343	8343	8343	8343	8146	8146	8343	8343	8343	8343	8550	8550	8550	8550	8550	8343	8343	8146	8146	8343	8343	8146	8343	8343	8343	8343	8343	8343	8343	8343	8343	8343	8343	8343	8343	8343	8146	8146	7959	7959	8146	7959	8146	8343	8343	8343	8343	8343	8343	8343	8343	8343	8343	8146	8146	8146	8146	8146	8146	8146	7959	8146	7959	7959	7959	7959	7959	8146	8146	8343	8146	8343	8343	8343	8343	8146	8146	8146	8146	8146	8146	7959	7959	7959	7959	7959	7959	7959	8146	8146	8146	8146	8146	7959	8146	8146	8146	8146	8343	8146	8146	8146	8343	8146	8146	8146	8146	8146	8146	8146	8146	8146	8146	8146	8146	8146	8146	8146	7959	7959	7959	7959	7959	7959	7959	7959	8146	8146	8146	8146	8146	8146	8146	8146	8146	8146	7959	7959	7959	7959	7959	7959	7959	7959	8146	7959	7779	7779	7959	7959	7959	7959	7959	7959	7959	7959	7959	7959	7959	7959	7959	7959	7959	7959	7959	7959	7959	7959	7959	7959	8146	8343	8343	8146	8343	8343	8343	8146	8146	8146	8146	8146	8146	8146	7959	8146	8146	8343	8343	8343	8146	8343	8146	8146	8146	8146	7959	7779	7959	8146	8146	8146	8146	8146	8146	8146	8146	8146	8343	8343	8343	8343	8146	8146	8146	7959	8146	7959	8146	8146	8146	8146	8146	8146	8146	8146	8146	8146	8146	8146	8146	8146	8146	8146	8146	8146	8146	8146	8146	7959	8146	8146	8146	8146	8146	8146	8146	8146	8146	8146	8146	8146	8146	8146	8343	8343	8343	8343	8343	8343	8343	8343	8343	8343	8343	8343	8550	8343	8343	8343	0	0	0	0	0	0	0	0	0	0	0	0	0	0	0	0	0	0	0	0	0	0	0	0	0	0	0	0	0	0	0	0	0	0	0	0	0	0	0	0	0	0	0	0	0	0	0	0	0	0	0	0	0	0	0	0	0	0
0	0	0	0	0	0	930	932	935	937	940	940	940	942	945	948	955	961	961	963	963	963	969	969	972	977	977	985	994	1000	1000	1003	1003	1006	1011	1014	1014	1014	1023	1023	1033	1033	1039	1042	1045	1052	1058	1061	1061	1064	1068	1068	1068	1068	1068	1068	1068	0	0	0	0	0	0	0	0	0	5202	5282	5282	5282	5282	5364	5364	5448	5364	5448	5448	5448	5448	5364	5364	5364	0	0	0	0	0	0	0	5915	5815	5815	5815	5815	5815	5719	5626	5719	5719	5719	5719	5815	0	0	0	0	0	0	0	0	6468	6468	6349	6349	6468	6468	6468	6468	6592	6592	6592	6592	6720	6720	6720	6720	6720	6720	6720	6853	6992	6992	6992	6992	7137	7137	7137	7287	7287	7287	7287	7287	7287	7287	7444	7444	7444	7444	7608	7608	7779	7779	8146	8146	8343	8343	8343	8343	8343	8343	8343	8343	8343	8343	8343	8343	8146	8146	8146	7959	7959	7959	7959	7959	7959	8146	8146	8146	8146	8146	8146	8146	8146	8146	8146	8146	8146	8146	8146	8146	8146	8146	8146	7959	7959	8146	8146	7959	8146	7959	7959	7959	7959	8146	8146	8146	8146	8146	8146	8146	8146	8146	8146	8146	8146	7959	7959	7959	8146	8343	8146	8343	8146	8343	8343	8550	8550	8550	0	3277	3277	3246	3277	3277	3246	3246	3246	3246	3246	3246	3216	3216	3216	3216	3186	3186	3186	3186	3186	3186	3186	3186	3186	3186	3186	3186	3157	3157	3157	3157	3157	3157	3157	3157	3157	3157	3157	3157	3157	3157	3186	3186	3186	3186	3157	3157	3157	3157	3157	3157	3157	3186	3186	3186	3186	3186	3186	3186	3186	3186	3216	3216	3216	3246	3246	3277	3277	3277	3277	3277	3277	3309	3309	3309	3277	0	8146	8343	8146	8343	8343	8343	8343	8343	8343	8146	8146	8146	8343	8343	8343	8343	8343	8343	8343	8550	8343	8343	8343	8343	8343	8343	8343	8343	8343	8343	8343	8343	8343	8550	8343	8343	8343	8343	8343	8343	8343	7959	7779	7959	7959	7959	8146	8146	8343	8343	8550	8343	8343	8550	8343	8550	8343	8343	8146	8146	8146	8146	7959	7959	7959	7959	7959	7959	7959	7959	7959	7959	7959	8146	8146	8343	8343	8343	8343	8550	8343	8343	7959	8146	8146	8146	7959	7959	7959	7959	7959	7959	7959	8146	8146	8146	8146	7959	7959	7959	8146	8146	8146	8343	8343	8343	8343	8343	8343	8146	8146	8146	8146	8146	8146	8146	8146	8146	8146	7959	8146	8146	8146	8146	8146	7959	7959	7959	7959	7959	7959	7959	8146	7959	7959	8146	8146	8146	8146	8146	7959	7959	7959	7959	7959	7959	7959	7959	7959	7959	8146	8146	8146	7959	7959	7959	7959	7959	7959	7959	8146	7959	7959	7959	7959	7959	7959	7959	7959	7959	7959	7959	7779	7959	7959	7959	8146	8343	8343	8146	8146	8343	8343	8343	8146	8146	8146	8146	7959	8146	8146	8146	8146	8343	8343	8343	8146	8146	8146	8146	8146	8146	7959	7779	7959	8146	8146	8146	8146	8146	8146	8146	8146	8146	8146	8146	8146	8146	8146	8146	8146	7959	8146	8146	8146	8146	8146	8146	8146	8146	8146	8146	8146	8146	8146	8343	8343	8343	8343	8343	8146	8146	8146	8146	8146	8146	8146	8146	8146	8146	8146	8146	8146	8146	8146	8146	8146	8146	8146	8146	8343	8343	8343	8343	8343	8343	8343	8550	8343	8343	8343	8343	8343	8343	8146	8146	0	0	0	0	0	0	0	0	0	0	0	0	0	0	0	0	0	0	0	0	0	0	0	0	0	0	0	0	0	0	0	0	0	0	0	0	0	0	0	0	0	0	0	0	0	0	0	0	0	0	0	0	0	0	0	0	0	0
0	0	0	0	0	0	930	932	937	937	940	940	940	942	945	945	955	958	961	963	963	963	969	969	972	974	977	988	994	1000	997	1003	1003	1008	1011	1014	1014	1020	1020	1023	1030	1036	1039	1042	1045	1048	1058	1061	1061	1064	1064	1068	1068	1068	1064	1064	1068	1068	0	0	0	0	0	0	0	0	5202	5282	5202	5202	5282	5282	5282	5364	5364	5448	5364	5364	5364	5364	5364	5364	0	0	0	0	0	0	0	5915	5915	5915	5815	5815	5815	5815	5719	5719	5815	5815	5815	0	0	0	0	0	0	0	0	0	0	6349	6349	6349	6468	6468	6468	6468	6720	6592	6720	6720	6720	6720	6720	6720	6720	6720	6853	6853	6853	6853	6853	6853	7137	7137	7287	7287	7287	7287	7287	7287	7287	7287	7444	7444	7444	7444	7444	7608	7779	7779	8146	8146	8343	8343	8343	8343	8343	8343	8343	8343	8343	8343	8343	8343	8146	8146	8146	7959	7959	7959	7959	7959	8146	8146	8146	8146	8146	8146	7959	8146	8146	8146	8146	8146	8146	8146	8146	8146	8146	8146	8146	7959	7959	8146	7959	7959	7959	7959	8146	8146	8146	8146	8146	8343	8343	8343	8146	8146	8146	8146	8146	7959	7959	7959	7959	7959	8146	8146	8146	8146	8146	8343	8343	8343	8343	0	0	3277	3277	3277	3277	3277	3246	3246	3246	3246	3246	3246	3216	3216	3216	3216	3186	3186	3186	3186	3186	3216	3186	3186	3186	3186	3186	3186	3157	3157	3157	3157	3157	3157	3157	3157	3157	3157	3157	3157	3157	3157	3157	3186	3186	3157	3157	3157	3157	3157	3157	3157	3186	3186	3186	3186	3186	3186	3186	3186	3186	3186	3216	3216	3246	3246	3246	3277	3277	3277	3277	3277	3309	3341	3341	3341	0	0	8343	8146	8343	8343	8343	8343	8343	8146	8146	8146	8146	8146	8343	8146	8343	8343	8343	8343	8343	8550	8343	8343	8146	8146	8146	8146	8343	8343	8343	8343	8343	8550	8343	8343	8550	8343	8343	8343	7779	7779	7779	7779	7779	7779	7779	7959	7959	8146	8343	8343	8343	8343	8343	8550	8343	8550	8343	8343	8146	8343	8146	8146	7959	7959	7959	7959	7959	7959	7959	7959	7959	7959	7959	7959	7959	8146	8343	8343	8343	8550	8343	8146	8343	4771	4771	8146	8146	7959	7959	7959	7959	7959	7959	8146	8146	8146	8146	7959	7959	8146	8343	8343	8343	8343	8343	8343	8343	8343	8343	8146	8146	8146	8146	7959	7959	7959	7959	8146	7959	7959	8146	8146	8146	8146	8146	7959	7959	7959	7959	7959	7959	7959	7959	8146	8146	8146	8146	8146	8146	8146	7959	7959	7779	7959	7779	7779	7959	7959	7959	7959	7959	7959	7959	7959	7959	7959	7959	7959	7959	7959	7959	7959	7779	7779	7779	7779	7779	7779	7608	7779	7779	7779	7779	7959	7959	7959	7959	7959	8343	8146	8343	4771	4771	4771	4706	4706	4706	4706	4706	4706	4706	4706	4706	4706	8343	8343	8146	8343	8146	8146	8146	7959	7959	7779	7959	8146	8146	8146	8146	8146	8146	8146	8146	8146	8146	8146	8146	8146	8146	8146	8146	8146	8146	8146	8146	8146	8146	8146	8343	8343	8146	8146	8146	8146	8343	8343	8343	8343	8343	8343	8146	8146	8146	8146	8146	7959	7959	8146	8146	8146	8146	8146	8146	8146	8146	8146	8146	8146	8146	8146	8146	8550	8550	8550	8343	8343	8343	8550	8343	8343	8343	8343	8343	8343	8146	8146	8146	0	0	0	0	0	0	0	0	0	0	0	0	0	1443	1449	1443	1443	0	0	0	0	0	0	0	0	0	0	0	0	0	0	0	0	0	0	0	0	0	0	0	0	0	0	0	0	0	0	0	0	0	0	0	0	0	0	0	0
0	0	0	0	0	0	932	935	937	937	940	940	940	942	945	950	955	958	958	961	963	963	966	969	972	974	977	988	994	1000	1000	1003	1003	1006	1011	1011	1014	1017	1020	1020	1030	1039	1039	1042	1045	1045	1052	1058	1061	1061	1064	1068	1068	1064	1064	1064	1068	1068	0	0	0	0	0	0	0	0	0	5282	5202	5202	5202	5202	5282	5282	5364	5364	5364	5364	5364	5364	5364	5364	0	0	0	0	0	0	0	5915	5915	5915	5915	5915	5915	5815	5815	5815	5815	5815	5815	0	0	0	0	0	0	0	0	0	0	6468	6468	6468	6468	6592	6468	6592	6592	6592	6720	6720	6720	6720	6720	6720	6720	6853	6853	6853	6853	6853	6853	6992	7287	7287	7287	7287	7287	7287	7287	7287	7287	7287	7444	7444	7608	7444	7444	7779	7779	7959	8146	8146	8146	8343	8343	8343	8343	8343	8343	8343	8343	8343	8343	8343	8146	8146	8146	8146	7959	7959	8146	7959	8146	8146	8146	8146	8146	7959	7959	7959	8146	8146	8146	8146	8146	8146	8146	8146	8146	8146	8146	7959	7959	8146	8146	8146	8146	8146	8146	8146	7959	8146	8343	8343	8343	8343	8343	8343	8146	8146	8146	8146	8146	7959	7959	7959	8146	8146	8146	8146	8146	8343	8343	8343	8343	0	0	0	3246	3246	3277	3246	3246	3216	3216	3216	3246	3216	3216	3216	3216	3186	3186	3186	3186	3186	3186	3186	3186	3186	3186	3186	3186	3186	3186	3157	3157	3157	3157	3157	3157	3157	3157	3157	3157	3157	3157	3157	3157	3157	3157	3157	3157	3157	3157	3157	3157	3157	3157	3186	3186	3186	3186	3186	3186	3186	3186	3186	3216	3216	3216	3246	3246	3246	3246	3277	3246	3277	3309	3341	3341	3341	0	0	8343	8146	8343	8343	8343	8343	8343	8146	8146	8343	8343	8146	8343	8343	8550	8343	8550	8343	8343	8343	8343	8146	8146	8146	8146	8146	8343	8343	8343	8343	8343	8550	4838	4771	4771	4771	4771	4771	4771	7444	7444	7608	7444	7608	7779	7959	7959	8146	8343	8550	8550	8343	8550	8550	8550	4706	4706	4643	4581	4643	4643	4643	4643	4643	7959	8146	8146	7959	7959	7959	7779	7779	7779	7959	7959	7959	8343	8343	4771	4706	4706	4706	4771	4771	4838	4771	4838	4838	4771	4771	4838	4838	4906	4906	4838	4838	4838	4771	4771	4771	4771	4643	4643	8343	8343	8146	8343	8343	8343	8146	7959	7959	7959	4906	4906	4906	7959	7959	7959	7959	7959	7959	8146	8146	7959	7959	7779	7779	7779	7959	7959	7959	7959	8146	8146	8146	8343	8146	8146	8146	7959	4643	4643	4581	4643	4643	4643	4643	8146	8146	8146	8146	4581	4581	4581	4643	4643	4643	4643	7959	7959	7959	7779	7608	7608	4581	4643	4643	4643	4643	4643	4643	4706	4706	4643	4771	4771	4706	4838	4838	4838	4771	4706	4706	4706	4706	4706	4706	4706	4706	4706	4706	4706	4706	4706	4706	4706	8343	8146	8146	7959	7959	7779	7779	7779	8146	8146	7959	8146	8146	8146	8146	8146	8146	8146	8146	8146	8146	8146	8146	8146	8146	8146	7959	8146	8146	8146	8146	8343	8343	8146	8146	8146	8343	8343	8343	8343	8343	8146	8146	8343	8146	8146	8146	8146	8146	8146	8146	8146	8146	8146	8146	8146	8146	8146	8146	8146	8146	8146	8146	8343	8550	8550	8550	8343	8343	8343	8550	8343	8343	8343	8343	8343	8343	8146	8146	8146	0	0	0	0	0	0	0	0	0	0	0	1449	1449	1455	1455	1449	1449	0	0	0	0	0	0	0	0	0	0	0	0	0	0	0	0	0	0	0	0	0	0	0	0	0	0	0	0	0	0	0	0	0	0	0	0	0	0	0	0
0	0	0	0	0	0	930	937	940	940	940	940	942	942	945	948	953	955	958	961	961	961	966	972	974	974	977	985	991	997	997	1000	1000	1006	1008	1011	1014	1017	1020	1020	1033	1039	1039	1042	1045	1048	1052	1058	1061	1061	1064	1064	1064	1064	1064	1061	1064	1064	0	0	0	0	0	0	0	4771	4906	4906	5125	5125	5125	5364	5364	5364	5364	5364	5364	5364	5364	5282	5282	5364	0	0	0	0	0	0	5915	5915	5915	5915	5915	5915	5915	5915	5815	5815	5815	5815	0	0	0	0	0	0	0	0	0	0	0	6468	6592	6592	6592	6592	6592	6592	6720	6592	6720	6720	6720	6720	6720	6720	6720	6853	6853	6853	6853	6992	6853	6853	6992	7287	7287	7287	7287	7287	7287	7287	7287	7287	7287	7287	7287	7444	7444	7608	7608	7959	8343	8146	8343	8343	8343	8343	8343	8343	8343	8343	8343	8343	8343	8343	8343	8146	8146	8146	8146	7959	8146	7959	8146	8146	8146	8146	8146	8146	8146	8146	8146	8146	8146	8146	8146	8146	8146	8146	8146	8146	7959	7959	7959	8146	8146	8146	8146	8146	8146	7959	7959	8146	8146	8146	8343	8146	8146	8146	8146	8146	8146	8146	7959	7959	7959	7959	8146	8146	8146	8343	8146	8343	8343	8343	8343	0	0	0	3277	3277	3277	3277	3246	3246	3246	3216	3246	3186	3186	3186	3186	3186	3186	3186	3186	3186	3186	3186	3186	3186	3186	3186	3186	3186	3186	3157	3157	3157	3157	3157	3157	3157	3157	3157	3157	3157	3157	3157	3157	3157	3157	3157	3157	3157	3157	3157	3157	3157	3157	3186	3186	3186	3186	3186	3186	3186	3186	3186	3186	3216	3216	3216	3216	3246	3246	3246	3216	3277	3309	3341	3341	3341	0	0	8343	8146	8343	8146	8146	8146	8146	8146	8146	8343	8343	8343	8550	8550	8550	8343	8550	8343	8343	8146	8146	4771	4771	4706	4706	4706	4706	4706	4581	4581	8550	4771	4838	4771	4771	4771	4771	4771	4771	4771	4771	4771	4771	4771	4771	4771	4771	4771	4771	4771	4771	4771	4771	4771	4771	4771	4706	4706	4581	4643	4643	4643	4643	4643	4643	4643	8146	8146	7959	7959	4771	4771	4771	4771	7779	7779	4706	4706	4771	4771	4771	4771	4771	4771	4771	4771	4771	4771	4771	4771	4838	4838	4906	4838	4838	4838	4838	4771	4838	4706	4706	4643	4706	4706	4706	4706	4706	8146	4838	4906	4906	4906	4906	4838	4771	4581	4581	4581	4581	7959	4350	4350	4350	4350	7959	7959	7779	7779	7779	7959	7959	7959	7959	8146	8146	8343	8343	4771	4706	4771	4706	4706	4643	4581	4581	4643	4643	4643	4643	4643	4643	4581	4581	4581	4643	4643	4643	4643	4643	4643	4643	4581	4581	4581	4581	4643	4643	4643	4643	4643	4643	4706	4706	4706	4643	4706	4771	4771	4838	4838	4838	4771	4771	4706	4706	4706	4706	4706	4706	4706	4706	4706	4706	4706	4706	4706	4706	4643	4643	8146	7959	7959	7959	7779	7959	8146	8146	7959	8146	8146	8146	8146	8146	8146	8146	8146	8146	8146	8146	8146	8146	8146	8146	8146	8146	8146	8146	8343	8343	8343	8146	8146	8343	8343	8343	8343	8343	8343	8343	8343	8146	8146	8146	8146	8146	8146	8146	8146	8146	8146	8146	8146	8146	8146	8146	8146	8146	8146	8146	8146	8550	8550	8550	8550	8550	8550	8550	8550	8550	8343	8343	8343	8343	8146	8146	8146	0	0	0	0	0	0	0	0	0	0	1455	1455	1455	1455	1455	1455	1449	1449	0	0	0	0	0	0	0	0	0	0	0	0	0	0	0	0	0	0	0	0	0	0	0	0	0	0	0	0	0	0	0	0	0	0	0	0	0	0	0	0
0	0	0	0	0	0	930	937	940	940	940	940	940	942	945	948	950	955	958	961	961	961	969	972	974	974	980	985	994	997	997	1000	1000	1003	1008	1011	1014	1017	1020	1026	1030	1039	1039	1042	1045	1048	1055	1058	1058	1061	1061	1064	1064	1068	1064	1064	1064	1064	0	0	0	0	0	0	0	4706	4838	5125	5125	5202	5202	5282	5282	5282	5364	5282	5282	5282	5282	5202	5202	0	0	0	0	0	0	0	5915	5915	5915	5915	5915	5915	6018	6018	6018	6018	0	0	0	0	0	0	0	0	0	0	0	0	0	4643	4643	6592	6592	6592	6592	6592	6720	6592	6720	6592	6720	6720	6720	6720	6853	6853	6853	6853	6992	7137	7137	7137	7137	7137	7137	7137	7287	7287	7287	7287	7287	7287	7444	7287	7444	7444	7444	8146	8146	8146	8146	8343	8343	8343	8146	8146	8343	8343	8343	8343	8343	8343	8343	8343	8146	8146	8146	8146	8146	7959	8146	7959	8146	8146	8146	8146	8146	8146	8146	8146	8146	8146	8146	8146	8146	8146	8146	8146	8146	7959	7959	7959	7959	8146	7959	7959	7959	8146	8146	7959	8146	8146	8146	8146	8146	8146	8146	8146	8146	8146	7959	8146	7959	7959	8146	8146	8146	8146	8146	8146	8146	8146	8343	8146	8146	0	0	3246	3246	3246	3277	3277	3246	3246	3246	3246	3216	3186	3186	3186	3186	3186	3186	3157	3157	3186	3157	3157	3186	3186	3186	3186	3186	3186	3186	3186	3157	3157	3157	3157	3157	3157	3157	3157	3157	3157	3157	3157	3157	3157	3157	3157	3157	3157	3157	3157	3157	3157	3157	3186	3186	3186	3186	3186	3186	3186	3186	3186	3186	3216	3216	3216	3216	3216	3216	3216	3186	3246	3246	3246	3246	3341	0	8343	8343	8343	8343	8343	8343	8343	8343	8146	8146	8343	8343	8343	8550	8550	8550	8550	8550	4771	4771	4771	4771	4706	4706	4706	4643	4706	4706	4706	4643	4771	4771	4771	4771	4771	4771	4771	4771	4771	4771	4771	4771	4771	4771	4771	4771	4771	4838	4771	4771	4771	4771	4771	4771	4771	4771	4706	4706	4706	4643	4706	4706	4706	4643	4643	4643	4643	4706	4771	4771	4771	4771	4771	4771	4706	4771	4706	4706	4771	4771	4771	4771	4771	4771	4771	4771	4771	4771	4771	4771	4771	4771	4771	4838	4838	4838	4838	4838	4771	4771	4838	4771	4706	4771	4706	4706	4706	4771	4771	4838	4771	4838	4838	4838	4643	4581	4581	4463	4406	4406	4350	4350	4350	4350	4350	7779	4406	4406	4406	4463	4406	4406	4406	4406	4406	8146	8343	4838	4771	4771	4771	4706	4706	4643	4643	4643	4643	4643	4643	4643	4643	4643	4643	4581	4643	4643	4643	4643	4643	4643	4643	4643	4643	4643	4643	4643	4643	4643	4643	4643	4643	4643	4706	4706	4706	4643	4771	4706	4706	4771	4838	4771	4771	4706	4706	4706	4706	4706	4706	4706	4706	4771	4706	4771	4771	4771	4771	4706	4643	4643	4643	7959	7959	7959	7779	7959	8146	8146	7959	7959	8146	8146	8146	8146	8146	8146	8146	8146	8146	8146	8146	8146	8146	8146	8146	8146	8343	8343	8343	8343	8343	8343	8146	8343	8343	8343	8343	8343	8343	8343	8343	8343	8146	8146	8146	8146	8146	7959	8146	8146	8146	8146	8146	8146	8146	8146	8146	8146	8146	8146	8146	8550	8550	8550	8550	8550	8550	8550	8550	8343	8343	8550	8343	8343	8146	8146	8146	0	0	0	0	0	0	0	0	0	0	1455	1455	1455	1455	1455	1455	1449	1449	0	0	0	0	0	0	0	0	0	0	0	0	0	0	0	0	0	0	0	0	0	0	0	0	0	0	0	0	0	0	0	0	0	0	0	0	0	0	0	0
0	0	0	0	0	0	930	932	937	937	937	940	940	942	945	948	950	955	958	961	961	961	972	972	977	980	983	985	991	994	994	997	1000	1003	1008	1011	1017	1017	1017	1020	1026	1033	1036	1042	1042	1045	1052	1058	1058	1058	1061	1064	1064	1068	1068	1068	1068	0	0	0	0	0	0	0	0	4706	4771	4977	5050	5050	5050	5125	5125	5202	5202	5202	5202	5202	5202	5202	5202	0	0	0	0	0	0	0	0	5915	6018	6018	5915	5915	6018	6018	6018	6018	0	0	0	0	0	0	0	0	0	0	0	4838	4838	4643	4643	4643	4643	6592	4581	4581	4581	4643	4771	4771	6720	6720	6720	6720	6720	6853	6853	6992	6992	6992	6992	7287	7287	7287	7287	7287	7287	7287	7287	7287	7287	7287	7444	7287	7444	7444	7444	7959	8343	8343	8146	8343	8343	8146	8146	8146	8146	8343	8343	8343	8343	8343	8343	8343	8343	8146	8146	8146	8146	8146	8146	8146	8146	8146	8146	8146	8146	8146	8146	8146	8146	8146	8146	8146	8146	8146	8146	8146	7959	7959	7959	7779	7959	7959	7959	7959	7959	7959	7959	8146	7959	7959	8146	7959	7959	8146	8146	8146	7959	7959	7959	8146	8146	8146	8146	8146	8146	8146	8146	8146	8146	8146	8146	8146	8146	0	0	3246	3246	3246	3277	3277	3246	3246	3216	3216	3216	3216	3186	3186	3186	3186	3186	3157	3186	3186	3186	3186	3186	3157	3186	3186	3157	3186	3186	3157	3157	3157	3157	3157	3157	3157	3157	3157	3157	3157	3157	3157	3157	3157	3157	3157	3157	3157	3157	3157	3157	3157	3157	3157	3186	3186	3157	3157	3186	3186	3186	3186	3186	3216	3216	3216	3216	3216	3216	3216	3186	3246	3246	3246	3246	0	0	8343	8343	8343	8343	8343	8343	8343	8343	8343	8343	8343	8343	8343	8767	8550	8550	4771	4771	4771	4771	4771	4771	4706	4706	4706	4706	4706	4706	4771	4706	4771	4771	4771	4771	4771	4771	4771	4771	4771	4771	4771	4771	4771	4771	4771	4838	4771	4838	4771	4771	4771	4771	4771	4771	4771	4771	4771	4706	4706	4643	4643	4706	4706	4643	4643	4643	4706	4706	4771	4771	4706	4771	4706	4706	4706	4706	4706	4706	4706	4771	4771	4771	4771	4771	4771	4771	4771	4771	4771	4771	4771	4771	4771	4838	4838	4838	4771	4838	4771	4838	4838	4771	4706	4771	4706	4706	4706	4706	4706	4771	4706	4706	4643	4581	4521	4521	4463	4406	4406	4406	4350	4350	4350	4296	4350	4406	4406	4406	4406	4406	4463	4406	4463	4406	4463	4463	4581	4771	4771	4706	4771	4706	4706	4706	4643	4643	4643	4643	4643	4643	4643	4643	4643	4643	4643	4643	4643	4643	4643	4643	4643	4643	4643	4643	4643	4643	4643	4643	4643	4643	4643	4643	4706	4706	4706	4643	4643	4771	4771	4771	4838	4771	4771	4771	4706	4706	4706	4706	4706	4706	4706	4706	4706	4771	4771	4771	4706	4706	4706	4643	4643	4643	7959	7779	7779	7959	7959	8146	8146	8146	8146	8146	8146	8146	8146	8146	8146	8146	8146	8146	8146	8146	8146	8343	8343	8343	8343	8343	8343	8343	8343	8343	8343	8343	8343	8343	8343	8343	8343	8343	8343	8343	8146	8146	8146	8146	7959	7959	7959	8146	8146	8146	8146	8343	8146	8146	8146	8146	8146	8146	8146	8343	8550	8343	8550	8550	8343	8550	8550	8343	8343	8550	8343	8550	8343	8343	8146	0	0	0	0	0	0	0	0	0	0	1455	1455	1455	1455	1455	1449	1449	1449	0	0	0	0	0	0	0	0	0	0	0	0	0	0	0	0	0	0	0	0	0	0	0	0	0	0	0	0	0	0	0	0	0	0	0	0	0	0	0	0
0	0	0	0	0	0	927	930	935	935	937	937	940	942	945	948	948	955	958	958	961	961	969	972	977	977	983	985	988	991	994	997	1000	1003	1008	1011	1011	1017	1017	1023	1026	1033	1036	1039	1042	1042	1052	1055	1058	1058	1061	1064	1064	1068	1064	1068	1068	0	0	0	0	0	0	0	0	0	4771	4977	4977	4977	4977	4977	5050	5050	5125	5050	5050	5050	4977	4977	5202	0	0	0	0	0	0	0	0	5915	6018	4643	4643	4581	4581	6018	6018	0	0	0	0	0	0	0	0	0	0	0	0	4838	4771	4706	4706	4643	4643	4643	4581	4581	4643	4643	4771	4771	4771	4771	4771	4706	4706	4771	4706	4706	4771	4706	4706	4706	4706	4706	4706	4706	4706	4771	4771	4771	4771	4838	4838	4771	4771	4706	4706	7959	7959	8146	8146	8343	8343	8343	8146	8146	8343	8343	8146	8343	8343	8146	8146	8146	8343	8146	8146	8146	8146	8146	8146	8146	8146	8146	8146	8146	8146	8146	8146	8146	8146	8146	8146	8146	8146	8146	8146	8146	7959	8146	7959	7779	7779	7959	7959	7959	7959	7959	7959	7959	7959	8146	8146	8146	8146	8146	8146	8146	8146	8146	8146	8146	8146	8146	8146	8146	8146	8146	8146	8146	8146	8146	8146	8146	8146	0	0	0	3246	3246	3277	3277	3216	3216	3216	3216	3216	3216	3186	3186	3186	3186	3186	3186	3186	3186	3186	3186	3186	3157	3157	3157	3157	3157	3157	3157	3157	3157	3157	3157	3157	3157	3157	3157	3157	3157	3157	3157	3157	3157	3157	3129	3129	3157	3157	3157	3157	3157	3157	3157	3157	3157	3157	3157	3186	3186	3186	3186	3186	3216	3216	3216	3216	3216	3216	3216	3186	3186	3216	3216	3216	0	0	8343	8343	8343	8343	8343	8343	8343	8343	8343	8343	8343	8343	8343	8343	4771	4771	4771	4771	4771	4771	4771	4771	4706	4706	4771	4771	4771	4771	4771	4771	4771	4838	4771	4771	4771	4771	4771	4771	4771	4771	4771	4771	4771	4771	4771	4771	4771	4771	4771	4771	4771	4771	4771	4771	4771	4771	4771	4706	4706	4706	4706	4706	4706	4706	4706	4706	4706	4706	4771	4706	4706	4706	4706	4706	4706	4706	4706	4706	4706	4771	4771	4771	4771	4771	4771	4771	4771	4771	4771	4771	4771	4771	4771	4771	4771	4771	4771	4771	4771	4771	4771	4771	4706	4771	4706	4706	4706	4706	4706	4643	4643	4643	4581	4581	4521	4521	4406	4406	4406	4406	4350	4350	4350	4296	4350	4350	4350	4406	4406	4406	4406	4406	4463	4463	4521	4463	4581	4706	4706	4706	4706	4706	4706	4706	4643	4643	4643	4643	4643	4643	4643	4643	4643	4643	4643	4643	4643	4643	4643	4643	4643	4643	4706	4706	4706	4643	4643	4643	4643	4643	4643	4643	4643	4643	4643	4643	4643	4706	4771	4771	4771	4771	4771	4771	4706	4771	4706	4706	4706	4706	4706	4706	4706	4771	4771	4706	4706	4706	4706	4706	4643	4643	4643	7959	7959	7959	8146	8146	8146	7959	8146	8146	8146	8146	8146	8146	8146	8146	8146	8146	8146	8146	8146	8343	8343	8343	8343	8343	8343	8343	8343	8343	8343	8343	8343	8343	8343	8343	8343	8343	8343	8343	8146	8146	8146	8146	7959	8146	8146	8146	8146	8146	8146	8146	8146	8146	8146	8146	8146	8146	8146	8343	8550	8550	8550	8550	8343	8550	8343	8550	8343	8550	8343	8550	8550	8343	0	0	0	0	0	0	0	0	0	0	0	1461	1455	1461	1455	1455	1449	1443	1443	0	0	0	0	0	0	0	0	0	0	0	0	0	0	0	0	0	0	0	0	0	0	0	0	0	0	0	0	0	0	0	0	0	0	0	0	0	0	0	0
0	0	0	0	0	0	932	935	937	935	937	940	940	942	945	945	948	953	955	958	961	961	972	974	974	980	980	985	988	988	994	997	1000	1006	1008	1011	1017	1017	1017	1023	1030	1036	1036	1039	1042	1042	1042	1055	1058	1058	1061	1064	1064	1068	1068	1068	1068	0	0	0	0	0	0	0	0	0	4771	4906	4906	4906	4906	4906	4906	4906	4906	4906	4906	4838	4771	4771	0	0	0	0	0	0	0	0	0	0	0	4643	4643	4581	4581	4581	4643	4643	4643	0	0	0	0	0	0	0	0	0	4838	4838	4771	4771	4706	4706	4706	4643	4643	4643	4643	4771	4771	4771	4771	4771	4771	4706	4706	4771	4706	4706	4771	4771	4706	4706	4706	4706	4706	4706	4706	4838	4838	4838	4771	4838	4771	4771	4706	4706	4706	4771	4771	8146	8146	8343	8343	8146	8146	8146	8343	8343	8146	8343	8343	8343	8343	8343	8343	8343	8146	8146	8146	8146	8146	8146	8146	8146	8146	8146	8146	8146	8146	8146	8146	8146	8146	8146	8146	8146	8146	8146	8146	8146	7959	7779	7779	7959	7959	7959	7959	7959	8146	8146	8146	8146	8146	8146	7959	8146	8146	7959	7959	7959	8146	8146	8146	8146	8146	8146	8146	8146	8146	8146	8146	8146	8146	8146	8146	0	0	0	3246	3246	3277	3277	3216	3216	3216	3216	3216	3216	3186	3186	3186	3186	3186	3186	3186	3186	3186	3186	3186	3157	3157	3157	3157	3157	3157	3157	3157	3157	3157	3157	3157	3157	3157	3157	3157	3157	3157	3157	3157	3157	3157	3157	3157	3157	3157	3157	3157	3157	3186	3157	3186	3157	3157	3157	3186	3186	3186	3186	3186	3216	3216	3216	3216	3216	3216	3216	3186	3186	3216	3246	3246	3246	0	8343	8550	8343	8343	8343	8343	8343	8343	8343	8343	8146	8343	8343	8550	4771	4771	4771	4771	4771	4771	4771	4771	4771	4771	4771	4771	4771	4771	4771	4771	4771	4838	4771	4771	4771	4771	4771	4771	4771	4771	4771	4771	4771	4771	4771	4771	4771	4771	4771	4771	4771	4771	4771	4771	4771	4771	4771	4706	4706	4706	4706	4706	4706	4771	4771	4706	4706	4771	4771	4706	4706	4706	4706	4706	4706	4706	4706	4706	4706	4771	4771	4771	4771	4771	4771	4771	4771	4771	4771	4771	4706	4771	4706	4771	4771	4771	4771	4771	4771	4771	4838	4838	4771	4771	4771	4706	4706	4706	4643	4643	4643	4581	4581	4521	4521	4463	4406	4406	4406	4350	4350	4350	4350	4296	4350	4350	4350	4350	4350	4406	4406	4406	4463	4463	4521	4521	4581	4706	4706	4706	4706	4706	4706	4643	4643	4643	4643	4643	4643	4643	4643	4706	4706	4643	4643	4643	4643	4643	4643	4706	4643	4706	4706	4706	4706	4643	4643	4643	4643	4643	4643	4643	4643	4643	4643	4643	4643	4771	4771	4771	4771	4771	4771	4771	4706	4771	4706	4706	4706	4706	4706	4706	4706	4706	4706	4706	4706	4706	4643	4643	4643	4643	8146	7959	7959	7959	8146	8146	7959	7959	7959	8146	7959	8146	8146	8146	8146	8146	8146	8146	8146	8146	8343	8343	8146	8343	8343	8343	8343	8343	8343	8343	8343	8343	8343	8343	8343	8343	8343	8343	8343	8146	8146	8146	8146	8146	7959	8146	8146	8146	8146	8146	8146	8146	8343	8146	8146	8146	8146	8146	8146	8343	8550	8550	8550	8550	8550	8550	8550	8343	8343	8343	8343	8343	8343	0	0	0	0	0	0	0	0	0	0	0	0	1461	1461	1461	1455	1455	1449	1443	1443	0	0	0	0	0	0	0	0	0	0	0	0	0	0	0	0	0	0	0	0	0	0	0	0	0	0	0	0	0	0	0	0	0	0	0	0	0	0	0	0
0	0	0	0	0	0	930	930	935	935	937	940	940	945	945	948	950	950	955	958	961	961	966	972	980	980	985	985	988	991	994	994	1000	1003	1008	1011	1017	1017	1020	1026	1036	1036	1039	1042	1045	1045	1048	1052	1061	1058	1061	1064	1064	1068	1068	1068	1068	0	0	0	0	0	0	0	0	4643	4706	4771	4771	4838	4838	4838	4838	4838	4838	4838	4838	4771	4706	4706	0	0	0	0	0	0	0	0	0	0	4771	4643	4643	4581	4581	4643	4643	4643	4581	4581	4581	4581	4581	0	0	0	0	0	4838	4838	4771	4771	4771	4771	4706	4706	4706	4706	4771	4771	4771	4771	4771	4771	4771	4771	4706	4771	4771	4771	4771	4771	4706	4706	4706	4706	4706	4706	4771	4771	4771	4771	4771	4771	4771	4706	4706	4706	4706	4706	4706	4706	8146	8343	8343	8146	8146	8146	8343	8343	8343	8343	8343	8343	8343	8343	8343	8343	8146	8146	8146	8146	8146	8146	8146	8146	8146	8146	8146	8146	8146	8146	7959	8146	8146	8146	8146	8146	8146	8146	8146	8146	8146	7959	7959	7959	7959	7959	7779	7959	7959	7959	7959	7959	7959	7959	8146	7959	7959	7959	7959	8146	8146	8146	8146	8146	8146	8146	8146	8146	8146	8146	8146	8146	8146	8146	8146	0	0	0	3216	3246	3246	3246	3216	3216	3216	3186	3186	3216	3216	3216	3186	3186	3186	3186	3186	3186	3186	3157	3186	3157	3157	3157	3157	3157	3186	3186	3186	3157	3157	3157	3157	3157	3157	3157	3157	3157	3157	3157	3157	3157	3157	3157	3157	3157	3157	3157	3157	3157	3186	3157	3186	3157	3157	3157	3157	3186	3186	3186	3216	3216	3216	3216	3216	3216	3216	3186	3186	3216	3246	3246	3246	3246	3277	0	8550	8343	8343	8343	8343	8343	8343	8343	8343	8146	8146	8343	8550	4706	4771	4706	4771	4771	4771	4771	4771	4771	4771	4771	4771	4771	4771	4771	4771	4771	4838	4771	4771	4771	4771	4771	4771	4771	4771	4771	4771	4771	4771	4771	4771	4771	4771	4771	4771	4771	4771	4771	4771	4771	4706	4706	4706	4706	4706	4706	4771	4771	4771	4771	4771	4706	4771	4771	4706	4706	4706	4706	4706	4706	4706	4706	4706	4706	4706	4706	4706	4706	4706	4706	4771	4706	4706	4706	4706	4706	4706	4706	4771	4771	4771	4771	4771	4771	4771	4838	4838	4838	4771	4771	4706	4706	4643	4643	4581	4581	4521	4463	4463	4406	4406	4406	4406	4350	4350	4350	4350	4296	4350	4350	4350	4350	4350	4350	4406	4406	4406	4463	4463	4521	4521	4581	4643	4706	4706	4706	4706	4706	4706	4643	4706	4706	4643	4643	4643	4643	4643	4706	4643	4706	4706	4643	4643	4643	4706	4706	4706	4706	4706	4706	4643	4643	4643	4643	4643	4643	4643	4643	4643	4643	4643	4706	4771	4771	4771	4771	4771	4771	4771	4706	4771	4706	4706	4706	4706	4706	4706	4706	4771	4706	4706	4706	4706	4643	4643	4643	4643	8146	8146	7959	8146	8146	8146	7959	7959	7959	7959	7959	7959	8146	8146	8146	8146	8146	8146	8343	8343	8343	8343	8343	8343	8343	8343	8343	8343	8343	8343	8343	8343	8343	8343	8343	8343	8343	8343	8146	8146	8146	8146	8146	8146	8146	8146	8146	8146	8146	8146	8146	8146	8146	8146	8146	8146	8146	8146	8146	8343	8550	8343	8550	8550	8550	8343	8343	8343	8146	8146	8343	8343	8343	0	0	0	0	0	0	0	0	0	0	0	0	1461	1461	1461	1461	1455	1449	1443	1443	0	0	0	0	0	0	0	0	0	0	0	0	0	0	0	0	0	0	0	0	0	0	0	0	0	0	0	0	0	0	0	0	0	0	0	0	0	0	0	0
0	0	0	0	0	0	927	927	930	930	937	937	942	942	948	950	953	958	958	958	961	963	969	972	977	980	985	985	988	991	994	997	1000	1006	1006	1011	1014	1017	1020	1026	1033	1036	1039	1039	1042	1045	1048	1052	1061	1061	1061	1064	1064	1068	1068	1068	0	0	0	0	0	0	0	0	0	4643	4706	4706	4771	4771	4838	4838	4771	4838	4838	4838	4838	4771	4706	4706	4643	4643	0	0	0	0	0	0	0	0	4771	4643	4643	4643	4643	4643	4643	4643	4581	4643	4643	4581	4581	0	0	0	0	0	4838	4838	4838	4838	4771	4771	4771	4771	4771	4771	4771	4771	4771	4771	4771	4771	4771	4771	4771	4771	4771	4771	4771	4771	4706	4706	4706	4706	4771	4706	4771	4771	4771	4771	4771	4771	4771	4706	4706	4706	4706	4706	4706	4706	0	8146	8146	8146	8146	8146	8146	8343	8146	8146	8146	8343	8146	8343	8146	8146	8146	8146	8146	8146	8146	7959	8146	8146	8146	8146	8146	8146	7959	7959	7959	7959	8146	8146	8146	8146	8146	8343	8146	8146	8146	8146	7959	7959	7959	7959	7959	7959	7959	7959	8146	7959	7959	7959	7959	7959	7959	7959	7959	8146	8146	8146	8146	8146	8146	8146	8146	8146	8146	8146	8146	8146	8146	8146	8146	0	0	0	3216	3216	3246	3246	3186	3216	3216	3216	3216	3216	3186	3216	3186	3186	3186	3186	3186	3186	3186	3186	3186	3157	3157	3157	3157	3157	3157	3157	3157	3157	3157	3157	3157	3157	3157	3157	3157	3157	3157	3157	3157	3157	3157	3157	3157	3157	3157	3157	3157	3157	3157	3157	3186	3157	3157	3157	3157	3186	3186	3186	3216	3216	3216	3216	3216	3216	3216	3186	3186	3216	3216	3216	3246	3277	3277	0	0	8343	8343	8343	8343	8343	8343	8343	8343	8343	8146	8146	4706	4706	4771	4771	4771	4771	4771	4771	4771	4771	4771	4771	4771	4771	4771	4771	4771	4838	4838	4771	4771	4771	4771	4771	4771	4771	4771	4771	4771	4771	4771	4771	4771	4771	4771	4771	4771	4771	4771	4771	4771	4706	4706	4706	4706	4706	4706	4706	4706	4771	4771	4771	4771	4771	4771	4771	4706	4706	4706	4706	4706	4706	4706	4706	4706	4706	4706	4706	4706	4771	4706	4771	4771	4706	4706	4706	4706	4706	4706	4643	4771	4706	4771	4706	4706	4771	4771	4838	4838	4838	4838	4771	4706	4706	4643	4643	4581	4521	4521	4406	4406	4406	4406	4406	4406	4350	4350	4350	4350	4350	4350	4350	4350	4350	4350	4350	4406	4406	4406	4406	4463	4463	4521	4581	4643	4643	4643	4706	4706	4706	4643	4643	4643	4643	4643	4643	4643	4643	4643	4706	4643	4706	4706	4706	4706	4706	4706	4706	4706	4706	4706	4706	4643	4643	4643	4643	4643	4643	4643	4643	4643	4643	4643	4643	4706	4706	4771	4771	4771	4771	4771	4706	4771	4706	4706	4706	4706	4706	4706	4771	4771	4706	4706	4706	4706	4706	4706	4706	4706	8146	8146	8146	8146	8146	8146	8146	7959	7959	7959	7959	7959	8146	8146	8146	8146	8146	8146	8343	8343	8343	8343	8343	8343	8343	8343	8343	8343	8343	8343	8146	8146	8343	8343	8343	8343	8343	8343	8146	8146	8146	8146	8146	8146	7959	7959	8146	8146	8146	8146	8146	8146	8146	8146	8146	8146	8146	8146	8146	8343	8550	8550	8550	8550	8550	8550	8550	8343	8343	8343	8343	8343	8343	0	0	0	0	0	0	0	0	0	0	0	0	1461	1461	1461	1461	1455	1449	1437	1437	0	0	0	0	0	0	0	0	0	0	0	0	0	0	0	0	0	0	0	0	0	0	0	0	0	0	0	0	0	0	0	0	0	0	0	0	0	0	0	0
0	0	0	0	0	0	925	927	930	930	935	937	945	948	950	950	953	958	958	958	958	963	969	972	980	983	983	983	988	994	997	997	1003	1006	1006	1008	1014	1017	1020	1026	1033	1036	1039	1039	1042	1045	1048	1052	1061	1061	1061	1064	1064	1068	1071	1068	1068	0	0	0	0	0	0	0	0	4643	4706	4706	4771	4771	4771	4771	4771	4771	4771	4771	4771	4706	4706	4706	4643	4643	4643	0	0	0	0	0	0	0	4771	4706	4643	4643	4643	4706	4643	4643	4581	4581	4643	4581	4581	0	0	0	0	0	4838	4838	4771	4771	4771	4771	4771	4771	4771	4643	4643	4771	4771	4771	4771	4771	4771	4771	4771	4771	4771	4771	4771	4771	4771	4771	4706	4771	4771	4706	4771	4771	4771	4771	4771	4706	4706	4706	4643	4643	4643	4706	4706	4706	0	8146	8146	8146	8146	8146	8343	8343	8146	8146	8146	8146	8146	8146	8146	8146	8146	8146	8343	8146	8146	8146	8146	7959	8146	8146	7959	7959	7959	7779	7779	7779	7959	8146	8146	8146	8146	8343	8146	8146	8146	8146	7959	7959	7959	7959	7959	7959	8146	8146	7959	7959	7959	7959	7959	7779	7779	7959	7959	8146	8146	8146	8146	8146	8146	8146	8146	8146	8146	8146	8146	8146	8146	8146	8146	0	0	3186	3216	3216	3246	3277	3216	3246	3246	3216	3216	3216	3246	3216	3186	3186	3186	3186	3186	3186	3186	3157	3186	3157	3157	3157	3157	3157	3186	3157	3157	3157	3157	3157	3157	3157	3157	3157	3157	3157	3157	3157	3157	3157	3157	3129	3157	3157	3157	3157	3157	3157	3157	3157	3157	3157	3157	3157	3157	3186	3216	3216	3216	3216	3216	3216	3246	3216	3216	3186	3216	3216	3216	3216	3246	3246	3246	0	0	8343	8343	8343	8343	8343	8343	8343	8343	8343	8146	8146	4706	4706	4706	4706	4706	4771	4771	4771	4771	4771	4771	4771	4771	4771	4771	4771	4771	4771	4838	4771	4771	4771	4771	4771	4771	4771	4771	4771	4771	4706	4706	4771	4771	4771	4771	4771	4771	4771	4771	4771	4771	4771	4706	4706	4706	4706	4706	4706	4706	4706	4771	4771	4706	4706	4706	4706	4706	4706	4706	4706	4706	4706	4706	4643	4706	4706	4706	4706	4706	4706	4706	4706	4706	4706	4706	4706	4706	4706	4706	4643	4706	4706	4706	4771	4771	4771	4771	4771	4838	4838	4838	4771	4706	4643	4643	4581	4521	4521	4463	4463	4406	4406	4406	4406	4350	4350	4406	4350	4350	4350	4350	4350	4350	4350	4350	4350	4406	4406	4406	4406	4406	4463	4463	4521	4643	4643	4643	4706	4706	4643	4643	4643	4643	4706	4706	4643	4643	4643	4643	4643	4643	4706	4706	4706	4706	4706	4706	4706	4706	4706	4771	4706	4706	4643	4643	4643	4643	4643	4643	4643	4643	4643	4706	4706	4706	4706	4771	4771	4771	4771	4771	4771	4771	4706	4706	4771	4771	4771	4771	4771	4771	4771	4706	4706	4706	4643	4643	4643	7959	7959	8146	8146	8146	8146	8146	8146	7959	7959	7959	7779	7959	7959	8146	8146	8146	8146	8146	8343	8343	8343	8343	8343	8343	8343	8343	8146	8146	8146	8146	8146	8146	8146	8343	8343	8343	8343	8343	8146	8146	8146	8146	8146	8146	8146	8146	8146	8146	8146	8146	8146	8343	8343	8343	8146	8146	8146	8146	8146	8550	8343	8550	8550	8550	8550	8550	8343	8550	8343	8343	8343	8343	8343	0	0	0	0	0	0	0	0	0	0	0	0	1461	1455	1461	1455	1449	1443	1437	1437	0	0	0	0	0	0	0	0	0	0	0	0	0	0	0	0	0	0	0	0	0	0	0	0	0	0	0	0	0	0	0	0	0	0	0	0	0	0	0	0
0	0	0	0	0	0	925	927	930	930	935	940	945	948	950	950	953	955	958	958	958	963	969	972	977	983	985	985	985	991	994	997	1003	1006	1006	1008	1011	1017	1020	1026	1033	1033	1036	1039	1042	1045	1048	1052	1061	1061	1061	1064	1064	1068	1071	1071	1074	1081	1081	0	0	0	0	0	0	0	4706	4706	4771	4771	4771	4771	4771	4771	4771	4771	4771	4706	4706	4706	4643	4643	4643	0	0	0	0	0	0	0	0	4706	4643	4643	4643	4706	4643	4643	4581	4643	4643	4643	4643	0	0	0	0	0	0	4838	4838	4838	4771	4771	4771	4771	4771	4643	4643	4771	4771	4771	4771	4771	4771	4771	4771	4771	4771	4771	4771	4771	4771	4771	4706	4771	4771	4706	4706	4706	4771	4771	4706	4706	4706	4706	4643	4643	4643	4706	4706	4706	7779	8146	8146	8146	8146	8146	7959	8146	8146	8146	8146	8146	8146	8146	8146	8343	8146	8146	8146	8343	8146	8146	8146	8146	8146	7959	7959	7959	7959	7959	7779	7959	7959	8146	8146	8146	8146	8146	8146	8146	8146	8146	7959	7959	7959	7959	7959	7959	7959	8146	7959	7959	7959	8146	7959	7959	7959	7959	8146	8146	8146	8146	8146	8146	8146	8146	8146	8146	8146	8146	8146	8146	8146	8146	8146	0	0	3186	3186	3216	3216	3216	3186	3216	3216	3216	3216	3216	3246	3216	3186	3186	3186	3186	3186	3186	3186	3186	3186	3186	3157	3157	3157	3157	3186	3157	3157	3157	3157	3157	3157	3157	3157	3157	3157	3157	3157	3157	3157	3157	3157	3157	3157	3157	3157	3157	3157	3157	3157	3157	3186	3157	3157	3157	3157	3186	3186	3216	3216	3216	3246	3246	3246	3246	3216	3216	3246	3216	3216	3216	3246	3246	3246	0	0	8343	8343	8343	8343	8343	8343	8343	8343	8343	8146	7959	8146	4706	4706	4706	4771	4771	4771	4771	4771	4771	4771	4771	4771	4771	4771	4771	4771	4771	4771	4771	4771	4771	4771	4771	4771	4706	4706	4706	4706	4706	4706	4771	4771	4771	4771	4771	4771	4771	4771	4771	4771	4771	4771	4706	4706	4706	4706	4706	4706	4706	4706	4706	4706	4706	4706	4706	4706	4706	4706	4706	4706	4706	4706	4706	4706	4706	4706	4706	4706	4706	4706	4706	4771	4706	4706	4706	4706	4706	4643	4643	4706	4706	4706	4771	4771	4771	4771	4771	4838	4838	4771	4771	4643	4643	4581	4581	4521	4521	4521	4463	4406	4406	4406	4406	4406	4406	4406	4406	4406	4350	4350	4350	4350	4350	4350	4350	4350	4406	4406	4406	4406	4463	4463	4521	4581	4581	4581	4643	4706	4643	4643	4643	4643	4771	4706	4643	4706	4706	4706	4706	4706	4643	4643	4706	4706	4706	4706	4706	4771	4771	4771	4771	4706	4643	4643	4643	4643	4643	4643	4643	4643	4706	4643	4706	4706	4706	4706	4706	4706	4706	4706	4771	4771	4771	4771	4771	4771	4771	4771	4771	4706	4771	4706	4706	4706	4706	4581	4581	7959	7959	8146	8146	8146	8146	8146	8146	8146	7959	7959	7779	7959	7959	7959	8146	8146	8146	8146	8146	8343	8343	8343	8343	8343	8343	8146	8146	8146	8146	8146	8146	8146	8146	8343	8343	8343	8343	8146	8146	8146	8146	8146	8146	8146	8146	8146	8146	8146	8146	8146	8146	8146	8146	8343	8146	8146	8146	8146	8146	8550	8343	8550	8767	8767	8550	8550	8343	8146	8146	8343	8343	8343	0	0	0	0	0	0	0	0	0	0	0	0	0	1461	1455	1461	1455	1449	1443	1437	1437	0	0	0	0	0	0	0	0	0	0	0	0	0	0	0	0	0	0	0	0	0	0	0	0	0	0	0	0	0	0	0	0	0	0	0	0	0	0	0	0
0	0	0	0	0	0	925	927	927	930	935	940	945	948	950	950	953	955	958	958	961	963	966	972	974	983	985	983	985	991	994	1000	1003	1006	1006	1008	1011	1017	1023	1030	1033	1036	1036	1039	1042	1042	1048	1052	1058	1061	1061	1064	1064	1068	1071	1071	1078	1078	1078	0	0	0	0	0	0	0	0	0	4771	4771	4771	4771	4771	4771	4771	4771	4771	4771	4706	4706	4643	4643	4643	0	0	0	0	0	0	0	0	4771	4643	4706	4706	4771	4706	4643	4581	4643	4643	4581	4521	4521	0	0	0	0	0	4838	4771	4771	4771	4771	4771	4706	4771	4643	4643	4771	4771	4771	4771	4838	4838	4771	4771	4771	4771	4771	4838	4771	4771	4771	4706	4706	4706	4706	4706	4706	4706	4706	4706	4706	4706	4643	4643	4643	4643	4706	4706	0	7779	8146	8146	8146	8146	8146	8146	7959	7959	8146	8146	8146	8146	8146	8146	8146	8146	8146	8146	8146	8146	8146	8146	8146	8146	8146	7959	7779	7959	7779	7779	7779	7959	7959	8146	7959	8146	8146	8146	8146	8146	8146	7959	7959	7959	8146	7959	7959	8146	8146	7959	7959	8146	8146	8146	8146	7959	8146	8146	8146	8146	8146	8146	8146	8146	8146	8146	8146	8146	8146	8146	8146	8146	8146	8146	0	0	3186	3186	3216	3216	3216	3186	3216	3216	3216	3216	3216	3246	3216	3216	3186	3216	3216	3186	3186	3186	3186	3186	3186	3186	3157	3186	3186	3186	3186	3186	3157	3157	3157	3157	3157	3157	3157	3157	3157	3157	3157	3157	3157	3157	3157	3157	3157	3157	3157	3186	3157	3157	3157	3186	3157	3157	3157	3157	3157	3186	3216	3246	3277	3277	3277	3246	3246	3216	3216	3246	3216	3246	3246	3246	3277	3277	0	0	8550	8550	8343	8343	8343	8343	8343	8343	8343	8146	7959	8146	8146	4771	4771	4771	4706	4771	4771	4771	4771	4771	4771	4771	4771	4771	4771	4771	4771	4771	4771	4771	4771	4771	4771	4706	4706	4706	4706	4706	4706	4706	4771	4771	4771	4771	4771	4771	4771	4771	4771	4771	4771	4771	4706	4706	4706	4706	4706	4706	4706	4706	4706	4706	4706	4706	4706	4706	4706	4706	4706	4706	4706	4706	4706	4706	4706	4706	4706	4706	4706	4706	4706	4706	4706	4706	4643	4643	4643	4643	4643	4706	4706	4706	4706	4706	4771	4771	4771	4771	4771	4771	4771	4643	4643	4581	4643	4521	4521	4521	4521	4406	4406	4406	4406	4406	4406	4406	4406	4406	4350	4350	4350	4350	4350	4350	4350	4350	4350	4350	4350	4406	4406	4521	4581	4581	4581	4643	4643	4643	4643	4643	4643	4643	4771	4706	4706	4643	4706	4643	4706	4706	4643	4643	4706	4706	4706	4706	4706	4706	4706	4706	4643	4643	4643	4643	4643	4643	4643	4643	4643	4643	4643	4643	4706	4706	4706	4706	4706	4706	4706	4706	4771	4771	4771	4771	4771	4771	4771	4771	4771	4706	4706	4706	4706	4643	4581	4581	4581	4581	7959	7959	8146	8146	8146	8146	8146	8146	7779	7779	7779	7779	7779	7959	7959	8146	8146	8146	8146	8146	8343	8146	8146	8146	8343	8343	8146	8146	8146	8146	8146	8146	8146	8146	8343	8343	8343	8146	8146	8146	8146	8146	8146	8343	8343	8343	8343	8146	8146	8146	8146	8146	8146	8146	8146	8146	8146	8146	8146	8343	8550	8550	8550	8550	8550	8550	8550	8343	8146	8343	8343	8343	0	0	0	0	0	0	0	0	0	0	0	0	0	1461	1455	1455	1449	1443	1443	1437	1437	0	0	0	0	0	0	0	0	0	0	0	0	0	0	0	0	0	0	0	0	0	0	0	0	0	0	0	0	0	0	0	0	0	0	0	0	0	0	0	0
0	0	0	0	0	0	925	925	927	930	937	942	948	950	950	950	953	955	958	958	961	961	963	969	972	983	985	985	988	991	997	1000	1000	1006	1006	1008	1011	1023	1026	1030	1033	1033	1036	1036	1042	1042	1052	1055	1058	1061	1061	1064	1064	1068	1071	1071	1071	1071	1078	0	0	0	0	0	0	0	0	4771	4771	4706	4771	4771	4771	4771	4771	4771	4771	4771	4706	4706	4643	4706	4706	4706	0	0	0	0	0	0	0	4838	4771	4771	4706	4771	4706	4643	4581	4643	4643	4581	4581	4521	0	0	0	0	0	0	4771	4771	4771	4771	4706	4706	4706	4643	4643	4771	4771	4771	4771	4771	4771	4771	4771	4771	4771	4771	4771	4771	4771	4706	4706	4706	4706	4706	4706	4706	4706	4706	4706	4706	4706	4706	4643	4643	4643	4643	4643	0	7779	8146	8146	7959	7959	7959	7959	7959	7959	7959	8146	8146	8146	8146	8146	8146	8146	8146	8146	8146	8146	8146	8146	8146	8146	8146	8146	7959	7959	7779	7779	7779	7779	7959	7959	7959	8146	8146	8146	8146	8146	7959	7959	7959	7959	8146	7959	8146	8146	8146	8146	7959	7959	8146	8146	8146	7959	8146	8146	8146	8146	8146	8146	8146	8146	8146	8146	8146	8146	8146	8146	8146	8146	8146	8146	0	0	3186	3186	3186	3216	3216	3216	3216	3216	3216	3216	3216	3246	3216	3186	3186	3216	3216	3186	3216	3186	3186	3186	3186	3186	3186	3186	3186	3186	3186	3186	3186	3186	3157	3157	3186	3157	3157	3157	3157	3157	3157	3157	3157	3157	3157	3157	3157	3157	3186	3157	3157	3157	3157	3157	3157	3157	3157	3186	3186	3186	3186	3216	3216	3277	3216	3216	3216	3216	3216	3246	3246	3246	3246	3246	3277	3277	3277	0	8550	8343	8343	8343	8343	8343	8343	8343	8146	8146	7959	8146	4771	4771	4771	4771	4771	4771	4771	4771	4771	4771	4771	4771	4771	4771	4771	4771	4771	4771	4771	4771	4771	4771	4706	4706	4706	4706	4706	4706	4706	4706	4771	4771	4771	4771	4771	4771	4771	4771	4771	4771	4771	4771	4706	4706	4706	4706	4706	4706	4706	4706	4706	4706	4706	4706	4706	4706	4706	4643	4706	4706	4706	4706	4706	4706	4706	4643	4706	4706	4706	4706	4706	4706	4706	4706	4706	4643	4643	4643	4643	4706	4706	4706	4706	4706	4706	4771	4771	4706	4771	4771	4771	4643	4643	4581	4581	4581	4521	4521	4521	4406	4406	4463	4406	4406	4406	4406	4406	4406	4350	4350	4350	4350	4350	4350	4350	4350	4350	4350	4350	4406	4406	4521	4581	4581	4581	4643	4706	4706	4643	4706	4706	4643	4643	4643	4643	4643	4643	4643	4643	4643	4643	4643	4643	4643	4643	4643	4706	4706	4706	4706	4706	4643	4643	4643	4643	4643	4643	4643	4643	4643	4643	4643	4643	4771	4706	4706	4706	4706	4706	4706	4706	4706	4771	4706	4771	4706	4771	4771	4706	4706	4706	4706	4706	4643	4521	4521	4521	8146	8146	8146	7959	7959	7959	8146	8146	7959	7779	7959	7959	7959	7959	7959	8146	8146	8146	8146	8146	8146	8146	8146	8146	8343	8146	8343	8146	8146	8146	8146	8146	8146	8146	8146	8343	8343	8146	8146	8146	8146	8343	8343	8146	8343	8343	8343	8343	8146	8146	8146	7959	8146	8146	8146	8146	8146	8146	8146	8146	8146	8550	8550	8767	8767	8550	8550	8550	8343	8343	8343	8343	8146	8146	0	0	0	0	0	0	0	0	0	0	0	0	0	1437	1443	1443	1443	1437	1431	1431	0	0	0	0	0	0	0	0	0	0	0	0	0	0	0	0	0	0	0	0	0	0	0	0	0	0	0	0	0	0	0	0	0	0	0	0	0	0	0	0
0	0	0	0	0	0	925	925	927	930	935	945	948	950	950	950	953	955	958	958	961	963	966	969	972	983	985	985	988	991	997	1000	1000	1003	1006	1008	1011	1020	1026	1030	1033	1033	1036	1036	1039	1045	1052	1055	1061	1061	1061	1061	1061	1068	1071	1071	1071	1071	0	0	0	0	0	0	0	0	4906	4906	4771	4706	4771	4771	4771	4771	4706	4706	4771	4771	4706	4771	4838	4771	4771	4771	0	0	0	0	0	0	0	4771	4771	4771	4706	4771	4706	4643	4581	4643	4581	4581	4581	0	0	0	0	0	0	4771	4771	4771	4771	4771	4706	4706	4706	4706	4643	4643	4771	4771	4771	4771	4771	4771	4771	4771	4771	4771	4771	4706	4771	4771	4706	4706	4706	4706	4706	4643	4706	4706	4706	4706	4706	4643	4643	4643	4643	4581	4581	0	7779	7959	7959	7959	7779	7779	7959	7959	7959	8146	8146	8146	8146	8146	8146	8146	8146	8146	8146	8146	8146	8146	8146	8146	8146	8146	8146	7959	8146	7959	7779	7608	7608	7959	7959	7959	8146	8146	8146	8146	8146	8146	8146	8146	7959	7959	7959	7959	7959	7959	7959	7959	7959	8146	8146	7959	7959	8146	8146	8146	8146	8146	8146	8146	7959	7959	8146	8146	8146	8146	8146	8146	8146	8146	8146	0	0	0	3186	3186	3216	3216	3186	3216	3216	3216	3216	3216	3216	3216	3186	3186	3186	3216	3216	3186	3186	3186	3186	3186	3186	3186	3186	3186	3186	3186	3186	3186	3186	3157	3157	3186	3157	3157	3157	3157	3157	3157	3157	3157	3157	3157	3157	3157	3157	3157	3157	3157	3157	3157	3157	3157	3157	3157	3186	3186	3186	3186	3216	3216	3216	3216	3216	3216	3216	3216	3246	3246	3246	3246	3216	3277	3277	3277	0	0	8343	8343	8146	8343	8343	8343	8343	8146	8146	8146	8146	8146	4771	4771	4706	4771	4771	4771	4771	4771	4771	4771	4771	4771	4771	4771	4771	4771	4771	4771	4771	4771	4771	4706	4706	4706	4706	4706	4706	4706	4706	4771	4771	4771	4771	4771	4771	4771	4771	4771	4771	4771	4771	4706	4706	4706	4706	4706	4643	4643	4706	4706	4643	4643	4706	4643	4643	4643	4643	4706	4706	4706	4706	4706	4706	4706	4771	4771	4706	4706	4706	4706	4706	4706	4706	4706	4643	4643	4643	4643	4706	4706	4706	4706	4771	4771	4771	4771	4771	4771	4771	4643	4643	4643	4581	4581	4581	4521	4521	4521	4406	4406	4406	4406	4406	4406	4406	4406	4406	4406	4406	4406	4350	4350	4350	4350	4350	4350	4350	4350	4406	4406	4463	4521	4581	4643	4643	4643	4706	4706	4706	4706	4643	4643	4643	4643	4643	4643	4643	4643	4643	4643	4643	4643	4643	4643	4643	4643	4706	4706	4706	4643	4643	4643	4643	4643	4643	4643	4643	4643	4643	4643	4706	4643	4706	4706	4706	4706	4706	4706	4706	4706	4771	4771	4706	4771	4706	4771	4706	4706	4706	4706	4706	4706	4643	4643	4643	4643	8146	8146	8146	7959	7959	8146	8146	8146	8146	7779	7959	7959	7959	7959	7959	7959	7959	7959	8146	8146	8146	8146	8146	8146	8343	8146	8343	8146	8146	8146	8146	8146	8343	8343	8343	8343	8343	8343	8343	8343	8146	8343	8343	8146	8343	8343	8343	8343	8146	8146	8146	7779	8146	8146	8146	7959	7959	7959	7959	7959	8343	8550	8550	8767	8767	8767	8550	8550	8550	8343	8343	8343	8343	8343	0	0	0	0	0	0	0	0	0	0	0	0	0	1431	1437	1437	1437	1437	1431	1431	0	0	0	0	0	0	0	0	0	0	0	0	0	0	0	0	0	0	0	0	0	0	0	0	0	0	0	0	0	0	0	0	0	0	0	0	0	0	0	0
