0	0	0	0	0	0	0	922	922	930	940	945	948	948	948	948	950	953	955	958	961	963	966	969	972	977	980	980	980	983	985	991	994	1000	1003	1003	1011	1017	1023	1030	1036	1039	1039	1039	1039	1039	1042	1042	1042	1042	1042	1042	1045	1045	0	0	0	0	0	0	0	0	0	0	0	0	4706	4706	4706	4706	4706	4706	4706	4643	4643	4643	4581	4581	4643	0	0	0	0	0	0	0	0	4581	4643	4643	4643	4643	4643	4643	4643	4643	4581	4581	0	0	0	0	0	0	0	0	4643	4643	4643	4643	4643	4643	4643	4643	4706	4706	4706	4706	4643	4643	4581	4643	4643	4643	4643	4581	4643	4643	4643	4643	4643	4643	4643	4643	4643	4581	4581	4581	4581	4581	4581	4581	4643	4643	4643	4643	4643	4581	4706	4706	4706	4771	4771	5050	5050	5050	5050	5125	5125	5202	5202	5202	5202	5202	5125	5125	5125	5125	5202	5202	5202	5202	5202	5202	5202	5202	5202	5202	5202	5202	5202	5125	5125	0	0	0	0	0	0	0	0	0	0	0	0	0	0	0	0	0	0	0	0	6468	6592	6853	6853	6853	6853	6853	6853	0	0	0	0	0	0	0	0	0	0	0	0	0	0	0	0	0	0	0	0	0	0	0	0	7608	7779	7779	7779	7779	7608	7608	7608	7608	7608	7608	7608	7608	7608	7608	0	0	0	3186	3186	3216	3186	3186	3186	3186	3186	3186	3186	3216	3186	3216	3216	3216	3216	3186	3186	3186	3186	3186	3186	3186	3186	3186	3186	3186	3186	3157	3186	3186	3186	3186	3186	3186	3186	3186	3186	3186	3186	3186	0	5282	5282	5282	5282	5282	5282	5282	5282	5202	5282	5282	5282	0	0	0	0	0	0	0	0	0	0	0	0	0	0	0	0	0	0	0	0	0	0	0	0	0	0	0	0	0	4142	4142	4142	4142	4093	4093	4142	4142	4142	4142	4093	4142	4142	4142	4142	4142	4142	4142	4142	4142	4463	4463	4521	4581	4581	4581	4581	4581	4581	4581	4581	4581	4581	4581	4581	4581	4581	4581	4581	4581	4581	4581	4581	4581	4581	4581	4581	4581	4581	4581	4581	4581	4581	4581	4581	4581	4581	4581	4643	4643	4643	4643	4643	4643	4581	4643	4643	4643	4643	4643	4643	4643	4643	4643	4643	4643	4643	4643	4643	4643	4643	4643	4643	4643	4581	4521	4406	4350	4350	4350	4406	4463	4521	4521	4581	4581	4581	4581	4581	4581	4581	4581	4643	4581	4581	4581	4581	4521	4521	4521	4521	4581	4581	4581	4581	4581	4581	4581	4581	4581	4581	4581	4581	4581	4581	4581	4581	4581	4581	4521	4521	4521	4581	4581	4581	4581	4581	4581	4581	4581	4581	4581	4581	4521	4521	4581	4581	4521	4521	4463	4463	4463	4463	4463	4463	4463	4463	4463	4463	4406	4406	4406	4406	4406	4463	4463	4521	4581	4581	4643	4643	4643	4643	4706	4771	4906	4906	4977	4977	4977	0	4838	4838	0	0	0	4977	4977	0	0	0	0	0	0	0	0	0	0	0	0	0	0	0	0	0	0	0	0	0	0	0	6992	6992	6992	6992	6992	6853	6992	6992	0	0	6992	6992	6992	7137	6992	6853	6992	6853	6853	0	0	0	0	0	0	0	0	0	0	0	0	0	0	0	0	0	0	0	0	0	0	0	0	1425	1413	1407	1407	1402	1402	1402	1396	1390	1390	1390	0	0	0	0	0	0	0	0	0	0	0	0	0	0	0	0	0	0	0	0	0	0	0	0	0	0	0	0	0	0	0	0	0	0	0	0	0	0	0
0	0	0	0	0	0	0	922	922	932	932	945	948	948	948	948	950	953	955	955	961	963	966	969	972	974	977	980	980	983	988	991	994	1000	1003	1003	1011	1020	1023	1026	1033	1036	1039	1039	1039	1039	1042	1042	1042	1042	1042	1042	1045	1045	0	0	0	0	0	0	0	0	0	0	0	0	0	4706	4706	4706	4643	4706	4706	4643	4643	4581	4643	4643	0	0	0	0	0	0	0	0	0	4581	4643	4643	4706	4643	4643	4643	4706	4706	4643	4643	0	0	0	0	0	0	0	0	0	4643	4706	4643	4643	4643	4643	4706	4706	4643	4706	4643	4643	4643	4643	4643	4643	4643	4643	4581	4581	4581	4581	4581	4581	4581	4581	4643	4643	4581	4581	4581	4581	4581	4581	4581	4643	4643	4643	4643	4643	4643	4706	4706	4706	4771	4771	5050	5050	5050	4977	4977	5125	5125	5202	5202	5202	5202	5125	5202	5125	5202	5202	5202	5202	5202	5202	5282	5202	5202	5202	5202	5202	5202	5202	5125	5125	5125	0	0	0	0	0	0	0	0	0	0	0	0	0	0	0	0	0	0	0	0	6592	6992	6853	6853	6853	6853	6853	6853	0	0	0	0	0	0	0	0	0	0	0	0	0	0	0	0	0	0	0	0	0	0	0	7444	7608	7608	7779	7608	7608	7608	7608	7608	7608	7608	7608	7444	7444	7444	0	0	0	3216	3186	3216	3186	3186	3186	3186	3186	3186	3186	3186	3186	3186	3216	3216	3216	3186	3186	3186	3186	3186	3186	3186	3186	3186	3186	3186	3186	3157	3157	3186	3186	3186	3186	3186	3186	3186	3186	3186	3186	3186	5282	5282	5282	5282	5282	5282	5282	5282	5282	5202	5202	5282	5282	0	0	0	0	0	0	0	0	0	0	0	0	0	0	0	0	0	0	0	0	0	0	0	0	0	0	0	0	0	4142	4142	4142	4142	4093	4093	4142	4142	4142	4142	4093	4142	4142	4142	4142	4142	4142	4142	4142	4243	4406	4463	4521	4581	4581	4581	4581	4581	4581	4581	4581	4581	4581	4581	4581	4581	4581	4581	4581	4581	4581	4581	4581	4581	4581	4581	4581	4581	4581	4581	4581	4581	4581	4581	4581	4581	4581	4581	4643	4643	4643	4643	4643	4643	4581	4643	4643	4643	4643	4643	4643	4643	4643	4643	4643	4581	4581	4643	4643	4643	4643	4643	4643	4643	4581	4521	4463	4350	4406	4406	4406	4463	4463	4521	4581	4581	4581	4581	4581	4581	4581	4581	4581	4581	4581	4581	4581	4521	4521	4521	4521	4521	4581	4581	4581	4581	4581	4581	4581	4581	4581	4581	4581	4581	4581	4581	4581	4581	4581	4521	4521	4581	4581	4521	4521	4581	4581	4581	4581	4581	4581	4581	4581	4581	4581	4581	4581	4581	4521	4521	4521	4581	4521	4463	4463	4463	4463	4463	4463	4463	4406	4406	4406	4406	4463	4463	4463	4581	4581	4643	4643	4643	4706	4771	4838	4906	4906	4977	4977	4977	4906	4838	4977	4977	4977	4977	5050	4977	4977	0	0	0	0	0	0	0	0	0	0	0	0	0	0	0	0	0	0	0	0	0	0	6992	6992	6992	6992	6853	6853	6992	6853	6992	6992	6992	6992	6992	6992	6992	6853	6853	6853	6853	0	0	0	0	0	0	0	0	0	0	0	0	0	0	0	0	0	0	0	0	0	0	0	1437	1425	1419	1407	1407	1402	1402	1396	1396	1390	1390	1390	0	0	0	0	0	0	0	0	0	0	0	0	0	0	0	0	0	0	0	0	0	0	0	0	0	0	0	0	0	0	0	0	0	0	0	0	0	0	0
0	0	0	0	0	0	0	922	922	937	942	945	945	948	948	948	950	953	955	958	961	963	966	969	972	972	977	980	980	985	988	994	1000	1000	1003	1006	1006	1017	1020	1023	1026	1033	1036	1039	1039	1039	1042	1042	1042	1042	1045	1048	1048	1048	1052	1052	0	0	0	0	0	0	0	0	0	0	0	0	4643	4643	4643	4643	4643	4643	4643	4581	4581	4581	0	0	0	0	0	0	0	0	0	0	4643	4706	4706	4706	4706	4706	4706	4643	4643	4643	0	0	0	0	0	0	0	0	0	4706	4706	4706	4643	4643	4643	4706	4643	4643	4643	4643	4581	4581	4643	4643	4643	4643	4643	4581	4581	4581	4581	4581	4581	4581	4581	4581	4581	4581	4581	4581	4581	4581	4581	4581	4643	4643	4643	4581	4643	4581	4706	4706	4706	4771	4838	4977	4977	5050	5050	5125	5202	5202	5202	5202	5202	5125	5125	5125	5125	5125	5202	5202	5202	5202	5202	5282	5282	5282	5202	5202	5202	5202	5202	5125	5125	5125	0	0	0	0	0	0	0	0	0	0	0	0	0	0	0	0	0	0	0	6720	6720	6853	6853	6853	6853	6720	6720	6853	0	0	0	0	0	0	0	0	0	0	0	0	0	0	0	0	0	0	0	0	0	0	0	7444	7444	7608	7608	7608	7608	7608	7608	7608	7608	7608	7444	7444	7287	7287	0	0	0	3216	3216	3216	3186	3186	3186	3186	3186	3216	3186	3216	3186	3216	3216	3216	3216	3186	3186	3186	3186	3186	3186	3186	3186	3186	3186	3186	3186	3157	3186	3186	3186	3186	3186	3186	3186	3186	3186	3186	3186	3186	5282	5282	5282	5282	5282	5282	5282	5282	5282	5202	5202	5202	5125	5125	0	0	0	0	0	0	0	0	0	0	0	0	0	0	0	0	0	0	0	0	0	0	0	0	0	0	0	0	4142	4142	4142	4142	4142	4142	4142	4142	4142	4142	4093	4093	4142	4142	4142	4142	4142	4142	4142	4243	4406	4463	4521	4581	4581	4581	4581	4581	4581	4581	4581	4581	4581	4581	4581	4581	4581	4581	4581	4581	4521	4521	4581	4581	4581	4581	4581	4581	4581	4581	4581	4581	4581	4581	4581	4581	4581	4581	4581	4643	4581	4581	4643	4581	4581	4643	4643	4643	4643	4706	4643	4643	4643	4643	4643	4581	4581	4581	4581	4581	4643	4643	4643	4643	4581	4521	4463	4406	4406	4406	4463	4463	4521	4521	4581	4581	4581	4581	4521	4581	4581	4581	4581	4581	4581	4581	4581	4521	4521	4521	4521	4521	4581	4581	4581	4581	4581	4581	4581	4581	4581	4581	4581	4581	4581	4581	4581	4581	4581	4581	4581	4581	4581	4521	4521	4581	4581	4581	4581	4581	4581	4581	4581	4581	4581	4581	4581	4581	4581	4581	4521	4581	4521	4463	4463	4463	4463	4463	4463	4463	4463	4406	4406	4406	4406	4521	4521	4581	4581	4643	4643	4643	4706	4771	4771	4838	4906	4977	4977	4977	4977	4906	4977	4977	4977	4977	5050	5050	5050	0	0	0	0	0	0	0	0	0	0	0	0	0	0	0	0	0	0	0	0	0	0	6992	6992	6853	6992	6853	6853	6853	6720	6853	6720	6853	6853	6992	6992	0	6853	6853	0	0	0	0	0	0	0	0	0	0	0	0	0	0	0	0	0	0	0	0	0	0	0	0	0	1431	1425	1425	1413	1407	1402	1402	1402	1396	1390	1385	1385	0	0	0	0	0	0	0	0	0	0	0	0	0	0	0	0	0	0	0	0	0	0	0	0	0	0	0	0	0	0	0	0	0	0	0	0	0	0	0
0	0	0	0	0	0	0	925	925	932	937	942	945	948	948	948	950	953	958	958	963	963	966	969	972	974	977	980	983	985	991	991	1000	1003	1006	1006	1008	1017	1020	1020	1030	1036	1036	1039	1039	1042	1042	1042	1045	1045	1048	1048	1052	1052	1052	1052	0	0	0	0	0	0	0	0	0	0	0	0	4706	4643	4643	4643	4643	4643	4581	4581	4581	4581	0	0	0	0	0	0	0	0	0	4643	4706	4706	4706	4706	4771	4771	4706	4643	4643	4581	4643	4643	0	0	0	0	0	0	0	4643	4706	4706	4643	4643	4706	4706	4643	4643	4643	4643	4581	4643	4643	4643	4643	4643	4643	4581	4581	4581	4581	4581	4581	4581	4581	4643	4581	4581	4581	4581	4581	4581	4581	4581	4643	4643	4581	4581	4581	4581	4643	4706	4706	4771	4838	4906	5050	5050	5125	5125	5202	5202	5202	5202	5202	5125	5125	5125	5125	5125	5125	5202	5202	5202	5202	5282	5282	5282	5202	5202	5202	5202	5202	5202	5202	5202	0	0	0	0	0	0	0	0	0	0	0	0	0	0	0	0	0	0	0	6720	6720	6853	6853	6992	6853	6853	6853	6853	0	0	0	0	0	0	0	0	0	0	0	0	0	0	0	0	0	0	0	0	0	0	7287	7287	7444	7444	7608	7608	7608	7608	7608	7444	7608	7444	7287	7287	7137	7137	7137	0	3216	3216	3216	3216	3216	3216	3216	3216	3216	3216	3186	3216	3186	3216	3216	3216	3216	3186	3186	3186	3186	3186	3186	3186	3186	3186	3186	3186	3186	3186	3186	3186	3186	3186	3186	3186	3186	3186	3186	3186	3186	3186	5282	5282	5282	5282	5282	5282	5282	5282	5282	5202	5202	5202	5125	5050	5050	0	0	0	0	0	0	0	0	0	0	0	0	0	0	0	0	0	0	0	0	0	0	0	0	0	0	0	4142	4142	4142	4142	4142	4142	4142	4142	4142	4142	4093	4093	4142	4142	4093	4142	4142	4142	4192	4243	4406	4463	4521	4521	4521	4521	4521	4581	4581	4581	4581	4581	4581	4581	4581	4581	4581	4521	4521	4521	4521	4521	4521	4521	4581	4581	4581	4581	4581	4581	4581	4581	4581	4581	4581	4581	4581	4581	4581	4581	4581	4581	4581	4581	4581	4643	4643	4643	4643	4706	4643	4643	4643	4643	4643	4581	4581	4581	4581	4581	4581	4581	4581	4581	4581	4581	4521	4350	4350	4406	4406	4463	4463	4521	4521	4581	4581	4521	4521	4581	4581	4581	4581	4581	4581	4581	4581	4521	4521	4521	4521	4521	4581	4521	4581	4581	4581	4581	4581	4581	4581	4581	4581	4581	4581	4581	4581	4581	4581	4581	4581	4581	4581	4581	4581	4581	4581	4581	4581	4581	4581	4581	4581	4581	4581	4581	4581	4581	4581	4581	4521	4581	4521	4463	4463	4463	4463	4463	4463	4406	4406	4406	4406	4406	4406	4463	4463	4581	4581	4643	4643	4643	4706	4771	4771	4838	4906	4977	4977	4977	4977	4977	4977	4977	4977	4977	5050	5050	5050	0	0	0	0	0	0	0	0	0	0	0	0	0	0	0	0	0	0	0	0	0	0	6992	6853	6853	6992	6853	6853	6853	6720	6853	6720	6720	6853	6853	6992	0	0	0	0	0	0	0	0	0	0	0	0	0	0	0	0	0	0	0	0	0	0	0	0	0	0	0	0	1437	1431	1425	1419	1413	1407	1407	1402	1396	1390	1385	1385	0	0	0	0	0	0	0	0	0	0	0	0	0	0	0	0	0	0	0	0	0	0	0	0	0	0	0	0	0	0	0	0	0	0	0	0	0	0	0
0	0	0	0	0	0	0	922	925	935	937	942	945	945	948	948	950	953	958	961	963	966	969	969	972	974	974	974	980	985	991	994	1000	1003	1006	1006	1008	1014	1017	1020	1026	1033	1033	1039	1039	1042	1042	1042	1045	1045	1048	1048	1052	1052	1052	1052	0	0	0	0	0	0	0	0	0	0	0	0	4643	4581	4643	4643	4643	4643	4643	4643	4581	4581	0	0	0	0	0	0	0	0	0	4706	4643	4706	4771	4771	4771	4771	4771	4838	4706	4706	4643	4643	0	0	0	0	0	0	4643	4643	4706	4706	4643	4643	4643	4643	4643	4643	4643	4643	4643	4643	4643	4643	4643	4643	4643	4581	4581	4581	4581	4581	4581	4581	4581	4643	4581	4581	4581	4581	4581	4581	4581	4581	4643	4643	4581	4581	4581	4581	4706	4706	4706	4771	4906	4977	5050	5050	5125	5125	5202	5202	5202	5202	5202	5125	5125	5125	5125	5202	5202	5202	5202	5202	5202	5282	5282	5282	5282	5282	5282	5202	5202	5202	5202	5202	0	0	0	0	0	0	0	0	0	0	0	0	0	0	0	0	0	0	0	0	0	6853	6992	6992	6992	6992	6992	6853	0	0	0	0	0	0	0	0	0	0	0	0	0	0	0	0	0	0	0	0	0	0	7287	7287	7444	7444	7608	7608	7608	7608	7608	7444	7608	7444	7287	7287	7137	7137	7137	0	3216	3246	3246	3277	3246	3246	3216	3216	3216	3216	3186	3216	3186	3216	3216	3186	3186	3186	3186	3186	3186	3186	3186	3186	3186	3186	3186	3186	3186	3186	3186	3186	3186	3186	3186	3186	3186	3186	3186	3186	3186	3186	5282	5282	5282	5282	5282	5282	5282	5202	5282	5202	5202	5202	5050	4977	4977	0	0	0	0	0	0	0	0	0	0	0	0	0	0	0	0	0	0	0	0	0	0	0	0	0	0	0	4142	4142	4142	4142	4142	4142	4142	4142	4142	4142	4093	4093	4142	4142	4093	4142	4142	4142	4192	4142	4142	4521	4521	4521	4521	4521	4521	4521	4521	4521	4521	4521	4581	4581	4581	4581	4521	4521	4521	4521	4521	4521	4521	4521	4581	4581	4581	4581	4581	4581	4581	4581	4581	4521	4521	4581	4521	4581	4581	4581	4581	4581	4581	4581	4581	4643	4643	4643	4643	4643	4643	4643	4643	4581	4581	4521	4521	4521	4521	4581	4581	4581	4581	4581	4581	4521	4463	4350	4350	4350	4406	4463	4463	4521	4521	4581	4581	4581	4581	4581	4581	4581	4581	4581	4581	4581	4581	4581	4581	4581	4521	4521	4581	4521	4581	4581	4581	4581	4581	4581	4581	4581	4581	4581	4581	4581	4581	4581	4581	4581	4581	4581	4581	4581	4581	4581	4581	4581	4581	4581	4581	4581	4581	4581	4581	4581	4581	4581	4581	4581	4521	4581	4521	4463	4463	4463	4463	4463	4463	4406	4406	4406	4406	4406	4406	4463	4463	4581	4643	4643	4643	4643	4706	4771	4771	4771	4906	4977	4977	4977	4977	4977	4977	4977	4977	4977	5050	5050	5125	5125	5125	0	0	0	0	0	0	0	0	0	0	0	0	0	0	0	0	0	0	0	0	6992	6853	6853	6853	6853	6853	6853	6720	6720	6720	6720	6853	6853	0	0	0	0	0	0	0	0	0	0	0	0	0	0	0	0	0	0	0	0	0	0	0	0	0	0	0	0	0	1431	1431	1425	1419	1413	1407	1407	1402	1396	1390	1385	1385	0	0	0	0	0	0	0	0	0	0	0	0	0	0	0	0	0	0	0	0	0	0	0	0	0	0	0	0	0	0	0	0	0	0	0	0	0	0	0
0	0	0	0	0	0	0	925	927	935	937	942	945	945	948	948	950	953	958	961	961	966	966	969	972	974	974	980	980	983	988	997	1003	1006	1008	1008	1011	1017	1020	1020	1023	1030	1033	1039	1036	1039	1045	1045	1048	1048	1052	1052	1052	1052	0	0	0	0	0	0	0	0	0	0	0	0	0	0	4643	4581	4643	4643	4643	4643	4643	4643	4643	4643	0	0	0	0	0	0	0	0	4706	4706	4706	4706	4706	4771	4771	4771	4771	4838	4706	4706	4643	4643	0	0	0	0	0	0	4643	4643	4706	4706	4643	4643	4643	4643	4643	4643	4643	4643	4643	4643	4643	4643	4643	4643	4643	4581	4581	4581	4581	4581	4581	4581	4581	4581	4581	4581	4581	4581	4581	4581	4581	4581	4643	4643	4643	4581	4581	4643	4706	4706	4771	4771	4906	4977	5050	5050	5125	5202	5202	5202	5202	5202	5202	5202	5202	5202	5202	5202	5202	5202	5202	5202	5282	5282	5282	5282	5282	5282	5282	5202	5202	5282	5202	5202	0	0	0	0	0	0	0	0	0	0	0	0	0	0	0	0	0	0	0	0	6853	6853	6992	6992	6992	6992	6992	0	0	0	0	0	0	0	0	0	0	0	0	0	0	0	0	0	0	0	0	0	0	0	0	7287	7287	7287	7608	7608	7608	7608	7608	7444	7444	7608	7287	7137	7137	7137	0	0	0	3277	3277	3277	3246	3246	3216	3216	3216	3216	3186	3216	3186	3216	3216	3216	3216	3186	3186	3186	3186	3186	3186	3186	3186	3186	3186	3186	3186	3186	3186	3186	3186	3186	3186	3186	3186	3186	3186	3186	3186	3186	5364	5282	5282	5282	5282	5282	5282	5202	5202	5202	5125	5125	5050	5050	4977	0	0	0	0	0	0	0	0	0	0	0	0	0	0	0	0	0	0	0	0	0	0	0	0	0	0	0	4142	4142	4192	4192	4142	4142	4142	4142	4142	4142	4142	4142	4142	4142	4142	4142	4142	4142	4142	4142	4581	4581	4581	4521	4521	4521	4521	4521	4521	4521	4521	4521	4521	4521	4521	4521	4521	4463	4463	4463	4463	4521	4521	4521	4521	4581	4581	4581	4581	4581	4581	4581	4581	4521	4521	4521	4521	4521	4521	4581	4521	4581	4581	4521	4581	4581	4643	4643	4643	4581	4581	4581	4521	4521	4521	4521	4463	4521	4521	4521	4581	4581	4581	4581	4521	4521	4463	4350	4296	4350	4350	4406	4463	4463	4521	4521	4581	4581	4581	4581	4581	4581	4581	4581	4581	4581	4581	4581	4581	4581	4581	4581	4581	4581	4581	4581	4581	4581	4581	4581	4581	4581	4581	4581	4581	4581	4521	4521	4581	4521	4581	4581	4643	4581	4643	4581	4643	4581	4581	4581	4581	4581	4581	4581	4581	4581	4581	4581	4581	4581	4521	4643	4521	4521	4521	4463	4463	4463	4463	4463	4406	4406	4406	4406	4463	4521	4463	4581	4643	4643	4643	4643	4706	4771	4771	4771	4838	4977	4977	4906	4906	4977	4977	4977	4977	4977	5050	5050	5125	5125	5125	0	0	0	0	0	0	0	0	0	0	0	0	0	0	0	0	0	6992	6992	6853	6853	6853	6853	6853	6853	6853	6853	6720	6720	0	0	0	0	0	0	0	0	0	0	0	0	0	0	0	0	0	0	0	0	0	0	0	0	0	0	0	0	0	0	0	0	1437	1437	1431	1425	1419	1413	1407	1402	1396	1396	1385	1385	1385	0	0	0	0	0	0	0	0	0	0	0	0	0	0	0	0	0	0	0	0	0	0	0	0	0	0	0	0	0	0	0	0	0	0	0	0	0	0	0
0	0	0	0	0	0	0	925	927	935	937	942	942	945	945	945	948	950	950	961	966	966	969	969	972	974	974	980	980	985	991	997	1003	1006	1008	1011	1014	1017	1020	1023	1023	1026	1030	1036	1036	1039	1042	1042	1048	1045	1045	1052	0	0	0	0	0	0	0	0	0	0	0	0	0	0	0	0	4643	4581	4643	4643	4706	4643	4643	4643	4643	4643	0	0	0	0	0	0	0	0	4706	4706	4643	4706	4706	4706	4771	4771	4771	4771	4706	4706	4643	4643	0	0	0	0	0	0	4643	4643	4643	4643	4643	4643	4643	4643	4643	4643	4643	4643	4643	4643	4643	4643	4581	4643	4581	4581	4581	4581	4521	4581	4581	4581	4581	4581	4581	4581	4581	4581	4581	4581	4581	4643	4643	4643	4643	4581	4581	4581	4706	4706	4771	4906	4977	4977	5050	5125	5202	5202	5202	5202	5202	5202	5202	5202	5202	5202	5202	5202	5202	5202	5202	5202	5282	5282	5282	5202	5202	5202	5202	5202	5202	5282	5282	5202	0	0	0	0	0	0	0	0	0	0	0	0	0	0	0	0	0	0	0	0	6853	6853	6992	6992	6992	6992	0	0	0	0	0	0	0	0	0	0	0	0	0	0	0	0	0	0	0	0	0	0	0	6853	7137	7287	7444	7608	7608	7608	7608	7608	7608	7608	7444	7608	7444	7287	7137	7137	0	0	0	3277	3277	3277	3246	3246	3246	3216	3216	3216	3216	3216	3216	3216	3216	3216	3216	3216	3186	3186	3186	3186	3157	3157	3186	3186	3186	3186	3186	3186	3186	3186	3186	3186	3186	3186	3186	3186	3186	3186	3186	3186	5364	5282	5282	5282	5282	5282	5282	5282	5202	5202	5125	5125	5125	5050	0	0	0	0	0	0	0	0	0	0	0	0	0	0	0	0	0	0	0	0	0	0	0	0	0	0	0	4192	4142	4142	4192	4192	4192	4192	4192	4192	4192	4192	4142	4142	4142	4142	4142	4142	4142	4093	4093	4142	4521	4521	4521	4521	4521	4463	4463	4463	4406	4463	4463	4463	4521	4521	4406	4463	4406	4350	4296	4296	4350	4406	4406	4463	4463	4521	4521	4521	4521	4581	4581	4581	4521	4521	4521	4521	4521	4521	4521	4521	4521	4521	4521	4521	4521	4521	4521	4581	4581	4581	4581	4521	4521	4521	4463	4463	4463	4463	4463	4521	4521	4521	4521	4521	4463	4463	4463	4350	4350	4350	4406	4406	4463	4463	4521	4521	4581	4581	4581	4581	4581	4581	4581	4581	4581	4581	4581	4581	4581	4581	4581	4581	4581	4521	4521	4521	4581	4581	4581	4581	4581	4581	4581	4581	4581	4521	4521	4581	4581	4581	4581	4643	4643	4643	4643	4581	4643	4581	4581	4581	4581	4581	4581	4581	4581	4581	4581	4581	4581	4581	4581	4643	4581	4521	4521	4521	4463	4463	4463	4406	4350	4350	4350	4406	4463	4521	4521	4581	4643	4643	4643	4643	4706	4771	4771	4771	4838	4838	4977	4906	4906	4906	4977	4977	4977	4977	0	0	0	0	0	0	0	0	0	0	0	0	0	0	0	0	0	0	0	0	0	6992	6992	6992	6992	6992	6853	6853	6853	6853	6720	6853	6720	6720	0	0	0	0	0	0	0	0	0	0	0	0	0	0	0	0	0	0	0	0	0	0	0	0	0	0	0	0	0	0	0	0	1437	1431	1431	1431	1425	1419	1413	1407	1402	1396	1385	1385	1385	0	0	0	0	0	0	0	0	0	0	0	0	0	0	0	0	0	0	0	0	0	0	0	0	0	0	0	0	0	0	0	0	0	0	0	0	0	0	0
0	0	0	0	0	0	0	927	927	932	935	937	940	940	945	945	948	950	958	961	963	966	969	969	972	972	974	980	983	988	991	997	1003	1006	1008	1011	1014	1017	1020	1023	1023	1026	1030	1033	1036	1039	1042	1042	1048	1045	1045	0	0	0	0	0	0	0	0	0	0	0	0	0	0	0	0	0	4706	4643	4643	4643	4706	4706	4643	4643	4643	4771	4771	0	0	0	0	0	0	0	0	4643	4643	4643	4643	4706	4706	4643	4643	4706	4643	4643	4643	4643	0	0	0	0	0	0	4643	4643	4643	4643	4643	4643	4643	4643	4643	4643	4643	4643	4643	4643	4643	4643	4581	4581	4581	4581	4581	4521	4521	4521	4581	4581	4581	4581	4581	4581	4643	4581	4643	4643	4643	4643	4643	4643	4643	4581	4581	4581	4706	4706	4838	4906	4906	4977	5050	5125	5202	5202	5202	5202	5202	5202	5202	5202	5202	5202	5202	5202	5202	5202	5202	5202	5282	5282	5202	5202	5202	5202	5202	5202	5202	5364	5282	5282	0	0	0	0	0	0	0	0	0	0	0	0	0	0	0	0	0	0	0	0	6853	6853	0	6992	6992	0	0	0	0	0	0	0	0	0	0	0	0	0	0	0	0	0	0	0	0	0	0	0	6853	6853	7137	7137	7444	7444	7444	7608	7608	7608	7608	7608	7608	7608	7444	7444	7137	7137	0	0	0	3277	3277	3277	3246	3246	3216	3216	3216	3216	3186	3216	3216	3216	3216	3216	3216	3216	3186	3186	3186	3186	3186	3186	3186	3216	3186	3186	3186	3186	3186	3186	3186	3186	3186	3186	3186	3186	3186	3186	3186	3186	5364	5282	5282	5282	5282	5282	5282	5282	5202	5202	5125	5050	5050	0	0	0	0	0	0	0	0	0	0	0	0	0	0	0	0	0	0	0	0	0	0	0	0	0	0	0	4243	4192	4142	4142	4142	4243	4243	4192	4192	4192	4192	4192	4192	4192	4192	4142	4142	0	0	4093	4093	0	4521	4463	4463	4406	4406	4406	4406	4406	4350	4350	4350	4406	4406	4406	4296	4350	4350	4296	4243	4296	4296	4350	4350	4350	4406	4463	4463	4521	4521	4521	4521	4521	4521	4521	4521	4521	4521	4463	4521	4463	4463	4463	4463	4521	4521	4521	4521	4521	4521	4521	4521	4463	4463	4463	4463	4463	4406	4406	4463	4463	4463	4463	4463	4463	4463	4463	4406	4350	4350	4350	4406	4406	4463	4463	4521	4521	4581	4521	4521	4581	4581	4581	4581	4581	4581	4581	4581	4581	4581	4581	4581	4581	4581	4521	4521	4521	4521	4581	4581	4581	4643	4581	4581	4581	4581	4581	4521	4581	4581	4581	4581	4581	4643	4643	4643	4643	4643	4581	4581	4581	4581	4581	4581	4581	4581	4581	4581	4581	4581	4581	4581	4643	4581	4521	4521	4521	4463	4463	4406	4406	4350	4296	4296	4350	4463	4521	4521	4643	4643	4643	4643	4643	4706	4706	4771	4771	4838	4838	4977	4906	4906	4906	0	0	0	0	0	0	0	0	0	0	0	0	0	0	0	0	0	0	0	0	0	6992	6992	7137	6992	6992	6992	6992	6853	6853	6853	6853	6853	6853	6853	6720	6720	6720	0	0	0	0	0	0	0	0	0	0	0	0	0	0	0	0	0	0	0	0	0	0	0	0	0	0	0	0	0	0	0	0	0	1431	1431	1425	1425	1419	1413	1407	1396	1396	1385	1385	1385	0	0	0	0	0	0	0	0	0	0	0	0	0	0	0	0	0	0	0	0	0	0	0	0	0	0	0	0	0	0	0	0	0	0	0	0	0	0	0
0	0	0	0	0	0	0	927	930	930	937	937	940	940	942	942	948	950	963	961	966	969	969	969	972	974	974	980	983	988	991	994	1000	1003	1008	1008	1011	1017	1020	1020	1023	1026	1030	1033	1033	1039	1042	1042	1048	1045	1045	1045	0	0	0	0	0	0	0	0	0	0	0	0	0	0	0	0	4706	4643	4643	4706	4706	4706	4643	4706	4706	4771	4771	0	0	0	0	0	0	0	0	4706	4643	4643	4643	4643	4706	4643	4643	4643	4643	4643	4643	0	0	0	0	0	0	0	4581	4581	4643	4643	4643	4643	4643	4643	4643	4643	4643	4643	4706	4643	4643	4643	4643	4581	4581	4581	4581	4521	4521	4581	4581	4581	4581	4581	4581	4581	4581	4581	4643	4643	4643	4521	4521	4643	4521	4581	4581	4581	4706	4581	4706	4838	4906	4977	5050	5125	5202	5202	5202	5202	5202	5202	5202	5202	5202	5202	5202	5202	5202	5202	5202	5202	5202	5202	5202	5282	5202	5282	5202	5125	5050	5448	5448	5282	0	0	0	0	0	0	0	0	0	0	0	0	0	0	0	0	0	0	0	0	6720	6720	0	0	0	0	0	0	0	0	0	0	0	0	0	0	0	0	0	0	0	0	0	0	0	0	0	6853	6992	6992	7137	7137	7137	7444	7608	7779	7608	7608	7608	7608	7608	7608	7444	7444	0	0	0	0	0	0	3277	3277	3246	3246	3216	3216	3216	3216	3216	3216	3216	3216	3216	3216	3216	3216	3186	3186	3186	3216	3186	3186	3186	3216	3186	3186	3186	3186	3186	3186	3186	3186	3186	3186	3186	3186	3186	3186	3186	3186	3186	5282	5282	5282	5282	5282	5282	5282	5202	5202	5125	5125	5050	0	0	0	0	0	0	0	0	0	0	0	0	0	0	0	0	0	0	0	0	0	0	0	0	0	0	4243	4243	4243	4192	4192	4243	4243	4243	4243	4192	4243	4192	4192	4192	4192	4192	4192	0	0	0	0	0	0	0	4406	4406	4350	4350	4350	4350	4350	4296	4296	4296	4296	4243	4243	4243	4243	4296	4296	4243	4243	4296	4296	4350	4350	4350	4350	4406	4463	4463	4463	4463	4521	4521	4463	4406	4406	4406	4406	4406	4406	4406	4463	4463	4463	4463	4521	4581	4521	4581	4521	4463	4463	4463	4463	4406	4463	4406	4406	4463	4463	4463	4463	4406	4463	4406	4406	4406	4350	4296	4296	4350	4406	4463	4463	4521	4521	4521	4521	4521	4581	4521	4521	4581	4581	4581	4581	4581	4581	4581	4581	4581	4581	4581	4521	4521	4521	4581	4581	4581	4581	4643	4581	4581	4581	4581	4581	4521	4581	4581	4581	4581	4581	4643	4643	4643	4581	4643	4581	4581	4581	4581	4581	4581	4581	4581	4581	4581	4581	4581	4581	4581	4643	4581	4521	4521	4521	4463	4406	4406	4350	4296	4243	4296	4296	4350	4463	4521	4643	4643	4643	4643	4643	4706	4771	4771	4771	0	0	0	0	0	0	0	0	0	0	0	0	0	0	0	0	0	0	0	0	0	0	0	0	0	7137	7137	6992	6992	6992	6992	6992	6992	6992	6853	6853	6853	6853	6853	6853	6720	6720	6720	0	0	0	0	0	0	0	0	0	0	0	0	0	0	0	0	0	0	0	0	0	0	0	0	0	0	0	0	0	0	0	0	0	0	1431	1425	1425	1419	1419	1413	1407	1402	1396	1390	1385	1385	0	0	0	0	0	0	0	0	0	0	0	0	0	0	0	0	0	0	0	0	0	0	0	0	0	0	0	0	0	0	0	0	0	0	0	0	0	0	0
0	0	0	0	0	0	0	927	930	930	937	937	937	937	940	940	945	948	961	961	963	966	969	969	972	974	974	983	983	988	991	991	1000	1006	1008	1008	1014	1017	1017	1020	1023	1026	1026	1033	1033	1036	1042	1042	1048	1045	1045	1045	0	0	0	0	0	0	0	0	0	0	0	0	0	0	0	0	0	4643	4643	4706	4706	4706	4706	4706	4706	4771	4771	4771	0	0	0	0	0	0	0	4706	4706	4706	4643	4643	4706	4643	4643	4643	4643	4643	4643	0	0	0	0	0	0	0	4581	4581	4643	4643	4643	4643	4643	4643	4643	4643	4643	4643	4706	4643	4643	4643	4643	4581	4581	4581	4581	4581	4581	4581	4581	4581	4581	4581	4581	4581	4643	4581	4643	4643	4521	4521	4643	4643	4521	4581	4581	4581	4706	4706	4706	4706	4906	4977	5050	5125	5125	5125	5202	5125	5125	5202	5202	5202	5202	5202	5202	5202	5202	5202	5202	5202	5202	5202	5202	5202	5282	5202	5202	5202	5282	5125	5125	0	0	0	0	0	0	0	0	0	0	0	0	0	0	0	0	0	0	0	0	0	6720	6720	0	0	0	0	0	0	0	0	0	0	0	0	0	0	0	0	0	0	0	0	0	0	0	0	6853	6853	6853	6992	7287	7287	7444	7444	7608	7779	7608	7608	7608	7608	7608	7608	7444	7444	7444	0	0	0	0	0	3277	3277	3277	3246	3216	3216	3216	3216	3216	3216	3216	3216	3216	3216	3246	3216	3216	3186	3186	3216	3186	3186	3186	3186	3186	3186	3186	3186	3186	3186	3186	3186	3186	3186	3186	3186	3186	3186	3186	3186	3186	5282	5282	5282	5282	5282	5282	5282	5202	5125	5050	5050	0	0	0	0	0	0	0	0	0	0	0	0	0	0	0	0	0	0	0	0	0	0	0	0	4192	4243	4243	4243	4243	4243	4243	4243	4243	4243	4243	4243	4192	4243	4192	4192	4192	4192	4192	4192	0	0	0	0	0	0	4192	4296	4406	4350	4350	4350	4350	4350	4296	4296	4296	4243	4243	4243	4243	4243	4243	4243	4243	4243	4243	4296	4296	4296	4296	4296	4350	4350	4350	4350	4406	4463	4463	4463	4463	4406	4406	4406	4406	4406	4406	4406	4463	4463	4463	4463	4521	4521	4521	4463	4463	4406	4463	4406	4406	4406	4406	4406	4463	4463	4463	4463	4463	4463	4406	4463	4406	4350	4296	4296	4350	4463	4463	4521	4521	4521	4521	4521	4521	4521	4521	4521	4521	4581	4581	4521	4521	4581	4581	4581	4521	4521	4521	4521	4521	4463	4521	4521	4581	4581	4581	4581	4581	4581	4581	4581	4521	4521	4581	4581	4581	4581	4581	4581	4581	4581	4581	4581	4581	4581	4581	4581	4581	4581	4581	4581	4581	4581	4581	4581	4581	4643	4581	4521	4521	4521	4521	4406	4243	4243	4243	4243	4243	4296	4350	4521	4521	4643	4643	4643	4643	4706	4706	4771	4771	0	0	0	0	0	0	0	0	0	0	0	0	0	0	0	0	0	0	0	0	0	0	0	0	0	6992	6992	6992	6992	6992	6992	6992	6992	6992	6992	6853	6853	6853	6853	6853	6720	6720	6720	0	0	0	0	0	0	0	0	0	0	0	0	0	0	0	0	0	0	0	0	0	0	0	0	0	0	0	0	0	0	0	0	0	0	0	1431	1425	1425	1425	1419	1419	1407	1407	1396	1390	1385	1385	0	0	0	0	0	0	0	0	0	0	0	0	0	0	0	0	0	0	0	0	0	0	0	0	0	0	0	0	0	0	0	0	0	0	0	0	0	0	0
0	0	0	0	0	0	0	927	927	935	937	937	940	940	942	942	948	950	950	961	963	966	969	969	972	974	977	980	983	988	988	991	997	1003	1006	1006	1011	1017	1017	1020	1023	1026	1030	1033	1036	1036	1039	1042	1045	1042	1042	1042	0	0	0	0	0	0	0	0	0	0	0	0	0	0	0	0	0	0	4643	4706	4706	4706	4706	4706	4706	4771	4771	4771	0	0	0	0	0	0	0	4706	4706	4643	4643	4643	4643	4643	4643	4643	4643	4643	0	0	0	0	0	0	0	0	4581	4581	4643	4643	4643	4643	4643	4643	4643	4643	4643	4643	4643	4643	4643	4643	4643	4581	4581	4581	4581	4581	4581	4581	4581	4581	4581	4581	4581	4581	4643	4581	4643	4643	4521	4521	4581	4581	4581	4581	4581	4581	4706	4706	4771	4771	4906	4977	5050	5050	5125	5125	5202	5125	5202	5125	5202	5202	5202	5202	5202	5202	5202	5202	5202	5202	5202	5202	5202	5202	5202	5202	5202	5202	5125	5202	5202	0	0	0	0	0	0	0	0	0	0	0	0	0	0	0	0	0	0	0	0	0	0	0	0	0	0	0	0	0	0	0	0	0	0	0	0	0	0	0	0	0	0	0	0	0	0	0	6853	6853	6992	7137	7287	7444	7444	7608	7608	7779	7779	7608	7608	7608	7608	7608	7608	7608	7608	7608	0	0	0	0	0	3277	3246	3246	3216	3186	3216	3216	3216	3216	3216	3216	3216	3216	3216	3216	3216	3216	3186	3186	3157	3157	3186	3186	3186	3186	3186	3186	3186	3186	3186	3186	3186	3186	3186	3186	3186	3186	3186	3157	3157	3157	5282	5282	5282	5282	5282	5282	5202	5125	5125	5050	0	0	0	0	0	0	0	0	0	0	0	0	0	0	0	0	0	0	0	0	0	0	0	4296	4243	4243	4296	4296	4296	4296	4243	4243	4243	4243	4243	4243	4192	4243	4192	4192	4192	4192	0	0	0	0	0	0	0	0	4192	4463	4463	4406	4350	4350	4350	4406	4350	4296	4296	4296	4243	4243	4243	4243	4243	4296	4296	4296	4296	4350	4350	4350	4350	4350	4350	4350	4350	4350	4350	4406	4463	4463	4463	4463	4406	4406	4406	4406	4406	4406	4463	4463	4463	4463	4521	4521	4521	4463	4463	4406	4406	4406	4406	4406	4406	4406	4463	4463	4463	4463	4463	4463	4406	4406	4406	4350	4243	4296	4350	4463	4521	4521	4521	4521	4521	4521	4521	4521	4406	4463	4463	4463	4521	4521	4521	4581	4581	4521	4521	4521	4521	4521	4463	4463	4521	4521	4581	4581	4581	4581	4581	4581	4581	4521	4521	4521	4581	4581	4581	4581	4581	4581	4581	4581	4581	4581	4581	4581	4581	4581	4581	4581	4521	4521	4521	4581	4521	4521	4521	4581	4581	4521	4521	4521	4463	4406	4243	4243	4243	4192	4243	4296	4296	4581	4581	4581	4643	4643	4643	4643	4706	4706	4706	4706	0	0	0	0	0	0	0	0	0	0	0	0	0	0	0	0	0	0	0	0	0	0	0	0	6992	6992	6992	6992	6992	6992	6992	6992	6992	6992	6992	6853	6853	6853	6720	6720	6720	0	0	0	0	0	0	0	0	0	0	0	0	0	0	0	0	0	0	0	0	0	0	0	0	0	0	0	0	0	0	0	0	0	0	0	0	1431	1425	1419	1419	1419	1419	1407	1402	1396	1390	1390	1390	0	0	0	0	0	0	0	0	0	0	0	0	0	0	0	0	0	0	0	0	0	0	0	0	0	0	0	0	0	0	0	0	0	0	0	0	0	0	0
0	0	0	0	0	0	0	927	935	935	937	937	937	940	942	942	948	948	958	961	966	966	969	969	972	977	977	983	985	988	991	994	997	1003	1006	1008	1011	1014	1017	1020	1023	1026	1026	1033	1036	1036	1039	1039	1042	1042	1042	1042	0	0	0	0	0	0	0	0	0	0	0	0	0	0	0	0	0	0	4706	4706	4706	4706	4706	4706	4706	4706	4706	4706	0	0	0	0	0	0	0	4706	4706	4643	4643	4643	4643	4643	4643	4643	4643	4643	0	0	0	0	0	0	0	0	4581	4643	4643	4643	4643	4643	4643	4643	4643	4643	4643	4643	4643	4643	4643	4643	4643	4581	4581	4581	4581	4581	4581	4581	4581	4581	4581	4581	4581	4581	4643	4581	4643	4643	4521	4581	4521	4581	4521	4581	4581	4643	4706	4706	4771	4771	4906	4977	5050	5125	5125	5202	5202	5125	5125	5125	5202	5202	5202	5202	5202	5202	5202	5202	5202	5202	5202	5202	5202	5202	5282	5202	5202	5202	5202	5202	5202	0	0	0	0	0	0	0	0	0	0	0	0	0	0	0	0	0	0	0	0	0	0	0	0	0	0	0	0	0	0	0	0	0	0	0	0	0	0	0	0	0	0	0	0	0	0	0	6853	6853	6992	7137	7287	7444	7608	7608	7779	7779	7779	7779	7779	7779	7608	7608	7608	7779	7608	7608	0	0	0	0	0	3246	3216	3216	3216	3186	3216	3216	3216	3216	3216	3216	3216	3246	3246	3216	3216	3246	3216	3216	3157	3186	3186	3186	3186	3186	3186	3186	3186	3186	3186	3186	3186	3186	3186	3186	3186	3186	3186	3157	3157	3157	5282	5282	5282	5282	5282	5282	5282	5202	5202	0	0	0	0	0	0	0	0	0	0	0	0	0	0	0	0	0	0	0	0	0	0	0	0	4243	4243	4243	4243	4243	4243	4243	4243	4243	4243	4243	4243	4192	4192	4192	4192	4192	0	0	0	0	0	0	0	0	0	0	4192	4350	4463	4463	4350	4406	4406	4350	4350	4296	4296	4296	4296	4296	4296	4296	4296	4296	4296	4350	4350	4406	4406	4406	4406	4406	4406	4406	4406	4406	4406	4463	4521	4521	4463	4463	4463	4463	4406	4406	4406	4463	4463	4463	4463	4521	4581	4521	4521	4521	4463	4463	4463	4406	4406	4406	4406	4463	4463	4463	4463	4463	4463	4463	4406	4406	4406	4350	4296	4296	4406	4463	4521	4521	4521	4521	4521	4463	4463	4406	4406	4406	4350	4406	4406	4406	4463	4521	4521	4521	4521	4521	4463	4406	4406	4406	4406	4463	4521	4581	4581	4521	4581	4521	4521	4521	4463	4521	4521	4521	4521	4581	4581	4581	4581	4521	4581	4521	4521	4521	4521	4581	4521	4521	4521	4521	4521	4521	4521	4521	4521	4581	4581	4521	4521	4521	4463	4406	4350	4296	4296	4243	4243	4296	4296	4463	4581	4581	4643	4581	4643	4643	4643	4643	4706	4706	0	0	0	0	0	0	0	0	0	0	0	0	0	0	0	0	0	0	0	0	0	0	0	6992	6992	6992	6992	6992	6992	6992	6992	6992	6992	6992	6992	6992	6853	6853	6853	6720	6720	0	0	0	0	0	0	0	2281	2281	0	0	0	0	0	0	0	0	2266	2252	2266	2266	2266	0	0	0	0	0	0	0	0	0	0	0	0	0	0	0	1425	1419	1419	1419	1413	1407	1402	1396	1390	1390	1390	0	0	0	0	0	0	0	0	0	0	0	0	0	0	0	0	0	0	0	0	0	0	0	0	0	0	0	0	0	0	0	0	0	0	0	0	0	0	0
0	0	0	0	0	0	0	0	927	935	937	937	940	940	942	942	948	948	955	961	966	966	969	969	972	974	977	983	988	991	994	994	1000	1000	1006	1008	1014	1017	1020	1026	1030	1030	1033	1033	1036	1036	1036	1039	1042	1042	1042	1042	1042	0	0	0	0	0	0	0	0	0	0	0	0	0	0	0	0	0	4706	4706	4706	4706	4706	4706	4706	4706	4771	4771	0	0	0	0	0	0	0	4706	4643	4643	4643	4643	4643	4643	4643	4581	4643	4643	0	0	0	0	0	0	0	0	4581	4581	4643	4643	4643	4643	4643	4643	4643	4643	4643	4643	4643	4643	4643	4643	4643	4643	4581	4581	4581	4581	4581	4581	4581	4581	4581	4581	4581	4643	4643	4643	4643	4643	4643	4643	4643	4581	4581	4581	4581	4581	4706	4706	4771	4771	4977	4977	5050	5050	5125	5125	5125	5125	5125	5125	5125	5125	5125	5202	5202	5202	5202	5202	5125	5202	5202	5202	5125	5202	5202	5202	5202	5125	5125	5202	5202	5202	0	0	0	0	0	0	0	0	0	0	0	0	0	0	0	0	0	0	0	0	0	0	0	0	0	0	0	0	0	0	0	0	0	0	0	0	0	0	0	0	0	0	0	0	0	6853	6853	6853	6992	6992	7287	7444	7608	7779	7779	7959	7779	7779	7959	7779	7779	7779	7779	7779	7608	7608	7608	0	0	0	0	3216	3216	3216	3186	3186	3186	3216	3216	3216	3216	3216	3216	3246	3246	3246	3246	3246	3216	3277	3277	3186	3186	3186	3186	3186	3186	3186	3186	3186	3186	3186	3186	3186	3186	3186	3186	3186	3186	3186	3186	3186	5282	5282	5282	5282	5282	5282	5282	5282	5202	0	0	0	0	0	0	0	0	0	0	0	0	0	0	0	0	0	0	0	0	0	0	0	0	4243	4243	4243	4192	4192	4243	4243	4192	4192	4192	4192	4192	4192	4142	4192	4142	4142	0	0	0	0	0	0	0	0	0	4192	4243	4296	4463	4406	4350	4406	4406	4406	4406	4406	4350	4350	4350	4296	4350	4350	4350	4350	4350	4406	4406	4463	4463	4463	4406	4406	4406	4406	4406	4406	4463	4463	4521	4521	4521	4521	4521	4463	4463	4463	4463	4463	4463	4521	4521	4521	4581	4581	4581	4521	4521	4463	4463	4406	4406	4463	4463	4463	4463	4521	4521	4521	4463	4463	4463	4463	4406	4406	4350	4350	4406	4463	4463	4463	4463	4521	4463	4463	4406	4406	4406	4350	4350	4350	4350	4350	4350	4406	4406	4406	4406	4406	4350	4350	4350	4350	4350	4406	4406	4521	4521	4521	4521	4521	4521	4521	4463	4463	4521	4521	4521	4521	4581	4521	4521	4521	4521	4521	4521	4463	4521	4521	4521	4521	4521	4521	4521	4463	4463	4463	4463	4463	4463	4463	4463	4463	4463	4406	4406	4350	4350	4296	4296	4350	4350	4463	4521	4581	4643	4581	4643	4643	4643	4706	4706	4706	0	0	0	0	0	0	0	0	0	0	0	0	0	0	0	0	0	0	0	0	0	0	0	6992	6992	6992	6992	6992	6992	6992	6853	6853	6853	6992	6992	6853	6853	6853	6853	6720	6720	0	0	0	0	0	2266	2252	2252	2252	2237	2237	2237	2237	2237	2237	2252	2252	2252	2252	2252	2252	2266	2252	2237	2237	2237	0	0	0	0	0	0	0	0	0	0	1431	1425	1419	1419	1419	1413	1413	1402	1396	1390	1390	1390	0	0	0	0	0	0	0	0	0	0	0	0	0	0	0	0	0	0	0	0	0	0	0	0	0	0	0	0	0	0	0	0	0	0	0	0	0	0	0
0	0	0	0	0	0	0	0	935	935	937	937	940	940	945	942	948	948	953	958	963	966	969	969	972	974	980	983	988	994	994	997	1000	1000	1003	1006	1011	1014	1020	1026	1026	1030	1033	1036	1039	1039	1039	1039	1042	1042	1042	1042	1042	0	0	0	0	0	0	0	0	0	0	0	0	0	0	0	0	0	0	4706	4706	4706	4706	4706	4771	4771	4771	4771	0	0	0	0	0	0	0	4706	4706	4643	4643	4643	4643	4643	4643	4643	4643	4643	0	0	0	0	0	0	0	4581	4643	4581	4643	4643	4643	4643	4643	4643	4643	4643	4643	4643	4643	4643	4643	4643	4643	4643	4643	4581	4643	4581	4581	4581	4581	4581	4581	4581	4581	4643	4643	4643	4643	4643	4643	4643	4581	4581	4581	4581	4581	4581	4706	4706	4771	4771	4906	4977	4977	4977	5050	5050	5050	5050	5050	5125	5125	5125	5125	5202	5202	5202	5125	5125	5125	5050	5050	4977	5125	5202	5202	5202	5125	5202	5202	5282	5282	5282	5282	0	0	0	0	0	0	0	0	0	0	0	0	0	0	0	0	0	0	0	0	0	0	0	0	0	0	0	0	0	0	0	0	0	0	0	0	0	0	0	0	0	0	0	0	6853	6853	6853	6992	6992	7287	7444	7608	7779	7959	7959	7959	7959	8146	7959	7779	7779	7779	7959	7959	7779	7779	0	0	0	0	3246	3216	3216	3186	3186	3186	3216	3216	3216	3216	3246	3246	3246	3246	3246	3246	3277	3246	3277	3277	3216	3216	3186	3186	3186	3186	3186	3186	3186	3186	3186	3157	3157	3186	3186	3186	3186	3186	3186	3186	3186	5282	5282	5282	5282	5282	5282	5282	5282	0	0	0	0	0	0	0	0	0	0	0	0	0	0	0	0	0	0	0	0	0	0	0	0	4192	4192	4192	4192	4192	4192	4192	4192	4192	4192	4192	4192	4192	4142	4142	4142	4142	4142	0	0	0	0	0	0	0	0	0	4192	4296	4350	4463	4463	4406	4463	4463	4406	4463	4406	4350	4350	4350	4350	4463	4406	4463	4463	4463	4463	4463	4521	4521	4521	4463	4463	4463	4463	4463	4463	4463	4521	4521	4521	4521	4521	4521	4521	4463	4463	4463	4521	4521	4521	4521	4521	4581	4581	4581	4581	4521	4521	4521	4463	4463	4521	4463	4521	4521	4521	4521	4581	4521	4521	4463	4463	4406	4406	4350	4350	4406	4406	4406	4463	4463	4463	4463	4406	4406	4406	4350	4296	4296	4296	4296	4296	4296	4296	4296	4296	4296	4350	4296	4350	4350	4350	4350	4350	4350	4406	4463	4406	4406	4406	4463	4463	4463	4463	4521	4521	4521	4521	4521	4521	4463	4463	4463	4463	4406	4406	4406	4406	4406	4406	4406	4406	4406	4406	4406	4406	4406	4406	4463	4463	4463	4463	4463	4406	4406	4350	4350	4350	4350	4350	4350	4463	4521	4581	4643	4643	4643	4643	4706	4706	4706	4706	0	0	0	0	0	0	0	0	0	0	0	0	0	0	0	0	0	0	0	0	0	0	0	0	6992	6992	6992	6992	6992	6992	6992	6853	6853	6992	6992	6853	6853	6853	0	0	0	2297	2297	2297	2281	2266	2266	2252	2252	2252	2237	2237	2237	2237	2237	2237	2252	2252	2252	2252	2252	2252	2252	2237	2237	2223	2208	2208	2208	2194	2194	0	0	0	0	0	1425	1425	1419	1419	1413	1413	1413	1402	1402	1396	1390	1390	1390	0	0	0	0	0	0	0	0	0	0	0	0	0	0	0	0	0	0	0	0	0	0	0	0	0	0	0	0	0	0	0	0	0	0	0	0	0	0	0
0	0	0	0	0	0	0	0	935	935	937	937	940	940	942	942	948	948	950	955	961	966	969	969	972	977	983	983	988	991	994	994	1000	1000	1003	1008	1011	1014	1017	1023	1030	1033	1036	1039	1039	1039	1039	1039	1042	1042	1042	1042	1042	0	0	0	0	0	0	0	0	0	0	0	0	0	0	0	0	0	0	4706	4706	4706	4706	4706	4771	4838	4838	4838	0	0	0	0	0	0	0	0	4706	4706	4643	4643	4643	4643	4643	4643	4643	0	0	0	0	0	0	0	0	4581	4643	4643	4643	4581	4643	4643	4643	4643	4643	4643	4643	4643	4643	4643	4643	4581	4643	4581	4581	4581	4643	4581	4581	4581	4581	4581	4581	4581	4581	4643	4643	4581	4643	4643	4581	4581	4581	4581	4581	4581	4581	4643	4706	4706	4771	4771	4906	4977	4977	4977	4977	5050	5050	5050	5125	5125	5125	5125	5125	5125	5125	5125	5050	5050	5125	5125	5050	5125	5125	5125	5202	5125	5125	5125	5125	5202	5202	5202	5202	0	0	0	0	0	0	0	0	0	0	0	0	0	0	0	0	0	0	0	0	0	0	0	0	0	0	0	0	0	0	0	0	0	0	0	0	0	0	0	0	0	0	0	0	6853	6853	6853	6992	6992	7287	7444	7608	7779	7959	8146	7959	8146	8146	7959	7959	7779	7779	7779	7959	7959	7959	0	0	0	0	3216	3186	3186	3186	3186	3186	3216	3216	3216	3246	3246	3246	3246	3246	3246	3246	3246	3246	3246	3246	3186	3186	3186	3186	3186	3186	3186	3186	3157	3186	3157	3186	3157	3186	3186	3186	3186	3186	3186	3186	3186	0	5202	5202	5202	5202	5202	5282	0	0	0	0	0	0	0	0	0	0	0	0	0	0	0	0	0	0	0	0	0	0	0	0	0	4192	4192	4192	4192	4142	4142	4192	4192	4192	4192	4192	4192	4243	4243	4142	4142	4142	4142	0	0	0	0	0	0	0	0	0	4350	4406	4463	4521	4463	4463	4463	4521	4463	4463	4463	4463	4463	4463	4463	4521	4521	4521	4521	4521	4521	4521	4521	4521	4521	4521	4521	4463	4463	4463	4463	4463	4521	4521	4521	4521	4521	4521	4521	4521	4521	4521	4521	4521	4521	4521	4521	4581	4581	4581	4581	4581	4521	4521	4521	4521	4521	4521	4521	4521	4581	4581	4581	4581	4581	4581	4463	4463	4406	4406	4350	4406	4406	4463	4463	4463	4463	4463	4406	4406	4350	4350	4296	4296	4296	4296	4243	4243	4243	4243	4243	4243	4296	4296	4296	4296	4296	4296	4296	4296	4296	4350	4296	4350	4350	4350	4406	4406	4406	4463	4463	4463	4463	4463	4463	4406	4406	4406	4350	4350	4350	4350	4406	4406	4406	4406	4350	4350	4350	4350	4350	4350	4406	4406	4406	4463	4463	4463	4406	4406	4406	4406	4350	4350	4350	4350	4463	4521	4581	4581	4643	4706	4643	4706	4706	4706	4706	0	0	0	0	0	0	0	0	0	0	0	0	0	0	0	0	0	0	0	0	0	0	0	0	6992	6992	6992	6992	6992	6992	6992	6992	0	0	0	0	0	2312	2312	2312	2297	2297	2297	2297	2281	2266	2266	2252	2252	2252	2237	2237	2237	2237	2237	2237	2252	2237	2252	2252	2252	2252	2252	2237	2223	2223	2223	2223	2223	2194	2194	0	0	0	0	0	1425	1419	1413	1413	1407	1407	1407	1407	1402	1396	1390	1390	1390	0	0	0	0	0	0	0	0	0	0	0	0	0	0	0	0	0	0	0	0	0	0	0	0	0	0	0	0	0	0	0	0	0	0	0	0	0	0	0
0	0	0	0	0	0	0	0	935	937	937	937	940	942	942	945	948	948	950	953	961	966	972	972	977	980	983	985	988	991	991	994	1000	1003	1003	1011	1014	1017	1017	1020	1030	1033	1036	1039	1039	1039	1039	1042	1042	1042	1042	1042	1042	0	0	0	0	0	0	0	0	0	0	0	0	0	0	0	0	0	0	0	4706	4643	4643	4706	4706	4706	4838	4838	0	0	0	0	0	0	0	0	4706	4706	4643	4643	4643	4643	4643	4643	4581	4581	0	0	0	0	0	0	0	0	4643	4643	4643	4581	4643	4643	4643	4643	4643	4643	4643	4581	4581	4581	4581	4581	4581	4581	4581	4643	4643	4581	4581	4581	4581	4581	4581	4581	4581	4581	4581	4581	4581	4581	4581	4581	4581	4581	4581	4581	4581	4581	4771	4771	4838	4838	4906	4906	4906	4977	4977	4977	4977	5050	5125	5125	5125	5125	5202	5202	5202	5202	5125	5125	5125	5202	5125	5125	5202	5202	5202	5125	5125	5125	5125	5125	5202	5202	5202	0	0	0	0	0	0	0	0	0	0	0	0	0	0	0	0	0	0	0	0	0	0	0	0	0	0	0	0	0	0	0	0	0	0	0	0	0	0	0	0	0	0	0	0	6853	6853	6853	6992	7137	7444	7608	7779	7959	7779	8146	8146	8146	8146	7959	7959	7779	7779	7959	7959	7959	7959	0	0	0	0	3216	3216	3216	3216	3186	3216	3216	3216	3216	3246	3246	3246	3246	3216	3246	3246	3246	3216	3216	3246	3246	3216	3186	3216	3186	3186	3186	3186	3186	3186	3186	3186	3186	3186	3186	3186	3186	3186	3216	3216	0	0	5202	5202	5202	5202	5202	0	0	0	0	0	0	0	0	0	0	0	0	0	0	0	0	0	0	0	0	0	0	0	0	0	0	0	4192	4192	0	4142	4142	4142	4192	4192	4192	4243	4192	4243	4192	4142	4142	4142	4142	4142	0	0	0	0	0	0	0	4243	4406	4463	4463	4521	4521	4521	4521	4581	4521	4521	4521	4521	4521	4521	4521	4521	4521	4581	4581	4581	4521	4521	4521	4521	4521	4521	4521	4521	4521	4521	4521	4521	4521	4521	4521	4521	4581	4581	4581	4581	4521	4521	4581	4581	4581	4581	4581	4643	4581	4581	4581	4581	4581	4581	4521	4521	4581	4521	4521	4581	4581	4581	4581	4581	4581	4521	4521	4463	4406	4406	4350	4350	4406	4406	4406	4463	4463	4406	4350	4350	4350	4296	4243	4243	4243	4243	4243	4243	4243	4243	4243	4243	4243	4243	4243	4296	4296	4243	4243	4243	4296	4296	4296	4296	4296	4350	4350	4350	4406	4463	4406	4406	4406	4463	4406	4350	4350	4350	4350	4350	4350	4350	4350	4350	4406	4350	4350	4350	4296	4296	4296	4296	4350	4296	4350	4406	4406	4406	4406	4406	4406	4406	4406	4406	4350	4350	4463	4521	4581	4581	4643	4706	4706	4706	4706	4706	4706	4706	0	0	0	0	0	0	0	0	0	0	0	0	0	0	0	0	0	0	0	0	0	0	0	0	0	0	0	0	0	0	0	0	0	0	0	2327	2312	2312	2312	2312	2297	2297	2281	2281	2281	2266	2252	2252	2252	2237	2252	2252	2237	2237	2252	2252	2252	2252	2252	2237	2252	2252	2252	2237	2223	2223	2223	2223	2208	2208	0	0	0	0	1431	1425	1419	1419	1413	1407	1407	1407	1407	1396	1396	1390	1390	1390	0	0	0	0	0	0	0	0	0	0	0	0	0	0	0	0	0	0	0	0	0	0	0	0	0	0	0	0	0	0	0	0	0	0	0	0	0	0	0
0	0	0	0	0	0	0	0	935	937	937	937	940	942	942	945	948	950	950	950	955	966	966	969	977	980	983	983	988	988	991	997	1000	1003	1008	1011	1014	1017	1017	1020	1023	1030	1036	1036	1039	1039	1039	1042	1042	1042	1042	1042	1042	0	0	0	0	0	0	0	0	0	0	0	0	0	0	0	0	0	0	0	4706	4643	4643	4706	4706	4706	0	0	0	0	0	0	0	0	0	4643	4706	4643	4643	4643	4643	4643	4643	4643	4643	4643	0	0	0	0	0	0	0	0	4643	4581	4581	4581	4581	4643	4581	4643	4581	4643	4643	4581	4581	4581	4581	4581	4581	4581	4581	4581	4643	4581	4581	4581	4581	4581	4581	4581	4643	4643	4643	4581	4581	4581	4581	4581	4581	4581	4581	4581	4581	4643	4771	4771	4771	4906	4906	4906	4906	4906	5050	5050	5050	5125	5125	5125	5125	5125	5202	5202	5202	5202	5202	5202	5202	5202	5202	5125	5125	5125	5202	5202	5202	5202	5202	5125	0	0	0	0	0	0	0	0	0	0	0	0	0	0	0	0	0	0	0	0	0	0	0	0	0	0	0	0	0	0	0	0	0	0	0	0	0	0	0	0	0	0	0	0	0	0	0	6992	6853	6853	6992	7137	7444	7608	7779	7959	7959	8146	8146	7959	8146	7959	7959	7779	7779	7959	7959	8146	8146	0	0	0	0	3216	3216	3216	3216	3186	3216	3216	3216	3216	3216	3216	3216	3246	3216	3216	3216	3186	3186	3216	3216	3216	3216	3186	3216	3186	3186	3186	3186	3186	3186	3186	3186	3186	3186	3186	3186	3186	3186	3216	3216	0	0	0	0	0	0	0	0	0	0	0	0	0	0	0	0	0	0	0	0	0	0	0	0	0	0	0	0	0	0	0	0	0	0	0	0	0	4142	4142	4192	4192	4192	0	4243	4192	4243	4192	4142	4142	4142	4142	4142	0	0	0	0	0	0	0	4243	4463	4463	4521	4581	4581	4521	4521	4521	4521	4521	4521	4521	4521	4521	4581	4581	4581	4581	4581	4581	4581	4521	4521	4521	4521	4521	4521	4521	4521	4521	4521	4521	4521	4521	4581	4581	4581	4581	4581	4581	4581	4581	4581	4581	4581	4581	4581	4643	4581	4581	4581	4581	4581	4581	4581	4521	4581	4581	4581	4581	4581	4581	4581	4581	4581	4581	4463	4463	4406	4406	4350	4350	4350	4406	4350	4406	4406	4350	4350	4296	4296	4243	4243	4243	4243	4243	4243	4243	4243	4243	4243	4243	4243	4243	4243	4243	4243	4243	4243	4243	4243	4243	4243	4243	4243	4296	4350	4350	4350	4350	4406	4406	4406	4406	4406	4350	4350	4350	4350	4350	4350	4350	4350	4350	4350	4350	4350	4296	4296	4296	4296	4296	4350	4296	4350	4406	4406	4463	4406	4406	4406	4406	4406	4406	4350	4350	4406	4521	4521	4581	4643	4643	4706	4706	4706	4706	4706	4706	0	0	0	0	0	0	0	0	0	0	0	0	0	0	0	0	0	0	0	0	0	0	0	0	0	0	0	0	0	0	0	0	0	0	0	2327	2312	2312	2297	2297	2297	2297	2281	2281	2266	2281	2266	2252	2252	2252	2252	2252	2237	2237	2252	2252	2252	2252	2252	2252	2252	2252	2252	2237	2223	2223	2223	2223	2208	2208	2208	0	0	0	1431	1425	1413	1419	1413	1407	1407	1407	1396	1396	1390	1390	1390	1390	0	0	0	0	0	0	0	0	0	0	0	0	0	0	0	0	0	0	0	0	0	0	0	0	0	0	0	0	0	0	0	0	0	0	0	0	0	0	0
0	0	0	0	0	0	0	0	937	937	937	937	940	942	945	948	948	950	950	950	955	955	966	972	974	974	980	983	988	988	991	997	1003	1006	1008	1011	1017	1014	1020	1023	1026	1033	1039	1039	1039	1039	1042	1042	1042	1042	1042	1045	1045	0	0	0	0	0	0	0	0	0	0	0	0	0	0	0	0	0	0	0	0	4643	4643	4706	4706	4706	0	0	0	0	0	0	0	0	0	4581	4581	4643	4643	4643	4643	4643	4643	4643	4581	4581	4581	0	0	0	0	0	0	0	4643	4581	4581	4581	4581	4643	4643	4643	4581	4643	4581	4581	4581	4581	4581	4581	4581	4581	4581	4643	4643	4581	4581	4581	4643	4581	4643	4581	4643	4643	4643	4581	4581	4643	4581	4581	4581	4581	4581	4581	4581	4706	4838	4906	4906	4906	4906	4977	4977	5050	5050	5050	5050	5125	5125	5125	5125	5125	0	5202	5202	5202	5202	5202	5202	5202	5202	5125	5125	5125	5202	5202	5202	5202	5202	0	0	0	0	0	0	0	0	0	0	0	0	0	0	0	0	0	0	0	0	0	0	0	0	0	0	0	0	0	0	0	0	0	0	0	0	0	0	0	0	0	0	0	0	0	0	0	0	6853	6853	6853	6853	7137	7287	7608	7608	7779	7959	7959	7779	7779	7959	7959	7779	7779	7959	7959	8146	8146	8146	0	0	0	0	3216	3186	3216	3216	3216	3186	3216	3216	3216	3246	3216	3216	3216	3216	3216	3216	3186	3186	3216	3216	3246	3216	3216	3216	3216	3186	3186	3186	3186	3186	3186	3186	3186	3186	3186	3186	3186	3186	3186	3216	3216	0	0	0	0	0	0	0	0	0	0	0	0	0	0	0	0	0	0	0	0	0	0	0	0	0	0	0	0	0	0	0	0	0	0	0	0	0	4142	4142	4142	4192	0	4243	4192	4243	4192	4142	4142	4142	4142	4192	4192	0	0	0	0	0	0	4243	4463	4463	4521	4581	4581	4521	4521	4521	4521	4521	4521	4521	4521	4521	4581	4581	4581	4581	4581	4521	4521	4521	4521	4521	4521	4521	4521	4521	4521	4581	4521	4521	4581	4581	4581	4581	4581	4581	4581	4581	4581	4581	4581	4581	4581	4581	4581	4581	4581	4581	4581	4581	4581	4581	4581	4581	4581	4581	4581	4581	4581	4581	4581	4581	4581	4581	4521	4463	4406	4406	4350	4350	4350	4350	4350	4350	4350	4350	4296	4296	4296	4243	4243	4243	4243	4243	4243	4243	4243	4243	4243	4243	4243	4243	4243	4243	4243	4243	4243	4243	4243	4243	4243	4243	4192	4243	4296	4296	4350	4406	4406	4406	4406	4406	4406	4350	4350	4350	4350	4350	4350	4350	4350	4350	4350	4350	4350	4296	4296	4296	4243	4296	4350	4296	4350	4406	4406	4463	4406	4406	4406	4406	4406	4350	4350	4296	4350	4463	4521	4581	4643	4643	4643	4706	4706	4706	4706	4706	0	0	0	0	0	0	0	0	0	0	0	0	0	0	0	0	0	0	0	0	0	0	0	0	0	0	0	0	0	0	0	0	0	0	0	2343	2327	2312	2312	2297	2297	2297	2281	2281	2281	2281	2266	2252	2252	2252	2252	2252	2237	2252	2252	2252	2252	2252	2252	2252	2252	2252	2252	2223	2223	2208	2223	2208	2208	2208	2208	0	0	0	1431	1425	1413	1413	1413	1407	1402	1402	1396	1396	1396	1390	1390	1390	0	0	0	0	0	0	0	0	0	0	0	0	0	0	0	0	0	0	0	0	0	0	0	0	0	0	0	0	0	0	0	0	0	0	0	0	0	0	0
0	0	0	0	0	0	0	0	937	937	937	937	940	942	945	945	948	948	950	950	950	953	966	972	974	977	980	983	988	988	991	997	1003	1006	1011	1014	1017	1017	1020	1023	1026	1030	1039	1039	1039	1039	1042	1042	1045	1042	1042	1042	1045	0	0	0	0	0	0	0	0	0	0	0	0	0	0	0	0	0	0	0	4643	4581	4581	4581	4643	4643	0	0	0	0	0	0	0	0	0	4581	4581	4581	4643	4581	4643	4643	4643	4643	4521	4581	4581	0	0	0	0	0	0	4643	4643	4643	4643	4643	4643	4643	4643	4643	4581	4581	4581	4581	4581	4581	4581	4581	4581	4643	4581	4643	4643	4581	4581	4581	4643	4581	4581	4643	4643	4643	4643	4581	4643	4643	4581	4581	4581	4581	4581	4581	4581	4706	4838	4838	4906	4906	4977	4977	4977	4977	4977	4977	4977	0	5125	5125	0	0	0	0	0	0	0	5202	5202	5202	5202	0	0	0	0	0	0	0	0	0	0	0	0	0	0	0	0	0	0	0	0	0	0	0	0	0	0	0	0	0	0	0	0	0	0	0	0	0	0	0	0	0	0	0	0	0	0	0	0	0	0	0	0	0	0	0	6720	6853	6853	6853	6853	6992	7287	7444	7608	7779	7779	7959	7959	7959	7779	7779	7779	7779	7779	7779	7959	7959	7959	0	0	0	0	3216	3216	3216	3216	3216	3216	3216	3216	3216	3216	3216	3216	3216	3216	3216	3216	3186	3186	3216	3216	3246	3216	3216	3216	3216	3186	3186	3186	3186	3157	3157	3157	3186	3186	3186	3186	3186	3186	3186	3186	3186	0	0	0	0	0	0	0	0	0	0	0	0	0	0	0	0	0	0	0	0	0	0	0	0	0	0	0	0	0	0	0	0	0	0	0	0	0	4142	4142	4142	0	0	0	0	4243	4192	4142	4142	4192	4192	4192	4192	0	0	0	0	0	0	0	4463	4521	4521	4581	4581	4521	4521	4521	4521	4521	4521	4521	4521	4581	4581	4581	4581	4581	4581	4581	4521	4521	4521	4521	4521	4521	4581	4521	4521	4581	4521	4581	4581	4581	4581	4581	4581	4581	4581	4581	4581	4581	4581	4581	4581	4581	4581	4643	4643	4581	4581	4581	4581	4581	4581	4581	4581	4581	4581	4581	4581	4581	4581	4581	4581	4521	4521	4463	4406	4406	4350	4350	4350	4350	4350	4350	4350	4296	4296	4296	4243	4243	4243	4243	4243	4243	4243	4243	4243	4243	4296	4243	4296	4243	4243	4243	4243	4243	4192	4192	4243	4243	4192	4192	4243	4243	4296	4350	4406	4406	4406	4406	4406	4406	4406	4350	4350	4296	4296	4350	4350	4296	4350	4296	4350	4296	4296	4296	4296	4296	4296	4296	4350	4296	4350	4406	4406	4406	4406	4406	4406	4406	4350	4350	4350	4296	4350	4406	4463	4521	4581	4643	4643	4643	4706	4643	4581	4581	4706	0	0	0	0	0	0	0	0	0	0	0	0	0	0	0	0	0	0	0	0	0	0	0	0	0	0	0	0	0	0	0	0	0	2376	2376	2327	2327	2312	2312	2297	2297	2297	2281	2281	2281	2266	2252	2252	2252	2252	2252	2252	2252	2252	2252	2252	2252	2252	2237	2252	2237	2237	2223	2223	2208	2208	2208	2208	2208	2208	0	0	0	1431	1419	1413	1413	1407	1407	1402	1402	1402	1390	1390	1390	1390	1390	0	0	0	0	0	0	0	0	0	0	0	0	0	0	0	0	0	0	0	0	0	0	0	0	0	0	0	0	0	0	0	0	0	0	0	0	0	0	0
0	0	0	0	0	0	0	0	937	937	937	937	940	940	942	945	945	948	948	953	953	961	969	972	974	977	980	980	983	983	985	997	1003	1008	1008	1014	1014	1017	1017	1023	1023	1026	1039	1039	1039	1039	1042	1042	1045	1045	1045	1045	0	0	0	0	0	0	0	0	0	0	0	0	0	0	0	0	0	0	0	0	4643	4581	4521	4643	4581	4581	0	0	0	0	0	0	0	0	4463	4521	4581	4581	4643	4581	4643	4643	4643	4643	4521	4581	4581	0	0	0	0	0	0	4706	4706	4643	4643	4643	4643	4643	4643	4643	4581	4581	4581	4581	4581	4581	4581	4581	4643	4643	4643	4643	4643	4581	4643	4643	4643	4643	4643	4643	4643	4581	4581	4581	4643	4643	4581	4581	4581	4581	4581	4581	4643	4706	4838	4838	4906	4906	4977	4977	4977	4977	4977	4977	4977	0	0	0	0	0	0	0	0	0	0	0	0	0	0	0	0	0	0	0	0	0	0	0	0	0	0	0	0	0	0	0	0	0	0	0	0	0	0	0	0	0	0	0	0	0	0	0	0	0	0	0	0	0	0	0	0	0	0	0	0	0	0	0	0	0	0	0	0	0	6720	6992	6992	6992	6853	7137	7137	7608	7608	7779	7779	7959	7779	7779	7779	7779	7779	7608	7779	7779	7779	7779	7779	0	0	0	0	3216	3216	3216	3216	3216	3186	3216	3216	3216	3216	3216	3216	3216	3216	3216	3216	3186	3216	3216	3216	3216	3216	3216	3216	3186	3186	3186	3186	3186	3157	3157	3186	3186	3186	3186	3186	3186	3186	3186	3186	3186	0	0	0	0	0	0	0	0	0	0	0	0	0	0	0	0	0	0	0	0	0	0	0	0	0	0	0	0	0	0	0	0	0	0	0	0	0	0	0	0	0	0	0	0	4243	4243	4142	4243	4243	4243	4243	0	0	0	0	0	0	0	0	4521	4521	4521	4581	4581	4521	4521	4521	4521	4521	4521	4521	4521	4581	4581	4581	4581	4581	4521	4521	4521	4521	4521	4521	4521	4521	4581	4581	4581	4581	4521	4581	4581	4581	4581	4581	4581	4581	4581	4581	4581	4581	4581	4581	4581	4581	4581	4581	4643	4581	4581	4581	4581	4581	4581	4581	4581	4581	4581	4581	4581	4581	4581	4581	4581	4581	4521	4463	4406	4406	4350	4350	4350	4350	4350	4350	4350	4296	4296	4296	4296	4296	4243	4243	4243	4243	4296	4296	4296	4296	4296	4296	4296	4243	4243	4243	4192	4192	4192	4243	4243	4243	4192	4243	4243	4296	4350	4350	4406	4406	4406	4406	4406	4406	4406	4350	4350	4350	4296	4350	4350	4350	4350	4296	4296	4296	4296	4296	4296	4243	4243	4296	4350	4350	4296	4350	4406	4406	4406	4406	4406	4406	4406	4350	4350	4296	4350	4406	4463	4521	4581	4643	4643	4581	4581	4463	4463	4463	4706	0	0	0	0	0	0	0	0	0	0	0	0	0	0	0	0	0	0	0	0	0	0	0	0	0	0	0	0	0	0	0	0	0	2392	2376	2343	2327	2312	2312	2312	2297	2297	2297	2297	2281	2266	2252	2252	2252	2252	2252	2252	2252	2252	2252	2252	2252	2252	2252	2252	2237	2237	2223	2223	2223	2208	2208	2208	2208	2208	0	0	0	0	1419	1413	1413	1407	1402	1402	1402	1396	1390	1390	1390	1390	1390	0	0	0	0	0	0	0	0	0	0	0	0	0	0	0	0	0	0	0	0	0	0	0	0	0	0	0	0	0	0	0	0	0	0	0	0	0	0	0
0	0	0	0	0	0	0	0	937	937	935	937	937	940	940	945	950	950	953	953	953	961	969	972	974	977	980	980	983	983	985	988	1003	1008	1008	1014	1014	1017	1020	1023	1023	1026	1039	1039	1039	1039	1042	1045	1045	1045	1048	1048	0	0	0	0	0	0	0	0	0	0	0	0	0	0	0	0	0	0	0	0	4838	4581	4581	4581	4581	4581	4581	0	0	0	0	0	0	0	4463	4521	4581	4581	4581	4581	4581	4643	4643	4643	4643	4643	4581	0	0	0	0	0	0	4706	4771	4643	4643	4643	4643	4643	4643	4643	4581	4581	4581	4581	4581	4581	4581	4643	4643	4581	4581	4643	4643	4643	4643	4643	4643	4643	4581	4643	4643	4643	4581	4581	4643	4643	4581	4581	4581	4581	4581	4581	4581	4643	4838	4838	4906	4906	4977	4977	4977	4977	4977	4977	4977	0	0	0	0	0	0	0	0	0	0	0	0	0	0	0	0	0	0	0	0	0	0	0	0	0	0	0	0	0	0	0	0	0	0	0	0	0	0	0	0	0	0	0	0	0	0	0	0	0	0	0	0	0	0	0	0	0	0	0	0	0	0	0	0	0	0	0	0	0	0	6992	6992	7137	6992	7137	7137	7137	7608	7779	7779	7779	7779	7779	7779	7779	7608	7608	7779	7779	7779	7779	7779	0	0	0	0	3216	3216	3186	3216	3216	3186	3216	3216	3216	3216	3216	3216	3216	3216	3216	3216	3186	3186	3186	3216	3186	3186	3186	3186	3186	3186	3186	3186	3157	3157	3157	3186	3186	3186	3186	3186	3186	3186	3186	3186	3186	0	0	0	0	0	0	0	0	0	0	0	0	0	0	0	0	0	0	0	0	0	0	0	0	0	0	0	0	0	0	0	0	0	0	0	0	0	0	0	0	0	0	0	0	4243	4243	0	4243	4296	4296	4296	4296	0	0	0	4350	4350	0	4463	4521	4521	4521	4581	4581	4521	4521	4581	4581	4581	4521	4521	4521	4581	4581	4581	4581	4581	4581	4581	4581	4521	4521	4521	4521	4521	4521	4521	4581	4581	4521	4521	4521	4581	4581	4581	4581	4581	4581	4581	4581	4581	4581	4581	4581	4581	4581	4643	4643	4581	4581	4581	4581	4643	4643	4581	4581	4581	4581	4581	4581	4581	4581	4581	4581	4581	4521	4463	4406	4406	4350	4350	4350	4350	4350	4350	4350	4296	4296	4296	4296	4296	4243	4243	4243	4243	4296	4296	4296	4296	4296	4296	4296	4296	4243	4243	4192	4192	4192	4192	4192	4192	4192	4192	4243	4296	4350	4406	4406	4463	4406	4406	4406	4406	4350	4350	4350	4296	4296	4296	4350	4350	4350	4296	4296	4296	4296	4296	4243	4243	4243	4243	4350	4350	4350	4350	4406	4463	4406	4406	4406	4406	4350	4350	4296	4296	4350	4406	4406	4463	4521	4581	4521	4521	4463	4463	4406	4406	4406	0	0	0	0	0	0	0	0	0	0	0	0	0	0	0	0	0	0	0	0	0	0	0	0	0	0	0	0	0	0	0	2409	2392	2376	2376	2343	2327	2312	2312	2312	2297	2297	2297	2297	2297	2281	2252	2252	2252	2252	2266	2252	2252	2252	2252	2237	2252	2252	2252	2252	2237	2237	2223	2223	2223	2223	2208	2208	2208	2208	2208	0	0	0	1419	1413	1413	1407	1407	1402	1402	1396	1396	1390	1390	1390	1390	0	0	0	0	0	0	0	0	0	0	0	0	0	0	0	0	0	0	0	0	0	0	0	0	0	0	0	0	0	0	0	0	0	0	0	0	0	0	0
0	0	0	0	0	0	0	0	935	935	935	937	937	940	942	945	950	950	953	955	955	961	969	969	974	977	977	980	983	983	985	991	1003	1003	1006	1014	1014	1017	1020	1023	1026	1026	1036	1039	1039	1039	1042	1045	1048	1048	1052	1052	1055	1055	0	0	0	0	0	0	0	0	0	0	0	0	0	0	0	0	0	0	4771	4643	4581	4581	4581	4521	4521	0	0	0	0	0	0	0	0	4521	4521	4581	4643	4581	4643	4643	4643	4706	4643	4643	0	0	0	0	0	0	0	4706	4771	4643	4643	4643	4643	4643	4643	4643	4581	4581	4581	4581	4581	4521	4581	4581	4643	4643	4643	4643	4643	4581	4643	4643	4643	4643	4581	4643	4643	4643	4581	4581	4643	4643	4643	4581	4581	4581	4581	4581	4581	4643	4771	4838	4906	4906	4977	4977	4977	4977	4977	4977	4977	0	0	0	0	0	0	0	0	0	0	0	0	0	0	0	0	0	0	0	0	0	0	0	0	0	0	0	0	0	0	0	0	0	0	0	0	0	0	0	0	0	0	0	0	0	0	0	0	0	0	0	0	0	0	0	0	0	0	0	0	0	0	0	0	0	0	0	0	0	0	7287	7137	7137	7137	7287	7287	7444	7608	7779	7779	7779	7779	7779	7779	7608	7608	7608	7608	7779	7779	7779	7779	0	0	0	3246	3216	3216	3216	3216	3216	3186	3186	3216	3216	3216	3216	3216	3216	3216	3186	3186	3186	3186	3186	3186	3186	3186	3186	3186	3186	3186	3186	3186	3186	3157	3157	3186	3186	3186	3186	3157	3186	3186	3157	3157	3186	0	0	0	0	0	0	0	0	0	0	0	0	0	0	0	0	0	0	0	0	0	0	0	0	0	0	0	0	0	0	0	0	0	0	0	0	0	0	0	0	0	0	0	0	0	0	0	4296	4296	4296	4350	4350	4350	4350	4406	4350	4350	4463	4463	4521	4521	4521	4521	4581	4581	4581	4581	4581	4581	4521	4581	4581	4581	4581	4581	4581	4581	4581	4581	4581	4521	4521	4521	4521	4521	4521	4521	4521	4581	4521	4581	4581	4581	4581	4581	4581	4581	4581	4581	4581	4581	4581	4581	4581	4581	4581	4581	4643	4581	4581	4581	4581	4643	4643	4581	4643	4643	4643	4581	4581	4581	4581	4581	4581	4581	4521	4463	4406	4406	4350	4350	4296	4296	4350	4350	4350	4296	4296	4296	4296	4296	4296	4243	4243	4296	4296	4296	4296	4350	4350	4296	4296	4296	4243	4243	4192	4192	4192	4192	4192	4192	4192	4243	4243	4296	4350	4406	4406	4463	4406	4406	4406	4406	4350	4350	4350	4296	4296	4296	4296	4296	4296	4296	4296	4296	4296	4296	4243	4243	4243	4243	4350	4350	4350	4350	4406	4463	4463	4463	4406	4406	4406	4406	4350	4296	4350	4350	4406	4406	4463	4521	4463	4463	4463	4406	4406	4350	4350	4142	4142	4142	0	0	0	0	0	0	0	0	0	0	0	0	0	0	0	0	0	0	0	0	0	0	0	0	0	0	0	0	2409	2376	2376	2359	2327	2327	2312	2312	2312	2312	2297	2297	2297	2297	2281	2266	2252	2252	2252	2252	2252	2252	2252	2252	2237	2252	2252	2252	2252	2237	2237	2237	2237	2223	2223	2208	2208	2208	2208	2208	0	0	0	0	1413	1413	1407	1407	1402	1402	1396	1396	1396	1390	1390	1390	0	0	0	0	0	0	0	0	0	0	0	0	0	0	0	0	0	0	0	0	0	0	0	0	0	0	0	0	0	0	0	0	0	0	0	0	0	0	0
0	0	0	0	0	0	0	0	932	935	935	937	940	940	942	945	950	950	953	955	958	963	966	972	974	977	977	980	983	983	985	994	994	1006	1008	1011	1014	1017	1020	1023	1023	1026	1030	1036	1036	1039	1042	1045	1048	1052	1052	1052	1052	1055	0	0	0	0	0	0	0	0	4581	4581	4581	4581	0	0	0	0	0	4838	4838	4771	4643	4643	4581	4581	4581	0	0	0	0	0	0	0	0	4521	4521	4581	4581	4581	4581	4643	4643	4706	4706	4706	0	0	0	0	0	0	0	4771	4771	4643	4643	4643	4643	4643	4643	4643	4581	4581	4581	4581	4581	4581	4581	4643	4643	4643	4643	4643	4643	4581	4581	4643	4581	4581	4581	4581	4581	4581	4581	4581	4643	4643	4643	4581	4581	4581	4581	4581	4581	4643	4771	4838	4906	4906	4977	4977	5050	5050	5050	0	0	0	0	0	0	0	0	0	0	0	0	0	0	0	0	0	0	0	0	0	0	0	0	0	0	0	0	0	0	0	0	0	0	0	0	0	0	0	0	0	0	0	0	0	0	0	0	0	0	0	0	0	0	0	0	0	0	0	0	0	0	0	0	0	0	0	0	0	0	0	0	7444	7444	7287	7287	7287	7287	7444	7608	7608	7779	7779	7779	7779	7608	7608	7608	7608	7779	7779	7779	7779	0	0	0	0	3277	3246	3216	3216	3216	3216	3186	3186	3186	3186	3216	3186	3186	3186	3186	3186	3186	3186	3186	3186	3186	3186	3186	3186	3186	3186	3186	3186	3186	3186	3186	3157	3186	3186	3186	3186	3157	3157	3157	3157	3157	0	0	0	0	0	0	0	0	0	0	0	0	0	0	0	0	0	0	0	0	4093	4093	4093	0	0	0	0	0	0	0	0	0	0	0	0	0	0	0	0	0	0	0	0	0	0	0	0	4296	4296	4296	4296	4350	4350	4350	4350	4350	4350	4350	4350	4463	4521	4521	4521	4521	4581	4581	4581	4581	4581	4581	4581	4581	4581	4581	4581	4581	4581	4581	4581	4581	4581	4581	4521	4521	4521	4521	4521	4521	4521	4581	4521	4521	4521	4581	4521	4521	4581	4581	4581	4581	4581	4581	4581	4581	4581	4581	4581	4643	4643	4581	4643	4643	4643	4643	4643	4643	4643	4643	4643	4581	4581	4581	4581	4581	4581	4581	4521	4463	4406	4406	4350	4350	4296	4296	4296	4296	4296	4296	4243	4243	4243	4296	4296	4296	4296	4296	4296	4296	4296	4296	4350	4296	4296	4296	4296	4243	4243	4243	4243	4243	4243	4243	4243	4243	4243	4296	4350	4350	4406	4406	4406	4350	4350	4350	4350	4350	4350	4296	4296	4296	4296	4296	4296	4243	4243	4296	4243	4243	4243	4243	4243	4243	4296	4296	4350	4350	4350	4350	4463	4463	4406	4406	4406	4406	4350	4296	4296	4350	4350	4350	4406	4463	4463	4406	4463	4406	4350	4350	4296	4142	4142	4142	4142	0	4142	4192	4192	4192	4296	4296	4296	0	0	4350	4350	0	0	0	0	0	0	0	0	0	0	0	0	0	0	0	0	2376	2376	2359	2327	2327	2312	2312	2312	2312	2297	2297	2297	2281	2266	2266	2252	2252	2252	2252	2252	2252	2237	2252	2237	2252	2252	2252	2237	2237	2237	2237	2223	2223	2208	2208	2208	2208	2208	2194	2194	2194	0	0	1413	1413	1407	1407	1402	1402	1396	1396	1396	1390	1390	1390	0	0	0	0	0	0	0	0	0	0	0	0	0	0	0	0	0	0	0	0	0	0	0	0	0	0	0	0	0	0	0	0	0	0	0	0	0	0	0
0	0	0	0	0	0	0	0	930	932	937	940	940	940	942	945	950	950	955	955	961	963	966	972	972	974	977	980	983	983	983	988	988	1006	1006	1011	1014	1017	1020	1023	1026	1026	1030	1036	1036	1039	1039	1042	1045	1048	1048	1048	1052	0	0	0	0	0	0	0	0	0	4581	4581	4581	4581	4643	4838	4838	0	4838	4838	4838	4771	4643	4643	4643	4643	4581	0	0	0	0	0	0	0	0	4581	4521	4581	4581	4581	4581	4643	4643	4706	4706	4706	0	0	0	0	0	0	0	4771	4771	4706	4643	4643	4643	4643	4643	4643	4581	4581	4643	4643	4643	4643	4643	4643	4643	4643	4643	4643	4643	4581	4581	4643	4581	4581	4643	4643	4643	4643	4643	4643	4643	4643	4581	4581	4581	4581	4581	4581	4581	4643	4706	4838	4906	4906	4977	5050	5050	5050	5050	0	0	0	0	6349	6349	6124	6124	6124	0	0	0	0	0	0	0	0	6018	6018	6018	6018	5915	5915	0	0	0	0	0	0	0	0	0	0	0	0	0	0	0	0	0	0	0	0	0	0	0	0	0	0	0	0	0	0	0	0	0	0	0	0	0	0	0	0	0	0	0	0	0	0	0	0	0	7287	7287	7287	7287	7444	7287	7444	7608	7779	7779	7779	7779	7779	7779	7608	7608	7608	7608	7608	7608	7608	0	0	0	0	3277	3216	3216	3216	3216	3216	3186	3186	3186	3186	3186	3216	3216	3216	3216	3216	3216	3216	3186	3186	3186	3186	3186	3186	3186	3186	3186	3186	3186	3186	3186	3157	3157	3186	3186	3157	3157	3157	3157	3157	3157	0	0	0	0	0	0	0	0	0	0	0	0	0	0	0	0	0	0	0	4093	4093	4093	4093	4142	4142	4142	0	0	0	0	0	0	0	0	0	0	0	0	0	0	0	0	0	0	0	0	0	4296	4296	4296	4296	4350	4350	4350	4350	4350	4406	4406	4406	4463	4521	4521	4521	4521	4581	4581	4581	4581	4581	4581	4581	4581	4581	4581	4581	4581	4581	4581	4581	4581	4581	4581	4581	4521	4521	4521	4521	4521	4521	4521	4521	4521	4521	4581	4521	4521	4521	4581	4581	4581	4581	4581	4581	4581	4581	4581	4581	4643	4643	4643	4643	4643	4643	4643	4643	4643	4581	4581	4581	4581	4581	4581	4581	4581	4581	4581	4521	4463	4406	4350	4350	4350	4243	4243	4243	4243	4243	4243	4243	4243	4296	4296	4296	4296	4296	4296	4296	4296	4296	4296	4296	4296	4296	4296	4296	4296	4243	4243	4243	4243	4243	4243	4243	4243	4296	4296	4350	4350	4406	4406	4350	4350	4350	4350	4350	4350	4350	4296	4296	4296	4296	4296	4243	4243	4243	4243	4243	4243	4243	4243	4243	4243	4243	4296	4296	4296	4350	4406	4463	4463	4406	4406	4406	4350	4350	4296	4296	4296	4296	4296	4350	4350	4406	4350	4406	4406	4350	4296	4296	4243	4192	4142	4142	4142	4142	4192	4243	4243	4296	4296	4296	4350	4350	4350	4350	4296	4296	0	0	0	0	0	0	0	0	0	0	0	0	0	0	0	2376	2359	2343	2327	2327	2327	2312	2312	2297	2297	2297	2281	2266	2252	2252	2252	2252	2252	2252	2252	2237	2252	2237	2252	2252	2252	2237	2237	2237	2237	2223	2223	2208	2208	2208	2208	2208	2194	2194	2194	0	0	0	1407	1407	1407	1396	1396	1396	1396	1396	1390	1390	1390	0	0	0	0	0	0	0	0	0	0	0	0	0	0	0	0	0	0	0	0	0	0	0	0	0	0	0	0	0	0	0	0	0	0	0	0	0	0	0
0	0	0	0	0	0	0	0	932	932	935	937	937	937	942	942	948	948	955	958	961	963	966	969	974	974	977	980	983	983	988	988	997	1003	1006	1011	1011	1014	1020	1023	1026	1026	1039	1039	1039	1039	1039	1039	1042	1042	1045	1045	1052	0	0	0	0	0	0	0	0	4581	4643	4643	4581	4581	4643	4706	4706	0	4838	4771	4771	4771	4706	4643	4643	4643	0	0	0	0	0	0	0	0	0	4643	4581	4581	4581	4581	4581	4643	4643	4706	4706	4771	4771	0	0	0	0	0	0	4771	4771	4706	4706	4643	4643	4643	4643	4643	4643	4643	4643	4643	4643	4643	4643	4643	4643	4643	4643	4643	4643	4643	4643	4643	4581	4581	4581	4643	4643	4581	4581	4581	4581	4581	4581	4581	4581	4581	4581	4581	4581	4643	4706	4771	4906	4906	4977	4977	5050	4977	4977	0	0	0	6349	6349	6235	6124	6124	6124	0	0	0	0	0	0	0	0	6018	6018	6018	6018	5915	5719	5719	0	0	0	0	0	0	0	0	0	0	0	0	0	0	0	0	0	0	0	0	0	0	0	0	0	0	0	0	0	0	0	0	0	0	0	0	0	0	0	0	0	0	0	0	0	0	0	0	7287	7444	7444	7444	7444	7287	7608	7608	7779	7779	7779	7779	7779	7779	7608	7608	7608	7608	7608	7608	7608	0	0	0	0	3246	3216	3216	3186	3216	3216	3186	3186	3186	3186	3216	3216	3216	3216	3216	3216	3216	3216	3186	3186	3186	3186	3186	3186	3186	3186	3186	3186	3186	3186	3186	3186	3186	3186	3186	3157	3157	3157	3157	3157	3157	0	0	0	0	0	0	0	0	0	0	0	0	0	0	0	0	0	0	4093	4093	4093	4093	4093	4142	4142	4192	4192	4192	0	0	0	0	0	0	0	0	0	0	0	0	0	4192	4243	4243	4243	4243	4296	4296	4296	4296	4296	4350	4350	4350	4350	4350	4406	4406	4406	4463	4521	4521	4521	4521	4581	4581	4581	4581	4581	4581	4581	4581	4581	4581	4581	4581	4581	4581	4581	4581	4581	4581	4581	4581	4581	4581	4521	4521	4521	4521	4521	4521	4581	4581	4581	4521	4581	4581	4581	4581	4581	4581	4581	4581	4581	4581	4581	4643	4643	4643	4581	4643	4581	4643	4643	4581	4581	4581	4581	4581	4581	4581	4581	4581	4581	4521	4463	4406	4406	4350	4350	4296	4243	4243	4243	4243	4243	4243	4243	4243	4296	4296	4296	4296	4296	4296	4296	4296	4296	4296	4296	4296	4296	4296	4296	4296	4243	4243	4243	4243	4243	4243	4243	4296	4296	4350	4350	4350	4350	4350	4350	4350	4296	4350	4350	4296	4296	4296	4296	4243	4296	4243	4243	4243	4243	4192	4192	4192	4192	4192	4192	4192	4243	4296	4296	4296	4350	4406	4406	4406	4406	4406	4406	4350	4350	4350	4350	4296	4296	4296	4296	4296	4350	4296	4296	4350	4296	4296	4243	4243	4192	4142	4142	4142	4192	4192	4243	4243	4296	4296	4296	4296	4296	4350	4296	4296	4296	0	0	0	0	0	0	0	0	0	0	0	0	0	0	0	0	2376	2359	2327	2343	2327	2327	2312	2297	2297	2297	2266	2266	2252	2252	2237	2252	2237	2237	2252	2237	2252	2237	2252	2252	2252	2252	2237	2237	2237	2237	2223	2223	2223	2208	2208	2208	2208	2194	2194	2208	2194	2194	2194	2194	2194	1390	1390	1390	1390	1396	1390	1390	1390	0	0	0	0	0	0	0	0	0	0	0	0	0	0	0	0	0	0	0	0	0	0	0	0	0	0	0	0	0	0	0	0	0	0	0	0	0	0	0
0	0	0	0	0	0	0	0	930	932	935	937	940	940	942	945	948	948	953	958	961	961	963	969	974	977	977	980	983	983	988	994	994	1003	1003	1008	1011	1014	1017	1023	1026	1026	1030	1030	1030	1033	1033	1030	1039	1042	1042	1042	0	0	0	0	0	0	0	0	0	4581	4643	4581	4581	4581	4581	4581	4706	0	0	4771	4838	4771	4706	4643	4643	4643	0	0	0	0	0	0	0	0	0	4706	4581	4581	4581	4581	4581	4643	4643	4706	4771	4771	4771	0	0	0	0	0	0	4906	4771	4706	4706	4643	4643	4643	4643	4643	4643	4643	4643	4643	4643	4643	4643	4643	4643	4643	4643	4643	4643	4643	4643	4643	4643	4581	4581	4581	4581	4581	4581	4581	4581	4581	4581	4643	4581	4581	4581	4581	4581	4643	4706	4838	4906	4906	4906	4906	4906	4977	4977	0	0	6468	6349	6349	6235	6124	6018	6018	6018	6018	0	0	0	0	0	0	6124	6018	6018	6018	5915	5815	5815	0	0	0	0	0	0	0	0	0	0	0	0	0	0	0	0	0	0	0	0	0	0	0	0	0	0	0	0	0	0	0	0	0	0	0	0	0	0	0	0	0	0	0	0	0	0	0	0	0	7444	7444	7444	7444	7444	7608	7608	7779	7779	7608	7779	7779	7779	7608	7608	7608	7608	7444	7444	7608	0	0	0	3309	3277	3216	3216	3186	3186	3186	3186	3186	3186	3186	3186	3216	3216	3186	3216	3216	3186	3186	3186	3186	3186	3186	3186	3186	3186	3186	3186	3186	3186	3186	3186	3186	3186	3186	3186	3157	3157	3157	3157	3157	3157	0	0	0	0	0	0	0	0	0	0	0	0	0	0	0	0	0	0	4093	4093	4142	4093	4093	4142	4142	4192	4192	4192	0	0	0	0	0	0	0	0	0	0	4243	4243	4243	4192	4243	4243	4243	4296	4296	4296	4296	4296	4296	4350	4350	4350	4296	4350	4350	4350	4350	4406	4463	4521	4521	4521	4581	4581	4581	4581	4581	4581	4581	4581	4581	4521	4521	4581	4581	4581	4581	4581	4581	4581	4581	4581	4581	4581	4521	4521	4521	4581	4581	4521	4581	4581	4581	4521	4581	4581	4581	4581	4581	4581	4581	4581	4581	4581	4581	4643	4643	4643	4643	4643	4581	4643	4581	4581	4581	4581	4581	4581	4581	4581	4581	4581	4521	4521	4406	4406	4350	4350	4350	4296	4192	4192	4243	4243	4243	4243	4243	4243	4243	4296	4243	4243	4296	4296	4296	4296	4296	4296	4296	4296	4296	4296	4296	4296	4243	4296	4243	4243	4243	4243	4243	4296	4296	4350	4350	4350	4350	4296	4296	4296	4296	4296	4296	4296	4296	4296	4296	4243	4243	4243	4243	4192	4192	4192	4192	4192	4192	4192	4192	4192	4243	4296	4296	4296	4350	4406	4406	4463	4406	4350	4406	4350	4350	4350	4350	4296	4296	4296	4296	4296	4350	4296	4296	4296	4296	4243	4243	4243	4192	4192	4192	4142	4192	4243	4243	4243	4296	4296	4243	4296	4296	4350	4296	4296	4296	4296	0	0	0	0	0	0	0	0	0	0	0	0	0	0	0	2376	2359	2343	2343	2343	2327	2312	2297	2297	2281	2266	2266	2252	2252	2237	2252	2237	2237	2237	2237	2237	2237	2252	2252	2252	2237	2237	2237	2237	2237	2223	2223	2223	2223	2223	2223	2208	2208	2208	2208	2208	2208	2194	2194	2194	2194	2194	1390	1390	1390	1390	1390	1390	0	0	0	0	0	0	0	0	0	0	0	0	0	0	0	0	0	0	0	0	0	0	0	0	0	0	0	0	0	0	0	0	0	0	0	0	0	0	0
0	0	0	0	0	0	0	0	927	930	932	937	940	940	942	945	948	950	953	958	961	961	961	969	974	977	980	983	983	985	988	991	997	997	1003	1006	1008	1011	1017	1017	1023	1026	1030	1030	1033	1033	1033	1033	1039	1039	1039	1039	0	0	0	0	0	0	0	0	0	4521	4581	4581	4581	4581	4581	4581	0	0	0	0	4838	4771	4771	4706	4706	4643	0	0	0	0	0	0	0	0	0	4706	4643	4581	4581	4643	4643	4643	4643	4706	4706	4771	4643	4643	0	0	0	0	0	4906	4771	4771	4706	4643	4643	4643	4643	4643	4643	4643	4643	4643	4643	4643	4643	4643	4643	4643	4643	4643	4643	4643	4643	4643	4643	4581	4581	4581	4581	4581	4581	4581	4581	4581	4581	4643	4581	4581	4581	4581	4581	4581	4706	4771	4771	4706	4977	4977	4977	4977	4977	0	6468	6468	6349	6349	6235	6124	6018	6018	5915	5915	0	0	0	0	0	0	6124	6018	6018	6018	5915	5915	5815	0	0	0	0	0	0	0	0	0	0	0	0	0	0	0	0	0	0	0	0	0	0	0	0	0	0	0	0	0	0	0	0	0	0	0	0	0	0	0	0	0	0	0	7287	7287	0	0	0	0	7444	7444	7444	7444	7444	7608	7608	7608	7779	7608	7608	7608	7779	7608	7608	7608	7608	7444	7444	0	0	0	0	3277	3246	3216	3216	3186	3186	3186	3186	3186	3186	3186	3186	3216	3216	3186	3216	3186	3186	3186	3186	3186	3186	3186	3186	3186	3186	3186	3186	3186	3186	3186	3186	3186	3186	3186	3186	3157	3157	3157	3157	3157	3157	0	0	0	0	0	0	0	0	0	0	0	0	0	0	0	0	0	0	0	0	4142	4093	4093	4192	4192	4243	4243	4296	4296	0	0	0	0	0	0	0	0	0	4243	4243	4243	4243	4243	4243	4296	4296	4296	4296	4296	4296	4296	4296	4350	4296	4296	4350	4350	4350	4350	4406	4463	4521	4521	4521	4521	4581	4581	4581	4581	4581	4581	4581	4581	4581	4581	4581	4581	4581	4581	4581	4581	4581	4581	4581	4581	4581	4581	4581	4521	4581	4581	4581	4581	4581	4581	4581	4581	4581	4581	4581	4581	4581	4581	4581	4581	4581	4581	4643	4643	4643	4643	4643	4643	4643	4581	4581	4581	4581	4581	4581	4581	4581	4581	4521	4521	4463	4406	4406	4350	4350	4296	4296	4192	4192	4192	4192	4192	4192	4192	4243	4243	4243	4243	4243	4296	4296	4296	4296	4296	4296	4296	4243	4296	4296	4296	4296	4296	4296	4296	4296	4296	4243	4296	4296	4296	4350	4350	4350	4296	4296	4296	4296	4243	4296	4296	4296	4296	4296	4243	4243	4243	4243	4192	4192	4192	4192	4192	4192	4192	4192	4192	4192	4243	4243	4296	4296	4296	4350	4406	4406	4406	4406	4406	4406	4350	4350	4350	4350	4350	4296	4296	4296	4296	4296	4296	4296	4243	4243	4192	4192	4192	4192	4192	4192	4243	4243	4243	4243	4296	4296	4243	4296	4296	4350	4350	4350	4350	4350	4350	0	0	0	0	0	0	0	0	0	0	0	0	0	0	0	2343	2327	2327	2343	2327	2312	2297	2297	2297	2281	2266	2252	2252	2252	2237	2237	2237	2237	2237	2237	2237	2252	2252	2252	2252	2252	2237	2237	2252	2237	2223	2223	2223	2223	2223	2208	2208	2208	2208	2208	2208	2208	2194	2194	2194	2208	2208	1390	1390	2208	1390	1390	2194	2194	0	0	0	0	0	0	0	0	0	0	0	0	0	0	0	0	0	0	0	0	0	0	0	0	0	0	0	0	0	0	0	0	0	0	0	0	0
0	0	0	0	0	0	0	0	927	930	935	940	940	942	945	945	948	950	953	958	958	961	961	966	972	977	980	983	983	985	985	991	991	997	1003	1006	1006	1011	1017	1020	1026	1026	1030	1030	1033	1036	1033	1036	1036	1039	1039	1039	0	0	0	0	0	0	0	0	0	4581	4581	4581	4521	4581	4581	4581	0	0	0	0	0	4771	4771	4706	4706	0	0	0	0	0	0	0	0	0	0	4706	4643	4643	4643	4643	4643	4643	4643	4643	4643	4706	4581	4581	0	0	0	0	0	4706	4771	4771	4706	4706	4643	4643	4643	4643	4643	4643	4643	4643	4643	4643	4643	4643	4643	4643	4643	4643	4643	4643	4643	4643	4643	4581	4581	4581	4581	4581	4581	4581	4581	4581	4581	4581	4581	4581	4581	4581	4581	4581	4706	4706	4706	4706	4706	4977	4977	4906	4906	4906	6468	6349	6349	6349	6235	6124	6018	6018	5915	5915	0	0	0	0	0	6124	6124	6124	6124	6018	6018	6018	0	0	0	0	0	0	0	6235	6235	6235	0	0	0	0	0	0	0	0	0	0	0	0	0	0	0	0	0	0	0	0	0	0	0	0	0	0	0	0	0	0	0	0	7608	7608	7444	7444	7444	7444	0	0	0	7444	7444	7444	7444	7608	7608	7608	7608	7608	7608	7608	7444	7608	7608	7608	7608	7608	7444	7444	0	0	0	3277	3246	3216	3216	3216	3216	3216	3186	3186	3186	3186	3216	3216	3216	3216	3216	3186	3186	3186	3186	3186	3186	3186	3186	3186	3157	3157	3186	3157	3157	3186	3186	3186	3186	3186	3186	3157	3157	3157	3157	3157	3157	0	0	0	0	0	0	0	0	0	0	0	0	0	0	0	0	0	0	0	0	0	4093	4093	4243	4243	4296	4296	4296	4296	4296	4296	4296	4296	0	4296	4296	4296	4243	4243	4243	4243	4243	4243	4243	4243	4243	4296	4296	4296	4296	4296	4296	4296	4296	4350	4350	4350	4350	4350	4406	4463	4463	4521	4521	4581	4581	4581	4581	4581	4581	4581	4581	4581	4581	4581	4581	4581	4581	4581	4581	4581	4581	4581	4581	4581	4581	4581	4581	4521	4581	4581	4581	4581	4581	4581	4581	4581	4581	4581	4581	4581	4581	4581	4581	4581	4581	4581	4643	4643	4643	4643	4643	4643	4643	4581	4581	4581	4581	4581	4581	4581	4581	4581	4521	4463	4406	4350	4350	4350	4350	4296	4296	4192	4243	4243	4243	4243	4243	4243	4243	4243	4243	4296	4296	4296	4350	4296	4296	4296	4296	4243	4243	4243	4243	4243	4243	4296	4296	4296	4296	4296	4296	4296	4296	4296	4350	4296	4296	4296	4296	4296	4243	4243	4243	4243	4243	4296	4296	4296	4296	4296	4243	4243	4192	4192	4192	4192	4192	4192	4192	4192	4192	4243	4243	4243	4243	4296	4296	4406	4406	4406	4406	4406	4406	4350	4350	4350	4350	4350	4350	4296	4296	4350	4296	4296	4296	4243	4243	4243	4192	4192	4192	4192	4192	4192	4243	4243	4243	4243	4243	4243	4296	4296	4296	4350	4350	4350	4350	4350	0	0	0	0	0	0	0	0	0	0	0	0	0	0	0	2343	2359	2343	2343	2343	2312	2297	2297	2281	2281	2266	2252	2252	2252	2237	2237	2237	2237	2237	2252	2237	2266	2252	2252	2252	2252	2252	2237	2237	2223	2223	2223	2208	2223	2223	2208	2208	2208	2208	2208	2208	2208	2208	2208	2208	2208	2223	2223	2208	2208	2208	2208	2194	2181	2181	2181	0	0	0	0	0	0	0	0	0	0	0	0	0	0	0	0	0	0	0	0	0	0	0	0	0	0	0	0	0	0	0	0	0	0	0
0	0	0	0	0	0	0	0	927	932	935	940	940	942	945	945	948	948	950	958	961	961	961	963	969	977	983	985	985	985	988	991	994	994	1003	1006	1006	1011	1014	1014	1023	1026	1030	1030	1039	1036	1036	1036	1036	1039	1036	1036	0	0	0	0	0	0	0	0	0	4581	4643	4581	4581	4581	4581	4581	4581	0	0	0	0	0	0	4706	4706	0	0	0	0	0	0	0	0	0	4706	4643	4643	4643	4643	4643	4643	4643	4581	4643	4643	4643	4581	4521	4581	4581	0	0	4706	4706	4771	4706	4706	4706	4706	4643	4643	4643	4643	4643	4643	4643	4643	4643	4643	4643	4643	4643	4643	4643	4643	4643	4643	4581	4581	4581	4581	4581	4581	4581	4581	4581	4581	4581	4581	4581	4581	4581	4581	4581	4581	4581	4706	4706	4706	4706	4771	4977	4977	4977	4977	4977	6468	6349	6349	6235	6235	6124	6018	6018	5915	5915	0	0	0	0	0	6018	6124	6124	6018	6018	6018	6018	6018	0	0	0	0	0	0	6235	6235	6235	6349	6349	0	0	0	0	0	0	0	0	0	0	0	0	0	0	0	0	0	0	0	0	0	0	0	0	0	0	0	0	0	7608	7608	7608	7444	7287	7287	7444	7444	0	0	7444	7444	7444	7444	7608	7608	7608	7608	7608	7608	7608	7608	7608	7608	7608	7608	7608	7608	7444	7444	0	0	0	3246	3216	3216	3216	3186	3216	3186	3186	3186	3186	3186	3186	3216	3216	3216	3186	3186	3186	3186	3186	3186	3186	3186	3186	3186	3186	3186	3157	3157	3157	3186	3157	3157	3186	3186	3186	3186	3157	3186	3157	3157	0	0	0	0	0	0	0	0	0	0	0	0	0	0	0	0	0	0	0	0	0	0	0	4243	4243	4296	4296	4350	4350	4296	4296	4296	4296	4296	4296	4296	4296	4296	4296	4296	4243	4243	4243	4243	4296	4243	4296	4296	4296	4296	4296	4296	4296	4296	4296	4296	4350	4350	4350	4350	4406	4463	4463	4521	4581	4581	4581	4581	4581	4581	4581	4581	4581	4581	4581	4581	4581	4581	4581	4581	4581	4581	4581	4581	4581	4581	4581	4581	4521	4581	4581	4581	4581	4581	4581	4581	4581	4581	4581	4581	4581	4581	4581	4581	4581	4581	4581	4643	4643	4643	4643	4643	4643	4643	4581	4581	4581	4581	4581	4581	4581	4581	4581	4521	4521	4406	4350	4350	4350	4350	4350	4296	4243	4296	4243	4243	4243	4243	4243	4243	4243	4243	4243	4243	4243	4296	4296	4296	4296	4243	4243	4243	4243	4243	4243	4243	4296	4296	4296	4296	4296	4296	4296	4296	4296	4296	4296	4296	4296	4243	4243	4243	4192	4192	4192	4243	4243	4296	4243	4243	4296	4243	4243	4192	4192	4192	4192	4192	4192	4192	4192	4192	4243	4243	4243	4243	4243	4296	4350	4406	4406	4350	4406	4350	4350	4350	4350	4350	4350	4350	4296	4296	4296	4243	4243	4243	4243	4243	4243	4192	4192	4192	4192	4192	4192	4192	4243	4243	4243	4243	4243	4296	4350	4350	4350	4350	4350	4350	4350	0	0	0	0	0	0	0	0	0	0	0	0	0	0	0	2359	2359	2359	2359	2359	2327	2297	2297	2297	2281	2266	2252	2252	2252	2237	2237	2237	2252	2252	2252	2252	2266	2266	2252	2252	2252	2252	2252	2252	2237	2223	2223	2223	2223	2223	2223	2223	2208	2223	2223	2223	2223	2223	2223	2208	2223	2223	2223	2223	2208	2208	2208	2208	2194	2194	2194	0	0	0	0	0	0	0	0	0	0	0	0	0	0	0	0	0	0	0	0	0	0	0	0	0	0	0	0	0	0	0	0	0	0	0
0	0	0	0	0	0	0	0	925	932	935	940	942	940	942	945	945	948	950	961	961	961	961	963	972	977	983	983	985	985	988	991	994	997	1000	1006	1006	1011	1014	1020	1023	1026	1030	1033	1039	1036	1036	1039	1039	1039	1042	1042	1042	0	0	0	0	0	0	0	0	4581	4581	4581	4581	4521	4521	4581	4581	0	0	0	0	0	0	0	0	0	0	0	0	0	0	0	0	0	4706	4643	4643	4643	4581	4581	4581	4581	4581	4581	4581	4581	4521	4521	4521	4581	0	4706	4706	4771	4771	4771	4771	4706	4706	4706	4643	4643	4643	4643	4643	4643	4643	4643	4643	4643	4643	4643	4643	4643	4643	4643	4643	4643	4643	4643	4581	4581	4581	4581	4581	4581	4581	4581	4581	4581	4581	4581	4581	4581	4581	4581	4706	4706	4706	4771	4771	4906	4906	4906	4906	4906	6468	6349	6235	6235	6235	6124	6124	6018	6018	5915	0	0	0	0	0	6018	6124	6124	6124	6018	6018	6018	6018	6018	0	0	6018	6018	6124	6018	6018	6349	6349	6349	0	0	0	0	0	0	0	0	0	0	0	0	0	0	0	0	0	0	0	0	0	0	0	0	0	0	0	0	0	7444	7444	7444	7444	7444	7444	7444	7444	7444	0	7444	7444	7608	7608	7608	7608	7608	7608	7608	7608	7444	7444	7608	7608	7608	7608	7608	7444	7444	7287	7287	0	0	3216	3216	3216	3186	3186	3186	3186	3186	3186	3186	3186	3216	3216	3216	3216	3186	3186	3186	3186	3186	3186	3186	3186	3186	3186	3186	3186	3157	3157	3157	3186	3157	3157	3157	3186	3186	3186	3157	3186	3157	3157	0	0	0	0	0	0	0	0	0	0	0	0	0	0	0	0	0	0	0	0	0	0	0	4296	4296	4296	4296	4350	4296	4296	4296	4296	4296	4296	4296	4296	4296	4296	4296	4296	4243	4243	4243	4243	4243	4243	4243	4243	4243	4296	4296	4296	4296	4296	4296	4296	4350	4296	4350	4350	4350	4406	4463	4463	4581	4581	4581	4581	4581	4581	4581	4581	4581	4581	4581	4581	4581	4581	4581	4581	4581	4581	4581	4581	4581	4581	4581	4581	4521	4581	4581	4581	4581	4581	4581	4581	4581	4581	4581	4581	4581	4581	4581	4581	4581	4581	4581	4643	4643	4643	4643	4643	4643	4643	4581	4581	4581	4581	4581	4581	4581	4581	4581	4581	4521	4463	4406	4406	4350	4350	4296	4243	4243	4243	4243	4243	4243	4243	4243	4243	4243	4243	4243	4243	4296	4296	4296	4296	4243	4243	4243	4192	4192	4192	4192	4243	4243	4296	4296	4243	4243	4296	4296	4296	4243	4296	4296	4296	4243	4243	4243	4192	4192	4192	4192	4243	4243	4243	4243	4243	4296	4243	4243	4192	4192	4192	4192	4192	4192	4192	4192	4192	4243	4243	4243	4243	4243	4296	4406	4406	4406	4406	4406	4406	4350	4350	4350	4296	4296	4296	4243	4243	4296	4243	4243	4243	4243	4243	4243	4243	4243	4243	4192	4192	4192	4192	4243	4243	4243	4243	4243	4296	4350	4350	4350	4350	4350	4350	4350	4243	4243	0	0	0	0	0	0	0	0	0	0	0	0	2376	2359	2359	2359	2359	2343	2327	2312	2312	2297	2281	2266	2252	2252	2252	2237	2237	2252	2252	2252	2252	2252	2266	2266	2266	2252	2266	2252	2252	2252	2237	2223	2223	2223	2223	2237	2237	2237	2223	2237	2237	2223	2223	2223	2223	2208	2223	2223	2223	2223	2208	2208	2208	2208	2194	2194	2194	0	0	0	0	0	0	0	0	0	0	0	0	0	0	0	0	0	0	0	0	0	0	0	0	0	0	0	0	0	0	0	0	0	0	0
0	0	0	0	0	0	0	0	930	930	935	937	940	940	940	942	945	950	958	961	963	961	961	963	974	974	985	985	985	988	991	994	994	997	1000	1003	1006	1011	1017	1020	1026	1026	1030	1033	1036	1039	1036	1039	1042	1042	1042	1042	1042	0	0	0	0	0	0	0	0	4521	4581	4581	4581	4581	4521	4581	4581	0	0	0	0	0	0	0	0	0	0	0	0	0	0	0	0	4771	4706	4643	4643	4643	4581	4581	4581	4581	4581	4581	4581	4521	4521	4521	4521	0	0	4706	4706	4706	4706	4771	4771	4706	4706	4706	4643	4643	4643	4643	4643	4643	4643	4643	4643	4643	4643	4643	4643	4643	4643	4643	4643	4643	4643	4643	4581	4581	4581	4643	4581	4581	4581	4581	4581	4581	4581	4581	4581	4581	4581	4643	4706	4771	4771	4771	4771	4906	4906	4906	4906	4906	6349	6235	6235	6235	6235	6124	6018	5915	5915	0	0	0	0	0	0	6124	6018	6018	6018	6018	6018	6018	6018	6018	5915	6018	6018	6018	6018	6018	6235	6349	6349	6349	0	0	0	0	0	0	0	0	0	0	0	0	0	0	0	0	0	0	0	0	0	0	0	0	0	0	7137	7287	7444	7444	7444	7444	7444	7444	7444	7444	7444	7444	0	0	0	7608	7608	7608	7444	7608	7608	7608	7444	7444	7444	7608	7608	7608	7608	7608	7444	7444	7287	7444	7444	0	3216	3216	3216	3186	3186	3186	3186	3186	3186	3186	3186	3186	3216	3216	3216	3186	3186	3186	3186	3186	3186	3186	3186	3186	3186	3186	3157	3157	3157	3157	3157	3157	3157	3186	3186	3186	3186	3186	3186	3186	3186	0	0	0	0	0	0	0	0	0	0	0	0	0	0	0	0	0	0	0	0	0	0	4296	4350	4296	4350	4350	4350	4350	4350	4350	4296	4296	4296	4296	4296	4296	4296	4296	4296	4296	4243	4243	4243	4243	4243	4243	4243	4243	4296	4296	4296	4296	4296	4350	4350	4350	4296	4350	4350	4350	4406	4406	4463	4521	4581	4581	4581	4581	4581	4581	4581	4581	4581	4581	4581	4581	4581	4581	4581	4581	4581	4581	4581	4581	4581	4581	4581	4581	4581	4581	4581	4581	4581	4581	4581	4581	4581	4581	4581	4581	4581	4581	4581	4581	4581	4581	4643	4643	4643	4643	4643	4643	4643	4581	4581	4581	4581	4581	4581	4581	4581	4581	4581	4521	4463	4406	4406	4350	4350	4243	4243	4192	4243	4243	4243	4243	4243	4243	4243	4243	4243	4243	4243	4296	4296	4296	4296	4296	4243	4243	4192	4192	4192	4192	4192	4192	4243	4243	4243	4296	4243	4243	4243	4243	4296	4296	4296	4296	4243	4192	4192	4192	4192	4192	4192	4192	4243	4243	4243	4243	4243	4243	4192	4192	4192	4192	4192	4192	4192	4192	4192	4243	4243	4243	4243	4243	4296	4350	4406	4406	4406	4406	4406	4350	4350	4350	4350	4350	4350	4296	4296	4296	4243	4243	4243	4243	4243	4243	4243	4243	4243	4243	4243	4243	4243	4243	4243	4243	4243	4243	4296	4350	4350	4350	4350	4350	4350	4296	4243	4243	0	0	0	0	0	0	0	0	0	0	0	0	2376	2359	2359	2359	2359	2343	2343	2312	2312	2297	2281	2266	2252	2252	2252	2252	2266	2252	2252	2252	2252	2252	2266	2266	2266	2266	2266	2252	2252	2252	2237	2237	2237	2237	2237	2237	2237	2237	2237	2237	2237	2223	2223	2223	2223	2208	2223	2223	2208	2223	2208	2208	2208	2194	2194	2194	2194	0	0	0	0	0	0	0	0	0	0	0	0	0	0	0	0	0	0	0	0	0	0	0	0	0	0	0	0	0	0	0	0	0	0	0
0	0	0	0	0	0	0	0	930	927	932	937	937	940	942	945	950	955	958	961	961	961	961	963	972	980	983	983	985	985	988	991	994	997	1000	1000	1006	1011	1014	1020	1023	1026	1030	1033	1036	1039	1039	1042	1042	1045	1048	1055	1055	0	0	0	0	0	0	0	0	4521	4581	4521	4581	4521	4521	4581	4581	0	0	0	0	0	0	0	0	0	0	0	0	0	0	0	0	4771	4643	4643	4643	4643	4581	4581	4643	4581	4581	4581	4581	4581	4521	0	0	0	0	0	0	4706	4706	4706	4706	4706	4706	4706	4643	4643	4643	4643	4643	4643	4643	4643	4643	4643	4643	4643	4643	4643	4643	4643	4643	4643	4643	4581	4581	4581	4581	4643	4581	4581	4581	4581	4581	4581	4581	4581	4581	4581	4581	4643	4706	4771	4771	4771	4771	4906	4906	4838	4838	4838	6349	6235	6235	6235	6235	6124	6018	6018	5915	0	0	0	0	0	0	6124	6124	6018	6235	6124	6124	6124	6018	6018	5915	6018	6018	6018	6018	6018	6124	6235	6124	6124	0	0	0	0	0	0	0	0	0	0	0	0	0	0	0	0	0	0	0	0	0	0	0	0	0	0	7137	7287	7287	7444	7287	7444	7444	7444	7444	7444	7444	7444	7444	0	0	0	7444	7608	7444	7444	7608	7608	7608	7444	7608	7608	7608	7608	7608	7608	7608	7444	7444	7444	7287	7287	0	3216	3216	3186	3186	3186	3186	3186	3186	3186	3186	3186	3186	3186	3186	3186	3186	3186	3186	3186	3186	3186	3186	3186	3186	3186	3157	3157	3157	3157	3157	3157	3157	3186	3186	3186	3186	3186	3186	3186	3186	0	0	0	0	0	0	0	0	0	0	0	0	0	0	0	0	0	0	0	0	0	0	4296	4350	4350	4350	4350	4350	4350	4350	4350	4296	4296	4296	4296	4296	4296	4243	4243	4296	4296	4243	4243	4243	4243	4243	4243	4243	4243	4296	4296	4296	4296	4296	4350	4350	4350	4296	4350	4350	4350	4406	4406	4463	4521	4581	4581	4581	4581	4581	4581	4581	4581	4581	4581	4581	4581	4581	4581	4581	4581	4581	4581	4581	4581	4581	4581	4581	4581	4581	4581	4581	4581	4581	4581	4581	4581	4581	4581	4581	4581	4581	4581	4581	4581	4581	4581	4643	4643	4643	4643	4643	4643	4643	4581	4581	4581	4581	4581	4581	4581	4581	4581	4581	4581	4521	4463	4463	4406	4350	4350	4350	4296	4296	4296	4296	4296	4243	4243	4243	4243	4296	4296	4296	4296	4296	4296	4296	4296	4296	4243	4192	4192	4192	4192	4192	4192	4243	4243	4243	4243	4243	4243	4243	4243	4243	4243	4296	4243	4243	4243	4192	4192	4192	4192	4192	4192	4243	4243	4243	4243	4243	4243	4192	4192	4192	4192	4192	4192	4192	4192	4192	4243	4243	4243	4243	4243	4296	4350	4406	4406	4406	4406	4406	4350	4350	4350	4350	4350	4350	4350	4296	4296	4243	4243	4243	4243	4243	4243	4243	4243	4243	4243	4243	4243	4243	4243	4243	4243	4296	4296	4296	4350	4296	4350	4350	4296	4296	4296	4243	4243	4243	0	0	0	0	0	0	0	0	0	0	0	0	0	2359	2359	2343	2343	2327	2312	2297	2297	2297	2281	2266	2266	2281	2281	2281	2266	2252	2266	2266	2252	2266	2266	2266	2266	2266	2252	2252	2237	2237	2237	2237	2237	2237	2237	2237	2237	2237	2237	2237	2237	2237	2237	2223	2223	2223	2223	2208	2208	2208	2208	2194	2194	2194	2194	2194	0	0	0	0	0	0	0	0	0	0	0	0	0	0	0	0	0	0	0	0	0	0	0	0	0	0	0	0	0	0	0	0	0	0	0
0	0	0	0	0	0	0	0	930	930	932	935	937	940	940	948	948	955	958	961	963	963	963	966	972	977	983	983	985	985	988	991	994	997	1000	1000	1000	1011	1017	1023	1026	1026	1030	1033	1036	1039	1039	1042	1045	1042	1045	1045	1055	0	0	0	0	0	0	0	0	4521	4521	4521	4581	4581	4521	4581	4581	0	0	0	0	0	0	0	0	0	0	0	0	0	0	0	0	0	4643	4643	4643	4643	4643	4581	4581	4581	4581	4581	4581	4581	0	0	0	0	0	0	4706	4706	4706	4706	4706	4706	4643	4706	4643	4643	4643	4643	4643	4643	4643	4643	4643	4643	4643	4643	4643	4643	4643	4643	4581	4581	4581	4581	4581	4581	4581	4643	4581	4581	4581	4581	4581	4581	4581	4581	4581	4581	4581	4581	4643	4771	4771	4771	4771	4906	4906	4906	4838	4838	6349	6235	6235	6235	6235	6124	6124	6124	0	0	0	0	0	0	0	6018	6018	6018	6124	6124	6124	6124	6018	6018	5915	6018	6018	6018	6018	6018	6124	6235	6235	6235	0	0	0	0	0	0	0	0	0	0	0	0	0	0	0	0	0	0	0	0	0	0	0	0	0	0	7287	7287	7444	7444	7444	7444	7444	7444	7444	7444	7608	7444	7444	0	0	0	7444	7608	7444	7608	7608	7608	7608	7444	7608	7608	7608	7608	7608	7608	7608	7608	7444	7444	7137	7137	7137	3216	3216	3186	3186	3186	3186	3186	3186	3186	3186	3186	3186	3186	3186	3186	3186	3186	3186	3186	3186	3186	3186	3186	3186	3186	3157	3157	3157	3157	3157	3157	3157	3157	3186	3186	3186	3186	3186	3186	0	0	0	0	0	0	0	0	0	0	0	0	0	0	0	0	0	0	0	0	0	0	0	0	4350	4350	4350	4350	4350	4350	4350	4350	4296	4296	4296	4296	4296	4296	4243	4296	4296	4243	4243	4243	4243	4243	4243	4192	4192	4192	4243	4296	4243	4296	4296	4350	4350	4350	4350	4350	4350	4350	4406	4406	4463	4521	4581	4581	4581	4581	4581	4581	4581	4581	4581	4581	4581	4581	4581	4581	4581	4581	4581	4581	4521	4521	4521	4581	4581	4581	4581	4581	4581	4581	4581	4581	4581	4581	4581	4581	4581	4581	4581	4581	4581	4581	4581	4581	4643	4643	4643	4643	4643	4643	4643	4581	4643	4581	4581	4643	4643	4643	4581	4581	4581	4581	4521	4463	4463	4406	4406	4350	4350	4350	4350	4296	4296	4296	4296	4243	4243	4243	4296	4296	4296	4296	4296	4296	4296	4243	4243	4192	4192	4192	4192	4192	4192	4192	4243	4243	4243	4243	4243	4243	4243	4243	4243	4296	4296	4296	4243	4243	4243	4192	4192	4192	4192	4192	4192	4192	4243	4243	4243	4243	4192	4192	4192	4192	4192	4192	4192	4192	4192	4243	4243	4243	4243	4243	4296	4350	4406	4406	4406	4350	4350	4350	4296	4296	4296	4296	4350	4296	4296	4296	4296	4296	4296	4296	4296	4296	4243	4243	4243	4243	4243	4243	4243	4296	4296	4296	4296	4296	4296	4350	4350	4350	4350	4296	4296	4243	4243	4243	4243	0	0	0	0	0	0	0	0	0	0	0	0	0	2359	2343	2343	2327	2312	2297	2297	2297	2297	2281	2281	2281	2281	2281	2281	2266	2266	2266	2281	2266	2281	2266	2281	2266	2266	2252	2252	2252	2252	2237	2237	2237	2223	2237	2237	2223	2223	2237	2237	2237	2237	2237	2237	2223	2223	2223	2208	2208	2208	2194	2194	2194	2194	2194	2194	0	0	0	0	0	0	0	0	0	0	0	0	0	0	0	0	0	0	0	0	0	0	0	0	0	0	0	0	0	0	0	0	0	0	0
0	0	0	0	0	0	0	0	930	930	932	935	935	937	940	948	953	955	958	963	963	963	963	969	972	977	980	983	985	985	988	991	997	997	1000	1000	1006	1014	1017	1023	1026	1030	1030	1033	1036	1039	1039	1045	1045	1045	1048	1048	0	0	0	0	0	0	0	0	0	4521	4581	4521	4581	4581	4521	4581	4521	4521	0	0	0	0	0	0	0	0	0	0	0	0	0	0	0	0	4643	4643	4643	4643	4643	4581	4581	4581	4581	4581	4581	0	0	0	0	0	0	0	4706	4706	4706	4706	4706	4643	4643	4643	4643	4643	4643	4643	4643	4643	4643	4643	4643	4643	4643	4643	4643	4643	4643	4643	4581	4581	4581	4581	4581	4581	4581	4643	4581	4581	4581	4581	4581	4581	4581	4581	4581	4581	4581	4581	4643	4706	4771	4771	4771	4838	4906	4906	4838	4838	6235	6235	6235	6235	6235	6235	6235	6235	0	0	0	0	0	0	0	6124	6018	6124	6124	6124	6124	6124	6018	6018	5915	6018	6018	6018	6018	6018	6124	6349	6468	6468	0	0	0	0	0	0	0	0	0	0	0	0	0	0	0	0	0	0	0	0	0	0	0	7137	7137	7608	7444	7444	7444	7444	7608	7608	7608	7608	7608	7608	7608	7608	7444	0	0	0	0	7608	7444	7444	7608	7608	7608	7444	7608	7608	7608	7608	7608	7608	7608	7608	7444	7444	7137	7137	7137	6992	3216	3216	3186	3186	3186	3186	3186	3186	3186	3186	3186	3186	3186	3186	3186	3186	3186	3216	3186	3216	3186	3186	3186	3186	3157	3157	3157	3157	3157	3157	3157	3157	3186	3186	3186	3157	3157	3186	0	0	0	0	0	0	0	0	0	0	0	0	0	0	0	0	0	0	0	0	0	0	0	0	4350	4350	4406	4406	4406	4350	4350	4350	4350	4296	4296	4296	4296	4296	4243	4296	4243	4243	4243	4192	4192	4192	4192	4192	4192	4192	4243	4296	4243	4296	4296	4350	4350	4350	4350	4406	4406	4406	4406	4406	4463	4521	4521	4581	4581	4521	4581	4581	4581	4581	4581	4581	4581	4581	4581	4581	4581	4581	4521	4521	4521	4521	4521	4521	4521	4521	4581	4581	4581	4521	4581	4581	4521	4581	4521	4581	4581	4581	4581	4581	4581	4581	4581	4581	4643	4643	4643	4643	4643	4643	4643	4581	4581	4581	4581	4643	4643	4581	4581	4581	4581	4581	4521	4521	4521	4406	4406	4406	4350	4350	4350	4296	4296	4296	4296	4296	4243	4243	4243	4296	4296	4296	4243	4296	4296	4243	4243	4192	4192	4192	4192	4192	4192	4192	4243	4243	4243	4243	4243	4243	4296	4243	4296	4296	4350	4296	4296	4296	4243	4192	4192	4192	4192	4192	4192	4192	4243	4243	4243	4243	4192	4192	4192	4192	4192	4192	4142	4142	4192	4192	4243	4243	4243	4243	4296	4350	4406	4406	4406	4406	4350	4350	4296	4296	4296	4296	4296	4296	4296	4350	4296	4296	4296	4296	4296	4296	4296	4243	4243	4243	4243	4243	4243	4296	4296	4296	4350	4296	4296	4350	4296	4350	4350	4296	4296	4296	4243	4243	0	0	0	0	0	0	0	0	0	0	0	0	0	0	2359	2343	2343	2312	2312	2312	2297	2297	2297	2281	2281	2281	2281	2281	2281	2266	2266	2266	2281	2281	2281	2281	2281	2281	2266	2266	2252	2252	2252	2237	2237	2237	2223	2237	2223	2223	2208	2223	2223	2223	2237	2223	2223	2208	2223	2223	2208	2208	2208	2194	2194	2194	2194	2194	2194	0	0	0	0	0	0	0	0	0	0	0	0	0	0	0	0	0	0	0	0	0	0	0	0	0	0	0	0	0	0	0	0	0	0	0
0	0	0	0	0	0	0	0	932	930	932	932	935	935	937	948	958	958	961	961	963	963	963	969	972	977	980	983	985	985	991	991	997	997	1000	1000	1006	1014	1020	1023	1026	1030	1030	1030	1033	1039	1042	1045	1048	1048	1048	1048	1048	0	0	0	0	0	0	0	0	4521	4581	4581	4581	4706	4643	4581	4521	4406	4406	0	0	0	0	0	0	0	0	0	0	0	0	0	0	0	4643	4643	4643	4581	4581	4581	4581	4581	4581	4581	4581	0	0	0	0	0	0	0	4706	4706	4706	4706	4706	4706	4643	4706	4643	4643	4706	4706	4706	4643	4643	4706	4706	4643	4643	4643	4643	4643	4643	4643	4581	4581	4581	4581	4581	4581	4581	4643	4581	4581	4581	4581	4581	4581	4581	4581	4581	4581	4581	4581	4581	4706	4771	4838	4838	4906	4906	4906	4906	4906	6235	6235	6235	6235	6235	6124	6124	6124	0	0	0	0	0	0	0	6124	6018	6018	6124	6124	6124	6124	6018	6018	6018	6018	6018	6018	6018	6018	6124	6124	6468	6468	0	0	0	0	0	0	0	0	0	0	0	0	0	0	0	0	0	0	0	0	0	0	0	7137	7444	7444	7444	7608	7608	7608	7608	7608	7608	7608	7608	7608	7608	7608	7608	0	0	0	0	7608	7444	7444	7444	7444	7444	7444	7444	7444	7444	7608	7608	7444	7608	7608	7444	7444	7287	7137	7137	6992	3246	3216	3216	3216	3216	3186	3186	3186	3186	3186	3186	3186	3186	3186	3186	3186	3186	3216	3186	3216	3186	3186	3186	3186	3186	3186	3157	3157	3186	3157	3157	3186	3186	3186	3186	3157	3157	0	0	0	0	0	0	0	0	0	0	0	0	0	0	0	0	0	0	0	0	0	0	0	0	0	4350	4350	4406	4406	4406	4350	4350	4350	4350	4296	4296	4296	4296	4296	4243	4296	4243	4243	4192	4243	4243	4243	4192	4192	4192	4192	4243	4243	4192	4296	4296	4350	4350	4350	4350	4350	4406	4406	4406	4406	4463	4521	4521	4581	4581	4521	4581	4581	4581	4581	4581	4581	4581	4581	4581	4521	4521	4521	4521	4521	4521	4521	4521	4521	4521	4521	4581	4581	4581	4521	4581	4521	4521	4521	4521	4521	4521	4521	4581	4581	4521	4521	4521	4581	4643	4643	4643	4643	4643	4643	4643	4581	4581	4581	4581	4581	4643	4581	4581	4581	4643	4581	4581	4521	4521	4463	4406	4406	4350	4350	4350	4296	4296	4243	4243	4243	4243	4243	4296	4243	4243	4243	4243	4243	4243	4192	4243	4192	4192	4192	4192	4192	4192	4192	4192	4243	4243	4243	4243	4243	4243	4243	4243	4296	4296	4296	4243	4192	4192	4192	4192	4192	4192	4192	4192	4192	4192	4243	4192	4192	4192	4192	4192	4192	4192	4192	4142	4192	4192	4192	4243	4243	4243	4296	4350	4406	4406	4406	4406	4406	4350	4350	4296	4296	4296	4296	4296	4296	4296	4296	4296	4296	4296	4296	4296	4296	4296	4296	4296	4243	4243	4243	4243	4296	4296	4296	4350	4296	4296	4296	4296	4296	4350	4296	4296	4296	0	0	0	0	0	0	0	0	0	0	0	0	0	0	0	0	0	2359	2343	2327	2312	2312	2312	2312	2312	2297	2312	2297	2297	2281	2281	2281	2281	2281	2281	2281	2297	2281	2281	2281	2266	2252	2252	2252	2252	2237	2237	2223	2223	2223	2223	2208	2208	2208	2208	2208	2208	2208	2208	2208	2208	2208	2208	2208	2208	2208	2194	2194	2194	2194	2194	0	0	0	0	0	0	0	0	0	0	0	0	0	0	0	0	0	0	0	0	0	0	0	0	0	0	0	0	0	0	0	0	0	0	0
0	0	0	0	0	0	0	0	930	930	932	932	932	932	935	945	958	958	961	963	966	966	969	969	972	977	977	980	983	985	988	991	997	997	1000	1000	1006	1014	1017	1023	1023	1030	1030	1030	1033	1039	1042	1042	1052	1052	1052	1048	1048	0	0	0	0	0	0	0	0	0	4581	4581	4581	4581	4643	4581	4581	4463	4463	0	0	0	0	0	0	0	0	0	0	0	0	0	0	0	4643	4643	4643	4581	4581	4581	4581	4581	4581	4643	4643	0	0	0	0	0	0	0	0	4706	4643	4643	4643	4643	4643	4643	4643	4643	4643	4706	4706	4706	4706	4706	4706	4643	4643	4643	4643	4643	4643	4643	4581	4581	4581	4581	4581	4581	4581	4643	4643	4581	4581	4581	4581	4581	4581	4581	4581	4581	4581	4581	4581	4706	4838	4838	4838	4906	4906	4977	4906	4906	6349	6235	6235	6235	6235	6235	6235	6235	0	0	0	0	0	0	0	6124	6124	6018	6124	6124	6124	6124	6018	6018	6018	6018	6018	6018	6018	6018	6124	6124	0	0	0	0	0	0	0	0	0	0	0	0	0	0	0	0	0	0	0	0	0	0	0	0	0	7608	7608	7444	7444	7608	7608	7608	7444	7608	7608	7608	7608	7608	7608	7608	7444	7444	0	0	0	0	0	7444	7444	7608	7444	7444	7444	7444	7444	7608	7444	7444	7608	7608	7608	7444	7444	7287	7137	7137	3246	3246	3216	3216	3216	3186	3186	3186	3186	3186	3186	3186	3186	3186	3186	3216	3216	3216	3216	3216	3216	3186	3186	3186	3186	3186	3186	3186	3186	3186	3186	3186	3186	3186	3186	0	0	0	0	0	0	0	0	0	0	0	0	0	0	0	0	0	0	0	0	0	0	0	0	0	0	0	4350	4350	4350	4350	4350	4350	4350	4350	4296	4296	4296	4296	4296	4296	4296	4296	4243	4243	4243	4243	4243	4192	4192	4192	4192	4243	4243	4296	4243	4243	4296	4350	4350	4350	4350	4406	4406	4406	4463	4463	4463	4521	4521	4581	4521	4521	4521	4581	4521	4521	4521	4521	4581	4581	4521	4521	4521	4521	4521	4521	4521	4521	4521	4521	4521	4521	4581	4581	4581	4521	4581	4521	4521	4521	4521	4521	4521	4521	4581	4581	4581	4581	4521	4581	4643	4643	4643	4643	4643	4643	4643	4581	4581	4643	4581	4581	4643	4643	4643	4643	4643	4581	4581	4581	4521	4463	4406	4350	4350	4350	4350	4296	4296	4243	4243	4296	4243	4243	4296	4296	4296	4296	4296	4243	4243	4243	4243	4192	4192	4192	4192	4192	4192	4192	4192	4243	4192	4192	4243	4243	4243	4243	4243	4296	4350	4296	4296	4296	4243	4192	4192	4192	4192	4192	4192	4192	4192	4192	4192	4192	4192	4192	4192	4192	4192	4192	4192	4192	4192	4192	4243	4243	4296	4350	4406	4406	4406	4406	4406	4406	4350	4350	4296	4350	4350	4350	4350	4296	4296	4296	4296	4243	4296	4296	4296	4296	4296	4296	4296	4243	4243	4243	4296	4296	4296	4296	4350	4296	4296	4296	4296	4296	4296	4296	4243	4243	0	0	0	0	0	0	0	0	0	0	0	0	0	0	0	0	0	2359	2343	2343	2327	2312	2312	2312	2297	2297	2297	2297	2297	2297	2281	2281	2281	2281	2281	2281	2297	2297	2297	2281	2266	2252	2237	2237	2237	2237	2223	2223	2223	2223	2208	2208	2208	2208	2208	2208	2208	2208	2208	2208	2208	2208	2208	2208	2208	2194	2194	2194	2194	2194	2194	0	0	0	0	0	0	0	0	0	0	0	0	0	0	0	0	0	0	0	0	0	0	0	0	0	0	0	0	0	0	0	0	0	0	0
