0	0	0	0	0	0	0	0	0	0	0	0	0	0	0	0	0	0	0	0	0	0	0	0	0	0	0	0	0	0	0	0	0	0	0	0	0	0	0	0	0	0	0	0	0	0	0	0	0	0	0	0	0	0	0	0	0	0	0	0	0	0	0	0	0	0	0	0	0	0	0	0	0	0	0	0	0	0	0	0	0	0	0	0	0	0	0	0	0	4463	4406	4350	4350	4350	4350	4350	4350	4350	4350	4350	4350	4350	4406	4350	4350	4350	4350	4350	4350	4350	4350	4406	4406	4406	4406	0	0	0	0	0	0	0	4706	4706	4771	4906	4977	5050	5050	5050	5125	5125	5125	5125	5125	5202	5282	5202	5202	5202	5202	5202	5202	5202	5202	5202	5202	5202	5202	5202	5202	5202	5202	5282	5282	5282	5282	5364	5364	5364	5448	5448	5448	5535	5535	5626	5626	5626	0	0	0	0	0	0	0	6018	6124	6349	6349	6349	6349	6349	6349	6349	6349	6349	6349	6349	6349	6349	6349	6349	6349	6349	6349	6349	6468	6468	6468	6468	6468	6468	6349	6349	0	0	0	0	0	7137	6992	6992	6992	6992	6992	6992	6992	6992	6992	6992	6992	6992	6992	0	0	0	0	0	0	0	6853	6853	6853	6853	6853	6853	6853	6853	6992	6992	6853	6853	6992	6853	6992	6853	6853	0	0	0	0	0	3073	3073	3101	3101	3073	3073	3073	3073	3073	3073	3073	3073	3073	3073	3073	3073	3073	3073	3073	3073	3046	3046	3046	3019	3019	2993	2993	2967	2993	2993	2993	2993	3019	2993	2993	2993	2993	2993	2993	2993	2993	2993	2993	2967	2967	2967	2993	2993	2993	2993	2993	2993	2993	2993	2993	2993	2993	2993	3019	3019	3019	3019	3046	3046	3073	3073	3073	3073	3101	3101	3101	3101	3101	3101	3101	3101	3101	3101	3101	3101	3073	3073	3073	3046	3046	0	0	0	0	0	0	0	0	0	0	0	0	0	0	0	0	0	0	0	0	0	0	0	0	0	0	0	6853	6853	7137	7137	7137	7137	7137	7137	7137	7137	7137	7287	7287	7444	7444	7444	7444	7444	7287	7287	7287	7287	7287	7287	7287	7287	7287	7287	7287	7287	7287	7287	7287	7287	7287	7287	7287	7287	7287	7287	7287	7287	7287	7287	7287	7287	7287	7287	7287	7287	7287	7287	7287	7287	7287	7287	7137	7137	7137	7287	7137	7137	7137	7137	7137	7137	7137	6992	6992	7137	7137	7287	7287	7287	7287	7287	7287	7287	7287	7287	7287	7287	7287	7287	7287	7287	7287	7287	7444	7444	7444	7444	7444	7444	7287	7287	7287	7287	7287	7287	7287	7287	7287	7444	7287	7444	7287	7287	7287	7287	7444	7287	7287	7287	7287	7287	7287	7287	7287	7287	7287	7287	7287	7444	7444	7444	7444	7444	7444	7444	7444	7444	7608	7444	7444	7444	7444	7444	7444	7444	7444	7608	7608	7608	7608	7608	7608	7608	7608	7608	7608	7608	7608	7608	7608	7608	7608	7608	7608	7608	7608	7608	7608	7444	7444	7444	7444	7444	7608	7608	7608	7608	7608	7608	7608	7608	7608	7608	7608	7608	7608	7608	7608	7608	7608	7608	7608	0	0	0	0	0	0	0	0	0	0	2917	2917	2917	2893	2893	2893	2869	2869	2777	2799	2799	2799	2799	2799	2822	2822	2822	2799	2799	2777	2777	2754	2754	2733	2711	2711	2711	2690	2669	2669	2649	2629	2629	2609	2609	2609	2589	2609	2589	2589	2570	2551	2551	0	0	0	0	0	0	0	0	0	0	0	0	0	0	0	0	0	0	0	0	0	0	0	0	0	0	0	0	0	0	0	0	0	0	0	0
0	0	0	0	0	0	0	0	0	0	0	0	0	0	0	0	0	0	0	0	0	0	0	0	0	0	0	0	0	0	0	0	0	0	0	0	0	0	0	0	0	0	0	0	0	0	0	0	0	0	0	0	0	0	0	0	0	0	0	0	0	0	0	0	0	0	0	0	0	0	0	0	0	0	0	0	0	0	0	0	0	0	0	0	0	0	0	0	0	4463	4406	4406	4350	4350	4350	4350	4406	4350	4350	4350	4350	4350	4350	4350	4350	4350	4350	4350	4350	4350	4350	4350	4406	4406	4406	0	0	0	0	0	4643	4643	4706	4706	4771	4838	4977	5050	5050	5125	5125	5125	5125	5125	5125	5282	5282	5282	5202	5202	5202	5202	5202	5202	5202	5202	5202	5202	5202	5202	5202	5202	5202	5202	5282	5282	5364	5364	5364	5364	5448	5448	5448	5535	5535	5535	5626	5626	0	0	5815	5915	5915	5915	6018	6018	6124	6349	6349	6349	6349	6349	6349	6349	6349	6349	6349	6349	6349	6349	6349	6349	6349	6349	6349	6349	6349	6468	6468	6468	6468	6468	6468	6349	0	0	0	0	0	7137	6992	6992	6992	6992	6992	6992	6992	6992	6992	6992	6992	6992	6992	0	0	0	0	0	0	6853	6853	6853	6853	6853	6853	6853	6853	6853	6853	6992	6853	6853	6992	6853	6853	6853	6853	0	0	0	0	3101	3073	3073	3101	3101	3073	3073	3073	3073	3073	3073	3073	3073	3073	3073	3073	3073	3073	3073	3073	3073	3046	3046	3046	3046	3019	3019	3019	2967	2993	2993	2993	2993	3019	3019	3019	2993	2993	2993	2993	2993	2967	2993	2993	2967	2967	2993	2993	2993	2993	2993	2993	2993	2993	2993	2993	2993	2993	2993	3019	3019	2993	3019	3046	3046	3046	3073	3073	3073	3101	3101	3101	3101	3101	3101	3101	3101	3101	3101	3101	3101	3073	3073	3073	3073	3073	0	0	0	0	0	0	0	0	0	0	0	0	0	0	0	0	0	0	0	0	0	0	0	0	0	0	0	6720	6992	7137	6992	7137	7137	7137	7137	7137	7137	7137	7287	7444	7444	7444	7444	7444	7444	7444	7287	7287	7287	7287	7287	7287	7287	7287	7287	7287	7287	7287	7287	7287	7287	7287	7287	7287	7287	7287	7287	7287	7287	7287	7137	7137	7137	7287	7287	7287	7287	7287	7287	7287	7287	7137	7137	7137	7137	7137	7287	7137	7137	7137	7137	7137	7137	7137	7137	7137	7137	7137	7287	7287	7287	7287	7287	7287	7287	7287	7287	7287	7287	7287	7287	7287	7444	7287	7444	7444	7444	7444	7444	7444	7444	7287	7287	7287	7287	7287	7287	7287	7287	7287	7287	7287	7444	7287	7287	7287	7287	7287	7287	7287	7287	7287	7287	7287	7287	7287	7287	7444	7287	7444	7444	7444	7444	7444	7444	7444	7444	7444	7444	7444	7444	7444	7444	7444	7444	7444	7608	7608	7608	7608	7608	7608	7608	7608	7608	7608	7608	7608	7608	7608	7608	7608	7608	7779	7779	7608	7608	7608	7608	7608	7608	7444	7444	7444	7608	7608	7608	7608	7608	7608	7608	7608	7608	7608	7608	7608	7608	7608	7608	7608	7608	7608	7608	7608	0	0	0	0	0	0	0	0	0	0	2917	2917	2917	2917	2893	2893	2893	2869	2869	2845	2799	2822	2799	2822	2822	2822	2799	2799	2799	2799	2777	2777	2754	2733	2711	2711	2690	2690	2669	2649	2649	2629	2629	2609	2609	2609	2609	2609	2589	2589	2570	2570	2570	0	0	0	0	0	0	0	0	0	0	0	0	0	0	0	0	0	0	0	0	0	0	0	0	0	0	0	0	0	0	0	0	0	0	0	0
0	0	0	0	0	0	0	0	0	0	0	0	0	0	0	0	0	0	0	0	0	0	0	0	0	0	0	0	0	0	0	0	0	0	0	0	0	0	0	0	0	0	0	0	0	0	0	0	0	0	0	0	0	0	0	0	0	0	0	0	0	0	0	0	0	0	0	0	0	0	0	0	0	0	0	0	0	0	0	0	0	0	0	0	0	0	0	4350	4296	4296	4350	4350	4350	4350	4350	4350	4350	4350	4350	4350	4350	4350	4350	4350	4350	4350	4350	4350	4350	4350	4350	4350	4350	4406	4406	4521	4521	4521	4581	4581	4581	4643	4643	4643	4771	4838	4906	5050	5050	5125	5125	5125	5125	5125	5125	5202	5282	5202	5202	5202	5202	5202	5202	5202	5202	5202	5202	5202	5202	5202	5202	5202	5202	5202	5202	5282	5282	5282	5364	5364	5364	5448	5448	5535	5535	5535	5535	5535	5535	5815	5815	5915	5915	5915	6018	6018	6124	6349	6349	6349	6349	6349	6349	6349	6349	6349	6349	6349	6349	6349	6349	6349	6349	6349	6349	6349	6468	6468	6468	6468	6468	6468	6468	0	0	0	0	0	0	6992	6992	6992	7137	7137	7137	7137	7137	7137	7137	7137	6992	6992	6992	0	0	0	0	0	0	6853	6853	6853	6720	6720	6720	6853	6720	6720	6853	6853	6853	6853	6992	6853	6992	6992	6992	0	0	0	0	3101	3046	3073	3073	3073	3073	3073	3073	3073	3073	3073	3073	3073	3073	3073	3073	3073	3073	3073	3073	3073	3046	3046	3046	3046	3019	3019	3019	2993	2993	2993	2993	3019	3019	3019	3019	2993	2993	2993	2993	2993	2993	2967	2993	2967	2967	2993	2993	2993	2993	2993	2993	2993	2993	2993	2993	2993	2993	2993	3019	3019	2993	3019	3019	3046	3046	3046	3073	3101	3101	3101	3101	3101	3101	3101	3101	3101	3101	3101	3101	3101	3073	3073	3073	3073	3073	0	0	0	0	0	0	0	0	0	0	0	0	0	0	0	0	0	0	0	0	0	0	0	0	0	0	0	6720	6992	6992	6992	6992	7137	7137	7137	7287	7287	7287	7287	7444	7444	7444	7444	7444	7444	7444	7287	7287	7287	7287	7287	7287	7287	7287	7287	7287	7287	7287	7287	7287	7287	7287	7287	7287	7287	7287	7287	7287	7287	7287	7287	7287	7287	7287	7287	7287	7287	7287	7287	7137	7287	7137	7137	7137	7137	7137	7137	7137	7137	7137	6992	7137	7137	7137	7137	7137	7137	7137	7287	7287	7287	7287	7287	7287	7287	7287	7287	7287	7287	7287	7287	7287	7287	7287	7444	7444	7444	7444	7444	7444	7444	7444	7444	7444	7287	7287	7287	7287	7444	7287	7287	7287	7444	7287	7287	7287	7287	7444	7287	7287	7287	7287	7287	7287	7287	7287	7444	7444	7287	7444	7444	7444	7444	7444	7444	7444	7444	7444	7444	7608	7608	7444	7444	7444	7444	7444	7444	7444	7608	7608	7608	7608	7608	7608	7608	7608	7608	7608	7608	7608	7608	7779	7608	7779	7779	7779	7779	7608	7608	7608	7608	7608	7444	7444	7608	7608	7608	7608	7608	7608	7608	7608	7608	7608	7608	7608	7608	7608	7608	7608	7779	7779	0	0	0	0	0	0	0	0	0	0	0	0	2917	2917	2917	2917	2917	2893	2893	2869	2845	2845	2822	2822	2822	2822	2822	2822	2799	2799	2799	2799	2777	2754	2754	2733	2733	2711	2711	2690	2669	2669	2649	2629	2629	2629	2609	2609	2609	2609	2589	2589	2589	2570	2570	0	0	0	0	0	0	0	0	0	0	0	0	0	0	0	0	0	0	0	0	0	0	0	0	0	0	0	0	0	0	0	0	0	0	0	0
0	0	0	0	0	0	0	0	0	0	0	0	0	0	0	0	0	0	0	0	0	0	0	0	0	0	0	0	0	0	0	0	0	0	0	0	0	0	0	0	0	0	0	0	0	0	0	0	0	0	0	0	0	0	0	0	0	0	0	0	0	0	0	0	0	0	0	0	0	0	0	0	0	0	0	0	0	0	0	0	0	0	0	0	0	0	0	4296	4296	4350	4350	4350	4350	4350	4350	4350	4350	4350	4350	4350	4350	4350	4350	4350	4350	4350	4350	4350	4350	4350	4350	4350	4350	4350	4350	4521	4521	4581	4581	4581	4581	4643	4643	4706	4706	4906	4977	5050	5125	5125	5125	5202	5202	5125	5202	5202	5282	5282	5202	5202	5202	5202	5202	5202	5202	5202	5202	5202	5202	5202	5202	5202	5202	5202	5282	5282	5282	5282	0	0	5364	5448	5448	5535	5535	5535	5626	5626	5815	5815	5815	5915	5915	5915	6018	6018	6235	6468	6468	6468	6349	6349	6349	6349	6349	6349	6349	6349	6349	6349	6349	6349	6349	6349	6349	6349	6468	6468	6468	6468	6468	6468	6468	0	0	0	0	0	0	6992	6992	6992	6992	6992	6992	7137	7137	7137	7137	7137	6992	6992	6992	0	0	0	0	0	6853	6992	6992	6853	6853	6853	6720	6720	6720	6720	6720	6853	6853	6853	6992	6853	6992	6992	6992	0	0	0	3046	3046	3046	3046	3046	3073	3073	3073	3073	3073	3073	3073	3046	3046	3073	3073	3073	3073	3073	3073	3073	3073	3046	3046	3046	3019	3019	3019	3019	2993	2993	2993	2993	2993	2993	2993	2993	2993	2993	2993	2993	2993	2967	2967	2993	2993	2993	2993	2993	2993	3019	2993	3019	2993	3019	2993	2993	2993	2993	2967	2967	2993	2993	3019	3046	3046	3073	3073	3073	3101	3101	3101	3101	3101	3101	3101	3101	3101	3101	3101	3101	3101	3073	3073	3073	3073	3073	0	0	0	0	0	0	0	0	0	0	0	0	0	0	0	0	0	0	0	0	0	0	0	0	0	0	0	6720	6992	6992	6992	7137	7137	7137	7137	7287	7287	7287	7287	7444	7444	7444	7444	7444	7444	7444	7444	7287	7287	7287	7287	7287	7287	7287	7287	7287	7444	7444	7287	7444	7444	7287	7287	7287	7287	7287	7287	7287	7287	7287	7287	7287	7287	7287	7287	7287	7287	7287	7287	7287	7287	7137	7137	7137	7137	7137	7137	7137	7137	6992	6992	7137	7137	7137	7137	7137	7137	7137	7287	7287	7287	7287	7287	7287	7287	7287	7287	7287	7287	7287	7287	7287	7287	7287	7444	7444	7444	7444	7287	7444	7287	7287	7287	7287	7287	7287	7287	7444	7444	7444	7287	7444	7444	7444	7287	7287	7287	7444	7287	7287	7444	7444	7287	7287	7287	7287	7287	7287	7287	7287	7287	7444	7444	7444	7444	7444	7444	7444	7444	7608	7608	7608	7444	7444	7608	7608	7608	7608	7608	7608	7608	7608	7608	7608	7608	7608	7608	7608	7608	7608	7779	7779	7779	7779	7779	7779	7779	7608	7608	7608	7608	7444	7444	7444	7608	7444	7608	7608	7608	7608	7608	7608	7444	7608	7444	7608	7608	7608	7608	7444	7608	7608	0	0	0	0	0	0	0	0	0	0	0	0	2917	2893	2893	2917	2917	2893	2893	2869	2845	2845	2822	2822	2822	2822	2799	2799	2799	2799	2777	2777	2777	2754	2754	2733	2733	2711	2711	2711	2690	2669	2649	2629	2629	2609	2609	2609	2609	2589	2589	2589	2589	2570	2570	0	0	0	0	0	0	0	0	0	0	0	0	0	0	0	0	0	0	0	0	0	0	0	0	0	0	0	0	0	0	0	0	0	0	0	0
0	0	0	0	0	0	0	0	0	0	0	0	0	0	0	0	0	0	0	0	0	0	0	0	0	0	0	0	0	0	0	0	0	0	0	0	0	0	0	0	0	0	0	0	0	0	0	0	0	0	0	0	0	0	0	0	0	0	0	0	0	0	0	0	0	0	0	0	0	0	0	0	0	0	0	0	0	0	0	0	0	0	0	0	0	0	4296	4296	4296	4350	4350	4350	4350	4350	4350	4350	4350	4350	4350	4350	4350	4350	4350	4350	4350	4350	4350	4350	4350	4350	4350	4350	4350	4406	4463	4521	4521	4521	4581	4581	4581	4581	4581	4581	4977	4977	4977	5050	5125	5125	5125	5125	5125	5125	5125	5202	5282	5282	5282	5202	5202	5282	5202	5202	5202	5202	5202	5202	5202	5202	5202	5202	5202	5202	5202	5202	5282	5282	0	0	0	0	5448	5535	5535	5626	5626	5626	5815	5815	5915	5915	5915	6018	6018	6124	6349	6349	6468	6468	6468	6468	6349	6349	6349	6349	6349	6349	6349	6349	6349	6349	6349	6349	6349	6349	6468	6468	6468	6468	6468	6468	6468	0	0	0	0	0	0	6992	6992	6992	6992	6992	6992	6992	6992	7137	7137	7137	6992	6992	0	0	0	0	0	0	6853	6853	6853	6853	6853	6720	6592	6720	6592	6592	6720	6720	6853	6853	6992	6992	6992	6992	0	0	0	0	3046	3046	3046	3046	3073	3073	3073	3073	3073	3046	3073	3073	3046	3046	3046	3073	3073	3046	3046	3046	3046	3046	3046	3046	3046	3019	3019	3019	2993	2993	2993	2993	2993	2993	2993	3019	2993	2993	2993	2967	2967	2967	2967	2967	2967	2967	2967	2993	2993	2993	3019	3019	3019	2993	2967	2993	2967	2967	2967	2967	2993	3019	2993	3019	3046	3073	3073	3073	3073	3073	3101	3101	3101	3101	3101	3101	3101	3101	3101	3101	3101	3073	3073	3073	3073	3073	3073	0	0	0	0	0	0	0	0	0	0	0	0	0	0	0	0	0	0	0	0	0	0	0	0	0	0	0	6720	6992	6992	6992	7137	7137	7137	7137	7287	7287	7287	7287	7444	7444	7444	7444	7287	7444	7444	7444	7444	7287	7287	7287	7287	7287	7287	7287	7287	7444	7444	7287	7444	7444	7287	7287	7287	7287	7287	7287	7287	7287	7287	7287	7287	7287	7287	7287	7287	7287	7287	7287	7137	7137	7137	7137	7137	7137	7137	7137	7137	7137	6992	6992	7137	6992	7137	7137	7137	7137	7137	7287	7287	7287	7137	7287	7287	7287	7287	7287	7287	7287	7444	7444	7287	7287	7287	7444	7444	7444	7444	7444	7444	7287	7444	7287	7287	7287	7287	7287	7444	7444	7444	7444	7444	7444	7444	7444	7287	7287	7444	7287	7287	7444	7444	7287	7287	7287	7287	7287	7287	7137	7287	7287	7287	7287	7444	7444	7444	7444	7444	7444	7608	7608	7608	7444	7444	7608	7608	7608	7444	7608	7608	7608	7608	7608	7608	7608	7608	7608	7608	7608	7608	7608	7779	7779	7779	7779	7779	7779	7608	7608	7608	7608	7444	7444	7608	7608	7444	7608	7608	7608	7608	7608	7608	7444	7444	7444	7444	7608	7608	7608	7608	7608	7608	0	0	0	0	0	0	0	0	0	0	0	0	2917	2893	2893	2893	2917	2893	2893	2869	2869	2869	2845	2845	2822	2822	2799	2799	2799	2799	2777	2777	2777	2754	2754	2733	2733	2711	2711	2711	2690	2669	2649	2629	2629	2629	2609	2609	2609	2589	2589	2589	2589	2570	2570	0	0	0	0	0	0	0	0	0	0	0	0	0	0	0	0	0	0	0	0	0	0	0	0	0	0	0	0	0	0	0	0	0	0	0	0
0	0	0	0	0	0	0	0	0	0	0	0	0	0	0	0	0	0	0	0	0	0	0	0	0	0	0	0	0	0	0	0	0	0	0	0	0	0	0	0	0	0	0	0	0	0	0	0	0	0	0	0	0	0	0	0	0	0	0	0	0	0	0	0	0	0	0	0	0	0	0	0	0	0	0	0	0	0	0	0	0	0	0	0	0	0	4296	4296	4296	4350	4350	4350	4350	4350	4350	4350	4406	4350	4350	4350	4350	4350	4350	4350	4350	4350	4350	4350	4350	4296	4350	4350	4350	4350	4406	4521	4521	4521	4581	4581	4581	4581	4581	4581	4977	4977	4977	5050	5125	5125	5125	5202	5202	5202	5202	5202	5282	5282	5202	5202	5202	5202	5202	5202	5202	5202	5202	5202	5202	5202	5202	5202	5202	5202	5282	5202	5202	5282	0	0	0	0	5448	5535	5535	5626	5719	5815	5915	5915	5915	5915	5915	6018	6018	6124	6235	6349	6349	6468	6468	6468	6349	6349	6349	6349	6349	6349	6349	6349	6349	6349	6349	6349	6349	6349	6468	6468	6468	6468	6592	6592	6468	0	0	0	0	0	0	6992	6992	6992	6992	6992	6992	6992	6992	7137	6992	6992	6992	6992	6992	0	0	0	0	0	6853	6853	6853	6853	6853	6853	6720	6720	6592	6592	6720	6720	6853	6853	6992	6992	6992	0	0	0	0	0	3046	3046	3046	3019	3046	3046	3046	3046	3046	3046	3046	3046	3046	3046	3046	3073	3073	3073	3073	3073	3073	3073	3046	3046	3046	3019	3019	3019	2993	2993	2993	2993	2993	2993	2993	2993	2993	2993	2993	2993	2967	2967	2967	2967	2967	2993	2967	2993	2993	2993	3019	3019	3019	3019	2967	2967	2993	2993	2967	2967	2993	2993	2993	3019	3046	3073	3073	3073	3073	3073	3101	3101	3101	3101	3101	3101	3101	3101	3073	3101	3101	3073	3073	3073	3073	3073	0	0	0	0	0	0	0	0	0	0	0	0	0	0	0	0	0	0	0	0	0	0	0	0	0	0	0	0	0	7137	6992	7137	7137	7137	7137	7137	7287	7137	7287	7287	7444	7444	7444	7444	7287	7444	7444	7444	7287	7287	7287	7287	7287	7287	7287	7287	7287	7444	7444	7444	7444	7444	7287	7287	7287	7287	7287	7287	7287	7287	7287	7287	7287	7287	7287	7287	7287	7287	7287	7137	7137	7137	7137	7137	7137	7137	7137	7137	7137	6992	6992	6992	6992	6992	7137	7137	7137	7137	7137	7287	7287	7287	7287	7287	7287	7287	7287	7287	7287	7287	7287	7444	7287	7444	7287	7444	7444	7444	7287	7444	7444	7287	7287	7287	7287	7287	7287	7287	7444	7444	7444	7444	7444	7444	7444	7444	7444	7287	7444	7287	7287	7444	7444	7287	7287	7287	7287	7287	7287	7287	7287	7287	7444	7444	7287	7444	7444	7444	7444	7444	7608	7608	7608	7444	7444	7444	7444	7444	7444	7444	7608	7608	7608	7608	7608	7608	7608	7608	7608	7608	7608	7608	7608	7608	7779	7779	7779	7608	7608	7779	7608	7608	7608	7608	7608	7608	7608	7608	7608	7608	7608	7608	7608	7444	7444	7287	7444	7608	7608	7608	7608	0	0	0	0	0	0	0	0	0	0	0	0	0	0	0	0	2917	2917	2917	2893	2893	2893	2869	2869	2845	2845	2845	2845	2822	2799	2799	2799	2777	2777	2777	2754	2754	2733	2733	2711	2711	2711	2690	2669	2649	2629	2629	2629	2609	2609	2609	2589	2589	2589	2570	2551	2551	0	0	0	0	0	0	0	0	0	0	0	0	0	0	0	0	0	0	0	0	0	0	0	0	0	0	0	0	0	0	0	0	0	0	0	0
0	0	0	0	0	0	0	0	0	0	0	0	0	0	0	0	0	0	0	0	0	0	0	0	0	0	0	0	0	0	0	0	0	0	0	0	0	0	0	0	0	0	0	0	0	0	0	0	0	0	0	0	0	0	0	0	0	0	0	0	0	0	0	0	0	0	0	0	0	0	0	0	0	0	0	0	0	0	0	0	0	0	0	0	0	0	4296	4296	4296	4350	4350	4350	4350	4350	4350	4350	4350	4350	4350	4350	4350	4350	4350	4350	4350	4350	4350	4350	4350	4350	4350	4350	4350	4350	4406	4463	4521	4521	4581	4581	4581	4581	4643	4643	4643	5125	5125	5125	5125	5125	5202	5202	5202	5202	5202	5202	5282	5202	5202	5202	5202	5202	5202	5202	5202	5202	5202	5202	5202	5202	5202	5202	5202	5202	5202	5202	5202	0	0	0	0	0	0	0	0	5626	5719	5719	5915	5915	5915	5915	6018	6018	6018	6124	6235	6349	6349	6468	6468	6468	6349	6349	6349	6349	6349	6349	6349	6349	6349	6349	6349	6349	6349	6349	6468	6468	6468	6468	6468	6468	0	0	0	0	0	0	0	6853	6992	6992	6992	6992	6992	6992	6992	7137	6992	6992	6992	6992	6992	6853	6853	0	0	6853	6853	6992	6992	6992	6853	6853	6853	6853	6592	6592	6592	6592	6853	6853	6992	6992	0	0	0	0	0	0	3019	3019	3019	3019	3046	3046	3046	3046	3046	3046	3046	3046	3046	3046	3046	3073	3073	3073	3073	3046	3073	3073	3046	3046	3046	3019	3019	3019	2993	2993	2993	2993	2993	2993	2993	2993	2993	2993	2967	2967	2967	2967	2967	2967	2967	2967	2967	2967	2967	2993	2993	3019	3019	3019	3019	3019	2993	2993	2993	2993	2993	3019	2993	3019	3046	3073	3073	3073	3073	3073	3101	3101	3073	3101	3101	3101	3101	3101	3101	3101	3101	3073	3073	3073	3073	3073	0	0	0	0	0	0	0	0	0	0	0	0	0	0	0	0	0	0	0	0	0	0	0	0	0	0	0	0	7137	7137	7137	7137	7137	7137	7137	7137	7137	7137	7137	7137	7287	7287	7287	7444	7287	7444	7444	7444	7287	7287	7287	7287	7287	7287	7287	7287	7287	7444	7444	7444	7444	7444	7287	7287	7287	7287	7287	7287	7287	7287	7287	7287	7287	7287	7287	7287	7287	7287	7137	7137	7137	7137	7137	7137	7137	7137	7137	7137	7137	7137	6992	6992	7137	7137	7137	7137	7137	7287	7287	7287	7444	7444	7287	7287	7287	7287	7287	7287	7287	7287	7287	7444	7287	7444	7287	7444	7287	7287	7287	7444	7444	7287	7287	7287	7287	7287	7287	7287	7444	7444	7444	7444	7444	7444	7444	7444	7444	7287	7444	7444	7287	7444	7444	7287	7287	7287	7287	7287	7287	7287	7287	7287	7287	7287	7444	7444	7444	7444	7444	7444	7608	7608	7608	7444	7444	7444	7444	7444	7444	7444	7608	7608	7608	7608	7608	7608	7608	7608	7608	7608	7608	7444	7608	7444	7608	7608	7608	7608	7608	7779	7608	7608	7608	7608	7608	7608	7608	7608	7608	7608	7779	7608	7608	7444	7444	7287	7287	7137	7137	0	0	0	0	0	0	0	0	0	0	0	0	0	0	0	0	0	0	2917	2917	2917	2917	2893	2893	2869	2869	2845	2845	2845	2845	2822	2799	2799	2799	2777	2777	2777	2754	2754	2733	2711	2711	2711	2711	2690	2669	2649	2629	2629	2629	2609	2609	2609	2589	2589	2589	2570	2551	2551	0	0	0	0	0	0	0	0	0	0	0	0	0	0	0	0	0	0	0	0	0	0	0	0	0	0	0	0	0	0	0	0	0	0	0	0
0	0	0	0	0	0	0	0	0	0	0	0	0	0	0	0	0	0	0	0	0	0	0	0	0	0	0	0	0	0	0	0	0	0	0	0	0	0	0	0	0	0	0	0	0	0	0	0	0	0	0	0	0	0	0	0	0	0	0	0	0	0	0	0	0	0	0	0	0	0	0	0	0	0	0	0	0	0	0	0	0	0	0	0	0	4350	4296	4296	4296	4350	4350	4350	4350	4350	4350	4350	4406	4350	4350	4350	4350	4350	4350	4350	4350	4350	4350	4350	4350	4350	4350	4350	4406	4406	4463	4521	4521	4521	4581	4521	4581	4581	4643	4643	4643	5050	5125	5125	5125	5125	5125	5125	5125	5125	5125	5125	5202	5202	5202	5202	5202	5202	5202	5202	5202	5202	5202	5202	5202	5202	5202	5202	5202	5202	5202	5202	5202	5202	0	0	0	0	0	0	0	5815	5719	5815	5915	5915	5915	5915	6018	6018	6018	6018	6235	6349	6349	6468	6468	6468	6349	6349	6349	6349	6349	6349	6349	6349	6349	6349	6349	6349	6349	6349	6468	6468	6468	6468	6468	6468	6468	0	0	0	0	0	0	6853	6853	6853	6992	6992	6992	6992	6992	7137	7137	6992	6992	6992	6992	6853	6853	6853	6853	6853	6853	6853	6992	6992	6992	6853	6853	6853	6592	6592	6468	6468	0	0	0	0	0	0	0	0	0	0	3019	3019	3019	3019	3046	3046	3046	3046	3046	3046	3046	3046	3046	3046	3046	3046	3073	3073	3046	3046	3046	3046	3046	3019	3019	3019	3019	3019	2993	2993	2967	2993	2993	2993	2993	2993	2993	2993	2967	2967	2967	2967	2967	2967	2967	2967	2967	2967	2993	2993	3019	3019	3019	3019	3019	2993	2993	2993	2967	2993	2993	3019	2993	3019	3046	3073	3073	3073	3073	3073	3101	3101	3101	3101	3101	3101	3101	3101	3101	3101	3101	3073	3073	3073	3073	3073	0	0	0	0	0	0	0	0	0	0	0	0	0	0	0	0	0	0	0	0	6992	6992	6992	6992	6992	0	0	0	7137	7137	7137	7137	7137	7137	7137	7137	7137	7137	7287	7137	7287	7287	7287	7287	7444	7444	7444	7444	7444	7287	7287	7287	7287	7287	7287	7287	7287	7444	7444	7287	7287	7444	7287	7444	7287	7287	7444	7287	7287	7287	7287	7287	7287	7287	7287	7287	7287	7287	7287	7287	7137	7137	7137	7137	7137	7137	7137	7137	7137	7137	6992	6992	6992	6992	7137	7137	7137	7137	7137	7287	7444	7444	7287	7287	7287	7287	7287	7287	7287	7287	7287	7287	7287	7444	7444	7444	7444	7287	7287	7287	7287	7287	7287	7287	7287	7287	7287	7444	7444	7444	7444	7444	7444	7444	7444	7444	7444	7444	7444	7444	7444	7444	7444	7444	7287	7287	7287	7287	7287	7287	7287	7287	7444	7444	7444	7444	7444	7444	7444	7444	7608	7608	7608	7608	7608	7444	7444	7444	7444	7444	7608	7608	7608	7608	7608	7779	7608	7608	7608	7608	7608	7608	7608	7608	7608	7608	7608	7608	7608	7608	7608	7608	7608	7608	7608	7608	7608	7779	7608	7779	7779	7779	7608	7444	7287	7137	7137	7137	7137	0	0	0	0	0	0	0	0	0	0	0	0	0	0	0	0	0	0	2942	2942	2942	2917	2893	2893	2869	2869	2869	2869	2845	2845	2822	2799	2799	2799	2777	2777	2777	2754	2754	2733	2711	2690	2690	2690	2690	2669	2649	2629	2629	2629	2629	2629	2609	2609	2609	2589	2589	2570	2570	0	0	0	0	0	0	0	0	0	0	0	0	0	0	0	0	0	0	0	0	0	0	0	0	0	0	0	0	0	0	0	0	0	0	0	0
0	0	0	0	0	0	0	0	0	0	0	0	0	0	0	0	0	0	0	0	0	0	0	0	0	0	0	0	0	0	0	0	0	0	0	0	0	0	0	0	0	0	0	0	0	0	0	0	0	0	0	0	0	0	0	0	0	0	0	0	0	0	0	0	0	0	0	0	0	0	0	0	0	0	0	0	0	0	0	0	0	0	0	0	0	4350	4350	4350	4350	4350	4350	4350	4350	4350	4350	4350	4350	4350	4350	4350	4350	4350	4350	4350	4350	4350	4350	4350	4350	4350	4350	4350	4406	4406	4463	4463	4521	4521	4581	4581	4581	4581	4643	4643	4643	5050	5050	5125	5125	5125	5125	5202	5202	5125	5125	5125	5202	5202	5202	5202	5202	5202	5202	5282	5202	5202	5202	5202	5202	5202	5202	5202	5202	5202	5202	5202	5202	5202	0	0	0	0	0	0	0	5626	5626	5815	5915	5915	5915	5915	6018	6018	6018	6018	6235	6235	6349	6349	6468	6468	6349	6349	6349	6349	6349	6349	6349	6349	6349	6349	6349	6349	6349	6349	6468	6468	6468	6468	6468	6468	6468	0	0	0	0	0	0	0	6853	6853	6992	6992	6992	6992	7287	7137	7137	7137	7137	7137	6992	6992	6992	6992	6853	6853	6853	6853	6992	6992	6992	6853	6853	6853	6720	6720	6720	6720	0	0	0	0	0	0	0	0	0	2993	3019	3019	3019	3019	3046	3046	3046	3046	3046	3046	3046	3046	3046	3046	3046	3073	3073	3073	3073	3046	3046	3046	3046	3019	3019	2993	3019	3019	2993	2993	2993	2993	2993	2993	2967	2967	2967	2967	2967	2967	2967	2967	2967	2967	2967	2967	2967	2967	2993	2993	3019	3019	3019	3019	2993	2993	2967	2993	2967	2993	2993	3019	2993	3019	3046	3073	3073	3073	3073	3073	3101	3101	3101	3101	3101	3101	3101	3101	3073	3101	3101	3073	3101	3073	3101	3101	0	0	0	0	0	0	0	0	0	0	0	0	0	0	0	0	0	0	0	0	6992	6992	6992	7137	7137	0	0	0	7287	7137	7137	7137	7137	7137	7137	7137	7137	7137	7287	7137	7287	7287	7287	7287	7287	7287	7444	7444	7287	7287	7287	7287	7287	7287	7287	7287	7287	7287	7287	7287	7444	7444	7287	7444	7287	7444	7444	7444	7444	7287	7287	7287	7287	7287	7287	7287	7287	7287	7287	7287	7137	7287	7137	7137	7137	7137	7137	7137	7137	7137	7137	6992	7137	6992	7137	7137	7137	7137	7137	7287	7444	7444	7444	7287	7287	7444	7287	7287	7287	7287	7287	7444	7444	7444	7444	7444	7287	7287	7287	7287	7287	7137	7287	7287	7287	7287	7444	7444	7444	7444	7444	7444	7444	7444	7444	7444	7444	7444	7444	7444	7444	7444	7444	7444	7287	7287	7287	7287	7287	7287	7287	7287	7444	7444	7444	7444	7444	7444	7444	7444	7608	7608	7608	7608	7608	7444	7444	7444	7287	7444	7444	7608	7608	7608	7608	7608	7608	7608	7608	7608	7444	7444	7608	7608	7608	7608	7608	7608	7608	7608	7608	7608	7608	7608	7608	7608	7608	7608	7608	7779	7779	7779	7608	7608	7287	7137	7137	0	0	0	0	0	0	0	0	0	0	0	0	0	0	0	0	0	0	0	2967	2942	2942	2942	2917	2893	2893	2893	2869	2869	2869	2845	2845	2822	2799	2799	2799	2777	2777	2777	2754	2733	2711	2711	2690	2690	2690	2690	2669	2669	2629	2690	2649	2629	2629	2609	2609	2609	2589	2570	2570	2570	0	0	0	0	0	0	0	0	0	0	0	0	0	0	0	0	0	0	0	0	0	0	0	0	0	0	0	0	0	0	0	0	0	0	0	0
0	0	0	0	0	0	0	0	0	0	0	0	0	0	0	0	0	0	0	0	0	0	0	0	0	0	0	0	0	0	0	0	0	0	0	0	0	0	0	0	0	0	0	0	0	0	0	0	0	0	0	0	0	0	0	0	0	0	0	0	0	0	0	0	0	0	0	0	0	0	0	0	0	0	0	0	0	0	0	0	0	0	0	0	0	4350	4350	4350	4350	4350	4350	4350	4350	4350	4350	4350	4350	4350	4350	4350	4350	4350	4350	4350	4350	4350	4350	4350	4350	4350	4350	4406	4406	4406	4463	4463	4521	4521	4581	4581	4581	4581	4643	4643	4643	5050	5050	5125	5125	5125	5125	5125	5125	5125	5125	5125	5202	5202	5202	5202	5202	5202	5202	5202	5202	5202	5202	5202	5202	5202	5202	5202	5202	5202	5202	5202	5202	0	0	0	0	0	0	0	0	5626	5626	5815	5915	5915	5915	6018	6018	6018	6018	6018	6235	6235	6349	6349	6468	6349	6349	6349	6349	6349	6349	6349	6349	6349	6349	6349	6349	6349	6349	6349	6349	6468	6468	6468	6468	6468	6468	0	0	0	0	0	0	0	0	0	0	0	0	7287	7287	7287	7137	7137	7137	7137	6853	6853	6992	6992	6992	6992	6853	6992	6992	6992	6992	6992	6853	6853	6853	6853	6853	6853	0	0	0	0	0	0	0	0	0	3019	3046	3046	3019	3019	3046	3046	3046	3046	3046	3046	3046	3046	3046	3046	3046	3046	3073	3073	3046	3046	3046	3046	3019	3019	2993	2993	2993	2993	2993	2993	2967	2967	2993	2993	2967	2967	2967	2967	2967	2967	2967	2967	2967	2967	2967	2967	2967	2993	2993	2993	3019	3019	3019	2993	2993	2993	2967	2993	2967	2993	2993	2993	2993	3019	3046	3046	3073	3073	3073	3073	3101	3101	3101	3101	3101	3101	3101	3073	3073	3073	3101	3073	3101	3101	3101	3101	0	0	0	0	0	0	0	0	0	0	0	0	0	0	0	0	0	0	0	0	0	0	7137	7137	7137	6992	7137	7137	7287	7287	7137	7137	7137	7137	7137	7137	7137	7137	7287	7137	7287	7287	7287	7287	7287	7287	7287	7287	7287	7287	7287	7287	7287	7287	7287	7287	7287	7287	7287	7287	7444	7444	7287	7287	7287	7287	7444	7287	7287	7287	7287	7287	7287	7287	7287	7287	7287	7287	7287	7287	7287	7287	7137	7137	7287	7137	7287	7137	7137	7137	7137	6992	7137	7137	7137	7137	7137	7137	7137	7137	7444	7444	7444	7444	7444	7444	7287	7287	7287	7287	7287	7287	7444	7444	7444	7444	7287	7287	7287	7287	7287	7137	7137	7137	7287	7287	7287	7287	7287	7444	7444	7287	7444	7444	7444	7444	7444	7444	7444	7444	7444	7444	7444	7444	7287	7287	7287	7287	7287	7287	7287	7287	7444	7444	7444	7444	7444	7444	7444	7444	7608	7608	7608	7608	7608	7444	7444	7444	7444	7287	7444	7608	7608	7608	7608	7608	7608	7608	7608	7608	7444	7444	7608	7444	7444	7444	7444	7608	7608	7608	7444	7444	7444	7608	7608	7608	7608	7779	7779	7779	7959	7779	7779	7608	0	0	0	0	0	0	0	0	0	0	0	0	0	0	0	0	0	0	0	0	2993	2967	2967	2967	2967	2942	2942	2893	2893	2893	2869	2869	2869	2869	2845	2845	2799	2777	2777	2777	2754	2754	2733	2733	2711	2711	2690	2690	2690	2690	2669	2669	2669	2690	2669	2629	2629	2609	2609	2589	2589	2589	2570	2570	0	0	0	0	0	0	0	0	0	0	0	0	0	0	0	0	0	0	0	0	0	0	0	0	0	0	0	0	0	0	0	0	0	0	0	0
0	0	0	0	0	0	0	0	0	0	0	0	0	0	0	0	0	0	0	0	0	0	0	0	0	0	0	0	0	0	0	0	0	0	0	0	0	0	0	0	0	0	0	0	0	0	0	0	0	0	0	0	0	0	0	0	0	0	0	0	0	0	0	0	0	0	0	0	0	0	0	0	0	0	0	0	0	0	0	0	0	0	0	0	0	4350	4350	4350	4350	4350	4350	4350	4350	4350	4350	4350	4350	4350	4350	4350	4350	4350	4350	4350	4350	4350	4350	4350	4350	4350	4350	4350	4350	4406	4406	4463	4521	4521	4581	4581	4581	4581	4643	4643	4643	5050	5125	5125	5125	5125	5125	5125	5125	5125	5125	5125	5125	5202	5202	5202	5202	5202	5202	5202	5202	5202	5202	5202	5202	5202	5202	5282	5202	5202	5202	5202	5202	0	0	0	0	0	0	0	0	5719	5815	5815	5915	5915	6018	6018	6124	6124	6124	6124	6124	6235	6349	6349	6468	6349	6349	6349	6349	6349	6349	6349	6349	6349	6349	6349	6349	6349	6349	6349	6349	6468	6468	6468	6468	6468	6468	6468	0	0	0	0	0	0	0	0	0	0	0	7287	7137	7137	7137	6992	6992	6992	6992	6992	6992	6992	6853	6853	6853	6992	6992	6992	6992	6992	6853	6853	6853	6853	6853	6853	0	0	0	0	0	0	0	0	0	3019	3046	3019	3019	3019	3046	3046	3046	3046	3046	3046	3046	3046	3046	3046	3046	3046	3073	3073	3046	3046	3046	3046	3046	3019	3019	2993	2993	2993	2993	2993	2967	2967	2967	2993	2967	2967	2967	2967	2967	2967	2967	2967	2967	2967	2967	2967	2967	2967	2993	2993	2993	3019	3019	2993	2993	2993	2967	2993	2967	2993	2993	3019	3019	3019	3046	3046	3073	3073	3073	3073	3073	3101	3101	3101	3101	3101	3101	3073	3073	3073	3073	3073	3101	3101	3101	3129	0	0	0	0	0	0	0	0	0	0	0	0	0	0	0	0	0	0	0	0	0	0	7137	7137	7137	7137	7137	7137	7287	7287	7137	7137	7137	7137	7137	7137	7137	7137	7287	7137	7287	7287	7287	7287	7287	7287	7287	7287	7287	7287	7287	7287	7287	7287	7287	7287	7287	7287	7287	7287	7287	7287	7287	7287	7287	7287	7287	7287	7287	7287	7287	7287	7287	7287	7287	7287	7287	7287	7287	7287	7287	7287	7287	7287	7287	7287	7287	7137	7287	7137	7137	7137	7137	7137	7137	7137	7137	7137	7137	7287	7444	7444	7444	7444	7444	7444	7287	7287	7287	7287	7287	7287	7287	7287	7287	7287	7287	7287	7287	7287	7287	7137	7137	7137	7137	7287	7287	7287	7287	7287	7287	7287	7287	7287	7287	7287	7444	7444	7444	7444	7444	7444	7444	7444	7287	7444	7287	7287	7287	7287	7287	7444	7444	7444	7444	7608	7444	7444	7444	7444	7608	7608	7608	7608	7608	7444	7444	7444	7444	7444	7444	7444	7608	7608	7608	7608	7779	7608	7608	7608	7444	7444	7444	7287	7287	7287	7444	7444	7608	7608	7444	7444	7444	7608	7608	7608	7608	7779	7608	7779	7779	7779	7779	0	0	0	0	0	0	0	0	0	0	0	0	0	0	0	0	0	0	0	0	0	2993	2967	2967	2967	2967	2967	2942	2917	2893	2893	2869	2869	2869	2869	2869	2845	2799	2777	2777	2754	2777	2754	2754	2733	2711	2711	2711	2690	2690	2690	2669	2669	2669	2690	2669	2649	2629	2609	2609	2609	2589	2589	2570	2570	0	0	0	0	0	0	0	0	0	0	0	0	0	0	0	0	0	0	0	0	0	0	0	0	0	0	0	0	0	0	0	0	0	0	0	0
0	0	0	0	0	0	0	0	0	0	0	0	0	0	0	0	0	0	0	0	0	0	0	0	0	0	0	0	0	0	0	0	0	0	0	0	0	0	0	0	0	0	0	0	0	0	0	0	0	0	0	0	0	0	0	0	0	0	0	0	0	0	0	0	0	0	0	0	0	0	0	0	0	0	0	0	0	0	0	0	0	0	0	0	0	4296	4296	4350	4350	4350	4350	4350	4350	4350	4350	4350	4350	4350	4350	4350	4406	4350	4350	4350	4350	4350	4350	4350	4350	4350	4350	4406	4406	4406	4406	4406	4521	4521	4581	4581	4581	4581	4581	4771	4838	4838	5050	5050	5125	5125	5125	5125	5125	5125	5125	5125	5202	5202	5202	5202	5202	5202	5202	5202	5202	5202	5202	5202	5202	5202	5202	5202	5202	5202	5202	5202	5202	0	0	0	0	0	0	0	0	5815	5815	5915	5915	5915	5915	6018	6018	6018	6018	6235	6235	6235	6349	6349	6349	6349	6349	6349	6349	6349	6349	6349	6349	6349	6349	6349	6349	6349	6349	6349	6349	6468	6468	6468	6468	6468	6468	6468	0	0	0	0	0	0	0	0	0	0	0	7137	7137	7137	7137	7137	7137	7137	6992	6992	6992	0	6853	6853	6853	6992	6992	6992	6992	6992	6992	6992	6853	0	0	0	0	0	0	0	0	0	0	0	0	3019	3019	3019	3019	3019	3046	3046	3046	3046	3046	3046	3046	3046	3046	3046	3046	3073	3073	3046	3046	3046	3046	3046	3019	3019	3019	2993	2993	2993	2993	2993	2967	2967	2967	2967	2967	2967	2967	2967	2967	2967	2967	2967	2967	2967	2967	2967	2967	2967	2993	2993	2993	2993	2993	2993	2993	2993	2967	2993	2967	2993	2993	2993	3019	3019	3046	3046	3046	3073	3073	3073	3073	3101	3101	3101	3101	3101	3073	3073	3073	3073	3073	3073	3101	3101	3101	3129	3129	0	0	0	0	0	0	0	0	0	0	0	0	0	0	0	0	0	0	0	0	7137	7137	7137	7137	7137	7137	7137	7137	7137	7137	7137	7137	7137	7137	7137	7137	7137	7137	7137	7287	7287	7287	7287	7287	7287	7287	7287	7287	7287	7287	7287	7137	7137	7137	7287	7287	7287	7287	7287	7287	7444	7287	7287	7287	7287	7287	7287	7287	7287	7287	7287	7287	7287	7287	7287	7287	7287	7287	7287	7287	7287	7287	7287	7287	7287	7287	7287	7287	7287	7287	7287	7287	7137	7287	7287	7287	7137	7287	7287	7444	7444	7444	7444	7444	7444	7287	7287	7287	7287	7287	7287	7137	7287	7287	7287	7287	7287	7287	7287	7287	7287	7137	7137	7287	7287	7287	7287	7287	7287	7287	7287	7287	7287	7287	7287	7287	7444	7444	7444	7444	7444	7444	7444	7444	7444	7444	7444	7444	7444	7444	7444	7444	7444	7444	7444	7444	7444	7444	7444	7608	7608	7608	7608	7444	7444	7444	7444	7444	7444	7444	7444	7444	7608	7608	7608	7608	7779	7608	7608	7444	7444	7444	7287	7137	7287	7287	7608	7608	7608	7444	7608	7608	7608	7608	7779	7779	7779	7779	7959	7959	0	0	0	0	0	0	0	0	0	0	0	0	0	0	0	0	0	0	0	0	0	2993	2993	2993	2967	2967	2967	2967	2942	2942	2893	2893	2893	2869	2869	2869	2869	2869	2845	2822	2799	2799	2799	2777	2777	2754	2733	2733	2711	2690	2690	2690	2690	2669	2669	2669	2690	2669	2649	2629	2609	2609	2609	2589	2589	2570	2570	0	0	0	0	0	0	0	0	0	0	0	0	0	0	0	0	0	0	0	0	0	0	0	0	0	0	0	0	0	0	0	0	0	0	0	0
0	0	0	0	0	0	0	0	0	0	0	0	0	0	0	0	0	0	0	0	0	0	0	0	0	0	0	0	0	0	0	0	0	0	0	0	0	0	0	0	0	0	0	0	0	0	0	0	0	0	0	0	0	0	0	0	0	0	0	0	0	0	0	0	0	0	0	0	0	0	0	0	0	0	0	0	0	0	0	0	0	0	0	0	0	4296	4296	4350	4350	4350	4350	4350	4350	4350	4350	4350	4350	4350	4350	4350	4406	4350	4350	4350	4350	4350	4350	4350	4350	4350	4350	4406	4406	4406	4406	4406	4463	4463	4581	4581	4581	4581	4581	4771	4838	4838	5050	5125	5125	5125	5125	5125	5125	5125	5125	5125	5202	5202	5202	5202	5202	5202	5202	5202	5202	5202	5202	5202	5202	5202	5202	5202	5202	5202	5202	5202	5202	0	0	0	0	0	0	0	0	5815	5815	5815	5915	5815	5815	5815	6018	6018	6018	6235	6235	6235	6235	6349	6349	6349	6349	6349	6349	6349	6349	6349	6349	6349	6349	6349	6349	6349	6349	6349	6349	6468	6468	6468	6468	6468	6468	6468	6468	0	0	0	0	0	0	0	0	0	7137	7137	7137	7137	7137	7137	7137	7137	7137	6992	6992	0	0	6992	6992	6992	6992	6992	6992	6853	6853	6992	0	0	0	0	0	0	0	0	0	0	0	0	0	3046	3019	3019	3019	3019	3046	3046	3046	3046	3046	3046	3046	3046	3046	3046	3046	3046	3073	3046	3046	3046	3046	3046	3019	3019	3019	3019	2993	2993	2993	2993	2993	2967	2967	2967	2967	2967	2967	2967	2967	2967	2967	2967	2967	2967	2967	2967	2967	2967	2993	2993	2993	2993	2993	2993	2993	2993	2967	2967	2967	2993	2993	2993	3019	3019	3046	3073	3046	3073	3073	3073	3073	3101	3101	3101	3101	3073	3073	3073	3073	3073	3073	3073	3073	3101	3101	3101	3129	3129	0	0	0	0	0	0	0	0	0	0	0	0	0	0	0	0	0	0	0	7137	7137	7137	7137	7137	7137	7137	7137	7137	6992	7137	7137	7137	7137	7137	7137	7137	7137	7137	7287	7287	7287	7287	7287	7287	7287	7287	7287	7287	7287	7137	7137	7137	7137	7287	7287	7287	7287	7444	7444	7444	7444	7444	7287	7287	7287	7287	7287	7287	7287	7287	7287	7287	7287	7287	7287	7287	7287	7287	7287	7287	7287	7287	7287	7287	7287	7287	7287	7287	7287	7287	7137	7137	7287	7137	7137	7137	7137	7287	7444	7444	7287	7287	7444	7287	7287	7287	7287	7287	7137	7137	7137	7137	7137	7137	7287	7137	7287	7287	7287	7137	7137	7137	7287	7287	7444	7444	7444	7287	7287	7444	7444	7287	7287	7287	7287	7444	7287	7444	7444	7444	7444	7444	7444	7444	7444	7444	7444	7444	7444	7444	7444	7444	7444	7608	7608	7608	7444	7444	7608	7608	7608	7608	7444	7444	7444	7444	7444	7444	7444	7444	7444	7779	7608	7959	7779	7779	7779	7608	7444	7444	7444	7287	7137	7287	7287	7608	7608	7608	7444	7608	7287	7608	7608	7779	7779	7779	7959	8146	8146	0	0	0	0	0	0	0	0	0	0	0	0	0	0	0	0	0	0	0	3073	3019	2993	2993	2993	2967	2967	2967	2942	2942	2942	2893	2893	2893	2869	2869	2869	2869	2869	2845	2822	2799	2799	2777	2777	2754	2733	2711	2711	2711	2690	2690	2690	2690	2669	2669	2649	2669	2649	2649	2629	2609	2609	2589	2589	2589	2570	2570	0	0	0	0	0	0	0	0	0	0	0	0	0	0	0	0	0	0	0	0	0	0	0	0	0	0	0	0	0	0	0	0	0	0	0	0
0	0	0	0	0	0	0	0	0	0	0	0	0	0	0	0	0	0	0	0	0	0	0	0	0	0	0	0	0	0	0	0	0	0	0	0	0	0	0	0	0	0	0	0	0	0	0	0	0	0	0	0	0	0	0	0	0	0	0	0	0	0	0	0	0	0	0	0	0	0	0	0	0	0	0	0	0	0	0	0	0	0	0	0	0	0	4350	4350	4350	4350	4350	4350	4350	4350	4350	4350	4350	4350	4350	4350	4350	4350	4350	4350	4350	4350	4350	4350	4350	4350	4350	4406	4406	4406	4463	4406	4463	4521	4581	4706	4706	4706	4771	4838	4906	4977	5050	5125	5125	5125	5125	5125	5125	5125	5125	5125	5202	5202	5202	5202	5202	5202	5202	5202	5202	5202	5202	5202	5202	5202	5202	5202	5202	5202	5202	5202	0	0	0	0	0	0	0	0	0	0	5915	5915	5915	5815	5915	5915	0	0	0	0	0	6235	6349	6349	6349	6349	6349	6349	6349	6349	6349	6349	6349	6349	6349	6349	6349	6349	6349	6349	6349	6468	6468	6468	6349	6468	6468	6468	6592	6592	0	0	0	0	0	0	0	0	7137	6992	7137	7137	7137	7137	6992	7137	7137	0	0	0	0	6992	6992	6992	6853	6853	6992	6853	6853	0	0	0	0	0	0	0	0	0	0	0	0	0	3046	3046	3019	3019	3019	3019	3046	3046	3046	3046	3046	3046	3046	3046	3046	3046	3046	3046	3046	3046	3046	3046	3046	3046	3046	3019	3019	3019	2993	3019	2993	2993	2993	2967	2967	2967	2967	2967	2967	2967	2967	2967	2967	2967	2967	2967	2967	2967	2967	2967	2993	2993	2993	2993	2993	2993	2967	2967	2967	2967	2967	2967	2993	2993	3019	3019	3046	3073	3073	3073	3073	3073	3073	3073	3101	3101	3101	3073	3073	3073	3073	3073	3073	3073	3073	3101	3101	3101	3129	3129	0	0	0	0	0	0	0	0	0	0	0	0	0	0	0	0	0	7137	7137	7137	7137	7137	7137	6992	7137	7137	7137	7137	7137	7137	7137	7137	7137	7137	7137	7137	7137	7137	7137	7287	7287	7287	7287	7287	7287	7287	7287	7287	7287	7287	7137	7137	7137	7137	7137	7444	7444	7444	7444	7444	7444	7444	7287	7287	7287	7287	7287	7287	7287	7287	7287	7287	7287	7287	7287	7287	7287	7287	7287	7287	7287	7287	7287	7287	7287	7287	7287	7287	7287	7137	7137	7137	7287	7287	7137	7137	7137	7287	7444	7287	7287	7287	7444	7287	7287	7287	7287	7287	7287	7137	6992	7137	7137	7137	7287	7137	7287	7287	7287	7137	7137	7137	7287	7287	7287	7444	7444	7287	7444	7444	7444	7444	7444	7287	7287	7444	7287	7287	7444	7444	7444	7444	7444	7444	7444	7444	7444	7444	7444	7444	7444	7444	7444	7444	7608	7608	7444	7444	7608	7608	7779	7608	7608	7608	7444	7444	7444	7287	7287	7287	7287	7608	7608	7779	7779	7779	7779	7779	7608	7608	7444	0	0	0	0	0	0	0	0	7608	7287	7608	7608	7779	7779	8343	8343	8550	8550	8550	0	0	0	0	0	0	0	0	0	0	0	0	0	0	0	0	3101	3073	3073	3046	3019	2993	2993	2993	2967	2967	2967	2942	2942	2917	2917	2893	2893	2893	2869	2869	2869	2845	2822	2799	2799	2777	2777	2754	2733	2711	2711	2690	2690	2690	2690	2669	2669	2669	2649	2669	2649	2649	2629	2629	2609	2589	2589	2570	2570	2570	0	0	0	0	0	0	0	0	0	0	0	0	0	0	0	0	0	0	0	0	0	0	0	0	0	0	0	0	0	0	0	0	0	0	0	0
0	0	0	0	0	0	0	0	0	0	0	0	0	0	0	0	0	0	0	0	0	0	0	0	0	0	0	0	0	0	0	0	0	0	0	0	0	0	0	0	0	0	0	0	0	0	0	0	0	0	0	0	0	0	0	0	0	0	0	0	0	0	0	0	0	0	0	0	0	0	0	0	0	0	0	0	0	0	0	0	0	0	0	0	0	0	4350	4350	4406	4406	4406	4350	4350	4350	4350	4350	4350	4350	4350	4350	4350	4350	4350	4350	4350	4350	4350	4350	4350	4350	4350	4406	4406	4406	4406	4406	4463	4521	4581	4643	4706	4706	4771	4838	4906	4977	5050	5050	5125	5125	5125	5125	5125	5125	5125	5125	5202	5202	5202	5202	5202	5202	5202	5202	5202	5202	5202	5202	5202	5202	5202	5202	5202	5202	5125	5125	0	0	0	0	0	0	0	0	0	0	5915	5915	5915	5815	5815	5915	5915	0	0	0	0	6235	6349	6349	6349	6349	6349	6349	6349	6349	6349	6349	6349	6349	6349	6349	6349	6349	6349	6349	6349	6349	6468	6468	6468	6468	6468	6468	6592	6592	0	0	0	0	0	0	0	7137	7137	6992	7137	7137	7137	7137	6992	6992	6992	0	0	0	0	0	0	6992	6853	6853	0	0	0	0	0	0	0	0	0	0	0	0	0	0	0	0	3046	3073	3046	3019	3019	3019	3046	3046	3046	3046	3019	3019	3046	3046	3046	3046	3046	3046	3046	3046	3046	3046	3046	3046	3046	3019	3019	3019	3019	3019	2993	2993	2993	2967	2967	2967	2967	2967	2967	2967	2967	2967	2967	2967	2967	2967	2967	2967	2967	2967	2967	2993	2993	2993	2993	2993	2967	2967	2967	2967	2967	2967	2993	2993	2993	3019	3046	3046	3046	3046	3073	3073	3073	3073	3101	3101	3073	3073	3073	3073	3073	3073	3073	3073	3073	3073	3101	3101	3101	3186	3186	0	0	0	0	0	0	0	0	0	0	0	0	0	0	0	0	7137	7137	7137	7137	7137	7137	7137	7137	7137	7137	6992	6992	6992	7137	6992	6992	7137	7137	7137	7137	7287	7137	7287	7287	7287	7287	7287	7287	7287	7287	7287	7287	7137	7137	7137	7287	7137	7137	7287	7444	7444	7444	7444	7444	7444	7444	7444	7444	7444	7444	7287	7287	7287	7287	7287	7287	7287	7287	7287	7287	7287	7287	7287	7287	7287	7444	7444	7444	7287	7287	7287	7287	7287	7287	7287	7287	7287	7287	7287	7287	7287	7608	7444	7444	7444	7444	7287	7287	7444	7287	7287	7287	7287	6992	6992	7137	0	0	0	7287	7444	7444	7287	7287	7287	7444	7287	7287	7444	7444	7287	7444	7444	7444	7444	7444	7287	7287	7444	7287	7287	7444	7444	7444	7444	7444	7444	7444	7444	7444	7287	7444	7444	7444	7444	7444	7608	7608	7608	7444	7444	7608	7608	7779	7779	7608	7608	7444	7444	7608	7444	7444	7444	7287	7608	7608	7779	7779	0	0	7779	7608	7608	0	0	0	0	0	0	0	0	0	0	0	0	0	0	0	8343	8343	8550	8550	8550	0	0	0	0	0	0	0	0	0	0	0	3046	3046	3046	3046	3046	3101	3073	3073	3046	3019	2993	2993	2993	2993	2967	2967	2942	2942	2917	2917	2893	2893	2893	2869	2869	2869	2845	2822	2799	2799	2777	2754	2754	2733	2711	2711	2690	2690	2690	2690	2690	2669	2669	2649	2649	2649	2629	2629	2609	2589	2589	2589	2570	2570	2570	0	0	0	0	0	0	0	0	0	0	0	0	0	0	0	0	0	0	0	0	0	0	0	0	0	0	0	0	0	0	0	0	0	0	0	0
0	0	0	0	0	0	0	0	0	0	0	0	0	0	0	0	0	0	0	0	0	0	0	0	0	0	0	0	0	0	0	0	0	0	0	0	0	0	0	0	0	0	0	0	0	0	0	0	0	0	0	0	0	0	0	0	0	0	0	0	0	0	0	0	0	0	0	0	0	0	0	0	0	0	0	0	0	0	0	0	0	0	0	0	0	0	0	4350	4350	4406	4350	4350	4350	4350	4350	4296	4296	4296	4296	4350	4350	4350	4350	4350	4350	4350	4350	4350	4350	4350	4406	4406	4406	4406	4406	4406	4463	4463	4521	4643	4643	4706	4771	4838	4906	4977	4977	5050	5125	5125	5125	5125	5125	5125	5125	5125	5202	5202	5125	5125	5202	5202	5202	5125	5202	5202	5202	5202	5202	5202	5202	5202	5202	5202	5202	5202	0	0	0	0	0	0	0	0	0	0	5915	5915	5915	5815	5915	5915	6018	6018	0	0	0	6349	6349	6349	6349	6349	6349	6349	6349	6349	6349	6349	6349	6349	6349	6349	6349	6349	6235	6349	6349	6468	6468	6468	6468	6468	6468	6592	6592	6592	0	0	0	0	0	0	0	6992	7137	6992	7137	7137	7137	6992	6992	6992	6992	6992	0	0	0	0	0	0	0	0	0	0	0	0	0	0	0	0	0	0	0	0	0	0	0	0	3046	3046	3019	3019	3019	3019	3019	3046	3019	3019	3046	3046	3046	3046	3046	3046	3046	3046	3046	3046	3046	3046	3046	3046	3046	3019	3019	3019	2993	2993	2993	2993	2967	2967	2967	2967	2967	2967	2967	2967	2967	2967	2967	2967	2967	2967	2967	2967	2967	2967	2967	2967	2967	2993	2993	2993	2967	2967	2967	2967	2967	2967	2993	2993	2993	3019	3019	3046	3073	3073	3073	3073	3073	3073	3073	3073	3073	3073	3073	3073	3073	3073	3073	3073	3073	3073	3073	3073	3101	3101	3186	0	0	0	0	0	0	0	0	0	0	0	0	0	0	0	0	7137	7137	7137	7137	7287	7137	7137	7287	7137	7137	7137	7137	7137	6992	7137	7137	7137	7137	7137	7137	7137	7137	7287	7287	7287	7287	7287	7287	7287	7287	7287	7287	7287	7137	7137	7287	7137	7137	7287	7287	7444	7444	7444	7444	7444	7444	7444	7444	7444	7444	7287	7287	7287	7287	7287	7287	7287	7287	7287	7287	7287	7287	7444	7287	7287	7444	7444	7444	7444	8550	8550	7287	7287	7287	7287	7287	7287	7137	7137	7287	7444	7608	7608	7444	7608	7608	7608	7608	7444	7444	7444	7444	7287	7287	6992	0	0	0	0	0	7444	7444	7287	7287	7287	7444	7444	7287	7444	7444	7287	7444	7444	7444	7287	7444	7287	7287	7444	7287	7287	7444	7444	7444	7444	7444	0	0	0	0	7287	7608	7608	7444	7444	7444	7608	7608	7608	0	0	0	0	0	7779	7608	7608	0	0	7608	7444	7444	7444	0	0	0	0	0	0	0	0	0	0	0	0	0	0	0	0	0	0	0	0	0	0	0	0	0	0	0	0	8550	3157	3157	3157	3157	3157	0	0	0	0	0	0	0	3046	3046	3046	3046	3046	3073	3073	3046	3019	3019	2993	2993	2993	2993	2967	2942	2942	2942	2917	2893	2893	2893	2893	2869	2869	2869	2845	2845	2799	2799	2777	2754	2733	2733	2733	2711	2690	2690	2690	2690	2649	2669	2669	2649	2649	2649	2629	2629	2609	2589	2589	2589	2570	2551	2551	0	0	0	0	0	0	0	0	0	0	0	0	0	0	0	0	0	0	0	0	0	0	0	0	0	0	0	0	0	0	0	0	0	0	0	0
0	0	0	0	0	0	0	0	0	0	0	0	0	0	0	0	0	0	0	0	0	0	0	0	0	0	0	0	0	0	0	0	0	0	0	0	0	0	0	0	0	0	0	0	0	0	0	0	0	0	0	0	0	0	0	0	0	0	0	0	0	0	0	0	0	0	0	0	0	0	0	0	0	0	0	0	0	0	0	0	0	0	0	0	0	0	0	4350	4350	4350	4350	4350	4350	4350	4350	4296	4296	4296	4350	4350	4350	4350	4350	4350	4296	4350	4350	4350	4350	4406	4463	4463	4406	4406	4406	4406	4406	4463	4521	4581	4643	4643	4771	4838	4906	4977	4977	5050	5125	5125	5125	5125	5125	5125	5125	5125	5202	5202	5202	5202	5202	5202	5202	5202	5202	5202	5202	5202	5202	5202	5125	5202	5202	5202	5202	5202	0	0	0	0	0	0	0	0	0	0	5915	6018	5915	5915	5915	5915	5915	6018	0	0	0	6349	6349	6349	6349	6349	6349	6349	6349	6349	6349	6349	6349	6349	6349	6349	6349	6349	6349	6349	6349	6468	6468	6468	6468	6468	6468	6468	6468	6468	0	0	0	0	0	0	0	7137	7137	7137	7137	7137	7137	6992	6992	6992	6992	6992	0	0	0	0	0	0	0	0	0	0	0	0	0	0	0	0	0	0	0	0	0	0	0	0	3046	3073	3046	3019	3019	3019	3046	3046	3046	3019	3019	3019	3046	3046	3046	3046	3046	3046	3046	3046	3046	3046	3046	3046	3019	3019	3019	3019	2993	3019	2993	2993	2993	2967	2967	2967	2967	2967	2967	2967	2967	2967	2967	2967	2967	2967	2967	2967	2967	2967	2967	2967	2967	2967	2993	2993	2967	2967	2967	2967	2967	2967	2967	2993	3019	3019	3073	3073	3073	3073	3073	3073	3046	3073	3073	3073	3073	3073	3073	3073	3073	3073	3073	3073	3073	3073	3073	3073	3073	3073	0	0	0	0	0	0	0	0	0	0	0	0	0	0	0	0	0	0	7137	7137	7137	7137	7137	7137	7137	6992	6992	7137	7137	7137	7137	7137	7137	7137	7137	7137	7137	7137	7137	7287	7287	7287	7287	7287	7287	7287	7287	7287	7287	7287	7137	7137	7287	7287	7287	7608	7608	7608	7608	7608	7779	7444	7444	7444	7444	7444	7444	7444	7444	7608	7444	7444	7444	7444	7444	7287	7287	7444	7444	7444	7287	7287	7444	7444	7444	7444	8550	8550	0	0	7287	7287	7287	7287	7137	6992	7444	7444	7959	7959	7779	7779	7779	7779	7444	7444	7444	7287	7287	7287	7287	0	0	0	0	0	0	0	0	0	0	0	0	7444	7444	7444	7444	7287	7444	7444	7444	7444	7444	7287	7287	7444	7287	7287	7444	7444	7444	7444	0	0	0	0	0	0	7608	7608	0	0	0	0	0	0	0	0	0	0	0	0	0	0	0	0	0	0	0	0	0	0	0	0	0	0	0	0	0	0	0	0	0	0	0	0	0	0	0	0	0	0	0	0	0	0	0	0	0	3157	3186	3157	3157	3157	3157	3129	3129	3129	0	0	3073	3073	3073	3073	3046	3046	3073	3073	3046	3019	3019	2993	2993	2993	2993	2967	2942	2942	2917	2917	2893	2893	2893	2893	2869	2869	2869	2845	2822	2799	2799	2777	2777	2754	2733	2733	2733	2711	2690	2690	2690	2649	2669	2669	2649	2649	2649	2629	2629	2609	2589	2570	2570	2570	2551	2551	0	0	0	0	0	0	0	0	0	0	0	0	0	0	0	0	0	0	0	0	0	0	0	0	0	0	0	0	0	0	0	0	0	0	0	0
0	0	0	0	0	0	0	0	0	0	0	0	0	0	0	0	0	0	0	0	0	0	0	0	0	0	0	0	0	0	0	0	0	0	0	0	0	0	0	0	0	0	0	0	0	0	0	0	0	0	0	0	0	0	0	0	0	0	0	0	0	0	0	0	0	0	0	0	0	0	0	0	0	0	0	0	0	0	0	0	0	0	0	0	0	0	0	0	4350	4350	4350	4350	4350	4350	4296	4296	4296	4296	4350	4296	4296	4296	4350	4350	4350	4350	4350	4350	4350	4406	4463	4463	4463	4463	4406	4406	4406	4463	4521	4581	4643	4643	4706	4771	4838	4906	4906	4977	5125	5125	5125	5125	5125	5125	5125	5125	5202	5202	5202	5202	5202	5202	5202	5202	5202	5202	5202	5202	5125	5125	5125	5125	5202	5202	5125	5125	0	0	0	0	0	0	0	0	0	0	5915	6018	5915	5915	5815	5915	5915	5915	0	0	0	0	6235	6235	6349	6349	6349	6349	6349	6349	6349	6349	6235	6235	6349	6349	6349	6349	6235	6349	6349	6468	6468	6468	6468	6468	6349	6468	6468	6468	0	0	0	0	0	0	0	7137	6992	6992	7137	7137	7137	7137	6992	6992	6992	0	0	0	0	0	0	0	0	0	0	0	0	0	0	0	0	0	0	0	0	0	0	0	0	0	0	3073	3046	3019	3019	3019	3046	3046	3019	3019	3019	3019	3019	3019	3019	3019	3046	3046	3046	3046	3046	3046	3046	3019	3019	2993	2993	3019	2993	2993	2993	2993	2967	2967	2967	2967	2967	2967	2967	2967	2967	2967	2967	2967	2967	2967	2967	2967	2967	2967	2967	2967	2967	2967	2967	2967	2967	2967	2967	2967	2967	2967	2993	2993	3019	3019	3073	3073	3073	3073	3073	3073	3046	3073	3073	3073	3073	3073	3073	3073	3073	3073	3073	3073	3073	3073	3073	3073	3073	3073	3073	0	0	0	0	0	0	0	0	0	0	0	0	0	0	0	0	0	0	6992	6992	6992	7137	7137	7137	6992	6992	7137	6992	7137	7137	7137	7137	7137	7137	7137	7137	7137	7137	7287	7287	7287	7287	7287	7287	7287	7287	7287	7287	7287	7137	7137	7287	7287	7287	7287	7608	7608	7779	7779	7959	7608	7444	7608	7608	7608	7608	7608	7608	7608	8550	8767	8550	8550	8550	8767	8995	8995	8995	8767	8767	8767	8767	8767	8767	8550	8550	8550	0	0	8550	8767	7444	7444	7444	8550	8550	8343	8343	8343	8146	8146	7959	7959	7959	7444	7444	7287	7287	7287	7287	0	0	0	0	0	0	0	0	0	0	0	0	7608	7287	7444	7444	7287	7444	7444	7444	7287	7287	7287	7287	7444	7287	7287	7444	7444	0	0	0	0	0	0	0	0	0	0	0	0	0	0	0	0	0	0	0	0	0	0	0	0	0	0	0	0	0	0	0	0	0	0	0	0	0	0	0	0	0	0	0	0	0	0	0	0	0	0	0	0	0	0	0	0	0	0	3186	3157	3157	3157	3157	3157	3157	3157	3157	3129	3129	0	3101	3101	3073	3073	3073	3046	3073	3073	3046	3046	3019	2993	2993	2993	2993	2967	2942	2917	2917	2917	2893	2893	2893	2893	2869	2869	2869	2845	2822	2799	2777	2777	2754	2754	2754	2733	2733	2711	2711	2690	2690	2669	2669	2649	2649	2649	2649	2629	2609	2609	2570	2570	2570	2551	2551	2551	0	0	0	0	0	0	0	0	0	0	0	0	0	0	0	0	0	0	0	0	0	0	0	0	0	0	0	0	0	0	0	0	0	0	0	0
0	0	0	0	0	0	0	0	0	0	0	0	0	0	0	0	0	0	0	0	0	0	0	0	0	0	0	0	0	0	0	0	0	0	0	0	0	0	0	0	0	0	0	0	0	0	0	0	0	0	0	0	0	0	0	0	0	0	0	0	0	0	0	0	0	0	0	0	0	0	0	0	0	0	0	0	0	0	0	0	0	0	0	0	0	0	0	0	4350	4406	4350	4350	4350	4350	4350	4296	4296	4296	4296	4296	4296	4296	4296	4350	4350	4350	4350	4406	4406	4406	4463	4463	4463	4463	4463	4463	4463	4463	4521	4521	4643	4643	4706	4771	4838	4906	4906	4977	5050	5125	5125	5125	5125	5125	5125	5125	5202	5202	5202	5202	5202	5202	5202	5202	5202	5202	5202	5202	5125	5202	5202	5202	5202	5202	5202	5202	0	0	0	0	0	0	0	0	0	0	5915	5915	5915	5815	5815	5815	5915	5915	5915	0	0	0	6235	6235	6468	6468	6349	6349	6349	6349	6349	6235	6235	6235	6349	6349	6349	6349	6349	6349	6349	6468	6349	6468	6468	6235	6124	6124	6468	0	0	0	0	0	0	0	0	0	6992	6992	7137	7137	7137	7137	0	0	0	0	0	0	0	0	0	0	0	0	0	0	0	0	0	0	0	0	0	0	0	0	0	0	0	0	0	3046	3046	3019	3019	3019	3046	3046	3019	3019	3019	3019	3019	3019	3019	3019	3046	3046	3046	3046	3046	3046	3046	3019	3019	2993	2993	2993	2993	2993	2993	2993	2967	2967	2967	2967	2967	2967	2967	2993	2967	2993	2993	2967	2967	2967	2967	2967	2967	2967	2967	2967	2967	2967	2967	2967	2967	2967	2967	2967	2967	2967	2993	2993	3019	3019	3073	3073	3073	3073	3073	3046	3046	3073	3073	3073	3073	3073	3073	3073	3046	3046	3046	3046	3073	3073	3073	3073	3073	3073	3073	0	0	0	0	0	0	0	0	0	0	0	0	0	0	0	0	0	0	6853	6853	6853	6853	6992	6853	6853	6992	7137	6992	7137	7137	6992	6992	6992	6992	6992	7137	7137	7137	7287	7287	7287	7287	7287	7287	7287	7287	7287	7287	7287	7287	7287	7287	7287	7287	8146	7959	7959	7959	7959	7959	7779	7608	7779	7608	7608	8550	8767	8767	8767	8550	8767	8550	8550	8550	8767	8995	8995	8995	8767	8767	8767	8767	8767	8995	8550	8550	8550	8767	8550	8550	8767	8767	8767	8767	8767	8767	8550	8767	8550	8343	8343	8343	8343	8343	0	0	0	0	0	0	0	0	0	0	0	0	0	0	0	0	0	0	7444	7287	7287	7287	7287	7287	7444	7287	7287	7287	7287	7287	7444	7287	7287	7444	7444	0	0	0	0	0	0	0	0	0	0	0	0	0	0	0	0	0	0	0	0	0	0	0	0	0	0	0	0	0	0	0	0	0	0	0	0	0	0	0	0	0	0	0	0	0	0	0	0	0	0	0	0	0	0	0	0	0	0	3186	3157	3186	3157	3157	3157	3157	3157	3157	3157	3157	3157	3129	3129	3101	3073	3073	3046	3073	3073	3046	3046	3019	2993	2993	2993	2993	2967	2942	2917	2917	2917	2917	2893	2893	2893	2869	2869	2845	2845	2822	2799	2777	2777	2754	2754	2754	2711	2711	2711	2711	2690	2690	2669	2669	2649	2649	2629	2629	2629	2609	2609	2589	2570	2570	2570	2570	2570	0	0	0	0	0	0	0	0	0	0	0	0	0	0	0	0	0	0	0	0	0	0	0	0	0	0	0	0	0	0	0	0	0	0	0	0
0	0	0	0	0	0	0	0	0	0	0	0	0	0	0	0	0	0	0	0	0	0	0	0	0	0	0	0	0	0	0	0	0	0	0	0	0	0	0	0	0	0	0	0	0	0	0	0	0	0	0	0	0	0	0	0	0	0	0	0	0	0	0	0	0	0	0	0	0	0	0	0	0	0	0	0	0	0	0	0	0	0	0	0	0	0	0	0	4350	4350	4350	4406	4350	4350	4350	4350	4296	4350	4350	4350	4296	4350	4350	4350	4350	4350	4350	4406	4406	4406	4406	4463	4406	4350	4350	4406	4463	4463	4521	4463	4581	4581	4643	4771	4838	4977	4977	4977	5050	5125	5125	5125	5125	5125	5125	5125	5202	5202	5202	5202	5202	5202	5202	5202	5202	5202	5202	5125	5125	5125	5125	5125	5125	5202	5202	5125	5125	0	0	0	0	0	0	0	0	0	0	5915	5915	5815	5815	5915	6018	6018	6018	0	6235	6235	0	6592	6592	6468	6468	6349	6349	6349	6349	6235	6235	6235	6235	6349	6349	6349	6349	6349	6349	6468	6468	6349	6349	6349	6349	6349	0	0	0	0	0	0	0	0	0	0	0	0	0	0	0	0	0	0	0	0	0	0	0	0	0	0	0	0	0	0	0	0	0	0	0	0	0	0	0	0	0	0	0	0	0	3046	3019	3019	3019	2993	3019	3019	3019	3019	2993	3019	2993	3019	2993	3019	3046	3046	3019	3046	3046	3046	3019	3019	3019	2993	2993	2993	2967	2993	2967	2967	2967	2967	2967	2967	2967	2967	2967	2967	2967	2967	2967	2967	2967	2967	2967	2967	2967	2967	2967	2967	2967	2967	2967	2967	2967	2967	2967	2967	2967	2967	2993	3019	3019	3019	3073	3073	3046	3046	3046	3046	3046	3046	3046	3073	3073	3073	3073	3073	3046	3046	3046	3046	3073	3073	3073	3046	3046	3073	3073	0	0	0	0	0	0	0	0	0	0	0	0	0	0	0	0	0	0	6853	6853	6853	6853	6853	6853	6853	6992	7137	6992	7137	7137	7137	7137	7137	6992	6992	7137	7137	7137	7287	7287	7287	7287	7287	7287	7287	7287	7287	7287	7287	7287	7287	7444	7444	7444	8146	8146	8146	8343	8343	8146	7959	7779	8146	8343	8550	8767	8995	8995	8995	8767	8767	8550	8550	8767	8767	8995	8995	8995	8767	8767	8767	8767	8767	8995	8767	8767	8995	8767	8767	8767	8767	8767	8995	8995	8995	8995	8767	8995	8550	8767	8767	8767	8550	8343	8343	8343	0	0	0	0	0	0	0	0	0	8995	8995	0	0	0	0	0	7444	7287	7287	7287	7287	7287	7287	7287	7287	7287	7287	7287	7444	7287	7287	7444	7608	7608	0	0	0	0	0	0	0	0	0	0	0	0	4771	4771	0	0	0	0	0	0	0	0	0	0	0	0	0	0	0	0	0	0	0	0	0	0	0	0	0	0	0	0	0	0	0	0	0	0	0	3341	3341	3341	0	0	0	0	3186	3186	3186	3186	3186	3186	3186	3157	3157	3157	3157	3157	3157	3129	3129	3101	3073	3046	3046	3073	3073	3046	3019	3019	2993	2993	2993	2993	2967	2967	2942	2917	2917	2917	2893	2893	2893	2869	2869	2845	2845	2822	2777	2777	2777	2754	2733	2754	2711	2711	2711	2711	2690	2690	2669	2669	2649	2649	2649	2629	2629	2629	2609	2589	2589	2589	2570	2570	2570	0	0	0	0	0	0	0	0	0	0	0	0	0	0	0	0	0	0	0	0	0	0	0	0	0	0	0	0	0	0	0	0	0	0	0	0
0	0	0	0	0	0	0	0	0	0	0	0	0	0	0	0	0	0	0	0	0	0	0	0	0	0	0	0	0	0	0	0	0	0	0	0	0	0	0	0	0	0	0	0	0	0	0	0	0	0	0	0	0	0	0	0	0	0	0	0	0	0	0	0	0	0	0	0	0	0	0	0	0	0	0	0	0	0	0	0	0	0	0	0	0	0	0	0	4350	4350	4350	4406	4350	4350	4350	4350	4350	4350	4350	4350	4296	4296	4350	4350	4350	4350	4406	4406	4406	4406	4463	4463	4406	4406	4406	4406	4463	4463	4521	4463	4521	4521	4581	4706	4838	4977	4977	5050	5050	5125	5125	5125	5125	5125	5125	5125	5202	5202	5202	5202	5202	5202	5202	5202	5202	5202	5202	5125	5125	5125	5125	5125	5125	5125	5202	5125	5202	5202	0	0	0	0	0	0	0	0	0	0	5915	5915	5915	5915	6018	6018	6124	6235	6235	6235	0	6592	6592	6468	6468	6349	6349	6349	6349	6235	6349	6235	6235	6349	6349	6349	6349	6349	6349	6468	6468	6468	6468	6468	6349	6468	6468	0	0	0	0	0	0	0	0	0	0	0	0	0	0	0	0	0	0	0	0	0	0	0	0	0	0	0	0	0	0	0	0	0	0	0	0	0	0	0	0	0	0	0	0	0	3019	3019	3019	3019	3019	3019	3019	2993	2993	2993	2993	2993	2993	3019	3046	3019	3019	3019	3019	3019	3019	3019	2993	2967	2967	2967	2967	2967	2967	2967	2967	2967	2967	2967	2967	2967	2967	2993	2967	2967	2993	2993	2967	2967	2967	2967	2967	2967	2967	2967	2967	2967	2967	2967	2967	2967	2967	2967	2967	2993	2993	3019	3019	3019	3046	3046	3046	3019	3019	3019	3019	3019	3019	3046	3073	3073	3073	3046	3046	3046	3046	3046	3046	3073	3046	3046	3046	3046	3073	0	0	0	0	0	0	0	0	0	0	0	0	0	0	0	0	0	0	0	0	6853	6853	6992	6853	6992	6992	7137	6992	7137	6992	7137	7137	7137	7137	7137	7137	7137	7137	7287	7287	7287	7287	7287	7287	7287	7287	7287	7287	7287	7287	7287	7444	7444	7444	8550	8550	8550	8550	8550	8550	8343	8146	8343	8550	8995	8995	8995	8995	8995	8767	8767	8550	8550	8767	8767	8995	8995	8995	8995	8995	8995	8995	8995	8995	8995	8995	8995	8767	8767	8767	8767	8995	8995	8995	8995	8767	8767	8767	8995	8995	8995	8767	8550	8767	8767	8343	0	0	0	0	0	0	0	8995	8767	8995	8995	8995	0	0	0	0	7444	7444	7287	7444	7287	7287	7444	7444	7287	7287	7287	7287	7287	7287	7287	7287	7287	7608	0	0	0	0	0	0	0	0	0	0	4706	4771	4771	4838	4838	0	0	0	0	0	0	0	0	0	0	0	0	0	0	0	0	0	0	0	0	0	0	0	0	0	0	0	0	0	0	0	0	0	3309	3341	3309	3309	3309	3277	3277	3246	3216	3186	3186	3186	3186	3157	3157	3157	3157	3157	3157	3157	3157	3157	3129	3101	3073	3046	3046	3046	3073	3046	3019	3019	2993	2993	2993	2993	2967	2967	2942	2942	2917	2917	2917	2893	2893	2869	2869	2845	2822	2822	2777	2777	2777	2754	2754	2777	2733	2711	2711	2690	2690	2690	2669	2669	2649	2649	2629	2629	2629	2609	2609	2589	2589	2589	2589	2570	2570	0	0	0	0	0	0	0	0	0	0	0	0	0	0	0	0	0	0	0	0	0	0	0	0	0	0	0	0	0	0	0	0	0	0	0	0
0	0	0	0	0	0	0	0	0	0	0	0	0	0	0	0	0	0	0	0	0	0	0	0	0	0	0	0	0	0	0	0	0	0	0	0	0	0	0	0	0	0	0	0	0	0	0	0	0	0	0	0	0	0	0	0	0	0	0	0	0	0	0	0	0	0	0	0	0	0	0	0	0	0	0	0	0	0	0	0	0	0	0	0	0	0	0	0	4296	4350	4350	4350	4406	4406	4406	4406	4350	4350	4350	4350	4296	4350	4296	4350	4350	4350	4406	4406	4406	4406	4406	4406	4406	4406	4406	4406	4463	4463	4521	4463	4521	4521	4581	4706	4838	4977	5050	5050	5125	5125	5125	5125	5125	5125	5125	5125	5202	5202	5202	5202	5202	5202	5202	5202	5202	5202	5202	5125	5125	5125	5125	5125	5125	5125	5202	5125	5202	5202	0	0	0	0	0	0	0	0	0	0	5915	5915	5915	5915	6018	6018	6124	6235	6235	6349	6349	6592	6468	6468	6349	6349	6349	6349	6349	6349	6349	6349	6349	6349	6349	6349	6349	6349	6235	6468	6468	6349	6349	6349	6349	6349	6468	0	0	0	0	0	0	0	0	0	0	0	0	0	0	0	0	0	0	0	0	0	0	0	0	0	0	0	0	0	0	0	0	0	0	0	0	0	0	0	0	0	0	0	0	0	3019	3019	3019	3019	3019	3019	3019	2993	2993	2993	2993	2993	2993	2993	3046	3019	3019	3019	3019	3019	3019	2993	2993	2967	2967	2967	2967	2967	2967	2967	2967	2967	2967	2967	2967	2967	2967	2967	2993	2993	2993	2967	2967	2967	2967	2967	2967	2967	2967	2967	2967	2967	2967	2967	2967	2967	2967	2967	2967	2993	2993	3019	3019	3019	3046	3046	3046	3019	3019	3019	3019	3019	3019	3046	3046	3073	3073	3046	3046	3046	3046	3046	3046	3073	3073	3073	3073	3073	0	0	0	0	0	0	0	0	0	0	0	0	0	0	0	0	0	0	0	0	0	0	0	6992	6853	6853	6992	6992	6992	6992	6992	7137	7137	6992	6992	6992	7137	7137	7137	7137	7287	7287	7287	7287	7287	7287	7287	7287	7287	7287	7287	7287	7287	7287	7444	7444	8767	8767	8767	8550	8550	8343	8146	8343	8767	8995	8995	9235	9235	8995	8995	8995	8767	8767	8995	8995	8995	8995	8995	8995	8995	8995	8995	8995	8995	8995	8995	8995	8767	8767	8767	8767	8995	8995	8995	8995	8767	8767	8767	8995	8995	8995	8995	8995	8995	8767	8767	0	8995	8995	8995	8995	8995	8995	8995	8995	8995	8995	8995	8995	0	0	0	7287	7287	7287	7287	7287	7287	7287	7287	7287	7287	7287	7287	7287	7287	7287	7287	7287	0	0	0	0	0	0	0	0	0	0	4706	4706	4771	4771	4838	4838	4838	4838	0	0	0	0	0	0	0	0	0	0	0	0	0	0	0	0	0	0	0	0	0	0	0	0	0	0	0	0	0	0	3277	3309	3309	3309	3341	3341	3309	3309	3277	3246	3216	3186	3186	3186	3186	3157	3157	3186	3157	3157	3157	3157	3157	3129	3101	3073	3046	3046	3073	3073	3046	3019	3019	2993	2993	2993	2993	2993	2967	2967	2942	2942	2942	2917	2893	2869	2869	2869	2845	2845	2822	2799	2777	2777	2754	2754	2777	2733	2733	2711	2711	2690	2690	2669	2669	2649	2649	2649	2629	2629	2609	2609	2589	2589	2589	2589	2570	2570	0	0	0	0	0	0	0	0	0	0	0	0	0	0	0	0	0	0	0	0	0	0	0	0	0	0	0	0	0	0	0	0	0	0	0	0
0	0	0	0	0	0	0	0	0	0	0	0	0	0	0	0	0	0	0	0	0	0	0	0	0	0	0	0	0	0	0	0	0	0	0	0	0	0	0	0	0	0	0	0	0	0	0	0	0	0	0	0	0	0	0	0	0	0	0	0	0	0	0	0	0	0	0	0	0	0	0	0	0	0	0	0	0	0	0	0	0	0	0	0	0	0	0	4296	4296	4350	4350	4350	4406	4406	4406	4350	4350	4350	4350	4350	4296	4350	4296	4296	4350	4350	4406	4406	4406	4406	4463	4463	4463	4406	4406	4406	4521	4521	4521	4521	4521	4521	4643	4706	4706	4906	5050	5050	5125	5125	5125	5125	5125	5125	5125	5125	5202	5202	5202	5202	5202	5202	5202	5202	5202	5202	5202	5125	5202	5202	5202	5125	5125	5125	5125	5125	5125	5125	0	0	0	0	0	0	0	0	0	0	5915	5915	5915	5915	6018	6018	6124	6349	6349	6349	6349	6468	6468	6349	6349	6349	6349	6349	6349	6235	6349	6349	6349	6349	6235	6349	6235	6235	6235	6349	6349	6349	6349	6349	6349	6349	0	0	0	0	0	0	0	0	0	0	0	0	0	0	0	0	0	0	0	0	0	0	0	0	0	0	0	0	6349	6235	6235	0	0	0	0	0	0	0	0	0	0	0	0	0	0	0	3019	3019	3019	3019	3019	3019	3019	2993	2993	2993	2993	2993	2993	2993	3019	3019	3019	3019	2993	3019	2993	2993	2993	2967	2967	2967	2967	2967	2967	2967	2967	2967	2967	2967	2967	2967	2967	2967	2967	2993	2967	2967	2967	2967	2967	2967	2967	2967	2967	2967	2967	2967	2967	2967	2967	2967	2967	2967	2967	2967	2993	2993	2993	2993	3019	3046	3019	3019	3019	3019	3019	3019	3019	3046	3046	3046	3073	3046	3046	3046	3046	3046	3046	3046	3073	3073	3073	3073	0	0	0	0	0	7137	7137	0	0	0	0	0	0	0	0	0	0	0	0	0	0	0	0	0	6853	6853	6992	6992	6992	6992	6992	7137	7137	7137	7137	7137	7137	7137	7137	7287	7287	7287	7287	7287	7287	7287	7287	7287	7287	7287	7287	7287	7287	7444	7444	7444	8767	8767	8767	8767	8550	8550	8343	8550	8995	8995	8995	9235	9235	8995	8995	8995	8767	8995	8995	8995	8995	8995	8995	8995	8995	8995	8995	8995	8995	8995	8995	8995	8995	8767	8767	8767	8767	8995	8995	8995	8995	8995	8995	9235	9235	9235	8995	8995	8995	8995	8995	8995	8995	8995	8995	8995	8995	8995	8995	8995	8995	8995	8995	8995	8995	0	0	7287	7287	7287	7287	7287	7287	7287	7287	7287	7287	7287	7287	7287	7287	7287	7287	7287	0	0	0	0	0	0	0	0	0	0	4771	4771	4838	4771	4838	4838	4838	4838	0	0	0	0	0	0	0	0	0	0	4045	4045	4045	4045	0	0	0	0	0	0	0	0	0	0	0	0	0	0	0	3277	3309	3309	3309	3309	3341	3309	3309	3277	3277	3277	3246	3216	3186	3186	3186	3186	3186	3186	3157	3157	3157	3157	3129	3129	3101	3073	3073	3046	3073	3073	3046	3046	3019	3019	3019	2993	2993	2967	2967	2942	2942	2942	2942	2917	2893	2893	2869	2869	2845	2845	2822	2799	2799	2799	2777	2777	2754	2754	2733	2733	2711	2690	2669	2669	2649	2649	2629	2629	2629	2629	2609	2609	2589	2570	2570	2570	2570	2570	0	0	0	0	0	0	0	0	0	0	0	0	0	0	0	0	0	0	0	0	0	0	0	0	0	0	0	0	0	0	0	0	0	0	0	0
0	0	0	0	0	0	0	0	0	0	0	0	0	0	0	0	0	0	0	0	0	0	0	0	0	0	0	0	0	0	0	0	0	0	0	0	0	0	0	0	0	0	0	0	0	0	0	0	0	0	0	0	0	0	0	0	0	0	0	0	0	0	0	0	0	0	0	0	0	0	0	0	0	0	0	0	0	0	0	0	0	0	0	0	0	0	0	4350	4296	4350	4350	4350	4406	4406	4350	4350	4350	4350	4350	4350	4296	4296	4296	4296	4296	4350	4463	4406	4406	4406	4406	4463	4463	4406	4406	4406	4521	4521	4521	4521	4581	4581	4643	4643	4838	4977	5050	5050	5125	5125	5125	5125	5125	5125	5125	5125	5125	5202	5202	5202	5202	5202	5202	5202	5202	5202	5202	5202	5202	5202	5202	5202	5202	5125	5202	5125	5125	5125	0	0	0	0	0	0	0	0	0	0	5815	5815	5915	5915	6018	6018	6235	6349	6349	6468	6592	6468	6468	6349	6349	6349	6349	6349	6349	6235	6235	6235	6349	6349	6235	6349	6235	6235	6235	6349	6468	6468	6349	6468	6468	0	0	0	0	0	0	0	0	0	0	0	0	0	0	0	0	0	0	0	0	0	0	0	0	0	0	0	0	6468	6349	6349	6349	0	0	0	0	0	0	0	0	0	0	0	0	0	0	0	3019	3019	3019	2993	3019	3019	2993	2993	2993	2993	2993	2993	2993	2993	3019	3019	2993	2993	2993	2993	2993	2993	2993	2967	2967	2967	2967	2967	2967	2967	2967	2967	2967	2967	2967	2967	2967	2967	2967	2967	2967	2967	2967	2967	2967	2967	2967	2967	2967	2967	2967	2967	2967	2967	2967	2967	2967	2967	2967	2967	2967	2993	2993	2993	3019	3019	3019	3019	3019	2993	3019	3019	3019	3046	3046	3046	3046	3046	3046	3046	3046	3046	3046	3046	3046	3073	3073	3073	0	0	0	0	0	7137	7287	7287	0	0	0	0	0	0	0	0	0	0	0	0	0	0	0	0	0	0	0	6853	6992	6853	6992	6992	7137	7137	7137	7137	7137	7137	7137	7287	7287	7287	7287	7287	7287	7287	7287	7287	7287	7287	7287	7287	7287	7444	7444	8550	8550	8767	8767	8767	8767	8767	8767	8995	9235	9235	9235	9235	9235	9235	9235	8995	8995	8995	8995	8995	8995	8995	8995	8995	8995	8995	8995	8995	8995	8995	8995	8995	8995	8995	8767	8767	8995	8995	8995	8995	8995	9235	8995	9235	9235	9235	9235	8995	8995	8995	8995	8995	8767	8995	8767	8995	8995	8995	8995	8995	8995	8995	8995	8995	8995	0	0	0	7137	7137	7137	7137	7137	7137	7287	7287	7287	7287	7137	7287	7287	7287	7287	0	0	0	0	0	0	0	0	0	0	4838	4906	4838	4838	4838	4906	4838	4838	4906	4977	4977	0	0	0	0	0	0	0	0	4045	4045	4045	4045	4045	0	0	0	0	0	0	0	0	0	0	0	0	0	0	3277	3309	3406	3309	3309	3341	3341	3309	3309	3277	3277	3277	3246	3216	3186	3186	3186	3186	3186	3157	3157	3157	3157	3129	3129	3101	3073	3073	3046	3073	3073	3046	3019	3019	2993	2993	2993	2967	2967	2967	2967	2967	2942	2942	2917	2893	2893	2869	2869	2845	2845	2822	2799	2799	2777	2777	2754	2754	2733	2733	2711	2690	2690	2669	2669	2669	2649	2629	2629	2629	2629	2609	2609	2589	2589	2570	2570	2551	2551	0	0	0	0	0	0	0	0	0	0	0	0	0	0	0	0	0	0	0	0	0	0	0	0	0	0	0	0	0	0	0	0	0	0	0	0
0	0	0	0	0	0	0	0	0	0	0	0	0	0	0	0	0	0	0	0	0	0	0	0	0	0	0	0	0	0	0	0	0	0	0	0	0	0	0	0	0	0	0	0	0	0	0	0	0	0	0	0	0	0	0	0	0	0	0	0	0	0	0	0	0	0	0	0	0	0	0	0	0	0	0	0	0	0	0	0	0	0	0	0	0	0	0	4350	4350	4350	4350	4350	4406	4350	4350	4406	4350	4350	4350	4350	4296	4296	4296	4296	4296	4350	4406	4406	4406	4406	4406	4463	4463	4406	4406	4406	4521	4521	4521	4521	4643	4581	4643	4643	4838	4906	4977	5050	5050	5050	5125	5125	5125	5125	5125	5125	5202	5202	5202	5202	5202	5202	5202	5202	5202	5202	5202	5202	5202	5202	5202	5202	5125	5125	5202	5202	5202	5202	0	0	0	0	0	0	0	0	0	0	5815	5719	5815	5915	6018	6124	6235	6349	6349	6468	6592	6468	6468	6349	6349	6349	6349	6349	6349	6235	6235	6235	6235	6235	6235	6235	6235	6235	6235	6349	6468	6468	6468	6468	6468	0	0	0	0	0	0	0	0	0	0	6720	6720	0	0	0	0	0	0	0	0	0	0	0	0	0	0	0	0	6468	6468	6468	6349	0	0	0	0	0	0	0	0	0	0	0	0	0	0	0	0	3019	3019	2993	3019	3019	2993	2993	2967	2967	2993	2993	2993	2993	3019	3019	3019	2993	2993	2967	2967	2967	2967	2967	2967	2967	2967	2967	2967	2967	2967	2967	2967	2967	2967	2967	2967	2967	2967	2967	2967	2967	2967	2967	2967	2967	2967	2967	2967	2967	2967	2967	2967	2967	2967	2967	2967	2967	2967	2967	2967	2993	2993	2993	3019	3019	3019	3019	3019	3019	3019	3019	3019	3046	3046	3046	3046	3046	3046	3046	3073	3046	3046	3046	3046	3046	3073	3073	0	0	0	7137	7137	7137	7287	7287	7287	0	0	0	0	0	0	0	0	0	0	0	0	0	0	0	0	0	0	6853	6992	6992	6992	6992	7137	7137	7137	7137	7137	7137	7137	7287	7287	7287	7287	7287	7287	7287	7287	7287	7287	7287	7287	7444	7287	7287	7287	7287	8767	8767	8995	8995	8767	8767	8995	8995	9235	9235	9235	9235	9235	9235	9235	8995	8995	8995	8995	8995	8995	8995	8995	8995	8995	8995	8995	8995	8995	8995	8995	8995	8995	8995	8995	8995	8995	8995	8995	8995	8995	9235	9489	9489	9235	9235	9235	9235	8995	8995	8995	8995	8767	8767	8995	8995	8995	8995	8995	8995	8995	8995	8995	8995	8995	0	0	0	6853	7137	7287	7287	7137	7137	7137	7287	7287	7287	7137	7287	7287	7287	7287	0	0	0	0	0	4977	4906	4906	4838	4838	4906	4906	4838	4838	4838	4906	4838	4838	4906	4906	4906	0	0	0	0	0	0	0	0	4045	4045	4045	4045	3998	3998	0	0	0	0	0	0	0	0	0	0	0	0	0	0	0	3406	3341	3309	3309	3309	3309	3309	3277	3277	3246	3246	3216	3186	3186	3186	3186	3157	3157	3157	3157	3157	3157	3129	3101	3101	3073	3073	3073	3073	3046	3019	3019	2993	2993	2993	2967	2967	2967	2967	2967	2967	2967	2942	2893	2893	2869	2869	2845	2822	2822	2799	2799	2799	2777	2754	2733	2733	2711	2711	2690	2690	2669	2669	2649	2649	2629	2629	2629	2629	2609	2609	2589	2570	2570	2570	2551	2551	0	0	0	0	0	0	0	0	0	0	0	0	0	0	0	0	0	0	0	0	0	0	0	0	0	0	0	0	0	0	0	0	0	0	0	0
0	0	0	0	0	0	0	0	0	0	0	0	0	0	0	0	0	0	0	0	0	0	0	0	0	0	0	0	0	0	0	0	0	0	0	0	0	0	0	0	0	0	0	0	0	0	0	0	0	0	0	0	0	0	0	0	0	0	0	0	0	0	0	0	0	0	0	0	0	0	0	0	0	0	0	0	0	0	0	0	0	0	0	0	0	0	4406	4350	4350	4350	4350	4350	4406	4350	4406	4406	4406	4350	4350	4350	4350	4350	4296	4296	4296	4350	4406	4350	4406	4406	4406	4463	4463	4406	4406	4463	4521	4521	4521	4521	4643	4643	4643	4643	4643	4906	4977	5050	5050	5125	5125	5125	5125	5125	5125	5125	5202	5202	5202	5202	5202	5202	5202	5202	5202	5202	5202	5202	5202	5202	5202	5202	5202	5125	5202	5202	5202	5202	0	0	0	0	0	0	0	0	0	0	5815	5626	5915	6018	6124	6124	6235	6468	6468	6468	6468	6468	6468	6349	6349	6349	6349	6349	6235	6235	6235	6235	6235	6235	6235	6235	6235	6235	6235	6349	6468	6468	6468	6468	6468	0	0	0	0	0	0	0	0	6720	6720	6853	6720	6720	6720	6720	0	0	0	0	0	0	0	0	6853	6992	6992	6992	6992	6992	6592	6592	0	0	0	0	0	0	0	0	0	0	0	0	0	0	0	0	0	3019	3019	3019	3019	3019	2993	2993	2993	2967	2993	2993	2993	2993	3019	3019	3019	2993	2993	2967	2967	2967	2967	2967	2967	2967	2967	2967	2967	2967	2967	2967	2967	2967	2967	2967	2967	2967	2967	2967	2967	2967	2967	2967	2967	2967	2967	2967	2967	2967	2967	2967	2967	2967	2967	2967	2967	2967	2967	2967	2967	2993	2993	2993	3019	3019	3019	2993	2993	2993	2993	2993	3019	3019	3046	3046	3073	3073	3073	3073	3073	3073	3046	3046	3046	3046	3046	3046	0	0	7287	7137	7137	7137	7137	7137	7137	0	0	0	0	0	0	0	0	0	0	0	0	0	0	0	0	0	0	6853	6992	6992	6992	7137	7137	7137	7137	7137	7137	7137	7137	7137	7287	7137	7287	7287	7137	7287	7287	7287	7287	7287	7287	7444	7287	7287	7287	7287	8767	8767	8995	8995	8767	8767	8995	9235	9235	9235	9235	9235	9235	9235	9235	8995	8995	8995	8995	8995	8995	8995	8995	8995	8995	8995	8995	8995	8995	8995	8995	8995	8995	8995	8995	8995	8995	8995	8995	8995	8995	9235	9235	9235	9235	9235	9235	9235	8995	8995	8995	8995	8995	8995	8995	9235	9235	9235	8995	8995	8995	8995	8995	8767	8767	8767	0	0	6992	6992	6992	7287	7287	7137	7137	7287	7287	7287	7137	7287	7287	7287	0	0	0	0	0	0	4906	4906	4906	4838	4838	4838	4838	4838	4838	4838	4838	4838	4838	4906	4906	4906	4906	0	0	4045	4045	4045	4045	4045	4093	4045	4045	4045	4045	4045	4045	0	0	0	0	0	0	0	0	0	0	0	0	0	0	3406	3341	3309	3309	3309	3309	3309	3277	3277	3277	3246	3246	3216	3186	3186	3186	3186	3186	3157	3157	3157	3129	3129	3101	3101	3101	3073	3101	3073	3046	3019	3019	2993	2993	2993	2967	2967	2967	2967	2942	2967	2967	2917	2893	2893	2869	2869	2845	2845	2822	2822	2799	2799	2799	2777	2754	2733	2711	2711	2690	2690	2669	2649	2649	2649	2629	2629	2629	2629	2609	2609	2589	2589	2570	2570	2551	2551	0	0	0	0	0	0	0	0	0	0	0	0	0	0	0	0	0	0	0	0	0	0	0	0	0	0	0	0	0	0	0	0	0	0	0	0
0	0	0	0	0	0	0	0	0	0	0	0	0	0	0	0	0	0	0	0	0	0	0	0	0	0	0	0	0	0	0	0	0	0	0	0	0	0	0	0	0	0	0	0	0	0	0	0	0	0	0	0	0	0	0	0	0	0	0	0	0	0	0	0	0	0	0	0	0	0	0	0	0	0	0	0	0	0	0	0	0	0	0	0	0	0	4406	4350	4350	4350	4350	4350	4406	4350	4406	4406	4406	4406	4350	4350	4350	4350	4296	4296	4296	4296	4350	4350	4406	4406	4406	4463	4463	4406	4463	4463	4521	4521	4521	4521	4521	4581	4581	4643	4706	4706	4977	5050	5050	5125	5202	5202	5125	5125	5125	5125	5202	5202	5202	5202	5202	5202	5202	5202	5202	5202	5202	5202	5202	5202	5202	5202	5202	5202	5202	5202	5202	0	0	0	0	0	0	0	0	0	0	0	5626	5535	5626	5626	6235	6235	6235	6235	6468	6468	6468	6349	6349	6349	6349	6349	6349	6349	6349	6349	6235	6349	6235	6235	6235	6235	6235	6235	6235	6349	6349	6468	6468	6468	6468	6468	0	0	0	0	0	0	6853	6720	6720	6853	6853	6853	6853	6853	0	0	0	0	0	0	0	6992	6992	6992	6992	6992	6992	6992	6992	6992	6992	0	0	0	0	0	0	0	0	6992	6992	0	0	0	0	0	0	3019	3019	2993	3019	3019	2993	2993	2967	2967	2993	2993	2993	2993	2993	2993	2993	2993	2967	2967	2967	2967	2967	2967	2967	2967	2967	2967	2967	2967	2967	2967	2967	2967	2993	2967	2967	2967	2967	2967	2967	2967	2967	2967	2967	2967	2967	2967	2967	2967	2967	2967	2967	2967	2967	2967	2967	2967	2967	2967	2967	2967	2967	2967	2993	2993	2993	2993	2993	2993	2993	3019	3019	3046	3046	3046	3073	3073	3073	3073	3073	3073	3073	3073	3046	3046	3046	3046	0	7287	7287	7287	7137	7137	7137	7137	7137	0	0	0	0	0	0	0	7137	7137	0	0	0	0	0	0	0	0	0	6853	6992	6992	7137	7137	7137	7137	7137	7137	7137	7287	7137	7287	7287	7137	7287	7287	7287	7287	7287	7287	7287	7287	7287	7444	7137	7137	7137	8995	8995	8995	8995	8995	8995	8995	8995	9235	9235	9235	9235	9235	9235	9235	9235	9235	8995	9235	8995	8995	8995	8995	8995	8995	8995	8995	9235	9235	9235	9235	8995	8995	9235	9235	8995	8995	8995	8995	8995	8995	8995	9235	9235	9235	9235	9235	9235	9235	9235	8995	8995	8995	8995	8995	8995	8995	9235	8995	8995	8995	8995	8995	8995	8995	8767	8767	0	0	7287	6992	6992	7287	7287	0	0	0	0	0	0	0	0	0	0	0	0	0	0	0	4906	4906	4906	4838	4838	4906	4838	4838	4771	4771	4838	4771	4771	4906	4906	4838	4838	0	0	4045	4045	4093	4045	4093	4093	4045	4045	4045	4045	4045	4045	4045	0	0	0	0	0	0	0	0	0	0	3440	3406	3440	3406	3309	3309	3309	3309	3309	3309	3277	3277	3277	3246	3246	3216	3186	3186	3186	3186	3157	3157	3157	3157	3129	3129	3101	3101	3101	3073	3101	3073	3046	3046	3019	2993	2993	2993	2967	2967	2967	2967	2967	2967	2967	2917	2893	2893	2869	2869	2845	2845	2822	2822	2799	2799	2799	2777	2754	2733	2733	2711	2690	2690	2669	2669	2649	2649	2629	2629	2629	2629	2609	2609	2589	2570	2551	2570	2551	2551	0	0	0	0	0	0	0	0	0	0	0	0	0	0	0	0	0	0	0	0	0	0	0	0	0	0	0	0	0	0	0	0	0	0	0	0
0	0	0	0	0	0	0	0	0	0	0	0	0	0	0	0	0	0	0	0	0	0	0	0	0	0	0	0	0	0	0	0	0	0	0	0	0	0	0	0	0	0	0	0	0	0	0	0	0	0	0	0	0	0	0	0	0	0	0	0	0	0	0	0	0	0	0	0	0	0	0	0	0	0	0	0	0	0	0	0	0	0	0	0	0	4463	4406	4350	4350	4350	4350	4350	4350	4350	4406	4406	4406	4406	4406	4406	4350	4350	4350	4296	4296	4350	4350	4350	4350	4350	4350	4406	4406	4406	4406	4463	4521	4521	4521	4521	4581	4581	4643	4706	4706	4977	4977	5050	5125	5125	5202	5202	5125	5125	5125	5125	5202	5202	5202	5202	5202	5202	5202	5202	5202	5202	5202	5202	5202	5202	5202	5202	5202	5202	5202	5202	5202	0	0	0	0	0	0	0	0	0	0	0	5719	5815	5815	5815	6235	6235	6235	6349	6349	6468	6349	6349	6349	6349	6349	6349	6349	6349	6349	6349	6235	6349	6235	6235	6235	6235	6235	6235	6235	6349	6349	6468	6468	6468	6468	6468	0	0	0	0	0	0	6853	6720	6720	6853	6720	6853	6853	6853	6853	0	0	0	0	0	0	7137	7137	6992	6992	6992	6992	6992	6992	6992	6992	6992	6853	6853	6992	6992	0	6992	6992	6992	6853	6853	6853	0	0	0	0	0	3019	2993	3019	3019	2993	2993	2967	2967	2993	2993	2993	2967	2993	2993	2993	2967	2967	2967	2967	2967	2942	2967	2942	2942	2967	2967	2967	2967	2967	2967	2967	2967	2967	2967	2967	2967	2967	2967	2967	2967	2967	2967	2967	2967	2967	2967	2967	2967	2967	2967	2967	2967	2967	2967	2967	2967	2967	2967	2967	2967	2967	2967	2967	2993	2993	2993	2993	3019	3019	3019	3019	3046	3073	3073	3073	3073	3073	3073	3101	3073	3101	3073	3046	3046	3046	0	0	7287	7287	7287	7137	7137	7137	7137	7137	7137	7137	7137	7137	7137	6992	7137	6992	6992	6992	0	0	0	0	0	0	0	0	0	6992	6992	7137	7137	7137	7137	7137	7137	7137	7287	7137	7287	7287	7287	7287	7287	7287	7287	7287	7287	7287	7287	7287	7287	7137	7137	7137	8995	8995	8995	8995	8995	8995	8995	9235	9489	9235	9489	9489	9489	9489	9235	9235	9235	9235	9235	8995	9235	9235	9235	8995	8995	8995	8995	9235	9235	9235	9235	9235	9235	9235	8995	8995	8995	8995	8995	8995	8995	9235	9235	9235	9235	9235	9235	9235	9235	9235	9235	9235	9235	9235	9235	9235	9235	9235	9235	9235	9235	8995	8995	8995	8767	8767	8767	0	0	7287	7287	0	0	0	0	0	0	0	0	0	0	5202	5202	5202	0	0	0	0	0	4906	4906	4906	4906	4838	4906	4838	4838	4771	4771	4838	4771	4771	4838	4838	4838	4838	0	4045	4045	4045	4045	4045	4045	4045	4045	4045	4045	4045	4045	4093	4093	0	0	0	0	0	0	0	0	0	0	3440	3440	3440	3406	3341	3341	3309	3309	3309	3309	3309	3277	3277	3277	3246	3246	3186	3216	3216	3186	3157	3157	3157	3129	3129	3129	3101	3101	3101	3073	3073	3073	3046	3046	3019	3019	2993	2993	2967	2967	2967	2967	2942	2967	2967	2917	2893	2893	2869	2869	2869	2845	2845	2822	2822	2799	2799	2777	2754	2754	2733	2711	2690	2669	2669	2649	2649	2629	2629	2629	2629	2609	2609	2609	2589	2570	2570	2570	2551	2551	0	0	0	0	0	0	0	0	0	0	0	0	0	0	0	0	0	0	0	0	0	0	0	0	0	0	0	0	0	0	0	0	0	0	0	0
0	0	0	0	0	0	0	0	0	0	0	0	0	0	0	0	0	0	0	0	0	0	0	0	0	0	0	0	0	0	0	0	0	0	0	0	0	0	0	0	0	0	0	0	0	0	0	0	0	0	0	0	0	0	0	0	0	0	0	0	0	0	0	0	0	0	0	0	0	0	0	0	0	0	0	0	0	0	0	0	0	0	0	0	0	4406	4406	4350	4350	4350	4350	4350	4350	4350	4406	4406	4406	4406	4406	4350	4350	4350	4350	4350	4350	4350	4350	4350	4350	4350	4350	4406	4406	4463	4463	4463	4521	4521	4521	4521	4581	4643	4643	4706	4706	4906	5050	5050	5125	5125	5125	5125	5125	5125	5125	5125	5202	5202	5202	5202	5202	5202	5202	5202	5202	5202	5202	5202	5202	5282	5282	5282	5202	5202	5202	5202	5202	5202	0	0	0	0	0	0	0	5535	5535	5535	5719	5719	5815	5915	5915	6124	6235	6349	6349	6349	6349	6235	6235	6235	6235	6235	6349	6235	6235	6349	6349	6349	6235	6235	6235	6235	6235	6235	6235	6349	6468	6468	6468	6468	6468	6468	0	0	0	0	0	6853	6853	6720	6853	6853	6853	6853	6992	6853	6992	6992	6992	6992	6992	6992	6992	7137	7137	6992	6992	6992	6992	6992	6992	6853	6992	6853	6853	6853	6992	6992	0	6992	6992	6992	6853	6853	6853	0	0	0	0	0	2993	2993	3019	3019	2993	2993	2993	2993	2993	2993	2993	2993	2993	2993	2967	2967	2967	2967	2967	2967	2967	2967	2967	2967	2967	2967	2967	2967	2967	2967	2967	2967	2967	2967	2967	2967	2967	2967	2967	2967	2967	2967	2967	2967	2942	2967	2942	2942	2942	2967	2967	2967	2967	2967	2967	2967	2967	2967	2967	2942	2942	2942	2967	2993	2993	2993	2993	3019	2993	2993	2993	3046	3046	3046	3046	3073	3101	3101	3101	3101	3101	3101	3073	3073	3073	0	0	7287	7287	7287	7137	7137	7137	7137	7137	7137	7137	7137	7137	6992	7137	6992	6992	6992	6992	0	0	0	0	0	0	0	0	0	7137	7137	7137	7137	7137	7137	7137	7137	7137	7287	7287	7287	7287	7287	7287	7287	7287	7287	7287	7287	7287	7287	7287	7287	7137	7137	7137	8995	8995	8995	9235	9235	9235	9235	9235	9489	9235	9489	9235	9235	9235	9235	9235	9235	9235	9235	9235	9235	9235	8995	8767	9235	8995	8995	9235	8995	9235	9235	9235	9235	9235	9235	9235	9235	9235	9235	9235	8995	8995	9235	9235	9235	9235	9235	9235	9235	9235	9235	9235	9235	9235	9235	9235	9489	9235	9235	9235	9235	8995	8995	8550	8767	8767	8767	0	0	0	0	0	0	0	0	0	0	0	0	0	5202	5202	5202	5202	5125	5125	0	0	0	4906	4906	4906	4906	4906	4906	4838	4838	4771	4771	4771	4771	4771	4771	4838	4838	4838	4093	4045	4045	4045	4045	4045	4045	4045	4045	4045	4045	4045	4093	4093	4093	0	0	0	0	0	0	0	0	0	3440	3440	3406	3406	3406	3341	3341	3309	3309	3309	3309	3277	3277	3277	3277	3246	3246	3246	3216	3186	3186	3157	3157	3157	3157	3129	3129	3129	3101	3101	3073	3101	3073	3046	3046	3019	2993	2993	2967	2967	2967	2967	2967	2942	2967	2917	2917	2893	2893	2869	2869	2869	2845	2845	2822	2799	2799	2777	2777	2754	2733	2733	2711	2690	2690	2669	2649	2649	2629	2629	2609	2629	2609	2609	2609	2589	2589	2570	2570	2551	2551	0	0	0	0	0	0	0	0	0	0	0	0	0	0	0	0	0	0	0	0	0	0	0	0	0	0	0	0	0	0	0	0	0	0	0	0
0	0	0	0	0	0	0	0	0	0	0	0	0	0	0	0	0	0	0	0	0	0	0	0	0	0	0	0	0	0	0	0	0	0	0	0	0	0	0	0	0	0	0	0	0	0	0	0	0	0	0	0	0	0	0	0	0	0	0	0	0	0	0	0	0	0	0	0	0	0	0	0	0	0	0	0	0	0	0	0	0	0	0	0	0	4406	4406	4350	4350	4350	4350	4350	4350	4350	4350	4406	4406	4406	4406	4406	4350	4350	4350	4350	4350	4350	4350	4350	4350	4350	4350	4350	4406	4406	4463	4463	4463	4521	4521	4521	4581	4643	4643	4771	4771	4838	4977	5050	5050	5125	5125	5125	5125	5125	5125	5125	5202	5202	5202	5202	5202	5202	5202	5202	5202	5202	5202	5202	5202	5202	5202	5202	5202	5282	5202	5202	5202	5202	0	0	0	0	0	0	0	5535	5535	5535	5719	5626	5719	5815	5915	6018	6124	6235	6235	6349	6349	6349	6235	6349	6235	6349	6349	6349	6349	6349	6349	6349	6235	6235	6235	6235	6235	6235	6235	6349	6468	6468	6468	6468	6468	6592	6720	6592	6853	6853	6853	6853	6853	6853	6853	6853	6720	6720	6853	6853	6992	6992	6992	6992	6992	6992	7137	7137	7137	6992	7137	6992	6992	6992	6992	6992	6992	6992	6853	6853	6992	6992	6992	6992	6992	6992	6853	6853	0	0	0	0	0	0	2993	2993	3019	3019	3019	2993	2993	2993	2993	2993	2993	2993	2967	2993	2967	2967	2967	2967	2967	2967	2967	2967	2967	2967	2967	2967	2967	2967	2967	2967	2967	2967	2993	2967	2967	2967	2967	2967	2967	2967	2967	2967	2967	2967	2942	2942	2942	2942	2942	2967	2967	2967	2942	2942	2942	2942	2967	2942	2942	2942	2942	2942	2993	2993	2993	2993	2993	3019	2993	2993	2993	3046	3073	3046	3073	3101	3101	3101	3101	3101	3073	3101	3101	3101	3073	7287	7287	7287	7287	7287	7137	7137	7137	7137	7137	7137	6992	6992	6992	6992	6992	6992	6992	6992	6992	0	0	0	0	0	0	0	0	7137	7137	7137	7137	7137	7137	7137	7137	7137	7137	7287	7287	7287	7287	7287	7287	7287	7287	7287	7287	7287	7287	7444	7444	7444	7287	7287	0	8995	8995	8995	9235	9235	9235	9235	9235	9489	9235	9489	9235	9235	9235	9235	9235	9235	9235	9235	8995	9235	9235	8995	8767	9235	9235	9235	8995	8995	8995	8995	8995	8995	8995	8995	9235	9235	9235	9235	9235	9235	9235	8995	9235	9235	9235	9235	9235	9235	9235	9235	9235	9235	9235	9235	9235	9235	9235	9235	9235	9235	9235	9235	8550	8767	8767	0	0	0	0	0	0	0	0	0	0	0	0	0	0	5202	5202	5202	5202	5202	4977	4906	4906	4838	4906	4906	4906	4906	4906	4838	4838	4838	4771	4771	4771	4706	4706	4706	4706	4706	0	4093	4045	4045	4045	4045	4045	4045	4045	4045	4045	4045	4045	4045	4093	4093	0	0	0	0	0	0	0	0	3440	3475	3440	3440	3373	3373	3341	3341	3309	3309	3309	3309	3309	3277	3277	3277	3246	3246	3186	3216	3186	3186	3157	3157	3157	3129	3129	3129	3101	3101	3101	3073	3101	3073	3046	3019	3019	2993	2993	2967	2967	2967	2967	2967	2942	2917	2917	2917	2893	2869	2869	2845	2845	2845	2845	2822	2799	2799	2777	2777	2754	2733	2733	2711	2711	2690	2669	2669	2649	2649	2629	2609	2609	2609	2609	2609	2589	2589	2570	2570	2551	2551	0	0	0	0	0	0	0	0	0	0	0	0	0	0	0	0	0	0	0	0	0	0	0	0	0	0	0	0	0	0	0	0	0	0	0	0
0	0	0	0	0	0	0	0	0	0	0	0	0	0	0	0	0	0	0	0	0	0	0	0	0	0	0	0	0	0	0	0	0	0	0	0	0	0	0	0	0	0	0	0	0	0	0	0	0	0	0	0	0	0	0	0	0	0	0	0	0	0	0	0	0	0	0	0	0	0	0	0	0	0	0	0	0	0	0	0	0	0	0	0	0	4406	4406	4350	4350	4350	4350	4350	4350	4350	4406	4406	4406	4406	4406	4406	4350	4350	4350	4350	4350	4350	4350	4350	4350	4350	4350	4350	4350	4406	4463	4463	4521	4521	4521	4521	4581	4581	4643	4771	4771	4838	4977	5050	5050	5125	5125	5125	5125	5125	5125	5125	5202	5202	5202	5202	5202	5202	5202	5202	5202	5202	5202	5202	5202	5202	5202	5202	5202	5202	5202	5282	5282	5282	5364	5364	0	0	0	0	0	5535	5535	5535	5719	5626	5719	5719	5815	6018	6018	6124	6235	6235	6349	6349	6349	6349	6349	6349	6349	6349	6349	6349	6349	6349	6235	6235	6235	6349	6349	6235	6349	6349	6468	6468	6468	6468	6468	6592	6592	6592	6592	6853	6853	6853	6853	6853	6853	6853	6853	6853	6853	6853	6853	6992	6992	6992	6992	6992	7137	7137	7137	6992	6992	6992	6992	6992	6992	6992	6992	6992	6853	6853	6853	6853	6853	6853	6992	6992	6853	6853	6992	6992	0	0	0	0	0	2993	3046	3046	3046	2993	2993	2993	2993	2993	2993	2967	2967	2967	2967	2967	2967	2967	2967	2967	2967	2967	2967	2967	2967	2967	2967	2967	2967	2967	2967	2993	2993	2993	2967	2967	2967	2967	2967	2967	2967	2967	2967	2967	2942	2967	2942	2942	2942	2942	2942	2967	2942	2942	2942	2942	2942	2917	2917	2942	2942	2942	2993	2993	2993	2993	2993	2993	2993	2993	2993	3046	3073	3073	3073	3101	3101	3101	3101	3101	3073	3101	3101	3101	7444	7287	7287	7287	7287	7287	7287	7287	7137	7137	7137	7137	6992	6992	6992	6992	6992	6992	6992	6992	6992	7137	7137	7137	0	0	0	0	0	7137	7137	7137	7137	7137	7137	7137	7137	7287	7137	7287	7287	7287	7287	7287	7287	7287	7287	7444	7287	7444	7287	7444	7444	7444	7444	7287	7287	8995	8995	9235	9235	9235	9235	9235	9235	9489	9235	9235	9489	9489	9235	9235	9235	9235	8995	8995	8995	9235	9235	8995	8995	9235	9235	9235	9235	9235	9235	9235	8995	8995	9235	8995	9235	9235	9235	9235	9235	9235	8995	8995	9235	9235	9235	9235	9235	9235	9235	9235	9235	9235	9235	9235	9235	9235	9235	8995	8995	9235	9235	9235	0	0	0	0	0	0	0	0	5282	5282	5282	5282	5282	0	0	0	0	5202	5202	5125	5125	5125	4977	4906	4838	4838	4838	4838	4838	4838	4838	4771	4771	4771	4706	4706	4706	4643	4643	4706	4706	4706	4093	4093	4093	4045	4045	4045	4045	4045	4045	4045	4045	4045	4045	4045	0	0	0	0	0	0	0	0	0	3440	3440	3440	3440	3406	3373	3373	3373	3341	3341	3309	3309	3309	3309	3277	3277	3277	3246	3246	3246	3216	3186	3186	3157	3157	3157	3129	3129	3129	3129	3101	3129	3101	3073	3073	3073	3046	3019	3019	2993	2993	2967	2967	2967	2942	2942	2893	2893	2893	2893	2869	2869	2869	2845	2845	2845	2822	2799	2799	2777	2777	2754	2733	2733	2711	2711	2690	2690	2669	2669	2649	2629	2629	2609	2609	2609	2609	2609	2609	2589	2589	2570	2570	0	0	0	0	0	0	0	0	0	0	0	0	0	0	0	0	0	0	0	0	0	0	0	0	0	0	0	0	0	0	0	0	0	0	0	0
0	0	0	0	0	0	0	0	0	0	0	0	0	0	0	0	0	0	0	0	0	0	0	0	0	0	0	0	0	0	0	0	0	0	0	0	0	0	0	0	0	0	0	0	0	0	0	0	0	0	0	0	0	0	0	0	0	0	0	0	0	0	0	0	0	0	0	0	0	0	0	0	0	0	0	0	0	0	0	0	0	0	0	0	0	4406	4350	4350	4350	4350	4350	4350	4350	4350	4406	4406	4406	4406	4406	4406	4406	4406	4406	4406	4350	4350	4350	4350	4350	4350	4350	4350	4350	4406	4463	4463	4463	4521	4521	4521	4581	4581	0	0	0	0	5050	5050	5050	5125	5125	5125	5125	5125	5125	5125	5202	5202	5202	5202	5202	5202	5202	5202	5202	5202	5202	5202	5202	5202	5202	5202	5202	5202	5202	5202	5202	5282	5282	5364	0	0	0	0	0	0	5626	5719	5719	5719	5719	5719	5915	6018	6124	6124	6235	6349	6349	6235	6235	6349	6349	6349	6349	6349	6349	6349	6349	6349	6349	6235	6349	6349	6349	6235	6235	6349	6468	6468	6468	6468	6468	6468	6468	6468	6468	6992	6992	6992	6853	6853	6853	6853	6720	6720	6720	6720	6720	6853	6853	6992	6992	6992	7137	7137	7137	6992	6992	6853	6853	6853	6853	6853	6853	6853	6720	6720	6720	6720	6720	6992	6992	7137	6992	6992	6992	6992	0	0	0	0	0	2993	3046	3046	3046	3019	2993	2993	2993	2993	2993	2967	2967	2967	2967	2967	2942	2942	2942	2942	2942	2967	2967	2967	2967	2967	2967	2993	2967	2967	2967	2993	2993	2993	2967	2967	2993	2967	2967	2967	2967	2967	2967	2967	2942	2942	2942	2942	2942	2942	2942	2942	2942	2942	2942	2917	2942	2917	2917	2942	2942	2942	2967	2993	2993	2993	2993	3019	3019	3019	3019	3019	3073	3073	3073	3101	3101	3129	3129	3101	3073	3073	3101	7444	7444	7287	7287	7287	7287	7287	7287	7287	7137	7137	7137	7137	6992	6992	6992	6992	6992	6992	6992	6992	7137	7137	7137	7137	0	0	0	0	0	7137	7137	7137	7137	7137	7287	7287	7287	7287	7287	7287	7287	7444	7444	7287	7287	7287	7287	7287	7287	7287	7287	7287	7444	7444	7444	7137	7137	8995	8995	9235	9235	9235	9235	9235	9235	9235	9235	9489	9235	9235	9235	9235	8995	8995	8995	8995	8995	9235	9235	8995	9235	9235	9235	9235	8995	8995	8995	8995	8995	8995	8995	8995	9235	9235	9235	9235	9235	9235	8995	8995	9235	9235	9235	9235	9235	9235	9235	9235	8995	8995	9235	9235	9235	9235	9235	8995	9235	9235	9235	9235	0	0	0	0	0	5282	5282	5282	5282	5282	5282	5282	5282	5282	5282	0	0	5202	5202	5125	4977	4906	4906	4838	4838	4771	4771	4838	4706	4643	4643	4643	4643	4643	4643	4643	4643	4643	4142	4142	0	0	4093	4093	4045	4045	4045	4045	4045	4045	3998	3998	3998	0	0	0	0	0	0	3440	3440	0	0	0	0	3440	3440	3440	3440	3406	3406	3373	3373	3341	3341	3309	3309	3309	3309	3309	3277	3277	3246	3246	3246	3216	3186	3186	3157	3157	3157	3129	3129	3129	3129	3101	3129	3073	3073	3073	3073	3046	3019	3019	2993	2993	2967	2967	2967	2942	2917	2893	2893	2893	2893	2893	2869	2869	2869	2845	2845	2822	2799	2777	2777	2754	2754	2733	2733	2711	2711	2690	2690	2669	2669	2649	2629	2609	2609	2609	2609	2609	2609	2609	2589	2589	2570	2570	0	0	0	0	0	0	0	0	0	0	0	0	0	0	0	0	0	0	0	0	0	0	0	0	0	0	0	0	0	0	0	0	0	0	0	0
0	0	0	0	0	0	0	0	0	0	0	0	0	0	0	0	0	0	0	0	0	0	0	0	0	0	0	0	0	0	0	0	0	0	0	0	0	0	0	0	0	0	0	0	0	0	0	0	0	0	0	0	0	0	0	0	0	0	0	0	0	0	0	0	0	0	0	0	0	0	0	0	0	0	0	0	0	0	0	0	0	0	0	0	0	0	4350	4350	4350	4350	4350	4350	4350	4350	4350	4350	4350	4406	4406	4406	4350	4406	4406	4406	4350	4350	4350	4350	4350	4350	4350	4350	4350	4406	4463	4463	4463	4521	4521	4521	0	0	0	0	0	0	5050	5050	5050	5125	5125	5125	5125	5125	5125	5202	5202	5202	5202	5202	5202	5202	5202	5202	5202	5202	5202	5202	5202	5202	5202	5202	5202	5202	5202	5202	5202	5202	5202	5202	0	0	0	0	5719	5815	5719	5815	5815	5815	5815	5719	5915	6018	6018	6018	6124	6235	6235	6235	6235	6235	6349	6349	6349	6349	6349	6349	6349	6349	6235	6235	6235	6349	6349	6235	6349	6349	6468	6468	6468	6349	6349	6349	6349	6349	6349	6349	6992	6992	6992	6992	6853	6853	6720	6720	6720	6720	6720	6853	6853	6853	6853	6992	6992	6992	6992	6853	6853	6853	6853	6853	6853	6853	6853	6853	6853	6853	6853	6853	6853	6992	6992	6992	6992	6992	6992	0	0	0	0	0	0	2993	3019	3046	3046	3019	3019	2993	2993	2993	2967	2967	2967	2967	2967	2967	2942	2967	2967	2967	2967	2967	2967	2967	2967	2967	2967	2967	2967	2967	2967	2967	2967	2967	2967	2967	2967	2967	2967	2967	2967	2967	2967	2942	2942	2942	2942	2942	2942	2942	2942	2942	2942	2942	2942	2917	2917	2917	2917	2917	2942	2942	2993	2993	2993	2993	3019	3019	3019	3046	3019	3019	3046	3073	3073	3101	3129	3129	3129	3101	3101	3101	0	7444	7444	7287	7287	7287	7287	7287	7287	7287	7137	7137	7137	7137	6992	6992	6992	6992	6992	6992	6992	7137	7137	7137	7137	7137	0	0	0	0	0	0	7137	7137	7137	7287	7287	7287	7287	7287	7287	7287	7287	7444	7444	7444	7287	7287	7287	7287	7287	7287	7287	7287	7444	7444	7287	7137	7137	7137	9235	9235	9235	9235	9235	9235	9235	9235	9235	9489	9489	9235	9235	9235	8995	8995	8995	8995	8995	9235	9235	9235	9235	9235	8995	8995	8995	8995	8995	8995	8995	8995	8995	8995	9235	9235	9235	8995	8995	8995	8995	8995	9235	9235	9235	9235	9235	9235	9235	9235	8995	9235	9235	8995	8995	8995	8995	8995	8995	9235	9235	9235	0	0	0	0	5364	5282	5282	5282	5282	5282	5282	5282	5202	5202	5202	5202	5202	5125	5125	5050	4906	4906	4906	4771	4771	4706	4706	4192	4192	4243	4243	4243	4243	4243	4192	4093	4093	4643	4142	4142	4142	4142	4093	4093	4045	4045	4045	4045	4045	4045	3998	3998	3998	0	0	0	0	0	3510	3510	3475	3510	3510	3510	3475	3440	3440	3440	3440	3440	3406	3406	3309	3341	3341	3309	3309	3309	3309	3309	3309	3277	3277	3246	3246	3216	3186	3186	3157	3157	3157	3129	3129	3129	3101	3101	3073	3046	3073	3073	3073	3019	3019	3019	2993	2993	2967	2967	2942	2942	2917	2893	2893	2893	2893	2869	2869	2869	2869	2845	2845	2845	2822	2777	2777	2777	2754	2733	2733	2711	2711	2690	2690	2669	2669	2649	2629	2609	2609	2609	2609	2609	2609	2609	2609	2589	2570	2570	0	0	0	0	0	0	0	0	0	0	0	0	0	0	0	0	0	0	0	0	0	0	0	0	0	0	0	0	0	0	0	0	0	0	0	0
0	0	0	0	0	0	0	0	0	0	0	0	0	0	0	0	0	0	0	0	0	0	0	0	0	0	0	0	0	0	0	0	0	0	0	0	0	0	0	0	0	0	0	0	0	0	0	0	0	0	0	0	0	0	0	0	0	0	0	0	0	0	0	0	0	0	0	0	0	0	0	0	0	0	0	0	0	0	0	0	0	0	0	0	0	0	0	4350	4350	4350	4350	4350	4350	4350	4350	4350	4406	4406	4406	4406	4406	4406	4406	4406	4350	4350	4350	4350	4350	4296	4296	4350	4350	4350	4406	4463	4463	4463	4521	0	0	0	0	0	0	0	5050	5050	5050	5125	5125	5050	5125	5125	5125	5125	5202	5202	5202	5202	5202	5202	5202	5202	5202	5202	5202	5202	5202	5202	5282	5202	5202	5202	5202	5202	5202	5202	5202	5202	0	0	0	0	5719	5815	5719	5815	5815	5815	5815	5815	5915	5915	6018	6124	6124	6235	6235	6235	6349	6349	6349	6349	6349	6349	6349	6349	6349	6349	6235	6235	6235	6235	6349	6235	6349	6349	6468	6468	6468	6349	6349	6349	6349	6349	6349	6349	6992	6992	6992	6992	6853	6853	6720	6720	6720	6720	6720	6853	6853	6853	6853	6853	6992	6992	6992	6720	6720	6720	6853	6853	6853	6853	6853	6853	6853	6853	6853	6853	6853	6992	6992	6992	6992	6992	6992	0	0	0	0	0	0	0	3046	3046	3046	3046	3019	2993	2993	2967	2967	2967	2967	2967	2967	2967	2942	2942	2967	2967	2967	2967	2967	2967	2967	2967	2967	2967	2967	2967	2967	2967	2967	2967	2967	2967	2967	2967	2967	2967	2967	2967	2967	2967	2967	2942	2942	2942	2942	2942	2942	2942	2942	2942	2942	2917	2917	2917	2917	2917	2942	2942	2993	2993	2993	2993	3019	3019	3019	3046	3046	3046	3073	3073	3101	3129	3129	3129	3129	3129	3129	3101	0	7444	7287	7287	7287	7287	7287	7444	7287	7287	7287	7287	7137	7137	6992	6992	6992	6992	6992	6992	7137	7137	7137	7137	0	0	0	0	0	0	0	0	7137	7137	7137	7287	7287	7287	7137	7287	7287	7287	7287	7444	7444	7444	7444	7444	7444	7444	7287	7287	7287	7287	7287	7287	7287	7137	6992	6992	9489	9489	9489	9489	9489	9489	9235	9489	9235	9489	9489	9235	9235	9235	8995	8995	8995	8995	8995	8995	8995	8995	9235	8995	8995	8995	8995	8995	8995	8995	8995	8995	8995	8995	9235	9235	8995	8995	8995	8995	8995	8995	8995	9235	9235	9235	9235	9235	9235	9235	9235	8995	8995	8995	8995	8995	8995	8995	8995	0	0	0	0	0	0	5282	5364	5282	5282	5282	5282	5282	5282	5202	5202	5202	5125	5125	5125	5050	5050	4977	4977	4771	4771	4771	4771	4771	4706	4192	4192	4243	4243	4243	4243	4243	4192	4093	4093	4192	4142	4142	4142	4142	4093	4142	4093	4093	4045	4045	4045	4045	0	0	0	0	0	0	0	0	3510	3510	3510	3510	3510	3510	3475	3440	3440	3440	3440	3440	3406	3406	3373	3341	3341	3341	3309	3309	3309	3309	3277	3277	3277	3277	3246	3216	3186	3186	3186	3157	3157	3129	3129	3129	3129	3101	3073	3046	3073	3046	3019	3019	3019	2993	2993	2967	2967	2967	2967	2942	2917	2893	2893	2893	2893	2893	2869	2869	2845	2845	2845	2822	2799	2777	2777	2754	2754	2733	2733	2711	2711	2690	2690	2690	2669	2649	2629	2629	2609	2609	2609	2609	2609	2609	2609	2589	2570	2570	0	0	0	0	0	0	0	0	0	0	0	0	0	0	0	0	0	0	0	0	0	0	0	0	0	0	0	0	0	0	0	0	0	0	0	0
0	0	0	0	0	0	0	0	0	0	0	0	0	0	0	0	0	0	0	0	0	0	0	0	0	0	0	0	0	0	0	0	0	0	0	0	0	0	0	0	0	0	0	0	0	0	0	0	0	0	0	0	0	0	0	0	0	0	0	0	0	0	0	0	0	0	0	0	0	0	0	0	0	0	0	0	0	0	0	0	0	0	0	0	0	0	0	4296	4350	4296	4296	4296	4350	4350	4350	4350	4350	4406	4406	4406	4350	4406	4406	4350	4350	4350	4350	4350	4350	4296	4296	4296	4296	4350	4406	4521	4521	4463	0	0	0	0	0	0	0	0	5050	5050	5050	5125	5050	5050	5125	5125	5125	5125	5202	5202	5202	5202	5202	5282	5282	5282	5282	5282	5282	5282	5202	5202	5202	5202	5202	5202	5282	5282	5282	5202	5282	5448	5448	0	0	0	0	0	0	6018	5915	5815	5815	5815	5915	5915	5915	6124	6124	6235	6235	6235	6235	6235	6235	6235	6349	6349	6349	6349	6349	6349	6349	6235	6235	6235	6349	6235	6235	6349	6468	6468	6468	6349	6349	6349	6349	6349	0	0	0	0	6853	6992	6853	6853	6853	6720	6720	6720	6720	6720	6720	6720	6720	6853	6853	6720	6720	6720	6720	6720	6720	6853	6853	6853	6992	6992	6853	6853	6853	6853	6853	6853	6853	6853	6853	6853	6853	6853	0	0	0	0	0	0	3046	3046	3046	3046	3019	3019	2993	2967	2967	2967	2967	2967	2967	2967	2967	2967	2967	2967	2967	2967	2967	2993	2967	2967	2967	2967	2942	2942	2942	2942	2967	2967	2967	2967	2967	2967	2967	2967	2967	2942	2967	2967	2967	2967	2942	2942	2942	2942	2942	2942	2942	2942	2917	2917	2917	2917	2917	2917	2917	2942	2993	2993	2993	2993	3019	3019	3019	3046	3046	3046	3073	3101	3101	3157	3186	3186	3157	3157	3129	0	7444	7287	7287	7287	7287	7287	7287	7287	7287	7287	7287	7287	7137	7137	7137	6992	6992	6992	7137	7137	7137	7137	7137	7137	0	0	0	0	0	0	0	0	7137	7137	7137	7287	7287	7287	7137	7287	7287	7287	7287	7444	7444	7444	7444	7444	7444	7444	7287	7287	7287	7287	7287	7287	7287	7137	7137	7137	9489	9489	9489	9489	9489	9489	9235	9235	9235	9235	9489	9235	9235	8995	8995	8995	8995	8995	8995	8995	8995	8995	8995	8995	8995	8995	8995	8995	8995	8995	8995	8995	8995	8995	8995	8995	8995	8995	8995	8995	8995	8995	9235	9235	9235	9235	9235	9235	8995	8995	8995	8995	8995	8995	8995	8995	9235	9235	9235	0	0	0	0	5448	5448	5448	5364	5282	5282	5282	5282	5282	5202	5202	5202	5202	5125	5125	5125	5125	4906	4838	4838	4771	4771	4838	4771	4771	4771	4243	4192	4192	4192	4192	4192	4192	4142	4093	4093	4093	4093	4093	4142	4093	4093	4093	4093	4093	4045	4045	4045	4045	0	0	0	0	0	0	0	0	3510	3546	3510	3510	3510	3510	3510	3475	3475	3475	3440	3440	3406	3406	3406	3341	3341	3341	3309	3309	3309	3309	3277	3277	3277	3246	3246	3216	3186	3186	3186	3157	3157	3129	3129	3129	3129	3129	3073	3019	3046	3046	3019	3019	2993	2993	2993	2967	2967	2967	2942	2917	2893	2893	2893	2893	2893	2869	2869	2869	2869	2845	2869	2845	2822	2777	2777	2754	2733	2733	2733	2711	2711	2690	2690	2690	2669	2669	2649	2629	2629	2629	2629	2609	2609	2609	2609	2589	2570	2570	0	0	0	0	0	0	0	0	0	0	0	0	0	0	0	0	0	0	0	0	0	0	0	0	0	0	0	0	0	0	0	0	0	0	0	0
0	0	0	0	0	0	0	0	0	0	0	0	0	0	0	0	0	0	0	0	0	0	0	0	0	0	0	0	0	0	0	0	0	0	0	0	0	0	0	0	0	0	0	0	0	0	0	0	0	0	0	0	0	0	0	0	0	0	0	0	0	0	0	0	0	0	0	0	0	0	0	0	0	0	0	0	0	0	0	0	0	0	0	0	0	0	0	4296	4350	4350	4350	4350	4350	4350	4350	4406	4406	4406	4406	4406	4350	4406	4350	4350	4350	4350	4350	4350	4350	4350	4350	4350	4350	4406	4463	4581	4581	4581	0	0	0	0	0	0	0	0	0	5050	5050	5050	5050	5050	5125	5125	5125	5125	5202	5202	5202	5202	5202	5202	5282	5282	5282	5282	5282	5202	5202	5202	5202	5202	5202	5202	5202	5282	5282	5125	5125	5448	5448	0	0	0	0	0	0	6018	5915	5915	5915	5915	5915	5915	5915	6124	6235	6235	6235	6235	6235	6235	6235	6235	6349	6235	6235	6235	6235	6235	6235	6235	6235	6349	6349	6349	6349	6468	6468	6468	6468	6349	6349	6349	6349	6349	0	0	0	0	6853	6992	6853	6853	6853	6853	6720	6720	6720	6720	6720	6853	6853	6853	6853	6720	6720	6720	6592	6720	6720	6853	6853	6853	6992	6853	6992	6992	6992	6853	6853	6992	6853	6992	6853	6853	6853	6853	0	0	0	0	0	0	3046	3046	3046	3046	3019	3019	3019	2993	2993	2967	2967	2967	2967	2967	2967	2967	2967	2967	2993	2993	2967	2967	2942	2942	2942	2942	2942	2942	2942	2967	2967	2967	2967	2967	2942	2967	2942	2942	2942	2942	2967	2967	2967	2967	2967	2942	2942	2942	2942	2942	2942	2917	2917	2917	2917	2917	2893	2893	2917	2942	2993	2993	2993	3019	3019	3019	3019	3046	3046	3073	3101	3101	3157	3186	3186	3186	3157	3157	7287	7287	7137	7137	7287	7287	7287	7287	7287	7444	7287	7287	7287	7137	7137	7137	7137	7137	7137	6992	7137	7137	0	0	0	0	0	0	0	0	0	0	0	0	7137	7137	7137	7137	7137	7287	7137	7137	7287	7287	7287	7444	7444	7444	7444	7444	7287	7287	7287	7287	7287	7287	7287	7287	7287	7287	7287	7287	9489	9489	9489	9489	9235	9235	9235	9235	9235	9235	8995	8995	9235	8995	8995	8995	8995	8995	8995	8995	8995	8995	8995	8995	8995	8995	8995	8995	8995	8995	8995	8995	8995	8995	8995	8995	8995	8995	8995	8995	8995	8995	9235	9235	9235	9235	9235	9235	8995	8995	8995	8767	8995	8995	8995	8995	9235	9235	9235	0	0	0	5448	5448	5364	5364	5364	5282	5282	5282	5282	5282	5282	5282	5202	5202	5202	5202	4906	4906	4906	4838	4838	4838	4838	4838	4838	4838	4771	4243	4243	4192	4192	4192	4142	4142	4142	4093	4045	4093	4045	4093	4093	4093	4142	4142	0	0	0	0	0	0	0	0	0	0	3583	3546	3546	3546	3546	3546	3546	3546	3546	3546	3510	3510	3475	3475	3440	3440	3406	3406	3406	3373	3341	3341	3309	3309	3309	3309	3277	3277	3277	3246	3246	3246	3216	3186	3186	3157	3157	3129	3129	3129	3129	3101	3129	3046	3019	3046	3019	3019	2993	2993	2993	2967	2967	2967	2942	2917	2893	2893	2893	2893	2893	2893	2893	2869	2869	2845	2869	2845	2799	2777	2777	2754	2733	2733	2711	2711	2711	2711	2690	2690	2669	2669	2649	2649	2629	2629	2629	2609	2609	2609	2609	2570	2570	2570	0	0	0	0	0	0	0	0	0	0	0	0	0	0	0	0	0	0	0	0	0	0	0	0	0	0	0	0	0	0	0	0	0	0	0	0
