0	0	0	0	0	0	0	925	930	927	930	932	935	935	937	942	950	953	955	958	958	958	963	966	966	977	977	983	983	985	985	988	991	994	997	1000	1003	1003	1011	1011	1020	1026	1033	1033	1036	1042	1045	1048	1052	1055	1055	1068	1071	1074	1074	1074	1078	1078	1078	1078	1081	1081	1081	0	0	0	0	0	0	0	0	0	0	0	0	0	0	4771	4771	4771	4771	4838	4838	4838	4838	4838	4838	4838	4838	4838	4838	4838	4838	4838	4906	4838	4838	4838	4838	4906	4838	4906	4906	4906	4838	4838	4906	4906	4977	4977	4977	4977	4906	4906	4906	4838	4838	4838	4838	4838	4838	4771	4771	4838	4838	4838	4838	4838	4838	4838	4838	4838	4838	4838	4838	4838	4838	4838	4838	4771	4771	4771	4771	4771	4771	4771	4771	4838	4771	4771	4771	4771	4771	4771	4771	4771	4706	4706	4771	4771	4838	4838	4838	4906	4906	4906	5202	5202	5202	5282	5282	5202	5202	5282	5202	5202	5202	5202	5282	5282	5282	5282	5282	5282	5282	5282	5282	5282	5282	5202	5202	5364	5364	5364	5364	5364	5364	5282	5282	5202	5202	5202	5202	5202	5202	5364	0	0	0	0	0	0	0	0	0	0	0	0	8146	8146	7959	7959	7959	8146	7959	7959	7959	7959	7959	7959	7959	7959	7779	7779	7959	7959	7959	7959	7959	7959	7959	7959	7959	7959	7779	7959	7959	7959	7959	7959	8146	8146	8146	8146	8146	8146	7959	7959	7959	7959	7959	7959	7959	8146	8146	7959	7959	7959	7959	7959	7959	7959	7959	7959	8343	8343	8343	8343	8550	8550	8767	8550	8550	8550	8550	8550	8550	0	0	0	3546	3546	3510	3510	3475	3475	3475	3475	3475	3475	3440	3440	3440	3440	3440	3440	3440	3475	3475	3475	3475	3475	3475	3475	3475	3440	3440	3440	3440	3406	3406	3406	3406	3406	3406	3406	3373	3406	3406	3406	3406	3406	3406	3406	3406	3440	3406	3406	3406	4706	4706	4706	4706	4706	4706	4706	4706	4706	4706	4706	4706	4706	4706	4706	4706	4706	4706	4771	4706	4706	4581	4581	4521	4521	4463	4463	4406	4463	4463	4406	4406	4350	4406	4463	4463	4463	4406	4406	4406	4406	4463	4463	4581	4643	4581	4643	4643	4643	4643	4521	4521	4643	4581	4521	4521	4521	4521	4521	4463	4463	4463	4521	4521	4521	4521	4581	4581	4581	4581	4581	4581	4581	4581	4521	4521	4463	4521	4521	4521	4463	4521	4521	4521	4406	4406	4406	4406	4406	0	0	0	4463	4521	4463	4521	4581	4521	4521	4581	4581	4581	4581	4581	4581	4581	4581	4643	4643	4643	4643	4643	4643	4643	4643	4643	4643	4643	4643	4643	4643	4643	4643	4643	4643	4643	4643	4643	4643	4643	4643	4581	4581	4521	4581	4521	4463	4406	4350	4406	4350	4350	4406	4406	4406	4406	4406	4406	4406	4406	4350	4296	4406	4350	4350	4350	4296	4350	4350	4350	4350	4406	4406	4406	4406	4406	4406	4406	4463	4581	4906	4838	4771	4643	4643	4643	4643	4643	4643	4643	4643	4706	4706	4771	4838	4906	4838	4906	4977	4977	4977	0	0	0	0	0	0	0	0	0	0	0	0	0	0	0	0	0	0	0	0	0	0	0	0	0	0	0	0	0	0	0	0	0	0	0	0	0	0	0	0	0	0	0	0	0	0	0	0	0	0	0	0	0	0	0	0	0	0	0	0	0	0	0	0	0	0	0	0	0	0	0	0	0	0	0	0	0	0	0	0	0	0	0	0	0	0	0	0	0	0	0	0	0	0	0	0	0	0	0	0	0	0	0	0	0	0	0	0	0	0
0	0	0	0	0	0	0	925	930	930	932	932	935	937	937	942	948	953	953	958	958	958	958	963	963	974	980	985	983	985	985	988	991	994	997	1000	1000	1003	1011	1011	1023	1030	1033	1033	1036	1036	1042	1048	1052	1058	1064	1068	1071	1074	1074	1074	1074	1078	1078	1078	1078	1078	1078	0	0	0	0	0	0	0	0	0	0	0	0	0	0	0	4771	4771	4771	4838	4906	4838	4771	4838	4838	4838	4838	4838	4771	4771	4838	4771	4906	4838	4906	4906	4906	4906	4906	4906	4906	4906	4838	4906	4906	4838	4977	4977	4977	4977	4977	4906	4906	4906	4838	4906	4838	4838	4838	4771	4771	4771	4838	4838	4838	4838	4838	4838	4838	4838	4838	4838	4838	4838	4771	4771	4771	4771	4771	4771	4771	4771	4771	4771	4771	4838	4771	4771	4771	4771	4771	4771	4771	4771	4706	4706	4771	4771	4838	4838	4838	4906	4906	4906	5202	5202	5202	5282	5282	5282	5282	5282	5282	5202	5202	5282	5282	5282	5282	5364	5282	5364	5282	5282	5282	5282	5282	5282	5282	5364	5282	5364	5364	5364	5364	5282	5282	5202	5282	5282	5202	5202	5202	0	0	0	0	0	0	0	0	0	0	0	0	0	8146	8146	7959	7959	7959	8146	7959	7959	7959	7959	7779	7959	7959	7959	7959	7959	7959	7959	7959	7959	7779	7959	7959	7959	7959	7959	7959	7959	7959	7959	7959	7959	8146	8146	8146	8146	8146	8146	8146	7959	7959	7959	0	7959	7959	8146	7959	7959	7608	7608	7608	7608	7959	7779	7959	7959	8146	8146	8343	8343	8343	8343	8343	0	0	0	0	0	0	0	0	0	3510	3510	3510	3510	3475	3475	3475	3475	3475	3475	3440	3440	3440	3440	3440	3440	3475	3475	3475	3475	3475	3475	3475	3510	3475	3440	3440	3440	3440	3406	3406	3406	3406	3373	3406	3406	3406	3373	3373	3406	3406	3406	3406	3406	3406	3440	3406	3440	3440	4771	4771	4706	4706	4706	4706	4706	4706	4706	4706	4706	4706	4706	4771	4706	4706	4706	4771	4771	4706	4706	4706	4521	4521	4521	4463	4463	4463	4463	4463	4406	4406	4406	4463	4463	4463	4406	4406	4463	4521	4521	4521	4581	4643	4643	4643	4706	4706	4643	4643	4581	4643	4643	4643	4581	4581	4521	4521	4521	4521	4463	4521	4521	4521	4521	4521	4521	4521	4581	4581	4521	4581	4581	4581	4581	4581	4521	4581	4581	4581	4521	4521	4521	4521	4406	4406	4406	4406	4406	4406	4463	4463	4463	4463	4463	4521	4521	4463	4521	4521	4581	4581	4581	4581	4643	4643	4643	4643	4643	4643	4643	4643	4643	4643	4643	4643	4643	4643	4643	4643	4643	4643	4643	4643	4643	4643	4643	4643	4643	4643	4643	4581	4581	4521	4521	4463	4406	4406	4350	4350	4350	4406	4406	4406	4406	4406	4406	4350	4406	4350	4350	4296	4296	4350	4350	4296	4296	4296	4350	4350	4350	4350	4350	4350	4350	4350	4350	4406	4463	4581	4643	4706	4771	4643	4643	4643	4643	4643	4643	4643	4643	4706	4771	4838	4906	4906	4906	4906	4906	4977	4977	0	0	0	0	0	0	0	0	0	0	0	0	0	0	0	0	0	0	0	0	0	0	0	0	0	0	0	0	0	0	0	0	0	0	0	0	0	0	0	0	0	0	0	0	0	0	0	0	0	0	0	0	0	0	0	0	0	0	0	0	0	0	0	0	0	0	0	0	0	0	0	0	0	0	0	0	0	0	0	0	0	0	0	0	0	0	0	0	0	0	0	0	0	0	0	0	0	0	0	0	0	0	0	0	0	0	0	0	0	0
0	0	0	0	0	0	0	930	935	932	932	932	935	935	937	940	948	950	955	955	958	958	958	963	963	966	977	985	985	985	985	988	991	991	991	997	1000	1006	1011	1011	1020	1026	1030	1033	1033	1039	1045	1048	1052	1058	1061	1068	1071	1074	1074	1074	1074	1074	1078	1078	1078	1078	1078	0	0	0	0	0	0	0	0	0	0	0	0	0	0	0	0	4771	4771	4906	4906	4906	4838	4838	4838	4838	4838	4838	4838	4838	4838	4838	4906	4771	4906	4838	4906	4906	4906	4906	4906	4906	4838	4906	4838	4838	5050	4977	4977	4977	4977	4906	4906	4906	4838	4838	4838	4838	4771	4706	4771	4771	4838	4838	4838	4838	4838	4838	4838	4838	4838	4838	4838	4838	4838	4838	4771	4771	4771	4771	4771	4771	4771	4771	4771	4771	4771	4771	4771	4771	4706	4771	4771	4771	4706	4771	4771	4838	4838	4838	4838	4906	4977	5050	5125	5202	5282	5282	5364	5364	5364	5364	5282	5202	5282	5202	5202	5364	5364	5364	5364	5364	5364	5282	5282	5282	5282	5282	5202	5282	5282	5282	5282	5282	5282	5282	5202	5202	5282	5282	5202	5202	5202	0	0	0	0	0	0	0	0	0	0	0	0	8146	8146	8146	7959	7959	7959	7959	7959	7959	7959	7959	7779	7959	7959	7959	7959	7959	7959	7959	7959	7959	7779	7959	7959	8146	8146	7959	7959	7959	7959	7959	7959	7959	7959	8146	8146	7959	8146	8146	8146	8146	8146	7959	0	0	0	0	7959	7779	7779	7779	7779	7959	7959	7959	7779	8146	8146	8146	8146	8343	8343	8343	8343	0	0	0	0	0	0	0	0	0	3510	3510	3510	3475	3475	3475	3475	3475	3475	3475	3475	3440	3440	3440	3440	3440	3440	3475	3440	3475	3475	3510	3475	3475	3475	3440	3440	3440	3440	3406	3406	3406	3406	3373	3406	3406	3406	3406	3373	3406	3406	3406	3406	3406	3406	3406	3440	3440	3510	3510	4706	4706	4706	4706	4706	4643	4706	4706	4706	4706	4706	4706	4706	4706	4706	4706	4706	4706	4706	4706	4581	4521	4521	4463	4463	4463	4463	4463	4463	4463	4463	4521	4521	4521	4521	4521	4463	4521	4521	4521	4521	4643	4706	4706	4706	4706	4706	4643	4643	4643	4643	4643	4643	4581	4581	4581	4521	4521	4521	4521	4521	4521	4521	4521	4521	4521	4521	4581	4581	4521	4581	4581	4643	4643	4581	4581	4581	4581	4581	4521	4521	4521	4521	4463	4581	4581	4521	4463	4406	4406	4463	4463	4463	4463	4463	4521	4463	4521	4521	4521	4521	4581	4581	4643	4643	4643	4643	4643	4643	4643	4643	4643	4643	4643	4643	4643	4643	4643	4643	4643	4643	4643	4643	4643	4643	4643	4643	4581	4581	4581	4581	4521	4521	4463	4463	4406	4406	4350	4350	4350	4350	4350	4406	4406	4406	4406	4350	4350	4350	4350	4296	4296	4350	4350	4350	4296	4350	4350	4350	4350	4350	4350	4350	4350	4350	4350	4350	4463	4581	4581	4643	4706	4643	4643	4643	4643	4643	4643	4643	4643	4706	4771	4838	4906	4906	4906	4906	4906	4906	0	0	0	0	0	0	0	0	0	0	0	0	0	0	0	0	0	0	0	0	0	0	0	0	0	0	0	0	0	0	0	0	0	0	0	0	0	0	0	0	0	0	0	0	0	0	0	0	0	0	0	0	0	0	0	0	0	0	0	0	0	0	0	0	0	0	0	0	0	0	0	0	0	0	0	0	0	0	0	0	0	0	0	0	0	0	0	0	0	0	0	0	0	0	0	0	0	0	0	0	0	0	0	0	0	0	0	0	0	0	0
0	0	0	0	0	0	0	935	935	930	932	935	935	935	937	942	945	950	953	955	958	955	958	963	963	966	974	983	983	985	985	988	991	991	994	997	1000	1006	1011	1011	1020	1026	1030	1033	1033	1033	1042	1042	1052	1052	1058	1058	1068	1074	1074	1074	1074	1074	1078	1078	1078	1078	1078	0	0	0	0	0	0	0	0	0	0	0	0	0	0	0	0	4771	4838	4906	4906	4906	4838	4838	4838	4838	4838	4838	4838	4838	4838	4838	4706	4706	4706	4706	4906	4838	4838	4906	4838	4906	4838	4906	4906	4906	5050	4977	4977	4977	4977	4906	4906	4906	4906	4906	4838	4838	4838	4771	4771	4838	4838	4838	4838	4838	4838	4838	4838	4838	4838	4838	4838	4838	4838	4771	4771	4771	4771	4771	4771	4771	4771	4838	4771	4838	4771	4771	4771	4771	4706	4706	4771	4771	4771	4771	4771	4771	4838	4838	4838	4906	4977	5050	5125	5282	5282	5282	5364	5364	5448	5448	5448	5448	5364	5282	5282	5282	5282	5364	5282	5282	5282	5282	5282	5282	5282	5282	5202	5282	5282	5202	5282	5282	5364	5282	5282	5282	5202	5202	5202	5282	5282	0	0	0	0	0	0	0	0	0	0	0	0	8146	8146	8146	7959	7959	7959	8146	7959	7959	7959	7959	7779	7959	7959	7959	7959	7959	7959	7779	7959	7959	7959	7959	7959	8146	8146	8146	7959	7959	7959	7959	7959	7959	7959	8343	7959	7959	8343	7959	7959	8146	8146	0	0	0	0	0	7959	7779	7779	7779	7959	8146	8146	7959	7959	8146	8146	8146	8343	8343	8343	8343	0	0	0	0	0	0	0	0	0	0	0	3510	3510	3475	3510	3475	3475	3475	3475	3440	3440	3440	3440	3440	3440	3440	3440	3475	3475	3475	3475	3475	3475	3475	3475	3440	3440	3440	3440	3406	3406	3406	3406	3373	3373	3373	3373	3373	3373	3406	3406	3406	3406	3406	3406	3406	3406	3406	3440	3440	4706	4706	4706	4706	4706	4643	4706	4643	4706	4706	4706	4706	4771	4706	4706	4706	4706	4706	4706	4581	4521	4521	4521	4463	4463	4463	4521	4521	4521	4643	4643	4581	4581	4581	4581	4521	4521	4521	4521	4521	4581	4643	4706	4706	4706	4706	4706	4706	4643	4643	4643	4643	4643	4643	4643	4643	4643	4643	4643	4581	4581	4581	4581	4521	4581	4581	4581	4581	4581	4581	4581	4581	4643	4643	4643	4581	4643	4581	4581	4643	4643	4643	4643	4643	4643	4643	4581	4581	4406	4406	4463	4463	4463	4463	4463	4521	4463	4521	4521	4581	4581	4521	4581	4643	4643	4643	4643	4643	4643	4643	4643	4643	4643	4643	4643	4643	4643	4643	4643	4643	4643	4643	4643	4643	4643	4643	4643	4643	4581	4643	4581	4581	4521	4521	4463	4463	4406	4406	4406	4406	4406	4406	4406	4406	4406	4406	4350	4350	4350	4350	4350	4350	4350	4350	4350	4296	4296	4296	4350	4350	4350	4296	4350	4350	4296	4296	4296	4406	4581	4643	4706	4706	4643	4643	4643	4643	4643	4643	4643	4643	4643	4838	4906	4906	4906	4906	4977	4977	4977	0	0	0	0	0	0	0	0	0	0	0	0	0	0	0	0	0	0	0	0	0	0	0	0	0	0	0	0	0	0	0	0	0	0	0	0	0	0	0	6992	6992	6992	6992	0	0	0	0	0	0	0	0	0	0	0	0	0	0	0	0	0	0	0	0	0	0	0	0	0	0	0	0	0	0	0	0	0	0	0	0	0	0	0	0	0	0	0	0	0	0	0	0	0	0	0	0	0	0	0	0	0	0	0	0	0	0	0	0	0	0	0	0
0	0	0	0	0	0	0	932	935	932	932	935	935	937	940	942	945	948	953	955	955	955	958	963	963	963	969	980	983	983	985	988	991	991	997	1000	1003	1006	1011	1014	1020	1026	1030	1030	1033	1033	1042	1048	1052	1055	1058	1058	1068	1074	1074	1074	1074	1078	1078	1078	1081	1078	1078	0	0	0	0	0	0	0	0	0	0	0	0	0	0	0	0	4906	4977	4977	4906	4906	4906	4906	4838	4838	4838	4838	4838	4838	4838	4906	4771	4706	4771	4838	4906	4906	4906	4906	4838	4906	4838	4906	4838	4906	4906	4906	4977	4977	4906	4906	4906	4906	4906	4906	4838	4838	4838	4771	4838	4838	4838	4838	4838	4838	4838	4838	4838	4838	4838	4838	4838	4838	4771	4771	4771	4771	4771	4771	4771	4771	4838	4838	4838	4838	4771	4771	4771	4771	4706	4706	4771	4771	4771	4771	4771	4838	4838	4838	4838	4906	4977	5050	5125	5282	5282	5364	5364	5448	5448	5535	5448	5448	5448	5364	5282	5282	5282	5282	5282	5282	5364	5282	5282	5282	5282	5282	5202	5282	5282	5202	5282	5282	5282	5282	5282	5282	5202	5282	5282	5282	5282	0	0	0	0	0	0	0	0	0	0	0	0	7959	8146	8146	7959	7959	7959	7959	7959	7959	7779	7779	7779	7959	7959	7959	8146	8146	7959	8146	8146	7959	7959	8146	8146	8343	8146	8146	7959	7959	7959	7959	7959	7959	7959	7959	7959	7959	7959	7959	7959	8146	0	0	0	0	0	0	0	7779	7779	7959	8146	8343	8146	7959	7959	8146	8146	8146	8146	8343	8343	8343	0	0	7137	7137	7287	7287	0	0	0	0	0	3510	3510	3510	3510	3475	3475	3475	3475	3440	3440	3440	3440	3440	3475	3440	3440	3440	3475	3475	3475	3475	3510	3475	3475	3440	3440	3440	3440	3406	3406	3406	3406	3373	3406	3373	3373	3373	3373	3406	3406	3406	3406	3406	3406	3406	3406	3406	3440	3440	4706	4706	4706	4706	4706	4643	4706	4706	4706	4706	4706	4706	4706	4706	4706	4706	4706	4706	4706	4581	4521	4521	4521	4521	4521	4521	4581	4643	4706	4706	4643	4643	4643	4643	4643	4581	4581	4521	4643	4643	4643	4643	4706	4706	4706	4643	4643	4706	4643	4643	4643	4643	4643	4643	4643	4643	4706	4643	4643	4643	4643	4643	4643	4581	4581	4581	4581	4643	4643	4581	4581	4643	4643	4706	4643	4643	4643	4643	4643	4643	4643	4643	4643	4643	4643	4643	4643	4643	4643	4463	4521	4463	4463	4463	4463	4463	4463	4521	4521	4581	4581	4581	4521	4643	4581	4643	4643	4643	4643	4643	4643	4643	4643	4643	4643	4581	4643	4643	4643	4643	4643	4521	4521	4643	4643	4643	4643	4643	4643	4581	4581	4581	4521	4463	4463	4463	4406	4463	4406	4406	4406	4406	4406	4406	4406	4350	4350	4350	4350	4350	4296	4350	4350	4406	4350	4296	4296	4296	4350	4350	4350	4296	4350	4350	4350	4296	4296	4406	4581	4643	4706	4706	4643	4581	4581	4643	4643	4643	4771	4771	4838	4838	4906	4906	4906	4906	4906	4977	4906	4906	0	0	0	0	0	0	0	0	0	0	0	0	0	0	0	0	0	0	0	0	0	0	0	0	0	0	0	0	0	0	0	0	0	0	7287	7287	7137	7137	6992	6992	6992	7137	7137	0	0	0	0	0	0	0	0	0	0	0	0	0	0	0	0	0	0	0	0	0	0	0	0	0	0	0	0	0	0	0	0	0	0	0	0	0	0	0	0	0	0	0	0	0	0	0	0	0	0	0	0	0	0	0	0	0	0	0	0	0	0	0	0	0	0	0
0	0	0	0	0	0	0	930	935	932	935	937	937	940	942	945	945	948	953	955	955	955	958	963	963	969	972	977	977	980	985	988	991	991	997	1003	1006	1008	1011	1014	1020	1023	1026	1030	1033	1039	1045	1048	1055	1058	1058	1058	1068	1071	1074	1074	1078	1078	1078	1081	1081	1074	1074	1074	0	0	0	0	0	0	0	0	0	0	0	0	0	0	0	4906	4906	4977	4906	4906	4906	4906	4838	4838	4838	4838	4838	4838	4838	4838	4771	4771	4906	4906	4906	4906	4906	4906	4906	4906	4906	4906	4838	4906	4906	4906	4977	4977	4906	4906	4906	4906	4906	4906	4906	4838	4906	4838	4838	4838	4838	4838	4838	4838	4838	4838	4838	4838	4838	4838	4838	4838	4838	4838	4771	4771	4771	4771	4771	4771	4771	4771	4838	4838	4771	4771	4771	4771	4706	4706	4771	4771	4771	4771	4838	4838	4838	4838	4906	4906	4906	5050	5125	5282	5282	5364	5364	5448	5448	5448	5448	5448	5364	5364	5282	5282	5282	5282	5282	5282	5282	5282	5282	5282	5282	5282	5282	5282	5282	5282	5282	5282	5282	5282	5282	5282	5282	5282	5282	0	0	0	0	0	0	0	0	0	0	0	0	0	7959	7959	7959	7959	7779	7779	7779	7959	7959	7779	7779	7779	7779	7959	7959	7959	8146	7959	7959	8146	8146	7959	7959	8146	8146	8146	8146	8146	8146	7959	7959	7959	7959	7959	7959	7959	7959	7959	7959	7779	7779	7779	0	0	0	0	0	0	0	7779	7779	7959	8343	8146	8146	7959	7959	8146	8146	8146	8146	8146	7959	7959	0	7287	7137	7137	7137	7137	7137	7137	7287	7287	0	3510	3510	3510	3510	3475	3475	3475	3475	3475	3475	3440	3440	3475	3475	3475	3475	3475	3475	3475	3475	3475	3475	3475	3475	3440	3440	3440	3440	3406	3406	3406	3406	3406	3406	3406	3373	3406	3406	3406	3406	3406	3406	3406	3440	3440	3440	3440	3440	4706	4706	4706	4706	4706	4706	4706	4706	4706	4706	4706	4706	4706	4706	4706	4706	4706	4706	4643	4643	4521	4521	4521	4521	4521	4521	4581	4643	4706	4706	4706	4706	4643	4643	4643	4643	4581	4643	4643	4643	4643	4643	4643	4643	4706	4706	4706	4706	4706	4706	4706	4643	4643	4643	4643	4643	4643	4643	4643	4706	4706	4643	4643	4706	4643	4643	4643	4643	4643	4643	4643	4706	4706	4706	4706	4643	4643	4643	4643	4643	4643	4643	4643	4643	4643	4643	4643	4643	4643	4643	4463	4463	4463	4463	4463	4463	4463	4463	4463	4521	4581	4581	4581	4521	4643	4643	4521	4521	4643	4643	4643	4643	4581	4581	4643	4581	4581	4581	4581	4581	4581	4521	4521	4521	4581	4521	4643	4643	4581	4581	4581	4521	4521	4463	4463	4463	4406	4406	4406	4406	4406	4406	4406	4406	4406	4350	4350	4296	4296	4296	4296	4296	4296	4296	4350	4296	4296	4296	4296	4296	4296	4350	4296	4296	4350	4296	4296	4296	4406	4581	4581	4643	4643	4643	4643	4643	4643	4643	4643	4643	4838	4838	4906	4906	4977	4977	4977	4977	4977	4977	4977	0	0	0	0	0	0	0	0	0	0	0	0	0	0	0	0	0	0	0	0	0	0	0	0	0	0	0	0	0	0	7608	7608	0	7287	7287	7287	7137	7137	7137	6992	6992	7137	7137	7137	7137	0	0	0	0	0	0	0	0	0	0	0	0	0	0	0	0	0	0	0	0	0	0	0	0	0	0	0	0	0	0	0	0	0	0	0	0	0	0	0	0	0	0	0	0	0	0	0	0	0	0	0	0	0	0	0	0	0	0	0	0	0	0	0	0	0
0	0	0	0	0	0	0	930	935	932	935	937	937	940	942	945	945	948	953	955	955	958	961	963	963	966	969	977	980	983	985	988	991	994	997	1000	1006	1008	1011	1014	1017	1023	1030	1030	1033	1039	1048	1048	1055	1058	1058	1058	1068	1071	1074	1074	1078	1078	1081	1085	1085	1085	1085	1088	1088	0	0	0	0	0	0	0	0	0	0	0	0	0	0	4906	4906	4977	4906	4906	4906	4906	4838	4838	4838	4838	4838	4838	4838	4838	4838	4838	4906	4906	4906	4906	4906	4906	4906	4906	4906	4906	4906	4906	4906	4906	4906	4906	4906	4906	4906	4906	4906	4906	4906	4906	4906	4838	4838	4771	4771	4771	4838	4838	4838	4838	4838	4838	4838	4838	4838	4771	4771	4771	4706	4771	4706	4771	4771	4771	4771	4771	4771	4838	4771	4771	4771	4771	4706	4706	4771	4771	4771	4838	4838	4838	4838	4906	4906	4906	4977	5050	5202	5282	5282	5282	5448	5448	5448	5535	5535	5448	5448	5364	5282	5282	5282	5282	5282	5282	5282	5282	5282	5282	5282	5282	5282	5282	5282	5282	5282	5202	5282	5282	5282	5282	5282	5364	5364	0	0	0	0	0	0	0	0	0	0	0	0	0	7959	8146	8146	7959	7779	7779	7779	7959	7779	7779	7779	7779	7779	7959	7959	7959	7959	8146	8146	7959	8146	7959	8146	8146	8146	8146	8146	8146	8146	8146	8146	8146	8146	8146	7959	7959	7959	7779	7959	7779	7779	7779	0	0	0	0	0	0	0	0	0	7959	8343	8343	8146	8146	8146	8343	8146	8146	8146	8146	7779	7287	7287	7287	7137	7137	7137	7137	7137	7137	7287	7287	7287	3475	3510	3510	3510	3475	3475	3475	3475	3475	3475	3440	3475	3475	3475	3475	3475	3475	3475	3475	3475	3475	3475	3475	3475	3440	3440	3440	3440	3406	3406	3406	3406	3373	3406	3406	3373	3406	3406	3406	3406	3406	3406	3406	3406	3406	3440	3440	3440	4706	4706	4706	4706	4706	4706	4643	4643	4706	4706	4706	4706	4706	4706	4643	4706	4706	4706	4643	4643	4581	4521	4521	4521	4521	4581	4581	4643	4643	4706	4706	4643	4643	4643	4643	4643	4643	4643	4643	4643	4643	4643	4643	4706	4643	4643	4643	4643	4706	4643	4643	4706	4643	4643	4643	4643	4643	4643	4643	4706	4706	4643	4643	4643	4643	4643	4643	4643	4643	4643	4643	4706	4706	4706	4706	4643	4643	4643	4643	4643	4643	4643	4643	4643	4643	4643	4643	4643	4643	4643	4463	4463	4406	4406	4406	4406	4406	4406	4406	4463	4521	4581	4521	4521	4521	4521	4521	4463	4463	4581	4581	4581	4581	4581	4521	4521	4521	4521	4521	4521	4521	4463	4521	4463	4463	4521	4521	4643	4521	4521	4581	4521	4521	4463	4406	4406	4406	4350	4406	4350	4406	4406	4406	4406	4406	4350	4350	4296	4296	4296	4350	4350	4350	4296	4296	4296	4296	4296	4296	4350	4296	4350	4296	4350	4350	4296	4296	4350	4350	4581	4643	4643	4643	4643	4643	4643	4643	4706	4706	4706	4838	4838	4906	4906	4977	4977	4977	4977	4977	4906	4906	0	0	0	0	0	0	0	0	0	0	0	0	0	0	0	0	0	0	0	0	0	0	0	0	0	0	0	0	7444	7608	7608	7608	7444	7444	7287	7287	7287	7287	7137	7137	6992	7137	7287	7287	7287	7287	7287	0	0	0	0	0	0	0	0	0	0	0	0	0	0	0	0	0	0	0	0	0	0	0	0	0	0	0	0	0	0	0	0	0	0	0	0	0	0	0	0	0	0	0	0	0	0	0	0	0	0	0	0	0	0	0	0	0	0	0	0	0	0	0
0	0	0	0	0	0	0	932	935	932	935	937	937	940	942	945	945	948	950	955	958	958	961	963	963	966	969	974	980	983	985	991	994	994	997	1000	1006	1008	1014	1014	1017	1023	1030	1033	1036	1045	1048	1048	1048	1055	1058	1058	1064	1064	1074	1078	1081	1081	1085	1085	1085	1085	1088	1088	1088	0	0	0	0	0	0	0	0	0	0	0	0	0	0	4906	4906	4977	4906	4906	4906	4906	4838	4906	4838	4838	4838	4838	4838	4838	4838	4906	4906	4906	4906	4906	4906	4906	4906	4906	4906	4906	4906	4906	4977	4906	4906	4977	4906	4906	4906	4906	4906	4906	4906	4906	4906	4838	4771	4771	4771	4838	4838	4838	4838	4838	4838	4838	4838	4771	4771	4771	4771	4771	4706	4771	4771	4771	4771	4771	4706	4771	4771	4771	4771	4706	4771	4771	4706	4706	4706	4771	4771	4838	4838	4838	4906	4906	4906	4977	4977	5050	5125	5282	5282	5282	5364	5448	5448	5535	5535	5535	5448	5364	5282	5282	5282	5282	5282	5202	5282	5282	5282	5282	5282	5282	5282	5282	5282	5282	5202	5202	5202	5282	5282	5282	5282	5448	5448	0	0	0	0	0	0	0	0	0	0	0	0	0	0	8146	8146	8146	7779	7959	7779	7959	7779	7779	7779	7779	7779	7959	7959	7959	8146	8146	8146	8146	7959	7959	7959	8146	8146	8146	8146	8146	8146	8146	8146	7959	8146	7959	7959	7959	7959	7779	7779	7779	7779	0	0	0	0	0	0	0	0	0	0	7959	8343	8343	8343	8146	8343	8343	8146	8146	8146	7959	7444	7287	7287	7137	7137	7137	7137	7137	7137	7137	7137	7287	7287	3475	3475	3475	3510	3475	3475	3475	3475	3475	3475	3475	3475	3475	3475	3475	3475	3475	3475	3475	3475	3475	3475	3475	3475	3440	3440	3440	3440	3440	3406	3406	3406	3406	3406	3406	3406	3406	3406	3406	3406	3373	3406	3406	3406	3440	3440	3440	3440	3440	4706	4706	4643	4706	4643	4643	4643	4643	4706	4706	4706	4706	4706	4643	4706	4706	4643	4643	4581	4521	4521	4521	4521	4521	4581	4581	4581	4643	4706	4706	4643	4706	4643	4706	4643	4643	4706	4706	4706	4706	4643	4643	4706	4643	4706	4643	4643	4706	4706	4706	4706	4706	4643	4706	4706	4643	4643	4643	4643	4643	4643	4643	4706	4706	4706	4706	4643	4706	4706	4706	4706	4706	4706	4706	4643	4643	4643	4643	4643	4643	4643	4643	4643	4643	4643	4643	4643	4643	4643	4463	4463	4406	4350	4350	4406	4406	4406	4406	4406	4463	4521	4463	4463	4463	4521	4521	4463	4463	4463	4463	4463	4463	4463	4521	4521	4463	4521	4463	4521	4463	4463	4463	4581	4463	4463	4463	4581	4521	4521	4521	4463	4463	4406	4350	4350	4350	4350	4406	4350	4406	4406	4406	4406	4406	4350	4350	4350	4350	4350	4350	4350	4350	4350	4350	4296	4296	4296	4350	4350	4350	4350	4350	4296	4350	4350	4350	4350	4463	4581	4643	4643	4643	4643	4643	4643	4643	4643	4706	4706	4771	4838	4906	4906	4906	4977	4977	4977	4977	4906	4906	0	0	0	0	0	0	0	0	0	0	0	0	0	0	0	0	0	0	0	0	0	0	0	0	0	0	0	0	7608	7608	7608	7608	7608	7444	7444	7444	7287	7287	7287	7287	7137	7137	7287	7287	7287	7287	7444	7444	7444	0	0	0	0	0	0	0	0	0	0	0	0	0	0	0	0	0	0	0	0	0	0	0	0	0	0	0	0	0	0	0	0	0	0	0	0	0	0	0	0	0	0	0	0	0	0	0	0	0	0	0	0	0	0	0	0	0	0	0	0	0
0	0	0	0	0	0	0	935	935	935	935	937	937	937	942	945	945	948	953	955	958	961	961	963	963	966	969	974	980	980	985	991	994	994	1000	1003	1006	1008	1014	1014	1017	1023	1030	1033	1036	1039	1042	1042	1048	1055	1058	1061	1064	1071	1074	1078	1081	1085	1085	1085	1088	1085	1088	1088	1088	0	0	0	0	0	0	0	0	0	0	0	0	0	0	4906	4906	4906	4906	4906	4906	4906	4838	4838	4838	4838	4838	4838	4838	4838	4906	4906	4906	4906	4906	4906	4906	4906	4906	4906	4906	4906	4906	4906	4977	4906	4906	4906	4906	4906	4906	4906	4906	4906	4906	4906	4906	4838	4838	4838	4838	4838	4838	4838	4838	4838	4838	4838	4838	4771	4771	4771	4706	4771	4706	4706	4706	4771	4706	4706	4706	4706	4771	4771	4771	4706	4771	4771	4706	4706	4771	4706	4771	4771	4771	4771	4838	4838	4906	4906	4906	5125	5202	5282	5282	5282	5282	5282	5282	5282	5282	5364	5364	5364	5282	5282	5282	5282	5202	5202	5282	5282	5282	5282	5282	5282	5282	5282	5282	5202	5202	5202	5202	5202	5202	5202	5202	5202	5448	0	0	0	0	0	0	0	0	0	0	0	0	0	0	8146	8146	8146	7779	7959	7779	7959	7779	7779	7779	7779	7959	7959	7959	7959	7959	8343	8146	8146	8146	8146	8146	8146	8146	8146	8146	8146	8146	8146	8146	8146	7959	7959	7959	7779	7779	7779	7608	7608	7287	7287	7287	0	0	0	0	0	0	0	0	8343	8550	8550	8343	8343	8550	8550	8550	8146	8146	7959	7608	7287	7287	7137	7137	7137	7137	7137	7137	7137	7137	7287	7287	3475	3510	3475	3510	3475	3475	3475	3475	3475	3475	3475	3475	3475	3440	3440	3475	3475	3475	3475	3475	3475	3475	3475	3475	3440	3440	3440	3440	3440	3440	3406	3406	3406	3406	3406	3406	3406	3406	3406	3373	3406	3406	3406	3406	3406	3440	3440	3440	3440	3440	4706	4706	4706	4643	4643	4643	4706	4706	4706	4706	4706	4706	4706	4643	4643	4643	4643	4643	4581	4521	4521	4521	4521	4581	4581	4581	4643	4643	4643	4643	4643	4643	4706	4706	4706	4706	4706	4706	4706	4643	4706	4706	4643	4643	4643	4643	4643	4643	4643	4706	4643	4643	4706	4706	4643	4706	4706	4706	4706	4706	4706	4706	4706	4706	4706	4643	4706	4706	4706	4706	4706	4706	4706	4643	4643	4581	4643	4581	4581	4643	4643	4643	4643	4643	4706	4643	4643	4643	4643	4521	4406	4406	4350	4406	4350	4406	4406	4406	4463	4521	4463	4463	4463	4463	4463	4463	4463	4463	4463	4521	4463	4463	4463	4521	4521	4521	4463	4521	4521	4463	4463	4463	4463	4463	4581	4581	4581	4521	4521	4521	4463	4406	4350	4350	4350	4350	4406	4350	4406	4406	4406	4350	4406	4350	4350	4350	4406	4350	4406	4406	4406	4350	4350	4296	4296	4296	4350	4350	4350	4350	4350	4350	4406	4406	4406	4406	4463	4521	4643	4643	4643	4643	4643	4643	4643	4706	4706	4771	4838	4906	4906	4977	4906	4977	4977	4977	4977	4977	4977	0	0	0	0	0	0	0	0	0	0	0	0	0	0	0	0	0	0	0	0	0	0	0	0	0	0	0	7608	7444	7608	7608	7608	7608	7444	7287	7287	7287	7287	7287	7287	7287	7287	7287	7287	7287	7287	7287	7287	7287	7287	0	0	0	0	0	0	6468	6592	6853	6853	6853	0	0	0	0	0	0	0	0	0	0	0	0	0	0	0	0	0	0	0	0	0	0	0	0	0	0	0	0	0	0	0	0	0	0	0	0	0	0	0	0	0	0	0	0	0	0	0	0	0
0	0	0	0	0	0	0	935	935	935	935	937	937	937	940	945	948	950	955	958	958	961	963	966	966	969	972	974	977	980	985	994	994	997	1000	1003	1008	1011	1014	1014	1017	1023	1023	1033	1039	1042	1042	1045	1048	1055	1058	1061	1068	1071	1071	1074	1074	1085	1085	1088	1088	1088	1088	1088	1088	1088	0	0	0	0	0	0	0	0	0	0	0	0	0	4906	4906	4906	4906	4906	4906	4838	4838	4838	4838	4838	4906	4906	4906	4906	4906	4906	4906	4906	4906	4906	4906	4906	4906	4906	4906	4977	4977	4977	4977	4906	4906	4906	4906	4906	4906	4906	4906	4906	4906	4838	4906	4838	4838	4838	4838	4838	4838	4838	4838	4838	4838	4838	4771	4771	4771	4706	4706	4771	4706	4771	4838	4771	4706	4706	4706	4706	4771	4771	4771	4706	4706	4771	4771	4706	4771	4771	4771	4771	4771	4771	4838	4838	4838	4906	4906	5125	5202	5202	5202	5202	5202	5202	5282	5282	5282	5364	5364	5364	5282	5282	5282	5282	5202	5202	5202	5282	5282	5282	5282	5282	5282	5282	5282	5202	5202	5202	5202	5202	5282	5202	5202	5202	0	0	0	0	0	0	0	0	0	0	0	0	0	0	0	0	8146	8146	7779	7959	7959	7959	7959	7779	7779	7779	7779	7959	8146	8550	8550	8550	8550	8146	8146	7959	8146	8146	8146	8146	8146	8146	8343	8146	8146	8146	8146	7959	7959	7779	7779	7779	7608	7608	7287	7287	7287	0	0	0	0	0	0	8146	8550	8343	8550	8550	8343	8343	8550	8550	8550	8146	8146	7959	7608	7287	7137	7137	6992	6992	7137	7137	7137	7137	7287	7287	7287	3475	3475	3475	3510	3475	3475	3475	3475	3475	3440	3475	3440	3475	3440	3440	3440	3475	3475	3475	3475	3475	3475	3475	3475	3440	3440	3440	3440	3440	3440	3406	3406	3406	3406	3406	3406	3406	3406	3406	3406	3406	3406	3406	3406	3406	3440	3440	3440	3440	4643	4643	4643	4706	4643	4643	4643	4706	4706	4706	4706	4706	4643	4706	4643	4643	4643	4643	4581	4581	4521	4521	4521	4521	4581	4581	4581	4581	4643	4643	4643	4643	4643	4706	4706	4706	4706	4706	4706	4706	4706	4706	4706	4706	4643	4643	4643	4643	4643	4643	4643	4643	4643	4706	4643	4706	4706	4706	4706	4706	4706	4706	4706	4706	4706	4643	4706	4706	4706	4706	4706	4706	4706	4706	4643	4643	4643	4643	4581	4581	4643	4643	4643	4643	4643	4643	4643	4643	4643	4581	4521	4463	4406	4350	4406	4406	4406	4406	4463	4463	4521	4463	4463	4463	4463	4463	4463	4463	4463	4463	4463	4463	4463	4521	4521	4521	4521	4521	4521	4521	4521	4521	4521	4521	4463	4581	4581	4581	4521	4581	4521	4463	4406	4350	4350	4350	4406	4406	4406	4406	4406	4406	4406	4406	4350	4406	4406	4406	4406	4406	4406	4406	4406	4350	4350	4350	4406	4406	4406	4406	4406	4406	4406	4463	4463	4463	4406	4521	4521	4643	4643	4643	4643	4581	4643	4643	4643	4706	4706	4838	4906	4977	4977	4977	5050	5050	5050	5050	5050	4977	0	0	0	0	0	0	0	0	0	0	0	0	0	0	0	0	0	0	0	0	0	0	0	0	0	0	7779	7779	7608	7779	7608	7779	7608	7444	7287	7287	7287	7287	7137	7137	7137	7287	7287	7287	7444	7444	7444	7287	7287	7287	7287	7287	7287	7137	6992	6992	6720	6720	6853	6853	6853	6853	6853	0	0	0	0	0	0	0	0	0	0	0	0	0	0	0	0	0	0	0	0	0	0	0	0	0	0	0	0	0	0	0	0	0	0	0	0	0	0	0	0	0	0	0	0	0	0	0
0	0	0	0	0	0	0	937	937	935	937	937	937	937	940	945	948	950	955	958	958	961	963	963	966	972	972	974	977	983	988	994	994	997	1000	1006	1008	1008	1014	1014	1014	1023	1033	1036	1042	1042	1045	1045	1048	1055	1058	1061	1071	1074	1074	1074	1078	1085	1088	1088	1088	1085	1088	1088	1088	1088	1088	0	0	0	0	0	0	0	0	0	0	0	0	4906	4906	4906	4906	4838	4838	4838	4838	4838	4838	4838	4906	4906	4906	4906	4906	4906	4906	4906	4906	4906	4906	4906	4906	4977	4977	4977	4977	4977	4977	4906	4906	4906	4906	4906	4906	4906	4906	4906	4838	4838	4838	4838	4838	4838	4838	4838	4838	4838	4838	4838	4771	4771	4771	4771	4706	4706	4706	4706	4771	4771	4706	4771	4706	4706	4706	4706	4771	4771	4771	4706	4771	4771	4771	4771	4771	4771	4771	4771	4771	4771	4838	4838	4838	4838	4838	5202	5202	5202	5202	5202	5202	5202	5282	5282	5282	5364	5364	5364	5282	5282	5282	5282	5202	5202	5202	5202	5282	5282	5282	5282	5282	5282	5282	5202	5202	5202	5202	5202	5202	5202	5202	0	0	0	0	0	0	0	0	0	0	0	0	0	0	0	0	0	8146	7959	7779	7779	7779	7779	7779	7779	7779	7779	7959	7959	8146	8343	8550	8343	8550	8146	8146	8146	8146	7959	8146	8146	8146	8146	8146	8146	8146	8146	8146	7959	8146	7779	7779	7779	7608	7287	7137	7137	7137	7137	0	0	0	0	0	8146	8550	8343	8550	8550	8343	8550	8550	8550	8550	8550	8550	8550	7608	7287	7137	7137	6992	7137	7137	7137	7137	7137	7137	7137	0	3440	3475	3475	3475	3475	3475	3475	3475	3440	3440	3440	3440	3440	3440	3440	3440	3475	3475	3475	3475	3475	3475	3475	3475	3440	3440	3440	3440	3440	3440	3406	3406	3406	3406	3406	3406	3406	3406	3406	3406	3406	3406	3406	3406	3440	3440	3440	3440	3440	4643	4643	4643	4643	4643	4643	4643	4706	4706	4706	4706	4706	4643	4706	4706	4643	4643	4643	4581	4581	4521	4521	4463	4521	4521	4521	4521	4581	4643	4643	4643	4643	4643	4706	4706	4706	4706	4706	4706	4706	4706	4706	4706	4706	4706	4706	4706	4706	4706	4643	4643	4643	4643	4643	4643	4643	4643	4706	4706	4706	4643	4643	4706	4706	4706	4706	4706	4706	4706	4706	4706	4706	4706	4706	4643	4643	4643	4643	4643	4643	4643	4643	4643	4643	4706	4643	4643	4643	4581	4521	4521	4463	4406	4406	4406	4406	4406	4463	4463	4521	4521	4521	4463	4463	4521	4463	4463	4463	4463	4463	4521	4463	4463	4521	4463	4521	4463	4463	4521	4521	4463	4521	4463	4521	4463	4581	4581	4581	4521	4581	4581	4521	4406	4350	4296	4350	4406	4463	4463	4350	4406	4406	4406	4463	4350	4406	4406	4463	4463	4463	4521	4463	4463	4463	4463	4463	4463	4463	4463	4463	4463	4463	4463	4463	4463	4463	4521	4521	4521	4643	4643	4643	4643	4581	4643	4643	4643	4643	4643	4706	4838	4906	4906	4906	4977	4977	4977	4977	5050	0	0	0	0	0	0	0	0	0	0	0	0	0	0	0	0	0	0	0	0	0	0	0	0	0	0	7959	7959	7959	7779	7779	7779	7779	7608	7444	7287	7287	7287	7287	7287	7287	7287	7287	7287	7444	7444	7444	7444	7444	7444	7444	7444	7287	7287	7137	7137	7137	7137	7137	7137	7137	7287	7287	7287	7444	7444	0	0	0	0	0	0	0	0	0	0	0	0	0	0	0	0	0	0	0	0	0	0	0	0	0	0	0	0	0	0	0	0	0	0	0	0	0	0	0	0	0	0	0	0	0
0	0	0	0	0	0	0	937	937	937	937	937	940	940	940	942	945	948	955	958	961	961	963	963	966	972	972	974	977	985	991	994	994	997	1000	1003	1006	1011	1014	1014	1014	1026	1033	1039	1042	1045	1045	1045	1048	1055	1055	1058	1074	1074	1074	1074	1085	1088	1085	1085	1085	1085	1085	1085	1088	1088	1088	0	0	0	0	0	0	0	0	0	0	0	0	4838	4838	4906	4906	4838	4838	4838	4771	4838	4838	4838	4906	4906	4906	4906	4906	4906	4906	4906	4906	4906	4906	4906	4977	4977	4977	4977	4977	4977	4977	4906	4906	4906	4906	4906	4906	4906	4906	4906	4838	4838	4906	4838	4838	4838	4771	4838	4838	4838	4838	4838	4771	4771	4771	4771	4771	4706	4706	4771	4771	4771	4771	4771	4706	4706	4706	4706	4706	4706	4771	4771	4706	4771	4771	4706	4771	4706	4706	4706	4706	4706	4771	4771	4771	4771	5125	5202	5202	5202	5202	5202	5282	5282	5282	5282	5282	5364	5364	5364	5364	5364	5364	5282	5282	5282	5202	5202	5282	5282	5282	5282	5282	5282	5202	5202	5202	5202	5202	5202	5202	5202	5202	0	0	0	0	0	0	0	0	0	0	0	0	0	0	0	0	0	0	7959	7779	7779	7779	7779	7779	7779	7779	7779	7959	7959	7959	8343	8343	8343	8146	8146	8146	7959	8146	8146	8146	8146	8146	8146	8343	8343	8146	8146	8146	8146	8146	7779	7608	7608	7444	7287	7287	7137	7137	7137	0	0	0	0	8343	8550	8550	8343	8343	8343	8343	8343	8550	8550	8550	8550	8550	7779	7608	7287	7137	7137	6992	7137	7137	7137	7137	7137	7287	7287	0	3440	3475	3475	3475	3475	3475	3475	3440	3440	3440	3440	3440	3440	3440	3440	3440	3475	3475	3440	3475	3475	3475	3475	3475	3440	3440	3440	3440	3440	3440	3440	3406	3406	3406	3406	3406	3406	3406	3406	3406	3406	3406	3406	3406	3440	3440	3440	3440	4643	4643	4643	4643	4706	4706	4643	4643	4706	4706	4706	4706	4706	4643	4643	4643	4643	4643	4643	4581	4581	4463	4463	4463	4521	4521	4521	4581	4581	4643	4643	4643	4643	4643	4706	4706	4706	4706	4706	4706	4706	4706	4706	4706	4706	4706	4706	4706	4706	4706	4643	4706	4706	4643	4643	4706	4643	4643	4706	4706	4643	4706	4706	4706	4706	4706	4706	4706	4706	4706	4706	4706	4706	4706	4706	4643	4643	4643	4643	4643	4643	4643	4643	4643	4643	4706	4643	4643	4643	4643	4581	4521	4463	4406	4406	4406	4463	4463	4463	4463	4521	4521	4581	4463	4463	4521	4463	4463	4463	4463	4521	4521	4463	4463	4463	4463	4463	4521	4521	4521	4521	4581	4521	4521	4521	4521	4581	4521	4581	4521	4581	4581	4521	4406	4350	4350	4350	4406	4463	4463	4350	4406	4521	4463	4463	4406	4463	4463	4521	4521	4521	4521	4521	4521	4581	4581	4581	4581	4521	4521	4521	4463	4463	4463	4463	4463	4463	4463	4521	4521	4643	4643	4643	4581	4581	4581	4581	4581	4581	4581	4643	4771	4906	4906	4906	4977	4977	4977	4977	0	0	0	0	0	0	0	0	0	0	0	0	0	0	0	0	0	0	0	0	0	0	0	0	0	0	0	7959	7959	7959	7779	7779	7779	7608	7608	7444	7444	7444	7287	7287	7287	7287	7444	7444	7444	7444	7444	7444	7444	7444	7444	7444	7444	7287	7287	7287	7287	7287	7287	7287	7287	7287	7444	7444	7444	7608	7608	7608	0	0	0	0	0	0	0	0	0	0	0	0	0	0	0	0	0	0	0	0	0	0	0	0	0	0	0	0	0	0	0	0	0	0	0	0	0	0	0	0	0	0	0	0
0	0	0	0	0	0	0	935	935	935	935	937	937	937	937	942	948	953	955	958	961	961	961	963	963	963	969	969	980	988	991	994	997	997	1000	1000	1003	1008	1014	1014	1017	1023	1033	1036	1042	1042	1042	1045	1048	1052	1052	1058	1071	1074	1074	1081	1085	1088	1085	1085	1085	1085	1085	1088	1088	1088	1088	0	0	0	0	0	0	0	0	4906	4906	4906	4906	4906	4838	4906	4906	4838	4838	4838	4838	4838	4838	4838	4906	4906	4906	4906	4906	4906	4906	4906	4906	4906	4906	4906	4906	4906	4906	4906	4977	4977	4977	4906	4906	4906	4906	4906	4906	4906	4906	4838	4838	4838	4838	4771	4771	4771	4771	4771	4838	4838	4838	4838	4771	4771	4771	4771	4771	4706	4706	4706	4771	4771	4771	4771	4771	4706	4706	4706	4706	4706	4771	4706	4706	4771	4771	4771	4771	4771	4771	4706	4706	4706	4771	4771	4771	4771	5125	5125	5202	5202	5202	5282	5282	5282	5282	5282	5282	5364	5364	5364	5364	5364	5364	5282	5282	5282	5202	5282	5282	5282	5282	5282	5282	5282	5202	5202	5202	5202	5202	5202	5202	5125	5125	0	0	0	0	0	0	0	0	0	0	0	0	0	0	0	0	0	0	7959	7779	7779	7779	7779	7779	7779	7779	7779	7779	7779	7779	8343	8343	7959	8146	7959	7959	7959	8146	8146	7959	8146	8146	8146	8343	8343	8146	8146	8146	8146	8146	7779	7608	7608	7444	7287	7287	7137	7137	7137	0	0	0	0	8343	8343	8343	8343	8343	8343	8343	8550	8550	8550	8550	8550	8550	8550	7444	7137	6992	6992	6992	6992	7137	7137	7137	7137	7287	7287	0	3440	3475	3475	3475	3475	3475	3475	3475	3475	3440	3440	3440	3440	3440	3440	3440	3475	3475	3440	3475	3475	3475	3475	3475	3440	3440	3440	3440	3440	3406	3406	3406	3406	3406	3406	3406	3406	3406	3406	3406	3406	3406	3406	3406	3406	3406	3406	3406	4706	4643	4643	4706	4706	4706	4706	4643	4706	4706	4643	4643	4706	4643	4706	4643	4643	4643	4581	4581	4521	4463	4463	4521	4521	4521	4581	4581	4581	4643	4643	4643	4643	4643	4643	4643	4706	4706	4706	4706	4706	4706	4706	4706	4706	4706	4706	4706	4706	4706	4643	4706	4706	4643	4643	4706	4706	4706	4706	4706	4706	4706	4706	4706	4706	4706	4706	4706	4706	4706	4706	4706	4706	4706	4706	4643	4643	4643	4643	4643	4581	4643	4643	4643	4643	4643	4643	4643	4643	4643	4643	4581	4463	4406	4406	4406	4463	4463	4463	4463	4463	4521	4581	4463	4521	4521	4521	4521	4463	4521	4521	4521	4463	4463	4521	4521	4521	4521	4521	4581	4581	4581	4581	4581	4581	4581	4643	4581	4643	4581	4643	4643	4581	4521	4463	4463	4463	4521	4521	4463	4406	4521	4521	4581	4581	4521	4521	4521	4581	4581	4581	4581	4581	4581	4643	4643	4643	4643	4581	4581	4581	4521	4463	4463	4521	4463	4463	4463	4521	4521	4581	4643	4643	4581	4581	4581	4581	4581	4581	4581	4643	4838	4906	4906	4977	4977	4977	4977	0	0	0	0	0	0	0	0	0	0	0	0	0	0	0	0	0	0	0	0	0	0	0	0	0	0	0	0	7959	7959	7779	7779	7779	7608	7608	7608	7444	7444	7444	7444	7444	7444	7444	7444	7444	7444	7444	7444	7444	7444	7444	7444	7444	7444	7444	7444	7444	7287	7287	7287	7287	7287	7444	7444	7444	7444	7608	7608	7959	7959	0	0	0	0	0	0	0	0	0	0	0	0	0	0	0	0	0	0	0	0	0	0	0	0	0	0	0	0	0	0	0	0	0	0	0	0	0	0	0	0	0	0	0
0	0	0	0	0	0	0	935	935	932	935	935	937	937	937	942	950	953	955	958	958	961	961	963	966	969	972	977	980	985	991	994	994	997	1000	1003	1003	1008	1011	1014	1014	1020	1033	1036	1042	1042	1045	1045	1048	1052	1055	1058	1068	1071	1071	1078	1081	1085	1085	1085	1085	1081	1085	1085	1085	1088	0	0	0	0	0	0	0	0	4906	4906	4906	4906	4906	4906	4838	4838	4906	4838	4838	4838	4838	4838	4838	4838	4838	4906	4906	4906	4906	4977	4906	4906	4906	4906	4906	4906	4906	4906	4906	4906	4977	4977	4906	4906	4906	4906	4906	4906	4906	4906	4906	4906	4838	4838	4838	4771	4771	4771	4771	4771	4838	4838	4838	4771	4771	4771	4771	4771	4706	4706	4706	4706	4771	4771	4771	4771	4771	4706	4706	4706	4706	4706	4771	4771	4771	4771	4771	4771	4771	4771	4771	4706	4706	4706	4706	4771	4771	4771	5050	5050	5125	5202	5202	5202	5282	5282	5282	5282	5364	5364	5364	5364	5364	5364	5364	5282	5282	5282	5202	5202	5282	5202	5282	5202	5202	5202	5202	5202	5202	5202	5202	5202	5125	5125	5125	0	0	0	0	0	0	0	0	0	0	0	0	0	0	0	0	0	0	7959	7779	7779	7779	7779	7779	7779	7779	7779	7779	7779	7779	7959	7959	7959	7959	7959	7959	7959	7959	7959	7959	7959	7959	8146	8343	8343	8343	8343	8343	8343	8343	7779	7608	7444	7287	7287	7137	7137	7137	7137	0	0	0	0	8343	8343	8343	8146	8343	8343	8343	8343	8343	8343	8343	8343	8343	7608	7287	7137	7137	6992	6992	6992	7137	6992	6992	6992	6992	7287	0	3475	3475	3475	3475	3475	3475	3475	3475	3475	3475	3475	3440	3440	3440	3440	3440	3475	3440	3440	3475	3475	3475	3475	3475	3440	3440	3440	3440	3440	3406	3406	3406	3406	3406	3406	3406	3406	3406	3406	3406	3406	3406	3406	3406	3406	3406	3406	3406	4706	4706	4706	4706	4706	4706	4706	4643	4643	4643	4643	4643	4706	4706	4706	4643	4643	4643	4581	4581	4521	4463	4463	4463	4521	4521	4521	4581	4581	4581	4643	4643	4643	4643	4643	4706	4706	4706	4706	4706	4706	4706	4706	4706	4706	4706	4706	4706	4706	4706	4643	4643	4643	4643	4643	4706	4706	4706	4706	4706	4706	4706	4706	4706	4706	4706	4706	4706	4706	4706	4706	4706	4706	4706	4706	4643	4581	4581	4581	4643	4581	4581	4643	4643	4643	4706	4643	4643	4643	4643	4643	4581	4463	4463	4406	4463	4521	4521	4521	4521	4521	4581	4581	4581	4521	4581	4521	4581	4581	4581	4581	4521	4521	4521	4521	4521	4581	4581	4581	4643	4643	4643	4643	4581	4581	4643	4643	4643	4643	4643	4643	4643	4643	4581	4521	4521	4521	4521	4581	4521	4521	4581	4581	4581	4581	4581	4581	4581	4581	4581	4581	4581	4643	4643	4643	4706	4706	4643	4643	4581	4581	4521	4463	4463	4463	4463	4463	4463	4463	4463	4521	4581	4643	4581	4581	4581	4581	4581	4581	4581	4581	4838	4906	4906	4906	4906	4906	4906	0	0	0	0	0	0	0	0	0	0	0	0	0	0	0	0	0	0	0	0	0	0	0	0	0	0	7959	7959	7959	7959	7959	7779	7779	7608	7608	7608	7444	7444	7444	7444	7444	7608	7444	7608	7444	7444	7444	7444	7444	7444	7444	7608	7444	7608	7444	7608	7444	7608	7444	7444	7444	7444	7444	7444	7444	7444	7608	7608	7608	7444	7444	0	0	0	0	0	0	0	0	0	0	0	0	0	0	0	0	0	0	0	0	0	0	0	0	0	0	0	0	0	0	0	0	0	0	0	0	0	0	0	0	0	0
0	0	0	0	0	0	0	935	935	932	935	935	937	937	937	945	945	953	955	955	958	961	961	963	966	972	974	977	980	988	991	994	997	997	1000	1003	1003	1008	1011	1014	1014	1014	1030	1036	1042	1042	1045	1048	1052	1055	1058	1061	1071	1071	1074	1074	1081	1085	1085	1085	1085	1081	1081	1081	1085	0	0	0	0	0	0	0	0	4977	4977	4906	4906	4906	4906	4906	4906	4906	4906	4838	4838	4838	4771	4771	4838	4838	4906	4906	4906	4906	4906	4906	4906	4906	4906	4906	4906	4906	4906	4906	4906	4906	4906	4906	4906	4838	4838	4838	4906	4906	4906	4906	4906	4838	4838	4838	4838	4771	4771	4771	4771	4771	4771	4838	4838	4771	4771	4771	4771	4771	4771	4706	4706	4706	4771	4771	4771	4771	4771	4771	4771	4706	4706	4771	4771	4771	4771	4771	4771	4771	4771	4771	4771	4706	4706	4706	4706	4771	4838	4838	4977	5050	5125	5202	5202	5202	5282	5282	5282	5282	5282	5364	5364	5364	5364	5364	5364	5364	5282	5282	5202	5202	5202	5202	5202	5202	5202	5202	5202	5202	5202	5202	5202	5202	5125	5050	5050	0	0	0	0	0	0	0	0	0	0	0	0	0	0	0	0	0	0	7959	7779	7779	7779	7959	7779	7779	7959	7779	7779	7779	7779	7779	7959	7959	7959	7959	7959	7959	8146	7959	7959	7959	7959	8343	8343	8343	8343	8343	8343	8343	8343	7779	7608	7608	7287	7137	7137	7287	7137	0	0	0	0	0	8343	8343	8146	8146	8343	8343	8343	8343	8343	8343	8343	8343	8343	7779	7287	7137	7137	6992	6992	7137	7137	6992	6992	6992	6992	0	0	3475	3475	3475	3475	3475	3475	3475	3475	3475	3475	3440	3440	3440	3440	3440	3440	3475	3475	3440	3440	3475	3475	3475	3475	3475	3475	3440	3440	3440	3406	3406	3406	3406	3406	3406	3406	3406	3406	3406	3406	3406	3406	3406	3406	3406	3406	3406	3406	4706	4706	4706	4706	4706	4706	4706	4643	4706	4643	4643	4706	4706	4706	4706	4643	4643	4643	4581	4521	4521	4463	4463	4463	4463	4463	4521	4581	4581	4643	4643	4643	4643	4643	4643	4706	4706	4706	4706	4706	4706	4706	4706	4706	4706	4643	4706	4643	4706	4706	4643	4643	4706	4706	4643	4706	4706	4706	4706	4706	4706	4706	4706	4706	4706	4706	4706	4706	4706	4706	4706	4706	4706	4706	4706	4643	4581	4643	4581	4643	4581	4643	4643	4643	4643	4643	4643	4643	4643	4643	4643	4581	4463	4463	4463	4463	4521	4521	4581	4581	4581	4643	4643	4581	4581	4581	4581	4581	4581	4581	4581	4581	4581	4581	4581	4581	4581	4581	4643	4643	4643	4643	4643	4643	4581	4643	4643	4643	4643	4643	4643	4643	4643	4581	4581	4581	4643	4643	4581	4581	4581	4643	4643	4643	4643	4581	4581	4581	4643	4643	4643	4643	4643	4643	4643	4706	4706	4706	4643	4643	4643	4581	4521	4521	4463	4463	4463	4463	4463	4463	4521	4581	4581	4581	4581	4581	4581	4581	4521	4581	4643	4521	4771	4771	4771	4838	4906	4906	0	0	0	0	0	0	0	0	0	0	0	0	0	0	0	0	0	0	0	0	0	0	0	0	0	7608	7959	7959	7959	7959	7959	7779	7779	7608	7608	7444	7444	7444	7444	7444	7444	7444	7444	7444	7444	7444	7444	7444	7444	7444	7444	7444	7608	7608	7608	7608	7608	7444	7444	7444	7444	7444	7444	7608	7608	7608	7608	7608	7608	7608	7608	0	0	0	0	0	0	0	0	0	0	0	0	0	0	0	0	0	0	0	0	0	0	0	0	0	0	0	0	0	0	0	0	0	0	0	0	0	0	0	0	0	0
0	0	0	0	0	0	0	0	927	927	932	932	940	940	945	948	950	953	955	955	958	961	963	963	966	969	969	974	980	985	991	994	997	997	1000	1003	1003	1008	1011	1014	1014	1017	1030	1036	1042	1045	1045	1048	1052	1055	1058	1061	1068	1071	1071	1074	1078	1081	1085	1085	1085	1081	1081	1081	0	0	0	0	0	0	0	0	0	4906	4906	4906	4906	4906	4906	4906	4906	4906	4906	4906	4838	4838	4838	4838	4838	4906	4906	4906	4906	4906	4906	4906	4906	4906	4906	4906	4906	4906	4906	4906	4906	4906	4906	4906	4906	4906	4838	4906	4906	4906	4906	4906	4906	4906	4906	4906	4906	4838	4838	4838	4771	4771	4771	4838	4838	4771	4771	4771	4771	4771	4771	4771	4706	4771	4771	4771	4771	4838	4771	4771	4771	4771	4771	4771	4771	4771	4771	4771	4771	4771	4771	4771	4771	4706	4706	4706	4771	4771	4838	4906	4906	5050	5125	5125	5202	5202	5282	5364	5364	5282	5364	5364	5448	5448	5364	5364	5364	5364	5282	5282	5202	5202	5202	5202	5202	5202	5202	5202	5202	5202	5202	5202	5202	5202	5202	5202	5202	0	0	0	0	0	0	0	0	0	0	0	0	0	0	0	0	8146	8146	8146	7959	7779	7959	7959	7959	7959	7779	7779	7779	7779	7779	7779	7959	7959	7959	7959	7959	7959	7959	7959	7959	7779	7959	8343	8343	8343	8343	8343	8343	8343	8343	7779	7444	7444	7137	7137	7137	7287	0	0	0	0	0	0	8146	8343	8146	8146	8343	8343	8146	8343	8343	8343	8146	8146	7959	7779	7287	7137	7137	6992	6992	7137	7137	6992	6992	6992	0	0	0	3475	3475	3475	3475	3475	3475	3475	3475	3475	3475	3440	3440	3440	3440	3440	3475	3475	3475	3440	3440	3475	3475	3475	3475	3475	3440	3440	3440	3440	3406	3406	3406	3406	3406	3406	3406	3406	3406	3406	3406	3406	3406	3406	3406	3406	3406	3406	3406	4706	4706	4706	4706	4706	4706	4706	4643	4643	4706	4643	4706	4706	4706	4706	4643	4643	4643	4581	4581	4521	4463	4463	4463	4521	4521	4521	4581	4643	4643	4643	4643	4643	4643	4706	4706	4706	4706	4706	4706	4706	4706	4643	4643	4706	4706	4706	4706	4706	4706	4706	4706	4706	4706	4706	4706	4706	4706	4706	4706	4706	4706	4706	4706	4706	4706	4706	4706	4706	4706	4706	4706	4706	4706	4706	4643	4643	4643	4643	4643	4643	4643	4643	4643	4643	4643	4643	4643	4643	4581	4581	4581	4463	4463	4463	4521	4581	4581	4581	4581	4643	4643	4643	4643	4581	4581	4581	4581	4581	4581	4643	4643	4643	4643	4643	4643	4643	4581	4643	4643	4643	4706	4643	4643	4643	4643	4643	4643	4643	4581	4643	4643	4643	4581	4581	4581	4581	4581	4581	4581	4581	4643	4643	4643	4643	4643	4581	4581	4643	4643	4643	4643	4643	4643	4643	4706	4706	4643	4643	4643	4643	4643	4521	4521	4521	4463	4463	4463	4463	4463	4521	4581	4581	4521	4521	4581	4581	4581	4521	4521	4521	4521	4771	4771	4771	4771	4838	0	0	0	0	0	0	0	0	0	0	0	0	0	0	0	0	0	0	0	0	0	0	0	0	0	0	7779	7959	7959	7959	7959	7779	7779	7608	7608	7444	7444	7444	7287	7444	7444	7444	7444	7444	7444	7444	7444	7444	7444	7444	7608	7608	7608	7608	7608	7608	7608	7608	7608	7444	7444	7444	7444	7444	7608	7608	7608	7608	7608	7608	7608	7608	0	0	0	0	0	0	0	0	0	0	0	0	0	0	0	0	0	0	0	0	0	0	0	0	0	0	0	0	0	0	0	0	0	0	0	0	0	0	0	0	0	0
0	0	0	0	0	0	0	925	927	925	927	937	940	940	945	948	950	950	953	955	958	958	963	963	966	969	969	972	977	988	994	994	997	997	1000	1003	1003	1008	1011	1014	1014	1017	1030	1036	1042	1045	1048	1052	1055	1055	1058	1061	1068	1068	1071	1074	1078	1078	1081	1081	1081	1078	1078	1078	0	0	0	0	0	0	0	0	0	4906	4906	4906	4906	4906	0	0	4906	4906	4977	4906	4906	4838	4838	4838	4838	4906	4838	4906	4906	4906	4977	4977	4977	4977	4906	4906	4906	4906	4906	4906	4906	4906	4906	4906	4906	4906	4838	4906	4906	4906	4906	4906	4906	4906	4906	4906	4906	4838	4838	4838	4771	4771	4771	4838	4838	4771	4771	4771	4771	4771	4771	4771	4771	4771	4771	4771	4838	4838	4771	4771	4771	4771	4771	4771	4706	4771	4771	4771	4706	4706	4706	4771	4706	4706	4706	4706	4771	4838	4906	4906	4977	5050	5125	5125	5202	5202	5282	5282	5282	5282	5364	5364	5448	5364	5364	5364	5364	5364	5282	5282	5202	5202	5202	5202	5202	5202	5202	5202	5202	5202	5202	5202	5202	5282	5282	5202	5202	5202	0	0	0	0	0	0	0	0	0	0	0	0	0	0	8343	7959	8146	8146	7959	7779	7959	7959	7959	7959	7959	7779	7779	7779	7779	7779	7779	7779	7959	7779	7779	7959	7959	7959	7959	7779	7959	8343	8343	8343	8146	8146	8343	8343	8343	7444	7287	7287	7137	7137	6992	6992	0	0	0	0	0	0	8550	8146	8550	8343	8146	8343	8146	8343	8343	8146	8146	7959	7959	7608	7444	7287	7137	7137	7137	7137	7137	7137	7137	7137	7137	0	0	3475	3475	3475	3510	3475	3475	3475	3475	3475	3475	3475	3475	3440	3440	3440	3475	3475	3475	3440	3475	3475	3475	3510	3510	3510	3475	3440	3440	3440	3406	3406	3406	3406	3406	3406	3406	3406	3406	3406	3406	3406	3406	3406	3406	3406	3406	3406	3406	4706	4706	4706	4706	4706	4706	4706	4706	4643	4706	4643	4706	4706	4706	4706	4706	4643	4643	4581	4521	4521	4463	4463	4463	4521	4521	4521	4581	4643	4643	4643	4643	4643	4643	4706	4706	4706	4706	4706	4706	4706	4706	4643	4643	4706	4706	4706	4706	4706	4706	4706	4706	4706	4706	4706	4706	4706	4706	4706	4706	4706	4706	4706	4706	4706	4706	4706	4706	4706	4706	4706	4706	4706	4706	4706	4643	4643	4643	4643	4643	4643	4643	4643	4643	4643	4643	4643	4643	4643	4581	4581	4581	4581	4463	4463	4581	4643	4643	4643	4643	4643	4643	4643	4643	4643	4581	4581	4581	4581	4581	4643	4643	4643	4643	4643	4643	4643	4643	4581	4581	4581	4581	4581	4581	4581	4643	4643	4643	4643	4643	4643	4643	4643	4581	4581	4643	4643	4643	4643	4643	4643	4643	4643	4643	4643	4643	4643	4581	4643	4643	4643	4643	4643	4643	4643	4643	4643	4643	4643	4643	4581	4581	4521	4521	4463	4463	4463	4406	4463	4463	4521	4581	4581	4521	4521	4581	4581	4581	4581	4581	4643	4706	4771	4771	4771	4838	4838	0	0	0	0	0	0	0	0	0	0	0	0	0	0	0	0	0	0	0	0	0	0	0	0	0	7608	7779	7779	7959	7779	7779	7779	7779	7608	7608	7608	7444	7444	7444	7444	7444	7444	7444	7444	7608	7444	7608	7444	7444	7444	7444	7444	7444	7444	7608	7608	7608	7608	7608	7608	7444	7444	7444	7444	7608	7608	7444	7608	7287	7287	7287	7608	0	0	0	0	0	0	0	0	0	0	0	0	0	0	0	0	0	0	0	0	0	0	0	0	0	0	0	0	0	0	0	0	0	0	0	0	0	0	0	0	0	0
0	0	0	0	0	0	0	925	927	925	927	932	940	940	945	945	950	950	953	955	958	961	963	963	966	969	969	972	977	985	994	997	997	997	1000	1000	1003	1006	1011	1014	1017	1020	1026	1033	1039	1045	1048	1052	1055	1055	1058	1061	1064	1068	1071	1074	1078	1078	1081	1081	1081	1078	1078	1078	0	0	0	0	0	0	0	0	0	4906	4977	4977	4977	4977	0	0	0	0	4977	4906	4906	4906	4838	4838	4906	4906	4906	4906	4906	4906	4906	4977	4906	4977	4906	4906	4906	4906	4906	4906	4906	4906	4906	4906	4906	4906	4906	4906	4906	4906	4906	4906	4906	4906	4906	4906	4906	4838	4838	4838	4771	4771	4771	4771	4771	4771	4771	4771	4771	4771	4771	4771	4771	4771	4771	4838	4838	4838	4771	4771	4771	4771	4771	4771	4706	4706	4771	4771	4706	4706	4706	4706	4706	4706	4706	4706	4771	4838	4906	4906	4906	5050	5125	5125	5202	5202	5282	5282	5282	5282	5282	5364	5364	5364	5364	5282	5282	5282	5282	5282	5202	5202	5202	5202	5202	5202	5202	5202	5202	5202	5202	5202	5202	5202	5202	5202	5202	5125	5125	0	0	0	0	0	0	0	0	0	0	0	0	8550	8146	8146	8146	8146	7959	7779	7959	7959	7779	7779	7779	7779	7779	7779	7779	7779	7779	7779	7959	7779	7779	7779	7779	0	0	0	0	0	8343	8343	8146	8343	8343	8343	8146	7444	7287	7287	7137	7137	7137	7137	0	0	0	0	0	0	8343	8146	8343	7959	8146	8146	8146	8146	8146	8146	8146	7959	7779	7608	7444	7137	7137	7137	7137	7137	7137	7137	7137	7137	7137	0	0	3475	3475	3475	3475	3475	3475	3475	3475	3475	3475	3475	3475	3475	3475	3475	3475	3440	3475	3440	3440	3475	3475	3475	3475	3510	3440	3440	3440	3440	3406	3406	3406	3406	3406	3406	3406	3406	3406	3406	3406	3406	3406	3406	3406	3373	3373	3373	3373	4706	4706	4706	4706	4706	4706	4706	4706	4643	4643	4643	4643	4706	4706	4706	4706	4643	4643	4581	4521	4521	4463	4463	4463	4521	4521	4521	4581	4643	4643	4643	4643	4643	4643	4706	4706	4706	4706	4706	4706	4706	4706	4643	4706	4706	4706	4706	4706	4706	4706	4706	4706	4706	4706	4706	4706	4706	4706	4706	4706	4706	4706	4706	4706	4706	4706	4706	4706	4706	4706	4706	4706	4706	4706	4706	4643	4643	4643	4643	4643	4643	4643	4643	4643	4643	4643	4643	4643	4643	4643	4581	4581	4581	4463	4463	4581	4643	4643	4643	4643	4643	4643	4643	4643	4643	4581	4581	4581	4581	4581	4643	4643	4643	4643	4643	4643	4643	4643	4581	4581	4581	4581	4581	4581	4581	4581	4643	4643	4643	4581	4643	4643	4643	4581	4581	4643	4643	4643	4643	4643	4643	4643	4581	4643	4643	4643	4581	4581	4581	4643	4643	4643	4581	4581	4643	4643	4643	4581	4643	4581	4581	4521	4521	4521	4463	4463	4406	4406	4406	4406	4463	4463	4581	4521	4581	4581	4581	4581	4581	4643	4706	4771	4838	4838	4838	4838	4838	0	0	0	0	0	0	0	0	0	0	0	0	0	0	0	0	0	0	0	0	0	0	0	0	0	7779	7779	7779	7779	7779	7608	7608	7608	7608	7608	7444	7444	7444	7444	7444	7444	7608	7444	7444	7608	7444	7444	7444	7444	7444	7444	7444	7444	7444	7608	7444	7608	7608	7608	7608	7444	7444	7444	7444	7444	7444	7608	7444	7287	7287	7287	0	0	0	0	0	0	0	0	0	0	0	0	0	0	0	0	0	0	0	0	0	0	0	0	0	0	0	0	0	0	0	0	0	0	0	0	0	0	0	0	0	0	0
0	0	0	0	0	0	0	925	927	925	927	932	940	940	945	945	950	953	955	955	958	961	963	966	966	969	969	972	977	985	994	997	997	1000	1000	1003	1006	1008	1011	1017	1017	1020	1026	1030	1036	1042	1048	1052	1055	1055	1058	1061	1064	1068	1071	1071	1074	1074	1078	1078	1078	1074	1074	1074	0	0	0	0	0	0	0	0	0	4906	4906	4977	4906	4906	0	0	0	0	4906	4906	4906	4906	4906	4838	4906	4906	4906	4906	4906	4906	4906	4977	4906	4906	4906	4906	4906	4906	4906	4906	4906	4906	4906	4906	4906	4906	4906	4838	4906	4906	4838	4838	4838	4838	4906	4906	4906	4838	4838	4838	4838	4771	4771	4838	4838	4771	4771	4771	4771	4771	4771	4771	4771	4771	4838	4771	4838	4838	4771	4771	4771	4771	4838	4771	4706	4706	4771	4771	4706	4706	4706	4771	4771	4706	4706	4706	4771	4838	4906	4906	4906	4977	5125	5125	5125	5202	5282	5282	5282	5282	5282	5282	5364	5282	5282	5282	5282	5282	5282	5282	5282	5282	5202	5202	5202	5202	5202	5202	5202	5202	5202	5202	5202	5202	5202	5202	5125	5125	5125	0	0	0	0	0	0	0	0	0	0	0	0	8343	8146	8146	8146	7959	7779	7779	7779	7779	7779	7779	7779	7779	7959	7779	7779	7779	7779	7779	7779	7779	7779	7779	7779	0	0	0	0	0	0	0	0	8343	8343	8343	7608	7287	7287	7287	7137	7137	7287	7287	0	0	0	0	0	0	8343	8343	8343	8146	8146	8146	7959	8146	8146	8146	8146	7779	7779	7608	7287	7137	7137	7137	7137	7137	7137	7137	7137	7137	7137	7137	0	3475	3475	3510	3510	3475	3475	3475	3475	3475	3475	3475	3475	3475	3440	3440	3475	3475	3475	3440	3475	3475	3475	3475	3510	3510	3440	3440	3440	3440	3406	3406	3406	3406	3406	3406	3406	3406	3406	3406	3406	3406	3406	3406	3406	3373	3373	3373	3373	4706	4706	4706	4706	4706	4643	4643	4706	4643	4706	4706	4706	4706	4706	4706	4706	4643	4643	4581	4521	4521	4521	4463	4463	4463	4521	4521	4581	4581	4643	4643	4643	4643	4643	4706	4706	4706	4706	4706	4706	4706	4706	4643	4706	4706	4706	4706	4706	4706	4706	4706	4706	4706	4706	4706	4706	4706	4706	4706	4706	4706	4706	4706	4706	4706	4706	4706	4706	4706	4706	4706	4706	4706	4706	4706	4643	4643	4643	4643	4643	4643	4643	4643	4643	4643	4643	4643	4643	4643	4643	4581	4581	4463	4463	4463	4521	4581	4581	4643	4643	4643	4643	4643	4643	4581	4581	4581	4581	4581	4581	4643	4643	4643	4643	4643	4643	4643	4643	4581	4581	4581	4581	4581	4581	4581	4643	4643	4643	4643	4643	4643	4643	4643	4643	4581	4643	4643	4643	4643	4581	4643	4643	4581	4581	4581	4643	4581	4581	4581	4643	4643	4643	4581	4581	4581	4643	4581	4581	4581	4581	4581	4521	4521	4463	4463	4463	4406	4350	4406	4406	4406	4463	4581	4521	4521	4581	4581	4581	4581	4643	4643	4771	4771	4771	4838	4838	4838	0	0	0	0	0	0	0	0	0	0	0	0	0	0	0	0	0	0	0	0	0	0	0	0	8146	7959	7959	7779	7959	7608	7444	7444	7444	7444	7608	7608	7444	7608	7444	7444	7444	7444	7444	7444	7444	7444	7444	7444	7444	7444	7444	7444	7444	7444	7608	7444	7444	7444	7608	7608	7608	7608	7444	7444	7608	7444	7608	7444	7444	7287	7287	0	0	0	0	0	0	0	0	0	0	0	0	0	0	0	0	0	0	0	0	0	0	0	0	0	0	0	0	0	0	0	0	0	0	0	0	0	0	0	0	0	0	0
0	0	0	0	0	0	0	925	927	925	930	930	932	940	945	948	950	953	955	955	958	961	966	966	969	972	972	974	977	985	994	994	997	1000	1000	1003	1006	1011	1014	1017	1017	1017	1023	1026	1033	1039	1048	1052	1055	1058	1061	1061	1064	1068	1068	1071	1071	1074	1074	1074	1074	1074	1071	1071	0	0	0	0	0	0	0	0	0	4906	4906	4977	4977	4977	0	0	0	0	4906	4906	4906	4906	4838	4838	4838	4906	4906	4906	4906	4906	4906	4906	4906	4906	4906	4906	4906	4906	4906	4906	4906	4906	4906	4906	4906	4906	4906	4838	4838	4906	4906	4838	4906	4906	4906	4906	4906	4838	4838	4838	4838	4838	4838	4838	4838	4771	4771	4771	4771	4771	4771	4771	4771	4771	4838	4771	4838	4838	4771	4771	4771	4771	4838	4771	4706	4706	4771	4771	4706	4706	4706	4706	4706	4706	4706	4771	4838	4906	4906	4906	4977	4977	5050	5125	5125	5202	5202	5282	5282	5282	5282	5282	5282	5282	5282	5282	5282	5282	5282	5282	5282	5282	5282	5282	5202	5202	5202	5202	5202	5202	5202	5202	5282	5202	5202	5202	5202	5202	0	0	0	0	0	0	0	0	0	0	0	0	8550	8343	8146	8146	8146	7959	7779	7779	7779	7779	7779	7779	7779	7779	7779	7779	7779	7779	7779	7779	7779	0	0	0	0	0	0	0	0	0	0	0	0	0	0	0	7779	7287	7287	7287	7287	7287	7287	7287	0	0	0	0	0	0	8343	8343	8343	8146	8146	8146	7959	8146	8146	7959	7959	7779	7779	7444	7287	7137	7137	7137	7137	7137	7137	6992	6992	6992	6853	6853	0	3510	3475	3510	3510	3475	3475	3475	3475	3475	3475	3440	3475	3440	3440	3475	3475	3475	3475	3440	3475	3475	3475	3475	3475	3510	3475	3440	3440	3440	3406	3406	3406	3406	3406	3406	3406	3406	3406	3406	3406	3406	3406	3406	3406	3373	3373	3373	3373	4771	4706	4706	4706	4706	4706	4706	4706	4706	4706	4706	4706	4706	4706	4706	4643	4643	4581	4521	4521	4521	4463	4463	4463	4463	4463	4463	4521	4521	4643	4643	4643	4706	4706	4706	4706	4706	4706	4706	4706	4706	4706	4706	4706	4706	4706	4706	4706	4706	4706	4706	4706	4706	4706	4706	4706	4706	4706	4706	4706	4706	4706	4706	4706	4706	4706	4706	4706	4706	4706	4706	4706	4706	4706	4706	4643	4643	4643	4643	4643	4643	4643	4643	4643	4643	4643	4643	4643	4643	4581	4581	4581	4463	4406	4463	4521	4643	4581	4643	4643	4643	4643	4643	4643	4643	4643	4581	4581	4581	4643	4643	4643	4643	4643	4643	4643	4643	4643	4643	4643	4581	4581	4581	4581	4643	4643	4643	4643	4643	4581	4581	4581	4581	4581	4581	4581	4643	4643	4581	4581	4643	4581	4581	4581	4581	4643	4643	4581	4643	4643	4643	4643	4643	4581	4581	4581	4643	4581	4581	4581	4521	4521	4463	4463	4463	4406	4406	4350	4350	4406	4406	4463	4521	4521	4521	4581	4581	4581	4643	4643	4643	4706	4771	4771	4771	4838	4838	0	0	0	0	0	0	0	0	0	0	0	0	0	0	0	0	0	0	0	0	0	0	0	0	8146	7959	7959	7608	7608	7608	7444	7444	7608	7608	7608	7608	7444	7608	7444	7444	7444	7444	7444	7444	7444	7444	7444	7444	7444	7444	7444	7444	7444	7444	7608	7444	7444	7444	7608	7608	7608	7444	7444	7444	7444	7608	7608	7444	7444	7287	7287	0	0	0	0	0	0	0	0	0	0	0	0	0	0	0	0	0	0	0	0	0	0	0	0	0	0	0	0	0	0	0	0	0	0	0	0	0	0	0	0	0	0	0
0	0	0	0	0	0	0	925	927	925	930	930	932	940	945	945	948	950	953	953	958	961	966	966	969	972	972	974	980	988	994	994	997	1000	1000	1006	1008	1011	1014	1014	1017	1017	1023	1026	1033	1036	1045	1048	1055	1055	1061	1061	1064	1068	1071	1071	1071	1074	1074	1074	1074	1074	1071	1071	1071	0	0	0	0	0	0	0	0	4906	4906	4906	4977	4977	0	0	0	0	4906	4906	4906	4906	4838	4838	4838	4906	4906	4906	4906	4906	4906	4906	4906	4906	4977	4906	4906	4906	4906	4906	4906	4838	4906	4906	4906	4906	4838	4771	4838	4838	4906	4838	4838	4906	4906	4906	4906	4838	4838	4838	4838	4838	4838	4838	4838	4838	4838	4838	4771	4771	4771	4838	4771	4838	4838	4771	4838	4838	4771	4771	4838	4838	4838	4771	4706	4706	4771	4706	4706	4643	4706	4706	4771	4771	4706	4771	4838	4906	4906	4906	4977	4977	5050	5125	5202	5202	5202	5202	5282	5282	5282	5282	5364	5282	5282	5282	5282	5282	5282	5282	5282	5282	5282	5282	5202	5202	5202	5202	5202	5202	5202	5282	5282	5282	5282	5282	5282	5282	0	0	0	0	0	0	0	0	0	0	0	0	8550	8146	8146	8146	7959	7959	7779	7779	7779	7779	7779	7779	7779	7779	7959	7779	7779	7779	7608	7608	0	0	0	0	0	0	0	0	0	0	0	0	0	0	0	0	7608	7444	7287	7444	7287	7287	7287	7287	7287	7444	7444	7444	0	8343	8343	8343	8343	8343	8343	8146	7959	7959	7959	7959	7959	7779	7779	7608	7287	7137	7137	7137	7137	6992	6992	6992	6992	6992	6853	6853	0	3510	3475	3510	3475	3475	3475	3475	3440	3475	3475	3440	3475	3440	3440	3440	3440	3440	3440	3440	3475	3475	3475	3475	3475	3510	3440	3440	3440	3440	3406	3406	3406	3406	3406	3406	3406	3406	3406	3406	3406	3373	3373	3406	3406	3373	3373	3373	3373	4771	4706	4706	4706	4706	4706	4706	4706	4706	4706	4706	4706	4643	4643	4643	4643	4581	4581	4521	4521	4521	4521	4463	4463	4463	4463	4463	4463	4521	4581	4581	4643	4643	4643	4706	4706	4706	4706	4706	4706	4706	4706	4706	4706	4706	4706	4706	4706	4706	4706	4706	4706	4706	4706	4706	4706	4706	4706	4706	4706	4706	4706	4706	4706	4706	4706	4706	4706	4706	4706	4706	4706	4706	4706	4706	4643	4643	4643	4643	4643	4643	4643	4643	4643	4643	4643	4643	4643	4643	4581	4581	4581	4581	4463	4521	4581	4643	4643	4643	4643	4643	4643	4643	4643	4643	4643	4581	4581	4581	4643	4643	4643	4643	4643	4643	4643	4643	4643	4706	4643	4581	4643	4643	4581	4643	4643	4643	4643	4581	4581	4581	4581	4581	4581	4643	4581	4643	4643	4643	4581	4643	4643	4581	4581	4581	4643	4643	4581	4643	4643	4643	4643	4581	4581	4581	4581	4581	4581	4521	4581	4581	4581	4521	4463	4406	4406	4406	4350	4350	4406	4406	4406	4521	4521	4581	4581	4581	4581	4581	4643	4581	4643	4706	4706	4706	0	0	0	0	0	0	0	0	0	0	0	0	0	0	0	0	0	0	0	0	0	0	0	0	0	0	8146	7608	7608	7444	7608	7608	7444	7608	7608	7608	7608	7608	7444	7608	7444	7444	7444	7444	7444	7444	7444	7444	7444	7444	7444	7444	7444	7444	7444	7444	7608	7444	7444	7444	7608	7608	7608	7444	7444	7444	7444	7444	7608	7444	7608	7608	0	0	0	0	0	0	0	0	0	0	0	0	0	0	0	0	0	0	0	0	0	0	0	0	0	0	0	0	0	0	0	0	0	0	0	0	0	0	0	0	0	0	0	0
0	0	0	0	0	0	0	925	927	930	932	930	932	937	942	945	950	953	953	953	955	958	963	966	966	969	972	977	980	988	994	994	997	1000	1000	1006	1008	1011	1014	1014	1017	1020	1023	1026	1026	1036	1045	1048	1052	1055	1058	1061	1064	1068	1071	1071	1071	1074	1074	1074	1074	1074	1071	1071	1071	0	0	0	0	0	0	0	0	4906	4906	4906	0	0	0	0	0	0	4906	4838	4838	4838	4838	4838	4838	4906	4906	4906	4906	4906	4906	4906	4906	4906	4906	4906	4906	4906	4838	4906	4906	4906	4906	4906	4906	4906	4906	4771	4771	4906	4906	4906	4906	4906	4906	4906	4906	4838	4771	4838	4838	4838	4838	4838	4838	4838	4838	4838	4771	4771	4771	4771	4771	4771	4838	4771	4838	4838	4771	4771	4838	4838	4838	4771	4706	4706	4771	4771	4706	4706	4706	4706	4771	4771	4771	4771	4838	4906	4906	4906	4977	4977	5050	5125	5125	5202	5202	5282	5364	5364	5364	5282	5364	5282	5282	5282	5282	5282	5282	5282	5282	5282	5282	5282	5282	5282	5282	5282	5282	5282	5282	5282	5282	5282	5282	5282	5364	5364	5364	0	0	0	0	0	0	0	0	0	0	0	8146	8146	8146	8146	7959	7959	7779	7779	7779	7779	7959	7959	7959	7959	7959	7779	7779	7779	7608	7608	0	0	0	0	0	0	0	0	0	0	0	0	0	0	0	7444	7444	7287	7287	7444	7287	7287	7287	7287	7287	7287	7444	7444	8550	8550	8550	8343	8550	8343	8343	8343	8146	8146	8343	7959	7959	7779	7608	7137	7137	7137	7137	6992	6992	6992	6992	6992	6992	6853	6853	6853	0	0	3510	3510	3475	3475	3475	3475	3440	3440	3440	3440	3475	3440	3440	3440	3440	3440	3440	3440	3475	3475	3475	3475	3475	3510	3475	3475	3440	3440	3440	3406	3406	3406	3406	3406	3406	3406	3406	3373	3373	3406	3406	3406	3406	3406	3406	3406	3406	4706	4706	4706	4706	4706	4643	4643	4643	4643	4706	4706	4706	4643	4643	4706	4706	4643	4581	4521	4521	4521	4521	4463	4463	4406	4350	4463	4463	4463	4521	4521	4581	4643	4643	4706	4706	4706	4706	4706	4706	4706	4706	4643	4643	4643	4706	4706	4771	4771	4771	4706	4706	4706	4706	4706	4706	4706	4706	4706	4706	4706	4706	4706	4706	4706	4706	4706	4706	4706	4706	4706	4706	4706	4706	4706	4643	4643	4643	4643	4643	4643	4643	4643	4643	4643	4643	4643	4643	4581	4581	4521	4521	4463	4406	4463	4521	4581	4581	4643	4643	4643	4643	4643	4643	4643	4581	4581	4581	4581	4643	4643	4643	4643	4643	4643	4643	4643	4643	4706	4643	4643	4643	4643	4643	4643	4643	4643	4643	4581	4581	4581	4643	4643	4643	4643	4643	4643	4643	4581	4643	4643	4643	4581	4581	4581	4643	4643	4643	4643	4643	4643	4643	4581	4581	4581	4581	4521	4581	4581	4581	4581	4581	4581	4521	4463	4406	4406	4350	4350	4350	4406	4406	4581	4581	4581	4581	4581	4581	4581	4581	4581	4643	4643	4706	4706	0	0	0	0	0	0	0	0	0	0	0	0	0	0	0	0	0	0	0	0	0	0	0	0	0	0	0	7608	7444	7444	7608	7608	7444	7608	7608	7959	7779	7608	7444	7608	7444	7444	7444	7444	7444	7444	7444	7444	7444	7444	7444	7444	7444	7444	7444	7444	7444	7444	7444	7444	7444	7444	7444	7444	7444	7444	7444	7444	7444	7444	7444	7444	0	0	0	0	0	0	0	0	0	0	0	0	0	0	0	0	0	0	0	0	0	0	0	0	0	0	0	0	0	0	0	0	0	0	0	0	0	0	0	0	0	0	0	0
0	0	0	0	0	0	0	927	927	932	932	932	932	935	942	945	948	950	953	953	955	958	963	966	966	969	972	977	980	988	991	994	994	1000	1003	1003	1008	1011	1011	1014	1017	1020	1026	1030	1030	1036	1042	1045	1052	1055	1058	1061	1068	1068	1071	1074	1074	1074	1074	1078	1078	1078	1074	1074	0	0	0	0	0	0	0	0	0	4906	4906	4906	0	0	0	0	0	0	4771	4771	4771	4838	4838	4838	4838	4838	4906	4906	4906	4906	4906	4977	4906	4906	4906	4906	4906	4906	4906	4906	4906	4906	4906	4906	4838	4906	4838	4771	4706	4706	4906	4906	4906	4906	4906	4906	4906	4838	4771	4838	4838	4838	4838	4838	4838	4838	4838	4838	4771	4771	4771	4838	4771	4771	4838	4771	4838	4838	4771	4771	4771	4771	4771	4771	4771	4706	4771	4771	4771	4706	4706	4706	4706	4771	4706	4771	4838	4838	4906	4906	4977	4977	4977	5050	5125	5202	5282	5282	5282	5282	5282	5282	5282	5282	5282	5282	5282	5282	5282	5282	5282	5282	5364	5364	5364	5282	5282	5282	5282	5282	5202	5202	5202	5282	5202	5282	5282	5282	5282	0	0	0	0	0	0	0	0	0	0	0	8146	8146	8146	8146	7959	7959	7779	7779	7959	7959	7959	7959	7959	7959	7779	7779	7779	7779	7608	7608	0	0	0	0	0	0	0	0	0	0	0	0	0	0	0	7444	7444	7287	7287	7444	7287	7287	7444	7287	7287	7287	7444	7444	7444	7444	8146	8550	8550	8343	8343	8343	8146	8146	8343	7959	7779	7444	7137	6992	6992	6992	6992	6992	6992	6992	6992	7137	6992	6992	6992	6853	0	3583	3510	3510	3475	3475	3475	3475	3475	3475	3440	3440	3475	3440	3440	3440	3440	3440	3440	3440	3475	3475	3475	3475	3510	3510	3440	3475	3440	3440	3440	3440	3406	3406	3406	3406	3406	3406	3406	3373	3406	3406	3406	3406	3406	3406	3406	3406	3406	4706	4706	4643	4643	4643	4643	4643	4643	4643	4706	4706	4643	4643	4643	4706	4706	4581	4581	4521	4521	4521	4521	4463	4463	4406	4406	4463	4463	4463	4521	4521	4581	4643	4643	4643	4706	4521	4521	4581	4581	4581	4581	4581	4581	4643	4643	4643	4706	4706	4706	4706	4706	4706	4706	4643	4706	4643	4643	4706	4643	4643	4706	4706	4706	4706	4706	4706	4706	4706	4706	4706	4643	4643	4643	4643	4581	4581	4581	4581	4643	4643	4643	4643	4643	4643	4643	4643	4643	4581	4581	4521	4521	4463	4406	4406	4463	4521	4581	4643	4643	4643	4643	4643	4643	4643	4643	4643	4643	4643	4643	4643	4643	4643	4643	4643	4643	4643	4643	4643	4643	4581	4643	4581	4581	4581	4643	4643	4643	4643	4581	4643	4643	4643	4643	4643	4643	4643	4643	4643	4643	4643	4643	4643	4643	4643	4643	4643	4643	4643	4643	4643	4643	4643	4643	4581	4581	4521	4643	4581	4643	4643	4581	4581	4521	4463	4406	4406	4350	4296	4350	4406	4406	4581	4581	4643	4581	4581	4581	4581	4581	4581	4643	4643	4643	0	0	0	0	0	0	0	0	0	0	0	0	0	0	0	0	0	0	0	0	0	0	0	0	0	0	0	0	0	7444	7444	7608	7608	7444	7608	7608	7779	7779	7608	7444	7608	7444	7444	7444	7444	7444	7444	7444	7444	7444	7444	7444	7444	7444	7444	7444	7444	7444	7444	7444	7444	7444	7287	7444	7444	7444	7444	7444	7444	7444	7444	7444	7444	0	0	0	0	0	0	0	0	0	0	0	0	0	0	0	0	0	0	0	0	0	0	0	0	0	0	0	0	0	0	0	0	0	0	0	0	0	0	0	0	0	0	0	0
0	0	0	0	0	0	0	927	927	932	932	932	935	937	942	945	945	950	953	953	955	958	966	966	972	974	974	980	983	988	988	988	991	997	997	1003	1008	1008	1011	1014	1014	1017	1026	1030	1030	1036	1042	1045	1048	1055	1061	1064	1068	1071	1074	1074	1074	1078	1078	1078	1081	1078	1078	1078	0	0	0	0	0	0	0	0	0	4906	4906	4906	4906	4906	0	0	0	4838	4771	4771	4771	4771	4838	4838	4838	4838	4906	4906	4906	4906	4906	4906	4906	4906	4906	4906	4906	4906	4906	4906	4906	4906	4838	4838	4838	4838	4838	4771	4771	4838	4906	4906	4906	4906	4906	4838	4838	4771	4706	4771	4771	4771	4771	4771	4838	4838	4771	4771	4771	4771	4771	4771	4771	4771	4771	4771	4771	4771	4771	4771	4771	4771	4771	4771	4706	4706	4706	4706	4706	4706	4706	4706	4706	4706	4771	4838	4838	4906	4906	4977	4977	4977	4977	5050	5125	5202	5282	5282	5364	5282	5282	5282	5364	5282	5282	5282	5282	5282	5282	5282	5282	5282	5364	5364	5364	5364	5364	5282	5282	5282	5202	5202	5202	5202	5202	5282	5282	5282	5282	5282	0	0	0	0	0	0	0	0	0	0	8343	8146	8146	7959	8146	7959	7779	7779	7959	7959	8146	7959	7959	7959	7959	7959	7779	7779	7779	7608	0	0	0	0	0	0	0	0	0	0	0	0	0	0	0	0	7444	7287	7287	7444	7287	7287	7444	7287	7287	7287	7287	7287	7444	7444	8146	7959	7959	8343	8146	8343	8146	8146	8343	7959	7779	7287	6992	6853	6853	6853	6992	6992	6992	6992	6992	7137	6992	6992	6992	0	0	3583	3510	3510	3475	3475	3475	3475	3475	3440	3475	3440	3475	3440	3440	3440	3440	3440	3440	3440	3475	3440	3475	3475	3510	3475	3440	3440	3440	3440	3440	3406	3406	3406	3406	3406	3406	3406	3406	3406	3406	3406	3406	3406	3406	3406	3406	3406	4706	4706	4643	4643	4643	4643	4643	4643	4643	4706	4706	4706	4643	4643	4643	4706	4706	4521	4521	4521	4521	4521	4463	4463	4463	4406	4350	4406	4463	4463	4521	4521	4521	4521	4521	4463	4521	4463	4463	4521	4521	4521	4521	4521	4521	4521	4463	4463	4521	4643	4581	4643	4581	4706	4643	4643	4643	4643	4643	4706	4643	4643	4643	4643	4643	4706	4706	4706	4706	4706	4706	4706	4706	4643	4643	4643	4581	4581	4581	4581	4581	4581	4643	4643	4643	4643	4643	4581	4581	4521	4521	4463	4463	4463	4406	4406	4463	4521	4581	4581	4581	4643	4643	4643	4643	4581	4581	4581	4581	4643	4643	4643	4643	4643	4643	4643	4643	4643	4643	4643	4643	4643	4643	4643	4643	4643	4643	4643	4643	4643	4581	4643	4643	4581	4581	4643	4643	4643	4643	4643	4643	4643	4643	4581	4581	4643	4643	4643	4643	4643	4643	4643	4643	4643	4643	4581	4581	4521	4581	4581	4643	4581	4581	4581	4521	4463	4406	4406	4350	4296	4350	4406	4463	4521	4643	4643	4643	4643	4581	4581	4581	4581	4643	4643	4643	0	0	0	0	0	0	0	0	0	0	0	0	0	0	0	0	0	0	0	0	0	0	0	0	0	0	0	0	0	7444	7444	7608	7608	7608	7608	7608	7779	7779	7608	7444	7608	7444	7444	7444	7444	7444	7444	7444	7444	7444	7444	7444	7444	7444	7444	7444	7444	7444	7444	7444	7444	7444	7287	7287	7287	7287	7287	7444	7444	7444	7444	7444	7444	7608	7608	0	0	0	0	0	0	0	0	0	0	0	0	0	0	0	0	0	0	0	0	0	0	0	0	0	0	0	0	0	0	0	0	0	0	0	0	0	0	0	0	0	0
0	0	0	0	0	0	0	927	930	930	932	932	937	940	942	945	945	950	953	953	955	958	963	963	969	974	974	977	980	983	988	988	988	997	1006	1006	1008	1011	1011	1014	1014	1017	1023	1030	1033	1036	1045	1045	1048	1055	1061	1064	1068	1071	1074	1074	1074	1078	1078	1078	1078	1078	1078	1078	0	0	0	0	0	0	0	0	4906	4906	4838	4838	4838	4838	0	0	0	4838	4771	4771	4771	4771	4771	4771	4838	4838	4838	4906	4906	4906	4906	4906	4906	4906	4906	4906	4906	4906	4906	4977	4906	4906	4838	4838	4838	5050	4838	4771	4771	4771	4906	4906	4838	4906	4838	4838	4838	4771	4706	4771	4771	4771	4771	4771	4838	4838	4838	4838	4771	4771	4838	4838	4771	4771	4771	4771	4771	4771	4771	4771	4771	4706	4706	4706	4706	4706	4706	4706	4706	4706	4771	4771	4771	4771	4771	4838	4838	4838	4906	4977	4977	4977	4977	5050	5125	5202	5282	5282	5364	5282	5282	5282	5364	5282	5282	5282	5364	5364	5364	5282	5282	5282	5364	5282	5282	5282	5282	5282	5282	5282	5202	5202	5202	5202	5202	5282	5282	5282	5282	5282	5282	0	0	0	0	0	0	0	0	0	8343	8146	8146	7959	8146	7959	7959	7959	7959	8146	8146	7959	7959	7959	7959	7959	7779	7779	7779	0	0	0	0	0	0	0	0	0	0	0	0	0	0	0	0	7287	7287	7287	7287	7287	7287	7287	7444	7287	7287	7287	7287	7287	7287	7444	7444	7959	8343	8343	8343	8343	8343	8146	8343	8146	7959	7287	6992	6992	6853	6992	6992	6992	6992	6992	6992	7137	6992	6992	6992	0	0	0	0	3475	3475	3475	3475	3475	3475	3440	3475	3475	3475	3440	3440	3440	3440	3440	3440	3440	3475	3475	3475	3475	3475	3475	3440	3440	3440	3440	3440	3440	3440	3406	3406	3406	3406	3406	3406	3406	3406	3406	3406	3406	3406	3406	3440	3440	4706	4706	4706	4706	4643	4706	4706	4643	4643	4643	4643	4643	4643	4643	4643	4706	4706	4521	4521	4521	4521	4521	4521	4463	4406	4406	4406	4406	4350	4350	4406	4463	4406	4406	4406	4350	4406	4463	4406	4406	4463	4463	4463	4463	4463	4406	4350	4350	4350	4296	4350	4296	4406	4521	4581	4581	4643	4643	4643	4706	4643	4643	4643	4581	4581	4643	4581	4643	4706	4706	4643	4643	4643	4643	4643	4581	4521	4521	4521	4521	4521	4521	4521	4521	4521	4521	4521	4521	4521	4463	4463	4463	4463	4463	4406	4406	4463	4463	4521	4581	4581	4643	4643	4643	4643	4643	4643	4643	4643	4643	4643	4643	4643	4643	4643	4643	4581	4643	4643	4643	4643	4643	4643	4643	4643	4643	4643	4643	4643	4643	4643	4643	4581	4581	4581	4581	4581	4643	4581	4643	4643	4643	4643	4643	4643	4643	4643	4643	4643	4643	4643	4643	4643	4643	4643	4581	4581	4581	4581	4581	4643	4643	4581	4581	4463	4463	4406	4406	4350	4296	4296	4406	4521	4581	4643	4643	4643	4643	4581	4581	4581	4581	4643	4643	0	0	0	0	0	0	0	0	0	0	0	0	0	0	0	0	0	0	0	0	0	0	0	0	0	0	0	0	0	0	7444	7444	0	7608	7608	7779	7779	7959	7959	7779	7608	7444	7444	7444	7444	7444	7444	7287	7444	7444	7444	7444	7444	7444	7608	7444	7444	7444	7608	7444	7608	7444	7444	7287	7287	7287	7444	7444	7444	7608	7444	7444	7444	7444	7608	7608	7608	0	0	0	0	0	0	0	0	0	0	0	0	0	0	0	0	0	0	0	0	0	0	0	0	0	0	0	0	0	0	0	0	0	0	0	0	0	0	0	0	0
0	0	0	0	0	0	0	925	927	927	930	932	937	940	942	945	948	950	953	953	955	958	958	963	963	974	977	980	980	985	988	988	991	997	1000	1003	1008	1011	1011	1014	1014	1017	1023	1026	1036	1042	1045	1045	1048	1052	1058	1064	1071	1071	1074	1074	1074	1078	1078	1078	1081	1078	1078	0	0	0	0	0	0	0	0	0	4838	4838	4838	4838	4771	4771	0	0	4771	4771	4838	4771	4771	4771	4838	4838	4838	4838	4838	4906	4906	4906	4906	4906	4906	4906	4906	4906	4906	4906	4906	4906	4906	4906	4838	4838	4771	5050	4771	4771	4771	4838	4906	4906	4906	4906	4906	4906	4906	4838	4771	4771	4771	4771	4771	4771	4771	4771	4771	4771	4771	4771	4838	4771	4771	4771	4771	4771	4771	4706	4706	4771	4706	4706	4643	4643	4706	4706	4771	4771	4771	4771	4771	4771	4771	4771	4838	4838	4838	4906	4906	4977	5050	5050	5050	5125	5125	5202	5282	5364	5364	5364	5364	5282	5364	5282	5282	5282	5364	5282	5282	5282	5282	5282	5282	5282	5282	5282	5364	5364	5282	5282	5282	5202	5202	5202	5202	5282	5282	5282	5364	5364	5364	5364	5364	0	0	0	0	0	0	0	8343	8146	8146	8146	8146	7959	7959	7959	8146	8146	8146	7959	7959	7959	7959	7959	7779	7779	7779	0	0	0	0	0	0	0	0	0	0	0	0	7608	7608	0	7287	7137	7137	7137	7137	7137	7137	7137	7287	7137	7137	7287	7287	7287	7287	7608	7959	8146	8343	8343	8343	8343	8343	8146	8146	8146	8146	7959	7137	7137	6992	6992	6992	6853	6992	6992	6992	7137	7137	7137	7137	0	0	0	0	3475	3475	3475	3475	3475	3475	3440	3475	3440	3475	3440	3440	3440	3440	3440	3440	3440	3440	3475	3475	3475	3475	3475	3475	3440	3440	3440	3440	3440	3440	3406	3406	3406	3406	3406	3406	3373	3406	3406	3406	3406	3406	3406	3440	3440	3440	4706	4706	4706	4706	4706	4706	4706	4643	4643	4643	4643	4643	4643	4581	4581	4581	4521	4521	4521	4521	4521	4521	4463	4406	4350	4296	4296	4296	4296	4406	4406	4350	4350	4350	4296	4350	4296	4350	4350	4350	4406	4406	4463	4350	4350	4296	4296	4296	4296	4296	4296	4350	4406	4463	4521	4581	4581	4581	4643	4581	4581	4581	4521	4521	4581	4521	4581	4643	4643	4643	4643	4643	4581	4581	4521	4463	4406	4406	4463	4463	4463	4463	4463	4463	4463	4521	4521	4463	4463	4463	4463	4463	4463	4406	4406	4463	4463	4521	4581	4581	4643	4643	4643	4643	4643	4643	4643	4643	4643	4643	4643	4643	4643	4643	4643	4643	4643	4643	4643	4706	4643	4643	4643	4643	4643	4643	4643	4643	4643	4581	4643	4643	4581	4581	4643	4643	4643	4581	4643	4643	4643	4643	4643	4643	4643	4643	4643	4643	4643	4643	4643	4643	4643	4643	4643	4643	4581	4581	4581	4643	4581	4581	4521	4463	4463	4406	4406	4350	4296	4406	4463	4581	4643	4643	4643	4643	4581	4581	4521	4581	4581	4643	4643	0	0	0	0	0	0	0	0	0	0	0	0	0	0	0	0	0	0	0	0	0	0	0	0	0	0	0	0	0	0	0	0	0	0	0	7779	7959	7959	7959	7959	7608	7608	7444	7444	7287	7444	7287	7287	7444	7444	7444	7444	7444	7444	7608	7444	7444	7444	7444	7444	7444	7444	7444	7444	7444	7444	7444	7444	7444	7444	7444	7444	7444	7444	7444	7444	7444	0	0	0	0	0	0	0	0	0	0	0	0	0	0	0	0	0	0	0	0	0	0	0	0	0	0	0	0	0	0	0	0	0	0	0	0	0	0	0	0	0
0	0	0	0	0	0	0	927	927	927	930	935	940	942	945	948	945	948	948	953	955	961	966	966	969	974	977	980	980	985	985	988	988	997	1000	1003	1008	1008	1011	1011	1014	1014	1023	1026	1039	1045	1048	1048	1048	1052	1061	1068	1071	1071	1074	1074	1074	1078	1078	1081	1081	1081	1081	1081	0	0	0	0	0	0	0	0	4838	4906	4838	4838	4838	4771	4771	0	4771	4771	4771	4771	4771	4771	4771	4838	4906	4906	4906	4906	4906	4906	4906	4906	4906	4906	4906	4906	4906	4906	4906	4906	4906	4906	4838	4838	4771	4977	4977	4771	4771	4771	4906	4906	4838	4906	4906	4906	4838	4771	4771	4771	4771	4771	4771	4771	4771	4771	4838	4838	4771	4771	4838	4771	4771	4771	4771	4771	4706	4643	4643	4706	4706	4643	4643	4706	4706	4771	4771	4771	4771	4771	4838	4838	4771	4838	4838	4906	4906	4906	4906	4977	5050	5050	4977	5125	5125	5202	5282	5282	5364	5364	5364	5364	5364	5282	5282	5282	5282	5282	5282	5282	5282	5282	5282	5282	5282	5282	5282	5364	5282	5282	5282	5282	5202	5202	5202	5282	5282	5282	5364	5364	5364	5364	5364	0	0	0	0	0	0	0	8343	8146	8146	8146	8146	8146	7959	7959	8146	8146	8146	8146	8146	7959	8146	8146	8146	7779	7779	0	0	0	0	0	0	0	0	0	0	0	0	7608	7444	7287	7287	7137	7137	6992	6992	7137	6992	7137	7137	7137	7137	7287	7287	7287	7444	7779	7959	7959	8343	8343	8343	8343	8343	8343	8146	7959	7959	7779	7287	7137	6992	6992	6992	6853	6992	6992	6992	7137	7137	7137	7137	0	0	0	0	3510	3510	3475	3475	3475	3475	3440	3475	3475	3440	3475	3440	3440	3475	3475	3475	3475	3475	3475	3475	3475	3475	3475	3440	3440	3440	3440	3440	3440	3440	3406	3406	3406	3406	3406	3406	3373	3406	3406	3406	3406	3406	3406	3406	3406	3406	4643	4706	4706	4706	4643	4706	4706	4706	4706	4643	4643	4643	4643	4643	4643	4581	4581	4581	4581	4521	4521	4521	4463	4406	4463	4406	4406	4350	4296	4463	4350	4350	4350	4350	4296	4296	4296	4350	4350	4350	4350	4350	4350	4350	4296	4296	4296	4296	4296	4296	4296	4350	4350	4406	4463	4521	4521	4521	4581	4581	4521	4521	4521	4463	4521	4463	4521	4521	4521	4521	4521	4521	4521	4521	4463	4406	4406	4406	4463	4406	4463	4463	4463	4463	4463	4463	4463	4463	4463	4463	4463	4463	4406	4406	4406	4463	4463	4521	4521	4581	4581	4643	4643	4643	4643	4643	4581	4581	4643	4643	4643	4643	4643	4643	4643	4643	4643	4643	4643	4643	4643	4643	4643	4643	4643	4643	4643	4643	4643	4581	4643	4643	4643	4581	4643	4581	4643	4643	4643	4643	4643	4643	4643	4643	4643	4643	4643	4643	4643	4643	4643	4643	4643	4643	4643	4643	4581	4581	4581	4581	4581	4521	4463	4463	4463	4406	4406	4350	4350	4406	4463	4521	4581	4643	4643	4643	4581	4581	4581	4581	4643	4643	4643	0	0	0	0	0	0	0	0	0	0	0	0	0	0	0	0	0	0	0	0	0	0	0	0	0	0	0	0	0	0	0	0	0	0	0	7779	7959	7959	7959	7779	7608	7444	7444	7287	7287	7287	7287	7287	7287	7444	7444	7444	7444	7608	7608	7608	7444	7444	7444	7444	7444	7444	7444	7444	7444	7444	7444	7444	7444	7444	7444	7444	7444	7444	7444	7444	7444	0	0	0	0	0	0	0	0	0	0	0	0	0	0	0	0	0	0	0	0	0	0	0	0	0	0	0	0	0	0	0	0	0	0	0	0	0	0	0	0	0
0	0	0	0	0	0	0	925	927	927	930	937	940	942	942	945	948	950	953	955	958	963	966	966	972	974	977	977	980	983	985	988	991	997	1000	1003	1006	1008	1011	1011	1014	1017	1023	1023	1042	1048	1048	1048	1048	1052	1061	1068	1071	1074	1074	1074	1074	1078	1081	1081	1081	1081	1081	1081	0	0	0	0	0	0	0	0	0	4906	4838	4906	4838	4906	4906	4906	4906	4906	4838	4838	4771	4771	4838	4906	4906	4906	4906	4906	4906	4906	4906	4906	4906	4906	4906	4906	4906	4906	4906	4906	4906	4906	4838	4771	4771	4977	4977	4771	4838	4838	4906	4906	4906	4906	4906	4906	4906	4838	4771	4771	4771	4771	4771	4771	4771	4771	4838	4838	4838	4771	4838	4771	4771	4771	4771	4706	4706	4643	4706	4706	4643	4643	4643	4706	4706	4771	4771	4771	4838	4838	4838	4838	4771	4838	4838	4906	4906	4906	4906	4977	4977	5050	4977	5050	5125	5202	5202	5282	5364	5364	5282	5282	5364	5282	5282	5282	5282	5282	5282	5282	5202	5202	5282	5282	5282	5282	5282	5282	5282	5282	5282	5202	5202	5282	5282	5282	5282	5282	5364	5364	5364	5364	5364	0	0	0	0	0	0	0	8343	8146	8146	8146	8146	8146	7959	7959	8146	8146	8146	8146	8146	7959	8146	8146	8146	0	0	0	0	0	0	0	0	0	0	0	0	0	0	7608	7287	7287	6992	6992	6992	6992	6992	6992	6992	6992	6992	7137	7137	7287	7137	7287	7287	7444	7608	7779	7959	8146	8146	8146	8146	8146	8146	7779	7779	7287	7137	6992	6853	6853	6853	6853	6992	7137	7137	7137	7137	7287	7287	0	0	0	0	3510	3475	3475	3475	3475	3475	3440	3475	3475	3475	3440	3440	3440	3440	3440	3440	3475	3475	3475	3475	3475	3475	3475	3440	3440	3440	3440	3440	3440	3406	3406	3406	3406	3406	3406	3406	3406	3406	3406	3406	3406	3406	3406	3406	3406	3406	4581	4706	4706	4706	4643	4706	4706	4706	4643	4643	4643	4643	4643	4643	4643	4581	4581	4581	4581	4581	4521	4521	4463	4406	4463	4406	4463	4350	4296	4463	4350	4350	4350	4350	4296	4296	4296	4296	4296	4296	4296	4350	4350	4296	4296	4243	4243	4243	4296	4296	4296	4296	4350	4406	4463	4521	4521	4521	4581	4521	4463	4463	4463	4406	4463	4463	4463	4463	4463	4463	4463	4463	4463	4463	4463	4406	4406	4406	4406	4406	4406	4463	4406	4406	4463	4463	4463	4463	4406	4463	4406	4406	4406	4406	4406	4406	4463	4463	4521	4581	4581	4643	4643	4643	4643	4643	4643	4643	4643	4643	4643	4643	4643	4643	4643	4581	4643	4581	4581	4581	4643	4643	4643	4643	4643	4643	4643	4643	4643	4643	4643	4643	4643	4581	4643	4581	4643	4643	4643	4643	4643	4643	4643	4643	4643	4643	4643	4643	4643	4643	4643	4643	4643	4643	4643	4643	4581	4643	4581	4581	4521	4521	4463	4521	4463	4463	4463	4406	4406	4463	4581	4581	4643	4643	4643	4643	4581	4581	4581	4581	4643	4643	4643	0	0	0	0	0	0	0	0	0	0	0	0	0	0	0	0	0	0	0	0	0	0	0	0	0	0	0	0	0	0	0	0	0	0	0	0	7959	7779	7779	7608	7444	7444	7444	7287	7444	7444	7287	7287	7444	7444	7444	7444	7608	7608	7608	7608	7444	7444	7608	7444	7444	7444	7444	7444	7444	7444	7444	7444	7444	7444	7444	7444	7444	7444	7444	7444	7444	7444	0	0	0	0	0	0	0	0	0	0	0	0	0	0	0	0	0	0	0	0	0	0	0	0	0	0	0	0	0	0	0	0	0	0	0	0	0	0	0	0
0	0	0	0	0	0	0	925	925	925	927	940	942	945	945	945	948	948	953	958	961	966	969	969	972	974	977	977	977	983	985	988	991	997	1003	1003	1006	1008	1011	1011	1014	1017	1023	1026	1045	1048	1048	1048	1048	1052	1064	1068	1074	1074	1078	1074	1078	1078	1081	1081	1085	1081	1081	1081	0	0	0	0	0	0	0	0	0	4838	4838	4906	4906	4838	4838	4906	4906	4838	4838	4906	4838	4771	4838	4838	4906	4906	4906	4906	4906	4906	4906	4906	4906	4906	4906	4906	4906	4906	4906	4906	4906	4906	4838	4838	4838	4838	4771	4771	4838	4838	4906	4906	4906	4906	4906	4906	4906	4838	4771	4771	4771	4771	4771	4771	4771	4771	4771	4771	4838	4838	4838	4838	4771	4771	4771	4706	4706	4643	4706	4706	4643	4643	4643	4706	4706	4771	4771	4771	4771	4771	4771	4771	4771	4771	4838	4906	4906	4906	4906	4977	4977	5050	4977	5050	5125	5202	5202	5282	5282	5282	5282	5282	5282	5282	5282	5282	5282	5282	5282	5202	5202	5202	5202	5202	5202	5282	5282	5282	5282	5282	5282	5202	5202	5282	5282	5282	5282	5282	5364	5364	5448	5364	5364	0	0	0	0	0	0	0	8343	8146	8146	8146	8146	8146	7959	7959	8146	8146	8146	8146	8146	7959	8146	8146	0	0	0	0	0	0	0	0	0	0	7959	7959	0	0	0	7287	7137	7137	6992	6992	6992	6853	6853	6853	6853	6853	6992	6992	7137	7137	7137	7137	7287	7444	7608	7779	7959	8146	8146	8146	8146	8146	7959	7779	7779	7287	7287	7137	6853	6992	6992	6992	6992	7137	7137	7137	7137	7137	7137	0	0	0	0	3510	3510	3475	3475	3475	3475	3475	3475	3475	3475	3475	3475	3440	3440	3475	3475	3475	3475	3475	3475	3475	3475	3475	3440	3440	3440	3440	3440	3440	3406	3406	3406	3406	3406	3406	3406	3406	3406	3406	3406	3406	3406	3406	3406	3406	3406	4643	4643	4706	4706	4706	4706	4706	4706	4706	4643	4643	4643	4643	4643	4643	4643	4581	4581	4581	4581	4521	4521	4463	4463	4463	4463	4463	4406	4463	4463	4406	4406	4350	4350	4296	4296	4296	4296	4296	4296	4296	4350	4406	4350	4350	4296	4243	4296	4296	4296	4296	4296	4350	4463	4463	4521	4521	4521	4521	4463	4463	4463	4406	4406	4406	4406	4463	4463	4463	4463	4463	4463	4463	4463	4463	4406	4406	4406	4406	4406	4463	4463	4406	4406	4406	4406	4406	4406	4406	4463	4406	4406	4406	4406	4406	4406	4406	4463	4521	4581	4581	4581	4643	4581	4581	4581	4581	4581	4643	4581	4643	4643	4643	4643	4643	4581	4581	4581	4521	4521	4521	4643	4643	4643	4643	4643	4643	4643	4643	4643	4643	4643	4643	4643	4643	4643	4643	4643	4643	4643	4643	4643	4643	4643	4643	4643	4643	4643	4643	4643	4581	4643	4643	4643	4643	4643	4581	4581	4581	4581	4521	4521	4521	4521	4463	4463	4463	4463	4463	4463	4581	4581	4643	4581	4643	4643	4643	4643	4643	4643	4643	4643	0	0	0	0	0	0	0	0	0	0	0	0	0	0	0	0	0	0	0	0	0	0	0	0	0	0	0	0	0	0	0	0	0	0	0	0	0	7959	7779	7779	7608	7444	7444	7444	7287	7444	7444	7287	7444	7444	7444	7608	7608	7779	7608	7608	7608	7444	7444	7608	7608	7608	7444	7444	7608	7608	7444	7444	7444	7444	7444	7444	7444	7444	7287	7287	7287	7444	7444	0	0	0	0	0	0	0	0	0	0	0	0	0	0	0	0	0	0	0	0	0	0	0	0	0	0	0	0	0	0	0	0	0	0	0	0	0	0	0	0
0	0	0	0	0	0	0	925	927	925	927	940	942	945	945	945	948	950	953	958	961	966	969	969	972	974	977	977	977	983	985	988	991	1000	1003	1006	1006	1008	1011	1011	1014	1020	1023	1042	1045	1048	1048	1048	1048	1052	1061	1068	1071	1074	1078	1074	1078	1081	1085	1085	1085	1081	1081	1081	0	0	0	0	0	0	0	0	4838	4838	4906	4906	4906	4838	4906	4906	4838	4838	4838	4838	4838	4771	4906	4906	4906	4906	4906	4906	4906	4906	4906	4906	4906	4906	4906	4906	4906	4906	4906	4906	4906	4906	4838	4838	4838	4838	4771	4771	4771	4838	4906	4906	4906	4906	4906	4906	4906	4838	4838	4838	4771	4771	4771	4771	4771	4771	4838	4838	4838	4838	4838	4838	4771	4771	4771	4706	4706	4643	4706	4706	4706	4706	4706	4771	4771	4771	4771	4771	4771	4771	4771	4771	4706	4771	4771	4838	4838	4838	4906	4977	4977	5050	5050	5050	5125	5125	5202	5282	5282	5282	5202	5282	5282	5282	5282	5282	5202	5202	5202	5202	5202	5202	5202	5202	5202	5202	5202	5282	5282	5282	5282	5282	5282	5282	5282	5364	5364	5364	5364	5364	5448	5364	5364	0	0	0	0	0	0	8343	8343	8146	8146	8146	8146	8146	7959	7959	7959	7959	7959	7959	7959	7959	8146	8146	8146	0	0	0	0	0	0	0	7779	7779	7779	7959	0	0	0	7137	7137	7137	7137	6992	6992	6853	6853	6992	6992	6992	6992	7137	7137	7137	7137	7137	7287	7444	7444	7779	7779	8146	8146	7959	7959	7959	7959	7779	7779	7287	7287	7137	6992	6992	6992	6992	6992	7137	7137	7137	7137	7137	7137	0	0	0	0	3475	3475	3475	3475	3475	3475	3475	3475	3475	3475	3440	3440	3440	3475	3475	3475	3475	3475	3475	3475	3475	3475	3475	3475	3440	3440	3440	3440	3440	3440	3406	3406	3406	3406	3406	3373	3373	3406	3406	3406	3406	3406	3406	3406	3406	4581	4581	4643	4706	4643	4643	4706	4706	4706	4643	4706	4706	4706	4643	4643	4643	4706	4581	4581	4581	4581	4521	4521	4463	4463	4406	4406	4406	4406	4406	4463	4406	4463	4406	4406	4296	4350	4350	4350	4350	4350	4350	4406	4463	4463	4463	4406	4350	4350	4350	4296	4296	4296	4350	4406	4463	4521	4463	4521	4521	4463	4463	4521	4463	4521	4463	4406	4463	4463	4463	4463	4463	4463	4463	4463	4463	4406	4406	4406	4463	4463	4463	4463	4463	4406	4406	4406	4406	4406	4463	4463	4463	4406	4406	4406	4406	4406	4406	4406	4463	4521	4521	4581	4581	4643	4581	4581	4581	4521	4581	4581	4581	4581	4581	4581	4521	4521	4521	4463	4463	4521	4521	4521	4581	4581	4643	4643	4581	4643	4643	4643	4643	4643	4643	4643	4643	4643	4643	4643	4643	4643	4643	4643	4581	4643	4643	4643	4581	4581	4581	4643	4581	4643	4581	4643	4643	4581	4581	4581	4581	4581	4521	4521	4463	4521	4463	4463	4463	4463	4463	4521	4521	4581	4643	4643	4643	4643	4581	4643	4643	4643	4643	4643	0	0	0	0	0	0	0	0	0	0	0	0	0	0	0	0	0	0	0	0	0	0	0	0	0	0	0	0	0	0	0	0	0	0	0	0	0	0	0	7608	7608	7444	7444	7287	7287	7444	7444	7287	7287	7287	7444	7444	7608	7779	7608	7779	7444	7444	7444	7608	7444	7444	7444	7444	7444	7444	7444	7444	7444	7444	7444	7444	7444	7287	7287	7287	7287	7444	7444	2343	2343	0	0	0	0	0	0	0	0	0	0	0	0	0	0	0	0	0	0	0	0	0	0	0	0	0	0	0	0	0	0	0	0	0	0	0	0	0	0
0	0	0	0	0	0	0	925	927	925	930	937	940	945	945	948	948	953	955	958	961	966	969	969	972	974	977	980	980	983	983	988	988	1000	1006	1006	1008	1011	1011	1014	1017	1020	1023	1042	1045	1048	1048	1048	1048	1052	1055	1064	1071	1074	1074	1074	1074	1078	1078	1078	1078	1081	1081	1081	0	0	0	0	0	0	0	0	4838	4906	4906	4906	4906	4838	4906	4838	4838	4838	4838	4838	4771	4771	4906	4906	4906	4906	4906	4906	4906	4906	4906	4906	4906	4906	4838	4838	4838	4838	4906	4906	4906	4838	4838	4838	4838	4838	4838	4771	4838	4838	4906	4906	4906	4906	4906	4906	4906	4838	4838	4838	4771	4771	4771	4838	4838	4771	4838	4838	4838	4838	4838	4838	4771	4838	4771	4706	4706	4643	4706	4706	4706	4706	4706	4771	4771	4771	4771	4771	4771	4771	4771	4706	4706	4771	4771	4838	4838	4838	4906	4977	4977	4977	4977	5050	5125	5125	5202	5202	5282	5282	5282	5282	5282	5282	5282	5202	5202	5202	5202	5202	5202	5202	5202	5202	5202	5202	5202	5282	5282	5282	5282	5282	5282	5364	5364	5364	5282	5364	5364	5364	5448	5448	5364	0	0	0	0	0	0	8343	8146	8146	8146	8146	8146	8146	7779	7779	7779	7959	7959	7959	7959	7959	7959	7959	8146	0	0	0	0	0	7779	7779	7608	7608	7608	0	0	0	7137	7137	7137	7137	7137	6992	6992	6853	6992	6992	6992	6992	6992	7137	7137	7137	7137	7137	7137	7287	7444	7779	7779	8146	8146	8146	7959	7959	7959	7779	7779	7608	7444	7287	7137	6992	6992	6992	6992	7137	7137	7137	7137	7137	7137	0	0	0	3510	3475	3475	3475	3475	3475	3440	3475	3475	3475	3475	3440	3440	3475	3475	3475	3475	3475	3475	3475	3475	3475	3475	3475	3440	3440	3440	3440	3440	3440	3440	3406	3406	3406	3406	3406	3406	3406	3406	3406	3406	3406	3406	3406	3406	3373	3373	4581	4581	4643	4643	4643	4643	4643	4643	4706	4706	4643	4706	4643	4643	4706	4706	4581	4581	4581	4581	4521	4521	4521	4463	4463	4463	4463	4463	4463	4463	4463	4463	4463	4406	4350	4350	4406	4406	4406	4463	4463	4521	4521	4521	4521	4463	4463	4406	4406	4406	4350	4350	4406	4463	4463	4521	4581	4521	4581	4581	4521	4521	4463	4463	4463	4406	4463	4463	4463	4521	4463	4463	4463	4463	4463	4406	4406	4406	4521	4521	4463	4463	4463	4463	4463	4463	4463	4463	4463	4463	4463	4463	4406	4406	4406	4406	4406	4406	4463	4521	4521	4521	4581	4581	4521	4521	4463	4463	4463	4521	4521	4521	4521	4521	4463	4463	4463	4463	4463	4463	4463	4521	4521	4581	4581	4521	4521	4581	4643	4581	4643	4643	4581	4643	4643	4643	4643	4643	4643	4643	4643	4643	4581	4643	4643	4643	4581	4581	4581	4581	4581	4581	4581	4581	4581	4581	4581	4581	4581	4521	4463	4463	4463	4463	4463	4463	4463	4463	4463	4521	4521	4581	4581	4643	4581	4581	4581	4581	4643	4643	4706	4706	0	0	0	0	0	0	0	0	0	0	0	0	0	0	0	0	0	0	0	0	0	0	0	0	0	0	0	0	0	0	0	0	0	0	0	0	0	2426	2426	7608	7608	7608	7444	7287	7287	7287	7287	7287	7287	7444	7444	7608	7444	7779	7779	7779	7608	7608	7444	7444	7444	7444	7444	7444	7444	2359	2359	2343	2343	2343	7444	7444	7444	7287	7287	7137	7137	7137	7137	2343	2343	2327	2327	0	0	0	0	0	0	0	0	0	0	0	0	0	0	0	0	0	0	0	0	0	0	0	0	0	0	0	0	0	0	0	0	0	0	0	0
0	0	0	0	0	0	0	925	927	925	930	935	940	942	945	945	948	953	955	958	961	963	966	969	972	974	977	980	980	983	985	988	991	1000	1003	1006	1008	1011	1014	1014	1017	1023	1023	1042	1045	1048	1048	1048	1048	1052	1055	1061	1068	1071	1071	1071	1074	1078	1078	1078	1078	1081	1081	1081	0	0	0	0	0	0	0	0	4838	4906	4906	4838	4906	4838	4838	4838	4838	0	0	0	4771	4771	4906	4906	4906	4906	4906	4906	4906	4906	4906	4906	4906	4906	4838	4838	4838	4838	4906	4906	4838	4838	4838	4838	4838	4838	4771	4706	4771	4771	4838	4838	4838	4906	4906	4906	4906	4838	4838	4838	4838	4771	4771	4838	4838	4771	4838	4838	4838	4838	4838	4838	4771	4838	4771	4706	4643	4706	4706	4706	4706	4771	4771	4771	4771	4771	4771	4771	4771	4771	4771	4706	4706	4771	4771	4838	4838	4838	4906	4906	4977	4977	4977	5050	5125	5125	5202	5202	5202	5282	5282	5282	5282	5282	5282	5202	5202	5202	5202	5202	5125	5202	5202	5202	5202	5282	5282	5282	5282	5282	5282	5282	5282	5282	5364	5364	5282	5364	5364	5364	5448	5448	0	0	0	0	0	0	0	0	8146	8146	8146	8146	8146	7959	7779	7779	7779	7779	7959	7779	7779	7779	7779	7779	7779	0	0	0	7444	7444	7444	7444	7608	7608	7608	0	0	0	7137	6992	6992	7137	6992	6992	6992	6992	6992	6992	6992	6992	6992	7137	7137	7137	7137	7137	7137	7287	7444	7779	7959	7959	8343	8146	7959	8146	7959	7959	7779	7779	7608	7287	7137	6992	6992	6992	6992	6992	7137	7137	7137	7137	7137	0	0	0	3475	3475	3475	3475	3475	3475	3440	3475	3475	3475	3475	3440	3440	3475	3440	3475	3475	3475	3475	3475	3475	3475	3475	3475	3440	3440	3440	3440	3440	3440	3440	3406	3406	3406	3406	3406	3406	3406	3406	3406	3406	3406	3406	3406	3373	3406	3406	4643	4643	4706	4643	4643	4643	4643	4643	4706	4706	4706	4706	4706	4706	4706	4706	4581	4581	4581	4643	4581	4581	4521	4521	4463	4463	4463	4463	4521	4521	4463	4521	4521	4463	4521	4521	4521	4581	4463	4521	4643	4643	4521	4643	4581	4521	4521	4463	4463	4463	4463	4521	4521	4581	4581	4643	4643	4643	4581	4643	4581	4581	4521	4581	4521	4521	4521	4521	4521	4521	4521	4521	4521	4521	4521	4463	4463	4463	4581	4521	4521	4581	4463	4463	4463	4521	4521	4521	4521	4521	4463	4463	4406	4406	4406	4406	4406	4406	4463	4521	4521	4463	4463	4463	4463	4463	4406	4406	4406	4463	4463	4463	4463	4463	4463	4406	4406	4406	4406	4406	4406	4463	4463	4463	4521	4463	4463	4521	4521	4581	4643	4643	4643	4643	4643	4643	4643	4643	4643	4643	4643	4643	4581	4643	4581	4581	4581	4581	4581	4581	4581	4581	4581	4581	4581	4581	4581	4581	4581	4581	4463	4463	4463	4463	4463	4463	4463	4463	4463	4463	4521	4521	4581	4581	4581	4581	4581	4581	4643	4643	4706	4706	0	0	0	0	0	0	0	0	0	0	0	0	0	0	0	0	0	0	0	0	0	0	0	0	0	0	0	0	0	0	0	0	0	0	0	2409	2409	2409	2426	2426	7608	7608	7287	7287	7287	2359	2343	2343	2343	2359	2359	2343	2343	2343	7779	7779	7608	7444	7444	2343	2343	2343	2312	2327	2327	2327	2327	2327	2343	2343	2343	2343	2343	2359	2359	7137	7137	2359	2359	2343	2343	2343	2327	2327	0	0	0	0	0	0	0	0	0	0	0	0	0	0	0	0	0	0	0	0	0	0	0	0	0	0	0	0	0	0	0	0	0	0	0
0	0	0	0	0	0	0	925	927	927	932	937	940	942	945	948	948	953	955	958	961	963	966	969	972	974	977	980	980	983	985	991	991	1000	1003	1003	1006	1008	1011	1014	1017	1020	1026	1042	1045	1045	1048	1048	1048	1048	1055	1061	1064	1071	1071	1074	1074	1078	1078	1078	1078	1078	1078	1081	0	0	0	0	0	0	0	4906	4838	4906	4838	4838	4838	4838	4906	4838	4838	0	0	0	4771	4771	4771	4838	4838	4838	4838	4906	4906	4906	4906	4906	4906	4906	4906	4906	4838	4838	4906	4906	4906	4838	4838	4838	4838	4838	4771	4771	4771	4771	4838	4838	4906	4906	4906	4906	4906	4838	4838	4838	4838	4771	4771	4838	4838	4771	4838	4838	4838	4838	4838	4838	4838	4838	4771	4706	4643	4643	4706	4706	4706	4771	4771	4771	4771	4771	4771	4771	4706	4706	4706	4706	4706	4706	4771	4838	4838	4838	4906	4977	4977	4977	4977	5050	5050	5125	5202	5202	5202	5282	5202	5282	5282	5282	5282	5282	5202	5202	5202	5202	5202	5202	5202	5202	5202	5282	5282	5282	5282	5282	5282	5282	5282	5364	5364	5448	5364	5364	5364	5364	5448	5448	0	0	0	0	0	0	0	0	8146	8146	8146	8146	8146	8146	7959	7779	7779	7779	7779	7779	7779	7779	7779	7608	7444	7287	7287	7287	7287	7287	7287	7287	7444	7287	7444	7287	7137	7137	7137	6992	7137	7137	6992	6992	6992	7137	6992	7137	7137	6992	7137	7137	7137	7137	7137	7137	7137	7444	7444	7779	7779	7959	8146	7959	7959	7959	7959	7779	7608	7608	7608	7137	7137	6992	6992	6992	6992	6992	6992	7137	7137	7137	7287	7287	0	0	3475	3475	3475	3475	3475	3440	3440	3440	3440	3440	3475	3440	3440	3475	3475	3440	3440	3475	3475	3475	3475	3475	3475	3475	3440	3440	3440	3440	3440	3406	3440	3440	3406	3406	3406	3406	3406	3373	3406	3406	3406	3406	3406	3406	3406	3406	3406	4643	4643	4706	4706	4706	4643	4643	4643	4643	4706	4706	4706	4706	4706	4706	4706	4581	4581	4581	4643	4581	4581	4521	4521	4521	4521	4521	4521	4581	4521	4521	4581	4581	4521	4581	4581	4581	4643	4643	4643	4643	4643	4643	4643	4643	4581	4581	4581	4581	4581	4581	4581	4581	4643	4643	4706	4706	4706	4643	4643	4643	4643	4643	4643	4581	4581	4643	4643	4581	4581	4581	4521	4521	4521	4521	4521	4463	4581	4643	4643	4581	4643	4581	4581	4521	4581	4521	4581	4581	4581	4521	4463	4406	4406	4406	4406	4406	4406	4406	4463	4463	4463	4463	4406	4406	4406	4406	4350	4406	4406	4406	4406	4406	4406	4406	4350	4350	4350	4350	4350	4350	4406	4463	4463	4463	4463	4463	4521	4521	4581	4581	4581	4643	4643	4581	4581	4643	4643	4643	4643	4643	4581	4581	4643	4581	4581	4581	4521	4581	4581	4521	4463	4463	4521	4521	4521	4521	4521	4521	4521	4463	4463	4463	4463	4463	4463	4406	4406	4463	4463	4463	4521	4521	4581	4581	4581	4581	4581	4581	4643	4643	4643	0	0	0	0	0	0	0	0	0	0	0	0	0	0	0	0	0	0	0	0	0	0	0	0	0	2514	2514	0	0	0	0	0	0	0	2409	2409	2409	2426	2426	2426	2409	2409	2376	2376	2376	2359	2343	2343	2359	2359	2359	2343	2343	2343	2312	2312	2297	2297	2297	2297	2359	2343	2327	2327	2327	2327	2327	2327	2327	2343	2343	2343	2343	2359	2343	2359	2343	2343	2343	2343	2343	2343	2327	2327	0	0	0	0	0	0	0	0	0	0	0	0	0	0	0	0	0	0	0	0	0	0	0	0	0	0	0	0	0	0	0	0	0	0	0
0	0	0	0	0	0	0	925	927	925	932	935	937	942	945	945	948	953	958	958	963	963	966	969	972	974	980	980	980	985	988	991	994	1000	1003	1003	1006	1008	1011	1014	1014	1023	1030	1042	1042	1045	1048	1048	1048	1055	1055	1061	1061	1068	1071	1074	1074	1078	1078	1078	1078	1078	1078	0	0	0	0	0	0	0	0	4906	4906	4906	4906	4838	4838	4838	4838	4838	4838	0	0	0	4706	4771	4771	4838	4838	4838	4838	4906	4906	4906	4906	4906	4906	4906	4906	4906	4906	4838	4906	4906	4906	4906	4838	4838	4838	4838	4771	4838	4771	4838	4906	4838	4906	4906	4906	4906	4906	4838	4838	4838	4838	4838	4838	4838	4838	4838	4838	4838	4838	4838	4838	4838	4771	4838	4771	4706	4706	4643	4706	4706	4706	4771	4771	4771	4771	4771	4706	4706	4706	4706	4706	4706	4643	4706	4706	4771	4771	4771	4838	4906	4906	4977	4977	5050	5125	5125	5125	5202	5202	5202	5202	5282	5282	5282	5202	5282	5202	5202	5202	5202	5125	5202	5202	5202	5282	5282	5282	5282	5202	5282	5202	5202	5282	5282	5282	5448	5364	5364	5364	0	0	0	0	0	0	0	0	0	0	0	8146	8146	8146	8146	8146	7959	7779	7779	7779	7779	7779	7608	7779	7608	7608	7444	7287	7137	7137	7287	7287	7137	7137	7137	7137	7137	7287	7137	7137	7137	7137	6992	7137	6992	7137	7137	6992	7137	7137	7137	7137	6992	7137	7137	7137	7137	7137	7137	7287	7287	7287	7779	7959	7959	7959	7959	7959	7779	7779	7779	7608	7608	7287	7137	6992	6992	6992	6992	6992	6992	6992	7137	7137	7137	7137	7137	0	0	3510	3475	3475	3475	3475	3475	3440	3475	3440	3440	3440	3440	3440	3475	3475	3440	3440	3475	3475	3475	3475	3475	3475	3475	3440	3440	3440	3440	3440	3406	3406	3406	3406	3406	3406	3406	3406	3406	3406	3406	3406	3406	3406	3406	3406	3406	4643	4643	4706	4706	4706	4706	4706	4643	4643	4643	4643	4643	4706	4643	4643	4706	4643	4581	4581	4581	4581	4581	4581	4521	4521	4581	4521	4581	4521	4643	4581	4521	4581	4581	4521	4521	4521	4581	4581	4581	4643	4706	4706	4643	4643	4643	4581	4643	4643	4581	4581	4581	4581	4643	4706	4643	4706	4706	4706	4706	4706	4643	4706	4706	4706	4643	4643	4706	4643	4643	4643	4581	4581	4581	4581	4643	4581	4581	4581	4643	4643	4643	4643	4643	4643	4643	4643	4581	4643	4581	4581	4581	4521	4406	4406	4406	4406	4406	4406	4406	4463	4463	4406	4406	4406	4406	4406	4406	4350	4350	4350	4350	4350	4350	4350	4350	4296	4296	4296	4296	4296	4350	4350	4406	4406	4463	4463	4463	4463	4521	4581	4643	4581	4581	4643	4643	4581	4643	4581	4581	4581	4581	4581	4581	4581	4581	4581	4521	4463	4463	4463	4463	4463	4463	4521	4521	4521	4521	4521	4463	4521	4463	4406	4406	4406	4463	4406	4406	4406	4406	4463	4463	4463	4521	4521	4581	4581	4581	4581	4581	4643	4643	4643	0	0	0	0	0	0	0	0	0	0	0	0	0	0	0	0	0	0	0	0	0	0	0	0	2514	2496	2478	2478	2478	2478	0	0	0	2426	2426	2426	2426	2426	2426	2426	2392	2392	2376	2376	2376	2359	2359	2359	2359	2359	2359	2343	2343	2343	2327	2327	2359	2359	2359	2359	2343	2343	2327	2327	2327	2327	2327	2327	2327	2327	2327	2327	2327	2327	2343	2343	2343	2343	2343	2343	2343	2343	2343	2343	0	0	0	0	0	0	0	0	0	0	0	0	0	0	0	0	0	0	0	0	0	0	0	0	0	0	0	0	0	0	0	0	0	0	0
