0	0	0	0	0	0	0	0	0	0	0	0	1480	1480	1486	1486	1492	1499	1499	1506	1512	1519	1525	1532	1532	1539	1539	1546	1560	1560	1567	1581	1589	1596	1603	1618	1618	1618	1634	1641	1649	1657	1673	1681	1681	1690	1690	1690	1690	1690	1690	1690	1698	1706	1706	1715	1741	1750	1759	1759	1768	1768	1768	1768	1777	1777	1786	1786	1786	2514	2514	2532	2514	2478	2478	2478	2478	2478	2478	2478	2478	2478	2478	2478	2478	2478	2478	2478	2478	2478	2478	2478	2478	2496	2496	2514	2514	2514	2514	2514	2514	2514	2496	2496	2478	2496	2496	2478	2478	2478	2478	2478	2496	2478	2478	2478	2496	2514	2514	2514	2514	2496	2496	2496	2514	2514	2496	2514	2514	2514	2514	2514	2496	2514	2514	2514	2514	2514	2532	2532	2551	2551	3373	3373	3373	3373	3373	3373	3373	3406	3406	3373	3373	3373	3373	3373	3341	3341	3341	3341	3373	3373	3341	3341	3341	3341	3341	3373	3373	3373	3373	3341	3341	3373	3373	3373	3341	3341	3373	3373	3475	3440	3475	3475	3475	3510	3510	3510	3510	3510	3546	3546	3546	3546	3546	3546	3546	3546	3546	3546	3583	3583	3583	3583	3583	3621	3621	3621	3621	3621	3621	3583	3583	3583	3583	3583	3546	3546	3546	3546	3546	3546	3583	3546	3546	3583	3546	3546	3546	3546	3546	3546	3546	3546	3546	3546	3546	3546	3546	3546	3583	3546	3546	3546	3546	3583	3583	3583	3583	3583	3583	3546	3546	3186	3186	3186	3157	3157	3157	3129	3129	3129	3129	3129	3129	3129	3129	3129	3129	3129	3129	3129	3101	3073	3073	3073	3073	3046	3046	3046	3073	3046	3046	3046	3046	3046	3046	3046	3046	3046	3046	3046	3046	3046	3046	3046	3046	3046	3046	3046	3046	3073	3073	3073	3073	3073	3073	3073	3073	3073	3073	3101	3101	3101	3129	3157	3157	3186	3186	3186	3186	3186	3157	3129	3157	3157	3157	3157	3129	3129	3129	3621	3621	3621	3621	3621	3621	3621	3583	3583	3583	3583	3583	3583	3583	3583	3583	3583	3583	3583	3583	3583	3583	3583	3583	3583	3583	3583	3583	3583	3583	3583	3583	3546	3546	3583	3583	3583	3583	3583	3583	3583	3583	3583	3583	3583	3583	3583	3621	3621	3621	3621	3621	3621	3621	3621	3621	3621	3621	3621	3621	3621	3621	3621	3621	3621	3621	3621	3621	3621	3621	3621	3621	3621	3621	3621	3621	3621	3621	3621	3621	3621	3621	3621	3621	3621	3621	3583	3583	3583	3583	3583	3583	3583	3583	3583	3621	3583	3583	3621	3621	3583	3583	3583	3546	3546	3546	3546	3546	3583	3546	3583	3621	3621	3621	3621	3621	3583	3583	3583	3546	3546	3546	3583	3583	3583	3583	3583	3546	3546	3546	3546	3546	3546	3546	3583	3583	3583	3583	3583	3583	3546	3546	3546	3546	3546	3546	2252	2252	2252	2252	2252	2237	2237	2223	2208	2194	2194	2181	2181	2167	2153	2140	2127	2127	2114	2101	2088	2088	2076	2063	2051	2039	2051	2039	2027	2015	2003	2003	1992	1969	1958	1958	1947	1936	1925	1925	1915	1915	1883	1873	1863	1863	1853	1843	1833	1833	1824	1804	1795	1795	1786	1786	1777	1768	1759	1759	1750	1741	1732	1723	1715	1706	1706	1690	1690	1681	1681	1657	1657	1657	1649	1649	1641	1641	1634	1618	1618	1611	1596	1589	1581	1574	1567	1567	1560	1567	1560	1553	1546	1539	1532	1519	1512	1512	1506	1499	1492	1486	1480	1473	1467	1467	1467	1461	1461	1461	1461	1461	1461	1461	1467	1467	1467	1467	1467	1480	1486	1492	1492	1492	0	0	0	0	0	0	0	0	0	0	0	0	0	0	0	0	0	0	0	0	0	0	0	0	0	0	0	0	0	0	0	0	0	0	0	0	0	0	0
0	0	0	0	0	0	0	0	0	0	0	0	1480	1480	1480	1486	1492	1499	1499	1506	1512	1519	1519	1532	1532	1539	1539	1546	1560	1560	1567	1581	1581	1589	1596	1611	1611	1611	1626	1626	1634	1649	1665	1673	1681	1681	1698	1698	1698	1698	1698	1698	1698	1706	1706	1723	1741	1750	1759	1759	1768	1768	1777	1777	1777	1786	1795	1795	1804	1814	1814	2532	2478	2478	2478	2478	2496	2496	2478	2478	2478	2478	2496	2478	2478	2478	2478	2478	2478	2478	2478	2496	2478	2496	2496	2514	2514	2514	2514	2514	2514	2514	2496	2496	2478	2496	2496	2478	2478	2478	2478	2478	2496	2478	2478	2478	2478	2496	2496	2496	2496	2496	2496	2514	2514	2514	2514	2514	2514	2514	2514	2514	2496	2514	2514	2514	2514	2514	2532	2532	2551	2551	2551	3373	3373	3373	3373	3373	3406	3440	3406	3406	3406	3406	3406	3406	3406	3406	3373	3406	3440	3440	3406	3373	3373	3373	3373	3406	3406	3373	3406	3406	3406	3406	3406	3406	3373	3373	3373	3406	3406	3440	3475	3475	3475	3475	3510	3510	3510	3546	3546	3546	3546	3546	3546	3546	3546	3546	3546	3546	3583	3583	3583	3583	3621	3621	3621	3621	3621	3659	3621	3621	3621	3583	3583	3583	3546	3546	3546	3546	3583	3583	3546	3583	3583	3583	3583	3546	3546	3546	3546	3546	3546	3546	3546	3546	3546	3546	3546	3546	3546	3546	3546	3546	3546	3546	3583	3546	3546	3546	3546	3546	3546	3186	3186	3186	3157	3129	3157	3129	3129	3129	3101	3129	3129	3129	3129	3129	3129	3129	3129	3101	3101	3073	3073	3073	3046	3046	3046	3046	3046	3046	3046	3046	3046	3046	3046	3046	3046	3046	3046	3046	3046	3046	3046	3046	3046	3046	3046	3046	3046	3046	3046	3046	3046	3046	3073	3073	3073	3073	3073	3073	3073	3073	3129	3157	3186	3186	3186	3186	3186	3157	3157	3157	3157	3157	3157	3157	3129	3129	3129	3621	3621	3583	3583	3621	3621	3621	3583	3583	3583	3583	3583	3583	3583	3583	3583	3583	3583	3583	3583	3583	3583	3583	3583	3583	3583	3583	3583	3583	3583	3583	3546	3546	3546	3583	3583	3583	3583	3583	3583	3583	3583	3583	3583	3583	3583	3583	3621	3621	3621	3621	3621	3621	3621	3621	3621	3621	3621	3621	3621	3621	3621	3621	3621	3621	3621	3621	3621	3621	3621	3621	3621	3621	3621	3621	3621	3621	3621	3621	3621	3621	3621	3621	3621	3621	3621	3583	3583	3583	3583	3583	3583	3583	3583	3583	3583	3583	3583	3583	3583	3583	3583	3583	3546	3546	3546	3546	3546	3583	3583	3583	3621	3621	3621	3621	3621	3583	3546	3546	3546	3546	3546	3546	3583	3583	3583	3583	3583	3583	3546	3546	3546	3546	3546	3583	3583	3546	3583	3583	3583	3546	3546	3546	3546	3510	3510	3510	2252	2252	2252	2252	2237	2237	2237	2223	2208	2194	2194	2181	2181	2153	2140	2127	2127	2114	2101	2088	2088	2076	2076	2063	2051	2051	2039	2015	2015	2003	1992	1992	1958	1958	1958	1947	1936	1925	1925	1915	1915	1883	1873	1863	1863	1853	1843	1833	1833	1824	1804	1804	1795	1786	1777	1777	1768	1759	1759	1750	1741	1732	1723	1715	1715	1706	1690	1681	1681	1673	1665	1657	1657	1649	1649	1641	1641	1626	1626	1618	1618	1596	1581	1574	1574	1567	1567	1560	1567	1560	1553	1546	1539	1532	1525	1519	1512	1506	1499	1492	1486	1486	1473	1467	1467	1467	1461	1461	1461	1461	1455	1461	1461	1461	1461	1467	1467	1473	1486	1492	1492	1492	1492	0	0	0	0	0	0	0	0	0	0	0	0	0	0	0	0	0	0	0	0	0	0	0	0	0	0	0	0	0	0	0	0	0	0	0	0	0	0	0
0	0	0	0	0	0	0	0	0	0	0	0	1480	1480	1480	1486	1492	1499	1499	1506	1512	1519	1519	1525	1532	1539	1546	1553	1560	1560	1567	1581	1581	1581	1596	1596	1603	1603	1603	1626	1641	1649	1657	1665	1673	1690	1698	1698	1698	1706	1715	1706	1706	1715	1715	1723	1741	1750	1759	1759	1768	1768	1777	1777	1786	1786	1795	1795	1804	1814	1814	1814	2478	2478	2478	2478	2496	2496	2496	2478	2496	2496	2496	2496	2478	2478	2478	2478	2478	2478	2478	2478	2478	2478	2496	2514	2514	2514	2514	2514	2514	2514	2496	2496	2496	2496	2496	2478	2478	2496	2496	2496	2496	2478	2478	2478	2496	2496	2496	2478	2496	2478	2496	2514	2514	2514	2496	2496	2496	2514	2514	2514	2496	2514	2514	2532	2514	2514	2532	2532	2551	2551	2551	2551	3406	3406	3406	3406	3406	3440	3406	3440	3406	3440	3440	3440	3440	3440	3440	3440	3475	3440	3440	3475	3440	3406	3440	3406	3406	3406	3406	3406	3406	3406	3406	3406	3373	3373	3373	3406	3406	3440	3475	3475	3475	3510	3510	3510	3510	3546	3546	3546	3546	3546	3546	3546	3546	3546	3546	3546	3583	3583	3583	3583	3621	3621	3621	3621	3621	3621	3621	3621	3621	3583	3583	3583	3546	3546	3546	3546	3546	3546	3546	3583	3583	3583	3583	3546	3583	3583	3583	3583	3546	3546	3546	3546	3546	3546	3546	3546	3546	3546	3546	3546	3546	3546	3546	3583	3583	3546	3583	3546	3546	3546	3186	3186	3157	3129	3157	3157	3101	3101	3101	3129	3129	3129	3129	3129	3129	3129	3129	3129	3101	3073	3073	3073	3046	3046	3046	3046	3046	3046	3046	3046	3046	3046	3046	3046	3046	3046	3046	3046	3046	3046	3046	3046	3046	3046	3046	3046	3046	3046	3046	3046	3046	3046	3046	3073	3073	3073	3073	3073	3073	3073	3101	3129	3157	3186	3186	3186	3186	3186	3157	3157	3157	3157	3157	3157	3129	3129	3129	3621	3621	3621	3583	3583	3583	3583	3583	3583	3583	3583	3583	3583	3583	3583	3583	3583	3583	3583	3583	3583	3583	3583	3583	3583	3583	3583	3583	3583	3583	3583	3546	3546	3546	3546	3546	3583	3583	3583	3583	3583	3583	3583	3546	3583	3546	3546	3621	3621	3621	3621	3583	3583	3583	3621	3621	3621	3621	3621	3621	3621	3621	3621	3621	3621	3621	3621	3621	3621	3621	3583	3583	3621	3621	3621	3621	3621	3583	3621	3621	3621	3621	3621	3621	3621	3583	3583	3583	3583	3583	3583	3546	3546	3583	3583	3583	3583	3583	3583	3583	3583	3583	3583	3546	3583	3546	3546	3546	3583	3583	3583	3621	3621	3621	3621	3621	3583	3546	3546	3546	3546	3546	3546	3583	3583	3583	3583	3583	3583	3583	3583	3546	3583	3546	3546	3546	3546	3546	3583	3546	3546	3546	3546	3546	3510	3510	3510	2252	2252	2252	2252	2237	2237	2237	2237	2223	2208	2194	2181	2181	2153	2140	2140	2127	2114	2101	2088	2088	2088	2076	2051	2051	2051	2039	2027	2015	1992	1992	1969	1958	1958	1958	1947	1936	1936	1925	1915	1915	1883	1873	1873	1863	1853	1843	1843	1833	1824	1824	1804	1795	1786	1777	1768	1768	1759	1759	1750	1741	1723	1723	1715	1715	1706	1690	1698	1681	1673	1657	1657	1657	1649	1649	1641	1634	1626	1626	1618	1611	1596	1589	1581	1574	1567	1567	1567	1567	1560	1553	1546	1539	1532	1525	1519	1512	1506	1499	1492	1486	1486	1480	1467	1467	1467	1461	1461	1461	1461	1461	1455	1455	1461	1461	1461	1467	1480	1486	1492	1492	1492	1492	0	0	0	0	0	0	0	0	0	0	0	0	0	0	0	0	0	0	0	0	0	0	0	0	0	0	0	0	0	0	0	0	0	0	0	0	0	0	0
0	0	0	0	0	0	0	0	0	0	0	0	1480	1480	1480	1480	1486	1499	1499	1506	1512	1512	1519	1525	1532	1539	1546	1553	1560	1560	1567	1567	1581	1589	1589	1596	1596	1603	1611	1626	1634	1641	1649	1657	1665	1681	1690	1698	1706	1715	1715	1706	1715	1715	1723	1732	1750	1759	1759	1759	1768	1768	1777	1777	1786	1795	1795	1795	1795	1814	1833	1833	1833	1873	1873	2478	2496	2496	2496	2478	2496	2496	2496	2496	2496	2496	2478	2478	2478	2478	2478	2478	2478	2478	2496	2514	2514	2514	2514	2514	2514	2514	2496	2496	2496	2496	2496	2478	2478	2496	2478	2478	2496	2478	2478	2478	2478	2478	2496	2478	2496	2478	2478	2496	2496	2514	2496	2496	2496	2514	2514	2496	2496	2514	2514	2514	2514	2514	2532	2551	2551	2551	2551	2551	3406	3440	3440	3440	3475	3475	3475	3475	3440	3475	3475	3475	3475	3475	3475	3475	3475	3475	3440	3475	3475	3440	3440	3440	3440	3440	3440	3440	3440	3440	3440	3440	3440	3475	3475	3475	3475	3475	3475	3475	3475	3510	3510	3510	3510	3546	3583	3583	3546	3546	3546	3546	3583	3583	3546	3546	3583	3583	3583	3583	3583	3621	3621	3621	3583	3583	3583	3583	3583	3583	3583	3583	3546	3546	3546	3546	3546	3546	3546	3583	3583	3583	3583	3583	3583	3583	3546	3583	3583	3546	3546	3546	3546	3546	3546	3546	3546	3546	3546	3546	3546	3546	3546	3583	3546	3546	3583	3546	3546	3546	3186	3186	3157	3129	3129	3129	3129	3129	3101	3129	3129	3129	3129	3129	3129	3129	3073	3073	3073	3046	3073	3073	3046	3046	3046	3046	3046	3046	3046	3046	3046	3046	3046	3046	3046	3046	3019	3019	3019	3046	3046	3046	3046	3046	3046	3046	3046	3046	3046	3046	3046	3046	3046	3073	3073	3073	3073	3073	3073	3073	3101	3129	3157	3186	3186	3186	3186	3157	3157	3157	3157	3157	3157	3157	3129	3129	3129	3621	3583	3583	3583	3583	3583	3583	3583	3583	3583	3583	3583	3583	3583	3583	3583	3583	3583	3583	3583	3583	3583	3583	3583	3583	3583	3583	3583	3583	3583	3583	3546	3583	3583	3583	3583	3583	3583	3583	3583	3583	3583	3583	3546	3583	3583	3583	3621	3621	3621	3621	3621	3621	3621	3621	3621	3621	3621	3621	3621	3621	3621	3621	3621	3621	3621	3621	3621	3621	3621	3621	3621	3621	3621	3621	3621	3621	3621	3621	3621	3621	3621	3621	3621	3583	3583	3583	3583	3583	3546	3583	3546	3546	3583	3583	3583	3583	3583	3583	3583	3583	3583	3583	3546	3583	3546	3546	3546	3583	3583	3583	3621	3621	3621	3621	3621	3546	3583	3583	3546	3546	3546	3546	3546	3583	3583	3583	3583	3583	3583	3583	3546	3546	3583	3546	3546	3546	3546	3583	3546	3546	3546	3546	3546	3546	3546	3510	3510	3546	2252	2252	2252	2237	2237	2237	2208	2208	2194	2181	2181	2140	2140	2127	2127	2114	2101	2088	2088	2076	2051	2051	2051	2051	2039	2015	2015	2003	1992	1980	1958	1958	1947	1947	1936	1936	1925	1915	1915	1883	1873	1863	1863	1853	1843	1843	1833	1824	1824	1804	1795	1786	1786	1768	1768	1759	1750	1750	1750	1732	1723	1715	1715	1715	1706	1690	1690	1681	1673	1657	1657	1649	1649	1641	1634	1626	1626	1618	1611	1596	1589	1581	1574	1567	1567	1560	1567	1560	1553	1546	1539	1539	1532	1519	1512	1506	1499	1492	1486	1486	1480	1467	1467	1467	1461	1461	1461	1455	1455	1455	1461	1461	1461	1461	1467	1480	1492	1492	1499	1492	1492	0	0	0	0	0	0	0	0	0	0	0	0	0	0	0	0	0	0	0	0	0	0	0	0	0	0	0	0	0	0	0	0	0	0	0	0	0	0	0
0	0	0	0	0	0	0	0	0	0	0	0	1480	1480	1480	1480	1486	1499	1499	1506	1512	1519	1525	1532	1532	1532	1539	1546	1560	1560	1567	1567	1581	1589	1589	1596	1596	1603	1611	1618	1626	1634	1641	1649	1657	1665	1681	1690	1698	1715	1715	1715	1715	1723	1732	1741	1759	1759	1759	1768	1777	1768	1786	1786	1795	1795	1795	1795	1804	1814	1824	1843	1853	1873	1883	1883	2496	2514	2532	2532	2514	2496	2496	2496	2496	2496	2478	2478	2478	2478	2478	2478	2478	2478	2478	2496	2496	2514	2496	2496	2496	2514	2496	2496	2496	2496	2496	2478	2478	2496	2478	2496	2496	2496	2496	2478	2478	2496	2496	2478	2496	2478	2478	2496	2514	2514	2496	2496	2496	2514	2514	2514	2496	2514	2514	2514	2514	2514	2532	2532	2532	2532	2551	3510	3510	3510	3475	3475	3475	3475	3510	3510	3510	3510	3510	3510	3475	3510	3475	3475	3475	3475	3440	3475	3475	3440	3440	3440	3440	3440	3440	3440	3440	3440	3440	3440	3440	3475	3475	3475	3475	3475	3475	3475	3475	3475	3510	3510	3510	3546	3546	3583	3546	3546	3546	3546	3583	3583	3583	3583	3583	3583	3583	3583	3583	3583	3583	3583	3583	3583	3583	3583	3583	3583	3583	3583	3546	3546	3546	3546	3546	3546	3546	3583	3583	3546	3583	3546	3546	3546	3583	3583	3583	3583	3583	3583	3546	3583	3583	3546	3583	3583	3546	3583	3546	3546	3546	3546	3583	3583	3583	3546	3583	3546	3046	3157	3129	3157	3129	3129	3129	3129	3129	3129	3129	3101	3101	3073	3073	3073	3073	3073	3073	3046	3046	3046	3046	3046	3046	3046	3046	3046	3046	3046	3046	3046	3046	3046	3046	3046	3019	3019	3046	3046	3046	3046	3046	3046	3046	3046	3046	3046	3046	3046	3046	3046	3046	3073	3073	3073	3073	3073	3073	3046	3073	3073	3129	3157	3186	3186	3157	3157	3186	3186	3157	3157	3157	3157	3101	3101	3101	3583	3583	3583	3583	3583	3583	3583	3583	3583	3583	3583	3583	3583	3583	3583	3583	3583	3583	3583	3583	3583	3583	3583	3583	3583	3583	3583	3583	3583	3583	3583	3583	3583	3583	3583	3583	3583	3583	3583	3583	3583	3583	3583	3583	3583	3583	3583	3621	3621	3621	3621	3621	3621	3621	3621	3621	3621	3621	3621	3621	3621	3621	3621	3621	3621	3621	3621	3621	3583	3621	3583	3583	3621	3621	3621	3621	3621	3583	3621	3621	3621	3621	3583	3621	3583	3583	3583	3583	3546	3546	3546	3546	3546	3583	3583	3583	3583	3583	3583	3583	3583	3583	3583	3583	3583	3583	3546	3583	3583	3583	3583	3583	3621	3621	3621	3583	3583	3583	3583	3546	3583	3546	3583	3546	3583	3583	3583	3583	3583	3583	3583	3546	3546	3583	3546	3546	3546	3546	3546	3546	3546	3546	3546	3546	3510	3546	3510	3546	3546	3546	2252	2237	2237	2237	2237	2208	2194	2194	2181	2181	2140	2140	2127	2127	2114	2114	2101	2088	2088	2051	2051	2051	2039	2039	2015	2015	2003	1992	1992	1958	1958	1947	1947	1936	1936	1925	1915	1915	1883	1873	1873	1863	1863	1843	1833	1824	1824	1814	1804	1795	1786	1786	1777	1768	1759	1750	1750	1750	1732	1723	1715	1715	1715	1706	1698	1690	1681	1673	1657	1657	1649	1649	1641	1634	1626	1626	1618	1611	1596	1589	1574	1574	1567	1567	1567	1567	1560	1553	1546	1546	1539	1532	1519	1512	1506	1499	1492	1486	1486	1480	1467	1461	1467	1461	1461	1455	1455	1455	1449	1455	1455	1461	1461	1473	1486	1492	1499	1499	1499	1499	0	0	0	0	0	0	0	0	0	0	0	0	0	0	0	0	0	0	0	0	0	0	0	0	0	0	0	0	0	0	0	0	0	0	0	0	0	0	0
0	0	0	0	0	0	0	0	0	0	0	0	1480	1480	1480	1480	1486	1492	1499	1506	1506	1525	1525	1532	1532	1539	1539	1546	1560	1560	1567	1567	1581	1589	1589	1589	1589	1596	1596	1611	1618	1634	1641	1649	1657	1657	1665	1673	1681	1706	1706	1706	1715	1723	1732	1750	1759	1759	1768	1777	1786	1786	1786	1795	1795	1804	1804	1804	1804	1814	1824	1833	1843	1883	1883	1894	1904	1915	1915	1915	1915	2496	2514	2496	2496	2496	2496	2496	2478	2478	2478	2478	2478	2478	2478	2478	2478	2478	2496	2496	2496	2496	2496	2496	2496	2478	2496	2478	2478	2496	2478	2496	2514	2496	2496	2496	2496	2496	2496	2478	2478	2478	2478	2496	2514	2514	2496	2496	2496	2514	2514	2496	2496	2514	2514	2514	2514	2514	2514	2514	2514	3546	3546	3510	3510	3510	3510	3475	3510	3510	3510	3510	3510	3510	3510	3510	3475	3475	3475	3475	3475	3475	3475	3475	3475	3440	3475	3475	3475	3475	3440	3475	3475	3475	3475	3475	3475	3475	3475	3475	3475	3475	3475	3475	3475	3475	3475	3475	3510	3546	3546	3546	3546	3546	3546	3546	3583	3583	3583	3583	3621	3621	3621	3621	3583	3583	3583	3583	3583	3583	3583	3583	3583	3583	3583	3583	3546	3546	3546	3546	3546	3546	3546	3546	3546	3546	3546	3583	3583	3583	3546	3583	3583	3583	3583	3583	3583	3583	3583	3546	3546	3583	3583	3546	3546	3546	3546	3546	3546	3546	3546	3546	3583	3546	3546	3157	3129	3129	3129	3129	3129	3129	3101	3129	3129	3129	3129	3101	3101	3101	3073	3101	3073	3046	3046	3046	3046	3046	3046	3046	3046	3046	3046	3046	3046	3046	3046	3046	3046	3046	3019	3019	3046	3046	3046	3046	3046	3046	3046	3046	3046	3046	3046	3046	3046	3046	3046	3046	3046	3073	3073	3073	3073	3046	3101	3101	3129	3157	3186	3157	3157	3157	3186	3186	3157	3129	3157	3157	3129	3129	3129	3129	3583	3583	3583	3583	3583	3583	3583	3583	3583	3583	3583	3583	3583	3583	3583	3583	3583	3583	3583	3583	3583	3583	3583	3583	3583	3583	3583	3583	3583	3583	3583	3583	3583	3583	3583	3583	3583	3583	3583	3583	3583	3583	3546	3583	3583	3583	3621	3621	3621	3621	3621	3621	3621	3621	3621	3621	3621	3621	3621	3621	3621	3621	3621	3621	3621	3621	3621	3621	3621	3583	3583	3621	3583	3621	3621	3621	3621	3621	3621	3621	3621	3583	3583	3583	3583	3583	3583	3546	3546	3546	3546	3546	3583	3583	3583	3583	3583	3583	3583	3583	3583	3546	3583	3583	3546	3546	3546	3583	3583	3583	3583	3583	3583	3621	3546	3583	3583	3583	3583	3583	3546	3583	3546	3546	3546	3546	3583	3583	3546	3546	3546	3546	3546	3546	3546	3546	3546	3546	3546	3546	3546	3546	3546	3546	3546	3510	3546	3546	3546	3546	2252	2237	2237	2223	2208	2194	2194	2194	2181	2140	2140	2127	2127	2114	2114	2088	2088	2076	2076	2051	2039	2039	2039	2015	2015	2003	1992	1992	1969	1969	1958	1947	1947	1936	1936	1915	1915	1904	1873	1873	1863	1863	1843	1833	1824	1824	1814	1804	1804	1795	1786	1768	1768	1759	1750	1750	1741	1732	1723	1715	1715	1715	1706	1690	1690	1681	1673	1657	1657	1649	1649	1641	1634	1626	1618	1611	1611	1596	1589	1581	1574	1574	1567	1567	1567	1567	1553	1553	1546	1539	1532	1525	1519	1512	1506	1492	1492	1486	1480	1467	1461	1467	1461	1461	1455	1455	1449	1449	1455	1455	1461	1461	1467	1486	1492	1499	1499	1499	1499	0	0	0	0	0	0	0	0	0	0	0	0	0	0	0	0	0	0	0	0	0	0	0	0	0	0	0	0	0	0	0	0	0	0	0	0	0	0	0
0	0	0	0	0	0	0	0	0	0	0	0	1473	1473	1480	1480	1486	1492	1499	1506	1512	1525	1525	1532	1532	1539	1539	1546	1560	1560	1567	1567	1581	1581	1581	1589	1589	1596	1596	1611	1626	1634	1641	1649	1649	1657	1665	1665	1673	1673	1698	1706	1715	1723	1732	1741	1750	1759	1768	1777	1786	1795	1795	1795	1804	1804	1804	1804	1814	1814	1824	1833	1843	1853	1873	1883	1894	1904	1904	1915	1915	0	2514	2514	2496	2514	2496	2496	2478	2478	2478	2478	2460	2478	2478	2478	2478	2478	2478	2496	2496	2496	2496	2496	2496	2478	2496	2478	2478	2478	2478	2478	2496	2496	2496	2496	2514	2496	2496	2478	2478	2478	2478	2496	2514	2514	2514	2496	2496	2514	2496	2496	2496	2496	2514	2496	2496	2496	2496	2496	2514	3546	3546	3546	3510	3546	3510	3510	3510	3510	3510	3546	3510	3510	3510	3510	3475	3475	3475	3475	3475	3475	3475	3475	3475	3475	3475	3475	3475	3475	3475	3475	3475	3475	3475	3475	3475	3475	3475	3475	3475	3475	3475	3475	3475	3475	3475	3510	3510	3546	3546	3546	3546	3546	3546	3546	3583	3583	3583	3583	3621	3621	3621	3621	3583	3583	3583	3583	3583	3583	3583	3583	3583	3583	3546	3583	3546	3546	3546	3546	3546	3546	3546	3546	3546	3546	3546	3546	3583	3583	3546	3583	3583	3583	3583	3583	3583	3583	3583	3583	3583	3583	3583	3583	3546	3546	3546	3546	3546	3546	3546	3546	3546	3546	3157	3157	3129	3129	3129	3129	3129	3129	3129	3129	3129	3129	3129	3101	3101	3101	3101	3073	3073	3046	3046	3046	3046	3046	3046	3046	3046	3046	3046	3046	3046	3046	3046	3046	3046	3046	3019	3046	3046	3046	3046	3046	3046	3046	3046	3046	3046	3046	3046	3046	3046	3046	3046	3046	3046	3046	3046	3073	3046	3046	3073	3073	3101	3129	3157	3157	3157	3157	3157	3157	3157	3129	3129	3129	3129	3129	3129	3129	3583	3583	3583	3583	3583	3583	3583	3583	3583	3583	3583	3583	3583	3583	3583	3583	3583	3583	3583	3583	3583	3583	3583	3583	3583	3583	3583	3583	3583	3583	3583	3583	3583	3583	3583	3583	3583	3583	3546	3583	3583	3583	3583	3583	3583	3583	3583	3621	3621	3621	3621	3621	3621	3621	3621	3621	3621	3621	3621	3621	3621	3621	3621	3621	3621	3621	3621	3583	3621	3621	3621	3621	3583	3621	3621	3621	3583	3621	3621	3621	3621	3583	3621	3621	3583	3583	3583	3546	3546	3546	3546	3546	3583	3583	3583	3583	3583	3583	3583	3546	3546	3546	3546	3583	3546	3546	3546	3546	3546	3546	3583	3583	3583	3583	3546	3583	3583	3583	3583	3583	3583	3583	3583	3583	3583	3546	3583	3546	3546	3546	3546	3546	3546	3546	3546	3546	3546	3546	3546	3546	3546	3583	3546	3546	3546	3546	3546	3546	3546	3546	2252	2237	2237	2223	2208	2194	2194	2181	2181	2167	2140	2127	2127	2114	2114	2101	2088	2076	2076	2039	2039	2039	2039	2027	2015	2003	1992	1992	1969	1969	1958	1947	1947	1936	1936	1915	1915	1904	1873	1863	1863	1853	1843	1833	1833	1824	1814	1814	1804	1786	1786	1777	1768	1759	1759	1750	1750	1732	1723	1723	1715	1715	1706	1698	1690	1681	1673	1657	1657	1649	1649	1641	1626	1626	1618	1611	1603	1596	1589	1581	1581	1574	1567	1567	1567	1560	1553	1546	1546	1539	1532	1525	1519	1512	1506	1499	1492	1492	1486	1480	1467	1467	1461	1461	1455	1455	1449	1449	1449	1449	1455	1461	1467	1492	1499	1506	1506	1499	1499	0	0	0	0	0	0	0	0	0	0	0	0	0	0	0	0	0	0	0	0	0	0	0	0	0	0	0	0	0	0	0	0	0	0	0	0	0	0	0
0	0	0	0	0	0	0	0	0	0	0	0	1473	1480	1480	1486	1492	1499	1499	1506	1512	1525	1525	1532	1532	1539	1539	1546	1553	1560	1560	1567	1574	1581	1581	1581	1589	1596	1596	1618	1634	1641	1641	1649	1657	1657	1665	1665	1673	1681	1698	1706	1706	1723	1732	1732	1750	1750	1759	1777	1795	1795	1804	1804	1814	1814	1814	1814	1814	1814	1824	1824	1833	1843	1873	1883	1894	1904	1904	1904	1915	0	2532	2514	2514	2496	2496	2478	2478	2478	2478	2478	2460	2478	2478	2478	2478	2478	2496	2496	2496	2496	2496	2496	2496	2478	2496	2478	2478	2478	2478	2478	2496	2496	2496	2496	2514	2496	2496	2478	2478	2478	2478	2496	2496	2514	2496	2496	2496	2496	2496	2496	2496	2496	2496	2496	2496	2496	2496	2496	3583	3583	3583	3546	3546	3546	3510	3510	3510	3510	3510	3510	3510	3510	3510	3510	3510	3475	3475	3475	3475	3475	3475	3475	3475	3475	3475	3475	3475	3475	3475	3475	3510	3475	3475	3510	3510	3475	3475	3475	3475	3475	3475	3475	3475	3510	3510	3510	3510	3546	3546	3546	3546	3546	3546	3546	3583	3583	3583	3583	3583	3583	3583	3583	3583	3583	3583	3583	3583	3583	3583	3583	3583	3583	3583	3583	3546	3546	3546	3546	3546	3546	3546	3546	3546	3546	3546	3583	3546	3583	3546	3546	3546	3546	3583	3583	3583	3583	3583	3583	3583	3583	3583	3583	3546	3546	3546	3583	3546	3546	3546	3546	3510	3546	3157	3157	3157	3129	3129	3129	3129	3129	3129	3129	3129	3129	3101	3101	3101	3101	3073	3073	3073	3046	3046	3046	3046	3046	3046	3046	3046	3046	3046	3046	3046	3046	3046	3046	3019	3019	3019	3046	3046	3046	3046	3046	3046	3046	3046	3046	3046	3019	3046	3046	3046	3046	3046	3046	3073	3073	3046	3073	3046	3046	3073	3073	3101	3129	3157	3157	3157	3157	3186	3157	3129	3101	3101	3101	3129	3129	3129	3583	3583	3583	3583	3583	3583	3583	3583	3583	3583	3583	3583	3583	3583	3583	3583	3583	3583	3583	3583	3583	3583	3583	3583	3583	3583	3583	3583	3583	3583	3583	3583	3583	3583	3583	3583	3583	3583	3546	3546	3546	3583	3583	3583	3583	3583	3583	3583	3583	3621	3621	3621	3621	3621	3621	3621	3621	3621	3621	3621	3621	3583	3621	3621	3621	3621	3621	3621	3621	3621	3621	3583	3621	3583	3621	3621	3621	3583	3583	3583	3583	3621	3583	3583	3583	3583	3583	3621	3546	3546	3546	3546	3546	3583	3583	3583	3583	3583	3583	3583	3583	3583	3583	3583	3583	3546	3546	3546	3546	3546	3546	3583	3583	3583	3583	3583	3583	3583	3583	3583	3583	3583	3583	3583	3583	3583	3546	3583	3546	3546	3546	3546	3546	3546	3546	3546	3546	3546	3546	3546	3546	3546	3583	3583	3546	3546	3546	3546	3546	3546	3546	0	0	0	2223	2237	2194	2194	2194	2181	2167	2140	2127	2127	2114	2114	2101	2088	2076	2063	2039	2039	2039	2039	2027	2015	2003	1992	1992	1969	1969	1958	1947	1947	1936	1925	1915	1915	1904	1873	1863	1863	1853	1853	1843	1833	1824	1824	1814	1804	1795	1786	1777	1768	1759	1759	1750	1750	1741	1723	1723	1715	1706	1706	1698	1690	1681	1681	1673	1657	1657	1649	1634	1626	1618	1611	1603	1596	1596	1589	1581	1574	1567	1567	1567	1567	1567	1553	1553	1546	1539	1532	1525	1519	1512	1506	1499	1499	1492	1486	1480	1467	1467	1461	1461	1455	1455	1449	1449	1449	1449	1461	1461	1480	1492	1492	1506	1499	1499	1499	0	0	0	0	0	0	0	0	0	0	0	0	0	0	0	0	0	0	0	0	0	0	0	0	0	0	0	0	0	0	0	0	0	0	0	0	0	0	0
0	0	0	0	0	0	0	0	0	0	0	0	1473	1480	1480	1486	1492	1499	1499	1506	1512	1519	1525	1525	1532	1532	1539	1546	1560	1560	1560	1567	1574	1581	1581	1589	1581	1596	1596	1626	1641	1649	1649	1649	1657	1657	1665	1665	1673	1681	1690	1698	1706	1715	1732	1732	1750	1750	1759	1759	1786	1795	1795	1804	1804	1804	1814	1804	1814	1814	1824	1824	1833	1843	1853	1883	1894	1894	1915	1915	1925	1936	1936	2514	2514	2496	2478	2478	2460	2460	2460	2460	2460	2460	2478	2478	2478	2478	2496	2478	2478	2496	2478	2496	2496	2478	2496	2478	2478	2478	2478	2478	2496	2496	2496	2514	2514	2496	2496	2478	2478	2478	2478	2496	2496	2496	2496	2496	2496	2496	2496	2496	2478	2496	2496	2496	2496	2496	2496	0	3583	3583	3583	3546	3510	3510	3510	3510	3510	3510	3510	3510	3510	3510	3510	3510	3510	3475	3475	3475	3475	3475	3475	3475	3475	3475	3475	3475	3475	3510	3475	3510	3510	3510	3510	3510	3510	3475	3475	3475	3475	3475	3475	3475	3510	3510	3510	3510	3510	3546	3546	3546	3546	3546	3546	3546	3583	3583	3583	3583	3583	3583	3583	3583	3583	3583	3583	3583	3583	3583	3583	3583	3583	3583	3583	3583	3546	3546	3546	3546	3546	3546	3546	3546	3546	3583	3546	3583	3583	3546	3546	3546	3546	3546	3546	3546	3583	3583	3583	3583	3546	3546	3583	3583	3546	3583	3546	3583	3583	3546	3546	3546	3546	3583	3186	3186	3157	3129	3129	3129	3101	3129	3101	3101	3101	3101	3101	3101	3073	3073	3073	3073	3073	3046	3046	3046	3046	3046	3046	3046	3046	3046	3046	3046	3046	3046	3046	3046	3019	3019	3019	3019	3019	3019	3019	3046	3046	3046	3046	3046	3046	3046	3046	3046	3046	3046	3046	3046	3046	3046	3046	3073	3046	3046	3073	3073	3073	3101	3101	3101	3101	3157	3157	3157	3129	3129	3129	3129	3129	3129	3129	3583	3583	3583	3583	3583	3583	3583	3583	3583	3583	3583	3583	3546	3546	3583	3583	3546	3546	3583	3583	3583	3583	3583	3583	3583	3583	3583	3583	3583	3583	3583	3583	3583	3583	3583	3583	3583	3546	3546	3546	3546	3546	3546	3546	3546	3583	3583	3583	3621	3621	3621	3621	3621	3621	3621	3621	3621	3621	3621	3621	3621	3621	3621	3621	3621	3583	3621	3621	3621	3621	3621	3583	3621	3621	3621	3583	3583	3583	3583	3583	3583	3583	3583	3583	3621	3583	3583	3621	3583	3583	3583	3546	3546	3583	3583	3583	3583	3621	3621	3583	3583	3583	3583	3583	3546	3546	3546	3546	3546	3546	3546	3583	3583	3583	3583	3583	3583	3583	3583	3583	3583	3583	3583	3583	3583	3546	3546	3546	3546	3546	3546	3546	3546	3583	3546	3546	3546	3546	3546	3546	3546	3546	3546	3546	3546	3546	3546	3546	3510	3510	3510	0	0	0	2223	2194	2194	2194	2181	2167	2167	2140	2127	2127	2114	2114	2101	2088	2076	2063	2039	2039	2039	2039	2027	2003	2003	1992	1992	1980	1969	1958	1947	1936	1936	1925	1915	1904	1894	1873	1863	1863	1863	1853	1843	1833	1824	1824	1814	1804	1795	1786	1777	1768	1759	1759	1750	1750	1741	1723	1723	1715	1706	1698	1698	1698	1690	1681	1681	1657	1657	1649	1634	1626	1618	1618	1611	1603	1596	1589	1574	1574	1567	1567	1567	1567	1567	1560	1553	1546	1546	1532	1525	1519	1512	1506	1499	1499	1492	1486	1480	1467	1467	1461	1461	1455	1449	1449	1449	1449	1449	1461	1461	1480	1486	1492	1499	1499	1499	1499	0	0	0	0	0	0	0	0	0	0	0	0	0	0	0	0	0	0	0	0	0	0	0	0	0	0	0	0	0	0	0	0	0	0	0	0	0	0	0
0	0	0	0	0	0	0	0	0	0	0	0	1480	1480	1486	1486	1492	1499	1499	1506	1512	1519	1525	1525	1532	1539	1539	1546	1553	1560	1560	1567	1574	1581	1581	1589	1581	1596	1603	1626	1634	1641	1649	1649	1657	1657	1657	1665	1665	1673	1681	1690	1698	1715	1723	1732	1741	1750	1759	1768	1786	1786	1795	1804	1804	1804	1824	1814	1824	1824	1824	1833	1833	1843	1843	1873	1894	1915	1915	1925	1925	1936	1936	1936	2514	2496	2478	2478	2460	2460	2460	2460	2460	2460	2460	2478	2478	2478	2478	2478	2478	2478	2478	2478	2478	2478	2478	2478	2478	2478	2478	2478	2496	2496	2496	2496	2514	2496	2496	2478	2478	2478	2478	2496	2496	2514	2496	2496	2496	2496	2496	2496	2478	2496	2496	2496	2496	2496	3621	3621	3583	3546	3546	3546	3546	3510	3510	3510	3510	3510	3510	3510	3510	3510	3475	3510	3475	3475	3475	3475	3475	3475	3475	3475	3475	3475	3475	3510	3475	3510	3510	3510	3510	3510	3510	3510	3475	3475	3475	3475	3475	3475	3475	3510	3510	3510	3510	3510	3510	3546	3546	3546	3546	3546	3546	3583	3583	3583	3621	3583	3583	3583	3583	3583	3583	3583	3583	3583	3583	3583	3583	3583	3583	3583	3583	3583	3583	3546	3546	3546	3546	3546	3546	3546	3546	3546	3546	3546	3546	3546	3546	3546	3546	3546	3546	3546	3546	3583	3546	3583	3583	3583	3583	3583	3546	3583	3583	3583	3583	3546	3546	3546	3546	3583	3583	3157	3157	3129	3129	3101	3101	3101	3101	3101	3129	3101	3101	3101	3073	3073	3073	3073	3073	3046	3046	3046	3046	3046	3046	3046	3046	3046	3046	3046	3046	3046	3046	3046	3019	3019	3019	3019	3019	3019	3019	3046	3046	3046	3046	3046	3046	3046	3046	3046	3046	3046	3046	3046	3046	3046	3046	3073	3046	3046	3073	3073	3073	3073	3101	3101	3129	3157	3157	3157	3129	3129	3101	3129	3129	3129	3129	3546	3583	3583	3583	3583	3583	3583	3583	3546	3583	3583	3583	3546	3546	3583	3583	3583	3546	3546	3583	3583	3583	3583	3583	3583	3583	3583	3583	3583	3583	3583	3583	3583	3583	3583	3546	3546	3546	3546	3546	3546	3583	3583	3583	3583	3583	3546	3546	3621	3621	3621	3621	3621	3621	3621	3621	3621	3621	3621	3621	3621	3621	3621	3621	3621	3621	3621	3621	3621	3621	3621	3583	3621	3583	3621	3583	3583	3583	3583	3583	3583	3583	3583	3621	3621	3621	3583	3583	3583	3583	3583	3583	3583	3583	3583	3583	3583	3583	3583	3583	3583	3583	3583	3583	3583	3546	3546	3546	3546	3546	3546	3583	3583	3583	3583	3583	3583	3583	3583	3583	3583	3583	3583	3583	3583	3583	3546	3546	3546	3546	3546	3546	3546	3583	3583	3546	3546	3546	3546	3546	3546	3546	3546	3546	3546	3583	3546	3546	3546	3510	3510	0	0	0	0	2194	2194	2194	2181	2167	2153	2140	2127	2127	2114	2114	2101	2088	2076	2063	2039	2039	2039	2027	2015	2003	2003	1992	1992	1980	1969	1958	1947	1936	1936	1925	1915	1904	1894	1883	1863	1863	1863	1853	1843	1833	1824	1814	1814	1804	1795	1786	1777	1768	1759	1759	1759	1750	1741	1723	1723	1715	1706	1698	1698	1690	1681	1681	1673	1657	1657	1649	1626	1626	1618	1618	1611	1596	1596	1589	1581	1574	1567	1560	1567	1567	1567	1560	1553	1546	1539	1519	1519	1519	1512	1506	1499	1492	1492	1492	1486	1480	1467	1461	1461	1455	1455	1449	1449	1449	1455	1461	1467	1473	1480	1486	1492	1492	1492	1492	0	0	0	0	0	0	0	0	0	0	0	0	0	0	0	0	0	0	0	0	0	0	0	0	0	0	0	0	0	0	0	0	0	0	0	0	0	0	0
0	0	0	0	0	0	0	0	0	0	0	0	1480	1480	1486	1486	1492	1499	1499	1506	1512	1519	1525	1525	1532	1532	1539	1546	1553	1560	1560	1567	1574	1574	1581	1589	1589	1596	1603	1618	1626	1634	1641	1649	1649	1657	1657	1665	1665	1673	1681	1681	1690	1706	1715	1723	1741	1750	1759	1759	1777	1786	1795	1795	1795	1795	1814	1814	1824	1824	1833	1833	1833	1843	1843	1873	1883	1894	1915	1925	1915	1915	1915	1947	1947	1947	2478	2478	2460	2460	2460	2460	2460	2460	2460	2460	2478	2478	2478	2478	2478	2478	2478	2478	2478	2478	2478	2478	2478	2478	2460	2478	2478	2478	2478	2496	2514	2496	2478	2478	2478	2478	2478	2496	2496	2496	2496	2496	2496	2496	2496	2496	2478	2478	2478	2478	2478	2478	3621	3583	3546	3546	3546	3546	3510	3510	3510	3510	3510	3510	3510	3510	3510	3510	3475	3510	3475	3475	3475	3475	3475	3475	3475	3475	3475	3475	3475	3510	3475	3510	3510	3510	3510	3510	3510	3510	3475	3475	3475	3475	3475	3475	3475	3475	3510	3510	3510	3510	3510	3546	3546	3546	3546	3546	3546	3546	3583	3583	3583	3583	3583	3583	3583	3583	3583	3583	3583	3583	3583	3583	3583	3583	3583	3583	3583	3583	3583	3546	3546	3583	3546	3546	3546	3546	3546	3546	3546	3546	3546	3546	3546	3546	3546	3546	3546	3546	3546	3583	3546	3546	3583	3583	3583	3583	3583	3583	3583	3583	3583	3546	3546	3546	3546	3583	3583	3157	3157	3129	3129	3129	3129	3101	3129	3101	3101	3101	3101	3073	3073	3073	3073	3073	3046	3046	3073	3073	3073	3046	3046	3046	3046	3046	3046	3046	3046	3046	3046	3046	3019	3019	3019	3046	3046	3019	3019	3046	3046	3046	3046	3046	3046	3046	3046	3046	3046	3046	3046	3046	3046	3046	3046	3046	3046	3046	3073	3073	3073	3073	3073	3101	3101	3129	3129	3129	3129	3129	3101	3101	3101	3101	3101	3583	3583	3583	3583	3583	3583	3583	3583	3583	3583	3583	3546	3546	3546	3546	3546	3546	3546	3583	3583	3583	3583	3546	3583	3583	3583	3583	3583	3583	3583	3583	3583	3583	3583	3583	3546	3546	3546	3546	3546	3546	3583	3583	3546	3546	3546	3546	3583	3621	3621	3621	3583	3583	3621	3621	3621	3621	3621	3583	3621	3583	3583	3621	3621	3583	3621	3621	3621	3621	3621	3621	3621	3621	3621	3621	3583	3583	3583	3583	3583	3583	3583	3583	3583	3621	3621	3621	3621	3583	3583	3583	3583	3583	3583	3583	3583	3583	3583	3621	3583	3583	3583	3583	3583	3546	3546	3546	3546	3546	3546	3546	3583	3583	3583	3583	3583	3583	3583	3583	3583	3583	3583	3583	3583	3583	3583	3583	3583	3546	3546	3546	3546	3546	3546	3546	3546	3546	3546	3546	3546	3546	3546	3546	3546	3546	3546	3546	3546	3510	3546	3546	0	0	0	2223	2208	2208	2194	2194	2181	2167	2140	2127	2127	2114	2114	2101	2088	2076	2063	2039	2027	2039	2027	2015	2003	2003	1992	1980	1969	1958	1958	1947	1936	1925	1925	1915	1904	1894	1883	1863	1863	1863	1853	1843	1833	1824	1814	1814	1804	1786	1786	1777	1768	1759	1759	1759	1750	1741	1732	1723	1715	1706	1698	1698	1690	1681	1681	1673	1657	1657	1649	1634	1626	1618	1618	1611	1596	1596	1589	1581	1574	1567	1567	1567	1567	1567	1560	1546	1546	1546	1519	1519	1512	1512	1506	1499	1499	1492	1492	1486	1467	1467	1461	1461	1455	1455	1455	1455	1455	1455	1461	1467	1473	1480	1480	1480	1486	1486	1486	0	0	0	0	0	0	0	0	0	0	0	0	0	0	0	0	0	0	0	0	0	0	0	0	0	0	0	0	0	0	0	0	0	0	0	0	0	0	0
0	0	0	0	0	0	0	0	0	0	0	0	1480	1480	1486	1486	1492	1499	1499	1506	1512	1519	1525	1525	1532	1532	1539	1546	1553	1560	1560	1567	1567	1574	1581	1589	1589	1596	1603	1618	1626	1634	1641	1649	1649	1657	1665	1665	1673	1673	1681	1690	1690	1706	1715	1723	1732	1741	1750	1759	1759	1777	1786	1795	1795	1795	1814	1814	1824	1833	1843	1843	1843	1843	1843	1873	1894	1894	1904	1915	1915	1915	1915	1925	1947	1958	1947	1947	2460	2460	2460	2460	2478	2478	2478	2478	2478	2460	2478	2478	2478	2478	2478	2478	2478	2478	2496	2478	2478	2478	2460	2478	2496	2496	2496	2496	2514	2496	2478	2478	2478	2478	2478	2496	2496	2496	2496	2496	2496	2496	2496	2496	2478	2478	2478	2478	2478	2478	0	3546	3583	3546	3546	3510	3510	3510	3510	3510	3510	3510	3510	3510	3510	3510	3510	3510	3475	3475	3475	3475	3475	3475	3475	3475	3475	3510	3510	3510	3510	3510	3510	3510	3510	3510	3510	3510	3475	3475	3475	3475	3440	3440	3475	3510	3510	3510	3510	3510	3510	3546	3546	3546	3546	3546	3546	3583	3583	3583	3583	3546	3583	3583	3583	3583	3583	3583	3583	3583	3583	3583	3583	3583	3583	3583	3583	3583	3583	3546	3546	3546	3546	3546	3546	3546	3546	3546	3546	3546	3546	3546	3546	3546	3546	3546	3546	3546	3546	3546	3546	3546	3583	3546	3546	3546	3583	3583	3546	3546	3546	3546	3546	3546	3546	3546	3157	3157	3157	3157	3129	3129	3101	3101	3101	3101	3101	3101	3101	3073	3073	3073	3073	3073	3073	3046	3073	3046	3046	3073	3046	3046	3046	3046	3046	3046	3046	3046	3046	3046	3046	3019	3019	3019	3019	3046	3019	3019	3019	3019	3019	3046	3046	3046	3046	3046	3046	3019	3019	3046	3046	3046	3046	3046	3046	3046	3073	3073	3073	3101	3073	3101	3101	3129	3129	3129	3129	3101	3101	3101	3101	3101	3621	3583	3583	3583	3583	3583	3583	3583	3583	3546	3583	3583	3546	3546	3546	3546	3546	3546	3546	3546	3583	3583	3583	3546	3583	3546	3546	3546	3546	3583	3583	3583	3583	3583	3583	3583	3583	3546	3546	3546	3583	3546	3583	3583	3583	3583	3546	3546	3546	3621	3621	3621	3583	3621	3621	3621	3583	3583	3583	3583	3583	3583	3583	3583	3583	3583	3583	3583	3583	3621	3621	3621	3621	3621	3621	3621	3621	3621	3583	3583	3583	3583	3583	3583	3583	3621	3621	3621	3583	3583	3583	3583	3546	3583	3583	3583	3583	3583	3583	3583	3583	3583	3583	3583	3546	3546	3546	3546	3546	3546	3546	3546	3583	3583	3583	3546	3546	3546	3546	3546	3583	3583	3583	3583	3583	3583	3583	3583	3546	3546	3546	3546	3546	3546	3546	3546	3546	3546	3546	3546	3546	3546	3583	3546	3546	3546	3546	3546	3546	3510	3510	3546	0	0	0	2223	2208	2208	2194	2194	2181	2167	2140	2140	2127	2114	2114	2101	2088	2076	2063	2039	2039	2039	2027	2015	2003	2003	1992	1980	1969	1958	1958	1947	1936	1925	1915	1915	1904	1894	1883	1873	1863	1863	1853	1843	1833	1824	1814	1814	1804	1786	1777	1777	1768	1759	1759	1759	1750	1741	1723	1723	1715	1706	1698	1690	1690	1681	1681	1673	1657	1649	1641	1626	1626	1618	1618	1611	1603	1603	1596	1581	1574	1574	1567	1567	1567	1567	1553	1546	1539	1539	1525	1519	1519	1512	1506	1499	1499	1492	1492	1486	1480	1467	1461	1461	1461	1455	1455	1455	1455	1461	1461	1461	1467	1467	1473	1480	1480	1480	1480	0	0	0	0	0	0	0	0	0	0	0	0	0	0	0	0	0	0	0	0	0	0	0	0	0	0	0	0	0	0	0	0	0	0	0	0	0	0	0
0	0	0	0	0	0	0	0	0	0	0	0	1480	1480	1486	1492	1492	1499	1499	1506	1512	1512	1519	1519	1525	1539	1539	1553	1553	1560	1560	1567	1567	1574	1581	1581	1589	1596	1611	1618	1626	1634	1641	1649	1649	1657	1657	1665	1673	1681	1681	1690	1690	1706	1715	1723	1732	1741	1750	1750	1768	1768	1786	1786	1786	1795	1804	1814	1814	1833	1843	1843	1853	1863	1873	1883	1894	1904	1915	1925	1915	1925	1915	1925	1947	1958	1969	1992	1992	1980	1980	1992	1992	2478	2478	2478	2478	2460	2460	2478	2478	2478	2478	2478	2478	2478	2478	2478	2478	2478	2478	2478	2478	2478	2478	2496	2496	2496	2496	2478	2478	2478	2478	2478	2496	2496	2496	2496	2496	2496	2496	2496	2478	2478	2478	2478	2478	2478	0	3546	3546	3546	3546	3510	3510	3510	3510	3510	3475	3510	3510	3510	3510	3510	3510	3510	3510	3510	3475	3475	3475	3475	3475	3475	3475	3510	3510	3510	3475	3510	3510	3510	3475	3475	3475	3475	3475	3475	3475	3475	3440	3440	3475	3510	3510	3510	3510	3510	3510	3546	3546	3546	3546	3546	3546	3546	3583	3583	3583	3546	3546	3583	3546	3583	3546	3583	3583	3583	3583	3546	3546	3583	3583	3546	3546	3546	3621	3583	3583	3583	3583	3583	3546	3546	3546	3546	3546	3546	3546	3546	3546	3546	3546	3546	3546	3546	3546	3546	3546	3546	3583	3546	3546	3546	3546	3546	3546	3546	3546	3546	3546	3546	3546	3583	3157	3129	3129	3129	3073	3073	3073	3101	3101	3101	3101	3073	3073	3073	3073	3073	3046	3046	3046	3046	3073	3046	3046	3046	3046	3046	3046	3046	3046	3046	3046	3046	3046	3046	3046	3046	3019	3019	3019	3046	3019	3019	3019	3019	3046	3019	3019	3046	3046	3046	3046	3046	3019	3019	3046	3046	3046	3046	3046	3046	3073	3073	3073	3101	3073	3101	3101	3101	3101	3129	3129	3101	3101	3101	3073	3073	3659	3621	3583	3583	3583	3583	3583	3583	3583	3546	3546	3583	3546	3546	3546	3546	3546	3583	3546	3583	3583	3583	3546	3546	3546	3546	3546	3546	3546	3546	3546	3546	3583	3583	3583	3583	3583	3546	3546	3546	3546	3546	3546	3583	3583	3546	3546	3546	3546	3621	3621	3621	3583	3583	3621	3621	3583	3583	3583	3583	3621	3583	3583	3583	3583	3583	3583	3583	3583	3621	3621	3621	3621	3621	3621	3621	3621	3621	3583	3583	3583	3583	3583	3583	3583	3583	3583	3583	3583	3546	3583	3546	3546	3546	3546	3546	3546	3546	3583	3583	3583	3583	3583	3583	3546	3546	3546	3510	3546	3546	3546	3546	3583	3583	3583	3546	3546	3546	3546	3546	3546	3583	3583	3546	3546	3583	3546	3546	3546	3546	3546	3583	3546	3583	3583	3546	3546	3546	3546	3546	3546	3546	3546	3546	3546	3546	3546	3546	3546	3510	3510	0	0	0	0	2223	2208	2208	2194	2194	2181	2167	2140	2127	2127	2114	2114	2101	2088	2076	2063	2039	2039	2039	2027	2015	2003	1992	1992	1980	1969	1969	1958	1947	1936	1925	1915	1915	1904	1894	1894	1873	1863	1863	1853	1853	1833	1833	1824	1814	1804	1786	1786	1777	1768	1768	1759	1750	1750	1732	1723	1715	1715	1698	1698	1690	1690	1690	1681	1673	1665	1649	1641	1634	1626	1618	1618	1611	1603	1603	1596	1581	1574	1567	1567	1567	1567	1567	1553	1546	1539	1539	1525	1519	1512	1506	1506	1499	1492	1492	1492	1486	1480	1467	1461	1461	1461	1461	1461	1461	1455	1461	1461	1461	1461	1467	1467	1473	1480	1480	1480	0	0	0	0	0	0	0	0	0	0	0	0	0	0	0	0	0	0	0	0	0	0	0	0	0	0	0	0	0	0	0	0	0	0	0	0	0	0	0
0	0	0	0	0	0	0	0	0	0	0	0	1480	1480	1486	1492	1499	1499	1506	1506	1512	1512	1512	1519	1532	1539	1546	1553	1560	1560	1560	1567	1574	1581	1581	1589	1589	1603	1618	1626	1634	1634	1641	1641	1649	1657	1657	1657	1673	1690	1690	1690	1706	1706	1715	1723	1732	1741	1750	1750	1759	1768	1777	1786	1786	1786	1795	1804	1814	1824	1843	1843	1853	1873	1883	1894	1915	1915	1925	1925	1925	1925	1915	1925	1947	1958	1980	1992	1992	1980	1992	1992	2003	2003	2003	2478	2478	2460	2460	2478	2478	2478	2478	2478	2478	2478	2478	2478	2478	2478	2460	2478	2478	2478	2496	2496	2496	2496	2496	2478	2478	2478	2478	2478	2496	2496	2496	2496	2478	2496	2496	2496	2496	2496	2478	2460	2460	2460	0	3546	3546	3546	3546	3510	3510	3510	3510	3475	3475	3475	3510	3510	3510	3510	3510	3510	3510	3510	3475	3510	3475	3475	3475	3475	3510	3510	3510	3510	3475	3510	3475	3475	3475	3475	3475	3475	3475	3475	3475	3475	3475	3475	3440	3440	3510	3510	3510	3510	3510	3546	3546	3546	3546	3546	3546	3583	3583	3583	3583	3546	3583	3583	3583	3583	3583	3583	3583	3583	3583	3546	3546	3583	3583	3583	3583	3546	3546	3583	3583	3546	3546	3546	3546	3546	3546	3546	3546	3546	3546	3546	3546	3546	3546	3546	3546	3546	3546	3546	3546	3546	3546	3546	3546	3546	3546	3546	3546	3546	3546	3546	3546	3546	3546	3583	3129	3129	3129	3101	3073	3073	3073	3101	3101	3101	3101	3073	3073	3073	3073	3073	3046	3073	3073	3073	3073	3046	3046	3046	3046	3046	3046	3046	3046	3046	3046	3046	3046	3046	3046	3019	3019	3019	3019	3019	3019	3019	3019	3019	3046	3046	3046	3046	3046	3046	3046	3019	3046	3019	3046	3046	3046	3046	3046	3046	3046	3073	3073	3101	3073	3101	3101	3101	3101	3101	3101	3101	3101	3073	3073	3073	3621	3583	3583	3583	3583	3583	3583	3583	3583	3546	3546	3583	3546	3546	3546	3546	3583	3546	3546	3546	3583	3583	3583	3546	3546	3546	3546	3546	3546	3546	3546	3546	3546	3583	3583	3583	3583	3546	3546	3546	3583	3546	3546	3583	3546	3546	3546	3546	3546	3583	3583	3583	3583	3583	3621	3621	3583	3583	3583	3583	3621	3583	3583	3583	3583	3583	3583	3583	3583	3621	3621	3621	3621	3621	3621	3621	3583	3621	3583	3583	3621	3583	3583	3583	3583	3583	3583	3583	3583	3583	3583	3583	3546	3583	3546	3583	3546	3510	3510	3583	3583	3583	3583	3583	3583	3546	3546	3546	3546	3546	3546	3546	3583	3583	3583	3546	3546	3546	3546	3546	3546	3546	3546	3546	3546	3583	3546	3546	3546	3546	3583	3583	3546	3583	3583	3583	3583	3546	3546	3546	3546	3546	3546	3546	3546	3546	3546	3546	3510	3510	3510	0	0	0	0	0	2208	2208	2194	2194	2181	2153	2140	2127	2127	2114	2114	2101	2088	2076	2063	2051	2039	2039	2027	2015	2003	1992	1992	1980	1980	1969	1958	1947	1936	1925	1915	1915	1904	1894	1894	1873	1863	1863	1853	1843	1833	1833	1824	1814	1804	1786	1777	1777	1768	1759	1759	1750	1741	1732	1723	1715	1706	1698	1690	1690	1690	1681	1673	1665	1657	1649	1641	1634	1626	1618	1618	1611	1603	1603	1596	1581	1574	1574	1567	1567	1567	1567	1553	1546	1539	1539	1525	1519	1512	1506	1506	1499	1492	1492	1486	1486	1480	1467	1461	1461	1461	1461	1461	1461	1461	1461	1461	1461	1461	1467	1467	1467	1473	1473	1473	0	0	0	0	0	0	0	0	0	0	0	0	0	0	0	0	0	0	0	0	0	0	0	0	0	0	0	0	0	0	0	0	0	0	0	0	0	0	0
0	0	0	0	0	0	0	0	0	0	0	0	1480	1480	1486	1492	1499	1506	1506	1506	1512	1512	1519	1525	1539	1539	1546	1553	1560	1560	1567	1567	1574	1581	1581	1589	1589	1603	1603	1618	1626	1626	1634	1641	1641	1657	1657	1673	1681	1690	1690	1690	1706	1715	1723	1723	1741	1750	1759	1759	1768	1768	1777	1777	1777	1786	1786	1804	1804	1833	1843	1843	1863	1873	1883	1894	1925	1915	1925	1925	1925	1925	1925	1925	1947	1958	1969	1992	1992	1992	1992	2003	2003	2003	2003	2027	2027	2478	2478	2478	2478	2496	2478	2478	2478	2478	2478	2478	2478	2478	2478	2478	2478	2478	2496	2496	2496	2496	2496	2478	2478	2460	2460	2496	2496	2496	2496	2496	2478	2478	2496	2496	2496	2478	2478	2460	2460	2460	0	3546	3546	3546	3546	3510	3510	3510	3510	3475	3475	3475	3475	3510	3510	3510	3510	3510	3510	3510	3510	3510	3475	3475	3475	3475	3475	3510	3510	3510	3510	3510	3510	3475	3475	3475	3475	3475	3475	3475	3475	3475	3475	3475	3440	3475	3510	3510	3510	3510	3510	3546	3546	3546	3546	3546	3546	3546	3583	3583	3583	3583	3583	3583	3583	3583	3583	3583	3546	3546	3546	3546	3546	3546	3546	3583	3583	3546	3546	3546	3546	3546	3546	3546	3546	3546	3546	3546	3546	3546	3546	3546	3546	3546	3546	3546	3546	3546	3546	3546	3546	3583	3546	3583	3583	3546	3546	3546	3546	3546	3546	3546	3546	3546	3546	3583	3129	3129	3129	3129	3073	3073	3073	3101	3101	3101	3101	3073	3073	3073	3073	3073	3046	3073	3073	3073	3073	3046	3046	3046	3046	3046	3046	3046	3046	3046	3046	3046	3046	3046	3046	3019	3019	3019	3019	3046	3019	3019	3019	3046	3046	3046	3046	3046	3046	3046	3046	3019	3046	3019	3019	3046	3046	3046	3046	3046	3046	3073	3073	3073	3073	3101	3101	3101	3101	3101	3101	3101	3073	3073	3073	3073	3621	3583	3583	3583	3583	3583	3583	3583	3583	3546	3546	3546	3546	3546	3546	3546	3546	3546	3546	3546	3546	3583	3546	3546	3546	3546	3546	3546	3546	3546	3546	3546	3583	3583	3583	3583	3583	3546	3546	3546	3583	3583	3546	3583	3583	3546	3546	3546	3546	3583	3583	3583	3583	3583	3621	3621	3583	3621	3621	3621	3621	3583	3583	3621	3583	3583	3583	3583	3583	3621	3621	3621	3621	3621	3621	3621	3621	3621	3621	3621	3621	3583	3583	3583	3583	3583	3583	3583	3583	3546	3583	3583	3546	3546	3546	3546	3546	3546	3510	3510	3510	3510	3510	3510	3510	3546	3546	3546	3546	3546	3546	3546	3583	3583	3583	3583	3546	3546	3546	3546	3546	3546	3546	3546	3546	3583	3546	3546	3546	3583	3583	3583	3546	3583	3583	3583	3583	3546	3546	3546	3546	3546	3546	3546	3546	3546	3546	3510	3510	3510	3510	0	0	0	0	2223	2223	2223	2194	2194	2167	2153	2140	2127	2127	2114	2114	2101	2088	2076	2063	2051	2039	2039	2027	2015	2003	1992	1992	1980	1980	1969	1947	1936	1936	1925	1915	1915	1904	1894	1894	1883	1863	1863	1853	1853	1833	1833	1824	1814	1804	1786	1777	1768	1768	1759	1750	1750	1741	1732	1723	1715	1706	1698	1698	1690	1690	1681	1665	1657	1657	1641	1641	1634	1626	1618	1618	1611	1603	1603	1596	1581	1581	1574	1567	1560	1567	1560	1553	1546	1539	1539	1525	1519	1512	1506	1499	1499	1492	1492	1486	1480	1480	1467	1461	1461	1461	1461	1461	1461	1461	1461	1461	1461	1461	1467	1467	1473	1473	1480	1480	0	0	0	0	0	0	0	0	0	0	0	0	0	0	0	0	0	0	0	0	0	0	0	0	0	0	0	0	0	0	0	0	0	0	0	0	0	0	0
0	0	0	0	0	0	0	0	0	0	0	0	1480	1480	1486	1499	1506	1506	1506	1506	1512	1512	1519	1525	1532	1539	1546	1560	1560	1567	1567	1567	1574	1574	1581	1589	1589	1589	1611	1618	1626	1634	1641	1641	1641	1649	1657	1673	1681	1681	1690	1690	1706	1715	1723	1723	1741	1750	1759	1750	1759	1768	1777	1777	1777	1795	1795	1795	1824	1833	1833	1843	1853	1873	1883	1904	1915	1915	1925	1925	1925	1925	1925	1947	1947	1958	1980	1992	1992	1992	1992	2003	2003	2003	2015	2027	2039	2051	2051	2478	2478	2496	2478	2478	2478	2478	2478	2478	2478	2478	2478	2478	2478	2478	2496	2496	2496	2496	2496	2478	2478	2460	2478	2478	2478	2496	2478	2478	2478	2496	2496	2478	2496	2478	2478	2478	2478	2478	0	3546	3546	3546	3546	3510	3510	3510	3510	3475	3475	3475	3475	3475	3510	3510	3510	3510	3510	3510	3510	3510	3510	3475	3475	3475	3475	3510	3475	3475	3475	3475	3475	3475	3475	3475	3475	3475	3475	3475	3475	3475	3475	3475	3475	3475	3475	3475	3475	3510	3475	3510	3546	3546	3546	3546	3546	3546	3583	3583	3583	3583	3583	3621	3583	3583	3583	3546	3546	3546	3546	3546	3546	3546	3546	3546	3546	3583	3583	3546	3546	3546	3546	3546	3546	3546	3546	3546	3546	3546	3546	3546	3546	3546	3546	3546	3546	3546	3546	3546	3546	3583	3583	3583	3583	3583	3546	3546	3546	3546	3546	3546	3546	3546	3546	3583	3101	3101	3101	3101	3073	3073	3073	3073	3073	3073	3101	3073	3073	3073	3073	3073	3046	3046	3073	3046	3046	3046	3046	3046	3046	3046	3046	3046	3046	3046	3046	3046	3046	3046	3046	3046	3019	3019	3019	3019	3019	3046	3046	3046	3046	3046	3046	3046	3046	3046	3046	3019	3046	3019	3019	3046	3046	3046	3046	3046	3046	3073	3073	3073	3073	3101	3101	3101	3101	3101	3101	3101	3101	3073	3073	3073	3073	3583	3583	3583	3583	3583	3583	3583	3546	3546	3546	3546	3546	3546	3546	3546	3583	3546	3546	3546	3546	3583	3546	3546	3546	3546	3546	3546	3546	3546	3546	3546	3583	3583	3583	3583	3583	3546	3546	3546	3583	3583	3546	3546	3546	3546	3546	3546	3546	3583	3583	3621	3621	3621	3621	3621	3583	3621	3583	3583	3621	3583	3583	3583	3583	3583	3583	3583	3583	3583	3621	3621	3621	3621	3621	3621	3621	3621	3621	3621	3583	3583	3621	3583	3583	3583	3583	3583	3583	3546	3583	3583	3546	3583	3546	3546	3546	3546	3546	3510	3510	3510	3510	3510	3510	3546	3510	3510	3510	3546	3546	3546	3546	3583	3583	3546	3546	3546	3546	3546	3546	3546	3546	3546	3546	3546	3546	3546	3546	3583	3583	3583	3546	3546	3546	3546	3546	3546	3546	3546	3546	3546	3546	3546	3546	3546	3546	3510	3510	3510	3510	0	0	0	0	2237	2223	2223	2208	2194	2181	2167	2153	2140	2127	2114	2114	2101	2088	2076	2063	2051	2039	2039	2027	2015	2003	1992	1992	1980	1969	1958	1947	1936	1936	1925	1915	1915	1904	1894	1894	1883	1863	1863	1853	1843	1833	1833	1824	1814	1814	1786	1777	1768	1759	1759	1750	1750	1741	1732	1723	1715	1706	1698	1698	1690	1690	1681	1665	1665	1657	1641	1641	1634	1626	1618	1618	1611	1603	1603	1596	1596	1581	1574	1567	1560	1567	1560	1553	1546	1539	1539	1532	1512	1512	1506	1506	1499	1492	1492	1486	1480	1473	1467	1461	1461	1461	1461	1461	1461	1455	1455	1461	1461	1461	1461	1467	1473	1473	1480	1480	0	0	0	0	0	0	0	0	0	0	0	0	0	0	0	0	0	0	0	0	0	0	0	0	0	0	0	0	0	0	0	0	0	0	0	0	0	0	0
0	0	0	0	0	0	0	0	0	0	0	0	1480	1480	1486	1499	1506	1506	1506	1512	1512	1519	1519	1525	1539	1539	1546	1553	1560	1560	1567	1567	1574	1581	1581	1589	1589	1596	1611	1618	1618	1626	1641	1649	1649	1657	1665	1673	1681	1690	1690	1698	1706	1715	1723	1723	1741	1741	1750	1750	1759	1768	1768	1777	1777	1786	1786	1795	1814	1824	1824	1843	1853	1873	1883	1894	1904	1904	1915	1925	1925	1936	1936	1947	1958	1969	1980	1992	2003	1992	1992	2003	2015	2015	2027	2039	2039	2051	2051	2051	2063	2063	2478	2496	2478	2478	2478	2478	2478	2478	2478	2478	2478	2478	2478	2478	2532	2532	2496	2478	2478	2478	2478	2496	2496	2496	2478	2496	2478	2496	2478	2478	2478	2478	2478	2478	2478	2478	0	3546	3546	3546	3546	3510	3510	3510	3510	3475	3475	3475	3475	3510	3510	3510	3510	3510	3510	3510	3510	3475	3510	3475	3475	3475	3475	3475	3475	3475	3475	3475	3475	3475	3475	3475	3475	3475	3475	3475	3475	3475	3475	3475	3475	3475	3475	3475	3475	3475	3475	3546	3546	3546	3546	3546	3546	3583	3583	3621	3583	3583	3583	3621	3583	3583	3583	3583	3583	3546	3546	3546	3546	3546	3546	3546	3546	3546	3583	3546	3546	3546	3546	3546	3546	3546	3546	3546	3546	3546	3583	3583	3546	3546	3546	3546	3546	3546	3546	3546	3546	3583	3583	3583	3583	3583	3546	3546	3546	3546	3583	3546	3546	3546	3546	3583	3101	3101	3101	3101	3073	3073	3073	3073	3073	3073	3101	3073	3073	3073	3073	3073	3046	3046	3046	3046	3046	3046	3046	3046	3046	3046	3046	3046	3046	3046	3046	3046	3046	3046	3046	3019	3019	3046	3046	3046	3019	3046	3046	3046	3046	3046	3046	3046	3046	3019	3046	3019	3019	3019	3019	3046	3046	3046	3046	3046	3046	3073	3073	3073	3101	3101	3101	3101	3101	3101	3101	3101	3101	3101	3073	3073	3073	3583	3583	3546	3546	3546	3546	3546	3546	3546	3546	3546	3546	3546	3546	3546	3546	3546	3546	3546	3583	3583	3546	3546	3546	3546	3546	3546	3510	3510	3510	3546	3546	3546	3583	3583	3583	3583	3583	3583	3583	3583	3546	3546	3546	3546	3546	3546	3546	3583	3583	3583	3583	3621	3621	3621	3583	3583	3583	3583	3583	3583	3583	3583	3583	3583	3583	3583	3583	3621	3583	3621	3621	3621	3621	3621	3621	3621	3621	3621	3583	3583	3583	3583	3583	3583	3583	3583	3546	3546	3546	3546	3510	3546	3546	3546	3546	3546	3546	3510	3546	3546	3510	3510	3510	3510	3510	3510	3510	3510	3510	3510	3546	3546	3546	3546	3546	3546	3546	3546	3546	3546	3546	3546	3546	3583	3546	3546	3546	3546	3546	3546	3546	3546	3546	3546	3546	3546	3546	3546	3546	3546	3546	3546	3546	3546	3546	3510	3510	3510	3510	0	0	0	0	2237	2223	2223	2208	2194	2181	2167	2153	2140	2127	2114	2101	2101	2088	2076	2063	2051	2039	2039	2027	2015	2003	1992	1992	1980	1969	1969	1947	1936	1936	1925	1915	1915	1904	1894	1894	1883	1863	1863	1843	1843	1833	1824	1824	1814	1814	1786	1777	1777	1768	1759	1750	1750	1741	1723	1723	1715	1706	1698	1698	1690	1681	1681	1665	1657	1657	1641	1641	1634	1626	1618	1618	1611	1611	1603	1603	1596	1581	1574	1567	1560	1567	1560	1553	1546	1539	1539	1519	1512	1506	1499	1499	1492	1492	1486	1486	1473	1473	1467	1461	1461	1461	1461	1455	1461	1455	1455	1461	1461	1461	1461	1467	1467	1473	1480	1480	0	0	0	0	0	0	0	0	0	0	0	0	0	0	0	0	0	0	0	0	0	0	0	0	0	0	0	0	0	0	0	0	0	0	0	0	0	0	0
0	0	0	0	0	0	0	0	0	0	0	0	1473	1480	1486	1499	1506	1506	1506	1512	1512	1512	1519	1525	1532	1532	1546	1553	1560	1567	1574	1574	1581	1589	1589	1589	1596	1603	1611	1618	1626	1626	1641	1649	1649	1649	1665	1673	1681	1690	1690	1698	1715	1715	1723	1723	1741	1741	1750	1750	1759	1768	1768	1777	1786	1795	1795	1804	1814	1814	1814	1833	1843	1873	1873	1883	1894	1894	1904	1915	1925	1936	1936	1947	1958	1969	1992	1992	2003	2003	1992	2003	2015	2015	2027	2039	2051	2063	2051	2051	2063	2076	2076	2496	2478	2478	2478	2478	2478	2478	2478	2478	2478	2478	2496	2496	2496	2478	2478	2478	2478	2460	2460	2478	2496	2496	2496	2496	2478	2496	2478	2478	2478	2478	2496	2478	2478	2478	3546	3546	3546	3546	3546	3510	3510	3475	3475	3475	3475	3475	3475	3475	3510	3510	3510	3510	3510	3510	3510	3475	3510	3510	3510	3510	3510	3475	3475	3475	3475	3475	3475	3475	3475	3475	3475	3475	3475	3475	3510	3475	3475	3475	3475	3475	3475	3475	3475	3510	3475	3546	3546	3546	3546	3546	3546	3546	3583	3583	3583	3583	3621	3621	3583	3583	3583	3583	3583	3583	3546	3546	3546	3546	3546	3546	3583	3546	3583	3546	3546	3546	3546	3546	3546	3546	3546	3546	3546	3583	3583	3583	3546	3546	3546	3546	3546	3546	3546	3546	3546	3583	3583	3546	3583	3583	3546	3546	3546	3546	3546	3546	3546	3546	3546	3546	3546	3101	3101	3101	3073	3073	3073	3073	3073	3073	3073	3073	3073	3073	3073	3073	3046	3046	3046	3046	3046	3046	3046	3046	3046	3046	3046	3046	3046	3046	3046	3046	3046	3046	3046	3019	3019	3019	3046	3019	3019	3046	3046	3046	3046	3046	3046	3046	3046	3019	3046	3046	3046	3046	3046	3046	3046	3046	3046	3073	3073	3073	3101	3101	3101	3101	3101	3101	3101	3101	3101	3101	3101	3101	3073	3073	3101	3583	3583	3546	3546	3546	3546	3546	3546	3546	3546	3546	3546	3546	3546	3546	3546	3546	3546	3546	3546	3546	3546	3546	3546	3546	3546	3546	3510	3510	3546	3546	3546	3546	3546	3546	3583	3546	3583	3583	3583	3583	3546	3546	3546	3546	3546	3546	3546	3583	3583	3583	3583	3583	3621	3621	3583	3583	3583	3583	3583	3583	3583	3583	3583	3583	3583	3583	3583	3583	3583	3621	3621	3621	3621	3621	3621	3621	3583	3583	3583	3583	3583	3583	3583	3583	3583	3583	3546	3546	3546	3546	3510	3546	3546	3546	3546	3546	3546	3583	3546	3546	3510	3510	3510	3546	3510	3510	3510	3510	3510	3510	3546	3546	3546	3546	3546	3546	3546	3546	3546	3546	3546	3546	3546	3546	3546	3546	3546	3546	3546	3546	3546	3546	3546	3546	3546	3546	3546	3546	3546	3546	3583	3546	3546	3546	3546	3510	3510	3510	3510	3510	0	0	0	2237	2223	2223	2208	2194	2181	2167	2153	2140	2127	2114	2101	2101	2088	2076	2063	2063	2039	2039	2027	2015	2003	1992	1992	1992	1980	1969	1947	1947	1936	1925	1915	1915	1904	1894	1894	1883	1863	1853	1843	1843	1833	1824	1824	1814	1814	1804	1786	1777	1768	1759	1750	1741	1741	1723	1723	1715	1706	1698	1690	1690	1681	1673	1665	1657	1657	1649	1641	1634	1626	1618	1618	1611	1611	1611	1603	1596	1581	1574	1567	1560	1567	1560	1553	1546	1539	1539	1519	1512	1512	1512	1506	1499	1492	1486	1486	1473	1473	1467	1461	1461	1461	1461	1455	1461	1455	1455	1461	1461	1461	1461	1461	1467	1467	1473	1473	0	0	0	0	0	0	0	0	0	0	0	0	0	0	0	0	0	0	0	0	0	0	0	0	0	0	0	0	0	0	0	0	0	0	0	0	0	0	0
0	0	0	0	0	0	0	0	0	0	0	0	1480	1480	1480	1492	1499	1499	1506	1506	1512	1519	1519	1525	1532	1546	1553	1553	1560	1567	1567	1574	1581	1589	1589	1596	1596	1603	1611	1618	1618	1626	1641	1649	1649	1657	1665	1673	1673	1681	1690	1690	1706	1715	1723	1732	1741	1750	1750	1750	1759	1768	1768	1777	1786	1795	1795	1804	1814	1804	1804	1833	1843	1863	1873	1883	1894	1894	1904	1904	1925	1936	1947	1958	1969	1992	1992	2003	2003	2003	2003	2015	2027	2027	2051	2051	2063	2063	2063	2063	2063	2088	2088	2088	2478	2478	2478	2478	2478	2478	2478	2478	2478	2478	2478	2496	2496	2514	2496	2478	2478	2460	2460	2496	2478	2478	2478	2496	2478	2496	2496	2478	2478	2496	2496	2478	2478	2478	3546	3546	3510	3510	3510	3510	3475	3475	3475	3475	3475	3475	3475	3475	3510	3510	3475	3475	3475	3475	3510	3510	3510	3510	3475	3475	3475	3475	3475	3475	3475	3475	3475	3475	3475	3475	3475	3475	3475	3475	3475	3475	3475	3475	3475	3475	3475	3475	3475	3510	3510	3546	3546	3546	3546	3546	3546	3546	3546	3583	3583	3583	3583	3621	3583	3583	3583	3583	3546	3583	3546	3546	3546	3546	3546	3546	3546	3546	3546	3546	3546	3546	3546	3546	3546	3546	3546	3546	3546	3546	3546	3583	3546	3546	3546	3546	3546	3546	3546	3546	3546	3583	3583	3583	3583	3583	3546	3583	3546	3546	3546	3546	3546	3510	3510	3546	3546	3101	3101	3101	3073	3073	3073	3073	3073	3073	3073	3073	3073	3073	3073	3073	3046	3046	3046	3046	3046	3046	3046	3046	3046	3046	3046	3046	3046	3046	3046	3046	3046	3046	3046	3019	3019	3046	3046	3046	3046	3046	3046	3046	3046	3019	3046	3046	3019	3019	3019	3046	3046	3046	3046	3046	3046	3046	3046	3073	3073	3073	3101	3101	3101	3101	3101	3101	3101	3101	3101	3101	3101	3073	3073	3073	3073	3583	3583	3583	3546	3583	3583	3583	3583	3546	3546	3546	3546	3546	3546	3546	3546	3546	3546	3546	3583	3583	3583	3546	3546	3546	3546	3546	3510	3510	3510	3546	3546	3546	3546	3546	3583	3583	3583	3583	3583	3583	3546	3546	3546	3546	3546	3546	3546	3546	3583	3621	3583	3621	3621	3621	3621	3621	3583	3583	3621	3621	3583	3621	3583	3583	3583	3583	3583	3583	3583	3583	3583	3621	3621	3621	3621	3621	3583	3583	3583	3583	3583	3583	3583	3583	3583	3583	3583	3546	3546	3546	3510	3546	3546	3546	3546	3546	3546	3546	3546	3546	3546	3546	3546	3546	3510	3546	3510	3510	3510	3510	3546	3546	3546	3546	3546	3546	3546	3546	3546	3546	3546	3546	3546	3546	3546	3546	3546	3546	3546	3546	3546	3546	3546	3546	3546	3546	3546	3583	3583	3583	3583	3583	3546	3546	3546	3510	3510	3475	3440	3373	3373	0	0	2237	2223	2223	2208	2194	2181	2167	2153	2140	2127	2114	2101	2101	2088	2076	2063	2063	2051	2039	2027	2015	2003	2003	1992	1992	1980	1969	1947	1947	1936	1925	1915	1915	1904	1894	1883	1873	1863	1853	1853	1843	1833	1824	1824	1814	1814	1804	1786	1777	1768	1759	1750	1741	1741	1732	1723	1723	1706	1698	1690	1690	1681	1673	1665	1657	1657	1649	1641	1634	1634	1626	1618	1611	1611	1603	1596	1589	1581	1574	1567	1560	1560	1553	1546	1546	1532	1532	1519	1512	1512	1506	1499	1499	1492	1486	1486	1473	1473	1467	1461	1461	1461	1455	1455	1455	1455	1455	1461	1461	1461	1461	1467	1467	1473	1480	1480	0	0	0	0	0	0	0	0	0	0	0	0	0	0	0	0	0	0	0	0	0	0	0	0	0	0	0	0	0	0	0	0	0	0	0	0	0	0	0
0	0	0	0	0	0	0	0	0	0	0	0	1480	1480	1480	1486	1499	1499	1499	1506	1512	1519	1519	1525	1539	1546	1546	1553	1560	1567	1567	1567	1581	1581	1589	1596	1596	1603	1611	1618	1618	1626	1641	1641	1649	1649	1657	1673	1681	1681	1690	1690	1698	1706	1715	1732	1741	1750	1750	1750	1750	1759	1768	1777	1786	1795	1795	1795	1804	1804	1804	1833	1843	1863	1873	1883	1894	1904	1904	1915	1915	1915	1936	1936	1969	1992	2003	2003	2003	2003	2003	2003	2027	2039	2051	2051	2063	2063	2076	2063	2063	2101	2114	2114	2114	2478	2478	2478	2478	2478	2478	2478	2478	2478	2496	2496	2514	2514	2496	2496	2478	2460	2460	2478	2478	2478	2478	2496	2478	2496	2496	2478	2478	2496	2496	2496	2496	2478	3583	3546	3510	3510	3510	3475	3510	3475	3510	3475	3475	3475	3475	3475	3510	3475	3475	3510	3475	3475	3510	3475	3475	3510	3475	3510	3475	3475	3475	3475	3475	3475	3475	3475	3475	3475	3475	3475	3475	3475	3475	3475	3475	3475	3475	3475	3475	3475	3475	3475	3475	3546	3546	3546	3546	3546	3546	3546	3583	3583	3583	3546	3583	3583	3583	3583	3583	3583	3546	3546	3546	3546	3546	3546	3546	3546	3546	3546	3546	3546	3546	3546	3546	3546	3546	3546	3546	3546	3546	3546	3546	3583	3546	3546	3546	3546	3546	3546	3546	3546	3546	3583	3583	3583	3583	3583	3583	3583	3546	3546	3546	3546	3546	3510	3510	3546	3546	3101	3101	3073	3073	3073	3073	3073	3073	3073	3073	3073	3073	3073	3073	3073	3046	3046	3046	3046	3046	3046	3046	3046	3046	3046	3046	3046	3046	3046	3046	3046	3046	3046	3046	3019	3019	3019	3019	3046	3046	3046	3046	3046	3046	3046	3046	3046	3046	3019	3046	3046	3046	3046	3046	3046	3046	3046	3046	3073	3073	3073	3101	3101	3101	3101	3101	3101	3101	3101	3101	3101	3101	3073	3073	3073	3621	3621	3583	3583	3583	3583	3583	3583	3583	3546	3546	3583	3546	3546	3546	3546	3546	3546	3546	3546	3583	3583	3583	3583	3546	3546	3546	3546	3510	3546	3546	3546	3546	3546	3546	3546	3583	3583	3546	3583	3583	3546	3546	3546	3546	3546	3546	3546	3546	3583	3583	3621	3621	3621	3621	3621	3621	3621	3583	3583	3583	3583	3583	3583	3583	3583	3583	3583	3583	3583	3583	3583	3583	3621	3621	3621	3621	3583	3583	3583	3583	3583	3583	3583	3583	3583	3583	3583	3583	3583	3583	3583	3546	3583	3546	3583	3583	3583	3546	3546	3546	3546	3546	3546	3546	3546	3546	3546	3546	3510	3510	3510	3546	3546	3546	3546	3546	3546	3546	3583	3583	3546	3546	3583	3546	3546	3546	3546	3546	3546	3546	3546	3546	3546	3546	3546	3546	3546	3546	3546	3583	3583	3583	3546	3546	3546	3546	3510	3510	3475	3440	3373	3373	0	2252	2237	2223	2223	2208	2194	2181	2167	2153	2140	2127	2114	2101	2101	2088	2076	2063	2063	2051	2039	2027	2015	2003	2003	1992	1992	1980	1969	1947	1947	1936	1925	1915	1915	1904	1894	1883	1873	1863	1863	1853	1843	1833	1824	1824	1814	1804	1804	1786	1777	1777	1759	1759	1750	1741	1732	1732	1723	1706	1698	1690	1690	1681	1673	1665	1657	1657	1649	1641	1634	1634	1626	1618	1611	1611	1603	1596	1589	1581	1574	1567	1560	1560	1553	1546	1546	1532	1532	1525	1512	1512	1506	1499	1499	1492	1486	1486	1473	1473	1467	1461	1461	1461	1455	1455	1455	1455	1455	1461	1461	1461	1461	1461	1467	1467	1480	1480	0	0	0	0	0	0	0	0	0	0	0	0	0	0	0	0	0	0	0	0	0	0	0	0	0	0	0	0	0	0	0	0	0	0	0	0	0	0	0
0	0	0	0	0	0	0	0	0	0	0	0	1480	1473	1480	1486	1499	1499	1499	1506	1512	1519	1512	1519	1532	1546	1546	1553	1560	1567	1567	1567	1574	1581	1589	1596	1596	1603	1611	1611	1618	1626	1641	1641	1649	1657	1657	1673	1681	1681	1690	1690	1698	1706	1715	1723	1741	1741	1750	1750	1750	1759	1768	1768	1786	1795	1795	1804	1804	1804	1804	1833	1843	1853	1863	1873	1883	1883	1894	1894	1904	1904	1936	1958	1969	1980	1992	2003	2003	2003	2015	2027	2039	2039	2051	2063	2063	2063	2088	2088	2101	2101	2114	2114	2127	2127	2140	2478	2478	2478	2478	2478	2460	2478	2496	2496	2496	2478	2496	2478	2478	2460	2460	2478	2478	2478	2478	2478	2478	2496	2478	2478	2478	2496	2496	2496	2496	0	3583	3546	3510	3510	3510	3510	3475	3475	3510	3510	3510	3510	3475	3475	3510	3475	3475	3475	3475	3475	3510	3475	3475	3510	3475	3475	3475	3475	3475	3475	3475	3475	3475	3475	3475	3475	3475	3475	3475	3475	3475	3475	3475	3475	3475	3475	3475	3475	3475	3510	3510	3546	3546	3546	3546	3546	3546	3546	3546	3583	3546	3546	3583	3583	3583	3583	3583	3583	3546	3583	3546	3546	3546	3583	3546	3546	3546	3546	3546	3546	3546	3546	3546	3546	3546	3546	3546	3546	3546	3546	3546	3546	3546	3546	3546	3546	3546	3546	3546	3546	3546	3583	3583	3583	3583	3583	3583	3583	3546	3546	3546	3546	3546	3510	3510	3546	3546	3073	3073	3073	3073	3073	3073	3073	3073	3073	3073	3073	3073	3073	3073	3073	3046	3046	3046	3046	3046	3046	3046	3046	3046	3046	3046	3046	3046	3046	3073	3046	3046	3046	3046	3019	3019	3019	3019	3046	3046	3046	3046	3046	3046	3046	3046	3046	3046	3019	3046	3046	3046	3046	3046	3046	3046	3046	3073	3073	3073	3073	3073	3101	3101	3101	3101	3101	3101	3101	3101	3101	3101	3073	3073	3073	3621	3621	3583	3583	3546	3583	3583	3583	3583	3546	3546	3546	3546	3546	3546	3546	3583	3546	3546	3546	3546	3546	3546	3546	3546	3546	3546	3546	3510	3546	3546	3546	3546	3546	3546	3583	3583	3583	3583	3583	3583	3583	3546	3546	3546	3546	3546	3546	3546	3621	3621	3621	3621	3621	3621	3621	3621	3621	3583	3583	3583	3583	3583	3583	3583	3583	3583	3583	3583	3583	3583	3583	3583	3621	3621	3621	3583	3583	3583	3583	3583	3546	3583	3583	3583	3583	3583	3583	3583	3583	3583	3583	3546	3583	3546	3583	3583	3583	3546	3546	3546	3546	3546	3546	3546	3546	3546	3546	3546	3510	3510	3510	3546	3546	3546	3546	3546	3546	3546	3583	3583	3583	3583	3583	3583	3546	3546	3546	3546	3546	3546	3546	3546	3546	3546	3546	3546	3546	3546	3546	3546	3546	3583	3546	3546	3546	3546	3510	3510	3475	3440	3406	3406	0	2252	2237	2223	2208	2194	2194	2181	2167	2153	2140	2127	2114	2101	2101	2088	2076	2063	2063	2051	2039	2027	2015	2003	2003	1992	1992	1980	1969	1947	1947	1936	1925	1915	1915	1904	1894	1883	1873	1863	1863	1853	1843	1833	1824	1824	1814	1804	1795	1786	1777	1777	1759	1750	1750	1741	1732	1723	1723	1706	1698	1690	1690	1681	1673	1665	1657	1657	1649	1641	1634	1634	1626	1626	1611	1611	1603	1596	1589	1574	1567	1560	1560	1560	1553	1546	1546	1539	1532	1525	1512	1512	1506	1512	1499	1492	1486	1480	1480	1473	1473	1461	1461	1455	1455	1449	1455	1455	1455	1455	1461	1461	1461	1461	1467	1467	1473	1473	0	0	0	0	0	0	0	0	0	0	0	0	0	0	0	0	0	0	0	0	0	0	0	0	0	0	0	0	0	0	0	0	0	0	0	0	0	0	0
0	0	0	0	0	0	0	0	0	0	0	0	1480	1480	1486	1486	1499	1499	1506	1506	1512	1512	1512	1519	1525	1546	1546	1553	1560	1574	1567	1574	1581	1581	1596	1596	1596	1603	1611	1611	1611	1626	1641	1649	1649	1657	1657	1673	1681	1681	1690	1690	1698	1706	1715	1723	1741	1750	1750	1750	1759	1759	1768	1768	1777	1795	1804	1804	1824	1824	1824	1833	1843	1843	1873	1873	1883	1883	1894	1894	1904	1925	1947	1958	1969	1980	1992	2003	2015	2015	2027	2027	2051	2051	2051	2063	2063	2076	2088	2088	2101	2114	2114	2114	2127	2127	2140	2140	2153	2153	2478	2478	2460	2460	2478	2478	2478	2478	2460	2478	2478	2460	2460	2478	2478	2496	2496	2496	2496	2496	2496	2496	2496	2496	2496	2478	2478	0	3546	3546	3510	3510	3510	3510	3510	3510	3510	3510	3510	3510	3510	3510	3510	3510	3475	3475	3475	3475	3510	3475	3475	3510	3475	3475	3475	3475	3475	3475	3475	3475	3475	3475	3475	3475	3475	3475	3475	3475	3475	3475	3475	3475	3475	3475	3475	3475	3510	3510	3510	3546	3546	3546	3546	3546	3546	3546	3546	3546	3546	3546	3583	3621	3583	3583	3583	3583	3583	3583	3546	3583	3583	3583	3583	3583	3546	3546	3583	3583	3583	3546	3546	3583	3546	3546	3546	3546	3546	3546	3546	3546	3546	3546	3546	3546	3546	3546	3546	3546	3546	3583	3583	3583	3583	3583	3583	3546	3546	3546	3546	3546	3546	3510	3546	3546	3073	3073	3073	3073	3046	3073	3073	3073	3073	3073	3073	3073	3073	3073	3073	3073	3046	3046	3046	3046	3046	3046	3046	3046	3046	3046	3046	3046	3046	3046	3046	3046	3046	3046	3046	3019	3019	3019	3019	3046	3046	3046	3046	3046	3046	3046	3046	3046	3046	3046	3046	3046	3046	3046	3046	3046	3046	3046	3046	3073	3073	3101	3101	3101	3101	3101	3101	3101	3101	3101	3101	3101	3101	3073	3073	3073	3659	3621	3583	3583	3583	3583	3583	3583	3583	3546	3583	3583	3583	3546	3546	3546	3583	3546	3546	3546	3583	3546	3546	3546	3546	3546	3546	3510	3510	3510	3546	3546	3546	3546	3546	3546	3583	3583	3583	3583	3583	3583	3546	3546	3546	3546	3546	3546	3546	3621	3621	3621	3621	3621	3621	3621	3583	3583	3583	3546	3546	3546	3546	3546	3546	3546	3583	3583	3583	3583	3583	3583	3583	3583	3621	3621	3583	3583	3583	3583	3546	3546	3583	3546	3546	3583	3583	3583	3583	3583	3583	3583	3583	3583	3583	3583	3583	3583	3583	3546	3546	3546	3546	3546	3546	3546	3546	3546	3546	3510	3510	3510	3546	3546	3546	3546	3546	3546	3546	3583	3583	3583	3583	3583	3583	3546	3546	3546	3546	3546	3546	3546	3546	3546	3546	3546	3546	3546	3546	3546	3546	3546	3583	3546	3546	3546	3546	3510	3510	3475	3440	3406	3406	0	0	2237	2223	2208	2208	2194	2181	2153	2140	2140	2127	2114	2101	2101	2088	2076	2063	2051	2039	2027	2027	2015	2003	2003	1992	1980	1969	1958	1958	1947	1936	1925	1915	1915	1904	1894	1883	1873	1873	1863	1853	1843	1833	1824	1814	1814	1804	1795	1786	1777	1768	1759	1759	1750	1750	1732	1732	1723	1715	1706	1698	1690	1681	1673	1673	1665	1657	1657	1641	1634	1634	1626	1626	1611	1611	1603	1596	1589	1567	1567	1567	1560	1560	1553	1553	1546	1539	1532	1525	1512	1519	1506	1506	1499	1492	1486	1480	1480	1473	1473	1461	1455	1455	1449	1449	1449	1449	1449	1455	1455	1461	1461	1461	1467	1467	1480	1480	0	0	0	0	0	0	0	0	0	0	0	0	0	0	0	0	0	0	0	0	0	0	0	0	0	0	0	0	0	0	0	0	0	0	0	0	0	0	0
0	0	0	0	0	0	0	0	0	0	0	0	1480	1480	1486	1486	1492	1499	1499	1506	1512	1512	1519	1519	1532	1546	1546	1553	1560	1574	1574	1574	1589	1589	1596	1596	1596	1603	1603	1603	1611	1626	1641	1649	1657	1657	1657	1673	1681	1681	1690	1690	1698	1706	1715	1723	1732	1741	1741	1750	1759	1759	1768	1777	1777	1795	1804	1804	1824	1833	1833	1833	1853	1863	1873	1873	1883	1883	1883	1894	1904	1915	1925	1947	1958	1980	1992	2003	2015	2027	2039	2039	2051	2051	2063	2063	2063	2088	2088	2101	2101	2114	2114	2127	2127	2127	2153	2153	2153	2153	2167	2167	2167	2478	2478	2478	2478	2478	2460	2460	2478	2460	2460	2496	2478	2496	2478	2478	2478	2478	2478	2478	2478	2478	2496	2478	2496	2496	3546	3546	3510	3510	3510	3510	3475	3510	3510	3510	3510	3510	3510	3510	3510	3510	3475	3475	3475	3475	3475	3475	3475	3510	3475	3475	3475	3475	3475	3475	3475	3475	3475	3475	3475	3475	3475	3475	3475	3475	3475	3475	3475	3475	3475	3475	3510	3510	3510	3510	3510	3546	3546	3546	3546	3546	3546	3546	3546	3546	3546	3546	3583	3583	3583	3583	3583	3583	3583	3621	3583	3583	3583	3583	3583	3583	3583	3583	3583	3583	3546	3546	3546	3583	3583	3583	3546	3583	3546	3546	3546	3546	3546	3546	3546	3546	3546	3546	3546	3546	3546	3546	3546	3546	3546	3546	3546	3546	3546	3546	3546	3546	3546	3510	3546	3046	3046	3073	3073	3073	3073	3073	3073	3073	3073	3073	3073	3101	3073	3073	3073	3073	3046	3046	3046	3046	3046	3046	3046	3046	3046	3046	3046	3046	3046	3046	3046	3046	3046	3046	3046	3019	3046	3046	3019	3046	3046	3046	3046	3019	3019	3019	3046	3046	3046	3046	3046	3046	3046	3046	3046	3046	3046	3046	3046	3073	3073	3101	3101	3101	3101	3101	3101	3101	3101	3101	3101	3073	3073	3073	3073	3073	3659	3621	3583	3583	3583	3583	3583	3583	3583	3546	3583	3546	3583	3546	3546	3546	3546	3546	3546	3583	3583	3583	3583	3546	3546	3546	3546	3510	3510	3546	3546	3510	3546	3546	3546	3583	3583	3583	3583	3546	3583	3546	3546	3546	3546	3546	3546	3546	3546	3621	3621	3621	3621	3621	3621	3621	3621	3583	3583	3583	3583	3583	3546	3583	3546	3546	3583	3583	3583	3583	3583	3583	3583	3621	3621	3621	3583	3583	3583	3583	3546	3546	3546	3546	3583	3583	3583	3583	3583	3583	3583	3546	3546	3546	3546	3546	3546	3583	3583	3546	3546	3583	3583	3583	3546	3546	3546	3546	3546	3546	3510	3510	3546	3546	3546	3546	3546	3583	3583	3583	3583	3583	3583	3583	3583	3546	3546	3546	3546	3546	3546	3546	3546	3546	3546	3546	3546	3546	3546	3583	3546	3546	3583	3546	3546	3546	3546	3510	3510	3475	3475	3440	3440	0	0	2237	2223	2208	2208	2194	2181	2153	2140	2140	2114	2114	2101	2101	2088	2088	2063	2051	2039	2027	2027	2015	2003	2003	1992	1980	1969	1969	1958	1947	1936	1925	1915	1904	1904	1894	1883	1873	1873	1863	1853	1843	1833	1824	1814	1804	1795	1795	1786	1777	1768	1759	1759	1750	1750	1741	1732	1723	1715	1706	1698	1690	1681	1681	1673	1665	1657	1657	1641	1641	1634	1626	1618	1611	1611	1603	1596	1589	1567	1567	1567	1560	1560	1553	1546	1546	1539	1532	1525	1512	1512	1512	1506	1499	1492	1486	1480	1480	1473	1473	1461	1455	1455	1449	1449	1449	1449	1449	1455	1455	1461	1461	1461	1461	1467	1473	1473	0	0	0	0	0	0	0	0	0	0	0	0	0	0	0	0	0	0	0	0	0	0	0	0	0	0	0	0	0	0	0	0	0	0	0	0	0	0	0
0	0	0	0	0	0	0	0	0	0	0	0	1480	1480	1480	1486	1492	1499	1499	1506	1512	1512	1519	1525	1546	1553	1553	1553	1560	1567	1574	1574	1581	1581	1589	1596	1596	1596	1596	1603	1603	1626	1641	1657	1657	1657	1665	1673	1681	1681	1681	1690	1698	1706	1715	1723	1732	1741	1741	1750	1759	1759	1777	1786	1795	1804	1804	1814	1824	1833	1833	1843	1853	1853	1863	1873	1883	1883	1894	1894	1904	1915	1925	1947	1969	1969	1992	2003	2015	2015	2027	2039	2051	2051	2051	2063	2063	2088	2088	2101	2101	2114	2114	2114	2127	2140	2153	2153	2167	2167	2167	2167	2194	2194	2194	2478	2478	2478	2460	2460	2478	2460	2460	2478	2478	2478	2496	2478	2478	2478	2478	2478	2496	2496	2496	2496	2496	2496	0	3510	3510	3510	3510	3510	3510	3510	3510	3510	3510	3510	3510	3510	3510	3475	3475	3475	3475	3475	3475	3510	3475	3510	3475	3475	3475	3475	3475	3475	3475	3475	3475	3475	3475	3475	3475	3475	3475	3475	3475	3475	3475	3475	3475	3475	3475	3510	3510	3510	3510	3510	3546	3546	3546	3546	3546	3546	3546	3546	3546	3546	3583	3583	3583	3583	3583	3583	3583	3621	3546	3583	3583	3621	3546	3583	3583	3583	3546	3546	3546	3546	3546	3546	3583	3546	3546	3546	3546	3546	3546	3546	3546	3546	3546	3546	3546	3546	3546	3546	3546	3546	3546	3546	3546	3546	3546	3546	3546	3546	3546	3546	3510	3510	3546	3583	3046	3073	3073	3073	3046	3046	3073	3073	3073	3073	3073	3073	3073	3073	3073	3073	3046	3046	3046	3046	3046	3046	3046	3046	3046	3046	3046	3046	3046	3046	3046	3046	3046	3046	3046	3046	3046	3019	3019	3046	3046	3046	3046	3046	3019	3019	3019	3019	3019	3046	3046	3046	3046	3046	3046	3046	3046	3046	3046	3073	3073	3101	3101	3101	3101	3101	3101	3101	3101	3101	3101	3073	3073	3073	3046	3046	3659	3621	3621	3583	3583	3583	3583	3583	3583	3583	3583	3583	3583	3546	3546	3546	3546	3546	3546	3546	3546	3546	3583	3546	3546	3546	3546	3510	3546	3510	3546	3510	3546	3546	3546	3546	3583	3583	3546	3546	3583	3583	3546	3546	3546	3546	3546	3546	3546	3621	3621	3621	3621	3621	3621	3621	3621	3621	3583	3583	3583	3583	3583	3583	3546	3546	3583	3583	3583	3583	3583	3583	3583	3583	3583	3583	3583	3583	3583	3583	3583	3546	3546	3546	3583	3583	3583	3583	3583	3583	3583	3583	3546	3583	3546	3546	3583	3583	3583	3546	3546	3583	3583	3583	3546	3546	3546	3546	3546	3546	3510	3510	3546	3546	3546	3546	3583	3583	3583	3583	3583	3583	3583	3583	3583	3583	3546	3546	3546	3546	3546	3546	3546	3546	3546	3546	3546	3546	3546	3546	3546	3546	3546	3546	3546	3546	3510	3510	3510	3475	3440	3406	3406	0	0	2237	2223	2223	2208	2194	2181	2153	2140	2140	2114	2114	2101	2101	2088	2076	2063	2051	2039	2027	2027	2015	2003	2003	1992	1980	1969	1969	1958	1947	1936	1925	1915	1904	1904	1894	1883	1873	1873	1863	1853	1843	1833	1824	1814	1804	1795	1795	1786	1777	1768	1768	1759	1759	1750	1741	1732	1723	1723	1706	1698	1690	1681	1681	1673	1665	1657	1657	1641	1634	1626	1626	1618	1611	1603	1596	1596	1589	1574	1567	1560	1560	1560	1553	1553	1546	1539	1532	1525	1519	1512	1512	1506	1499	1492	1486	1480	1480	1473	1473	1461	1455	1449	1449	1449	1449	1449	1449	1455	1455	1461	1461	1461	1461	1467	1467	1473	0	0	0	0	0	0	0	0	0	0	0	0	0	0	0	0	0	0	0	0	0	0	0	0	0	0	0	0	0	0	0	0	0	0	0	0	0	0	0
0	0	0	0	0	0	0	0	0	0	0	0	1480	1480	1486	1486	1499	1499	1506	1506	1512	1512	1519	1532	1539	1546	1553	1553	1560	1567	1567	1574	1581	1581	1589	1589	1596	1596	1596	1603	1611	1634	1649	1657	1657	1657	1665	1665	1673	1673	1681	1698	1698	1706	1706	1715	1715	1741	1741	1750	1759	1768	1777	1786	1795	1804	1804	1824	1824	1833	1833	1843	1853	1853	1863	1873	1873	1883	1894	1894	1915	1925	1936	1947	1969	1969	1980	1992	2003	2015	2027	2027	2051	2051	2051	2063	2063	2088	2088	2101	2101	2114	2114	2127	2127	2140	2153	2167	2167	2167	2181	2181	2194	2194	2194	2194	2478	2478	2460	2443	2443	2460	2460	2478	2478	2496	2478	2496	2496	2496	2496	2496	2496	2496	2496	2496	2496	2496	0	3510	3510	3510	3510	3510	3510	3510	3510	3510	3510	3510	3510	3510	3510	3475	3475	3475	3475	3510	3475	3510	3475	3475	3475	3475	3475	3475	3475	3475	3475	3475	3475	3475	3475	3475	3475	3475	3475	3475	3475	3475	3475	3475	3440	3475	3475	3475	3510	3510	3510	3546	3546	3546	3546	3546	3546	3546	3546	3546	3546	3546	3546	3546	3546	3546	3583	3583	3546	3621	3546	3583	3583	3583	3546	3546	3546	3583	3583	3546	3546	3546	3546	3546	3546	3546	3546	3546	3546	3546	3546	3546	3546	3546	3546	3546	3546	3546	3546	3546	3546	3546	3546	3546	3546	3546	3546	3546	3546	3546	3546	3546	3546	3546	3546	3583	3046	3073	3073	3046	3046	3046	3073	3073	3073	3073	3073	3073	3073	3073	3073	3046	3046	3046	3046	3046	3019	3046	3046	3046	3046	3046	3046	3046	3046	3046	3046	3046	3046	3046	3046	3046	3046	3046	3046	3046	3046	3046	3046	3019	3019	3046	3046	3019	3019	3046	3046	3046	3046	3046	3046	3046	3046	3046	3046	3073	3073	3101	3073	3101	3101	3073	3073	3101	3073	3073	3073	3073	3101	3073	3073	3659	3621	3621	3583	3583	3583	3583	3583	3583	3583	3583	3583	3583	3583	3546	3546	3546	3546	3546	3546	3546	3546	3583	3583	3546	3583	3546	3546	3546	3546	3510	3546	3510	3546	3546	3510	3546	3546	3546	3546	3546	3546	3546	3546	3546	3546	3546	3546	3546	3546	3621	3621	3621	3621	3621	3621	3621	3621	3621	3583	3583	3583	3583	3583	3583	3546	3546	3583	3583	3583	3583	3583	3583	3583	3583	3583	3583	3583	3583	3583	3583	3583	3546	3583	3546	3583	3583	3583	3583	3583	3546	3546	3546	3546	3546	3546	3546	3546	3546	3546	3546	3546	3583	3583	3546	3546	3546	3546	3546	3546	3510	3510	3510	3546	3583	3546	3546	3583	3583	3583	3583	3583	3583	3583	3583	3583	3583	3583	3583	3546	3546	3546	3546	3546	3546	3546	3546	3546	3546	3546	3546	3546	3546	3546	3546	3546	3546	3510	3510	3510	3475	3440	3406	3406	0	0	2237	2223	2223	2208	2194	2181	2153	2140	2140	2114	2114	2101	2101	2088	2076	2063	2039	2039	2027	2027	2027	2015	2003	1992	1980	1969	1969	1958	1947	1936	1925	1915	1904	1904	1894	1894	1883	1873	1863	1843	1843	1824	1824	1814	1804	1795	1795	1786	1777	1768	1768	1759	1759	1750	1741	1732	1723	1723	1706	1698	1690	1690	1681	1673	1665	1665	1657	1634	1626	1626	1618	1618	1611	1603	1596	1596	1589	1581	1567	1560	1560	1560	1553	1553	1546	1539	1532	1525	1519	1512	1512	1506	1499	1492	1486	1486	1480	1473	1473	1467	1455	1449	1449	1449	1443	1443	1443	1449	1449	1449	1461	1461	1467	1467	1473	1473	0	0	0	0	0	0	0	0	0	0	0	0	0	0	0	0	0	0	0	0	0	0	0	0	0	0	0	0	0	0	0	0	0	0	0	0	0	0	0
0	0	0	0	0	0	0	0	0	0	0	0	1473	1480	1486	1486	1499	1499	1506	1506	1512	1519	1525	1532	1539	1546	1553	1553	1560	1567	1567	1567	1581	1581	1589	1589	1589	1596	1596	1603	1618	1634	1649	1649	1657	1657	1657	1665	1673	1681	1681	1698	1706	1706	1715	1715	1723	1732	1741	1750	1768	1777	1777	1786	1795	1795	1804	1814	1824	1833	1833	1843	1853	1853	1853	1873	1873	1883	1883	1894	1915	1915	1936	1947	1958	1958	1969	1980	1992	2003	2027	2027	2039	2051	2051	2063	2063	2076	2088	2088	2101	2114	2114	2127	2140	2153	2167	2167	2181	2181	2181	2194	2194	2208	2194	2194	2208	2208	2208	2443	2443	2460	2460	2478	2478	2478	2478	2478	2478	2496	2478	2478	2496	2496	2496	2496	2496	2496	0	3510	3510	3510	3510	3510	3510	3510	3510	3510	3510	3510	3510	3510	3510	3475	3475	3475	3510	3510	3475	3475	3475	3475	3475	3475	3475	3475	3475	3475	3475	3475	3475	3475	3475	3475	3475	3475	3475	3475	3440	3440	3475	3475	3475	3475	3475	3475	3475	3510	3510	3546	3546	3546	3546	3546	3546	3546	3546	3546	3546	3546	3546	3546	3546	3583	3583	3583	3546	3621	3546	3583	3583	3583	3583	3546	3546	3583	3583	3583	3546	3546	3546	3546	3546	3546	3546	3546	3546	3546	3546	3546	3546	3546	3546	3546	3546	3546	3546	3546	3546	3546	3546	3546	3546	3546	3546	3546	3546	3546	3546	3546	3546	3546	3546	3583	3046	3046	3073	3046	3046	3046	3073	3073	3073	3073	3073	3073	3073	3073	3073	3046	3046	3046	3046	3046	3046	3046	3046	3046	3046	3046	3046	3046	3046	3046	3046	3046	3046	3046	3046	3046	3046	3046	3046	3046	3046	3046	3046	3046	3046	3046	3046	3046	3046	3046	3046	3046	3046	3046	3046	3046	3046	3046	3046	3073	3073	3101	3073	3073	3073	3073	3073	3073	3073	3073	3073	3073	3073	3073	3073	3621	3621	3621	3621	3583	3583	3583	3583	3583	3583	3583	3583	3583	3583	3546	3546	3546	3546	3546	3546	3546	3583	3583	3583	3546	3583	3546	3546	3546	3510	3510	3546	3546	3546	3546	3546	3546	3546	3546	3546	3546	3546	3546	3546	3546	3546	3546	3583	3546	3546	3621	3621	3621	3621	3583	3621	3621	3583	3583	3583	3583	3583	3583	3583	3583	3546	3546	3546	3583	3583	3583	3583	3583	3621	3583	3583	3583	3583	3583	3583	3583	3583	3583	3583	3583	3583	3546	3546	3546	3546	3546	3546	3546	3546	3546	3546	3546	3546	3546	3546	3546	3510	3546	3546	3546	3546	3546	3510	3546	3546	3510	3510	3510	3546	3546	3546	3546	3546	3546	3583	3583	3583	3583	3583	3583	3583	3546	3546	3546	3546	3546	3546	3546	3546	3546	3546	3546	3546	3546	3546	3546	3546	3546	3546	3546	3546	3546	3510	3510	3510	3475	3475	3440	3440	0	0	0	2223	2223	2208	2194	2181	2153	2140	2140	2114	2114	2114	2101	2088	2076	2063	2039	2039	2027	2027	2015	2003	2003	1992	1980	1969	1969	1958	1958	1936	1925	1915	1904	1904	1904	1894	1883	1873	1863	1843	1833	1824	1824	1814	1804	1795	1795	1786	1777	1768	1759	1759	1750	1750	1741	1732	1723	1723	1706	1698	1690	1690	1681	1681	1665	1665	1657	1634	1626	1626	1618	1618	1611	1603	1596	1596	1589	1581	1567	1560	1560	1560	1560	1553	1546	1546	1539	1525	1519	1512	1506	1506	1499	1492	1486	1486	1480	1480	1467	1461	1449	1449	1449	1443	1443	1443	1443	1443	1449	1455	1461	1461	1467	1467	1473	1473	0	0	0	0	0	0	0	0	0	0	0	0	0	0	0	0	0	0	0	0	0	0	0	0	0	0	0	0	0	0	0	0	0	0	0	0	0	0	0
0	0	0	0	0	0	0	0	0	0	0	0	1473	1480	1486	1486	1499	1499	1506	1506	1519	1525	1532	1532	1539	1546	1553	1553	1560	1567	1567	1574	1581	1581	1589	1589	1589	1596	1596	1603	1618	1634	1641	1649	1649	1657	1657	1665	1673	1673	1690	1698	1706	1715	1715	1715	1723	1732	1741	1759	1768	1777	1786	1786	1795	1795	1804	1814	1824	1833	1833	1843	1843	1853	1853	1863	1873	1883	1883	1894	1904	1915	1925	1947	1947	1958	1969	1980	2003	2015	2027	2027	2051	2051	2051	2063	2063	2076	2088	2088	2101	2114	2114	2127	2153	2153	2167	2167	2181	2181	2181	2194	2208	2208	2208	2223	2223	2252	2252	2443	2426	2426	2460	2478	2478	2478	2478	2478	2478	2496	2478	2478	2496	2496	2496	2496	2496	2496	0	3510	3510	3510	3510	3510	3510	3510	3510	3510	3510	3475	3475	3475	3475	3475	3475	3475	3510	3510	3475	3510	3475	3475	3475	3475	3475	3475	3475	3475	3475	3475	3475	3475	3475	3475	3475	3475	3475	3475	3440	3440	3440	3475	3475	3475	3475	3475	3475	3510	3510	3546	3546	3546	3546	3546	3546	3546	3546	3546	3546	3546	3546	3546	3546	3583	3583	3583	3621	3621	3621	3583	3583	3583	3583	3546	3546	3583	3583	3583	3546	3546	3546	3546	3546	3546	3546	3546	3546	3546	3546	3546	3546	3546	3546	3546	3546	3546	3546	3546	3546	3546	3546	3546	3546	3546	3546	3546	3546	3546	3546	3546	3546	3546	3546	3583	3046	3073	3073	3073	3046	3046	3046	3073	3046	3073	3073	3073	3073	3073	3046	3046	3046	3046	3046	3046	3019	3019	3046	3019	3019	3046	3046	3046	3046	3046	3046	3046	3046	3019	3046	3046	3046	3046	3046	3046	3046	3046	3046	3019	3019	3019	3019	3019	3019	3046	3019	3046	3046	3046	3046	3046	3046	3046	3046	3073	3073	3101	3073	3073	3073	3073	3073	3073	3073	3073	3073	3073	3073	3073	3073	3621	3621	3621	3583	3583	3583	3583	3583	3583	3583	3583	3583	3583	3583	3546	3546	3546	3546	3546	3546	3546	3583	3583	3583	3546	3583	3546	3546	3546	3510	3510	3510	3510	3510	3546	3546	3546	3546	3546	3546	3546	3583	3583	3546	3546	3583	3583	3583	3583	3583	3621	3621	3621	3583	3583	3583	3583	3583	3583	3583	3583	3583	3583	3583	3583	3583	3583	3583	3583	3583	3583	3583	3583	3583	3583	3583	3583	3583	3583	3583	3583	3583	3583	3583	3546	3546	3546	3546	3546	3546	3546	3546	3546	3546	3546	3510	3510	3546	3510	3546	3546	3546	3546	3546	3583	3546	3546	3510	3546	3546	3510	3510	3510	3546	3546	3546	3546	3583	3583	3583	3583	3583	3583	3583	3583	3546	3583	3546	3546	3546	3546	3546	3546	3546	3546	3546	3546	3546	3546	3546	3546	3546	3546	3546	3546	3546	3546	3510	3510	3510	3510	3475	3475	3475	0	0	2223	2223	2208	2208	2194	2181	2153	2140	2140	2127	2114	2114	2101	2088	2076	2063	2051	2039	2027	2039	2015	2003	2003	1992	1980	1969	1969	1958	1958	1936	1925	1915	1904	1904	1904	1894	1883	1873	1863	1843	1843	1833	1824	1814	1804	1795	1795	1786	1777	1768	1759	1759	1750	1750	1741	1741	1732	1723	1706	1698	1690	1690	1681	1681	1665	1657	1657	1649	1626	1626	1618	1618	1611	1603	1596	1596	1589	1581	1567	1560	1560	1560	1553	1553	1546	1546	1539	1532	1525	1519	1506	1499	1499	1492	1486	1486	1480	1480	1467	1461	1449	1443	1443	1443	1443	1443	1443	1443	1449	1461	1461	1461	1467	1473	1480	1480	0	0	0	0	0	0	0	0	0	0	0	0	0	0	0	0	0	0	0	0	0	0	0	0	0	0	0	0	0	0	0	0	0	0	0	0	0	0	0
0	0	0	0	0	0	0	0	0	0	0	0	1473	1480	1486	1486	1499	1506	1506	1512	1519	1525	1532	1532	1539	1546	1546	1553	1560	1567	1567	1574	1581	1581	1589	1589	1589	1596	1596	1611	1611	1634	1641	1649	1657	1657	1657	1657	1665	1673	1690	1698	1706	1715	1715	1715	1723	1732	1741	1750	1768	1786	1786	1795	1795	1795	1804	1814	1814	1824	1833	1833	1843	1843	1853	1873	1873	1883	1883	1894	1904	1915	1925	1936	1936	1958	1958	1980	2003	2003	2027	2027	2051	2039	2051	2051	2063	2076	2076	2088	2101	2114	2114	2127	2140	2153	2153	2194	2208	2194	2208	2208	2208	2223	2223	2223	2252	2252	2312	2359	2359	2359	2443	2460	2460	2478	2478	2478	2496	2478	2478	2478	2496	2478	2496	2496	2496	2496	0	3583	3583	3546	3510	3510	3510	3510	3510	3510	3510	3475	3475	3475	3475	3475	3475	3475	3510	3510	3475	3475	3475	3475	3475	3475	3475	3475	3475	3440	3440	3475	3475	3475	3475	3475	3475	3475	3475	3475	3440	3440	3475	3475	3475	3475	3475	3475	3475	3510	3510	3546	3546	3546	3546	3546	3546	3546	3546	3546	3546	3546	3546	3583	3583	3583	3583	3583	3621	3621	3621	3583	3583	3583	3583	3546	3546	3546	3583	3546	3546	3546	3546	3546	3546	3546	3546	3546	3546	3546	3546	3546	3546	3546	3546	3546	3546	3546	3546	3546	3546	3583	3546	3546	3546	3546	3546	3546	3546	3546	3546	3546	3546	3546	3546	3583	3046	3073	3073	3073	3073	3046	3046	3046	3046	3046	3073	3073	3073	3073	3046	3046	3046	3046	3046	3046	3046	3046	3019	3046	3019	3019	3019	3019	3019	3046	3046	3046	3046	3046	3046	3019	3019	3019	2993	2993	3046	3019	3019	3019	3019	3019	3019	3019	3019	3019	3019	3019	3019	3046	3046	3046	3046	3046	3046	3046	3046	3073	3073	3073	3073	3073	3073	3073	3073	3073	3073	3073	3073	3073	3073	3621	3621	3621	3583	3583	3583	3583	3583	3583	3583	3583	3583	3583	3583	3583	3546	3546	3546	3546	3546	3546	3583	3583	3583	3583	3583	3546	3546	3546	3510	3510	3510	3510	3510	3510	3510	3546	3510	3546	3546	3546	3546	3583	3546	3546	3583	3583	3583	3583	3583	3583	3621	3621	3583	3583	3583	3583	3583	3583	3583	3583	3583	3621	3583	3583	3583	3583	3583	3583	3583	3583	3583	3583	3583	3583	3583	3583	3583	3583	3583	3583	3583	3583	3546	3546	3546	3546	3546	3546	3546	3546	3510	3510	3510	3546	3510	3510	3546	3510	3546	3546	3546	3546	3546	3546	3546	3546	3510	3510	3510	3510	3510	3510	3546	3583	3583	3583	3583	3583	3583	3583	3583	3546	3546	3583	3546	3546	3546	3546	3546	3546	3546	3510	3510	3510	3510	3510	3546	3546	3546	3546	3546	3546	3546	3546	3546	3546	3546	3510	3510	3510	3510	3475	3475	3475	0	2223	2223	2208	2208	2194	2181	2167	2153	2140	2127	2114	2114	2101	2088	2076	2063	2051	2039	2027	2039	2015	2003	2003	1992	1992	1980	1969	1958	1947	1936	1915	1915	1904	1904	1904	1894	1883	1873	1853	1843	1833	1833	1824	1814	1814	1804	1795	1795	1777	1768	1759	1759	1750	1750	1741	1741	1732	1723	1706	1698	1690	1690	1681	1681	1665	1657	1649	1649	1626	1626	1618	1618	1611	1603	1596	1596	1589	1581	1567	1560	1560	1560	1553	1553	1546	1546	1539	1532	1525	1519	1506	1506	1499	1492	1486	1486	1486	1480	1473	1461	1449	1443	1443	1443	1443	1443	1443	1443	1455	1461	1461	1461	1467	1473	1480	1480	0	0	0	0	0	0	0	0	0	0	0	0	0	0	0	0	0	0	0	0	0	0	0	0	0	0	0	0	0	0	0	0	0	0	0	0	0	0	0
0	0	0	0	0	0	0	0	0	0	0	0	1473	1473	1486	1486	1492	1499	1506	1512	1525	1532	1532	1539	1539	1546	1553	1553	1560	1567	1567	1574	1574	1581	1589	1589	1596	1596	1603	1618	1626	1634	1641	1649	1657	1657	1657	1657	1665	1681	1690	1690	1706	1706	1715	1706	1723	1732	1741	1759	1777	1786	1795	1795	1795	1795	1804	1804	1814	1824	1833	1833	1843	1853	1853	1873	1873	1883	1894	1894	1904	1915	1925	1936	1947	1958	1969	1980	2003	2003	2015	2015	2051	2039	2051	2051	2063	2063	2076	2101	2101	2114	2114	2127	2127	2153	2167	2194	2208	2208	2208	2208	2208	2223	2223	2237	2266	2281	2312	2327	2343	2343	2376	2426	2426	2443	2478	2478	2478	2478	2478	2478	2478	2478	2478	2496	2514	2514	2514	3546	3583	3546	3510	3510	3510	3510	3510	3510	3510	3510	3475	3510	3475	3475	3475	3475	3510	3510	3475	3475	3475	3475	3475	3475	3475	3475	3475	3475	3475	3475	3475	3475	3475	3440	3440	3440	3440	3440	3440	3440	3475	3475	3475	3475	3475	3475	3475	3510	3510	3546	3546	3546	3546	3546	3546	3546	3546	3546	3546	3546	3546	3546	3546	3583	3546	3546	3510	3583	3583	3546	3546	3546	3546	3546	3546	3546	3583	3546	3546	3546	3546	3546	3546	3546	3546	3546	3546	3546	3546	3546	3546	3546	3546	3546	3546	3546	3546	3546	3546	3546	3546	3546	3546	3546	3546	3546	3546	3546	3546	3546	3546	3546	3546	3583	3046	3073	3073	3073	3073	3046	3046	3046	3046	3046	3073	3073	3073	3073	3046	3046	3046	3046	3019	3019	3019	3019	3019	3019	3019	3019	3019	3019	3019	3019	3046	3046	3046	3019	3046	3019	3019	3019	3019	2993	3019	3019	3019	3019	3019	3019	3019	3019	3019	3019	3019	3019	3019	3046	3046	3046	3046	3046	3046	3046	3046	3073	3073	3073	3073	3073	3073	3073	3073	3073	3073	3073	3073	3073	3046	3046	3621	3621	3583	3583	3583	3546	3546	3583	3583	3583	3583	3583	3583	3583	3546	3546	3583	3546	3546	3546	3583	3583	3583	3583	3583	3583	3546	3546	3546	3510	3510	3510	3510	3510	3510	3510	3510	3546	3546	3510	3546	3546	3546	3546	3583	3583	3546	3546	3546	3583	3583	3583	3583	3583	3583	3583	3583	3583	3583	3583	3583	3583	3583	3583	3583	3583	3583	3583	3583	3583	3583	3583	3583	3583	3583	3583	3583	3583	3583	3583	3583	3583	3583	3546	3546	3546	3546	3546	3510	3510	3510	3546	3546	3546	3510	3510	3546	3546	3546	3546	3546	3546	3546	3546	3546	3546	3510	3510	3510	3510	3510	3510	3546	3546	3546	3546	3583	3583	3583	3583	3546	3546	3546	3546	3546	3546	3546	3546	3546	3546	3546	3546	3510	3510	3510	3510	3546	3546	3546	3546	3546	3546	3546	3546	3546	3546	3546	3546	3510	3510	3510	3510	3475	3475	0	0	2208	2208	2194	2194	2181	2167	2153	2140	2127	2114	2101	2088	2088	2076	2063	2051	2039	2039	2039	2027	2015	2003	1992	1992	1980	1969	1958	1958	1936	1915	1915	1904	1904	1904	1894	1883	1873	1853	1843	1833	1833	1824	1814	1814	1804	1795	1795	1786	1768	1759	1759	1750	1750	1741	1741	1732	1723	1706	1698	1690	1690	1681	1681	1673	1657	1649	1649	1626	1626	1626	1618	1611	1603	1596	1589	1589	1581	1574	1567	1560	1560	1553	1553	1546	1546	1539	1532	1525	1519	1512	1506	1499	1499	1492	1486	1486	1473	1467	1461	1449	1443	1449	1443	1443	1443	1443	1443	1455	1461	1461	1461	1467	1473	1473	1473	0	0	0	0	0	0	0	0	0	0	0	0	0	0	0	0	0	0	0	0	0	0	0	0	0	0	0	0	0	0	0	0	0	0	0	0	0	0	0
0	0	0	0	0	0	0	0	0	0	0	0	1467	1467	1480	1480	1492	1506	1512	1519	1532	1532	1532	1539	1539	1539	1546	1546	1553	1553	1567	1574	1581	1581	1589	1589	1596	1603	1611	1618	1626	1634	1641	1649	1657	1657	1657	1657	1665	1673	1681	1690	1706	1706	1706	1706	1723	1732	1741	1750	1777	1786	1795	1795	1795	1795	1804	1804	1814	1824	1833	1843	1853	1853	1863	1873	1883	1883	1894	1894	1904	1915	1915	1925	1936	1947	1958	1969	2003	2003	2003	2003	2003	2039	2039	2051	2063	2063	2076	2101	2101	2114	2114	2127	2127	2167	2181	2208	2208	2208	2208	2208	2208	2223	2237	2252	2266	2281	2297	2297	2312	2312	2327	2359	2409	2409	2443	2478	2478	2478	2478	2478	2478	2478	2478	2496	2496	2514	2514	3510	3546	3583	3546	3546	3510	3510	3510	3510	3475	3475	3475	3475	3475	3475	3475	3475	3475	3475	3475	3475	3475	3475	3475	3475	3475	3475	3475	3475	3475	3510	3510	3510	3510	3475	3475	3440	3475	3440	3440	3440	3440	3475	3475	3475	3475	3475	3475	3510	3510	3546	3546	3546	3546	3546	3546	3546	3546	3546	3546	3546	3546	3546	3546	3546	3546	3546	3546	3546	3583	3546	3546	3546	3546	3546	3546	3546	3546	3546	3546	3546	3546	3546	3546	3546	3546	3546	3546	3546	3546	3546	3546	3546	3546	3546	3546	3546	3546	3546	3546	3546	3546	3546	3546	3546	3546	3546	3546	3546	3546	3546	3546	3546	3546	3583	3046	3073	3073	3073	3046	3046	3046	3046	3046	3046	3046	3046	3073	3046	3046	3046	3046	3046	3019	3019	3019	3019	3019	3019	3019	3019	3019	3019	3019	3019	3046	3046	3046	3046	3046	3019	3046	3019	3019	2993	3019	3019	3019	3019	3019	3019	3019	3019	3019	3019	3019	3019	3019	3046	3046	3046	3046	3046	3046	3046	3046	3073	3073	3073	3073	3073	3073	3073	3073	3046	3046	3046	3046	3046	3019	3621	3621	3583	3583	3583	3583	3546	3546	3583	3583	3546	3583	3583	3583	3546	3546	3546	3546	3546	3546	3546	3583	3583	3583	3583	3583	3583	3546	3546	3546	3510	3510	3510	3510	3510	3510	3510	3510	3546	3510	3510	3546	3546	3546	3546	3546	3546	3546	3546	3546	3546	3583	3583	3583	3583	3583	3583	3583	3583	3583	3583	3583	3583	3583	3583	3583	3583	3583	3583	3583	3583	3546	3546	3546	3546	3546	3583	3546	3546	3583	3583	3583	3583	3583	3546	3546	3546	3546	3546	3510	3510	3546	3546	3546	3546	3510	3510	3546	3510	3546	3546	3546	3546	3546	3546	3546	3546	3546	3510	3510	3510	3510	3510	3546	3546	3546	3546	3546	3546	3546	3583	3546	3546	3546	3546	3546	3546	3546	3546	3546	3546	3546	3546	3546	3546	3546	3546	3546	3546	3546	3546	3546	3546	3546	3546	3546	3546	3546	3546	3546	3510	3510	3510	3510	3510	0	0	2208	2194	2194	2194	2181	2167	2153	2140	2140	2114	2114	2101	2088	2076	2063	2051	2039	2039	2039	2027	2015	2003	2003	1992	1992	1980	1969	1958	1936	1915	1915	1904	1904	1894	1894	1883	1873	1853	1843	1833	1833	1824	1814	1814	1804	1795	1795	1795	1768	1768	1759	1750	1741	1732	1732	1732	1723	1715	1698	1690	1690	1681	1681	1673	1657	1649	1649	1634	1634	1626	1618	1611	1603	1596	1589	1589	1581	1574	1567	1560	1560	1560	1553	1546	1546	1539	1532	1525	1519	1512	1506	1499	1492	1492	1486	1486	1473	1467	1461	1449	1443	1449	1443	1443	1443	1443	1443	1449	1461	1467	1467	1467	1467	1473	1473	0	0	0	0	0	0	0	0	0	0	0	0	0	0	0	0	0	0	0	0	0	0	0	0	0	0	0	0	0	0	0	0	0	0	0	0	0	0	0
0	0	0	0	0	0	0	0	0	0	0	0	1461	1461	1473	1480	1506	1506	1519	1525	1525	1532	1532	1532	1532	1539	1539	1539	1546	1567	1574	1581	1581	1589	1589	1596	1603	1603	1618	1618	1626	1626	1634	1649	1649	1649	1657	1657	1665	1665	1673	1690	1706	1706	1706	1706	1723	1723	1759	1768	1777	1777	1795	1795	1795	1795	1804	1804	1814	1814	1833	1843	1853	1853	1863	1873	1873	1883	1894	1894	1904	1904	1925	1936	1947	1947	1958	1969	1969	1992	2003	2003	2039	2039	2051	2051	2063	2063	2076	2088	2088	2101	2114	2127	2127	2167	2181	2181	2208	2208	2208	2208	2223	2237	2237	2252	2281	2281	2297	2297	2312	2297	2312	2343	2376	2376	2426	2478	2478	2460	2460	2460	2478	2478	2478	2478	2496	2496	3475	3475	3546	3546	3546	3546	3510	3510	3510	3510	3475	3475	3475	3475	3475	3475	3475	3510	3510	3510	3510	3475	3475	3475	3475	3475	3475	3475	3475	3475	3475	3510	3475	3510	3510	3475	3475	3440	3475	3440	3440	3440	3440	3440	3475	3475	3475	3475	3510	3510	3510	3546	3546	3546	3546	3546	3546	3546	3546	3546	3546	3546	3510	3546	3546	3546	3546	3546	3546	3546	3546	3546	3546	3546	3546	3546	3546	3546	3546	3546	3546	3546	3546	3546	3546	3546	3546	3546	3546	3546	3546	3546	3546	3546	3546	3546	3546	3546	3546	3546	3546	3546	3546	3546	3546	3546	3546	3546	3546	3546	3546	3546	3546	3546	3546	3583	3073	3073	3073	3046	3046	3046	3046	3046	3046	3046	3046	3046	3046	3046	3046	3046	3046	3046	3019	3046	3019	3019	3019	3019	3019	3019	3019	3019	3046	3046	3046	3046	3046	3046	3046	3046	3046	3019	3019	3019	3019	3019	3019	3019	3019	3046	3019	3019	3019	3019	2993	3019	3019	3019	3046	3046	3046	3046	3046	3046	3046	3073	3073	3073	3073	3073	3073	3046	3046	3046	3046	3046	3046	3019	3019	3621	3583	3583	3583	3583	3583	3546	3546	3546	3546	3546	3546	3546	3583	3546	3546	3546	3583	3546	3583	3583	3583	3583	3583	3583	3583	3583	3583	3546	3546	3546	3546	3510	3510	3546	3510	3546	3546	3546	3546	3546	3546	3546	3546	3546	3546	3546	3546	3546	3546	3583	3583	3583	3583	3583	3583	3583	3583	3583	3583	3583	3583	3583	3583	3583	3583	3583	3583	3583	3583	3583	3583	3583	3583	3546	3583	3583	3546	3546	3583	3583	3583	3583	3583	3546	3546	3546	3546	3546	3510	3510	3546	3546	3546	3546	3546	3546	3546	3546	3546	3546	3546	3546	3546	3546	3546	3546	3546	3510	3510	3510	3510	3510	3546	3546	3546	3546	3546	3546	3546	3546	3546	3546	3546	3546	3546	3546	3546	3546	3546	3546	3546	3546	3546	3510	3546	3546	3546	3546	3546	3546	3546	3546	3546	3546	3546	3546	3546	3546	3546	3546	3546	3510	3510	3510	0	0	2194	2194	2194	2181	2181	2167	2153	2140	2127	2114	2101	2088	2088	2076	2063	2051	2051	2039	2039	2027	2015	2003	2003	1992	1992	1980	1969	1958	1947	1925	1915	1904	1904	1904	1894	1883	1873	1863	1843	1833	1833	1824	1814	1814	1804	1795	1795	1795	1759	1759	1759	1750	1741	1732	1732	1732	1723	1715	1698	1690	1690	1681	1681	1673	1657	1649	1649	1634	1634	1626	1618	1611	1603	1596	1589	1589	1581	1574	1567	1560	1560	1560	1553	1553	1546	1539	1532	1525	1519	1506	1499	1499	1492	1492	1486	1480	1467	1467	1461	1449	1443	1449	1443	1443	1443	1443	1443	1455	1461	1461	1461	1461	1467	1473	1473	0	0	0	0	0	0	0	0	0	0	0	0	0	0	0	0	0	0	0	0	0	0	0	0	0	0	0	0	0	0	0	0	0	0	0	0	0	0	0
