0	0	0	0	0	0	0	0	0	0	0	0	0	0	0	0	0	0	0	0	0	0	0	0	0	0	0	0	0	0	0	0	0	0	0	0	0	0	0	0	0	0	0	0	0	0	0	0	0	0	0	0	0	0	0	0	0	0	0	0	0	0	0	0	0	0	0	0	0	0	0	0	0	0	0	0	0	0	0	0	0	0	0	0	0	4463	4406	4463	4463	4406	4350	4350	4350	4350	4350	4350	4406	4406	4406	4406	4350	4350	4350	4350	4350	4350	4350	4350	4350	4350	4406	4463	4463	4463	4521	4521	4521	4521	4521	4521	4521	4581	4581	4581	4977	4977	5050	5050	5125	5125	5125	5125	5125	5125	5125	5125	5125	5125	5125	5125	5202	5202	5202	5202	5202	5125	5125	5125	5125	5125	5125	5125	5125	5202	5202	5125	5202	5202	5202	5448	5448	5448	5535	5535	5535	5535	5626	5626	5626	0	0	0	0	6349	6349	6235	6235	6124	6124	6235	6235	6235	6235	6235	6235	6124	6124	6124	6235	6349	6349	6235	6468	6349	6349	6235	6235	6235	6235	6235	6235	6235	6235	6235	0	0	0	0	0	0	6720	6720	6720	6720	6720	6720	6720	6720	6720	6853	6853	6853	6853	6853	6853	6853	6853	6720	6720	6720	6720	6720	6720	6720	6720	6720	6853	6853	6853	6853	6853	6853	6853	6853	6853	6853	6720	6720	6720	6720	6720	6720	6720	6720	6992	6992	6992	6992	6992	6992	6992	0	0	0	3659	3621	3621	3621	3621	3621	3583	3583	3583	3583	3583	3583	3583	3583	3583	3583	3583	3583	3546	3546	3546	3546	3546	3546	3546	3546	3546	3546	3546	3546	3546	3546	3546	3510	3510	3546	3546	3546	3510	3546	3510	3510	3510	3546	3546	3546	3546	3546	3546	3546	3546	3583	3583	3583	3583	3583	3621	3621	3621	3621	3659	3659	3698	3698	3738	3738	3738	0	7137	7137	7137	7137	7137	7137	7137	7137	7137	7137	7137	7137	6992	7137	7137	7137	7137	7137	7137	7137	6992	7137	7137	7137	7137	7137	7137	7137	7137	7137	7137	0	0	0	6853	6853	6992	6992	7137	7137	7137	6992	7137	7137	7137	7137	7137	7287	7287	7287	7287	7287	7287	7287	7287	7287	7287	7287	7287	7287	7287	7287	7444	7444	8767	8995	8995	8995	9235	9489	8995	8995	8995	9235	8995	8995	8995	8995	8995	8995	8995	8995	8995	8995	8995	8995	8995	8995	8995	8995	8995	8995	8995	8995	8995	8995	8995	8995	8995	8995	8995	8995	8995	8995	8767	8767	8995	8995	8995	8995	9235	9235	9235	8995	8995	8995	8995	9235	8995	8995	8995	0	0	0	0	0	0	0	0	4643	4643	4643	4643	4581	4581	4521	4463	4463	4463	4406	4406	4350	4350	4296	4243	4243	4192	4192	4093	4142	4093	4093	4093	4093	4093	4045	3998	3998	3998	3998	3952	3907	3864	3864	3864	3864	3821	3779	3779	3738	3779	3779	3779	3738	3738	3738	3738	3698	3698	2733	2733	2733	2754	2754	2733	2733	2711	2711	2690	2690	2690	2690	2669	2690	2669	2690	2690	2690	2690	2690	2690	2690	2669	2669	2669	2669	2649	2649	2629	2629	2629	2629	2649	2649	2669	2669	2669	2669	2669	2669	2669	2669	2649	2629	2629	2629	2609	2609	2609	2609	2609	2609	2629	2629	2629	2629	2629	2609	2609	2609	2609	2629	2609	2609	2609	2609	2609	2609	2609	2629	2629	2669	2690	2711	2711	2711	2711	2690	2690	2649	2669	2649	2629	2629	2609	2589	2589	2570	2551	2551	2551	2551	0	0	0	0	0	0	0	0	0	0	0	0	0	0	0	0	0	0	0	0	0	0	0	0	0	0	0	0	0	0	0	0	0	0	0	0
0	0	0	0	0	0	0	0	0	0	0	0	0	0	0	0	0	0	0	0	0	0	0	0	0	0	0	0	0	0	0	0	0	0	0	0	0	0	0	0	0	0	0	0	0	0	0	0	0	0	0	0	0	0	0	0	0	0	0	0	0	0	0	0	0	0	0	0	0	0	0	0	0	0	0	0	0	0	0	0	0	0	0	0	0	0	4406	4463	4463	4406	4406	4350	4406	4406	4406	4406	4463	4463	4463	4406	4350	4350	4350	4350	4350	4350	4350	4350	4350	4406	4463	4463	4463	4521	4521	4521	4521	4521	4521	4521	4521	4521	4581	4581	4977	4977	4977	4977	5125	5125	5125	5125	5125	5125	5125	5125	5125	5125	5125	5125	5202	5202	5202	5125	5125	5125	5125	5125	5125	5050	5125	5125	5125	5202	5202	5202	5202	5448	5448	5448	5448	5448	5448	5535	5535	5535	5535	5626	5626	0	0	0	0	6124	6124	6124	6124	6124	6124	6235	6235	6235	6235	6235	6235	6235	6235	6235	6124	6235	6349	6235	6349	6349	6235	6235	6235	6124	6124	6235	6124	6235	6235	6235	0	0	0	0	0	0	0	6720	6720	6720	6720	6720	6720	6720	6853	6853	6853	6853	6853	6853	6853	6853	6853	6720	6720	6992	6853	6853	6853	6853	6853	6853	6853	6853	6853	6853	6853	6853	6853	6853	6853	6853	6853	6853	6720	6720	6720	6720	6720	6720	6853	6992	6992	6992	6992	6992	6992	0	0	0	3659	3621	3621	3621	3583	3621	3583	3583	3583	3583	3546	3583	3583	3583	3583	3546	3546	3546	3546	3546	3546	3546	3510	3546	3546	3510	3546	3546	3546	3546	3546	3510	3510	3546	3546	3546	3546	3546	3546	3546	3546	3510	3510	3546	3546	3546	3546	3546	3546	3546	3546	3583	3583	3583	3583	3583	3621	3621	3621	3621	3621	3659	3698	3698	3738	3779	3779	0	6992	6992	6992	6992	6992	7137	7137	7137	7137	7137	7137	6992	6992	6992	6992	6992	7137	7137	7137	7137	7137	7137	7137	7137	6992	7137	6992	7137	7137	7137	0	0	0	0	6992	6992	6992	6992	7137	7137	7137	6992	7137	7137	7137	6992	6992	7287	7287	7287	7137	7137	7287	7287	7137	7137	7137	7287	7287	7137	7287	7287	7287	7287	7287	8995	8995	8995	9235	9235	9235	9235	9235	8995	8995	8995	8995	8995	8995	8995	8995	8995	8995	8995	8995	8995	8995	8995	8995	8995	8995	8995	8995	8995	8995	8995	8995	8995	8995	8995	8995	8995	8995	8995	8767	8767	8767	8995	8995	8995	9235	9235	9235	8995	8995	8995	8995	8995	8995	8995	8995	0	0	0	0	0	0	4643	4643	4643	4643	4643	4643	4581	4581	4521	4521	4463	4463	4406	4406	4350	4350	4296	4296	4296	4192	4142	4093	4093	4093	4093	4093	4093	4093	4045	4045	3998	3998	3998	3952	3952	3907	3907	3864	3864	3821	3779	3779	3738	3779	3738	3738	3738	3698	3698	3698	3659	3659	2733	2733	2733	2754	2733	2733	2733	2711	2711	2690	2690	2690	2690	2669	2690	2690	2690	2690	2690	2690	2669	2669	2690	2669	2669	2669	2669	2649	2649	2629	2629	2629	2629	2649	2669	2669	2669	2669	2669	2669	2669	2669	2669	2649	2629	2629	2629	2609	2609	2609	2609	2609	2609	2629	2609	2609	2609	2609	2609	2609	2609	2609	2609	2609	2609	2609	2609	2609	2609	2609	2629	2649	2669	2690	2711	2711	2711	2711	2690	2690	2669	2669	2649	2629	2629	2609	2589	2589	2589	2570	2551	2551	2551	0	0	0	0	0	0	0	0	0	0	0	0	0	0	0	0	0	0	0	0	0	0	0	0	0	0	0	0	0	0	0	0	0	0	0	0
0	0	0	0	0	0	0	0	0	0	0	0	0	0	0	0	0	0	0	0	0	0	0	0	0	0	0	0	0	0	0	0	0	0	0	0	0	0	0	0	0	0	0	0	0	0	0	0	0	0	0	0	0	0	0	0	0	0	0	0	0	0	0	0	0	0	0	0	0	0	0	0	0	0	0	0	0	0	0	0	0	0	0	0	0	0	4406	4463	4463	4406	4406	4350	4350	4350	4350	4350	4350	4406	4406	4406	4350	4350	4350	4350	4350	4350	4350	4350	4350	4406	4463	4463	4463	4521	4521	4521	4521	4521	4521	4521	4581	4521	4581	4581	4581	4977	4977	5050	5125	5202	5125	5125	5125	5125	5125	5125	5125	5125	5125	5125	5202	5202	5125	5125	5125	5125	5125	5125	5125	5125	5125	5125	5125	5125	5125	5125	5125	5125	5448	5448	5448	5448	5448	5448	5535	5535	5535	5535	5535	0	0	0	0	6124	5915	5915	6018	6018	6018	6124	6235	6235	6235	6235	6235	6124	6124	6124	6235	6235	6235	6235	6349	6349	6349	6235	6235	6124	6124	6124	6018	6018	6235	6235	0	0	0	0	0	0	0	6720	6720	6592	6720	6720	6720	6720	6853	6853	6853	6853	6853	6853	6853	6853	6853	6720	6720	6992	6853	6853	6853	6853	6720	6720	6853	6853	6853	6853	6853	6992	6853	6992	6853	6853	6853	6853	6853	6720	6853	6720	6720	6720	6853	6853	6992	6992	6992	6992	6992	0	0	0	3659	3621	3621	3621	3583	3583	3583	3583	3583	3583	3546	3583	3583	3583	3583	3546	3546	3546	3546	3546	3546	3546	3546	3546	3546	3510	3546	3546	3546	3546	3546	3510	3546	3546	3546	3546	3546	3546	3546	3546	3546	3546	3546	3546	3546	3546	3546	3546	3546	3546	3546	3583	3583	3583	3583	3583	3621	3621	3621	3621	3621	3659	3698	3698	3779	3779	3779	0	6992	6992	6992	6992	6992	7137	7137	7137	7137	6992	7137	6992	6992	6853	6853	6853	7137	7137	7137	7137	7137	7137	7137	6992	6992	6992	6992	6992	6992	7137	0	0	0	0	6992	6992	6992	7137	7137	7137	7137	6992	7137	7137	7137	7137	7137	7287	7287	7137	7137	7137	7137	7137	7137	7287	7287	7287	7287	7287	7287	7287	7444	7444	8550	8767	8767	9235	8995	9235	9235	9235	9235	9235	8995	8995	8995	8995	8995	8995	8995	8995	8995	8995	8995	8995	8995	8995	8995	9235	8995	8995	8995	8995	8995	8995	8995	8995	8995	8995	8995	8995	8995	8767	8767	8767	8767	8995	8995	8995	8995	9235	9235	8995	8995	8995	8995	8995	8995	8995	8995	0	0	0	0	0	4643	4643	4643	4643	4643	4643	4581	4521	4521	4521	4521	4463	4463	4406	4406	4350	4296	4296	4243	4243	4192	4142	4093	4093	4093	4093	4093	4093	4093	4093	4045	4045	3998	3998	3952	3952	3907	3907	3864	3821	3821	3779	3779	3738	3779	3738	3779	3738	3698	3698	3698	2733	2733	2754	2754	2754	2733	2733	2733	2733	2711	2690	2690	2690	2690	2690	2669	2690	2669	2690	2690	2690	2690	2690	2690	2690	2669	2669	2669	2669	2649	2649	2629	2649	2629	2649	2649	2669	2669	2669	2669	2669	2669	2669	2669	2669	2649	2649	2629	2609	2609	2609	2609	2589	2609	2609	2609	2629	2629	2609	2609	2609	2609	2609	2629	2609	2609	2609	2609	2609	2609	2609	2609	2629	2649	2669	2690	2733	2711	2711	2711	2690	2690	2669	2669	2649	2629	2629	2609	2589	2589	2570	2570	2551	2551	2551	0	0	0	0	0	0	0	0	0	0	0	0	0	0	0	0	0	0	0	0	0	0	0	0	0	0	0	0	0	0	0	0	0	0	0	0
0	0	0	0	0	0	0	0	0	0	0	0	0	0	0	0	0	0	0	0	0	0	0	0	0	0	0	0	0	0	0	0	0	0	0	0	0	0	0	0	0	0	0	0	0	0	0	0	0	0	0	0	0	0	0	0	0	0	0	0	0	0	0	0	0	0	0	0	0	0	0	0	0	0	0	0	0	0	0	0	0	0	0	0	0	0	4350	4406	4406	4406	4406	4350	4350	4350	4350	4350	4350	4350	4350	4350	4350	4350	4350	4350	4350	4350	4350	4350	4350	4350	4406	4406	4463	4521	4521	4521	4521	4521	4521	4521	4521	4521	4521	4521	4977	5050	5050	5050	5202	5202	5202	5125	5125	5125	5125	5125	5125	5125	5125	5125	5125	5125	5125	5125	5125	5125	5125	5125	5125	5125	5125	5125	5050	5125	5125	5125	5125	5050	5202	5448	5364	5364	5448	5448	5535	5535	5535	5535	5535	0	0	0	6018	6018	5915	5915	6018	6018	6018	6124	6235	6235	6235	6235	6235	6124	6124	6124	6124	6124	6235	6235	6349	6349	6349	6349	6235	6124	6124	6124	6018	6018	6349	6349	0	0	0	0	0	0	0	6592	6720	6592	6720	6720	6720	6720	6720	6853	6853	6853	6853	6853	6853	6720	6720	6720	6720	6720	6720	6853	6853	6720	6720	6853	6853	6853	6853	6992	6992	6992	6992	6992	6992	6853	6853	6853	6853	6853	6853	6853	6720	6720	6853	6853	6992	6992	6992	6992	6992	0	0	0	3659	3621	3621	3621	3583	3583	3583	3583	3583	3583	3546	3583	3583	3583	3583	3546	3583	3583	3546	3546	3546	3546	3546	3546	3546	3546	3546	3546	3546	3546	3546	3510	3546	3546	3546	3546	3546	3546	3546	3546	3546	3546	3546	3546	3546	3546	3546	3546	3546	3546	3546	3583	3583	3583	3583	3583	3621	3621	3621	3621	3621	3659	3698	3698	3738	3821	3821	3821	6992	6992	6992	6992	6992	7137	7137	7137	7137	6992	6992	6853	6853	6853	6853	6853	7137	7137	7137	7137	7137	7137	6992	6992	6992	6992	6992	6992	6992	0	0	0	0	0	6992	7137	7137	7137	7137	7137	7137	6992	7137	7137	7137	7137	7137	7137	7287	7137	7137	7137	7137	7137	7137	7137	7287	7287	7137	7137	7287	7287	7444	7444	8550	8767	8995	8995	8995	8995	8995	9235	9235	8995	9235	8995	8995	8995	8995	8995	8995	8995	8767	8995	8995	8995	8995	8995	8995	9235	9235	8995	8995	8995	8995	8995	8995	8995	8995	8995	8995	8767	8767	8767	8767	8767	8767	8995	8995	8995	9235	9235	9235	9235	9235	8995	0	0	0	0	0	0	0	0	0	0	4643	4643	4643	4643	4643	4581	4581	4521	4521	4521	4463	4463	4463	4406	4406	4350	4296	4296	4243	4243	4192	4142	4142	4093	4093	4093	4093	4093	4093	4045	4045	4045	3998	3998	3952	3952	3907	3864	3864	3821	3821	3779	3738	3738	3779	3779	3779	3738	3698	3698	3698	2733	2733	2754	2733	2754	2733	2733	2733	2711	2711	2690	2690	2690	2669	2669	2669	2669	2669	2690	2690	2669	2690	2669	2690	2669	2669	2669	2669	2669	2649	2649	2649	2649	2649	2649	2669	2669	2669	2669	2669	2669	2669	2669	2649	2669	2649	2649	2629	2629	2609	2609	2609	2609	2609	2609	2609	2629	2629	2609	2609	2609	2609	2629	2629	2629	2609	2609	2609	2609	2609	2609	2609	2629	2649	2690	2690	2690	2711	2711	2711	2690	2669	2669	2669	2649	2649	2629	2609	2609	2589	2589	2589	2570	2551	2551	0	0	0	0	0	0	0	0	0	0	0	0	0	0	0	0	0	0	0	0	0	0	0	0	0	0	0	0	0	0	0	0	0	0	0	0
0	0	0	0	0	0	0	0	0	0	0	0	0	0	0	0	0	0	0	0	0	0	0	0	0	0	0	0	0	0	0	0	0	0	0	0	0	0	0	0	0	0	0	0	0	0	0	0	0	0	0	0	0	0	0	0	0	0	0	0	0	0	0	0	0	0	0	0	0	0	0	0	0	0	0	0	0	0	0	0	0	0	0	0	0	0	4350	4350	4406	4350	4350	4350	4350	4350	4350	4350	4350	4350	4350	4350	4296	4350	4350	4350	4350	4350	4350	4350	4350	4350	4406	4406	4463	4463	4521	4521	4521	4521	4521	4581	4581	4521	4581	4581	4977	5050	5050	5050	5125	5125	5125	5125	5125	5125	5125	5125	5125	5125	5125	5125	5125	5125	5125	5125	5125	5125	5125	5125	5125	5125	5125	5050	5050	5050	5125	5050	5050	5050	5125	5125	5364	5448	5448	5448	5448	5535	5535	5535	5535	0	0	0	6018	5915	5915	5915	6018	6018	6124	6124	6235	6235	6235	6235	6235	6124	6124	6124	6124	6235	6235	6235	6349	6349	6349	6235	6235	6124	6124	6018	6018	5915	5915	6349	0	0	0	0	0	6853	6853	6853	6720	6720	6720	6720	6720	6720	6720	6853	6853	6853	6853	6853	6853	6853	6853	6720	6853	6992	6853	6853	6853	6853	6720	6853	6853	6853	6992	6992	6992	6992	6992	6992	6992	6992	6992	6853	6853	6853	6720	6720	6720	6720	6853	6853	6992	6853	6853	6853	0	0	0	0	3659	3621	3621	3621	3621	3621	3621	3583	3583	3583	3583	3583	3583	3583	3583	3546	3546	3546	3546	3546	3546	3546	3546	3546	3546	3546	3546	3546	3546	3546	3546	3546	3546	3546	3546	3546	3546	3546	3546	3546	3546	3546	3546	3546	3546	3546	3546	3546	3546	3546	3546	3583	3583	3583	3583	3583	3583	3621	3621	3621	3621	3659	3738	3738	3738	3738	3821	3821	0	6992	6992	6992	6992	6992	7137	7137	7137	6992	6992	6853	6853	6853	6853	6853	7137	7137	7287	7287	7137	7137	6992	6853	6853	6992	6992	6992	0	0	0	0	0	0	6992	7137	7137	7137	7137	7137	7137	7137	6992	7137	7137	6992	6992	7137	7137	7137	7137	7137	7137	7287	7137	7137	7137	7137	7287	7287	7287	7444	7608	7779	8550	8767	8995	8995	8995	8995	8995	8995	9235	8995	8995	8995	8995	8995	8995	8995	8995	8995	8995	8995	8995	9235	8995	8995	8995	8995	8995	8995	8995	8995	8995	8995	8995	8995	8995	8995	8995	8995	8767	8767	8767	8767	8995	8995	8995	8995	9235	9235	9235	9235	9235	0	0	0	0	0	0	0	0	0	0	0	4643	4643	4643	4581	4581	4581	4581	4521	4463	4463	4463	4463	4406	4406	4406	4350	4350	4350	4350	4296	4243	4192	4142	4093	4093	4093	4093	4093	4045	4045	4045	3998	3998	3998	3952	3952	3907	3864	3864	3821	3779	3738	3738	3738	3779	3779	3738	3738	3698	3698	3698	3659	2754	2754	2754	2754	2733	2733	2711	2711	2711	2690	2690	2690	2669	2669	2669	2669	2669	2669	2669	2669	2669	2669	2669	2669	2669	2669	2669	2669	2649	2649	2649	2649	2649	2669	2669	2669	2669	2669	2669	2669	2669	2669	2669	2669	2649	2649	2629	2629	2629	2609	2609	2609	2609	2609	2609	2609	2629	2629	2629	2629	2609	2609	2609	2609	2609	2609	2609	2609	2609	2609	2609	2609	2629	2690	2690	2690	2711	2711	2711	2690	2690	2669	2669	2649	2629	2629	2609	2609	2589	2570	2570	2551	2551	2551	0	0	0	0	0	0	0	0	0	0	0	0	0	0	0	0	0	0	0	0	0	0	0	0	0	0	0	0	0	0	0	0	0	0	0	0
0	0	0	0	0	0	0	0	0	0	0	0	0	0	0	0	0	0	0	0	0	0	0	0	0	0	0	0	0	0	0	0	0	0	0	0	0	0	0	0	0	0	0	0	0	0	0	0	0	0	0	0	0	0	0	0	0	0	0	0	0	0	0	0	0	0	0	0	0	0	0	0	0	0	0	0	0	0	0	0	0	0	0	0	0	0	4296	4350	4350	4350	4350	4350	4350	4350	4350	4350	4350	4350	4350	4296	4296	4296	4350	4296	4350	4350	4350	4350	4350	4350	4406	4406	4406	4463	4521	4521	4521	4521	4521	4581	4581	4581	4643	4643	4643	4977	5050	5050	5125	5202	5125	5125	5125	5125	5125	5125	5125	5125	5125	5125	5125	5125	5125	5125	5125	5125	5125	5125	5125	5125	5125	5050	5050	5050	5125	5125	5125	5125	5202	5282	5364	5448	5448	5448	5535	5535	5448	5448	5448	0	0	0	5815	5815	5815	5815	5915	6018	6124	6235	6235	6235	6235	6235	6235	6124	6124	6124	6235	6235	6235	6235	6349	6349	6349	6235	6235	6124	6124	6018	6018	5915	5915	0	0	0	0	0	6853	6853	6853	6853	6720	6720	6853	6720	6720	6720	6853	6853	6853	6992	6720	6853	6853	6853	6853	6853	6853	6853	6853	6853	6853	6853	6720	6853	6853	6853	6992	6992	6992	6992	6992	6992	6992	6853	6992	6853	6853	6853	6720	6720	6853	6853	6853	6992	6992	6853	6853	6853	0	0	0	0	3698	3659	3659	3621	3621	3621	3621	3583	3583	3583	3583	3583	3583	3546	3546	3546	3546	3546	3546	3546	3546	3546	3546	3546	3546	3546	3546	3546	3546	3546	3546	3546	3546	3546	3546	3546	3546	3546	3546	3546	3546	3546	3546	3546	3546	3546	3546	3546	3546	3546	3546	3583	3583	3583	3583	3583	3583	3583	3621	3621	3621	3698	3738	3738	3738	3738	3779	3779	0	0	0	6992	6992	6992	0	0	0	0	0	6853	6853	6720	6720	0	0	7287	7287	7287	7137	6992	6992	6853	6853	0	0	0	0	0	0	0	0	0	6992	7137	6992	7137	7137	7137	7137	7137	6992	6992	6992	6992	6992	7137	7137	7137	7137	7137	7287	7137	7137	7137	7137	7287	7287	7287	7287	7444	7608	8146	8343	8550	8767	8995	8995	8995	8995	8995	9235	8995	8995	8995	8995	8995	8995	8995	8995	8995	9235	8995	8995	8995	8995	8995	8995	8995	8995	8995	8995	8995	8995	8995	8995	8995	8995	8995	8995	8995	8995	8995	8995	8995	8995	8995	8995	8995	9235	9235	9235	0	0	0	0	0	0	0	0	0	0	0	0	0	4643	4643	4643	4643	4581	4581	4581	4521	4521	4521	4463	4463	4406	4406	4350	4350	4296	4350	4350	4296	4243	4192	4192	4142	4142	4093	4093	4093	4045	4045	4045	3998	3998	3998	3952	3952	3907	3864	3864	3821	3779	3738	3738	3738	3779	3779	3779	3738	3698	3698	3698	3659	2733	2754	2754	2754	2754	2733	2733	2690	2690	2690	2690	2669	2690	2669	2669	2669	2669	2669	2669	2669	2669	2669	2669	2669	2669	2669	2669	2649	2649	2649	2649	2649	2649	2649	2669	2669	2669	2669	2669	2669	2669	2669	2669	2669	2649	2649	2629	2629	2629	2609	2609	2609	2609	2609	2609	2629	2629	2629	2609	2609	2609	2609	2609	2609	2609	2609	2629	2609	2609	2609	2609	2609	2629	2669	2690	2690	2711	2711	2711	2690	2690	2669	2669	2649	2649	2629	2629	2589	2589	2589	2570	2570	2551	2551	0	0	0	0	0	0	0	0	0	0	0	0	0	0	0	0	0	0	0	0	0	0	0	0	0	0	0	0	0	0	0	0	0	0	0	0
0	0	0	0	0	0	0	0	0	0	0	0	0	0	0	0	0	0	0	0	0	0	0	0	0	0	0	0	0	0	0	0	0	0	0	0	0	0	0	0	0	0	0	0	0	0	0	0	0	0	0	0	0	0	0	0	0	0	0	0	0	0	0	0	0	0	0	0	0	0	0	0	0	0	0	0	0	0	0	0	0	0	0	0	0	0	4350	4406	4406	4350	4350	4350	4350	4350	4296	4350	4350	4350	4296	4296	4296	4296	4350	4296	4350	4350	4350	4350	4350	4350	4406	4406	4463	4463	4463	4521	4521	4581	4581	4581	4581	4581	4643	4643	4838	4977	4977	5050	5125	5125	5125	5125	5125	5125	5125	5125	5125	5125	5125	5125	5125	5125	5125	5125	5125	5125	5125	5125	5125	5125	5125	5125	5050	5125	5125	5125	5125	5125	5202	5202	5364	5448	5448	5448	5448	5448	5448	5448	5448	5535	5535	5535	5719	5719	5719	5719	5815	6018	6124	6124	6235	6235	6235	6235	6124	6124	6124	6124	6124	6235	6235	6235	6349	6349	6349	6349	6235	6235	6124	6018	6018	5915	5915	0	0	0	0	0	6853	6853	6853	6853	6720	6720	6853	6853	6853	6853	6853	6853	6853	6720	6853	6853	6853	6853	6853	6853	6853	6853	6853	6853	6853	6853	6720	6853	6853	6853	6853	6992	6992	6992	6853	6853	6853	6853	6853	6853	6853	6853	6720	6720	6853	6720	6853	6992	6992	6853	6853	0	0	0	0	3659	3659	3659	3659	3621	3621	3621	3621	3583	3583	3583	3583	3583	3583	3546	3546	3546	3546	3546	3546	3546	3546	3546	3546	3546	3546	3546	3546	3546	3546	3546	3510	3546	3546	3546	3546	3546	3546	3546	3546	3546	3546	3546	3546	3546	3546	3546	3546	3546	3546	3546	3546	3583	3583	3583	3583	3583	3583	3583	3621	3621	3621	3659	3698	3698	3738	3738	3779	3779	0	0	0	0	0	0	0	0	0	0	0	0	0	6720	6720	0	0	7287	7287	7287	7137	6992	6992	6853	6853	0	0	0	0	0	0	0	0	0	6992	7137	7137	6992	7137	7137	7137	7137	7137	7137	7137	6992	6992	7137	7137	7137	7137	7137	7287	7287	7137	7137	7287	7287	7287	7287	7287	7444	7608	8550	8767	8767	8995	8995	8995	8995	8995	8995	8995	8995	8995	8995	8995	9235	9235	9235	8995	8995	9235	8995	8995	8995	8995	8995	8995	8995	8995	8995	8995	8995	8995	8995	8995	8995	8995	8995	8995	8995	8995	8995	8995	8995	8995	8995	8995	8995	8995	8995	0	0	0	0	0	0	0	0	0	0	4906	4838	4771	4706	4706	4643	4643	4643	4581	4581	4581	4521	4521	4521	4463	4463	4406	4406	4406	4350	4350	4350	4296	4296	4243	4192	4192	4142	4142	4093	4093	4093	4045	4045	3998	3998	3998	3952	3998	3952	3952	3864	3907	3779	3779	3698	3738	3738	3779	3738	3738	3738	3738	3738	3698	3659	2733	2733	2754	2733	2733	2733	2711	2711	2711	2690	2690	2669	2690	2690	2669	2669	2669	2669	2669	2669	2669	2669	2669	2669	2669	2669	2669	2649	2649	2649	2649	2649	2649	2649	2669	2669	2669	2669	2669	2669	2669	2669	2669	2669	2649	2649	2629	2629	2629	2609	2589	2609	2609	2589	2589	2609	2629	2629	2609	2609	2609	2609	2609	2609	2609	2629	2629	2629	2609	2609	2609	2609	2629	2669	2690	2690	2733	2711	2711	2690	2690	2669	2669	2669	2649	2629	2629	2609	2589	2570	2570	2570	2570	2570	0	0	0	0	0	0	0	0	0	0	0	0	0	0	0	0	0	0	0	0	0	0	0	0	0	0	0	0	0	0	0	0	0	0	0	0
0	0	0	0	0	0	0	0	0	0	0	0	0	0	0	0	0	0	0	0	0	0	0	0	0	0	0	0	0	0	0	0	0	0	0	0	0	0	0	0	0	0	0	0	0	0	0	0	0	0	0	0	0	0	0	0	0	0	0	0	0	0	0	0	0	0	0	0	0	0	0	0	0	0	0	0	0	0	0	0	0	0	0	0	0	4296	4296	4350	4406	4350	4350	4350	4350	4350	4296	4350	4350	4350	4350	4296	4296	4296	4350	4296	4350	4350	4350	4350	4350	4350	4406	4406	4463	4463	4463	4521	4521	4521	4581	4581	4581	4581	4581	4581	4771	4977	4977	5050	5125	5202	5125	5125	5125	5125	5125	5125	5125	5125	5125	5125	5125	5125	5202	5125	5125	5125	5125	5125	5125	5125	5125	5125	5125	5125	5125	5125	5125	5202	5202	5282	5364	5448	5448	5448	5448	5448	5448	5448	5535	5535	5535	5535	5719	5719	5719	5815	5915	6124	6235	6235	6235	6235	6235	6235	6235	6124	6124	6124	6124	6235	6235	6235	6349	6349	6349	6349	6349	6349	6124	6124	6018	5915	5719	5719	5719	0	0	6853	6853	6853	6853	6853	6720	6853	6853	6853	6853	6853	6853	6720	6720	6720	6720	6720	6853	6853	6853	6853	6853	6853	6853	6853	6853	6853	6720	6853	6853	6853	6853	6992	6992	6853	6853	6853	6853	6853	6853	6853	6853	6853	6853	6853	6853	6720	6853	6853	6992	6853	6992	6992	0	0	3659	3659	3659	3659	3659	3621	3621	3659	3621	3583	3583	3583	3583	3583	3583	3546	3546	3546	3546	3546	3546	3546	3546	3546	3546	3546	3546	3546	3546	3546	3546	3546	3546	3546	3546	3546	3546	3546	3546	3546	3546	3546	3546	3546	3546	3546	3546	3546	3546	3546	3546	3546	3546	3583	3583	3583	3583	3583	3583	3583	3583	3621	3621	3659	3698	3698	3738	3738	3779	3779	0	0	0	0	0	0	0	0	0	0	0	0	0	0	0	0	0	0	0	0	0	0	0	0	0	0	0	0	0	0	0	0	0	6992	6992	6992	6992	7137	7137	7137	7137	7137	7137	7137	7137	7137	7137	7287	7287	7137	7137	7137	7287	7287	7137	7137	7287	7287	7287	7287	7287	7444	7608	8550	8767	8767	8767	8995	8995	8767	8995	8995	8995	8995	8995	8995	8995	9235	9235	9235	8995	9235	9235	8767	8995	8995	8995	8995	8767	8995	8995	8995	8995	8995	8995	8995	8995	8995	8995	8995	8995	8995	8995	8995	8995	8995	8995	8767	8995	8995	9235	9235	0	0	0	0	0	0	0	0	0	0	4906	4838	4771	4771	4706	4643	4643	4643	4581	4581	4581	4521	4521	4521	4463	4463	4406	4406	4350	4296	4296	4296	4296	4243	4243	4192	4192	4142	4142	4142	4093	4093	4045	4045	3998	3998	3998	3998	3998	3998	3952	3864	3907	3864	3821	3738	3738	3738	3779	3738	3738	3698	3698	3698	3698	3698	2733	2733	2754	2754	2733	2733	2733	2711	2711	2690	2690	2669	2690	2690	2690	2690	2690	2690	2690	2669	2690	2669	2669	2669	2669	2669	2669	2649	2649	2649	2649	2649	2649	2649	2669	2669	2669	2669	2669	2669	2669	2669	2669	2649	2649	2649	2629	2609	2609	2589	2589	2609	2609	2609	2589	2609	2629	2629	2609	2609	2609	2609	2609	2609	2609	2609	2609	2609	2609	2609	2609	2629	2649	2669	2690	2690	2711	2711	2711	2690	2669	2690	2649	2649	2649	2629	2629	2609	2609	2609	2589	2589	2589	2589	0	0	0	0	0	0	0	0	0	0	0	0	0	0	0	0	0	0	0	0	0	0	0	0	0	0	0	0	0	0	0	0	0	0	0	0
0	0	0	0	0	0	0	0	0	0	0	0	0	0	0	0	0	0	0	0	0	0	0	0	0	0	0	0	0	0	0	0	0	0	0	0	0	0	0	0	0	0	0	0	0	0	0	0	0	0	0	0	0	0	0	0	0	0	0	0	0	0	0	0	0	0	0	0	0	0	0	0	0	0	0	0	0	0	0	0	0	0	0	0	4296	4296	4350	4406	4406	4406	4406	4350	4350	4350	4296	4350	4350	4296	4296	4296	4296	4296	4350	4350	4350	4350	4350	4350	4350	4350	4350	4406	4406	4463	4463	4521	4521	4581	4581	4581	4643	4643	4643	4581	4771	4977	4977	5050	5125	5125	5202	5125	5125	5125	5125	5125	5125	5125	5125	5125	5125	5202	5202	5202	5125	5202	5202	5202	5202	5125	5125	5125	5125	5125	5125	5125	5125	5202	5202	5282	5364	5448	5448	5448	5448	5448	5364	5364	5535	5535	5535	5719	5719	5719	5815	5915	6124	6124	6235	6235	6235	6235	6235	6235	6235	6235	6124	6124	6124	6235	6235	6235	6349	6349	6349	6349	6349	6349	6235	6124	6018	5915	5915	5815	5815	0	0	6853	6853	6853	6853	6853	6720	6853	6853	6853	6853	6853	6853	6853	6720	6720	6853	6853	6853	6853	6853	6853	6853	6853	6720	6853	6720	6720	6592	6720	6720	6853	6853	6992	6992	6992	6853	6853	6853	6853	6853	6853	6853	6853	6720	6720	6720	6720	6853	6853	6992	6992	6853	6853	0	0	3659	3659	3659	3698	3659	3621	3621	3659	3621	3583	3583	3583	3583	3583	3583	3546	3546	3546	3546	3583	3546	3546	3546	3546	3546	3546	3546	3546	3546	3546	3546	3546	3546	3546	3546	3546	3546	3546	3546	3546	3546	3546	3546	3546	3546	3546	3546	3546	3546	3546	3546	3546	3546	3546	3583	3583	3583	3583	3583	3621	3621	3621	3621	3659	3659	3698	3698	3738	3738	3779	3779	0	0	0	0	0	0	0	0	0	0	0	0	0	0	0	0	0	0	0	0	0	0	0	0	0	0	0	0	0	0	0	0	6992	6992	6992	6992	7137	7137	7137	7137	7137	7137	7137	7137	7137	7137	7287	7287	7287	7137	7137	7287	7287	7287	7287	7287	7287	7287	7287	7444	7444	7959	8550	8767	8767	8995	8995	8995	8995	8995	8995	8995	8995	8995	8995	8995	9235	9235	9235	8995	9235	9235	8995	8995	8995	8995	8995	8767	8995	8995	8995	8767	8767	8767	8995	8995	8995	8995	8995	8995	8995	8995	8995	8995	8995	8995	8995	8995	8995	9235	9235	9235	0	0	0	0	0	0	0	0	0	4906	4838	4771	4771	4706	4643	4643	4643	4581	4581	4581	4521	4521	4521	4463	4406	4406	4406	4350	4296	4296	4243	4243	4243	4243	4192	4192	4192	4142	4142	4093	4093	4045	4045	3998	3998	3998	3952	3952	3952	3952	3864	3907	3821	3821	3738	3738	3738	3779	3738	3738	3738	3698	3698	3698	3698	2754	2754	2754	2754	2754	2733	2733	2711	2711	2690	2690	2669	2690	2690	2690	2690	2690	2690	2690	2690	2690	2690	2669	2669	2669	2669	2669	2649	2649	2649	2649	2669	2669	2669	2669	2669	2669	2669	2669	2669	2669	2669	2669	2669	2649	2649	2629	2609	2609	2609	2589	2609	2609	2609	2609	2609	2609	2629	2609	2609	2609	2629	2609	2609	2609	2629	2629	2609	2609	2609	2609	2629	2649	2669	2690	2690	2711	2711	2711	2690	2690	2690	2629	2629	2629	2629	2629	2609	2609	2609	2589	2589	2589	2589	0	0	0	0	0	0	0	0	0	0	0	0	0	0	0	0	0	0	0	0	0	0	0	0	0	0	0	0	0	0	0	0	0	0	0	0
0	0	0	0	0	0	0	0	0	0	0	0	0	0	0	0	0	0	0	0	0	0	0	0	0	0	0	0	0	0	0	0	0	0	0	0	0	0	0	0	0	0	0	0	0	0	0	0	0	0	0	0	0	0	0	0	0	0	0	0	0	0	0	0	0	0	0	0	0	0	0	0	0	0	0	0	0	0	0	0	0	0	0	0	4350	4350	4296	4350	4350	4350	4350	4350	4350	4350	4350	4350	4350	4350	4296	4296	4296	4296	4350	4350	4350	4350	4350	4350	4350	4350	4350	4350	4406	4406	4406	4463	4521	4581	4581	4581	4643	4643	4643	4643	4581	4706	4977	4977	4977	5125	5125	5125	5125	5125	5125	5125	5125	5202	5202	5202	5202	5202	5202	5202	5202	5202	5202	5202	5202	5125	5125	5125	5125	5125	5125	5125	5202	5202	5282	5282	5364	5448	5448	5448	5448	5448	5364	5448	5535	5535	5535	5815	5815	5915	6018	6018	6124	6124	6235	6235	6235	6235	6235	6235	6235	6235	6124	6124	6124	6124	6235	6235	6349	6468	6349	6349	6349	6468	6349	6349	6124	6018	6018	5815	5815	0	0	6853	6853	6853	6853	6853	6853	6853	6853	6853	6853	6853	6853	6853	6853	6720	6720	6720	6720	6853	6853	6853	6853	6853	6853	6853	6720	6720	6853	6853	6720	6853	6853	6853	6853	6853	6853	6853	6853	6853	6853	6853	6853	6720	6720	6853	6720	6720	6853	6853	6853	6992	6992	6853	0	0	0	3659	3659	3698	3659	3621	3621	3659	3621	3621	3583	3583	3583	3583	3546	3546	3546	3546	3546	3583	3546	3546	3546	3546	3546	3546	3546	3546	3546	3546	3546	3546	3546	3546	3546	3546	3546	3546	3546	3546	3546	3546	3546	3546	3546	3546	3546	3546	3546	3546	3546	3546	3546	3583	3583	3583	3583	3583	3583	3621	3621	3621	3621	3659	3659	3698	3698	3698	3738	3779	3779	0	0	0	0	0	0	0	0	0	0	0	0	0	0	0	0	0	0	0	0	0	0	0	0	0	0	0	0	0	0	0	0	6992	6992	6992	6992	7137	7137	7137	7137	7137	7137	7137	7137	7137	7137	7287	7287	7287	7137	7137	7287	7287	7287	7287	7287	7287	7287	7444	7444	7444	7444	8550	8767	8767	8995	8995	8995	8995	8995	8995	8995	8995	8995	8995	8995	8995	8995	8995	8995	8995	8995	8995	8995	8995	8995	8995	8995	8995	8995	8995	8995	8767	8767	8767	8995	8995	8995	8995	8995	8995	8995	8995	8995	8995	8767	8767	8767	8995	9235	9235	9235	9235	0	0	0	0	0	0	0	0	4906	4838	4771	4771	4706	4706	4643	4643	4643	4581	4581	4521	4521	4521	4463	4406	4406	4350	4350	4296	4243	4243	4243	4243	4243	4192	4192	4192	4142	4093	4093	4045	4045	4045	3998	3998	3998	3952	3998	3952	3952	3907	3864	3821	3821	3779	3779	3738	3779	3738	3738	3738	3738	3738	3738	3738	2777	2777	2754	2777	2754	2733	2754	2711	2711	2711	2690	2690	2690	2711	2711	2711	2733	2733	2733	2690	2690	2690	2669	2669	2649	2649	2649	2649	2649	2649	2649	2669	2669	2669	2669	2669	2669	2669	2669	2669	2669	2669	2669	2669	2649	2649	2629	2629	2609	2609	2589	2609	2609	2609	2609	2609	2609	2609	2609	2629	2629	2629	2609	2609	2609	2629	2629	2609	2609	2609	2629	2629	2649	2649	2669	2690	2711	2711	2711	2690	2690	2690	2629	2629	2629	2629	2629	2609	2609	2609	2589	2589	2589	2589	0	0	0	0	0	0	0	0	0	0	0	0	0	0	0	0	0	0	0	0	0	0	0	0	0	0	0	0	0	0	0	0	0	0	0	0
0	0	0	0	0	0	0	0	0	0	0	0	0	0	0	0	0	0	0	0	0	0	0	0	0	0	0	0	0	0	0	0	0	0	0	0	0	0	0	0	0	0	0	0	0	0	0	0	0	0	0	0	0	0	0	0	0	0	0	0	0	0	0	0	0	0	0	0	0	0	0	0	0	0	0	0	0	0	0	0	0	0	0	4296	4296	4296	4296	4350	4350	4350	4350	4350	4350	4350	4350	4350	4296	4296	4350	4296	4350	4350	4406	4350	4350	4350	4350	4350	4350	4350	4350	4350	4406	4406	4406	4463	4521	4521	4521	4581	4581	4581	4581	4581	4706	4706	4706	4706	5202	5202	5202	5202	5125	5125	5125	5125	5125	5202	5125	5202	5202	5202	5202	5202	5202	5202	5202	5202	5202	5202	5125	5125	5125	5125	5125	5125	5202	5202	5282	5282	5364	5448	5448	5448	5448	5448	5364	5448	5535	5626	5626	5815	5815	5915	6018	6018	6124	6124	6235	6235	6235	6235	6235	6235	6235	6124	6124	6124	6124	6124	6124	6124	6468	6468	6349	6349	6468	6468	6349	6349	6235	6349	6349	0	0	0	0	6853	6853	6853	6853	6853	6853	6720	6853	6853	6853	6853	6853	6853	6853	6853	6853	6853	6853	6853	6853	6992	6853	6853	6853	6853	6853	6720	6720	6720	6853	6853	6853	6853	6853	6853	6720	6720	6720	6720	6720	6853	6853	6720	6720	6720	6720	6720	6853	6853	6853	6992	6853	6853	0	0	0	3659	3659	3659	3659	3621	3621	3659	3621	3621	3583	3583	3546	3583	3583	3546	3546	3546	3546	3546	3546	3546	3546	3546	3546	3546	3546	3546	3546	3546	3546	3546	3546	3546	3546	3546	3546	3546	3546	3546	3546	3546	3546	3546	3546	3546	3546	3546	3546	3546	3546	3546	3546	3583	3583	3583	3583	3583	3621	3621	3621	3621	3621	3659	3659	3659	3659	3698	3738	3738	3779	0	0	0	0	0	0	0	0	0	0	0	0	0	0	0	0	0	0	0	0	0	0	0	0	0	0	0	0	0	0	0	0	6853	6853	6992	6992	6992	7137	7137	7137	7137	7137	7137	7137	7137	7137	7287	7287	7287	7137	7287	7287	7287	7287	7287	7287	7287	7287	7444	7444	7444	7444	8767	8995	8995	8995	8995	8995	8995	8995	8995	8995	8995	8995	8995	8995	8995	8995	8995	8995	8995	8995	8995	8995	8995	8995	8995	8995	8995	8995	8995	8995	8767	8767	8767	8767	8995	8995	8995	8995	8995	8995	8995	8995	8995	8995	8995	8995	8995	9235	9235	9235	9235	0	0	0	0	0	0	0	0	4906	4838	4838	4771	4771	4706	4706	4643	4643	4643	4581	4581	4521	4521	4463	4406	4406	4350	4350	4296	4243	4243	4243	4243	4192	4192	4192	4192	4142	4093	4093	4045	4045	4045	3998	3998	3998	3952	3952	3952	3952	3907	3907	3864	3821	3779	3779	3738	3738	3779	3779	3738	3738	3738	3738	3738	2799	2777	2777	2777	2754	2777	2777	2754	2754	2711	2711	2711	2690	2711	2711	2711	2822	2799	2777	2711	2690	2690	2690	2690	2669	2669	2669	2669	2649	2649	2649	2669	2669	2669	2649	2649	2669	2649	2669	2669	2669	2669	2669	2649	2649	2649	2609	2609	2609	2609	2589	2609	2609	2609	2609	2629	2629	2629	2629	2629	2629	2629	2629	2629	2629	2629	2629	2629	2609	2609	2629	2649	2649	2649	2669	2690	2690	2711	2711	2690	2690	2690	2669	2629	2629	2629	2629	2609	2609	2589	2589	2570	2570	2570	0	0	0	0	0	0	0	0	0	0	0	0	0	0	0	0	0	0	0	0	0	0	0	0	0	0	0	0	0	0	0	0	0	0	0	0
0	0	0	0	0	0	0	0	0	0	0	0	0	0	0	0	0	0	0	0	0	0	0	0	0	0	0	0	0	0	0	0	0	0	0	0	0	0	0	0	0	0	0	0	0	0	0	0	0	0	0	0	0	0	0	0	0	0	0	0	0	0	0	0	0	0	0	0	0	0	0	0	0	0	0	0	0	0	0	0	0	0	0	4296	4350	4350	4350	4350	4350	4350	4350	4350	4350	4350	4350	4350	4296	4296	4296	4296	4296	4350	4350	4350	4350	4350	4350	4350	4350	4350	4350	4350	4350	4350	4350	4406	4406	4463	4521	4581	4581	4581	4581	4581	4643	4643	4643	4706	5202	5202	5202	5202	5125	5125	5202	5125	5125	5202	5125	5202	5202	5202	5202	5202	5202	5202	5202	5202	5202	5202	5202	5125	5125	5125	5202	5202	5202	5202	5282	5364	5364	5448	5448	5448	5448	5448	5364	5448	5535	5535	5626	5719	5815	5915	5915	6018	6124	6124	6235	6235	6235	6235	6235	6235	6235	6124	6124	6124	6124	6124	6124	6235	6349	6468	6468	6349	6468	6349	6349	6349	6349	6349	6349	0	0	0	0	0	6853	6853	6853	6853	6853	6853	6853	6853	6853	6853	6853	6853	6853	6853	6853	6853	6720	6853	6992	6992	6853	6853	6853	6853	6853	6853	6720	6853	6853	6853	6720	6853	6720	6853	6853	6720	6720	6720	6720	6853	6720	6853	6720	6853	6720	6720	6853	6853	6853	6992	6992	6992	0	0	0	3659	3659	3659	3621	3621	3621	3621	3621	3583	3546	3546	3546	3546	3546	3546	3546	3546	3546	3546	3546	3546	3546	3546	3546	3546	3546	3546	3546	3546	3546	3546	3546	3546	3546	3546	3546	3546	3546	3546	3546	3546	3546	3546	3546	3546	3546	3546	3546	3546	3546	3546	3546	3583	3583	3583	3583	3621	3621	3621	3621	3621	3621	3621	3621	3659	3659	3698	3738	3738	0	0	0	0	0	0	0	0	0	0	0	0	0	0	0	0	0	0	0	0	0	0	0	0	0	0	0	0	0	0	0	0	0	6853	6853	6992	6992	7137	7137	7137	7137	7137	7137	7137	7137	7137	7137	7287	7287	7287	7137	7287	7287	7287	7137	7287	7287	7287	7287	7287	7287	7444	7444	8767	8995	8995	8995	8995	8995	8995	8995	8995	8995	8995	8995	8995	8995	8995	8995	8995	8995	8995	8995	8767	8767	8995	8995	8995	8995	8767	8767	8767	8995	8767	8767	8767	8767	8767	8767	8767	8767	8995	8995	8995	8995	8995	8995	8995	8995	8995	9235	8995	8995	8995	0	0	0	0	0	0	0	4906	4906	4906	4838	4771	4771	4706	4706	4643	4643	4581	4581	4581	4521	4521	4463	4406	4406	4406	4350	4296	4243	4243	4243	4192	4192	4192	4192	4142	4142	4093	4093	4045	4045	4045	3998	3998	3998	3952	3998	3952	3952	3907	3864	3821	3821	3779	3779	3779	3821	3779	3779	3738	3738	3738	3738	3738	2845	2799	2799	2799	2822	2799	2822	2799	2799	2754	2754	2777	2777	2799	2777	2822	2845	2845	2845	2799	2777	2777	2690	2690	2690	2669	2669	2669	2649	2669	2669	2669	2669	2669	2669	2649	2649	2649	2669	2669	2669	2669	2669	2649	2669	2649	2629	2609	2609	2609	2609	2609	2609	2609	2609	2649	2629	2629	2629	2629	2649	2649	2649	2649	2649	2649	2649	2649	2629	2629	2649	2649	2669	2669	2669	2711	2711	2711	2711	2690	2690	2690	2669	2649	2649	2629	2629	2609	2609	2609	2589	2589	2589	2589	0	0	0	0	0	0	0	0	0	0	0	0	0	0	0	0	0	0	0	0	0	0	0	0	0	0	0	0	0	0	0	0	0	0	0	0
0	0	0	0	0	0	0	0	0	0	0	0	0	0	0	0	0	0	0	0	0	0	0	0	0	0	0	0	0	0	0	0	0	0	0	0	0	0	0	0	0	0	0	0	0	0	0	0	0	0	0	0	0	0	0	0	0	0	0	0	0	0	0	0	0	0	0	0	0	0	0	0	0	0	0	0	0	0	0	0	0	0	0	0	4350	4350	4350	4350	4406	4350	4350	4350	4350	4350	4350	4296	4350	4350	4350	4350	4296	4350	4350	4350	4350	4350	4350	4350	4350	4350	4350	4350	4350	4350	4350	4406	4463	4463	4521	4521	4581	4521	4581	4581	4581	4581	4581	0	5202	5202	5202	5202	5125	5125	5202	5125	5125	5125	5125	5202	5202	5202	5202	5202	5202	5202	5202	5202	5202	5202	5202	5125	5125	5125	5125	5202	5202	5282	5282	5364	5448	5448	5448	5448	5448	5448	5364	5448	5535	5626	5626	5719	5815	5915	5915	6018	6124	6124	6235	6235	6235	6235	6235	6235	6235	6235	6235	6124	6124	6124	6124	6235	6349	6468	6468	6349	6468	6349	6349	6349	6349	6349	6349	0	0	0	0	0	6853	6853	6853	6720	6720	6853	6853	6853	6853	6853	6853	6853	6853	6853	6720	6720	6720	6853	6853	6853	6853	6853	6853	6853	6853	6853	6720	6720	6720	6853	6720	6720	6720	6720	6720	6720	6720	6720	6853	6853	6853	6853	6720	6853	6720	6720	6853	6853	6853	6992	6992	6853	6853	0	0	3659	3621	3659	3659	3621	3621	3621	3621	3583	3583	3546	3546	3546	3546	3546	3546	3546	3546	3546	3546	3546	3546	3546	3546	3546	3546	3546	3546	3546	3546	3546	3546	3546	3546	3546	3546	3546	3546	3546	3546	3546	3546	3546	3546	3546	3546	3546	3546	3546	3546	3546	3546	3583	3583	3583	3583	3621	3621	3621	3621	3621	3621	3621	3621	3621	3659	3698	3698	3738	0	0	0	0	0	0	0	0	0	0	0	0	0	0	0	0	0	0	0	0	0	0	0	0	0	0	0	0	0	0	0	0	0	6992	6992	6992	6992	6992	7137	7137	7137	7137	7137	7137	7137	7137	7137	7287	7287	7137	7137	7137	7137	7137	7137	7287	7287	7287	7287	7287	7287	7444	7444	8767	8995	8995	8995	9235	8995	8995	8995	8995	8995	8995	8995	8995	8995	8995	8995	8995	8995	8995	8995	8767	8767	8767	8995	8767	8767	8767	8767	8767	8767	8550	8767	8767	8767	8767	8767	8767	8767	8767	8767	8767	8995	8995	8767	8995	8995	8995	9235	9235	9235	9235	9235	9235	0	0	0	0	0	4906	4906	4906	4838	4838	4771	4706	4706	4643	4643	4643	4581	4581	4581	4521	4521	4463	4406	4406	4350	4296	4243	4243	4243	4192	4192	4192	4192	4142	4142	4093	4093	4045	4045	4045	3998	3998	3998	3952	3952	3907	3907	3864	3864	3821	3821	3821	3779	3779	3779	3738	3738	3738	3698	3698	3738	3738	2822	2822	2822	2822	2822	2822	2822	2845	2845	2822	2822	2822	2822	2845	2845	2869	2869	2869	2869	2845	2822	2799	2777	2754	2690	2690	2669	2669	2669	2669	2669	2669	2669	2669	2669	2669	2669	2649	2669	2669	2669	2669	2669	2649	2669	2649	2629	2629	2629	2609	2609	2609	2609	2609	2629	2649	2649	2669	2669	2893	2869	2869	2869	2669	2669	2669	2669	2629	2649	2649	2690	2690	2711	2711	2711	2711	2711	2711	2711	2711	2690	2690	2669	2649	2629	2629	2629	2609	2609	2609	2589	2589	2589	2589	0	0	0	0	0	0	0	0	0	0	0	0	0	0	0	0	0	0	0	0	0	0	0	0	0	0	0	0	0	0	0	0	0	0	0	0
0	0	0	0	0	0	0	0	0	0	0	0	0	0	0	0	0	0	0	0	0	0	0	0	0	0	0	0	0	0	0	0	0	0	0	0	0	0	0	0	0	0	0	0	0	0	0	0	0	0	0	0	0	0	0	0	0	0	0	0	0	0	0	0	0	0	0	0	0	0	0	0	0	0	0	0	0	0	0	0	0	0	0	0	4350	4350	4350	4350	4350	4350	4350	4350	4350	4350	4296	4296	4296	4350	4296	4350	4296	4296	4350	4350	4350	4350	4350	4350	4350	4350	4350	4350	4350	4350	4350	4406	4463	4521	4521	4521	4581	4581	4581	4581	4581	4581	4706	4706	4706	5125	5202	5202	5125	5125	5202	5125	5125	5202	5125	5202	5202	5202	5202	5202	5202	5202	5202	5202	5202	5202	5202	5202	5202	5125	5125	5202	5202	5202	5282	5364	5364	5448	5448	5448	5448	5535	5535	5448	5626	5626	5719	5719	5719	5815	5815	6124	6235	6235	6235	6235	6235	6235	6235	6235	6235	6235	6235	6124	6124	6235	6235	6235	6349	6468	6468	6349	6349	6349	6349	6349	6349	6349	6349	0	0	0	0	0	6853	6853	6853	6720	6720	6853	6853	6853	6853	6853	6853	6853	6853	6853	6853	6853	6720	6853	6853	6853	6853	6853	6853	6992	6853	6853	6853	6720	6720	6720	6720	6720	6720	6592	6720	6720	6720	6853	6853	6853	6853	6720	6720	6720	6720	6720	6853	6853	6853	6992	6992	6853	6992	6992	0	3659	3621	3659	3621	3621	3621	3583	3621	3583	3583	3583	3546	3546	3546	3546	3546	3546	3546	3546	3546	3546	3546	3546	3546	3546	3546	3546	3546	3546	3546	3546	3546	3546	3546	3546	3546	3546	3546	3546	3546	3546	3546	3546	3546	3546	3546	3546	3546	3546	3546	3546	3546	3583	3583	3583	3583	3621	3621	3621	3621	3621	3621	3621	3621	3621	3659	3698	3698	0	0	0	0	0	0	0	0	0	0	0	0	0	0	0	0	0	0	0	0	0	0	0	0	0	0	0	0	0	0	0	0	0	0	6992	6992	6992	7137	7137	7137	7137	7137	7137	7137	7137	7137	7137	7137	7137	7137	7137	7137	7137	7137	7137	7137	7137	7287	7287	7287	7287	7287	7444	7444	7444	8767	8767	8995	8995	8995	8995	8995	8995	8995	9235	8995	8995	8995	8995	8995	8995	8995	8995	8995	8767	8767	8767	8767	8767	8767	8767	8767	8767	8767	8767	8767	8767	8767	8767	8767	8767	8767	8767	8767	8767	8995	8995	8995	8995	8767	8767	8995	8995	8995	8995	8995	9235	9235	0	0	0	0	4906	4906	4906	4838	4838	4706	4706	4706	4643	4581	4643	4643	4581	4521	4521	4463	4463	4406	4406	4350	4296	4243	4243	4243	4192	4192	4192	4192	4142	4142	4142	4093	4045	4045	4045	3998	3998	3998	3952	3952	3864	3864	3864	3864	3821	3821	3821	3779	3779	3779	3738	3738	3698	3698	3698	3738	3738	3738	2822	2822	2822	2822	2822	2822	2845	2845	2845	2845	2845	2869	2869	2893	2917	2917	2893	2869	2845	2822	2822	2799	2754	2733	2733	2733	2711	2690	2669	2669	2669	2669	2669	2669	2669	2669	2669	2669	2669	2669	2649	2669	2649	2669	2649	2629	2629	2629	2629	2609	2629	2609	2609	2629	2669	2649	2649	2893	2893	2869	2869	2869	2869	2711	2711	2711	2690	2799	2777	2777	2754	2754	2733	2733	2733	2733	2711	2711	2711	2690	2690	2669	2649	2629	2629	2629	2609	2609	2609	2609	2589	2589	2589	0	0	0	0	0	0	0	0	0	0	0	0	0	0	0	0	0	0	0	0	0	0	0	0	0	0	0	0	0	0	0	0	0	0	0	0
0	0	0	0	0	0	0	0	0	0	0	0	0	0	0	0	0	0	0	0	0	0	0	0	0	0	0	0	0	0	0	0	0	0	0	0	0	0	0	0	0	0	0	0	0	0	0	0	0	0	0	0	0	0	0	0	0	0	0	0	0	0	0	0	0	0	0	0	0	0	0	0	0	0	0	0	0	0	0	0	0	0	0	0	0	4350	4350	4350	4350	4350	4350	4350	4350	4350	4350	4296	4296	4296	4296	4296	4296	4350	4350	4350	4350	4350	4350	4350	4350	4350	4350	4350	4350	4350	4406	4463	4521	4521	4581	4581	4581	4581	4581	4581	4643	4706	4706	4706	4906	5202	5202	5202	5202	5202	5202	5125	5202	5202	5125	5202	5202	5202	5202	5202	5202	5202	5202	5202	5202	5202	5202	5125	5125	5125	5125	5202	5202	5202	5282	5364	5364	5448	5448	5448	5448	5535	5448	5535	5535	5626	5719	5719	5815	5915	6018	6124	6235	6235	6235	6235	6235	6235	6235	6235	6235	6235	6235	6235	6235	6235	6235	6235	6349	6349	6468	6349	6468	6349	6349	6349	6349	6349	6349	0	0	0	0	0	6853	6853	6853	6853	6853	6853	6853	6853	6853	6853	6720	6853	6853	6853	6720	6720	6720	6853	6853	6992	6853	6853	6992	6992	6992	6853	6853	6720	6720	6720	6720	6720	6720	6592	6720	6720	6720	6720	6720	6720	6853	6853	6720	6720	6720	6592	6853	6853	6853	6853	6853	6720	6720	6992	3659	3659	3659	3659	3659	3621	3621	3621	3621	3583	3583	3583	3583	3546	3546	3546	3546	3546	3546	3546	3546	3546	3546	3546	3546	3510	3510	3546	3546	3546	3546	3546	3546	3546	3546	3546	3546	3546	3546	3546	3546	3546	3546	3546	3546	3546	3546	3546	3546	3546	3546	3546	3546	3583	3583	3583	3583	3621	3621	3621	3621	3621	3621	3621	3621	3621	3659	3698	3738	3738	0	0	0	0	0	0	0	0	0	0	0	0	0	0	0	0	0	0	0	0	0	0	0	0	0	0	0	0	0	0	0	0	0	0	6992	6853	6992	6992	7137	7137	7137	7137	7137	7137	7137	7137	7137	7137	7137	7137	7137	7137	7137	7137	7137	7137	7137	7287	7287	7287	7287	7287	7287	7444	8550	8767	8995	8995	8995	8995	8995	8995	9235	8995	8995	8995	8995	8995	8995	8995	8995	8995	8995	8767	8767	8767	8767	8767	8767	8767	8767	8767	8767	8767	8767	8767	8767	8767	8767	8767	8767	8767	9235	9489	9235	9235	8995	8995	8995	8767	8767	8995	9235	9235	8995	8995	8995	0	0	0	4906	4977	4906	4906	4906	4838	4838	4706	4706	4643	4581	4643	4581	4581	4581	4521	4521	4463	4406	4406	4350	4296	4243	4243	4243	4192	4192	4192	4192	4142	4142	4142	4093	4093	4045	4045	3998	3952	3952	3907	3907	3864	3864	3864	3821	3821	3821	3821	3821	3779	3779	3738	3738	3698	3698	3698	3698	3698	3698	3698	2822	2822	2845	2822	2869	2869	2869	2869	2869	2869	2869	2893	2917	2917	2917	2917	2893	2869	2845	2822	2799	2777	2754	2733	2733	2711	2690	2669	2669	2669	2669	2669	2669	2669	2669	2669	2669	2669	2669	2649	2649	2649	2649	2629	2629	2629	2629	2629	2629	2629	2629	2629	2649	2690	2690	2869	2869	2869	2869	2869	2869	2869	2845	2822	2799	2799	2799	2777	2777	2754	2733	2733	2733	2733	2733	2711	2711	2711	2690	2690	2669	2649	2649	2629	2629	2629	2609	2609	2609	2570	2551	2551	0	0	0	0	0	0	0	0	0	0	0	0	0	0	0	0	0	0	0	0	0	0	0	0	0	0	0	0	0	0	0	0	0	0	0	0
0	0	0	0	0	0	0	0	0	0	0	0	0	0	0	0	0	0	0	0	0	0	0	0	0	0	0	0	0	0	0	0	0	0	0	0	0	0	0	0	0	0	0	0	0	0	0	0	0	0	0	0	0	0	0	0	0	0	0	0	0	0	0	0	0	0	0	0	0	0	0	0	0	0	0	0	0	0	0	0	0	0	0	0	0	0	4350	4350	4350	4350	4350	4350	4296	4296	4296	4296	4350	4350	4350	4350	4296	4350	4350	4350	4350	4350	4350	4350	4350	4350	4350	4350	4350	4350	4406	4463	4521	4521	4581	4581	4581	4581	4581	4581	4643	4643	4771	4771	4906	4977	4977	5125	5125	5125	5202	5125	5125	5125	5125	5125	5125	5125	5125	5202	5202	5202	5202	5202	5202	5202	5125	5125	5125	5125	5125	5202	5202	5202	5202	5282	5364	5364	5364	5448	5535	5535	5535	5535	5535	5626	5719	5719	5815	5915	6018	6124	6124	6235	6235	6235	6235	6235	6235	6235	6235	6235	6235	6235	6235	6235	6235	6235	6349	6349	6349	6349	6349	6349	6349	6349	6349	6349	6349	0	0	0	0	0	6853	6853	6853	6853	6853	6853	6853	6853	6853	6853	6720	6853	6853	6853	6853	6853	6853	6853	6992	6992	6992	6992	7137	6992	6992	6853	6853	6853	6720	6720	6720	6592	6592	6592	6720	6720	6720	6720	6720	6720	6853	6853	6853	6853	6720	6720	6853	6853	6853	6853	6853	6853	6720	0	3659	3659	3659	3659	3659	3659	3659	3659	3621	3583	3546	3546	3546	3583	3583	3546	3546	3546	3546	3546	3546	3546	3546	3546	3546	3510	3546	3546	3546	3546	3546	3546	3546	3546	3546	3546	3546	3546	3546	3546	3546	3546	3546	3546	3546	3546	3546	3546	3546	3546	3546	3546	3546	3583	3583	3583	3583	3583	3621	3621	3621	3621	3621	3621	3621	3621	3659	3698	3738	3738	0	0	0	0	0	0	0	0	0	0	0	0	0	0	0	0	0	0	0	0	0	0	0	0	0	0	0	0	0	0	0	0	0	0	0	6853	6992	6992	6992	7137	7137	7137	7137	7137	7137	7137	6992	7137	7137	7137	7137	7137	7137	7137	6992	7137	7137	7137	7287	7137	7137	7287	7287	7444	8767	8995	8995	8995	8995	8995	8995	8995	8995	8995	8995	8995	8995	8995	8995	8995	8995	8995	8995	8995	8995	8995	8767	8767	8767	8767	8767	8767	8767	8767	8767	8767	8767	8550	8767	8767	8550	8995	8995	9235	9235	8995	8995	8995	8995	8767	9235	9235	9235	9235	9235	9235	8995	8995	0	0	4906	4977	4906	4906	4838	4838	4771	4771	4643	4581	4581	4581	4581	4581	4521	4521	4463	4463	4406	4406	4406	4350	4243	4243	4243	4192	4192	4192	4142	4142	4142	4142	4093	4093	4045	4045	3998	3952	3952	3907	3907	3864	3864	3864	3821	3821	3821	3821	3821	3779	3779	3738	3698	3698	3698	3698	3738	3698	3698	3698	2845	2845	2845	2845	2869	2869	2869	2869	2869	2893	2893	2893	2942	2942	2942	2942	2917	2917	2869	2845	2822	2777	2754	2733	2733	2711	2690	2669	2669	2669	2669	2669	2669	2669	2669	2669	2669	2669	2649	2649	2669	2649	2649	2649	2649	2649	2649	2649	2629	2649	2649	2649	2669	2711	2733	2822	2893	2869	2869	2869	2869	2845	2869	2845	2822	2799	2799	2777	2799	2777	2733	2733	2733	2733	2711	2711	2711	2711	2690	2690	2669	2669	2649	2629	2629	2629	2609	2609	2589	2551	2551	2551	0	0	0	0	0	0	0	0	0	0	0	0	0	0	0	0	0	0	0	0	0	0	0	0	0	0	0	0	0	0	0	0	0	0	0	0
0	0	0	0	0	0	0	0	0	0	0	0	0	0	0	0	0	0	0	0	0	0	0	0	0	0	0	0	0	0	0	0	0	0	0	0	0	0	0	0	0	0	0	0	0	0	0	0	0	0	0	0	0	0	0	0	0	0	0	0	0	0	0	0	0	0	0	0	0	0	0	0	0	0	0	0	0	0	0	0	0	0	0	0	0	0	4350	4350	4350	4350	4350	4350	4350	4296	4296	4296	4296	4296	4296	4350	4296	4350	4350	4350	4350	4350	4350	4350	4350	4350	4350	4350	4350	4350	4521	4521	4521	4521	4521	4581	4581	4521	4581	4643	4643	4706	4706	4838	4906	4977	4977	5125	5125	5125	5202	5125	5202	5202	5125	5125	5125	5125	5125	5202	5202	5202	5202	5202	5202	5202	5125	5125	5125	5125	5125	5125	5202	5202	5202	5202	5364	5364	5448	5448	5535	5535	5535	5535	5535	5535	5719	5719	5719	5815	5915	6018	6018	6124	6124	6235	6235	6235	6235	6235	6235	6235	6235	6235	6235	6235	6235	6235	6349	6349	6349	6349	6349	6349	6349	6349	6349	6349	6349	0	0	0	0	0	0	6853	6853	6853	6853	6853	6853	6853	6853	6853	6592	6592	6720	6720	6720	6720	6720	6853	6853	6992	6992	6992	6992	6992	6992	6853	6853	6720	6592	6720	6720	6720	6720	6592	6720	6720	6720	6853	6720	6720	6853	6853	6853	6853	6720	6720	6853	6853	6853	6853	6720	6720	0	0	3659	3659	3659	3659	3698	3698	3621	3659	3621	3583	3583	3583	3583	3583	3583	3583	3546	3546	3546	3546	3546	3546	3546	3546	3546	3546	3546	3510	3546	3546	3546	3546	3546	3546	3546	3546	3546	3546	3546	3546	3546	3546	3546	3546	3546	3546	3546	3546	3546	3546	3546	3546	3546	3583	3583	3583	3583	3583	3583	3583	3583	3583	3621	3621	3621	3621	3659	3698	3698	3738	0	0	0	0	0	0	0	0	0	0	0	0	0	0	0	0	0	0	0	0	0	0	0	0	0	0	0	0	0	0	0	0	0	0	6720	6720	6992	6992	6992	7137	7137	7137	7137	7137	7137	7137	7137	7137	7137	7137	7137	7137	6992	6992	6992	7137	7137	7137	7137	7137	7137	7287	7287	7444	8767	8995	8995	8995	8995	8995	8995	8995	8995	8995	8995	8995	8995	8995	8995	8995	8995	8995	8995	8995	8995	8995	8767	8995	8767	8767	8767	8767	8767	8767	8767	8767	8767	8550	8550	8550	8550	8767	8767	8995	8995	8995	8995	8995	8995	8767	9235	9235	9235	9235	9235	9235	8995	8995	8995	4977	4977	4977	4977	4906	4906	4838	4771	4771	4643	4581	4581	4581	4581	4581	4521	4521	4463	4463	4406	4406	4350	4350	4243	4243	4243	4192	4192	4192	4142	4142	4142	4142	4093	4093	4045	4045	3998	3998	3952	3952	3907	3907	3864	3864	3821	3821	3821	3821	3779	3779	3738	3738	3698	3698	3698	3698	3698	3698	3698	3698	3659	3659	2869	2869	2869	2869	2893	2869	2893	2893	2917	2917	2942	2967	2967	2967	2967	2917	2893	2845	2822	2799	2777	2733	2754	2733	2690	2690	2690	2669	2669	2669	2669	2669	2669	2669	2669	2669	2669	2669	2669	2669	2649	2649	2649	2649	2649	2629	2649	2649	2649	2649	2669	2711	2733	2733	2869	2869	2869	2869	2869	2869	2869	2845	2845	2822	2822	2799	2799	2777	2777	2733	2733	2711	2711	2711	2711	2690	2690	2690	2669	2669	2649	2629	2629	2609	2609	2609	2589	2570	2551	2551	0	0	0	0	0	0	0	0	0	0	0	0	0	0	0	0	0	0	0	0	0	0	0	0	0	0	0	0	0	0	0	0	0	0	0	0
0	0	0	0	0	0	0	0	0	0	0	0	0	0	0	0	0	0	0	0	0	0	0	0	0	0	0	0	0	0	0	0	0	0	0	0	0	0	0	0	0	0	0	0	0	0	0	0	0	0	0	0	0	0	0	0	0	0	0	0	0	0	0	0	0	0	0	0	0	0	0	0	0	0	0	0	0	0	0	0	0	0	0	0	0	0	0	4406	4350	4350	4350	4350	4350	4350	4296	4296	4350	4350	4296	4350	4296	4350	4350	4350	4350	4350	4350	4350	4350	4350	4350	4350	4350	4406	4521	4521	4521	4521	4521	4581	4581	4521	4581	4643	4643	4706	4771	4838	4906	4977	4977	5125	5125	5125	5202	5125	5202	5202	5125	5125	5125	5125	5125	5202	5202	5202	5202	5202	5125	5125	5125	5125	5125	5125	5125	5125	5125	5202	5202	5202	5364	5364	5448	5535	5535	5535	5535	5535	5535	5535	5626	5719	5719	5815	5815	6124	6018	6124	6124	6235	6235	6235	6235	6235	6235	6235	6235	6235	6235	6235	6235	6124	6349	6349	6349	6349	6349	6349	6349	6349	6349	6349	6592	6592	0	0	0	0	0	0	0	6853	6853	6853	6853	6853	6853	6853	6592	6592	6720	6720	6468	6468	6468	6468	6853	6853	6853	6853	6992	6992	6853	6853	6853	6468	6468	6468	6468	6720	6720	6468	6720	6853	6853	6853	6720	6853	6853	6853	6853	6853	6853	6720	6853	6853	6853	6853	6720	6720	3510	3510	3659	3659	3659	3659	3659	3659	3621	3621	3621	3621	3621	3583	3583	3583	3583	3583	3546	3546	3546	3546	3546	3546	3546	3546	3546	3546	3546	3546	3546	3546	3546	3546	3546	3510	3546	3546	3510	3546	3546	3546	3546	3546	3546	3546	3546	3546	3546	3546	3546	3546	3546	3546	3546	3583	3583	3583	3583	3583	3583	3583	3583	3583	3583	3621	3621	3621	3659	3698	3698	0	0	0	0	0	0	0	0	0	0	0	0	0	0	0	0	0	0	0	0	0	0	0	0	0	0	0	0	0	0	0	0	0	0	0	6720	6853	6992	6992	6992	7137	7137	7137	7137	7137	6992	7137	6992	7137	7137	7137	7137	7137	6992	6992	6992	7137	7137	7137	7287	7137	7137	7287	7444	8146	8550	8767	8995	8995	8995	8995	8995	8995	8995	8995	8995	8995	9235	9235	9235	8995	8995	8995	8995	8995	8995	8995	8767	8995	8767	8767	8995	8767	8767	8767	8767	8767	8767	8550	8550	8550	8767	8767	8995	8995	8995	8995	8767	8767	8995	8767	9235	9235	9235	9235	9235	8995	8995	8995	8995	4906	4906	4977	4906	4906	4838	4771	4771	4706	4643	4643	4581	4643	4581	4521	4521	4463	4463	4463	4406	4406	4350	4350	4296	4296	4243	4243	4243	4192	4192	4142	4142	4142	4142	4093	4045	4045	3998	3998	3952	3952	3907	3907	3864	3864	3821	3821	3821	3821	3779	3779	3738	3738	3698	3698	3698	3698	3698	3698	3698	3659	3659	3698	3698	2869	2869	2869	2869	2893	2893	2917	2917	2942	2967	2967	2967	2967	2967	2967	2893	2869	2845	2777	2777	2754	2733	2711	2690	2690	2690	2669	2669	2669	2669	2669	2669	2669	2669	2649	2649	2649	2669	2669	2669	2649	2649	2669	2649	2649	2649	2649	2649	2649	2669	2711	2733	2893	2893	2869	2869	2869	2869	2869	2869	2845	2845	2799	2799	2777	2777	2777	2754	2733	2733	2711	2711	2711	2711	2690	2690	2690	2669	2669	2649	2649	2629	2629	2609	2609	2589	2589	2551	2551	0	0	0	0	0	0	0	0	0	0	0	0	0	0	0	0	0	0	0	0	0	0	0	0	0	0	0	0	0	0	0	0	0	0	0	0
0	0	0	0	0	0	0	0	0	0	0	0	0	0	0	0	0	0	0	0	0	0	0	0	0	0	0	0	0	0	0	0	0	0	0	0	0	0	0	0	0	0	0	0	0	0	0	0	0	0	0	0	0	0	0	0	0	0	0	0	0	0	0	0	0	0	0	0	0	0	0	0	0	0	0	0	0	0	0	0	0	0	0	0	0	0	0	4406	4350	4350	4350	4350	4350	4350	4350	4296	4350	4350	4350	4350	4296	4350	4350	4350	4350	4350	4350	4350	4350	4350	4350	4350	4406	4406	4463	4463	4521	4521	4521	4521	4521	4521	4581	4581	4643	4706	4771	4838	4906	4906	4838	5125	5125	5125	5202	5125	5202	5202	5125	5125	5125	5125	5125	5125	5202	5202	5202	5202	5125	5125	5125	5125	5202	5125	5125	5202	5202	5202	5202	5282	5282	5448	5448	5535	5535	5535	5535	5535	5535	5535	5719	5719	5719	5815	5815	6124	6018	6124	6124	6124	6235	6235	6235	6235	6235	6235	6235	6235	6235	6235	6124	6124	6349	6349	6349	6349	6349	6349	6349	6349	6349	6349	6592	6592	0	0	0	0	0	0	0	6853	6853	6853	6853	6853	6853	0	6592	6592	0	0	6592	6468	6468	6468	6853	6720	6720	6853	6720	6853	6720	6720	6592	6592	6468	6468	6468	6720	6720	6720	6720	6720	6720	6720	6720	6720	6853	6853	6853	6853	6853	6720	6853	6992	6720	6720	6720	6720	3510	3510	3659	3659	3698	3659	3659	3659	3698	3659	3659	3621	3621	3583	3583	3583	3583	3583	3546	3546	3546	3546	3546	3546	3546	3546	3546	3546	3546	3510	3546	3546	3546	3546	3546	3510	3546	3510	3510	3510	3546	3546	3546	3546	3510	3546	3546	3546	3546	3546	3546	3546	3546	3546	3546	3583	3583	3583	3583	3583	3583	3583	3583	3583	3621	3621	3621	3659	3659	3698	3698	3698	0	0	0	0	0	0	0	0	0	0	0	0	0	0	0	0	0	0	0	0	0	0	0	0	0	0	0	0	0	0	0	0	0	0	6720	6992	6992	7137	7137	7137	7137	7137	7137	7137	7137	7137	7137	7287	7137	7137	7137	7137	6992	7137	6992	7137	6992	7137	7137	7137	7137	7287	7444	7444	8550	8767	8767	8995	8995	8995	8995	8995	8995	8995	8995	8995	9235	9235	8995	8995	8995	8995	8995	8995	8995	8995	8995	8995	8995	8995	8995	8767	8767	8767	8767	8767	8767	8550	8550	8767	8767	8995	8995	8995	8767	8767	8767	8767	8767	8767	8767	9235	9235	9235	9235	9235	8995	9235	5202	4977	4977	4977	4906	4906	4838	4838	4771	4706	4706	4643	4643	4643	4581	4581	4521	4463	4463	4463	4406	4406	4350	4350	4350	4296	4296	4296	4243	4243	4192	4192	4142	4142	4142	4093	4045	4045	3998	3998	3952	3952	3907	3907	3864	3864	3821	3821	3821	3821	3779	3779	3738	3738	3698	3698	3659	3698	3698	3698	3698	3659	3659	3698	3698	3698	2869	3583	2917	2917	2893	2917	2917	2942	2967	2967	2967	2967	2993	2967	2917	2869	2869	2822	2754	2754	2733	2711	2690	2690	2690	2669	2669	2669	2669	2669	2669	2669	2669	2669	2669	2669	2669	2669	2669	2669	2669	2669	2649	2649	2649	2669	2649	2669	2669	2711	2711	2893	2893	2869	2869	2869	2869	2869	2869	2845	2845	2799	2777	2777	2777	2754	2754	2733	2711	2711	2711	2711	2711	2690	2690	2690	2669	2669	2669	2649	2629	2629	2609	2609	2589	2589	2551	2551	0	0	0	0	0	0	0	0	0	0	0	0	0	0	0	0	0	0	0	0	0	0	0	0	0	0	0	0	0	0	0	0	0	0	0	0
0	0	0	0	0	0	0	0	0	0	0	0	0	0	0	0	0	0	0	0	0	0	0	0	0	0	0	0	0	0	0	0	0	0	0	0	0	0	0	0	0	0	0	0	0	0	0	0	0	0	0	0	0	0	0	0	0	0	0	0	0	0	0	0	0	0	0	0	0	0	0	0	0	0	0	0	0	0	0	0	0	0	0	0	0	0	0	4350	4350	4350	4350	4350	4350	4350	4296	4296	4350	4350	4350	4350	4296	4350	4350	4350	4350	4350	4350	4350	4350	4350	4350	4350	4406	4463	4463	4521	4521	4521	4521	4521	4521	4521	4581	4581	4643	4706	4771	4838	4906	4906	4977	5125	5125	5125	5202	5125	5125	5202	5125	5125	5125	5202	5202	5202	5202	5202	5202	5125	5125	5125	5125	5125	5125	5125	5125	5125	5202	5125	5202	5282	5364	5448	5448	5535	5535	5535	5535	5626	5626	5535	5719	5626	5626	5915	5815	5915	6018	6018	6124	6124	6235	6235	6235	6235	6235	6235	6235	6235	6235	6235	6124	6124	6349	6349	6349	6349	6349	6349	6349	6349	6349	6349	6592	6592	6720	0	0	0	0	0	0	0	0	0	0	0	0	0	0	0	0	0	6592	6468	6468	6468	0	6720	6720	0	6720	6853	6720	6720	6720	6720	6592	6592	6592	6720	6720	6720	6720	6720	6720	6720	6720	6720	6720	6720	6853	6853	6720	6720	6853	6853	6720	6720	6592	6592	0	3583	3583	3659	3698	3659	3659	3698	3659	3659	3659	3621	3621	3583	3583	3583	3583	3583	3583	3546	3546	3546	3546	3546	3546	3546	3546	3546	3546	3510	3546	3546	3546	3546	3546	3510	3546	3510	3546	3546	3546	3546	3546	3546	3546	3546	3546	3546	3546	3546	3546	3546	3546	3546	3546	3546	3583	3583	3583	3583	3583	3583	3583	3621	3621	3659	3659	3659	3659	3698	3738	3738	0	0	0	0	0	0	0	0	0	0	0	0	0	0	0	0	0	0	0	0	0	0	0	0	0	0	0	0	0	0	0	0	0	0	6720	6992	6992	6992	7137	7137	7137	7137	7137	7137	7137	7137	7137	7287	7137	7137	7137	7137	7137	7137	7137	7137	7137	7137	7137	7137	7137	7287	7287	7287	8550	8767	8767	8995	8995	8995	8995	8995	8995	8995	8995	8995	9235	9235	8995	9235	8995	8995	8995	8995	8995	8995	8995	8995	8995	8995	8995	8995	8995	8995	8995	8995	8767	8767	8767	8767	8767	8995	8995	8995	8767	8767	8767	8767	8767	8767	8767	9235	9235	9235	9235	9235	9235	9235	5202	5050	4977	4977	4906	4906	4838	4838	4771	4771	4706	4643	4643	4643	4581	4581	4581	4521	4463	4463	4406	4406	4406	4350	4350	4296	4243	4296	4243	4243	4192	4192	4192	4192	4142	4093	4045	4045	3998	3998	3952	3952	3952	3907	3907	3864	3864	3864	3821	3821	3779	3738	3698	3738	3698	3698	3659	3659	3698	3698	3698	3659	3659	3659	3659	3621	3583	3583	3583	2893	2893	2917	2917	2942	2967	2967	2967	2993	2993	2993	2917	2893	2869	2845	2777	2754	2733	2711	2711	2690	2690	2690	2690	2669	2669	2669	2669	2669	2669	2669	2669	2669	2669	2669	2669	2649	2649	2669	2669	2669	2649	2669	2669	2669	2669	2711	2733	2869	2893	2893	2893	2869	2869	2869	2869	2845	2799	2799	2777	2777	2777	2754	2754	2733	2733	2733	2711	2711	2711	2711	2690	2690	2669	2669	2669	2629	2629	2609	2609	2609	2609	2589	2589	2589	0	0	0	0	0	0	0	0	0	0	0	0	0	0	0	0	0	0	0	0	0	0	0	0	0	0	0	0	0	0	0	0	0	0	0	0
0	0	0	0	0	0	0	0	0	0	0	0	0	0	0	0	0	0	0	0	0	0	0	0	0	0	0	0	0	0	0	0	0	0	0	0	0	0	0	0	0	0	0	0	0	0	0	0	0	0	0	0	0	0	0	0	0	0	0	0	0	0	0	0	0	0	0	0	0	0	0	0	0	0	0	0	0	0	0	0	0	0	0	0	0	0	0	4350	4350	4350	4350	4350	4350	4350	4350	4350	4350	4350	4350	4350	4350	4350	4350	4350	4350	4350	4350	4350	4350	4350	4350	4350	4350	4350	4463	4521	4521	4521	4521	4521	4521	4521	4521	4643	4643	4706	4771	4838	4906	4906	4977	4977	5125	5125	5125	5125	5202	5202	5202	5202	5125	5202	5202	5202	5202	5125	5125	5125	5125	5125	5125	5125	5125	5125	5125	5125	5202	5125	5202	5282	5282	5448	5535	5626	5626	5626	5626	5626	5626	5626	5719	5719	5719	5915	5815	5915	6018	6018	6124	6124	6235	6235	6235	6235	6235	6235	6235	6235	6124	6235	6235	6124	6349	6349	6349	6235	6235	6349	6349	6349	6349	6592	6592	6720	6720	0	0	0	0	0	0	0	0	0	0	0	0	0	0	0	0	0	0	0	0	0	0	0	0	0	0	0	6720	6720	6853	6720	6720	6853	6853	6853	6720	6720	6720	6720	6720	6720	6720	6720	6720	6720	6853	6853	6720	6720	6853	6853	6720	6720	6592	6592	3583	3583	3621	3698	3698	3659	3659	3659	3659	3659	3621	3621	3583	3583	3583	3583	3583	3583	3546	3546	3546	3546	3546	3546	3546	3546	3546	3546	3546	3546	3546	3546	3546	3546	3546	3546	3546	3546	3546	3546	3546	3510	3546	3510	3510	3546	3546	3546	3546	3546	3546	3546	3546	3546	3546	3583	3583	3583	3583	3583	3583	3583	3621	3621	3621	3659	3659	3659	3659	3698	3738	3738	3738	0	0	0	0	0	0	0	0	0	0	0	0	0	0	0	0	0	0	0	0	0	0	0	0	0	0	0	0	0	0	0	0	0	6720	6992	7137	7137	7137	7137	7137	6992	6992	7137	7137	7137	7137	7287	7287	7287	7137	7287	7137	7137	7137	7137	7137	7137	7137	7137	7137	7287	7444	8550	8995	8767	8995	8995	8995	8995	8995	8995	8995	8995	8995	8995	8995	8995	8995	8995	8995	8995	8995	8995	8995	8995	8995	8995	8995	8995	8995	8995	8995	8995	8767	8767	8767	8767	8767	8767	8767	8767	8995	8767	8767	8767	8767	8767	8767	8767	8767	9235	9235	9235	9235	9235	9235	9489	9235	5050	4977	4977	4906	4906	4906	4838	4838	4771	4706	4643	4643	4643	4643	4581	4521	4521	4463	4463	4406	4406	4350	4350	4296	4296	4296	4243	4243	4192	4192	4192	4192	4142	4093	4093	4045	4045	3998	3998	3952	3952	3952	3907	3907	3864	3864	3864	3821	3821	3779	3738	3698	3698	3698	3698	3659	3659	3698	3659	3659	3659	3659	3659	3583	3621	3621	3583	3583	3621	3621	3583	2993	2993	2993	2993	3019	3019	3019	3019	2993	2893	2869	2845	2777	2777	2754	2733	2711	2690	2690	2690	2690	2669	2669	2669	2669	2669	2669	2669	2669	2669	2669	2669	2669	2669	2669	2669	2669	2649	2649	2669	2669	2669	2669	2711	2733	2869	2893	2893	2893	2869	2869	2869	2869	2869	2799	2799	2799	2777	2777	2754	2733	2733	2733	2733	2711	2711	2711	2690	2690	2690	2669	2669	2669	2629	2609	2609	2609	2609	2609	2609	2589	2589	2589	0	0	0	0	0	0	0	0	0	0	0	0	0	0	0	0	0	0	0	0	0	0	0	0	0	0	0	0	0	0	0	0	0	0	0
0	0	0	0	0	0	0	0	0	0	0	0	0	0	0	0	0	0	0	0	0	0	0	0	0	0	0	0	0	0	0	0	0	0	0	0	0	0	0	0	0	0	0	0	0	0	0	0	0	0	0	0	0	0	0	0	0	0	0	0	0	0	0	0	0	0	0	0	0	0	0	0	0	0	0	0	0	0	0	0	0	0	0	0	0	0	0	4350	4350	4350	4350	4350	4350	4350	4350	4350	4350	4350	4350	4350	4350	4350	4350	4350	4350	4350	4350	4350	4350	4350	4350	4350	4350	4350	4406	4463	4463	4463	4463	4463	4463	4521	4581	4581	4643	4706	4771	4771	4838	4838	4977	5050	5125	5125	5125	5125	5202	5202	5202	5202	5125	5202	5202	5202	5125	5125	5125	5125	5125	5125	5125	5125	5125	5125	5125	5125	5202	5202	5202	5282	5282	5448	5535	5626	5626	5626	5535	5626	5626	5626	5719	5719	5719	5915	5915	6018	6018	6018	6124	6124	6235	6235	6235	6235	6235	6235	6235	6235	6235	6124	6124	6124	6124	6235	6235	6235	6235	6349	6349	6349	6468	6468	6592	6592	6592	0	0	0	0	0	0	0	0	0	0	0	0	0	0	0	0	0	0	0	0	0	0	0	0	0	0	0	0	0	6853	6853	6720	6853	6853	6853	0	0	0	0	0	6720	6720	6720	6720	6720	6853	6853	6853	6720	6853	6720	6720	6592	6592	6592	3583	3583	3659	3659	3698	3659	3659	3659	3659	3659	3621	3621	3583	3583	3583	3583	3583	3583	3546	3546	3546	3546	3546	3546	3546	3546	3546	3546	3546	3546	3546	3546	3546	3546	3546	3546	3546	3546	3546	3510	3510	3510	3546	3546	3510	3510	3510	3510	3546	3546	3546	3546	3546	3546	3546	3583	3583	3583	3583	3583	3583	3583	3621	3621	3621	3659	3659	3659	3698	3738	3738	3779	3779	0	0	0	0	0	0	0	0	0	0	0	0	0	0	0	0	0	0	0	0	0	0	0	0	0	0	0	0	0	0	0	0	0	6720	7137	7137	7137	7137	7137	7137	6992	6992	7137	7137	7137	7137	7287	7287	7287	7137	7137	7137	7137	7137	7137	7137	7137	7137	7287	7137	7287	7959	8550	8767	8767	8767	8767	8995	8995	8995	8995	8995	8995	8995	8995	8995	8995	8995	8995	8995	8995	8995	8995	8995	8995	8767	8995	8995	8995	9235	8995	8995	8995	8995	8767	8767	8767	8767	8767	8767	8767	8995	8767	8767	8767	8767	8767	8767	8767	8767	9235	9235	9235	9235	9235	9235	9235	4977	4977	4977	4977	4906	4906	4906	4906	4838	4706	4706	4643	4643	4643	4581	4581	4521	4521	4463	4463	4406	4406	4406	4350	4296	4296	4243	4243	4243	4243	4192	4192	4192	4142	4093	4093	4045	4045	4045	3998	3998	3952	3952	3952	3907	3864	3864	3821	3821	3821	3779	3698	3698	3738	3698	3698	3698	3698	3698	3698	3659	3659	3621	3621	3583	3583	3583	3583	3583	3583	3583	3583	3546	3546	3019	3019	3019	3019	3019	3019	2993	2893	2893	2845	2822	2777	2754	2733	2711	2690	2690	2690	2690	2669	2669	2669	2669	2669	2669	2669	2669	2669	2669	2669	2669	2669	2669	2669	2669	2649	2649	2669	2649	2669	2669	2711	2733	2869	2893	2893	2893	2893	2869	2869	2869	2845	2799	2799	2777	2777	2754	2754	2754	2733	2733	2733	2711	2711	2711	2690	2690	2669	2649	2629	2649	2629	2629	2609	2609	2609	2609	2609	2589	2589	2589	0	0	0	0	0	0	0	0	0	0	0	0	0	0	0	0	0	0	0	0	0	0	0	0	0	0	0	0	0	0	0	0	0	0	0
0	0	0	0	0	0	0	0	0	0	0	0	0	0	0	0	0	0	0	0	0	0	0	0	0	0	0	0	0	0	0	0	0	0	0	0	0	0	0	0	0	0	0	0	0	0	0	0	0	0	0	0	0	0	0	0	0	0	0	0	0	0	0	0	0	0	0	0	0	0	0	0	0	0	0	0	0	0	0	0	0	0	0	0	0	0	4350	4350	4350	4350	4350	4350	4350	4350	4350	4350	4350	4350	4350	4350	4350	4350	4350	4350	4350	4350	4350	4350	4350	4350	4350	4350	4350	4350	4350	4406	4463	4463	4463	4463	4463	4521	4581	4581	4706	4771	4771	4838	4838	4906	5050	5050	5125	5125	5125	5202	5202	5202	5202	5202	5125	5202	5202	5202	5125	5125	5125	5125	5125	5125	5050	5050	5125	5202	5202	5202	5202	5202	5282	5364	5364	5448	5535	5626	5626	5626	5626	5626	5719	5719	5719	5815	5815	5815	5915	5915	6018	6018	6124	6124	6235	6235	6235	6124	6235	6235	6235	6235	6235	6124	6124	6124	6235	6235	6235	6235	6235	6235	6349	6349	6349	6468	6592	6592	6592	0	0	0	0	0	0	0	0	0	0	0	0	0	0	0	0	0	0	0	0	0	0	0	0	0	0	0	0	0	6853	6853	6720	6853	6853	0	0	0	0	0	0	0	0	0	0	6720	6853	6853	6853	6720	6853	6720	6720	6592	6592	6592	3659	3659	3659	3659	3698	3659	3659	3659	3659	3659	3621	3621	3583	3583	3583	3583	3583	3546	3546	3546	3546	3546	3546	3546	3546	3546	3546	3546	3546	3546	3546	3546	3546	3546	3546	3546	3546	3546	3546	3510	3510	3510	3510	3510	3510	3546	3546	3546	3546	3546	3546	3546	3546	3546	3546	3583	3583	3583	3583	3583	3583	3583	3621	3621	3621	3659	3659	3659	3698	3738	3738	3779	3779	0	0	0	0	0	0	0	0	0	0	0	0	0	0	0	0	0	0	0	0	0	0	0	0	0	0	0	0	0	0	0	0	0	6992	7137	7137	7137	7137	7137	7137	6992	6992	7137	7137	7137	7137	7287	7287	7287	7287	7287	7287	7287	7137	7137	7137	7137	7287	7287	7287	7444	8343	8767	8767	8767	8767	8767	8767	8995	8767	8995	8995	8995	8995	8995	8995	8995	8995	8995	8995	8995	8995	8767	8767	8767	8767	8767	8995	8995	8995	8995	8995	8995	8767	8767	8767	8767	8767	8767	8767	8995	8995	8995	8767	8767	8767	8767	8767	8767	8767	9235	9235	9235	8995	9235	8995	9235	9235	4977	4977	4906	4906	4906	4906	4838	4771	4706	4706	4643	4643	4643	4643	4581	4581	4463	4463	4463	4406	4406	4406	4350	4296	4296	4243	4243	4243	4192	4192	4192	4192	4142	4093	4093	4045	4045	4045	4045	3998	3998	3998	3952	3864	3864	3821	3821	3821	3779	3779	3738	3698	3779	3738	3698	3698	3698	3698	3698	3659	3621	3621	3621	3583	3583	3583	3583	3546	3546	3546	3546	3546	3475	3475	3019	3019	3019	2967	2967	2917	2893	2869	2845	2822	2799	2754	2733	2711	2690	2690	2690	2690	2669	2669	2669	2669	2669	2669	2669	2669	2669	2669	2669	2669	2669	2669	2669	2669	2669	2669	2649	2649	2669	2669	2711	2733	2893	2893	2893	2893	2893	2869	2869	2869	2799	2799	2777	2777	2754	2754	2754	2733	2733	2733	2733	2711	2711	2711	2690	2669	2669	2649	2629	2649	2629	2629	2629	2609	2609	2609	2609	2589	2589	2589	0	0	0	0	0	0	0	0	0	0	0	0	0	0	0	0	0	0	0	0	0	0	0	0	0	0	0	0	0	0	0	0	0	0	0
0	0	0	0	0	0	0	0	0	0	0	0	0	0	0	0	0	0	0	0	0	0	0	0	0	0	0	0	0	0	0	0	0	0	0	0	0	0	0	0	0	0	0	0	0	0	0	0	0	0	0	0	0	0	0	0	0	0	0	0	0	0	0	0	0	0	0	0	0	0	0	0	0	0	0	0	0	0	0	0	0	0	0	0	0	4350	4350	4350	4350	4350	4350	4350	4350	4350	4350	4350	4350	4350	4350	4350	4350	4350	4350	4350	4350	4350	4350	4350	4350	4350	4350	4350	4350	4350	4350	4406	4406	4463	4463	4521	4521	4581	4643	4643	4771	4771	4838	4838	4838	4977	5050	5050	5125	5125	5125	5125	5202	5202	5125	5125	5125	5125	5125	5202	5125	5125	5125	5125	5125	5125	5050	5050	5050	5202	5202	5202	5202	5202	5282	5364	5364	5448	5535	5535	5626	5626	5626	5719	5719	5815	5719	5719	5719	5915	5915	5915	5915	6018	6018	6018	6124	6124	6124	6124	6124	6235	6235	6235	6235	6235	6124	6124	6235	6235	6235	6235	6349	6235	6349	6349	6349	6468	6468	6592	6592	0	0	0	0	0	0	0	0	0	0	0	0	0	0	0	0	0	0	0	0	0	0	0	0	0	0	0	0	0	0	0	6720	6720	6720	0	6720	6720	0	0	0	0	0	0	0	0	0	6853	6853	6720	6853	6720	6720	6720	6720	6720	6720	3659	3659	3698	3698	3698	3698	3698	3659	3659	3621	3583	3583	3583	3583	3546	3546	3546	3546	3546	3546	3546	3546	3546	3546	3546	3546	3546	3546	3546	3546	3546	3546	3546	3546	3546	3546	3510	3510	3510	3510	3510	3510	3510	3510	3546	3546	3546	3546	3546	3546	3546	3546	3546	3546	3583	3583	3583	3583	3583	3583	3621	3621	3621	3621	3659	3659	3659	3659	3738	3738	3738	3779	3779	0	0	0	0	0	0	0	0	0	0	0	0	0	0	0	0	0	0	0	0	0	0	0	0	0	0	0	0	0	0	0	0	6992	7137	7137	7137	7137	7137	7137	6992	6992	7137	7137	7137	7137	7287	7287	7137	7137	7137	7287	7137	7137	7137	7137	7137	7287	7444	7444	7779	8343	8550	8767	8767	8767	8995	8767	8995	8767	8767	8767	8767	8995	8995	8995	8995	8995	8995	8995	8995	8995	8767	8767	8767	8767	8767	8995	8995	8995	8995	8995	8995	8995	8767	8767	8767	8767	8767	8767	8767	8995	8995	8767	8767	8767	8767	8767	8767	8767	9235	9235	9235	9235	8995	8995	9235	9489	5050	4977	4977	4906	4906	4906	4838	4771	4706	4706	4706	4643	4643	4643	4643	4521	4463	4463	4463	4406	4406	4406	4350	4296	4296	4296	4243	4243	4243	4192	4192	4192	4142	4093	4142	4045	4045	4045	4045	3998	3998	3952	3952	3864	3864	3821	3821	3821	3821	3821	3738	3698	3738	3738	3698	3698	3698	3698	3659	3659	3621	3621	3583	3583	3583	3583	3583	3546	3546	3546	3510	3475	3475	3406	3440	3406	3406	2967	2967	2893	2893	2869	2845	2822	2799	2777	2733	2690	2690	2690	2690	2669	2669	2669	2669	2669	2669	2669	2669	2669	2669	2669	2669	2669	2669	2669	2669	2669	2669	2669	2669	2649	2669	2669	2711	2733	2893	2893	2893	2893	2893	2869	2869	2869	2822	2799	2799	2777	2754	2754	2754	2754	2754	2733	2733	2711	2711	2711	2711	2690	2669	2649	2629	2629	2629	2629	2629	2609	2609	2609	2609	2609	2589	2589	0	0	0	0	0	0	0	0	0	0	0	0	0	0	0	0	0	0	0	0	0	0	0	0	0	0	0	0	0	0	0	0	0	0	0
0	0	0	0	0	0	0	0	0	0	0	0	0	0	0	0	0	0	0	0	0	0	0	0	0	0	0	0	0	0	0	0	0	0	0	0	0	0	0	0	0	0	0	0	0	0	0	0	0	0	0	0	0	0	0	0	0	0	0	0	0	0	0	0	0	0	0	0	0	0	0	0	0	0	0	0	0	0	0	0	0	0	0	0	0	4350	4350	4350	4350	4350	4350	4350	4350	4350	4350	4350	4350	4350	4350	4350	4350	4350	4350	4350	4350	4350	4350	4350	4350	4350	4350	4350	4406	4350	4350	4406	4406	4406	4521	4521	4521	4581	4643	4706	4771	4771	4838	4838	4838	4977	4977	5050	5125	5125	5125	5202	5202	5202	5202	5202	5125	5125	5125	5125	5125	5125	5125	5125	5125	5125	5050	5050	5050	5125	5125	5125	5202	5202	5282	5282	5364	5448	5535	5626	5626	5626	5626	5626	5815	5815	5719	5719	5719	5815	5815	5915	5915	6018	6018	6124	6124	6124	6124	6124	6124	6235	6235	6235	6235	6235	6235	6124	6235	6235	6235	6235	6349	6349	6349	6349	6349	6468	6592	6720	6720	0	0	0	0	0	0	0	0	0	0	0	0	0	0	0	0	0	0	0	0	0	0	0	0	0	0	0	0	0	0	6853	6720	6720	6720	6720	6720	6720	0	0	0	0	0	0	0	0	0	6853	6853	6720	6853	6853	6853	6853	6853	6853	6853	6992	6992	3738	3698	3698	3698	3698	3698	3659	3621	3583	3583	3583	3583	3546	3546	3546	3546	3546	3546	3546	3546	3546	3546	3546	3546	3546	3546	3510	3510	3510	3510	3546	3546	3546	3546	3510	3510	3510	3510	3510	3510	3546	3546	3546	3546	3546	3546	3546	3546	3546	3546	3546	3546	3583	3583	3583	3583	3583	3621	3621	3621	3621	3659	3659	3659	3659	3659	3738	3738	3738	3738	3738	0	0	0	0	0	0	0	0	0	0	0	0	0	0	0	0	0	0	0	0	0	0	0	0	0	0	0	0	0	0	0	0	6992	7137	7137	7137	7137	7137	6992	6992	6992	7137	7137	7137	7137	7287	7287	7287	7287	7287	7287	7287	7287	7287	7287	7287	7287	7444	7608	7959	8343	8550	8767	8767	8767	8767	8767	8767	8767	8767	8767	8767	8767	8767	8995	8995	8995	8995	8995	8767	8767	8767	8767	8767	8767	8767	8995	8995	8995	8995	8995	9235	8995	8767	8767	8550	8550	8550	8767	8767	8767	8767	8767	8767	8767	8767	8767	8767	8767	8995	9235	9235	9235	9235	9235	9489	9489	5050	5050	5050	4977	4906	4906	4838	4771	4706	4706	4706	4706	4643	4643	4643	4521	4463	4463	4463	4406	4406	4406	4350	4296	4296	4296	4243	4243	4243	4192	4192	4192	4142	4093	4045	4045	4045	4045	3998	3998	3998	3998	3952	3864	3864	3864	3821	3821	3821	3821	3779	3698	3738	3738	3738	3698	3698	3698	3659	3659	3659	3621	3621	3583	3583	3583	3583	3546	3546	3546	3510	3475	3440	3406	3440	3406	3309	3309	3309	2845	2845	2845	2845	2822	2777	2754	2733	2690	2690	2690	2690	2669	2669	2669	2669	2669	2669	2669	2669	2669	2669	2669	2669	2669	2669	2669	2669	2669	2669	2669	2649	2669	2669	2669	2711	2754	2893	2893	2893	2893	2893	2869	2869	2869	2869	2799	2799	2777	2754	2777	2754	2754	2754	2733	2733	2711	2711	2711	2690	2690	2669	2629	2629	2629	2629	2629	2629	2629	2609	2609	2609	2609	2589	2589	0	0	0	0	0	0	0	0	0	0	0	0	0	0	0	0	0	0	0	0	0	0	0	0	0	0	0	0	0	0	0	0	0	0	0
0	0	0	0	0	0	0	0	0	0	0	0	0	0	0	0	0	0	0	0	0	0	0	0	0	0	0	0	0	0	0	0	0	0	0	0	0	0	0	0	0	0	0	0	0	0	0	0	0	0	0	0	0	0	0	0	0	0	0	0	0	0	0	0	0	0	0	0	0	0	0	0	0	0	0	0	0	0	0	0	0	0	0	0	0	4350	4406	4350	4350	4350	4350	4350	4350	4350	4350	4350	4350	4350	4350	4350	4350	4350	4350	4350	4350	4350	4350	4350	4350	4350	4406	4296	4296	4406	4406	4463	4406	4406	4521	4521	4521	4581	4706	4771	4838	4838	4838	4906	4906	4977	5050	5050	5125	5202	5202	5202	5202	5202	5202	5202	5125	5125	5125	5125	5125	5125	5125	5125	5125	5125	5125	5125	5125	5202	5202	5202	5202	5202	5202	5282	5364	5364	5535	5535	5719	5719	5626	5626	5719	5815	5719	5719	5815	5915	5915	5915	6018	5915	6018	6018	6124	6124	6124	6124	6124	6235	6235	6235	6235	6235	6124	6235	6235	6235	6235	6235	6235	6235	6349	6349	6468	6468	6592	6720	6720	0	0	0	0	0	0	0	0	0	0	0	0	0	0	0	0	0	0	0	0	0	0	0	0	0	0	0	0	0	6853	6853	6853	6853	6853	6853	6853	6853	0	0	0	0	0	0	0	0	0	6720	6720	6720	6720	6853	6853	6853	6853	6853	6853	6992	6992	3738	3698	3659	3698	3698	3698	3659	3621	3583	3583	3583	3583	3546	3546	3546	3546	3546	3546	3546	3546	3546	3546	3546	3546	3546	3510	3510	3510	3510	3546	3546	3546	3546	3546	3510	3510	3510	3510	3510	3510	3546	3546	3546	3546	3546	3546	3546	3546	3546	3546	3546	3546	3583	3583	3583	3583	3583	3583	3621	3621	3621	3659	3659	3659	3659	3659	3659	3738	3738	3698	3698	0	0	0	0	0	0	7137	7137	0	0	0	0	0	0	0	0	0	0	0	0	0	0	0	0	0	0	0	0	0	0	0	0	6992	6992	6992	7137	7137	7137	6992	6992	7137	7137	7137	7137	7137	7137	7287	7287	7287	7287	7287	7287	7287	7287	7287	7287	7287	7444	7287	7444	8146	8146	8767	8767	8767	8767	8767	8767	8767	8767	8767	8767	8767	8767	8995	8995	8995	8995	8995	8767	8767	8767	8767	8767	8767	8767	8995	8995	8995	8995	8995	9235	9235	9235	9235	8550	8550	8550	8767	8767	8767	8767	8767	8767	8767	8767	8767	8767	8767	8767	9235	9235	9235	9235	9489	9489	0	0	5050	4977	4906	4977	4906	4838	4771	4706	4706	4643	4643	4643	4643	4521	4521	4463	4463	4463	4463	4406	4406	4350	4350	4296	4296	4243	4243	4192	4192	4192	4192	4142	4045	4045	4045	4045	4045	3998	3998	3952	3998	3907	3864	3864	3864	3821	3821	3821	3821	3779	3738	3779	3738	3738	3698	3698	3698	3659	3659	3621	3621	3621	3583	3583	3583	3583	3583	3546	3546	3440	3406	3406	3406	3373	3341	3341	3309	3309	2845	2845	2822	2822	2799	2777	2777	2754	2733	2711	2690	2690	2669	2669	2669	2669	2669	2669	2649	2669	2669	2649	2649	2649	2669	2669	2669	2649	2669	2669	2669	2669	2669	2669	2690	2711	2845	2893	2893	2893	2893	2893	2869	2869	2869	2869	2799	2799	2777	2777	2754	2754	2777	2754	2733	2733	2711	2711	2711	2711	2690	2669	2629	2629	2629	2629	2629	2629	2609	2609	2589	2589	2589	2570	2570	0	0	0	0	0	0	0	0	0	0	0	0	0	0	0	0	0	0	0	0	0	0	0	0	0	0	0	0	0	0	0	0	0	0	0
0	0	0	0	0	0	0	0	0	0	0	0	0	0	0	0	0	0	0	0	0	0	0	0	0	0	0	0	0	0	0	0	0	0	0	0	0	0	0	0	0	0	0	0	0	0	0	0	0	0	0	0	0	0	0	0	0	0	0	0	0	0	0	0	0	0	0	0	0	0	0	0	0	0	0	0	0	0	0	0	0	0	0	0	0	4406	4350	4350	4350	4350	4350	4350	4350	4350	4350	4350	4350	4350	4350	4350	4350	4350	4350	4350	4350	4350	4350	4296	4350	4350	4350	4296	4296	4296	4350	4463	4463	4463	4463	4706	4706	4706	4706	4771	4838	4838	4838	4838	4838	4906	4977	5050	5125	5202	5202	5202	5202	5202	5202	5202	5125	5125	5125	5125	5125	5125	5125	5125	5125	5125	5125	5125	5125	5202	5202	5202	5202	5202	5202	5282	5364	5364	5364	5626	5626	5626	5626	5626	5719	5719	5815	5815	5815	5815	5815	5915	5915	5915	6018	6124	6124	6124	6124	6124	6124	6124	6124	6235	6235	6235	6124	6124	6235	6235	6124	6235	6235	6235	6349	6349	6349	6468	6468	6592	6592	0	0	0	0	0	0	0	0	0	0	0	0	0	0	0	0	0	0	0	0	0	0	0	0	0	0	0	0	6720	6720	6853	6720	6853	6720	6720	6592	6592	0	0	0	0	0	0	0	0	0	6720	6720	6592	6720	6720	6853	6853	6853	6853	6992	6992	6992	3698	3698	3659	3659	3698	3659	3659	3621	3583	3583	3583	3583	3546	3546	3546	3546	3546	3546	3546	3546	3546	3546	3546	3546	3546	3546	3546	3546	3546	3546	3546	3546	3546	3546	3510	3510	3510	3510	3510	3546	3546	3546	3546	3546	3546	3546	3546	3546	3546	3546	3546	3546	3583	3583	3583	3583	3583	3621	3621	3621	3621	3621	3659	3659	3621	3659	3659	3738	3621	3621	7287	7287	7137	7137	7137	7137	7137	7137	6992	6992	0	0	0	0	0	0	0	0	0	0	0	0	0	7137	7137	0	0	0	0	0	0	0	0	6992	6992	6992	7137	7137	6992	6992	6992	6992	7137	7137	7137	7137	7137	7287	7287	7287	7287	7287	7287	7287	7287	7287	7287	7287	7287	7287	7444	7959	8146	8550	8767	8767	8767	8767	8767	8767	8767	8767	8767	8995	8995	8995	8995	8995	8995	8995	8767	8767	8767	8767	8767	8767	8767	8995	8995	8995	8995	8995	8995	8995	9235	9235	8550	8550	8550	8767	8767	8767	8767	8767	8767	8767	8767	8767	8767	8767	9235	9235	9235	9235	9235	9235	9235	0	0	5050	5050	4977	4977	4906	4838	4771	4706	4643	4643	4581	4581	4581	4521	4521	4463	4463	4463	4463	4406	4406	4350	4296	4296	4243	4243	4243	4192	4192	4192	4142	4093	4045	3998	3998	4045	3998	3998	3998	3998	3952	3907	3864	3864	3864	3821	3821	3821	3821	3779	3698	3738	3779	3738	3698	3698	3698	3698	3659	3659	3621	3621	3583	3583	3583	3583	3583	3546	3475	3440	3406	3406	3406	3406	3373	3373	3309	3373	3373	3373	3373	2777	2777	2777	2777	2754	2733	2711	2711	2669	2669	2669	2669	2669	2669	2669	2649	2669	2669	2649	2649	2669	2669	2669	2669	2649	2669	2669	2669	2669	2669	2669	2690	2733	2845	2893	2893	2893	2893	2893	2869	2869	2869	2869	2777	2754	2777	2777	2777	2754	2777	2754	2754	2733	2711	2711	2711	2711	2669	2669	2669	2629	2629	2629	2609	2609	2609	2609	2589	2589	2570	2570	2570	0	0	0	0	0	0	0	0	0	0	0	0	0	0	0	0	0	0	0	0	0	0	0	0	0	0	0	0	0	0	0	0	0	0	0
0	0	0	0	0	0	0	0	0	0	0	0	0	0	0	0	0	0	0	0	0	0	0	0	0	0	0	0	0	0	0	0	0	0	0	0	0	0	0	0	0	0	0	0	0	0	0	0	0	0	0	0	0	0	0	0	0	0	0	0	0	0	0	0	0	0	0	0	0	0	0	0	0	0	0	0	0	0	0	0	0	0	0	0	0	4406	4350	4350	4350	4350	4350	4350	4350	4350	4350	4350	4350	4350	4350	4350	4350	4350	4350	4350	4350	4350	4296	4296	4350	4296	4296	4296	4296	4296	4296	4463	4463	4463	4463	4706	4706	4706	4771	4771	4838	4838	4838	4838	4838	4906	4977	5050	5125	5202	5202	5202	5202	5202	5202	5202	5125	5125	5125	5125	5125	5050	5125	5125	5125	5125	5125	5125	5125	5202	5202	5202	5202	5202	5202	5202	5282	5364	5535	5448	5535	5535	5626	5626	5626	5626	5719	5815	5815	5815	5815	5915	5915	6018	6018	6124	6124	6124	6124	6018	6018	6124	6124	6124	6124	6124	6124	6124	6235	6235	6124	6124	6235	6235	6349	6468	6349	6468	6468	6468	6468	0	0	0	0	0	0	0	0	0	0	0	0	0	0	0	0	0	0	0	0	0	0	0	0	0	6720	6720	6720	6592	6592	6720	6592	6720	6592	6592	6468	6468	6468	6468	0	0	0	0	0	0	0	0	6720	6592	6720	6853	6853	6853	6992	6992	6853	6992	6992	6992	3698	3659	3659	3698	3698	3659	3621	3583	3583	3583	3583	3546	3546	3546	3546	3546	3546	3546	3546	3546	3546	3546	3546	3546	3510	3546	3510	3510	3546	3510	3510	3510	3510	3510	3510	3510	3510	3510	3510	3546	3546	3546	3546	3546	3546	3546	3510	3510	3510	3546	3510	3583	3583	3583	3583	3583	3621	3621	3621	3621	3621	3621	3621	3621	3621	3583	3583	3621	7137	7137	7137	7137	7137	7137	7137	7137	7137	6992	6992	0	0	0	0	0	0	6853	6853	6992	7137	7137	7137	7137	7137	7137	7137	7137	0	0	0	0	0	0	6853	6992	6992	6992	6992	6992	6992	6992	6992	7137	7137	7137	7137	7137	7287	7287	7137	7137	7287	7287	7287	7137	7287	7287	7287	7287	7287	7444	7779	8146	8343	8550	8767	8767	8767	8767	8767	8767	8995	8767	8995	8995	8995	8995	8995	8995	8995	8767	8767	8767	8767	8767	8767	8995	8995	8995	8995	8995	8995	8995	8995	8995	8995	0	8550	8550	8767	8767	8767	8767	8767	8767	8767	8767	8767	8767	8767	9235	9235	9235	9235	9235	9235	9235	0	0	5050	5050	5050	4977	4906	4838	4771	4706	4643	4581	4581	4581	4581	4521	4521	4463	4463	4463	4406	4406	4350	4350	4296	4296	4243	4243	4243	4192	4243	4192	4142	4093	4045	4045	4045	3998	3998	3998	3998	3952	3952	3907	3864	3864	3864	3864	3821	3821	3821	3779	3738	3779	3738	3738	3698	3698	3698	3698	3659	3659	3621	3621	3621	3583	3583	3546	3583	3546	3440	3440	3406	3406	3406	3406	3406	3373	3373	3373	3373	3373	3373	2777	2777	2777	2754	2754	2711	2711	2690	2690	2690	2669	2669	2669	2669	2669	2669	2669	2669	2669	2669	2669	2669	2669	2669	2669	2669	2669	2669	2669	2669	2669	2690	2733	2845	2869	2893	2893	2893	2893	2869	2869	2869	2845	2777	2777	2777	2754	2754	2754	2754	2754	2754	2754	2711	2711	2711	2711	2690	2629	2629	2629	2629	2629	2629	2609	2609	2589	2589	2589	2570	2551	2551	0	0	0	0	0	0	0	0	0	0	0	0	0	0	0	0	0	0	0	0	0	0	0	0	0	0	0	0	0	0	0	0	0	0	0
0	0	0	0	0	0	0	0	0	0	0	0	0	0	0	0	0	0	0	0	0	0	0	0	0	0	0	0	0	0	0	0	0	0	0	0	0	0	0	0	0	0	0	0	0	0	0	0	0	0	0	0	0	0	0	0	0	0	0	0	0	0	0	0	0	0	0	0	0	0	0	0	0	0	0	0	0	0	0	0	0	0	0	0	4350	4350	4350	4350	4350	4350	4350	4350	4350	4350	4350	4350	4350	4350	4350	4350	4350	4350	4350	4350	4350	4350	4350	4350	4350	4350	4296	4296	4296	4296	4296	4463	4463	4463	0	0	4706	4706	4771	4771	4838	4838	4838	4838	4838	4906	5050	5125	5125	5202	5202	5202	5202	5202	5125	5125	5125	5125	5125	5125	5125	5125	5125	5125	5125	5125	5125	5125	5125	5202	5202	5202	5202	5202	5202	5202	5282	5364	5448	5535	5535	5535	5626	5626	5626	5626	5815	5815	5815	5915	5815	5915	5915	6018	6018	6124	6124	6124	6124	6018	6018	6018	6124	6124	6124	6124	6124	6124	6235	6235	6124	6235	6235	6235	6235	6235	6235	6349	6349	6349	6349	0	0	0	0	0	0	0	0	0	0	0	0	0	0	0	0	0	0	0	0	0	0	0	0	6720	6720	6720	6720	6592	6592	6592	6592	6592	6592	6592	6468	6349	6349	6349	0	0	0	0	0	0	0	0	6720	6592	6720	6720	6992	6853	6992	6992	6992	6992	6992	6992	6992	3698	3738	3738	3698	3698	3621	3583	3583	3583	3583	3583	3583	3546	3583	3546	3546	3546	3546	3546	3546	3546	3546	3546	3510	3510	3510	3510	3510	3510	3510	3510	3510	3510	3510	3510	3510	3510	3510	3546	3546	3546	3546	3546	3546	3546	3546	3510	3510	3510	3510	3546	3546	3583	3583	3583	3621	3621	3621	3621	3621	3621	3621	3621	3583	3583	3583	3621	7137	7137	7137	7137	7137	7137	7137	7137	7137	6992	6992	6853	6853	6853	0	0	0	6853	6992	7137	7137	7137	7137	7137	7137	7137	7287	7287	7287	7287	7287	0	0	0	6992	6992	6992	7137	7137	6992	7137	6992	7137	7137	7137	7137	7137	7137	7137	7287	7137	7287	7287	7287	7287	7137	7287	7287	7287	7287	7287	7444	7779	7959	8146	8550	8767	8767	8995	8767	8995	8995	8995	8995	8995	8995	8995	8995	8995	8995	8995	8767	8767	8767	8767	8995	8995	8995	8995	8995	8995	8995	8995	8995	8995	8995	8995	8995	8995	8767	8767	8767	8767	8767	8767	8767	8767	8767	8767	8767	8767	9235	9235	9489	9489	9235	9235	0	0	0	5050	5050	4977	4906	4906	4771	4771	4706	4643	4643	4581	4581	4581	4521	4521	4463	4463	4463	4463	4406	4350	4350	4350	4296	4243	4243	4192	4192	4192	4142	4142	4045	4045	4045	4045	3998	3998	3998	3952	3952	3952	3907	3864	3864	3864	3864	3821	3821	3821	3779	3738	3779	3738	3698	3698	3698	3698	3659	3659	3621	3583	3583	3621	3546	3546	3546	3510	3475	3440	3440	3406	3406	3406	3406	3406	3373	3373	3341	3373	3341	3341	3341	2777	2777	2754	2754	2733	2711	2711	2690	2690	2690	2669	2669	2669	2669	2649	2669	2669	2669	2669	2669	2669	2669	2669	2669	2649	2649	2669	2669	2669	2669	2690	2733	2799	2869	2869	2893	2893	2893	2869	2845	2845	2777	2777	2754	2777	2754	2754	2754	2754	2754	2754	2754	2711	2711	2690	2711	2669	2669	2669	2629	2629	2629	2609	2609	2609	2589	2570	2589	2570	2551	2551	0	0	0	0	0	0	0	0	0	0	0	0	0	0	0	0	0	0	0	0	0	0	0	0	0	0	0	0	0	0	0	0	0	0	0
0	0	0	0	0	0	0	0	0	0	0	0	0	0	0	0	0	0	0	0	0	0	0	0	0	0	0	0	0	0	0	0	0	0	0	0	0	0	0	0	0	0	0	0	0	0	0	0	0	0	0	0	0	0	0	0	0	0	0	0	0	0	0	0	0	0	0	0	0	0	0	0	0	0	0	0	0	0	0	0	0	0	0	0	4350	4350	4296	4296	4350	4350	4350	4350	4350	4350	4350	4350	4350	4350	4350	4350	4350	4350	4350	4350	4350	4350	4350	4350	4350	4350	4296	4296	4350	4296	4350	4350	4463	4463	0	0	4706	4706	4771	4771	4838	4838	4838	4906	4906	4906	4977	5125	5050	5125	5202	5202	5202	5202	5125	5125	5125	5125	5125	5050	5125	5050	5125	5125	5125	5125	5125	5125	5125	5125	5125	5202	5202	5202	5202	5282	5282	5448	5448	5448	5535	5535	5535	5626	5626	5719	5815	5815	5815	5815	5815	5915	5915	5915	5915	6124	6235	6235	6124	6124	6124	6124	6124	6124	6124	6124	6124	6124	6235	6235	6235	6235	6235	6349	6349	6349	6349	6349	6349	6349	6349	0	0	0	0	0	0	0	0	0	0	0	0	0	0	0	0	0	0	0	0	0	0	0	0	6853	6720	6720	6720	6592	6592	6592	6468	6592	6468	6468	6468	6468	6468	6349	6349	0	0	0	0	0	0	0	6720	6592	6720	6992	6992	6992	6992	6992	6992	6992	6992	6992	6992	3698	3738	3738	3698	3698	3659	3621	3621	3583	3583	3583	3583	3546	3583	3546	3546	3546	3546	3546	3546	3546	3546	3546	3510	3546	3510	3510	3510	3510	3510	3510	3510	3510	3510	3510	3510	3510	3510	3546	3546	3546	3546	3546	3546	3546	3510	3510	3546	3546	3510	3546	3546	3546	3583	3583	3583	3583	3583	3621	3621	3621	3621	3621	3583	3583	3583	0	7137	7137	7137	6992	6992	6992	6992	6992	6992	6992	6992	6853	6853	6853	6992	6992	6992	6992	7137	7137	7287	7137	7137	7137	7137	7137	7137	7287	7287	7287	7287	0	0	7137	7137	6992	6992	7137	6992	7137	6992	7137	6992	6992	6992	6992	6992	7137	7137	7137	7137	7137	7287	7287	7137	7137	7137	7137	7287	7287	7137	7287	7444	7779	8146	8550	8767	8767	8995	8995	8995	8995	8995	8995	8995	8995	8995	8995	8995	8995	8995	8767	8767	8767	8767	8995	8995	8995	9235	9235	8995	8995	8995	8995	8995	8995	8995	8995	8995	8767	8767	8995	8767	8767	8767	8767	8767	8767	8767	8767	8767	9235	9235	9235	9235	0	0	0	0	0	5050	4977	4906	4906	4838	4771	4771	4706	4706	4643	4643	4581	4581	4581	4581	4521	4521	4463	4463	4406	4350	4350	4296	4296	4243	4243	4192	4192	4142	4093	4093	4045	4045	4045	4045	3998	3998	3952	3952	3952	3952	3907	3864	3864	3864	3864	3821	3821	3779	3779	3738	3779	3738	3698	3698	3698	3698	3659	3659	3621	3583	3583	3583	3546	3546	3510	3510	3510	3440	3440	3440	3406	3406	3406	3406	3373	3341	3341	3341	3309	3309	3341	2777	2777	2754	2754	2733	2711	2711	2690	2669	2669	2669	2669	2669	2669	2669	2669	2669	2669	2669	2669	2669	2669	2669	2649	2649	2649	2669	2669	2669	2669	2690	2733	2733	2869	2893	2893	2893	2893	2893	2893	2893	2869	2777	2754	2754	2754	2754	2754	2754	2754	2754	2733	2711	2711	2690	2711	2669	2669	2669	2649	2629	2629	2609	2609	2609	2589	2589	2589	2570	2551	2551	0	0	0	0	0	0	0	0	0	0	0	0	0	0	0	0	0	0	0	0	0	0	0	0	0	0	0	0	0	0	0	0	0	0	0
0	0	0	0	0	0	0	0	0	0	0	0	0	0	0	0	0	0	0	0	0	0	0	0	0	0	0	0	0	0	0	0	0	0	0	0	0	0	0	0	0	0	0	0	0	0	0	0	0	0	0	0	0	0	0	0	0	0	0	0	0	0	0	0	0	0	0	0	0	0	0	0	0	0	0	0	0	0	0	0	0	0	0	0	4350	4350	4350	4296	4350	4350	4350	4350	4350	4350	4350	4350	4350	4350	4350	4350	4350	4350	4350	4350	4350	4350	4350	4350	4350	4350	4406	4406	4350	4350	4350	4350	4463	4463	0	0	0	4706	4706	4771	4771	4838	4838	4838	4906	4977	5050	5125	5125	5125	5202	5202	5125	5202	5125	5125	5125	5050	5050	5050	5125	5125	5125	5125	5125	5125	5202	5202	5202	5125	5125	5125	5125	5202	5202	5202	5282	5364	5448	5448	5535	5448	5535	5535	5626	5626	5815	5815	5915	5915	5915	5915	6018	5915	6018	6124	6235	6235	6124	6124	6124	6124	6124	6124	6124	6124	6124	6124	6235	6235	6235	6235	6235	6235	6349	6349	6349	6349	6235	6235	6349	0	0	0	0	0	0	0	0	0	0	0	0	0	0	0	0	0	0	0	0	0	0	0	0	6853	6720	6720	6720	6720	6592	6592	6592	6592	6592	6468	6468	6468	6468	6468	6468	6468	0	0	0	0	0	0	6720	6592	6720	6992	6992	6992	6992	6992	6992	6992	6992	6853	6853	0	3738	3738	3698	3698	3659	3621	3621	3583	3583	3583	3583	3546	3583	3546	3546	3546	3546	3546	3546	3546	3546	3546	3546	3546	3510	3510	3510	3510	3510	3510	3510	3510	3510	3510	3510	3510	3510	3546	3546	3546	3546	3546	3546	3546	3510	3510	3510	3510	3510	3510	3546	3546	3546	3583	3583	3583	3621	3621	3621	3621	3621	3621	3583	3583	3583	0	7137	7137	6992	6992	6992	6992	6992	6992	6992	6992	6992	6853	6853	6992	6992	6992	6992	6853	6992	6992	7137	7137	6992	6992	6992	7137	6853	7287	7287	7287	7287	7287	7137	7287	7137	6992	6992	6992	6992	6992	6992	6992	6992	7137	6992	6992	6992	6992	7137	7137	7137	7137	7137	7137	7137	6992	7137	7137	7137	7137	7137	7287	7444	7608	8146	8995	8767	8995	8995	8995	8995	8995	8767	8995	8995	8995	8995	8995	8995	8995	8995	8767	8767	8767	8995	8995	8995	8995	8995	8995	8995	8767	8767	8767	8767	8767	8995	8995	8995	8995	8767	8995	8995	8767	8767	8767	8767	8767	8767	8767	8767	8995	8995	9235	9235	0	0	0	0	5050	4977	4977	4906	4906	4838	4771	4771	4706	4706	4643	4643	4581	4581	4581	4581	4521	4463	4463	4463	4406	4350	4350	4350	4296	4243	4243	4192	4192	4142	4093	4093	4045	4045	4045	4045	3998	3998	3952	3952	3952	3952	3907	3864	3864	3864	3864	3821	3821	3821	3779	3738	3779	3738	3738	3698	3698	3698	3698	3659	3621	3583	3583	3583	3546	3546	3546	3510	3510	3475	3440	3440	3406	3406	3406	3406	3373	3373	3341	3341	3341	3341	3341	2799	2799	2777	2777	2754	2733	2711	2690	2690	2690	2669	2669	2669	2669	2669	2669	2669	2669	2669	2669	2669	2669	2669	2649	2649	2669	2669	2669	2669	2669	2690	2733	2822	2845	2869	2893	2893	2869	2869	2893	2893	2869	2777	2754	2777	2777	2777	2777	2754	2754	2733	2733	2733	2711	2711	2711	2669	2669	2629	2649	2629	2629	2629	2609	2609	2609	2589	2589	2570	2570	2570	0	0	0	0	0	0	0	0	0	0	0	0	0	0	0	0	0	0	0	0	0	0	0	0	0	0	0	0	0	0	0	0	0	0	0
0	0	0	0	0	0	0	0	0	0	0	0	0	0	0	0	0	0	0	0	0	0	0	0	0	0	0	0	0	0	0	0	0	0	0	0	0	0	0	0	0	0	0	0	0	0	0	0	0	0	0	0	0	0	0	0	0	0	0	0	0	0	0	0	0	0	0	0	0	0	0	0	0	0	0	0	0	0	0	0	0	0	4296	4350	4350	4350	4350	4350	4350	4350	4350	4350	4350	4350	4350	4350	4350	4350	4350	4350	4350	4350	4350	4350	4350	4350	4350	4350	4350	4350	4350	4406	4406	4350	4350	4463	4463	4463	0	0	0	0	4706	4706	4771	4838	4838	4838	4906	4977	5050	5125	5050	5125	5125	5125	5125	5125	5125	5125	5125	5050	5050	5125	5125	5125	5125	5125	5125	5125	5202	5125	5125	5125	5125	5125	5125	5202	5202	5202	5282	5282	5448	5448	5448	5448	5535	5626	5626	5719	5815	5915	5915	5915	5915	6018	5915	5915	6018	6124	6235	6124	6124	6124	6124	6124	6124	6124	6124	6124	6124	6124	6235	6235	6235	6235	6235	6235	6235	6235	6235	6235	6235	6235	6235	0	0	0	0	0	0	0	0	0	0	0	0	0	6720	6720	6720	0	0	0	0	0	0	0	0	6720	6720	6720	6720	6720	6720	6592	6592	6592	6592	6468	6468	6468	6468	6468	6468	6468	0	0	0	0	0	0	6720	6592	6853	6992	6992	6992	6992	6992	6992	6992	6992	6992	6992	0	0	3698	3698	3659	3659	3621	3621	3583	3583	3583	3583	3546	3583	3583	3546	3546	3546	3546	3546	3546	3546	3546	3546	3546	3510	3510	3510	3510	3510	3510	3510	3510	3510	3510	3510	3510	3510	3546	3510	3546	3510	3546	3546	3546	3510	3510	3510	3510	3510	3546	3546	3546	3546	3583	3583	3583	3621	3621	3621	3621	3621	3583	3583	3583	3583	0	7137	7137	7137	6992	6992	6992	6992	6992	6992	6992	6992	6853	6853	6992	6853	6992	6853	6853	6853	6853	6992	6992	6853	6992	6992	6992	6992	6992	7287	7287	7287	7137	6992	6992	6992	6853	6853	6853	6853	6853	6853	6992	6992	6992	7137	6992	6992	6992	7137	7137	6992	6992	6992	7137	6992	6992	6992	6992	7137	7137	6992	7287	7287	7287	8767	8995	8995	8995	8995	8995	8995	8995	8767	8995	8995	8995	8995	8995	8995	8995	8995	8995	8767	8995	8995	8995	8995	8995	8995	8767	8767	8767	8767	8767	8767	8767	8995	8767	8767	8767	8767	8995	8995	8767	8767	8767	8767	8767	8767	8767	8767	8995	8995	9235	9235	9235	9235	0	0	5050	4977	4906	4906	4906	4838	4771	4706	4706	4643	4643	4643	4643	4581	4521	4521	4521	4463	4463	4406	4406	4406	4350	4350	4296	4243	4243	4192	4192	4142	4093	4093	4045	4045	4045	4045	4045	3998	3998	3998	3952	3952	3907	3864	3864	3864	3821	3821	3821	3821	3779	3738	3779	3779	3738	3698	3698	3698	3698	3659	3621	3583	3583	3583	3583	3546	3546	3510	3510	3475	3440	3440	3406	3406	3406	3406	3406	3373	3341	3341	3341	3341	3341	2799	2799	2799	2777	2777	2733	2711	2690	2690	2690	2690	2690	2669	2669	2669	2669	2669	2669	2669	2669	2669	2669	2669	2649	2649	2669	2669	2669	2669	2649	2649	2690	2822	2845	2869	2869	2869	2893	2893	2869	2869	2799	2777	2777	2777	2777	2777	2777	2754	2754	2733	2733	2711	2711	2711	2711	2690	2669	2649	2629	2629	2629	2609	2609	2609	2609	2589	2570	2570	2551	2551	0	0	0	0	0	0	0	0	0	0	0	0	0	0	0	0	0	0	0	0	0	0	0	0	0	0	0	0	0	0	0	0	0	0	0
0	0	0	0	0	0	0	0	0	0	0	0	0	0	0	0	0	0	0	0	0	0	0	0	0	0	0	0	0	0	0	0	0	0	0	0	0	0	0	0	0	0	0	0	0	0	0	0	0	0	0	0	0	0	0	0	0	0	0	0	0	0	0	0	0	0	0	0	0	0	0	0	0	0	0	0	0	0	0	0	0	0	4296	4350	4350	4350	4350	4350	4350	4350	4350	4350	4350	4350	4350	4350	4350	4350	4350	4350	4350	4350	4350	4350	4350	4350	4350	4350	4350	4350	4350	4350	4406	4406	4463	4463	4463	4463	0	0	0	4643	4706	4706	4771	4838	4838	4906	4906	4906	5050	5050	5125	5125	5125	5125	5125	5125	5125	5125	5050	5125	5125	5125	5125	5125	5202	5125	5125	5125	5125	5125	5125	5125	5125	5125	5125	5202	5202	5282	5282	5364	5448	5448	5448	5448	5535	5535	5535	5535	5535	5815	5915	5915	5915	5915	5915	5915	6018	6124	6235	6235	6235	6235	6124	6124	6124	6124	6018	6124	6124	6124	6124	6235	6235	6235	6235	6235	6235	6235	6235	6349	6235	6349	6349	0	0	0	0	0	0	0	0	0	0	6349	6468	6468	6853	6720	6853	6853	0	0	0	0	0	0	6992	6720	6720	6720	6720	6720	6720	6592	6592	6592	6592	6592	6468	6468	6468	6468	6468	6468	0	0	0	0	0	0	0	6720	6720	6992	6992	6992	6992	6992	6992	6992	6992	6853	6853	6853	0	3698	3659	3659	3659	3621	3621	3621	3583	3583	3583	3546	3583	3583	3583	3546	3546	3546	3546	3546	3546	3546	3546	3546	3546	3546	3546	3510	3510	3510	3510	3510	3510	3510	3510	3510	3510	3510	3510	3510	3510	3510	3510	3546	3546	3546	3546	3546	3510	3546	3546	3546	3546	3583	3583	3583	3621	3621	3621	3621	3621	3583	3583	3583	3583	0	6853	7137	7137	6992	6992	6992	6992	6992	6992	6992	6992	6853	7137	6992	6992	6992	6992	6853	6853	6720	6853	6853	6720	6853	6992	6853	6853	6720	6720	7287	7287	7137	6992	6992	6992	6853	6853	6853	6853	6853	6853	6720	6992	6992	6992	6992	6992	6992	7137	6992	6992	6853	6992	6992	6992	6992	6992	6992	6992	7137	7137	7287	7444	7444	8995	8995	8995	8995	8995	8995	8995	8995	8767	8995	8995	8995	8995	8995	8995	8995	8995	8995	8995	8995	8995	8995	8995	8995	8995	8767	8767	8767	8767	8767	8767	8767	8995	8767	8767	8767	8767	8767	8767	8767	8767	8767	8767	8767	8767	8767	8767	8995	8995	9235	9235	9235	9235	0	0	0	4977	4977	4906	4906	4838	4771	4706	4706	4643	4643	4643	4643	4643	4581	4521	4463	4463	4406	4406	4406	4406	4296	4296	4296	4243	4243	4192	4192	4142	4093	4093	4045	4045	4045	4045	3998	3998	3998	3998	3952	3952	3952	3864	3864	3864	3821	3821	3821	3821	3779	3738	3779	3779	3738	3698	3698	3698	3659	3659	3621	3621	3583	3583	3583	3583	3546	3546	3510	3475	3440	3440	3440	3406	3406	3406	3406	3341	3341	3341	3341	3341	3341	2822	2822	2799	2799	2777	2754	2690	2690	2690	2690	2690	2690	2690	2669	2669	2669	2669	2669	2669	2669	2669	2669	2669	2669	2669	2669	2669	2669	2669	2649	2649	2690	2799	2845	2869	2869	2869	2893	2869	2822	2799	2799	2777	2777	2777	2777	2777	2777	2777	2754	2754	2733	2733	2711	2711	2690	2669	2649	2649	2629	2629	2609	2609	2609	2609	2609	2570	2570	2551	2551	2551	0	0	0	0	0	0	0	0	0	0	0	0	0	0	0	0	0	0	0	0	0	0	0	0	0	0	0	0	0	0	0	0	0	0	0
0	0	0	0	0	0	0	0	0	0	0	0	0	0	0	0	0	0	0	0	0	0	0	0	0	0	0	0	0	0	0	0	0	0	0	0	0	0	0	0	0	0	0	0	0	0	0	0	0	0	0	0	0	0	0	0	0	0	0	0	0	0	0	0	0	0	0	0	0	0	0	0	0	0	0	0	0	0	0	0	0	0	4296	4350	4350	4350	4350	4296	4350	4350	4350	4350	4350	4350	4350	4350	4350	4350	4350	4350	4350	4350	4350	4350	4350	4350	4350	4350	4350	4350	4350	4350	4406	4406	4406	4463	0	0	0	0	0	4643	4771	4706	4771	4771	4838	4906	4906	5050	5050	5125	5125	5125	5125	5125	5125	5125	5050	5050	5050	5125	5050	5125	5125	5125	5202	5125	5125	5125	5125	5125	5125	5050	5125	5125	5125	5202	5282	5282	5364	5364	5448	5448	5448	5448	5535	5535	5535	5535	5535	5626	5719	5915	5915	5915	5915	5915	6018	6124	6235	6235	6235	6235	6124	6124	6124	6124	6018	6018	6018	6124	6349	6349	6349	6349	6235	6349	6235	6235	6235	6349	6349	6349	6468	6468	0	0	0	0	0	0	0	0	0	6468	6468	6592	6853	6720	6853	6853	0	0	0	0	0	0	6720	6592	6720	6720	6720	6720	6720	6720	6592	6720	6592	6592	6592	6468	6468	6720	6720	0	0	0	0	0	0	0	0	6853	6992	6992	6992	6992	6992	6992	6992	6992	6992	6992	6853	6720	6720	0	3659	3659	3659	3659	3621	3621	3583	3583	3583	3546	3546	3583	3546	3546	3546	3546	3546	3546	3546	3546	3546	3546	3546	3546	3546	3510	3510	3510	3510	3510	3510	3510	3510	3475	3475	3510	3510	3510	3510	3510	3546	3546	3546	3546	3546	3546	3510	3546	3546	3546	3546	3583	3583	3583	3621	3621	3621	3583	3583	3583	3583	3583	3583	6853	6853	6992	6992	6992	6992	6992	6992	6992	6992	6992	7137	6853	7137	6992	6992	6992	6853	6720	6853	6720	6720	6720	6720	6720	6853	6853	6853	6720	6720	7287	7287	0	0	6992	6992	6853	6853	6853	6853	6853	6853	6853	6853	6853	6992	6992	6853	6992	6992	6992	6992	6853	6992	6992	6992	6992	6992	6992	6992	6992	6992	7137	7287	7287	8995	8995	8995	8995	8995	8995	8995	8995	8767	8995	8995	8995	8995	8995	8995	8995	8767	8995	8767	8767	8995	8995	8995	8995	8767	8767	8767	8767	8767	8767	8767	8767	8995	8767	8767	8767	8767	8767	8995	8767	8767	8995	8995	8995	8767	8767	8767	8995	8995	8995	9235	9235	9235	0	0	0	5050	4906	4906	4838	4838	4771	4706	4706	4706	4643	4706	4643	4581	4521	4521	4463	4463	4463	4406	4406	4406	4350	4296	4296	4243	4243	4192	4192	4142	4142	4093	4045	4045	4045	3998	3998	3998	3952	3952	3952	3907	3907	3864	3864	3864	3821	3821	3821	3779	3779	3779	3779	3779	3738	3738	3698	3698	3659	3621	3621	3583	3583	3583	3546	3583	3546	3546	3510	3475	3440	3440	3440	3406	3406	3406	3406	3341	3309	3309	3341	3341	3341	2822	2822	2799	2777	2777	2733	2711	2690	2690	2690	2690	2690	2690	2690	2690	2669	2669	2669	2669	2669	2669	2669	2649	2649	2649	2649	2669	2669	2669	2649	2669	2690	2711	2845	2869	2869	2893	2893	2869	2869	2799	2799	2777	2777	2777	2777	2777	2777	2777	2754	2754	2733	2711	2711	2690	2690	2669	2649	2649	2629	2629	2629	2609	2609	2589	2589	2570	2570	2551	2551	2551	0	0	0	0	0	0	0	0	0	0	0	0	0	0	0	0	0	0	0	0	0	0	0	0	0	0	0	0	0	0	0	0	0	0	0
0	0	0	0	0	0	0	0	0	0	0	0	0	0	0	0	0	0	0	0	0	0	0	0	0	0	0	0	0	0	0	0	0	0	0	0	0	0	0	0	0	0	0	0	0	0	0	0	0	0	0	0	0	0	0	0	0	0	0	0	0	0	0	0	0	0	0	0	0	0	0	0	0	0	0	0	0	0	0	0	0	0	4296	4350	4296	4296	4296	4296	4350	4350	4350	4350	4350	4350	4350	4350	4350	4350	4350	4350	4350	4350	4350	4350	4350	4350	4350	4350	4350	4350	4350	4406	4463	4406	4406	4406	0	0	0	0	0	0	4771	4771	4771	4838	4838	4906	4906	5050	5050	5125	5125	5125	5125	5125	5125	5125	5125	5125	5125	5125	5125	5125	5125	5202	5202	5202	5202	5202	5125	5125	5125	5125	5125	5125	5202	5202	5282	5282	5364	5364	5448	5448	5448	5448	5535	5535	5535	5535	5535	5626	5815	5915	6018	6018	6018	5915	6018	6124	6235	6235	6235	6235	6235	6124	6124	6124	6235	6124	6235	6235	6235	6349	6349	6349	6349	6349	6235	6235	6235	6349	6349	6349	6468	6468	6468	0	0	0	0	0	0	0	0	6468	6592	6592	6720	6720	6720	6853	6853	6853	0	0	0	0	6720	6720	6720	6720	6720	6720	6720	6720	6592	6592	6592	6592	6592	6592	6468	6853	6853	0	0	0	0	0	0	0	0	6853	6992	6992	6992	6992	6992	6992	6992	6992	6992	6992	6853	6853	6853	0	3659	3659	3659	3659	3621	3621	3583	3583	3583	3546	3546	3546	3546	3546	3546	3546	3546	3546	3546	3546	3546	3546	3546	3546	3510	3510	3510	3510	3510	3510	3510	3510	3510	3510	3510	3510	3510	3510	3510	3510	3546	3546	3546	3546	3546	3546	3510	3546	3546	3546	3546	3583	3583	3583	3621	3621	3583	3583	3583	3583	3583	3583	0	6720	6720	6853	6992	6992	6992	6992	6992	6992	6992	6992	7137	6992	6992	6992	6992	6853	6853	6720	6720	6720	6720	6720	6720	6720	6853	7137	6992	6992	0	0	0	0	6992	6992	6992	6853	6853	6853	6853	6853	6853	6853	6853	6853	6853	6853	6853	6853	6992	6992	6992	6853	6992	6992	6992	6992	6992	6992	6992	6992	6992	7287	7287	7287	8767	8995	8995	8995	8767	8767	8767	8767	8767	8767	8995	8995	8995	8995	8995	8995	8995	8995	8995	8995	8995	8995	8995	8995	8995	8995	8767	8767	8767	8767	8767	8767	8767	8767	8767	8767	8767	8995	8995	8995	8995	8995	8995	8995	8767	8767	8767	8995	8995	8995	8995	8995	8995	0	0	0	5050	4906	4906	4838	4706	4706	4706	4706	4706	4643	4706	4643	4581	4521	4463	4463	4463	4463	4406	4406	4406	4350	4350	4296	4243	4243	4192	4192	4142	4093	4093	4045	4045	4045	3998	3998	3998	3952	3952	3907	3907	3864	3864	3864	3864	3821	3821	3821	3779	3779	3779	3821	3779	3779	3738	3698	3698	3659	3621	3583	3583	3583	3546	3546	3546	3546	3546	3510	3510	3475	3440	3440	3406	3406	3406	3406	3341	3341	3341	3341	3341	2799	2799	2799	2777	2777	2777	2754	2711	2690	2690	2690	2690	2690	2690	2669	2669	2669	2669	2669	2669	2669	2669	2669	2649	2649	2669	2669	2669	2669	2669	2649	2669	2690	2690	2799	2845	2869	2893	2893	2869	2845	2799	2799	2777	2777	2777	2777	2777	2777	2777	2754	2754	2733	2733	2711	2690	2690	2669	2649	2649	2629	2629	2629	2609	2609	2589	2589	2570	2551	2551	2551	2551	0	0	0	0	0	0	0	0	0	0	0	0	0	0	0	0	0	0	0	0	0	0	0	0	0	0	0	0	0	0	0	0	0	0	0
