0	0	0	0	0	0	0	0	0	0	0	0	0	0	0	0	0	0	0	0	0	0	0	0	0	0	0	0	0	0	0	0	0	0	0	2127	2127	2127	2127	2114	2114	2127	2127	2127	2127	2127	2127	1843	1853	1853	1853	1853	1853	1863	1863	1863	1863	1853	1853	1863	1863	1863	1863	1863	1853	1863	1863	1873	1873	1883	1883	1894	1894	1894	1894	1904	1904	1904	1904	1904	1915	1915	1925	1925	1925	1936	1936	1947	1947	1947	1958	1969	1969	1980	1980	1980	1980	1992	1992	1992	1992	1992	0	2777	2799	2777	2777	2799	2799	2822	2799	2799	2822	2822	2822	2822	2822	2822	2845	2845	2845	2845	2869	2845	2822	2822	0	0	0	0	0	0	0	0	0	0	0	0	0	0	0	0	0	0	0	0	0	0	0	0	0	3821	3821	3821	3821	3821	3864	3864	3864	3907	3907	3952	3952	3952	3998	4045	4093	4093	4093	4093	4142	4192	4192	4243	4243	4350	4350	4406	4521	4581	4581	4581	4581	4581	4581	4581	0	6235	6235	6235	6124	6124	6124	6124	6124	6124	6124	6235	6349	6349	6349	0	0	0	0	0	0	0	0	0	0	0	0	0	0	0	0	0	0	0	0	0	0	0	0	0	0	0	0	0	0	0	0	0	0	0	0	0	0	0	0	5125	5050	5050	4977	4977	4906	4977	4906	4977	4977	4977	4977	4977	4977	4977	4977	5050	5050	5050	5050	5050	5050	5050	5050	5050	5050	5050	5050	5050	5050	5050	5050	5050	5050	5050	5050	5050	5050	5050	5050	5050	5050	5050	5050	4977	4906	4906	3738	3738	3738	3738	3698	3738	3738	3698	3698	3698	3698	3738	3738	3738	3738	3698	3698	3698	3738	3698	3738	3738	3738	3738	3738	3698	3738	3698	3698	3698	3698	3698	3698	3659	3659	3659	3659	3659	3698	3698	3698	6468	6468	6468	6349	6349	6349	6349	6468	6349	6349	6349	6349	6349	6349	6349	6349	6349	6468	6468	6468	6468	6468	6468	6468	6349	6349	6349	6349	6349	6468	6468	6468	6349	6468	6468	6592	6592	6853	6992	6992	6992	7137	7137	7287	7608	7779	7959	8146	8146	7959	8146	8146	7959	7959	7959	7779	7779	7779	7779	7779	7779	0	0	0	0	0	2845	2822	2845	2822	2799	2822	2799	2799	2822	2822	2822	0	0	0	0	0	0	0	0	0	0	2359	2343	2343	2312	2312	2297	2312	2297	2297	2297	2297	2297	2297	2297	2733	2733	2733	2733	2733	2733	2690	2690	2690	2711	2711	2711	2711	2327	2312	2312	2312	2312	2297	2266	2252	2252	0	0	0	0	0	0	0	0	0	0	0	0	0	0	0	0	0	0	0	0	0	0	0	0	0	0	0	0	0	0	0	0	0	0	0	0	0	0	0	0	0	0	0	0	0	0	0	0	0	0	0	0	0	0	0	0	0	0	0	0	0	2003	2003	2015	2003	2003	1992	1980	1969	1969	1969	1969	1969	1969	1969	1958	1958	1958	1958	1958	1969	1969	1969	1969	1980	1980	1980	1969	1969	1980	1980	1969	1980	1969	1969	1969	1969	1969	1969	1969	1969	1681	1681	1673	1673	1673	1673	1673	1673	1673	1673	1665	1665	1665	1665	1673	1673	1665	1665	1665	1992	1980	1980	1980	1969	1969	1969	1969	1969	1969	1980	1980	1980	1980	1673	1673	1673	1673	1673	1665	1665	1665	1665	1657	1649	1649	1657	1641	1641	1641	0	0	0	0	0	0	0	0	0	0	0	0	0	0	0	0	0	0	0	0	0	0	0	0	0	0	0	0	0	0	0	0	0	0	0	0	0	0
0	0	0	0	0	0	0	0	0	0	0	0	0	0	0	0	0	0	0	0	0	0	0	0	0	0	0	0	0	0	0	0	0	0	0	2127	2140	2127	2127	2114	2114	2127	2127	2127	2127	2127	1843	1843	1853	1853	1853	1853	1853	1853	1853	1863	1863	1863	1863	1863	1863	1863	1863	1853	1863	1863	1863	1873	1873	1883	1883	1894	1894	1894	1904	1904	1904	1904	1904	1904	1915	1915	1925	1936	1936	1936	1947	1947	1947	1947	1947	1958	1958	1969	1980	1980	1980	1992	1992	1992	1992	1992	0	2754	2777	2777	2777	2799	2799	2822	2822	2822	2822	2822	2822	2822	2845	2845	2845	2845	2845	2845	2845	2822	2822	2822	2822	0	0	0	0	0	0	0	0	0	0	0	0	0	0	0	0	0	0	0	0	0	0	0	0	3821	3821	3821	3864	3864	3864	3907	3907	3907	3907	3952	3952	3952	3998	4045	4093	4093	4093	4093	4142	4142	4192	4243	4243	4350	4463	4581	4581	4581	4581	4581	4581	4581	4581	4581	0	6235	6235	6235	6235	6235	6235	6235	6235	6235	6124	6235	6235	6235	6349	0	0	0	0	0	0	0	0	0	0	0	0	0	0	0	0	0	0	0	0	0	0	0	0	0	0	0	0	0	0	0	0	0	0	0	0	0	0	0	0	0	0	4977	4977	4977	4977	4977	4977	4977	4977	4977	4977	4977	4977	4977	4977	4977	5050	5050	5050	5050	5125	5050	5050	5050	5050	5050	5050	5050	5050	5050	5050	4977	5050	4977	5050	5050	4977	4977	5050	5050	5050	5050	5050	4977	4977	5050	3738	3738	3738	3738	3738	3738	3738	3698	3698	3698	3698	3738	3738	3738	3738	3698	3698	3698	3738	3698	3698	3738	3738	3738	3738	3738	3738	3738	3698	3698	3698	3698	3698	3698	3659	3659	3659	3659	3698	3698	3698	6468	6468	6468	6349	6349	6349	6349	6468	6349	6349	6349	6349	6468	6468	6468	6468	6468	6468	6468	6468	6468	6468	6468	6349	6349	6349	6349	6349	6349	6468	6468	6468	6349	6468	6468	6468	6592	6853	6992	6992	7137	7137	7137	7287	7608	7779	7959	8146	8146	8146	8146	8146	8146	7959	7959	7779	7779	7779	7779	7608	7608	0	0	0	0	0	0	2822	2845	2822	2822	2822	2799	2799	2799	2799	2799	2799	0	0	0	0	0	0	0	0	0	2359	2359	2343	2343	2312	2297	2297	2297	2297	2297	2297	2297	2312	2297	2297	2733	2733	2733	2711	2733	2690	2690	2690	2690	2690	2711	0	0	2312	2312	2312	0	0	0	0	0	0	0	0	0	0	0	0	0	0	0	0	0	0	0	0	0	0	0	0	0	0	0	0	0	0	0	0	0	0	0	0	0	0	0	0	0	0	0	0	0	0	0	0	0	0	0	0	0	0	0	0	0	0	0	0	0	0	0	0	0	0	2003	2015	2015	2003	2003	1992	1980	1969	1969	1969	1958	1969	1969	1969	1969	1969	1969	1958	1958	1969	1969	1969	1969	1969	1969	1980	1969	1969	1969	1980	1969	1969	1969	1969	1969	1969	1958	1969	1969	1681	1681	1681	1673	1673	1673	1673	1673	1673	1673	1673	1665	1665	1665	1665	1673	1673	1673	1673	1980	1980	1980	1969	1969	1969	1969	1969	1969	1969	1969	1969	1969	1969	1969	1673	1673	1673	1665	1665	1665	1657	1657	1657	1657	1649	1641	1641	1641	1641	1641	0	0	0	0	0	0	0	0	0	0	0	0	0	0	0	0	0	0	0	0	0	0	0	0	0	0	0	0	0	0	0	0	0	0	0	0	0	0
0	0	0	0	0	0	0	0	0	0	0	0	0	0	0	0	0	0	0	0	0	0	0	0	0	0	0	0	0	0	0	0	0	0	2101	2127	2140	2127	2127	2114	2114	2127	2127	2114	2127	2127	1853	1853	1853	1853	1853	1853	1853	1853	1863	1863	1863	1863	1863	1863	1863	1863	1863	1863	1863	1863	1863	1873	1873	1873	1873	1894	1894	1894	1894	1904	1904	1904	1904	1904	1915	1915	1936	1925	1936	1936	1936	1947	1947	1947	1947	1958	1958	1969	1969	1980	1980	1992	1992	1992	1992	1992	0	2754	2777	2799	2799	2799	2799	2822	2822	2822	2822	2822	2822	2822	2845	2822	2845	2822	2845	2845	2845	2845	2822	2822	2822	0	0	0	0	2917	2917	0	0	0	0	0	0	0	0	0	0	0	0	0	0	0	0	0	3821	3821	3821	3864	3907	3907	3907	3907	3907	3907	3952	3952	3952	3998	4045	4045	4093	4093	4093	4142	4142	4192	4192	4192	4243	4350	4463	4521	4581	4581	4581	4581	4581	4581	4581	4581	0	6235	6235	6235	6235	6235	6235	6235	6235	6235	6124	6235	6235	6235	0	0	0	0	0	0	0	0	0	0	0	0	0	0	0	0	0	0	0	0	0	0	0	0	0	0	0	0	0	0	0	0	0	0	0	0	0	0	0	0	0	0	0	4977	4977	4977	4906	4977	4977	4977	4977	4977	4977	4977	4977	5050	4977	5050	5050	5050	5050	5050	5050	5050	5050	5050	5050	5050	5050	5050	5050	5050	4977	4977	5050	4977	4977	5050	4977	5050	5050	5050	5050	5050	5050	5050	4977	5050	3738	3738	3698	3698	3738	3738	3698	3698	3698	3698	3698	3738	3738	3738	3738	3738	3698	3698	3738	3698	3698	3738	3738	3738	3738	3698	3738	3698	3698	3698	3698	3698	3698	3698	3659	3659	3659	3659	3698	3698	3698	6349	6349	6349	6468	6468	6349	6468	6349	6349	6349	6468	6468	6468	6468	6468	6468	6468	6468	6468	6468	6468	6468	6468	6468	6349	6349	6349	6349	6349	6468	6468	6468	6468	6349	6468	6468	6592	6853	6992	6992	7137	7137	7137	7287	7608	7608	7959	8146	8146	8146	8146	8146	8146	7959	7959	7959	7779	7779	7608	7608	7608	0	0	0	0	0	0	0	2822	2822	2822	2822	2799	2799	2799	2799	2799	2799	0	0	0	0	0	0	0	0	0	2359	2359	2343	2343	2327	2312	2297	2297	2297	2297	2297	2297	2297	2297	2297	2281	2281	2733	2733	2733	2690	2733	2733	2690	2690	0	0	0	0	0	0	0	0	0	0	0	0	0	0	0	0	0	0	0	0	0	0	0	0	0	0	0	0	0	0	0	0	0	0	0	0	0	0	0	0	0	0	0	0	0	0	0	0	0	0	0	0	0	0	0	0	0	0	0	0	0	0	3101	3101	0	0	0	0	0	0	0	0	2015	2015	2015	2003	2003	1992	1980	1980	1969	1969	1969	1969	1969	1969	1969	1969	1958	1958	1958	1969	1969	1969	1969	1969	1969	1969	1969	1969	1969	1969	1969	1969	1969	1969	1969	1969	1969	1969	1969	1969	1681	1681	1673	1681	1673	1673	1673	1673	1673	1673	1673	1665	1673	1673	1673	1673	1673	1673	1980	1980	1980	1969	1969	1969	1969	1969	1969	1969	1969	1969	1969	1969	1969	0	1673	1665	1665	1665	1657	1657	1657	1657	1657	1649	1641	1641	1641	1641	1641	0	0	0	0	0	0	0	0	0	0	0	0	0	0	0	0	0	0	0	0	0	0	0	0	0	0	0	0	0	0	0	0	0	0	0	0	0	0
0	0	0	0	0	0	0	0	0	0	0	0	0	0	0	0	0	0	0	0	0	0	0	0	0	0	0	0	0	0	0	0	0	0	2101	2140	2140	2140	2127	2114	2114	2127	2127	2114	2114	1863	1853	1853	1853	1853	1853	1853	1853	1853	1863	1863	1863	1863	1863	1863	1863	1863	1863	1863	1863	1863	1863	1863	1863	1873	1873	1883	1894	1894	1904	1904	1904	1904	1904	1904	1915	1915	1925	1925	1936	1936	1947	1947	1947	1947	1958	1958	1958	1958	1969	1969	1980	1980	1980	1980	1980	2754	2754	2754	2777	2777	2799	2799	2799	2822	2799	2822	2822	2822	2822	2822	2822	2822	2822	2822	2822	2822	2822	2822	2822	2799	2845	2869	2869	0	2917	2917	2917	2917	0	0	0	0	0	0	0	0	0	0	0	0	0	0	0	0	3821	3821	3821	3864	3907	3907	3907	3952	3952	3952	3952	3952	3998	3998	4045	4093	4093	4093	4093	4142	4142	4192	4192	4192	4243	4350	4463	4521	4581	4581	4581	4581	4581	4581	4581	4581	0	6235	6235	6235	6235	6235	6235	6235	6235	6235	6235	6235	6235	0	0	0	0	0	0	0	0	0	0	0	0	0	0	0	0	0	0	0	0	0	0	0	0	0	0	0	0	0	0	0	0	0	0	0	0	0	0	0	0	0	0	0	5050	5050	4977	4906	4906	4906	4906	4977	4977	4977	4977	5050	4977	4977	4977	5050	5050	5050	5050	5050	5050	5050	5050	5050	5050	5050	5050	5050	5050	5050	5050	4977	5050	4977	5050	5050	4977	5050	5050	5050	5050	5050	5050	5050	5050	5050	3738	3738	3738	3738	3738	3738	3698	3698	3698	3698	3698	3738	3738	3738	3738	3738	3738	3698	3738	3698	3698	3738	3698	3738	3738	3698	3698	3698	3698	3698	3698	3698	3698	3698	3659	3659	3659	3659	3698	3621	3621	6468	6468	6468	6468	6468	6468	6468	6349	6349	6468	6468	6468	6468	6468	6468	6468	6468	6468	6468	6468	6468	6349	6349	6349	6349	6349	6349	6349	6349	6349	6349	6468	6468	6468	6468	6468	6592	6720	6853	6992	7137	7137	7137	7287	7444	7608	8146	8146	8146	8146	8146	8146	8146	7959	7959	7779	7779	7779	7608	7608	7608	7608	0	0	0	0	0	2869	2845	2822	2822	2822	2822	2777	2799	2799	2799	2799	0	0	0	0	0	0	0	0	0	0	2359	2359	2343	2327	2312	2312	2312	2297	2312	2297	2297	2297	2297	2297	2297	2281	2297	2297	2297	2312	2312	2312	0	0	0	0	0	0	0	0	0	0	0	0	0	0	0	0	0	0	0	0	0	0	0	0	0	0	0	0	0	0	0	0	0	0	0	0	0	0	0	0	0	0	0	0	0	0	0	0	0	0	0	0	0	0	0	0	0	0	0	0	0	0	0	0	3101	3101	3101	3101	3101	0	0	0	0	0	2015	2003	2003	2003	1992	1992	1980	1980	1969	1969	1958	1958	1958	1958	1958	1958	1958	1958	1958	1969	1969	1969	1969	1969	1969	1969	1969	1969	1969	1969	1969	1969	1969	1969	1969	1969	1969	1958	1958	1969	1690	1690	1681	1681	1681	1673	1673	1673	1673	1673	1673	1665	1665	1673	1673	1673	1673	1673	1673	1980	1980	1969	1969	1980	1980	1969	1969	1969	1969	1969	1969	1969	1969	0	1673	1665	1665	1665	1665	1657	1657	1657	1657	1649	1641	1641	1641	1634	1634	0	0	0	0	0	0	0	0	0	0	0	0	0	0	0	0	0	0	0	0	0	0	0	0	0	0	0	0	0	0	0	0	0	0	0	0	0	0
0	0	0	0	0	0	0	0	0	0	0	0	0	0	0	0	0	0	0	0	0	0	0	0	0	0	0	0	0	0	0	0	0	0	2101	2114	2127	2140	2140	2114	2114	2114	2127	2114	2114	1863	1853	1853	1853	1853	1853	1853	1853	1853	1853	1853	1853	1853	1863	1863	1863	1853	1853	1863	1863	1863	1863	1863	1863	1873	1873	1873	1894	1894	1904	1904	1904	1904	1904	1915	1915	1925	1925	1936	1936	1936	1936	1947	1947	1947	1958	1958	1958	1958	1969	1969	1980	1980	1980	1980	2754	2754	2754	2754	2777	2777	2799	2799	2799	2799	2799	2822	2822	2822	2822	2822	2822	2822	2822	2822	2822	2822	2822	2822	2822	2822	2845	2869	2893	2917	2917	2917	2917	2893	2893	0	0	0	0	0	0	0	0	0	0	0	0	0	0	0	3821	3821	3864	3864	3907	3907	3907	3952	3952	3952	3952	3998	3998	3998	4093	4142	4142	4142	4093	4142	4142	4192	4192	4243	4350	4406	4406	4521	4521	4581	4581	4581	4581	4581	4581	4581	0	6235	6235	6235	6235	6235	6235	6235	6349	6235	6235	0	0	0	0	0	0	0	0	0	0	0	0	0	0	0	0	0	0	0	0	0	0	0	0	0	0	0	0	0	0	0	0	0	0	0	0	0	0	0	0	0	0	0	0	5050	5050	4906	4977	4906	4906	4906	4906	4977	4977	4977	5050	5050	5050	5050	4977	5050	5050	5050	5050	5050	5050	5050	5050	5050	5050	5050	5050	5050	5050	4977	4977	4977	4977	4977	4977	4977	4977	4977	5050	5050	5050	5050	5050	5050	5050	5050	4977	3698	3738	3738	3738	3738	3698	3698	3698	3698	3738	3738	3738	3738	3738	3738	3738	3738	3738	3738	3738	3698	3738	3738	3738	3698	3698	3698	3659	3659	3659	3659	3659	3659	3659	3659	3659	3698	3738	3659	3659	6468	6468	6468	6468	6468	6468	6468	6468	6468	6468	6468	6468	6468	6468	6468	6468	6468	6468	6468	6349	6349	6349	6349	6349	6349	6349	6349	6349	6349	6468	6468	6468	6468	6468	6468	6468	6592	6720	6853	6992	7137	7137	7137	7287	7444	7444	7959	7959	8343	8343	8343	8343	7959	7959	7959	7779	7779	7779	7608	7608	7608	7608	0	0	0	0	0	2869	2845	2845	2822	2822	2799	2777	2777	2799	2777	2777	0	0	0	0	0	0	0	0	0	0	0	2359	2343	2327	2327	2327	2312	2297	2297	2297	2312	2312	2297	2297	2281	2297	2297	2297	2312	2312	2312	2312	2312	2312	2312	2312	2297	2297	2312	2312	0	0	0	0	0	0	0	0	0	0	0	0	0	0	0	0	0	0	0	0	0	0	0	0	0	0	0	0	0	0	0	0	0	0	0	0	0	0	0	0	0	0	0	0	0	0	0	0	0	0	0	0	0	0	0	0	3101	3101	3129	3129	3129	3129	0	0	0	0	2015	2003	2003	2003	1992	1980	1980	1969	1969	1969	1969	1969	1958	1958	1958	1958	1958	1958	1958	1958	1969	1969	1969	1969	1969	1969	1969	1969	1969	1969	1969	1969	1969	1969	1969	1969	1969	1969	1958	0	1698	1698	1690	1681	1681	1673	1673	1673	1673	1673	1665	1665	1665	1673	1673	1673	1673	1673	1673	1980	1969	1969	1969	1980	1980	1969	1980	1969	1969	1969	1958	1958	0	0	0	1665	1665	1665	1665	1657	1657	1657	1657	1649	1649	1641	1641	1641	1641	0	0	0	0	0	0	0	0	0	0	0	0	0	0	0	0	0	0	0	0	0	0	0	0	0	0	0	0	0	0	0	0	0	0	0	0	0	0
0	0	0	0	0	0	0	0	0	0	0	0	0	0	0	0	0	0	0	0	0	0	0	0	0	0	0	0	0	0	0	0	0	2101	2101	2101	2101	2140	2140	2114	2114	2114	2127	2114	2114	1863	1853	1853	1853	1853	1853	1853	1853	1853	1853	1853	1853	1853	1853	1853	1863	1853	1863	1863	1863	1863	1863	1863	1863	1873	1873	1873	1883	1894	1904	1904	1904	1904	1904	1915	1915	1925	1925	1936	1936	1936	1936	1947	1947	1947	1947	1947	1958	1958	1969	1969	1969	1980	1980	0	2754	2754	2754	2754	2777	2777	2799	2799	2799	2799	2799	2822	2822	2822	2822	2822	2822	2822	2822	2822	2822	2822	2822	2822	2822	2845	2869	2869	2893	2917	2917	2917	2917	2917	2917	2917	0	0	0	0	0	0	0	0	0	0	0	0	0	0	3821	3821	3821	3864	3907	3907	3952	3952	3952	3952	3952	3998	3998	4045	4093	4093	4142	4093	4093	4142	4142	4192	4192	4296	4350	4350	4406	4521	4521	4521	4521	4521	4581	4581	0	0	0	0	0	6235	6235	6235	6235	6235	6349	6349	6349	0	0	0	0	0	0	0	0	0	0	0	0	0	0	0	0	0	0	0	0	0	0	0	0	0	0	0	0	0	0	0	0	0	5364	5282	5282	0	0	0	0	0	0	0	0	5050	4977	4906	4977	4906	4906	4906	4906	4977	5050	5050	5050	5050	5050	5050	5050	5050	5050	5050	5050	5050	5050	5050	5050	5050	5050	5050	5050	5050	5050	5050	4977	5050	5050	5050	5050	5050	5050	5050	4977	4977	5050	4977	4977	4977	5050	5050	4977	3738	3738	3698	3738	3738	3698	3698	3698	3698	3738	3738	3738	3738	3738	3738	3738	3738	3738	3738	3738	3738	3738	3738	3738	3698	3698	3698	3659	3659	3659	3659	3659	3659	3659	3659	3659	3698	3738	3659	3659	6592	6592	6592	6468	6468	6468	6468	6468	6468	6468	6468	6468	6468	6468	6468	6468	6468	6468	6468	6349	6349	6349	6349	6349	6349	6349	6349	6349	6349	6468	6468	6468	6468	6468	6468	6468	6592	6720	6853	6992	6992	7137	7137	7137	7287	7444	7959	8146	8343	8343	8343	8146	8146	7959	7959	7779	7779	7779	7608	7608	7608	7608	0	0	0	0	0	0	2869	2822	2822	2822	2799	2799	2799	2777	2799	2777	2777	2777	0	0	0	0	0	0	0	0	0	0	2343	2343	2343	2327	2327	2312	2312	2297	2297	2297	2297	2297	2297	2297	2312	2297	2297	2297	2312	2312	2312	2297	2297	2297	2281	2297	2297	2312	2312	0	0	0	0	0	0	0	0	0	0	0	0	0	0	0	0	0	0	0	0	0	0	0	0	0	0	0	0	0	0	0	0	0	0	0	0	0	0	0	0	0	0	0	0	0	0	0	0	0	0	0	0	0	0	3129	3101	3101	3129	3129	3129	3129	3101	3101	0	0	2015	2003	2003	1992	1980	1980	1980	1969	1969	1969	1969	1969	1969	1958	1958	1958	1958	1958	1958	1958	1969	1969	1969	1969	1969	1969	1969	1969	1969	1969	1969	1969	1969	1969	1969	1958	1947	1947	0	1698	1698	1690	1690	1681	1673	1673	1673	1673	1673	1673	1665	1665	1665	1673	1673	1673	1681	1681	1980	1980	1980	1969	1969	1980	1980	1980	1980	1969	1958	1958	1958	1958	0	0	1681	1673	1665	1665	1665	1665	1657	1657	1657	1649	1649	1641	1641	1641	1641	0	0	0	0	0	0	0	0	0	0	0	0	0	0	0	0	0	0	0	0	0	0	0	0	0	0	0	0	0	0	0	0	0	0	0	0	0	0
0	0	0	0	0	0	0	0	0	0	0	0	0	0	0	0	0	0	0	0	0	0	0	0	0	0	0	0	0	0	0	0	0	2114	2101	2101	2101	2140	2140	2114	2114	2114	2127	2114	1863	1863	1863	1853	1853	1853	1853	1853	1843	1843	1853	1843	1853	1853	1853	1853	1863	1853	1863	1863	1863	1863	1863	1863	1863	1863	1873	1873	1894	1894	1904	1904	1904	1904	1904	1915	1915	1925	1925	1936	1936	1936	1936	1936	1936	1947	1947	1947	1958	1958	1958	1969	1969	1969	1980	2754	2754	2754	2754	2777	2777	2777	2777	2799	2822	2822	2822	2845	2822	2822	2822	2822	2822	2822	2822	2822	2822	2822	2822	2822	2822	2845	2845	2869	2893	2917	2917	2942	2942	2917	2917	2917	0	0	0	0	0	0	0	0	0	0	0	0	0	0	0	3864	3864	3907	3952	3952	3952	3952	3907	3952	3952	3998	3998	3998	4045	4093	4093	4093	4093	4142	4142	4192	4192	4243	4350	4406	4406	4581	4581	4581	4581	4581	4643	4643	0	0	0	0	0	6235	6124	6235	6235	6235	6349	6349	6349	0	0	0	0	0	0	0	0	0	0	0	0	0	0	0	0	0	0	0	0	0	0	0	0	0	0	0	0	0	0	0	0	0	5202	5202	5125	5125	5125	5125	0	0	0	0	0	4977	4906	4977	4977	4977	4977	4906	4906	4977	4977	4977	5050	5050	4977	4977	4906	4906	5050	5050	5050	5050	5050	5050	5050	5050	5050	5050	5050	5050	5050	4977	4977	5050	5050	5050	5050	5050	5050	4977	4977	4977	5050	5050	4977	5050	5050	5050	4977	3698	3698	3698	3698	3738	3698	3698	3698	3698	3698	3738	3738	3738	3738	3738	3738	3738	3738	3738	3738	3738	3738	3738	3698	3698	3698	3659	3621	3659	3621	3659	3698	3698	3659	3698	3659	3698	3738	3698	3698	6468	6468	6468	6468	6468	6349	6349	6349	6349	6468	6468	6468	6468	6468	6468	6468	6468	6468	6468	6349	6349	6349	6349	6235	6349	6349	6349	6349	6349	6349	6349	6468	6468	6349	6468	6468	6592	6592	6853	7137	7137	7287	7287	7287	7444	7608	7779	8146	8146	8146	8146	8146	8146	7959	7959	7779	7779	7779	7779	7608	7608	7608	0	0	0	0	0	0	2869	2822	2822	2799	2777	2777	2799	2799	2799	2777	2777	2777	2777	2777	2777	2777	2777	2777	2799	2822	2822	2822	0	2343	2343	0	2327	2312	2297	2297	2297	2297	2297	2297	2281	2297	2297	2297	2297	2297	2297	2297	2297	2297	2297	2297	2297	2281	2297	2297	2297	2312	2312	0	0	0	0	0	0	0	0	0	0	0	0	0	0	0	0	0	0	0	0	0	0	0	0	0	0	0	0	0	0	0	0	0	0	0	0	0	0	0	0	0	0	0	0	0	0	0	0	0	0	0	0	3129	3129	3129	3129	3129	3129	3129	3101	3101	0	0	0	1992	1992	1992	1980	1980	1980	1969	1969	1969	1969	1969	1969	1969	1969	1969	1969	1969	1958	1958	1969	1969	1969	1969	1969	1969	1969	1969	1969	1969	1969	1969	1969	1969	1969	1958	1947	1947	0	1698	1690	1690	1690	1681	1673	1673	1673	1673	1673	1673	1665	1665	1665	1673	1665	1673	1673	1673	1980	1980	1980	1969	1969	1980	1969	1969	1980	1969	1958	1969	1958	1958	1673	1673	1673	1673	1673	1673	1665	1665	1665	1657	1657	1649	1649	1641	1641	1641	1641	0	0	0	0	0	0	0	0	0	0	0	0	0	0	0	0	0	0	0	0	0	0	0	0	0	0	0	0	0	0	0	0	0	0	0	0	0	0
0	0	0	0	0	0	0	0	0	0	0	0	0	0	0	0	0	0	0	0	0	0	0	0	0	0	0	0	0	0	0	0	0	2101	2101	2101	2114	2127	2140	2114	2101	2114	2127	2114	1853	1863	1863	1853	1853	1853	1853	1853	1843	1843	1843	1843	1853	1853	1853	1853	1853	1853	1863	1863	1863	1863	1863	1863	1863	1863	1873	1873	1883	1894	1904	1894	1894	1904	1915	1915	1915	1915	1925	1925	1936	1936	1936	1947	1936	1947	1947	1947	1947	1947	1947	1958	1958	1958	0	2754	2754	2754	2754	2777	2777	2777	2799	2799	2799	2822	2822	2822	2822	2822	2822	2822	2822	2799	2822	2799	2799	2822	2822	2822	2822	2845	2845	2869	2869	2893	2917	2893	2917	2917	2917	2967	2993	2993	3019	3046	3046	0	0	0	0	0	0	0	0	0	0	3821	3821	3864	3907	3907	3952	3952	3907	3952	3952	3998	3998	4045	4045	4093	4093	4142	4142	4142	4192	4192	4192	4243	4350	4406	4406	4581	4581	4581	4581	4643	4643	4643	0	0	0	0	0	6349	6235	6235	6235	6235	6349	6349	0	0	0	0	0	0	0	0	0	0	0	0	0	0	0	0	0	0	0	0	0	0	0	0	0	0	0	0	0	0	0	0	0	0	5202	5125	5125	5125	5125	5125	0	0	0	0	0	4977	4977	4977	4977	4906	4906	4906	4906	4906	4906	4906	4906	4977	4977	4977	4977	4977	5050	5050	5050	5050	5050	5050	5050	5050	4977	4977	4977	4977	4977	4977	4977	4977	5050	5050	5050	5050	5050	5050	4977	4977	5050	5050	4977	5050	5050	5050	4977	3698	3698	3698	3698	3698	3698	3698	3698	3698	3698	3738	3738	3738	3738	3698	3738	3738	3738	3738	3738	3738	3738	3738	3698	3698	3698	3659	3621	3621	3621	3621	3659	3659	3659	3698	3659	3698	3738	3698	3698	3698	6468	6468	6468	6349	6349	6349	6349	6349	6349	6468	6468	6468	6468	6468	6468	6468	6468	6349	6349	6349	6349	6349	6235	6235	6235	6349	6349	6235	6235	6235	6349	6349	6349	6468	6468	6592	6720	6853	7137	7287	7287	7287	7444	7444	7608	7779	7959	8146	8146	8343	8343	8146	8146	7959	7959	7779	7779	7779	7608	7608	7608	7608	0	0	0	0	0	0	2822	2799	2799	2777	2777	2777	2799	2799	2777	2777	2777	2777	2777	2777	2777	2777	2777	2799	2799	2799	2799	0	0	0	0	0	0	2297	2297	2297	2281	2297	2281	2281	2281	2297	2281	2297	2297	2297	2297	2297	2297	2297	2297	2281	2297	2281	2281	2281	2281	2281	2297	2297	2297	0	0	0	0	0	0	0	0	0	0	0	0	0	0	0	0	0	0	0	0	0	0	0	0	0	0	0	0	0	0	0	0	0	0	0	0	0	0	0	0	0	0	0	0	0	0	0	0	0	3129	3129	3129	3129	3129	3129	3129	3129	3129	0	0	0	1992	1980	1980	1980	1980	1980	1969	1969	1969	1969	1969	1969	1969	1969	1969	1969	1969	1958	1958	1969	1969	1969	1969	1969	1969	1969	1969	1969	1969	1969	1969	1969	1969	1969	1969	1958	1958	0	1698	1690	1690	1690	1681	1673	1665	1673	1673	1673	1673	1665	1665	1665	1673	1665	1673	1673	1673	1980	1980	1980	1980	1980	1980	1980	1980	1969	1969	1958	1980	1969	1969	1673	1673	1673	1673	1665	1665	1673	1665	1665	1657	1657	1657	1649	1641	1641	1641	1641	0	0	0	0	0	0	0	0	0	0	0	0	0	0	0	0	0	0	0	0	0	0	0	0	0	0	0	0	0	0	0	0	0	0	0	0	0	0
0	0	0	0	0	0	0	0	0	0	0	0	0	0	0	0	0	0	0	0	0	0	0	0	0	0	0	0	0	0	0	0	0	2114	2101	2101	2114	2127	2127	2114	2101	2101	2127	1853	1853	1863	1863	1853	1853	1853	1843	1843	1843	1843	1843	1843	1853	1853	1853	1853	1853	1853	1863	1863	1863	1863	1863	1863	1863	1873	1883	1883	1894	1894	1904	1894	1904	1904	1904	1915	1915	1925	1925	1936	1936	1936	1936	1936	1947	1947	1947	1947	1958	1958	1958	1958	1958	1958	0	2754	2754	2754	2777	2777	2799	2799	2822	2822	2822	2822	2822	2822	2822	2822	2799	2799	2822	2799	2799	2799	2799	2799	2822	2822	2822	2845	2845	2869	2893	2917	2917	2917	2917	2917	2917	2942	2967	2967	3046	3046	3046	0	0	0	0	0	0	0	0	0	0	3821	3821	3864	3864	3907	3952	3907	3907	3952	3952	3998	3998	4045	4093	4093	4093	4142	4142	4142	4192	4192	4243	4243	4296	4350	4406	4463	4521	4581	4581	4581	4643	4643	0	0	0	0	0	6349	6235	6235	6235	6235	6349	6349	0	0	0	0	0	0	0	0	0	0	0	0	0	0	0	0	0	0	0	0	0	0	0	0	0	0	0	0	0	0	0	0	0	0	5125	5125	5125	5125	5125	5125	5125	0	0	0	5125	4977	4977	4906	4906	4906	4906	4838	4838	4906	4906	4906	4906	4977	4977	4977	4977	5050	5050	5050	5050	5050	5050	5050	5050	5050	4977	4977	4977	4977	4977	4977	4977	5050	5050	5050	5050	5050	5050	5050	4977	4977	5050	5050	5050	5050	5050	5050	4977	3698	3698	3698	3698	3698	3698	3698	3698	3698	3698	3738	3738	3738	3738	3738	3738	3738	3738	3738	3738	3738	3738	3738	3698	3698	3698	3659	3621	3659	3621	3659	3698	3659	3659	3698	3659	3698	3738	3659	3659	3659	6468	6468	6468	6468	6468	6349	6349	6349	6349	6468	6468	6468	6468	6468	6468	6468	6468	6468	6349	6349	6349	6235	6235	6235	6235	6235	6235	6349	6349	6349	6349	6468	6349	6468	6468	6592	6720	6853	7137	7287	7287	7444	7444	7608	7779	7959	7959	8146	8146	8146	8146	8146	8146	8146	7959	7959	7779	7779	7779	7608	7608	7608	0	0	0	0	0	0	2822	2799	2799	2777	2777	2777	2799	2799	2777	2777	2777	2777	2777	2777	2777	2777	2777	2777	2799	2799	2799	2799	2799	2822	2822	2822	0	2297	2297	2297	2297	2297	2281	2266	2281	2281	2281	2281	2281	2297	2297	2297	2297	2281	2281	2281	2281	2281	2281	2297	2297	2297	2297	2312	2312	2312	0	0	0	0	0	0	0	0	0	0	0	0	0	0	0	0	0	0	0	0	0	0	0	0	0	0	0	0	0	0	0	2327	2312	2312	2312	0	0	0	0	0	0	0	0	0	0	0	0	0	3129	3129	3129	3129	3129	3129	3129	3129	3129	0	0	0	1980	1992	1980	1980	1980	1980	1980	1980	1969	1969	1969	1969	1969	1969	1969	1958	1958	1958	1969	1969	1969	1969	1969	1969	1969	1969	1969	1969	1969	1969	1969	1969	1969	1969	1969	1958	1958	0	1698	1690	1690	1690	1681	1665	1665	1665	1673	1673	1673	1665	1665	1665	1665	1665	1673	1673	1673	1980	1980	1980	1980	1969	1980	1980	1969	1969	1969	1969	1980	1969	1969	1665	1665	1665	1673	1665	1665	1673	1665	1665	1657	1657	1649	1649	1641	1641	1641	1641	0	0	0	0	0	0	0	0	0	0	0	0	0	0	0	0	0	0	0	0	0	0	0	0	0	0	0	0	0	0	0	0	0	0	0	0	0	0
0	0	0	0	0	0	0	0	0	0	0	0	0	0	0	0	0	0	0	0	0	0	0	0	0	0	0	0	0	0	0	0	2101	2114	2114	2114	2114	2127	2127	2101	2101	2101	2101	1863	1863	1863	1863	1853	1853	1853	1843	1843	1843	1843	1843	1843	1843	1853	1853	1853	1853	1853	1863	1863	1863	1863	1863	1863	1863	1873	1883	1883	1883	1883	1904	1904	1904	1904	1915	1915	1925	1925	1925	1936	1936	1936	1936	1936	1936	1947	1947	1958	1958	1958	1958	1969	1969	1969	0	2754	2754	2754	2754	2777	2799	2799	2822	2799	2845	2845	2845	2822	2822	2799	2799	2799	2822	2799	2799	2799	2799	2822	2822	2822	2822	2845	2845	2845	2869	2893	2893	2893	2893	2893	2917	2917	2942	2942	3019	3019	0	0	0	0	0	0	0	0	0	0	0	3821	3821	3864	3864	3907	3907	3907	3907	3952	3952	3952	3998	4045	4045	4093	4093	4142	4142	4192	4192	4243	4243	4296	4350	4350	4406	4406	4521	4521	4521	4521	4643	4643	0	0	0	0	0	6235	6235	6349	6235	6235	0	0	0	0	0	0	0	0	0	0	0	0	0	0	0	0	0	0	0	0	0	0	0	0	0	0	0	0	0	0	0	0	0	0	0	0	5050	5125	5125	5125	5125	5125	5125	0	0	5125	5125	4977	4977	4906	4906	4906	4906	4838	4906	4906	4906	4906	4906	4977	4977	4977	4977	4977	5050	4977	4977	4977	4977	4977	4977	5050	4977	4977	4977	4977	4977	4977	5050	5050	5050	5050	5050	5050	5050	4977	4977	4977	4977	5050	5050	4977	5050	5050	5050	3698	3698	3698	3698	3698	3698	3698	3698	3738	3738	3738	3738	3738	3738	3738	3738	3698	3698	3698	3698	3698	3738	3738	3738	3698	3698	3659	3621	3621	3621	3659	3659	3698	3698	3698	3698	3698	3738	3738	3738	3659	6468	6235	6468	6349	6235	6349	6349	6349	6349	6468	6468	6468	6468	6468	6468	6468	6349	6349	6235	6235	6235	6235	6235	6235	6235	6349	6235	6349	6349	6235	6349	6349	6349	6468	6468	6592	6720	6853	7287	7287	7444	7444	7444	7608	7779	7959	8146	8146	8343	8146	8343	8146	8146	8146	8146	7959	7959	7779	7779	7608	7608	7608	0	0	0	0	0	0	0	0	0	0	0	0	0	0	0	2799	2777	2777	2777	2777	2777	2777	2777	2777	2777	2777	2799	2799	2777	2799	2799	2799	0	0	0	0	2297	2297	2297	2281	2281	2281	2281	2281	2281	2281	2297	2281	2281	2281	2281	2266	2266	2266	2266	2266	2281	2281	2297	2297	2297	2297	2327	0	0	0	0	0	0	0	0	0	0	0	0	0	0	0	0	0	0	0	0	0	0	0	0	0	0	0	0	2312	2312	2312	2297	2297	2297	0	0	0	0	0	0	0	0	0	0	0	0	0	3129	3129	3129	3129	3129	3129	3129	3129	3129	0	0	0	1980	1980	1980	1980	1980	1980	1980	1969	1969	1969	1969	1969	1969	1969	1969	1958	1958	1958	1969	1969	1969	1969	1969	1969	1969	1969	1969	1969	1969	1969	1969	1969	1969	1969	1958	1947	1947	0	0	1690	1690	1690	1681	1673	1665	1673	1665	1665	1665	1665	1665	1665	1665	1665	1665	1665	1673	1980	1980	1980	1969	1969	1969	1980	1969	1969	1969	1969	1980	1969	1969	1958	1665	1665	1673	1665	1665	1665	1665	1665	1657	1657	1649	1649	1641	1641	1634	1634	0	0	0	0	0	0	0	0	0	0	0	0	0	0	0	0	0	0	0	0	0	0	0	0	0	0	0	0	0	0	0	0	0	0	0	0	0	0
0	0	0	0	0	0	0	0	0	0	0	0	0	0	0	0	0	0	0	0	0	0	0	0	0	0	0	0	0	0	0	0	2127	2127	2114	2114	2114	2127	2127	2101	2101	2088	2088	1863	1863	1863	1863	1853	1853	1843	1843	1843	1843	1843	1843	1843	1843	1843	1853	1853	1853	1853	1863	1863	1863	1863	1863	1863	1863	1863	1883	1883	1883	1894	1894	1904	1904	1904	1915	1915	1915	1925	1925	1936	1936	1936	1936	1936	1936	1936	1947	1947	1947	1958	1958	1969	1969	1969	2754	2754	2777	2777	2777	2777	2799	2799	2822	2822	2845	2845	2845	2845	2822	2799	2799	2799	2822	2799	2799	2799	2799	2822	2822	2822	2822	2822	2845	2845	2869	2893	2917	2917	2917	2893	2917	2917	2917	2917	3019	3019	3019	3019	3019	0	0	0	0	0	0	0	3821	3821	3821	3821	3864	3907	3907	3907	3907	3952	3952	3952	3998	4045	4045	4093	4093	4142	4142	4192	4192	4243	4243	4350	4350	4406	4406	4406	4581	4581	4581	4581	4643	4643	0	0	0	0	6349	6235	6349	6349	6349	6349	0	0	0	0	0	0	0	0	0	0	0	0	0	0	0	0	0	0	0	0	0	0	0	0	0	0	0	0	0	0	0	0	0	0	0	0	5050	5125	5050	5050	5050	5125	5125	5125	5050	5050	5050	4977	4977	4977	4977	4906	4906	4906	4906	4906	4906	4906	4906	4977	4977	4977	4977	4977	5050	4977	4977	4977	4977	4977	4977	4977	4977	4977	4977	4977	4977	4977	5050	5050	5050	5050	5050	5050	5050	5050	4977	4977	4977	4977	4977	4977	4977	5050	5050	3698	3698	3698	3738	3738	3698	3698	3698	3738	3738	3738	3738	3738	3738	3738	3738	3738	3738	3698	3698	3698	3738	3738	3738	3738	3698	3698	3621	3659	3621	3659	3659	3698	3698	3698	3698	3738	3779	3779	3779	0	6468	6468	6468	6349	6235	6349	6468	6349	6468	6468	6468	6468	6349	6349	6349	6349	6349	6468	6235	6468	6349	6468	6235	6235	6235	6235	6235	6235	6235	6235	6235	6349	6349	6349	6468	6592	6853	6992	7287	7287	7444	7444	7444	7608	7779	7959	7959	8146	8146	8343	8343	8146	8146	8146	8146	8146	7959	7959	7779	7779	7608	7608	0	0	0	0	0	0	0	0	0	0	0	0	0	0	0	2799	2799	2777	2777	2777	2777	2777	2777	2754	2777	2777	2799	2777	2777	2777	2799	2799	0	0	0	0	0	2297	2297	2281	2281	2281	2281	2281	2281	2281	2281	2281	2281	2266	2266	2266	2266	2252	2252	2252	2252	2266	2266	2281	2281	2281	2327	0	0	0	0	0	0	0	0	0	0	0	0	0	0	0	0	0	0	0	0	0	0	0	0	0	0	0	0	2312	2312	2297	2297	2297	2312	2312	0	0	0	0	0	0	0	0	0	0	0	0	3129	3157	3129	3129	3157	3129	3157	3157	3157	0	0	0	1980	1980	1980	1980	1980	1980	1980	1980	1980	1969	1969	1969	1969	1969	1969	1958	1958	1958	1969	1969	1969	1969	1969	1969	1969	1969	1969	1969	1969	1969	1969	1969	1969	1969	1969	1969	1947	0	0	0	1690	1690	1681	1673	1673	1665	1665	1665	1665	1665	1665	1665	1673	1665	1665	1665	0	1980	1980	1969	1969	1969	1969	1969	1969	1958	1958	1969	1980	1969	1969	1969	1980	1665	1665	1665	1665	1665	1665	1665	1657	1657	1649	1649	1634	1641	1641	1641	0	0	0	0	0	0	0	0	0	0	0	0	0	0	0	0	0	0	0	0	0	0	0	0	0	0	0	0	0	0	0	0	0	0	0	0	0	0
0	0	0	0	0	0	0	0	0	0	0	0	0	0	0	0	0	0	0	0	0	0	0	0	0	0	0	0	0	0	0	0	2127	2127	2127	2114	2127	2127	2127	2114	2101	2101	1863	1863	1863	1863	1863	1853	1853	1853	1853	1853	1843	1843	1843	1843	1843	1843	1843	1853	1853	1853	1853	1863	1863	1863	1863	1863	1863	1873	1883	1883	1894	1894	1894	1904	1904	1904	1915	1915	1925	1925	1925	1936	1936	1936	1936	1936	1936	1947	1947	1947	1947	1947	1947	1947	1969	2754	2754	2754	2754	2777	2777	2777	2799	2799	2822	2822	2822	2845	2845	2845	2822	2822	2799	2799	2822	2822	2822	2799	2799	2822	2822	2822	2822	2845	2845	2845	2869	2893	2917	2917	2917	2893	2917	2917	2917	2942	2993	2993	2967	2993	2993	2993	0	0	0	0	0	3779	3821	3821	3821	3821	3864	3864	3907	3907	3907	3952	3952	3952	3998	3998	4045	4045	4045	4142	4142	4142	4192	4192	4243	4350	4350	4350	4350	4406	4406	4581	4581	4581	0	0	0	0	0	6349	6349	6235	6349	6349	6349	6349	0	0	0	0	0	0	0	0	0	0	0	0	0	0	0	0	0	0	0	0	0	0	0	0	0	0	0	0	0	0	0	0	0	0	0	0	4977	4977	5050	5050	5125	5125	5125	5125	5125	5125	5050	5050	4977	4977	4977	4977	4906	4906	4906	4906	4906	4906	4977	4977	4977	4977	4977	4977	5050	4977	4977	4906	4977	4977	4977	4977	4977	4977	4977	4977	5050	5050	5050	5050	5050	5050	5050	5050	5050	5050	4977	4977	4977	4977	4977	4977	4977	4977	5050	3738	3738	3738	3738	3738	3738	3738	3738	3738	3738	3738	3738	3738	3738	3698	3698	3698	3738	0	0	0	3738	3738	3738	3738	3698	3698	3659	3659	3659	3659	3659	3698	3698	3698	3698	3738	3738	3738	3779	6468	6468	6235	6235	6235	6235	6349	6468	6349	6349	6349	6349	6349	6349	6349	6468	6349	6349	6349	6349	6349	6349	6349	6235	6235	6235	6235	6235	6235	6235	6235	6235	6349	6349	6468	6468	6720	6992	6992	7287	7287	7444	7444	7608	7608	7779	7959	8146	8146	8146	8146	8146	8146	8146	8146	8146	8146	7959	7959	7779	7779	7779	7608	0	0	0	0	0	0	0	0	0	0	0	0	0	0	0	0	2799	2777	2777	2777	2777	2777	2754	2754	2754	2754	2777	2777	2754	2777	2777	2777	0	0	0	0	0	0	2297	2281	2281	2281	2281	2297	2281	2281	2281	2281	2297	2281	2266	2266	2252	2252	2252	2266	2266	2281	2281	2281	2281	2281	0	0	0	0	0	0	0	0	0	0	0	0	0	0	0	0	0	0	0	0	0	0	0	0	0	0	0	0	2312	2297	2297	2297	2281	2281	2281	2312	0	0	0	0	0	0	0	0	0	0	0	0	3129	3101	3101	3101	3157	3186	3186	3157	3157	0	0	0	1980	1980	1980	1980	1980	1969	1980	1980	1969	1969	1969	1969	1969	1969	1969	1958	1958	1958	1958	1969	1969	1969	1969	1969	1969	1969	1969	1969	1969	1969	1969	1969	1969	1969	1969	1969	1969	0	0	0	0	0	1673	1665	1665	1665	1665	1665	1665	1665	1665	1665	1673	1665	1665	1665	0	1980	1980	1969	1969	1969	1969	1969	1969	1969	1969	1969	1980	1969	1969	1969	1665	1665	1665	1665	1665	1665	1665	1657	1657	1657	1649	1649	1649	1634	1641	1641	0	0	0	0	0	0	0	0	0	0	0	0	0	0	0	0	0	0	0	0	0	0	0	0	0	0	0	0	0	0	0	0	0	0	0	0	0	0
0	0	0	0	0	0	0	0	0	0	0	0	0	0	0	0	0	0	0	0	0	0	0	0	0	0	0	0	0	0	0	0	2127	2140	2127	2127	2127	2127	2127	2114	2101	2101	1863	1863	1863	1863	1853	1853	1853	1853	1853	1853	1843	1843	1843	1843	1843	1843	1843	1853	1853	1853	1863	1863	1863	1863	1863	1863	1863	1873	1883	1883	1894	1894	1894	1904	1904	1904	1904	1915	1915	1925	1925	1936	1936	1936	1936	1936	1947	1947	1947	1947	1947	1947	1947	1947	0	2733	2733	2754	2754	2754	2754	2777	2799	2799	2822	2845	2845	2845	2845	2845	2845	2822	2822	2822	2822	2822	2822	2822	2822	2822	2822	2822	2822	2822	2845	2845	2869	2893	2893	2917	2917	2893	2917	2917	2942	2942	2993	2993	2993	2993	2993	2993	0	0	0	0	0	3779	3821	3821	3821	3821	3864	3864	3907	3907	3907	3952	3952	3952	3998	3998	3998	4093	3998	4142	4142	4192	4192	4243	4296	4296	4350	4350	4350	4406	4406	4581	4581	4581	0	0	0	0	0	6349	6235	6235	6349	6349	6349	6349	0	0	0	0	0	0	0	0	0	0	0	0	0	0	0	0	0	0	0	0	0	0	0	0	0	0	0	0	0	0	0	0	0	0	0	0	4977	4977	5050	4977	5050	5050	5050	5125	5125	5125	5050	5050	4977	5050	4977	4977	4906	4906	4906	4977	4906	4977	4977	4977	4977	4977	4977	4977	4977	4977	4977	4977	4977	4977	4977	4977	4977	4977	4977	4977	4977	4977	4977	5050	5050	5050	5050	5050	5050	5050	4977	4977	4977	4977	4977	4906	4977	4977	4977	3738	3738	3738	3738	3738	3738	3738	3738	3738	3738	3738	3738	3738	3738	3738	3698	3698	0	0	0	0	3738	3738	3738	3738	3698	3698	3659	3659	3659	3659	3698	3698	3698	3698	3698	3698	3698	3698	0	6468	6468	6235	6235	6235	6349	6349	6349	6349	6349	6349	6349	6349	6349	6349	6349	6349	6349	6349	6349	6349	6349	6468	6468	6468	6124	6349	6235	6235	6235	6235	6349	6349	6349	6349	6349	6720	6992	6992	7137	7287	7444	7444	7608	7779	7959	8146	8146	8146	8146	8146	8343	8343	8146	8146	8146	8146	8146	7959	7779	7779	7779	0	0	0	0	0	3998	3998	0	0	0	0	0	0	0	0	0	0	0	2777	2777	2754	2777	2754	2754	2754	2754	2754	2799	2777	2754	2777	2754	2754	0	0	0	0	0	0	2237	2266	2266	2266	2266	2281	2297	2281	2281	2281	2297	2266	2297	2252	2266	2266	2266	2266	2281	2281	2297	2281	2281	2281	0	0	0	0	0	0	0	0	0	0	0	0	0	0	0	0	0	0	0	0	0	0	0	0	0	0	0	2312	2312	2297	2297	2297	2281	2281	2281	0	0	0	0	3129	3129	3157	3157	3129	3129	0	0	0	3129	3129	3101	3101	3073	3073	3186	0	0	0	0	0	1980	1980	1980	1980	1980	1969	1969	1969	1969	1969	1969	1969	1969	1969	1958	1958	1958	1958	1969	1969	1969	1969	1969	1969	1969	1969	1969	1969	1969	1969	1969	1969	1969	1969	1969	1958	1958	0	0	0	0	0	1673	1665	1665	1665	1665	1665	1665	1665	1665	1665	1665	1665	1665	1665	0	1969	1980	1969	1969	1969	1969	1969	1969	1969	1969	1969	1980	1969	1969	1969	1980	1665	1665	1665	1665	1665	1665	1665	1657	1657	1649	1649	1649	1634	1634	1634	0	0	0	0	0	0	0	0	0	0	0	0	0	0	0	0	0	0	0	0	0	0	0	0	0	0	0	0	0	0	0	0	0	0	0	0	0	0
0	0	0	0	0	0	0	0	0	0	0	0	0	0	0	0	0	0	0	0	0	0	0	0	0	0	0	0	0	0	0	2127	2127	2140	2140	2127	2127	2127	2127	2114	2101	2101	1853	1853	1863	1853	1853	1853	1853	1853	1853	1853	1843	1843	1843	1843	1843	1843	1853	1853	1853	1853	1863	1863	1863	1863	1863	1873	1873	1873	1883	1883	1894	1894	1894	1904	1904	1904	1915	1915	1925	1936	1936	1936	1936	1936	1936	1936	1947	1947	1947	1947	1958	1958	1958	1947	2711	2733	2733	2733	2733	2754	2777	2799	2799	2822	2845	2845	2845	2845	2822	2822	2822	2822	2822	2822	2822	2822	2822	2822	2822	2822	2822	2822	2822	2822	2845	2845	2845	2869	2893	2893	2917	2893	2893	2917	2917	2942	2993	2993	2993	2993	2993	2993	0	0	0	0	3738	3779	3779	3821	3821	3821	3864	3864	3864	3864	3907	3952	3952	3952	3952	3998	3998	3998	3998	3998	4142	4192	4192	4296	4296	4350	4350	4406	4350	4350	4406	4581	4581	4581	0	0	0	0	0	6349	6235	6235	6349	6349	6349	6349	0	0	0	0	0	0	0	0	0	0	0	6124	6235	6235	6124	6124	6124	0	0	0	0	0	0	0	0	0	0	0	0	0	0	0	0	0	0	0	4977	4977	5050	4977	5050	5050	5050	5202	5202	5125	5125	5050	5050	4977	4977	4906	4906	4906	4906	4906	4906	4977	4977	4977	4977	4977	4977	4977	5050	4977	4977	4977	4977	4977	4977	4977	4977	4977	4977	4977	4977	4977	4977	4977	5050	5050	5050	5050	5050	5050	5050	4977	4977	4977	4906	4906	4906	4977	4977	3738	3738	3738	3738	3738	3738	3738	3738	3738	3738	3738	3738	3738	3738	3738	3659	3659	0	0	0	0	0	3738	3738	3738	3738	3698	3659	3659	3698	3698	3698	3698	3698	3698	3738	3738	3738	3738	0	6349	6349	6235	6349	6235	6349	6349	6468	6349	6349	6349	6349	6349	6349	6235	6349	6349	6349	6349	6349	6349	6349	6349	6468	6349	6349	6349	6349	6349	6349	6349	6349	6349	6349	6349	6349	6468	6992	7137	7287	7287	7444	7444	7608	7779	7959	8146	8146	8146	8146	8146	8343	8343	8343	8146	8146	8146	8146	7959	7779	7779	0	0	0	0	0	4045	4045	4045	4045	0	0	0	0	0	0	0	0	0	0	0	2777	2777	2777	2777	2777	2777	2754	2754	2777	2754	2733	2733	2733	2754	0	0	0	0	0	0	2237	2266	2266	2266	2266	2281	2297	2281	2281	2297	2297	2297	2297	2252	2297	2281	2266	2266	2281	2281	2297	2281	2281	2281	0	0	0	0	0	0	0	0	0	0	0	0	0	0	0	0	0	0	0	0	0	0	0	0	0	2312	2312	2312	2297	2297	2297	2281	2281	2281	2281	0	0	0	0	3129	3157	3157	3157	3129	3129	3129	3129	3157	3157	3101	3101	3101	3101	3073	0	0	0	0	0	0	1980	1980	1980	1980	1980	1969	1969	1969	1969	1969	1969	1969	1969	1969	1969	1958	1969	1958	1969	1969	1969	1969	1969	1969	1969	1969	1969	1969	1969	1969	1969	1969	1969	1958	1958	1958	1958	1958	0	0	0	0	0	1673	1673	1673	1673	1673	1673	1665	1665	1665	1673	1665	1665	1665	0	1969	1969	1969	1969	1969	1969	1969	1969	1958	1958	1980	1980	1980	1980	1980	1665	1665	1665	1665	1665	1665	1665	1665	1657	1657	1657	1649	1649	1634	1634	1634	0	0	0	0	0	0	0	0	0	0	0	0	0	0	0	0	0	0	0	0	0	0	0	0	0	0	0	0	0	0	0	0	0	0	0	0	0	0
0	0	0	0	0	0	0	0	0	0	0	0	0	0	0	0	0	0	0	0	0	0	0	0	0	0	0	0	0	0	2114	2127	2140	2140	2127	2127	2127	2127	2127	2114	2101	1863	1853	1853	1853	1853	1853	1853	1853	1853	1853	1853	1843	1843	1843	1843	1843	1853	1853	1853	1853	1863	1863	1863	1863	1863	1863	1873	1873	1873	1873	1883	1883	1894	1894	1904	1904	1904	1915	1915	1915	1925	1925	1936	1936	1936	1936	1947	1947	1947	1947	1958	1958	1958	1958	1958	1958	1958	2733	2754	2754	2777	2777	2777	2822	2822	2822	2845	2845	2845	2822	2822	2845	2845	2845	2822	2822	2822	2822	2822	2822	2822	2822	2822	2822	2822	2822	2845	2845	2869	2893	2917	2917	2893	2917	2917	2917	2942	2993	2993	2993	2993	2993	2993	0	0	0	0	3738	3779	3779	3779	3779	3821	3821	3864	3864	3864	3907	3952	3952	3952	3952	3952	3998	4045	4045	4093	4142	4192	4192	4243	4243	4350	4350	4406	4406	4406	4463	4521	4581	4581	0	0	0	0	6349	6235	6235	6235	6235	6349	6349	6349	0	0	0	0	0	0	0	0	0	0	6235	6235	6235	6235	6124	6124	6124	6124	0	0	0	0	0	0	0	0	0	0	0	0	0	0	0	0	0	0	0	0	0	5125	5125	5125	5202	5202	5202	5125	5125	5050	5050	5050	4977	4906	4906	4906	4906	4977	4906	4977	4977	4977	5050	5050	5050	5050	4977	4977	4977	4977	4977	4977	4977	4977	4977	4977	4977	4977	4977	4977	4977	5050	5050	5050	5050	5050	5050	5050	4977	4977	4977	4977	4977	4906	4977	4977	4906	3779	3779	3738	3779	3738	3738	3738	3738	3738	3738	3738	3738	3738	3698	3659	3659	3659	0	0	0	0	0	3738	3738	3738	3738	3738	3698	3659	3698	3659	3698	3698	3698	3698	3698	3698	3698	3698	0	6468	6468	6349	6349	6349	6349	6349	6349	6349	6349	6349	6349	6349	6235	6235	6349	6349	6349	6349	6235	6235	6349	6235	6468	6349	6349	6468	6349	6468	6349	6349	6349	6349	6349	6349	6349	6349	6992	7137	7287	7444	7444	7608	7779	7959	8343	8146	8146	8343	8146	8146	8146	8343	8343	8343	8146	8146	8146	7959	7959	7779	0	0	0	0	0	4045	4045	4045	4045	4045	0	0	0	0	0	0	0	0	0	0	2777	2777	2777	2754	2754	2754	2754	2754	2777	2754	2733	2733	2733	0	0	0	0	2822	2822	2822	2822	2845	2845	0	0	0	0	0	0	2297	2297	2281	2297	2281	2297	2297	2297	2297	2297	2297	2297	2297	2281	0	0	0	0	0	0	0	0	0	0	0	0	0	0	0	0	0	0	0	0	0	0	0	0	0	0	2312	2297	2297	2297	2281	2281	2281	2281	2297	2297	2297	0	0	0	3157	3157	3157	3186	3157	3129	3129	3129	3157	3157	3129	3073	3046	3046	0	0	0	0	0	0	2003	1992	1992	1992	1980	1980	1980	1980	1969	1969	1969	1969	1969	1969	1969	1969	1969	1969	1969	1969	1969	1969	1969	1969	1969	1969	1969	1969	1969	1969	1969	1969	1969	1969	1958	1958	1958	1958	1958	1958	1958	0	0	0	1665	1665	1673	1665	1673	1673	1665	1665	1665	1665	1665	1969	1969	1958	1958	1969	1969	1969	1969	1969	1969	1969	1958	1969	1980	1980	1980	1980	1969	1665	1665	1665	1665	1665	1665	1665	1657	1657	1657	1649	1641	1641	1634	1634	1634	0	0	0	0	0	0	0	0	0	0	0	0	0	0	0	0	0	0	0	0	0	0	0	0	0	0	0	0	0	0	0	0	0	0	0	0	0	0
0	0	0	0	0	0	0	0	0	0	0	0	0	0	0	0	0	0	0	0	0	0	0	0	0	0	0	0	0	2127	2127	2140	2140	2140	2140	2127	2140	2127	2127	2114	2127	1863	1863	1853	1853	1853	1853	1853	1853	1853	1853	1853	1843	1843	1843	1843	1843	1853	1853	1853	1853	1863	1863	1863	1863	1863	1863	1873	1873	1873	1873	1883	1883	1883	1894	1894	1904	1904	1904	1915	1915	1925	1925	1936	1936	1936	1936	1936	1947	1947	1947	1958	1958	1958	1958	1958	1958	1958	0	2777	2777	2777	2777	2777	2799	2822	2822	2845	2845	2845	2799	2822	2845	2845	2845	2845	2822	2822	2822	2822	2822	2822	2822	2822	2822	2822	2822	2845	2845	2869	2893	2893	2917	2893	2917	2917	2917	2942	2967	2993	2993	2993	2993	2993	0	0	0	0	3738	3779	3779	3779	3779	3821	3821	3864	3864	3864	3907	3907	3907	3952	3952	3952	3998	3998	3998	4045	4093	4142	4192	4243	4296	4350	4350	4406	4406	4406	4463	4521	4521	4521	4643	4643	4643	6349	6349	6349	6235	6235	6235	6235	6235	6235	0	0	0	0	0	0	0	0	0	0	6235	6235	6235	6235	6124	6124	6124	6124	6124	0	0	0	0	0	0	0	0	0	0	0	0	0	0	0	0	0	0	0	0	5125	5125	5125	5202	5202	5202	5202	5125	5125	5050	5050	4977	4977	4977	4977	4906	4977	4906	4906	4977	4977	4977	4977	5050	5050	4977	4977	4977	4977	4977	4977	4977	4977	4977	5050	5050	5050	5050	5050	5050	5050	5050	5050	5050	5050	5050	5050	5050	4977	4977	4977	4977	4977	4977	4977	4906	3738	3779	3779	3779	3738	3738	3738	3738	3738	3738	3738	3738	3698	3698	3659	3659	0	0	0	0	0	0	3738	3738	3738	3738	3738	3659	3659	3659	3659	3659	3659	3698	3698	3698	3698	3698	3698	0	6468	6468	6349	6349	6235	6349	6349	6349	6349	6235	6349	6349	6235	6235	6235	6235	6235	6235	6235	6235	6235	6235	6349	6468	6349	6468	6468	6468	6468	6349	6349	6349	6349	6349	6349	6349	6349	6720	7137	7444	7444	7444	7608	7608	7959	8146	8146	8146	8343	8146	8146	8146	8343	8343	8146	8146	8146	8146	8550	8550	0	0	0	0	0	0	4045	4045	4045	4045	4045	0	0	0	0	0	0	0	0	0	0	0	2777	2777	2754	2754	2754	0	0	0	0	0	0	0	0	0	0	2822	2822	2845	2845	2845	2845	2845	0	0	0	0	0	0	0	0	2297	2297	2297	2297	2297	2297	2297	2297	2297	2297	2297	0	0	0	0	0	0	0	0	0	0	0	0	0	0	0	0	0	0	0	0	0	0	0	0	0	0	0	0	2281	2281	2281	2297	2297	2281	2297	2297	2297	2297	2297	0	0	3157	3157	3157	3186	3129	3129	3129	3129	3129	3129	3129	3101	3101	3101	0	0	0	0	0	0	2003	1992	1992	1992	1980	1980	1980	1980	1969	1969	1969	1969	1969	1969	1969	1958	1969	1969	1969	1969	1969	1969	1969	1969	1969	1969	1969	1969	1969	1969	1969	1969	1969	1969	1958	1958	1958	1958	1958	1958	1958	1947	1947	1958	1958	1673	1665	1665	1665	1673	1665	1665	1665	1665	1969	1969	1969	1958	1958	1958	1958	1958	1969	1958	1958	1969	1958	1969	1969	1980	1958	1969	1969	1969	1665	1665	1665	1665	1665	1657	1657	1657	1657	1649	1649	1641	1634	1634	1634	0	0	0	0	0	0	0	0	0	0	0	0	0	0	0	0	0	0	0	0	0	0	0	0	0	0	0	0	0	0	0	0	0	0	0	0	0	0
0	0	0	0	0	0	0	0	0	0	0	0	0	0	0	0	0	0	0	0	0	0	0	0	0	0	0	0	2140	2140	2127	2140	2140	2140	2140	2140	2140	2140	2140	2127	2127	1853	1853	1843	1843	1843	1843	1843	1843	1843	1843	1843	1843	1843	1843	1843	1843	1853	1853	1853	1853	1853	1853	1863	1863	1863	1863	1873	1873	1873	1873	1883	1883	1883	1894	1894	1904	1904	1904	1915	1915	1915	1925	1925	1936	1936	1936	1936	1947	1947	1947	1958	1947	1958	1958	1958	1958	0	2799	2799	2733	2777	2777	2754	2754	2822	2822	2822	2822	2822	2799	2822	2845	2845	2822	2822	2822	2822	2822	2822	2822	2799	2822	2799	2822	2822	2822	2845	2845	2869	2893	2893	2917	2893	2893	2917	2917	2942	2967	2993	2993	3019	3019	3019	3019	3019	0	0	3738	3779	3779	3779	3779	3779	3821	3864	3864	3864	3864	3907	3907	3907	3952	3952	3998	3998	4045	4045	4093	4142	4192	4192	4243	4350	4350	4406	4406	4406	4406	4463	4581	4581	4643	4643	4643	4643	6349	6235	6235	6235	6235	6235	6235	6124	6124	0	0	0	0	0	0	0	0	0	0	6124	6124	6235	6124	6124	6018	6124	6018	6018	0	0	0	0	0	0	0	0	0	0	0	0	0	0	0	0	0	0	0	5125	5125	5125	5202	5282	5202	5202	5125	5125	5050	5050	4977	4977	4977	4977	4906	4906	4906	4977	4977	4977	4977	4977	5050	5050	4977	4977	4977	4977	4977	4977	5050	5050	5050	5050	5050	5050	5050	5050	5050	4977	5050	5050	5050	5050	5050	5050	5050	4977	4977	4977	4977	4977	4977	4977	3779	3738	3738	3738	3738	3738	3738	3738	3738	3738	3738	3738	3738	3698	3698	3659	3659	0	0	0	0	0	0	0	3738	3738	3738	3738	3698	3659	3659	3659	3659	3659	3698	3698	3698	3738	3738	3738	0	0	6468	6468	6349	6349	6349	6349	6349	6349	6235	6349	6349	6349	6235	6235	6235	6235	6235	6235	6235	6235	6235	6235	6349	6349	6349	6349	6349	6349	6349	6349	6349	6349	6349	6349	6349	6468	6720	7137	7137	7444	7444	7779	7779	8146	8146	8146	8343	8343	8146	8146	8146	8146	8146	8146	8146	7959	7959	7959	7959	0	0	0	0	0	0	4045	4093	4093	4045	4093	4093	0	0	0	0	0	0	0	0	4045	3998	3998	0	0	0	0	0	0	0	0	0	0	0	0	2845	2845	2845	2845	2869	2845	2845	2845	2845	0	0	0	0	0	0	0	0	2297	2297	2297	2312	2312	2312	2312	0	0	0	0	0	0	0	0	0	0	0	0	0	0	0	0	0	0	0	0	0	0	0	0	0	0	0	0	0	0	0	0	2297	2297	2281	2281	2297	2297	2312	2297	2297	2297	2297	0	0	3157	3157	3157	3186	3129	3129	3129	3129	3129	3129	3129	3101	3101	3101	0	0	0	0	0	0	2015	2003	2003	1992	1992	1980	1980	1980	1969	1969	1969	1969	1969	1969	1969	1958	1958	1958	1969	1969	1969	1969	1969	1969	1969	1969	1969	1969	1969	1969	1969	1969	1969	1969	1969	1969	1958	1969	1958	1958	1958	1958	1958	1958	1958	1673	1673	1673	1980	1980	1673	1673	1969	1969	1969	1969	1969	1969	1958	1969	1969	1969	1969	1969	1969	1969	1969	1969	1969	1969	1969	1969	1969	1980	1665	1665	1665	1657	1665	1665	1665	1657	1657	1657	1649	1649	1634	1634	1634	0	0	0	0	0	0	0	0	0	0	0	0	0	0	0	0	0	0	0	0	0	0	0	0	0	0	0	0	0	0	0	0	0	0	0	0	0	0
0	0	0	0	0	0	0	0	0	0	0	0	0	0	0	0	0	0	0	0	0	0	0	0	0	0	0	2153	2127	2127	2127	2140	2140	2140	2140	2140	2140	2140	2140	2127	2127	1853	1853	1843	1843	1833	1843	1843	1843	1843	1843	1843	1843	1843	1843	1843	1843	1853	1853	1853	1853	1853	1853	1853	1863	1863	1863	1873	1873	1873	1873	1883	1883	1894	1894	1904	1904	1904	1904	1915	1915	1915	1925	1925	1936	1936	1936	1947	1947	1947	1947	1947	1947	1947	1947	1947	0	2754	2777	2733	2733	2754	2754	2733	2733	0	0	2822	2822	2845	2845	2845	2845	2845	2822	2822	2822	2822	2822	2799	2799	2799	2799	2799	2822	2822	2822	2822	2845	2845	2869	2893	2893	2893	2893	2917	2917	2942	2993	2993	2993	2993	2993	2993	2993	2993	0	0	3779	3779	3779	3779	3779	3821	3821	3864	3864	3864	3864	3907	3907	3907	3952	3952	3952	3998	4045	4045	4045	4142	4192	4192	4243	4296	4350	4350	4350	4406	4406	4463	4581	4581	4643	4643	4643	4643	6235	6235	6235	6235	6235	6124	6124	6124	6124	0	0	0	0	0	0	0	0	0	6018	6124	6124	6124	6018	6018	6018	6124	6018	5719	5719	0	0	0	0	0	0	0	0	0	0	0	0	0	0	0	0	0	0	0	5125	5125	5282	5282	5282	5202	5202	5125	5125	5125	4977	4977	4977	4977	4906	4977	4906	4977	4977	4977	4977	4977	4977	4977	4977	4977	4977	4977	4977	4977	4977	4977	4977	5050	5050	5050	5050	5050	5050	5050	5050	5050	5050	5050	5050	5050	5050	4977	5050	5050	4977	4977	5050	4977	3779	3738	3738	3738	3738	3738	3738	3738	3738	3738	3738	3738	3738	3698	3698	3659	3659	0	0	0	0	0	0	0	3738	3738	3738	3738	3659	3659	3659	3659	3659	3698	3698	3698	3698	3738	3738	3738	0	0	6468	6468	6349	6349	6349	6349	6349	6349	6349	6349	6349	6349	6235	6235	6235	6235	6349	6349	6235	6235	6349	6235	6235	6349	6349	6349	6349	6349	6349	6349	6468	6349	6349	6349	6349	6468	6468	6992	7137	7444	7608	7779	7959	8146	8146	8343	8343	8343	8343	8146	8146	8343	8343	8146	8146	7959	7959	7779	7779	7779	0	0	0	0	0	0	4045	4093	4045	4093	4093	4045	4045	0	0	4296	4243	4243	0	4045	3998	3998	0	0	0	0	0	0	0	0	0	0	0	0	2845	2845	2845	2845	2869	2869	2845	2845	2845	0	0	0	0	0	0	0	0	0	0	0	2312	2312	2312	2312	0	0	0	0	0	0	0	0	0	0	0	0	0	0	0	0	0	0	0	0	0	0	0	0	0	0	0	0	0	0	0	0	2297	2281	2281	2281	2297	2281	2297	2297	2281	2281	2281	2281	0	3157	3157	3157	3186	3129	3129	3129	3129	3129	3129	3129	3101	3073	3073	0	0	0	0	0	0	2015	2003	2003	1992	1992	1980	1980	1980	1969	1969	1969	1969	1958	1958	1958	1958	1958	1969	1958	1969	1969	1969	1969	1969	1969	1969	1969	1969	1969	1969	1969	1969	1969	1969	1969	1969	1958	1969	1958	1958	1958	1958	1958	1958	1958	1969	1969	1980	1980	1969	1980	1980	1969	1969	1969	1969	1969	1969	1958	1969	1958	1969	1969	1969	1969	1969	1969	1969	1969	1969	1969	1969	1969	1969	1665	1665	0	1657	1657	1657	1657	1657	1657	1657	1649	1657	1641	1634	1634	0	0	0	0	0	0	0	0	0	0	0	0	0	0	0	0	0	0	0	0	0	0	0	0	0	0	0	0	0	0	0	0	0	0	0	0	0	0
0	0	0	0	0	0	0	0	0	0	0	0	0	0	0	0	0	0	0	0	0	0	0	0	0	0	2140	2140	2127	2127	2127	2140	2127	2127	2127	2127	2127	2127	2140	2114	2114	1843	1843	1843	1843	1833	1833	1843	1833	1843	1833	1833	1833	1833	1833	1843	1843	1843	1843	1853	1853	1853	1853	1853	1863	1863	1863	1873	1873	1873	1883	1883	1883	1894	1894	1904	1904	1904	1904	1915	1915	1915	1925	1925	1925	1925	1936	1936	1947	1947	1947	1947	1947	1958	1958	1958	0	2754	2777	2754	2733	2733	2733	2733	2733	0	0	0	0	2845	2845	2845	2845	2845	2822	2822	2822	2822	2799	2799	2799	2799	2799	2799	2799	2822	2822	2822	2822	2845	2845	2869	2893	2893	2893	2893	2917	2942	2993	2993	2993	2993	2993	2993	2993	2993	0	0	3779	3779	3779	3821	3779	3821	3864	3864	3864	3864	3864	3907	3907	3907	3952	3952	3952	3998	4045	4093	4093	4142	4192	4192	4243	4296	4350	4350	4350	4406	4406	4463	4581	4581	4581	4581	4581	4581	6349	6235	6235	6235	6124	6124	6018	6018	6018	0	0	0	0	0	0	0	0	0	6018	6018	6018	6018	5915	5915	5915	6018	5915	5815	5815	0	0	0	0	0	0	0	0	0	0	0	0	0	0	0	0	0	0	0	5125	5125	5282	5282	5202	5202	5202	5125	5125	5050	4977	4906	4906	4906	4906	4906	4906	4906	4906	4906	4977	4977	4977	4977	4977	4977	4977	4977	4977	4977	4977	4977	5050	5050	5050	5050	5050	5050	5050	5050	5050	5050	5050	5050	5050	5050	5050	5050	5050	5050	4977	4977	5050	4977	4977	3738	3738	3738	3738	3738	3738	3738	3738	3738	3738	3738	3698	3698	3659	3659	3659	0	0	0	0	0	0	0	3738	3738	3738	3738	3659	3659	3659	3659	3659	3698	3698	3698	3698	3698	3698	3698	0	0	6592	6468	6468	6468	6468	6349	6349	6349	6349	6349	6349	6349	6349	6235	6235	6235	6349	6349	6235	6235	6235	6235	6235	6235	6349	6349	6349	6349	6349	6349	6349	6349	6349	6349	6468	6468	6592	6992	7137	7137	7444	7608	7779	8146	8146	8343	8343	8343	8343	8343	8343	8343	8343	8146	8146	8343	8146	7779	7779	8146	8146	0	0	0	0	0	4045	4142	4093	4093	4093	4093	4045	4045	4192	4142	4142	4142	4093	4093	4045	4045	0	0	0	0	0	0	0	0	0	0	0	0	0	2845	2845	2869	2869	2845	2845	2822	2822	0	0	0	0	0	0	0	0	0	0	0	2942	2942	2917	2917	2917	2917	2917	0	0	0	0	0	0	0	0	0	0	0	0	0	0	0	0	0	0	0	0	0	0	0	0	0	0	0	0	0	2312	2297	2297	2297	2297	2281	2297	2281	2281	2281	2281	2252	2252	0	3157	3157	3216	3157	3157	3129	3129	3157	3129	3129	3101	3129	3129	3157	3129	3129	0	0	0	0	2015	2003	2003	1992	1992	1980	1980	1969	1969	1969	1958	1969	1958	1958	1958	1969	1969	1969	1969	1969	1969	1969	1969	1969	1969	1969	1969	1969	1969	1969	1969	1969	1969	1969	1969	1958	1958	1958	1958	1958	1958	1958	1958	1958	1958	1969	1969	1969	1969	1969	1969	1969	1969	1969	1969	1969	1969	1969	1969	1969	1969	1969	1969	1969	1969	1969	1969	1969	1969	1969	1969	1969	1969	0	0	0	1649	1657	1657	1657	1657	1657	1657	1649	1657	1641	1634	1634	0	0	0	0	0	0	0	0	0	0	0	0	0	0	0	0	0	0	0	0	0	0	0	0	0	0	0	0	0	0	0	0	0	0	0	0	0	0
0	0	0	0	0	0	0	0	0	0	0	0	0	0	0	0	0	0	0	0	0	0	0	0	0	2140	2140	2140	2127	2127	2127	2127	2127	2127	2127	2127	2127	2127	2140	2114	2114	1843	1843	1833	1833	1833	1833	1833	1833	1833	1833	1833	1824	1833	1843	1843	1843	1843	1843	1853	1853	1853	1853	1853	1863	1863	1863	1873	1873	1873	1883	1883	1883	1894	1894	1904	1904	1904	1904	1915	1915	1915	1915	1925	1936	1936	1936	1947	1947	1947	1947	1958	1947	1958	1958	1958	2690	2733	2754	2754	2733	2733	2711	2711	0	0	0	0	0	0	0	2845	2845	2845	2822	2822	2822	2799	2799	2799	2799	2799	2799	2799	2799	2822	2822	2822	2822	2845	2869	2893	2893	2893	2893	2893	2893	2917	2917	2942	2993	2993	3019	3019	3019	3019	3019	3779	3779	3779	3779	3821	3779	3821	3864	3864	3864	3864	3907	3907	3907	3907	3952	3952	3998	4045	4093	4093	4142	4142	4192	4192	4243	4296	4350	4350	4350	4406	4406	4463	4521	4581	4581	4581	4521	4521	6235	6235	6124	6124	5915	5915	5815	5815	5815	5815	0	0	0	0	0	0	0	5915	5915	5915	5915	5915	5915	5915	5815	5915	5815	5815	5815	0	0	0	0	0	0	0	0	0	0	0	0	0	0	0	0	0	0	0	5125	5125	5364	5202	5202	5125	5125	5125	5050	4977	4977	4906	4906	4906	4906	4906	4906	4906	4906	4906	4906	4906	4977	4977	4977	4977	4977	4977	4977	4977	4977	4977	4977	4977	5050	5050	5050	5050	5050	5050	4977	5050	5050	5050	5050	5050	5050	5050	5050	5050	5050	4977	5050	5050	4977	3738	3738	3738	3738	3738	3738	3738	3738	3738	3698	3698	3698	3698	3698	3698	3698	0	0	0	0	0	0	0	3738	3738	3698	3698	3659	3659	3659	3659	3659	3659	3659	3698	3698	3738	3738	3738	0	6592	6592	6592	6468	6468	6468	6468	6349	6468	6349	6349	6349	6349	6235	6235	6235	6235	6235	6235	6235	6235	6349	6235	6235	6235	6235	6235	6349	6349	6349	6349	6468	6468	6349	6468	6468	6592	6720	6992	7137	7444	7608	7608	7779	7959	8146	8146	8343	8343	8343	8343	8343	8343	8343	8146	8146	8343	8146	7779	7779	7608	7608	7608	0	0	0	0	0	4142	4142	4142	4093	4093	4093	4093	4142	4142	4142	4142	4093	4093	4045	4093	4093	0	0	0	0	0	0	0	0	0	0	0	0	2845	2845	2845	2845	2845	2845	2822	2822	0	0	0	0	0	0	0	0	0	0	0	2942	2917	2893	2893	2845	2845	2917	0	0	0	0	0	0	0	0	0	0	0	0	0	0	0	0	0	0	0	3157	3186	3186	3186	0	0	0	0	0	0	2312	2297	2297	2281	2297	2281	2297	2281	2266	2266	2252	2252	2252	2252	3157	3129	3157	3157	3157	3129	3129	3157	3129	3129	3101	3129	3129	3129	3129	3129	3129	0	0	2027	2015	2015	2003	1992	1992	1980	1980	1969	1969	1969	1958	1958	1958	1958	1958	1969	1969	1958	1969	1958	1958	1969	1969	1969	1969	1969	1969	1969	1969	1969	1969	1969	1969	1969	1969	1958	1969	1969	1969	1969	1958	1969	1958	1958	1958	1969	1969	1969	1969	1969	1980	1969	1969	1969	1969	1969	1969	1969	1969	1969	1969	1969	1969	1969	1969	1969	1969	1969	1969	1969	1969	1958	1958	0	0	0	1649	1649	1649	1649	1657	1657	1649	1649	1649	1641	1634	1634	1634	0	0	0	0	0	0	0	0	0	0	0	0	0	0	0	0	0	0	0	0	0	0	0	0	0	0	0	0	0	0	0	0	0	0	0	0	0
0	0	0	0	0	0	0	0	0	0	0	0	0	0	0	0	0	0	0	0	0	0	0	0	2153	2140	2140	2140	2140	2127	2127	2127	2127	2127	2127	2127	2127	2127	2140	2114	2127	1843	1843	1833	1824	1824	1824	1824	1824	1833	1824	1824	1824	1833	1833	1833	1833	1843	1843	1843	1843	1853	1853	1863	1863	1863	1863	1873	1873	1873	1873	1883	1883	1894	1894	1894	1904	1904	1904	1915	1915	1915	1915	1925	1925	1936	1936	1947	1947	1947	1947	1947	1947	1958	1958	1958	2669	2690	2733	2733	2733	2711	2690	2690	2690	0	0	0	0	0	0	0	2822	2822	2799	2822	2822	2822	2822	2799	2799	2799	2799	2799	2799	2822	2822	2822	2822	2845	2845	2869	2893	2869	2893	2893	2893	2893	2917	2942	2993	2993	3019	3019	3019	3019	3019	3821	3821	3821	3821	3821	3821	3821	3864	3864	3864	3907	3907	3907	3907	3907	3952	3998	3998	4045	4093	4142	4142	4142	4192	4192	4243	4296	4296	4350	4350	4406	4406	4463	4521	4581	4581	4581	4521	4521	6235	6124	6018	5915	5915	5915	5815	5915	5815	5815	0	0	0	0	0	0	0	5915	5915	5915	5915	5915	5815	5815	5815	5815	5719	5719	5719	0	0	0	0	0	0	0	0	0	0	0	0	0	0	0	0	0	0	0	0	5125	5202	5202	5202	5125	5125	5050	5050	4977	4977	4906	4906	4906	4906	4906	4906	4906	4906	4906	4906	4906	4906	4977	4977	4977	4977	4977	4977	4977	4977	4977	5050	4977	4977	4977	4977	4977	5050	4977	4977	5050	5050	5050	5050	5050	5050	5050	5050	5050	5050	4977	5050	5050	5050	3738	3738	3738	3738	3738	3738	3738	3738	3698	3698	3698	3698	3698	3698	3698	3698	0	0	0	0	0	0	0	3738	3738	3698	3698	3659	3659	3621	3659	3659	3659	3659	3698	3698	3738	3738	3738	0	6592	6592	6592	6468	6468	6468	6468	6349	6468	6349	6349	6349	6349	6235	6235	6235	6124	6235	6235	6235	6235	6235	6235	6235	6235	6235	6235	6235	6235	6349	6349	6468	6468	6349	6468	6468	6592	6720	7137	7137	7608	7608	7779	7959	8146	8146	8146	8343	8343	8343	8343	8146	8343	8146	8146	8146	8343	7959	7779	7779	7608	7608	7608	7608	0	0	0	0	4142	4142	4142	4142	4093	4093	4093	4093	4093	4093	4093	4045	4045	4045	4093	4093	0	0	0	0	0	0	0	0	0	0	0	0	2845	2845	2845	2869	2845	2845	2822	2822	0	0	0	0	0	0	0	0	0	0	0	2942	2917	2893	2893	2845	2845	2845	0	0	0	0	0	0	0	0	0	0	0	0	0	0	0	0	0	0	3186	3186	3186	3186	3186	3186	0	0	0	0	0	2312	2297	2297	2281	2281	2281	2281	2281	2266	2281	2266	2266	2266	2266	0	3157	3186	3157	3129	3129	3129	3157	3129	3129	3129	3129	3129	3129	3129	3101	3101	0	0	2027	2015	2015	2003	2003	1992	1980	1980	1969	1969	1969	1958	1958	1958	1958	1958	1958	1969	1958	1969	1969	1969	1969	1969	1969	1969	1969	1969	1969	1969	1969	1969	1969	1969	1969	1969	1969	1969	1969	1969	1969	1969	1969	1958	1958	1969	1969	1969	1969	1969	1969	1969	1969	1969	1969	1969	1969	1969	1969	1969	1969	1969	1969	1969	1969	1969	1969	1969	1969	1958	1958	1958	1947	1936	1936	0	0	0	1649	1649	1649	1657	1649	1649	1649	1649	1641	1634	1634	1634	0	0	0	0	0	0	0	0	0	0	0	0	0	0	0	0	0	0	0	0	0	0	0	0	0	0	0	0	0	0	0	0	0	0	0	0	0
0	0	0	0	0	0	0	0	0	0	0	0	0	0	0	0	0	0	0	0	0	0	2140	2140	2140	2140	2140	2140	2140	2140	2140	2127	2127	2127	2127	2127	2127	2127	2127	2101	2101	1843	1843	1833	1824	1824	1824	1824	1824	1824	1824	1824	1824	1833	1833	1833	1833	1843	1843	1843	1843	1853	1853	1853	1863	1863	1863	1863	1863	1873	1873	1883	1883	1883	1894	1894	1904	1904	1904	1915	1915	1925	1925	1925	1936	1936	1936	1947	1947	1947	1947	1947	1947	1947	1947	0	2690	2711	2711	2711	2733	2711	2690	2669	2669	0	0	0	0	0	0	0	2822	2822	2799	2822	2822	2822	2822	2822	2799	2799	2799	2799	2799	2822	2822	2822	2822	2845	2869	2893	2893	2893	2893	2893	2893	2893	2917	2917	2967	2993	2993	2993	2993	2993	2993	3821	3821	3821	3779	3821	3821	3864	3907	3864	3864	3864	3907	3907	3952	3907	3952	3998	3998	4093	4093	4142	4142	4142	4192	4192	4243	4296	4296	4350	4350	4406	4406	4463	4521	4581	4581	4581	4581	4581	5915	5915	5815	5815	5815	5815	5815	5915	5815	5815	0	0	0	0	0	0	5915	5915	5915	5915	5815	5815	5815	5815	5719	5815	5815	5626	5626	0	0	0	0	0	0	0	0	0	0	0	0	0	0	0	0	0	0	0	0	5202	5202	5202	5202	5125	5125	5050	5050	5050	4977	4906	4906	4906	4906	4906	4906	4906	4906	4906	4906	4906	4906	4977	4977	4906	4977	4977	4977	4977	4977	4977	5050	4977	4977	4977	4977	4977	4977	4977	4977	5050	5050	5050	5050	5050	5050	5050	5050	5050	5050	4977	4977	5050	5050	3738	3738	3738	3738	3738	3738	3738	3738	3738	3698	3698	3698	3698	3698	3698	3659	3659	0	0	0	0	0	3779	3738	3738	3698	3698	3659	3659	3621	3659	3659	3659	3698	3659	3698	3698	3698	3738	6468	6592	6592	6592	6468	6468	6468	6349	6349	6349	6349	6349	6349	6349	6235	6235	6235	6124	6235	6235	6235	6235	6235	6235	6235	6235	6235	6235	6235	6235	6349	6349	6468	6468	6349	6468	6468	6468	6720	7137	7287	7608	7608	7608	7779	8146	8146	8146	8146	8146	8146	8146	8146	8146	8146	7959	7959	7959	7779	7779	7608	7608	7608	7608	7779	7779	7779	0	0	0	4142	4142	4093	4093	4093	4093	4093	4093	4093	4142	4093	4093	4093	4093	4093	0	0	0	0	0	0	0	0	0	0	0	0	2845	2845	2845	2845	2845	2845	2822	2822	0	0	0	0	0	0	0	0	0	0	0	2942	2917	2893	2869	2869	2869	2845	2845	0	0	0	0	0	0	0	0	0	0	0	0	0	0	0	0	3186	3186	3157	3186	3186	3157	3157	3157	3157	0	0	0	2297	2297	2281	2281	2281	2281	2281	2266	2266	2266	2252	2252	2237	2237	0	3157	3186	3157	3129	3129	3129	3129	3129	3129	3129	3101	3129	3129	3129	3101	3101	3101	0	2027	2015	2003	2003	1992	1992	1980	1980	1969	1969	1958	1958	1958	1958	1958	1958	1958	1958	1958	1969	1969	1969	1969	1969	1969	1969	1969	1969	1969	1969	1969	1969	1969	1969	1969	1969	1969	1969	1969	1969	1969	1969	1969	1969	1958	1958	1958	1969	1969	1969	1969	1969	1969	1969	1969	1969	1969	1969	1969	1969	1969	1958	1969	1969	1969	1969	1969	1969	1958	1958	1958	1958	1947	1947	1936	0	0	0	0	1649	1641	1657	1657	1657	1649	1657	1657	1641	1641	1641	0	0	0	0	0	0	0	0	0	0	0	0	0	0	0	0	0	0	0	0	0	0	0	0	0	0	0	0	0	0	0	0	0	0	0	0	0
0	0	0	0	0	0	0	0	0	0	0	0	0	0	0	0	0	0	0	0	0	0	2127	2127	2127	2140	2140	2140	2140	2140	2140	2127	2127	2127	2127	2127	2127	2127	2127	2127	2101	2114	1824	1824	1824	1824	1824	1824	1824	1824	1824	1824	1824	1824	1833	1833	1833	1843	1843	1843	1843	1843	1853	1853	1863	1863	1863	1863	1863	1863	1873	1883	1894	1894	1904	1904	1904	1904	1915	1915	1915	1925	1925	1925	1936	1936	1936	1947	1947	1947	1947	1947	1947	1947	1947	2733	2733	2711	2711	2711	2733	2690	2690	2669	2669	0	0	0	0	0	0	0	0	0	2799	2799	2822	2822	2822	2799	2799	2799	2799	2799	2822	2822	2822	2822	2822	2845	2869	2893	2893	2893	2893	2893	2893	2893	2917	2917	2942	2942	2967	2993	2993	3046	3046	3821	3821	3821	3821	3821	3821	3864	3907	3864	3864	3864	3907	3907	3952	3907	3998	3998	4045	4093	4142	4142	4142	4142	4192	4192	4243	4243	4296	4350	4350	4350	4406	4463	4463	4521	4581	4581	4581	5915	5915	5815	5815	5815	5815	5815	5915	5915	5815	5815	0	0	0	0	0	0	5915	5915	5915	5815	5815	5815	5719	5719	5719	5815	5626	5626	5626	0	0	0	0	0	0	0	0	0	0	0	0	0	0	0	0	0	0	0	0	5202	5202	5202	5202	5125	5125	5050	5050	5050	4977	4906	4906	4906	4906	4906	4906	4906	4906	4906	4906	4906	4977	4977	4977	4977	4977	4977	4977	4977	4977	4977	5050	4977	4977	4977	4977	5050	5050	4977	4977	5050	5050	5050	5050	5050	5050	5050	5050	5050	5050	4977	4977	5050	4977	3738	3738	3738	3738	3738	3738	3738	3698	3698	3698	3698	3698	3698	3698	3698	3698	3698	0	0	0	0	0	3738	3738	3738	3698	3698	3659	3659	3659	3659	3659	3698	3698	3659	3698	3698	3698	0	6468	6592	6592	6592	6468	6468	6349	6349	6349	6349	6349	6349	6349	6349	6349	6349	6349	6235	6235	6235	6235	6235	6235	6235	6235	6235	6235	6235	6235	6235	6349	6349	6349	6349	6349	6349	6468	6592	6853	7137	7287	7444	7608	7779	7959	7959	8146	8146	8146	8146	8146	8146	8146	8146	8146	7959	7959	7959	7779	7779	7608	7608	7608	7608	7779	7779	7779	7779	7779	0	0	4142	4093	4093	4093	4093	4093	4093	4142	4142	4093	4093	4093	4142	4142	4142	0	0	0	0	0	0	0	0	0	0	2845	2822	2845	2822	2845	2845	2822	2822	2822	0	0	0	0	0	0	0	0	0	0	0	0	2893	2845	2845	2845	2869	2845	2845	0	0	0	0	0	0	0	0	0	0	0	0	0	0	0	0	3157	3157	3157	3157	3157	3157	3157	3157	3186	3186	0	0	2297	2281	2281	2266	2281	2281	2281	2266	2266	2266	2252	2252	2237	2237	0	3157	3157	3157	3129	3129	3129	3129	3129	3129	3129	3129	3129	3157	3129	3129	3101	3101	3101	2027	2015	2003	1992	1992	1992	1980	1980	1969	1958	1958	1958	1958	1958	1958	1969	1969	1969	1969	1969	1969	1969	1969	1969	1969	1969	1969	1958	1958	1969	1969	1969	1969	1969	1969	1969	1969	1969	1969	1969	1969	1969	1969	1969	1969	1958	1958	1969	1969	1969	1969	1969	1969	1969	1969	1969	1969	1969	1969	1969	1969	1969	1969	1969	1969	1969	1969	1969	1958	1958	1958	1958	1958	1947	0	0	0	0	0	1657	1657	1657	1657	1657	1657	1657	1649	1641	1641	1641	0	0	0	0	0	0	0	0	0	0	0	0	0	0	0	0	0	0	0	0	0	0	0	0	0	0	0	0	0	0	0	0	0	0	0	0	0
0	0	0	0	0	0	0	0	0	0	0	0	0	0	0	0	0	0	0	0	0	0	2127	2127	2127	2140	2140	2140	2140	2140	2127	2127	2127	2114	2127	2127	2127	2127	2127	2127	2114	2114	1824	1824	1824	1824	1824	1824	1824	1824	1824	1824	1824	1824	1833	1833	1833	1843	1843	1843	1843	1843	1853	1853	1853	1863	1863	1863	1863	1873	1883	1883	1894	1894	1904	1904	1904	1915	1915	1925	1925	1925	1925	1936	1936	1936	1947	1947	1947	1947	1958	1958	1947	1947	0	2733	2733	2711	2711	2711	2733	2690	2690	2690	2669	0	0	0	0	0	0	0	0	0	2799	2799	2822	2822	2822	2799	2799	2799	2799	2822	2822	2822	2822	2822	2822	2845	2845	2869	2893	2893	2893	2893	2917	2917	2917	2942	2942	2967	2993	2993	3019	3046	3046	3821	3821	3821	3821	3821	3821	3907	3907	3864	3864	3864	3907	3907	3907	3907	3952	3998	3998	4093	4142	4142	4142	4142	4192	4192	4192	4243	4243	4243	4350	4350	4406	4463	4521	4521	4581	4581	5915	5915	5915	5815	5815	5815	5815	5815	5815	5915	5915	5915	5915	5915	0	0	0	0	5915	5915	5915	5915	5815	5815	5815	5815	5719	5815	5815	5626	0	0	0	0	0	0	0	0	0	0	0	0	0	0	0	0	0	0	0	0	0	5125	5202	5202	5202	5125	5125	5125	5050	5050	4977	4906	4906	4906	4906	4906	4906	4906	4906	4906	4906	4906	4906	4977	4977	4977	4977	4977	4977	4977	5050	5050	5050	5050	4977	4977	4977	4977	4977	4977	4977	4977	4977	5050	5050	5050	5050	5050	5050	5050	5050	4977	4977	4977	4977	3738	3738	3738	3738	3738	3738	3738	3698	3698	3698	3698	3698	3698	3698	3698	3698	3698	3698	0	0	0	3738	3738	3738	3738	3698	3738	3659	3659	3659	3659	3659	3659	3659	3659	3698	3698	3698	3698	6468	6592	6468	6592	6468	6468	6349	6349	6349	6468	6468	6468	6468	6468	6349	6349	6349	6235	6235	6235	6235	6235	6235	6235	6235	6349	6349	6235	6349	6349	6349	6349	6349	6349	6349	6349	6468	6592	6853	6992	7137	7608	7608	7779	7959	8146	8146	8146	8146	8146	8146	8146	8146	8146	8146	7959	7959	7959	7779	7779	7608	7608	7608	7608	7779	7779	7779	7779	7779	7779	7779	0	0	0	0	4093	4093	4093	4243	4243	4192	4192	4192	4243	4243	4243	0	0	0	0	0	0	0	0	0	0	2822	2822	2822	2822	2822	2822	2822	2822	0	0	0	0	0	0	0	0	0	0	0	0	0	2893	2869	2869	2869	2869	2869	2869	2869	0	0	0	0	0	0	0	0	0	0	0	0	0	0	0	3186	3186	3157	3157	3157	3157	3157	3157	3157	3157	3157	0	0	2281	2281	2281	2281	2281	2281	2266	2252	2252	2252	2252	2252	2252	0	3157	3157	3157	3129	3157	3129	3157	3129	3129	3129	3129	3129	3157	3129	3129	3101	3101	3101	0	2003	2003	1992	1980	1980	1980	1969	1969	1958	1958	1958	1958	1958	1958	1969	1969	1969	1969	1969	1969	1969	1969	1969	1969	1969	1958	1958	1958	1969	1969	1969	1969	1969	1969	1969	1969	1969	1969	1969	1969	1969	1969	1969	1958	1958	1969	1969	1969	1969	1969	1969	1969	1969	1969	1969	1969	1969	1969	1969	1969	1969	1958	1969	1969	1969	1958	1958	1947	1947	1969	1936	1936	0	0	0	0	1665	1657	1657	1657	1657	1657	1657	1649	1649	1649	1641	1641	1641	0	0	0	0	0	0	0	0	0	0	0	0	0	0	0	0	0	0	0	0	0	0	0	0	0	0	0	0	0	0	0	0	0	0	0	0	0
0	0	0	0	0	0	0	0	0	0	0	0	0	0	0	0	0	0	0	0	0	2114	2140	2127	2127	2127	2140	2140	2140	2140	2127	2127	2127	2127	2127	2114	2114	2114	2127	2127	2114	1833	1833	1833	1824	1824	1824	1824	1824	1824	1824	1824	1824	1824	1833	1833	1833	1843	1843	1843	1843	1843	1853	1853	1863	1863	1863	1863	1863	1873	1883	1883	1894	1904	1904	1915	1915	1915	1915	1925	1925	1925	1925	1936	1936	1947	1947	1947	1958	1958	1958	1958	1958	1958	0	2733	2733	2711	2711	2733	2733	2733	2690	2690	0	0	0	0	0	0	0	0	0	0	2799	2777	2799	2822	2822	2799	2799	2799	2822	2822	2822	2822	2822	2822	2822	2845	2869	2893	2893	2893	2893	2893	2917	2917	2942	2942	2967	2967	2967	2993	2993	3019	3019	3821	3821	3821	3821	3864	3864	3864	3907	3864	3864	3864	3907	3907	3907	3907	3952	3998	4045	4093	4142	4142	4142	4142	4142	4192	4243	4243	4243	4296	4350	4350	4406	4463	4521	4521	4581	4581	5915	5915	5815	5815	5815	5815	5815	5815	5815	5915	5815	5915	5915	5915	0	0	0	0	5915	6124	5915	5915	5815	5815	5815	5815	5815	5815	5815	0	0	0	0	0	0	0	0	0	0	0	0	0	0	0	0	0	0	0	0	0	5125	5125	5202	5202	5202	5125	5125	5125	5050	5050	4977	4906	4906	4906	4906	4906	4906	4838	4838	4906	4838	4906	4906	4977	4977	4977	4977	4977	4977	5050	5050	5050	5050	5050	4977	4977	4977	4977	4977	4977	4977	4977	4977	5050	5050	5050	5050	5050	5050	5050	5050	4977	4977	4977	4977	3738	3738	3738	3738	3738	3738	3738	3698	3698	3698	3698	3698	3698	3698	3698	3698	3698	3659	3659	0	0	3738	3738	3738	3738	3698	3698	3659	3659	3659	3659	3659	3659	3659	3659	3659	3659	3621	3621	0	6468	6468	6468	6468	6468	6349	6349	6349	6349	6349	6468	6349	6349	6349	6349	6349	6235	6235	6235	6235	6235	6349	6349	6235	6349	6349	6349	6349	6349	6349	6349	6349	6468	6349	6468	6468	6592	6853	6992	7608	7779	7779	7779	8146	8146	8343	8146	8146	8146	8146	8146	8146	8146	8146	7959	7959	7959	7959	7779	7779	7608	7608	7779	7608	7608	7779	7779	7779	7779	7779	7779	0	0	0	0	0	0	4243	4296	4243	4243	4192	4243	4243	4243	4243	4243	4192	4243	4192	4192	0	0	0	0	2822	2822	2822	2822	2822	2822	2822	2822	0	0	0	0	0	0	0	0	0	0	0	0	0	0	2893	2893	2893	2893	2893	2845	2845	0	0	0	0	0	0	0	0	0	0	0	0	0	0	3216	3216	3186	3157	3157	3157	3157	3157	3157	3157	3157	3157	0	2281	2281	2281	2281	2281	2266	2266	2266	2252	2252	2252	2252	2252	2252	0	3129	3129	3186	3186	3157	3157	3157	3157	3129	3129	3129	3129	3157	3129	3129	3129	3129	3129	0	2003	2003	1992	1980	1980	1980	1969	1969	1958	1958	1958	1958	1969	1958	1958	1958	1969	1969	1969	1969	1969	1958	1958	1958	1958	1958	1958	1958	1969	1969	1969	1969	1958	1969	1969	1969	1969	1969	1969	1969	1969	1969	1969	1969	1958	1969	1969	1969	1969	1969	1969	1969	1969	1969	1969	1969	1969	1969	1969	1969	1969	1958	1958	1958	1958	1947	1958	1947	1947	1958	1947	1947	0	0	0	0	1665	1665	1665	1657	1657	1657	1657	1649	1649	1649	1641	1641	1641	0	0	0	0	0	0	0	0	0	0	0	0	0	0	0	0	0	0	0	0	0	0	0	0	0	0	0	0	0	0	0	0	0	0	0	0	0
0	0	0	0	0	0	0	0	0	0	0	0	0	0	0	0	0	0	0	0	2127	2127	2140	2140	2127	2127	2140	2140	2127	2127	2127	2127	2127	2114	2114	2114	2114	2114	2114	2114	2114	1833	1833	1833	1824	1833	1824	1824	1824	1824	1824	1824	1824	1824	1824	1833	1833	1833	1843	1843	1843	1853	1853	1853	1863	1863	1863	1863	1863	1873	1883	1894	1894	1894	1904	1915	1904	1915	1915	1925	1925	1925	1925	1936	1936	1947	1947	1947	1958	1958	1958	1969	1958	1958	1958	2733	2733	2711	2690	2711	2711	2733	2690	2690	0	0	0	0	0	0	0	0	0	0	2777	2777	2777	2799	2799	2777	2799	2799	2799	2822	2822	2822	2822	2822	2822	2845	2845	2893	2893	2917	2917	2917	2917	2917	2942	2942	2967	2967	2967	2967	2967	2993	2993	3821	3821	3821	3821	3821	3821	3864	3907	3864	3864	3864	3864	3907	3907	3907	3907	3907	3998	3998	4093	4142	4142	4142	4142	4192	4243	4243	4296	4296	4350	4350	4406	4463	4463	4521	4521	4521	5915	5815	5815	5815	5815	5815	5815	5815	5915	6018	5915	6018	6018	6018	6124	6235	6235	6235	6235	6124	5915	5915	5915	5915	5815	5915	5915	5915	5915	0	0	0	0	0	0	0	0	0	0	0	0	0	0	0	0	0	0	0	0	0	5125	5125	5202	5202	5202	5202	5125	5125	5050	5050	4977	4906	4906	4838	4838	4838	4838	4838	4838	4838	4838	4906	4906	4977	4977	4977	4977	4977	4977	5050	5050	5050	5050	5050	5050	4977	4977	4977	4977	5050	5050	5050	5050	5050	5050	5050	5050	5050	5050	5050	5050	4906	4906	4977	4906	3738	3738	3738	3738	3738	3738	3738	3698	3698	3698	3698	3698	3698	3698	3738	3698	3698	3659	3698	3698	0	3698	3698	3738	3698	3698	3698	3659	3659	3659	3659	3659	3659	3659	3621	3659	3621	3621	3621	0	6349	6468	6468	6349	6349	6235	6235	6235	6349	6349	6349	6349	6349	6349	6349	6349	6235	6235	6235	6235	6235	6349	6349	6235	6349	6349	6349	6349	6349	6349	6349	6349	6349	6468	6468	6349	6468	6720	6992	7608	7779	7779	7779	7779	8146	8343	8146	8146	8146	8146	8146	7959	7959	7959	7959	7959	7959	7959	7779	7779	7779	7779	7779	7779	7608	7779	7779	7779	7779	7779	7779	7779	0	0	0	0	0	4406	4406	4296	4296	4243	4243	4243	4243	4192	4192	4192	4192	4192	4192	4192	0	0	2777	2822	2822	2822	2822	2822	2822	2822	2822	0	0	0	0	0	0	0	0	0	0	0	0	0	0	2822	2869	2869	2869	2869	2845	2845	2845	0	0	0	0	0	0	0	0	0	0	0	0	0	3246	3216	3186	3186	3157	3157	3157	3157	3157	3157	3157	3157	2281	2281	2281	2281	2281	2281	2266	2266	2266	2252	2252	2297	2281	2297	2297	0	3129	3129	3129	3129	3157	3129	3129	3129	3129	3129	3129	3157	3157	3129	3129	3129	3129	3129	0	2003	2003	1992	1980	1980	1980	1969	1969	1958	1958	1958	1969	1958	1958	1958	1958	1958	1958	1958	1958	1958	1958	1958	1958	1958	1958	1958	1958	1958	1958	1958	1958	1958	1969	1969	1969	1969	1958	1958	1969	1969	1969	1969	1969	1969	1969	1969	1969	1969	1969	1969	1969	1969	1969	1969	1969	1969	1958	1958	1958	1969	1958	1958	1958	1958	1958	1958	1958	1958	1958	1958	1958	0	0	0	0	1665	1665	1657	1657	1657	1657	1657	1649	1649	1649	1649	1649	1649	0	0	0	0	0	0	0	0	0	0	0	0	0	0	0	0	0	0	0	0	0	0	0	0	0	0	0	0	0	0	0	0	0	0	0	0	0
0	0	0	0	0	0	0	0	0	0	0	0	0	0	0	0	0	0	0	0	2127	2127	2140	2140	2127	2140	2140	2140	2140	2140	2127	2127	2127	2114	2114	2114	2127	2114	2114	2114	2114	1843	1843	1833	1833	1833	1824	1824	1824	1824	1824	1824	1824	1824	1824	1833	1833	1833	1843	1853	1843	1853	1853	1853	1863	1863	1863	1863	1873	1873	1883	1894	1894	1904	1904	1915	1915	1915	1915	1925	1925	1936	1936	1936	1947	1947	1947	1947	1958	1958	1958	1969	1969	1969	1969	0	2733	2711	2690	2690	2690	0	0	0	0	0	0	0	0	0	0	0	0	0	2777	2777	2799	2799	2799	2777	2799	2799	2799	2822	2822	2822	2822	2822	2845	2845	2869	2893	2917	2893	2893	2893	2917	2917	2967	2967	2967	2942	2967	2942	2942	2942	2942	0	3821	3821	3821	3864	3864	3864	3907	3864	3821	3864	3864	3864	3907	3907	3907	3952	3998	3998	4093	4142	4142	4142	4192	4243	4243	4243	4296	4296	4350	4350	4406	4406	4463	4463	4463	5915	5915	5815	5815	5815	5719	5719	5815	5815	6018	6018	6018	6124	6124	6235	6124	6235	6235	6235	6235	6235	6235	6235	6018	6018	5915	5915	5915	5915	5915	5915	0	0	0	0	0	0	0	0	0	0	0	0	0	0	0	0	0	0	0	0	5125	5125	5125	5202	5202	5125	5125	5050	5050	5050	4977	4838	4838	4838	4838	4838	4838	4838	4838	4838	4838	4838	4906	4906	4977	4977	4977	4977	4977	4906	4906	4977	4977	4906	5050	5050	5050	5050	5050	5050	5050	5050	5050	5050	5050	5050	5050	5050	5050	5050	5050	4977	4838	4906	4838	4771	3738	3738	3738	3738	3738	3738	3698	3698	3698	3698	3698	3698	3698	3738	3698	3698	3659	3659	3659	0	3659	3659	3698	3698	3698	3698	3659	3659	3659	3659	3659	3659	3659	3659	3659	3659	3659	3659	0	6349	6349	6349	6235	6349	6235	6235	6235	6235	6349	6349	6349	6349	6349	6349	6349	6235	6235	6235	6235	6235	6349	6235	6349	6349	6349	6349	6349	6349	6349	6349	6349	6468	6468	6468	6468	6468	6720	7137	7608	7779	7959	7959	7959	8146	8146	8343	8146	8146	8146	8146	7959	7959	7959	7959	7959	7959	7959	7959	7779	7779	7779	7779	7779	7608	7779	7779	7779	7779	7779	7779	7779	0	0	0	0	4521	4463	4463	4350	4350	4296	4350	4243	4243	4243	4243	4192	4192	4192	4192	4192	0	0	2822	2799	2799	2822	2822	2822	2822	2822	2822	0	0	0	0	0	0	0	0	0	0	0	0	0	0	2822	2845	2845	2845	2869	2845	2845	2845	0	0	0	0	0	0	0	0	0	0	0	0	3246	3246	3216	3186	3157	3157	3157	3157	3157	3157	3129	3129	3129	2266	2266	2252	2266	2266	2266	2266	2266	2281	2281	2281	2297	2297	2312	2312	0	3129	3129	3129	3129	3129	3129	3129	3129	3129	3129	3129	3129	3129	3129	3129	3101	3101	3129	0	2003	2003	1992	1980	1980	1980	1969	1969	1958	1958	1958	1958	1958	1958	1958	1969	1958	1958	1958	1958	1958	1958	1958	1958	1958	1958	1947	1958	1958	1958	1958	1958	1958	1958	1958	1958	1958	1958	1958	1958	1958	1958	1969	1969	1969	1969	1969	1969	1969	1969	1969	1969	1958	1958	1969	1969	1958	1969	1969	1969	1969	1958	1958	1958	1958	1958	1958	1958	1958	1969	1958	1958	0	0	0	0	1665	1665	1665	1657	1657	1657	1657	1649	1649	1649	1634	1634	1641	0	0	0	0	0	0	0	0	0	0	0	0	0	0	0	0	0	0	0	0	0	0	0	0	0	0	0	0	0	0	0	0	0	0	0	0	0
0	0	0	0	0	0	0	0	0	0	0	0	0	0	0	0	0	0	0	2127	2127	2140	2140	2140	2140	2140	2140	2140	2140	2140	2140	2127	2127	2127	2127	2127	2127	2127	2127	2127	2114	1843	1833	1833	1824	1824	1824	1824	1824	1824	1824	1824	1824	1824	1824	1833	1833	1833	1843	1843	1843	1853	1853	1853	1863	1863	1863	1863	1873	1873	1883	1894	1894	1894	1904	1915	1915	1904	1915	1915	1925	1925	1936	1936	1947	1947	1958	1958	1958	1958	1969	1980	1980	1980	1969	0	2711	2711	2669	2669	2690	0	0	0	0	0	0	0	0	0	0	0	0	0	0	2777	2754	2754	2777	2777	2777	2777	2799	2822	2822	2822	2822	2845	2845	2869	2893	2893	2917	2893	2893	2893	2917	2942	2967	2967	2993	2942	2967	2942	2942	2942	2942	3821	3821	3821	3864	3864	3864	3864	3907	3864	3821	3864	3864	3864	3907	3907	3907	3952	3998	3998	4142	4142	4142	4142	4192	4243	4243	4243	4243	4350	4350	4406	4406	4406	4521	4521	4463	4463	5915	5915	5815	5815	5815	5815	5915	5915	6124	6235	6124	6124	6124	6235	6124	6235	6235	6235	6235	6235	6235	6235	6235	6124	6018	6124	6018	6124	6124	6124	0	0	0	0	0	0	0	0	0	0	0	0	0	0	0	0	0	0	0	5202	5125	5125	5202	5202	5125	5125	5125	5050	5050	4977	4906	4838	4838	4838	4838	4838	4838	4838	4838	4838	4838	4838	4906	4906	4977	4977	4977	4977	4977	4977	4977	4977	4977	4977	4977	4977	5050	5050	5050	4977	4977	4977	4977	5050	5050	5050	5050	5050	5050	5050	4977	4977	4906	4906	3779	3779	3738	3738	3779	3738	3738	3738	3698	3698	3698	3698	3698	3698	3698	3738	3698	3698	3698	3659	3659	0	3659	3659	3698	3738	3698	3698	3659	3659	3659	3659	3659	3659	3698	3659	3659	3659	3659	3659	0	6468	6349	6235	6235	6349	6235	6235	6235	6349	6349	6349	6349	6349	6349	6349	6349	6349	6235	6349	6349	6349	6349	6349	6349	6349	6349	6349	6349	6349	6349	6349	6349	6349	6468	6468	6349	6468	6592	6592	7608	7779	7959	7959	7959	8146	8343	8146	8146	8146	8146	8146	7959	7959	8146	8146	7959	8146	8146	8146	7959	7959	7779	7779	7779	7608	7779	7779	7779	7779	7779	7779	7779	0	0	0	0	4521	4463	4463	4406	4350	4350	4350	4350	4296	4243	4243	4192	4192	0	0	0	0	0	2799	2822	2845	2822	2822	2822	2822	2822	2822	0	0	0	0	0	0	0	0	0	0	0	0	0	2845	2822	2845	2845	2845	2869	2822	2845	2845	0	0	0	0	0	0	0	0	0	0	0	0	3246	3246	3216	3186	3186	3157	3157	3157	3157	3129	3129	3129	3129	2252	2252	2252	2252	2266	2252	2266	2266	2281	2281	2281	2297	2297	2297	2297	0	3129	3129	3129	3129	3129	3129	3129	3157	3157	3157	3129	3129	3129	3129	3129	3129	3129	3129	0	2003	1992	1992	1980	1980	1980	1980	1969	1958	1958	1958	1958	1958	1958	1958	1958	1958	1958	1958	1958	1958	1958	1958	1958	1958	1958	1958	1958	1958	1958	1958	1958	1947	1958	1958	1958	1958	1958	1958	1958	1958	1958	1969	1969	1969	1969	1969	1969	1969	1969	1969	1969	1969	1958	1969	1969	1969	1969	1969	1969	1969	1958	1958	1958	1958	1958	1958	1958	1958	1969	1969	1958	0	0	0	0	1657	1657	1657	1657	1657	1649	1649	1649	1649	1649	1634	1634	1634	0	0	0	0	0	0	0	0	0	0	0	0	0	0	0	0	0	0	0	0	0	0	0	0	0	0	0	0	0	0	0	0	0	0	0	0	0
0	0	0	0	0	0	0	0	0	0	0	0	0	0	0	0	0	0	0	2127	2140	2140	2140	2140	2127	2140	2140	2140	2140	2140	2140	2127	2127	2127	2127	2127	2127	2127	2114	2127	2114	1833	1833	1833	1824	1824	1824	1824	1824	1824	1824	1824	1824	1824	1824	1833	1833	1833	1833	1843	1843	1853	1853	1853	1863	1863	1863	1863	1873	1873	1883	1883	1894	1894	1904	1904	1915	1915	1915	1915	1925	1936	1936	1947	1947	1958	1958	1958	1958	1958	1969	1980	1980	1980	0	0	2711	2711	2669	2669	0	0	0	0	0	0	0	0	0	0	0	0	0	0	0	0	2754	2754	2777	2777	2777	2777	2799	2822	2822	2822	2845	2845	2845	2869	2893	2893	2917	2893	2893	2893	2893	2942	2967	2967	2967	2942	2942	2942	2942	2942	0	3821	3821	3821	3864	3864	3864	3907	3864	3864	3864	3864	3864	3907	3907	3864	3907	3952	3998	3998	4093	4142	4142	4142	4192	4192	4243	4243	4243	4350	4350	4406	4463	4463	4521	4463	4463	4463	5915	5915	5915	5915	5815	5815	5915	5915	6235	6235	6124	6124	6124	6124	6124	6235	6235	6235	6235	6235	6349	6349	6349	6349	6235	6349	6349	6235	6235	6235	6235	0	0	0	0	0	0	0	0	0	0	0	0	0	0	0	0	0	5125	5125	5125	5125	5125	5125	5125	5125	5125	5050	4977	4977	4906	4838	4838	4838	4838	4838	4838	4838	4838	4838	4838	4906	4906	4906	4977	4977	4977	4977	4977	4977	4977	4977	4977	4977	4977	4977	5050	5050	5050	5050	4977	4977	4977	5050	5050	5050	5050	5050	5050	5050	4977	4977	4906	4977	3779	3779	3779	3779	3779	3738	3738	3738	3738	3698	3698	3698	3698	3738	3698	3738	3698	3698	3698	0	0	0	0	3738	3738	3738	3738	3698	3659	3659	3659	3659	3698	3698	3698	3698	3659	3659	3698	3698	0	6468	6349	6349	6235	6349	6349	6235	6235	6349	6349	6349	6468	6349	6349	6468	6349	6349	6349	6349	6349	6349	6349	6349	6349	6349	6468	6349	6349	6349	6349	6349	6349	6349	6468	6349	6349	6349	6349	6992	7444	7608	7779	7959	7959	8146	8146	8146	8146	8146	8146	8146	8146	8146	8146	8343	8343	8343	8343	8146	8146	7959	7779	7779	7608	7608	7608	7608	7779	7779	7779	7779	7779	0	0	0	4521	4521	4463	4463	4406	4350	4350	4350	4350	4350	4243	4192	4192	4192	0	0	0	0	0	4406	2799	2822	2822	2822	2822	2799	2799	0	0	0	0	0	0	0	0	0	0	0	0	0	0	2822	2822	2822	2845	2845	2845	2822	2822	2822	0	0	0	0	0	0	0	0	0	0	0	0	0	3216	3186	3186	3186	3157	3157	3157	3129	3129	3129	3129	3129	2266	2266	2266	2266	2266	2252	2266	2266	2281	2281	2281	2297	2297	2297	2297	0	3129	3129	3129	3129	3129	3129	3129	3157	3157	3157	3129	3129	3129	3129	3129	3129	3129	3129	0	2003	2003	1992	1980	1980	1980	1969	1969	1958	1958	1958	1958	1958	1958	1958	1958	1958	1958	1958	1958	1958	1958	1958	1958	1958	1958	1958	1958	1958	1958	1958	1958	1969	1958	1969	1958	1958	1958	1958	1958	1958	1958	1969	1969	1969	1969	1969	1969	1980	1969	1969	1969	1969	1969	1969	1969	1969	1969	1969	1969	1969	1958	1958	1958	1958	1958	1958	1958	1969	1980	1980	1980	0	0	0	0	1657	1657	1657	1649	1649	1649	1649	1641	1641	1641	1634	1634	1634	0	0	0	0	0	0	0	0	0	0	0	0	0	0	0	0	0	0	0	0	0	0	0	0	0	0	0	0	0	0	0	0	0	0	0	0	0
0	0	0	0	0	0	0	0	0	0	0	0	0	0	0	0	0	0	0	2127	2140	2140	2153	2153	2140	2140	2140	2140	2140	2140	2140	2127	2127	2127	2127	2127	2127	2127	2127	2127	1824	1824	1833	1824	1824	1824	1824	1824	1824	1824	1824	1824	1824	1824	1824	1824	1824	1833	1833	1843	1843	1853	1853	1853	1863	1863	1863	1863	1873	1873	1873	1883	1883	1894	1904	1904	1915	1904	1915	1915	1925	1936	1936	1947	1947	1958	1958	1958	1958	1958	1958	1958	1969	1969	0	0	0	0	0	0	0	0	0	0	0	0	0	0	0	0	0	0	0	0	0	0	0	0	0	2777	2777	0	0	0	2822	2822	2845	2845	2845	2869	2893	2893	2917	2917	2917	2917	2893	0	0	0	2993	2993	2942	0	0	0	0	3779	3821	3821	3864	3864	3864	3907	3864	3864	3864	3864	3864	3907	3907	3907	3952	3952	3998	3998	4093	4093	4142	4142	4192	4243	4243	4243	4296	4350	4406	4406	4463	4463	4463	4463	4463	6235	6235	6018	6018	6018	6018	6018	6124	6235	6235	6235	6124	6124	6235	6235	6124	6124	6235	6349	6349	6349	6349	6349	6349	6349	6235	6349	6349	6235	6235	6235	6235	6235	0	0	0	0	0	0	0	0	0	0	0	0	0	0	0	0	5125	5125	5125	5125	5125	5125	5125	5125	5125	5050	4977	4977	4838	4838	4838	4838	4838	4838	4838	4838	4838	4838	4838	4838	4906	4906	4906	4977	4906	4977	4977	4977	4977	4977	4977	4977	4977	4977	5050	5050	5050	5050	5050	5050	5050	5050	5050	5050	4977	5050	5050	5050	5050	4977	4906	4977	3779	3779	3779	3779	3738	3738	3738	3738	3738	3698	3698	3738	3738	3738	3698	3698	3698	3698	3698	0	0	0	0	3738	3698	3738	3698	3698	3659	3659	3659	3659	3698	3659	3698	3698	3698	3698	3698	3698	6592	6468	6468	6349	6349	6349	6235	6235	6235	6349	6349	6349	6349	6349	6349	6349	6468	6349	6349	6349	6349	6349	6349	6349	6349	6349	6349	6349	6349	6349	6349	6349	6468	6349	6468	6468	6349	6349	6592	6992	7444	7608	7779	7779	7959	8146	8146	8146	8146	8146	8146	8146	8146	8146	8146	8343	8343	8343	8146	8146	7959	7959	7779	7608	7608	7608	7608	7608	7779	7779	7779	7779	7608	7608	0	4521	4521	4463	4463	4463	4406	4406	4406	4350	4350	4350	4350	4296	4296	4192	0	0	0	0	0	4350	4406	4406	2822	2845	2822	2822	2799	0	0	0	0	0	0	0	0	0	0	0	0	0	2845	2845	2822	2822	2845	2822	2845	2799	2799	2822	0	0	0	0	0	0	0	0	0	0	0	0	0	3186	3157	3157	3186	3157	3157	3157	3129	3129	3129	3101	3019	2266	2266	2266	2252	2252	2252	2252	2266	2281	2281	2281	2297	2297	2297	2297	3129	3129	3129	3129	3129	3129	3129	3129	3157	3157	3157	3129	3129	3129	3129	3129	3129	3129	3129	0	0	2003	1992	1980	1980	1980	1969	1969	1958	1958	1958	1958	1958	1958	1958	1958	1958	1958	1958	1958	1958	1958	1958	1958	1958	1958	1958	1958	1958	1958	1947	1947	1947	1958	1958	1958	1958	1958	1958	1958	1958	1958	1958	1958	1958	1969	1969	1969	1969	1969	1969	1969	1969	1958	1969	1969	1969	1969	1969	1969	1969	1958	1958	1958	1958	1958	1958	1958	1969	1969	1969	1980	1980	1980	0	0	1657	1649	1657	1649	1649	1649	1641	1641	1634	1641	1634	1626	1626	0	0	0	0	0	0	0	0	0	0	0	0	0	0	0	0	0	0	0	0	0	0	0	0	0	0	0	0	0	0	0	0	0	0	0	0	0
0	0	0	0	0	0	0	0	0	0	0	0	0	0	0	0	0	0	0	2140	2153	2140	2153	2153	2140	2140	2140	2140	2127	2127	2127	2127	2127	2127	2127	2127	2127	2127	2127	2127	1833	1824	1824	1824	1824	1824	1824	1824	1824	1824	1824	1824	1824	1824	1824	1824	1824	1824	1833	1843	1843	1853	1853	1853	1863	1863	1863	1863	1873	1873	1873	1883	1883	1894	1904	1915	1915	1915	1925	1925	1925	1936	1936	1947	1947	1947	1947	1947	1947	1947	1958	1958	1958	1958	0	0	0	0	0	0	0	0	0	0	0	0	0	0	0	0	0	0	0	0	0	0	0	0	0	0	0	0	0	0	0	0	0	2845	2845	2869	2893	2893	2917	2917	2917	2917	0	0	0	0	2993	2993	0	0	0	0	0	3779	3821	3864	3864	3864	3864	3907	3864	3864	3821	3864	3907	3907	3907	3907	3952	3952	3998	4045	4093	4093	4142	4142	4192	4243	4243	4296	4350	4350	4406	4406	4463	4463	4463	4406	4406	6235	6235	6124	6018	6018	6018	6124	6124	6124	6235	6235	6235	6235	6235	6235	6235	6235	6235	6349	6349	6349	6349	6349	6349	6349	6235	6349	6235	6235	6235	6235	6235	6349	6235	6235	0	0	0	0	0	0	0	0	0	0	0	0	0	0	5050	5125	5125	5125	5125	5125	5125	5125	5050	5050	4977	4977	4838	4838	4838	4838	4838	4838	4838	4838	4838	4838	4838	4838	4838	4906	4906	4906	4906	4977	4977	4977	4977	4977	4977	4977	4977	4977	5050	5050	5050	5050	5050	5050	5050	5050	5050	5050	5050	5050	5050	5050	5050	4977	4977	4977	4906	4838	3738	3738	3738	3738	3738	3738	3738	3698	3738	3738	3698	3738	3738	3698	3698	3698	0	0	0	0	0	3698	3738	3698	3698	3659	3621	3659	3659	3659	3698	3659	3698	3698	3698	3698	3698	0	6468	6468	6468	6349	6349	6349	6349	6349	6235	6349	6349	6349	6349	6349	6349	6349	6468	6468	6468	6468	6468	6468	6468	6349	6349	6349	6349	6349	6349	6349	6349	6349	6349	6349	6349	6349	6349	6349	6468	6992	7444	7444	7608	7779	7779	7959	7959	8146	7959	8146	8146	8146	8146	8146	8146	8343	8343	8343	8146	7959	7959	7959	7779	7608	7608	7608	7608	7608	7779	7779	7779	7779	7779	7779	0	4521	4463	4463	4463	4463	4406	4406	4406	4350	4350	4350	4350	4350	4350	4350	4406	4350	4350	4350	4350	4406	4406	4406	4406	2845	2845	4463	0	0	0	0	0	0	0	0	0	0	0	0	0	0	2822	2822	2822	2822	2822	2822	2822	2799	2799	0	0	0	0	0	0	0	0	3186	3186	3186	3186	3186	3157	3157	3157	3157	3157	3157	3157	3157	3129	3129	3101	3129	3046	2266	2266	2266	2252	2252	2252	2252	2266	2266	2266	2281	2281	2297	2297	0	3129	3129	3129	3129	3129	3129	3129	3157	3157	3129	3157	3129	3129	3129	3129	3101	3101	3101	3129	0	2003	1992	1992	1980	1980	1980	1980	1969	1969	1958	1958	1958	1958	1958	1958	1958	1958	1958	1958	1958	1958	1958	1958	1958	1958	1958	1958	1958	1958	1958	1947	1969	1947	1958	1958	1958	1958	1958	1958	1958	1958	1958	1969	1969	1958	1969	1969	1969	1969	1969	1969	1969	1969	1969	1969	1969	1969	1958	1969	1958	1969	1958	1958	1958	1958	1958	1958	1958	1958	1969	1969	1980	1980	1980	0	0	1649	1641	1649	1641	1649	1649	1641	1641	1634	1634	1634	1626	1626	0	0	0	0	0	0	0	0	0	0	0	0	0	0	0	0	0	0	0	0	0	0	0	0	0	0	0	0	0	0	0	0	0	0	0	0	0
0	0	0	0	0	0	0	0	0	0	0	0	0	0	0	0	0	0	0	2140	2153	2153	2153	2153	2140	2140	2140	2140	2127	2127	2127	2127	2127	2127	2127	2140	2127	2127	2127	2140	1833	1824	1824	1824	1824	1824	1824	1824	1824	1824	1814	1824	1824	1824	1824	1824	1824	1824	1824	1833	1843	1853	1853	1853	1863	1863	1863	1863	1873	1873	1873	1883	1883	1894	1904	1904	1915	1915	1915	1915	1925	1936	1936	1936	1947	1947	1958	1947	1947	1947	1947	1958	1958	1958	0	0	0	0	0	0	0	0	0	0	0	0	0	0	0	0	0	0	0	0	0	0	0	0	0	0	0	0	0	0	0	0	0	0	0	0	0	0	0	0	0	0	0	0	0	0	0	0	0	0	0	0	0	3779	3821	3864	3864	3864	3864	3907	3864	3864	3821	3864	3907	3907	3907	3952	3952	3952	3998	4045	4093	4142	4142	4192	4192	4243	4243	4296	4350	4406	4406	4463	4521	4463	4521	4463	4463	4463	6235	6124	6124	6124	6124	6235	6124	6124	6235	6235	6235	6235	6235	6349	6235	6235	6235	6349	6349	6349	6349	6349	6349	6349	6349	6349	6235	6235	6235	6235	6235	6349	6235	6235	6235	0	0	0	0	0	0	0	0	0	0	0	0	5050	5050	5050	5125	5125	5125	5125	5125	5125	5050	5050	4977	4906	4906	4838	4838	4838	4838	4838	4838	4838	4838	4838	4838	4838	4838	4906	4906	4906	4906	4977	4977	4977	4977	4977	4977	4977	4977	4977	5050	4977	5050	4977	4977	4977	4977	4977	5050	4977	4906	5050	5050	5050	4977	4977	4977	4977	4906	4906	4838	3738	3738	3738	3738	3738	3738	3698	3738	3738	3738	3738	3738	3698	3698	3698	0	0	0	0	3738	3738	3738	3698	3698	3698	3659	3659	3659	3659	3698	3659	3698	3698	3698	3698	3698	0	6468	6468	6468	6468	6468	6349	6349	6349	6235	6349	6349	6349	6349	6349	6349	6349	6468	6468	6349	6349	6349	6349	6349	6468	6468	6349	6349	6349	6349	6349	6349	6349	6349	6349	6349	6349	6349	6468	6468	6992	7137	7287	7444	7608	7779	7959	7959	7959	7959	8146	8146	8146	8146	8146	8146	8343	8343	8343	8146	7959	7959	7779	7608	7608	7608	7608	7608	7779	7779	7959	7779	7779	7959	7959	0	0	4521	4463	4463	4463	4406	4406	4406	4406	4350	4350	4350	4350	4350	4350	4406	4350	4406	4406	4406	4406	4350	4350	4406	4406	4406	4406	4296	4296	0	0	0	0	0	0	0	0	0	0	0	0	2822	2845	2822	2799	2799	2799	2799	2777	2777	0	0	0	0	0	3186	3186	3186	3157	3186	3186	3186	3157	3157	3157	3157	3157	3157	3157	3157	3129	3129	3129	3101	3129	3129	2266	2266	2252	2266	2252	2252	2252	2266	2266	2266	2266	2281	2297	2312	2312	3129	3129	3129	3129	3129	3129	3129	3129	3129	3129	3129	3129	3129	3129	3129	3101	3101	3129	3129	0	2015	2003	1992	1980	1980	1980	1969	1969	1969	1958	1958	1958	1958	1958	1958	1958	1958	1958	1958	1958	1958	1958	1958	1958	1958	1958	1958	1958	1958	1958	1958	1958	1947	1958	1958	1958	1958	1958	1958	1958	1958	1958	1969	1969	1958	1969	1969	1969	1969	1969	1969	1969	1969	1969	1969	1969	1969	1969	1969	1958	1958	1958	1958	1958	1958	1958	1958	1969	1969	1969	1969	1980	1980	1649	1649	1641	1649	1641	1641	1641	1641	1641	1641	1641	1634	1634	1634	1634	1634	0	0	0	0	0	0	0	0	0	0	0	0	0	0	0	0	0	0	0	0	0	0	0	0	0	0	0	0	0	0	0	0	0	0	0	0	0
0	0	0	0	0	0	0	0	0	0	0	0	0	0	0	0	0	0	0	2140	2153	2153	2153	2153	2140	2140	2140	2140	2127	2127	2127	2127	2127	2140	2127	2140	2140	2127	2127	2140	1833	1824	1824	1824	1824	1824	1824	1814	1824	1824	1814	1814	1824	1824	1824	1824	1824	1824	1824	1833	1843	1853	1853	1853	1863	1863	1863	1873	1873	1873	1873	1883	1883	1894	1904	1904	1915	1904	1904	1915	1915	1925	1936	1947	1947	1947	1947	1947	1947	1947	1947	1958	1958	1958	0	0	0	0	0	0	0	0	0	0	0	0	0	0	0	0	0	0	0	0	0	0	0	0	0	0	0	0	0	0	0	3406	3406	3406	3406	3406	0	0	0	0	0	0	0	0	0	0	0	0	0	0	0	0	0	0	3821	3864	3864	3864	3864	3907	3864	3821	3821	3864	3907	3907	3952	3952	3952	3998	3998	4045	4093	4142	4142	4192	4192	4243	4296	4350	4406	4406	4463	4463	4521	4521	4521	4463	4463	4463	4463	6124	6124	6124	6124	6235	6124	6235	6235	6235	6235	6235	6235	6235	6235	6235	6235	6349	6349	6349	6349	6349	6349	6349	6349	6349	6349	6349	6235	6235	6235	6235	6235	6235	6124	6124	0	0	0	0	0	0	0	0	0	0	0	4977	5050	5050	5125	5050	5050	5125	5125	5125	5050	5050	4977	4906	4906	4838	4838	4838	4838	4838	4838	4838	4838	4838	4838	4838	4906	4906	4906	4906	4906	4977	4977	4977	4977	4977	4977	5050	4977	4977	4977	4977	4977	4977	4906	4906	4906	4906	4977	4906	4906	4977	4977	4977	5050	4977	4977	4977	4977	4906	4906	3738	3738	3738	3738	3738	3738	3738	3738	3738	3738	3738	3738	3738	3698	3659	3659	0	0	0	3738	3698	3738	3738	3698	3698	3659	3659	3659	3659	3698	3659	3698	3698	3698	3698	3698	3698	6468	6468	6468	6468	6468	6468	6349	6349	6349	6349	6349	6349	6349	6349	6349	6349	6349	6349	6468	6468	6468	6468	6468	6468	6468	6468	6349	6349	6349	6349	6349	6349	6349	6349	6349	6468	6468	6468	6468	6468	7137	7444	7608	7779	7779	7779	7779	7959	7959	8146	8146	8146	8146	8146	8146	8343	8343	8146	8146	7959	7959	7779	7779	7608	7608	7608	7608	7608	7779	7959	7779	7959	8146	8343	8343	0	4463	4463	4463	4463	4406	4406	4406	4406	4406	4350	4350	4350	4406	4406	4406	4350	4406	4406	4406	4406	4350	4350	4350	4406	4350	4296	4296	4296	0	0	0	0	0	0	0	0	0	0	0	0	0	2845	2822	2799	2799	2799	2799	2754	2799	2799	0	0	3186	3186	3186	3157	3186	3157	3157	3157	3157	3157	3157	3157	3157	3157	3157	3157	3157	3157	3129	3129	3129	3129	3129	2252	2252	2252	2252	2252	2252	2252	2266	2266	2266	2266	2266	2281	2281	2281	0	3129	3157	3129	3129	3129	3129	3129	3129	3129	3129	3129	3129	3101	3129	3101	3101	3101	3101	0	2015	2003	1992	1980	1969	1969	1969	1958	1958	1958	1947	1947	1947	1958	1947	1947	1958	1958	1958	1958	1958	1958	1958	1958	1958	1958	1958	1958	1958	1958	1958	1958	1958	1958	1958	1958	1969	1958	1969	1958	1958	1969	1969	1969	1958	1969	1969	1969	1969	1969	1969	1969	1969	1969	1969	1969	1969	1958	1958	1958	1958	1947	1958	1958	1958	1958	1958	1969	1969	1969	1980	1980	1980	1649	1649	1649	1649	1641	1641	1641	1641	1641	1634	1634	1634	1634	1634	1634	1634	0	0	0	0	0	0	0	0	0	0	0	0	0	0	0	0	0	0	0	0	0	0	0	0	0	0	0	0	0	0	0	0	0	0	0	0	0
0	0	0	0	0	0	0	0	0	0	0	0	0	0	0	0	0	0	0	2153	2153	2153	2153	2153	2153	2140	2140	2127	2127	2127	2127	2127	2127	2140	2127	2140	2140	2127	2140	2140	1824	1824	1824	1824	1824	1824	1814	1814	1814	1824	1814	1824	1824	1824	1824	1824	1824	1824	1833	1833	1843	1853	1853	1853	1863	1863	1863	1863	1873	1873	1873	1883	1883	1894	1894	1904	1915	1915	1915	1925	1936	1925	1936	1947	1947	1947	1947	1947	1947	1947	1947	1947	1947	1958	0	0	0	0	0	0	0	0	0	0	0	0	0	0	0	0	0	0	0	0	0	0	0	0	0	0	0	0	0	0	0	3406	3373	3406	3406	3440	3440	0	0	0	0	0	0	0	0	0	0	0	0	0	0	0	3738	3738	3821	3821	3864	3864	3864	3907	3864	3864	3864	3907	3907	3907	3952	3952	3998	3998	3998	4045	4093	4093	4142	4192	4192	4243	4296	4296	4350	4406	4463	4521	4521	4521	4521	4463	4521	4350	4350	6235	6124	6124	6235	6235	6235	6235	6235	6235	6235	6235	6235	6235	6235	6235	6235	6235	6349	6349	6349	6349	6349	6349	6349	6349	6349	6349	6235	6235	6235	6235	6235	6235	6124	6124	0	0	0	0	0	0	0	0	0	0	0	4977	5050	5050	5050	5050	5125	5125	5202	5125	5125	5050	4977	4977	4906	4906	4838	4838	4838	4906	4906	4906	4906	4838	4906	4906	4906	4906	4906	4977	4977	4977	4977	4977	4977	4977	4977	4977	4977	4977	4977	4977	4977	4977	4906	4906	4906	4906	4906	4906	4906	4977	4977	4977	4977	4977	4977	4977	5050	5050	5050	5050	3738	3738	3738	3738	3738	3738	3738	3738	3738	3738	3698	3698	3698	3621	3621	0	0	0	3738	3738	3698	3738	3698	3698	3659	3659	3659	3659	3659	3659	3659	3698	3698	3698	3738	3738	6468	6468	6468	6468	6468	6468	6349	6349	6235	6235	6349	6349	6349	6349	6349	6349	6349	6349	6468	6468	6468	6468	6468	6468	6468	6468	6349	6349	6349	6349	6349	6349	6349	6349	6349	6349	6349	6349	6349	6349	6349	7608	7779	7779	7779	7779	7779	7779	7959	7959	8146	8146	8146	8146	8146	8343	8343	8146	8146	7959	7779	7779	7779	7608	7608	7608	7608	7779	7779	7959	7959	8146	8146	8146	8146	0	4463	4463	4463	4463	4406	4406	4406	4350	4350	4350	4350	4350	4350	4350	4406	4350	4406	4406	4406	4406	4350	4350	4350	4350	4350	4243	4243	4045	4045	4045	4045	4045	0	0	0	0	0	0	0	0	2845	2822	2822	2799	2799	2799	2799	2799	2799	2799	0	3186	3157	3186	3157	3157	3157	3157	3157	3157	3157	3157	3157	3157	3157	3157	3157	3157	3129	3129	3129	3129	3129	3129	0	2252	2252	2252	2252	2252	2252	2252	2252	2252	2266	2266	2266	2281	2281	2281	0	3157	3157	3157	3129	3129	3129	3129	3129	3129	3129	3129	3129	3101	3129	3129	3129	3129	3129	0	0	0	1992	1980	1969	1969	1958	1958	1947	1947	1947	1947	1947	1947	1947	1947	1958	1958	1958	1958	1958	1958	1958	1958	1958	1958	1958	1958	1958	1958	1958	1958	1969	1958	1958	1958	1958	1958	1958	1958	1958	1958	1969	1958	1958	1969	1969	1969	1969	1969	1969	1969	1969	1969	1969	1969	1969	1958	1969	1958	1969	1958	1958	1958	1958	1947	1958	1969	1980	1980	1980	1980	1657	1657	1649	1657	1649	1641	1641	1641	1641	1641	1634	1634	1634	1634	1634	1634	1634	0	0	0	0	0	0	0	0	0	0	0	0	0	0	0	0	0	0	0	0	0	0	0	0	0	0	0	0	0	0	0	0	0	0	0	0	0
0	0	0	0	0	0	0	0	0	0	0	0	0	0	0	0	0	0	0	2153	2167	2153	2153	2153	2153	2140	2140	2127	2127	2127	2127	2127	2127	2127	2127	2140	2140	2127	2140	2140	1833	1824	1824	1824	1824	1824	1814	1814	1814	1824	1814	1814	1824	1824	1824	1824	1824	1824	1833	1833	1843	1853	1853	1853	1863	1863	1863	1863	1863	1863	1873	1883	1894	1894	1904	1904	1915	1915	1925	1925	1936	1936	1936	1947	1947	1947	1947	1947	1947	1947	1936	1947	1947	0	0	0	0	0	0	0	0	0	0	0	0	0	0	0	0	0	0	0	0	0	0	0	0	0	0	0	0	0	0	0	3373	3373	3373	3440	3440	3475	3475	0	0	0	0	0	0	0	0	0	0	0	0	0	0	0	3779	3779	3821	3821	3821	3864	3864	3907	3864	3821	3821	3864	3907	3907	3952	3952	3998	3998	4045	4045	4093	4142	4142	4192	4192	4192	4296	4296	4350	4350	4406	4406	4521	4521	4521	4463	4406	4350	4350	6124	6124	6124	6235	6235	6235	6235	6235	6235	6235	6235	6349	6349	6349	6349	6349	6349	6349	6349	6349	6349	6349	6349	6349	6349	6349	6349	6349	6349	6235	6235	6235	6235	6124	6124	6124	0	0	0	0	0	0	0	0	0	0	4977	5050	5050	5050	5050	5125	5125	5202	5202	5125	5125	5050	4977	4977	4838	4838	4838	4838	4906	4906	4906	4838	4838	4906	4906	4838	4906	4906	4977	4977	4977	4977	4977	4977	4977	4977	4977	4906	4906	4906	4906	4906	4906	4906	4906	4906	4906	4906	4906	4906	4906	4977	4977	4977	4977	4977	4977	4977	4977	5050	3738	3738	3738	3738	3738	3738	3738	3738	3738	3698	3698	3738	3698	3698	3621	3621	0	0	0	0	3738	3738	3738	3738	3698	3659	3659	3659	3659	3659	3659	3659	3698	3698	3698	3864	3864	6592	6468	6468	6468	6468	6349	6349	6235	6235	6235	6235	6235	6349	6235	6349	6349	6349	6349	6349	6349	6349	6349	6349	6468	6468	6468	6468	6468	6349	6349	6349	6349	6349	6349	6349	6349	6349	6349	6349	6349	6349	7779	7779	7959	7779	7779	7779	7779	7959	7959	7959	8146	8146	8343	8146	8343	8343	8146	7959	7959	7779	7779	7779	7608	7608	7779	7608	7779	7779	7959	7959	7959	8146	8146	8146	4463	4463	4463	4463	4463	4406	4406	4406	4350	4350	4350	4350	4350	4350	4350	4350	4350	4406	4406	4406	4350	4406	4406	4350	4350	4350	4243	4142	4045	4045	4045	4045	4045	0	0	0	0	0	0	0	0	2845	2845	2845	2822	2799	2822	2822	2799	2799	2799	3186	3186	3186	3186	3157	3157	3157	3157	3157	3157	3157	3157	3157	3157	3157	3157	3157	3157	3129	3157	3157	3129	3129	3129	0	0	2252	2252	2252	2266	2252	2252	2252	2252	2266	2252	2252	2266	2266	2266	0	3129	3157	3157	3129	3129	3129	3129	3129	3129	3129	3129	3129	3101	3129	3101	3129	3157	3157	0	0	2015	2003	1980	1969	1969	1958	1958	1947	1947	1947	1947	1947	1958	1947	1947	1958	1958	1958	1958	1958	1958	1958	1958	1958	1958	1958	1958	1947	1958	1958	1958	1958	1958	1958	1969	1969	1969	1969	1958	1969	1969	1969	1958	1958	1969	1969	1969	1958	1969	1969	1969	1969	1969	1969	1969	1958	1958	1958	1958	1958	1958	1958	1958	1958	1947	1969	1980	1980	1980	1992	1992	1665	1665	1657	1657	1649	1641	1641	1641	1641	1641	1634	1634	1634	1634	1634	1634	1634	0	0	0	0	0	0	0	0	0	0	0	0	0	0	0	0	0	0	0	0	0	0	0	0	0	0	0	0	0	0	0	0	0	0	0	0	0
