0	0	0	0	0	0	0	0	0	0	0	0	0	1138	1138	1138	1146	1146	1146	1138	1134	1134	1138	1134	1134	1134	1134	1138	1138	1138	1138	1138	1138	1138	1138	1146	1146	1150	1153	1153	1153	1153	1153	1153	0	0	0	0	0	0	0	1113	1113	1113	1113	1116	1113	1113	1109	1113	1116	1116	0	0	0	0	0	0	0	0	0	0	0	0	0	0	0	0	0	0	0	0	0	0	0	0	0	1249	1249	1254	1254	1254	1254	1254	0	0	0	1268	1268	1272	1272	1277	1282	1291	1296	1301	1311	1311	1311	0	0	0	0	1347	1347	1352	1352	1358	1363	1363	0	0	0	0	0	0	0	0	0	0	0	0	1567	1567	1574	1574	1574	1574	1574	1574	1574	1574	1574	1804	1804	1795	1795	1795	1795	1804	1804	1824	1824	1833	1833	1843	1843	1853	1853	1863	1873	1873	1883	1894	1915	1915	1915	1915	1925	1936	1958	1980	1992	2003	2015	2015	2027	2027	2027	2551	2551	2551	2551	2551	2869	2869	2869	2869	2869	2869	2869	2869	2869	2869	2869	2869	2869	2869	2893	2917	2917	2917	4771	4706	4706	4706	4706	4643	4706	4706	4706	4706	4706	4706	4706	4706	4706	4706	4706	4771	4643	4706	4706	4706	4706	4706	4706	4643	4643	4706	4706	4643	4643	4643	4706	4706	4706	4706	4706	4706	4643	4706	4643	4643	4643	4643	4643	4643	4643	4643	4643	4643	4643	4581	4581	4643	4643	4643	4643	4706	4771	4771	4771	4771	4771	4706	4706	4706	4706	4706	4643	4706	4706	4706	4706	4706	4706	4706	4706	3621	3621	3621	3621	3621	3621	3621	3621	3621	3583	3583	3583	3583	3583	3583	3583	3546	3583	3583	3583	3546	3546	3546	3546	3546	3475	3475	3475	3475	3475	3475	3475	3475	3475	3475	3475	3406	3406	3406	3406	3406	3406	3406	3406	3406	3406	3440	3406	3406	3406	3406	3406	3406	3406	3406	3406	3406	3406	3440	3475	3475	3475	3475	3475	3475	3475	3440	3440	3475	3440	3475	3475	3475	3475	3475	3475	3510	3546	3546	3546	3583	3583	3583	3583	3583	3583	3621	3621	3659	3659	3659	4463	4463	4463	4521	4521	4521	4521	4581	4521	4521	4521	4521	4521	4521	4521	4521	4521	4521	4521	4521	4521	4521	4521	4521	4521	4521	4521	4521	4521	4521	4581	4581	4581	4581	4643	4643	4643	4643	4643	4643	4581	4643	4581	4521	4521	4521	4521	4521	4521	4581	4643	4643	4581	4581	4581	4581	4581	4521	4521	4521	4521	4521	4521	4521	4521	4521	4581	4581	4581	4643	4581	4581	4521	4521	4521	4521	4463	4463	4463	4406	4350	4296	4296	4243	4243	4243	4243	4243	4192	4192	4192	4142	4142	4093	4045	4093	4093	4093	4093	4093	4093	4093	4093	4093	4045	4045	4045	3998	3998	4045	4045	4045	4045	3406	3406	3440	3440	3440	3440	3406	3406	3406	3406	3406	3373	3373	3341	3341	3341	3341	3341	3341	3341	3309	3341	3309	3309	3309	3309	3309	3309	3309	3309	3309	3277	3277	3277	3277	3277	3277	3246	3277	3277	3277	3277	3277	3277	3277	3277	3277	3277	3277	3277	3277	3277	3277	3277	3277	3277	3277	3246	3216	3246	3246	3246	3277	3246	3277	3277	3277	3277	3277	3277	3277	3309	3309	3309	3309	6235	6235	6235	6349	6349	6349	6349	6349	6468	6468	6468	6468	6468	6468	0	0	0	0	0	0	0	0	0	0	6592	6468	6592	6592	6592	6592	6592	6592	0	0	0	0	0	6592	6592	6592	6592	6720	6720	6720	6592	6592	6592	6592	6592	6592	0	0	0	0	0	0	0	0	0	0	0	0	0	0	0	0	0	0	0	0	0	0	0	0	0	0	0	0	0	0	0	0
0	0	0	0	0	0	0	0	0	0	0	0	0	0	0	0	0	1146	1142	1138	1131	1131	1134	1134	1131	1134	1134	1134	1138	1138	1138	1138	1138	1138	1138	1142	1146	1146	1150	1153	1153	1153	1153	1157	1157	0	0	0	0	0	1116	1113	1113	1116	1116	1116	1113	1113	1113	1113	1120	1120	0	0	1123	1123	0	0	0	0	0	0	0	0	0	0	0	0	0	0	0	0	0	0	0	0	0	0	0	0	0	0	0	0	0	0	0	1268	1268	1272	1272	1277	1282	1291	1301	1301	1311	1316	1316	1321	1326	1326	1347	1342	1347	1352	1352	1358	1368	1368	0	0	0	0	0	0	0	0	0	0	0	0	1567	1567	1574	1567	1574	1574	1574	1574	1574	1574	1795	1786	1786	1786	1786	1786	1795	1804	1804	1814	1833	1833	1833	1843	1843	1853	1853	1863	1873	1873	1883	1894	1915	1915	1915	1925	1936	1947	1958	1980	1992	2003	2015	2015	2027	2027	2027	2551	2551	2570	2570	2589	2589	2869	2869	2869	2869	2869	2869	2869	2869	2869	2869	2869	2869	2869	2893	2917	2917	2917	4581	4643	4581	4643	4643	4643	4643	4643	4706	4643	4706	4771	4771	4771	4771	4706	4706	4706	4706	4771	4771	4771	4706	4706	4706	4643	4643	4643	4643	4643	4643	4643	4643	4643	4643	4643	4706	4706	4643	4706	4643	4643	4643	4643	4643	4643	4643	4643	4643	4643	4643	4643	4643	4643	4643	4643	4643	4643	4771	4771	4771	4771	4771	4771	4706	4706	4706	4643	4643	4643	4706	4706	4706	4706	4706	4706	4706	4706	3621	3621	3621	3621	3621	3583	3583	3583	3583	3583	3583	3583	3583	3583	3583	3546	3583	3583	3583	3546	3546	3546	3546	3510	3475	3475	3475	3475	3475	3475	3475	3475	3475	3475	3475	3440	3406	3406	3406	3406	3406	3406	3406	3406	3406	3440	3406	3440	3406	3406	3406	3406	3406	3406	3406	3406	3440	3440	3440	3475	3475	3475	3475	3475	3475	3475	3475	3440	3440	3440	3440	3475	3475	3475	3475	3510	3546	3546	3546	3546	3546	3583	3583	3583	3583	3583	3621	3659	3659	3659	4463	4521	4521	4521	4521	4521	4521	4581	4521	4521	4521	4521	4521	4521	4521	4521	4521	4521	4521	4521	4521	4521	4521	4521	4521	4521	4521	4521	4521	4581	4643	4643	4581	4581	4643	4643	4581	4581	4643	4643	4521	4521	4521	4521	4521	4521	4521	4521	4521	4521	4581	4581	4581	4581	4581	4581	4581	4521	4521	4521	4521	4521	4521	4521	4521	4521	4521	4581	4581	4581	4581	4581	4521	4521	4521	4521	4463	4463	4521	4581	4463	4296	4243	4243	4192	4192	4192	4192	4192	4192	4192	4142	4142	4093	4093	4093	4093	4093	4093	4093	4093	4093	4093	4093	4045	4045	4045	3998	4045	4045	4045	4045	4045	3406	3406	3440	3440	3440	3440	3440	3440	3440	3406	3406	3406	3373	3341	3373	3373	3341	3341	3341	3341	3341	3341	3341	3309	3309	3309	3309	3309	3309	3309	3309	3309	3277	3277	3277	3309	3277	3277	3277	3277	3277	3277	3277	3277	3277	3277	3277	3277	3277	3277	3277	3277	3277	3277	3277	3246	3246	3246	3216	3216	3216	3246	3246	3246	3277	3277	3277	3277	3309	3309	3309	3309	3309	3309	3309	3309	6235	6349	6349	6235	6235	6235	6235	6468	6468	6349	6468	6468	6468	6468	6468	0	0	0	6468	6592	6592	0	0	6592	6592	6592	6592	6592	6592	6592	6592	0	0	0	0	0	6592	6592	6592	6592	6853	6853	6853	6592	6592	6592	6592	6592	6592	0	0	0	0	0	0	0	0	0	0	0	0	0	0	0	0	0	0	0	0	0	0	0	0	0	0	0	0	0	0	0	0
0	0	0	0	0	0	0	0	0	0	0	0	0	0	0	0	0	0	1142	1138	1131	1134	1134	1134	1131	1134	1134	1134	1134	1134	1138	1138	1138	1138	1138	1146	1146	1146	1150	1153	1153	1153	1153	1157	1153	1153	0	0	0	0	1116	1113	1113	1116	1116	1116	1113	1113	1113	1116	1116	1120	1120	1120	1123	1127	1127	0	0	0	0	0	0	0	0	0	0	0	0	0	0	0	0	0	0	0	0	0	0	0	0	0	0	0	0	0	0	1268	1272	1272	1277	1287	1291	1296	1301	1301	1306	1311	1316	1316	1326	1326	1342	1342	1342	1347	1352	1363	1368	1368	0	0	0	0	0	0	0	0	0	0	0	0	1574	1574	1574	1574	1574	1574	1574	1574	1574	1574	1574	1777	1777	1786	1777	1786	1795	1795	1804	1814	1824	1833	1833	1843	1843	1853	1853	1863	1873	1883	1894	1904	1915	1915	1925	1936	1947	1958	1969	1980	1992	2003	2003	2003	2003	2003	2027	2570	2570	2570	2589	2589	2589	2589	2869	2869	2869	2869	2869	2869	2869	2869	2869	2869	2869	2869	2893	2869	2869	4581	4581	4643	4643	4643	4643	4643	4643	4643	4643	4643	4643	4706	4771	4706	4706	4706	4706	4706	4706	4771	4706	4771	4706	4706	4643	4643	4643	4643	4643	4643	4643	4643	4643	4706	4643	4643	4643	4643	4706	4706	4643	4643	4643	4643	4643	4643	4643	4643	4643	4643	4581	4581	4581	4643	4643	4643	4643	4643	4706	4771	4771	4771	4771	4771	4771	4706	4706	4706	4643	4643	4706	4706	4706	4706	4706	4643	4643	4643	3621	3621	3621	3621	3621	3621	3621	3583	3583	3583	3583	3583	3583	3583	3546	3546	3583	3583	3583	3546	3546	3546	3546	3510	3475	3475	3475	3475	3475	3475	3475	3475	3475	3475	3475	3440	3406	3406	3406	3406	3406	3406	3406	3406	3440	3440	3440	3440	3406	3406	3406	3406	3406	3406	3406	3406	3440	3440	3440	3440	3475	3475	3475	3475	3475	3475	3475	3475	3440	3440	3440	3475	3475	3475	3475	3510	3546	3546	3546	3546	3546	3546	3546	3583	3583	3583	3583	3621	3621	3621	4463	4463	4521	4521	4521	4521	4521	4521	4521	4521	4463	4521	4521	4463	4521	4521	4521	4521	4521	4521	4521	4521	4521	4521	4521	4463	4463	4521	4581	4581	4581	4581	4581	4581	4643	4643	4581	4581	4643	4643	4521	4463	4521	4463	4463	4463	4521	4521	4521	4521	4521	4581	4581	4581	4521	4521	4521	4521	4521	4521	4521	4521	4521	4521	4521	4521	4521	4581	4581	4581	4581	4581	4521	4521	4521	4521	4521	4463	4463	4463	4463	4243	4243	4192	4192	4192	4192	4192	4192	4192	4142	4142	4142	4093	4093	4093	4093	4093	4093	4093	4093	4045	4045	4045	4045	4045	4045	4045	4045	4045	4045	4045	4045	3406	3406	3440	3440	3440	3440	3406	3406	3406	3406	3406	3406	3406	3406	3406	3373	3373	3373	3373	3373	3373	3373	3341	3309	3309	3309	3309	3309	3309	3309	3309	3309	3277	3277	3277	3277	3277	3277	3277	3277	3277	3277	3277	3277	3277	3277	3277	3277	3277	3277	3277	3277	3277	3277	3277	3246	3246	3246	3216	3216	3216	3246	3246	3277	3277	3277	3277	3277	3309	3309	3309	3309	3341	3341	3341	3309	6235	6235	6235	6235	6235	6235	6235	6349	6349	6349	6349	6349	6468	6349	6349	0	0	6468	6468	6592	6468	6468	6592	6592	6592	6592	6592	6592	6592	6592	6720	6720	0	0	0	6720	6592	6720	6720	6720	6853	6853	6853	6720	6720	6592	6720	6720	6720	0	0	0	0	0	0	0	0	0	0	0	0	0	0	0	0	0	0	0	0	0	0	0	0	0	0	0	0	0	0	0	0
0	0	0	0	0	0	0	0	0	0	0	0	0	0	0	0	0	0	0	0	1131	1134	1134	1131	1131	1131	1131	1134	1134	1134	1134	1134	1134	1134	1138	1142	1146	1146	1150	1153	1153	1153	1153	1157	1153	1153	0	0	0	1116	1116	1113	1116	1116	1113	1113	1113	1113	1113	1116	1120	1120	1120	1123	1123	1123	1123	0	0	0	0	0	0	0	0	0	0	0	0	0	0	0	0	0	0	0	0	0	0	0	0	0	0	0	0	0	0	0	1272	1272	1282	1287	1291	1301	1301	1301	1306	1311	1316	1316	1331	1331	1342	1342	1347	1347	1352	1352	1374	1374	0	0	0	0	0	0	0	0	0	0	0	0	1574	1567	1567	1574	1574	1574	1574	1574	1574	1574	1574	1768	1768	1777	1777	1786	1786	1795	1804	1814	1824	1833	1833	1843	1843	1853	1863	1863	1873	1883	1894	1904	1915	1925	1925	1936	1947	1958	1958	1958	1992	2003	2003	2015	2015	2015	0	2589	2589	2570	2589	2589	2589	2589	2845	2845	2869	2869	2869	2869	2869	2869	2869	2869	2869	2869	2869	2893	2893	4581	4581	4581	4581	4581	4643	4643	4643	4643	4643	4643	4706	4706	4706	4706	4706	4706	4706	4706	4706	4706	4706	4771	4706	4706	4643	4643	4643	4643	4643	4643	4643	4643	4643	4706	4643	4643	4643	4643	4643	4643	4643	4643	4643	4643	4643	4643	4643	4643	4643	4643	4581	4581	4581	4643	4643	4581	4643	4643	4706	4706	4706	4706	4706	4771	4771	4706	4706	4706	4706	4706	4706	4706	4706	4706	4706	4706	4643	4771	4771	3621	3621	3621	3621	3621	3621	3621	3583	3583	3583	3583	3583	3583	3546	3546	3546	3546	3546	3546	3546	3510	3510	3440	3440	3440	3440	3440	3440	3475	3475	3475	3475	3475	3440	3440	3406	3406	3440	3406	3406	3406	3406	3440	3440	3440	3440	3440	3406	3440	3406	3406	3406	3406	3406	3406	3406	3406	3440	3440	3440	3440	3475	3440	3475	3475	3475	3475	3440	3440	3475	3475	3475	3475	3475	3510	3546	3546	3546	3583	3546	3546	3546	3583	3583	3583	3583	3583	3583	4521	4463	4521	4406	4463	4463	4463	4463	4521	4463	4463	4463	4463	4406	4406	4463	4521	4463	4463	4521	4521	4521	4521	4521	4521	4463	4463	4463	4521	4521	4521	4521	4521	4581	4581	4643	4643	4581	4581	4643	4521	4521	4463	4463	4463	4463	4463	4463	4463	4463	4463	4463	4463	4463	4521	4463	4463	4463	4463	4521	4463	4463	4463	4521	4521	4521	4521	4521	4581	4581	4581	4581	4581	4521	4521	4521	4521	4521	4463	4463	4463	4463	4243	4243	4192	4192	4192	4192	4192	4192	4192	4192	4192	4142	4142	4093	4045	4045	4045	4045	4093	4045	4045	4045	4045	4045	4045	4045	4045	4045	4045	4045	4045	4045	3406	3406	3440	3440	3440	3440	3440	3406	3406	3406	3406	3406	3406	3406	3406	3406	3373	3406	3373	3373	3373	3373	3341	3341	3309	3309	3309	3309	3309	3309	3309	3309	3309	3309	3277	3277	3277	3277	3277	3277	3277	3277	3277	3277	3277	3277	3277	3277	3277	3277	3277	3277	3277	3277	3246	3246	3246	3246	3246	3246	3216	3246	3277	3277	3277	3277	3277	3277	3309	3309	3277	3309	3309	3309	3309	0	6235	6235	6235	6235	6235	6235	6235	6349	6349	6235	6235	6349	6349	6349	6349	6468	6468	6468	6468	6468	6468	6592	6592	6592	6592	6592	6592	6592	6720	6592	6720	6720	6853	6992	6720	6720	6720	6853	6720	6853	6853	6992	6992	6853	6853	6853	6853	6720	6720	0	0	0	0	0	0	0	0	0	0	0	0	0	0	0	0	0	0	0	0	0	0	0	0	0	0	0	0	0	0	0	0
0	0	0	0	0	0	0	0	0	0	0	0	0	0	0	0	0	0	0	0	1131	1134	1134	1131	1131	1131	1131	1131	1131	1131	1134	1134	1131	1131	1134	1138	1142	1146	1150	1150	1150	1153	1150	1153	1150	1150	0	1120	1116	1116	1116	1116	1116	1116	1116	1116	1116	1116	1116	1120	1120	1123	1123	1123	1123	1127	1131	1131	0	0	0	0	0	0	0	0	0	0	0	0	0	0	0	0	0	0	0	0	0	0	0	0	0	0	0	0	0	0	1272	1277	1287	1291	1296	1301	1301	1306	1306	1311	1316	1326	1331	1336	1342	1342	1342	1342	1352	1352	1374	1374	0	0	0	0	0	0	0	0	0	0	0	0	0	1567	1574	1574	1574	1574	1574	1574	1574	1574	1768	1768	1768	1777	1777	1786	1795	1795	1804	1814	1824	1833	1833	1843	1843	1853	1863	1863	1873	1883	1894	1904	1915	1925	1925	1925	1947	1958	1969	1969	2003	2003	2015	2015	2015	2015	0	2589	2589	2589	2609	2609	2629	2629	2629	2822	2845	2869	2869	2869	2869	2869	2869	2869	2869	2869	2869	2869	2869	4581	4581	4581	4581	4643	4643	4643	4643	4643	4643	4643	4643	4706	4706	4706	4706	4706	4706	4706	4706	4706	4706	4771	4706	4706	4706	4643	4643	4643	4643	4643	4643	4643	4643	4706	4643	4643	4643	4643	4581	4581	4581	4581	4581	4581	4643	4643	4643	4643	4643	4643	4643	4581	4581	4643	4643	4643	4643	4643	4643	4706	4706	4706	4771	4706	4771	4706	4706	4706	4706	4706	4706	4706	4706	4771	4771	4706	4706	4771	4771	4706	3621	3621	3621	3621	3621	3583	3583	3583	3583	3583	3583	3583	3546	3546	3546	3583	3546	3546	3546	3510	3510	3510	3475	3475	3440	3440	3440	3475	3475	3475	3475	3475	3440	3406	3406	3406	3440	3440	3440	3440	3440	3440	3440	3440	3440	3440	3440	3440	3440	3440	3440	3406	3406	3406	3406	3406	3440	3440	3440	3475	3475	3475	3475	3475	3510	3475	3475	3475	3475	3475	3475	3440	3475	3510	3546	3546	3546	3583	3546	3583	3546	3583	3583	3583	3583	3583	4463	4463	4463	4521	4463	4463	4463	4463	4463	4521	4463	4463	4406	4406	4406	4406	4463	4463	4463	4463	4463	4463	4521	4463	4521	4463	4463	4463	4463	4406	4463	4463	4463	4521	4521	4521	4581	4643	4581	4581	4643	4521	4521	4463	4463	4463	4463	4463	4463	4406	4406	4406	4406	4463	4463	4463	4463	4406	4406	4463	4463	4463	4463	4463	4521	4521	4521	4521	4521	4581	4581	4581	4581	4521	4521	4521	4521	4521	4521	4521	4521	4463	4463	4243	4243	4192	4192	4192	4192	4243	4192	4192	4192	4192	4142	4142	4093	4093	4045	4045	4045	4045	4045	4045	4045	4045	4045	4045	4045	4045	4045	4045	4045	4045	4045	3406	3406	3440	3440	3440	3440	3440	3440	3406	3406	3406	3406	3406	3406	3406	3373	3373	3373	3373	3373	3373	3341	3341	3309	3309	3309	3309	3309	3309	3309	3309	3309	3309	3309	3309	3309	3309	3309	3277	3277	3277	3277	3277	3246	3246	3246	3277	3277	3277	3277	3277	3277	3277	3277	3246	3246	3246	3246	3246	3246	3246	3246	3277	3277	3277	3277	3277	3277	3277	3277	3277	3309	3309	3309	3309	0	6124	6235	6124	6124	6235	6235	6235	6235	6235	6235	6235	6235	6349	6349	6349	6468	6468	6468	6468	6468	6592	6592	6592	6592	6592	6592	6720	6720	6720	6720	6720	6720	6853	6853	6720	6720	6720	6992	6992	6992	6992	6992	6992	6853	6853	6853	6853	6853	6853	0	0	0	0	0	0	0	0	0	0	0	0	0	0	0	0	0	0	0	0	0	0	0	0	0	0	0	0	0	0	0	0
0	0	0	0	0	0	0	0	0	0	0	0	0	0	0	0	0	0	0	0	0	1134	1134	1131	1131	1131	1131	1131	1131	1131	1131	1131	1131	1131	1131	1134	1138	1142	1142	1150	1150	1150	1150	1150	1134	1134	1120	1120	1116	1113	1113	1113	1113	1116	1120	1120	1123	1123	1120	1123	1120	1123	1123	1123	1123	1123	1131	1131	0	0	0	0	0	0	0	0	0	0	0	0	0	0	0	0	0	0	0	0	0	0	0	0	0	0	0	0	0	0	0	1277	1291	1291	1296	1296	1301	1301	1306	1311	1311	1311	1331	1342	1342	1342	1342	1342	0	0	0	0	0	0	0	0	0	0	0	0	0	0	0	0	0	1574	1574	1574	1581	1574	1574	1574	1574	1574	1768	1768	1768	1777	1786	1786	1795	1795	1804	1814	1824	1833	1833	1843	1843	1853	1863	1863	1873	1883	1894	1904	1915	1915	1925	1925	1958	1958	1969	1980	1992	2003	2015	2027	2027	2027	0	2609	2609	2589	2609	2629	2649	2669	2690	2754	2822	2799	2845	2869	2869	2869	2893	2893	2869	2869	2869	2893	2893	4521	4581	4581	4581	4581	4643	4643	4643	4643	4643	4643	4643	4706	4706	4706	4706	4706	4706	4706	4706	4706	4706	4771	4706	4706	4706	4643	4643	4643	4643	4643	4643	4643	4643	4706	4643	4643	4581	4581	4521	4521	4521	4521	4521	4581	4581	4581	4643	4643	4643	4643	4643	4643	4643	4643	4643	4581	4643	4706	4706	4706	4706	4706	4771	4706	4706	4706	4706	4706	4706	4706	4706	4706	4706	4706	4706	4706	4643	4706	4706	4706	4706	3659	3659	3621	3621	3583	3583	3621	3583	3583	3583	3546	3546	3546	3546	3546	3546	3546	3546	3510	3510	3475	3440	3440	3440	3440	3475	3475	3475	3475	3475	3475	3440	3406	3406	3406	3440	3440	3440	3440	3440	3440	3440	3440	3440	3440	3440	3440	3440	3440	3440	3440	3440	3406	3440	3406	3440	3440	3440	3440	3475	3475	3475	3475	3510	3475	3475	3475	3475	3475	3475	3440	3475	3510	3546	3583	3546	3583	3546	3583	3546	3546	3583	3583	3546	3546	4581	4521	4463	4521	4463	4463	4463	4463	4463	4463	4406	4406	4406	4406	4406	4463	4463	4463	4463	4463	4463	4521	4521	4463	4521	4463	4463	4406	4406	4406	4406	4406	4296	4296	4521	4521	4581	4643	4581	4581	0	4521	4521	4463	4463	4463	4463	4406	4406	4350	4406	4350	4350	4350	4463	4463	4406	4350	4350	4406	4463	4406	4406	4406	4463	4521	4463	4521	4521	4581	4581	4581	4581	4581	4521	4521	4521	4521	4521	4463	4463	0	0	0	0	4243	4243	4243	4243	4243	4192	4192	4192	4192	4192	4142	4142	4093	4045	4045	4045	4045	4045	4045	4045	4045	4045	4045	4045	4045	4045	4045	4045	4045	3406	3406	3406	3440	3440	3440	3440	3440	3440	3406	3406	3406	3406	3406	3373	3373	3373	3373	3373	3373	3341	3341	3341	3341	3309	3309	3309	3309	3309	3309	3309	3309	3309	3309	3309	3309	3309	3309	3309	3277	3277	3277	3277	3277	3246	3246	3246	3277	3277	3277	3277	3277	3277	3277	3277	3277	3277	3277	3277	3246	3246	3246	3277	3277	3277	3277	3277	3277	3277	3309	3277	3277	3277	3309	3309	3309	6124	6124	6124	6124	6124	6124	6124	6124	6235	6235	6235	6235	6235	6349	6235	6235	6349	6349	6349	6468	6468	6468	6592	6592	6720	6592	6720	6853	6853	6853	6720	6720	6720	6853	6853	6853	6853	6992	7137	6992	6992	6992	6992	6992	6853	6853	6853	6853	6853	6853	0	0	0	0	0	0	0	0	0	0	0	0	0	0	0	0	0	0	0	0	0	0	0	0	0	0	0	0	0	0	0	0
0	0	0	0	0	0	0	0	0	0	0	0	0	0	0	0	0	0	0	0	0	0	1134	1127	1127	1127	1131	1131	1131	1131	1131	1131	1131	1127	1127	1131	1131	1142	1150	1150	1150	1150	1142	1138	1134	1134	1120	1120	1116	1116	1116	1113	1120	1123	1123	1123	1127	1127	1123	1123	1120	1120	1123	1123	1123	1123	0	0	0	0	0	0	0	0	0	0	0	0	0	0	0	0	0	0	0	0	0	0	0	0	0	0	0	0	0	0	0	0	0	0	1291	1291	1296	1296	1301	1301	1306	1311	1326	1326	1331	1331	1331	1342	1342	0	0	0	0	0	0	0	0	0	0	0	0	0	0	0	0	0	0	1574	1567	1574	1574	1574	1574	1574	1759	1768	1768	1768	1768	1777	1777	1786	1795	1795	1804	1814	1824	1833	1843	1843	1853	1853	1863	1873	1873	1883	1894	1904	1915	1915	1925	1925	1958	1958	1969	1980	1980	2003	2015	2027	2027	2027	2629	2629	2609	2589	2609	2629	2649	2669	2690	2711	2711	2754	2799	2845	2869	2869	2869	2869	2869	2869	2893	2893	2893	4521	4581	4581	4581	4643	4643	4643	4643	4643	4643	4643	4643	4706	4706	4706	4706	4706	4706	4706	4706	4706	4706	4771	4706	4706	4706	4643	4643	4643	4643	4643	4643	4643	4643	4706	4643	4581	4581	4581	4521	4463	4463	4463	4521	4521	4581	4581	4581	4581	4643	4643	4643	4643	4643	4643	4581	4581	4643	4706	4706	4771	4706	4771	4771	4706	4706	4706	4706	4643	4706	4643	4706	4706	4706	4706	4706	4706	4706	4706	4706	4706	4706	4643	3659	3621	3621	3583	3621	3621	3583	3583	3583	3583	3583	3583	3583	3583	3546	3546	3546	3510	3510	3475	3440	3475	3475	3475	3475	3475	3475	3475	3475	3475	3475	3440	3440	3440	3440	3440	3440	3440	3440	3440	3440	3440	3440	3440	3440	3440	3440	3440	3440	3440	3440	3440	3440	3406	3406	3440	3440	3475	3475	3475	3475	3510	3510	3510	3475	3475	3475	3475	3475	3440	3475	3510	3546	3546	3546	3546	3546	3546	3546	3546	3546	3546	3546	4463	4463	4463	4463	4463	4463	4463	4406	4406	4406	4463	4406	4406	4406	4463	4406	4463	4406	4521	4463	4463	4521	4463	4521	4463	4521	4463	4463	4463	4406	4406	4406	4406	4296	4296	0	0	0	0	0	0	0	4463	4463	4463	4463	4463	4406	4350	4350	4350	4350	4350	4350	4350	4350	4406	4350	4350	4296	4296	4406	4350	4406	4350	4463	4463	4521	4521	4521	4581	4581	4581	4581	4581	4521	4521	4581	4521	4463	4463	4463	0	0	0	0	4192	4142	4142	4142	4243	4192	4243	4243	4192	4192	4142	4093	4093	4045	4045	4045	4045	4045	4093	4093	4045	4045	4045	4045	4045	4045	4045	4045	4045	3406	3406	3406	3406	3440	3440	3440	3440	3440	3406	3406	3406	3406	3373	3373	3373	3373	3373	3373	3373	3373	3373	3373	3341	3341	3309	3309	3341	3309	3309	3309	3309	3309	3309	3309	3277	3309	3277	3309	3309	3277	3277	3277	3277	3246	3246	3246	3277	3277	3277	3277	3277	3277	3277	3277	3277	3246	3277	3246	3246	3246	3246	3246	3277	3277	3277	3277	3277	3309	3309	3309	3277	3277	3309	3309	0	6124	6124	6124	6124	6124	6124	6124	6124	6124	6235	6235	6235	6235	6349	6349	6235	6349	6349	6349	6468	6468	6592	6592	6592	6592	6720	6720	6853	6853	6853	6720	6592	6592	6592	6992	6992	6992	6992	6992	6992	6992	6992	6992	6992	6853	6853	6853	6720	6720	6720	0	0	0	0	0	0	0	0	0	0	0	0	0	0	0	0	0	0	0	0	0	0	0	0	0	0	0	0	0	0	0	0
0	0	0	0	0	0	0	0	0	0	0	0	0	0	0	0	0	0	0	0	0	0	0	1127	1127	1127	1127	1127	1127	1127	1127	1127	1127	1127	1127	1127	1127	1134	1146	1153	1150	1150	1138	1134	1131	1127	1123	1120	1120	1120	1120	1116	1123	1123	1123	1131	1131	1127	1127	1123	1123	1123	1123	1127	1127	0	0	0	0	0	0	0	0	0	0	0	0	0	0	0	0	0	0	0	0	0	0	0	0	0	0	0	0	0	0	0	0	0	0	0	0	0	0	0	0	0	0	0	1326	1326	1326	1331	1331	1342	0	0	0	0	0	0	0	0	0	0	0	0	0	0	0	0	0	0	0	1567	1567	1574	1574	1574	1574	1574	1759	1759	1759	1768	1768	1768	1777	1786	1795	1795	1795	1814	1814	1833	1833	1843	1853	1853	1863	1873	1883	1894	1894	1904	1915	1915	1925	1925	1958	1969	1980	1992	1992	2003	2015	2027	2027	0	2649	2629	2629	2609	2609	2629	2669	2690	2690	2711	2711	2733	2777	2822	2845	2869	2869	2869	2869	2869	2893	2893	4463	4581	4643	4643	4581	4581	4643	4643	4643	4643	4643	4643	4643	4706	4706	4706	4706	4706	4706	4706	4706	4706	4706	4771	4706	4706	4643	4643	4643	4643	4643	4643	4643	4643	4643	4643	4581	4521	4581	4581	4463	4463	4406	4350	4406	4406	4463	4521	4521	4643	4581	4643	4643	4643	4643	4643	4581	4581	4643	4643	4706	4706	4706	4706	4771	4706	4706	4706	4706	4643	4706	4706	4706	4706	4706	4706	4771	4771	4706	4771	4706	4771	4771	4706	4706	4706	3583	3583	3583	3583	3583	3583	3583	3583	3583	3583	3583	3583	3546	3546	3546	3510	3510	3510	3475	3475	3475	3475	3475	3475	3475	3475	3475	3475	3475	3440	3440	3440	3440	3440	3440	3440	3440	3440	3440	3440	3440	3440	3440	3440	3440	3440	3440	3440	3440	3440	3440	3440	3406	3440	3440	3475	3475	3510	3510	3510	3510	3510	3510	3475	3475	3475	3475	3475	3475	3475	3510	3546	3546	3510	3546	3546	3546	3546	3546	4463	4463	4463	4463	4463	4463	4463	4406	4406	4406	4406	4406	4406	4350	4350	4406	4406	4463	4463	4463	4463	4463	4463	4521	4463	4463	4463	4463	4463	4463	4463	4406	4406	4296	4296	4296	4296	0	0	0	0	0	0	0	4463	4463	4406	4406	4406	4350	4350	4350	4350	4350	4350	4296	4350	4350	4350	4296	4296	4296	4296	4296	4296	4296	4296	4406	4463	4463	4521	4521	4521	4581	4581	4581	4581	4521	4521	4521	4521	4463	4463	4463	0	0	4192	4192	4142	4142	4142	4243	4243	4243	4243	4243	4192	4192	4142	4093	4045	4045	4045	4045	4045	4045	4093	4093	4045	4045	4045	4045	4045	4045	4045	4045	4045	3406	3440	3440	3440	3440	3440	3440	3440	3440	3406	3406	3406	3406	3341	3341	3341	3341	3373	3373	3373	3373	3373	3373	3341	3341	3341	3309	3341	3341	3309	3309	3309	3309	3309	3309	3309	3309	3277	3309	3309	3277	3277	3277	3277	3277	3277	3277	3277	3277	3277	3277	3277	3277	3246	3277	3277	3246	3277	3246	3246	3246	3246	3277	3277	3277	3277	3277	3277	3309	3309	3309	3309	3309	3309	3309	0	6124	6124	6124	6124	6124	6124	6124	6124	6124	6124	6235	6349	6349	6349	6349	6349	6349	6349	6235	6349	6468	6468	6592	6592	6592	6720	6720	6720	6720	6720	6592	6592	6592	6592	6992	6992	6992	6992	6992	6992	6992	6992	6992	6992	6853	6853	6853	6720	6720	6720	0	0	0	0	0	0	0	0	0	0	0	0	0	0	0	0	0	0	0	0	0	0	0	0	0	0	0	0	0	0	0	0
0	0	0	0	0	0	0	0	0	0	0	0	0	0	0	0	0	0	1095	1091	1091	0	0	0	1127	1127	1127	1127	1127	1127	1131	1131	1127	1123	1127	1127	1127	1127	1150	1150	1150	1150	1123	1123	1123	1120	1120	1120	1120	1116	1116	1116	1123	1123	1123	1131	1131	1131	1134	1134	1123	1123	1123	1127	1127	0	0	0	0	0	0	0	0	0	0	0	0	0	0	0	0	0	0	0	0	0	0	0	0	0	0	0	0	0	0	0	0	0	0	0	0	0	0	0	0	0	0	0	1326	1326	1326	1331	1331	0	0	0	0	0	0	0	0	0	0	0	0	0	0	0	0	0	0	0	0	1567	1567	1574	1574	1574	1574	1574	1759	1759	1759	1768	1768	1768	1777	1786	1795	1795	1795	1814	1814	1833	1833	1843	1853	1863	1873	1873	1883	1894	1894	1904	1915	1915	1925	1936	1958	1969	1969	1992	2003	2003	2015	2015	2027	0	2669	2629	2629	2629	2629	2649	2649	2690	2711	2711	2711	2733	2754	2799	2822	2869	2869	2869	2869	2869	2893	2893	4521	4581	4581	4581	4643	4643	4643	4643	4643	4643	4643	4643	4643	4643	4643	4643	4706	4643	4706	4706	4706	4706	4706	4706	4706	4706	4706	4643	4643	4643	4643	4643	4643	4643	4643	4643	4581	4581	4521	4521	4463	4406	4406	4350	4350	4406	4406	4463	4581	4643	4581	4581	4643	4581	4581	4581	4581	4581	4581	4643	4643	4706	4706	4706	4771	4706	4771	4771	4706	4643	4706	4706	4706	4706	4706	4706	4771	4771	4771	4771	4771	4771	4771	4706	4643	4771	3583	3621	3583	3583	3583	3583	3583	3583	3583	3546	3546	3546	3546	3546	3546	3546	3510	3510	3510	3475	3475	3510	3475	3475	3475	3475	3475	3475	3475	3440	3440	3440	3440	3440	3440	3440	3440	3440	3440	3440	3440	3440	3440	3440	3440	3440	3440	3440	3440	3440	3440	3440	3440	3440	3475	3475	3475	3510	3510	3510	3510	3510	3510	3440	3475	3475	3475	3475	3475	3510	3510	3546	3546	3546	3546	3546	3546	3546	4406	4463	4463	4463	4406	4406	4406	4406	4406	4350	4350	4406	4406	4350	4350	4350	4406	4463	4463	4463	4463	4521	4463	4463	4463	4463	4521	4521	4521	4463	4463	4463	4350	4350	4296	4296	4296	4296	4296	4296	4296	0	0	0	0	0	0	4350	4350	4406	4350	4350	4350	4350	4406	4350	4350	4350	4350	4350	4296	4296	4243	4243	4243	4296	4296	4296	4406	4463	4463	4521	4521	4521	4581	4581	4581	4581	4521	4521	4521	4521	4463	4463	4463	4406	4296	4192	4192	4142	4142	4142	4192	4243	4243	4243	4243	4243	4243	4142	4093	4045	4045	4045	4045	4045	4045	4093	4093	4045	4045	4045	4045	4045	4045	4045	4045	3373	3406	3440	3440	3440	3440	3440	3440	3440	3440	3406	3406	3406	3406	3341	3341	3341	3341	3341	3373	3373	3373	3341	3341	3341	3341	3341	3341	3341	3341	3341	3309	3309	3309	3309	3309	3277	3309	3277	3309	3277	3277	3277	3277	3277	3277	3277	3277	3277	3277	3277	3277	3277	3277	3246	3277	3277	3246	3277	3277	3277	3277	3277	3277	3277	3277	3277	3277	3277	3277	3309	3309	3309	3309	3309	3309	6124	6124	6124	6124	6124	6124	6124	6124	6124	6124	6124	6235	6235	6349	6349	6349	6349	6349	6349	6235	6349	6349	6468	6468	6592	6592	6592	6592	6592	6592	6592	6592	6592	6592	6592	6853	6853	6992	6992	6992	6992	6992	6992	6992	6992	6853	6853	6720	6720	6592	6592	0	0	0	0	0	0	0	0	0	0	0	0	0	0	0	0	0	0	0	0	0	0	0	0	0	0	0	0	0	0	0	0
0	0	0	0	0	0	0	0	0	0	0	0	0	0	0	0	0	1098	1095	1091	1091	1088	1088	1088	0	1123	1123	1123	1123	1123	1127	1131	1127	1123	1127	1123	1123	1120	1120	1120	1123	1123	1123	1123	1123	1120	1120	1120	1120	1116	1123	1120	1123	1123	1123	1131	1131	1131	1127	1123	1123	1123	0	0	0	0	0	0	0	0	0	0	0	0	0	0	0	0	0	0	0	0	0	0	0	0	0	0	0	0	0	0	0	0	0	0	0	0	0	0	0	0	0	0	0	0	0	0	0	0	0	1331	1331	0	0	0	0	0	0	0	0	0	0	0	0	0	0	0	0	0	0	0	1567	1560	1560	1574	1574	1574	1574	1574	1759	1759	1768	1768	1777	1777	1786	1795	1795	1795	1804	1804	1814	1833	1833	1843	1853	1853	1863	1873	1883	1894	1904	1915	1915	1925	1925	1936	1958	1969	1969	1992	2003	2015	2027	2027	2039	2039	2669	2669	2690	2669	2690	2690	2690	2690	2711	2711	2733	2733	2754	2777	2799	2869	2869	2869	2869	2869	2893	2893	4521	4521	4581	4643	4643	4643	4643	4643	4643	4643	4643	4643	4581	4643	4643	4643	4643	4643	4706	4643	4643	4706	4706	4706	4706	4706	4706	4643	4643	4643	4706	4643	4643	4643	4643	4643	4581	4581	4521	4463	4406	4406	4350	4296	4296	4350	4350	4406	4581	4581	4643	4643	4581	4643	4581	4581	4521	4521	4521	4581	4643	4643	4643	4706	4706	4706	4706	4706	4706	4706	4771	4706	4771	4706	4706	4706	4771	4771	4771	4771	4771	4771	4771	4706	4706	4771	4771	3621	3621	3621	3583	3583	3583	3583	3583	3583	3583	3546	3546	3546	3546	3546	3510	3510	3510	3510	3510	3510	3510	3510	3510	3510	3510	3475	3475	3475	3440	3440	3440	3440	3440	3440	3440	3440	3440	3440	3440	3440	3440	3440	3440	3440	3440	3440	3440	3440	3440	3440	3440	3440	3475	3475	3510	3510	3510	3510	3510	3510	3510	3510	3475	3475	3475	3475	3510	3510	3546	3546	3546	3546	3546	3546	3546	4350	4406	4406	4406	4406	4406	4406	4406	4463	4463	4406	4463	4463	4406	4350	4350	4350	4406	4463	4463	4463	4463	4521	4463	4463	4463	4463	4521	4521	4521	4463	4463	4463	4350	4350	4350	4350	4350	4350	4350	4296	4350	4350	0	0	0	0	0	4350	4350	4350	4350	4350	4350	4350	4406	4350	4350	4350	4296	4296	4296	4296	4296	4296	4296	4296	4296	4296	4406	4463	4463	4521	4521	4581	4581	4581	4581	4581	4521	4521	4521	4521	4463	4463	4406	4406	4296	4296	4243	4243	4142	4192	4243	4243	4243	4243	4243	4243	4192	4142	4093	4045	4045	4045	4093	4045	4093	4093	4093	4045	4045	4045	4045	4045	4045	4045	4045	3406	3440	3475	3440	3440	3440	3440	3440	3440	3406	3406	3406	3406	3406	3341	3341	3341	3341	3341	3341	3341	3341	3341	3341	3309	3309	3309	3309	3341	3309	3309	3309	3309	3309	3309	3309	3277	3309	3277	3309	3309	3277	3277	3277	3277	3277	3246	3277	3277	3277	3277	3277	3277	3277	3277	3277	3277	3277	3277	3277	3277	3277	3277	3246	3277	3277	3277	3277	3277	3277	3277	3309	3277	3277	3277	0	6124	6124	6124	6124	6124	6124	6124	6124	6124	6124	6124	6124	6349	6349	6349	6235	6235	6349	6349	6349	6349	6468	6468	6468	6592	6592	6592	6720	6720	6720	6592	6592	6592	6592	6592	6992	6992	6992	6992	6992	6992	6992	6992	6992	6992	6853	6853	6720	6720	6592	6592	0	0	0	0	0	0	0	0	0	0	0	0	0	0	0	0	0	0	0	0	0	0	0	0	0	0	0	0	0	0	0	0
0	0	0	0	0	0	0	0	0	0	0	0	0	0	0	0	1098	1098	1095	1095	1091	1088	1088	1088	1123	1123	1123	1123	1123	1123	1127	1127	1127	1123	1123	1120	1120	1120	1120	1120	1123	1123	1120	1120	1120	1120	1120	1120	1120	1120	1116	1120	1120	1123	1123	1131	1131	1131	1134	1127	1127	1123	0	0	0	0	1214	1214	1214	1219	1219	1219	0	0	0	0	0	0	0	0	0	0	0	0	0	0	0	0	0	0	0	0	0	0	0	0	0	0	0	0	0	0	0	0	0	0	0	0	0	0	0	0	0	0	0	0	0	0	0	0	0	0	0	0	0	0	0	0	0	0	0	0	1567	1567	1560	1574	1567	1567	1567	0	1768	1768	1777	1777	1786	1777	1786	1795	1795	1795	1804	1804	1824	1833	1833	1843	1853	1863	1863	1873	1883	1894	1904	1904	1915	1925	1936	1936	1958	1980	1992	2003	2003	2015	2015	2027	2027	2039	2669	2669	2690	2690	2690	2711	2711	2711	2711	2733	2733	2754	2754	2777	2799	2822	2869	2869	2869	2869	2893	2893	0	4521	4643	4643	4706	4706	4706	4706	4643	4643	4643	4643	4643	4706	4643	4643	4643	4643	4643	4643	4643	4643	4643	4706	4643	4643	4706	4643	4643	4643	4706	4643	4643	4643	4643	4643	4643	4521	4463	4406	4350	4350	4350	4296	4296	4350	4350	4350	4521	4581	4521	4521	4521	4521	4521	4521	4521	4521	4521	4521	4581	4643	4643	4706	4706	4706	4706	4706	4706	4706	4771	4706	4706	4706	4706	4706	4771	4771	4771	4771	4771	4771	4771	4706	4706	4706	4706	4706	3583	3583	3583	3583	3583	3583	3583	3583	3583	3583	3546	3546	3546	3546	3510	3546	3510	3510	3510	3510	3510	3510	3510	3510	3510	3475	3510	3475	3440	3440	3440	3440	3440	3440	3440	3440	3440	3440	3440	3440	3440	3440	3440	3475	3440	3440	3440	3440	3440	3440	3440	3440	3440	3475	3546	3546	3546	3510	3510	3510	3510	3510	3510	3475	3510	3510	3510	3510	3546	3546	3546	3546	3546	4296	4350	4350	4350	4406	4406	4406	4406	4463	4406	4463	4463	4406	4463	4463	4350	4350	4350	0	0	0	4463	4463	0	4463	4463	4463	4463	4463	4463	4463	4463	4463	4521	4463	4463	4406	4406	4350	4350	4350	4296	4296	4296	4350	0	0	0	0	0	4296	4296	4350	4350	4350	4350	4350	4350	4350	4350	4350	4350	4350	4296	4296	4296	4296	4296	4243	4243	4350	4406	4406	4463	4521	4581	4521	4581	4581	4581	4521	4521	4521	4521	4521	4463	4463	4406	4406	4350	4296	4243	4243	4142	4192	4243	4243	4243	4243	4243	4192	4192	4142	4093	4045	4045	4045	4045	4045	4045	4093	4093	4045	4045	4045	4045	4045	4045	4045	3406	3406	3440	3475	3440	3440	3440	3440	3440	3406	3406	3406	3406	3406	3406	3373	3341	3373	3341	3341	3341	3341	3341	3341	3341	3309	3341	3341	3341	3341	3309	3309	3309	3309	3309	3309	3309	3277	3277	3277	3277	3309	3309	3277	3277	3277	3277	3246	3277	3277	3277	3277	3277	3277	3277	3277	3277	3277	3277	3277	3277	3277	3277	3246	3246	3277	3277	3277	3277	3277	3277	3277	3277	3277	3277	3277	0	6124	6124	6124	6124	6124	6124	6124	6235	6235	6235	6124	6124	6349	6349	6349	6235	6235	6349	6235	6235	6235	6468	6468	6468	6592	6592	6592	6592	6592	6720	6592	6592	6592	6592	6592	6853	6853	6992	6992	6992	6992	6992	6992	6992	6992	6720	6720	6720	6720	6592	6592	0	0	0	0	0	0	0	0	0	0	0	0	0	0	0	0	0	0	0	0	0	0	0	0	0	0	0	0	0	0	0	0
0	0	0	0	0	0	0	0	0	0	0	0	0	0	0	0	1098	1098	1098	1095	1095	1095	1095	1095	1123	1123	1123	1123	1123	1123	1123	1127	1123	1123	1120	1116	1113	1113	1113	1113	1113	1116	1120	1120	1120	1116	1116	1116	1120	1116	1116	1116	1120	1123	1123	1134	1134	1134	1134	1134	1134	0	0	0	0	1214	1214	1214	1219	1219	1219	1219	0	1263	1263	1263	1268	1268	1268	0	0	0	0	0	0	0	0	0	0	0	0	0	0	0	0	0	0	0	0	0	0	0	0	0	0	0	0	0	0	0	0	0	0	0	0	0	0	0	0	0	0	0	0	0	0	0	0	0	0	0	0	0	1567	1567	1560	1567	1567	1567	1567	0	1768	1768	1777	1777	1786	1777	1786	1795	1795	1804	1804	1804	1804	1824	1843	1843	1853	1863	1863	1873	1883	1894	1904	1915	1915	1925	1925	1936	1958	1992	1992	2003	2015	2015	2027	2027	2027	2027	2669	2669	2690	2690	2690	2711	2711	2711	2711	2733	2754	2754	2754	2777	2799	2822	2845	2845	2869	2869	2869	2869	0	4521	4581	4643	4643	4706	4706	4706	4706	4643	4643	4643	4643	4643	4643	4581	4643	4643	4643	4643	4643	4643	4643	4643	4643	4643	4643	4581	4581	4643	4706	4581	4581	4581	4581	4581	4581	4463	4406	4350	4296	4350	4296	4296	4296	4296	4296	4296	4350	4406	4463	4521	4521	4581	4521	4521	4463	4463	4463	4521	4521	4643	4643	4706	4706	4706	4771	4706	4706	4706	4706	4643	4706	4706	4706	4706	4771	4771	4771	4771	4706	4706	4771	4706	4706	4771	4706	4771	4771	4838	3583	3583	3583	3583	3583	3583	3583	3546	3546	3546	3546	3546	3546	3546	3546	3546	3546	3510	3510	3510	3510	3510	3510	3510	3510	3510	3475	3475	3440	3440	3440	3440	3440	3440	3440	3440	3440	3440	3440	3440	3475	3475	3440	3440	3440	3440	3440	3440	3440	3440	3475	3475	3475	3546	3546	3510	3510	3510	3510	3510	3510	3475	3510	3510	3546	3546	3546	3546	3546	3546	4296	4296	4296	4350	4350	4406	4406	4406	4406	4463	4463	4463	4463	4406	4463	4463	4350	4350	0	0	0	0	0	0	0	4463	4463	4463	4406	4406	4463	4463	4521	4521	4521	4463	4463	4406	4350	4296	4296	4296	4296	4296	4296	4296	0	0	0	0	0	4296	4296	4296	4296	4296	4350	4350	4350	4350	4350	4350	4350	4350	4350	4350	4350	4350	4350	4296	4296	4350	4406	4463	4463	4463	4521	4521	4581	4581	4581	4521	4521	4521	4521	4521	4463	4463	4406	4406	4350	4296	4243	4243	4142	4142	4192	4243	4243	4243	4192	4142	4142	4093	4093	4045	4045	4045	4045	4045	4045	4093	4093	4045	4045	4045	4045	4045	3998	4045	3406	3406	3475	3475	3475	3440	3440	3440	3440	3406	3406	3406	3406	3406	3406	3373	3341	3373	3341	3341	3341	3341	3341	3341	3341	3309	3341	3309	3309	3309	3309	3309	3309	3309	3309	3309	3277	3277	3309	3309	3309	3309	3309	3277	3277	3277	3277	3277	3277	3277	3277	3277	3277	3277	3277	3277	3277	3246	3246	3246	3246	3246	3246	3246	3246	3246	3246	3277	3277	3277	3277	3277	3277	3309	3277	3277	0	6124	6124	6124	6124	6124	6124	6124	6235	6124	6124	6124	0	0	0	0	6235	6235	6235	6124	6124	6235	6349	6468	6468	6592	6592	6592	6592	6592	6592	6468	6592	6592	6592	6592	6592	6853	6853	6853	6992	6992	6992	6853	6853	6853	6720	6720	6720	6592	6592	6592	0	0	0	0	0	0	0	0	0	0	0	0	0	0	0	0	0	0	0	0	0	0	0	0	0	0	0	0	0	0	0	0
0	0	0	0	0	0	0	0	0	0	0	0	0	0	0	0	0	1102	1098	1098	1095	1095	1095	1095	1095	1123	1123	1123	1123	1123	1123	1127	1123	1120	1120	1116	1113	1116	1113	1113	1116	1116	1116	1116	1116	1116	1116	1116	1116	1116	1116	1116	1120	1123	1123	1134	1134	1138	1138	1138	1134	0	0	0	0	1214	1214	1214	1219	1219	1219	1227	1240	1254	1259	1263	1263	1263	1263	1268	0	0	0	0	0	0	0	0	0	0	0	0	0	0	0	0	0	0	0	0	0	0	0	0	0	0	0	0	0	0	0	0	0	0	0	0	0	0	0	0	0	0	0	0	0	0	0	0	0	0	0	1567	1567	1567	1574	1567	1560	1560	1560	1759	1768	1768	1777	1777	1786	1777	1786	1795	1795	1795	1804	1804	1814	1814	1833	1843	1853	1863	1873	1883	1883	1894	1904	1915	1915	1925	1936	1936	1958	1992	2003	2003	2015	2027	2027	2039	2039	2039	0	2669	2690	2690	2711	2711	2733	2733	2733	2754	2777	2777	2777	2777	2777	2799	2845	2845	2845	2869	2869	2869	0	4581	4643	4706	4706	4706	4706	4643	4643	4643	4706	4643	4643	4581	4581	4581	4581	4643	4643	4643	4643	4643	4706	4643	4643	4581	4581	4581	4581	4643	4706	4521	4581	4521	4521	4521	4463	4350	4350	4350	4296	4296	4296	4296	4296	4296	4296	4296	4350	4350	4463	4463	4463	4463	4463	4463	4463	4463	4463	4463	4521	4581	4581	4643	4771	4771	4771	4771	4771	4643	4706	4643	4643	4706	4706	4706	4643	4706	4706	4706	4706	4706	4706	4706	4706	4771	4706	4706	4706	4838	3583	3583	3583	3583	3583	3583	3583	3546	3546	3546	3546	3546	3546	3546	3546	3546	3546	3546	3546	3546	3546	3546	3510	3546	3510	3546	3510	3475	3475	3475	3440	3440	3440	3440	3440	3440	3440	3440	3475	3475	3475	3475	3475	3440	3440	3440	3440	3440	3440	3440	3475	3475	3475	3546	3546	3510	3510	3510	3510	3510	3510	3475	3510	3475	3475	3475	3546	3510	3510	3510	4296	4296	4350	4406	4406	4406	4406	4406	4406	4463	4463	4463	4463	4521	4521	4521	0	0	0	0	0	0	0	0	0	4463	4406	4406	4406	4406	4406	4463	4463	4463	4463	4463	4406	4350	4350	4350	4350	4350	4296	4296	4296	4296	4296	4296	0	4243	4296	4296	4296	4350	4296	4350	4350	4350	4406	4350	4350	4350	4350	4296	4296	4350	4350	4350	4350	4350	4296	4350	4350	4406	4463	4521	4581	4521	4581	4581	4581	4581	4521	4521	4521	4521	4463	4463	4406	4406	4350	4296	4296	4243	4192	4192	4192	4243	4192	4243	4192	4142	4093	4093	4045	4045	4045	4093	4045	4045	4045	4093	4093	4045	4045	4045	4045	4045	3998	3998	3510	3510	3546	3546	3475	3475	3440	3440	3440	3406	3406	3406	3406	3406	3406	3373	3341	3373	3341	3373	3341	3341	3373	3373	3373	3341	3373	3341	3341	3309	3309	3309	3309	3309	3309	3309	3277	3277	3309	3309	3309	3309	3309	3277	3277	3277	3277	3277	3277	3277	3277	3277	3277	3277	3277	3277	3277	3246	3246	3246	3277	3246	3246	3246	3216	3246	3246	3246	3277	3277	3277	3277	3309	3309	3277	3277	0	6124	6124	6124	6124	6124	6124	6235	6235	6235	6349	6349	6349	6468	6468	6468	6235	6235	6235	6124	6124	0	0	0	0	6592	6592	6592	6592	6468	6592	6468	6468	6592	6592	6592	6720	6853	6853	6853	6853	6853	6853	6853	6853	6853	6720	6720	6592	6592	6592	6592	0	0	0	0	0	0	0	0	0	0	0	0	0	0	0	0	0	0	0	0	0	0	0	0	0	0	0	0	0	0	0	0
0	0	0	0	0	0	0	0	0	0	0	0	0	0	0	0	0	1102	1098	1095	1095	1091	1095	1095	1095	1120	1120	1120	1123	1123	1123	1123	1123	1120	1120	1113	1113	1116	1113	1113	1113	1116	1116	1116	1116	1113	1116	1116	1116	1116	1116	1116	1120	1120	1120	1138	1138	1138	1138	1138	0	0	0	0	1210	1214	1214	1214	1214	1219	1223	1232	1236	1240	1249	1254	1263	1263	1268	1268	0	0	0	0	0	0	0	0	0	0	0	0	0	0	0	0	0	0	0	0	0	0	0	0	0	0	0	0	0	0	0	0	0	0	0	0	0	0	0	0	0	0	0	0	0	0	0	0	0	0	0	1567	1567	1567	1560	1567	1560	1560	1560	1759	1759	1768	1777	1777	1786	1786	1786	1795	1795	1804	1795	1804	1814	1824	1833	1843	1853	1863	1873	1873	1883	1894	1904	1904	1915	1925	1936	1936	1958	1992	2003	2003	2015	2027	2039	2039	2051	2051	2051	2690	2690	2711	2711	2733	2733	2733	2754	2777	2777	2777	2777	2777	2777	2799	2822	2845	2845	2845	2869	2869	0	4643	4643	4706	4706	4643	4643	4643	4643	4643	4643	4643	4643	4643	4581	4643	4643	4643	4643	4643	4643	4643	4643	4581	4581	4581	4521	4521	4521	4521	4406	4406	4406	4243	4243	4296	4350	4243	4296	4296	4296	4296	4296	4296	4296	4296	4296	4296	4350	4350	4406	4406	4406	4463	4463	4463	4406	4406	4406	4463	4406	4521	4521	4581	4581	4581	4771	4771	4643	4643	4706	4643	4706	4706	4706	4643	4643	4706	4643	4771	4706	4706	4706	4706	4706	4771	4771	4706	4706	0	3583	3583	3583	3583	3583	3546	3546	3546	3546	3546	3546	3546	3546	3546	3546	3546	3546	3546	3546	3546	3546	3546	3546	3546	3546	3546	3510	3510	3510	3510	3475	3475	3440	3440	3440	3440	3475	3475	3475	3475	3475	3475	3475	3440	3440	3440	3440	3440	3440	3440	3475	3475	3475	3510	3510	3510	3510	3510	3510	3510	3510	3475	3475	3475	3475	3475	3546	3510	3510	3510	3510	4350	4406	4463	4406	4406	4406	4406	4406	4463	4521	4521	4521	4521	4521	4521	0	0	0	0	0	0	0	0	0	4406	4406	4406	4406	4406	4406	4463	4463	4463	4463	4463	4406	4350	4350	4350	4296	4296	4296	4296	4296	4296	4192	4192	4192	4243	4243	4296	4296	4350	4350	4350	4350	4350	4406	4350	4350	4350	4350	4296	4296	4350	4350	4350	4350	4350	4350	4406	4350	4406	4463	4521	4581	4581	4581	4643	4581	4581	4521	4521	4521	4521	4463	4463	4406	4406	4350	4350	4350	4296	4243	4192	4192	4243	4192	4192	4142	4142	4142	4093	4093	4045	4045	4045	4045	4045	4045	4045	4045	4045	4045	4045	4045	4045	3998	3998	3546	3546	3546	3546	3510	3440	3440	3440	3440	3406	3406	3406	3406	3406	3406	3373	3373	3373	3341	3373	3341	3341	3341	3373	3373	3341	3373	3341	3341	3309	3309	3309	3309	3309	3309	3309	3309	3309	3309	3309	3309	3277	3277	3277	3277	3277	3277	3277	3277	3277	3277	3277	3277	3277	3277	3277	3277	3246	3277	3246	3246	3246	3246	3246	3246	3246	3246	3246	3246	3246	3277	3277	3309	3277	3277	6018	6018	6124	6124	6124	6124	6124	6235	6235	6349	6349	6349	6349	6349	6468	6468	6468	6468	6235	6235	0	0	0	0	0	0	0	6592	6592	6592	6592	6592	6468	6592	6592	6592	6592	6720	6720	6853	6853	6853	6853	6853	6853	6853	6853	6592	6720	6720	6592	6592	6592	0	0	0	0	0	0	0	0	0	0	0	0	0	0	0	0	0	0	0	0	0	0	0	0	0	0	0	0	0	0	0	0
0	0	0	0	0	0	0	0	0	0	0	0	0	0	0	0	0	0	0	1095	1095	1095	1098	1095	1098	1120	1120	1120	1123	1120	1120	1123	1120	1120	1113	1113	1109	1113	1113	1113	1113	1113	1113	1113	1113	1113	1113	1116	1116	1116	1116	1116	1116	1116	1120	1138	1138	1138	1138	1138	0	0	0	1206	1206	1210	1210	1214	1219	1223	1223	1232	1236	1240	1240	1249	1259	1263	1268	1268	1268	0	0	0	0	0	0	0	0	0	0	0	0	0	0	0	0	0	0	0	0	0	0	0	0	0	0	0	0	0	0	0	0	0	0	0	0	0	0	0	0	0	0	0	0	0	0	0	0	0	0	1553	1574	1574	1574	1553	1560	1560	1560	1768	1768	1777	1777	1786	1786	1786	1795	1795	1795	1795	1795	1804	1814	1833	1833	1843	1853	1863	1873	1873	1883	1894	1904	1904	1915	1925	1936	1936	1958	1980	1992	2003	2015	2027	2039	2051	2063	2063	2711	2711	2711	2711	2711	2711	2733	2733	2754	2777	2777	2799	2799	2777	2799	2799	2822	2822	2799	2799	2845	2845	0	4643	4643	4706	4706	4643	4643	4643	4643	4643	4581	4581	4643	4643	4581	4581	4643	4581	4581	4581	4581	4581	4643	4581	4581	4521	4521	4521	4142	4142	4142	4192	4192	4192	4192	4192	4243	4192	4192	4243	4243	4243	4296	4243	4243	4296	4296	4243	4296	4296	4350	4350	4406	4406	4406	4406	4406	4406	4406	4463	4406	4521	4521	4581	4521	4521	4771	4771	4643	4643	4706	4643	4706	4706	4706	4706	4643	4706	4643	4771	4706	4706	4706	4706	4706	4771	4771	0	0	0	3583	3583	3583	3583	3583	3546	3546	3546	3546	3510	3510	3510	3510	3546	3510	3546	3546	3546	3546	3546	3546	3583	3546	3546	3546	3546	3546	3510	3510	3510	3475	3475	3475	3475	3475	3475	3475	3475	3475	3475	3475	3475	3475	3440	3440	3440	3440	3440	3440	3475	3475	3475	3475	3510	3510	3510	3510	3510	3510	3510	3510	3475	3475	3475	3475	3475	3510	3510	3510	3475	3475	4350	4406	4406	4406	4406	4406	4406	4406	4463	4463	4463	4463	4463	4463	4463	0	0	0	0	0	0	0	0	0	4406	4350	4406	4406	4406	4406	4463	4463	4463	4463	4463	4406	4350	4350	4350	4350	4296	4296	4296	4296	4296	4243	4192	4192	4243	4243	4296	4296	4350	4350	4350	4350	4350	4406	4350	4350	4350	4350	4350	4296	4350	4350	4350	4350	4350	4350	4350	4350	4406	4463	4463	4581	4521	4521	4581	4581	4521	4521	4521	4521	4521	4521	4463	4406	4406	4406	4350	4350	4296	4296	4243	4243	4243	4192	4192	4142	4142	4142	4093	4093	4045	4045	4045	4045	4045	4045	4045	4045	4045	4045	4045	4045	4045	4045	3998	3546	3546	3546	3546	3510	3475	3440	3440	3440	3406	3406	3406	3406	3406	3406	3373	3373	3373	3373	3373	3373	3373	3373	3373	3373	3341	3373	3341	3341	3309	3309	3309	3309	3309	3309	3309	3309	3309	3309	3309	3277	3277	3277	3277	3277	3277	3277	3277	3277	3277	3277	3277	3277	3277	3277	3246	3246	3246	3277	3277	3277	3246	3246	3216	3246	3246	3246	3246	3246	3277	3277	3277	3277	3277	3277	6124	6124	6124	6124	6124	6124	6124	6235	6235	6349	6349	6468	6349	6349	6349	6349	6349	6349	6349	0	0	0	0	0	0	0	0	0	6592	6592	6592	6592	6468	6592	6592	6592	6592	6592	6592	6853	6853	6853	6853	6853	6853	6853	6853	6592	6720	6720	6592	6592	6592	0	0	0	0	0	0	0	0	0	0	0	0	0	0	0	0	0	0	0	0	0	0	0	0	0	0	0	0	0	0	0	0
0	0	0	0	0	0	0	0	0	0	0	0	0	0	0	0	0	0	0	0	1095	1095	1098	1102	1116	1120	1120	1120	1120	1120	1120	1120	1116	1113	1109	1109	1109	1113	1109	1113	1109	1109	1109	1109	1109	1109	1109	1113	1113	1113	1113	1116	1116	1116	1116	1138	1138	1138	1138	0	0	0	0	1202	1210	1210	1210	1210	1214	1223	1227	1232	1236	1236	1240	1240	1249	1263	1268	1272	1268	1268	1272	1272	0	0	0	0	0	0	0	0	0	0	0	0	0	0	0	0	0	0	0	0	0	0	0	0	0	0	0	0	0	0	0	0	0	0	0	0	0	0	0	0	0	0	0	0	0	0	0	1567	1567	1567	1567	1567	1567	1567	1768	1768	1759	1768	1768	1777	1777	1777	1795	1795	1795	1795	1804	1804	1814	1824	1833	1843	1843	1853	1863	1873	1883	1894	1904	1904	1915	1925	1936	1936	1958	1969	1992	2003	2015	2027	2063	2076	2088	2088	2088	2669	2690	2711	2711	2711	2733	2777	2777	2799	2799	2799	2799	2799	2799	2799	2822	2822	2799	2799	2845	2845	2845	2845	4643	4643	4581	4581	4581	4581	4643	4581	4581	4581	4581	4643	4581	4581	4581	4581	4581	4581	4581	4581	4581	4581	4581	4142	4142	4142	4142	4142	4142	4192	4142	4142	4142	4192	4192	4192	4192	4243	4243	4243	4243	4243	4243	4296	4243	4243	4296	4296	4350	4350	4350	4350	4406	4406	4350	4406	4406	4350	4350	4406	4521	4521	4521	4521	0	0	0	0	0	0	0	0	4706	4706	0	0	0	0	0	0	0	0	0	0	0	0	0	0	0	3583	3583	3583	3583	3583	3546	3546	3546	3510	3510	3510	3510	3510	3510	3510	3546	3546	3546	3546	3546	3583	3546	3546	3546	3546	3510	3510	3546	3546	3510	3475	3475	3475	3475	3475	3475	3475	3475	3475	3475	3475	3475	3475	3475	3475	3475	3440	3475	3475	3475	3475	3475	3510	3510	3510	3510	3510	3510	3510	3510	3475	3475	3475	3510	3510	3546	3510	3510	3510	3510	4406	4350	4350	4350	4406	4406	4406	4406	4406	4406	4463	4463	4463	4463	4463	0	0	0	0	0	0	0	0	0	4406	4350	4350	4406	4406	4406	4406	4406	4350	4406	4406	4350	4350	4350	4350	4350	4296	4296	4296	4296	4296	4296	4243	4243	4243	4243	4296	4296	4350	4350	4350	4350	4350	4350	4296	4296	4296	4296	4296	4350	4350	4350	4350	4350	4350	4350	4406	4350	4406	4406	4463	4521	4521	4521	4581	4581	4581	4581	4521	4521	4521	4463	4463	4406	4406	4406	4406	4406	4350	4296	4243	4243	4243	4192	4192	4142	4142	4093	4093	4045	4045	4045	4045	4045	4045	4045	4045	4045	4045	4093	4093	4045	4045	4045	3998	3998	3583	3546	3546	3510	3475	3440	3440	3440	3406	3406	3406	3406	3406	3406	3373	3373	3373	3341	3373	3341	3341	3373	3373	3341	3341	3341	3341	3341	3309	3309	3309	3309	3309	3309	3309	3309	3309	3309	3309	3277	3277	3277	3277	3277	3277	3277	3277	3277	3277	3277	3277	3277	3277	3246	3246	3246	3246	3277	3246	3277	3277	3277	3246	3246	3246	3246	3246	3277	3277	3277	3277	3277	3277	3277	6124	6124	6124	6124	6124	6124	6124	6235	6349	6349	6349	6349	6349	6349	6235	6235	6235	6124	6124	6124	0	0	0	0	0	0	0	0	6720	6592	6592	6592	6468	6592	6592	6592	6592	6720	6720	6853	6853	6853	6720	6853	6720	6853	6720	6592	6592	6592	6592	6720	6720	0	0	0	0	0	0	0	0	0	0	0	0	0	0	0	0	0	0	0	0	0	0	0	0	0	0	0	0	0	0	0	0
0	0	0	0	0	0	0	0	0	0	0	0	0	0	0	0	0	0	0	0	1098	1098	1105	1098	1102	1116	1116	1120	1120	1120	1120	1120	1116	1113	1109	1109	1109	1113	1109	1113	1109	1109	1109	1109	1109	1109	1109	1113	1113	1113	1113	1116	1116	1120	1120	0	0	0	0	0	0	0	0	1202	1210	1210	1210	1210	1214	1223	1227	1232	1236	1240	1240	1240	1249	1259	1268	1272	1268	1272	1272	1272	1272	0	0	0	0	0	0	0	0	0	0	0	0	0	0	0	0	0	0	0	0	0	0	0	0	0	0	0	0	0	0	0	0	0	0	0	0	0	0	0	0	0	0	0	0	0	1567	1567	1567	1567	1567	1567	1567	1768	1768	1759	1759	1768	1768	1777	1777	1777	1786	1795	1795	1804	1804	1814	1824	1833	1833	1843	1843	1863	1863	1873	1883	1894	1904	1904	1915	1925	1925	1936	1958	1969	1992	2003	2015	2051	2051	2063	2063	2649	2609	2629	2669	2690	2711	2711	2733	2754	2777	2799	2799	2799	2799	2799	2799	2799	2799	2799	2799	2799	2822	2822	2822	2845	4581	4581	4581	4521	4581	4581	4581	4581	4581	4581	4643	4581	4581	4581	4581	4581	4581	4581	4521	4521	4521	4142	4142	4142	4142	4142	4142	4142	4142	4142	4142	4142	4192	4192	4192	4192	4192	4192	4243	4243	4243	4243	4243	4243	4243	4243	4296	4296	4296	4296	4350	4350	4406	4406	4350	4350	4350	4350	4350	4406	0	4521	4521	0	0	0	0	0	0	0	0	0	0	0	0	0	0	0	0	0	0	0	0	0	0	0	0	0	0	3583	3583	3583	3583	3583	3546	3546	3546	3510	3510	3510	3510	3510	3510	3510	3510	3510	3546	3546	3546	3546	3546	3546	3546	3546	3510	3510	3510	3510	3510	3510	3510	3510	3510	3510	3475	3475	3475	3475	3475	3475	3475	3475	3475	3475	3475	3475	3440	3475	3440	3475	3475	3510	3510	3510	3510	3510	3510	3510	3510	3475	3475	3475	3475	3475	3510	3510	3510	3510	4406	4406	4350	4350	4296	4296	4350	4350	4350	4406	4463	4463	4463	4406	4463	4463	0	0	0	0	0	0	0	0	0	0	4406	4406	4406	4350	4406	4350	4350	4350	4350	4350	4350	4350	4350	4296	4296	4296	4296	4296	4296	4296	4243	4296	4296	4296	4296	4296	4296	4350	4350	4350	4350	4350	4296	4296	4296	4296	4296	4296	4350	4350	4350	4350	4406	4350	4406	4406	4406	4350	4406	4463	4521	4521	4521	4581	4521	4521	4581	4521	4521	4521	4521	4463	4463	4406	4406	4406	4406	4350	4296	4192	4192	4192	4192	4192	4142	4093	4093	4093	4045	4045	4045	4045	4045	3998	3998	4045	4045	4045	4045	4045	4045	4045	4045	4045	4045	3583	3583	3583	3546	3440	3440	3440	3406	3406	3406	3406	3406	3406	3406	3406	3373	3373	3373	3373	3341	3341	3309	3341	3341	3341	3341	3341	3309	3309	3309	3341	3309	3309	3309	3309	3309	3309	3309	3277	3277	3277	3277	3277	3277	3277	3277	3277	3277	3277	3277	3277	3246	3277	3246	3246	3246	3246	3246	3246	3246	3246	3246	3246	3246	3246	3246	3246	3277	3277	3277	3277	3277	3277	3277	6124	6124	6124	6124	6124	6124	6235	6235	6235	6349	6235	6349	6235	6235	6235	6235	6235	6124	6235	6235	0	0	0	0	0	0	0	6853	6720	6592	6592	6592	6592	6592	6592	6592	6592	6720	6720	6720	6853	6853	6720	6720	6720	6720	6853	6720	6720	6720	6720	6720	6720	0	0	0	0	0	0	0	0	0	0	0	0	0	0	0	0	0	0	0	0	0	0	0	0	0	0	0	0	0	0	0	0
0	0	0	0	0	0	0	0	0	0	0	0	0	0	0	0	0	0	0	0	1098	1098	1098	1098	1098	1098	1113	1116	1120	1120	1120	1120	1116	1120	1113	1113	1113	1113	1113	1113	1113	1113	1109	1109	1109	1113	1113	1113	1116	1116	1116	1120	1120	1120	1120	0	0	0	0	0	0	0	0	1202	1206	1210	1214	1210	1214	1219	1223	1232	1236	1236	1236	1240	1249	1254	1268	1272	1268	1272	1272	1272	1272	0	0	0	0	0	0	0	0	0	0	0	0	0	0	0	0	0	0	0	0	0	0	0	0	0	0	0	0	0	0	0	0	0	0	0	0	0	0	1698	1698	1690	1698	1698	0	0	1567	1567	1567	1574	1567	1567	1567	1768	1768	1759	1759	1759	1759	1768	1768	1768	1786	1795	1795	1804	1804	1814	1824	1824	1833	1843	1843	1863	1873	1873	1883	1894	1904	1904	1915	1925	1925	1936	1947	1969	2003	2015	2027	2051	2051	2063	2063	2629	2629	2629	2629	2649	2711	2690	2733	2777	2777	2799	2799	2799	2822	2799	2822	2822	2822	2822	2822	2822	2822	2822	2822	0	4521	4521	4463	4521	4521	4521	4521	4521	4581	4581	4581	4581	4581	4581	4581	4581	4581	4581	4581	4581	4581	4142	4142	4142	4142	4142	4142	4142	4142	4142	4142	4142	4142	4192	4192	4192	4192	4192	4192	4192	4243	4243	4243	4243	4192	4243	4296	4296	4296	4296	4296	4350	4350	4350	4350	4350	4350	4406	4406	0	0	0	0	0	0	0	0	0	0	0	0	0	0	0	0	0	0	0	0	0	0	0	0	0	0	0	0	0	0	3583	3583	3583	3583	3583	3546	3546	3546	3510	3510	3510	3510	3510	3510	3510	3510	3510	3546	3546	3546	3546	3546	3546	3546	3546	3546	3546	3475	3510	3510	3510	3510	3475	3510	3510	3510	3475	3475	3475	3475	3475	3475	3475	3475	3475	3475	3475	3475	3475	3440	3440	3475	3475	3510	3510	3510	3510	3510	3475	3475	3475	3475	3475	3475	3475	3510	3475	3510	3510	4406	4406	4350	4350	4296	4350	4350	4350	4350	4406	4463	4463	4463	4463	4463	4463	0	0	0	0	0	0	0	0	0	0	4406	4406	4406	4350	4406	4350	4350	4350	4350	4350	4296	4350	4296	4296	4296	4296	4296	4296	4296	4350	4350	4350	4350	4350	4296	4296	4350	4350	4350	4350	4350	4350	4406	4296	4296	4296	4350	4350	4350	4406	4406	4406	4406	4350	4406	4406	4406	4406	4406	4463	4521	4521	4581	4581	4581	4581	4581	4581	4521	4521	4521	4521	4463	4406	4350	4406	4296	4243	4243	4192	4192	4192	4192	4142	4142	4093	4093	4093	4093	4045	4045	4045	4045	4045	3998	4045	4045	4045	4045	4045	4045	4045	4045	4045	4045	3583	3583	3583	3546	3440	3440	3440	3406	3406	3406	3406	3406	3406	3406	3406	3373	3373	3373	3373	3341	3341	3341	3341	3341	3341	3341	3341	3341	3341	3341	3309	3309	3309	3309	3309	3309	3309	3309	3277	3277	3277	3277	3277	3277	3277	3277	3277	3277	3277	3277	3277	3277	3277	3246	3246	3246	3246	3246	3246	3277	3277	3277	3246	3277	3246	3246	3277	3277	3277	3277	3277	3277	3277	3277	6124	6124	6124	6124	6124	6124	6235	6235	6349	6349	6124	6235	6124	6124	6235	6124	6124	6124	6124	6124	0	0	0	0	0	0	0	6720	6592	6592	6592	6592	6468	6468	6592	6592	6592	6592	6592	6592	6720	6720	6592	6720	6720	6720	6720	6592	6720	6720	6720	6720	6720	0	0	0	0	0	0	0	0	0	0	0	0	0	0	0	0	0	0	0	0	0	0	0	0	0	0	0	0	0	0	0	0
0	0	0	0	0	0	0	0	0	0	0	0	0	0	0	0	0	0	0	0	1098	1095	1098	1095	1095	1098	1102	1116	1120	1120	1116	1120	1116	1116	1113	1113	1113	1113	1113	1113	1113	1113	1109	1109	1113	1113	1116	1116	1116	1116	1120	1120	1120	1120	0	0	0	0	0	0	0	0	1210	1206	1210	1214	1214	1214	1214	1219	1223	1232	1236	1236	1236	1240	1245	1254	1259	1268	1268	1268	1272	1272	1272	1272	1277	1277	1311	1311	0	0	0	0	0	0	0	0	0	0	0	0	0	0	0	0	0	0	0	0	0	0	1690	1690	1681	1681	0	0	0	0	0	0	1690	1690	1698	1698	1706	1706	0	0	1567	1567	1567	1567	1567	1567	1567	1768	1768	1759	1759	1759	1759	1768	1768	1768	1786	1795	1795	1804	1804	1814	1824	1824	1824	1843	1843	1863	1873	1873	1883	1894	1904	1904	1915	1925	1925	1936	1947	1969	2003	2015	2015	2039	2051	2063	2063	2629	2629	2629	2649	2690	2690	2711	2733	2754	2754	2799	2799	2822	2822	2822	2822	2822	2822	2822	2822	2822	2822	2822	0	0	4521	4521	4463	4463	4463	4463	4521	4521	4521	4521	4581	4581	4521	4521	4521	4521	4463	4463	4463	4463	4142	4142	4142	4142	4142	4142	4142	4142	4142	4142	4142	4142	4142	4192	4192	4192	4192	4243	4243	4243	4243	4243	4243	4243	4243	4243	4243	4296	4296	4296	4296	4296	4350	4296	4296	4296	4296	4350	4350	0	0	0	0	0	0	0	0	0	0	0	0	0	0	0	0	0	0	0	0	0	0	0	0	0	0	0	0	0	0	3621	3583	3583	3583	3583	3546	3546	3546	3510	3510	3510	3510	3510	3510	3510	3510	3510	3510	3510	3546	3546	3546	3583	3583	3583	3546	3546	3510	3510	3510	3510	3510	3510	3510	3510	3510	3475	3475	3475	3475	3475	3475	3475	3475	3440	3475	3440	3475	3440	3440	3440	3475	3475	3510	3510	3510	3510	3510	3475	3510	3475	3475	3475	3475	3475	3510	3510	3510	3510	4463	4406	4350	4350	4296	4350	4350	4350	4350	4406	4463	4406	4463	4463	4463	0	0	0	0	0	0	0	0	4296	4296	4350	4406	4406	4406	4406	4406	4350	4350	4350	4350	4296	4296	4296	4296	4296	4296	4296	4296	4296	4296	4296	4296	4350	4350	4350	4296	4350	4350	4350	4350	4350	0	4406	4406	4296	4296	4296	4350	4350	4350	4406	4406	4406	4406	4350	4350	4350	4350	4350	4406	4463	4521	4521	4581	4581	4581	4581	4581	4581	4521	4521	4521	4521	4463	4406	4350	4296	4296	4243	4243	4192	4192	4192	4192	4192	4142	4142	4142	4093	4093	4093	4045	4045	4045	4045	4045	4045	4045	4045	4045	4045	4045	4045	4045	3998	3998	3546	3546	3546	3546	3440	3440	3440	3406	3406	3406	3406	3406	3406	3406	3406	3373	3373	3373	3373	3373	3341	3341	3341	3341	3373	3373	3341	3341	3341	3341	3341	3309	3309	3309	3309	3309	3309	3309	3277	3277	3277	3277	3277	3277	3277	3277	3277	3277	3277	3277	3277	3277	3277	3246	3246	3277	3246	3246	3246	3246	3277	3277	3277	3277	3246	3246	3246	3277	3277	3277	3277	3277	3277	3277	0	6124	6235	6124	6124	6124	6124	6235	6235	6124	6124	6235	6124	6124	6235	6124	6124	6124	6235	6349	6349	6468	6468	6592	6592	6592	0	6720	6592	6592	6592	6592	6468	6468	6592	6592	6468	6592	6720	6720	6720	6720	6592	6720	6720	6720	6853	6720	6720	6720	6720	6720	6720	0	0	0	0	0	0	0	0	0	0	0	0	0	0	0	0	0	0	0	0	0	0	0	0	0	0	0	0	0	0	0	0
0	0	0	0	0	0	0	0	0	0	0	0	0	0	0	0	0	0	0	1098	1095	1095	1098	1095	1095	1095	1098	1116	1116	1116	1116	1116	1116	1116	1113	1113	1116	1116	1113	1116	1113	1113	1113	1113	1116	1116	1116	1120	1116	1120	1120	1120	1120	1120	0	0	0	0	0	0	0	0	1210	1206	1210	1214	1214	1214	1214	1219	1223	1232	1232	1236	1236	1236	1245	1249	1254	1259	1263	1268	1268	1272	1272	1277	1277	1277	1306	1306	0	0	0	0	0	0	0	0	0	0	0	0	0	0	0	0	0	0	0	0	0	1698	1698	1698	1690	1690	0	0	0	0	1681	1698	1690	1690	1690	1698	1698	1706	1706	1560	1560	1567	1567	1574	1574	1574	1574	1768	1768	1759	1759	1759	1759	1768	1768	1768	1777	1786	1795	1795	1804	1804	1824	1824	1824	1833	1843	1853	1863	1873	1883	1894	1904	1904	1915	1925	1936	1947	1958	1992	2003	2003	2015	2039	2039	2039	2051	2051	2051	2649	2649	2690	2690	2711	2733	2754	2777	2799	2799	2822	2845	2845	2845	2845	2845	2845	2822	2822	2822	2822	0	4350	4463	4463	4406	4406	4463	4406	4406	4521	4521	4521	4581	4521	4521	4463	4463	4463	4463	4142	4142	4142	4192	4142	4093	4142	4142	4142	4142	4142	4142	4142	4142	4142	4142	4142	4192	4192	4192	4192	4243	4192	4192	4243	4243	4243	4243	4243	4243	4296	4296	4296	4296	4296	4296	4296	4243	4296	4243	4296	4296	0	0	0	0	0	0	0	0	0	0	0	0	0	0	0	0	0	0	0	0	0	0	0	0	0	0	0	0	0	0	3583	3583	3583	3583	3583	3546	3546	3546	3510	3510	3510	3510	3510	3510	3510	3510	3510	3510	3510	3546	3546	3546	3546	3546	3546	3510	3510	3475	3510	3510	3510	3510	3510	3510	3510	3510	3475	3475	3475	3475	3475	3440	3440	3440	3440	3440	3440	3475	3440	3440	3440	3475	3475	3475	3475	3475	3475	3475	3475	3475	3475	3475	3475	3510	3510	3510	3510	3546	3546	4463	4406	4350	4296	4296	4350	4350	4350	4350	4406	4406	4406	4406	4406	4350	4350	0	0	0	0	0	4296	4296	4296	4296	4296	4350	4406	4406	4350	4406	4350	4350	4350	4350	4296	4296	4296	4296	4296	4296	4296	4296	4296	4296	4296	4350	4350	4350	4350	4296	4350	4350	4350	0	0	0	4406	4296	4296	4243	4296	4296	4350	4350	4350	4406	4406	4406	4350	4350	4350	4350	4350	4406	4463	4521	4521	4581	4581	4581	4581	4643	4581	4521	4521	4521	4463	4406	4350	4296	4296	4243	4243	4192	4192	4192	4192	4192	4142	4093	4093	4093	4093	4093	4045	4045	4045	4045	4045	3998	4045	4045	4045	4045	4045	4045	4045	4045	4045	3998	3998	3510	3546	3546	3440	3475	3406	3406	3406	3406	3406	3406	3406	3373	3406	3373	3373	3373	3373	3341	3341	3341	3341	3341	3341	3373	3373	3341	3341	3341	3341	3309	3309	3309	3309	3309	3309	3309	3277	3277	3277	3277	3277	3277	3277	3277	3277	3277	3277	3277	3277	3277	3277	3246	3277	3277	3277	3246	3246	3246	3246	3246	3246	3246	3246	3246	3277	3277	3277	3277	3277	3246	3277	3277	3277	6235	6235	6235	6124	6235	6235	6235	6349	6349	6124	6124	6124	6124	6235	6235	6235	6124	6235	6349	6468	6468	6468	6592	6592	6592	6592	0	0	0	0	0	0	0	0	0	6592	6592	6720	6720	6720	0	6592	6720	6720	6720	6853	6720	6720	6720	6720	6853	6853	0	0	0	0	0	0	0	0	0	0	0	0	0	0	0	0	0	0	0	0	0	0	0	0	0	0	0	0	0	0	0	0
0	0	0	0	0	0	0	0	0	0	0	0	0	0	0	0	0	0	0	1095	1095	1095	1095	1091	1091	1091	1095	1095	1120	1116	1116	1116	1116	1116	1116	1116	1116	1116	1116	1116	1116	1116	1116	1116	1116	1120	1120	1120	1123	1123	1127	1127	1120	0	0	0	0	0	0	0	0	0	1197	1206	1210	1210	1214	1214	1214	1219	1223	1227	1232	1236	1236	1240	1245	1254	1259	1263	1268	1268	1268	1272	1277	1277	1287	1301	1306	1306	1311	1311	0	0	0	0	0	0	0	0	0	0	0	0	0	0	0	0	0	0	0	1706	1698	1698	1698	1690	1690	1690	1690	1690	1681	1690	1690	1690	1690	1698	1698	1715	1567	1567	1567	1560	1567	1574	1574	1574	1574	1768	1759	1759	1759	1759	1759	1768	1768	1768	1777	1786	1786	1795	1804	1804	1814	1824	1824	1833	1843	1853	1863	1873	1883	1894	1904	1904	1915	1925	1936	1958	1958	1969	1969	2003	2027	2027	2039	2039	2039	2039	2690	2690	2690	2690	2690	2711	2733	2754	2777	2777	2799	2822	2845	2845	2845	2845	2845	2845	2845	2845	2845	2845	0	4296	4350	4406	4350	4350	4350	4350	4350	4521	4521	4521	0	4521	4521	4463	4463	4463	4142	4142	4142	4142	4192	4142	4093	4142	4142	4142	4142	4142	4142	4142	4142	4142	4142	4142	4142	4142	4142	4142	4192	4192	4243	4243	4243	4243	4243	4243	4243	4243	4296	4296	4296	4296	4296	4296	4243	4243	4243	4296	4296	0	0	0	0	0	0	0	0	0	0	0	0	0	0	0	0	0	0	0	0	0	0	0	0	0	0	0	0	0	0	3583	3583	3583	3583	3583	3583	3546	3546	3510	3510	3510	3510	3475	3510	3510	3510	3546	3510	3510	3546	3546	3510	3510	3510	3546	3510	3510	3440	3510	3510	3510	3510	3510	3510	3510	3475	3475	3475	3475	3440	3475	3440	3440	3440	3440	3440	3475	3475	3440	3440	3440	3440	3440	3475	3475	3475	3475	3475	3475	3475	3475	3475	3475	3510	3510	3510	3510	3546	3546	4463	4406	4350	4350	4296	4350	4350	4350	4350	4406	4406	4406	4406	4406	4350	4296	4296	0	0	0	0	4296	4296	4296	4350	4296	4350	4406	4406	4350	4406	4350	4350	4350	4350	4296	4350	4296	4296	4296	4296	4296	4296	4296	4296	4350	4406	4350	4350	4350	4350	4350	4350	4350	0	0	0	0	4296	4296	4243	4243	4243	4350	4350	4350	4406	4406	4406	4350	4350	4296	4296	4350	4406	4521	4521	4521	4521	4581	4581	4581	4581	4581	4521	4463	4463	4406	4350	4350	4296	4243	4192	4192	4142	4142	4192	4142	4192	4142	4093	4093	4093	4093	4093	4093	4045	4045	4045	4045	4045	4045	4045	4045	4045	4045	4045	4045	4045	4045	4045	4045	3440	3440	3510	3510	3475	3406	3440	3440	3440	3406	3406	3406	3406	3373	3373	3373	3373	3373	3341	3341	3341	3341	3373	3373	3373	3373	3373	3341	3373	3341	3309	3309	3309	3309	3309	3309	3277	3277	3277	3277	3277	3277	3246	3246	3277	3277	3246	3246	3277	3277	3277	3277	3246	3246	3246	3246	3246	3216	3246	3246	3246	3246	3246	3246	3246	3246	3277	3277	3277	3277	3246	3277	3277	3277	6235	6235	6124	6124	6235	6235	6235	6235	6124	6124	6124	6124	6124	6124	6124	6124	6124	6235	6349	6468	6468	6468	6468	6468	6468	6468	6592	6592	6592	6592	0	0	0	0	0	6592	6592	6592	6592	6592	0	0	0	0	0	6853	6720	6720	6720	6720	6720	6720	0	0	0	0	0	0	0	0	0	0	0	0	0	0	0	0	0	0	0	0	0	0	0	0	0	0	0	0	0	0	0	0
0	0	0	0	0	0	0	0	0	0	0	0	0	0	0	0	0	1091	1091	1095	1095	1091	1091	1088	1088	1091	1091	1091	1091	1116	1113	1116	1116	1116	1116	1116	1116	1116	1116	1116	1116	1116	1116	1116	0	1120	1123	1123	1123	1123	1127	1127	0	0	0	0	0	0	0	0	0	0	1197	1206	1210	1214	1214	1214	1214	1219	1223	1232	1236	1240	1236	1245	1249	1254	1259	1263	1268	1268	1268	1272	1277	1282	1296	1301	1306	1306	1311	1311	1311	0	0	0	0	0	0	0	0	0	0	0	0	0	0	0	0	0	0	1706	1698	1698	1698	1698	1690	1690	1690	1690	1690	1690	1690	1690	1690	1698	1698	1706	1567	1553	1553	1553	1574	1574	1546	1546	0	1768	1759	1759	1750	1759	1759	1759	1768	1768	1768	1777	1786	1795	1795	1804	1814	1814	1824	1833	1843	1853	1863	1873	1883	1894	1904	1904	1915	1925	1925	1936	1958	1980	2003	2003	2015	2027	2027	2039	2039	2039	2039	2733	2733	2711	2711	2711	2733	2754	2777	2777	2777	2799	2799	2822	2845	2845	2845	2845	2845	2845	2845	2845	0	4296	4350	4350	4350	4350	4350	4350	4350	0	0	0	0	0	0	0	0	4142	4142	4093	4093	4142	4142	4142	4142	4142	4142	4142	4142	4142	4142	4142	4142	4142	4192	4192	4192	4192	4142	4142	4192	4192	4243	4243	4243	4243	4296	4243	4243	4243	4296	4296	4243	4243	4243	4296	4243	4243	4350	4350	0	0	0	0	0	0	0	0	0	0	0	0	0	0	0	0	0	0	0	0	0	0	0	0	0	0	0	0	0	0	0	3583	3583	3583	3583	3583	3583	3546	3546	3510	3510	3510	3510	3510	3510	3510	3510	3510	3510	3510	3510	3510	3510	3510	3510	3510	3475	3475	3440	3475	3510	3510	3510	3475	3475	3510	3475	3475	3475	3440	3475	3475	3475	3440	3475	3475	3475	3440	3475	3440	3440	3440	3440	3475	3475	3440	3440	3440	3440	3440	3475	3475	3475	3510	3510	3510	3510	3546	3546	3546	4463	4406	4406	4350	4350	4350	4350	4350	4350	4406	4406	4463	4406	4350	4406	4406	4296	0	0	0	0	0	4350	4350	4350	4350	4350	4406	4406	4406	4350	4350	4406	4406	4350	4350	4350	4296	4296	4296	4296	4243	4296	4296	4296	4350	4406	4350	4350	4350	4350	4350	4350	4350	4463	4463	4350	4350	4296	4296	4296	4243	4243	4296	4350	4350	4406	4406	4406	4350	4350	4296	4296	4406	4406	4521	4521	4521	4521	4521	4521	4521	4521	4521	4463	4463	4406	4406	4350	4350	4296	4243	4192	4192	4142	4142	4192	4142	4142	4142	4093	4093	4093	4093	4093	4093	4045	4045	4045	4045	4045	4045	4045	4045	4045	4045	4045	4045	4045	4045	4045	4045	4045	3440	3475	3510	3440	3440	3440	3440	3406	3406	3406	3406	3406	3406	3373	3373	3373	3373	3341	3341	3341	3341	3373	3341	3373	3341	3341	3341	3341	3309	3309	3309	3309	3309	3309	3309	3277	3277	3277	3277	3277	3277	3277	3277	3277	3277	3277	3277	3277	3246	3277	3277	3277	3277	3246	3246	3246	3216	3246	3216	3246	3246	3246	3246	3246	3246	3246	3277	3246	3246	3246	3277	3277	3277	0	6235	6124	6124	6235	6124	6124	6235	6235	6235	6235	6124	6124	6124	6124	6124	6124	6349	6349	6468	6468	6468	6592	6468	6349	6349	6468	6468	6592	6592	0	0	0	0	0	6592	6592	6592	6592	6592	0	0	0	0	0	6853	6720	6720	6720	6720	6853	6853	0	0	0	0	0	0	0	0	0	0	0	0	0	0	0	0	0	0	0	0	0	0	0	0	0	0	0	0	0	0	0	0
0	0	0	0	0	0	0	0	0	0	0	0	0	0	0	0	1095	1095	1095	1095	1095	1091	1091	1085	1085	1085	1085	1085	1109	1109	1109	1113	1116	1120	1120	1120	1116	1116	1116	1116	1116	1120	1120	1120	0	0	1123	1123	0	0	0	0	0	0	0	0	0	0	0	0	0	0	0	1206	1214	1214	1210	1214	1214	1223	1227	1223	1232	1236	1240	1245	1249	1254	1259	1263	1263	1268	1268	1272	1277	1282	1282	1291	1291	1306	1306	1311	1316	1316	1316	0	0	0	0	1374	1374	0	0	0	0	0	0	0	0	0	1706	1698	1698	1698	1698	1698	1690	1690	1690	1690	1690	1690	1690	1690	1690	1690	1698	1698	1553	1553	1553	1553	1574	1574	1574	1574	1574	1777	1759	1750	1750	1759	1750	1759	1759	1768	1768	1777	1786	1795	1795	1804	1814	1824	1833	1833	1843	1853	1863	1873	1883	1883	1904	1904	1915	1925	1925	1936	1936	1969	1992	2003	2015	2015	2015	2015	2039	2799	2777	2754	2754	2754	2733	2733	2733	2733	2754	2754	2754	2754	2777	2822	2822	2845	2845	2845	2845	2869	2869	2869	0	4296	4296	4350	4350	4350	4350	4350	4350	0	0	0	0	0	0	0	4243	4192	4142	4093	4093	4142	4142	4142	4093	4142	4142	4142	4142	4142	4142	4142	4192	4192	4192	4142	4192	4192	4142	4192	4192	4192	4243	4243	4243	4243	4296	4243	4243	4243	4296	4296	4243	4243	4243	4243	4243	4243	4350	4350	0	0	0	0	0	0	0	0	0	0	0	0	0	0	0	0	0	0	0	0	0	0	0	0	0	0	0	0	0	0	0	3621	3583	3583	3583	3583	3583	3546	3546	3510	3510	3510	3510	3510	3510	3510	3510	3510	3510	3510	3510	3510	3510	3510	3510	3510	3475	3475	3440	3475	3510	3510	3510	3510	3510	3510	3510	3475	3475	3475	3475	3475	3475	3440	3440	3440	3440	3440	3440	3440	3440	3440	3475	3440	3475	3440	3440	3440	3440	3475	3475	3475	3475	3475	3510	3510	3510	3510	3546	3546	4463	4406	4406	4350	4350	4350	4350	4350	4350	4406	4406	4406	4406	4406	4406	4406	0	0	0	0	4243	4296	4296	4296	4350	4350	4350	4350	4406	4406	4406	4406	4406	4406	4406	4406	4406	4296	4296	4296	4243	4243	4296	4296	4296	4350	4350	4350	4350	4350	4350	4350	4350	4406	4463	4463	4350	4350	4296	4296	4296	4243	4243	4296	4296	4350	4350	4296	4350	4350	4296	4296	4296	4406	4406	4463	4463	4463	4463	4463	4463	4463	4463	4406	4406	4406	4350	4350	4296	4296	4296	4243	4243	4192	4192	4192	4142	4142	4142	4093	4093	4093	4093	4093	4093	4093	4045	4045	4045	4045	4045	4045	4045	4045	4045	4045	4045	4045	4045	4045	4045	4045	4045	3440	3475	3475	3440	3440	3440	3406	3406	3406	3406	3406	3373	3406	3373	3373	3373	3373	3373	3341	3341	3373	3373	3373	3373	3373	3341	3341	3373	3309	3341	3309	3309	3309	3309	3309	3277	3277	3277	3277	3277	3277	3277	3277	3277	3277	3277	3277	3277	3277	3246	3277	3277	3277	3246	3246	3246	3246	3246	3246	3246	3246	3246	3246	3246	3246	3246	3277	3246	3246	3246	3277	3277	3277	0	6124	6124	6124	6124	6124	6124	6124	6235	6235	6235	6124	6124	6124	6124	6235	6235	6468	6468	6468	6468	6592	6592	6468	6468	6468	6592	6592	6592	0	0	0	0	0	0	6592	6592	6592	6592	6592	0	0	0	0	0	6853	6720	6720	6720	6853	6720	6720	0	0	0	0	0	0	0	0	0	0	0	0	0	0	0	0	0	0	0	0	0	0	0	0	0	0	0	0	0	0	0	0
0	0	0	0	0	0	0	0	0	0	0	0	0	0	0	0	1095	1095	1091	1095	1091	1091	1088	1081	1081	1085	1085	1085	1109	1098	1098	1113	1116	1120	1120	1120	1120	1116	1116	1116	1120	1120	1120	1120	0	0	0	0	0	0	0	0	0	0	0	0	0	0	0	0	0	0	0	0	1214	1210	1210	1214	1214	1227	1227	1227	1232	1240	1240	1249	1254	1254	1259	1263	1263	1263	1268	1272	1272	1277	1277	1287	1296	1306	1311	1311	1316	1316	1316	1316	0	0	1374	1374	1379	1379	0	0	0	0	0	0	0	0	1706	1706	1706	1698	1698	1698	1690	1690	1690	1690	1690	1690	1690	1690	1690	1690	1698	1706	1546	1546	1546	1553	1574	1567	1567	1567	1574	1777	1759	1759	1759	1759	1759	1759	1768	1768	1768	1777	1777	1786	1795	1795	1804	1814	1824	1824	1833	1843	1863	1873	1883	1894	1904	1904	1915	1925	1925	1936	1936	1969	2003	2003	2015	2027	2027	2027	0	2822	2799	2777	2777	2777	2754	2733	2754	2754	2777	2777	2777	2799	2822	2822	2822	2822	2822	2845	2845	2845	2822	2822	2822	4296	4296	4350	4350	4350	4350	4350	0	0	0	0	0	0	0	4296	4296	4243	4093	4093	4093	4093	4142	4142	4142	4192	4142	4142	4142	4142	4142	4142	4142	4192	4192	4142	4192	4192	4192	4192	4192	4192	4192	4243	4243	4243	4243	4243	4243	4243	4296	4296	4243	4243	4243	4243	4296	4296	0	0	0	0	0	0	0	0	0	0	0	0	0	0	0	0	0	0	0	0	0	0	0	0	0	0	0	0	0	0	0	0	0	3583	3583	3583	3583	3583	3583	3546	3546	3510	3510	3510	3510	3510	3510	3510	3510	3510	3510	3510	3510	3510	3475	3475	3475	3510	3475	3475	3440	3475	3510	3510	3510	3510	3510	3510	3510	3510	3475	3475	3475	3475	3440	3440	3475	3475	3475	3440	3475	3475	3475	3440	3440	3440	3475	3440	3440	3440	3475	3475	3475	3475	3475	3510	3510	3510	3510	3546	3546	3546	4463	4406	4406	4350	4350	4350	4350	4350	4350	4406	4406	4463	4463	4463	0	0	0	0	0	0	4296	4296	4296	4296	4350	4350	4350	4406	4406	4350	4406	4406	4406	4463	4406	4463	4406	4406	4350	4296	4296	4296	4296	4296	4296	4350	4350	4350	4350	4350	4350	4350	4350	4406	4463	4463	4463	4406	4296	4296	4243	4243	4243	4243	4296	4296	4350	4296	4296	4296	4296	4296	4296	4296	4350	4350	4350	4463	4350	4350	4350	4350	4350	4350	4350	4350	4350	4350	4350	4350	4296	4243	4243	4192	4142	4142	4142	4142	4192	4093	4093	4093	4093	4093	4093	4093	4045	4045	4045	4045	4045	4045	4045	4045	4045	4045	4045	4045	4045	4045	4045	4045	4045	3440	3475	3510	3475	3440	3440	3406	3406	3406	3406	3373	3373	3373	3373	3373	3373	3373	3373	3373	3373	3373	3373	3373	3373	3373	3373	3373	3373	3309	3309	3309	3277	3309	3309	3309	3277	3277	3277	3277	3246	3246	3246	3246	3246	3246	3246	3277	3277	3277	3277	3246	3246	3246	3246	3246	3246	3246	3246	3246	3246	3246	3246	3246	3246	3246	3246	3246	3246	3246	3246	3246	3246	3246	0	6124	6124	6124	6124	6124	6124	6124	6124	6235	6235	6235	6235	6235	6349	6235	6235	6468	6468	6468	6468	6468	6468	6468	6468	6468	6592	6592	6592	0	0	6592	6592	0	0	6592	6592	6592	6592	6592	0	0	0	0	0	6853	6720	6720	6720	6853	6853	6853	0	0	0	0	0	0	0	0	0	0	0	0	0	0	0	0	0	0	0	0	0	0	0	0	0	0	0	0	0	0	0	0
0	0	0	0	0	0	0	0	0	0	0	0	0	0	0	0	1095	1095	1095	1095	1091	1091	1091	1085	1081	1081	1081	1081	0	1098	1098	0	0	1120	1120	1120	1113	1113	1113	1116	1120	1120	1120	1120	0	0	0	0	0	0	0	0	0	0	0	0	0	0	0	0	0	0	0	0	1214	1214	1214	1214	1219	1232	1232	1232	1232	1236	1240	1245	1249	1249	1254	1263	1263	1268	1268	1268	1272	1277	1277	1287	1291	1301	1311	1311	1316	1321	1326	1342	1358	1363	1368	1374	1374	1379	1379	0	0	0	0	0	0	0	0	1706	1706	1698	1698	1698	1698	1698	1690	1690	1690	1690	1681	1681	1690	1690	1690	1690	1546	1546	1546	1567	1567	1567	1567	1567	0	1768	1768	1759	1759	1759	1759	1759	1759	1768	1768	1768	1777	1777	1786	1795	1804	1814	1824	1824	1833	1843	1853	1873	1883	1894	1894	1904	1915	1925	1925	1936	1947	1969	1992	2003	2015	2015	2015	2027	2822	2822	2822	2799	2799	2777	2777	2754	2777	2777	2777	2777	2777	2799	2777	2822	2822	2822	2845	2845	2845	2845	2822	2822	2822	4296	4296	4296	4296	4350	4350	0	0	0	0	0	0	0	0	4243	4243	4192	4142	4093	4142	4142	4142	4142	4142	4142	4142	4142	4142	4142	4093	4142	4142	4192	4192	4192	4192	4142	4192	4192	4192	4192	4243	4192	4243	4243	4243	4243	4243	4243	4296	4296	4296	4296	4243	4296	4296	4296	0	0	0	0	0	0	0	0	0	0	0	0	0	0	0	0	0	0	0	0	0	0	0	0	0	0	0	0	0	0	0	0	0	3583	3583	3583	3583	3583	3583	3546	3546	3510	3546	3546	3546	3510	3510	3510	3546	3546	3510	3510	3510	3510	3475	3475	3475	3475	3475	3475	3475	3475	3510	3510	3510	3510	3510	3510	3475	3475	3475	3475	3475	3475	3475	3440	3475	3475	3475	3440	3475	3475	3440	3440	3475	3440	3440	3475	3475	3440	3475	3475	3475	3475	3475	3475	3510	3510	3546	3510	3546	3546	4463	4406	4406	4350	4350	4350	4406	4406	4406	4463	4463	4463	4463	4463	0	0	0	0	0	0	4296	4350	4350	4350	4350	4296	4296	4350	4350	4350	4350	4406	4406	4463	4463	4463	4463	4406	4350	4296	4296	4296	4296	4296	4296	4350	4350	4296	4296	4296	4350	4350	4350	4350	4406	4463	4406	4350	4296	4296	4296	4243	4243	4243	4296	4296	4296	4296	4296	4296	4296	4296	4296	4350	4296	4296	4350	4406	4350	4350	4350	4350	4350	4350	4296	4350	4350	4296	4296	4296	4296	4243	4243	4192	4142	4142	4142	4142	4192	4093	4093	4093	4093	4093	4093	4093	4045	4045	4045	4045	4045	4045	4045	4045	4045	4045	4045	4045	4045	4045	4045	4045	4045	3440	3510	3510	3440	3440	3440	3406	3406	3406	3406	3373	3373	3373	3373	3341	3373	3373	3373	3373	3373	3373	3373	3373	3373	3373	3373	3373	3373	3309	3309	3309	3309	3277	3309	3277	3277	3277	3277	3277	3277	3246	3246	3246	3277	3277	3246	3277	3277	3277	3277	3246	3246	3246	3246	3277	3277	3277	3246	3246	3246	3246	3246	3216	3246	3246	3246	3246	3246	3246	3246	3246	3246	3246	0	6124	6124	6124	6124	6124	6124	6124	6124	6235	6235	6235	6235	6235	6349	6235	6235	6468	6468	6468	6468	6592	6592	6592	6592	6592	6592	6592	6592	6592	6592	6592	6592	0	0	6592	6592	6592	6592	6592	0	0	0	0	0	0	6720	6720	6720	6720	6720	6720	0	0	0	0	0	0	0	0	0	0	0	0	0	0	0	0	0	0	0	0	0	0	0	0	0	0	0	0	0	0	0	0
0	0	0	0	0	0	0	0	0	0	0	0	0	0	0	0	1095	1095	1095	1095	1095	1091	1091	1081	1081	1081	1081	1085	1085	1098	1098	0	0	0	0	0	1113	1113	1113	1116	1120	1120	1120	0	0	0	0	0	0	0	0	0	0	0	0	0	0	0	0	0	0	0	0	0	1214	1214	1214	1214	1219	1232	1232	1232	1236	1236	1240	1240	1254	1259	1263	1263	1268	1268	1268	1268	1272	1272	1291	1291	1296	1301	1306	1311	1316	1321	1326	1331	1347	1358	1363	1368	1374	1374	1379	1379	0	0	0	1419	1419	1413	1413	1698	1698	1698	1698	1698	1690	1690	1690	1690	1690	1690	1681	1681	1690	1690	1690	1690	1546	1546	1546	1567	1567	1567	1567	1546	1546	1768	1768	1768	1759	1759	1759	1759	1759	1768	1768	1768	1786	1795	1795	1804	1804	1814	1824	1824	1833	1843	1853	1873	1883	1894	1894	1904	1915	1925	1925	1936	1947	1958	1980	2003	2015	2015	2015	0	2845	2822	2822	2799	2799	2799	2777	2777	2777	2799	2799	2799	2777	2777	2799	2799	2822	2822	2845	2845	2845	2845	2845	2845	2822	4350	4296	4296	4296	4296	4296	0	0	0	0	4521	4521	4521	0	4296	4296	4243	4142	4093	4142	4142	4142	4142	4142	4142	4142	4142	4142	4142	4142	4142	4142	4142	4192	4192	4142	4142	4142	4192	4142	4142	4192	4192	4243	4243	4243	4243	4243	4296	4296	4296	4296	4296	4296	4296	4296	4296	0	0	0	0	0	0	0	0	0	0	0	0	0	0	0	0	0	0	0	0	0	0	0	0	0	0	0	0	0	0	0	0	0	3546	3583	3583	3583	3583	3583	3583	3546	3546	3546	3546	3546	3546	3546	3546	3546	3546	3510	3510	3510	3510	3475	3475	3475	3475	3475	3475	3475	3475	3475	3510	3510	3510	3510	3510	3510	3475	3475	3475	3475	3475	3475	3440	3475	3475	3475	3475	3475	3475	3440	3440	3440	3440	3440	3440	3440	3440	3475	3475	3475	3475	3475	3475	3546	3546	3546	3546	3546	3510	3510	4350	4406	4406	4350	4406	4406	4406	4406	4463	4406	4406	4350	4350	0	0	0	0	0	0	4350	4350	4350	4350	4296	4296	4296	4350	4350	4350	4350	4350	4406	4406	4406	4406	4350	4350	4350	4296	4296	4296	4296	4296	4296	4296	4296	4296	4296	4296	4350	4350	4296	4350	4350	4296	4350	4296	4296	4296	4243	4243	4243	4243	4243	4296	4296	4350	4350	4350	4350	4350	4350	4296	4296	4296	4296	4296	4296	4296	4296	4296	4296	4296	4296	4296	4296	4296	4296	4296	4296	4243	4243	4192	4192	4192	4142	4142	4192	4142	4093	4142	4093	4142	4093	4093	4045	4045	4045	4045	4045	3998	3998	3998	4045	4045	4045	4045	4045	4045	4045	4045	4045	4045	3475	3510	3475	3440	3406	3406	3406	3406	3406	3373	3373	3373	3373	3373	3406	3373	3373	3373	3373	3373	3373	3373	3373	3373	3373	3373	3373	3341	3309	3309	3309	3309	3309	3277	3277	3277	3277	3277	3277	3277	3246	3246	3277	3277	3246	3277	3277	3246	3246	3277	3246	3277	3246	3277	3277	3277	3246	3246	3246	3246	3246	3246	3246	3246	3246	3246	3246	3246	3216	3216	3186	3186	0	6124	6124	6124	6124	6124	6124	6124	6235	6235	6235	6235	6235	6235	6349	6349	6468	6468	6468	6468	6468	6592	6592	6592	6468	6592	6592	6592	6592	6592	6720	6720	6720	6720	6720	6592	6592	6592	6468	6468	0	0	0	0	0	0	0	0	6720	6720	6720	6720	0	0	0	0	0	0	0	0	0	0	0	0	0	0	0	0	0	0	0	0	0	0	0	0	0	0	0	0	0	0	0	0
0	0	0	0	0	0	0	0	0	0	0	0	0	0	0	0	1095	1095	1095	1095	1095	1091	1088	1081	1081	1085	1085	1085	1095	1098	1098	1098	0	0	0	0	0	0	0	0	0	0	0	0	0	0	0	0	0	0	0	0	0	0	0	0	0	0	0	0	0	0	0	0	0	1214	1214	1214	1219	1232	1236	1236	1236	1245	1240	1240	1263	1263	1263	1263	1268	1272	1272	1272	1272	1287	1291	1291	1296	1301	1306	1311	1316	1321	1326	1336	1342	1352	1358	1363	1374	1374	1385	1390	1413	1413	1419	1419	1425	1413	1413	1413	1698	1698	1698	1698	1698	1698	1690	1690	1690	1690	1681	1681	1690	1673	1673	1673	1546	1553	1553	1567	1567	1567	1546	1546	1546	0	1750	1750	1759	1759	1759	1759	1768	1768	1768	1768	1777	1786	1795	1795	1804	1814	1824	1824	1833	1843	1853	1873	1883	1894	1894	1904	1915	1915	1925	1936	1936	1958	1969	1980	1980	1980	2015	2845	2845	2845	2845	2822	2822	2799	2799	2799	2799	2822	2822	2799	2777	2777	2799	2822	2822	2822	2845	2845	2845	2845	2845	2845	2845	4350	4296	4296	4296	4296	4296	0	0	0	4406	4406	4406	4406	4296	4296	4296	4243	4142	4093	4142	4142	4142	4142	4142	4142	4142	4142	4142	4142	4142	4142	4142	4192	4192	4192	4142	4142	4142	4192	4142	4192	4192	4192	4243	4243	4243	4243	4243	4243	4296	4296	4296	4296	4296	4296	4296	4296	0	0	0	0	0	0	0	0	0	0	0	0	0	0	0	0	0	0	0	0	0	0	0	0	0	0	0	0	0	0	0	0	0	3583	3583	3583	3583	3583	3583	3583	3546	3546	3546	3546	3546	3546	3546	3546	3546	3546	3546	3510	3510	3510	3475	3475	3475	3475	3440	3440	3475	3475	3510	3510	3510	3510	3510	3510	3510	3475	3475	3475	3475	3475	3440	3440	3475	3475	3475	3475	3475	3475	3440	3475	3440	3440	3440	3475	3440	3475	3475	3475	3475	3475	3475	3475	3510	3510	3510	3510	3510	3510	3510	4350	4350	4350	4350	4350	4406	4350	4350	4350	4350	4350	4350	4350	0	0	0	0	0	0	4350	4350	4350	4350	4296	4296	4296	4350	4350	4350	4350	4350	4350	4406	4350	4350	4350	4350	4350	4296	4296	4296	4296	4296	4296	4350	4350	4350	4296	4296	4296	4350	4350	4350	4296	4296	4296	4296	4243	4243	4243	4243	4243	4296	4296	4296	4296	4350	4350	4350	4296	4296	4296	4296	4296	4296	4296	4296	4296	4296	4296	4296	4296	4296	4296	4296	4296	4296	4296	4296	4296	4243	4243	4243	4192	4192	4142	4192	4192	4142	4142	4142	4142	4142	4093	4093	4045	4045	4045	4045	4045	4045	4045	4045	4045	4045	4045	4045	4045	4045	3998	4045	4045	4045	3546	3510	3440	3440	3440	3406	3406	3406	3406	3373	3373	3373	3373	3373	3406	3373	3373	3373	3373	3373	3373	3373	3373	3373	3373	3373	3373	3373	3309	3309	3309	3309	3309	3309	3277	3277	3277	3277	3277	3277	3246	3246	3277	3277	3246	3277	3277	3277	3246	3277	3277	3277	3246	3277	3277	3277	3277	3246	3246	3277	3277	3246	3246	3216	3246	3246	3246	3246	3216	3216	3186	3186	0	0	6124	6124	6124	6124	6124	6124	6235	6235	6235	6235	6235	6235	6349	6349	6468	6468	6468	6468	6468	6592	6592	6468	6468	6592	6592	6592	6592	6592	6592	6592	6720	6592	6720	6592	6592	6592	6592	6592	0	0	0	0	0	0	0	0	6720	6720	6720	6720	0	0	0	0	0	0	0	0	0	0	0	0	0	0	0	0	0	0	0	0	0	0	0	0	0	0	0	0	0	0	0	0
0	0	0	0	0	0	0	0	0	0	0	0	0	0	0	0	0	0	1095	1098	1095	1095	1095	1085	1085	1085	1088	1091	1095	1095	1095	1095	0	0	0	0	0	0	0	0	0	0	0	0	0	0	0	0	0	0	0	0	0	0	0	0	0	0	0	0	0	0	0	0	0	0	0	0	0	0	1236	1236	0	1245	1249	1245	1245	1263	1263	1268	1272	1272	1272	1272	1272	1287	1291	1291	1296	1301	1306	1311	1316	1321	1326	1331	1342	1347	1358	1363	1368	1374	1374	1390	1407	1413	1419	1419	1413	1413	1413	1698	1698	1698	1706	1698	1698	1698	1690	1690	1690	1690	1690	1690	1690	1690	1690	1673	0	1553	1560	1560	1560	1567	1560	1560	1539	1539	1750	1750	1759	1750	1759	1759	1768	1759	1768	1768	1777	1786	1786	1795	1804	1814	1814	1814	1833	1843	1863	1873	1883	1883	1894	1904	1915	1915	1925	1936	1936	1947	1958	1969	1969	1969	1969	2845	2845	2845	2845	2822	2799	2799	2799	2799	2799	2822	2822	2822	2822	2822	2822	2822	2822	2822	2822	2822	2845	2845	2845	2845	2845	4350	4350	4350	4350	4350	4350	4350	4350	4350	4350	4406	4406	4406	4350	4350	4296	4296	4192	4192	4142	4192	4192	4142	4142	4142	4142	4142	4142	4142	4142	4142	4142	4142	4192	4142	4142	4142	4142	4142	4142	4142	4243	4243	4243	4243	4243	4243	4243	4296	4296	4296	4296	4296	4243	4243	4296	0	0	0	0	0	0	0	0	0	0	0	0	0	0	0	0	0	0	0	0	0	0	0	0	0	0	0	0	0	0	0	0	0	0	3583	3583	3583	3583	3583	3583	3583	3583	3546	3546	3546	3546	3546	3546	3546	3510	3510	3510	3510	3510	3510	3475	3475	3475	3475	3440	3475	3475	3475	3510	3510	3510	3510	3510	3510	3510	3510	3475	3475	3475	3475	3475	3440	3475	3475	3475	3475	3475	3475	3440	3440	3440	3440	3440	3475	3440	3475	3475	3475	3510	3510	3510	3475	3510	3510	3510	3510	3510	3510	3510	4350	4350	4406	4350	4350	4406	4406	4463	4406	4406	4406	4406	0	0	0	0	0	0	4296	4296	4350	4296	4296	4296	4296	4296	4350	4350	4350	4296	4350	4350	4350	4350	4350	4350	4350	4350	4350	4296	4296	4296	4296	4296	4296	4296	4296	4296	4296	4350	4350	4350	4350	4296	4296	4296	4296	4243	4243	4243	4243	4243	4243	4296	4296	4296	4296	4350	4350	4350	4296	4296	4296	4296	4296	4296	4296	4296	4296	4296	4296	4296	4296	4296	4296	4296	4296	4296	4296	4243	4243	4243	4243	4243	4192	4192	4192	4192	4192	4142	4192	4142	4142	4093	4093	4045	4045	4045	3998	4045	4045	4045	4045	4045	4045	4045	4045	4045	4045	3998	3998	4045	3510	3510	3475	3475	3440	3406	3406	3406	3373	3406	3373	3373	3373	3373	3373	3373	3373	3373	3373	3373	3373	3373	3406	3373	3373	3373	3373	3373	3373	3341	3309	3309	3309	3309	3309	3277	3277	3277	3277	3277	3277	3246	3277	3277	3277	3277	3277	3246	3277	3246	3277	3277	3277	3246	3277	3277	3277	3277	3277	3277	3277	3277	3277	3277	3277	3246	3246	3277	3246	3246	3216	3186	3186	0	0	6124	6124	6124	6124	6124	6235	6235	6235	6235	6349	6349	6349	6349	6349	6349	6349	6468	6349	6468	6468	6592	6592	6468	6592	6592	6592	6592	6592	6592	6592	6592	6592	6720	6720	6720	6720	6592	6592	0	0	0	0	0	0	6592	6592	6592	6592	6720	6720	0	0	0	0	0	0	0	0	0	0	0	0	0	0	0	0	0	0	0	0	0	0	0	0	0	0	0	0	0	0	0	0
0	0	0	0	0	0	0	0	0	0	0	0	0	0	0	0	0	0	0	1098	1098	1095	1095	1088	1085	1088	1088	1091	1091	1095	1095	1095	0	0	0	0	0	0	0	0	0	0	0	0	0	0	0	0	0	0	0	0	0	0	0	0	0	0	0	0	0	0	0	0	0	0	0	0	0	0	0	0	0	0	1249	1245	1245	1263	1268	1268	1272	1272	1272	1277	1277	1291	1296	1296	1291	1306	1311	1311	1316	1321	1326	1336	1342	1347	1358	1363	1368	1374	1374	1390	1390	1413	1413	1419	1419	1413	1413	1413	1698	1698	1698	1698	1698	1698	1690	1690	1698	1690	1690	1690	1690	1698	1698	0	1567	1560	1567	1560	1560	1567	1560	1553	1539	1539	1741	1750	1750	1750	1759	1759	1768	1768	1768	1768	1777	1786	1795	1804	1804	1814	1814	1833	1843	1853	1863	1873	1883	1883	1894	1894	1915	1915	1925	1936	1947	1958	1969	1969	1969	1969	1969	2629	2629	2845	2845	2822	2822	2799	2799	2799	2845	2845	2845	2845	2845	2845	2845	2845	2822	2822	2845	2845	2845	2845	2869	2869	2869	0	4350	4350	4350	4350	4350	4350	4350	4350	4350	4350	4406	4406	4406	4350	4350	4296	4296	4192	0	4296	4296	0	4142	4142	4142	4142	4142	4142	4142	4142	4142	4142	4142	4142	4142	4142	4142	4192	4142	4142	4192	4243	4243	4243	4243	4243	4296	4296	4296	4296	4296	4296	4296	4296	4296	0	0	0	0	0	0	0	0	0	0	0	0	0	0	0	0	0	0	0	0	0	0	0	0	0	0	0	0	0	0	0	0	0	0	0	3621	3583	3583	3583	3583	3583	3546	3546	3546	3546	3546	3546	3546	3510	3510	3510	3510	3546	3510	3510	3510	3510	3510	3475	3475	3475	3475	3475	3510	3510	3546	3546	3510	3510	3510	3510	3510	3510	3475	3475	3475	3440	3475	3475	3475	3475	3440	3475	3475	3475	3475	3475	3475	3475	3440	3475	3475	3475	3510	3510	3475	3475	3475	3510	3510	3510	3510	3510	3510	4296	4296	4350	4350	4406	4406	4406	4406	4406	4406	4406	0	0	0	0	0	0	0	4296	4296	4296	4296	4296	4296	4296	4296	4296	4296	4296	4296	4296	4296	4350	4296	4350	4296	4296	4296	4296	4296	4296	4296	4296	4296	4296	4296	4296	4296	4350	4350	4350	4296	4296	4296	4243	4243	4243	4243	4192	4243	4192	4243	4243	4243	4243	4296	4296	4296	4296	4350	4296	4296	4296	4296	4296	4296	4296	4296	4296	4296	4296	4296	4296	4296	4296	4296	4296	4296	4296	4296	4243	4243	4243	4243	4192	4192	4192	4192	4192	4142	4142	4142	4093	4093	4093	4045	4045	3998	3998	3998	4045	4045	4045	4045	4045	4045	4045	4045	3998	3998	3998	4045	3546	3546	3475	3440	3440	3406	3406	3406	3373	3406	3406	3406	3373	3406	3373	3373	3373	3373	3373	3373	3373	3373	3373	3373	3373	3373	3373	3373	3373	3373	3341	3309	3309	3309	3309	3309	3277	3277	3277	3277	3277	3277	3277	3246	3246	3277	3277	3246	3246	3246	3246	3246	3246	3246	3277	3277	3277	3277	3277	3277	3277	3277	3277	3246	3246	3246	3246	3277	3246	3246	3246	3216	3216	3216	0	6124	6124	6124	6124	6124	6235	6235	6235	6235	6349	6349	6349	6349	6349	6349	6349	6468	6349	6468	6468	6468	6468	6592	6592	6592	6592	6592	6592	6592	6592	6592	6592	6720	6720	6720	6720	6720	6720	0	0	0	0	0	0	6468	6468	6468	6592	6592	6592	0	0	0	0	0	0	0	0	0	0	0	0	0	0	0	0	0	0	0	0	0	0	0	0	0	0	0	0	0	0	0	0
0	0	0	0	0	0	0	0	0	0	0	0	0	0	0	0	0	0	0	1098	1098	1098	1098	1088	1088	1088	1091	1091	1091	1091	1095	0	0	0	0	0	0	0	0	0	0	0	0	0	0	0	0	0	0	0	0	0	0	0	0	0	0	0	0	0	0	0	0	0	0	0	0	0	0	0	0	0	0	0	0	0	0	0	1268	1268	1272	1272	1272	1272	1277	1291	1296	1301	1301	1306	1311	1311	1311	1321	1326	1331	1342	1347	1358	1363	1368	1374	1374	1379	1390	1407	1413	1419	1419	1419	1419	1690	1706	1706	1698	1698	1698	1698	1690	1690	1690	1690	1690	1690	1690	1698	1698	0	1567	1567	1567	1567	1560	1560	1553	1546	1539	1539	1741	1741	1750	1750	1759	1759	1759	1768	1768	1777	1777	1786	1795	1795	1795	1814	1814	1824	1843	1843	1863	1873	1873	1883	1894	1894	1915	1915	1925	1947	1947	1958	1969	1969	1969	1969	2629	2609	2609	2845	2845	2799	2799	2799	2799	2799	2822	2822	2845	2845	2845	2845	2845	2845	2845	2845	2845	2845	2845	2845	2869	2869	2869	0	4350	4350	4406	4406	4350	4350	4350	4350	4350	4350	4406	4350	4406	4350	4350	4350	4350	0	0	4296	4296	0	4142	4142	4142	4142	4142	4142	4142	4142	4142	4142	4142	4142	4142	4142	4142	4192	4142	4142	4192	4192	4243	4192	4243	4243	4243	4296	4296	4296	4296	4296	4296	4296	4296	0	0	0	0	0	0	0	0	0	0	0	0	0	0	0	0	0	0	0	0	0	0	0	0	0	0	0	0	0	0	0	0	0	0	0	3583	3583	3583	3583	3583	3583	3546	3546	3546	3510	3510	3510	3510	3510	3510	3510	3546	3546	3546	3546	3510	3510	3510	3510	3475	3475	3475	3475	3510	3546	3546	3546	3510	3510	3510	3510	3510	3475	3475	3475	3475	3475	3475	3475	3475	3475	3475	3475	3475	3475	3475	3475	3475	3475	3475	3475	3475	3475	3475	3475	3475	3440	3440	3475	3475	3475	3510	3510	3510	4296	4350	4350	4406	4406	4406	4406	4406	4406	4406	4406	0	0	0	0	0	0	4350	4296	4296	4296	4296	4296	4296	4296	4296	4296	4296	4296	4350	4296	4296	4296	4296	4296	4296	4296	4296	4350	4350	4350	4296	4296	4296	4296	4296	4296	4296	4350	4350	4350	4350	4296	4296	4243	4243	4243	4243	4243	4192	4192	4192	4192	4243	4243	4243	4296	4296	4296	4350	4296	4296	4296	4296	4296	4296	4296	4296	4296	4296	4296	4296	4296	4296	4296	4296	4296	4296	4296	4296	4243	4243	4243	4243	4192	4192	4192	4192	4192	4192	4192	4192	4142	4093	4093	4045	4045	4045	4045	4045	4045	4045	4045	4045	4045	4045	4045	4045	3998	3998	3998	4045	3510	3510	3475	3440	3440	3406	3406	3373	3373	3406	3406	3406	3373	3373	3373	3406	3373	3373	3373	3373	3406	3373	3406	3406	3373	3406	3406	3373	3373	3373	3341	3309	3309	3309	3309	3309	3277	3277	3277	3277	3277	3277	3277	3246	3246	3246	3246	3246	3246	3246	3246	3246	3246	3246	3277	3277	3277	3277	3277	3277	3277	3277	3277	3277	3277	3246	3246	3246	3246	3246	3246	3216	3216	3216	0	6235	6124	6124	6124	6124	6124	6235	6235	6235	6349	6349	6349	6349	6349	6349	6349	6349	6349	6349	6468	6468	6468	6592	6592	6592	6592	6592	6592	6592	6592	6592	6720	6720	6720	6853	6992	6992	6992	6592	6720	6720	0	0	6720	6592	6468	6592	6592	6592	6592	0	0	0	0	0	0	0	0	0	0	0	0	0	0	0	0	0	0	0	0	0	0	0	0	0	0	0	0	0	0	0	0
0	0	0	0	0	0	0	0	0	0	0	0	0	0	0	0	0	0	0	0	1105	1105	1098	1088	1088	1088	1091	1091	1091	1095	1095	0	0	0	0	0	0	0	0	0	0	0	0	0	0	0	0	0	0	0	0	0	0	0	0	0	0	0	0	0	0	0	0	0	0	0	0	0	0	0	0	0	0	0	0	0	0	0	1272	1272	1272	1272	1287	1287	1296	1296	1301	1301	1306	1306	1311	1311	1311	1316	1331	1336	1342	1347	1352	1358	1363	1368	1374	1374	1385	1402	1407	1413	1419	1413	1413	1413	1690	1690	1698	1698	1698	1698	1690	1690	1690	1690	1690	0	0	0	0	0	1560	1560	1560	1567	1560	1560	1553	1546	1539	1539	1732	1741	1741	1741	1750	1759	1759	1768	1768	1777	1777	1786	1795	1795	1804	1814	1814	1824	1843	1853	1863	1873	1873	1883	1894	1894	1915	1925	1925	1947	1958	1958	1969	1969	1969	2629	2629	2609	2609	2609	2609	2609	2777	2777	2754	2777	2799	2822	2845	2845	2845	2869	2845	2845	2845	2845	2845	2845	2845	2845	2845	2845	2845	0	4350	4350	4350	4350	4350	4350	4350	4350	4350	4350	4350	4350	4350	4350	4350	4296	4296	0	0	0	0	0	0	4142	4142	4192	4192	4142	4142	4142	4142	4142	4142	4142	4142	4142	4142	4142	4142	4142	4142	4192	4192	4192	4192	4296	4296	4296	4296	4296	4296	4296	4296	4296	4296	0	0	0	0	0	0	0	0	0	0	0	0	0	0	0	0	0	0	0	0	0	0	0	0	0	0	0	0	0	0	0	0	0	0	0	3583	3583	3583	3583	3583	3583	3546	3546	3510	3510	3510	3510	3510	3546	3510	3546	3546	3546	3546	3546	3510	3510	3475	3475	3475	3475	3475	3475	3510	3546	3546	3546	3510	3510	3510	3510	3510	3510	3475	3475	3475	3475	3475	3475	3475	3475	3475	3475	3475	3475	3475	3475	3475	3440	3475	3475	3475	3475	3475	3475	3475	3475	3440	3475	3475	3475	3475	3475	3475	4296	4350	4350	4406	4406	4463	4406	4463	4406	4406	4406	0	0	0	0	0	4296	4296	4296	4296	4296	4296	4296	4296	4296	4296	4296	4296	4296	4296	4296	4296	4296	4296	4296	4296	4296	4296	4296	4350	4350	4296	4296	4296	4296	4296	4296	4296	4296	4296	4350	4296	4296	4296	4243	4243	4243	4243	4243	4243	4192	4192	4192	4243	4243	4243	4296	4296	4296	4350	4296	4296	4296	4296	4296	4296	4296	4296	4296	4296	4296	4296	4296	4296	4296	4296	4296	4296	4296	4296	4243	4243	4192	4192	4192	4192	4192	4192	4192	4243	4243	4243	4142	4093	4093	4045	3998	3998	4045	4045	4045	4045	4045	4045	4045	4045	4045	4045	3998	3998	3998	4045	3475	3475	3475	3440	3406	3406	3406	3406	3406	3406	3406	3406	3406	3406	3373	3406	3373	3373	3373	3373	3406	3373	3406	3373	3373	3406	3406	3373	3373	3373	3373	3309	3309	3309	3309	3309	3277	3277	3277	3277	3277	3277	3246	3246	3246	3246	3246	3246	3246	3246	3246	3246	3246	3246	3277	3277	3277	3277	3246	3277	3277	3277	3246	3246	3246	3246	3246	3277	3246	3246	3246	3216	3216	3216	0	6124	6124	6124	6124	6124	6124	6124	6124	6124	6235	6235	6235	6235	6349	6349	6349	6349	6349	6349	6468	6468	6468	6468	6592	6592	6592	6592	6592	6592	6592	6592	6592	6720	6720	6853	6992	7137	7137	7137	6720	6720	6720	0	6853	6592	6468	6592	6592	6592	6592	0	0	0	0	0	0	0	0	0	0	0	0	0	0	0	0	0	0	0	0	0	0	0	0	0	0	0	0	0	0	0	0
0	0	0	0	0	0	0	0	0	0	0	0	0	0	0	0	0	0	0	0	1105	1105	1091	1091	1091	1091	1091	1091	1091	1091	1091	0	0	0	0	0	0	0	0	0	0	0	0	0	0	0	0	0	0	0	0	0	0	0	0	0	0	0	0	0	0	0	0	0	0	0	0	0	0	0	0	0	0	0	0	0	0	0	1272	1272	1277	1282	1287	1287	1296	1296	1301	1301	1306	1311	1311	1311	1316	1326	1336	1342	1342	1347	1352	1358	1363	1368	1368	1374	1390	1396	1402	1402	1419	1419	1419	1425	1425	1698	1698	1698	1690	1690	1690	1690	1690	1690	0	0	0	0	0	1560	1560	1560	1567	1567	1560	1560	1560	1546	1539	1539	1732	1732	1741	1741	1750	1750	1759	1768	1768	1777	1777	1786	1795	1804	1804	1814	1824	1824	1843	1853	1863	1873	1873	1883	1894	1894	1915	1925	1936	1947	1958	1969	1969	1980	1980	2629	2609	2609	2609	2609	2629	2754	2754	2754	2754	2777	2777	2799	2822	2845	2845	2869	2845	2845	2845	2845	2845	2845	2845	2845	2845	2822	2822	0	4350	4350	4350	4350	4350	4350	4350	4350	4350	4350	4350	4350	4350	4350	4350	4296	4296	0	0	0	0	0	0	4142	4142	4142	4142	4142	4142	4142	4093	4142	4142	4142	4142	4142	4142	4142	4142	4192	4192	4192	4243	4243	4192	4296	4296	4243	4243	4296	4296	4296	4296	4296	0	0	0	0	0	0	0	0	0	0	0	0	0	0	0	0	0	0	0	0	0	0	0	0	0	0	0	0	0	0	0	0	0	0	0	0	3621	3621	3621	3583	3583	3583	3583	3546	3510	3510	3510	3510	3510	3510	3510	3546	3546	3546	3546	3510	3510	3510	3475	3475	3440	3475	3440	3510	3510	3546	3546	3546	3546	3510	3510	3510	3510	3475	3475	3440	3475	3440	3475	3475	3475	3475	3475	3475	3475	3475	3475	3475	3475	3475	3475	3475	3475	3475	3475	3475	3440	3440	3440	3440	3440	3475	3475	3475	4296	4296	4296	4296	4350	4350	4406	4406	4406	4406	4406	0	0	0	0	0	4296	4296	4296	4296	4296	4296	4296	4296	4296	4296	4296	4296	4350	4350	4296	4296	4296	4296	4296	4296	4296	4296	4296	4296	4350	4350	4350	4350	4350	4350	4350	4350	4350	4350	4350	4350	4296	4296	4296	4243	4243	4243	4243	4243	4243	4192	4192	4192	4243	4243	4243	4296	4296	4350	4350	4350	4296	4296	4296	4296	4296	4296	4296	4296	4296	4296	4296	4296	4296	4296	4296	4243	4243	4296	4243	4243	4192	4142	4192	4142	4142	4142	4192	4192	4192	4243	4243	4142	4093	4093	4045	4045	3998	4045	4045	4045	4045	4045	4045	4045	4045	4045	3998	3998	3998	3998	4045	3475	3475	3440	3440	3406	3406	3406	3406	3406	3406	3406	3406	3406	3406	3373	3406	3406	3373	3373	3406	3406	3373	3406	3373	3373	3406	3406	3373	3373	3373	3373	3309	3309	3309	3309	3309	3277	3277	3277	3277	3277	3277	3246	3246	3246	3246	3246	3246	3246	3246	3246	3246	3246	3246	3277	3277	3277	3246	3246	3246	3246	3246	3246	3246	3246	3246	3246	3277	3246	3246	3246	3216	3186	3186	0	6124	6124	6124	6124	6018	6124	6124	6124	6124	6235	6235	6235	6235	6349	6468	6468	6468	6468	6349	6468	6468	6468	6468	6468	6592	6592	6592	6468	6592	6592	6592	6592	6720	6720	6720	6720	6992	6992	6992	6720	6720	6992	6992	6853	6720	6592	6592	6592	6592	6592	0	0	0	0	0	0	0	0	0	0	0	0	0	0	0	0	0	0	0	0	0	0	0	0	0	0	0	0	0	0	0	0
0	0	0	0	0	0	0	0	0	0	0	0	0	0	0	0	0	0	0	0	0	0	1105	1098	1091	1095	1091	1091	1088	1091	1091	0	0	0	0	0	0	0	0	0	0	0	0	0	0	0	0	0	0	0	0	0	0	0	0	0	0	0	0	0	0	0	0	0	0	0	0	0	0	0	0	0	0	0	0	0	0	0	1272	1282	1282	1287	1291	1291	1291	1301	1301	1306	1311	1316	1316	1316	1316	1331	1336	1342	1342	1347	1352	1352	1363	1368	1374	1374	1390	1390	1396	1402	1419	1425	1425	1431	1431	1698	1698	1698	1690	1698	1690	1690	1690	1690	0	0	0	0	1567	1567	1567	1567	1567	1567	1567	1567	1567	1546	1539	1539	1732	1732	1732	1732	1741	1750	1759	1768	1768	1777	1786	1795	1795	1804	1804	1814	1824	1833	1843	1853	1863	1873	1883	1883	1894	1894	1915	1915	1925	1947	1958	1958	1969	1980	1980	2629	2609	2609	2609	2609	2629	2690	2733	2754	2733	2754	2777	2799	2822	2822	2845	2845	2845	2845	2845	2845	2845	2845	2845	2845	2822	2822	2822	0	4350	4350	4350	4350	4350	4350	4350	4350	4350	4350	4350	4350	4350	0	0	0	0	0	0	0	4142	4142	4142	4142	4142	4142	4142	4142	4142	4093	4093	4093	4142	4142	4142	4142	4142	4192	4192	4192	4192	4192	4243	4243	4243	4296	4296	4296	4296	4296	4296	4296	4296	4296	0	0	0	0	0	0	0	0	0	0	0	0	0	0	0	0	0	0	0	0	0	0	0	0	0	0	0	0	0	0	0	0	0	0	0	0	3621	3621	3621	3583	3583	3583	3546	3546	3510	3510	3510	3510	3510	3510	3510	3546	3546	3546	3546	3510	3510	3510	3475	3475	3475	3475	3475	3510	3546	3546	3546	3546	3546	3510	3510	3510	3475	3475	3475	3440	3475	3440	3475	3475	3475	3475	3440	3475	3475	3475	3475	3510	3475	3475	3475	3475	3475	3475	3475	3475	3440	3440	3440	3475	3440	3475	3475	3475	4296	4296	4296	4296	4296	4350	4406	4350	4406	4406	4406	0	0	0	0	0	4296	4296	4296	4296	4296	4296	4296	4296	4296	4296	4296	4296	4350	4350	4296	4296	4296	4296	4296	4296	4296	4296	4296	4296	4350	4350	4350	4350	4350	4350	4350	4350	4350	4350	4350	4350	4350	4350	4296	4296	4296	4296	4243	4243	4243	4192	4192	4192	4243	4243	4243	4296	4296	4296	4350	4350	4296	4296	4296	4296	4296	4296	4296	4296	4296	4296	4296	4296	4296	4296	4243	4243	4296	4296	4243	4243	4243	4192	4192	4142	4142	4142	4192	4192	4142	4142	4142	4142	4093	4093	4045	4045	3998	4045	4045	4045	4045	4045	4045	4045	4045	4045	4045	4045	3998	3998	3475	3475	3475	3440	3440	3406	3406	3406	3406	3406	3406	3406	3406	3373	3406	3373	3406	3406	3373	3373	3406	3406	3373	3373	3373	3373	3373	3406	3373	3373	3406	3341	3309	3309	3309	3309	3309	3277	3277	3277	3277	3277	3277	3246	3246	3246	3246	3246	3246	3246	3246	3246	3277	3246	3246	3277	3277	3277	3246	3277	3246	3277	3246	3246	3246	3246	3277	3277	3277	3277	3246	3277	3246	3246	3246	0	6124	6235	6124	6124	6124	6124	6124	6235	6124	6235	6235	6235	6235	6235	6349	6349	6349	6349	6349	6349	6468	6468	6349	6468	6468	6592	6592	6592	6592	6592	6592	6592	6720	6720	6853	6853	6853	6853	6992	6853	6853	6992	6992	6992	6720	6720	6720	6720	6592	6592	0	0	0	0	0	0	0	0	0	0	0	0	0	0	0	0	0	0	0	0	0	0	0	0	0	0	0	0	0	0	0	0
0	0	0	0	0	0	0	0	0	0	0	0	0	0	0	0	0	0	0	0	0	0	1105	1098	1088	1088	1088	1088	1088	1088	1088	0	0	0	0	0	0	0	0	0	0	0	0	0	0	0	0	0	0	0	0	0	0	0	0	0	0	0	0	0	0	0	0	0	0	0	0	0	0	0	0	0	0	0	0	0	0	0	1272	1282	1282	1287	1291	1291	1291	1306	1306	1306	1316	1316	1321	1316	1326	1331	1331	1342	1347	1347	1352	1363	1363	1374	1374	1379	1390	1390	1396	1402	1431	1437	1431	1437	1437	1437	1698	1698	1690	1690	1690	1690	1690	1690	0	0	0	0	1567	1567	1567	1567	1567	1567	1567	1567	1723	1723	1723	1723	1723	1723	1732	1732	1750	1750	1759	1768	1777	1777	1786	1786	1795	1804	1804	1814	1833	1833	1843	1853	1863	1873	1873	1873	1873	1894	1904	1915	1925	1936	1958	1969	1980	1980	2003	2003	2609	2609	2609	2609	2629	2649	2711	2711	2711	2733	2754	2777	2799	2822	2845	2845	2845	2845	2869	2845	2845	2845	2845	2845	2822	2822	2822	0	4350	4350	4350	4350	4350	4350	4350	4350	4350	4350	4350	4350	4350	0	0	0	0	0	0	4142	4142	4142	4142	4142	4142	4142	4142	4142	4142	4093	4093	4093	4142	4142	4142	4142	4142	4192	4192	4192	4243	4243	4243	4243	4243	4296	4296	4192	4296	4243	4296	4296	4296	4296	0	0	0	0	0	0	0	0	0	0	0	0	0	0	0	0	0	0	0	0	0	0	0	0	0	0	0	0	0	0	0	0	0	0	0	0	0	3621	3621	3583	3583	3583	3546	3546	3510	3510	3510	3510	3510	3510	3546	3546	3546	3546	3546	3546	3510	3510	3510	3510	3475	3475	3475	3510	3546	3546	3546	3546	3546	3510	3510	3510	3475	3475	3475	3440	3440	3440	3440	3440	3440	3475	3475	3475	3475	3475	3510	3475	3475	3475	3475	3475	3475	3475	3440	3440	3440	3440	3440	3475	3475	3475	3475	3475	4296	4296	4296	4296	4350	4350	4350	4350	4406	4350	4350	0	0	0	0	0	4296	4296	4296	4296	4296	4296	4296	4296	4296	4296	4296	4296	4350	4350	4350	4350	4296	4296	4296	4296	4296	4296	4296	4296	4350	4350	4350	4350	4350	4350	4350	4296	4296	4296	4296	4350	4350	4350	4296	4296	4296	4243	4243	4243	4192	4192	4192	4243	4243	4243	4243	4296	4296	4296	4296	4296	4296	4296	4296	4296	4296	4243	4243	4296	4296	4296	4296	4243	4296	4296	4243	4243	4243	4243	4243	4192	4142	4142	4142	4093	4093	4093	4142	4192	4142	4142	4142	4142	4093	4093	4045	3998	3998	3998	4045	4045	4045	4045	4045	4045	4045	4045	4045	3998	3998	3998	3510	3510	3475	3440	3440	3440	3406	3406	3406	3406	3406	3406	3406	3406	3406	3406	3406	3406	3406	3406	3406	3406	3406	3406	3406	3406	3406	3406	3373	3373	3373	3373	3341	3309	3309	3309	3309	3309	3277	3277	3277	3277	3277	3246	3246	3246	3246	3246	3246	3246	3246	3277	3277	3246	3246	3277	3246	3277	3246	3246	3246	3246	3246	3246	3246	3246	3246	3277	3277	3277	3277	3277	3277	3277	3277	0	6018	6124	6124	6124	6018	6124	6124	6124	6124	6124	6124	6235	6124	6349	6349	6349	6349	6349	6349	6349	6349	6468	6468	6468	6468	6468	6468	6468	6468	6592	6592	6592	6592	6592	6592	6720	6720	6853	6720	6853	6853	6992	6992	6992	6720	6720	6720	6720	6720	6720	0	0	0	0	0	0	0	0	0	0	0	0	0	0	0	0	0	0	0	0	0	0	0	0	0	0	0	0	0	0	0	0
