0	0	0	0	0	0	0	1088	1088	1091	1091	1091	1095	1091	1095	1095	1095	1098	1098	1098	1098	1102	1105	1105	1109	1109	1109	1105	1105	1105	1105	1105	1105	1102	1105	1102	1098	1098	1098	1098	1098	1095	1095	1095	1091	1095	1095	1091	1091	1091	1091	1081	1081	1088	1088	1091	1091	1091	1091	0	1081	1078	1071	1068	1068	1068	0	0	0	0	0	0	0	0	0	0	0	0	0	0	0	0	0	0	0	0	0	0	0	5364	5364	5364	5448	5448	5448	5448	5448	5448	5364	5364	5448	5448	5364	5364	5364	5448	5448	5448	5448	5448	5535	5535	5448	5448	5448	5448	5448	5448	5448	5448	5448	5448	5448	5448	5364	5364	5364	5364	0	0	0	0	0	0	0	0	0	0	0	0	0	0	0	0	0	0	0	0	0	5626	5626	5448	5448	5535	5535	5535	5448	5448	0	0	0	0	0	0	0	0	0	0	0	0	0	0	0	5535	5626	5535	5535	0	0	0	0	0	0	0	5448	5448	5448	5364	5448	5448	5448	5364	5364	5364	5282	5282	5364	5364	5448	5448	5448	5364	5364	5364	5364	5282	5282	5282	5282	5282	5282	5282	5282	5282	5282	5364	5364	5364	5364	5364	5364	5364	5364	5364	5364	5282	5282	5282	5282	5282	5282	5282	5282	5282	5282	5282	5364	5364	5282	5282	5282	5282	5282	5282	5364	5282	5282	5364	5364	5364	5364	5364	5364	5364	5364	5364	5364	5364	5364	5364	5364	5364	5364	5364	5364	5364	5364	5364	5364	5364	5364	5364	5364	5364	5364	5364	5364	5364	5364	5282	5282	5282	5364	5282	5364	5282	5282	5282	5282	5282	5282	5282	5282	5282	5282	5282	5282	5282	5282	5282	5282	5364	5364	5364	5364	5364	5364	5282	5282	5364	5364	5364	5364	5448	5448	5448	5448	5448	5364	5282	5282	5364	5364	5364	5282	5364	5364	5448	5448	5448	5364	5448	5448	5448	5448	5448	5448	5448	5448	5448	5448	5448	5448	5448	5719	5719	5448	0	5448	5448	5448	5364	5364	5364	5282	5282	5202	5202	0	0	0	0	0	0	0	0	5448	5364	5364	5364	5364	5364	5364	5282	5282	5282	5282	5282	5364	5282	5364	5364	5364	5364	5364	5364	5448	5448	5448	5448	5448	5448	5448	5448	5448	5448	5364	5364	5448	5448	5448	5448	5448	5535	5535	5535	5448	5448	5448	5448	5448	5448	5364	5364	5364	5364	5282	5364	5282	5282	5364	5364	5364	5448	5448	5364	5448	5448	5448	5448	5448	5448	5448	5364	5364	5364	5364	5364	5448	5448	5448	5448	5448	5364	5364	5364	5282	5282	5282	5282	5282	5282	5282	5282	5282	5202	5364	5364	5535	5448	5448	5448	5448	5535	5535	5448	5448	5448	5535	5448	5448	5364	5448	5448	5535	5535	5535	5535	5535	5535	5535	5535	5535	5448	5448	5448	5364	5364	5282	5282	5282	0	0	0	0	0	0	0	0	0	5282	5282	5282	5202	5202	5202	5125	5125	5125	0	0	0	5626	5626	5535	5535	5535	0	0	0	0	0	0	0	0	0	0	0	0	0	0	0	0	0	0	0	0	0	0	0	0	0	0	0	0	5364	5364	5282	5364	5364	5364	5364	5364	5448	5448	5448	5448	5448	5448	5364	5364	5364	5282	5282	5282	5282	5282	5282	5282	5282	5282	5282	5282	5282	5282	0	0	0	0	2711	2669	2629	2629	2609	2609	2589	2589	2589	2570	2570	2551	2551	2551	2532	2532	2532	2514	2514	2532	2532	2532	2532	2514	0	0	0	0	0	0	0	0	0	0	0	0	0	0	0	0	0	0	0	0	0	0	0	0	0	0	0	0	0	0	0	0	0	0	0	0	0
0	0	0	0	0	0	0	0	1085	1088	1088	1091	1091	1091	1091	1091	1091	1095	1095	1098	1102	1102	1105	1105	1102	1105	1105	1105	1105	1105	1105	1105	1105	1105	1105	1102	1098	1095	1095	1095	1095	1095	1095	1091	1091	1091	1091	1091	1091	1091	1091	1081	1085	1081	1091	1091	1091	1091	0	0	0	0	0	0	0	0	0	0	0	0	0	0	0	0	0	0	0	0	0	0	0	0	0	0	0	0	0	0	5364	5364	5364	5448	5448	5448	5448	5448	5448	5448	5364	5364	5448	5364	5282	5282	5364	5448	5448	5448	5448	5448	5535	5535	5448	5448	5448	5448	5448	5448	5448	5448	5448	5448	5448	5448	5448	5448	5448	5448	0	0	0	0	0	0	0	0	0	0	0	0	0	0	0	0	0	0	0	0	0	0	0	5535	5448	5535	5535	5535	5448	5448	0	0	0	0	0	0	0	0	0	0	0	0	0	0	0	0	0	0	0	0	0	0	0	0	0	0	5448	5448	5448	5448	5448	5448	5535	5448	5448	5364	5364	5364	5364	5364	5448	5448	5448	5448	5364	5364	5364	5282	5282	5282	5282	5282	5282	5282	5282	5282	5364	5364	5364	5364	5364	5364	5364	5364	5364	5364	5364	5364	5364	5364	5364	5282	5282	5282	5282	5282	5364	5364	5364	5364	5364	5364	5364	5364	5364	5282	5364	5364	5282	5364	5364	5364	5364	5448	5448	5448	5364	5364	5364	5364	5364	5364	5364	5364	5364	5364	5364	5364	5364	5364	5364	5364	5364	5364	5364	5364	5364	5364	5364	5364	5364	5364	5282	5282	5364	5282	5364	5364	5364	5364	5364	5364	5364	5364	5282	5282	5282	5282	5282	5282	5282	5364	5364	5364	5364	5364	5364	5364	5364	5364	5282	5364	5282	5282	5448	5448	5448	5448	0	0	0	5282	5282	5364	5364	5364	5282	5364	5364	5448	5448	0	0	0	0	0	5448	5448	5448	5448	5448	5448	5448	5448	5535	5626	5719	5719	0	0	5448	5448	5364	5364	5364	5448	5448	5448	0	0	0	0	0	0	0	0	0	0	5448	5448	5364	5364	5364	5364	5364	5364	5282	5282	5282	5282	5364	5364	5364	5364	5448	5364	5364	5364	5448	5448	5448	5448	5448	5364	5448	5448	5448	5448	5448	5448	5448	5448	5448	5448	5448	5448	5535	5448	5448	5448	5448	5448	5448	5448	5448	5448	5364	5364	5364	5364	5364	5282	5364	5364	5364	5448	5448	5448	5448	5448	5448	5448	5448	5448	5448	5364	5364	5364	5448	5448	5448	5535	5535	5448	5448	5448	5364	5364	5448	5448	5282	5364	5282	5282	5282	5282	5282	5202	5282	5364	5364	5364	5448	5364	5448	5535	5535	5448	5535	5535	5535	5535	5535	5448	5535	5535	5535	5535	5535	5535	5535	5535	5535	5535	5535	5535	5535	5448	5448	5448	0	0	0	0	0	0	0	0	0	0	0	0	0	0	0	0	0	0	0	0	0	0	0	0	0	0	0	0	0	0	0	0	0	0	0	0	0	0	0	0	0	0	0	0	0	0	0	0	0	0	0	0	0	0	0	0	5364	5364	5364	5364	5364	5448	5364	5364	5448	5448	5448	5448	5448	5364	5448	5448	5364	5364	5364	5364	5364	5364	5282	5364	5282	5282	5282	5282	5282	0	0	0	0	0	0	2711	2649	2629	2609	2609	2609	2589	2589	2589	2570	2570	2551	2551	2551	2532	2532	2532	2514	2514	2532	2514	2514	2532	0	0	0	0	0	0	0	0	0	0	0	0	0	0	0	0	0	0	0	0	0	0	0	0	0	0	0	0	0	0	0	0	0	0	0	0	0	0
0	0	0	0	0	0	0	0	1085	1088	1088	1091	1091	1091	1091	1091	1091	1091	1095	1095	1102	1098	1102	1102	1102	1105	1102	1102	1105	1105	1105	1105	1105	1102	1105	1105	1102	1098	1095	1098	1098	1095	1095	1091	1091	1091	1091	1091	1091	0	0	1081	1085	1081	1091	1088	1088	1088	0	0	0	0	0	0	0	0	0	0	0	0	0	0	0	0	0	0	0	0	0	0	0	0	0	0	0	0	0	5364	5364	5364	5364	5364	5448	5448	5448	5448	5448	5448	5364	5364	5448	5364	5364	5282	5282	5364	5448	5364	5448	5448	5448	5448	5448	5448	5448	5448	5448	5448	5448	5448	5448	5448	5448	5448	5448	5448	5448	5448	0	0	0	0	0	0	0	0	0	0	0	0	0	0	0	0	0	0	0	0	0	0	0	5535	5535	5535	5535	5535	5535	5448	5448	0	0	0	0	0	0	0	0	0	0	0	0	0	0	0	0	0	0	0	0	0	0	0	0	0	5448	5448	5448	5364	5448	5448	5535	5448	5448	5364	5364	5364	5364	5448	5448	5448	5448	5448	5364	5364	5364	5282	5282	5282	5282	5364	5282	5364	5364	5364	5364	5448	5448	5448	5448	5448	5448	5364	5364	5364	5364	5364	5364	5364	5364	5364	5364	5364	5364	5364	5364	5364	5364	5364	5364	5364	5448	5448	5364	5364	5448	5364	5364	5364	5364	5448	5448	5448	5535	5448	5448	5364	5364	5364	5364	5364	5364	5364	5448	5364	5364	5364	5364	5364	5364	5364	5364	5364	5364	5364	5364	5364	5364	5364	5364	5364	5282	5282	5282	5282	5282	5364	5364	5364	5364	5364	5364	5364	5364	5282	5282	5282	5364	5364	5364	5364	5364	5364	5364	5364	5364	5364	5364	5364	5364	5364	5364	5364	5448	5448	5364	5364	0	0	0	0	0	0	0	0	0	0	0	0	0	0	0	0	0	0	0	5448	5448	5448	5535	5535	5448	5535	5535	5626	5719	5719	0	0	0	5448	5364	5364	5364	5448	5448	5448	0	0	0	0	0	0	0	0	0	0	5448	5448	5448	5364	5364	5364	5364	5364	5282	5282	5282	5282	5364	5364	5364	5448	5448	5364	5364	5364	5448	5448	5448	5448	5448	5448	5448	5448	5448	5448	5448	5448	5448	5448	5448	5448	5448	5448	5535	5535	5448	5448	5448	5448	5448	5448	5448	5448	5364	5448	5364	5448	5364	5364	5364	5364	5364	5448	5448	5448	5448	5448	5448	5448	5448	5448	5448	5364	5448	5448	5448	5448	5535	5535	5535	5448	5535	5448	5448	5364	5448	5448	5364	5364	5364	5364	5364	5364	5364	5364	5448	5364	5448	5448	5448	5448	5448	5535	5535	5535	5535	5535	5535	5535	5535	5535	5626	5535	5535	5535	5535	5626	5626	5535	5535	5535	5535	5535	5535	5535	5535	5535	0	0	0	0	0	0	0	0	0	0	0	0	0	0	0	0	0	0	0	0	0	0	0	0	0	0	0	0	0	0	0	0	0	0	0	0	0	0	0	0	0	0	0	0	0	0	0	0	0	0	0	0	0	0	0	0	5364	5448	5448	5364	5364	5448	5364	5364	5448	5448	5448	5448	5448	5364	5364	5448	5364	5364	5364	5364	5364	5364	5364	5364	5282	5282	5282	5282	5282	0	0	0	0	0	0	0	2629	2629	2609	2609	2609	2589	2589	2589	2570	2570	2551	2551	2551	2532	2532	2532	2514	2514	2532	2514	2514	2514	2514	0	0	0	0	0	0	0	0	0	0	0	0	0	0	0	0	0	0	0	0	0	0	0	0	0	0	0	0	0	0	0	0	0	0	0	0	0
0	837	837	837	0	0	0	0	0	0	1088	1091	1091	1091	1091	1091	1091	1091	1095	1095	1098	1095	1095	1095	1095	1102	1098	1102	1105	1105	1105	1105	1102	1105	1102	1102	1098	1098	1095	1095	1095	1095	1095	1091	1091	1088	1088	1091	0	0	0	0	0	0	1081	1078	1074	1074	0	0	0	0	0	0	0	0	0	0	0	0	0	0	0	0	0	0	0	0	0	0	0	0	0	0	0	0	5364	5364	5364	5448	5364	5448	5448	5448	5448	5448	5448	5364	5364	5364	5448	5448	5364	5364	5364	5448	5448	5448	5448	5448	5448	5448	5448	5448	5448	5448	5448	5448	5448	5448	5448	5535	5448	5448	5448	5448	5448	5448	5448	0	0	0	0	0	0	0	0	0	0	5448	5448	0	0	0	0	0	0	0	0	0	0	5535	5535	5535	5535	5535	5535	5448	5448	0	0	0	0	0	0	0	0	0	0	0	0	0	0	0	0	0	0	0	0	0	0	0	0	0	5448	5448	5448	5448	5448	5448	5535	5535	5535	5448	5448	5448	5448	5448	5448	5448	5448	5448	5364	5448	5364	5364	5364	5364	5282	5364	5364	5364	5364	5448	5448	5448	5448	5448	5448	5448	5448	5364	5364	5364	5448	5364	5448	5448	5448	5448	5448	5364	5448	5364	5364	5364	5364	5364	5448	5364	5364	5448	5448	5364	5448	5364	5448	5448	5448	5448	5448	5448	5535	5448	5448	5448	5364	5364	5448	5364	5364	5448	5448	5448	5364	5364	5364	5364	5364	5364	5364	5448	5448	5448	5448	5364	5364	5364	5364	5364	5364	5364	5364	5364	5364	5364	5364	5364	5364	5364	5364	5364	5364	5364	5364	5364	5364	5364	5364	5364	5364	5364	5364	5364	5364	5364	5364	5364	5364	5364	5364	5364	5448	5448	5364	5364	5364	0	0	0	0	0	0	0	0	0	0	0	0	0	0	0	0	0	0	5535	5535	5535	5535	5535	5448	5535	5535	0	0	0	0	0	0	0	0	0	0	0	0	0	0	0	0	0	0	0	0	0	0	0	5448	5448	5448	5448	5448	5364	5364	5364	5364	5282	5282	5282	5364	5364	5364	5448	5448	5448	5448	5364	5448	5448	5448	5448	5448	5448	5448	5448	5448	5448	5448	5448	5448	5535	5448	5448	5448	5448	5535	5535	5448	5535	5448	5448	5448	5448	5448	5448	5448	5448	5448	5448	5364	5364	5364	5448	5364	5448	5448	5448	5535	5448	5448	5448	5448	5448	5448	5448	5448	5448	5535	5535	5535	5535	5535	5448	5448	5448	5448	5448	5364	5364	5364	5364	5364	5364	5448	5448	5448	5448	5535	5535	5535	5448	5535	5448	5448	5535	5535	5535	5535	5535	5535	5535	5535	5535	5626	5626	5626	5535	5535	5626	5535	5535	5535	5535	5535	5535	5535	5535	5535	5535	0	0	0	0	0	0	0	0	0	0	0	0	0	0	0	0	0	0	0	0	0	0	0	0	0	0	0	0	0	0	0	0	0	0	0	0	0	0	0	0	0	0	0	0	0	0	0	0	0	0	0	0	0	0	0	0	5448	5448	5448	5364	5448	5448	5364	5364	5448	5448	5448	5448	5364	5364	5364	5364	5364	5364	5364	5364	5364	5364	5364	5364	5364	5364	5364	5364	5364	0	0	0	0	0	0	0	2649	2629	2629	2609	2609	2609	2589	2589	2589	2589	2570	2570	2551	2532	2532	2532	2514	2514	2532	2514	2532	2514	2514	0	0	0	0	0	0	0	0	0	0	0	0	0	0	0	0	0	0	0	0	0	0	0	0	0	0	0	0	0	0	0	0	0	0	0	0	0
0	839	837	837	837	837	837	0	0	0	1088	1091	1091	1091	1091	1091	1095	1095	1098	1098	1102	1098	1098	1095	1095	1102	1102	1102	1105	1105	1105	1102	1102	1098	1102	1102	1098	1098	1095	1098	1098	1095	1095	1091	1091	1091	1091	0	0	0	0	0	0	0	1081	1074	1071	1071	0	0	0	0	0	0	0	0	0	0	0	0	0	0	0	0	0	0	0	0	0	0	0	0	0	0	0	5448	5364	5364	5364	5364	5364	5364	5448	5448	5448	5364	5364	5364	5364	5364	5364	5448	5448	5448	5535	5535	5535	5535	5535	5535	5535	5535	5535	5448	5448	5535	5535	5535	5535	5535	5535	5535	5535	5535	5535	5535	5448	5448	5448	5448	0	0	0	0	0	0	0	5202	5202	5448	5448	0	0	0	0	0	0	0	0	0	0	0	5535	5626	5626	5626	5535	5535	5535	5535	0	0	0	0	0	0	0	0	0	0	0	0	0	0	0	0	0	0	0	0	0	0	0	0	0	0	5448	5448	0	0	5535	5535	5448	5448	5448	5448	5448	5448	5448	5448	5448	5364	5364	5448	5364	5364	5364	5364	5448	5448	5448	5448	5448	5535	5448	5535	5535	5448	5448	5448	5448	5364	5364	5448	5448	5448	5448	5448	5535	5448	5448	5448	5448	5448	5448	5448	5448	5448	5448	5448	5448	5448	5448	5448	5535	5448	5535	5448	5448	5448	5448	5448	5535	5448	5448	5448	5448	5448	5448	5364	5448	5448	5448	5448	5448	5364	5364	5364	5364	5448	5364	5448	5448	5448	5448	5448	5448	5364	5364	5364	5364	5364	5364	5364	5364	5364	5364	5448	5448	5364	5364	5364	5448	5364	5364	5364	5364	5364	5364	5364	5364	5364	5364	5364	5364	5364	5364	5364	5364	5364	5364	5364	5448	5448	5535	5626	5535	5535	0	0	0	0	0	0	0	0	0	0	0	0	0	0	0	0	5535	5448	5535	5448	5535	5535	5448	5448	5448	0	0	0	0	0	0	0	0	0	0	0	0	0	0	0	0	0	0	0	0	0	0	0	5448	5448	5448	5448	5448	5448	5364	5364	5364	5364	5364	5364	5364	5364	5448	5448	5448	5448	5448	5448	5448	5535	5535	5448	5448	5448	5448	5448	5448	5448	5448	5535	5535	5535	5448	5448	5448	5448	5535	5448	5448	5535	5448	5448	5448	5448	5448	5448	5448	5448	5448	5448	5448	5448	5448	5448	5448	5448	5448	5448	5535	5535	5448	5448	5448	5448	5448	5448	5448	5448	5448	5448	5535	5535	5535	5448	5535	5448	5448	5448	5448	5364	5364	5364	5448	5364	5448	5448	5448	5448	5535	5535	5535	5535	5535	5448	5535	5535	5535	5535	5626	5626	5626	5535	5535	5626	5626	5626	5626	5535	5626	5626	5626	5535	5535	5535	5535	5535	5535	5535	5535	5535	0	0	0	0	0	0	0	0	0	0	0	0	0	0	0	0	0	0	0	0	0	0	0	0	0	0	0	0	0	0	0	0	0	0	0	0	0	0	0	0	0	0	0	0	0	0	0	0	0	0	0	0	0	0	0	5626	5535	5535	5535	5448	5535	5535	5448	5448	5535	5535	5448	5448	5364	5364	5364	5364	5364	5364	5364	5364	5364	5448	5448	5364	5364	5364	5364	5364	5364	0	0	0	0	0	0	0	2669	2629	2629	2609	2609	2609	2589	2589	2589	2570	2570	2570	2570	2551	2532	2532	2532	2532	2532	2532	2532	2532	2532	0	0	0	0	0	0	0	0	0	0	0	0	0	0	0	0	0	0	0	0	0	0	0	0	0	0	0	0	0	0	0	0	0	0	0	0	0
0	839	837	837	837	837	837	0	0	0	0	1091	1091	1091	1095	1095	1095	1095	1098	1102	1102	1102	1098	1095	1095	1102	1102	1102	1105	1105	1105	1102	1105	1098	1098	1109	1098	1098	1095	1095	1098	1095	1095	1091	1095	1091	1088	1088	0	0	0	0	0	0	1078	1078	1078	1071	0	0	0	0	0	0	0	0	0	0	0	0	0	0	0	0	0	0	0	0	0	0	0	0	0	0	0	5448	5448	5448	5448	5448	5448	5364	5448	5364	5448	5364	5364	5364	5364	5364	5364	5448	5448	5535	5535	5535	5535	5535	5535	5535	5535	5535	5535	5535	5535	5535	5535	5535	5535	5535	5535	5535	5535	5535	5535	5535	5448	5448	5448	5448	0	0	0	0	0	0	5202	5202	5202	5282	5202	5202	0	0	0	0	0	0	0	0	0	0	5535	5626	5626	5626	5535	5535	5535	5535	0	0	0	0	0	0	0	0	0	0	0	0	0	0	0	0	0	0	0	0	0	0	0	0	0	0	0	0	0	0	5626	5535	5535	5448	5448	5535	5448	5448	5448	5448	5448	5364	5448	5448	5448	5448	5448	5448	5448	5535	5448	5535	5535	5535	5448	5535	5535	5535	5535	5448	5448	5448	5448	5535	5535	5448	5535	5535	5535	5535	5535	5448	5448	5448	5448	5448	5448	5448	5448	5448	5448	5448	5448	5448	5535	5535	5535	5535	5535	5535	5535	5535	5535	5535	5448	5448	5448	5448	5535	5448	5448	5535	5535	5448	5448	5448	5364	5448	5448	5448	5448	5535	5448	5448	5448	5448	5448	5448	5364	5364	5364	5364	5448	5364	5364	5364	5448	5448	5448	5448	5448	5364	5448	5364	5364	5364	5364	5364	5364	5364	5364	5364	5364	5364	5364	5364	5364	5364	5364	5364	5364	5364	5448	5448	5448	5535	5535	5535	5626	5719	5626	5626	0	0	0	0	0	0	0	0	0	0	0	0	5535	5535	5535	5448	5448	5535	5448	5535	5719	5719	0	0	0	0	0	0	0	0	0	0	5535	5535	0	0	0	0	0	0	0	0	0	0	0	5448	5448	5448	5448	5448	5448	5448	5448	5448	5364	5364	5364	5364	5448	5448	5448	5448	5448	5448	5535	5535	5535	5535	5535	5448	5448	5448	5448	5448	5535	5535	5535	5535	5535	5535	5448	5535	5535	5448	5535	5535	5535	5535	5448	5535	5448	5448	5448	5448	5448	5448	5448	5448	5448	5448	5448	5448	5448	5448	5448	5448	5448	5448	5448	5448	5448	5448	5535	5535	5535	5535	5535	5535	5535	5535	5535	5535	5535	5448	5448	5448	5448	5448	5448	5448	5448	5448	5448	5448	5535	5535	5535	5535	5535	5535	5535	5535	5626	5626	5626	5626	5626	5626	5626	5626	5626	5626	5626	5626	5626	5626	5626	5626	5535	5535	5535	5535	5535	5535	0	0	0	0	0	0	0	0	0	0	0	0	0	0	0	0	0	0	0	0	0	0	0	0	0	0	0	0	0	0	0	0	0	0	0	0	0	0	0	0	0	0	0	0	0	0	0	0	0	0	0	0	0	0	0	0	5448	5535	5535	5535	5535	5535	5535	5535	5535	5448	5535	5535	5448	5448	5364	5364	5364	5364	5364	5448	5364	5364	5448	5448	5448	5448	5448	5364	5364	5364	0	0	0	0	0	0	0	0	2669	2629	2629	2609	2609	2589	2589	2589	2589	2570	2570	2570	2570	2551	2532	2532	2532	2514	2532	2514	2514	2478	2478	0	0	0	0	0	0	0	0	0	0	0	0	0	0	0	0	0	0	0	0	0	0	0	0	0	0	0	0	0	0	0	0	0	0	0	0	0
0	841	835	837	837	837	837	0	0	0	0	1091	1091	1091	1095	1095	1095	1095	1098	1098	1098	1098	1098	1095	1095	1098	1098	1098	1098	1095	1105	1098	1105	1098	1098	1095	1095	1095	1095	1095	1098	1098	1091	1091	1091	1088	1088	1088	0	0	0	0	0	0	1081	1078	1074	1074	0	0	0	0	0	0	0	0	0	0	0	0	0	0	0	0	0	1109	1105	1105	0	0	0	0	0	0	0	5448	5448	5448	5448	5448	5448	5448	5448	5448	5448	5364	5364	5364	5364	5364	5364	5448	5535	5535	5535	5535	5535	5535	5535	5535	5535	5535	5535	5535	5535	5535	5535	5535	5535	5535	5535	5535	5535	5535	5535	5535	5448	5535	5448	5448	5448	5448	0	0	0	5202	5202	5202	5202	5202	5202	5202	0	0	0	0	0	0	0	0	0	0	0	0	5626	5626	5535	5535	5535	5535	0	0	0	0	0	0	0	0	0	0	0	0	0	0	0	0	0	0	0	0	0	0	0	0	0	0	0	0	0	0	5626	5626	5626	5535	5535	5535	5535	5448	5448	5448	5448	5448	5364	5448	5448	5448	5448	5448	5535	5535	5535	5535	5535	5535	5535	5535	5535	5535	5535	5535	5535	5448	5535	5448	5535	5535	5448	5535	5535	5448	5448	5448	5448	5448	5448	5448	5448	5448	5448	5448	5448	5535	5535	5448	5626	5626	5626	5626	5626	5626	5535	5535	5626	5535	5535	5535	5535	5535	5535	5448	5535	5535	5535	5535	5535	5448	5448	5448	5448	5448	5448	5448	5448	5448	5448	5448	5448	5448	5448	5448	5448	5364	5448	5364	5364	5364	5448	5448	5448	5448	5448	5448	5448	5448	5364	5364	5364	5364	5364	5364	5364	5448	5448	5448	5364	5364	5364	5364	5448	5448	5364	5364	5448	5535	5535	5535	5535	5535	5626	5719	5719	5626	0	0	0	0	0	0	0	0	0	0	0	0	5448	5448	5535	5448	5535	5535	5448	5448	5448	5719	0	0	0	0	0	0	0	0	5448	5535	5535	5535	0	0	0	0	0	0	0	0	0	0	0	5448	5448	5448	5448	5448	5448	5448	5448	5448	5364	5364	5364	5448	5448	5448	5448	5448	5448	5448	5535	5535	5535	5535	5535	5448	5448	5448	5448	5535	5535	5535	5535	5535	5535	5535	5535	5535	5535	5535	5535	5535	5535	5535	5535	5535	5535	5535	5535	5535	5448	5448	5448	5448	5448	5448	5364	5364	5448	5448	5448	5448	5448	5448	5448	5448	5448	5535	5535	5535	5535	5535	5535	5535	5535	5535	5535	5535	5535	5535	5535	5535	5448	5448	5448	5448	5535	5535	5535	5535	5535	5535	5535	5535	5535	5535	5626	5626	5626	5626	5626	5626	5626	5626	5626	5626	5626	5626	5626	5626	5626	5626	5626	5626	5535	5535	5535	5535	5535	0	0	0	0	0	0	0	0	0	0	0	0	0	0	0	0	0	0	0	0	0	0	0	0	0	0	0	0	0	0	0	0	0	0	0	0	0	0	0	0	0	0	0	0	0	0	0	0	0	0	0	0	0	0	0	0	0	5448	5535	5535	5535	5535	5535	5626	5626	5535	5535	5535	5535	5535	5448	5364	5364	5364	5364	5448	5535	5448	5448	5448	5535	5535	5448	5448	5448	5448	5448	0	0	0	0	0	0	0	0	2649	2629	2629	2609	2609	2589	2589	2589	2589	2589	2570	2570	2551	2532	2532	2532	2514	2514	2532	2514	2496	2496	2496	0	0	0	0	0	0	0	0	0	0	0	0	0	0	0	0	0	0	0	0	0	0	0	0	0	0	0	0	0	0	0	0	0	0	0	0	0
0	841	839	841	839	845	845	848	0	0	0	0	852	852	1095	1095	1095	1095	1098	1098	1098	1098	1098	1095	1095	1095	1098	1095	1095	1095	1095	1095	1095	1095	1095	1095	1095	1095	1095	1098	1098	1095	1095	1095	1095	1095	1088	0	0	0	0	0	0	0	1088	1085	1085	1074	0	0	0	0	0	0	0	0	0	0	0	0	0	0	0	1113	1113	1109	1109	1109	0	0	0	0	0	0	0	0	5448	5448	5448	5535	5448	5448	5448	5448	5448	5364	5364	5364	5364	5364	5364	5448	5535	5535	5535	5535	5535	5535	5535	5535	5535	5535	5535	5535	5535	5535	5535	5535	5535	5535	5535	5535	5535	5535	5535	5535	5535	5535	5448	5535	5364	5364	5364	5448	5282	5202	5125	5125	5202	5202	5125	5125	0	0	0	0	0	0	0	0	0	0	0	0	0	0	0	0	0	0	0	0	0	0	0	0	0	0	0	0	0	0	0	0	0	0	0	0	0	0	0	0	0	0	0	0	0	0	0	0	0	5626	5626	5626	5626	5626	5535	5535	5535	5448	5535	5448	5448	5448	5448	5448	5448	5535	5535	5535	5535	5535	5535	5535	5535	5535	5535	5535	5535	5535	5535	5448	5535	5448	5535	5535	5535	5535	5535	5535	5535	5448	5448	5448	5448	5448	5448	5448	5535	5448	5535	5535	5535	5448	5626	5626	5626	5626	5535	5626	5535	5626	5626	5626	5535	5535	5535	5535	5535	5535	5535	5626	5626	5535	5535	5535	5448	5448	5448	5535	5448	5535	5535	5448	5448	5448	5448	5448	5448	5448	5448	5364	5448	5448	5364	5364	5448	5448	5448	5448	5448	5448	5448	5448	5364	5364	5364	5448	5448	5448	5448	5448	5448	5448	5364	5364	5364	5364	5364	5448	5719	5719	5719	5719	5626	5626	5719	5719	5719	5815	5815	5815	0	0	0	0	0	0	0	0	0	0	0	0	5448	5448	5535	5535	5535	5535	5535	5535	5535	5535	0	0	0	0	0	0	5535	5448	5448	5535	5535	5535	5626	5626	0	0	0	0	0	0	0	5448	5364	5448	5448	5448	5448	5448	5448	5448	5448	5448	5448	5448	5448	5448	5535	5535	5535	5535	5535	5535	5626	5626	5535	5535	5535	5535	5535	5448	5535	5535	5535	5535	5535	5535	5535	5535	5535	5535	5535	5535	5535	5535	5535	5535	5535	5535	5535	5535	5535	5535	5535	5535	5448	5448	5448	5448	5448	5448	5448	5448	5448	5448	5448	5448	5448	5535	5535	5535	5535	5535	5535	5535	5535	5535	5535	5535	5626	5626	5535	5535	5535	5535	5535	5448	5448	5448	5535	5535	5535	5535	5535	5626	5626	5626	5626	5626	5626	5626	5626	5626	5626	5626	5626	5626	5626	5626	5626	5626	5626	5626	5626	5626	5626	5626	5535	5535	5535	5535	5535	0	0	0	0	0	0	0	0	0	0	0	0	0	0	0	0	0	0	0	0	0	0	0	0	0	0	0	0	0	0	0	0	0	0	0	0	0	0	0	0	0	0	0	0	0	0	0	0	0	0	0	0	0	0	0	0	0	5535	5626	5535	5535	5535	5626	5626	5626	5535	5535	5535	5535	5448	5448	5448	5364	5364	5364	5535	5535	5448	5448	5535	5535	5535	5535	5535	5535	5535	5535	0	0	0	0	0	0	0	0	2649	2629	2629	2609	2609	2589	2589	2589	2589	2570	2570	2570	2551	2551	2532	2532	2514	2514	2532	2514	2496	2496	2496	0	0	0	0	0	0	0	0	0	0	0	0	0	0	0	0	0	0	0	0	0	0	0	0	0	0	0	0	0	0	0	0	0	0	0	0	0
0	843	843	845	845	848	848	848	848	848	848	848	852	852	0	0	0	1095	1098	1098	1098	1095	1098	1095	1095	1098	1098	1098	1098	1095	1095	1095	1095	1095	1095	1095	1095	1095	1095	1102	1102	1105	1098	1109	1113	1109	1105	1105	0	0	0	0	0	0	1088	1088	1085	1085	0	0	0	0	0	0	0	0	0	0	0	0	0	0	0	1109	1109	1109	1109	1109	0	0	0	0	0	0	0	0	5535	5535	5535	5535	5448	5448	5448	5448	5448	5364	5364	5364	5448	5364	5364	5535	5535	5535	5535	5535	5535	5535	5535	5535	5535	5535	5535	5535	5535	5535	5535	5535	5535	5535	5535	5535	5535	5535	5535	5535	5535	5535	5535	5535	5448	5448	5448	5448	5448	5282	5202	5202	5202	5202	5202	5125	0	0	0	0	0	0	0	0	0	0	0	0	0	0	0	0	0	0	0	0	0	0	0	0	0	0	0	0	0	0	0	0	0	0	0	0	0	0	0	0	0	0	0	0	0	0	0	0	0	5719	5626	5626	5626	5626	5626	5535	5535	5535	5535	5535	5535	5535	5535	5535	5535	5535	5535	5535	5535	5535	5535	5535	5535	5535	5535	5535	5535	5535	5535	5535	5535	5535	5535	5535	5535	5535	5535	5535	5448	5448	5448	5364	5448	5448	5448	5535	5535	5535	5535	5535	5535	5535	5626	5626	5626	5626	5626	5626	5535	5626	5626	5626	5535	5535	5535	5535	5535	5535	5535	5535	5626	5535	5535	5535	5535	5448	5535	5535	5448	5448	5448	5535	5535	5535	5448	5448	5535	5448	5448	5448	5535	5448	5448	5448	5448	5535	5535	5448	5448	5448	5448	5364	5364	5364	5364	5448	5448	5448	5448	5448	5448	5448	5448	5364	5364	5364	5448	5448	5719	5719	5719	5719	5626	5626	5719	5719	5815	5915	6124	6124	6124	0	0	0	0	0	0	0	0	0	0	0	0	5448	5535	5535	5535	5535	5535	5535	5535	5535	0	0	0	0	0	0	5535	5535	5535	5535	5535	5626	5626	5719	5719	0	0	0	0	0	0	5448	5448	5448	5448	5448	5448	5448	5448	5448	5448	5448	5535	5535	5535	5535	5535	5535	5535	5535	5535	5535	5626	5626	5626	5535	5535	5535	5535	5448	5535	5535	5535	5535	5535	5535	5535	5535	5535	5535	5535	5535	5535	5535	5535	5535	5535	5535	5535	5535	5535	5535	5535	5535	5535	5535	5535	5535	5448	5448	5448	5448	5448	5448	5448	5448	5535	5535	5535	5535	5535	5535	5535	5535	5535	5535	5535	5535	5535	5535	5535	5535	5535	5535	5535	5448	5535	5535	5535	5535	5535	5535	5535	5626	5626	5626	5535	5626	5626	5626	5626	5626	5626	5626	5626	5626	5626	5626	5626	5626	5626	5626	5626	5626	5626	5626	5535	5535	5535	5535	0	0	0	0	0	0	0	0	0	0	0	0	0	0	0	0	0	0	0	0	0	0	0	0	0	0	0	0	0	0	0	0	0	0	0	0	0	0	0	0	0	0	0	0	0	0	0	0	0	0	0	0	0	0	0	0	0	5535	5626	5626	5626	5626	5626	5626	5626	5626	5626	5535	5535	5535	5448	5448	5535	5448	5448	5448	5535	5626	5535	5535	5626	5626	5626	5535	5535	5535	5535	5535	0	0	0	0	0	0	0	0	0	2629	2609	2609	2609	2589	2589	2589	2589	2589	2570	2570	2570	2551	2532	2532	2514	2496	2514	2514	2478	2478	2478	0	0	0	0	0	0	0	0	0	0	0	0	0	0	0	0	0	0	0	0	0	0	0	0	0	0	0	0	0	0	0	0	0	0	0	0	0
0	843	845	845	848	848	850	848	848	848	852	852	0	0	0	0	0	0	1098	1098	1095	1095	1095	1095	1095	1095	1098	1098	1098	1095	1095	1095	1095	1095	1091	1091	1091	1091	1095	1098	1098	1105	1109	1113	1113	1109	1109	1109	0	0	0	0	0	0	1091	1088	1081	1081	0	0	0	0	1074	1074	1078	1074	1074	0	0	0	0	0	1109	1109	1109	1109	1109	1109	0	0	0	0	0	0	0	0	5626	5626	5626	5719	5626	5626	5535	5448	5448	5448	5448	5448	5448	5448	5364	5535	5535	5626	5626	5535	5535	5535	5626	5626	5626	5626	5626	5626	5626	5626	5626	5626	5535	5535	5535	5535	5535	5626	5535	5535	5535	5535	5535	5535	5448	5448	5448	5448	5448	5448	5448	5202	5202	5202	5202	0	0	0	0	0	0	0	0	0	0	0	0	0	0	0	0	0	0	0	0	0	0	0	0	0	0	0	0	0	0	0	0	0	0	0	0	0	0	0	0	0	0	0	0	0	0	0	0	0	0	5719	5626	5626	5719	5719	5626	5626	5626	5626	5626	5535	5535	5535	5535	5535	5535	5535	5535	5626	5626	5626	5626	5626	5535	5535	5535	5535	5535	5626	5535	5535	5626	5535	5535	5535	5535	5535	5535	5535	5535	5448	5448	5448	5448	5448	5448	5535	5535	5535	5535	5535	5535	5535	5626	5626	5626	5626	5626	5626	5626	5626	5626	5626	5535	5535	5535	5535	5626	5535	5535	5535	5626	5626	5626	5535	5535	5535	5535	5535	5626	5626	5626	5535	5535	5535	5535	5535	5535	5535	5535	5535	5535	5535	5448	5448	5448	5448	5535	5448	5448	5448	5448	5448	5448	5364	5448	5448	5448	5448	5448	5448	5448	5448	5448	5448	5448	5448	5448	5448	0	0	5719	5719	5626	5719	5719	5719	5719	5815	5915	6018	6018	6018	6018	0	0	0	0	0	0	0	0	0	0	5448	5535	5535	5535	5535	5535	5535	5535	5719	5815	5815	5815	0	0	0	5535	5448	5535	5535	5535	5626	5626	5719	5719	0	0	0	0	0	0	5448	5448	5448	5535	5448	5448	5448	5448	5535	5535	5535	5535	5626	5626	5535	5535	5535	5535	5535	5535	5535	5626	5626	5626	5535	5535	5535	5535	5535	5535	5535	5535	5535	5535	5535	5535	5535	5535	5535	5535	5535	5535	5535	5535	5535	5535	5535	5535	5535	5535	5535	5535	5535	5535	5535	5535	5535	5535	5448	5448	5448	5448	5448	5448	5448	5535	5535	5535	5535	5535	5535	5535	5535	5535	5535	5535	5535	5535	5535	5535	5535	5535	5535	5535	5535	5535	5535	5535	5626	5626	5626	5626	5626	5626	5626	5626	5626	5626	5626	5626	5626	5626	5626	5626	5626	5626	5626	5626	5626	5626	5719	5626	5626	5626	5626	5626	5626	5626	0	0	0	0	0	0	0	0	0	0	0	0	0	0	0	0	0	0	0	0	0	0	0	0	0	0	0	0	0	0	0	0	0	0	0	0	0	0	0	0	0	0	0	0	0	0	0	0	0	0	0	0	0	0	0	0	5626	5626	5626	5626	5626	5626	5626	5719	5719	5719	5719	5719	5626	5626	5626	5535	5535	5535	5535	5535	5535	5535	5626	5626	5626	5626	5626	5626	5626	5535	5535	5535	5535	5535	0	0	0	0	0	0	0	0	2609	2609	2609	2609	2589	2589	2589	2589	2589	2570	2570	2570	2551	2532	2514	2514	2496	2514	2514	2460	2460	2460	0	0	0	0	0	0	0	0	0	0	0	0	0	0	0	0	0	0	0	0	0	0	0	0	0	0	0	0	0	0	0	0	0	0	0	0	0
0	0	845	848	848	850	850	850	850	854	854	860	860	0	878	878	0	0	1098	1098	1098	1095	1098	1095	1095	1095	1098	1098	1098	1095	1095	1095	1095	1095	1091	1091	1091	1091	1095	1098	1098	1105	1109	1113	1113	1113	1109	1109	1109	0	0	0	0	0	1091	1091	1091	1085	1085	0	0	1081	1081	1081	1091	1085	1085	0	0	0	1105	1105	1109	1113	1113	1109	1109	1109	0	0	0	0	0	0	0	0	5719	5626	5626	5719	5626	5626	5626	5535	5535	5448	5448	5448	5448	5448	5448	5626	5626	5626	5626	5626	5626	5626	5626	5626	5626	5626	5626	5626	5626	5626	5626	5626	5626	5626	5626	5626	5626	5626	5535	5535	5535	5535	5535	5535	5448	5448	5448	5448	5364	5364	5364	0	0	0	0	0	0	0	0	0	0	0	0	0	0	0	0	0	0	0	0	0	0	0	0	0	0	0	0	0	0	0	0	0	0	0	0	0	0	0	0	0	0	0	0	0	0	0	0	0	0	0	0	0	5815	5719	5719	5719	5719	5719	5626	5626	5626	5626	5626	5626	5626	5535	5535	5535	5626	5535	5535	5626	5626	5626	5626	5626	5535	5626	5626	5626	5626	5626	5626	5719	5626	5626	5535	5535	5535	5535	5535	5535	5535	5535	5448	5448	5448	5448	5448	5535	5535	5535	5535	5535	5535	5535	5626	5626	5626	5626	5626	5626	5626	5626	5626	5626	5626	5535	5535	5535	5626	5535	5535	5535	5535	5626	5535	5626	5626	5626	5626	5626	5626	5626	5626	5535	5535	5535	5535	5535	5535	5535	5535	5535	5535	5535	5535	5535	5448	5535	5535	5535	5448	5448	5448	5448	5448	5448	5448	5448	5448	5448	5448	5448	5535	5535	5448	5448	5448	5448	5448	0	0	0	5719	5719	5626	5719	5626	5719	5719	5815	5915	5915	6018	6018	6018	0	0	0	0	0	0	0	0	0	0	5448	5535	5535	5535	5535	5535	5719	5626	5815	5815	5815	5815	0	0	0	0	5535	5535	5535	5626	5626	5626	5626	5719	0	0	0	0	0	0	5448	5448	5448	5535	5535	5448	5535	5535	5535	5535	5535	5535	5626	5626	5535	5626	5535	5535	5535	5535	5535	5626	5626	5626	5626	5535	5535	5535	5535	5535	5535	5535	5535	5535	5535	5535	5535	5535	5535	5535	5535	5626	5626	5535	5535	5535	5535	5535	5535	5535	5535	5535	5535	5535	5535	5535	5535	5535	5448	5448	5448	5448	5448	5535	5535	5535	5535	5535	5535	5535	5535	5535	5535	5535	5535	5535	5535	5535	5535	5535	5535	5535	5535	5535	5535	5535	5535	5535	5626	5626	5626	5535	5626	5626	5626	5626	5626	5626	5626	5626	5626	5626	5626	5626	5626	5626	5626	5626	5626	5626	5626	5626	5626	5626	5626	5626	5626	5626	0	0	0	0	0	0	0	0	0	0	0	0	0	0	0	0	0	0	0	0	0	0	0	0	0	0	0	0	0	0	0	0	0	0	0	0	0	0	0	0	0	0	0	0	0	0	0	0	0	0	0	0	0	0	0	0	5626	5626	5626	5626	5626	5626	5626	5719	5719	5719	5719	5719	5626	5626	5626	5626	5535	5535	5535	5535	5535	5626	5719	5719	5719	5719	5626	5626	5626	5626	5535	5535	5535	5535	0	0	0	0	0	0	0	2609	2609	2609	2609	2609	2589	2589	2589	2589	2589	2570	2551	2551	2551	2514	2514	2514	2496	2514	2496	2496	2478	2478	0	0	0	0	0	0	0	0	0	0	0	0	0	0	0	0	0	0	0	0	0	0	0	0	0	0	0	0	0	0	0	0	0	0	0	0	0
0	0	845	848	845	848	852	852	852	852	858	860	860	0	878	878	878	878	0	0	1098	1095	1098	1095	1095	1095	1098	1098	1098	1098	1095	1095	1095	1095	1095	1091	1091	1091	1095	1098	1098	1102	1105	1109	1109	1109	1105	1105	1105	0	1095	1091	1088	1088	1091	1091	1088	1085	1088	1091	1088	1085	1088	1091	1091	1085	1088	1088	0	1102	1102	1102	1102	1109	1109	1109	1105	1105	0	0	0	0	0	0	0	0	5719	5719	5719	5719	5626	5719	5626	5535	5535	5535	5535	5535	5535	5535	5535	5626	5626	5719	5719	5626	5626	5626	5626	5626	5626	5626	5626	5626	5626	5626	5719	5719	5626	5626	5626	5626	5626	5626	5535	5535	5535	5535	5535	5535	5448	5448	5448	5448	5448	5535	5535	0	0	0	0	0	0	0	0	0	0	0	0	0	0	0	0	0	0	0	0	0	0	0	0	0	0	0	0	0	0	0	0	0	0	0	0	0	0	0	0	0	0	0	0	0	0	0	0	0	0	0	0	0	5815	5719	5626	5626	5719	5719	5719	5719	5719	5719	5815	5815	5719	5626	5626	5626	5626	5626	5535	5626	5626	5626	5626	5626	5626	5626	5626	5626	5626	5626	5626	5719	5719	5626	5626	5535	5535	5535	5535	5535	5535	5535	5535	5448	5535	5535	5535	5535	5535	5535	5535	5535	5535	5535	5626	5626	5626	5626	5626	5626	5626	5626	5626	5626	5626	5626	5535	5535	5626	5626	5535	5535	5626	5626	5626	5626	5626	5626	5626	5626	5626	5626	5626	5535	5535	5535	5535	5535	5535	5535	5535	5535	5535	5535	5448	5448	5448	5535	5535	5535	5448	5535	5535	5535	5535	5448	5535	5535	5535	5535	5535	5535	5535	5535	5448	5448	5448	5448	5448	0	0	0	5719	5719	5626	5719	5719	5719	5719	5815	5815	5915	0	0	0	0	0	0	0	0	0	0	0	0	0	5448	5626	5626	5535	5626	5535	5719	5626	5815	5815	5815	5815	5815	0	0	0	5448	5535	5535	5535	5626	5626	5626	0	0	0	0	0	0	0	5448	5448	5535	5535	5535	5535	5535	5535	5626	5626	5626	5626	5626	5626	5626	5626	5626	5626	5626	5626	5626	5719	5626	5626	5626	5626	5535	5535	5535	5535	5535	5535	5535	5535	5535	5535	5626	5626	5626	5535	5535	5626	5626	5626	5626	5535	5535	5626	5535	5535	5535	5535	5535	5535	5535	5535	5535	5448	5448	5448	5448	5448	5448	5535	5535	5535	5535	5626	5626	5626	5626	5535	5626	5626	5626	5535	5626	5626	5626	5626	5535	5535	5626	5626	5535	5626	5626	5626	5626	5626	5626	5626	5719	5626	5626	5626	5626	5626	5626	5626	5626	5626	5626	5626	5626	5626	5626	5626	5626	5626	5626	5626	5626	5626	5626	5626	5626	5626	0	0	0	0	0	0	0	0	0	0	0	0	0	0	0	0	0	0	0	0	0	0	0	0	0	0	0	0	0	0	0	0	0	0	0	0	0	0	0	0	0	0	0	0	0	0	0	0	0	0	0	0	0	0	0	5626	5626	5626	5626	5719	5719	5719	5719	5719	5719	5719	5719	5719	5719	5719	5626	5626	5626	5535	5535	5535	5535	5626	5719	5719	5719	5719	5626	5626	5626	5626	5626	5626	5535	5535	5535	0	0	0	0	0	0	2609	2609	2609	2609	2609	2609	2609	2589	2589	2589	2570	2570	2551	2551	2532	2514	2514	2496	2496	2496	2478	2478	2478	0	0	0	0	0	0	0	0	0	0	0	0	0	0	0	0	0	0	0	0	0	0	0	0	0	0	0	0	0	0	0	0	0	0	0	0	0
0	0	0	850	848	850	852	852	854	854	858	858	858	875	878	878	878	878	0	0	1095	1095	1095	1095	1095	1095	1098	1098	1098	1098	1095	1095	1095	1095	1095	1091	1091	1091	1091	1095	1095	1105	1105	1105	1105	1105	1102	1102	1102	1095	1091	1091	1088	1088	1091	1088	1088	1085	1088	1088	1095	1095	1095	1098	1095	1091	1095	1095	1102	1098	1098	1098	1098	1105	1105	1105	1102	1102	0	0	0	0	0	0	0	0	0	5719	5626	5626	5626	5626	5626	5626	5626	5535	5626	5626	5626	5626	5626	5719	5719	5719	5719	5719	5626	5626	5626	5626	5719	5719	5719	5719	5719	5719	5719	5719	5719	5719	5719	5626	5626	5626	5626	5626	5626	5626	5535	5535	5535	5448	5448	5535	5448	5448	5448	0	0	0	0	0	0	0	0	0	0	0	0	0	0	0	0	0	0	0	0	0	0	0	0	0	0	0	0	0	0	0	0	0	0	0	0	0	0	0	0	0	0	0	0	0	0	0	0	0	0	0	0	5815	5719	5719	5626	5626	5719	5719	5719	5719	5719	5719	5815	5815	5719	5626	5626	5626	5626	5626	5626	5626	5626	5626	5626	5626	5626	5626	5626	5626	5626	5626	5719	5719	5719	5626	5626	5626	5626	5626	5535	5535	5535	5535	5535	5535	5535	5535	5626	5535	5535	5535	5535	5535	5535	5535	5626	5626	5626	5626	5626	5626	5626	5626	5626	5626	5626	5626	5626	5626	5626	5626	5626	5626	5626	5626	5626	5626	5626	5626	5626	5626	5626	5626	5626	5626	5535	5535	5535	5626	5535	5535	5535	5535	5535	5535	5535	5535	5535	5535	5535	5535	5535	5535	5535	5535	5535	5535	5626	5535	5535	5535	5535	5535	5535	5535	5535	5535	5448	5448	5448	0	0	0	0	5815	5719	5719	5719	5815	5815	5815	5815	0	0	0	0	0	0	0	0	5626	5626	5626	5626	0	0	5535	5535	5535	5535	5535	5535	5626	5535	5719	5719	5719	5719	5815	5815	0	0	5719	5535	5535	5626	5626	5626	5626	0	0	0	0	0	0	0	5535	5626	5535	5535	5535	5535	5535	5626	5626	5626	5626	5626	5626	5626	5626	5626	5535	5626	5535	5535	5535	5626	5626	5626	5626	5626	5535	5535	5535	5535	5535	5535	5535	5535	5626	5626	5626	5626	5626	5626	5626	5626	5626	5626	5626	5626	5626	5626	5535	5535	5535	5535	5535	5535	5535	5535	5535	5535	5535	5535	5535	5535	5535	5535	5535	5535	5535	5626	5626	5719	5719	5626	5626	5626	5626	5626	5626	5626	5626	5626	5626	5626	5626	5626	5626	5626	5626	5626	5719	5719	5719	5719	5719	5719	5719	5719	5719	5626	5626	5626	5626	5719	5719	5626	5626	5626	5626	5626	5626	5626	5626	5626	5626	5626	5626	5626	0	0	0	0	0	0	0	0	0	0	0	0	0	0	0	0	0	0	0	0	0	0	0	0	0	0	0	0	0	0	0	0	0	0	0	0	0	0	0	0	0	0	0	0	0	0	0	0	0	0	0	0	0	0	0	0	5626	5626	5626	5626	5719	5719	5719	5719	5719	5815	5815	5719	5719	5719	5719	5626	5626	5626	5626	5626	5626	5626	5626	5719	5719	5719	5719	5719	5719	5719	5626	5626	5626	5626	5626	5626	5535	5535	0	0	0	0	0	2609	2609	2609	2609	2609	2609	2609	2609	2609	2589	2570	2551	2532	2532	2514	2514	2514	2496	2514	2496	2496	2496	2496	0	0	0	0	0	0	0	0	0	0	0	0	0	0	0	0	0	0	0	0	0	0	0	0	0	0	0	0	0	0	0	0	0	0	0	0	0
0	0	0	848	848	848	854	854	856	856	862	867	869	875	878	880	880	880	880	0	1095	1095	1098	1098	1095	1095	1098	1102	1098	1098	1095	1095	1095	1095	1095	1095	1091	1091	1091	1095	1095	1095	1102	1102	1102	1102	1102	1102	1102	1095	1095	1095	1091	1088	1088	1088	1088	1085	1088	1088	1091	1095	1095	1095	1095	1095	1095	1098	1102	1098	1098	1098	1098	1105	1105	1102	1098	1098	1098	0	0	0	0	0	0	0	0	5719	5626	5626	5626	5626	5626	5626	5535	5626	5626	5626	5626	5626	5719	5815	5719	5719	5719	5719	5719	5719	5719	5719	5719	5719	5719	5815	5815	5815	5815	5719	5719	5719	5719	5719	5719	5626	5626	5626	5626	5626	5626	5535	5535	5535	5626	5535	5626	5719	5719	5535	5535	0	0	0	0	0	0	0	0	0	0	0	0	0	0	0	0	0	0	0	0	0	0	0	0	0	0	0	0	0	0	0	0	0	0	0	0	0	0	0	0	0	0	0	0	0	0	0	0	0	0	5815	5719	5626	5626	5626	5719	5719	5719	5719	5719	5719	5815	5915	5815	5719	5719	5719	5719	5626	5626	5626	5626	5626	5719	5626	5626	5626	5626	5626	5626	5626	5719	5719	5719	5626	5626	5626	5626	5626	5535	5535	5535	5626	5535	5535	5626	5626	5626	5626	5626	5535	5535	5535	5535	5535	5626	5626	5626	5626	5626	5719	5719	5719	5719	5719	5719	5719	5626	5719	5719	5626	5626	5626	5626	5626	5626	5626	5626	5626	5626	5626	5626	5626	5626	5626	5626	5626	5626	5626	5626	5535	5535	5535	5626	5626	5626	5535	5535	5626	5626	5535	5535	5535	5535	5626	5626	5626	5626	5626	5626	5626	5535	5535	5535	5535	5535	5535	5535	5535	5535	5535	5448	5448	5448	5815	5719	5815	5815	5815	5815	5815	0	0	0	0	0	0	0	0	0	5626	5626	5626	5626	0	5815	5626	5719	5626	5626	5535	5535	5626	5448	5626	5535	5535	5448	5719	5719	0	0	5626	5535	5535	5626	5626	5626	5626	5626	0	0	0	5448	5448	5535	5535	5626	5626	5626	5626	5626	5626	5626	5719	5719	5719	5719	5626	5626	5626	5626	5535	5535	5535	5535	5535	5626	5626	5626	5719	5626	5626	5535	5535	5535	5535	5535	5535	5626	5626	5626	5626	5626	5626	5626	5626	5626	5719	5719	5719	5626	5626	5626	5626	5535	5535	5535	5535	5535	5535	5535	5535	5535	5535	5535	5535	5535	5535	5535	5535	5626	5626	5626	5719	5719	5719	5719	5719	5719	5719	5626	5626	5626	5626	5626	5719	5719	5719	5719	5626	5626	5719	5719	5719	5719	5719	5719	5815	5719	5719	5719	5719	5626	5626	5626	5626	5719	5719	5719	5719	5719	5719	5719	5719	5626	5719	5626	5719	5626	5626	0	0	0	0	0	0	0	0	0	0	0	0	0	0	0	0	0	0	0	0	0	0	0	0	0	0	0	0	0	0	0	0	0	0	0	0	0	0	0	0	0	0	0	0	0	0	0	0	0	0	0	0	0	0	0	0	0	5719	5719	5719	5719	5719	5719	5719	5719	5719	5815	5815	5719	5719	5719	5719	5719	5626	5626	5626	5626	5626	5626	5626	5719	5719	5719	5719	5719	5719	5626	5626	5626	5626	5626	5535	5626	5535	5535	0	0	0	0	0	2609	2609	2629	2609	2609	2609	2609	2609	2609	2589	2570	2551	2532	2532	2514	2514	2514	2514	2514	2514	2514	2514	2514	0	0	0	0	0	0	0	0	0	0	0	0	0	0	0	0	0	0	0	0	0	0	0	0	0	0	0	0	0	0	0	0	0	0	0	0	0
0	0	0	848	848	848	854	854	860	860	867	867	869	875	878	880	882	882	882	0	0	1095	1095	1095	1095	1095	1098	1098	1098	1098	1095	1095	1095	1095	1095	1091	1091	1091	1091	1095	1095	1095	1098	1102	1102	1098	1098	1098	1098	1095	1095	1095	1091	1091	1088	1088	1088	1085	1088	1088	1091	1095	1095	1098	1095	1095	1095	1095	1098	1095	1095	1095	1098	1102	1098	1098	1095	1095	1095	0	0	0	0	0	0	0	0	0	5626	5626	5626	5626	5626	5626	5626	5626	5719	5719	5719	5719	5719	5815	5815	5815	5719	5719	5815	5719	5719	5815	5719	5815	5719	5815	5815	5815	5815	5815	5815	5719	5719	5719	5719	5719	5719	5719	5719	5626	5626	5626	5626	5626	5626	5626	5719	5719	5719	5626	5535	5535	0	0	0	0	0	0	0	0	0	5815	5815	0	0	0	0	0	0	0	0	0	0	0	0	0	0	0	0	0	0	0	0	0	0	0	0	0	0	0	0	0	0	0	0	0	0	0	0	0	0	0	5719	5626	5626	5626	5719	5719	5719	5719	5719	5815	5915	5915	5815	5815	5815	5815	5719	5719	5626	5626	5626	5719	5719	5626	5626	5626	5626	5626	5626	5626	5719	5626	5626	5626	5626	5626	5626	5626	5626	5535	5535	5626	5626	5535	5626	5626	5626	5626	5626	5535	5535	5535	5535	5535	5626	5626	5626	5626	5719	5719	5719	5719	5815	5815	5815	5719	5719	5719	5719	5719	5626	5626	5626	5626	5626	5626	5626	5626	5626	5719	5719	5719	5719	5626	5626	5626	5626	5626	5626	5626	5626	5535	5626	5626	5626	5535	5626	5626	5626	5626	5535	5535	5626	5626	5626	5626	5626	5626	5626	5626	5535	5535	5535	5535	5535	5535	5535	5535	5535	5535	5626	5626	5719	5815	5719	5915	5815	5815	5815	5815	0	0	0	0	0	5719	5626	5626	5719	5719	5719	5915	5815	5815	5915	5719	5719	5719	5626	5626	5626	5626	5535	5719	5535	5535	5535	5719	5719	0	0	5626	5626	5535	5719	5719	5719	5719	5719	5719	0	0	5448	5535	5626	5626	5719	5719	5719	5719	5719	5719	5719	5719	5719	5719	5719	5626	5626	5626	5626	5535	5626	5626	5626	5535	5719	5626	5719	5719	5719	5719	5626	5626	5535	5535	5535	5535	5626	5626	5626	5626	5626	5626	5626	5626	5626	5719	5719	5719	5719	5626	5626	5626	5626	5626	5535	5535	5535	5535	5626	5626	5626	5626	5626	5626	5626	5626	5626	5626	5719	5626	5626	5719	5719	5719	5719	5626	5626	5719	5626	5626	5626	5626	5719	5719	5719	5719	5719	5719	5719	5719	5719	5719	5719	5815	5719	5915	5815	5815	5815	5719	5719	5626	5626	5719	5719	5719	5719	5719	5626	5626	5719	5719	5719	5719	5719	5719	5626	5626	0	0	0	0	0	0	0	0	0	0	0	0	0	0	0	0	0	0	0	0	0	0	0	0	0	0	0	0	0	0	0	0	0	0	0	0	0	0	0	0	0	0	0	0	0	0	0	0	0	0	0	0	0	0	0	0	5719	5719	5719	5719	5719	5719	5719	5815	5719	5719	5815	5915	5815	5815	5719	5719	5719	5719	5626	5626	5626	5626	5719	5626	5719	5719	5719	5719	5719	5719	5719	5626	5719	5626	5626	5626	5626	5626	5626	0	0	0	0	0	2609	2609	2629	2609	2609	2609	2609	2589	2589	2589	2551	2551	2532	2532	2514	2514	2514	2514	2514	2514	2514	2496	2496	0	0	0	0	0	0	0	0	0	0	0	0	0	0	0	0	0	0	0	0	0	0	0	0	0	0	0	0	0	0	0	0	0	0	0	0	0
0	0	0	845	852	856	854	854	860	860	867	867	871	873	875	880	882	884	884	884	884	1095	1095	1095	1091	1095	1095	1098	1098	1095	1095	1095	1095	1095	1095	1091	1091	1091	1091	1091	1095	1095	1095	1098	1098	1095	1095	1095	1095	1095	1091	1091	1091	1091	1091	1088	1088	1088	1088	1091	1091	1095	1095	1098	1098	1095	1095	1098	1098	1095	1095	1095	1098	1098	1098	1098	1098	1098	1095	0	0	0	0	0	0	0	0	5719	5626	5535	5626	5626	5626	5626	5626	5719	5719	5719	5719	5719	5719	5815	5815	5815	5815	5815	5815	5815	5815	5815	5719	5719	5719	5815	5815	5815	5815	5815	5815	5815	5719	5719	5719	5719	5626	5626	5626	5719	5626	5626	5626	5626	5626	5626	5719	5719	5719	5626	5626	5535	0	0	0	0	0	0	0	5626	5719	5719	5815	5815	5815	5815	0	0	0	0	0	0	0	0	0	0	0	0	0	0	0	0	0	0	0	0	0	0	0	0	0	0	0	0	0	0	0	0	0	0	0	0	5719	5626	5626	5626	5719	5719	5719	5719	5815	5815	5915	5915	5815	5815	5815	5815	5815	5719	5719	5719	5719	5719	5815	5719	5719	5719	5626	5626	5626	5626	5719	5719	5626	5626	5626	5626	5626	5626	5626	5626	5626	5626	5626	5626	5626	5626	5626	5626	5626	5626	5626	5626	5626	5626	5719	5719	5719	5719	5719	5815	5815	5815	5815	5915	5915	5815	5815	5815	5719	5719	5719	5719	5626	5626	5626	5626	5626	5626	5626	5719	5719	5719	5719	5719	5719	5626	5626	5719	5626	5626	5626	5626	5626	5626	5626	5626	5626	5626	5626	5626	5626	5626	5626	5626	5626	5719	5719	5626	5626	5626	5626	5626	5626	5535	5626	5535	5535	5626	5535	5535	5626	5626	5719	5815	5719	5915	5915	5915	5915	0	0	0	0	0	0	5719	5626	5626	5719	5626	5719	5719	5719	5815	5815	5719	5815	5719	5719	5719	5626	5719	5535	5535	5535	5535	5535	5719	5719	0	0	5626	5626	5535	5719	5719	5719	5719	5626	5626	5626	5626	5535	5535	5626	5626	5719	5719	5719	5719	5719	5719	5719	5719	5719	5719	5719	5719	5719	5626	5719	5626	5626	5626	5626	5626	5626	5626	5719	5815	5815	5719	5719	5626	5626	5626	5626	5626	5626	5626	5626	5719	5719	5719	5719	5626	5719	5719	5815	5815	5719	5719	5719	5719	5626	5626	5535	5535	5535	5535	5626	5626	5626	5626	5626	5719	5719	5719	5719	5719	5719	5719	5719	5719	5719	5719	5719	5719	5719	5719	5719	5719	5719	5719	5719	5719	5815	5719	5815	5719	5719	5719	5719	5719	5719	5815	5719	5815	5815	5719	5815	5719	5719	5719	5719	5719	5815	5815	5719	5815	5815	5815	5815	5719	5719	5719	5719	0	0	0	0	0	0	0	0	0	0	0	0	0	0	0	0	0	0	0	0	0	0	0	0	0	0	0	0	0	0	0	0	0	0	0	0	0	0	0	0	0	0	0	0	0	0	0	0	0	0	0	0	0	0	0	0	0	5815	5815	5815	5815	5719	5719	5719	5815	5719	5815	5815	5815	5815	5815	5719	5815	5719	5719	5719	5719	5626	5626	5626	5626	5626	5626	5719	5719	5719	5719	5719	5719	5626	5626	5626	5626	5626	5626	5626	5626	5626	0	0	0	0	0	2629	2629	2629	2609	2609	2589	2589	2589	2589	2570	2551	2551	2532	2532	2532	2514	2514	2514	2514	2514	2514	2514	2514	0	0	0	0	0	0	0	0	0	0	0	0	0	0	0	0	0	0	0	0	0	0	0	0	0	0	0	0	0	0	0	0	0	0	0	0	0
0	0	843	845	848	854	854	858	862	862	865	867	869	871	875	880	882	884	884	884	884	0	0	1091	1091	1091	1095	1095	1095	1095	1095	1095	1095	1095	1095	1091	1091	1091	1091	1091	1091	1091	1091	1095	1095	1095	1095	1095	1095	1091	1095	1091	1091	1091	1088	1088	1091	1088	1088	1091	1095	1095	1095	1102	1098	1098	1098	1102	1098	1098	1095	1095	1098	1098	1098	1098	1098	1098	0	0	0	0	0	0	0	0	0	5719	5719	5626	5626	5626	5626	5719	5719	5719	5815	5815	5719	5719	5719	5815	5815	5815	5815	5815	5815	5815	5815	5815	5719	5815	5719	5815	5815	5815	5815	5815	5815	5815	5815	5719	5719	5719	5626	5719	5626	5719	5626	5626	5626	5626	5626	5626	5719	5719	5719	5719	5626	0	0	0	0	0	0	5815	5815	5719	5815	5815	5815	5815	5815	5815	0	0	0	0	0	0	0	0	0	0	0	0	0	0	0	0	0	0	0	0	0	0	0	0	0	0	0	0	0	0	0	0	0	0	0	0	0	5626	5719	5719	5719	5719	5719	5719	5815	5815	5915	5915	5915	5915	5815	5815	5815	5719	5719	5719	5719	5719	5815	5719	5719	5719	5719	5626	5719	5626	5719	5719	5626	5626	5626	5719	5626	5626	5626	5626	5626	5626	5626	5626	5626	5626	5626	5626	5626	5626	5626	5626	5626	5626	5719	5719	5719	5719	5815	5815	5815	5915	5915	5915	5815	5815	5815	5815	5719	5719	5719	5719	5626	5626	5626	5626	5626	5719	5719	5719	5719	5719	5719	5719	5719	5719	5719	5719	5719	5626	5626	5626	5626	5719	5626	5626	5626	5719	5626	5626	5626	5626	5626	5719	5719	5719	5719	5626	5626	5626	5626	5626	5626	5626	5626	5626	5626	5626	5535	5535	0	0	0	0	0	5915	5915	5915	5915	0	0	0	0	0	5815	5626	5626	5626	5719	5719	5719	5719	5719	5815	5815	5719	5719	5719	5719	5719	5626	5626	5535	5535	0	0	0	0	0	0	0	0	0	0	5815	5815	5719	5719	5719	5626	5626	5626	5626	5626	5719	5719	5815	5815	5815	5815	5815	5719	5719	5719	5719	5719	5719	5719	5719	5626	5719	5535	5626	5626	5626	5626	5719	5719	5719	5815	5815	5815	5719	5719	5719	5626	5626	5626	5626	5626	5626	5626	5719	5719	5719	5626	5719	5719	5815	5815	5815	5815	5815	5719	5719	5719	5626	5626	5626	5535	5626	5626	5626	5626	5626	5719	5719	5719	5719	5719	5815	5815	5719	5815	5815	5719	5719	5719	5719	5719	5719	5719	5719	5719	5719	5719	5815	5815	5815	5719	5719	5719	5719	5719	5719	5815	5815	5915	5815	5815	5815	5815	5815	5719	5719	5815	5815	5815	5719	5719	5719	5719	5719	5719	5626	5626	0	0	0	0	0	0	0	0	0	0	0	0	0	0	0	0	0	0	0	0	0	0	0	0	0	0	0	0	0	0	0	0	0	0	0	0	0	0	0	0	0	0	0	0	0	0	0	0	0	0	0	0	0	0	0	0	0	6018	5915	5815	5815	5815	5719	5719	5719	5719	5719	5719	5815	5815	5815	5815	5815	5815	5719	5719	5719	5719	5719	5626	5719	5719	5719	5719	5719	5719	5719	5719	5719	5719	5626	5626	5626	5626	5626	5626	5626	5626	0	0	0	0	0	0	2629	2669	2649	2649	2629	2609	2589	2589	2589	2570	2551	2551	2532	2532	2532	2514	2514	2514	2532	2532	2532	2532	2532	0	0	0	0	0	0	0	0	0	0	0	0	0	0	0	0	0	0	0	0	0	0	0	0	0	0	0	0	0	0	0	0	0	0	0	0	0
0	0	843	845	850	854	856	858	862	862	865	867	869	871	873	880	884	887	884	884	884	884	884	1091	1091	1102	1102	1095	1095	1095	1095	1095	1095	1095	1095	1091	1091	1091	1091	1091	1091	1091	1091	1091	1091	1091	1095	1095	1095	1091	1091	1091	1091	1091	1088	1088	1088	1088	1088	1091	1095	1095	1095	1098	1098	1098	1098	1098	1098	1095	1095	1095	1098	1098	1095	1095	1095	1098	0	0	0	0	0	0	0	0	5719	5719	5626	5626	5535	5626	5719	5719	5815	5815	5815	5815	5815	5815	5815	5915	5815	5815	5815	5815	5815	5815	5815	5815	5719	5719	5719	5815	5719	5815	5815	5815	5815	5815	5815	5815	5719	5719	5719	5719	5626	5719	5626	5626	5626	5626	5626	5626	5719	5719	5719	5815	5815	0	0	0	0	0	5719	5815	5815	5815	5815	5815	5815	0	0	0	0	0	0	0	0	0	0	0	0	0	0	0	0	0	0	0	0	0	0	0	0	0	0	0	0	0	0	0	0	0	0	0	0	0	0	0	0	0	5719	5719	5719	5719	5719	5815	5815	5815	5915	5915	5915	5915	5915	5815	5815	5815	5719	5719	5719	5719	5815	5815	5815	5719	5719	5719	5719	5719	5719	5719	5719	5719	5626	5719	5626	5626	5626	5719	5719	5719	5719	5626	5626	5626	5626	5626	5626	5626	5626	5626	5626	5626	5719	5719	5719	5815	5815	5815	5815	5915	5915	5915	5915	5815	5915	5815	5815	5719	5719	5719	5719	5626	5626	5626	5626	5626	5626	5719	5719	5719	5719	5719	5719	5719	5719	5719	5719	5719	5626	5626	5626	5626	5626	5626	5626	5626	5626	5626	5626	5626	5719	5719	5719	5719	5719	5719	5719	5719	5626	5626	5626	5626	5626	5626	5626	5626	5626	5626	0	0	0	0	0	6124	6018	6018	6018	5915	5915	5815	5815	5719	5815	5719	5626	5719	5719	5719	5815	5719	5719	5719	5815	5719	5719	5719	5719	5719	5626	5626	5626	5535	0	0	0	0	0	0	0	0	0	5719	5815	5815	5815	5719	5719	5719	5719	5719	5626	5626	5719	5719	5719	5815	5815	5815	5815	5815	5719	5815	5815	5719	5719	5719	5719	5719	5719	5719	5626	5626	5626	5626	5719	5719	5815	5815	5815	5815	5815	5815	5815	5719	5719	5719	5719	5719	5626	5719	5719	5719	5719	5626	5719	5719	5815	5815	5815	5815	5815	5815	5719	5719	5626	5626	5626	5626	5719	5719	5719	5719	5719	5719	5815	5815	5815	5815	5815	5815	5815	5815	5815	5815	5815	5719	5815	5719	5719	5719	5719	5719	5719	5815	5815	5815	5815	5815	5815	5815	5719	5719	5719	5815	5815	5915	5815	5815	5815	5815	5815	5815	5719	5815	5815	5815	5815	5815	5815	5719	5719	5719	5626	5626	0	0	0	0	0	0	0	0	0	0	0	0	0	0	0	0	0	0	0	0	0	0	0	0	0	0	0	0	0	0	0	0	0	0	0	0	0	0	0	0	0	0	0	0	0	0	0	0	0	0	0	0	0	0	0	5915	5915	6018	5915	5815	5815	5815	5719	5719	5719	5719	5719	5719	5719	5815	5815	5815	5815	5815	5815	5815	5719	5719	5719	5719	5719	5719	5719	5815	5815	5815	5719	5719	5719	5719	5719	5626	5626	5626	5626	5626	5626	5626	0	0	0	0	0	0	2690	2690	2669	2649	2629	2589	2589	2589	2570	2551	2532	2551	2532	2532	2532	2514	2532	2514	2532	2514	2514	2514	2514	0	0	0	0	0	0	0	0	0	0	0	0	0	0	0	0	0	0	0	0	0	0	0	0	0	0	0	0	0	0	0	0	0	0	0	0	0
0	0	845	848	852	852	856	856	860	862	862	865	871	873	875	882	889	889	889	887	887	901	901	901	0	1102	1095	1095	1095	1095	1095	1095	1095	1095	1095	1091	1091	1091	1091	1091	1091	1091	1091	1091	1091	1095	1095	1095	1091	1091	1091	1091	1091	1088	1088	1088	1088	1088	1085	1091	1091	1091	1091	1095	1098	1098	1098	1098	1098	1095	1095	1095	1098	1098	1095	1095	1095	1095	0	0	0	0	0	0	0	0	5719	5719	5626	5626	5535	5535	5626	5719	5815	5815	5815	5815	5815	5815	5815	5915	5815	5815	5815	5815	5815	5815	5815	5815	5815	5815	5719	5815	5815	5815	5815	5815	5815	5815	5815	5815	5815	5815	5815	5815	5815	5815	5719	5626	5719	5719	5815	5719	5719	5815	5815	5815	5815	0	0	0	0	0	5719	5815	5815	5815	5815	5815	5815	0	0	0	0	0	0	0	0	0	0	0	0	0	0	0	0	0	0	0	0	0	0	0	0	0	0	0	0	0	0	0	0	0	0	0	0	0	0	0	0	0	5719	5719	5719	5719	5719	5815	5815	5815	5915	5915	5915	5915	5915	5915	5815	5815	5719	5815	5815	5815	5815	5815	5815	5815	5719	5719	5719	5719	5626	5626	5626	5626	5626	5626	5626	5626	5626	5719	5719	5719	5719	5719	5719	5626	5626	5626	5626	5626	5626	5626	5626	5626	5719	5719	5719	5815	5815	5915	5915	5915	5915	6018	5915	5915	5915	5815	5815	5815	5719	5719	5719	5626	5626	5626	5626	5626	5719	5719	5719	5719	5719	5719	5719	5719	5719	5719	5719	5719	5719	5719	5626	5626	5626	5626	5626	5626	5719	5719	5719	5719	5719	5719	5719	5815	5815	5719	5719	5719	5719	5626	5626	5626	5626	5626	5626	5626	5719	5719	0	0	0	0	0	6124	6018	6018	6018	5915	5915	5915	5815	5815	5815	5719	5626	5719	5719	5815	5815	5815	5815	5815	5815	5719	5815	5815	5719	5719	5815	5719	5719	0	0	0	0	0	0	0	0	0	0	5815	5815	5815	5815	5815	5815	5719	5719	5719	5626	5626	5719	5719	5719	5815	5815	5815	5815	5815	5815	5815	5815	5815	5815	5719	5815	5719	5719	5719	5626	5626	5626	5626	5719	5815	5815	5815	5815	5815	5815	5815	5815	5815	5719	5815	5719	5719	5719	5719	5719	5719	5719	5719	5719	5815	5815	5915	5915	5915	5815	5815	5815	5719	5719	5719	5626	5626	5719	5719	5719	5719	5815	5815	5815	5815	5815	5815	5815	5815	5815	5815	5815	5815	5815	5719	5815	5719	5719	5719	5719	5719	5719	5815	5815	5815	5815	5815	5815	5815	5815	5815	5815	5815	5815	5915	5915	5815	5815	5815	5815	5815	5815	5815	5815	5815	5815	5815	5719	5719	5719	5719	0	0	0	0	0	0	0	0	0	0	0	0	0	0	0	0	0	0	0	0	0	0	0	0	0	0	0	0	0	0	0	0	0	0	0	0	0	0	0	0	0	0	0	0	0	0	0	0	0	0	0	0	0	0	0	0	5815	5915	5915	5915	5915	5915	5815	5815	5815	5719	5719	5719	5719	5719	5719	5719	5815	5815	5719	5815	5719	5719	5719	5719	5719	5815	5815	5815	5815	5815	5915	5815	5719	5719	5719	5626	5626	5626	5626	5626	5626	5626	5626	0	0	0	0	0	0	0	2690	2690	2669	2649	2609	2589	2570	2570	2551	2532	2532	2532	2532	2532	2532	2496	2514	2514	2514	2514	2514	2514	2514	0	0	0	0	0	0	0	0	0	0	0	0	0	0	0	0	0	0	0	0	0	0	0	0	0	0	0	0	0	0	0	0	0	0	0	0	0
0	0	845	848	852	854	856	858	860	862	862	865	869	871	873	887	894	891	891	891	898	901	901	908	908	0	1095	1095	1095	1091	1091	1091	1091	1095	1095	1091	1091	1091	1091	1091	1091	1091	1091	1091	1091	1095	1095	1095	1091	1091	1091	1091	1091	1088	1088	1088	1088	1088	1088	1091	1091	1091	1091	1091	1095	1095	1095	1095	1095	1095	1095	1095	1098	1098	1098	1098	1102	1102	1102	1102	0	0	0	0	0	0	0	5719	5626	5626	5626	5626	5626	5719	5719	5815	5815	5815	5815	5815	5815	5815	5815	5815	5815	5815	5815	5815	5815	5815	5815	5815	5815	5815	5815	5815	5815	5815	5815	5815	5815	5815	5815	5815	5915	5915	5915	5815	5815	5815	5815	5815	5815	5815	5815	5815	5815	5815	5815	0	0	0	0	0	5815	5815	5815	5815	5815	5815	5815	0	0	0	0	0	0	0	0	0	0	0	0	0	0	0	0	0	0	0	0	0	0	0	0	0	0	0	0	0	0	0	0	0	0	0	0	0	0	0	0	0	5815	5815	5815	5815	5815	5815	5815	5815	5915	5915	5915	5915	5915	5915	5815	5815	5815	5815	5915	5915	5915	5915	5915	5915	5815	5815	5719	5719	5719	5626	5626	5626	5626	5626	5626	5626	5719	5719	5719	5815	5719	5719	5719	5626	5626	5626	5626	5626	5626	5719	5719	5719	5719	5815	5815	5815	5815	5815	5915	5915	5915	6018	5915	5815	5915	5815	5815	5719	5719	5719	5719	5626	5719	5626	5719	5719	5719	5719	5719	5719	5815	5815	5719	5815	5719	5815	5719	5719	5719	5719	5719	5719	5719	5626	5626	5626	5719	5719	5719	5719	5815	5815	5815	5815	5815	5719	5719	5719	5719	5719	5719	5626	5719	5626	5626	5719	5719	5719	5719	0	0	0	0	0	0	0	0	0	5915	5915	5815	5719	5815	5719	5626	5719	5815	5815	5815	5815	5815	5915	5815	5815	5815	5815	5815	5719	5719	5719	5719	0	0	0	0	0	0	0	0	0	0	5815	5815	5815	5815	5719	5815	5719	5719	5719	5719	5719	5719	5719	5719	5719	5719	5815	5815	5815	5815	5815	5815	5815	5719	5719	5719	5719	5719	5719	5719	5626	5626	5626	5719	5815	5815	5815	5815	5815	5815	5815	5815	5815	5719	5815	5719	5719	5719	5719	5719	5719	5719	5719	5815	5815	5915	5915	5915	5915	5915	5815	5815	5815	5719	5719	5719	5719	5719	5719	5815	5815	5815	5815	5815	5915	5915	5915	5815	5815	5815	5815	5815	5815	5815	5815	5815	5815	5815	5719	5719	5719	5719	5815	5815	5719	5815	5815	5815	5815	5719	5815	5815	5815	5815	5915	5915	5915	5915	5915	5815	5815	5815	5815	5815	5915	5815	5815	5815	5719	5719	5719	0	0	0	0	0	0	0	0	0	0	0	0	0	0	0	0	0	0	0	0	0	0	0	0	0	0	0	0	0	0	0	0	0	0	0	0	0	0	0	0	0	0	0	0	0	0	0	0	0	0	0	0	0	0	0	5815	5815	5915	6018	6018	5915	5915	5915	5815	5815	5719	5719	5719	5719	5719	5719	5719	5719	5719	5719	5719	5719	5719	5719	5719	5719	5815	5815	5815	5915	5915	5915	5815	5815	5719	5719	5626	5626	5626	5626	5719	5626	5626	5626	0	0	0	0	0	0	2690	2690	2669	2649	2649	2609	2589	2570	2570	2551	2532	2514	2532	2514	2514	2514	2496	2478	2496	2496	2496	2496	2496	2496	0	0	0	0	0	0	0	0	0	0	0	0	0	0	0	0	0	0	0	0	0	0	0	0	0	0	0	0	0	0	0	0	0	0	0	0	0
0	0	845	848	854	858	858	860	862	862	865	865	869	871	873	889	891	894	891	894	903	905	908	908	908	908	0	1091	1091	1091	1091	1091	1091	1095	1095	1095	1095	1095	1091	1091	1091	1091	1091	1091	1095	1095	1095	1091	1091	1091	1091	1091	1088	1088	1091	1091	1091	1088	1088	1091	1091	1091	1091	1091	1095	1095	1095	1095	1095	1095	1091	1095	1095	1098	1095	1098	1098	1098	1098	1102	0	0	0	0	0	0	0	0	0	5626	5626	5626	5626	5626	5719	5815	5815	5815	5815	5815	5815	5915	5815	5915	5915	5915	5915	5815	5915	5915	5815	5815	5815	5815	5815	5815	5719	5815	5815	5815	5815	5915	5915	5915	5915	5915	5915	5915	5815	5815	5815	5815	5815	5815	5815	5815	5915	5915	5915	0	0	0	0	0	5815	5815	5815	5815	5815	5815	5815	0	0	0	0	0	0	0	0	0	0	0	0	0	0	0	0	0	0	0	0	0	0	0	0	0	0	0	6018	6018	0	0	0	0	0	0	0	0	0	0	0	0	5915	5915	5815	5815	5815	5815	5815	5915	5915	5915	5915	5915	5915	5915	5915	5915	5815	5915	5915	5915	5915	5915	5915	5915	5815	5815	5719	5719	5719	5719	5626	5626	5626	5626	5626	5626	5719	5815	5815	5815	5815	5815	5719	5719	5719	5719	5719	5719	5719	5719	5719	5719	5815	5815	5815	5815	5815	5815	5915	5915	5915	5915	5915	5815	5815	5815	5815	5719	5719	5719	5719	5719	5719	5719	5719	5719	5719	5815	5815	5815	5915	5915	5815	5915	5815	5815	5815	5815	5815	5815	5719	5815	5719	5719	5719	5719	5815	5815	5815	5815	5815	5815	5815	5815	5815	5815	5815	5815	5719	5719	5719	5719	5719	5719	5719	5719	5719	5719	5719	0	0	0	0	0	0	0	0	0	0	0	0	5719	5815	5719	5719	5815	5815	5815	5815	5815	5815	5915	5915	5815	5915	5915	5915	5719	5719	0	0	0	0	0	0	0	0	0	0	0	0	5719	5719	5719	5719	5719	5719	5719	5719	5719	5719	5719	5719	5719	5719	5719	5719	5815	5815	5815	5815	5815	5815	5815	5815	5719	5815	5719	5719	5719	5719	5719	5719	5719	5719	5815	5815	5815	5815	5815	5815	5815	5815	5815	5815	5815	5719	5719	5719	5719	5719	5815	5815	5815	5815	5815	5915	5915	5915	5915	5915	5915	5915	5815	5815	5815	5719	5719	5719	5719	5719	5815	5815	5815	5915	5915	5915	5915	5915	5915	5815	5815	5815	5815	5815	5815	5815	5815	5815	5815	5815	5815	5815	5815	5815	5815	5815	5815	5815	5815	5815	5815	5815	5815	5815	5915	5915	5915	5915	5915	5915	5915	5915	5915	5915	5915	5915	5815	5719	5626	5626	5719	0	0	0	0	0	0	0	0	0	0	0	0	0	0	0	0	0	0	0	0	0	0	0	0	0	0	0	0	0	0	0	0	0	0	0	0	0	0	0	0	0	0	0	0	0	0	0	0	0	0	0	0	0	0	0	5815	5815	5815	5915	5915	5915	5915	5815	5815	5815	5815	5719	5719	5719	5719	5719	5719	5719	5719	5719	5719	5815	5719	5719	5815	5719	5815	5915	5815	5915	5815	5915	5915	5815	5719	5719	5626	5719	5626	5626	5719	5626	5626	5626	0	0	0	0	0	0	2690	2690	2669	2649	2629	2609	2589	2570	2570	2551	2551	2532	2532	2514	2514	2514	2496	2496	2478	2496	2496	2496	2496	2496	0	0	0	0	0	0	0	0	0	0	0	0	0	0	0	0	0	0	0	0	0	0	0	0	0	0	0	0	0	0	0	0	0	0	0	0	0
0	0	845	848	854	856	860	860	862	862	865	865	869	878	871	884	889	891	891	894	901	903	905	908	908	915	915	1091	1091	1091	1091	1091	1091	1095	1095	1095	1095	1095	1091	1091	1091	1091	1091	1091	1091	1095	1095	1095	1091	1091	1091	1091	1091	1091	1091	1091	1091	1088	1088	1091	1091	1091	1091	1091	1095	1095	1095	1095	1091	1091	1091	1091	1095	1095	1095	1095	1095	1095	1098	0	0	0	0	0	0	0	0	0	5719	5626	5626	5626	5626	5719	5719	5719	5719	5719	5719	5815	5815	5815	5915	5915	6124	6124	6124	6018	6018	5915	5915	5915	5815	5815	5815	5815	5815	5815	5815	5815	5915	5915	5915	5915	5915	5915	5915	5915	5915	5815	5915	5915	5915	5815	5915	5915	5915	5915	5915	0	5915	5915	0	0	5815	5815	5815	5815	5815	5815	5815	0	0	0	0	0	0	0	0	0	0	0	0	0	0	0	0	0	0	0	0	0	0	0	0	0	5915	6018	6018	6018	6018	0	0	0	0	0	0	0	0	0	0	0	5815	5915	5815	5815	5815	5815	5815	5915	5915	5915	5915	5915	5915	5915	5915	5915	5915	5915	5915	5915	5915	5915	5915	5915	6018	5915	5815	5815	5815	5719	5719	5719	5719	5719	5719	5719	5815	5815	5815	5815	5815	5815	5815	5719	5815	5815	5719	5719	5719	5815	5815	5719	5815	5815	5815	5815	5915	5915	5915	5915	6018	6018	5915	5915	5915	5815	5815	5719	5719	5719	5719	5719	5719	5719	5719	5719	5815	5815	5815	5915	5915	5915	5815	5915	5815	5815	5815	5815	5815	5815	5719	5815	5815	5815	5815	5815	5815	5915	5915	5815	5815	5815	5815	5815	5815	5815	5815	5815	5815	5815	5815	5719	5719	5719	5719	5719	5815	5815	5815	0	0	0	0	0	0	0	0	0	0	0	0	5719	5719	5719	5719	5719	5815	5815	5815	5815	5815	5815	5815	5815	5815	5815	5915	5815	5815	0	0	0	0	0	0	0	0	0	0	0	0	5719	5719	5719	5719	5719	5719	5815	5815	5815	5719	5815	5815	5815	5815	5815	5815	5815	5815	5815	5815	5815	5815	5815	5815	5815	5815	5719	5719	5719	5719	5719	5719	5719	5815	5815	5815	5815	5815	5815	5815	5815	5815	5815	5815	5815	5815	5815	5719	5815	5719	5719	5719	5815	5815	5815	5915	5915	5915	5915	5915	5915	5915	5915	5815	5815	5815	5719	5719	5815	5815	5815	5815	5815	5915	5915	5915	5915	5915	5915	5815	5815	5815	5815	5815	5815	5815	5815	5815	5815	5815	5815	5815	5815	5815	5815	5815	5815	5815	5815	5815	5815	5815	5815	5815	5915	5915	5915	5915	5915	5915	5915	5915	5915	5915	5915	5915	5915	5815	5815	5719	5719	0	0	0	0	0	0	0	0	0	0	0	0	0	0	0	0	0	0	0	0	0	0	0	0	0	0	0	0	0	0	0	0	0	0	0	0	0	0	0	0	0	0	0	0	0	0	0	0	0	0	0	0	0	0	5719	5815	5815	5815	5915	5915	5915	5915	5915	5815	5815	5815	5719	5719	5719	5719	5719	5815	5719	5719	5719	5719	5815	5719	5719	5815	5815	5815	5915	5915	6018	5915	5915	5915	5915	5915	5915	5815	5719	5719	5719	5719	5719	5626	5626	0	0	0	0	0	0	2690	2690	2669	2649	2629	2609	2589	2589	2570	2570	2551	2532	2551	2532	2532	2532	2496	2496	2496	2496	2496	2496	2496	2496	0	0	0	0	0	0	0	0	0	0	0	0	0	0	0	0	0	0	0	0	0	0	0	0	0	0	0	0	0	0	0	0	0	0	0	0	0
0	0	845	850	854	858	860	862	862	862	865	867	875	878	878	887	889	891	891	894	901	903	903	903	910	915	915	915	915	915	1091	1095	1095	1095	1095	1095	1095	1095	1091	1091	1091	1091	1091	1091	1091	1091	1091	1091	1091	1091	1088	1088	1088	1091	1091	1091	1088	1088	1088	1088	1091	1091	1091	1088	1095	1095	1095	1095	1091	1091	1091	1095	1091	1091	1091	1091	1095	1095	0	0	0	0	0	0	0	0	0	0	5719	5719	5719	5719	5719	5815	5815	5719	5815	5815	5815	5815	5815	5915	5915	5915	6124	6124	6124	6124	6018	6018	6018	5915	5915	5915	5915	5915	5815	5815	5815	5815	5915	5915	5915	5915	6018	6018	5915	5915	5915	5915	5915	5915	5915	5915	5915	5915	5915	5915	5915	5915	5915	5815	5815	5815	5815	5815	5815	5815	5915	5915	5915	5915	5815	5815	0	0	0	0	0	0	0	0	0	0	0	0	0	0	0	0	0	0	0	0	0	0	6018	6018	6018	5915	5915	0	0	0	0	0	0	0	0	0	0	0	5915	5915	5815	5915	5915	5915	5915	5915	5915	5915	5915	5915	5915	5915	5915	5915	5915	5915	5915	5915	5915	5915	5915	6018	6018	5915	5915	5915	5915	5815	5815	5815	5815	5815	5815	5815	5815	5815	5815	5815	5815	5815	5815	5815	5815	5815	5719	5719	5719	5719	5719	5719	5815	5915	5815	5815	5915	5915	5915	6018	6018	6018	6018	5915	5915	5815	5815	5815	5815	5815	5815	5815	5719	5719	5719	5815	5815	5815	5915	5915	5915	5915	5815	5815	5815	5815	5815	5815	5815	5815	5815	5915	5815	5815	5815	5815	5915	5915	5915	5815	5815	5815	5815	5815	5815	5815	5815	5815	5815	5815	5815	5815	5815	5815	5815	5815	5915	5915	5915	0	0	0	0	0	0	0	0	0	0	0	0	0	5719	5719	5719	5815	5815	5815	5915	5815	5815	5815	5815	5815	5915	5815	5815	5815	5815	0	0	0	0	0	0	0	0	0	0	0	0	0	5815	5815	5815	5719	5815	5815	5815	5815	5815	5815	5815	5815	5815	5719	5815	5815	5815	5815	5815	5815	5815	5815	5815	5815	5815	5815	5815	5719	5719	5719	5719	5719	5815	5915	5815	5815	5815	5915	5815	5815	5815	5815	5815	5815	5815	5815	5815	5815	5815	5815	5815	5815	5815	5815	5915	5915	5915	5915	5915	5915	5915	5915	5815	5815	5815	5815	5719	5815	5815	5815	5815	5915	5915	5915	5915	5915	5915	5915	5815	5915	5915	5915	5815	5815	5815	5815	5815	5815	5815	5815	5815	5815	5815	5815	5815	5815	5815	5815	5815	5815	5815	5815	5815	5915	5915	5915	5915	5915	5915	6018	5915	5915	5915	5915	5915	5915	5915	5815	5815	5719	0	0	0	0	0	0	0	0	0	0	0	0	0	0	0	0	0	0	0	0	0	0	0	0	0	0	0	0	0	0	0	0	0	0	0	0	0	0	0	0	0	0	0	0	0	0	0	0	0	0	0	0	0	5915	5815	5915	5915	5915	5915	6018	5815	5815	5815	5815	5815	5815	5719	5815	5719	5719	5719	5719	5719	5719	5719	5719	5815	5719	5719	5815	5815	5815	5915	5915	6018	6018	6018	6018	6018	6018	6018	5719	5719	5719	5719	5719	5719	5626	5626	0	0	0	0	0	0	0	2690	2690	2669	2629	2609	2589	2589	2570	2551	2551	2551	2551	2532	2532	2532	2514	2496	2496	2496	2496	2496	2496	2496	0	0	0	0	0	0	0	0	0	0	0	0	0	0	0	0	0	0	0	0	0	0	0	0	0	0	0	0	0	0	0	0	0	0	0	0	0
0	0	850	852	856	858	860	862	862	862	865	867	875	880	878	882	887	889	894	896	901	903	903	905	908	915	915	915	915	915	0	1095	1095	1095	1095	1095	1095	1095	1091	1091	1091	1091	1091	1091	1091	1091	1091	1091	1091	1091	1091	1088	1088	1091	1091	1088	1088	1088	1088	1088	1088	1091	1091	1091	1091	1091	1095	1095	1095	1095	1091	1095	1091	1091	1091	1095	1095	1095	0	0	1193	1193	0	0	0	0	0	0	0	5719	5719	5719	5719	5815	5815	5815	5815	5815	5915	5915	5815	5915	5915	6018	6124	6124	6018	6018	6018	6018	6018	5915	5915	5915	5915	5915	5915	5915	5815	5915	5915	5915	5915	5915	5915	6018	6018	5915	5915	5915	6018	6018	6018	6018	6018	6018	6018	5915	5915	5915	5815	5815	5815	5815	5815	5815	5815	5915	5915	5915	5915	5915	5915	5915	5815	5815	0	0	0	0	0	0	0	0	0	0	0	0	0	0	0	0	0	0	0	0	6018	6018	6018	6018	6018	6018	5915	5915	6018	6018	0	0	0	6018	5915	5915	5915	5915	5915	5915	5815	5815	5815	5915	5915	5915	5915	5915	5915	6018	6018	5915	5915	6018	6018	5915	5915	5915	6018	6018	6018	5915	5915	5915	5915	5815	5815	5815	5815	5815	5815	5815	5815	5815	5815	5815	5815	5815	5815	5815	5815	5815	5815	5815	5815	5815	5815	5815	5815	5915	5815	5815	5915	5915	5915	5915	6018	6018	5915	5915	5915	5915	5815	5815	5815	5815	5815	5815	5719	5719	5815	5815	5915	5915	6018	6018	6018	6018	5915	5915	5915	5915	5915	5915	5815	6018	6018	6018	5915	5915	5915	5915	5915	5915	5915	5915	5915	5915	5915	5815	5815	5915	5915	5815	5915	5915	6018	5915	5915	5915	5915	6018	6018	5915	5915	6018	6018	0	0	0	0	0	0	0	0	0	0	0	0	5815	5815	5815	5815	5815	5815	5915	5915	5915	5915	5815	5915	5815	5815	5815	5815	0	0	0	0	0	0	0	0	0	0	0	0	0	5815	5815	5815	5815	5815	5815	5815	5815	5815	5815	5815	5815	5815	5719	5815	5815	5815	5815	5815	5815	5815	5815	5815	5815	5815	5815	5815	5815	5815	5815	5719	5719	5915	5915	5915	5915	5815	5915	5915	5815	5815	5815	5815	5815	5815	5815	5815	5815	5815	5815	5815	5815	5815	5815	5915	5915	5915	5915	5915	5915	5915	5915	5915	5915	5815	5815	5815	5815	5815	5815	5915	5915	5915	5915	5915	5915	5915	5915	5815	5915	5915	5915	5915	5815	5915	5915	5815	5815	5815	5815	5815	5815	5815	5815	5815	5815	5815	5815	5815	5815	5815	5815	5815	6018	6018	6018	6018	5915	5915	6018	6018	5915	6018	6018	6018	6018	6018	5915	5915	0	0	0	0	0	0	0	0	0	0	0	0	0	0	0	0	0	0	0	0	0	0	0	0	0	0	0	0	0	0	0	0	0	0	0	0	0	0	0	0	0	0	0	0	0	0	0	0	0	0	0	0	0	5915	5915	5815	6018	6018	5915	6018	6018	6018	5915	5915	5815	5915	5915	5815	5915	5815	5719	5815	5815	5815	5815	5815	5815	5815	5815	5815	5915	5915	5915	6018	6018	6018	6018	6018	6018	6018	6018	6018	5915	5719	5719	5719	5815	5719	5626	5626	0	0	0	0	0	0	2669	2690	2669	2669	2649	2629	2609	2589	2589	2551	2551	2551	2532	2532	2532	2514	2496	2496	2478	2496	2496	2478	2478	2478	0	0	0	0	0	0	0	0	0	0	0	0	0	0	0	0	0	0	0	0	0	0	0	0	0	0	0	0	0	0	0	0	0	0	0	0	0
0	0	850	854	858	860	862	862	862	865	867	871	873	878	878	882	887	889	894	896	901	903	903	908	913	917	915	915	915	925	925	0	1095	1095	1095	1095	1095	1095	1091	1091	1091	1091	1091	1091	1091	1091	1088	1088	1088	1091	1088	1088	1088	1088	1091	1088	1088	1088	1088	1088	1091	1091	1091	1091	1091	1095	1095	1095	1095	1095	1095	1095	1091	1091	1091	1091	1091	1193	1193	0	1193	1193	0	0	0	0	0	0	0	0	0	0	0	5815	5815	5815	5815	5815	5915	5915	5915	5915	5915	6018	6124	6124	6018	6018	6018	6018	6018	5915	5915	5915	5915	5915	5915	5915	5915	5915	5915	6018	6018	5915	6018	6018	6018	5915	5915	6018	6018	6018	6018	6018	6018	6018	6018	6018	5915	5915	5815	5815	5815	5815	5815	5915	5915	5915	5915	5915	6018	5915	6018	5915	5915	5815	5815	5815	0	0	0	0	0	0	5815	5915	5915	5915	5915	5915	5915	5915	5915	6018	6018	6018	6018	6018	6018	6124	6018	6018	6018	6018	5915	5915	5915	0	6018	6018	5915	5915	5915	5915	5915	5915	5915	5915	5915	5915	5915	5915	6018	6018	6018	6018	6018	6018	6018	6018	6018	6018	6018	6018	6018	6018	6018	6018	5915	5915	5915	5915	5915	5815	5815	5815	5915	5915	5915	5915	5915	5915	5915	5815	5815	5815	5815	5815	5815	5915	5915	5915	5915	5915	5915	5915	5815	5815	5915	5915	5915	5915	6018	6018	6018	6018	5915	5915	5915	5915	5815	5815	5815	5815	5815	5815	5719	5719	5719	5915	6018	6018	6018	6018	5915	5915	5915	5915	5915	5915	0	6018	6018	6018	6018	6018	6018	6018	6018	6018	5915	5915	5915	5915	5915	5915	5915	5815	5915	5815	5915	5915	6018	5915	5915	5915	6018	6018	6018	6018	5915	5915	5915	0	0	0	0	0	0	0	0	0	0	0	0	5815	5815	5815	5815	5915	5915	5915	5915	5815	5915	5915	5915	5915	5815	5815	5815	0	0	0	0	0	0	0	0	0	0	0	0	5815	5815	5815	5815	5815	5815	5915	5915	5815	5815	5815	5815	5815	5815	5719	5719	5815	5815	5815	5815	5815	5815	5815	5815	5815	5815	5815	5815	5815	5815	5719	5719	5719	5915	5915	5915	5815	5915	5915	5915	5915	5915	5915	5915	5915	5915	5815	5815	5815	5815	5815	5815	5815	5815	5815	5915	5915	5915	5915	5915	5915	6018	5915	5915	5915	5815	5815	5815	5815	5815	5815	5915	5915	5915	5915	5915	5915	5915	5915	5915	5915	5915	5915	5915	5915	5915	5915	5915	5915	5815	5915	5815	5815	5815	5815	5815	5815	5815	5815	5815	5815	5815	5815	5915	5915	6018	6018	6018	6018	6018	6018	6018	6018	6018	6018	6018	6124	6124	6124	5915	0	0	0	0	0	0	0	0	0	0	0	0	0	0	0	0	0	0	0	0	0	0	0	0	0	0	0	0	0	0	0	0	0	0	0	0	0	0	0	0	0	0	0	0	0	0	0	0	0	0	0	0	6018	6018	6018	5915	6018	6018	5915	6018	6018	6018	6018	6018	5815	5915	5915	5915	5915	5915	5815	5815	5815	5815	5815	5815	5815	5815	5815	5815	5915	5815	5915	6018	6018	6018	6018	6018	6018	6018	6018	6018	5915	5915	5815	5815	5815	5719	5719	5719	0	0	0	0	0	0	2669	2690	2669	2649	2629	2629	2609	2609	2589	2570	2570	2551	2551	2532	2532	2532	2496	2478	2478	2496	2478	2478	2478	2478	0	0	0	0	0	0	0	0	0	0	0	0	0	0	0	0	0	0	0	0	0	0	0	0	0	0	0	0	0	0	0	0	0	0	0	0	0
0	0	0	854	858	862	869	867	865	867	869	871	873	873	878	884	884	891	894	896	898	901	903	905	910	910	913	913	913	913	925	925	925	1095	1095	1095	1095	1095	1091	1091	1095	1091	1091	1091	1088	1088	1085	1085	1088	1085	1085	1088	1085	1088	1085	1088	1088	1088	1088	1088	1088	1088	1095	1095	1095	1098	1098	1095	1095	1095	1095	1095	1091	1095	1091	1091	1197	1193	1189	1197	1193	1193	0	0	0	0	0	0	0	0	0	0	0	0	0	5815	5815	5915	5915	5915	5915	5915	6018	6018	6124	6124	6124	6124	6018	6018	6018	6018	6018	5915	5915	5915	5915	6018	6018	6018	6124	6124	6124	6018	6018	6018	6018	5915	5915	6018	6018	6018	6018	6018	6018	6018	6018	6018	5915	5915	5815	5915	5915	5915	5915	5915	5915	5915	5915	5915	6018	5915	5915	5915	5915	5815	5815	5815	5915	5915	5915	5915	5915	5815	5815	5815	5915	5915	5915	5915	5915	5915	5915	6018	6018	6124	6018	6018	6018	6124	6018	6018	6018	6018	6018	6018	6018	6018	6018	6018	6018	6018	6018	5915	5915	5915	5915	5915	5915	5915	6018	6018	6018	6018	6018	6018	6018	6018	6018	6018	6018	6018	6018	6018	6018	6018	6018	6018	5915	6018	5915	5915	5915	5915	5815	5915	5915	5915	5915	5915	5915	5915	5915	5915	5915	5915	5915	5915	5815	5915	5915	5915	5915	5915	5915	6018	5915	5915	5915	5915	5915	5915	6018	6018	6018	6018	5915	5915	5915	5915	5915	5915	5915	5815	5815	5815	5719	5719	5719	0	0	0	0	0	0	0	0	0	0	0	0	6018	6018	6018	6018	6018	6018	5915	6018	6018	6018	6018	5915	6018	6018	5915	5915	5915	5915	5915	5915	5915	5915	6018	6018	6018	6018	6018	6018	6018	5915	5915	5915	0	0	0	0	0	0	0	0	0	0	0	0	0	5915	5915	5915	5915	6018	6018	6018	5915	5915	5915	5915	5815	5815	5815	5915	5915	0	5815	5815	5815	5815	5815	0	0	0	0	0	5915	5915	5915	5815	5915	5915	6018	6018	5915	5915	5915	5815	5815	5815	5815	5815	5815	5915	5815	5915	5815	5915	5815	5815	5815	5815	5815	5815	5815	5815	5815	5719	5719	5915	5915	5915	5915	5915	5915	5915	5915	5915	5915	5915	5915	5915	5915	5915	5915	5915	5915	5915	5915	5915	5915	5915	6018	5915	5915	6018	5915	5915	5915	5915	5915	5915	5915	5915	5915	5915	5915	5915	5915	5915	5915	5915	5915	5915	5915	5915	5915	5915	5915	5915	5915	5915	5915	5915	5915	5915	5915	5915	5915	5815	5815	5815	5815	5815	5815	5815	5815	5815	5915	5915	6018	6018	6018	6018	6018	6018	6124	6018	6018	6018	6018	6124	6124	6124	6018	6018	0	0	0	0	0	0	0	0	0	0	0	0	0	0	0	0	0	0	0	0	0	0	0	0	0	0	0	0	0	0	0	0	0	0	0	0	0	0	0	0	0	0	0	0	0	0	0	0	0	0	0	0	6124	6018	6018	5915	6018	6018	6018	6018	6018	6018	6018	6018	5915	5915	6018	6018	6018	5915	5915	5915	5915	5915	5815	5815	5915	5915	5915	6018	5915	5915	6018	6018	6018	6018	6018	6018	6018	6018	6018	6018	6018	6018	5915	5915	5915	5815	5815	5815	0	0	0	0	0	0	0	0	2669	2649	2629	2629	2629	2629	2609	2589	2570	2551	2551	2532	2532	2532	2496	2478	2478	2496	2478	2478	2478	2478	0	0	0	0	0	0	0	0	0	0	0	0	0	0	0	0	0	0	0	0	0	0	0	0	0	0	0	0	0	0	0	0	0	0	0	0	0
0	0	0	0	0	871	871	871	871	871	871	873	873	878	880	884	887	891	894	896	898	901	903	905	910	915	915	915	920	925	925	925	930	930	1095	1098	1098	1095	1091	1091	1091	1091	1088	1088	1085	1085	1081	1085	1085	1085	1085	1085	1085	1088	1088	1088	1088	1088	1088	1088	1091	1091	1091	1091	1095	1098	1098	1091	1091	1091	1091	1091	1091	1095	1095	1202	1197	1193	1193	1197	1197	1197	1197	0	0	0	0	0	0	0	0	0	0	0	0	5815	5815	5915	6018	6018	5915	6018	6018	6018	6124	6235	6124	6124	6124	6018	6018	6018	6018	6018	5915	5915	6018	6018	6018	6018	6124	6124	6124	6018	6018	6018	6018	5915	5915	6018	6018	6018	6124	6018	6018	6018	6018	6018	6018	6018	5915	5915	5915	5915	5915	6018	5915	5915	5915	6018	6018	5915	6018	5915	5915	5815	5815	5815	5915	5815	5915	6018	5915	5815	5815	5815	5915	5915	5915	5915	5915	5915	5915	6018	6124	6124	6018	6018	6018	6018	6018	6018	6018	6018	6018	6018	6124	6124	6124	6124	6018	6018	6018	6018	6018	6018	6018	6018	5915	5915	6018	6018	6018	6018	6018	6018	6018	6018	6018	6018	6018	6018	6018	6018	6018	6018	6018	6018	6018	6018	6018	5915	5915	5915	5915	5915	5915	5915	5915	5915	5915	5915	5915	5915	5815	5915	5915	5815	5815	5815	5915	5915	5915	5915	6018	6018	5915	6018	6018	6018	6018	6018	6018	6018	6018	6018	6018	5915	5915	5915	5915	5915	5915	5915	5915	5915	5815	5815	0	0	0	0	0	0	0	0	0	0	0	0	0	6018	6018	6018	5915	6018	5915	5915	5915	6018	5915	5915	5915	5915	6018	5915	5915	5915	5915	5915	5915	5915	5915	6018	6018	5915	6018	6018	6018	5915	5915	5915	5815	5815	5815	5915	5915	5915	5915	5915	5915	5915	5915	0	0	0	5915	6018	6018	6018	6124	6124	6018	6018	6018	5915	5915	5815	5815	5815	5915	5915	5915	5815	5815	5915	5815	5915	5915	5915	5915	5915	5915	5915	5915	5815	5815	5815	5915	5915	6018	6018	5915	5915	5915	5915	5915	5815	5815	5815	6018	5915	5915	5815	5915	5915	5915	5915	5915	5815	5815	5915	5915	5815	5815	5815	5915	5915	5915	5915	5915	5915	5915	5915	5915	5915	5915	5915	6018	5915	5915	5915	5915	5915	5915	5915	5915	5915	6018	6018	5915	5915	5915	6018	6018	6018	6018	6018	5915	5915	5915	5915	5915	5915	5915	5915	5915	5915	5915	5915	5915	5915	5915	5915	5915	5915	5915	5915	5915	5915	5915	5915	5915	5915	5915	5915	5915	5915	5915	5915	5815	5915	5915	5815	5915	5915	5915	6018	6018	6018	6018	6018	6018	6124	6018	6018	6018	6018	6124	6124	6124	6018	5915	5915	0	0	0	0	0	0	0	0	0	0	0	0	0	6018	6018	6235	6349	6349	0	0	0	6235	6124	6018	6018	6018	6018	6018	6018	6018	0	0	0	0	0	0	0	0	0	0	0	0	0	0	0	0	0	0	0	0	0	6124	6124	6018	5915	6018	6018	6018	6018	6018	6124	6018	6018	5915	5915	6018	6018	6018	5915	5915	6018	6018	6018	5915	5915	6018	6018	6018	6018	6124	6018	6124	6018	6018	6018	6018	6018	6018	6018	6018	6124	6018	6124	6124	6018	6018	5915	5915	5815	0	0	0	0	0	0	0	0	2669	2649	2629	2629	2629	2629	2609	2589	2570	2570	2551	2532	2532	2532	2514	2496	2496	2496	2478	2478	2478	2478	0	0	0	0	0	0	0	0	0	0	0	0	0	0	0	0	0	0	0	0	0	0	0	0	0	0	0	0	0	0	0	0	0	0	0	0	0
0	0	0	0	887	880	878	875	875	873	871	873	873	878	880	882	887	889	894	896	898	901	903	908	910	917	917	920	925	927	927	930	930	937	937	937	1098	1091	1091	1088	1091	1085	1085	1085	1081	1085	1081	1085	1085	1085	1085	1088	1085	1088	1085	1085	1088	1088	1088	1088	1091	1091	1091	1091	1091	1098	1098	1091	1091	1091	1091	1091	1091	1095	1095	1202	1197	1193	1193	1197	1193	1197	1197	0	0	0	0	0	0	0	0	0	0	0	0	0	0	0	6018	6018	5915	6018	6018	6124	6124	6235	6124	6124	6124	6018	6018	6018	6018	6018	6018	6018	6018	6018	6018	6018	6018	6018	6018	6018	6018	6018	6018	5915	6018	6018	6018	6124	6124	6018	6018	6018	6018	6018	6018	6018	5915	5915	5915	6018	6018	6018	6018	6018	5915	6018	6018	6018	6018	5915	5915	5915	5915	5915	5915	5915	5915	6018	5915	5815	5815	5815	6018	6018	5915	6018	6018	5915	5915	6018	6018	6124	6018	6018	6018	6018	6018	6124	6018	6124	6124	6124	6124	6124	6124	6124	6018	6018	6018	6018	6018	6018	6018	6018	5915	5915	6018	6018	6018	6018	6018	6018	6124	6124	6124	6124	6124	6018	6018	6018	6124	6018	6018	6018	6018	6018	6018	6018	5915	5915	5915	5915	5915	5915	5915	5915	5915	5915	5915	5915	5915	5915	5915	5915	5815	5815	5915	5915	5915	5915	6018	6018	6018	6018	6018	6018	6018	6018	6018	6018	6018	6018	6018	6018	5915	6018	6018	6018	5915	5915	5915	5915	0	0	0	0	0	0	0	0	0	0	0	0	0	0	0	0	0	6018	6018	6018	5915	5915	6018	6018	6018	6018	6018	6018	6018	6018	6018	6018	6018	5915	6018	6018	6018	6018	6018	6018	6018	6018	6018	5915	5915	5915	5915	5815	5815	5815	5915	6018	5915	5915	6018	6018	6018	6018	6018	6018	6018	6124	6018	6124	6124	6124	6124	6018	6018	6018	6018	5915	5915	5915	6018	6018	5915	5915	5915	5915	5915	5915	5915	5915	5915	5915	5915	5915	5915	5915	5915	6018	5915	6018	6018	6124	5915	6018	5915	6018	6018	6018	6018	5915	6018	5915	5915	5815	5915	5915	5915	5915	5915	5915	5915	5915	5915	5815	5815	5815	5915	5915	5915	5915	5915	6018	5915	6018	6018	6018	6018	6018	6018	6018	6018	5915	6018	6018	6018	6018	6018	6018	6018	6018	6018	6018	6018	6018	6018	5915	5915	5915	5915	5915	5915	5915	5915	5915	5915	5915	5915	5915	5915	5915	5915	5915	5915	5915	5915	5915	5915	5915	5915	5915	5915	5915	5915	5915	5915	5915	5915	5915	5915	5915	5915	5915	5915	5915	5915	5915	5915	6018	6018	6018	6124	6018	6124	6235	6018	6124	6124	6124	6124	6235	6235	6018	6018	5915	0	0	0	0	0	0	0	0	0	0	6018	6124	6124	6124	6235	6235	6235	6349	6349	6349	6349	6235	6124	6124	6018	6018	6124	6018	6018	6018	6018	6124	6124	0	0	0	0	0	0	0	0	0	0	0	6018	6018	6235	6124	6124	6235	6124	6124	6018	6018	5915	6124	6018	6018	6018	6018	6124	6018	6018	5915	6018	6018	6018	6018	6018	6018	6018	6018	6018	6018	6018	6018	6124	6124	6124	6124	6124	6124	6124	6018	6018	6018	6018	6018	6018	6018	6018	6018	6124	6124	6124	6124	6018	6018	0	0	0	0	0	0	0	0	0	2669	2649	2649	2649	2629	2629	2629	2609	2570	2570	2551	2532	2532	2532	2514	2496	2496	2496	2496	2478	2478	2478	0	0	0	0	0	0	0	0	0	0	0	0	0	0	0	0	0	0	0	0	0	0	0	0	0	0	0	0	0	0	0	0	0	0	0	0	0
0	0	0	889	889	882	880	878	875	873	873	873	873	878	880	884	889	891	896	896	898	901	903	905	910	915	915	920	925	927	927	930	935	937	937	937	0	1091	1091	1088	1088	1085	1088	1088	1085	1085	1085	1085	1088	1085	1085	1088	1085	1085	1085	1085	1085	1088	1088	1091	1091	1091	1095	1095	1095	1098	1098	1095	1091	1091	1091	1091	1091	1095	1095	1202	1197	1197	1197	1197	1197	1197	1202	1202	0	0	0	0	0	0	0	0	0	0	0	0	0	0	0	0	5915	5915	6018	6018	6124	6124	6018	6124	6018	6018	6018	6018	6124	6018	6018	6018	6018	6018	6018	6018	6124	6124	6124	6124	6018	6018	6124	6018	6018	6018	6124	6124	6124	6124	6018	6018	6018	6018	6018	6018	5915	6018	6018	6018	6018	6018	6018	6018	0	6018	6018	6018	6018	5915	5915	5915	5915	5915	5915	5915	5915	6018	5915	6018	6124	6124	6018	6018	6018	6018	6018	6018	5915	6018	6124	6124	6124	6018	6018	6124	6018	6124	6018	6124	6124	6124	6124	6124	6124	6124	6018	6124	6018	6018	6018	6018	6018	6018	6018	6018	6018	6018	6018	6018	6018	6018	6124	6124	6124	6124	6124	6124	6124	6124	6124	6124	6124	6018	6018	6018	6018	5915	5915	5915	5915	5915	5915	5915	5915	5915	5915	5915	5915	5915	5915	5915	5915	5815	5815	5915	5915	5915	5915	6018	6018	6124	6018	6018	6018	6018	6018	6018	6018	6018	6018	6018	6018	5915	5915	6018	6018	6018	0	0	0	0	0	0	0	0	0	0	0	0	0	0	0	0	0	0	0	0	0	6018	6018	6018	6018	6018	6018	6018	6018	6018	6018	6018	6018	6018	6018	6018	6018	6018	6018	6018	6018	6018	6018	6018	6018	6018	6018	5915	5815	5815	5815	5915	5915	6018	6018	6018	6018	6018	6018	6018	6018	6018	6018	6018	6018	6124	6124	6124	6124	6124	6124	6018	6018	6018	6018	5915	5915	5915	6018	6018	6018	6018	5915	5915	5915	5915	5915	5915	5915	5915	6018	6018	6018	6018	6018	6018	6018	6124	6124	6124	6018	6124	6018	6124	6124	6018	6018	5915	6018	5915	5915	5815	5915	5915	5915	6018	6018	6018	6018	6018	6018	5915	5915	5915	6018	6018	6018	5915	5915	6018	6018	6018	6018	6018	6018	6018	6018	6018	6018	5915	6018	6018	6018	6018	6018	6018	6018	6018	6018	6018	6018	6018	6018	6018	6018	5915	5915	5915	5915	5915	5915	5915	5915	5915	5915	5915	5915	5915	5915	5915	5915	5915	5915	5915	5915	5915	6018	5915	5915	5915	5915	5915	6018	6018	5915	6018	6018	6018	5915	5915	5915	5915	5915	5915	5915	6018	6018	6018	6018	6124	6018	6235	6124	6124	6124	6235	6235	6349	6349	6018	6018	0	0	0	0	0	0	0	6124	6124	0	6124	6124	6124	6124	6124	6235	6235	6124	6235	6235	6235	6235	6235	6124	6124	6124	6124	6124	6018	6018	6018	6124	6235	6124	6124	0	0	0	0	0	0	0	6124	6124	5915	6018	6018	6124	6018	6124	6124	6124	6124	6018	6018	6018	6124	6124	6124	6124	6124	6124	6124	6018	6018	6018	6018	6018	6018	6018	6018	6018	6018	6124	6124	6018	6124	6124	6124	6124	6124	6124	6124	6018	6018	5915	6018	5915	5915	6018	6018	6018	6018	6018	6124	6124	6124	6124	6124	6124	0	0	0	0	0	0	0	0	2669	2629	2629	2629	2629	2629	2609	2609	2570	2570	2551	2532	2532	2532	2514	2496	2496	2496	2496	2478	2478	2478	0	0	0	0	0	0	0	0	0	0	0	0	0	0	0	0	0	0	0	0	0	0	0	0	0	0	0	0	0	0	0	0	0	0	0	0	0
0	0	0	887	887	884	882	880	878	875	873	873	873	875	880	884	889	891	896	898	898	901	903	905	910	913	917	922	927	927	930	932	935	937	937	935	935	0	1091	1091	1091	1088	1088	1088	1085	1085	1085	1085	1088	1085	1088	1088	1088	1085	1085	1088	1088	1088	1088	1091	1091	1095	1095	1095	1098	1098	1098	1098	1091	1091	1091	1091	1091	1095	1095	1189	1202	1197	1202	1202	1202	1202	1202	1210	1210	1210	0	0	0	0	0	0	0	0	0	0	0	0	0	0	5915	6018	6018	6018	6124	6124	6018	6124	6124	6124	6124	6124	6124	6124	6018	6018	6124	6018	6018	6124	6124	6124	6124	6124	6124	6124	6124	6018	6018	6018	6124	6124	6124	6124	6018	6018	6124	6124	6124	6018	5915	5915	6124	6124	6124	6018	6018	6018	6018	6235	6235	5915	5915	5915	5915	5915	5915	5915	5915	5915	5915	5915	6018	6018	6018	6124	6018	6018	6018	6018	5915	5915	5915	6018	6124	6124	6124	6018	6018	6124	6124	6124	6124	6124	6124	6124	6124	6235	6124	6124	6124	6124	6018	6018	6018	6018	6018	6018	6018	5915	6018	6018	6018	6018	6018	6124	6124	6124	6124	6124	6235	6124	6124	6124	6235	6124	6124	6018	6018	6018	5915	5915	5915	5915	5915	5915	5915	5915	5915	5915	6018	6018	5915	5915	5915	5915	5915	5815	5915	5915	5915	5915	5915	6018	6018	6018	6124	6124	6124	6124	6018	6018	6018	6018	6018	6018	6018	6018	5915	0	0	0	0	0	0	0	0	0	0	0	0	0	0	0	0	0	0	3309	3309	3309	0	0	0	0	0	0	6018	6018	6018	6018	6018	6018	6018	6124	6124	6018	6018	6018	6018	6018	6018	6018	6018	6018	6018	6018	6018	6018	6018	6018	6018	6018	5915	5915	5915	5915	6124	6018	6018	6124	6124	6124	6124	6124	6124	6124	6124	6124	6124	6124	6124	6124	6124	6124	6124	6124	6124	6018	6018	6018	6124	6124	6018	6018	6018	5915	5915	5915	5915	5915	5915	5915	6018	6018	6018	6018	6018	6124	6018	6124	6124	6124	6124	6124	6124	6124	6124	6018	6018	5915	6018	5915	5915	5915	5915	6018	6018	6018	6018	6018	6018	6124	6124	6018	6018	6018	6018	6018	6018	5915	5915	6018	6018	6018	6018	6018	6124	6124	6124	6018	6018	6018	6018	6018	6018	6018	6018	6018	6018	6018	6018	6018	6018	6018	6018	6018	6018	5915	5915	5915	5915	5915	5915	5915	5915	5915	6018	5915	5915	5915	5915	5915	5915	5915	5915	6018	6018	6018	6018	6018	6018	6018	5915	5915	6018	6018	6018	6124	6124	6124	6018	5915	5915	5915	5915	5915	5915	6018	6018	6018	6018	6018	6018	6124	6124	6235	6235	6349	6349	6349	6349	0	0	0	0	0	0	0	0	6349	6349	6124	6235	6235	6235	6235	6235	6235	6124	6124	6124	6235	6235	6235	6235	6235	6235	6124	6124	6124	6124	6124	6124	6124	6124	6235	6124	6124	6235	6235	0	0	0	0	0	6124	6018	5915	6018	6018	6124	6124	6124	6124	6124	6124	6018	6018	6018	6124	6124	6124	6124	6124	6124	6124	6124	6124	6018	6018	6018	6018	6018	6018	6018	6124	6124	6124	6124	6124	6124	6124	6124	6124	6124	6124	6018	6018	5915	6018	6018	5915	6018	6018	6124	6124	6124	6124	6124	6124	6124	6124	6124	6124	0	0	0	0	0	0	0	0	2609	2609	2609	2629	2609	2609	2589	2589	2570	2551	2551	2532	2514	2496	2496	2478	2496	2478	2478	2478	2478	0	0	0	0	0	0	0	0	0	0	0	0	0	0	0	0	0	0	0	0	0	0	0	0	0	0	0	0	0	0	0	0	0	0	0	0	0
0	0	0	889	889	887	884	882	880	875	875	875	875	880	884	889	889	891	896	898	898	901	903	905	910	915	920	925	927	930	930	932	932	935	935	935	935	0	1091	1091	1091	1088	1088	1088	1085	1081	1081	1088	1088	1085	1085	1085	1085	1085	1085	1088	1088	1088	1091	1091	1095	1095	1095	1095	1095	1095	1095	1095	1091	1091	1088	1088	1088	1091	1091	1091	1202	1202	1202	1206	1202	1206	1206	1210	1214	1214	0	0	0	0	0	0	0	0	0	0	0	0	0	0	5915	6018	6124	6124	6124	6124	6018	6124	6124	6124	6124	6124	6124	6124	6124	6124	6124	6124	6124	6124	6124	6124	6124	6124	6124	6124	6124	6124	6018	6018	6124	6124	6124	6124	6018	6018	6018	6018	6124	6124	5915	5915	5915	6124	6124	6124	6124	6124	6018	6235	6235	5915	5915	6018	6018	5915	5915	5915	5915	5915	6018	6018	6018	6018	6124	6124	6124	6124	6124	6018	6018	5915	5915	6018	6124	6124	6124	6124	6124	6124	6124	6124	6124	6124	6124	6124	6124	6235	6235	6124	6124	6124	6018	6018	6018	6018	6018	6018	6018	5915	6018	6018	6018	6124	6124	6124	6124	6124	6124	6124	6124	6124	6124	6124	6235	6235	6124	6124	6018	6018	6018	5915	5915	5915	5915	5915	5915	6018	6018	6018	6018	6018	6018	5915	5915	5915	5915	5915	5915	5915	5915	5915	5915	5915	6018	6124	6124	6124	6124	6124	6018	6018	6018	6018	6018	6018	6018	6018	6018	0	0	0	0	0	0	0	0	0	0	3309	3309	3309	3309	3309	3341	3341	3341	3341	3341	3341	3341	3341	3341	0	0	0	0	0	6018	6018	6124	6124	6124	6124	6124	6018	6018	6018	6018	6018	6018	6018	6018	6018	6124	6124	6124	6124	6124	6018	6018	6018	6018	6018	6018	6018	6124	6124	6124	6124	6124	6124	6124	6124	6124	6124	6124	6235	6235	6235	6235	6235	6124	6124	6124	6124	6124	6124	6124	6018	6124	6124	6124	6018	6018	6018	6018	5915	5915	5915	5915	5915	6018	6018	6018	6018	6018	6124	6124	6235	6124	6124	6124	6124	6124	6124	6124	6124	6124	6018	6124	6018	6018	5915	6018	6018	6018	6018	6124	6124	6124	6124	6124	6124	6124	6124	6018	6124	6018	6018	6018	6018	6018	6124	6124	6124	6124	6235	6235	6018	6018	6018	6018	6018	6018	6018	6018	6018	6018	6018	6124	6018	6018	6018	6018	6018	6018	5915	5915	5915	5915	5915	5915	5915	5915	5915	5915	5915	6018	5915	5915	5915	5915	6018	6018	6018	6018	6018	6018	6018	6018	6018	6018	6018	6124	6124	6124	6124	6124	6124	6018	6018	5915	5915	5915	5915	5915	6018	6018	6124	6124	6018	6018	6124	6124	6124	6349	6468	6468	6349	0	0	0	0	0	0	0	0	0	6349	6235	6235	6349	6349	6235	6235	6235	6235	6235	6235	6235	6235	6235	6235	6349	6235	6235	6235	6235	6124	6124	6124	6124	6124	6124	6124	6235	6235	6235	6235	6235	6235	6235	6235	6235	6124	6018	5915	6018	6018	6124	6124	6235	6124	6124	6124	6018	6018	6018	6124	6124	6124	6124	6235	6124	6124	6124	6124	6124	6018	6018	6018	6018	6018	6124	6124	6124	6124	6235	6349	6235	6124	6124	6124	6018	6124	6018	5915	5915	6018	6018	6018	6018	6018	6124	6124	6124	6124	6124	6124	6124	6124	6124	6124	6124	0	0	0	0	0	0	0	2609	2609	2609	2629	2609	2609	2609	2589	2570	2532	2514	2514	2496	2496	2478	2478	2478	2478	2478	2460	2460	0	0	0	0	0	0	0	0	0	0	0	0	0	0	0	0	0	0	0	0	0	0	0	0	0	0	0	0	0	0	0	0	0	0	0	0	0
0	0	0	889	889	889	887	884	887	880	880	880	880	884	884	889	889	891	896	896	898	901	903	905	910	913	920	925	927	930	932	935	935	937	937	940	940	0	0	0	0	0	0	1088	1081	1081	1078	1081	1088	1081	1085	1085	1088	1088	1085	1088	1088	1091	1091	1091	1091	1091	1095	1091	1095	1095	1095	1091	1091	1088	1088	1088	1088	1091	1091	1091	1202	1202	1202	1206	1206	1206	1210	1214	1214	1206	1206	0	0	0	0	0	0	0	0	0	0	0	0	0	5815	6018	6018	6018	6235	6235	6124	6235	6235	6235	6235	6235	6235	6235	6124	6124	6124	6124	6124	6124	6235	6235	6235	6235	6235	6124	6124	6124	6124	6124	6124	6124	6124	6124	6124	6018	6018	6124	6124	6124	6124	6124	6124	6124	6235	6235	6235	6235	6235	6124	6124	6124	6124	6124	6124	6124	6018	6018	6124	6124	6124	6018	6018	6124	6124	6124	6124	6124	6124	6124	6018	6018	6018	6124	6124	6124	6124	6124	6124	6124	6124	6124	6018	6124	6124	6124	6235	6235	6235	6235	6124	6124	6124	6124	6124	6018	6124	6124	6018	5915	6124	6018	6124	6124	6124	6124	6124	6124	6124	6124	6124	6124	6235	6235	6235	6235	6235	6124	6124	6018	6018	6018	5915	5915	5915	5915	6018	6018	6018	6018	6124	6124	6018	6018	5915	5915	5915	5915	5915	5915	5915	5915	5915	6018	6018	6124	6124	6124	6124	6124	6018	6018	6018	6018	6018	6018	6018	6018	6018	0	0	0	0	0	0	0	0	0	0	3341	3341	3341	3341	3309	3341	3341	3341	3341	3341	3341	3341	3309	3309	3309	3309	0	0	0	0	0	6124	6124	6124	6124	6124	6124	6124	6018	6018	6018	6018	6018	6124	6124	6124	6124	6124	6124	6124	6018	6018	6018	6018	6018	6018	6018	6124	6124	6124	6124	6124	6124	6124	6124	6124	6124	6124	6235	6235	6235	6235	6235	6235	6124	6124	6124	6124	6124	6124	6124	6124	6124	6124	6124	6124	6018	6018	6018	5915	5915	5915	5915	6018	6124	6124	6124	6124	6235	6124	6235	6235	6235	6124	6124	6124	6235	6235	6235	6124	6124	6124	6018	6124	6018	6018	6018	6018	6124	6124	6124	6124	6124	6124	6124	6124	6124	6018	6018	6018	6018	6018	6018	6018	6124	6124	6124	6235	6235	6124	6018	6018	6018	6018	5915	6018	6018	6018	6018	6018	6124	6124	6124	6124	6124	6124	6018	6018	6018	6018	5915	5915	5915	5915	6018	6018	6018	6018	6018	6018	6018	6018	6018	5915	5915	6018	5915	5915	6018	6018	6018	6018	6018	6018	6018	6124	6124	6124	6124	6124	6124	6124	6018	6018	5915	6018	5915	5915	6018	6018	6018	6124	6124	6018	6124	6235	6235	6349	6468	6468	6468	0	0	0	0	0	0	0	0	0	6468	6349	6349	6349	6349	6349	6349	6235	6235	6235	6235	6235	6235	6235	6235	6235	6235	6235	6235	6235	6235	6124	6124	6124	6124	6124	6124	6124	6235	6235	6235	6235	6235	6349	6235	6235	6235	0	0	0	0	6349	6349	6349	6235	6235	6235	6124	6124	6018	6235	6235	6235	6235	6235	6235	6235	6124	6124	6124	6124	6018	6018	6124	6124	6124	6124	6235	6235	6349	6349	6235	6124	6124	6124	6124	6124	6124	6018	6018	6018	6018	6018	6124	6018	6124	6124	6124	6124	6124	6124	6124	6124	6124	6124	6124	0	0	0	0	0	0	0	2609	2609	2609	2609	2609	2609	2589	2570	2570	2532	2532	2514	2496	2478	2478	2460	2478	2478	2478	2460	2460	0	0	0	0	0	0	0	0	0	0	0	0	0	0	0	0	0	0	0	0	0	0	0	0	0	0	0	0	0	0	0	0	0	0	0	0	0
0	0	0	889	889	891	889	887	889	889	884	884	884	887	887	889	891	894	896	898	901	901	903	910	910	917	925	927	927	930	935	935	935	937	940	940	942	942	0	0	0	0	0	0	1081	1078	1078	1085	1088	1081	1085	1085	1088	1088	1088	1088	1088	1091	1088	1091	1091	1091	1091	1091	1091	1091	1091	1091	1088	1088	1088	1088	1088	1088	1088	1088	1202	1202	1202	1202	1202	1202	1206	1214	1210	1223	1227	1227	0	0	0	0	0	0	0	0	0	0	0	0	5815	6235	6235	6235	6235	6235	6235	6235	6235	6235	6235	6235	6235	6235	6124	6124	6124	6124	6235	6235	6235	6235	6235	6235	6235	6235	6124	6124	6124	6124	6124	6124	6124	6124	6124	6124	6124	6124	6124	6124	6124	6124	6124	6235	6235	6235	6235	6235	6235	6124	6124	6124	6124	6124	6124	6235	6124	6124	6124	6124	6124	6124	6124	6124	6124	6124	6124	6124	6124	6124	6018	6018	6018	6124	6124	6124	6124	6124	6124	6235	6124	6018	6018	6124	6124	6124	6124	6235	6235	6235	6235	6124	6124	6124	6124	6124	6124	6018	6018	6018	6124	6018	6124	6124	6124	6124	6124	6124	6124	6124	6124	6124	6235	6235	6235	6235	6235	6235	6235	6124	6018	6018	6018	6018	5915	5915	6018	6018	6124	6018	6124	6124	6018	6018	5915	5915	5915	5915	5915	5915	5915	5915	6018	6018	6018	6124	6124	6124	6124	6124	6124	6018	6018	6018	6018	6018	6018	6018	6018	0	0	0	0	0	0	0	0	0	3341	3341	3341	3341	3341	3341	3341	3341	3373	3341	3341	3341	3341	3341	3341	3341	3341	3341	0	0	0	0	0	0	0	6235	6124	6124	6124	6018	6018	6124	6124	6124	6124	6235	6235	6124	6124	6124	6124	6124	6124	6124	6124	6124	6124	6124	6124	6124	6124	6124	6124	6124	6124	6124	6235	6235	6235	6235	6235	6235	6235	6235	6235	6235	6235	6124	6124	6124	6124	6124	6124	6124	6124	6124	6124	6124	6018	6018	6018	5915	6018	6018	6018	6124	6124	6124	6235	6235	6235	6235	6235	6235	6124	6124	6124	6235	6235	6235	6124	6124	6124	6124	6124	6124	6124	6124	6124	6124	6124	6124	6124	6124	6124	6124	6124	6124	6018	6018	6018	6018	6018	6018	6018	6124	6124	6235	6235	6235	6235	6124	6124	6018	6018	6018	6018	6018	6018	6018	6018	6124	6124	6124	6124	6124	6124	6124	6124	6124	6018	6018	6018	6018	6018	6018	6018	6018	6018	6018	6018	6018	6018	6018	5915	5915	6018	6018	6018	6018	6018	6018	6018	6018	6018	6018	6124	6124	6124	6124	6124	6124	6124	6124	6018	6124	6018	6018	5915	6018	6124	6124	6124	6018	6018	6124	6124	6235	6349	6349	6468	6468	0	0	0	0	0	0	0	0	6468	6349	6349	6349	6349	6349	6349	6349	6349	6235	6235	6235	6235	6235	6235	6235	6235	6235	6235	6235	6235	6235	6124	6124	6124	6124	6124	6124	6235	6235	6235	6235	6235	6349	6349	6349	6349	6349	6349	0	0	0	6349	6349	6349	6349	6235	6235	6124	6124	6124	6235	6235	6349	6349	6349	6349	6349	6235	6235	6235	6124	6124	6124	6124	6124	6235	6235	6235	6235	6349	6349	6235	6124	6124	6235	6124	6124	6124	6018	6018	6018	6018	6018	6124	6018	6124	6124	6124	6124	6235	6235	6235	6235	6124	6124	6018	6018	0	0	0	0	0	2609	2609	2609	2589	2609	2609	2609	2589	2570	2570	2532	2532	2514	2496	2478	2478	2460	2478	2478	2478	2478	2478	0	0	0	0	0	0	0	0	0	0	0	0	0	0	0	0	0	0	0	0	0	0	0	0	0	0	0	0	0	0	0	0	0	0	0	0	0
0	0	0	891	891	891	891	891	889	889	889	889	887	887	889	891	894	896	898	901	901	903	903	908	910	917	925	927	927	930	935	935	937	937	937	940	940	940	0	0	0	0	0	0	0	1078	1078	1088	1088	1085	1085	1085	1088	1088	1088	1088	1088	1091	1088	1091	1091	1091	1091	1091	1088	1091	1091	1091	1085	1085	1085	1085	1088	1088	1088	1088	1202	1202	1202	1202	1202	1202	1206	1219	1210	1223	1232	1236	1249	1249	1249	1249	1249	0	0	0	0	0	0	0	0	6349	6349	6349	6349	6349	6235	6235	6235	6235	6235	6235	6235	6124	6124	6124	6124	6124	6235	6235	6235	6235	6235	6235	6235	6235	6124	6124	6124	6124	6124	6124	6124	6124	6124	6124	6235	6235	6124	6235	6235	6124	6124	6235	6235	6235	6235	6235	6235	6235	6235	6124	6124	6124	6124	6235	6124	6124	6235	6235	6124	6124	6124	6124	6124	6124	6124	6235	6124	6124	6018	6018	6018	6124	6124	6124	6124	6124	6235	6235	6124	6124	6124	6124	6235	6235	6235	6349	6349	6349	6235	6235	6235	6235	6124	6124	6124	6018	6018	6018	6018	6018	6235	6124	6124	6124	6124	6124	6018	6124	6124	6124	6235	6235	6235	6235	6349	6235	6235	6124	6018	6018	6018	6018	6018	6018	6018	6124	6124	6124	6124	6124	6124	6018	6018	5915	5915	5915	5915	5915	5915	6018	6018	6018	6018	6124	6124	6124	6124	6124	6124	6018	6018	6018	6018	6018	6018	6018	6018	0	0	0	0	0	0	0	3373	3341	3341	3341	3341	3341	3341	3341	3341	3341	3341	3341	3341	3341	3341	3341	3341	3341	3341	3373	3373	0	0	0	0	0	0	6124	6124	6124	6124	6124	6124	6124	6124	6124	6235	6235	6235	6124	6124	6124	6124	6124	6124	6124	6124	6124	6124	6124	6235	6124	6124	6124	6235	6235	6235	6235	6235	6235	6235	6235	6235	6235	6235	6235	6235	6235	6235	6124	6124	6124	6124	6235	6235	6235	6235	6235	6124	6124	6124	6124	6018	6018	6018	6018	6124	6124	6124	6235	6124	6235	6235	6235	6235	6124	6124	6124	6124	6124	6124	6124	6124	6124	6124	6124	6124	6124	6124	6124	6124	6124	6124	6124	6124	6124	6124	6124	6124	6124	6124	6124	6018	6018	6018	6124	6124	6235	6235	6235	6235	6235	6235	6124	6124	6018	6018	6018	6018	6018	6018	6018	6124	6124	6124	6235	6235	6235	6235	6235	6124	6124	6018	6018	6018	6018	6018	6018	6124	6124	6124	6124	6124	6124	6018	6018	6018	6018	6018	6124	6018	6124	6124	6124	6124	6124	6124	6124	6124	6124	6235	6235	6235	6124	6235	6124	6124	6124	6124	6124	6018	6124	6124	6124	6124	6018	6018	6018	6124	0	6349	6349	0	0	0	0	0	0	0	0	0	0	6349	6349	6349	6468	6468	6468	6468	6349	6349	6349	6235	6235	6235	6235	6235	6235	6349	6349	6349	6235	6235	6235	6235	6124	6124	6124	6235	6124	6235	6235	6349	6349	6349	6349	6349	6349	6349	6349	6349	0	0	0	0	6349	6349	6235	6235	6124	6124	6124	6124	6235	6235	6349	6235	6235	6349	6349	6468	6235	6235	6124	6124	6124	6235	6235	6235	6235	6235	6349	6349	6349	6235	6124	6124	6235	6235	6235	6124	6124	6124	6124	6124	6018	6018	6018	6124	6124	6124	6124	6235	6235	6235	6124	6124	6124	6018	6018	0	0	0	0	0	2609	2609	2609	2589	2609	2589	2589	2589	2589	2589	2589	2496	2496	2496	2478	2478	2460	2478	2478	2478	2460	2460	0	0	0	0	0	0	0	0	0	0	0	0	0	0	0	0	0	0	0	0	0	0	0	0	0	0	0	0	0	0	0	0	0	0	0	0	0
0	0	0	894	894	896	894	894	896	894	894	894	894	894	894	894	894	894	898	901	901	903	905	908	908	915	922	927	927	930	935	937	937	937	940	940	942	942	0	0	0	0	0	0	0	1078	1078	1088	1088	1081	1081	1081	1088	1088	1088	1088	1088	1088	1088	1088	1088	1088	1091	1088	1088	1091	1091	1085	1085	1081	1081	1081	1085	1085	1085	1085	1206	1206	1206	1202	1202	1206	1219	1219	1219	1223	1227	1240	1245	1245	1245	1245	1245	1245	0	0	0	0	0	0	0	6349	6468	6468	6468	6349	6349	6349	6235	6235	6235	6235	6235	6235	6235	6235	6235	6235	6235	6235	6235	6235	6235	6235	6235	6235	6235	6235	6235	6235	6235	6235	6235	6235	6235	6349	6349	6349	6349	6235	6235	6235	6235	6235	6235	6235	6235	6235	6235	6235	6235	6124	6124	6124	6124	6235	6235	6235	6124	6235	6124	6124	6235	6235	6124	6235	6235	6235	6235	6124	6018	6018	6018	6124	6124	6124	6235	6235	6235	6349	6235	6235	6235	6235	6235	6235	6235	6349	6349	6349	6349	6235	6235	6235	6235	6124	6018	6018	6018	6018	6235	6235	6235	6235	6235	6124	6124	6124	6124	6124	6235	6235	6349	6349	6349	6349	6349	6349	6235	6235	6018	6018	6018	6018	6018	6018	6124	6124	6235	6124	6124	6124	6124	6018	6018	6018	5915	5915	5915	6018	5915	6018	6018	6018	6018	6124	6124	6124	6124	6124	6018	6018	6018	6018	6018	6018	6018	6018	0	0	0	0	0	0	0	3373	3373	3341	3341	3341	3341	3341	3373	3373	3373	3373	3373	3341	3341	3341	3341	3341	3341	3341	3341	3341	3373	3373	3373	0	0	0	0	6124	6124	6124	6124	6124	6124	6124	6235	6235	6235	6235	6235	6124	6124	6124	6124	6124	6124	6124	6124	6124	6124	6124	6235	6124	6124	6124	6124	6124	6235	6235	6235	6235	6235	6235	6235	6235	6235	6235	6235	6235	6235	6124	6124	6124	6124	6124	6235	6124	6124	6124	6124	6124	6124	6124	6018	6018	6124	6124	6124	6235	6235	6235	6235	6235	6235	6235	6235	6124	6124	6124	6124	6124	6124	6124	6124	6124	6235	6235	6235	6235	6124	6235	6124	6235	6124	6124	6124	6124	6124	6124	6124	6124	6018	6124	6124	6124	6124	6124	6124	6235	6235	6235	6235	6235	6235	6124	6124	6124	6018	6018	6018	6124	6124	6124	6124	6235	6235	6235	6235	6235	6235	6235	6124	6124	6018	6124	6124	6124	6124	6124	6124	6124	6124	6124	6235	6124	6018	6018	6018	6124	6124	6124	6124	6124	6124	6124	6235	6235	6124	6124	6235	6124	6235	6235	6124	6124	6235	6124	6124	6124	6124	6124	6124	6235	6235	6235	6235	6235	6235	6235	0	0	0	0	0	0	0	0	0	0	0	0	0	0	6349	6349	6468	6468	6468	6468	6468	6468	6468	6349	6349	6349	6235	6235	6235	6235	6235	6349	6349	6235	6349	6235	6235	6235	6235	6235	6235	6235	6235	6235	6349	6349	6349	6349	6349	6349	6349	6349	6349	0	0	0	0	6349	6235	6235	6235	6235	6124	6124	6235	6349	6235	6349	6349	6349	6349	6349	6468	6468	6349	6235	6235	6235	6349	6235	6235	6235	6349	6349	6468	6349	6235	6235	6235	6235	6235	6235	6235	6235	6235	6235	6124	6124	6124	6018	6124	6124	6124	6124	6235	6124	6124	6124	6018	6018	6018	6018	0	0	0	0	0	2609	2609	2589	2589	2589	2589	2589	2589	2589	2589	2589	2496	2478	2478	2460	2460	2460	2460	2478	2478	2460	2460	0	0	0	0	0	0	0	0	0	0	0	0	0	0	0	0	0	0	0	0	0	0	0	0	0	0	0	0	0	0	0	0	0	0	0	0	0
