0	0	0	0	0	0	942	942	945	948	950	953	958	961	963	966	969	969	972	974	977	980	985	991	994	997	1003	1006	1006	1011	1011	1014	1020	1026	1030	1036	1042	1045	1045	1048	1048	1052	1052	1052	1052	1052	1052	1052	1048	0	0	0	1690	1690	1690	1690	1698	1698	1698	1706	1706	1698	1698	1698	1698	1698	1698	1698	1698	1706	1698	1698	1706	1706	1698	1698	1698	1698	1698	1698	1698	1690	1698	1698	1706	1698	1706	1706	1715	1715	0	0	0	0	0	0	0	0	0	0	0	0	0	1681	1681	1715	1715	1715	1715	1715	1715	1706	1706	1706	1706	1706	1706	1706	1715	1715	1715	1715	1715	1715	1723	1723	1715	1715	1706	1706	1706	1715	1715	1715	1715	1715	1715	1706	1706	1706	1706	1715	1715	1741	1741	1750	1759	1768	1768	1768	0	0	0	0	7779	7959	7959	8146	8146	8146	8146	8146	8146	8146	8146	8146	8343	8146	8343	8343	8343	8343	8343	8343	8343	8343	8343	8146	8146	8146	8146	8146	8146	8146	8146	8146	8146	8146	8146	8146	7959	7959	8146	8146	8146	8146	8146	7959	7959	7959	7959	8146	7959	7959	7959	7959	7959	8343	8343	8146	8343	8146	8343	8146	8343	8146	8343	8343	8343	8343	8343	8343	8146	8146	7959	7959	7959	7959	7959	7959	8146	8343	8343	8343	8146	8343	8343	8343	8343	8343	8343	8343	8343	8343	8343	8146	8343	8343	8343	8343	8343	8343	8343	8343	8343	8343	8343	8343	8343	8343	0	0	0	0	0	0	2869	2845	2822	2822	2822	2822	2845	2845	2845	2845	2845	2845	2845	2845	2845	2822	2777	2777	2777	2754	2754	2754	2754	2733	2733	2733	2711	2711	2711	2711	2711	2733	2733	2711	2711	2711	2711	2690	2690	2690	2690	2690	2711	2711	2711	2711	2711	2733	2754	2733	2733	2733	2733	2733	2733	2711	2733	2733	2754	2777	2777	2777	2777	2799	2799	2799	2799	2822	2869	2869	2869	2869	2845	2845	2799	2799	2799	2799	2799	2799	2799	2799	2799	2799	2777	2733	2733	0	0	0	8343	8343	8343	8343	8343	8343	8343	8343	8550	8550	8343	8343	8343	8343	8550	8343	8343	8343	8343	8146	8146	8146	8146	7959	7959	8146	8146	8146	8146	8343	8343	8343	8343	8343	8343	8550	8550	8343	8343	8343	8146	8146	8146	8146	8146	8146	8146	8146	8146	8146	8146	8146	8146	8146	8146	8146	7959	7959	7959	7959	7959	7959	7959	7959	7959	7959	7959	7959	7959	7959	7959	7959	8146	8146	8146	8146	8146	8146	8146	8146	8146	8146	8146	7959	8146	8146	8146	8146	8146	8146	8146	8146	8146	8146	8146	8146	8146	8146	8146	8146	7959	8146	8146	8146	8146	8146	8146	8146	8146	8146	8343	8343	8146	8146	8146	8146	8146	8146	8146	8146	8343	8146	8146	8146	8146	8146	8146	8146	8343	8343	8343	8343	8550	8343	8343	8146	8146	8146	8146	8146	8343	8343	8343	8343	8343	8343	8343	8343	8146	8146	8146	8146	8146	8146	8146	8146	8146	8550	8550	8550	8550	8550	8343	8343	8146	8146	8343	8146	8343	8343	8550	8550	8550	8550	8550	8550	8550	8550	8343	8343	8343	8343	8343	8550	8550	8550	8343	8343	8550	8550	8550	8550	8550	8550	8550	8550	8550	8550	8550	8343	8343	8343	8146	8343	8343	0	0	0	0	0	0	2649	2649	0	0	2589	2570	2570	2570	2570	2570	2551	2532	2514	2514	2514	2496	2496	2478	2478	2460	2443	2443	2443	2443	2426	2426	2426	2426	2409	2409	2392	2376	2359	2343	2343	2343	0	0	0	0	0	0	0	0	0	0	0	0	0	0	0	0	0	0	0	0	0	0	0	0	0	0	0	0	0	0	0	0	0	0	0	0	0
0	0	0	0	0	937	940	942	942	948	950	950	958	961	966	969	972	972	974	977	980	983	985	991	997	1000	1003	1006	1006	1011	1011	1017	1023	1030	1030	1033	1042	1045	1045	1045	1048	1052	1052	1052	1048	1048	1048	1048	1048	0	0	0	1690	1690	1690	1698	1698	1698	1698	1706	1706	1698	1706	1698	1706	1698	1706	1698	1706	1706	1706	1706	1706	1706	1706	1706	1706	1706	1706	1706	1706	1698	1706	1706	1706	1715	1715	1715	1715	1715	1750	1750	0	1750	1750	0	0	0	0	0	0	0	0	0	0	1715	1723	1723	1723	1715	1723	1715	1715	1715	1706	1715	1715	1715	1723	1715	1723	1723	1723	1723	1732	1723	1723	1715	1715	1698	1706	1715	1715	1715	1715	1715	1715	1715	1715	1715	1715	1715	1723	1741	1741	1759	1759	1768	1768	1768	1768	0	0	0	0	7959	8146	8146	8146	8146	8146	8146	8146	8146	8146	8146	8343	8343	8343	8343	8343	8343	8343	8343	8343	8343	8343	8146	8146	8146	8146	7959	8146	8146	8146	8146	8146	8146	8146	8146	7959	7959	8146	7959	7959	7959	7959	7959	7959	7959	7959	7959	7959	7959	7959	7959	7959	8146	8146	8146	8343	8343	8343	8146	8343	8343	8343	8343	8343	8343	8343	8343	8343	8146	8146	8146	7959	8146	7959	7959	8146	8146	8343	8146	8146	8343	8343	8343	8343	8343	8343	8343	8343	8343	8343	8343	8146	8343	8343	8146	8343	8146	8146	8146	8146	8146	8343	8343	8343	8343	0	0	0	0	0	0	2845	2822	2822	2799	2799	2822	2822	2822	2845	2845	2845	2845	2845	2845	2822	2822	2777	2777	2777	2754	2754	2754	2754	2733	2733	2733	2711	2711	2711	2711	2711	2711	2733	2711	2711	2711	2711	2690	2690	2690	2711	2711	2711	2711	2711	2733	2711	2711	2733	2733	2733	2733	2711	2711	2733	2733	2733	2754	2754	2777	2777	2777	2777	2777	2777	2799	2799	2822	2845	2869	2845	2869	2845	2822	2799	2799	2799	2799	2799	2799	2799	2799	2799	2799	2777	2777	2777	0	0	8343	8343	8343	8343	8343	8343	8343	8343	8343	8343	8343	8343	8343	8343	8343	8550	8343	8343	8343	8343	8343	8146	8146	8146	7959	7959	7959	8146	8146	8343	8343	8343	8343	8343	8343	8343	8343	8550	8343	8343	8343	8343	8343	8343	8146	8146	8146	8146	8146	8146	8146	8146	8146	8146	8146	8146	8146	8146	8146	7959	7959	7959	7959	7959	7959	7959	7959	7959	7959	7959	7959	7959	7959	8146	8146	8146	8146	8146	8146	8146	8146	8146	8146	8146	8146	8146	8146	8146	8146	8146	8146	8146	8146	8146	8146	8146	8146	8146	8146	8146	8146	8146	8146	8146	8146	8146	8146	8146	8343	8343	8343	8343	8343	8146	8146	8146	8146	8146	8146	8146	8146	8146	8146	8146	8146	8146	8146	8146	8146	8146	8146	8343	8343	8343	8343	8343	8146	8146	8146	8146	8146	8146	8343	8343	8343	8343	8343	8343	8343	8146	8343	8146	8146	8146	8146	8146	8146	8343	8550	8550	8550	8767	8767	8343	8343	8146	8146	8146	8146	8343	8343	8550	8550	8343	8343	8550	8550	8550	8550	8343	8343	8343	8343	8343	8550	8343	8343	8343	8343	8550	8550	8550	8550	8550	8550	8550	8550	8550	8550	8550	8550	8343	8343	8343	8343	8343	0	0	0	0	0	0	0	0	0	0	2570	2570	2570	2570	2570	2551	2551	2532	2514	2514	2514	2496	2496	2478	2478	2460	2443	2443	2426	2426	2426	2426	2409	2409	2409	2392	2376	2359	2359	2343	2343	2343	0	0	0	0	0	0	0	0	0	0	0	0	0	0	0	0	0	0	0	0	0	0	0	0	0	0	0	0	0	0	0	0	0	0	0	0	0
0	0	0	0	0	937	940	942	942	948	948	950	958	961	963	966	972	972	972	977	983	983	988	994	1000	1003	1003	1006	1006	1008	1011	1017	1023	1030	1030	1036	1042	1045	1045	1045	1048	1052	1052	1052	1052	1052	1055	1055	1055	0	0	0	0	1690	1690	1698	1698	1698	1698	1706	1706	1706	1698	1698	1706	1698	1706	1706	1706	1706	1706	1706	1706	1706	1706	1706	1706	1706	1706	1706	1706	1706	1706	1706	1715	1723	1723	1723	1715	1732	1741	1750	1741	1750	1750	1750	0	0	0	0	0	0	0	0	0	0	1741	1732	1732	1732	1732	1732	1732	1732	1723	1723	1723	1723	1723	1723	1723	1732	1732	1723	1732	1732	1723	1723	1715	1715	1706	1715	1715	1723	1723	1723	1723	1723	1723	1723	1732	1732	1741	1741	1750	1759	1768	1768	1768	1786	1786	0	0	0	0	0	8146	8146	8146	8146	8146	8146	8146	8146	8146	8146	8146	8146	8343	8146	8343	8343	8343	8343	8343	8343	8146	8146	8146	8146	8146	7959	8146	8146	7959	8146	7959	7959	7959	7959	7959	7779	7779	7779	7779	7959	7959	8146	8146	7959	8146	8146	7959	7959	7959	7959	7959	8146	8146	8146	8343	8146	8146	8146	8146	8343	8343	8343	8343	8343	8343	8343	8146	8146	7959	8146	8146	8146	8146	8146	8146	8343	8343	8343	8343	8343	8343	8343	8343	8343	8343	8343	8343	8343	8343	8343	8146	8343	8343	8146	8343	8343	8146	8146	8146	8146	8343	8146	8146	0	0	0	0	0	0	0	2845	2822	2822	2799	2799	2822	2822	2822	2845	2845	2845	2845	2845	2845	2822	2822	2777	2777	2777	2754	2754	2754	2733	2733	2733	2711	2711	2711	2711	2711	2711	2711	2733	2711	2711	2711	2711	2711	2690	2690	2690	2711	2711	2711	2711	2711	2711	2711	2711	2711	2711	2711	2711	2711	2733	2733	2733	2754	2754	2754	2777	2777	2777	2777	2777	2799	2799	2822	2845	2869	2869	2869	2869	2845	2822	2799	2799	2799	2799	2799	2799	2799	2799	2799	2777	2777	2777	0	0	8146	8343	8343	8146	8343	8343	8343	8343	8343	8343	8343	8146	8343	8343	8343	8343	8343	8343	8343	8343	8146	8146	8146	8146	8146	8146	8146	8146	8146	8146	8146	8343	8343	8343	8343	8343	8343	8550	8550	8343	8343	8343	8343	8146	8146	8146	8146	8146	8146	8146	8146	8146	8146	8146	8146	8146	8146	8146	8146	8146	7959	7959	8146	8146	7959	7959	7959	7959	7959	7959	7959	7959	7959	8146	8146	8146	8146	8146	8146	8146	8146	8146	8146	8146	8146	8146	8146	8146	8146	8146	8146	8146	8146	8146	8146	8146	8146	8343	8146	8146	8146	8146	8146	8146	8146	8146	8146	8343	8550	8343	8343	8343	8343	8146	8146	8146	8146	8146	8146	8146	8146	8146	8146	8146	8146	8146	7959	8146	8146	8146	8146	8146	8146	8343	8343	8146	8146	8146	8146	8146	8146	8343	8343	8146	8146	8343	8343	8343	8343	8343	8343	8343	8343	8146	8146	8146	8146	8343	8343	8343	8550	8550	8550	8343	8343	8146	8343	8146	8146	8343	8343	8550	8550	8550	8550	8550	8550	8550	8550	8343	8343	8343	8343	8146	8343	8343	8343	8343	8550	8550	8550	8550	8550	8550	8550	8550	8550	8343	8550	8550	8550	8343	8343	8343	8343	8343	0	0	0	0	0	0	0	0	0	0	2589	2589	2589	2570	2570	2551	2551	2532	2514	2514	2514	2496	2496	2460	2460	2460	2443	2443	2426	2426	2426	2426	2409	2409	2409	2392	2376	2359	2359	2343	2343	2343	0	0	0	0	0	0	0	0	0	0	0	0	0	0	0	0	0	0	0	0	0	0	0	0	0	0	0	0	0	0	0	0	0	0	0	0	0
0	0	0	0	0	945	940	942	945	948	950	953	958	961	963	966	972	972	974	980	983	983	988	994	997	1003	1003	1006	1006	1008	1011	1017	1023	1030	1033	1036	1039	1045	1045	1045	1048	1052	1052	1052	1052	1052	1055	1055	1055	0	0	0	1681	1681	1690	1690	1690	1698	1698	1706	1706	1706	1706	1706	1706	1706	1715	1706	1706	1706	1706	1706	1706	1706	1706	1706	1706	1706	1706	1706	1706	1706	1715	1715	1715	1732	1732	1732	1723	1732	1741	1750	1741	1741	1741	1741	0	0	0	0	0	0	0	0	0	0	1741	1732	1741	1732	1741	1741	1741	1732	1732	1732	1732	1732	1732	1732	1732	1732	1732	1732	1741	1741	1741	1715	1715	1715	0	1715	1723	1732	1732	1732	1732	1732	1723	1741	1741	1741	1750	1750	1759	1768	1768	1777	1777	1786	1786	1786	0	0	0	0	8146	8343	8146	8146	8146	8146	8146	8146	8146	8146	8146	8146	8146	8146	8146	8146	8146	8146	8146	8146	8146	8146	8146	8146	8146	7959	7959	7959	7959	7959	7959	7959	7959	7959	7779	7959	7959	7959	7959	7959	7959	8146	8146	8146	8146	8146	7959	7959	7959	7959	7959	8146	8146	8146	8146	8146	8146	8146	8146	8146	8343	8343	8343	8343	8343	8343	8146	8146	8146	8146	8146	8146	8146	8146	8146	8343	8343	8343	8343	8343	8343	8343	8343	8343	8343	8343	8343	8343	8343	8343	8343	8343	8343	8343	8343	8343	8146	8146	8146	8146	8146	8146	8146	0	0	0	0	0	0	2845	2845	2822	2822	2799	2799	2799	2799	2822	2822	2845	2845	2845	2845	2845	2822	2799	2777	2777	2777	2754	2754	2754	2733	2733	2733	2711	2711	2711	2711	2711	2711	2711	2711	2711	2711	2711	2711	2690	2690	2690	2690	2690	2690	2711	2711	2711	2711	2711	2733	2711	2711	2711	2711	2711	2733	2733	2733	2733	2754	2754	2754	2754	2777	2799	2799	2799	2822	2822	2869	2869	2869	2869	2869	2845	2822	2799	2799	2799	2799	2799	2799	2799	2799	2799	2799	2799	2799	0	0	8146	8343	8146	8343	8343	8343	8343	8343	8343	8343	8146	8146	8146	8146	8146	8343	8343	8343	8343	8343	8343	8343	8146	8146	8146	8146	8146	8146	8146	8146	8146	8146	8343	8343	8343	8343	8343	8343	8343	8343	8343	8343	8343	8343	8146	8146	8146	8146	8146	8146	8146	8146	8146	8146	8146	8146	8146	8146	8146	8146	8146	8146	8146	8146	7959	7959	7959	7959	7959	7959	7959	7959	7959	8146	8146	8146	8146	8146	8146	8146	8146	8146	8146	8146	8146	8146	8146	8146	8146	8146	8146	8146	8146	8146	8146	8146	8146	8146	8146	8146	8146	8146	8146	8146	8146	8146	8343	8550	8550	8550	8343	8550	8343	8343	8146	8146	8146	8146	8146	8146	8146	8146	8146	8146	8146	8146	8146	8146	8146	8146	8146	8343	8146	8343	8343	8146	8146	8146	8146	8146	8146	8146	8146	8146	8146	8343	8146	8343	8343	8343	8343	8343	8343	8146	8146	8146	8146	8146	8343	8343	8550	8550	8550	8550	8343	8343	8343	8146	8146	8343	8343	8550	8550	8343	8550	8550	8550	8343	8550	8343	8343	8343	8343	8146	8550	8550	8550	8343	8550	8550	8550	8550	8550	8550	8550	8550	8550	8343	8343	8550	8550	8550	8550	8343	8343	8343	0	0	0	0	0	0	0	0	0	0	2589	2589	2570	2570	2570	2551	2551	2532	2514	2514	2496	2496	2496	2478	2478	2460	2443	2443	2443	2426	2426	2426	2426	2409	2409	2392	2376	2376	2359	2359	2343	2343	0	0	0	0	0	0	0	0	0	0	0	0	0	0	0	0	0	0	0	0	0	0	0	0	0	0	0	0	0	0	0	0	0	0	0	0	0
0	0	0	0	0	942	940	942	945	948	950	955	961	963	966	969	972	974	974	980	983	985	988	991	997	1000	1003	1006	1006	1008	1011	1017	1023	1030	1033	1036	1039	1045	1045	1045	1048	1052	1052	1052	1052	1052	1055	1061	1061	0	0	0	1681	1681	1681	1681	1690	1698	1698	1706	1706	1706	1706	1698	1706	1706	1715	1706	1706	1706	1706	1706	1706	1706	1706	1706	1706	1715	1715	1706	1715	1715	1715	1723	1723	1723	1732	1732	1723	1732	1741	1750	1741	1741	1741	1741	0	0	0	0	0	0	0	0	0	0	0	0	1741	1741	1741	1741	1741	1741	1732	1732	1750	1732	1723	1732	1732	1732	1732	1732	1741	1741	1741	1715	1715	0	0	0	1723	1732	1741	1741	1741	1750	1750	1768	1768	1759	1768	1768	1768	1777	1777	1777	1786	1786	1786	1786	0	0	0	0	0	8146	8146	8146	8146	8146	8146	8146	8146	8146	8146	8146	8146	8146	8146	8146	8146	8146	8146	8146	8146	8146	8146	8146	8146	7959	7959	7959	8146	8146	7959	7959	7959	7959	7959	7959	7959	7959	7959	7959	8146	8146	8146	8146	8146	8146	8146	8146	7959	8146	8146	8146	8146	8343	8146	8146	8146	8146	8146	8146	8343	8343	8343	8343	8343	8146	8146	8146	8146	8146	8146	8146	8146	8146	8146	8343	8343	8343	8343	8343	8343	8343	8343	8550	8343	8343	8343	8343	8550	8343	8343	8343	8343	8343	8343	8343	8146	8146	8146	8146	8146	8146	8146	0	0	0	0	0	0	2845	2845	2822	2799	2799	2799	2799	2799	2822	2822	2822	2822	2822	2822	2822	2799	2799	2799	2777	2777	2754	2754	2754	2733	2733	2733	2711	2711	2711	2711	2711	2711	2711	2711	2711	2711	2711	2711	2711	2690	2690	2690	2690	2711	2711	2711	2711	2711	2711	2733	2733	2733	2711	2711	2711	2733	2733	2733	2733	2733	2754	2754	2754	2777	2777	2799	2799	2822	2822	2869	2893	2869	2869	2869	2845	2822	2799	2799	2799	2799	2799	2799	2799	2799	2799	2799	2799	2799	0	8343	8343	8343	8343	8343	8343	8343	8343	8343	8343	8343	8146	8146	8146	8146	8343	8343	8343	8550	8343	8343	8343	8343	8343	8146	8146	8146	8146	8146	8146	8146	8146	8146	8146	8146	8146	8343	8343	8343	8343	8343	8343	8343	8343	8343	8343	8343	8146	8343	8146	8146	8146	8146	8146	8146	8146	8146	8146	8146	8146	8146	8146	8146	8146	8146	8146	7959	7959	7959	7959	7959	7959	7959	7959	8146	8146	8146	8146	8146	8146	8146	8146	8146	8146	8146	8146	8146	8146	8146	8146	8146	8146	8343	8146	8146	8146	8146	8343	8343	8343	8343	8146	8343	8343	8343	8343	8343	8343	8550	8550	8550	8550	8550	8343	8343	8146	8146	8146	8146	8146	8146	8146	8146	8146	8146	8146	8146	7959	8146	8146	8146	8146	8343	8146	8146	8146	8146	8146	8146	8146	8146	8146	8146	8146	8146	8146	8343	8146	8550	8550	8550	8550	8343	8343	8146	8146	8146	8146	8146	8146	8343	8343	8550	8550	8343	8343	8343	8343	8146	8146	8343	8343	8550	8343	8343	8550	8550	8550	8343	8343	8343	8343	8343	8343	8146	8343	8550	8550	8343	8550	8550	8550	8767	8550	8550	8550	8550	8550	8550	8550	8550	8550	8550	8550	8343	8343	0	0	0	0	0	0	0	0	0	0	2589	2570	2589	2589	2570	2570	2570	2551	2532	2514	2514	2496	2496	2478	2478	2460	2460	2460	2443	2443	2443	2426	2426	2426	2409	2392	2376	2376	2359	2359	2359	2359	2359	0	0	0	0	0	0	0	0	0	0	0	0	0	0	0	0	0	0	0	0	0	0	0	0	0	0	0	0	0	0	0	0	0	0	0	0	0
0	0	0	0	0	942	940	942	948	950	953	955	961	961	963	966	974	974	977	980	983	985	988	991	997	1000	1000	1003	1003	1008	1011	1020	1023	1030	1033	1036	1039	1042	1045	1045	1045	1052	1055	1052	1055	1055	1058	1058	1061	0	0	0	1698	1698	1681	1681	0	0	0	0	1706	1706	1706	1706	1706	1706	1715	1706	1706	1706	1706	1706	1706	1706	1706	1706	1706	1715	1715	1706	1706	1715	1723	1723	1732	1732	0	0	0	0	0	1750	1741	1741	1741	1741	0	0	0	0	0	0	0	0	0	0	0	0	1741	1741	1741	1741	1741	1732	1732	1732	1741	1732	1723	1732	1741	1732	1732	1741	1741	1741	0	0	0	0	0	0	0	0	1741	1750	1750	1759	1768	1777	1777	1768	1777	1777	1777	1786	1777	1777	1786	1786	1786	1786	0	0	0	0	0	8343	8146	8146	8146	8146	8146	8146	8146	8146	8146	8146	8146	8146	8146	8146	7959	7959	8146	8146	8146	8146	8146	8146	8146	8146	8146	8146	8146	7959	7959	7959	8146	7959	7959	7959	7959	7959	7959	7959	7959	8146	8146	8146	8146	8146	7959	7959	7959	7959	7959	8146	8146	8343	8146	8146	8146	8146	8146	8343	8343	8343	8343	8343	8343	8146	8146	8146	7959	7959	7959	8146	8146	8146	8146	8146	8146	8343	8343	8343	8343	8343	8343	8343	8343	8343	8343	8146	8146	8343	8343	8343	8343	8343	8343	8343	8146	8146	8146	8146	8146	8146	8146	0	0	0	0	0	0	2822	2822	2822	2799	2799	2799	2822	2799	2799	2822	2822	2822	2822	2822	2822	2799	2799	2777	2777	2777	2754	2754	2754	2754	2733	2733	2733	2733	2711	2711	2711	2711	2711	2711	2711	2711	2711	2711	2711	2690	2690	2690	2690	2690	2711	2690	2711	2711	2711	2733	2733	2733	2733	2733	2733	2733	2733	2733	2754	2754	2754	2754	2754	2777	2777	2799	2799	2799	2822	2869	2869	2869	2869	2869	2845	2822	2799	2799	2799	2799	2799	2799	2799	2799	2822	2822	2822	0	0	8550	8343	8343	8343	8343	8343	8343	8343	8343	8343	8146	8146	7959	8146	8146	8146	8146	8343	8343	8343	8343	8343	8343	8343	8343	8146	8146	8146	8146	8146	8146	8146	8146	8343	8343	8343	8343	8343	8343	8550	8343	8550	8550	8550	8550	8343	8343	8343	8343	8146	8146	8146	8146	8146	8146	8146	8146	8146	8146	8146	8146	8146	8146	8146	8146	8146	7959	7959	7959	7959	7959	7959	7959	7959	8146	8146	8146	8343	8146	8146	8146	8146	8146	8146	8146	8146	8146	8146	8146	8146	8146	8146	8146	8146	8146	8146	8343	8343	8343	8343	8343	8343	8343	8343	8550	8550	8343	8343	8550	8550	8550	8550	8550	8343	8343	8343	8343	8146	8343	8343	8343	8146	8146	8146	8146	8146	8146	8146	8146	8146	8146	8146	8343	8146	8146	8146	8146	8146	8146	8146	8146	8146	8146	8146	8146	8343	8343	8343	8550	8550	8550	8550	8550	8343	8343	8146	8146	8146	8146	8146	8146	8343	8343	8343	8343	8146	8146	8146	8146	8146	8146	8343	8343	8343	8343	8343	8343	8343	8343	8343	8343	8343	8343	8343	8146	8550	8550	8550	8550	8767	8767	8767	8767	8550	8550	8550	8550	8550	8550	8550	8550	8550	8550	8550	8343	8343	0	0	0	0	0	0	0	0	0	0	2589	2589	2589	2570	2570	2570	2570	2551	2532	2514	2514	2496	2496	2478	2478	2460	2460	2460	2460	2443	2443	2443	2426	2426	2409	2409	2392	2376	2376	2359	2359	2359	2359	0	0	0	0	0	0	0	0	0	0	0	0	0	0	0	0	0	0	0	0	0	0	0	0	0	0	0	0	0	0	0	0	0	0	0	0	0
0	0	0	0	0	935	942	945	950	953	953	955	958	961	963	966	974	974	974	980	983	985	985	994	997	1003	1003	1006	1006	1011	1017	1020	1023	1030	1033	1036	1039	1042	1042	1042	1045	1048	1052	1052	1055	1055	1064	1064	0	0	0	0	1706	1706	0	0	0	0	0	0	0	0	1706	1706	1706	1706	1715	1706	1706	1706	1706	1706	1706	1706	1706	1706	1706	1715	1715	1706	1706	1715	1723	1723	1732	1732	0	0	0	0	0	0	0	0	0	0	0	0	0	0	0	0	0	0	0	0	1741	1741	1750	1741	1741	1741	1741	1732	1732	1732	1741	1732	1732	1732	1732	1732	1741	1741	1741	1741	0	0	0	0	0	0	0	0	0	1750	1750	1759	1777	1777	1777	1777	1777	1777	1786	1786	1786	1786	1786	1795	1795	1795	0	0	0	0	0	8146	8146	8146	8146	8146	8146	8146	8146	8146	8146	8146	8146	8146	8146	8146	7959	8146	8146	8146	8146	8146	8146	8146	8146	8146	8146	8146	8146	8146	8146	7959	8146	7959	7959	7959	7959	7959	7779	7959	7959	8146	8146	8146	8146	8146	8146	7959	7959	7959	7959	8146	8146	8146	8146	8146	8146	8146	8146	8146	8146	8343	8343	8343	8146	8146	8146	8146	7959	7959	7959	8146	8146	8146	8146	8146	8146	8146	8146	8146	8343	8146	8146	8343	8343	8343	8343	8343	8343	8343	8343	8343	8343	8343	8343	8343	8146	8146	8146	8146	8146	7959	7959	0	0	0	0	0	0	2822	2822	2822	2799	2799	2799	2822	2799	2799	2822	2822	2822	2822	2822	2822	2799	2799	2777	2777	2777	2754	2754	2754	2754	2733	2733	2733	2733	2711	2711	2711	2711	2711	2711	2711	2711	2711	2690	2711	2690	2690	2690	2690	2690	2690	2690	2711	2711	2711	2733	2733	2733	2733	2733	2733	2733	2733	2733	2754	2754	2754	2754	2777	2777	2777	2799	2799	2799	2822	2869	2869	2869	2869	2869	2845	2822	2799	2799	2799	2799	2799	2799	2822	2822	2822	2822	2822	0	0	8550	8343	8550	8343	8550	8343	8550	8343	8343	8343	8146	8146	7959	8146	7959	8146	8146	8146	8343	8343	8343	8343	8146	8343	8343	8343	8146	8146	8146	8146	8146	8146	8146	8343	8146	8146	8343	8343	8343	8343	8343	8343	8550	8550	8343	8343	8343	8343	8343	8343	8343	8343	8146	8146	8146	8146	8146	8146	8146	8146	8146	8146	8146	8146	8146	7959	7959	7959	7959	7959	7959	7959	7959	7959	8146	8146	8146	8343	8146	8146	8146	8146	8146	8146	8146	8146	8146	8146	8146	8146	8146	8146	8146	8343	8146	8343	8343	8343	8343	8343	8343	8146	8343	8343	8343	8343	8343	8343	8550	8550	8550	8550	8550	8343	8343	8343	8343	8146	8343	8343	8146	8146	8146	8146	8146	8146	7959	7959	8146	8146	8146	7959	7959	8146	8146	8146	8146	8146	8146	8146	8146	8146	8146	8146	8343	8343	8343	8343	8343	8343	8343	8343	8343	8343	8146	8146	8146	8146	8146	8146	8343	8343	8343	8343	8343	8343	8146	8146	8146	8146	8146	8146	8343	8343	8343	8343	8343	8343	8343	8343	8343	8343	8343	8343	8343	8550	8767	8550	8550	8767	8550	8767	8550	8550	8343	8343	8550	8343	8550	8550	8550	8550	8550	8550	8343	8343	0	0	0	0	0	0	0	0	0	0	2589	2589	2589	2570	2570	2570	2570	2551	2532	2514	2514	2496	2478	2478	2478	2460	2460	2460	2460	2460	2443	2443	2426	2426	2409	2392	2376	2376	2376	2359	2359	2343	2343	0	0	0	0	0	0	0	0	0	0	0	0	0	0	0	0	0	0	0	0	0	0	0	0	0	0	0	0	0	0	0	0	0	0	0	0	0
0	0	0	0	0	935	940	950	950	953	953	955	958	961	963	966	974	972	977	977	983	985	988	994	997	1003	1003	1006	1006	1011	1014	1020	1023	1030	1033	1036	1036	1042	1045	1042	1045	1045	1052	1055	1058	1064	1071	1071	1071	0	0	0	1706	1706	0	0	0	0	0	0	0	0	0	1706	1706	1706	1706	1706	1706	0	0	0	0	0	0	0	0	1715	1715	0	0	0	0	0	0	0	0	0	0	0	0	0	0	0	0	0	0	0	0	0	0	0	0	1723	1723	0	1741	1750	1750	1750	1750	1750	1741	1732	1732	1732	1741	1732	1732	1732	1732	1741	1741	1741	1741	1741	0	0	0	0	0	0	0	0	0	1750	1750	1759	1786	1786	1777	1777	1777	1786	1786	1786	1786	1786	1786	1786	1795	1795	0	0	0	8343	8343	8343	8343	8146	8146	8146	8146	8146	8146	7959	7959	7959	7959	7959	7959	7959	7959	7959	7959	7959	7959	7959	7959	8146	8146	8146	8146	8146	7959	7959	7959	7959	7959	7959	7959	7959	7959	7959	7959	7959	7959	8146	8146	8146	8146	8146	8146	7959	7959	8146	8146	8343	8146	8343	8343	8343	8146	8146	8146	8146	8146	8343	8343	8343	8343	8146	8146	8146	8146	8146	8146	8146	8146	8146	8146	8146	8146	8146	8146	8146	8343	8343	8343	8550	8343	8343	8343	8343	8343	8343	8343	8343	8343	8343	8343	8343	8146	8146	8146	8146	8146	7959	7959	0	0	0	0	0	0	2799	2799	2799	2799	2777	2799	2799	2799	2799	2822	2822	2822	2822	2799	2822	2799	2777	2777	2777	2754	2754	2754	2754	2754	2733	2733	2733	2733	2711	2711	2711	2711	2711	2711	2711	2711	2711	2690	2690	2690	2690	2690	2690	2690	2690	2690	2690	2711	2711	2733	2733	2733	2733	2733	2733	2733	2733	2733	2754	2754	2754	2754	2754	2777	2777	2799	2799	2799	2822	2845	2845	2845	2845	2845	2845	2822	2822	2799	2799	2799	2799	2822	2822	2822	2822	2822	2822	0	0	8550	8550	8550	8550	8550	8343	8343	8343	8343	8343	8146	8146	7959	8146	7959	8146	8146	8146	8343	8343	8343	8343	8146	8343	8343	8343	8146	8146	8146	8146	8146	8146	8146	8146	8146	8146	8146	8146	8146	8343	8343	8343	8343	8343	8343	8343	8343	8343	8343	8343	8343	8343	8146	8146	8146	8146	8146	8146	8146	8146	8146	8146	8146	8146	8146	7959	7959	7959	7959	7959	7959	7959	7959	7959	8146	8146	8146	8343	8146	8146	8146	8146	8146	8146	8146	8146	8146	8146	8146	8146	8146	8146	8343	8343	8146	8343	8343	8343	8343	8343	8343	8146	8343	8343	8343	8343	8343	8343	8343	8550	8343	8343	8343	8343	8343	8343	8343	8343	8343	8343	8343	8146	8146	8146	8146	8146	8146	7959	8146	8146	8146	7959	8146	8146	7959	8146	8146	8146	8146	8146	8146	8146	8146	8146	8343	8343	8343	8343	8343	8343	8343	8343	8343	8146	8146	8146	8146	8146	8146	8146	8146	8343	8343	8343	8343	8343	8343	8146	8146	8146	8343	8343	8343	8343	8343	8343	8343	8343	8343	8343	8343	8343	8343	8343	8343	8550	8550	8550	8550	8550	8550	8767	8550	8550	8550	8343	8550	8343	8550	8550	8550	8550	8550	8550	8343	8343	0	0	0	0	0	0	0	0	0	2609	2589	2589	2589	2589	2570	2570	2570	2551	2532	2514	2514	2496	2478	2478	2478	2460	2460	2478	2460	2460	2460	2443	2140	2140	2140	2140	2140	2140	2359	2359	2359	2343	2343	0	0	0	0	0	0	0	0	0	0	0	0	0	0	0	0	0	0	0	0	0	0	0	0	0	0	0	0	0	0	0	0	0	0	0	0	0
0	0	0	0	0	932	935	935	950	953	953	955	958	958	961	966	972	972	974	980	983	985	985	994	1000	1003	1003	1006	1006	1011	1014	1017	1017	1030	1033	1036	1036	1042	1045	1042	1042	1045	1048	1052	1052	1052	1068	1068	1071	0	0	0	0	0	0	0	0	0	0	0	0	0	0	1706	1706	1706	1706	1706	1706	1706	0	0	0	0	0	0	0	0	0	0	0	0	0	0	0	0	0	0	0	0	0	0	0	0	0	0	0	0	0	0	0	0	1723	1723	1732	1741	1741	1750	1759	1759	1750	1750	1750	1732	1732	0	0	0	0	0	0	1741	1741	1741	1741	1741	0	0	0	0	0	0	0	0	0	0	0	0	1786	1786	1786	1777	1777	1786	1786	1786	1777	1786	1786	1786	0	0	0	0	8343	8343	8343	8343	8343	8146	8146	8146	8146	7959	7959	7959	7959	7959	7959	7959	7959	7959	7959	7959	7959	8146	7959	8146	7959	8146	8146	8146	8146	8146	8146	8146	8146	7959	8146	7959	7959	7959	7959	7959	7959	7959	7959	7959	8146	8146	8146	8146	7959	7959	7959	7959	8146	8343	8146	8343	8343	8343	8146	8146	8146	8146	8146	8146	8343	8146	8146	8146	8146	8146	8146	8146	8146	8146	8146	8146	8146	8146	8146	8146	8146	7959	8146	8146	8343	8343	8343	8343	8343	8343	8343	8343	8343	8343	8343	8343	8343	8343	8343	8343	8146	8146	8146	8146	7959	0	0	0	0	0	0	2799	2799	2799	2799	2777	2799	2799	2799	2822	2822	2822	2822	2799	2799	2799	2777	2777	2777	2754	2754	2754	2754	2754	2733	2733	2733	2733	2733	2711	2711	2711	2711	2711	2690	2690	2690	2711	2690	2690	2690	2690	2690	2690	2690	2690	2690	2690	2711	2711	2733	2733	2733	2733	2733	2733	2733	2733	2733	2733	2733	2754	2754	2754	2777	2777	2799	2799	2799	2799	2845	2845	2845	2845	2845	2845	2845	2822	2799	2799	2822	2822	2822	2822	2822	2822	2822	2799	2799	0	8550	8550	8550	8550	8343	8343	8343	8343	8343	8343	8146	8146	7959	8146	7959	8146	8146	8146	8146	8146	8146	8146	8146	8343	8343	8343	8343	8343	8146	8146	8146	8146	8146	8146	8146	8146	8146	8146	8146	8146	8146	8343	8343	8343	8343	8343	8343	8343	8343	8146	8146	8146	8146	8146	8146	8146	8146	8146	8146	8146	8146	8146	8146	7959	7959	7959	7959	7959	7959	7959	7959	7959	7959	7959	8146	8146	8146	8343	8146	8146	8146	8146	8146	8146	8146	7959	8146	8146	8146	8146	8146	8146	8146	8146	8146	8146	8146	8146	8146	8146	8146	8146	8343	8343	8343	8343	8343	8343	8343	8343	8343	8343	8343	8343	8343	8343	8343	8343	8343	8343	8343	8146	8146	8343	8146	8146	8146	8146	8146	8146	7959	7959	7959	7959	7959	8146	8146	8146	8146	8146	8146	8146	8146	8146	8343	8343	8343	8343	8343	8343	8343	8343	8343	8146	8146	8146	8146	8146	8146	8146	8343	8343	8343	8343	8343	8343	8343	8343	8343	8146	8343	8343	8343	8343	8343	8343	8343	8343	8343	8343	8343	8343	8343	8343	8343	8550	8550	8767	8550	8550	8550	8767	8550	8550	8343	8343	8343	8343	8343	8343	8550	8550	8550	8550	8343	8343	0	0	0	0	0	0	0	0	2609	2609	2609	2589	2589	2589	2570	2570	2570	2570	2551	2532	2514	2496	2478	2478	2478	2460	2460	2478	2478	2478	2127	2140	2140	2140	2140	2140	2140	2153	2153	2153	2167	2167	2167	0	0	0	0	0	0	0	0	0	0	0	0	0	0	0	0	0	0	0	0	0	0	0	0	0	0	0	0	0	0	0	0	0	0	0	0	0
0	0	0	0	0	932	935	935	950	953	953	955	958	955	961	966	972	972	974	977	980	983	985	991	997	1000	1003	1006	1008	1011	1011	1017	1017	1026	1033	1036	1036	1042	1045	1045	1045	1045	1048	1048	1048	1048	1048	1068	0	0	0	0	0	0	0	0	0	0	0	0	0	0	0	0	1706	1706	1706	1706	1706	1706	0	0	0	0	0	0	0	0	0	0	0	0	0	0	0	0	0	0	0	0	0	0	0	0	0	0	0	0	0	0	0	0	1723	1723	1723	1732	1741	1741	1759	1759	1759	1750	1750	0	0	0	0	0	0	0	0	1741	1741	1741	1741	0	0	0	0	0	0	0	0	0	0	0	0	0	1786	1786	1786	1777	1786	1786	1786	1786	1777	8343	8343	8343	8343	8343	8343	8343	8343	8343	8343	8146	8343	8146	8146	8146	8146	7959	7959	7959	7959	7959	7959	7959	7959	7959	7959	7959	7959	8146	7959	7959	7959	8146	8146	8146	8146	8146	8146	8146	8146	8146	8146	8146	7959	7959	7959	7959	7959	7959	8146	7959	8146	8146	8146	8146	8146	7959	7959	8146	8146	8343	8343	8343	8146	8146	8146	8146	8146	8146	8146	8146	8146	8146	8146	8146	8146	8146	8146	8146	8146	8343	8343	8343	8146	8146	7959	8146	8146	7959	7959	8146	8343	8343	8343	8343	8343	8343	8343	8343	8146	8343	8343	8343	8343	8343	8343	8343	8146	8146	8146	8146	0	0	0	0	0	0	2799	2799	2799	2799	2799	2777	2799	2799	2799	2799	2822	2822	2822	2799	2799	2799	2777	2777	2777	2754	2754	2754	2754	2754	2733	2733	2733	2733	2733	2733	2711	2711	2711	2711	2711	2690	2690	2690	2690	2690	2690	2690	2690	2690	2690	2690	2690	2690	2711	2711	2733	2733	2733	2733	2733	2711	2733	2733	2733	2733	2733	2754	2754	2777	2777	2777	2799	2799	2799	2822	2822	2845	2845	2845	2845	2845	2822	2822	2799	2799	2799	2822	2822	2822	2822	2822	2822	2799	2799	0	0	8550	8550	8550	8343	8343	8343	8343	8343	8146	8146	8146	8146	8146	7959	8146	8146	8146	8146	8146	8146	8343	8146	8343	8343	8550	8343	8343	8343	8146	8146	8146	8146	8146	8146	8146	7959	7959	8146	8146	8146	8146	8343	8343	8343	8343	8343	8343	8343	8146	8146	8146	8146	8146	8146	8146	8146	8146	8146	8146	8146	8146	7959	7959	7959	7959	7959	7959	7959	7959	7959	7959	7959	7959	8146	8146	8343	8343	8343	8146	8146	8146	8146	8146	8146	7959	8146	8146	8146	8146	8146	8146	8146	8146	8146	8146	8146	8146	8146	8146	8146	8146	8146	8343	8343	8343	8343	8343	8343	8343	8343	8343	8343	8343	8343	8343	8343	8343	8550	8343	8343	8343	8343	8343	8146	8146	8146	7959	7959	8146	7959	7959	7959	7959	7959	8146	8146	8146	8146	8146	8146	8146	8146	8146	8146	8146	8146	8146	8343	8146	8343	8343	8343	8146	8146	8146	8146	8146	8146	8146	8343	8343	8343	8343	8343	8343	8343	8343	8343	8343	8343	8343	8343	8343	8343	8343	8343	8343	8343	8343	8343	8343	8343	8343	8146	8343	8550	8550	8343	8550	8550	8767	8550	8550	8550	8550	8550	8343	8550	8343	8550	8343	8343	8343	8343	8343	0	0	0	0	0	0	0	0	2609	2609	2609	2609	2589	2589	2570	2570	2570	2570	2551	2532	2514	2496	2478	2478	2478	2478	2478	2478	2478	2496	2127	2140	2140	2140	2140	2140	2140	2140	2153	2153	2153	2167	2167	0	0	0	0	0	0	0	0	0	0	0	0	0	0	0	0	0	0	0	0	0	0	0	0	0	0	0	0	0	0	0	0	0	0	0	0	0
0	0	0	0	0	0	935	935	953	953	953	955	958	958	961	966	972	969	972	977	980	980	983	991	994	997	1003	1006	1008	1011	1017	1020	1023	1026	1033	1033	1036	1042	1042	1042	1042	1045	1045	1048	1048	1048	1048	1068	0	0	0	0	0	0	0	0	0	0	0	0	0	0	0	0	0	0	0	0	0	0	0	0	0	0	0	0	0	0	0	0	0	0	0	0	0	0	0	0	0	0	0	0	0	0	0	0	0	0	0	0	0	0	1732	1732	1732	1732	1732	1741	1750	1750	1759	0	0	0	0	0	0	0	0	0	0	0	1750	1750	1750	0	0	0	0	0	0	0	0	0	0	0	0	0	0	1786	1786	1777	1786	1786	1786	0	8343	8343	8343	8343	8146	8146	8146	8146	8146	8146	8146	8146	8146	8146	8146	8146	7959	7959	7959	7959	7959	7959	7959	7959	7959	7959	7959	7959	7959	8146	7959	8146	8146	8146	8146	8146	8146	8146	8146	8146	8146	8146	8146	8146	8146	7959	7959	7959	7959	7959	8146	7959	8146	8146	8146	8146	7959	7959	7959	7959	7959	8146	8146	8146	8146	8146	8146	8146	8146	8146	7959	8146	8146	8146	8146	8146	8146	8343	8343	8343	8343	8343	8343	8343	8146	7959	7959	7959	7959	7959	7959	7959	8146	8343	8146	8343	8343	8343	8146	8146	8146	8146	8146	8146	8343	8343	8343	8343	8146	8146	7959	7959	0	0	0	0	0	0	2799	2777	2799	2799	2777	2777	2799	2799	2799	2799	2799	2799	2799	2799	2799	2777	2777	2777	2777	2754	2754	2754	2754	2733	2733	2733	2733	2733	2711	2711	2711	2711	2711	2711	2690	2690	2690	2690	2690	2690	2690	2690	2690	2690	2690	2690	2690	2690	2711	2711	2733	2733	2733	2733	2733	2711	2733	2733	2733	2733	2733	2754	2777	2777	2777	2777	2777	2777	2799	2799	2822	2822	2845	2845	2845	2845	2845	2822	2822	2822	2799	2799	2822	2822	2822	2822	2799	2799	2799	0	0	8550	8550	8550	8343	8550	8343	8343	8343	8146	8146	8146	7959	7959	7959	7959	7959	8146	8146	8146	8146	8146	8146	8343	8343	8343	8343	8343	8343	8343	8343	8146	8146	8146	8343	8343	8146	8146	8343	8146	8343	8146	8343	8343	8343	8343	8343	8343	8343	8146	8146	8146	8146	8146	8146	8146	8146	8146	8146	8146	7959	7959	7959	7959	7959	7959	7959	7959	7959	7959	7959	7959	7959	7959	8146	8146	8146	8146	8343	8146	8146	8146	8146	8146	8146	8146	8146	8146	8146	8146	8146	8146	8146	8146	8343	8146	8146	8146	8146	8146	8146	8146	8146	8343	8343	8343	8343	8343	8343	8146	8146	8146	8146	8146	8343	8343	8343	8343	8343	8343	8343	8343	8343	8146	8343	8146	8146	8146	7959	8146	7959	7959	7959	7959	7959	8146	8146	8146	7959	8146	8146	8146	8146	8146	8146	8146	8146	8146	8343	8146	8343	8343	8343	8146	8146	8146	8146	8146	8146	8146	8146	8146	8343	8343	8146	8146	8343	8343	8343	8343	8146	8343	8343	8343	8343	8343	8343	8343	8343	8343	8343	8343	8343	8343	8343	8343	8550	8550	8343	8550	8550	8550	8550	8550	8550	8343	8343	8343	8343	8343	8343	8550	8550	8550	8550	8550	0	0	0	0	0	0	0	2609	2609	2609	2609	2609	2589	2589	2589	2589	2570	2570	2551	2532	2514	2496	2496	2496	2478	2478	2478	2478	2140	2140	2140	2140	2140	2140	2140	2140	2140	2153	2153	2153	2153	2153	2153	0	0	0	0	0	0	0	0	0	0	0	0	0	0	0	0	0	0	0	0	0	0	0	0	0	0	0	0	0	0	0	0	0	0	0	0	0
0	0	0	0	0	0	935	935	953	953	953	953	958	958	963	969	972	972	972	974	977	977	980	991	991	997	1003	1006	1008	1011	1014	1017	1020	1026	1030	1033	1036	1039	1042	1045	1042	1045	1045	1052	1048	1048	1048	0	0	0	0	0	0	0	0	0	0	0	0	0	0	0	0	0	0	0	0	0	0	0	0	0	0	0	0	0	0	0	0	0	0	0	0	0	0	0	0	0	0	0	0	0	0	0	0	0	0	0	0	0	0	0	1732	1723	1723	1723	1723	1732	1750	1750	0	0	0	0	0	0	0	0	0	0	0	0	1750	1741	1741	1741	1741	1741	1741	1741	1741	1741	1741	1741	0	0	0	0	0	0	0	0	0	0	0	8343	8343	8343	8343	8343	8146	8146	8146	8146	8146	8146	8146	8146	8146	8146	8146	7959	7959	7959	7959	7959	7959	7959	7959	7959	8146	7959	7959	7959	7959	8146	7959	8146	8146	8146	8146	8146	8146	8146	8146	8146	8146	8146	8146	8146	8146	7959	7959	7959	7959	7959	7959	7959	7959	7959	8146	7959	7959	7959	7959	7959	7959	8146	8146	8146	8146	8146	8146	8146	8146	8146	8146	8146	8146	8146	8146	8146	8146	8343	8343	8343	8146	8146	8146	8343	8146	8146	7959	7959	7959	7959	7959	7959	7959	8146	7959	8146	8146	8343	8146	8146	8146	8146	7959	7959	8146	8146	8146	8343	8146	8146	7959	7959	0	0	0	0	0	2799	2799	2777	2799	2799	2799	2799	2799	2799	2799	2799	2799	2822	2799	2799	2799	2777	2777	2777	2754	2754	2754	2754	2733	2733	2733	2733	2733	2733	2711	2711	2711	2711	2711	2711	2711	2711	2690	2690	2690	2690	2690	2690	2690	2690	2690	2690	2690	2690	2711	2711	2733	2733	2733	2733	2733	2711	2711	2711	2711	2733	2733	2733	2754	2754	2777	2777	2777	2799	2799	2799	2822	2822	2822	2822	2845	2845	2845	2822	2822	2822	2822	2822	2822	2822	2822	2822	2822	2799	2799	0	0	8550	8550	8550	8550	8550	8343	8343	8343	8343	8146	8146	8146	8146	7959	7959	7959	7959	8146	8146	8146	8146	8146	8146	8146	8146	8146	8146	8146	8146	8146	8146	8146	8343	8343	8343	8146	8343	8343	8146	8343	8146	8146	8146	8343	8146	8343	8343	8343	8146	8146	8146	8146	8146	8146	7959	8146	7959	8146	7959	7959	7959	7959	7959	7959	7959	7959	7959	7959	7959	7959	7959	7959	7959	7959	8146	8146	8146	8146	8146	8146	8146	8146	8146	8146	7959	7959	8146	8146	8146	8146	7959	8146	8146	8146	8146	8146	8146	8146	8146	8146	8146	8146	8146	8146	8146	8146	8146	8146	8146	8146	8146	8146	8146	8146	8146	8146	8343	8343	8343	8343	8343	8146	8146	8146	8146	8146	8146	8146	8146	7959	7959	7959	7959	7959	7959	8146	8146	8146	8146	8146	8146	8146	8146	8146	8146	8146	8146	8343	8343	8343	8343	8343	8343	8146	8146	8146	8146	8146	8146	8146	8146	8146	8343	8146	8146	8343	8343	8343	8343	8146	8343	8343	8343	8343	8343	8343	8343	8343	8343	8343	8343	8343	8343	8146	8146	8550	8550	8343	8343	8343	8550	8550	8343	8343	8343	8343	8343	8343	8343	8343	8343	8550	8550	8550	8550	0	0	0	0	0	0	0	2609	2609	2609	2609	2609	2609	2589	2589	2589	2570	2570	2551	2551	2532	2514	2514	2496	2496	2496	2496	2140	2140	2127	2127	2127	2140	2140	2140	2140	2140	2153	2153	2153	2140	2140	2140	0	0	0	0	0	0	0	0	0	0	0	0	0	0	0	0	0	0	0	0	0	0	0	0	0	0	0	0	0	0	0	0	0	0	0	0	0
0	0	0	0	0	0	0	958	953	953	953	953	958	955	958	966	966	972	972	974	974	980	980	991	997	1000	1006	1006	1008	1011	1014	1017	1020	1023	1030	1033	1036	1039	1042	1042	1042	1045	1045	1052	1048	1048	1048	0	0	0	0	0	0	0	0	0	0	0	0	0	0	0	0	0	0	0	0	0	0	0	0	0	0	0	0	0	0	0	0	0	0	0	0	0	0	0	0	0	0	0	0	0	0	0	0	0	0	0	0	0	0	0	0	1723	1723	1723	1723	1750	1750	1750	0	0	0	0	0	0	0	0	0	0	0	1750	1741	1741	1741	1741	1741	1741	1741	1741	1741	1741	1741	1741	1741	0	0	0	0	0	0	0	0	0	8343	8343	8146	8146	8146	8146	8146	8146	8146	8146	8146	8146	8146	8146	8146	8146	7959	7959	7959	7959	7959	7959	7959	7959	7959	7959	7959	7959	7959	7959	7959	7959	7959	8146	7959	8146	8146	8146	8146	8146	8146	8146	8146	8146	8146	8146	7959	7959	7959	7959	7779	7779	7959	7959	7959	7959	7959	7959	7959	7959	7959	7959	7959	8146	8146	8343	8146	8146	8146	8146	8146	8146	7959	7959	8146	8146	8146	8146	8146	8343	8343	8343	8146	8146	8146	8343	8146	8146	7959	7959	7959	7959	7959	7959	7959	7959	7959	8146	8146	8146	8146	7959	7959	7959	7959	7959	8146	7959	8146	8146	8146	8146	7959	7959	0	0	0	0	0	2777	2777	2777	2777	2799	2777	2799	2799	2799	2799	2799	2799	2799	2799	2799	2799	2777	2777	2754	2754	2754	2754	2733	2733	2733	2733	2711	2711	2711	2711	2711	2711	2711	2711	2711	2711	2711	2690	2690	2690	2690	2690	2690	2690	2690	2690	2690	2690	2690	2711	2711	2733	2733	2733	2733	2733	2711	2711	2711	2711	2711	2733	2754	2754	2754	2754	2777	2777	2777	2799	2799	2822	2822	2822	2822	2822	2845	2822	2822	2799	2799	2799	2799	2822	2822	2822	2822	2822	2799	2799	0	0	8550	8550	8550	8343	8343	8343	8343	8343	8343	8146	8146	8146	8146	8146	8146	8146	8146	8146	8146	8146	8146	8146	8146	8146	8146	8343	8343	8146	8146	8146	8146	8146	8146	8343	8343	8146	8343	8343	8343	8343	8146	8146	8146	8343	8146	8343	8146	8343	8146	8343	8343	8146	8146	8146	8146	8146	8146	8146	8146	8146	7959	7959	7959	7959	7959	7959	7959	7959	7959	7959	7959	7959	7959	8146	8146	8146	8146	8146	8146	8146	8146	8146	8146	8146	8146	8146	8146	8146	8146	8146	7959	7959	8146	8146	8146	8146	8146	8146	8146	8146	7959	8146	8146	8146	8146	8146	8146	8146	8146	8146	7959	7959	7959	7959	8146	8146	8146	8343	8343	8343	8146	8146	8146	8146	8146	8146	8146	7959	8146	7959	7959	7959	7959	7959	7959	7959	8146	8146	8146	8146	8146	8146	8146	8146	8146	8146	8146	8146	8146	8146	8343	8146	8146	8146	8146	8146	8146	8146	8146	8146	8146	8343	8343	8146	8343	8343	8343	8343	8343	8146	8343	8343	8343	8146	8146	8343	8343	8343	8343	8343	8343	8343	8343	8146	8146	8343	8550	8343	8343	8343	8550	8343	8343	8343	8343	8343	8343	8343	8343	8343	8343	8550	8550	8550	0	0	0	0	0	0	0	0	2609	2609	2629	2629	2629	2609	2589	2589	2589	2570	2570	2551	2551	2532	2532	2514	2514	2514	2514	2496	2114	2127	2127	2127	2127	2140	2140	2140	2140	2140	2153	2153	2153	2140	2140	2140	0	0	0	0	0	0	0	0	0	0	0	0	0	0	0	0	0	0	0	0	0	0	0	0	0	0	0	0	0	0	0	0	0	0	0	0	0
0	0	0	0	0	0	0	958	953	953	953	953	953	953	961	963	963	969	972	974	980	983	985	991	994	997	1003	1006	1008	1008	1011	1017	1020	1023	1026	1033	1036	1039	1042	1045	1045	1045	1045	1052	1048	1048	1052	1052	0	0	0	0	0	0	0	0	0	0	0	0	0	0	0	0	0	0	0	0	0	0	0	0	0	0	0	0	0	0	0	0	0	0	0	0	0	0	0	0	0	0	0	0	0	0	0	0	0	0	0	0	0	0	0	1723	1723	1715	1715	1750	1750	0	0	0	0	0	0	0	0	0	0	0	0	1750	1741	1741	1741	1741	1741	1741	1741	1741	1741	1741	1741	1741	1732	1732	0	0	0	0	0	0	0	0	8343	8343	8146	8146	8146	8146	8146	8146	8146	8146	8146	8146	8146	8146	8146	8146	7959	7959	7959	7959	7959	7959	7959	7959	7959	7959	8146	7959	7959	7959	7959	7959	7959	7959	7959	8146	8146	8146	8146	8146	8146	8146	8146	8146	8146	8146	8146	7959	7959	7959	7959	7959	7959	7959	7959	7959	7959	8146	7959	7959	8146	8146	8146	8146	8146	8343	8146	8146	8146	8146	8146	8146	7959	7959	8146	8146	8146	8146	8146	8146	8343	8343	8343	8343	8343	8343	8343	8146	8146	7959	7959	7959	7959	7959	7959	7959	7959	8146	8146	8146	7959	7959	7959	7959	7959	7959	8146	7959	8146	8146	8146	7959	7959	7959	0	0	0	0	0	2799	2799	2799	2799	2799	2777	2799	2777	2777	2777	2777	2799	2799	2799	2799	2777	2777	2777	2754	2754	2754	2754	2754	2733	2733	2733	2733	2733	2711	2711	2711	2711	2711	2711	2711	2711	2690	2690	2690	2690	2690	2690	2690	2690	2690	2690	2690	2690	2690	2690	2711	2733	2733	2733	2733	2711	2711	2711	2711	2711	2733	2733	2733	2754	2754	2754	2777	2777	2777	2799	2799	2799	2822	2822	2822	2822	2822	2822	2799	2799	2799	2799	2799	2822	2822	2822	2822	2822	2799	2799	0	0	8550	8550	8550	8343	8550	8343	8343	8343	8343	8146	8146	8146	8146	8146	8146	8146	8146	8146	8146	8146	8343	8343	8343	8343	8146	8343	8343	8146	8343	8146	8146	8146	8146	8343	8343	8146	8343	8343	8343	8343	8146	8146	8146	8146	8146	8343	8146	8146	8146	8146	8146	8146	8146	8146	8146	8146	8146	8146	8146	8146	7959	7959	7959	7959	7959	7959	7959	7959	7959	7959	7959	7959	7959	7959	8146	8146	8146	8146	8146	8146	8146	8146	8146	8146	7959	8146	8146	8146	8146	8146	7959	7959	8146	8146	8146	8146	8146	8146	8146	8146	7959	8146	8146	8146	8146	8146	8146	7959	7959	7959	7959	7959	7959	8146	8146	8146	8146	8146	8343	8343	8343	8343	8146	8146	8146	8146	8146	8146	8146	7959	7959	7959	7959	7959	7959	7959	8146	8146	8146	8146	8146	8146	8146	8146	8146	8146	8146	8146	8146	8146	8146	8146	8146	8146	8146	8146	8146	8146	8146	8146	8146	8146	8146	8146	8146	8343	8343	8343	8343	8146	8146	8343	8146	8146	8146	8146	8146	8343	8343	8146	8146	8343	8343	8146	8343	8343	8343	8343	8343	8343	8343	8343	8343	8343	8343	8343	8343	8343	8343	8343	8343	8343	8550	8550	0	0	0	0	0	0	0	0	2609	2609	2609	2609	2609	2609	2589	2589	2589	2570	2570	2551	2551	2532	2532	2514	2514	2514	2514	2496	2496	2127	2127	2127	2127	2140	2140	2140	2140	2140	2153	2153	2153	2140	2140	2140	0	0	0	0	0	0	0	0	0	0	0	0	0	0	0	0	0	0	0	0	0	0	0	0	0	0	0	0	0	0	0	0	0	0	0	0	0
0	0	0	0	0	0	0	0	953	950	953	953	955	958	958	961	966	966	972	974	980	983	985	988	994	994	1000	1006	1008	1011	1014	1017	1020	1023	1026	1030	1033	1036	1042	1045	1045	1045	1045	1052	1048	1048	1052	1052	0	0	0	0	0	0	0	0	0	0	0	0	0	0	0	0	0	0	0	0	0	0	0	0	0	0	0	0	0	0	0	0	0	0	0	0	0	0	0	0	0	0	0	0	0	0	0	0	0	0	0	0	0	0	0	0	1723	1715	1715	0	0	0	0	0	0	0	0	0	0	0	0	0	0	0	0	0	0	0	1741	1741	1741	1741	1741	1741	1741	1741	1741	1741	0	0	0	0	0	0	0	0	8343	8343	8146	8146	8146	8146	8146	8146	8146	8146	8146	8146	8146	8146	8146	8146	8146	7959	7959	7959	7959	7959	7959	7959	7959	7959	7959	7959	7959	7779	7959	7959	7959	7959	7959	7959	7959	8146	7959	7959	7959	8146	7959	8146	8146	8146	8146	7959	7959	7959	7959	7959	7959	7959	7959	7959	8146	8146	7959	8146	8146	8146	8146	8146	8146	8146	8146	7959	8146	7959	8146	8146	7959	7959	7959	8146	7959	7959	7959	8146	8146	8146	8146	8146	8146	8146	8146	7959	7959	7959	7959	7959	7959	7959	7779	7959	7779	7959	7959	7959	7959	7959	7959	7959	7959	7959	7959	7959	7959	8146	8146	7959	7779	7779	0	0	0	0	0	2799	2799	2799	2799	2799	2777	2799	2777	2777	2777	2777	2777	2799	2799	2777	2777	2777	2777	2754	2754	2754	2754	2754	2733	2733	2733	2733	2733	2711	2711	2711	2711	2711	2711	2711	2690	2690	2690	2690	2690	2690	2690	2690	2690	2690	2690	2690	2690	2690	2690	2711	2711	2733	2733	2711	2711	2711	2711	2711	2711	2711	2733	2733	2733	2754	2754	2754	2777	2777	2777	2799	2799	2822	2822	2822	2822	2822	2822	2799	2799	2799	2799	2799	2799	2799	2799	2822	2822	2822	2799	0	8550	8343	8343	8343	8343	8343	8343	8343	8343	8343	8146	8146	8146	8146	8146	8146	8146	8146	8146	8146	8146	8146	8146	8146	8146	8146	8343	8343	8343	8343	8343	8146	8343	8343	8343	8343	8343	8343	8343	8343	8146	8146	8146	8146	8146	8146	8146	8146	8146	8146	8146	8146	8146	8146	8146	8146	8146	8146	8146	7959	7959	7959	7959	7959	7959	8146	8146	7959	7959	7959	7959	7959	7959	7779	7959	7959	7959	8146	8146	8146	8146	8146	8146	8146	8146	8146	7959	8146	8146	8146	8146	7959	7959	8146	8146	8146	8146	8146	8146	8146	8146	8146	8146	8146	8146	8146	7959	7959	7959	7959	7959	7959	8146	8146	8146	8146	8146	8146	8146	8343	8343	8343	8146	8146	8146	8146	8146	8146	8146	8146	7959	7959	7959	7959	7959	7959	7959	8146	8146	8146	8146	8146	8146	8146	8146	8146	8146	8146	8146	8146	8146	8146	8146	8146	8146	8146	8146	8146	8146	8146	8146	8146	8146	8146	8146	8146	8146	8343	8343	8146	8146	8146	8146	8146	8146	8146	8146	8146	8343	8343	8146	8146	8343	8343	8343	8343	8343	8343	8343	8343	8343	8343	8343	8343	8343	8343	8343	8343	8146	8146	8343	8343	8343	8550	8767	8767	0	0	0	0	0	0	0	2589	2589	2609	2609	2609	2609	2589	2589	2589	2570	2570	2551	2551	2532	2532	2514	2514	2514	2514	2496	2496	2127	2127	2127	2127	2127	2443	2153	2153	2140	2153	2140	2140	2140	2140	2140	0	0	0	0	0	0	0	0	0	0	0	0	0	0	0	0	0	0	0	0	0	0	0	0	0	0	0	0	0	0	0	0	0	0	0	0	0
0	0	0	0	0	0	0	0	0	953	953	955	958	961	961	961	966	966	969	972	980	983	985	988	991	991	997	1003	1008	1011	1014	1020	1023	1023	1026	1030	1036	1036	1042	1045	1045	1045	1048	1052	1048	1048	1052	1052	0	0	0	0	0	0	0	0	0	0	0	0	0	0	0	0	0	0	0	0	0	0	0	0	0	0	0	0	0	0	0	0	0	0	0	0	0	0	0	0	0	0	0	0	0	0	0	0	0	0	0	0	0	0	0	0	0	0	0	0	0	0	0	0	0	0	0	0	0	0	0	0	0	0	0	0	0	0	1732	1741	1741	1741	1741	1741	1741	1732	1732	1732	0	0	0	0	0	0	0	0	8343	8343	8146	8146	8146	8146	8146	8146	8146	8146	8146	8146	8146	8146	8146	7959	7959	7959	7959	7959	7959	7959	7959	7959	7959	8146	8146	8146	7959	7959	7959	7959	7959	7959	7959	8146	7959	8146	7959	7959	8146	8146	7959	7959	8146	8146	8146	7959	7959	7959	7959	7959	7959	7959	7959	7959	8146	8146	7959	8146	8146	7959	7959	8146	8146	7959	7959	7959	8146	7959	8146	8146	7959	7959	7959	8146	7959	7959	7959	8146	8146	8146	8146	8146	8146	8146	8146	7959	7959	7959	7959	7959	7959	7779	7779	7779	7779	7959	7959	7959	7959	7959	7959	7959	7959	7959	7959	7959	7959	7959	7959	7779	7779	7779	0	0	0	0	0	2822	2799	2799	2799	2799	2777	2799	2777	2777	2777	2777	2777	2799	2799	2799	2777	2777	2777	2754	2754	2754	2754	2754	2754	2733	2733	2733	2733	2711	2711	2711	2711	2711	2711	2711	2690	2690	2690	2690	2690	2690	2690	2690	2690	2690	2690	2690	2690	2690	2690	2690	2711	2711	2711	2711	2711	2711	2711	2711	2711	2711	2733	2733	2733	2754	2754	2754	2777	2777	2777	2799	2799	2799	2799	2822	2822	2822	2822	2799	2799	2799	2799	2799	2799	2799	2799	2822	2822	2822	0	8550	8550	8343	8343	8343	8343	8343	8343	8343	8343	8343	8343	8146	8146	8146	8146	8146	8146	8146	8146	8146	8146	8146	8146	8146	8146	8146	8146	8146	8146	8146	8146	8146	8343	8343	8343	8343	8343	8343	8343	8343	8146	8146	8146	8146	8146	8146	8146	8146	8146	8146	8146	8343	8146	8146	8146	8146	8146	8146	8146	7959	7959	7959	7959	7959	7959	8146	8146	8146	8146	8146	7959	7959	7959	7959	8146	8146	8146	8146	8146	8146	8146	8146	8146	8146	8146	8146	7959	8146	8146	8146	8146	8146	8146	8146	8146	8146	8146	8146	8146	8146	8146	8146	7959	8146	8146	8146	7959	7959	7959	7959	7959	7959	7959	7959	8146	8146	8146	8146	8146	8146	8343	8343	8146	8146	8146	8146	8146	8146	8146	8146	7959	7959	7959	7959	7959	8146	7959	8146	8146	8146	8146	8146	8146	8146	8146	8146	8146	8146	8146	8146	8146	7959	8146	8146	8146	8146	8146	8146	8146	8146	8146	8146	8146	8146	8146	8146	8146	8146	8343	8146	8146	8146	8146	8146	8146	8146	8146	8146	8343	8146	8146	8146	8146	8343	8343	8343	8550	8550	8550	8550	8343	8550	8343	8343	8343	8343	8343	8146	8146	8146	8146	8146	8343	8550	8767	8767	0	0	0	0	0	0	0	2589	2609	2609	2609	2609	2589	2589	2589	2589	2570	2570	2551	2532	2532	2532	2514	2514	2514	2514	2496	2496	2443	2443	2443	2443	2443	2443	2443	2443	2443	2426	2409	2409	2376	2376	0	0	0	0	0	0	0	0	0	0	0	0	0	0	0	0	0	0	0	0	0	0	0	0	0	0	0	0	0	0	0	0	0	0	0	0	0	0
0	0	0	0	0	0	0	0	0	953	955	955	958	961	961	961	963	966	969	969	974	974	983	988	991	991	997	1003	1008	1008	1014	1020	1023	1023	1026	1033	1036	1039	1042	1045	1045	1045	1045	1048	1052	1052	1052	1052	0	0	0	0	0	0	0	0	0	0	0	0	0	0	0	0	0	0	0	0	0	0	0	0	0	0	0	0	0	0	0	0	0	0	0	0	0	0	0	0	0	0	0	0	0	0	0	0	0	0	0	0	0	0	0	0	0	0	0	0	0	0	0	0	0	0	0	0	0	0	0	0	0	0	0	0	0	0	1732	1741	1741	1741	1741	1732	1732	1732	1732	1732	0	0	0	0	8146	8146	8146	8146	8146	8146	8146	8146	8146	8146	8146	8146	8146	8146	7959	7959	7959	8146	7959	7959	7959	7959	7959	7959	7779	7779	7959	7959	7959	7959	7959	8146	7959	7959	7959	7959	7959	7959	7959	7959	7959	7959	7959	7959	7959	7959	7959	8146	8146	8146	8146	7959	7959	7959	7959	7959	7959	7959	7959	7959	8146	8146	7959	8146	7959	7959	7959	8146	7959	8146	8146	7959	8146	8146	8146	8146	8146	8146	8146	8146	8146	7959	7959	8146	8146	7959	7959	7959	7959	7959	8146	7959	7959	7959	7959	7959	7959	7779	7779	7779	7779	7959	7959	7959	7959	7959	7959	7959	7959	7959	7959	7959	7959	7959	7959	7779	7779	7779	0	0	0	0	0	2822	2822	2822	2799	2799	2799	2799	2777	2777	2777	2777	2799	2799	2799	2799	2777	2777	2777	2754	2754	2754	2733	2733	2733	2733	2733	2733	2733	2711	2711	2711	2711	2711	2711	2711	2711	2690	2690	2690	2690	2690	2669	2669	2690	2690	2690	2690	2690	2690	2690	2711	2711	2733	2733	2711	2711	2711	2711	2711	2711	2711	2711	2733	2733	2733	2733	2754	2754	2777	2777	2799	2799	2799	2799	2822	2822	2822	2822	2822	2799	2799	2799	2799	2799	2799	2799	2822	2822	0	0	8550	8343	8343	8343	8343	8343	8343	8343	8343	8343	8343	8343	8146	8146	8343	8146	8146	8343	8343	8343	8146	8146	8343	8146	8146	8146	8146	8146	8146	8146	8146	8146	8146	8343	8343	8343	8343	8343	8343	8343	8343	8343	8146	8146	8146	8146	8146	8146	8146	8343	8146	8146	8343	8343	8146	8146	8146	8146	8146	7959	7959	7959	7959	7959	7959	7959	8146	8146	8146	8146	8146	7959	7959	7959	7959	8146	8146	8146	8146	8146	8146	8146	8146	8146	8146	8146	8146	8146	8146	8146	8146	8146	8146	8146	8146	8146	8146	8146	8146	8146	8146	8146	8146	7959	7959	7959	7959	7959	7959	7959	7959	7959	7959	7959	7959	7959	7959	8146	8146	8146	8146	8146	8146	8146	8146	8146	8146	8146	8146	8146	8146	8146	8146	8146	8146	7959	8146	8146	8146	8146	8146	8146	8146	8146	8146	8146	8146	8146	8146	8146	8146	7959	7959	7959	8146	8146	8146	8146	8146	8146	8146	8146	8146	8146	8146	7959	8146	8146	8146	8146	8146	8146	8146	8146	8146	8146	8146	8146	8146	8343	8146	8146	8146	8343	8343	8343	8550	8550	8550	8550	8550	8550	8550	8343	8550	8550	8343	8146	8146	8146	8146	8146	8146	8146	8550	8767	8767	8767	0	0	0	0	0	0	0	2609	2609	2609	2609	2589	2589	2589	2589	2570	2570	2551	2532	2532	2532	2514	2514	2514	2514	2496	2496	2443	2443	2443	2443	2426	2426	2426	2426	2426	2409	2392	2376	2376	2327	2327	0	0	0	0	0	0	0	0	0	0	0	0	0	0	0	0	0	0	0	0	0	0	0	0	0	0	0	0	0	0	0	0	0	0	0	0	0
0	0	0	0	0	0	0	0	0	0	955	955	958	958	961	961	961	966	969	969	972	972	983	988	991	994	994	1003	1008	1008	1014	1017	1020	1023	1026	1033	1039	1042	1045	1045	1045	1048	1048	1052	1052	1052	1052	1052	0	0	0	0	0	0	0	0	0	0	0	0	0	0	0	0	0	0	0	0	0	0	0	0	0	0	0	0	0	0	0	0	0	0	0	0	0	0	0	0	0	0	0	0	0	0	0	0	0	0	0	0	0	0	0	0	0	0	0	0	0	0	0	0	0	0	0	0	0	0	0	0	0	0	0	0	0	0	0	1741	1741	1741	1741	1732	1732	1732	0	8146	8146	8146	0	0	8343	8146	8146	8146	8146	8146	8146	8146	8146	8146	8146	8146	7959	7959	7959	7959	7959	7959	7779	7959	7959	7779	7779	7779	7779	7779	7959	8146	7959	8146	8146	8146	8146	7959	7779	7779	7959	7959	7959	7959	7959	7959	7959	7959	7959	7959	7959	7959	7959	8146	8146	7959	7959	7959	7959	7959	7959	7959	7959	7959	8146	8146	8146	8146	8146	7959	7959	8146	8146	8146	8146	8146	8146	8146	8146	8146	7959	7959	8146	8146	7959	7959	7959	7959	7959	7959	7959	7959	7959	7959	7959	7959	7959	7959	7959	7959	7959	7959	7779	7779	7779	7959	7959	7959	7959	7959	7959	8146	7959	7959	7959	7959	7959	7959	7959	7779	7779	0	0	0	0	0	0	2822	2822	2822	2822	2799	2799	2777	2777	2777	2777	2777	2777	2799	2799	2799	2777	2777	2777	2754	2754	2754	2754	2733	2733	2733	2733	2733	2733	2711	2711	2711	2711	2711	2711	2711	2690	2690	2690	2690	2690	2690	2669	2669	2669	2690	2690	2690	2690	2690	2690	2690	2711	2711	2711	2711	2711	2711	2711	2711	2711	2711	2711	2733	2733	2733	2733	2733	2754	2754	2777	2777	2799	2799	2799	2799	2799	2822	2822	2799	2799	2799	2799	2799	2799	2799	2799	2822	2822	0	0	8550	8343	8343	8343	8343	8343	8343	8343	8343	8343	8343	8343	8343	8343	8343	8343	8343	8343	8343	8343	8343	8343	8343	8343	8343	8146	8146	8146	8146	8146	8146	8146	8146	8343	8343	8343	8343	8343	8343	8343	8343	8343	8343	8343	8146	8146	8146	8146	8146	8146	8146	8146	8146	8343	8146	8146	8146	8146	7959	7959	7959	7959	7959	7959	7959	7959	8146	8146	8146	8146	8146	7959	7959	7959	7959	8146	8146	8146	7959	8146	8146	8146	8146	8146	8146	8146	8146	8146	8146	8146	8146	8146	8146	8146	8146	8146	8146	8146	8146	8146	8146	8146	8146	7959	7959	7959	7959	7959	7959	7959	7959	7959	7959	8146	8146	8146	8146	8146	8146	8146	8146	8146	8146	8146	8146	8146	8146	8146	8146	8146	8146	8146	8146	8146	8146	8146	8146	8146	8146	8146	8146	8146	8146	8146	8146	8146	8146	8146	8146	8146	8146	7959	7959	7959	7959	8146	8146	8146	8146	8146	8146	8146	8146	8146	8146	7959	8146	8146	8146	8146	8146	8146	8146	8146	8146	8146	8146	8146	8146	8146	8146	8146	8343	8343	8343	8343	8550	8550	8550	8550	8550	8550	8550	8343	8343	8550	8343	8343	8146	8146	8146	8146	8146	8146	8343	8550	8550	8550	0	0	0	0	0	0	0	2609	2589	2589	2589	2589	2589	2589	2570	2570	2570	2551	2532	2532	2514	2514	2514	2514	2496	2496	2460	2443	2426	2426	2426	2426	2426	2409	2409	2409	2409	2392	2376	2376	2343	2343	0	0	0	0	0	0	0	0	0	0	0	0	0	0	0	0	0	0	0	0	0	0	0	0	0	0	0	0	0	0	0	0	0	0	0	0	0
0	0	0	0	0	0	0	0	0	0	950	953	955	958	958	958	961	963	966	966	972	972	983	988	991	994	997	1000	1008	1008	1008	1014	1020	1023	1026	1026	1033	1039	1042	1045	1045	1045	1048	1048	1052	1055	1055	1055	0	0	0	0	0	0	0	0	0	0	0	0	0	0	0	0	0	0	0	0	0	0	0	0	0	0	0	0	0	0	0	0	0	0	0	0	0	0	0	0	0	0	0	0	0	0	0	0	0	0	0	0	0	0	0	0	0	0	0	0	0	0	0	0	0	0	0	0	0	0	0	0	0	0	0	0	0	0	0	0	0	0	0	0	0	0	0	8146	8146	8146	0	8146	8343	8343	8146	8146	8146	8146	8146	8146	8146	8146	8146	8146	7959	7959	7959	7959	7959	7959	7959	7959	7959	7959	7779	7959	7959	7959	8146	8146	7959	7959	7959	7959	7959	7959	7779	7779	7779	7779	7779	7779	7779	7959	7959	7959	7959	7959	7959	7959	7959	7959	7959	7959	7959	7959	7959	7959	7779	7959	7959	7959	8146	8146	8146	8146	8146	7959	7959	8146	8146	8146	8146	7959	8146	8146	8146	8146	7959	7959	7959	7959	7959	7959	7959	7959	7959	7959	7959	7779	7959	7959	7959	7959	7959	7959	7959	7959	7959	7959	7959	7959	7959	7959	7959	7959	7959	7959	7959	7959	7959	7959	7959	7959	7959	7959	7959	7779	7779	0	0	0	0	0	0	2822	2822	2822	2799	2799	2799	2777	2777	2777	2777	2777	2799	2799	2799	2799	2777	2777	2777	2754	2754	2754	2754	2733	2733	2733	2733	2733	2733	2733	2733	2711	2711	2711	2711	2711	2690	2690	2690	2690	2690	2690	2669	2669	2669	2690	2690	2690	2690	2690	2690	2690	2711	2711	2711	2711	2711	2711	2711	2711	2711	2711	2733	2733	2733	2733	2733	2754	2754	2754	2777	2777	2799	2799	2799	2799	2799	2799	2799	2799	2799	2799	2799	2799	2799	2799	2799	2799	2822	0	0	8343	8343	8146	8343	8343	8343	8343	8343	8146	8146	8146	8146	8146	8343	8343	8343	8343	8343	8550	8550	8343	8343	8343	8343	8343	8146	8146	8146	8343	8146	8146	8146	8146	8146	8146	8146	8146	8146	8146	8343	8343	8146	8343	8146	8146	8146	8146	8146	8146	8146	8146	8146	8343	8146	8146	8146	8146	8146	8146	8146	7959	7959	7959	7959	7959	7959	8146	8146	8146	8146	8146	7959	7959	7959	7959	8146	8146	7959	7959	8146	8146	8146	8146	8146	8146	8146	8146	8146	8146	8146	8146	8146	8146	8146	8146	8146	8343	8146	8146	8146	8146	8146	8146	7959	7959	7959	7959	7959	7959	7959	7959	7959	8146	8146	8146	8146	7959	8146	8146	8146	8146	8146	8146	8146	8146	8146	8146	8146	8343	8146	8146	8146	8146	8146	8146	8146	8146	8146	8146	8146	8146	8146	8146	8146	8146	8146	8146	8146	8146	7959	7959	7959	7959	7959	7959	7959	7959	8146	8146	8146	8146	8146	8146	8146	8146	8146	8146	8146	8146	8146	8146	8146	8146	8146	8146	8146	8146	8146	8146	8146	8146	8146	8146	8343	8343	8343	8343	8550	8550	8550	8550	8550	8550	8343	8550	8550	8343	8343	8343	8146	8146	8146	8146	8146	8343	8343	8343	8550	8550	0	0	0	0	0	0	2609	2589	2589	2589	2589	2589	2589	2570	2570	2570	2551	2532	2532	2514	2514	2514	2496	2496	2478	2460	2443	2426	2426	2426	2426	2426	2409	2426	2409	2409	2392	2376	2376	2343	2343	0	0	0	0	0	0	0	0	0	0	0	0	0	0	0	0	0	0	0	0	0	0	0	0	0	0	0	0	0	0	0	0	0	0	0	0	0
0	0	0	0	0	0	932	937	937	948	950	953	955	958	958	958	961	961	966	966	972	972	983	985	988	991	997	1000	1003	1008	1011	1014	1020	1020	1026	1033	1036	1039	1042	1045	1045	1045	1045	1048	1052	1052	1055	1055	0	0	0	0	0	0	0	0	0	0	0	0	0	0	0	0	0	0	0	0	5448	5448	5448	5448	5448	0	0	0	0	0	0	0	5915	5915	5915	0	0	0	0	0	0	0	0	0	0	0	0	0	0	0	0	0	0	0	6853	6853	0	0	0	0	0	0	0	0	0	0	0	0	0	0	0	0	0	0	0	0	0	0	0	0	0	0	0	0	8146	7959	7959	8146	8146	8146	8146	8146	8146	8146	8146	8146	8146	8146	8146	8146	8146	8146	8146	7959	7959	7959	7959	7959	7959	7959	7959	7959	7959	7959	7959	7959	7959	7959	7959	7959	7959	7959	7959	8146	7959	7959	7959	7959	7959	7959	7959	7959	7959	7959	7959	7959	7959	7959	7959	7959	7959	7959	7959	7959	7959	7959	7959	7959	7959	7959	7959	7959	7959	7959	7959	7959	7959	7959	7959	8146	8146	8146	8146	8146	8146	8146	8146	8146	7959	7959	7959	7959	7959	7959	7959	7959	7959	7959	7959	7779	7959	7779	7959	7959	7959	7959	7959	7959	7959	7959	7959	7959	7959	7959	7959	7959	7959	7959	7959	7959	7959	7959	7959	7959	7959	7959	7779	7779	7779	0	0	0	0	0	0	2822	2822	2822	2799	2799	2777	2777	2777	2777	2777	2799	2799	2799	2799	2799	2777	2777	2777	2754	2754	2754	2754	2733	2733	2733	2733	2733	2733	2733	2733	2711	2711	2711	2711	2711	2690	2690	2690	2690	2690	2690	2669	2669	2690	2690	2690	2690	2690	2690	2690	2690	2711	2711	2711	2711	2711	2711	2711	2711	2711	2711	2711	2711	2733	2733	2733	2733	2754	2754	2777	2777	2777	2799	2799	2799	2799	2799	2799	2799	2799	2799	2799	2799	2799	2799	2799	2822	2822	0	0	8343	8343	8343	8343	8343	8343	8343	8343	8146	8146	8146	8146	8146	8343	8146	8343	8343	8550	8343	8550	8343	8343	8343	8343	8343	8146	8146	8146	8343	8343	8343	8146	8146	8146	8146	8146	8146	8146	8146	8343	8343	8146	8146	8146	8146	8146	8146	8146	8146	8146	8146	7959	8146	8146	8146	8146	7959	7959	7959	7959	7959	7959	7959	7959	7959	8146	8146	8146	8146	8146	8146	7959	7959	7959	7959	8146	8146	7959	7959	8146	8146	8146	8146	8146	8146	8146	8146	8146	8146	8146	8146	8343	8146	8343	8146	8146	8343	8146	8146	8146	8146	8146	8146	7959	7959	7959	7959	7959	7959	7959	7959	7959	8146	8146	8146	8146	7959	8146	8146	8146	8146	8146	8146	8343	8146	8343	8146	8146	8343	8146	8146	8146	8146	8146	8146	8146	8146	8146	8146	8146	8146	8146	8146	8146	8146	8146	8146	8146	8146	8146	8146	7959	7959	7959	7959	8146	8146	8146	8146	8146	8146	8146	8146	8146	8146	8146	8146	8146	8343	8146	8146	8343	8146	8146	8146	8146	8146	8146	8146	8146	8146	8146	8146	8146	8343	8343	8343	8550	8550	8550	8550	8550	8550	8550	8550	8550	8550	8550	8343	8343	8343	8343	8146	8146	8343	8343	8343	8343	8343	0	0	0	0	0	0	0	2589	2609	2589	2589	2589	2589	2589	2570	2570	2551	2532	2532	2514	2514	2496	2496	2496	2478	2460	2443	2443	2426	2426	2426	2426	2426	2409	2409	2409	2392	2376	2376	2359	2359	0	0	0	0	0	0	0	0	0	0	0	0	0	0	0	0	0	0	0	0	0	0	0	0	0	0	0	0	0	0	0	0	0	0	0	0	0
0	0	0	0	0	0	932	940	945	950	950	953	955	958	961	961	961	963	966	969	969	974	983	985	988	991	994	997	1000	1006	1011	1011	1017	1023	1030	1036	1039	1042	1042	1045	1045	1045	1048	1048	1052	1052	1055	1055	0	0	0	0	0	0	0	0	0	0	0	0	0	0	0	0	0	5448	5448	5448	5448	5448	5448	5448	5448	5448	5448	5448	0	5815	5815	5915	5915	5915	5915	5915	6018	6124	6235	6235	0	0	0	0	0	0	0	0	0	0	0	6468	6720	6720	6720	6853	6853	0	6853	6853	0	0	0	0	0	0	0	0	0	0	0	0	0	0	0	0	0	0	0	0	0	0	0	0	8146	8146	7959	8146	8146	8146	8146	7959	8146	8146	8146	8146	8146	8146	8146	8146	8146	8146	8146	8146	8146	7959	7959	7959	8146	8146	7959	7959	7959	7959	7959	7959	7959	7959	7959	8146	7959	7959	7959	7959	7959	7959	7959	7959	7959	7959	7959	7959	7779	7959	7779	7959	7959	7959	7959	7959	7959	7959	7959	7959	7959	7959	7959	7959	7959	7959	7959	7959	7959	7959	7959	7959	7959	7959	7779	8146	8146	8146	8146	8146	8146	8146	8146	8146	7959	7959	7959	7959	7959	7959	7959	7959	7959	7959	7959	7779	7779	7779	7779	7959	8146	7959	7959	7959	7959	7959	7959	7959	7959	7959	7959	7959	7959	7959	7959	7959	7959	7959	7959	7959	8146	8146	7959	7779	7779	0	0	0	0	0	0	0	2822	2822	2822	2799	2799	2777	2777	2777	2777	2799	2799	2799	2799	2799	2777	2777	2777	2754	2754	2754	2733	2733	2733	2733	2733	2733	2733	2711	2711	2711	2711	2711	2711	2711	2711	2690	2690	2690	2690	2690	2669	2669	2669	2690	2690	2690	2690	2690	2690	2690	2711	2711	2711	2711	2711	2711	2711	2711	2711	2711	2711	2733	2733	2733	2733	2733	2754	2754	2777	2777	2777	2777	2799	2799	2799	2799	2799	2799	2799	2799	2799	2799	2799	2799	2799	2822	2822	0	0	8343	8343	8343	8343	8343	8343	8343	8146	8146	8146	8146	8146	8146	8146	8343	8343	8343	8550	8343	8343	8343	8343	8343	8343	8146	8146	8146	8146	8343	8343	8146	8146	8146	8146	8146	8146	8146	8146	8146	8146	8146	8146	8343	8146	8146	8146	8146	8146	8146	8146	7959	7959	8146	8146	8146	8146	7959	8146	7959	7959	7959	7959	7959	7959	8146	8146	8343	8343	8343	8146	8146	7959	7959	7959	7959	8146	8146	8146	8146	8146	8146	8146	8146	8146	8146	8146	8146	8343	8343	8343	8343	8343	8146	8343	8146	8146	8343	8146	8146	8146	8146	8146	8146	7959	7959	7959	7959	7959	7959	7959	7959	7959	8146	8146	8146	8146	8146	8146	8146	8146	8146	8146	8146	8146	8343	8343	8343	8343	8343	8343	8343	8343	8146	8146	8146	8146	8146	7959	7959	7959	7959	7959	8146	8146	8146	8146	8146	8146	8146	8146	8146	7959	7959	7959	7959	8146	8146	8146	8146	8146	8146	8146	8146	8146	8146	8146	8146	8146	8146	8146	8146	8343	8343	8343	8343	8343	8343	8343	8343	8146	8146	8146	8146	8146	8343	8343	8343	8550	8550	8550	8550	8550	8767	8550	8550	8550	8550	8550	8343	8343	8343	8343	8146	8146	8343	8343	8343	8343	8343	0	0	0	0	0	0	0	0	2609	2609	2609	2589	2589	2589	2570	2570	2551	2532	2532	2514	2514	2496	2496	2478	2478	2443	2443	2443	2426	2426	2426	2426	2426	2426	2409	2409	2392	2376	2376	2359	2359	2359	0	0	0	0	0	0	0	0	0	0	0	0	0	0	0	0	0	0	0	0	0	0	0	0	0	0	0	0	0	0	0	0	0	0	0	0
0	0	0	0	0	0	0	945	948	950	950	953	955	958	961	961	961	963	966	969	972	977	983	985	988	994	997	1000	1000	1006	1006	1011	1017	1020	1026	1033	1039	1042	1042	1042	1045	1045	1048	1048	1052	1055	1055	1055	0	0	0	0	0	0	0	0	0	0	0	0	0	0	0	5448	5448	5448	5535	5448	5448	5448	5448	5448	5448	5448	5448	5448	5815	5815	5815	5915	5915	5915	5915	5915	6018	6124	6235	6235	0	0	0	0	0	0	0	6468	6468	6592	6592	6468	6720	6720	6853	6853	6853	6853	6853	6853	6853	0	0	0	0	0	0	0	0	0	0	0	0	0	0	0	0	0	0	0	0	0	0	0	7608	7779	7959	8146	8146	8146	8146	8146	8146	8146	8146	8146	8146	8146	8146	8146	8146	8146	8146	8146	8146	7959	7959	7959	7959	8146	7959	7959	7959	7959	7959	7959	7959	7959	7959	8146	8146	8146	7959	8146	8146	7959	7959	7959	7959	7959	7959	7959	7959	7959	7959	7959	7959	7959	7959	7959	7959	7959	7959	7959	7959	7959	7959	7959	7779	7779	7959	7959	7959	7959	7959	7959	7959	7959	7779	8146	8146	8146	8146	8146	8146	8146	8146	8146	7959	7959	8146	8146	8146	7959	7959	7959	7959	7959	7779	7779	7959	7959	7959	7959	8146	8146	7959	7959	7959	7959	7959	7959	7959	7959	7959	7959	7959	7959	7959	7959	8146	8146	8146	8146	8146	8146	8146	8146	7779	0	0	0	0	0	0	0	2822	2822	2799	2799	2799	2777	2777	2777	2777	2799	2799	2799	2799	2799	2777	2777	2777	2754	2754	2754	2733	2733	2733	2733	2733	2733	2733	2733	2711	2711	2711	2711	2711	2711	2711	2690	2690	2690	2690	2690	2669	2669	2669	2690	2690	2690	2690	2690	2690	2690	2711	2711	2711	2711	2711	2711	2711	2711	2711	2711	2711	2733	2733	2733	2733	2733	2754	2754	2777	2777	2777	2777	2799	2799	2799	2799	2799	2799	2799	2799	2799	2799	2799	2799	2799	2799	2799	0	0	8550	8343	8343	8343	8343	8343	8343	8146	8146	8146	8146	8146	8146	8146	8146	8343	8343	8343	8343	8343	8146	8146	8146	8343	8146	8146	8146	8146	8343	8343	8146	8146	8146	8146	8146	8146	8146	8146	8146	8146	8343	8343	8343	8343	8146	8343	8146	8146	8146	7959	7959	7959	8146	8146	7959	8146	8146	8146	8146	7959	7959	7959	7959	8146	8146	8146	8343	8343	8343	8146	8146	7959	7959	7959	7959	8146	8146	8146	8146	8146	8146	8146	8146	8146	8146	8146	8343	8343	8343	8343	8146	8146	8146	8146	8146	8146	8146	8146	8146	8146	8146	8146	8146	7959	7959	7959	7959	7959	7959	7959	7959	7959	8146	8146	8146	7959	7959	7959	8146	8146	8146	8146	8146	8146	8146	8146	8146	8343	8343	8343	8343	8343	8343	8146	8146	8146	8146	7959	7959	7959	7959	7959	8146	8146	8146	8146	8146	8146	8146	8146	8146	8146	8146	8146	8146	8146	8146	8146	8146	8146	8146	8146	8146	8146	8146	8146	8146	8146	8343	8343	8343	8343	8343	8343	8343	8343	8343	8343	8343	8343	8146	8146	8146	8343	8343	8343	8343	8550	8550	8550	8550	8550	8767	8767	8550	8767	8550	8550	8343	8343	8343	8343	8146	8146	8146	8343	8343	8146	8146	0	0	0	0	0	0	0	0	2629	2609	2609	2609	2589	2589	2570	2570	2551	2532	2532	2514	2514	2496	2478	2478	2460	2443	2443	2443	2426	2426	2426	2426	2426	2426	2409	2409	2392	2376	2376	2359	2359	2359	0	0	0	0	0	0	0	0	0	0	0	0	0	0	0	0	0	0	0	0	0	0	0	0	0	0	0	0	0	0	0	0	0	0	0	0
0	0	0	0	0	0	942	945	948	950	950	953	955	955	958	958	961	963	969	972	974	977	985	988	991	994	997	1000	1000	1006	1006	1011	1017	1020	1026	1033	1036	1039	1039	1042	1045	1045	1048	1052	1048	1052	1052	1052	1052	1055	0	0	0	0	0	0	0	0	0	5364	5364	5364	5448	5448	5448	5448	5448	5448	5535	5448	5448	5448	5535	5535	5535	5719	5719	5719	5719	5815	5915	5915	5915	5915	6018	6124	6124	6124	0	0	0	0	0	0	6349	6468	6468	6592	6592	6592	6592	6720	6853	6853	6853	6853	6853	6853	6853	6853	0	0	0	0	0	0	0	0	0	0	0	0	0	0	0	0	0	0	0	0	0	0	7608	7779	8146	8146	8146	8146	8146	8146	8146	8146	8146	8146	8146	8146	8146	8146	8146	8146	8146	8146	8146	8146	8146	7959	8146	8146	8146	8146	7959	7959	8146	7959	7959	7959	8146	8146	8146	8146	7959	8146	8146	7959	7959	7959	7959	7959	7959	7959	7959	7959	7959	7959	7959	7959	7959	7959	7959	7959	7959	7959	7959	7959	7959	7959	7779	7779	7779	7959	7959	7959	7959	8146	7959	7959	7779	7959	7959	8146	8146	8146	8146	8146	7959	7959	7959	7959	7959	7959	7959	7959	7959	7959	7959	7959	7959	7959	7959	7959	7959	7959	8146	8146	7959	7959	7959	7959	7959	7959	7959	7779	7959	7959	7959	7959	7959	7959	8146	8146	8146	8146	8146	8146	8146	8146	0	0	0	0	0	0	0	0	2822	2799	2799	2799	2799	2777	2777	2777	2777	2799	2799	2777	2777	2777	2777	2777	2754	2754	2754	2733	2733	2733	2711	2733	2711	2733	2711	2733	2733	2711	2711	2711	2711	2711	2711	2690	2690	2690	2690	2669	2669	2669	2669	2690	2690	2690	2690	2690	2690	2690	2711	2711	2711	2711	2711	2711	2711	2711	2711	2711	2711	2733	2733	2733	2733	2733	2733	2754	2754	2777	2777	2777	2799	2799	2799	2799	2799	2799	2799	2799	2799	2799	2799	2799	2799	2799	2799	0	0	8550	8343	8343	8343	8343	8343	8343	8343	8146	8146	8146	8146	8146	8146	8146	8146	8146	8343	8343	8343	8146	8343	8146	8343	8343	8146	8146	8146	8343	8146	8146	8146	8146	8146	8146	8146	8146	8146	8146	8146	8343	8343	8343	8146	8146	8343	8146	8146	8146	8146	8146	7959	8146	8146	7959	8146	8146	8146	8146	7959	7959	7959	7959	8146	8146	8146	8343	8343	8343	8146	7959	7959	7959	7959	7959	8146	8146	8146	8146	8146	8146	8146	8146	8146	8146	8343	8343	8343	8343	8343	8343	8343	8146	8146	8146	8146	8146	8146	8146	8146	8146	8146	8146	8146	7959	7959	7959	7959	7959	7959	7959	7959	7959	7959	8146	7959	7959	7959	8146	8146	7959	7959	7959	7959	7959	8146	8146	8343	8343	8343	8343	8343	8343	8146	8146	8146	8146	7959	7959	7959	7959	7959	8146	8146	8146	8146	8146	8146	8146	8146	8146	8146	8146	8146	8146	8146	8146	8146	8146	8146	8146	8146	8146	8146	8146	8146	8146	8146	8343	8343	8343	8343	8343	8343	8343	8343	8343	8343	8343	8343	8343	8146	8146	8343	8343	8343	8343	8550	8550	8550	8550	8550	8995	8995	8995	8550	8550	8550	8343	8343	8343	8343	8146	8146	8146	8146	8146	8146	8146	0	0	0	0	0	0	0	0	2629	2609	2609	2609	2589	2589	2570	2570	2570	2551	2551	2532	2514	2496	2478	2478	2460	2443	2443	2443	2426	2426	2426	2426	2426	2426	2409	2409	2392	2376	2376	2359	2359	2359	0	0	0	0	0	0	0	0	0	0	0	0	0	0	0	0	0	0	0	0	0	0	0	0	0	0	0	0	0	0	0	0	0	0	0	0
0	0	0	0	0	0	945	945	948	950	950	950	953	955	955	955	958	963	969	974	974	980	988	991	994	997	997	1000	1000	1006	1006	1011	1014	1020	1023	1030	1033	1036	1039	1042	1042	1045	1045	1048	1048	1052	1052	1052	1052	1055	0	0	0	0	0	0	0	0	0	5448	5448	5448	5448	5448	5448	5448	5448	5535	5535	5448	5535	5535	5535	5626	5626	5719	5719	5719	5719	5815	5915	5915	5915	5915	6018	6018	6124	6124	0	0	0	0	0	0	6468	6592	6592	6592	6720	6720	6720	6720	6853	6853	6853	6853	6853	6853	6853	6853	6853	0	0	0	0	0	0	0	0	0	0	0	0	0	0	0	0	0	0	0	0	0	0	7779	7959	8146	8146	8146	8146	8146	8146	8146	8146	8146	8146	8146	8343	8343	8146	8146	8146	8146	8146	7959	7959	7959	7959	8146	7959	7959	7959	7959	8146	7959	8146	7959	8146	8146	8146	8146	7959	7959	7959	7959	7959	7959	7959	7959	7959	7959	7959	7959	7959	7959	7959	7959	7959	7959	7959	7959	7959	7959	7959	7959	7959	7959	7779	7779	7779	7959	7959	8146	8146	8146	7959	7959	7779	8146	8146	8146	8146	8146	8146	7959	7959	7959	7959	7959	7959	7959	7959	7959	7959	7959	7959	7959	7959	7959	7959	7959	7959	7959	8146	8146	7959	7959	7959	7959	7959	7959	7959	7779	7959	7959	7779	7959	7959	7959	8146	8146	8146	8146	8146	8343	8146	8146	0	0	0	0	0	0	0	0	2799	2799	2799	2799	2799	2777	2777	2777	2777	2777	2777	2777	2777	2777	2777	2777	2754	2754	2754	2754	2733	2733	2733	2733	2733	2733	2711	2711	2711	2711	2711	2711	2711	2711	2690	2690	2690	2690	2690	2690	2669	2669	2669	2690	2690	2690	2690	2690	2690	2690	2711	2711	2711	2711	2711	2711	2711	2711	2711	2711	2711	2733	2733	2733	2733	2754	2754	2754	2754	2777	2777	2777	2799	2799	2799	2799	2799	2799	2799	2799	2799	2799	2799	2799	2799	2799	2799	0	0	8550	8550	8550	8550	8550	8343	8343	8343	8146	8146	8146	8146	8146	8146	8146	8343	8343	8343	8343	8550	8343	8146	8146	8146	8146	8146	8146	8146	8343	8343	8343	8146	8146	8146	8146	8146	8146	8146	8146	8146	8146	8146	8146	8146	8146	8146	8146	8146	8146	7959	7959	7959	7959	7959	7959	7959	7959	7959	7959	7959	7959	7959	8146	8146	8343	8343	8343	8343	8343	8146	7959	7959	7959	7959	7959	8146	8146	8146	8146	8146	8146	8146	8146	8343	8343	8343	8343	8343	8343	8343	8343	8343	8343	8146	8146	8146	8146	8146	8146	8146	8146	8146	8146	8146	7959	7959	7959	7959	7959	7959	7959	7959	8146	8146	8146	8146	8146	8146	7959	7959	7959	7959	7959	7959	7959	8146	8146	8343	8343	8343	8343	8343	8343	8146	8146	8146	8146	8146	8146	7959	8146	7959	8146	8146	8146	8146	8146	8146	8146	8146	8146	8146	8146	8146	8146	8146	8146	8146	8146	8146	8146	8146	8146	8146	8146	8146	8146	8146	8343	8343	8343	8343	8343	8343	8343	8343	8343	8343	8343	8343	8343	8146	8146	8146	8146	8343	8146	8343	8343	8550	8550	8550	8995	8995	8995	8995	8550	8550	8550	8343	8343	8343	8343	8146	8146	8146	8146	8146	8146	0	0	0	0	0	0	0	0	2629	2609	2609	2609	2589	2589	2570	2570	2570	2551	2551	2551	2532	2514	2496	2496	2478	2443	2443	2443	2426	2426	2426	2426	2426	2426	2426	2409	2409	2392	2376	2376	2359	2359	0	0	0	0	0	0	0	0	0	0	0	0	0	0	0	0	0	0	0	0	0	0	0	0	0	0	0	0	0	0	0	0	0	0	0	0
0	0	0	0	0	0	942	945	948	950	950	950	953	955	955	955	958	963	972	977	980	985	988	988	991	994	997	1000	1000	1006	1008	1014	1017	1017	1020	1020	1023	1030	1033	1039	1042	1045	1045	1048	1048	1052	1052	1052	1052	0	0	0	0	0	0	0	0	0	0	5448	5448	5448	5448	5448	5448	5448	5448	5448	5535	5448	5535	5535	5535	5719	5626	5719	5719	5719	5719	5815	5815	5815	5915	5915	6018	6018	6018	6018	0	0	0	0	0	0	6468	6592	6592	6720	6720	6720	6720	6853	6853	6853	6853	6853	6853	6853	6853	6853	6720	6720	0	0	0	0	0	0	0	0	0	0	0	0	0	0	0	0	0	0	0	0	7608	7779	7959	7959	8146	8146	8146	8146	8146	8146	8146	8146	8146	8146	8146	8146	8146	8146	8146	8146	8146	7959	7959	7959	7959	8146	8146	8146	7959	8146	8146	8146	8146	8146	8146	8146	8146	8146	8146	8146	7959	8146	7959	7959	8146	8146	7959	7959	7959	7959	7959	7959	7959	7959	7959	7959	7959	7779	7959	7959	7959	7959	7959	7959	7779	7779	7779	7959	7959	7959	8146	8146	8146	7959	7779	7779	8146	8146	8146	8146	8146	7959	7959	7959	7959	7959	7959	7959	8146	8146	8146	8146	8146	7959	8146	7959	8146	7959	8146	8146	8146	8146	7959	7959	7959	7959	7959	7959	7959	7959	7959	7959	7959	7959	7959	7959	8146	8146	8146	8343	8146	8343	8146	8146	8146	0	0	0	0	0	0	0	2799	2799	2777	2799	2799	2777	2799	2777	2777	2799	2799	2777	2777	2777	2777	2777	2754	2754	2754	2754	2733	2733	2733	2733	2711	2711	2711	2711	2711	2711	2711	2711	2711	2711	2711	2690	2690	2690	2690	2690	2690	2669	2690	2690	2690	2690	2690	2690	2690	2690	2711	2711	2711	2711	2711	2711	2711	2711	2711	2733	2733	2733	2733	2733	2733	2733	2754	2754	2754	2777	2777	2777	2799	2799	2799	2799	2799	2799	2799	2799	2799	2799	2799	2799	2799	2799	2799	0	0	8550	8550	8550	8550	8550	8550	8550	8343	8146	8146	8146	8146	8146	8146	8146	8343	8343	8343	8550	8343	8343	8146	8146	8146	8146	8146	8146	8146	8343	8146	8343	8146	8343	8146	8146	8146	8146	8146	8146	8146	8146	8146	8146	8146	8146	8343	8146	8146	8146	7959	8146	7959	7959	7959	7959	7959	7959	7959	7959	7959	7959	8146	8146	8146	8343	8343	8343	8343	8146	8146	7959	7959	7959	7959	7959	8146	8146	8146	8146	8146	8146	8146	8146	8343	8146	8343	8343	8343	8343	8343	8343	8343	8343	8146	8146	8146	8146	8146	8146	8146	8146	8146	8146	8146	8146	7959	7959	7959	7959	7959	7959	8146	8146	8146	8146	8146	8146	7959	7959	7959	7959	7959	7779	7959	7959	8146	8146	8146	8343	8343	8343	8343	8343	8146	8146	8146	8146	8146	8146	8146	8146	8146	8146	8146	8146	8146	8146	8146	8146	8146	8146	8146	8146	8146	8146	8146	8146	8146	8146	8146	8146	8146	8146	8146	8146	8146	8146	8146	8343	8343	8343	8343	8343	8343	8343	8343	8343	8343	8343	8343	8343	8146	8146	8146	8146	8146	8146	8343	8343	8343	8343	8343	8343	8995	8995	8995	0	8550	8550	8550	8550	8343	8343	8343	8146	8146	8146	8146	0	0	0	0	0	0	0	0	0	2629	2609	2609	2609	2609	2589	2570	2570	2570	2551	2551	2532	2514	2496	2496	2478	2460	2443	2443	2443	2443	2426	2426	2426	2426	2426	2409	2409	2392	2392	2376	2359	2359	2359	0	0	0	0	0	0	0	0	0	0	0	0	0	0	0	0	0	0	0	0	0	0	0	0	0	0	0	0	0	0	0	0	0	0	0	0
0	0	0	0	0	0	942	948	948	950	950	950	953	955	955	955	958	963	969	980	983	985	988	988	988	994	997	997	1000	1006	1008	1014	1017	1020	1020	1023	1023	1030	1036	1039	1042	1042	1045	1045	1048	1048	1048	1048	1048	0	0	0	0	0	0	0	0	0	0	5448	5448	5448	5448	5448	5448	5448	5448	5535	5535	5535	5535	5535	5626	5719	5719	5719	5719	5815	5719	5719	5815	5815	5915	5915	6018	6018	6018	6018	0	0	0	0	0	0	6349	6468	6468	6592	6720	6720	6720	6853	6853	6853	6853	6853	6853	6853	6853	6853	6720	6720	0	0	0	0	0	0	0	0	0	0	0	0	0	0	0	0	0	0	0	0	7779	7779	7959	8146	8146	8146	8146	8146	8146	8146	8146	8146	8146	8146	8146	8146	8146	7959	8146	7959	8146	7959	7959	7959	7959	8146	8146	8146	7959	8146	8146	8146	8146	8146	8146	8146	8146	7959	7959	8146	8146	8146	8146	8146	8146	8146	8146	8146	7959	7959	7959	7959	7959	7959	7779	7959	7779	7779	7779	7779	7779	7779	7959	7959	7779	7959	7959	7959	7959	7959	7959	7959	7959	7959	7959	8146	8146	8146	8146	7959	7959	7959	7959	7959	7959	7959	7959	8146	8146	8146	8146	7959	8146	8146	8146	8146	8146	8146	8146	8146	8146	8146	7959	7959	8146	7959	7959	7959	7959	7959	7959	7959	7779	7959	7779	7959	8146	8146	8146	8146	8146	8146	8343	8146	8146	0	0	0	0	0	0	0	2799	2799	2777	2777	2777	2777	2777	2777	2777	2799	2799	2777	2777	2777	2754	2754	2754	2754	2754	2754	2754	2733	2733	2733	2711	2711	2711	2711	2711	2711	2711	2711	2711	2711	2711	2711	2690	2690	2690	2690	2690	2690	2690	2690	2690	2690	2690	2690	2690	2690	2690	2711	2711	2711	2711	2711	2711	2711	2733	2733	2733	2733	2733	2733	2733	2754	2754	2754	2754	2777	2777	2777	2799	2799	2799	2799	2799	2799	2799	2799	2799	2799	2799	2799	2799	2799	2799	0	8550	8550	8550	8550	8550	8343	8343	8343	8343	8146	8146	8146	8146	8146	8146	8146	8343	8146	8146	8146	8146	8146	8146	8146	8146	8146	8146	8146	8146	8146	8146	8146	8146	8343	8146	8343	8146	8343	8146	8146	8146	8343	8146	8146	8146	8146	8146	8146	8146	8146	7959	8146	7959	7959	7959	7959	8146	8146	7959	7959	7959	7959	7959	8146	8146	8146	8146	8146	8343	8146	8146	7959	7959	7959	7959	7959	8146	8146	8146	8146	8146	8146	8146	8146	8343	8146	8343	8146	8343	8146	8146	8146	8146	8146	8146	8146	8146	8146	8146	8146	8146	8146	8146	8146	8146	8146	8146	8146	8146	7959	7959	7959	7959	8146	8146	8146	8146	8146	8146	7959	7959	7959	7959	7779	7959	7959	7959	8146	8146	8146	8343	8343	8343	8146	8146	8146	8146	7959	8146	8146	8146	8146	8146	8146	8146	8146	8146	8146	8146	8146	8146	8146	8146	8146	8146	8146	8146	8146	8146	8146	8146	8146	8146	8146	8146	8146	8146	8146	8343	8550	8550	8550	8550	8550	8550	8343	8343	8343	8343	8343	8343	8343	8146	8146	8146	8146	8146	8146	8343	8343	8343	8343	8343	8343	0	0	0	0	0	0	8550	8550	8343	8343	8343	8146	8343	8146	8146	0	0	0	0	0	0	0	0	0	2649	2629	2609	2589	2609	2589	2570	2570	2570	2570	2551	2532	2514	2514	2496	2496	2478	2460	2443	2443	2443	2426	2426	2426	2426	2426	2426	2409	2392	2376	2376	2376	2359	2359	0	0	0	0	0	0	0	0	0	0	0	0	0	0	0	0	0	0	0	0	0	0	0	0	0	0	0	0	0	0	0	0	0	0	0	0
0	0	0	0	0	0	0	948	948	950	950	950	953	953	953	955	963	963	974	974	983	985	988	991	994	997	997	1000	1000	1006	1011	1017	1020	1020	1020	1023	1023	1030	1036	1039	1042	1042	1045	1045	1045	1048	1048	1048	1048	0	0	0	0	0	0	0	0	0	0	5448	5448	5448	5448	5448	5448	5448	5448	5535	5535	5535	5535	5535	5626	5719	5719	5815	5719	5815	5815	5815	5815	5915	5915	6018	6018	6018	6124	6124	6124	6124	6235	6235	6349	6349	6349	6468	6468	6468	6592	6592	6592	6720	6853	6853	6853	6853	6853	6853	6853	6853	6853	6992	6992	0	0	0	0	0	0	0	0	0	0	0	0	0	0	0	0	0	0	0	7779	7959	8146	8146	8146	8146	8146	8146	8146	8146	8146	8146	8146	8146	8146	8146	8146	7959	8146	7959	8146	7959	7959	7779	7779	7959	7959	7959	7959	7959	8146	8146	8146	8146	8146	8146	8146	8146	8146	8146	8146	8146	8146	8146	8146	8146	8146	8146	7959	7959	7959	8146	7959	7959	7779	7959	7779	7779	7779	7779	7779	7779	7779	7779	7779	7959	7959	7779	7959	7959	7959	7959	7779	7779	7779	8146	7959	7959	7959	7959	7959	7959	7959	7959	7959	7959	7959	8146	8146	8146	8146	8146	8146	7959	8146	8146	8146	8146	8146	8146	8146	8146	7959	7959	7959	7959	7959	7959	7959	7959	7959	7959	7959	7959	7779	7959	7959	7959	8146	8146	8146	8343	8146	8146	7959	7959	0	0	0	0	0	0	0	2799	2777	2799	2777	2777	2777	2777	2777	2777	2777	2777	2777	2754	2754	2754	2754	2754	2754	2754	2754	2733	2733	2733	2733	2733	2711	2711	2711	2711	2711	2711	2711	2711	2711	2711	2690	2690	2690	2690	2690	2690	2690	2690	2690	2690	2690	2690	2690	2690	2711	2711	2711	2711	2711	2711	2711	2711	2733	2733	2711	2711	2733	2711	2733	2733	2754	2754	2754	2777	2777	2777	2777	2777	2799	2799	2799	2799	2799	2799	2799	2799	2799	2799	2777	2777	0	0	8550	8550	8550	8550	8550	8343	8343	8343	8343	8146	8146	8146	8146	8146	8146	8146	8146	8146	8146	8343	8146	8146	8146	8146	8146	8146	8146	7959	7959	8146	8146	8146	8146	8146	8146	8343	8146	8343	8343	8146	8146	8343	8343	8146	8343	8146	8146	8146	8146	8146	7959	8146	8146	7959	8146	7959	8146	7959	7959	7959	7959	7959	7959	7959	7959	8146	8146	8343	8146	8146	7959	7959	7959	7959	8146	7959	8146	8146	8343	8343	8146	8146	8146	8146	8343	8146	8343	8146	8343	8146	8146	8146	8146	8146	8146	8146	8146	8146	8146	8146	8146	8146	8146	8146	8146	8146	8146	8146	8146	8146	8146	8146	8146	8146	8146	8146	8146	8146	7959	7959	7959	7959	7959	7779	7959	7959	7959	8146	8146	8146	8343	8343	8146	8146	8146	7959	7959	7959	7959	7959	7959	8146	8146	8146	8146	8146	8146	8146	8146	8146	8146	8146	8146	8146	8146	8146	8146	8146	8146	8146	8146	8146	8146	8146	8146	8146	8146	8146	8343	8343	8343	8343	8550	8550	8343	8343	8343	8343	8343	8343	8343	8343	8343	8146	8146	8146	8146	8146	8343	8343	8343	8343	8343	8343	0	0	0	0	0	0	0	8550	8343	8343	8343	8146	8146	8146	8146	0	0	0	0	0	0	0	0	0	2649	2629	2609	2609	2609	2589	2570	2570	2570	2551	2532	2532	2514	2496	2496	2496	2478	2478	2443	2443	2443	2443	2426	2426	2426	2426	2426	2409	2392	2376	2376	2359	2359	2359	0	0	0	0	0	0	0	0	0	0	0	0	0	0	0	0	0	0	0	0	0	0	0	0	0	0	0	0	0	0	0	0	0	0	0	0
0	0	0	0	0	0	0	948	945	948	948	950	953	953	955	955	966	972	974	977	980	985	988	991	994	997	997	1000	1000	1008	1014	1017	1020	1020	1020	1023	1023	1026	1039	1039	1042	1042	1045	1045	1045	1048	1052	1052	1052	0	0	0	0	0	0	0	0	0	0	5448	5448	5448	5448	5448	5535	5535	5535	5535	5535	5535	5535	5626	5626	5719	5719	5719	5815	5815	5815	5815	5815	5815	5915	5915	5915	6018	6018	6018	6018	6018	6235	6235	6235	6349	6349	6468	6468	6592	6720	6720	6720	6720	6853	6853	6853	6853	6853	6853	6853	6853	6853	6853	6992	6992	0	0	0	0	0	0	0	0	0	0	0	0	0	0	0	0	0	0	7959	7959	8146	8146	8146	8146	8146	8146	8146	8146	8146	8146	8146	8146	8146	8146	8146	7959	7959	7959	8146	7959	7959	7779	7779	7959	7959	7959	7959	7959	7959	8146	8146	8146	8146	8146	8146	8146	8146	8146	8146	8146	8146	8146	8146	8146	8146	8146	8146	8146	8146	8146	8146	7959	7959	7959	7779	7779	7779	7779	7779	7779	7779	7959	7959	7779	7779	7779	7959	7959	7959	7779	7779	7779	7779	8146	7959	7959	7959	7959	7959	7959	7959	8146	8146	8146	8146	8146	8146	8146	8146	8146	8146	7959	7959	8146	8146	7959	7959	8146	8146	8146	7959	8146	7959	7959	7959	7959	7959	7959	7959	7959	7959	7959	7959	7959	7959	8146	8146	8146	8146	8146	8146	8146	8146	8146	0	0	0	0	0	0	0	2777	2777	2777	2777	2777	2777	2777	2777	2777	2777	2777	2754	2754	2754	2754	2754	2754	2754	2754	2733	2733	2733	2733	2733	2733	2733	2711	2711	2711	2711	2711	2711	2711	2711	2711	2690	2690	2690	2690	2690	2690	2690	2690	2690	2711	2711	2711	2711	2711	2711	2711	2711	2711	2711	2711	2711	2711	2711	2711	2711	2711	2711	2711	2733	2733	2733	2754	2754	2777	2777	2777	2777	2777	2799	2799	2799	2799	2799	2799	2799	2799	2799	2777	2777	2777	2777	0	8550	8550	8550	8550	8550	8343	8343	8343	8343	8146	8146	8146	8343	8146	8146	8146	8146	8146	8146	8343	8146	8146	8146	8146	8146	8146	8146	7959	7959	8146	8146	8146	8146	8146	8146	8343	8343	8343	8343	8343	8343	8343	8343	8146	8146	8146	8146	8146	8146	8146	7959	7959	7959	7959	7959	8146	8146	8146	7959	7959	7959	7959	7959	8146	8146	8146	8146	8146	8146	8146	7959	7959	7959	7959	7959	7959	8146	8146	8146	8146	8146	8146	8146	8146	8343	8146	8343	8146	8343	8146	8146	8146	8146	8146	8146	8146	8146	8146	8146	8146	8146	8146	8146	8146	8146	8146	8146	8146	8146	8146	8146	8146	8146	8146	8146	8146	8146	8146	7959	7959	7959	7959	7779	7779	7779	7959	7959	7959	8146	8146	8146	8146	8146	8146	7959	7959	7959	7959	7959	7959	7959	7959	8146	8146	8146	8146	8146	8146	8146	8146	8146	8146	7959	8146	8146	8146	8146	8146	8146	8146	8146	8146	8146	8146	8146	8146	8146	8146	8343	8343	8343	8343	8550	8550	8550	8343	8343	8550	8343	8343	8343	8343	8343	8146	8146	8146	8146	8146	8146	8343	8343	8343	8343	8343	8343	0	0	0	0	0	0	0	0	8343	8343	8343	8343	8343	0	0	0	0	0	0	0	0	0	0	2649	2609	2589	2589	2589	2589	2570	2570	2570	2551	2532	2532	2514	2496	2496	2478	2460	2460	2443	2443	2443	2443	2426	2426	2426	2426	2426	2409	2392	2376	2376	2359	2359	2359	0	0	0	0	0	0	0	0	0	0	0	0	0	0	0	0	0	0	0	0	0	0	0	0	0	0	0	0	0	0	0	0	0	0	0	0
0	0	0	0	0	0	0	0	940	948	950	950	953	953	955	955	966	972	974	980	980	985	985	988	994	994	997	1000	1003	1008	1014	1017	1020	1020	1020	1023	1026	1033	1039	1042	1042	1045	1045	1045	1045	1048	1052	1055	1055	0	0	0	0	0	0	0	0	0	0	5535	5535	5535	5448	5448	5535	5448	5535	5535	5535	5535	5535	5535	5626	5719	5719	5719	5719	5815	5815	5815	5815	5815	5915	5915	5915	5915	5915	5915	6124	6124	6235	6235	6235	6349	6349	6468	6468	6592	6720	6720	6720	6853	6853	6853	6853	6853	6720	6720	6853	6853	6992	6992	6992	6992	0	0	0	0	0	0	0	0	7444	7444	7444	0	0	7608	7608	0	0	8146	8146	8146	8146	8146	8146	8146	8146	8146	8146	8146	8146	8146	8146	8146	8146	8146	8146	7959	7959	7959	7959	7959	7959	7779	7779	7959	7959	7959	7959	7959	7959	7959	8146	8146	8146	8146	8146	8146	8146	8146	8146	8146	8146	8146	8146	8146	8146	8146	8146	8146	8146	8146	8146	8146	7959	7959	7959	7779	7779	7779	7779	7779	7779	7959	7779	7779	7959	7779	7779	7779	7779	7779	7779	7779	7779	8146	7959	7959	7959	7959	7959	7959	7959	7959	7959	7959	7959	8146	8146	8146	8146	8146	7959	7959	7959	8146	7959	7959	7959	7959	8146	8146	7959	7959	7959	7959	7959	7959	7959	7959	7959	7959	7959	7959	7959	7959	7959	8146	8146	8146	8146	8146	8146	8146	7959	7959	7959	0	0	0	0	0	0	2777	2777	2777	2777	2777	2777	2777	2777	2777	2777	2754	2754	2754	2754	2754	2754	2754	2754	2754	2733	2733	2733	2733	2733	2733	2733	2733	2733	2733	2711	2711	2711	2711	2711	2711	2711	2711	2711	2711	2690	2711	2690	2711	2711	2711	2711	2711	2711	2711	2733	2711	2711	2711	2733	2711	2711	2711	2711	2711	2711	2711	2711	2711	2711	2733	2733	2754	2754	2777	2777	2777	2777	2777	2799	2799	2799	2777	2799	2799	2799	2777	2777	2777	2777	2777	2777	0	0	8550	8550	8550	8550	8343	8343	8343	8343	8343	8343	8343	8343	8343	8343	8343	8146	8146	8343	8343	8146	8146	8146	8146	8146	8146	8146	8146	8146	8146	8146	8146	8146	8343	8343	8343	8343	8343	8343	8343	8146	8343	8343	8146	8146	8146	8146	8146	8146	8146	8146	8146	8146	8146	8146	8146	8146	7959	7959	7959	7959	7959	7959	7959	8146	8343	8146	8146	8146	8146	7959	7959	7959	7959	8146	7959	8146	8146	8146	8146	8146	8146	8146	8146	8343	8343	8343	8146	8343	8146	8146	8146	8146	8146	8146	8146	8146	8146	8146	8146	8146	8146	8146	8146	8146	8146	8146	8146	8146	8146	8146	8146	8146	8146	8146	8146	8146	8146	8146	7959	7959	7959	7779	7779	7779	7779	7779	7959	7959	7959	8146	8146	7959	7959	7959	7959	7959	7959	7959	7959	7959	7959	8146	8146	8146	8146	8146	8146	8146	8146	7959	8146	7959	8146	8146	8146	8146	8146	8146	8146	8343	8146	8146	8343	8343	8343	8343	8343	8343	8343	8343	8343	8343	8343	8343	8146	8343	8343	8343	8343	8343	8343	8343	8343	8343	8146	8146	8146	8343	8343	8343	8343	8146	8146	8146	8146	0	0	0	0	0	0	8767	8343	8343	8343	8343	8343	0	0	0	0	0	0	0	0	0	0	2629	2609	2589	2609	2589	2589	2570	2570	2570	2551	2532	2514	2514	2496	2496	2478	2460	2478	2460	2443	2443	2426	2426	2426	2426	2409	2409	2409	2392	2376	2376	2359	2343	2343	0	0	0	0	0	0	0	0	0	0	0	0	0	0	0	0	0	0	0	0	0	0	0	0	0	0	0	0	0	0	0	0	0	0	0	0
0	0	0	0	0	0	0	0	940	948	950	950	953	953	955	955	969	972	974	977	980	983	985	988	994	994	997	1000	1006	1011	1014	1017	1020	1020	1020	1023	1030	1039	1039	1042	1042	1045	1045	1045	1045	1048	1058	1061	1061	0	0	0	0	0	0	0	0	0	0	5535	5448	5535	5448	5448	5535	5535	5535	5535	5535	5535	5535	5535	5626	5626	5626	5626	5626	5719	5719	5719	5815	5815	5915	5915	5915	5915	5915	6018	6124	6124	6235	6235	6235	6349	6349	6468	6468	6592	6592	6720	6720	6720	6853	6853	6853	6853	6720	6853	6853	6853	6853	6992	6992	6992	0	0	0	0	0	7287	7444	7444	7444	7444	7608	7608	7608	7608	7779	7779	7959	8146	8146	8146	8146	8146	8146	8146	8146	8146	8146	8146	8146	8146	8146	8146	8146	8146	8146	7959	7959	7959	8146	7959	7959	7779	7779	7959	7959	7959	7959	8146	8146	8146	8146	8146	8146	8146	7959	8146	8146	8146	8146	8146	7959	8146	8146	8146	8146	7959	7959	8146	8146	8146	8146	7959	7959	7959	7959	7779	7779	7779	7779	7779	7779	7959	7959	7959	7959	7779	7779	7779	7779	7779	7779	7779	7779	8146	7959	7959	7959	7959	7959	7959	7959	7959	7959	8146	7959	8146	8146	8146	8146	8146	8146	7959	7959	8146	8146	8146	7959	7959	8146	8146	7959	8146	7959	8146	7959	8146	7959	7959	7959	7959	7959	8146	8146	7959	8146	8146	8146	8146	8146	8146	8146	8146	7959	7959	7959	7959	0	0	0	0	0	2777	2777	2777	2777	2777	2777	2777	2777	2777	2777	2777	2754	2754	2754	2754	2754	2754	2754	2754	2754	2754	2733	2733	2733	2733	2711	2733	2733	2711	2711	2711	2711	2711	2711	2711	2711	2711	2711	2711	2711	2711	2711	2711	2711	2711	2711	2711	2711	2711	2733	2711	2711	2711	2733	2733	2733	2711	2733	2733	2711	2711	2711	2711	2711	2733	2733	2733	2754	2754	2777	2777	2777	2777	2799	2799	2799	2777	2799	2799	2777	2777	2777	2777	2777	2777	2777	0	0	8550	8550	8550	8343	8343	8146	8146	8146	8146	8146	8146	8146	8343	8343	8343	8343	8343	8343	8343	8343	8343	8146	8146	8146	8146	8146	7959	7959	8146	8146	8146	8146	8343	8343	8343	8343	8343	8343	8343	8146	8146	8146	8146	8146	7959	8146	8146	7959	7959	7959	8146	8146	8146	8146	8146	8146	8146	7959	7959	7959	7959	7959	7959	7959	8343	8146	8146	8146	8146	7959	8146	8146	8146	8146	7959	8146	8146	8146	8146	8343	8146	8146	8146	8343	8343	8343	8146	8343	8146	8146	8146	8146	8146	8146	8146	8146	8146	8146	8146	8146	8146	8146	8146	8146	8146	8146	8146	8146	8146	8146	8146	8146	8146	8146	8146	8146	8146	8146	8146	7959	7959	7959	7959	7779	7959	7959	7959	7959	7959	8146	7959	7959	7959	7959	7959	7959	7959	7959	7959	7959	8146	8146	8146	8146	8146	8146	8146	8146	7959	7959	7959	7959	8146	8146	8146	8146	7959	8146	8146	8146	8146	8146	8146	8146	8146	8146	8146	8146	8146	8146	8146	8146	8146	8146	8146	8146	8343	8146	8146	8343	8146	8146	8146	8146	8146	8146	8146	8343	8343	8343	8343	8146	8146	8146	8343	8343	0	0	0	0	0	8767	8767	8767	8343	8550	8550	0	0	0	0	0	0	0	0	0	0	2609	2589	2589	2589	2589	2589	2589	2570	2570	2551	2532	2514	2514	2496	2496	2478	2478	2460	2460	2460	2443	2426	2426	2426	2409	2409	2409	2392	2376	2376	2376	2359	2359	2359	0	0	0	0	0	0	0	0	0	0	0	0	0	0	0	0	0	0	0	0	0	0	0	0	0	0	0	0	0	0	0	0	0	0	0	0
0	0	0	0	0	0	937	935	940	945	950	953	953	955	958	958	969	972	974	977	977	980	983	985	991	994	997	1003	1008	1011	1017	1017	1020	1020	1023	1026	1033	1039	1039	1042	1042	1042	1045	1045	1048	1048	1058	1064	1064	1064	0	0	0	0	0	0	0	0	0	5535	5448	5448	5448	5535	5535	5535	5535	5535	5535	5535	5535	5535	5535	5626	5626	5626	5626	5719	5815	5815	5815	5815	5915	5915	5915	6018	6018	6124	6235	6235	6235	6235	6235	6235	6349	6349	6468	6720	6720	6853	6853	6853	6853	6853	6853	6853	6853	6853	6853	6853	6853	6992	6992	0	0	0	0	0	0	7287	7287	7444	7444	7444	7608	7608	7608	7608	7779	7959	7959	8146	8146	8146	8146	8146	8146	8146	7959	8146	8146	8146	8146	8146	8146	8146	8146	8146	8146	8146	8146	7959	8146	8146	7959	7959	7779	7959	7959	7959	7959	7959	8146	7959	7959	8146	8146	8146	8146	8146	8146	8146	8146	8146	8146	8146	8146	7959	7959	7959	7959	8146	7959	8146	8146	7959	7959	7959	7779	7779	7608	7779	7779	7779	7959	7959	7959	7959	7959	7779	7608	7608	7608	7608	7608	7608	7779	8146	8146	7959	7959	7959	7959	7959	7959	7959	7959	7959	7959	8146	8146	8146	8146	8146	8146	7959	7959	8146	8146	8146	7959	7959	7959	8146	7959	7959	7959	7959	7959	7959	7959	7959	7959	7959	7959	7959	8146	7959	8146	8146	8146	8146	7959	8146	8146	8146	7959	7959	7959	7959	7959	0	0	0	0	2777	2777	2777	2777	2777	2777	2777	2777	2777	2777	2777	2754	2754	2754	2754	2754	2754	2754	2754	2754	2754	2754	2733	2733	2733	2733	2733	2733	2733	2711	2711	2711	2711	2711	2711	2711	2711	2711	2711	2711	2711	2711	2711	2711	2711	2711	2711	2711	2711	2733	2733	2733	2733	2733	2733	2733	2733	2733	2733	2733	2711	2711	2711	2733	2733	2733	2733	2754	2754	2777	2777	2777	2777	2777	2799	2799	2799	2799	2799	2777	2777	2777	2777	2777	2754	2754	0	0	8550	8343	8343	8343	8146	8146	8146	7959	8146	8146	8146	8146	8146	8146	8146	8146	8146	8343	8343	8343	8343	8146	8146	8146	8146	8146	7959	7959	8146	8146	8146	8146	8343	8343	8343	8343	8343	8343	8343	8146	8146	8146	7959	7959	7959	7959	7959	7959	8146	8146	8146	8146	8146	8146	8146	8146	8146	7959	7959	7959	7959	7959	7959	7959	7959	7959	7959	7959	7959	7959	8146	8146	7959	7959	7959	8146	8146	8146	8146	8146	8146	8146	8146	8343	8343	8343	8146	8343	8146	8146	8146	8146	7959	7959	7959	7959	7959	7959	7959	8146	7959	8146	7959	8146	8146	8146	8146	8146	8146	8146	8146	8343	8146	8146	8146	8146	8146	8146	8146	8146	8146	7959	7959	7959	7959	7959	7779	7959	7959	7959	7959	7959	7959	7959	7779	7959	7959	7959	7959	8146	7959	8146	8146	8146	8146	8146	8146	8146	8146	7959	8146	7959	8146	8146	8146	7959	7959	7959	8146	8146	8146	8146	8146	8146	8146	8146	8146	8146	8146	8146	8146	8146	8146	8146	8146	8146	8146	8146	8146	8146	8146	8146	8146	8146	8146	8146	8146	8343	8343	8343	8343	8146	8146	8146	8343	8550	8550	8550	8550	8767	8767	8767	8550	8550	8343	8343	8343	0	0	0	0	0	0	0	0	0	0	2609	2629	2609	2589	2589	2589	2589	2570	2551	2532	2532	2514	2496	2496	2496	2478	2478	2478	2460	2478	2443	2426	2409	2409	2409	2409	2409	2392	2376	2376	2376	2359	2343	2343	0	0	0	0	0	0	0	0	0	0	0	0	0	0	0	0	0	0	0	0	0	0	0	0	0	0	0	0	0	0	0	0	0	0	0	0
0	0	0	0	0	0	937	935	940	945	950	950	953	955	961	958	972	972	974	974	977	977	983	985	991	994	997	1003	1006	1011	1017	1017	1020	1023	1026	1030	1033	1036	1039	1039	1042	1042	1042	1045	1045	1045	1058	1068	1068	1068	0	0	0	0	0	0	0	0	0	0	5448	5364	5448	5535	5448	5535	5535	5535	5535	5535	5535	5535	5535	5626	5626	5626	5815	5815	5815	5815	5815	5815	5815	5815	5815	6235	6235	6235	6235	6235	6235	6235	6235	6349	6349	6468	6592	6720	6720	6853	6853	6992	6853	6853	6853	6853	6853	6853	6853	6853	6992	6992	6992	0	0	0	0	0	0	0	7287	7444	7444	7444	7444	7608	7608	7608	8146	8146	8146	8343	8146	8146	8146	8146	8146	8146	8146	8146	8146	8146	8146	8146	8146	7959	8146	8146	8146	8146	8146	7959	8146	8146	7959	7959	7959	7959	7959	7959	7959	7959	8146	7959	7959	7959	8146	8146	8146	8146	8146	8146	8146	8146	8146	8146	7959	7959	7959	7959	7959	8146	7959	7959	7959	7959	7959	7959	7779	7779	7779	7779	7959	7959	7959	7959	7959	7779	7959	7779	7608	7608	7608	7608	7608	7608	7608	7959	7959	7959	7959	7959	7959	7959	7959	7959	7959	8146	8146	8343	8146	8343	7959	8146	7959	7959	7959	8146	8146	8146	8146	8146	8146	8146	8146	8146	8146	8146	7959	7959	7959	7959	7959	7959	7959	8146	8146	7959	7959	8146	8146	8146	7959	8146	8146	8146	8146	8146	7959	7959	7959	0	0	0	0	2777	2777	2777	2777	2777	2777	2777	2777	2777	2777	2777	2777	2754	2754	2754	2754	2754	2754	2754	2754	2754	2754	2733	2733	2733	2733	2733	2733	2733	2711	2711	2711	2711	2711	2711	2711	2711	2733	2711	2711	2711	2711	2711	2711	2711	2711	2711	2711	2711	2733	2733	2733	2733	2733	2733	2733	2733	2733	2733	2733	2711	2711	2711	2711	2711	2711	2733	2754	2754	2777	2777	2777	2799	2799	2799	2799	2799	2799	2799	2777	2777	2777	2777	2777	2754	2754	0	0	8550	8550	8343	8343	8146	8146	7959	7959	8146	8146	8146	8146	8146	8146	8146	7959	7959	8146	8146	8146	8146	8146	8146	8146	7959	7959	7959	7959	7959	7959	4771	4771	8146	8343	8343	8146	8146	8146	8146	7959	7959	7959	7959	7959	7959	7959	7959	7959	7959	7959	8146	8146	8343	8343	8146	8146	8146	8146	7959	7959	7959	7959	7959	7959	7959	7959	7959	7959	7959	7959	7959	7959	7959	7959	7959	8146	8146	8146	8146	8146	8146	8146	8146	8343	8343	8146	8146	8343	8146	8146	8146	8146	7959	7959	7959	7959	8146	8146	7959	7959	8146	7959	7959	7959	7959	8146	8146	8343	8343	8343	8343	8343	8343	8343	8146	8146	8146	8146	8343	8146	8146	8146	8146	7959	7959	7959	7779	7959	8146	8146	7959	7959	7959	7959	7959	7959	7959	7959	7959	7959	7959	8146	8146	8146	8146	8146	8146	8146	8146	8146	8146	7959	8146	8146	8146	8146	7959	8146	8146	8146	7959	8146	7959	8146	8146	8146	8146	8146	8146	8146	8146	8146	8146	8146	8146	8146	8146	8146	8146	8146	8146	8146	8146	8146	8146	8146	8146	8343	8343	8343	8343	8343	8343	8146	8343	8550	8550	8550	8550	8767	8767	8767	8767	8767	8550	8550	8343	8343	8343	0	0	0	0	0	0	0	0	0	2589	2609	2589	2589	2589	2589	2551	2551	2532	2532	2514	2514	2496	2496	2478	2478	2478	2478	2478	2443	2426	2426	2409	2426	2409	2409	2392	2376	2376	2376	2359	2343	2343	0	0	0	0	0	0	0	0	0	0	0	0	0	0	0	0	0	0	0	0	0	0	0	0	0	0	0	0	0	0	0	0	0	0	0	0
0	0	0	0	0	0	935	932	940	942	948	950	953	955	961	963	972	972	974	974	977	977	980	983	988	991	997	1006	1008	1014	1017	1020	1020	1026	1030	1033	1033	1036	1039	1039	1039	1042	1042	1045	1045	1045	1058	1064	1064	1068	1068	1068	1068	0	0	0	0	0	0	0	5448	5364	5448	5448	5448	5448	5535	5535	5535	5535	5448	5448	5448	5448	5448	5448	5815	5815	5815	5815	5815	5815	5815	5815	5815	6235	4643	6349	6349	6235	6235	6235	6235	6349	6349	6592	6720	6720	4771	4771	4771	4771	6853	6853	6853	6853	6853	6853	6853	6853	6853	6992	0	0	0	0	0	0	0	0	7287	7444	7444	7444	7444	7608	7608	7608	8146	8146	8343	8343	8343	8343	8343	8146	8146	8146	8146	8146	8146	7959	7959	7959	8146	7959	7959	8146	8146	8146	8146	7959	8146	8146	7959	7959	7959	7959	7959	7959	7959	7959	7959	7959	7959	8146	8146	8146	8146	8146	8146	8146	8146	8146	7959	7959	7779	7959	7959	7959	7959	8146	7959	7959	7959	7959	7959	7959	7779	7779	7779	7779	7959	7959	7959	7959	7959	7779	7959	7779	7608	7608	7608	7608	7608	7608	7608	7959	7959	7959	7959	7959	7959	7959	7959	7959	8146	7959	7959	8146	7959	7959	7959	7959	7959	7959	7959	7959	8146	8146	7959	7959	7959	7959	7959	7959	7959	7959	7959	7959	7959	7959	7959	7959	8146	8146	8146	7959	8146	8146	8146	7959	7959	7959	8146	8146	8146	8146	7959	7959	7959	0	0	0	0	2777	2777	2777	2777	2777	2777	2777	2777	2777	2777	2777	2754	2754	2754	2754	2754	2754	2754	2754	2754	2754	2754	2754	2733	2733	2733	2733	2733	2733	2733	2711	2711	2711	2711	2711	2711	2711	2733	2711	2711	2733	2711	2711	2733	2733	2711	2711	2711	2733	2733	2733	2733	2733	2733	2733	2733	2733	2733	2733	2733	2711	2711	2711	2711	2711	2733	2733	2754	2754	2777	2777	2777	2777	2799	2799	2799	2799	2799	2799	2799	2777	2777	2754	2754	2754	2711	2711	0	8550	8550	8343	8343	8146	4706	4771	4706	4706	4706	4706	4643	4706	4706	8146	7959	8146	8146	8343	8343	8343	8343	8146	8146	7959	7959	7779	7779	7779	4771	4771	4771	4706	4771	4771	4771	4771	4771	7959	7959	7959	4771	4771	7959	7779	7959	7959	4838	4838	4771	4771	4706	4706	4706	4706	8146	7959	8146	7959	8146	7959	7959	7959	7959	7959	7959	7959	0	0	7959	7959	7959	7959	7959	7959	8146	8146	8146	8146	8146	8146	8146	8146	8343	8343	8146	8146	8343	8343	8343	8146	7959	7959	7959	7959	7959	8146	7959	7959	8146	7959	8146	7959	7959	7959	8146	8146	8343	8343	8343	8550	8550	8550	8343	8146	8146	8146	8146	8146	8146	4643	4643	4643	7959	7959	7959	4771	4906	4906	7959	7959	7959	7959	7959	7959	7959	7959	7959	7959	7959	7959	7959	8146	8146	8146	8146	8146	8146	8146	8146	8146	8146	8146	8146	8146	8146	8146	8146	8146	8146	8146	8146	8146	8146	8146	8146	8146	8146	8146	7959	7959	7959	7959	8146	7959	8146	8146	8146	8146	8146	8146	8146	8146	8146	8146	8343	8343	8550	8550	8550	8343	8343	8343	8343	8343	8550	8550	8550	8550	8550	8767	8767	8550	8550	8550	8343	8343	8343	8343	0	0	0	0	0	0	0	0	2609	2609	2609	2589	2589	2570	2570	2532	2532	2532	2532	2514	2514	2496	2496	2496	2478	2478	2478	2478	2443	2443	2426	2426	2426	2409	2409	2392	2376	2376	2376	2359	2343	2343	0	0	0	0	0	0	0	0	0	0	0	0	0	0	0	0	0	0	0	0	0	0	0	0	0	0	0	0	0	0	0	0	0	0	0	0
