0	0	0	0	0	974	974	974	974	974	974	977	977	977	977	977	977	977	977	977	980	983	983	985	988	988	994	997	1003	1008	1014	1017	1017	1020	1023	1026	1030	1033	1036	1039	1048	1061	1061	1068	1071	1071	1071	1071	1071	1071	0	1311	1311	1316	1316	1321	1326	1326	1321	1321	1316	1316	1316	1316	1316	1321	1316	1316	1316	1316	1316	1316	1316	1316	1311	1316	1316	1316	1316	1316	1316	1316	1316	1311	1311	1306	1306	1311	1306	1306	1306	1311	1316	1316	1321	1321	1321	1321	1331	1331	1336	1342	1342	1342	0	0	0	0	0	0	0	0	6468	6468	6468	6468	0	0	0	0	0	0	6720	6720	6720	6720	6720	6720	6720	6720	6592	6592	6592	6592	6592	6592	6592	6592	6720	6720	6720	6720	6720	6720	6592	6592	6592	6592	6720	6592	6720	6853	6992	6992	6992	6992	6992	6992	6853	6853	6853	6853	6853	6853	6853	6992	6992	6992	7137	6992	6992	6853	6992	6992	6992	6853	6720	6592	6720	6720	6592	6592	6720	6720	6853	6853	6853	6853	6853	6992	6992	6853	6853	6853	6853	6853	6720	6720	6720	6720	6720	6592	6592	6720	6720	6720	6720	6853	6853	6853	6853	6720	6720	6592	6592	6592	6592	6592	6592	6592	6720	6720	6720	6720	6592	6592	6592	6468	6592	6592	6592	6592	6592	6592	6592	6592	6592	6592	6720	6592	6592	6592	6720	6720	6720	6720	6720	6853	6720	6720	6720	6720	6720	6720	6592	6592	6592	6592	6592	6592	6592	6592	6592	6592	6720	6720	6720	6720	6853	6592	6592	6592	6592	6592	6592	6720	6720	6720	6720	6720	6720	6720	6720	0	0	0	0	0	0	3510	3475	3475	3440	3440	3440	3440	3406	3406	3406	3406	3406	3406	3406	3406	3406	3406	3406	3406	3406	3440	3440	3440	3440	3475	3475	3475	3475	0	6720	6720	6592	6592	6592	6720	6720	6720	6853	6853	6992	6992	6992	6853	0	0	0	0	0	0	0	0	0	0	6720	6720	6720	6592	6720	6720	6720	6720	6720	6720	6720	6720	6720	6592	6592	6720	6720	6720	6720	6720	6720	6720	6720	6720	6720	6720	6720	6720	6720	6720	6720	6853	6720	6720	6720	6720	6720	6720	6720	6720	6720	6720	6720	6592	6592	6592	6592	6592	6720	6720	6720	6720	6720	6592	6592	6468	6468	6468	6468	6468	6592	6592	6720	6720	6720	6720	6720	6720	6720	6720	6720	6720	6720	6720	6592	6592	6592	6592	6592	6720	6720	6720	6720	6720	6720	6720	6720	6720	6720	6720	6720	6592	6592	6592	6592	6468	0	0	0	0	0	0	0	0	0	0	0	0	0	0	0	0	0	0	0	0	0	0	0	0	0	0	0	0	0	0	0	0	0	0	0	0	0	0	0	0	0	0	0	0	0	0	0	6992	6853	6853	6853	6853	6853	6853	6853	6853	6853	6853	6853	6853	6992	6992	6992	6992	6992	6992	6853	6992	6853	6853	6853	6853	6992	6992	6992	6992	6853	6853	6853	6853	6853	6853	6853	6853	6853	6853	6853	6853	6853	6853	6992	6992	0	0	0	0	0	0	0	0	0	0	0	0	0	0	0	0	0	0	0	0	0	0	0	0	0	0	0	0	0	0	0	0	0	0	0	0	2629	2609	2609	2609	2589	2589	2589	2570	2570	2570	2551	2551	2551	2514	2496	2478	2478	2460	2460	2460	2460	2460	2443	2443	2426	2409	2392	2376	2359	2359	2359	2359	2343	2343	2343	2343	2343	0	0	0	0	0	0	0	0	0	0	0	0	0	0	0	0	0	0	0	0	0	0	0	0	0	0	0	0	0	0	0	0	0	0	0	0	0
0	0	0	0	0	974	974	977	977	977	977	980	983	980	983	980	980	980	983	983	983	985	985	985	988	991	994	997	1003	1006	1014	1017	1020	1023	1023	1030	1033	1036	1039	1039	1048	1058	1058	1058	1064	1068	1068	1068	1068	1071	1316	1316	1316	1316	1321	1326	1326	1326	1326	1326	1326	1321	1321	1321	1321	1321	1321	1321	1321	1321	1321	1321	1316	1321	1321	1321	1321	1321	1321	1321	1321	1321	1321	1321	1316	1316	1316	1316	1316	1316	1316	1316	1321	1321	1326	1321	1321	1326	1331	1336	1336	1342	1342	1342	1342	0	0	0	0	0	0	0	0	6349	6349	0	0	0	0	0	0	0	6720	6853	6720	6720	6720	6720	6720	6720	6720	6592	6592	6592	6592	6592	6592	6720	6720	6720	6720	6720	6720	6720	6592	6592	6592	6592	6720	6592	6720	6853	6853	6992	6992	6992	6992	6992	6853	6853	6853	6853	6853	6853	6992	6992	6992	6992	7137	6992	6992	6853	6853	6992	6992	6992	6853	6720	6720	6720	6592	6592	6720	6720	6853	6853	6853	6853	6992	6992	6992	6853	6853	6853	6853	6720	6720	6720	6720	6720	6592	6592	6592	6720	6720	6853	6853	6992	6853	6853	6853	6853	6720	6720	6592	6592	6592	6592	6592	6592	6720	6720	6720	6720	6720	6592	6592	6468	6592	6592	6592	6592	6592	6592	6592	6592	6592	6592	6720	6720	6720	6720	6720	6720	6720	6720	6720	6853	6720	6853	6720	6720	6720	6720	6592	6592	6592	6592	6592	6592	6592	6592	6592	6720	6720	6720	6720	6853	6853	6853	6592	6592	6592	6592	6592	6720	6720	6720	6720	6720	6720	6720	6720	6720	6720	0	0	0	0	3510	3475	3475	3440	3440	3440	3406	3406	3406	3406	3406	3406	3406	3406	3406	3406	3406	3406	3406	3406	3406	3440	3440	3406	3440	3440	3440	3475	6720	6720	6720	6720	6592	6592	6720	6720	6853	6853	6853	6853	6853	6720	6720	0	0	0	0	0	0	6992	6853	6853	6853	6853	6720	6720	6720	6720	6720	6720	6720	6720	6720	6720	6720	6720	6720	6720	6720	6720	6720	6720	6720	6720	6720	6720	6720	6720	6720	6720	6720	6720	6853	6853	6853	6853	6720	6720	6720	6720	6720	6720	6720	6720	6720	6720	6592	6592	6720	6720	6720	6720	6720	6853	6853	6720	6720	6592	6720	6592	6592	6592	6592	6592	6592	6720	6720	6720	6720	6720	6720	6720	6720	6720	6720	6720	6720	6720	6720	6720	6720	6720	6720	6720	6853	6720	6720	6853	6853	6853	6853	6720	6720	6720	6592	6592	6592	6592	0	0	0	0	0	0	0	0	0	0	0	0	0	0	0	0	0	0	0	0	0	0	0	0	0	0	0	0	0	0	0	0	0	0	0	0	0	0	0	0	0	0	0	0	0	0	0	6992	6992	6853	6853	6853	6853	6853	6853	6853	6853	6853	6992	6992	6992	7137	7137	6992	7137	6992	6992	6992	6992	6853	6853	6992	6992	7137	7137	6992	7137	6992	6992	6992	6992	6992	6853	6853	6853	6853	6853	6853	6853	6853	6992	6992	6992	0	0	0	0	0	0	0	0	0	0	0	0	0	0	0	0	0	0	0	0	0	0	0	0	0	0	0	0	0	0	0	0	0	0	0	0	2609	2609	2589	2609	2589	2570	2570	2570	2570	2570	2551	2551	2551	2514	2496	2496	2478	2460	2460	2478	2460	2443	2443	2426	2426	2409	2392	2376	2359	2359	2359	2359	2359	2343	2343	2343	2343	0	0	0	0	0	0	0	0	0	0	0	0	0	0	0	0	0	0	0	0	0	0	0	0	0	0	0	0	0	0	0	0	0	0	0	0	0
0	0	0	0	0	974	974	977	977	977	980	983	985	983	985	983	983	983	985	985	985	988	988	988	991	994	997	997	1000	1003	1017	1017	1020	1023	1026	1030	1033	1036	1036	1039	1039	1058	1058	1058	1068	1071	1071	1071	1071	0	1321	1321	1321	1321	1326	1336	1336	1336	1331	1331	1336	1331	1326	1326	1331	1326	1326	1326	1326	1326	1326	1326	1321	1331	1331	1331	1331	1331	1331	1331	1331	1331	1326	1326	1326	1326	1326	1321	1321	1326	1326	1326	1326	1326	1331	1326	1331	1331	1336	1336	1342	1342	1342	1342	1342	0	0	0	0	0	0	0	0	6349	6349	0	0	0	0	0	0	0	0	6853	6720	6720	6720	6720	6720	6720	6592	6592	6592	6720	6720	6720	6720	6720	6720	6720	6720	6720	6720	6720	6592	6592	6592	6592	6592	6592	6592	6720	6853	6992	6992	6992	6992	6853	6853	6853	6853	6720	6853	6853	6992	6992	6992	6992	7137	6992	6992	6853	6853	6992	6992	6992	6853	6853	6853	0	0	0	0	0	0	6853	6853	6853	6992	6992	6992	6853	6853	6992	6853	6853	6720	6720	6720	6720	6720	6720	6720	6720	6992	6992	6992	6992	6992	6992	6853	6853	6853	6720	6720	6592	6592	6592	6592	6592	6720	6720	6720	6720	6720	6592	6592	6592	6592	6592	6592	6592	6592	6592	6592	6720	6853	6853	6853	6720	6720	6720	6720	6720	6720	6853	6853	6853	6853	6853	6853	6720	6853	6720	6720	6720	6720	6720	6592	6592	6592	6592	6592	6720	6853	6853	6853	6853	6853	6853	6592	6592	6720	6720	6720	6720	6720	6720	6720	6720	6720	6720	6853	6853	6720	6720	6720	0	0	0	3475	3475	3440	3440	3406	3406	3406	3406	3406	3406	3406	3406	3406	3406	3406	3406	3406	3406	3406	3406	3406	3406	3406	3440	3440	3440	0	6853	6720	6720	6720	6592	6592	6592	6592	6720	6720	6720	6853	6853	6720	6720	0	0	0	0	0	0	6992	6853	6853	6853	6853	6853	6853	6720	6720	6720	6720	6720	6720	6720	6720	6720	6720	6720	6592	6720	6720	6720	6720	6720	6720	6720	6720	6720	6720	6720	6720	6853	6853	6853	6853	6853	6853	6853	6853	6720	6720	6720	6720	6720	6720	6720	6720	6720	6720	6720	6720	6720	6720	6720	6853	6853	6720	6720	6720	6853	6720	6720	6592	6592	6720	6720	6720	6720	6720	6720	6853	6853	6853	6853	6720	6720	6720	6720	6720	6720	6720	6720	6720	6720	6853	6853	6720	6720	6853	6853	6720	6720	6720	6720	6720	6592	6592	6592	0	0	0	0	0	0	0	0	0	0	0	0	0	0	0	0	0	0	0	0	0	0	0	0	0	0	0	0	0	0	0	0	0	0	0	0	0	0	0	0	0	0	0	0	0	0	0	6992	6992	6992	6853	6853	6853	6853	6853	6853	6853	6853	6992	6992	7137	6992	7137	7137	7137	7137	7137	7137	6992	6992	6853	6853	6992	6992	7137	7137	7137	7137	7137	7137	7137	7137	6992	6992	6992	6853	6853	6853	6853	6853	6992	6992	6992	0	0	0	0	0	0	0	0	0	0	0	0	0	0	0	0	0	0	0	0	0	0	0	0	0	0	0	0	0	0	0	0	0	0	0	0	0	2629	2609	2609	2609	2589	2570	2570	2570	2570	2570	2551	2551	2551	2532	2496	2496	2478	2478	2460	2460	2460	2443	2443	2426	2426	2409	2392	2376	2359	2359	2359	2359	2359	2343	2343	2343	2343	0	0	0	0	0	0	0	0	0	0	0	0	0	0	0	0	0	0	0	0	0	0	0	0	0	0	0	0	0	0	0	0	0	0	0	0	0
0	0	0	0	0	977	980	980	977	980	983	983	985	985	985	985	985	985	985	985	988	988	991	991	994	994	997	1000	1000	1003	1011	1017	1020	1023	1026	1030	1036	1036	1039	1039	1042	1055	1055	1055	1064	1071	1071	1071	1071	0	1326	1326	1326	1326	1331	1336	1336	1336	1336	1336	1342	1336	1331	1331	1331	1336	1331	1326	1331	1326	1331	1326	1326	1331	1336	1336	1336	1336	1336	1336	1336	1336	1331	1331	1331	1331	1331	1331	1331	1331	1331	1331	1331	1331	1336	1336	1336	1336	1342	1342	1347	1347	1342	1347	1347	1347	0	0	0	0	0	0	0	0	0	0	0	0	0	0	0	0	0	6853	6853	6853	6853	6853	6853	6720	6720	6720	6592	6720	6720	6720	6720	6720	6720	6720	6853	6720	6720	6720	6592	6468	6468	6592	6592	6592	6720	6720	6992	7137	7137	6992	6992	6853	6853	6853	6853	6853	6853	6853	6992	6992	6992	6992	6992	6992	6992	6853	6992	6992	6992	6992	6992	6853	6853	0	0	0	0	0	0	0	0	0	6992	6992	6992	7137	7137	6992	6992	6853	6720	6720	6720	6720	6720	6720	6720	6720	6853	6992	6992	6992	6992	6992	6853	6853	6853	6853	6720	6720	6592	6720	6720	6720	6720	6720	6720	6720	6720	6592	6592	6592	6592	6592	6592	6592	6592	6720	6853	6853	6853	6853	6853	6720	6720	6720	6720	6720	6720	6720	6720	6853	6853	6853	6853	6720	6853	6853	6720	6720	6720	6720	6720	6720	6592	6720	6720	6720	6853	6853	6853	6992	6992	6992	6853	6853	6720	6720	6720	6720	6853	6853	6720	6853	6720	6720	6853	6853	6853	6720	6853	6853	0	0	0	3475	3440	3440	3440	3406	3406	3406	3406	3406	3406	3406	3406	3406	3406	3406	3406	3406	3406	3406	3406	3406	3406	3406	3406	3440	6853	6853	6720	6720	6720	6592	6592	6720	6720	6720	7137	7137	6853	6853	6720	7137	6992	6992	0	0	0	0	7137	6992	6992	6992	6853	6853	6853	6853	6992	6853	6853	6853	6853	6853	6720	6720	6720	6720	6592	6720	6720	6720	6720	6853	6853	6853	6853	6853	6853	6853	6853	6853	6853	6853	6853	6853	6853	6853	6853	6853	6853	6853	6720	6720	6720	6720	6720	6720	6720	6720	6720	6853	6720	6720	6853	6853	6853	6853	6853	6992	6853	6720	6720	6592	6720	6720	6720	6720	6720	6853	6992	6992	6992	6853	6853	6720	6720	6720	6720	6720	6720	6720	6720	6720	6853	6853	6853	6853	6853	6853	6853	6720	6720	6720	6720	6592	6592	0	0	0	0	0	0	0	0	0	0	0	0	0	0	0	0	0	0	0	0	0	0	0	0	0	0	0	0	0	0	0	0	0	0	0	0	0	0	0	0	0	0	0	0	0	0	0	7137	6992	6992	6992	6853	6853	6853	6853	6853	6853	6853	6853	6992	7137	7137	7137	7137	7137	7137	7137	6992	6992	6992	6992	6853	6853	6992	6992	6992	7137	7137	7137	7137	7137	7137	7137	7137	6992	6992	6992	6992	6992	6992	6992	6992	6992	0	0	0	0	0	0	0	0	0	0	0	0	0	0	0	0	0	0	0	0	0	0	0	0	0	0	0	0	0	0	0	0	0	0	0	0	0	0	2629	2609	2609	2609	2589	2589	2570	2570	2570	2551	2551	2532	2551	2532	2496	2478	2478	2478	2460	2460	2460	2443	2426	2426	2426	2409	2392	2376	2359	2359	2359	2359	2359	2343	2343	2343	2343	0	0	0	0	0	0	0	0	0	0	0	0	0	0	0	0	0	0	0	0	0	0	0	0	0	0	0	0	0	0	0	0	0	0	0	0	0
0	0	0	0	0	977	977	977	977	980	983	988	988	988	988	988	988	985	988	988	988	991	994	994	994	997	997	1000	1000	1003	1003	1011	1017	1023	1023	1026	1033	1036	1039	1039	1042	1055	1055	1055	1061	1071	1071	1071	1071	0	1326	1331	1326	1331	1336	1342	1342	1342	1347	1347	1347	1342	1342	1347	1347	1347	1342	1336	1342	1336	1336	1336	1336	1342	1342	1342	1342	1342	1342	1342	1342	1342	1336	1336	1336	1336	1336	1331	1331	1331	1331	1331	1336	1336	1336	1336	1336	1336	1342	1342	1347	1347	1347	1352	1363	1374	1374	0	0	0	0	0	0	0	0	0	0	0	0	0	0	0	0	6853	6853	6853	6853	6853	6853	6853	6720	6720	6720	6853	6853	6853	6853	6853	6853	6853	6853	6853	6853	6720	6592	6468	6468	6468	6592	6592	6592	6592	6592	7137	7137	6992	6992	6853	6853	6853	6853	6853	6853	6853	0	6992	7137	7137	7137	6992	6992	6992	6992	7137	6992	6992	6992	6853	6853	0	0	0	0	0	0	0	0	0	6992	6992	6992	6992	7137	6992	6992	6853	6720	6720	6592	6720	6853	6853	6853	6853	6992	6992	6992	6992	6853	6853	6853	6853	6853	6720	6720	6720	6720	6720	6720	6720	6720	6720	6720	6720	6720	6853	6853	6720	6720	6720	6720	6720	6720	6853	6853	6853	6853	6853	6853	6853	6720	6720	6720	6720	6720	6720	6853	6853	6853	6853	6853	6853	6853	6853	6720	6720	6720	6720	6720	6720	6592	6720	6720	6853	6853	6853	6853	6853	6853	6992	6992	6853	6853	6853	6853	6853	6853	6853	6853	6853	6853	6853	6853	6853	6853	6720	6853	6853	6853	6853	6853	0	0	3440	3406	3406	3406	3406	3373	3373	3373	3406	3406	3373	3406	3406	3406	3406	3406	3406	3406	3406	3406	3406	3406	0	6992	6992	6853	6853	6853	6720	6853	6853	6853	6992	7137	7137	6853	6853	6720	7137	6992	6992	0	0	0	7137	7137	6992	6992	6992	6853	6992	6992	6992	6992	6992	6853	6853	6853	6853	6720	6720	6720	6720	6720	6720	6853	6853	6992	6992	6992	6992	6992	6992	6992	6853	6853	6853	6853	6853	6853	6853	6853	6853	6853	6853	6853	6853	6853	6720	6720	6720	6720	6720	6720	6720	6720	6853	6853	6853	6992	6853	6992	6992	6992	6992	6992	6853	6720	6720	6720	6720	6720	6720	6720	6853	6992	6853	6853	6853	6853	6720	6720	6720	6720	6720	6720	6720	6720	6720	6720	6853	6720	6720	6853	6720	6720	6720	6720	6720	6720	6592	6592	0	0	0	0	0	0	0	0	0	0	0	0	0	0	0	0	0	0	0	0	0	0	0	0	0	0	0	0	0	0	0	0	0	0	0	0	0	0	0	0	0	0	0	0	0	0	7137	6992	6992	6992	6992	6853	6853	6853	6853	6853	6992	6992	6992	6992	7137	7137	7137	7137	7287	7137	7137	7137	7137	6992	6992	6853	6853	6992	6992	6992	7137	7137	7287	7137	7287	7137	7137	7137	7137	7137	6992	7137	6992	6992	7137	7137	0	0	0	0	0	0	0	0	0	0	0	0	0	0	0	0	0	0	0	0	0	0	0	0	0	0	0	0	0	0	0	0	0	0	0	0	0	0	0	2629	2629	2609	2609	2589	2570	2570	2570	2570	2551	2551	2532	2532	2514	2496	2478	2478	2460	2460	2460	2443	2443	2426	2426	2426	2409	2392	2376	2376	2359	2359	2343	2359	2343	2343	2343	2343	0	0	0	0	0	0	0	0	0	0	0	0	0	0	0	0	0	0	0	0	0	0	0	0	0	0	0	0	0	0	0	0	0	0	0	0	0
0	0	0	0	0	977	980	977	977	980	983	988	988	988	988	988	988	988	988	988	997	997	994	997	997	997	1000	1000	1000	1003	1003	1003	1011	1020	1026	1036	1039	1039	1039	1045	1048	1055	1055	1055	1058	1064	1071	1071	1071	0	1336	1336	1331	1331	1342	1342	1342	1347	1347	1358	1358	1352	1352	1358	1358	1358	1352	1342	1352	1347	1347	1342	1347	1347	1347	1352	1347	1347	1347	1347	1342	1347	1342	1342	1342	1342	1342	1342	1342	1342	1336	1336	1342	1342	1342	1347	1342	1342	1347	1347	1347	1347	1347	1352	1374	1374	1374	1385	1385	0	0	0	0	0	0	0	0	0	0	0	0	0	6992	6992	6853	6853	6853	6853	6853	6992	6992	6992	6992	6853	6992	6720	6720	6720	6720	6853	6853	6853	6853	6853	6720	6592	6468	6468	6592	6592	6592	6592	6592	7137	6992	6992	6853	6853	6853	6853	6992	6992	0	0	0	0	7137	7137	7137	7137	7137	7137	7137	7137	6992	6992	6992	0	0	0	0	0	0	0	0	0	0	0	0	6992	6992	6992	0	0	0	0	0	6720	6720	6853	6992	6992	6992	6992	6992	6992	6992	6992	6992	6853	6853	6853	6853	6853	6853	6720	6720	6720	6720	6853	6992	6992	6992	6992	6992	6992	6992	6853	6853	6853	6853	6720	6720	6853	6853	6853	6853	6853	6853	6853	6720	6720	6720	6720	6720	6853	6853	6853	6853	6853	6853	6853	6853	6992	6853	6720	6720	6720	6720	6720	6720	6720	6720	6853	6853	6992	6992	6992	6992	6992	6992	6992	6992	6992	6992	6853	6992	6853	6853	6853	6853	6720	6853	6853	6853	6853	6992	6992	6992	6853	6853	0	0	0	3406	3406	3373	3373	3373	3373	3373	3373	3406	3406	3406	3406	3406	3406	3406	3406	3406	3406	3406	3406	3406	0	7137	7137	7137	6992	6992	6853	6992	6992	6853	6992	7137	6992	6992	6853	6720	6992	6992	6853	6720	6720	0	7137	7137	7137	7137	7137	6992	6992	6992	6992	6992	6992	6853	6853	6853	6853	6720	6720	6720	6720	6720	6720	6853	6853	6992	6992	6992	6992	6992	6992	6992	6992	6992	6992	6992	6992	6992	6992	6853	6992	6853	6853	6853	6853	6853	6720	6720	6720	6720	6720	6720	6720	6853	6853	6853	6853	6992	6992	6992	6992	6992	6992	6992	6853	6720	6720	6720	6720	6720	6720	6720	6853	6992	6853	6853	6853	6853	6720	6853	6720	6720	6720	6853	6853	6853	6853	6853	6853	6853	6853	6853	6720	6720	6720	6720	6720	6720	0	0	0	0	0	0	0	0	0	0	0	0	0	0	0	0	0	0	0	0	0	0	0	0	0	0	0	0	0	0	0	0	0	0	0	0	0	0	0	0	0	0	0	0	0	0	0	7137	7137	6992	6992	6992	6992	6992	6853	6853	6853	6992	6992	6992	6992	6992	7137	7137	7137	7137	7287	7137	7287	7137	7137	7137	6992	6992	6853	6992	6992	6992	6992	7137	7287	7287	7287	7287	7287	7287	7137	7137	7137	7137	7137	6992	7137	7137	0	0	0	0	0	0	0	0	0	0	0	0	0	0	0	0	0	0	0	0	0	0	0	0	0	0	0	0	0	0	0	0	0	0	0	0	0	0	0	2629	2629	2629	2609	2589	2589	2570	2570	2570	2570	2551	2551	2532	2514	2496	2478	2478	2460	2460	2460	2443	2443	2426	2426	2426	2409	2392	2376	2359	2359	2359	2343	2359	2343	2343	2327	2327	0	0	0	0	0	0	0	0	0	0	0	0	0	0	0	0	0	0	0	0	0	0	0	0	0	0	0	0	0	0	0	0	0	0	0	0	0
0	0	0	0	0	0	980	983	980	983	985	991	988	988	988	988	991	991	988	991	997	997	997	997	997	997	1000	1003	1003	1003	1003	1003	1011	1017	1030	1036	1039	1039	1042	1045	1045	1048	1055	1055	1061	1071	1071	1074	1074	1074	1336	1342	1342	1342	1342	1342	1342	1352	1358	1363	1363	1363	1368	1368	1363	1363	1358	1352	1352	1352	1352	1352	1358	1363	1358	1363	1358	1352	1352	1347	1347	1347	1347	1347	1347	1347	1352	1347	1347	1347	1342	1342	1347	1347	1347	1352	1352	1347	1347	1352	1352	1352	1352	1358	1379	1379	1379	1385	1385	1396	1402	1402	0	0	0	0	0	0	0	0	0	0	6992	6992	6992	6992	6992	6992	6992	6992	6992	6992	6992	0	6992	6720	6720	7137	6992	6992	6992	6992	6992	6853	6720	6592	6592	6592	6592	6592	6592	6592	6720	7137	6992	6992	6992	6992	6992	6992	7137	7137	0	0	0	0	0	7137	7137	7137	7137	7137	7137	0	0	0	0	0	0	0	0	0	0	0	0	0	0	0	0	0	0	0	0	0	0	0	0	0	6992	6992	7137	7137	7137	7137	7137	7137	6992	6992	6992	6992	6853	6853	6853	6853	6853	6853	6853	6853	6853	6992	6992	6992	6992	6992	6992	6992	6992	6992	6992	6992	6853	6853	6853	6853	6853	6853	6853	6853	6853	6853	6853	6853	6720	6720	6853	6853	6853	6853	6853	6853	6992	6992	6992	6992	6992	6853	6853	6853	6853	6720	6720	6720	6853	6853	6853	6992	6992	6992	6853	6992	6992	6992	6992	6992	6992	6853	6853	6853	6853	6853	6853	6853	6853	6992	6992	6992	6992	6992	6992	6853	6853	0	0	0	0	3406	3373	3341	3341	3373	3373	3373	3406	3406	3406	3406	3406	3406	3406	3406	3406	3406	3406	0	0	0	7137	7137	7137	6992	7137	6992	6992	7137	7137	7137	7137	7137	7137	6853	6720	6720	6992	6853	6720	6720	0	7137	7137	7137	7137	7137	6992	6992	6992	7137	7137	7137	6992	6992	6992	6992	6853	6720	6720	6720	6720	6853	6853	6992	6992	6992	6992	6992	6992	6992	7137	7137	6992	6992	6992	6853	6853	6992	6853	6992	6853	6853	6853	6853	6853	6720	6720	6720	6720	6720	6720	6853	6853	6992	6853	6992	6992	6992	6992	6992	6992	6992	6853	6853	6853	6720	6720	6720	6720	6720	6853	6853	6992	6853	6853	6853	6853	6720	6853	6720	6720	6720	6853	6853	6853	6853	6853	6853	6853	6853	6720	6720	6720	6720	6720	6720	0	0	0	0	0	0	0	0	0	0	0	0	0	0	0	0	0	0	0	0	0	0	0	0	0	0	0	0	0	0	0	0	0	0	0	0	0	0	0	0	0	0	0	0	0	0	0	7137	7137	7137	7137	7137	7137	7137	6992	6992	6853	6853	6992	6992	6992	6992	7137	7137	7287	7137	7287	7287	7287	7287	7137	7137	7287	7287	7287	7287	7287	7287	6992	6992	7287	7287	7287	7287	7287	7287	7287	7287	7287	7137	7137	7137	0	0	0	0	0	0	0	0	0	0	0	0	0	0	0	0	0	0	0	0	0	0	0	0	0	0	0	0	0	0	0	0	0	0	0	0	0	0	0	0	0	0	2629	2629	2629	2629	2609	2589	2570	2570	2570	2551	2551	2532	2532	2514	2496	2478	2478	2460	2460	2460	2443	2443	2426	2426	2426	2409	2392	2376	2376	2359	2359	2343	2359	2343	2343	2327	2327	0	0	0	0	0	0	0	0	0	0	0	0	0	0	0	0	0	0	0	0	0	0	0	0	0	0	0	0	0	0	0	0	0	0	0	0	0
0	0	0	0	0	930	930	930	930	991	991	991	991	988	988	988	991	991	988	991	991	1006	1003	1000	997	1000	1000	1003	1003	1003	1006	1011	1014	1017	1026	1033	1039	1042	1045	1048	1048	1048	1052	1055	1058	1071	1071	1074	1078	1078	0	1342	1342	1342	1342	1347	1352	1352	1363	1363	1368	1374	1374	1374	1374	1368	1363	1358	1358	1358	1358	1363	1363	1374	1368	1368	1368	1363	1363	1358	1358	1358	1358	1352	1352	1352	1352	1352	1352	1352	1347	1347	1347	1352	1352	1352	1352	1352	1358	1358	1358	1358	1363	1368	1385	1385	1385	1390	1396	1402	1402	1407	1407	0	0	0	0	0	0	0	0	6992	6992	6992	6992	6992	6992	6992	6992	6853	6992	6992	6992	0	0	0	7137	7137	7137	6992	7137	6992	6992	6853	6853	6720	6592	6592	6720	6720	6720	6720	6720	6992	6992	6992	6992	6992	6992	6992	7287	7287	7287	7287	0	0	0	0	7137	7137	0	0	0	0	0	0	0	0	0	0	0	0	0	0	0	0	0	0	0	0	0	0	0	0	0	0	0	0	6992	6992	7287	7287	7287	7137	7137	7137	6992	6992	6992	6992	6992	6992	6992	6992	6992	6853	6853	6992	6992	6992	7137	7137	6992	7137	7137	7137	7137	7137	6992	6992	6992	6853	6720	6853	6853	6853	6853	6853	6853	6853	6853	6853	6853	6853	6853	6853	6853	6853	6853	6992	6992	6992	6992	6992	6992	6992	6992	6992	6992	6853	6992	6853	6853	6853	6992	6992	6992	6992	6992	6992	6992	6992	6992	6992	6992	6992	6853	6992	6853	6992	6853	6853	6992	6992	6992	6992	6992	6992	6992	6992	6992	0	0	0	0	0	3373	3373	3373	3373	3373	3406	3406	3406	3406	3406	3406	3406	3406	3406	3406	3406	3406	0	0	0	0	0	0	7137	7137	7137	7137	7137	7137	7137	7137	6720	6720	6720	6720	6720	0	0	0	0	0	0	7137	7137	7137	7137	6992	6992	6992	7137	7137	7137	6992	6992	7137	7137	6992	6720	6720	6720	6720	6992	6992	6992	6992	6992	6992	6992	6992	7137	7137	7137	7137	7137	7137	7137	6992	6992	6992	6992	6992	6853	6853	6853	6853	6720	6720	6720	6720	6853	6853	6853	6992	6992	6992	6992	6992	6992	6992	6992	6992	6992	6992	6853	6853	6853	6720	6720	6720	6853	6992	6992	6992	6992	6992	6992	6853	6853	6853	6853	6853	6853	6853	6853	6853	6853	6853	6853	6853	6853	6853	6720	6720	6720	6720	6720	0	0	0	0	0	0	0	0	0	0	0	0	0	0	0	0	0	0	0	0	0	0	0	0	0	0	0	0	0	0	0	0	0	0	0	0	0	0	0	0	0	0	0	0	0	7137	7137	7137	7137	7137	7137	7137	6992	7137	7137	6992	6992	6992	6992	6992	6992	6992	6992	7137	7137	7137	7287	7287	7287	7287	7287	7137	7287	7287	7287	7287	7287	7287	0	0	7287	7287	7287	7287	7287	7287	7287	7287	7287	0	0	0	0	0	0	0	0	0	0	0	0	0	0	0	0	0	0	0	0	0	0	0	0	0	0	0	0	0	0	0	0	0	0	0	0	7444	7444	0	0	0	0	0	0	0	2629	2629	2629	2629	2609	2589	2570	2570	2570	2551	2551	2532	2532	2514	2496	2496	2478	2460	2443	2443	2426	2426	2426	2409	2409	2392	2376	2376	2376	2359	2359	2359	2359	2343	2327	2327	2327	0	0	0	0	0	0	0	0	0	0	0	0	0	0	0	0	0	0	0	0	0	0	0	0	0	0	0	0	0	0	0	0	0	0	0	0	0
0	0	0	0	0	935	935	937	937	1008	994	994	991	991	991	988	994	997	991	991	1008	1008	1008	1006	1000	1003	1003	1003	1003	1003	1006	1008	1011	1014	1023	1030	1036	1039	1048	1048	1048	1052	1052	1058	1061	1071	1071	1074	1078	1078	1078	1342	1336	1342	1347	1352	1358	1358	1363	1374	1374	1379	1379	1379	1379	1374	1368	1368	1363	1363	1363	1374	1374	1379	1374	1374	1374	1374	1368	1368	1368	1368	1363	1363	1363	1358	1358	1358	1358	1358	1352	1352	1352	1358	1358	1358	1368	1368	1368	1374	1368	1368	1374	1385	1385	1385	1390	1396	1396	1402	1402	1407	1413	1413	0	0	0	0	0	0	0	6992	6992	6992	7137	7137	6992	6992	6992	6853	6992	6992	6992	6992	6992	6992	7137	7137	7137	7137	7137	7137	7137	6992	6992	6853	6720	6720	6720	6720	6720	6720	6720	6992	6992	6992	6992	7137	6992	7137	7287	7287	7287	7287	0	0	0	0	0	0	0	0	0	0	0	0	0	0	0	0	0	0	0	0	0	0	0	0	0	0	0	0	0	0	0	0	0	0	7444	7287	7287	7287	7287	7287	7137	7137	7137	6992	6992	6992	6992	6992	6992	6992	6992	6992	6992	6992	6992	6992	7137	7137	7137	7137	7137	7137	7137	7137	7137	6992	6992	6992	6853	6853	6853	6853	6992	6992	6992	6992	6992	6992	6992	6992	6992	6992	6853	6992	6992	6992	6992	6992	6992	6992	7137	7137	6992	6992	6992	6992	6992	6992	6992	6992	6992	6992	6992	6992	6992	6992	6992	6992	6992	6992	6992	6992	6992	6992	6992	6992	6992	6992	6992	7137	6992	7137	6992	6992	6992	6992	6853	6853	0	0	0	0	3406	3406	3406	3406	3406	3406	3406	3406	3406	3406	3406	3406	3440	3440	3440	3406	3406	0	0	0	0	0	7137	7137	7137	7137	7137	7287	7137	6992	6992	6992	6720	6720	6720	0	0	0	0	0	0	0	0	0	7137	7137	7137	7137	7137	7137	7137	7137	7137	7137	7137	7137	6992	6992	7137	7137	7137	7137	6992	6992	7137	7137	6992	7137	7137	7137	7137	7137	7137	7137	7137	7137	6992	6992	6992	6992	6992	6853	6853	6853	6853	6720	6720	6720	6720	6853	6853	6992	6992	6992	6992	6992	7137	6992	6992	6992	6992	6992	6992	6853	6853	6853	6720	6720	6853	6853	6992	6992	6992	6992	6992	6992	6992	6992	6992	6992	6853	6853	6853	6853	6853	6853	6853	6853	6853	6853	6853	6720	6720	6720	6720	6720	0	0	0	0	0	0	0	0	0	0	0	0	0	0	0	0	0	0	0	0	0	0	0	0	0	0	0	0	0	0	0	0	0	0	0	0	0	0	0	0	0	0	0	0	0	7137	7137	7137	7137	7137	7137	7137	7137	7137	7137	7137	6992	6992	7137	6992	6992	6992	6992	7137	7137	7137	7137	7287	7287	7287	7287	7137	7287	7287	7287	0	0	0	0	7287	7287	7287	7287	7287	7287	7287	7287	7287	7287	0	0	0	0	0	0	0	0	0	0	0	0	0	0	0	0	0	0	0	0	0	0	0	0	0	0	0	0	0	0	0	0	0	0	7444	7444	7444	7444	7444	0	0	0	0	0	0	2629	2629	2629	2629	2609	2609	2589	2589	2570	2570	2551	2532	2532	2532	2514	2496	2478	2460	2426	2426	2426	2426	2409	2409	2392	2376	2376	2376	2376	2359	2359	2359	2359	2343	2327	2327	2327	0	0	0	0	0	0	0	0	0	0	0	0	0	0	0	0	0	0	0	0	0	0	0	0	0	0	0	0	0	0	0	0	0	0	0	0	0
0	0	0	0	940	937	937	937	937	1008	1008	1003	1003	961	961	1008	1006	1006	1008	1011	1011	1011	1008	1008	1003	1003	1003	1006	1003	1003	1014	1017	1017	1020	1026	1030	1036	1036	1042	1048	1045	1048	1052	1058	1061	1071	1071	1074	1078	1078	1078	1078	1336	1352	1352	1352	1358	1358	1374	1374	1379	1379	1385	1379	1379	1379	1374	1374	1374	1368	1368	1368	1379	1379	1379	1379	1379	1379	1374	1374	1374	1374	1374	1374	1374	1368	1363	1368	1368	1368	1374	1374	1374	1374	1374	1374	1374	1374	1374	1374	1374	1374	1374	1379	1385	1385	1390	1396	1402	1402	1407	1407	1413	1413	0	0	0	0	0	0	0	6992	6992	6992	6992	7137	7137	7137	6992	6992	6992	6992	6992	7137	7137	7137	7137	7287	7137	7137	7137	7137	7137	7137	7137	6992	6853	6853	6853	6853	6853	6853	6853	6992	7137	7137	7137	7137	7137	7287	7287	7287	7444	7444	0	0	7444	7444	7444	0	0	0	0	0	0	0	0	0	0	0	0	0	0	0	0	0	0	0	0	7137	6992	6992	6992	7137	7137	7137	0	7444	7444	7608	7444	7444	7444	7287	7137	7137	7137	6992	6992	6992	6992	6992	6992	6992	6992	6992	6992	6992	6992	6992	7137	7137	7137	7137	7137	7137	7137	7137	6992	6992	6992	6992	6992	6992	6992	6992	6992	6992	6992	6992	6992	6992	6992	6992	6992	6992	6853	6853	6992	6992	6992	6992	6992	7137	7137	7137	7137	7137	7137	7137	7137	6992	6992	6992	6992	6992	6992	6992	6992	7137	7137	7137	7137	7137	7137	7137	6992	6992	6992	6992	6992	6992	6992	7137	7137	7137	6992	6992	6992	6992	6853	6853	0	0	0	0	3440	3406	3406	3406	3406	3440	3406	3406	3440	3440	3440	3440	3440	3440	3475	3475	3475	0	0	0	0	0	7137	7287	7287	7137	7137	7137	7137	6992	6992	6992	0	0	0	0	0	0	0	0	0	0	0	0	7137	7137	7137	7137	7137	7137	7137	7137	7137	7137	7137	7137	7137	7137	7137	7137	7137	7137	7137	6992	7137	7137	7137	7137	7137	7137	7137	7137	7137	7137	7137	7137	6992	7137	7137	7137	7137	7137	6853	6853	6853	6853	6720	6720	6853	6992	6992	6992	6992	6992	6992	6992	7137	6992	7137	6992	7137	6992	6992	6992	6992	6853	6853	6992	6992	6992	6992	6992	7137	7137	7137	7137	6992	6992	6992	6992	6992	6992	6992	6992	6992	6992	6853	6853	6853	6853	6853	6720	6720	6720	6720	0	0	0	0	0	0	0	0	0	0	0	0	0	0	0	0	0	0	0	0	0	0	0	0	0	0	0	0	0	0	0	0	0	0	0	0	0	0	0	0	0	0	0	0	0	0	6992	7137	7137	7137	7137	7137	7137	7137	7137	7287	7137	7137	7137	7137	7137	7137	7137	7137	7137	7137	7137	7137	7137	7137	7287	7287	7137	7287	7287	7287	0	7287	7287	0	7287	7287	7287	7287	7444	7287	7287	7287	7287	7287	0	0	0	0	0	0	0	0	0	0	0	0	0	0	0	0	0	0	0	0	0	0	0	0	0	0	0	0	0	0	0	0	0	0	7444	7444	7444	7444	7444	0	0	0	0	0	0	2629	2629	2629	2629	2609	2609	2589	2589	2570	2551	2551	2532	2532	2514	2496	2478	2478	2443	2426	2409	2409	2409	2409	2409	2392	2392	2376	2376	2376	2359	2359	2359	2359	2343	2343	2327	2327	0	0	0	0	0	0	0	0	0	0	0	0	0	0	0	0	0	0	0	0	0	0	0	0	0	0	0	0	0	0	0	0	0	0	0	0	0
0	0	0	0	940	940	942	940	940	940	1011	1008	1003	961	961	1008	1008	1011	1011	1017	1014	1014	1011	1008	1008	1008	1008	1011	1008	1017	1020	1020	1020	1020	1026	1030	1033	1036	1045	1048	1048	1048	1055	1058	1061	1068	1068	1071	1074	1071	1071	1071	0	1352	1352	1352	1358	1358	1379	1379	1385	1385	1385	1385	1385	1379	1379	1379	1379	1374	1379	1379	1379	1385	1379	1385	1385	1385	1385	1385	1385	1385	1385	1379	1385	1385	1385	1385	1385	1379	1385	1379	1385	1379	1379	1379	1379	1379	1379	1379	1379	1379	1385	1385	1390	1390	1396	1396	1402	1407	1407	1413	1413	1413	0	0	0	0	0	0	0	6853	6992	6992	6992	7137	7137	7137	7137	6992	6992	6992	7137	7137	7137	7137	7137	7287	7137	7137	7137	7137	7137	7137	7137	6992	6853	6853	6853	6853	6853	6853	6853	6853	7137	7137	7287	7287	7137	7287	7287	7444	7287	7287	0	0	7608	7444	7287	7287	0	0	0	0	0	0	0	0	7444	7444	0	0	0	0	0	0	0	0	7137	6992	6992	6992	6992	7137	7137	7137	0	7608	7608	7608	7608	7608	7608	7444	7287	7137	7137	6992	6992	6992	6992	6992	6992	6992	6992	6992	6992	6992	6992	6992	7137	7137	7137	7137	7137	7137	7137	7137	7137	7137	7137	7137	6992	6992	6992	6992	6992	6992	6992	6992	6992	6992	6992	6992	6992	6992	6992	6992	6992	6992	7137	7137	7137	7137	7137	7137	7137	7137	7137	7137	7137	7137	7137	7137	7137	7137	7137	6992	7137	7137	7137	7137	7137	7137	7137	7137	7137	6992	6992	6992	6992	6992	6992	7137	7137	7137	6992	6992	6992	6992	6992	6992	0	0	0	0	3475	3440	3440	3440	3440	3440	3440	3440	3440	3440	3440	3440	3440	3475	3475	3510	3510	0	3621	3621	0	7137	7287	7287	7287	7137	7137	7287	7137	6992	6992	6992	6992	6992	6992	6992	0	7137	7137	7137	7137	7137	7287	7137	7137	0	0	7137	7137	7137	7137	7137	7137	7137	7137	7137	6992	6992	7137	7137	6992	7287	7137	7137	7137	7137	7137	7137	7137	7137	7137	7137	7137	7137	7137	7137	7137	7137	7137	7137	7137	7137	7137	7137	7137	7137	7137	6992	6992	7137	7137	7137	6992	7137	7137	7137	7137	7137	7137	7137	7137	6992	6992	6992	6992	6992	6992	6992	6992	6992	6992	7137	7137	7137	7137	7137	7137	7137	6992	7137	7137	7137	6992	6992	6992	6992	6992	6992	6853	6853	6853	6853	6853	6720	6720	0	0	0	0	0	0	0	0	0	0	0	0	0	0	0	0	0	0	0	0	0	0	0	0	0	0	0	0	0	0	0	0	0	0	0	0	0	0	0	0	0	0	0	0	6992	6992	6992	7137	7137	7137	7137	7137	7137	7287	7287	7287	7287	7287	7287	7287	7137	7137	7137	7287	7287	7287	7137	7137	7287	7287	7287	7287	7287	7287	7444	7287	7287	7287	7287	0	0	7287	7444	7444	7444	7444	7444	7287	7287	7287	0	0	0	0	0	0	0	0	0	0	0	0	0	0	0	0	0	0	0	0	0	0	0	0	0	0	0	0	0	0	0	0	7287	7444	7444	7444	7444	7444	7444	0	0	0	0	0	0	2609	2629	2629	2629	2609	2609	2589	2570	2570	2551	2551	2551	2532	2514	2496	2478	2478	2460	2426	2426	2426	2443	2426	2409	2409	2392	2376	2376	2359	2359	2359	2359	2343	2343	2343	2327	2327	0	0	0	0	0	0	0	0	0	0	0	0	0	0	0	0	0	0	0	0	0	0	0	0	0	0	0	0	0	0	0	0	0	0	0	0	0
0	0	0	0	0	942	945	942	950	953	953	955	955	961	961	961	1011	1011	1017	1020	1017	1017	1014	1014	1014	1014	1011	1017	1017	1020	1023	1023	1023	1023	1030	1033	1036	1039	1045	1048	1048	1052	1055	1058	1061	1068	1068	1071	1071	1071	1071	1071	0	0	0	0	0	0	1379	1379	1385	1385	1385	1385	1385	1385	1385	1390	1396	1390	1407	1407	1402	1396	1390	1390	1390	1390	1390	1390	1390	1390	1390	1385	1385	1385	1390	1396	1396	1396	1390	1390	1396	1390	1385	1385	1385	1385	1385	1385	1385	1385	1390	1390	1396	1396	1402	1396	1407	1407	1413	1413	1413	1431	1431	0	0	0	0	0	0	6853	6853	6992	7137	7137	7137	7137	7137	7137	6992	6992	7137	7137	7137	7137	7287	7287	7287	7287	7137	7137	7287	7287	7137	7137	6992	6992	6992	6992	6853	6853	6853	6853	6853	6853	7287	7137	7137	7287	7287	7287	7287	7444	7444	7444	7444	7444	7287	7287	7287	0	0	0	0	0	0	0	7444	7444	7444	7444	0	0	0	0	0	7137	7137	7137	7137	6992	7137	7137	7137	7137	7287	7608	7608	7608	7608	7608	7608	7444	7444	7287	7137	7137	7137	6992	6992	6992	6992	6992	6992	6992	6992	6992	7137	7137	7137	7137	7137	7137	7137	7137	7137	7137	7137	7137	7137	7137	7137	6992	6992	6992	6992	6992	6992	6992	7137	7137	7137	7137	7137	7137	7137	7137	7137	7137	7137	7137	7137	7137	7137	7137	7137	7137	7137	7137	7137	7137	7137	7137	7137	7137	7137	7137	7137	7137	7137	7137	7137	7137	7137	7137	7137	6992	6992	7137	6992	7137	7137	7137	7137	7137	7137	6992	6992	6992	6992	6992	0	0	0	0	3475	3440	3440	3440	3440	3440	3440	3440	3440	3440	3440	3440	3475	3475	3475	3475	3583	3583	3621	3621	7137	7137	7287	7287	7287	7137	7137	7137	6992	6853	6853	6853	7137	7137	7137	7137	0	7137	7137	7137	7137	7137	7137	7137	7137	0	0	7137	7137	7137	7137	7137	7137	7137	7137	7137	7137	7137	7287	7287	7137	7137	7137	7137	7137	7137	7137	7137	7137	7137	7137	7137	7137	7137	7287	7137	7137	7137	7287	7137	7137	7137	7137	7137	7137	7137	7137	7137	7137	7137	7137	7137	7137	7137	7137	7137	7137	7137	7137	7137	7137	7137	6992	7137	6992	6992	6992	7137	7137	7137	7137	7137	7137	7137	7137	7137	7137	7137	7137	7137	7137	7137	7137	6992	7137	7137	7137	6992	6992	6992	6992	6992	6992	6853	6853	0	0	0	0	0	0	0	0	0	0	0	0	0	0	0	0	0	0	0	0	0	0	0	0	0	0	0	0	0	0	6992	6992	6992	0	0	0	7137	7137	0	0	6992	6992	6992	7137	6992	6853	6992	7137	7137	7137	7287	7287	7287	7287	7287	7287	7287	7287	7287	7287	7287	7287	7287	7287	7137	7287	7137	7137	7287	7287	7287	7444	7287	7287	7444	7287	7287	7287	7287	7287	0	7287	7444	7444	7444	7444	7444	7287	7287	7137	7137	0	0	0	0	0	0	0	0	0	0	0	0	0	0	0	0	0	0	0	0	0	7287	7287	0	0	7137	7137	0	0	0	7137	7137	7137	7287	7287	7287	0	0	0	0	0	0	0	0	2609	2609	2629	2629	2609	2609	2589	2589	2570	2570	2551	2551	2532	2496	2496	2478	2478	2460	2443	2443	2443	2443	2426	2426	2409	2409	2409	2376	2359	2359	2359	2359	2359	2343	2343	2327	2327	0	0	0	0	0	0	0	0	0	0	0	0	0	0	0	0	0	0	0	0	0	0	0	0	0	0	0	0	0	0	0	0	0	0	0	0	0
0	0	0	0	0	942	945	942	953	953	953	955	958	961	961	961	961	961	1020	1020	1020	1017	1020	1017	1017	1020	1020	1020	1020	1023	1026	1030	1026	1030	1033	1036	1039	1039	1045	1048	1048	1052	1055	1058	1061	1061	1064	1068	1068	1068	1068	0	0	0	0	0	0	0	1379	1379	1390	1390	1390	1390	1390	1390	1390	1390	1407	1419	1419	1419	1413	1407	1402	1402	1402	1396	1396	1396	1396	1396	1396	1390	1396	1390	1402	1407	1407	1402	1402	1402	1402	1402	1396	1396	1396	1396	1396	1390	1390	1396	1396	1396	1396	1402	1402	1402	1407	1407	1413	1413	1419	1431	1431	0	0	0	0	0	0	0	6592	6592	7287	7287	7137	7287	7287	7137	7137	7137	7287	7287	7287	7287	7287	7444	7287	7287	7137	7137	7287	7287	7137	7137	6992	6992	6992	6992	6992	6853	6853	6853	6853	6853	0	7287	7287	7287	7287	7287	7287	7287	7444	7444	7444	7444	7444	7287	7287	7287	7287	7287	7287	7444	7444	7608	7444	7444	7444	7287	7287	7137	7137	7137	7137	7137	7137	7137	7137	7137	7137	7137	7137	7137	7287	7287	7608	7608	7608	7608	7608	7608	7444	7444	7287	7137	7137	7137	6992	7137	7137	6992	6992	6992	6992	6992	7137	7137	7137	7137	7137	7137	7137	7137	7137	7137	7137	7137	7137	7137	7137	6992	6992	6992	6992	6992	6992	6992	7137	7137	7137	7137	7137	7137	7137	7137	7137	7137	7137	7137	7137	7137	7137	7137	7137	7137	7137	7137	7137	7137	7137	7137	7137	7137	7137	7137	7137	7137	7137	7137	7137	7137	7137	7137	7137	7137	6992	7137	7137	7137	7137	7137	7137	7137	7137	6992	6992	7137	7137	7137	0	0	0	3475	3475	3440	3475	3440	3440	3440	3440	3440	3475	3440	3440	3440	3440	3440	3510	3510	3583	3583	3621	7137	6992	7137	7137	7137	7137	7137	7137	7287	7137	6992	6992	7137	7287	7287	7287	7137	7137	7137	7137	7137	7137	7137	7137	7137	7137	0	0	0	0	7137	7137	7137	7137	7137	7137	7137	7137	7137	7137	7287	7137	7137	7137	7137	7137	7137	7137	7137	7137	7137	7137	7137	7137	7137	7137	7137	7137	7287	7287	7287	7137	7137	7137	7137	7287	7287	7137	7137	7137	7287	7137	7287	7137	7137	7137	7137	7137	7137	7137	7137	6992	6992	6992	6992	6992	6992	6992	6992	7137	7137	7137	7137	7137	7137	7137	7137	7137	7137	7137	7137	7137	7137	7137	6992	7137	7137	7137	7137	6992	7137	7137	6992	6992	6992	6992	7137	7287	7287	0	0	0	0	0	0	0	0	0	0	0	7287	7287	7287	7287	7137	7137	0	0	0	0	0	0	0	0	0	6853	6992	7137	7137	7137	7287	7287	7287	7287	7287	7137	7137	7137	6992	7137	6992	6992	6992	7137	7137	7287	7287	7287	7287	7444	7444	7444	7444	7287	7287	7287	7287	7287	7287	7287	7287	7287	7137	7137	7287	7287	7287	7444	7444	7444	7444	7444	7287	7287	7287	7287	7287	7287	7444	7444	7444	7444	7444	7444	7444	7287	7137	7444	7444	0	0	0	0	0	0	0	0	0	0	0	0	0	0	0	0	0	0	0	7287	7287	0	0	7137	7287	7137	7137	0	7287	7287	7287	7287	7287	7287	0	0	0	0	0	0	0	0	2609	2629	2629	2629	2629	2609	2589	2570	2570	2551	2551	2551	2532	2496	2496	2478	2478	2460	2460	2460	2443	2443	2443	2443	2426	2426	2409	2392	2376	2359	2359	2359	2359	2343	2343	2327	2327	0	0	0	0	0	0	0	0	0	0	0	0	0	0	0	0	0	0	0	0	0	0	0	0	0	0	0	0	0	0	0	0	0	0	0	0	0
0	0	0	0	0	942	945	945	945	953	953	955	955	961	961	961	969	974	974	1020	1017	1014	1017	1017	1017	1020	1020	1023	1026	1033	1030	1030	1026	1026	1033	1036	1036	1039	1045	1048	1048	1055	1058	1061	1061	1064	1064	1068	1068	1068	1068	0	0	0	0	0	0	0	0	0	1390	1390	1390	1390	1390	1390	1407	1390	1407	1419	1419	1419	1419	1407	1402	1402	1407	1402	1402	1402	1402	1407	1407	1402	1402	1402	1407	1407	1413	1407	1407	1407	1407	1402	1402	1402	1402	1402	1402	1396	1396	1396	1396	1396	1402	1402	1402	1407	1407	1407	1413	1419	1425	1437	1437	0	0	0	0	0	0	0	6592	6992	6992	7137	7137	7287	7287	7287	7287	7287	7287	7444	7287	7287	7287	7444	7444	7287	7287	7287	7287	7287	7137	7137	6992	6992	6992	6992	6992	6853	6853	6853	6853	0	7287	7287	7287	7287	7287	7287	7287	7287	7287	7287	7444	7444	7287	7287	7287	7287	7287	7287	7444	7444	7608	7608	7444	7444	7287	7287	7137	7137	7137	7137	7137	7137	7137	7137	7137	7137	7137	7137	7137	7137	7287	7444	7608	7608	7608	7608	7608	7608	7444	7444	7444	7137	7137	7137	7137	7137	7137	7137	6992	6992	6992	6992	6992	7137	7137	7137	7137	7137	7137	7137	7137	7137	7137	7137	7137	7137	7137	7137	7137	7137	7137	7137	7137	7137	7137	7137	7137	7137	7137	7137	7137	7137	7137	7137	7137	7137	7137	7137	7137	7137	7137	7137	7137	7137	7137	7137	7137	7137	7137	7137	7137	7137	7137	7137	7137	7137	7137	7137	7137	7137	7137	7137	7137	7137	7137	7287	7287	7287	7287	7137	7137	7137	7137	7137	7137	7137	0	3510	3475	3510	3475	3475	3475	3475	3440	3475	3440	3440	3440	3440	3440	3475	3440	3475	3475	3475	3510	3510	7137	7137	7137	7137	7287	7137	7137	7137	7137	7287	7137	7137	7137	7137	7287	7287	7287	7287	7287	7287	7287	7137	7137	7137	7137	7137	7137	0	0	0	0	0	7137	7287	7137	7137	7137	7137	7137	7137	7137	7137	7137	7137	7137	7137	7137	7137	7137	7137	7137	7137	7137	7137	7137	7137	7137	7137	7137	7287	7287	7287	7287	7287	7137	7137	7287	7287	7287	7287	7287	7287	7287	7287	7287	7137	7137	7137	7137	7137	7137	6992	6992	6992	6992	7137	6992	6992	6992	6992	7137	7137	7137	7137	7137	7137	7137	7137	7137	7137	7137	7137	7137	7137	7137	7137	7137	7137	7137	7137	7137	7137	7137	7137	7137	7137	7137	7137	7287	7287	7287	0	0	0	0	0	0	0	0	7287	7287	7137	7287	7287	7137	7137	7137	7137	0	0	0	0	0	0	0	0	7137	7137	7137	7137	7137	7287	7287	7287	7287	7287	7287	7137	7137	7137	7137	7137	7137	6992	7137	7137	7137	7287	7287	7287	7444	7444	7444	7444	7444	7444	7444	7444	7444	7444	7444	7287	7287	7137	7137	0	7287	7287	7444	7444	7444	7444	7444	7444	7287	7287	7287	7287	7444	7444	7444	7444	7608	7444	7444	7444	7444	7444	7608	7608	7779	7608	7779	7959	7608	7608	7608	0	0	0	0	0	0	0	0	0	0	0	0	7287	7287	7137	7137	7137	7287	7137	7137	7137	7287	7287	7287	7287	7287	0	0	0	0	0	0	0	0	0	2609	2629	2629	2629	2609	2589	2570	2570	2570	2551	2551	2551	2532	2496	2496	2478	2478	2460	2460	2460	2460	2460	2443	2443	2426	2409	2409	2376	2359	2359	2359	2359	2359	2359	2343	2327	2327	0	0	0	0	0	0	0	0	0	0	0	0	0	0	0	0	0	0	0	0	0	0	0	0	0	0	0	0	0	0	0	0	0	0	0	0	0
0	0	0	0	0	942	945	945	950	953	953	953	955	958	961	966	972	972	972	977	977	1011	1011	1011	1011	1020	1039	1039	1039	1039	1036	1036	1033	1036	1036	1039	1039	1039	1045	1045	1048	1055	1058	1061	1061	1064	1064	1068	1068	1068	1068	0	0	1455	1455	0	0	0	0	0	0	1390	1390	1390	1390	1396	1402	1407	1413	1419	1419	1425	1419	1419	1419	1413	1413	1407	1407	1402	1407	1407	1413	1407	1407	1407	1413	1413	1419	1413	1413	1407	1413	1407	1407	1407	1407	1402	1402	1402	1402	1402	1402	1402	1402	1402	1402	1407	1407	1413	1419	1425	1425	1437	1443	1437	1437	0	0	0	0	0	6592	6992	7137	7287	7287	7287	7287	7287	7444	7444	7444	7444	7444	7287	7287	7444	7444	7287	7287	7287	7287	7287	7137	7137	6992	6992	6992	6992	6992	6853	6853	6853	6853	0	7287	7287	7137	7137	7137	7137	7137	7137	7287	7287	7444	7444	7287	7287	7287	7287	7287	7287	7287	7444	7608	7608	7444	7444	7444	7137	7287	7137	7137	7137	7137	7137	7137	7137	7137	7137	7137	7137	7287	7287	7287	7444	7608	7608	7608	7608	7608	7608	7444	7444	7444	7287	7287	7287	7137	7137	7137	7137	7137	7137	6992	6992	7137	7137	7137	7137	7137	7137	7137	7137	7137	7137	7137	7137	7137	7137	7137	7137	7137	7137	7137	7137	7137	7137	7137	7137	7137	7137	7137	7137	7137	7137	7137	7287	7287	7137	7137	7137	7137	7137	7137	7137	7137	7137	7137	7137	7137	7137	7137	7137	7137	7137	7137	7137	7137	7137	7137	7137	7137	7137	7137	7137	7137	7137	7287	7287	7287	7287	7287	7137	7137	6992	6992	7137	7137	0	3546	3510	3510	3510	3475	3475	3475	3475	3475	3475	3440	3475	3475	3475	3475	3475	3475	3475	3510	3475	3475	3475	7137	6992	6992	7137	7137	7137	7137	7137	7137	7287	7287	7287	7287	7287	7444	7444	7287	7287	7287	7287	7287	7287	7137	7137	7137	7137	7137	7287	7287	0	0	0	7137	7287	7287	7287	7137	7137	7137	7137	7137	7137	7137	7137	7137	7137	7137	7287	7137	7287	7137	7137	7137	7137	7137	7137	7137	7137	7137	7287	7287	7287	7287	7287	7287	7287	7287	7287	7287	7287	7287	7287	7287	7287	7287	7137	7137	7137	7137	7137	7137	7137	7137	7137	7137	7137	7137	6992	6992	7137	7137	7137	7287	7137	7137	7287	7137	7137	7137	7137	7137	7137	7137	7137	7137	7137	7287	7137	7137	7137	7137	7137	7137	7137	7137	7137	7137	7137	7287	7287	7287	7137	7137	0	0	0	0	7287	7287	7287	7287	7287	7287	7287	7287	7137	7137	7137	7137	0	0	0	0	0	0	0	7137	7137	7137	7137	7287	7287	7287	7287	7287	7287	7287	7137	7137	7137	7137	7137	7137	0	0	7137	7137	7287	7287	7444	7444	7444	7444	7444	7444	7444	7444	7444	7444	7444	7444	7444	7287	0	0	0	0	0	7444	7444	7444	7444	7444	7287	7287	7287	7287	7444	7444	7444	7608	7444	7608	7608	7444	7444	7444	7608	7608	7608	7608	7779	7779	7779	7779	7608	7608	0	0	0	0	0	0	0	0	0	0	0	0	7287	7137	7137	7137	7137	7287	7287	7137	7287	7287	7287	7287	7287	6992	6992	0	0	0	0	0	0	0	0	2609	2629	2629	2609	2609	2589	2570	2570	2551	2551	2551	2532	2514	2496	2496	2478	2478	2460	2478	2478	2460	2460	2443	2443	2426	2409	2409	2376	2359	2359	2359	2359	2359	2359	2343	2327	2327	0	0	0	0	0	0	0	0	0	0	0	0	0	0	0	0	0	0	0	0	0	0	0	0	0	0	0	0	0	0	0	0	0	0	0	0	0
0	0	0	0	0	940	942	945	945	948	953	953	955	955	961	966	972	974	977	977	977	983	988	988	988	1039	1039	1042	1042	1042	1042	1042	1039	1039	1039	1042	1042	1042	1045	1045	1048	1055	1058	1061	1061	1064	1064	1064	1064	1068	1068	1449	1455	1455	1455	1455	0	0	0	0	0	0	0	0	0	1396	1413	1419	1419	1425	1425	1425	1425	1425	1425	1419	1419	1419	1413	1413	1413	1419	1419	1419	1419	1419	1419	1425	1425	1419	1419	1413	1419	1419	1419	1419	1413	1407	1413	1407	1407	1407	1407	1407	1407	1407	1407	1413	1419	1419	1425	1425	1431	1437	1443	1437	1443	1443	0	0	0	0	0	0	7137	7287	7137	7287	7287	7287	7287	7444	7444	7444	7444	7444	7287	7444	7444	7287	7287	7444	7444	7444	7287	7137	6992	7137	6992	6992	6992	6992	7137	7444	7444	7444	7287	7287	7287	7287	7137	7287	7287	7287	7287	7444	7444	7444	7287	7287	7287	7287	0	7287	7287	7444	7444	7608	7444	7444	7287	7287	7287	7287	7287	7287	7287	7287	7287	7287	7287	7137	7287	7287	7287	7287	7444	7444	7444	7444	7608	7608	7608	7608	7608	7444	7444	7287	7287	7287	7287	7287	7137	7137	7137	7137	6992	6992	7137	7137	7137	7137	7137	7137	7137	7137	7137	7137	7137	7137	7137	7137	7137	7137	7287	7287	7287	7137	7137	7137	7137	7287	7137	7137	7137	7287	7137	7137	7287	7287	7287	7137	7137	7137	7137	7137	7137	7137	7137	7137	7137	7137	7137	7137	7137	7137	7137	7137	7137	7287	7137	7137	7137	7137	7137	7137	7137	7137	7137	7137	7287	7287	7287	7287	7287	7137	7137	6992	6992	0	0	0	3510	3510	3510	3475	3440	3440	3475	3475	3440	3440	3440	3475	3475	3440	3475	3440	3440	3475	3475	3475	3475	3475	0	6992	6992	7137	7137	7137	7137	7137	7137	7287	7444	7287	7287	7444	7444	7287	7444	7287	7287	7287	7287	7287	7137	7137	7287	7287	7287	7287	7287	7287	0	0	0	7287	7287	7287	7137	7287	7137	7287	7287	7287	7287	7287	7287	7137	7137	7137	7137	7137	7137	7137	7137	7137	7137	7137	7137	7137	7137	7287	7287	7287	7287	7287	7287	7287	7444	7444	7444	7444	7287	7287	7287	7287	7287	7287	7137	7137	7137	7137	0	7137	7137	7137	7287	7287	7137	7137	7137	7137	7287	7287	7287	7137	7137	7287	7137	7137	7137	7137	7137	7137	7137	7137	7137	7137	7287	7287	7287	7287	7287	7287	7287	7137	7137	7137	7287	7287	7287	7287	7287	7287	7287	7287	7287	7287	7287	7444	7444	7287	7287	7287	7287	7287	7287	7137	7137	7137	7137	7137	7137	7137	7137	7137	7137	0	7137	7137	7137	7287	7287	7287	7287	7287	7287	7287	7287	7137	7137	7137	7137	7137	7137	0	0	0	0	0	0	7444	7444	7444	7444	7444	7444	7287	7444	7444	7444	7444	7444	7444	0	0	0	0	0	0	7444	7444	7444	7444	7444	7444	7287	7287	7287	7287	7444	7444	7444	7444	7444	7444	7444	7444	7444	7608	7608	7608	7779	7608	7779	7779	7444	7444	0	0	0	0	0	0	0	0	0	0	0	0	7444	7287	7287	7137	7137	7137	7287	7287	7137	7287	7287	7287	7287	7287	7137	7137	0	0	0	0	0	0	0	0	0	2629	2629	2609	2609	2589	2570	2570	2551	2551	2551	2532	2514	2496	2478	2478	2478	2478	2478	2478	2460	2460	2460	2443	2426	2426	2409	2376	2359	2359	2359	2359	2359	2359	2343	2327	2327	0	0	0	0	0	0	0	0	0	0	0	0	0	0	0	0	0	0	0	0	0	0	0	0	0	0	0	0	0	0	0	0	0	0	0	0	0
0	0	0	0	0	937	940	942	945	948	948	953	958	958	961	966	972	972	977	980	983	983	988	988	988	988	1048	1048	1048	1048	1048	1048	1048	1048	1045	1045	1048	1045	1048	1048	1052	1055	1061	1061	1061	1061	1064	1064	1064	0	0	1449	1455	1455	1455	1455	0	0	0	0	0	0	0	0	0	0	1425	1425	1425	1425	1431	1431	1431	1437	1431	1431	1425	1431	1425	1419	1419	1425	1425	1425	1425	1425	1425	1425	1425	1425	1425	1425	1425	1425	1425	1431	1425	1419	1425	1419	1413	1413	1413	1413	1413	1419	1419	1419	1425	1425	1425	1425	1431	1437	1443	1437	1449	1449	0	0	0	0	0	0	0	7287	7137	7287	7287	7287	7287	7444	7444	7608	7608	7444	7444	7444	7444	7444	7444	7444	7444	7444	7444	7287	7137	7137	7137	7137	6992	7137	7287	7608	7779	7779	7608	7608	7444	7287	7287	7287	7287	7287	7444	7444	7444	7444	7444	7444	7287	7287	0	0	7287	7444	7444	7444	7444	7444	7444	7287	7444	7444	7444	7287	7287	7287	7444	7287	7287	7287	7287	7287	7444	7444	7444	7444	7608	7608	7608	7608	7608	7608	7608	7608	7608	7287	7444	7287	7287	7287	7287	7137	7137	7137	6992	6992	7137	7137	7137	7287	7287	7287	7287	7137	7137	7137	7137	7137	7137	7287	7287	7287	7287	7444	7444	7287	7287	7287	7287	7287	7287	7137	7137	7287	7287	7287	7287	7444	7287	7137	7137	7137	7137	7137	7137	7137	7287	7287	7137	7137	7137	7137	7137	7137	7287	7287	7287	7287	7287	7287	7287	7287	7137	7287	7287	7287	7287	7137	7287	7287	7287	7287	7287	7137	7137	0	0	3510	3475	3475	3475	3510	3475	3475	3475	3475	3475	3475	3440	3440	3440	3475	3440	3440	3440	3440	3440	3440	3475	3440	3440	3510	3510	6992	6720	7137	6992	6992	7137	7137	7137	7287	7287	7287	7287	7444	7608	7444	7444	7287	7287	7287	7287	7287	7287	7287	7287	7287	7287	7287	7287	7287	0	0	0	7287	7287	7287	7287	7287	7287	7287	7287	7287	7287	7287	7287	7287	7287	7137	7137	7137	7137	7137	7287	7137	7137	7137	7137	7137	7137	7287	7287	7287	7287	7287	7444	7444	7444	7608	7444	7608	7608	7444	7287	7287	7287	7287	0	0	0	0	0	0	7137	7137	7137	7137	7137	6992	6992	7137	7137	7287	7287	7287	7287	7287	7137	7137	7137	7137	7137	7137	7137	7137	7137	7137	7287	7287	7287	7287	7287	7287	7287	7287	7287	7287	7287	7287	7287	7287	7287	7287	7287	7287	7287	7287	7287	7444	7287	7287	7287	7287	7287	7287	7287	7287	7287	7287	7137	7137	7137	7137	7137	7137	7137	7287	7137	7137	7287	7287	7287	7287	7287	7287	7287	7287	7287	7287	7137	7137	7137	7137	7137	0	0	0	0	0	0	0	7444	7444	7444	7444	7444	7444	7444	7444	7444	7444	7444	7444	0	0	0	0	0	0	0	0	7444	7444	7444	7444	7444	7287	7287	7287	7444	7444	7444	7444	7444	7444	7444	7444	7444	7608	7608	7608	7608	7608	7779	7779	7608	7444	7444	0	0	0	0	0	7444	7444	7608	7608	0	7608	7444	7287	7287	7287	7137	7137	7287	7287	7287	7287	7287	7287	7287	7287	7137	7137	0	0	0	0	0	0	0	0	0	2629	2609	2609	2589	2570	2570	2570	2551	2551	2551	2532	2514	2514	2496	2478	2478	2478	2478	2478	2460	2460	2460	2443	2426	2409	2409	2392	2376	2359	2359	2359	2359	2359	2327	2327	2327	0	0	0	0	0	0	0	0	0	0	0	0	0	0	0	0	0	0	0	0	0	0	0	0	0	0	0	0	0	0	0	0	0	0	0	0	0
0	0	0	0	0	937	942	942	948	950	950	953	958	958	961	966	972	972	974	977	980	980	988	988	988	1003	1052	1052	1052	1052	1052	1052	1052	1052	1052	1048	1048	1048	1048	1052	1048	1052	1058	1061	1061	1061	1061	1061	1061	0	0	1449	1455	1455	1455	1455	0	0	0	0	0	0	0	0	0	0	1425	1425	1431	1431	1437	1437	1437	1437	1437	1437	1431	1431	1431	1431	1425	1425	1431	1431	1431	1431	1437	1437	1431	1437	1437	1437	1437	1437	1443	1443	1443	1431	1431	1425	1425	1419	1425	1425	1425	1425	1425	1425	1431	1431	1425	1425	1431	1443	1449	1449	1461	1461	1461	1461	1461	0	0	0	0	7287	7137	7287	7287	7287	7444	7444	7444	7444	7444	7444	7444	7444	7444	7444	7444	0	7444	7444	7444	7444	7287	7287	7287	7287	7287	7444	7444	7779	7779	7779	7779	7608	7444	7444	7287	7444	7444	7444	7608	7608	7608	7608	7444	7444	7287	7287	0	0	0	7444	7444	7608	7608	7444	7444	7444	7444	7444	7444	7444	7444	7287	7444	7444	7444	7287	7444	7287	7444	7444	7608	7444	7444	7608	7608	7608	7608	7608	7608	7608	7608	0	7444	7444	7287	7287	7287	7287	7137	7137	7137	7137	7137	7137	7137	7287	7287	7287	7287	7287	7137	7287	7287	7137	7137	7287	7287	7287	7287	7444	7444	7444	7444	7444	7444	7444	7287	7287	7287	7287	7287	7287	7287	7444	7444	7137	7137	7137	7137	7137	7137	7137	7287	7287	7137	7137	7137	7137	7137	7137	7137	7287	7287	7444	7287	7287	7287	7444	7287	7287	7287	7287	7287	0	0	0	0	0	0	0	0	0	3510	3510	3475	3475	3475	3510	3475	3475	3475	3475	3440	3440	3440	3440	3440	3440	3440	3440	3440	3440	3440	3440	3440	3440	3440	3475	3475	0	6349	6992	6720	6720	6720	7779	7779	7779	7779	7444	7444	7444	7608	7444	7444	7444	7444	7287	7287	7287	7287	7287	7287	7287	7287	7287	7287	7287	0	7779	7779	0	7287	7287	7287	7287	7287	7287	7287	7287	7287	7287	7287	7287	7287	0	7137	7287	7287	7287	7287	7287	7287	7287	7287	7287	7137	7287	7287	7287	7287	7287	7444	7444	7608	7608	7608	7608	7608	7444	7444	7444	7287	7287	0	0	0	0	0	0	0	7137	7137	7137	7137	7137	7137	7137	7137	7287	7287	7287	7287	7287	7287	7137	7137	7137	7137	7137	7137	7137	7137	7287	7287	7287	7287	7287	7287	7287	7287	7287	7287	7287	7287	7287	7287	7287	7287	7287	7287	7287	7287	7287	7287	7444	7287	7287	7287	7287	7287	7287	7287	7287	7287	7287	7137	7287	7137	7137	7287	7287	7287	7287	7287	7287	7287	7287	7287	7287	7287	7287	7287	7287	7287	7287	7137	7137	7287	7287	7287	0	0	0	0	0	0	0	7444	7444	7444	7444	7444	7287	7444	7287	7444	7444	7444	7444	0	0	0	0	0	0	0	0	0	7444	7444	7444	7444	7444	7287	7287	7444	7444	7444	7608	7608	7608	7608	7608	7608	7608	7608	7608	7608	7608	7608	7608	7608	7444	7444	0	0	0	0	0	7444	7608	7608	7608	7608	7608	7444	7444	7287	7287	7287	7287	7287	7287	7287	7287	7287	7287	7287	7287	7287	7287	0	0	0	0	0	0	0	0	0	2629	2629	2609	2589	2589	2570	2570	2570	2551	2551	2532	2514	2514	2496	2496	2496	2496	2478	2478	2460	2460	2443	2443	2426	2409	2409	2392	2376	2376	2376	2359	2359	2343	2327	2312	2312	0	0	0	0	0	0	0	0	0	0	0	0	0	0	0	0	0	0	0	0	0	0	0	0	0	0	0	0	0	0	0	0	0	0	0	0	0
0	0	0	0	0	937	940	940	948	950	950	953	955	958	961	966	966	972	974	980	980	985	988	994	997	1003	1003	1045	1048	1048	1048	1055	1055	1055	1055	1055	1055	1055	1055	1055	1055	1058	1058	1061	1061	1061	1061	1061	1061	0	0	1449	1455	1455	1455	1455	0	0	0	0	0	0	0	0	0	0	1425	1425	1431	1431	1437	1437	1437	1443	1443	1437	1431	1437	1431	1431	1431	1431	1431	1437	1437	1437	1443	1443	1437	1443	1449	1443	1443	1443	1449	1449	1449	1437	1437	1437	1431	1431	1437	1431	1431	1431	1431	1431	1437	1431	1431	1431	1437	1449	1449	1455	1461	1461	1461	1461	1461	0	0	0	0	0	0	0	7444	7444	7444	7444	7444	7444	7444	7444	7444	7444	7444	7444	0	0	0	0	0	7444	7287	7287	7287	7287	7287	7444	7444	7779	7779	7779	7779	7608	7608	7444	7444	7608	7608	7608	7608	7608	7608	7608	7608	7444	7444	7444	0	0	0	0	7444	7608	7608	7608	7608	7444	7608	7444	7444	7444	7444	7444	7444	7444	7444	7444	7444	7444	7444	7608	7608	7444	7608	7608	7608	7608	7608	7608	7608	7608	0	0	7444	7444	7444	7444	7444	7287	7137	7137	7137	7137	7287	7287	7287	7444	7608	7444	7444	7444	7444	7444	7287	7287	7287	7287	7287	7287	7287	7444	7444	7444	7444	7444	7444	7444	7444	7287	7444	7287	7287	7287	7287	7287	7444	7137	7137	0	0	7137	7137	7137	7287	7287	7287	7287	7287	7287	7287	7287	7608	7608	7608	7608	7444	7444	7444	7444	7444	7287	7287	7287	7287	0	0	0	0	0	0	0	0	3510	3510	3475	3475	3475	3475	3510	3475	3475	3475	3475	3440	3440	3440	3440	3440	3440	3440	3440	3440	3440	3440	3440	3440	3440	3440	3475	3475	0	3510	3510	3510	6720	6720	7779	7779	7779	7779	7779	7608	7608	7608	7608	7608	7444	7444	7444	7444	7444	7444	7444	7287	7444	7608	7608	7608	7608	7779	7779	7779	7779	0	7287	7287	7287	7287	7287	7444	7444	7444	0	0	0	0	0	7287	7287	7287	7287	7287	7287	7287	7287	7287	7287	7137	7287	7287	7287	7287	7444	7608	7608	7608	7608	7608	7608	7608	7608	7608	7608	7444	7444	0	0	0	0	0	0	0	7137	7137	7137	7287	7287	7287	7287	7444	7287	7287	7287	7287	7287	7287	7137	7137	7137	7137	7137	7137	7137	7137	7444	7444	7287	7287	7287	7287	7287	7287	7137	7287	7287	7287	7287	7287	7287	7444	7444	7444	7444	7444	7444	7444	7444	7287	7287	7287	7287	7287	7287	7287	7287	7287	7287	7287	7287	7287	7287	7287	7287	7444	7287	7444	7287	7287	7444	7444	7444	7444	7287	7287	7287	7287	7287	7287	7287	7287	7287	7287	7287	0	0	0	0	0	0	0	7444	7444	7444	7287	7287	7287	7287	7444	7287	7287	0	0	0	0	0	0	0	0	0	0	7444	7444	7444	7444	7444	7444	7444	7444	7444	7444	7608	7608	7779	7608	7608	7608	7608	7608	7608	7608	7608	7608	7608	7608	7608	7444	0	0	0	0	0	7608	7608	7779	7779	7608	7608	7608	7444	7287	7444	7444	7287	0	0	0	0	7287	7444	7444	7444	7444	7444	7444	7444	0	0	0	0	0	0	0	2649	2609	2589	2589	2589	2589	2570	2570	2551	2551	2532	2514	2514	2496	2496	2496	2496	2478	2478	2460	2460	2443	2443	2426	2426	2409	2392	2376	2376	2376	2359	2359	2359	2343	2327	2327	0	0	0	0	0	0	0	0	0	0	0	0	0	0	0	0	0	0	0	0	0	0	0	0	0	0	0	0	0	0	0	0	0	0	0	0	0
0	0	0	0	0	937	940	942	948	950	950	950	955	958	958	958	966	972	974	974	980	988	994	994	997	1006	1003	1008	1045	1048	1048	1055	1055	1058	1058	1058	1055	1058	1058	1055	1055	1058	1058	1058	1061	1061	1061	1061	1061	0	0	1461	1455	1455	1455	1455	1455	0	0	0	0	0	0	0	0	0	0	0	0	1431	1437	1443	1443	1449	1449	1449	1449	1443	1443	1443	1443	1449	1443	1443	1443	1449	1449	1449	1449	1455	1455	1449	1449	1449	1455	1455	1455	1449	1449	1449	1449	1443	1443	1437	1443	1437	1437	1437	1437	1437	1437	1437	1437	1443	1449	1455	1461	1455	1461	1467	1467	0	0	0	0	0	0	7444	7444	7444	7444	7444	7444	7444	7444	7444	7444	7444	7444	7444	0	0	0	0	0	7444	7444	7444	7444	7444	7287	7444	7444	7779	7779	7779	7779	7779	7608	7444	7444	7608	7608	7608	7608	7608	7608	7608	7608	7608	7444	7444	7444	0	0	0	0	0	7608	7608	7608	7608	7608	7608	7444	7444	7444	7444	7444	7444	7444	7444	7444	7444	7608	7608	7608	7608	7608	7608	7608	7608	7608	7608	7608	0	0	0	0	7444	7444	7444	7444	7137	7137	7137	7287	7287	7444	7444	7608	7608	7608	7608	7444	7444	7444	7444	7444	7287	7287	7287	7287	7287	7444	7444	7444	7444	7444	7608	7608	7608	7608	7444	7444	7287	7287	7287	7287	7287	0	0	0	0	0	7287	7287	7287	7444	7444	7444	7444	7444	7444	7444	7444	7608	7608	7608	7608	7444	7444	7608	7608	7444	0	0	0	0	0	0	0	0	0	3546	3510	3510	3510	3510	3475	3475	3475	3475	3475	3475	3475	3440	3475	3440	3440	3440	3440	3440	3440	3440	3440	3440	3440	3440	3440	3440	3440	3440	3510	3510	3510	3510	3510	3510	0	0	0	7779	7779	7779	7608	7608	7444	7608	7608	7608	7444	7608	7608	7608	7608	7608	7608	7444	7608	7608	7608	7608	7608	7608	7608	7608	7608	0	7287	7287	7287	7287	7287	7444	7444	7444	7444	0	0	0	0	7287	7287	7444	7287	7287	7287	7287	7287	7287	7287	7287	7287	7287	7287	7287	7444	7608	7608	7608	7608	7779	7779	7779	7779	7608	7608	7608	7608	7608	0	0	0	0	0	0	7287	7287	7287	7287	7287	7444	7287	7444	7444	7444	7287	7287	7287	7287	7137	7137	7137	7287	7287	7287	7137	7137	7444	7444	7287	7287	7444	7444	7287	7287	7137	7287	7287	7287	7287	7287	7287	7287	7444	7444	7444	7444	7444	7444	7444	7287	7287	7287	7287	7287	7287	7287	7287	7287	7444	7287	7287	7287	7287	7287	7444	7444	7444	7444	7444	7444	7444	7444	7444	7444	7444	7444	7444	7444	7444	7287	7287	7287	7287	7287	7287	7287	0	0	0	0	0	0	7444	7287	7287	7287	7444	7444	7444	7444	7444	7287	0	0	0	0	0	0	0	0	0	0	0	7444	7608	7608	7608	7444	7444	7608	7608	7608	7608	7608	7779	7779	7779	7779	7608	7779	7608	7608	7608	7608	7608	7444	7444	0	0	0	0	0	0	7608	7779	7779	7779	7779	7608	7608	7608	7444	7444	7444	0	0	0	0	0	0	7287	7444	7444	7444	7444	7444	7444	7444	0	0	0	0	0	0	2649	2609	2589	2589	2589	2589	2570	2570	2551	2551	2551	2532	2514	2496	2496	2496	2496	2478	2478	2460	2460	2443	2443	2426	2409	2409	2392	2392	2376	2376	2359	2359	2359	2343	2343	2343	0	0	0	0	0	0	0	0	0	0	0	0	0	0	0	0	0	0	0	0	0	0	0	0	0	0	0	0	0	0	0	0	0	0	0	0	0
0	0	0	0	0	940	940	942	945	950	948	950	953	953	958	961	966	972	972	974	980	985	991	991	991	1000	1000	1003	1003	1045	1045	1055	1055	1055	1058	1058	1058	1058	1058	1058	1055	1058	1058	1058	1061	1061	1061	1061	0	0	1461	1461	1461	1455	1461	1455	1455	0	0	0	0	0	0	0	0	0	0	0	0	0	0	1443	1443	1443	1449	1449	1449	1449	1455	1467	1467	1467	1455	1455	1467	1455	1455	1461	1455	1455	1461	1455	1455	1455	1455	1455	1461	1461	1455	1461	1461	1455	1455	1449	1455	1449	1449	1449	1449	1449	1443	1449	1449	1449	1455	1455	1467	1461	1467	1473	1492	1506	1519	1525	1525	1525	0	7444	7444	7444	7444	7444	7287	7287	7444	7444	7444	7444	7444	7444	0	0	0	0	0	0	7444	7444	7444	7444	7444	7608	7608	7779	7779	7779	7779	7779	7779	7608	7608	7608	7608	7608	7608	7608	7608	7608	7608	7608	7608	7608	7608	0	0	0	0	0	7608	7608	7608	7608	7608	7608	7608	7608	7287	7287	7444	7444	7444	7444	7608	7444	7608	7608	7608	7444	7779	7608	7608	7608	7608	7608	0	0	0	0	0	0	7444	7444	7444	7608	7608	7608	7608	7608	7608	7608	7608	7608	7608	7608	7608	7608	7444	7608	7608	7444	7444	7444	7444	7444	7444	7444	7444	7444	7444	7608	7444	7608	7608	7608	7444	0	0	0	0	0	0	0	0	0	0	7444	7444	7444	7444	7444	7444	7444	7444	7608	7444	7444	7608	7608	7608	7608	7608	7608	7444	7444	0	0	0	0	0	0	0	0	0	3583	3546	3546	3510	3510	3510	3475	3475	3475	3475	3475	3475	3440	3440	3440	3440	3440	3406	3406	3440	3440	3440	3440	3440	3440	3440	3440	3440	3440	3440	3475	3510	3475	3510	3510	3510	0	0	7959	7959	7779	7779	7779	7608	7608	7608	7608	7608	7608	7608	7608	7779	7779	7779	7779	7608	7608	7608	7608	7608	7608	7608	7608	7608	7608	7608	7287	7137	7137	7287	7287	7444	7444	7444	7444	0	0	0	0	7444	7444	7444	7444	7444	7287	7287	7287	7287	7287	7287	7287	7287	7287	7287	7287	7287	7608	7608	7779	7779	7779	7779	7779	7608	7608	7608	7608	7779	7608	7608	0	0	0	0	7287	7287	7287	7444	7444	7444	7287	7444	7444	7444	7287	7287	7287	7287	7287	7287	7287	7287	7287	7287	7287	7287	7287	7287	7287	7287	7287	7287	7287	7287	7137	7287	7287	7287	7287	7287	7287	7287	7444	7444	7444	7287	7444	7444	7444	7287	7287	7287	7287	7287	7287	7287	7287	7287	7287	7287	7287	7287	7444	7287	7444	7444	7444	7608	7608	7444	7608	7444	7444	7444	7444	7444	7444	7444	7444	7444	7444	7287	7287	7287	7287	7444	7444	0	0	0	0	0	0	7444	7287	7444	7444	7444	7444	7444	7444	0	0	0	0	0	0	0	7608	7608	7608	7608	7608	7608	7608	7608	7608	7608	7608	7608	7608	7779	7608	7779	7779	7779	7779	7779	7779	7779	7779	7608	7444	7444	7608	7444	7444	0	0	0	0	0	7779	7779	7779	7779	7779	7608	7608	7608	7608	7608	7608	7608	0	0	0	0	0	0	7287	7444	7444	7444	7444	7444	7444	7444	7444	0	0	0	0	0	2649	2609	2589	2589	2589	2589	2570	2570	2570	2551	2551	2532	2514	2496	2496	2496	2478	2478	2460	2460	2443	2426	2426	2426	2409	2409	2392	2376	2376	2376	2359	2359	2359	2343	2343	2343	0	0	0	0	0	0	0	0	0	0	0	0	0	0	0	0	0	0	0	0	0	0	0	0	0	0	0	0	0	0	0	0	0	0	0	0	0
0	0	0	0	0	940	940	942	945	950	948	948	950	955	961	961	966	972	974	977	980	988	994	994	997	1000	1000	1000	1000	1000	1000	1000	1058	1058	1058	1058	1058	1058	1058	1058	1055	1058	1058	1058	1061	1058	1058	0	0	0	1467	1467	1461	1461	1467	1461	1461	1461	0	0	0	0	0	0	0	0	0	0	0	0	0	0	1443	1443	1455	1449	1449	1449	1455	1473	1473	1473	1467	1467	1473	1467	1461	1461	1461	1461	1461	1461	1461	1455	1461	1461	1461	1467	1467	1467	1467	1473	1461	1455	1455	1455	1455	1461	1455	1461	1473	1480	1473	1467	1461	1467	1467	1467	1473	1486	1506	1519	1525	1525	1532	1532	1532	0	0	0	0	0	7287	7287	7287	7444	7444	7444	7444	7444	0	0	0	0	0	0	7444	7608	7608	7444	7444	7608	7608	7779	7779	7779	7779	7959	7959	7779	7608	7608	7608	7608	7608	7608	7608	7608	7608	7608	7608	7608	7608	0	0	0	0	0	7779	7779	7608	7608	7608	7608	7608	7608	7444	7444	7444	7608	7608	7608	7608	7444	7608	7608	7779	7608	7608	7779	7779	7779	7779	0	0	0	0	0	0	0	7444	7608	7444	7608	7608	7608	7608	7608	7608	7608	7608	7608	7608	7608	7608	7608	7444	7608	7608	7608	7608	7444	7444	7444	7444	7444	0	7444	7444	7608	7444	7608	7608	7608	0	0	0	0	0	0	0	0	0	0	0	7608	7608	7608	7444	7608	7608	7608	7608	7608	7608	7608	7608	7608	7608	7608	7608	7608	7444	7444	0	0	0	0	0	0	0	0	0	3546	3546	3510	3510	3510	3510	3475	3475	3475	3475	3475	3440	3440	3440	3440	3440	3406	3406	3406	3406	3440	3406	3440	3440	3440	3440	3440	3440	3440	3440	3475	3510	3475	3510	3510	3510	3510	0	7959	7959	7959	7779	7779	7608	7608	7608	7608	7608	7444	7444	7608	7608	7779	7779	7608	7608	7608	7608	7608	7779	7608	7779	7779	7608	7608	7608	7287	7137	7137	7137	7137	7608	7608	7444	0	0	0	0	0	7444	7608	7608	7444	7444	7444	7444	7444	7444	7287	7287	7287	7444	7287	7444	7444	7608	7779	7779	7779	7779	7779	7779	7779	7779	7608	7608	7608	7779	7608	7779	7779	7779	0	0	7287	7444	7444	7444	7444	7444	7444	7444	7444	7444	7444	7287	7287	7287	7287	7287	7287	7287	7287	7287	7287	7287	7287	7287	7287	7287	7444	7444	7287	7287	7137	7287	7287	7287	7287	7287	7287	7287	7444	7444	7444	7444	7444	7444	7444	0	0	0	0	0	0	0	7287	7287	7287	7287	7444	7444	7444	7444	7608	7608	7608	7608	7608	7444	7608	7444	7444	7444	7444	7444	7444	7444	7444	7444	7444	7444	7444	7444	7444	7608	7608	0	0	0	0	0	0	7287	7287	7444	7287	7287	7287	7287	7287	7287	0	0	0	0	0	7444	7608	7608	7608	7608	7608	7608	7608	7608	7608	7608	7779	7779	7779	7779	7779	7779	7779	7779	7779	7779	7779	7779	7779	7444	7444	7444	7444	7444	7444	7444	7444	0	0	7779	7779	7779	7779	7959	7779	7779	7608	7779	7779	7779	7608	7608	7608	0	0	0	0	0	0	7444	7444	7444	7444	7444	7444	7444	7444	0	0	0	0	0	0	2609	2589	2589	2589	2589	2570	2570	2570	2551	2551	2532	2514	2496	2496	2496	2478	2478	2460	2460	2443	2426	2426	2426	2409	2409	2392	2376	2376	2359	2359	2359	2359	2343	2343	2343	0	0	0	0	0	0	0	0	0	0	0	0	0	0	0	0	0	0	0	0	0	0	0	0	0	0	0	0	0	0	0	0	0	0	0	0	0
0	0	0	0	0	937	940	942	945	948	948	945	948	953	961	972	974	974	974	977	980	985	991	994	997	1000	1000	1000	1000	1000	1000	1000	1058	1058	1058	1058	1055	1055	1055	1055	1055	1055	1058	1058	1061	1061	1061	1061	1061	0	1467	1467	1473	1467	1473	1473	1473	1473	0	0	0	0	0	0	0	0	0	0	0	0	0	0	0	0	1455	1455	1449	1449	1449	1480	1480	1480	1473	1473	1473	1473	1473	1467	1467	1467	1467	1467	1467	1461	1467	1473	1467	1473	1473	1480	1480	1480	1473	1467	1467	1473	1473	1473	1473	1486	1486	1492	1486	1492	1486	1486	1480	1480	1486	1499	1506	1512	1525	1525	1525	1532	1532	1532	0	0	0	0	0	7287	7444	7444	7444	7608	7608	7779	7779	7779	7779	0	0	0	0	7779	7779	7608	7608	7608	7608	7779	7959	7779	7779	7959	7959	7779	7608	7608	7608	7608	7608	7608	7608	7779	7779	7779	7779	7779	7779	7779	7779	0	0	7779	7779	7779	7779	7608	7608	7608	7608	7608	7444	7444	7444	7608	7608	7608	7608	7608	7608	7608	7608	7779	7779	7779	7779	7779	7779	0	0	0	0	0	0	0	0	7608	7608	7608	7608	7608	7608	7608	7608	7608	7608	7608	7608	7608	7608	7608	7608	7608	7608	7608	7608	7608	7608	7608	0	0	0	0	7444	7608	7608	7608	7608	0	0	0	0	0	0	0	0	0	0	7608	7608	7608	7608	7608	7608	7608	7608	7608	7608	7608	7608	7608	7608	7608	7608	7608	7608	7608	0	0	0	0	0	0	0	0	3546	3510	3510	3510	3510	3510	3475	3475	3475	3475	3475	3475	3475	3475	3440	3440	3440	3440	3440	3440	3406	3406	3406	3406	3406	3406	3440	3440	3440	3440	3440	3440	3440	3475	3510	3475	3475	3510	3510	3510	0	7959	7959	7959	7959	7959	7779	7608	7608	7608	7608	7608	7608	7608	7608	7779	7779	7608	7608	7608	7608	7608	7608	7608	7779	7608	7608	7608	7608	7287	7287	7287	7287	7137	7608	7608	7608	7608	7779	7779	7779	0	0	7608	7608	7608	7444	7444	7444	7444	7444	7444	7444	7444	7608	7608	7608	7608	7779	7779	7779	7779	7959	7779	7779	7779	7779	7779	7779	7779	7779	7608	7779	7779	7779	7779	7608	7608	7444	7444	7444	7444	7444	7444	7444	7444	7444	7444	7287	7444	7444	7444	7444	7444	7287	7287	7287	7287	7287	7444	7287	7444	7444	7444	7444	7287	7287	7287	7287	7287	7287	7287	7287	7287	7287	7444	7287	7444	7287	7444	7287	7287	0	0	0	0	0	0	7287	7287	7287	7287	7287	7444	7444	7444	7287	7444	7444	7444	7608	7608	7444	7608	7444	7444	7444	7444	7444	7444	7608	7608	7608	7608	7444	7444	7608	7444	7608	7608	0	0	0	0	0	0	7287	7287	7444	7287	7287	7287	7287	7137	7137	0	0	0	0	0	7608	7779	7608	7608	7608	7608	7608	7608	7608	7608	7608	7779	7779	7779	7959	7959	7779	7959	7779	7959	7959	7608	7608	7608	7444	7444	7444	7444	7444	7444	7444	7444	7779	7779	7959	7959	7959	7959	7959	7779	7779	7779	7779	7779	7779	7779	7779	7779	0	0	0	0	0	0	0	0	7444	7444	7444	7444	7444	7444	0	0	0	0	0	0	2609	2589	2589	2589	2589	2570	2570	2570	2551	2551	2532	2532	2514	2496	2478	2478	2478	2460	2443	2426	2426	2426	2426	2409	2409	2409	2376	2376	2359	2359	2359	2343	2343	2343	2343	0	0	0	0	0	0	0	0	0	0	0	0	0	0	0	0	0	0	0	0	0	0	0	0	0	0	0	0	0	0	0	0	0	0	0	0	0
0	0	0	0	0	940	940	942	945	948	948	948	948	955	961	966	969	972	974	974	977	983	988	991	997	1000	1000	1003	1003	1006	1011	1011	0	1055	1055	1055	1055	1055	1055	1055	1058	1058	1058	1061	1061	1061	1061	1061	1061	0	0	0	1486	1486	1492	1492	1492	1486	1486	1492	1492	0	0	0	0	0	0	0	0	0	0	0	0	0	0	1455	1449	1449	1449	1486	1486	1486	1486	1480	1480	1480	1473	1473	1480	1473	1480	1486	1486	1492	1492	1492	1486	1492	1492	1486	1486	1486	1480	1480	1480	1480	1480	1486	1492	1499	1492	1499	1492	1499	1492	1492	1486	1492	1499	1506	1512	1519	1519	1525	1525	1532	1532	1532	0	0	0	0	0	0	7444	7444	7444	7608	7608	7608	7779	7779	7779	7959	7959	7959	7959	7779	7779	7608	7608	7608	7779	7959	7959	7779	7779	7959	7959	7779	7608	7608	7608	7608	7608	7608	7779	7779	7779	7779	7779	7779	7779	7779	7959	7959	0	7959	7779	7779	7779	7779	7608	7608	7608	7608	7444	7444	7287	7287	7608	7608	7608	7608	7608	7608	7779	7779	7779	7779	7779	7779	0	0	0	0	0	0	0	0	7608	7608	7608	7608	7608	7608	7608	7608	7608	7608	7608	7608	7608	7608	7608	7608	7608	7608	7608	7608	7608	7608	7608	7608	0	0	0	0	0	7608	7608	7608	7608	0	0	0	0	0	0	0	0	0	0	7608	7608	7608	7608	7608	7608	7608	7608	7608	7608	7608	7608	7608	7608	7608	7608	7608	7608	0	0	0	0	0	0	0	0	3510	3510	3475	3440	3475	3475	3475	3475	3475	3475	3475	3475	3475	3475	3475	3440	3440	3440	3440	3440	3440	3406	3406	3406	3406	3406	3406	3440	3440	3440	3440	3440	3440	3440	3475	3475	3475	3475	3475	3510	3510	3510	3510	7959	7959	7959	7959	3475	3510	3510	7779	7608	7608	7608	7608	7608	7779	7779	7608	7608	7608	7608	7608	7608	7608	7779	7608	7608	7608	7444	7287	7287	7287	7287	7779	7608	7608	7608	7779	7779	7779	7779	7779	7779	7779	7779	7608	7444	7444	7444	7444	7608	7608	7444	7608	7608	7608	7779	7779	7779	7959	7959	7959	7959	7959	7959	7779	7779	7779	7779	7779	7779	7608	7779	7779	7779	7608	7608	7608	7444	7444	7444	7444	7444	7287	7444	7444	7444	7444	7444	7444	7608	7444	7444	7444	7444	7444	7444	7444	7444	7444	7444	7444	7444	7444	7444	7287	7287	7137	7137	7287	7287	7287	7287	7287	7287	7444	7444	7444	7287	7444	7287	7287	0	0	0	0	0	7287	7287	7287	7287	7287	7287	7287	7444	7444	7287	7608	7608	7608	7779	7608	7608	7608	7444	7444	7444	7444	7444	7444	7444	7608	7608	7608	7444	7444	7444	7444	7608	7608	0	0	0	0	0	0	0	7287	7444	7444	7444	7444	7287	7287	7444	7444	7444	7444	0	7608	7608	7608	7608	7608	7608	7608	7608	7608	7608	7779	7779	7779	7779	7779	7959	7959	7779	7959	7959	7959	7959	7779	7779	7779	7779	7444	7444	7287	7287	7444	7444	7608	7779	7959	8146	8146	8146	8146	7959	7779	7779	7779	7779	7779	7779	7779	7779	7779	7779	0	0	0	0	0	0	0	0	0	0	0	0	0	0	0	0	0	0	0	2609	2589	2589	2589	2589	2570	2570	2570	2551	2551	2532	2532	2514	2496	2478	2478	2478	2460	2443	2426	2409	2426	2409	2409	2409	2392	2376	2376	2359	2359	2359	2343	2343	2343	2343	0	0	0	0	0	0	0	0	0	0	0	0	0	0	0	0	0	0	0	0	0	0	0	0	0	0	0	0	0	0	0	0	0	0	0	0	0
0	0	0	0	0	940	940	942	945	948	948	948	950	955	961	966	969	972	974	977	977	980	985	988	994	1000	1000	1006	1006	1008	1011	1011	0	1055	1055	1052	1052	1052	1052	1052	1055	1055	1058	1061	1061	1061	1061	1061	1061	0	0	0	1492	1499	1499	1499	1499	1499	1499	1499	1506	1506	0	0	0	0	0	0	0	0	0	0	0	0	0	0	0	0	0	1492	1486	1486	1492	1492	1486	1492	1486	1492	1492	1492	1492	1492	1492	1499	1499	1506	1499	1506	1506	1499	1499	1492	1492	1486	1492	1486	1492	1499	1499	1499	1499	1499	1499	1499	1499	1499	1492	1499	1506	1512	1512	1519	1525	1525	1532	1532	1539	1539	1539	0	0	0	0	0	7444	7444	7444	7608	7608	7608	7779	7779	7779	7959	8146	8146	8146	7779	7779	7608	7608	7608	7779	7779	7779	7779	7779	7779	7779	7779	7608	7608	7608	7608	7608	7779	7779	7779	7779	7779	7779	7779	7779	7959	7959	7959	7959	7959	7959	7959	7779	7779	7779	7608	7608	7608	0	0	7287	7287	7608	7608	7608	7779	7779	7608	7779	7779	7779	7779	7779	7779	0	0	0	0	0	0	0	0	7608	7608	7608	7779	7779	0	0	0	0	0	7608	7779	7779	7779	7608	7608	7608	7608	7608	7608	7608	7608	7608	7444	7608	7608	0	0	0	0	0	0	0	0	0	0	0	0	0	0	0	0	0	7608	7608	7608	7608	7608	7608	7608	7608	7779	7779	7779	7779	7779	7779	7608	7608	7608	7608	0	0	0	0	0	3475	3440	3475	3475	3475	3475	3475	3475	3475	3475	3440	3440	3440	3440	3440	3475	3475	3475	3475	3440	3440	3440	3440	3440	3406	3406	3406	3406	3406	3406	3406	3406	3440	3440	3440	3440	3406	3475	3475	3475	3475	3475	3475	3475	3510	3475	3475	3475	3475	3475	3475	3510	3510	7779	7608	7608	7608	7608	7608	7779	7779	7779	7608	7608	7608	7608	7608	7608	7608	7608	7608	7444	7444	7287	7287	7287	7608	7779	7779	7779	7779	7779	7779	7779	7779	7779	7779	7779	7779	7779	7779	7608	7608	7608	7608	7608	7608	7779	7779	7779	7779	7779	7779	7959	7959	7959	7959	7959	7959	7959	7779	7779	7779	7779	7779	7608	7779	7779	7779	7779	7779	7779	7779	7608	7608	7608	7444	7444	7608	7444	7444	7444	7444	7444	7444	7608	7608	7608	7608	7608	7608	7444	7444	7444	7444	7444	7444	7444	7287	7287	7137	7137	7137	7137	7287	7287	7287	7444	7444	7444	7444	7444	7287	7137	7137	7137	0	0	0	0	0	7287	7287	7287	7287	7287	7287	7444	7608	7608	7444	7608	7608	7608	7779	7779	7608	7608	7444	7444	7444	7444	7444	7608	7608	7608	7608	7779	7608	7608	7608	7608	7608	7608	0	0	0	0	0	0	0	0	7444	7444	7444	7444	7444	7608	7608	7608	7608	7779	7779	7608	7608	7608	7608	7608	7608	7608	7608	7779	7779	7779	7779	7779	7959	7959	7959	7959	7959	7959	7959	7959	7959	7779	7779	7779	7779	7444	7444	7444	7287	7444	7444	7608	7779	7959	8146	8146	8146	8146	7959	7779	7779	7779	7779	7779	7779	7779	7779	7959	7959	7959	0	0	0	0	0	0	0	0	0	0	0	0	0	0	0	0	0	0	2609	2609	2589	2589	2589	2570	2570	2570	2551	2551	2532	2532	2514	2496	2496	2478	2478	2478	2460	2443	2426	2426	2426	2426	2409	2409	2392	2376	2359	2359	2343	2343	2343	2343	2343	0	0	0	0	0	0	0	0	0	0	0	0	0	0	0	0	0	0	0	0	0	0	0	0	0	0	0	0	0	0	0	0	0	0	0	0	0
0	0	0	0	0	940	940	942	945	948	948	948	950	955	961	966	969	974	974	977	977	980	985	988	991	997	1000	1003	1006	1006	1014	1014	1020	1020	1020	1052	1052	1055	1052	1052	1055	1058	1058	1061	1061	1061	1061	1064	1064	0	0	0	1492	1499	1499	1506	1506	1506	1506	1506	1506	1512	1512	1512	0	0	0	0	0	0	0	0	0	0	0	0	0	0	0	1492	1492	1492	1499	1499	1492	1492	1492	1499	1499	1506	1499	1499	1499	1506	1506	1506	1506	1512	1512	1512	1512	1506	1506	1506	1499	1499	1499	1506	1506	1506	1506	1506	1506	1506	1506	1499	1499	1506	1512	1519	1519	1519	1525	1525	1532	1532	1539	1546	1546	1560	1560	0	0	0	0	7444	7444	7608	7608	7779	7779	7959	7959	7959	7959	7959	7959	8146	7779	7779	7779	7779	7779	7959	7779	7779	7779	7959	7959	7779	7779	7779	7779	7779	7608	7779	7779	7779	7959	7779	7779	7959	7959	7959	7959	7959	7959	7959	7959	7959	7779	7959	7779	7779	7779	7608	0	0	0	0	0	7608	7608	7779	7779	7779	7779	7779	7779	7779	7779	7779	0	0	0	0	0	7608	7608	7779	7608	7608	7608	7779	7779	0	0	0	0	0	0	7779	7779	7779	7608	7608	7608	7608	7608	7608	7608	7608	7608	7608	7608	7444	7444	0	0	0	0	0	0	0	0	0	0	0	0	0	0	0	7608	7608	7608	7608	7608	7608	7608	7608	7608	7779	7779	7779	7779	7779	7779	7608	7608	7608	7608	0	0	0	3475	3475	3440	3440	3440	3475	3475	3475	3475	3475	3475	3440	3440	3440	3440	3440	3440	3440	3475	3475	3475	3440	3440	3440	3440	3440	3406	3406	3406	3406	3406	3406	3406	3406	3406	3406	3440	3440	3440	3475	3475	3475	3475	3475	3475	3475	3475	3475	3475	3475	3475	3475	3510	3510	3546	3510	3510	0	7608	7608	7779	7779	7779	7779	7608	7608	7608	7608	7608	7608	7608	7608	7608	7608	7444	7444	7287	7287	7608	7608	7779	7779	7779	7779	7959	7779	7779	7779	7779	7959	7959	7959	7779	7779	7779	7779	7779	7779	7779	7779	7779	7779	7779	7779	7959	7959	7959	7959	7959	7959	7959	7959	7779	7779	7779	7608	7608	7608	7608	7779	7779	7779	7779	7779	7779	7779	7779	7779	7608	7608	7608	7608	7444	7444	7444	7608	7608	7608	7608	7608	7608	7608	7444	7444	7444	7444	7287	7444	7444	7444	7444	7287	7287	7287	7287	7287	7287	7287	7287	7444	7444	7444	7444	7444	7444	7444	7287	7287	0	0	0	0	0	0	7287	7287	7444	7444	7608	7608	7608	7608	7608	7779	7779	7779	7779	7779	7779	7779	7444	7444	7444	7444	7444	7608	7444	7608	7779	7779	7779	7608	7608	7608	7608	7608	7608	0	0	0	0	0	0	0	7779	7608	7779	7779	7779	7779	7779	7779	7779	7779	7779	7779	7779	7779	7779	7779	7608	7779	7779	7779	7779	7779	7779	7959	7959	7779	7959	7959	7779	7779	7959	7959	7959	7779	7779	0	0	0	0	7444	7444	7608	7608	7608	7959	7959	8146	8146	8343	8146	7959	7959	7779	7959	7959	7959	7959	7959	7959	7959	7959	7959	0	0	0	0	0	0	0	0	0	0	0	0	0	0	0	0	0	0	2609	2589	2589	2570	2570	2570	2570	2570	2551	2551	2532	2532	2514	2496	2478	2478	2478	2478	2460	2443	2426	2426	2426	2426	2409	2392	2392	2376	2359	2359	2343	2343	2343	2343	2343	0	0	0	0	0	0	0	0	0	0	0	0	0	0	0	0	0	0	0	0	0	0	0	0	0	0	0	0	0	0	0	0	0	0	0	0	0
0	0	0	0	0	942	942	945	948	948	948	950	950	955	961	966	969	974	977	977	980	980	988	988	988	994	997	1000	1003	1011	1020	1020	1020	1020	1036	1048	1048	1052	1052	1052	1052	1055	1058	1058	1061	1061	1064	1064	1064	0	0	0	1499	1499	1506	1506	1512	1512	1512	1512	1512	1519	1512	1519	1525	1525	0	0	0	0	0	0	0	0	0	0	0	0	0	1499	1499	1499	1499	1499	1492	1499	1499	1499	1506	1506	1506	1506	1506	1506	1512	1519	1519	1519	1519	1519	1519	1519	1519	1519	1512	1512	1512	1512	1519	1512	1512	1512	1512	1512	1512	1506	1512	1512	1519	1519	1519	1519	1525	1525	1525	1532	1539	1546	1553	1567	1574	1574	0	0	0	0	0	7608	7608	7779	7779	7959	7959	8146	8146	8146	8146	8146	8146	7959	7779	7959	7959	8146	7959	7959	7959	7959	7959	7779	7779	7779	7779	7779	7608	7779	7779	7959	7959	7959	7959	7959	7959	7959	7959	7959	7959	7959	7959	7959	7959	7959	7779	7779	7779	0	0	0	0	0	0	0	7779	7779	7779	7779	7779	7779	7779	7779	7779	7779	0	0	0	0	0	7779	7779	7779	7608	7608	7608	7779	7779	7779	0	0	0	0	0	0	7779	7779	7779	7779	7608	7608	7608	7608	7608	7608	7444	7444	7444	7444	7608	7608	0	0	0	0	0	0	0	0	0	0	0	7608	7608	7608	7608	7608	7608	7608	7608	7608	7608	7608	7608	7779	7779	7779	7779	7779	7779	7608	7608	7608	0	0	0	3440	3440	3440	3440	3440	3440	3440	3475	3475	3475	3475	3440	3440	3440	3440	3440	3440	3440	3440	3440	3475	3440	3440	3440	3440	3440	3406	3406	3406	3406	3406	3406	3406	3406	3406	3406	3440	3440	3406	3440	3406	3475	3475	3475	3475	3475	3475	3475	3475	3475	3475	3475	3475	3510	3510	3546	3510	3510	3510	3510	0	7779	7779	7779	7779	7608	7608	7608	7608	7608	7608	7608	7608	7608	7608	7608	7444	7444	7444	7779	7608	7779	7779	7779	7959	7959	7959	7959	7959	7959	7959	7959	7959	7959	7959	7959	7959	7959	7779	7959	7959	7959	7779	7779	7959	7959	7959	7959	7959	7959	7959	7959	7959	7779	7779	7779	7779	7779	7608	7779	7779	7779	7779	7779	7779	7779	7959	7779	7779	7608	7608	7779	7779	7608	7608	7608	7608	7779	7779	7608	7779	7779	7608	7608	7608	7444	7444	7444	7444	7444	7444	7444	7287	7287	7287	7287	7287	7287	7444	7444	7608	7608	7608	7608	7608	7444	7444	7444	7444	0	0	0	0	0	0	7608	7608	7608	7608	7608	7608	7608	7608	7608	7779	7608	7608	7779	7779	7779	7779	7444	7444	0	7444	7444	7444	7444	7608	7779	7779	7608	7608	7608	7608	7608	7608	7608	7608	7608	7608	7608	7779	7779	8146	7959	7959	7959	7779	7779	7779	7779	7779	7779	7959	7779	7779	7959	7779	7779	7779	7779	7779	7779	7959	7959	7779	7959	7959	7959	7959	7959	7959	7959	7779	7959	7959	7959	0	0	0	0	0	0	0	7444	7608	7779	7959	7959	7959	8146	8343	8343	8146	7959	7959	7779	7959	7959	7959	7959	7959	7959	8146	7959	7959	0	0	0	0	0	0	0	0	0	0	0	0	0	0	0	0	0	0	2609	2589	2589	2570	2570	2570	2570	2570	2551	2551	2532	2532	2514	2496	2478	2478	2478	2478	2460	2443	2426	2426	2426	2426	2409	2392	2392	2376	2359	2343	2343	2343	2327	2327	2327	0	0	0	0	0	0	0	0	0	0	0	0	0	0	0	0	0	0	0	0	0	0	0	0	0	0	0	0	0	0	0	0	0	0	0	0	0
0	0	0	0	0	942	942	945	948	948	948	950	953	955	963	966	969	974	977	977	980	983	985	985	988	991	994	1000	1003	1020	1023	1023	1023	1026	1036	1042	1045	1052	1052	1052	1052	1055	1058	1058	1061	1064	1068	1068	1071	0	0	0	1539	1532	1532	1532	1532	1525	1525	1525	1525	1525	1525	1525	1525	1525	1525	0	0	0	0	0	0	0	0	0	0	0	1506	1506	1506	1506	1506	1506	1506	1512	1525	1519	1519	1519	1512	1512	1512	1512	1512	1525	1525	1525	1525	1525	1525	1525	1525	1525	1525	1525	1519	1525	1525	1525	1519	1512	1512	1519	1512	1512	1512	1519	1525	1525	1525	1525	1525	1525	1532	1532	1546	1546	1553	1567	1567	1567	1567	0	0	0	0	0	7608	7779	7779	7959	7959	8146	8146	8146	8146	8146	8146	7959	7959	7959	7959	8146	7959	7959	7959	7959	7959	7779	7779	7779	7779	7779	7779	7779	7779	7779	7779	8146	7959	7959	7959	7959	7959	7959	7959	7959	7959	7959	7959	7959	7779	7779	7779	0	0	0	0	0	0	7779	7779	7779	7779	7608	7779	7779	7779	7779	7779	7779	0	0	0	0	0	7779	7779	7779	7608	7608	7779	7779	7779	7779	0	0	0	0	0	0	7779	7779	7779	7779	7608	7608	7608	7608	7608	7608	7608	7444	7608	7608	7608	7779	7779	7779	0	0	0	0	0	0	7608	7608	7608	7608	7608	7608	7779	7779	7608	7608	7608	7608	7608	7608	7608	7779	7779	7779	7608	7608	7608	7608	7608	7608	0	0	0	3440	3440	3440	3440	3440	3440	3440	3475	3475	3475	3440	3440	3440	3440	3440	3440	3440	3440	3440	3440	3440	3440	3440	3440	3440	3440	3406	3406	3406	3406	3406	3406	3406	3406	3406	3406	3440	3440	3440	3440	3406	3475	3475	3475	3475	3475	3475	3475	3475	3475	3475	3475	3510	3510	3510	3546	3510	3510	3510	3510	3510	0	0	0	0	0	0	0	0	0	0	0	7608	7779	7608	7608	7779	7608	7779	7779	7779	7779	7959	7959	7959	7959	7959	7959	7959	7959	7959	7959	7959	7959	7959	7959	7959	7959	7959	7959	7959	7959	7959	7959	7959	7959	7959	7959	7959	7959	7959	7959	7959	7779	7779	7779	7779	7779	7608	7779	7779	7779	7779	7779	7779	7779	7959	7779	7779	7779	7959	7959	7779	7779	7779	7779	7779	7779	7779	7779	7779	7779	7779	7779	7779	7608	7608	7608	7779	7608	7608	7608	7444	7444	7444	7287	7287	7444	7608	7608	7608	7608	7608	7608	7608	7608	7608	7444	7444	0	0	0	0	0	0	7779	7608	7608	7608	7608	7608	7608	7608	7608	7608	7608	7608	7779	7779	7779	7779	7779	7779	0	0	7608	7608	7608	7608	7608	7779	7608	7608	7608	7608	7779	7608	7608	7608	7779	7779	7779	7959	7959	8146	8146	8146	7959	7959	7779	7779	7779	7779	7779	7959	7959	7959	7959	7959	7959	7959	7959	7779	7779	7959	7959	0	7959	7959	7959	7779	7959	7959	7959	7959	7959	7959	0	0	0	0	0	0	0	0	0	7959	7959	7959	8146	7959	8146	8146	8343	0	0	0	0	7959	7959	7959	7959	7959	7959	8146	7959	7959	0	0	0	0	0	0	0	0	0	0	0	0	0	0	0	0	0	0	2589	2589	2570	2570	2570	2570	2570	2551	2551	2532	2532	2532	2514	2496	2478	2478	2478	2460	2460	2443	2426	2426	2426	2426	2409	2392	2376	2376	2343	2343	2327	2327	2327	2327	2327	0	0	0	0	0	0	0	0	0	0	0	0	0	0	0	0	0	0	0	0	0	0	0	0	0	0	0	0	0	0	0	0	0	0	0	0	0
0	0	0	0	0	0	942	945	950	950	950	950	953	955	963	966	969	974	977	977	980	983	988	988	988	991	997	1000	1011	1020	1020	1023	1023	1030	1036	1045	1048	1048	1052	1052	1055	1055	1058	1058	1061	1061	1064	1068	1068	0	0	0	1553	1553	1546	1546	1539	1539	1532	1532	1532	1532	1532	1525	1525	1525	1546	1546	0	0	0	0	0	0	0	0	0	0	1506	1506	1506	1512	1512	1512	1519	1525	1532	1532	1532	1525	1519	1525	1519	1519	1519	1525	1532	1532	1532	1532	1532	1532	1532	1532	1525	1525	1525	1532	1532	1532	1525	1525	1525	1532	1525	1532	1525	1532	1532	1532	1532	1532	1532	1532	1532	1539	1546	1553	1553	1560	1560	1560	1560	1581	1581	0	0	0	0	7779	7779	8146	8146	8146	8146	8146	8146	8146	8146	7959	7959	7959	7959	8146	8146	8146	8146	7959	7959	7959	7779	7779	7779	7959	7959	7959	7959	8146	8146	8146	7959	7959	7959	7959	7959	7959	7959	7959	7959	7959	7959	7959	7959	7959	7779	0	0	0	0	0	0	7959	7959	7779	7779	7779	7779	7779	7779	7779	7779	7779	0	0	0	0	0	7779	7779	7779	7608	7779	7779	7779	7779	7779	0	0	0	0	0	0	7959	7959	7779	7779	7608	7608	7608	7608	7608	7608	7608	7608	7608	7608	7608	7779	7779	7779	0	0	0	0	7779	7779	7608	7608	7608	7608	7608	7608	7779	7779	7779	7608	7779	7608	7608	7779	7779	7779	7779	7608	7608	7608	7608	7444	7444	7608	0	0	3475	3440	3440	3440	3440	3440	3440	3440	3440	3440	3440	3440	3440	3440	3440	3440	3440	3440	3440	3440	3440	3440	3440	3440	3440	3440	3440	3440	3406	3406	3406	3406	3406	3406	3406	3406	3406	3440	3440	3440	3440	3406	3475	3475	3475	3475	3475	3475	3475	3475	3475	3510	3510	3510	3510	3510	3546	3510	3510	3510	3510	3510	3510	0	0	0	0	0	0	0	0	0	0	7779	7779	7779	7779	7779	7779	7779	7959	7959	7959	7959	7959	7959	7959	7959	7959	7959	7959	7959	7959	7959	7959	7959	8146	8146	8146	7959	7959	7959	7959	7959	7959	7959	7959	7959	7959	7959	7959	7959	7779	7779	7779	7779	7608	7608	7608	7608	7608	7779	7779	7779	7779	7779	7779	7959	7959	7959	7959	8146	7959	7959	7779	7779	7779	7779	7779	7779	7779	7779	7779	7779	7779	7608	7608	7608	7608	7779	7779	7779	7608	7608	7444	7444	7287	7287	7444	7608	7608	7779	7608	7608	7779	7779	7608	7608	7444	7444	0	0	0	0	0	0	7779	7608	7608	7608	7608	7608	7608	7608	7608	7608	7779	7608	7608	7779	7779	7779	7779	7779	0	7608	7608	7608	7608	7608	7779	7779	7779	7779	7779	7608	7779	7608	7608	7608	7608	7779	7959	7959	7959	8146	8146	8146	7959	7959	7959	7959	7779	7959	7959	7959	7959	7959	7959	7959	7959	7959	7959	0	0	0	0	0	0	7959	7959	7779	7959	7959	7959	7959	7959	7959	0	0	0	0	0	0	0	0	0	8146	8146	8146	8146	8146	8146	8146	0	0	0	0	0	0	7959	7959	7959	7959	7959	8146	7959	7779	7779	7779	7779	7959	7959	7959	7959	7959	0	0	0	0	0	0	0	0	0	0	2589	2589	2570	2551	2551	2551	2551	2551	2532	2532	2514	2514	2496	2496	2478	2478	2478	2460	2460	2443	2426	2426	2426	2426	2409	2409	2392	2376	2359	2343	2343	2327	2327	2327	2327	0	0	0	0	0	0	0	0	0	0	0	0	0	0	0	0	0	0	0	0	0	0	0	0	0	0	0	0	0	0	0	0	0	0	0	0	0
0	0	0	0	0	0	942	945	948	948	948	950	953	955	961	966	966	972	974	974	983	985	985	988	988	991	997	1000	1008	1014	1023	1023	1023	1026	1033	1042	1045	1055	1055	1055	1055	1058	1058	1061	1061	1061	1064	1068	1068	0	0	1553	1546	1553	1560	1560	1553	1553	1546	1546	1553	1546	1539	1539	1539	1546	1553	1546	1553	1553	0	0	0	0	0	0	0	0	1506	1506	1512	1512	1525	1519	1525	1532	1539	1546	1539	1532	1532	1532	1532	1532	1532	1539	1539	1539	1539	1539	1539	1539	1539	1539	1539	1539	1539	1539	1539	1546	1539	1539	1546	1539	1539	1546	1539	1539	1532	1532	1532	1532	1532	1532	1532	1539	1546	1553	1553	1560	1560	1560	1581	1581	1581	0	0	0	0	0	0	8146	8146	8146	8146	8146	7959	8146	8146	7959	8146	7959	7959	8146	8146	8146	8146	7959	7959	7959	7959	7959	7959	7959	8146	8146	8146	8146	8343	8343	8343	8343	8343	8343	8146	8146	7959	7959	8146	8146	7959	8146	7959	7959	0	0	0	0	0	0	0	7959	7959	7779	7779	7779	7779	7779	7779	7779	7779	0	0	0	0	0	0	0	7779	7779	7779	7779	7779	7779	7779	0	0	0	0	0	0	0	7959	7959	7959	7779	7779	7779	7608	7608	7608	7608	7779	7779	7779	7959	7959	7779	7779	7779	7779	7779	7779	7779	7779	7608	7608	7608	7608	7608	7779	7779	7779	7779	7779	7779	7779	7608	7608	7779	7779	7779	7779	7608	7608	7608	7444	7444	7444	0	0	3440	3440	3440	3440	3440	3440	3440	3440	3440	3440	3440	3440	3440	3440	3440	3440	3440	3406	3406	3406	3406	3406	3440	3440	3440	3440	3440	3440	3406	3406	3406	3406	3406	3406	3406	3406	3406	3406	3406	3406	3406	3406	3406	3440	3440	3440	3440	3475	3475	3475	3475	3475	3475	3475	3510	3510	3510	3510	3510	3510	3510	3510	3510	3510	3510	0	0	0	0	0	0	0	0	7779	7779	7779	7959	7959	7959	7959	7959	7959	7959	7959	7959	7959	7959	7959	7959	7959	7959	7959	7959	7959	7959	7959	8146	8146	8343	8146	8146	8146	8146	7959	7959	7959	7959	7959	7959	7959	7959	7959	7959	7959	7959	7779	7779	7608	7608	7608	7608	7608	7779	7779	7779	7779	7779	7959	7959	7959	7959	7959	8146	8146	7959	7959	7779	7779	7779	7779	7779	7779	7779	7779	7779	7779	7779	7779	7779	7608	7779	7779	7779	7608	7444	7444	7608	7444	7444	7444	7779	7779	7779	7779	7779	7779	7608	7779	7779	7608	7608	7608	0	0	0	0	7779	7779	7779	7608	7779	7779	7608	7608	7779	7608	7608	7608	7608	7779	7779	7779	7779	7779	7779	7779	7779	7779	7779	7779	7779	7779	7779	7779	7779	7779	0	7779	7608	7608	7608	7779	7779	7959	7959	7959	8146	8146	8146	7959	7959	7959	7959	7959	7959	7959	7959	7959	7959	7959	7959	7959	7959	7959	0	0	0	0	0	0	0	0	0	0	7959	7959	7959	7959	7959	0	0	0	0	0	0	0	8146	8146	8146	8146	8146	8146	8146	8146	0	0	0	0	0	0	0	0	0	7959	7959	7959	7779	7959	7959	7959	7959	7959	7959	7959	7959	7959	7959	0	0	0	0	0	0	0	0	0	0	2589	2589	2570	2551	2551	2551	2551	2551	2532	2514	2514	2514	2496	2496	2496	2478	2478	2478	2460	2443	2443	2426	2426	2426	2426	2409	2392	2392	2359	2359	2343	2327	2327	2327	2327	0	0	0	0	0	0	0	0	0	0	0	0	0	0	0	0	0	0	0	0	0	0	0	0	0	0	0	0	0	0	0	0	0	0	0	0	0
0	0	0	0	0	942	942	945	945	948	950	953	955	958	963	963	966	972	977	980	983	985	988	988	988	991	997	1000	1006	1008	1020	1026	1026	1030	1036	1042	1045	1052	1055	1055	1055	1058	1058	1058	1061	1061	1064	1071	1071	0	0	1553	1553	1560	1567	1567	1567	1560	1560	1560	1560	1553	1546	1546	1546	1553	1553	1553	1560	1560	0	0	0	0	0	0	0	0	0	1506	1512	1525	1532	1532	1539	1546	1546	1546	1546	1546	1546	1546	1546	1546	1539	1546	1546	1553	1553	1553	1546	1553	1546	1546	1546	1546	1546	1546	1553	1553	1553	1553	1553	1553	1546	1553	1546	1546	1539	1532	1532	1532	1532	1532	1532	1539	1546	1553	1560	1567	1574	1581	1581	1581	0	0	0	0	0	0	0	0	7959	7959	7959	8146	7959	7959	7959	8146	8343	8146	8146	8343	8343	8343	8343	8146	8146	8146	8146	8146	8146	8146	8146	8146	8146	8343	8343	8343	8343	8343	8343	8343	8146	8146	7959	7959	7959	8146	8146	8146	8146	8146	0	0	0	0	0	0	7959	7779	7779	7779	7608	7608	7779	7779	7779	7779	7779	0	0	0	0	0	0	7959	7779	7779	7779	7779	7959	7959	8146	8146	0	0	0	0	0	0	8146	7959	7959	8146	7779	7779	7779	7779	7779	7779	7779	7959	7959	8146	8146	7959	7959	7959	7959	7779	7779	7779	7779	7608	7608	7444	7444	7608	7779	7779	7779	7779	7779	7779	7779	7608	7608	7608	7779	7779	7779	7608	7608	7444	7444	7444	0	0	3475	3440	3440	3440	3440	3440	3440	3440	3440	3440	3440	3440	3440	3440	3440	3440	3406	3406	3406	3406	3406	3406	3406	3406	3440	3440	3440	3440	3440	3406	3406	3406	3406	3406	3406	3406	3406	3406	3406	3406	3406	3406	3406	3406	3440	3440	3440	3440	3440	3475	3475	3475	3475	3475	3475	3475	3510	3510	3510	3510	3510	3510	3510	3510	3510	3510	3510	0	0	0	0	0	0	0	8146	8146	8146	8146	8146	7959	7959	7959	7959	7959	7959	7959	7959	7959	7959	7959	7959	7959	7959	7959	7959	7959	8146	8343	8343	8343	8343	8146	8146	8146	8146	8146	8146	8146	8146	7959	7959	7959	7959	7959	7779	7779	7779	7779	7608	7608	7608	0	0	0	7779	7779	0	7779	7959	7959	7959	7959	7959	8146	8146	7959	7959	7959	7959	7959	7959	7959	7959	7779	7959	7959	7779	7779	7779	7779	7779	7779	7779	7779	7779	7608	7444	7444	7608	7608	7608	7779	7779	7779	7779	7779	7779	7779	7779	7779	7608	7608	7608	0	7779	7779	7779	7779	7779	7779	7779	7779	7779	7779	7779	7779	7779	7779	7779	7779	7779	7779	7779	7959	7959	7959	7779	7779	7779	7779	7779	7779	7779	7779	7779	7779	7779	0	0	0	7608	7608	7608	7779	7959	7959	7959	8146	8146	8146	8146	7959	7959	7959	7959	7959	7959	7959	7959	7959	7959	7959	7959	7959	0	0	0	0	0	0	0	0	0	0	0	7959	7959	7959	7959	0	0	0	0	0	0	0	8146	8146	8343	8146	8146	8146	8146	8146	8146	0	0	0	0	0	0	0	0	0	0	0	0	7779	7959	7959	7959	8146	7959	7959	7959	7959	7959	7959	0	0	0	0	0	0	0	0	0	2551	2570	2589	2570	2570	2551	2551	2551	2532	2532	2514	2514	2496	2496	2496	2478	2478	2478	2460	2460	2443	2443	2443	2426	2426	2426	2409	2409	2409	2359	2343	2327	2327	2327	2327	2327	0	0	0	0	0	0	0	0	0	0	0	0	0	0	0	0	0	0	0	0	0	0	0	0	0	0	0	0	0	0	0	0	0	0	0	0	0
0	0	0	0	0	942	942	942	945	948	948	953	955	958	961	966	966	972	977	983	985	988	988	991	991	994	997	1000	1006	1008	1020	1030	1030	1033	1036	1042	1045	1052	1055	1055	1058	1058	1058	1058	1061	1064	1068	1071	1074	1074	0	1553	1553	1560	1567	1574	1567	1567	1560	1574	1567	1567	1560	1560	1553	1560	1560	1553	1560	1567	1574	1574	0	0	0	0	0	0	0	0	0	1525	1532	1532	1546	1553	1553	1553	1553	1553	1553	1553	1553	1553	1546	1553	1553	1560	1553	1553	1560	1560	1560	1553	1553	1553	1553	1553	1560	1560	1553	1560	1560	1553	1553	1553	1553	1553	1546	1546	1539	1539	1539	1539	1539	1539	1553	1560	1560	1567	1581	1581	1581	1581	0	0	0	0	0	0	0	0	7959	7959	7959	7959	7959	8146	8146	8146	8343	8146	8146	8343	8343	8343	8146	8146	8146	8146	8146	8146	8146	8343	8146	8343	8343	8343	8343	8343	8343	8343	8343	8343	8343	8343	8343	8146	8146	8146	8146	8343	8343	8343	0	0	0	0	0	8146	7959	7959	7779	7779	7608	7608	7779	7779	7959	7959	8146	8146	8146	7959	7959	7959	7959	7959	7959	7959	7959	7959	8146	7959	8146	8146	7959	8146	8146	8146	8146	8146	8343	8343	8343	8343	8146	7959	7959	7959	7959	7959	7959	7959	8146	8146	8146	7779	7779	7779	7959	7779	7779	7779	7779	7608	7608	7779	7779	7608	7779	7779	7779	7779	7779	7779	7779	7608	7608	7608	7779	7779	7608	7608	7608	7608	7608	0	0	3546	3440	3440	3440	3440	3440	3440	3440	3440	3440	3440	3440	3440	3440	3440	3440	3406	3406	3406	3406	3406	3406	3406	3406	3406	3406	3406	3406	3406	3440	3406	3406	3406	3406	3406	3406	3406	3406	3406	3406	3406	3406	3406	3406	3406	3440	3440	3440	3440	3440	3475	3475	3475	3475	3475	3475	3475	3475	3475	3475	3510	3475	3510	3510	3510	3475	3475	3475	3475	0	0	0	0	0	0	8343	8343	8343	8343	8146	8146	8146	8146	7959	7959	7959	7959	7959	7959	7959	7959	7959	7959	7959	7959	8146	8146	8146	8146	8343	8343	8343	8343	8343	8343	8343	8343	8146	8146	8146	7959	7959	7959	7959	7779	7779	7779	7779	7779	0	0	0	0	0	0	0	0	0	7779	7959	7959	8146	8146	7959	7959	7959	7959	8146	7959	7959	7959	7959	7959	7959	7959	7959	7959	7959	7959	7959	7959	7959	7959	7959	7959	7959	7779	7608	7608	7608	7779	7779	7779	7779	7959	7959	7959	7779	7779	7779	7779	7779	7779	7779	7779	7779	7779	7779	7779	7779	7779	7779	7779	7779	7779	7779	7779	7779	7779	7779	7779	7779	7959	7959	7959	7959	7959	7779	7779	7959	7959	7959	7959	7779	7779	7779	7779	7779	0	0	0	0	0	7779	7959	7959	7959	8146	8146	8146	8146	8146	8146	8146	8146	7959	8146	8146	8146	8146	8146	8146	8146	8146	8146	0	0	0	0	0	0	0	0	0	0	0	8146	7959	8146	8146	0	0	0	0	0	0	0	8146	8343	8343	8343	8146	8146	8146	8146	8146	0	0	0	0	0	0	0	0	0	0	0	0	0	7959	7959	8146	8146	7959	8146	7959	7959	7959	7959	0	0	0	0	0	0	0	0	0	2551	2570	2589	2570	2570	2551	2551	2551	2532	2532	2514	2514	2496	2496	2496	2478	2478	2478	2460	2460	2443	2443	2426	2426	2426	2426	2409	2409	2392	2376	2359	2343	2327	2327	2327	2327	0	0	0	0	0	0	0	0	0	0	0	0	0	0	0	0	0	0	0	0	0	0	0	0	0	0	0	0	0	0	0	0	0	0	0	0	0
0	0	0	0	0	940	940	942	945	945	948	950	955	958	961	963	966	972	977	983	985	988	991	991	991	994	997	1003	1006	1008	1017	1023	1030	1033	1036	1039	1045	1052	1055	1055	1058	1058	1058	1058	1061	1061	1064	1068	1071	1071	0	0	1553	1560	1567	1574	1574	1567	1574	1589	1581	1581	1574	1574	1581	1581	1574	1567	1574	1574	1581	1581	1581	1574	1574	0	0	0	0	0	0	0	0	0	1553	1553	1560	1560	1560	1553	1560	1560	1560	1560	1553	1560	1560	1567	1567	1567	1560	1567	1567	1560	1560	1560	1560	1560	1567	1560	1560	1567	1567	1567	1560	1560	1560	1560	1560	1553	1553	1546	1553	1546	1546	1553	1560	1567	1574	1581	1589	1596	1603	1603	1626	1626	1626	0	0	0	0	0	0	0	8146	8146	7959	8146	8146	8146	8146	8146	8146	8343	8343	8343	8343	8146	8146	8146	8343	8343	8146	8343	8343	8343	8343	8343	8343	8343	8550	8550	8550	8550	8550	8550	8550	8343	8146	8343	8343	8343	8343	8343	8343	0	0	0	0	7959	7959	7779	7779	7608	7608	7779	7779	7959	8146	8146	8343	8343	8343	8146	7959	7959	7959	8146	7959	7959	7959	7959	7959	7959	7959	7959	7959	8146	8146	8146	8146	8343	8343	8343	8343	8343	8146	8146	7959	7959	7959	7959	7959	8146	8146	8146	8146	8146	7959	7959	7959	7779	7779	7779	7779	7779	7779	7959	7959	7959	7959	7779	7779	7779	7779	7779	7779	7608	7608	7608	7779	7779	7779	7608	7608	7608	7608	0	0	3546	3440	3440	3440	3440	3440	3440	3440	3440	3440	3440	3440	3440	3440	3440	3440	3406	3406	3406	3406	3406	3406	3406	3406	3406	3406	3406	3406	3406	3406	3406	3406	3406	3406	3406	3406	3373	3406	3406	3406	3406	3406	3406	3406	3406	3440	3440	3440	3440	3440	3440	3440	3475	3475	3475	3475	3475	3475	3475	3475	3475	3475	3475	3475	3510	3475	3475	3475	3475	3475	0	8343	8343	8146	8343	8146	8343	8343	8146	8146	7959	7959	7959	7959	7959	7959	7959	7959	7959	7959	7959	7959	7959	8146	8146	8146	8146	8146	8146	8343	8550	8550	8550	8550	8550	8550	8343	8343	8343	8146	7959	7959	8146	7959	7959	7779	7779	7779	7779	0	0	0	0	0	0	0	0	0	0	0	0	8146	8146	8146	8146	8146	8146	8146	7959	7959	7959	7959	7959	7959	7959	7959	7959	7959	7959	7959	8146	8146	7959	7959	8146	7959	7779	7779	7779	7959	7959	7779	7779	7779	7959	7959	7959	7959	7779	7779	7779	7779	7779	7779	7779	7779	7959	7959	7779	7959	7779	7779	7779	7779	7779	7779	7779	7779	7779	7779	7779	7779	7779	7779	7959	7959	7959	7959	7959	7959	7959	7959	7959	7779	7779	0	0	0	0	0	0	0	7959	7959	7959	8146	8146	8146	8343	8343	8146	8146	8146	8146	8146	8146	8146	8146	8146	8146	8146	8146	8146	8146	8146	8146	8146	0	0	0	0	0	0	0	8146	8146	8146	8146	8146	8146	0	0	0	0	0	8146	8146	8146	8146	8343	8343	8343	8343	8343	8343	8343	0	0	0	0	0	0	0	0	0	0	0	0	0	7959	8146	8146	8146	8146	8146	8146	8146	7959	7959	7959	0	0	0	0	0	0	0	0	0	2570	2609	2589	2570	2570	2551	2551	2551	2532	2532	2514	2496	2496	2496	2478	2478	2478	2460	2460	2443	2426	2426	2426	2426	2426	2409	2392	2359	2376	2359	2343	2327	2327	2343	2343	0	0	0	0	0	0	0	0	0	0	0	0	0	0	0	0	0	0	0	0	0	0	0	0	0	0	0	0	0	0	0	0	0	0	0	0	0
0	0	0	0	0	942	942	942	945	945	948	950	955	958	961	966	969	972	974	980	985	988	988	991	994	997	1000	1006	1008	1008	1011	1020	1026	1030	1036	1039	1045	1048	1052	1055	1058	1058	1058	1061	1061	1064	1064	1068	1068	1068	0	0	1546	1553	1574	1581	1581	1581	1589	1596	1589	1596	1603	1596	1596	1603	1581	1574	1581	1581	1581	1581	1589	1581	1581	1581	0	0	0	0	0	0	0	0	1553	1560	1560	1560	1567	1560	1560	1567	1567	1567	1567	1567	1567	1574	1574	1574	1574	1574	1574	1574	1567	1567	1567	1574	1574	1567	1567	1574	1574	1574	1567	1567	1567	1567	1567	1567	1574	1581	1574	1574	1574	1581	1581	1581	1581	1589	1596	1603	1603	1611	1626	1626	1626	1626	0	0	0	0	0	0	7959	7959	7959	8146	8146	8146	8146	8146	7959	8343	8343	8343	8343	8146	8146	8343	8343	8343	8343	8343	8343	8343	8343	8343	8343	8343	8550	8550	8550	8550	8767	8767	8550	8550	8343	8343	8343	8343	8343	8343	8343	8343	8343	8343	8343	8343	7959	7959	7779	7779	7779	7779	7959	8146	8146	8146	8343	8343	8343	8146	8146	7959	8146	8146	8146	8146	7959	8146	8146	8146	8146	8146	8146	8146	8146	8146	8146	8343	8343	8343	8343	8343	8146	8146	7959	7959	8146	8146	8146	8146	8146	8146	8146	8146	7959	7959	7959	7959	7779	7779	7959	7779	7779	8146	8146	8146	8146	8146	7959	7959	7959	7779	7779	7779	7779	7779	7779	7779	7779	7608	7608	7608	7608	0	0	3546	3440	3475	3475	3510	3475	3440	3440	3475	3440	3440	3440	3440	3440	3440	3440	3406	3406	3406	3406	3406	3406	3406	3406	3406	3406	3406	3406	3406	3406	3406	3406	3406	3406	3406	3406	3373	3406	3373	3406	3406	3406	3406	3406	3406	3440	3440	3440	3440	3440	3440	3440	3440	3440	3475	3475	3440	3440	3475	3475	3475	3475	3510	3510	3510	3510	3475	3475	3475	3475	8146	8343	8343	8343	8343	8146	8343	8343	8343	8146	8146	8146	8146	8146	8146	8146	7959	8146	8146	8146	7959	7959	8146	8146	8343	8343	8343	8343	8343	8343	8550	8550	8550	8550	8550	8550	8550	8550	8343	8343	8146	8343	8343	8146	7959	7959	8146	8146	0	0	0	0	0	0	0	0	0	0	0	7959	7959	8146	8146	8146	8343	8146	8146	8343	8146	8146	8146	8146	8146	8146	8146	7959	7959	7959	7959	7959	8146	8146	8146	8146	8146	8146	8146	7959	7959	7959	7959	7779	7779	7779	8146	8146	7959	7959	7959	7779	7959	7779	7959	7959	7959	7959	7959	7959	7959	7959	7959	7779	7779	7779	7779	7779	7779	7779	7779	7779	7779	7779	7959	7959	7959	7959	7959	7959	7959	7959	7959	7959	7959	0	0	0	0	0	0	0	0	0	8146	8146	8146	8343	8343	8146	8343	8343	8146	8146	8146	8146	8146	8146	8146	8146	8146	8146	8146	8146	8146	8146	8343	8343	8343	8343	0	0	0	0	0	0	8146	8146	8146	8146	8146	8146	0	0	0	0	8146	8146	8146	8146	8343	8343	8343	8343	8343	8550	8550	8550	0	0	0	0	0	0	0	0	0	0	0	0	8146	8146	8146	8343	8343	8146	8146	8146	8146	8146	7959	7959	0	0	0	0	0	0	0	0	0	2629	2609	2589	2589	2570	2570	2551	2551	2532	2514	2514	2496	2496	2496	2478	2478	2478	2460	2460	2443	2443	2443	2443	2443	2426	2426	2409	2359	2392	2359	2343	2327	2327	2343	2343	0	0	0	0	0	0	0	0	0	0	0	0	0	0	0	0	0	0	0	0	0	0	0	0	0	0	0	0	0	0	0	0	0	0	0	0	0
