0	0	932	935	935	935	935	935	937	937	950	953	955	958	958	958	961	963	966	966	969	969	977	977	980	983	988	991	997	1000	1000	1003	1006	1008	1011	1014	1014	1017	1014	1014	1014	1017	1017	0	0	0	0	0	0	2194	2194	2181	2181	2194	2194	2194	2194	2194	2208	2208	2208	2194	2194	2194	2194	2194	2208	2194	2208	2208	2208	2194	2208	2194	2194	2194	2208	2208	2208	2208	2194	2194	2194	2629	2629	2629	2629	2629	2629	2629	2629	2629	2629	2629	2629	2609	2629	2649	2649	2649	2629	2629	2629	2629	2629	2629	2629	2629	2609	2609	2609	2609	2629	2609	2609	2609	2609	2609	2609	2609	2609	2609	2609	2629	2629	2629	2893	2893	2893	2917	2917	2942	2942	2942	2942	2967	2967	2993	2993	2993	3019	2993	2993	3659	3621	3659	3659	3659	3698	3698	3698	3659	3659	3659	3659	3738	3738	3659	3698	3698	3698	3659	3659	3659	3659	3659	3659	3659	3659	3659	3698	3659	3659	3698	3698	3738	3779	3779	3779	3821	3821	3821	3821	3821	3821	3821	3821	3821	3779	3779	3779	3821	3821	3821	3821	3821	3821	3864	3864	3864	3864	3864	3864	3864	3821	3821	3821	3821	3821	3821	3821	3821	3821	3864	3821	3821	3821	3821	3821	3821	3779	3779	3779	3779	3779	3779	3779	3821	3821	3821	3821	3821	3821	3821	3821	3821	3821	3821	3821	3821	3821	3821	3821	3821	3821	3821	3821	3821	3821	3821	3821	3821	3821	3864	3864	3821	3821	3821	3864	3864	3864	3864	3821	3821	3821	3779	3779	3821	3779	3821	3864	3864	3864	3864	3864	3864	3864	3821	3821	3821	3821	3821	3821	3821	3821	3821	3821	3821	3821	3821	3821	3821	3779	3821	3779	3779	3779	3779	3779	3779	3779	3821	3821	3821	3821	3864	3821	3821	3821	3864	3821	3821	3821	3821	3821	3821	3821	3821	3821	3779	3779	3779	3779	3779	3779	3779	3821	3821	3821	3821	3821	3821	3821	3821	3821	3779	3779	3821	3821	3779	3779	3779	3779	3779	3779	3779	3779	3779	3779	3779	3779	3779	3779	3821	3821	3821	3779	3779	3779	3779	3779	3779	3779	3779	3779	3779	3779	3821	3821	3821	3779	3779	3779	3738	3779	3779	3779	3779	3779	3821	3821	3821	3821	3821	3821	3821	3821	3821	3821	3821	3821	3779	3779	3779	3821	3779	3779	3779	3821	3821	3779	3779	3779	3779	3821	3779	3779	3779	3779	3779	3779	3821	3821	3821	3821	3821	3821	3821	3821	3821	3821	3821	3821	3821	3821	3821	3821	3821	3821	3779	3779	3779	3779	3821	3779	3821	3821	3821	3821	3821	3821	3821	3821	3821	3821	3821	3821	3864	3864	3864	3821	3821	3821	3821	3821	3821	3821	3821	3821	3821	3864	3821	3821	3821	3821	3821	3821	3821	3821	3821	3821	3821	3821	3779	3821	3821	3779	3779	3779	3779	3738	3779	3779	3779	3821	3821	3821	3821	3821	3821	3821	3779	3779	3821	3779	3779	3821	3821	3821	0	0	0	0	0	0	0	0	0	0	0	0	0	0	0	0	0	0	0	0	0	0	0	0	0	0	0	0	0	0	0	0	0	0	0	0	0	0	0	0	0	0	0	0	0	0	0	0	0	0	0	0	0	0	0	0	0	0	0	0	0	0	0	0	0	0	0	0	0	0	0	0	0	0	0	0	0	0	0	0	0	0	0	0	0	0	0	0	0	0	0	0	0	0	0	0	0	0	0	0	0	0	0	0	0	0	0	0	0	0	0	0	0	0	0	0	0	0	0	0	0	0	0	0	0	0	0	0	0	0	0	0	0	0	0	0	0	0	0	0	0
0	0	932	932	935	935	935	935	935	937	948	950	948	955	958	958	955	963	966	966	969	966	977	977	980	983	988	991	997	1000	1000	1003	1006	1008	1008	1011	1014	1014	1014	1014	1014	1014	1014	0	0	0	0	0	0	2208	2194	2181	2194	2194	2194	2194	2194	2194	2208	2208	2208	2208	2208	2208	2194	2194	2208	2208	2208	2208	2208	2208	2208	2208	2208	2208	2208	2208	2223	2208	2208	2208	2208	2208	2629	2629	2649	2629	2629	2629	2629	2609	2609	2609	2609	2609	2629	2649	2649	2669	2629	2649	2649	2629	2629	2629	2609	2629	2609	2609	2609	2609	2629	2629	2609	2609	2609	2609	2609	2609	2609	2629	2629	2629	2629	2629	2917	2917	2917	2917	2942	2942	2917	2942	2942	2942	2967	2993	2993	2993	3019	2993	2993	2993	3659	3659	3659	3698	3698	3698	3698	3698	3698	3738	3738	3738	3738	3659	3698	3698	3698	3698	3659	3698	3698	3659	3698	3659	3698	3698	3698	3698	3659	3659	3698	3738	3779	3738	3779	3779	3821	3821	3821	3779	3779	3779	3821	3779	3779	3779	3779	3821	3821	3821	3821	3821	3821	3821	3821	3821	3864	3821	3821	3864	3821	3821	3821	3821	3821	3821	3821	3821	3821	3821	3821	3821	3821	3821	3821	3821	3779	3779	3779	3779	3779	3779	3779	3821	3821	3821	3821	3821	3821	3821	3821	3821	3821	3821	3821	3779	3779	3779	3821	3821	3821	3821	3821	3821	3821	3821	3821	3821	3821	3821	3821	3821	3821	3821	3864	3864	3864	3864	3821	3821	3821	3779	3779	3821	3821	3821	3864	3864	3864	3864	3821	3821	3821	3821	3821	3821	3821	3821	3821	3821	3821	3821	3821	3821	3821	3821	3779	3779	3779	3779	3779	3779	3738	3738	3779	3779	3779	3821	3821	3821	3821	3821	3821	3821	3864	3864	3864	3821	3821	3821	3864	3821	3821	3821	3779	3779	3779	3779	3779	3779	3779	3779	3779	3821	3821	3779	3779	3779	3779	3779	3779	3779	3779	3821	3821	3779	3821	3779	3779	3779	3779	3779	3779	3779	3779	3779	3779	3779	3779	3821	3821	3821	3779	3821	3821	3779	3779	3779	3779	3738	3738	3738	3738	3738	3821	3821	3779	3779	3779	3738	3779	3779	3779	3779	3821	3821	3821	3821	3821	3821	3821	3821	3821	3821	3821	3821	3779	3779	3779	3779	3779	3779	3779	3779	3779	3821	3821	3779	3779	3779	3779	3779	3779	3779	3779	3821	3821	3821	3821	3821	3821	3821	3821	3821	3821	3821	3821	3821	3821	3821	3821	3821	3779	3821	3821	3779	3779	3779	3779	3779	3779	3821	3821	3821	3821	3821	3821	3821	3821	3821	3821	3821	3864	3864	3864	3864	3821	3821	3821	3821	3821	3821	3821	3821	3821	3821	3821	3821	3821	3821	3821	3821	3821	3821	3821	3821	3821	3821	3821	3821	3821	3821	3779	3779	3779	3779	3738	3779	3779	3779	3821	3821	3821	3821	3821	3821	3821	3821	3821	3821	3821	3821	3864	3864	3864	0	0	0	0	0	0	0	0	0	0	0	0	0	0	0	0	0	0	0	0	0	0	0	0	0	0	0	0	0	0	0	0	0	0	0	0	0	0	0	0	0	0	0	0	0	0	0	0	0	0	0	0	0	0	0	0	0	0	0	0	0	0	0	0	0	0	0	0	0	0	0	0	0	0	0	0	0	0	0	0	0	0	0	0	0	0	0	0	0	0	0	0	0	0	0	0	0	0	0	0	0	0	0	0	0	0	0	0	0	0	0	0	0	0	0	0	0	0	0	0	0	0	0	0	0	0	0	0	0	0	0	0	0	0	0	0	0	0	0	0	0
0	0	932	930	932	932	932	935	935	937	948	948	945	955	958	958	955	963	966	969	966	969	977	980	980	983	988	991	997	1000	1000	1003	1003	1006	1006	1008	1014	1014	1014	1014	1014	1011	1011	0	0	0	0	0	0	2194	2194	2194	2194	2194	2194	2208	2208	2194	2208	2208	2208	2208	2208	2208	2208	2194	2208	2208	2223	2223	2223	2223	2223	2223	2223	2223	2208	2237	2237	2223	2223	2208	2208	2208	2629	2629	2629	2629	2629	2629	2629	2609	2609	2609	2609	2609	2629	2629	2649	2669	2669	2669	2649	2629	2629	2629	2629	2629	2629	2629	2629	2629	2629	2629	2609	2609	2609	2609	2609	2609	2609	2629	2629	2629	2629	2942	2917	2917	2917	2942	2942	2942	2942	2942	2942	2967	2967	2993	2993	3019	3019	3019	3019	3019	3019	3698	3698	3698	3738	3738	3738	3738	3698	3698	3698	3738	3738	3698	3698	3698	3698	3698	3698	3698	3698	3698	3698	3698	3698	3698	3698	3698	3659	3698	3698	3738	3779	3738	3738	3779	3779	3779	3779	3779	3779	3779	3779	3779	3779	3779	3779	3821	3821	3821	3821	3821	3821	3821	3821	3821	3864	3864	3864	3864	3864	3821	3821	3821	3821	3821	3821	3821	3821	3821	3821	3821	3821	3821	3821	3821	3779	3779	3779	3779	3779	3779	3779	3779	3821	3821	3821	3821	3821	3821	3821	3779	3779	3779	3779	3779	3779	3779	3779	3779	3821	3821	3821	3821	3821	3821	3821	3821	3821	3821	3821	3821	3821	3821	3821	3864	3864	3864	3821	3821	3821	3821	3779	3779	3821	3821	3864	3864	3864	3864	3821	3821	3821	3821	3821	3821	3779	3779	3779	3821	3821	3821	3779	3821	3821	3821	3779	3779	3779	3779	3779	3779	3738	3738	3738	3779	3779	3779	3779	3821	3821	3779	3779	3821	3821	3821	3821	3821	3821	3821	3821	3821	3821	3821	3821	3779	3779	3779	3779	3779	3779	3779	3779	3821	3821	3779	3779	3779	3779	3779	3779	3779	3779	3779	3821	3779	3779	3779	3779	3779	3779	3779	3779	3779	3779	3779	3779	3779	3779	3779	3821	3821	3779	3779	3779	3779	3779	3738	3738	3738	3738	3779	3779	3779	3779	3779	3779	3779	3779	3738	3779	3779	3779	3779	3821	3821	3821	3821	3821	3821	3821	3821	3821	3821	3821	3821	3779	3779	3779	3779	3779	3779	3779	3779	3779	3821	3779	3779	3779	3779	3779	3779	3779	3779	3821	3821	3821	3821	3821	3821	3821	3821	3821	3821	3821	3821	3821	3821	3821	3779	3821	3779	3779	3779	3779	3779	3779	3779	3779	3779	3779	3821	3821	3821	3821	3821	3821	3821	3821	3821	3821	3864	3864	3864	3864	3864	3821	3821	3821	3821	3821	3821	3821	3821	3821	3821	3864	3821	3821	3821	3821	3821	3821	3821	3821	3821	3821	3821	3821	3821	3821	3821	3779	3779	3779	3779	3738	3738	3738	3779	3779	3821	3821	3821	3821	3821	3821	3821	3821	3821	3821	3821	3864	3864	3864	0	0	0	0	0	0	0	0	0	0	0	0	0	0	0	0	0	0	0	0	0	0	0	0	0	0	0	0	0	0	0	0	0	0	0	0	0	0	0	0	0	0	0	0	0	0	0	0	0	0	0	0	0	0	0	0	0	0	0	0	0	0	0	0	0	0	0	0	0	0	0	0	0	0	0	0	0	0	0	0	0	0	0	0	0	0	0	0	0	0	0	0	0	0	0	0	0	0	0	0	0	0	0	0	0	0	0	0	0	0	0	0	0	0	0	0	0	0	0	0	0	0	0	0	0	0	0	0	0	0	0	0	0	0	0	0	0	0	0	0	0
0	0	927	927	927	930	932	932	935	937	937	945	945	948	948	955	958	963	966	966	966	969	977	977	980	983	983	994	997	997	1000	1003	1003	1006	1006	1008	1008	1014	1011	1008	1006	1003	1000	1000	0	0	0	0	2208	2208	2208	2194	2194	2208	2208	2208	2208	2208	2208	2223	2208	2208	2208	2208	2208	2208	2208	2208	2223	2223	2223	2223	2223	2237	2237	2237	2223	2223	2252	2237	2237	2237	2252	2252	2252	2629	2629	2629	2629	2629	2609	2609	2609	2609	2629	2629	2649	2649	2649	2649	2669	2649	2649	2649	2629	2629	2629	2629	2629	2609	2609	2629	2629	2629	2609	2609	2609	2629	2629	2609	2609	2609	2629	2629	2629	2942	2942	2942	2967	2942	2993	3019	2942	2942	2942	2967	2967	2993	2993	2993	3019	3019	3019	3019	3019	3019	3738	3738	3738	3738	3738	3738	3698	3738	3738	3738	3738	3698	3698	3698	3698	3698	3698	3698	3738	3698	3698	3698	3698	3698	3698	3698	3659	3659	3659	3698	3738	3698	3738	3738	3779	3779	3779	3779	3779	3779	3821	3821	3779	3779	3821	3821	3821	3821	3821	3821	3821	3821	3821	3821	3864	3821	3864	3864	3821	3821	3864	3821	3821	3821	3821	3821	3821	3821	3821	3821	3821	3821	3779	3779	3779	3779	3779	3821	3779	3821	3779	3779	3821	3779	3779	3821	3821	3821	3821	3779	3779	3779	3779	3779	3779	3738	3738	3779	3779	3779	3821	3821	3821	3821	3779	3821	3779	3821	3821	3821	3821	3821	3821	3864	3864	3864	3821	3821	3821	3821	3779	3779	3821	3821	3864	3864	3864	3864	3821	3821	3821	3821	3821	3821	3779	3779	3779	3779	3779	3821	3779	3821	3821	3821	3821	3821	3779	3779	3779	3779	3779	3779	3738	3779	3779	3779	3779	3821	3779	3779	3779	3821	3821	3821	3821	3821	3821	3821	3864	3821	3821	3821	3779	3779	3779	3779	3779	3779	3779	3779	3779	3779	3779	3779	3779	3779	3779	3779	3779	3779	3779	3779	3779	3779	3779	3779	3779	3779	3779	3779	3779	3779	3779	3779	3779	3779	3779	3779	3779	3779	3779	3779	3779	3779	3779	3738	3738	3738	3738	3779	3779	3779	3779	3779	3779	3779	3779	3779	3779	3779	3821	3821	3821	3821	3821	3821	3821	3821	3821	3821	3821	3821	3821	3821	3779	3779	3779	3779	3779	3779	3779	3779	3779	3821	3779	3779	3779	3779	3779	3779	3779	3779	3821	3821	3821	3821	3821	3821	3821	3821	3821	3821	3821	3821	3821	3821	3821	3779	3779	3779	3779	3779	3779	3779	3779	3779	3779	3779	3779	3821	3821	3821	3821	3821	3821	3821	3821	3821	3821	3864	3864	3864	3864	3864	3821	3821	3821	3821	3821	3821	3821	3821	3821	3821	3821	3821	3821	3821	3821	3821	3821	3821	3779	3779	3779	3779	3821	3821	3821	3821	3821	3779	3779	3779	3738	3738	3738	3779	3779	3779	3779	3821	3821	3821	3821	3821	3821	3821	3779	3779	3821	3821	3821	0	0	0	0	0	0	0	0	0	0	0	0	0	0	0	0	0	0	0	0	0	0	0	0	0	0	0	0	0	0	0	0	0	0	0	0	0	0	0	0	0	0	0	0	0	0	0	0	0	0	0	0	0	0	0	0	0	0	0	0	0	0	0	0	0	0	0	0	0	0	0	0	0	0	0	0	0	0	0	0	0	0	0	0	0	0	0	0	0	0	0	0	0	0	0	0	0	0	0	0	0	0	0	0	0	0	0	0	0	0	0	0	0	0	0	0	0	0	0	0	0	0	0	0	0	0	0	0	0	0	0	0	0	0	0	0	0	0	0	0	0
0	0	927	927	927	927	930	932	935	937	945	948	948	953	953	955	958	963	966	966	969	969	974	974	977	983	983	991	997	997	1000	1000	1003	1003	1006	1006	1014	1014	1011	1008	1006	1006	1000	1000	0	0	0	0	2208	2208	2252	2208	2208	2208	2208	2223	2223	2223	2223	2223	2223	2223	2266	2223	2223	2223	2237	2237	2237	2237	2237	2223	2237	2237	2237	2252	2252	2252	2252	2252	2237	2237	2237	2237	2252	2223	2223	2629	2629	2629	2609	2609	2609	2609	2629	2629	2629	2649	2649	2649	2649	2649	2629	2629	2629	2629	2629	2629	2629	2629	2629	2629	2629	2629	2609	2609	2609	2629	2629	2629	2629	2629	2629	2629	2629	2942	2942	2967	2967	2993	2993	3019	3019	2967	2967	2993	2993	2993	2993	3019	3019	3019	3019	3019	3019	3019	3738	3738	3779	3738	3738	3738	3738	3738	3738	3738	3738	3698	3698	3698	3698	3698	3698	3698	3698	3698	3698	3698	3738	3698	3698	3698	3659	3659	3659	3698	3698	3698	3738	3779	3779	3779	3779	3779	3779	3779	3821	3821	3779	3779	3821	3864	3821	3821	3821	3864	3821	3821	3821	3821	3821	3821	3821	3864	3864	3864	3864	3821	3821	3821	3821	3821	3821	3821	3821	3821	3821	3821	3821	3821	3821	3821	3821	3821	3779	3821	3779	3779	3821	3821	3821	3821	3779	3821	3779	3779	3779	3779	3779	3779	3738	3779	3779	3779	3779	3779	3779	3821	3821	3821	3779	3779	3779	3821	3821	3821	3821	3821	3821	3864	3821	3821	3821	3821	3821	3779	3779	3821	3821	3821	3864	3864	3864	3864	3821	3821	3821	3821	3821	3821	3779	3779	3779	3779	3821	3821	3779	3779	3779	3821	3821	3821	3779	3779	3779	3779	3738	3738	3738	3779	3779	3779	3779	3821	3779	3779	3779	3779	3821	3779	3779	3779	3779	3821	3821	3821	3821	3821	3779	3779	3779	3779	3779	3779	3779	3779	3779	3779	3779	3779	3779	3779	3779	3779	3779	3779	3779	3779	3779	3779	3779	3779	3779	3779	3779	3779	3779	3779	3779	3779	3779	3779	3779	3779	3779	3779	3779	3779	3779	3779	3779	3738	3738	3738	3779	3779	3779	3779	3779	3779	3779	3779	3779	3779	3821	3821	3821	3821	3821	3821	3821	3821	3821	3821	3821	3821	3821	3821	3821	3821	3821	3779	3779	3779	3779	3779	3779	3779	3821	3821	3821	3779	3779	3779	3779	3779	3779	3821	3821	3821	3821	3821	3821	3821	3821	3821	3821	3821	3821	3821	3821	3821	3821	3779	3779	3779	3779	3779	3779	3779	3779	3779	3779	3779	3779	3821	3821	3821	3821	3821	3821	3821	3821	3821	3821	3864	3864	3864	3864	3864	3821	3821	3821	3821	3821	3821	3821	3821	3821	3821	3821	3821	3821	3821	3821	3821	3779	3821	3779	3779	3779	3779	3821	3821	3821	3821	3821	3821	3779	3779	3779	3779	3738	3779	3779	3738	3779	3821	3821	3821	3821	3821	3821	3821	3779	3779	3821	3821	3821	0	0	0	0	0	0	0	0	0	0	0	0	0	0	0	0	0	0	0	0	0	0	0	0	0	0	0	0	0	0	0	0	0	0	0	0	0	0	0	0	0	0	0	0	0	0	0	0	0	0	0	0	0	0	0	0	0	0	0	0	0	0	0	0	0	0	0	0	0	0	0	0	0	0	0	0	0	0	0	0	0	0	0	0	0	0	0	0	0	0	0	0	0	0	0	0	0	0	0	0	0	0	0	0	0	0	0	0	0	0	0	0	0	0	0	0	0	0	0	0	0	0	0	0	0	0	0	0	0	0	0	0	0	0	0	0	0	0	0	0	0
0	0	927	927	927	927	935	935	935	937	945	948	950	953	953	955	958	961	966	966	969	969	974	974	977	983	985	991	997	997	1000	1000	1000	1003	1003	1006	1014	1014	1008	1008	1008	1006	1000	1000	0	0	0	2208	2208	2252	2252	2208	2208	2223	2223	2223	2237	2223	2237	2237	2237	2237	2237	2237	2237	2223	2252	2252	2252	2237	2237	2237	2237	2252	2252	2266	2266	2252	2266	2252	2252	2252	2252	2252	2252	2252	2252	2252	2609	2609	2609	2609	2609	2609	2609	2629	2629	2649	2649	2649	2649	2629	2629	2629	2649	2629	2629	2629	2629	2629	2629	2629	2629	2629	2609	2629	2609	2609	2629	2629	2629	2629	2649	2649	2629	2967	2967	2967	2967	2993	3019	3019	3019	2993	2993	2993	2993	2993	2993	3019	3019	3019	3019	3019	2942	2917	2917	3779	3779	3779	3738	3738	3738	3738	3698	3738	3698	3698	3698	3698	3698	3698	3698	3698	3698	3698	3738	3738	3738	3738	3698	3698	3659	3659	3659	3698	3698	3698	3738	3738	3779	3779	3779	3779	3779	3779	3779	3779	3779	3779	3779	3821	3821	3821	3864	3864	3821	3821	3821	3821	3821	3821	3864	3864	3864	3864	3864	3864	3864	3821	3821	3821	3821	3821	3821	3821	3821	3864	3821	3821	3821	3821	3779	3821	3821	3821	3821	3779	3821	3821	3821	3821	3821	3821	3821	3779	3779	3779	3779	3779	3779	3779	3779	3779	3821	3821	3821	3821	3821	3821	3779	3821	3779	3864	3821	3821	3821	3821	3821	3864	3821	3821	3821	3821	3821	3779	3821	3779	3821	3864	3821	3864	3864	3864	3864	3864	3864	3864	3864	3821	3821	3821	3779	3779	3779	3779	3779	3779	3821	3821	3821	3779	3779	3779	3779	3779	3738	3738	3738	3779	3738	3779	3779	3779	3779	3779	3779	3779	3779	3779	3779	3779	3779	3821	3821	3821	3779	3779	3779	3779	3779	3821	3779	3779	3821	3779	3779	3779	3779	3779	3779	3779	3779	3779	3779	3779	3779	3779	3779	3779	3779	3779	3779	3779	3779	3779	3779	3779	3779	3779	3779	3779	3779	3779	3779	3779	3779	3779	3779	3779	3779	3779	3779	3779	3779	3779	3779	3779	3779	3779	3779	3779	3779	3779	3821	3821	3821	3821	3821	3821	3821	3821	3821	3821	3821	3821	3821	3821	3821	3821	3821	3779	3779	3779	3779	3779	3779	3779	3821	3821	3779	3779	3779	3779	3779	3779	3779	3821	3821	3821	3821	3821	3821	3821	3821	3821	3821	3821	3821	3821	3821	3779	3821	3779	3779	3779	3779	3779	3779	3779	3779	3779	3779	3779	3779	3821	3821	3821	3821	3821	3821	3821	3821	3821	3821	3821	3864	3864	3864	3864	3821	3821	3821	3821	3821	3821	3821	3821	3821	3821	3821	3821	3821	3821	3821	3821	3821	3821	3779	3821	3821	3821	3821	3821	3821	3821	3821	3821	3779	3779	3779	3738	3738	3738	3738	3738	3779	3779	3821	3821	3821	3821	3821	3779	3821	3779	3821	3821	3821	0	0	0	0	0	0	0	0	0	0	0	0	0	0	0	0	0	0	0	0	0	0	0	0	0	0	0	0	0	0	0	0	0	0	0	0	0	0	0	0	0	0	0	0	0	0	0	0	0	0	0	0	0	0	0	0	0	0	0	0	0	0	0	0	0	0	0	0	0	0	0	0	0	0	0	0	0	0	0	0	0	0	0	0	0	0	0	0	0	0	0	0	0	0	0	0	0	0	0	0	0	0	0	0	0	0	0	0	0	0	0	0	0	0	0	0	0	0	0	0	0	0	0	0	0	0	0	0	0	0	0	0	0	0	0	0	0	0	0	0	0
0	0	927	927	927	927	935	937	940	940	945	948	950	953	953	955	955	958	963	966	966	969	972	974	977	983	985	991	994	997	997	1000	1000	1003	1003	1006	1014	1014	1014	1008	1008	0	0	0	0	2237	2237	2237	2223	2237	2266	2252	2237	2237	2237	2237	2252	2237	2237	2237	2237	2266	2266	2252	2237	2252	2266	2266	2266	2252	2252	2237	2252	2252	2252	2252	2266	2266	2266	2266	2252	2252	2252	2252	2266	2252	2266	2266	2609	2609	2609	2609	2609	2609	2609	2629	2629	2629	2629	2649	2649	2649	2649	2649	2649	2649	2629	2629	2629	2629	2629	2629	2629	2629	2629	2629	2609	2629	2629	2629	2629	2629	2629	2629	2629	2629	2993	2993	2993	3019	3019	3019	3046	3019	3046	3019	2993	2993	2993	3019	3019	3019	3019	3019	3019	2917	2917	2917	3779	3779	3779	3779	3738	3738	3698	3738	3698	3698	3698	3698	3698	3659	3698	3659	3659	3698	3738	3738	3738	3738	3698	3698	3659	3659	3659	3659	3698	3698	3698	3738	3779	3779	3779	3821	3821	3779	3779	3779	3779	3779	3779	3821	3821	3864	3821	3864	3821	3821	3821	3821	3821	3821	3821	3864	3821	3821	3821	3821	3864	3821	3821	3821	3821	3821	3821	3821	3821	3821	3821	3821	3779	3779	3779	3779	3779	3779	3779	3779	3779	3779	3779	3779	3821	3821	3821	3821	3779	3779	3779	3779	3738	3738	3779	3779	3821	3821	3821	3821	3821	3821	3779	3821	3779	3821	3821	3821	3821	3821	3821	3821	3821	3821	3821	3779	3779	3779	3779	3779	3821	3821	3821	3864	3864	3864	3864	3864	3821	3821	3821	3821	3779	3779	3779	3779	3779	3779	3779	3779	3821	3821	3821	3821	3779	3779	3779	3779	3738	3738	3738	3738	3738	3738	3779	3779	3779	3738	3738	3779	3779	3779	3779	3779	3779	3779	3821	3779	3779	3779	3779	3779	3779	3779	3779	3779	3779	3779	3779	3779	3779	3779	3779	3779	3779	3779	3779	3779	3779	3779	3821	3779	3779	3779	3779	3779	3779	3779	3779	3779	3779	3779	3779	3779	3779	3779	3779	3779	3779	3779	3779	3779	3779	3779	3779	3779	3779	3779	3779	3779	3779	3779	3779	3779	3779	3779	3821	3821	3821	3821	3821	3821	3821	3821	3821	3821	3821	3821	3821	3821	3821	3821	3821	3779	3779	3779	3779	3779	3779	3779	3821	3821	3779	3821	3779	3779	3779	3779	3821	3821	3821	3821	3821	3821	3821	3779	3779	3779	3821	3779	3779	3821	3779	3779	3779	3779	3779	3779	3779	3779	3779	3779	3779	3779	3779	3779	3779	3821	3821	3821	3821	3821	3821	3821	3821	3821	3821	3821	3821	3821	3821	3821	3821	3821	3821	3821	3821	3821	3864	3821	3821	3821	3821	3821	3821	3821	3821	3821	3821	3821	3779	3821	3821	3821	3821	3821	3821	3821	3821	3821	3821	3779	3779	3779	3779	3779	3738	3779	3779	3779	3779	3779	3779	3821	3821	3821	3779	3779	3779	3821	3821	0	0	0	0	0	0	0	0	0	0	0	0	0	0	0	0	0	0	0	0	0	0	0	0	0	0	0	0	0	0	0	0	0	0	0	0	0	0	0	0	0	0	0	0	0	0	0	0	0	0	0	0	0	0	0	0	0	0	0	0	0	0	0	0	0	0	0	0	0	0	0	0	0	0	0	0	0	0	0	0	0	0	0	0	0	0	0	0	0	0	0	0	0	0	0	0	0	0	0	0	0	0	0	0	0	0	0	0	0	0	0	0	0	0	0	0	0	0	0	0	0	0	0	0	0	0	0	0	0	0	0	0	0	0	0	0	0	0	0	0	0
0	0	927	927	927	927	935	937	940	940	945	948	948	950	953	955	955	958	963	963	966	969	972	972	977	983	985	991	994	997	997	1000	1000	1003	1003	1006	1011	1011	1014	0	0	0	0	0	2237	2208	2237	2237	2223	2237	2266	2266	2237	2252	2252	2252	2252	2252	2252	2252	2252	2252	2252	2252	2252	2252	2281	2266	2266	2266	2252	2252	2252	2252	2252	2266	2252	2252	2266	2266	2252	2266	2266	2266	2266	2266	2266	2266	2266	2609	2609	2609	2609	2609	2629	2629	2629	2629	2629	2649	2649	2629	2629	2629	2649	2629	2629	2629	2629	2629	2629	2629	2609	2629	2609	2629	2609	2609	2629	2629	2629	2629	2629	2629	2629	2629	3019	3019	3019	3019	3019	3019	3046	3046	3046	3046	3019	2993	3019	3019	3019	3019	3019	3019	3019	2942	2917	2917	3779	3779	3779	3779	3738	3738	3738	3738	3738	3738	3698	3698	3698	3659	3698	3698	3698	3698	3738	3738	3738	3738	3698	3698	3659	3659	3659	3659	3659	3698	3738	3779	3779	3779	3779	3779	3821	3779	3779	3779	3779	3779	3779	3821	3821	3821	3821	3821	3821	3821	3821	3821	3821	3821	3821	3821	3821	3821	3864	3821	3864	3821	3821	3821	3821	3821	3779	3821	3779	3821	3821	3779	3779	3779	3779	3779	3779	3779	3738	3779	3779	3779	3779	3779	3779	3821	3821	3821	3779	3779	3779	3779	3738	3738	3779	3779	3821	3821	3779	3821	3821	3821	3779	3779	3779	3821	3821	3821	3864	3864	3821	3864	3821	3821	3821	3779	3779	3779	3779	3779	3821	3821	3821	3821	3864	3864	3864	3864	3821	3821	3821	3779	3779	3779	3779	3779	3779	3779	3779	3779	3821	3821	3821	3779	3779	3779	3779	3779	3738	3738	3738	3738	3738	3779	3779	3779	3779	3738	3738	3738	3738	3738	3738	3738	3738	3779	3779	3779	3779	3779	3779	3779	3779	3821	3779	3779	3821	3779	3779	3779	3779	3779	3779	3779	3779	3779	3779	3779	3821	3821	3821	3779	3779	3779	3779	3779	3779	3779	3779	3779	3779	3779	3779	3779	3779	3779	3779	3779	3779	3779	3779	3779	3779	3738	3779	3779	3779	3779	3779	3779	3779	3779	3779	3779	3779	3779	3779	3821	3821	3821	3821	3821	3821	3821	3821	3779	3821	3821	3821	3821	3821	3821	3779	3779	3779	3779	3779	3821	3821	3821	3821	3821	3779	3821	3779	3779	3779	3779	3779	3821	3821	3821	3821	3821	3821	3779	3779	3779	3779	3779	3779	3779	3779	3779	3779	3779	3779	3779	3779	3779	3779	3779	3779	3779	3779	3779	3779	3821	3821	3821	3821	3821	3821	3821	3821	3821	3821	3821	3821	3821	3821	3821	3821	3821	3821	3821	3821	3821	3821	3821	3821	3821	3821	3821	3821	3821	3821	3821	3821	3821	3779	3821	3821	3821	3821	3821	3821	3821	3821	3821	3821	3779	3779	3779	3779	3779	3779	3779	3779	3779	3779	3779	3779	3779	3821	3779	3779	3779	3779	3779	3779	0	0	0	0	0	0	0	0	0	0	0	0	0	0	0	0	0	0	0	0	0	0	0	0	0	0	0	0	0	0	0	0	0	0	0	0	0	0	0	0	0	0	0	0	0	0	0	0	0	0	0	0	0	0	0	0	0	0	0	0	0	0	0	0	0	0	0	0	0	0	0	0	0	0	0	0	0	0	0	0	0	0	0	0	0	0	0	0	0	0	0	0	0	0	0	0	0	0	0	0	0	0	0	0	0	0	0	0	0	0	0	0	0	0	0	0	0	0	0	0	0	0	0	0	0	0	0	0	0	0	0	0	0	0	0	0	0	0	0	0	0
0	0	0	927	927	927	935	937	937	937	940	945	948	948	950	953	955	955	963	963	966	969	969	972	974	980	985	988	991	994	997	997	1000	1000	1003	1006	1014	1026	1026	0	0	0	0	0	2237	2237	2223	2237	2237	2237	2252	2252	2252	2252	2252	2252	2252	2252	2252	2252	2266	2266	2266	2266	2252	2266	2281	2281	2281	2266	2266	2252	2252	2266	2266	2266	2266	2252	2281	2266	2266	2266	2266	2266	2266	2266	2281	2281	2281	2281	2609	2609	2609	2629	2629	2629	2629	2629	2629	2629	2629	2629	2629	2629	2629	2629	2629	2629	2629	2609	2609	2609	2609	2629	2609	2629	2609	2609	2609	2609	2629	2629	2629	2629	2629	2629	3019	3019	3046	3046	3073	3046	3073	3073	3101	3073	3019	2993	3019	3019	3019	3019	3019	3019	3019	3019	2993	2993	3821	3779	3779	3779	3779	3779	3738	3779	3738	3738	3698	3698	3698	3659	3698	3698	3698	3698	3738	3738	3738	3738	3698	3698	3659	3659	3659	3659	3698	3738	3779	3779	3779	3779	3779	3779	3779	3779	3779	3779	3779	3779	3779	3821	3821	3821	3821	3821	3821	3821	3821	3821	3821	3821	3821	3821	3821	3821	3864	3821	3821	3821	3821	3821	3821	3821	3779	3779	3779	3821	3821	3779	3779	3779	3779	3779	3779	3779	3779	3779	3779	3779	3779	3779	3779	3821	3821	3821	3779	3779	3779	3779	3779	3738	3779	3779	3821	3821	3779	3779	3779	3779	3779	3779	3779	3821	3864	3864	3864	3864	3864	3864	3821	3821	3821	3779	3779	3779	3779	3779	3821	3821	3821	3821	3821	3864	3821	3821	3821	3821	3821	3779	3779	3779	3779	3779	3779	3779	3779	3821	3821	3821	3821	3821	3779	3779	3779	3779	3779	3738	3738	3738	3738	3738	3779	3738	3738	3738	3738	3738	3738	3738	3738	3738	3738	3738	3779	3779	3779	3779	3779	3779	3779	3821	3779	3779	3779	3779	3779	3779	3779	3779	3779	3779	3779	3779	3779	3779	3821	3779	3821	3779	3779	3779	3779	3779	3779	3779	3779	3779	3779	3779	3779	3779	3779	3779	3779	3779	3779	3779	3779	3779	3779	3779	3779	3779	3779	3779	3779	3779	3779	3779	3779	3779	3779	3779	3779	3821	3821	3821	3821	3779	3779	3779	3779	3779	3779	3779	3779	3821	3821	3821	3779	3779	3779	3779	3779	3821	3821	3821	3821	3821	3779	3821	3779	3779	3779	3779	3779	3821	3821	3821	3821	3821	3821	3779	3779	3779	3779	3779	3779	3779	3779	3779	3779	3779	3779	3779	3779	3779	3779	3779	3779	3779	3779	3779	3779	3821	3821	3821	3821	3821	3821	3821	3821	3821	3821	3821	3821	3821	3821	3821	3821	3821	3821	3821	3821	3821	3821	3821	3821	3821	3821	3821	3821	3821	3821	3821	3821	3821	3821	3821	3821	3821	3821	3821	3821	3821	3821	3821	3821	3821	3821	3779	3779	3779	3779	3779	3779	3779	3779	3779	3779	3779	3779	3779	3779	3779	3779	3779	3779	0	0	0	0	0	0	0	0	0	0	0	0	0	0	0	0	0	0	0	0	0	0	0	0	0	0	0	0	0	0	0	0	0	0	0	0	0	0	0	0	0	0	0	0	0	0	0	0	0	0	0	0	0	0	0	0	0	0	0	0	0	0	0	0	0	0	0	0	0	0	0	0	0	0	0	0	0	0	0	0	0	0	0	0	0	0	0	0	0	0	0	0	0	0	0	0	0	0	0	0	0	0	0	0	0	0	0	0	0	0	0	0	0	0	0	0	0	0	0	0	0	0	0	0	0	0	0	0	0	0	0	0	0	0	0	0	0	0	0	0	0
0	0	0	927	927	932	935	935	937	937	940	942	945	948	950	953	955	955	958	961	963	966	969	972	972	977	985	988	991	994	997	997	1000	1003	1006	1006	1014	1014	1026	0	0	0	0	0	0	2208	2223	2237	2237	2252	2252	2252	2252	2266	2266	2312	2266	2266	2266	2266	2266	2266	2266	2266	2266	2266	2281	2281	2297	2281	2281	2266	2281	2281	2266	2266	2266	2266	2266	2252	2266	2266	2266	2266	2281	2281	2281	2281	2281	2281	2266	2266	2609	2629	2629	2629	2629	2629	2629	2629	2629	2629	2629	2629	2629	2629	2629	2629	2609	2609	2609	2609	2609	2609	2609	2629	2609	2629	2629	2629	2629	2629	2629	2629	2629	2629	3046	3046	3073	3073	3073	3073	3073	3073	3101	3073	3019	3019	3073	3073	3046	3046	3046	3046	3046	3046	3019	3019	3821	3821	3779	3779	3779	3779	3738	3779	3738	3738	3738	3698	3698	3698	3698	3698	3698	3698	3738	3738	3738	3738	3698	3698	3659	3659	3659	3659	3698	3779	3779	3779	3779	3779	3779	3779	3821	3779	3779	3779	3779	3779	3779	3779	3821	3821	3821	3821	3821	3821	3821	3821	3821	3821	3821	3821	3821	3821	3821	3821	3821	3821	3821	3821	3821	3821	3821	3821	3779	3779	3779	3779	3779	3779	3779	3821	3821	3779	3779	3779	3779	3779	3779	3779	3821	3821	3821	3821	3779	3779	3779	3779	3779	3738	3779	3779	3779	3821	3821	3821	3821	3821	3821	3821	3821	3864	3864	3864	3864	3864	3864	3821	3821	3821	3821	3779	3779	3779	3779	3779	3779	3779	3821	3821	3821	3821	3821	3821	3821	3779	3779	3779	3779	3779	3779	3779	3821	3821	3821	3821	3821	3779	3821	3779	3779	3779	3779	3779	3779	3738	3738	3738	3738	3738	3738	3738	3738	3738	3738	3738	3738	3738	3738	3738	3738	3738	3779	3779	3779	3779	3779	3779	3779	3779	3779	3779	3779	3779	3779	3779	3779	3779	3779	3779	3779	3779	3779	3779	3821	3821	3821	3779	3779	3779	3779	3779	3779	3779	3779	3779	3779	3779	3779	3779	3779	3779	3779	3779	3779	3779	3779	3779	3779	3779	3779	3779	3779	3779	3779	3779	3779	3779	3779	3779	3779	3779	3779	3821	3821	3821	3821	3779	3779	3779	3779	3779	3779	3779	3779	3821	3779	3779	3779	3779	3779	3821	3821	3821	3821	3821	3821	3779	3779	3779	3779	3779	3779	3779	3779	3821	3821	3821	3821	3821	3821	3779	3779	3779	3779	3779	3779	3779	3779	3779	3779	3779	3779	3779	3779	3779	3779	3779	3779	3779	3779	3779	3779	3821	3821	3821	3821	3821	3821	3821	3821	3821	3821	3821	3821	3821	3821	3779	3821	3821	3821	3821	3821	3821	3821	3821	3821	3821	3821	3821	3821	3821	3821	3821	3821	3821	3821	3821	3821	3821	3821	3821	3821	3821	3821	3821	3821	3821	3821	3821	3821	3779	3779	3779	3779	3779	3779	3779	3779	3779	3779	3779	3779	3779	3779	3779	3738	3738	0	0	0	0	0	0	0	0	0	0	0	0	0	0	0	0	0	0	0	0	0	0	0	0	0	0	0	0	0	0	0	0	0	0	0	0	0	0	0	0	0	0	0	0	0	0	0	0	0	0	0	0	0	0	0	0	0	0	0	0	0	0	0	0	0	0	0	0	0	0	0	0	0	0	0	0	0	0	0	0	0	0	0	0	0	0	0	0	0	0	0	0	0	0	0	0	0	0	0	0	0	0	0	0	0	0	0	0	0	0	0	0	0	0	0	0	0	0	0	0	0	0	0	0	0	0	0	0	0	0	0	0	0	0	0	0	0	0	0	0
0	0	0	927	925	927	935	935	937	937	940	945	948	950	953	953	955	955	958	961	963	966	969	969	974	977	983	988	988	991	994	997	997	1000	1003	1006	1011	1011	1011	0	0	0	0	0	0	2194	2208	2237	2252	2266	2281	2266	2281	2281	2281	2312	2281	2266	2266	2266	2266	2281	2266	2266	2281	2266	2266	2297	2327	2327	2327	2281	2281	2281	2281	2266	2266	2266	2266	2281	2266	2266	2266	2281	2281	2281	2281	2281	2297	2281	2281	2281	2629	2629	2629	2629	2629	2629	2629	2629	2629	2629	2629	2629	2629	2629	2629	2609	2609	2609	2609	2609	2609	2609	2609	2629	2629	2629	2629	2629	2629	2629	2629	2629	2629	3073	3073	3073	3073	3073	3073	3073	3101	3073	3073	3073	3046	3046	3073	3073	3073	3073	3046	3046	3046	3046	3046	3821	3821	3821	3779	3779	3779	3779	3738	3779	3779	3779	3738	3738	3698	3698	3698	3698	3659	3698	3738	3738	3738	3738	3698	3698	3698	3698	3659	3659	3698	3738	3779	3779	3779	3779	3779	3779	3821	3779	3779	3779	3779	3779	3779	3779	3821	3821	3821	3821	3821	3821	3821	3821	3821	3821	3821	3821	3821	3821	3821	3821	3821	3821	3821	3821	3821	3821	3821	3821	3779	3821	3821	3779	3821	3821	3821	3821	3821	3779	3779	3821	3821	3779	3821	3821	3821	3821	3821	3821	3821	3779	3821	3779	3779	3779	3779	3821	3821	3779	3779	3779	3779	3779	3779	3779	3821	3864	3864	3864	3864	3864	3864	3821	3821	3821	3821	3821	3779	3779	3779	3779	3779	3821	3821	3821	3821	3821	3821	3821	3821	3779	3779	3779	3779	3779	3779	3821	3821	3821	3779	3779	3779	3779	3779	3779	3779	3779	3779	3779	3779	3779	3779	3779	3738	3779	3738	3738	3738	3738	3738	3738	3738	3738	3738	3738	3738	3738	3779	3779	3779	3779	3779	3779	3779	3779	3779	3779	3779	3779	3779	3779	3779	3779	3779	3779	3779	3779	3779	3821	3821	3821	3821	3779	3779	3779	3779	3779	3779	3779	3779	3779	3779	3779	3779	3779	3779	3779	3779	3779	3779	3779	3779	3779	3779	3779	3779	3779	3779	3779	3779	3779	3779	3779	3779	3779	3779	3779	3779	3821	3821	3821	3821	3779	3779	3779	3779	3779	3779	3779	3779	3821	3779	3779	3779	3779	3779	3821	3821	3821	3821	3821	3821	3821	3779	3821	3779	3779	3779	3779	3779	3779	3779	3779	3821	3821	3779	3779	3779	3779	3779	3779	3779	3779	3779	3779	3779	3779	3821	3779	3779	3779	3779	3779	3779	3779	3779	3779	3779	3821	3821	3821	3821	3821	3821	3821	3821	3821	3821	3821	3821	3779	3779	3779	3779	3779	3821	3821	3821	3821	3821	3821	3821	3821	3821	3821	3821	3821	3821	3821	3821	3821	3821	3821	3821	3821	3821	3821	3821	3821	3821	3821	3821	3821	3821	3779	3821	3779	3779	3779	3821	3779	3779	3779	3779	3779	3779	3779	3779	3779	3821	3821	3821	3738	0	0	0	0	0	0	0	0	0	0	0	0	0	0	0	0	0	0	0	0	0	0	0	0	0	0	0	0	0	0	0	0	0	0	0	0	0	0	0	0	0	0	0	0	0	0	0	0	0	0	0	0	0	0	0	0	0	0	0	0	0	0	0	0	0	0	0	0	0	0	0	0	0	0	0	0	0	0	0	0	0	0	0	0	0	0	0	0	0	0	0	0	0	0	0	0	0	0	0	0	0	0	0	0	0	0	0	0	0	0	0	0	0	0	0	0	0	0	0	0	0	0	0	0	0	0	0	0	0	0	0	0	0	0	0	0	0	0	0	0
0	0	0	925	925	925	925	935	937	937	937	940	945	948	953	953	953	953	958	958	963	966	969	972	974	977	985	988	988	991	991	994	1000	1000	1003	1006	1011	1011	1011	0	0	0	0	0	0	2167	2167	2237	2266	2281	2281	2281	2312	2281	2312	2312	2281	2281	2281	2281	2281	2297	2312	2312	2281	2297	2312	2327	2327	2343	2327	2327	2297	2297	2297	2281	2266	2266	2266	2266	2281	2266	2266	2281	2297	2297	2297	2297	2297	2297	2297	2297	2629	2629	2629	2629	2629	2629	2629	2609	2609	2629	2609	2609	2629	2629	2609	2609	2609	2609	2609	2609	2609	2609	2609	2609	2629	2629	2629	2629	2629	2629	2629	2629	2629	2629	3073	3073	3073	3073	3101	3101	3101	3073	3073	3073	3073	3073	3073	3101	3073	3101	3073	3073	3073	3073	3073	3073	3821	3821	3821	3779	3779	3779	3779	3779	3779	3779	3738	3738	3698	3698	3698	3698	3698	3698	3738	3738	3738	3738	3698	3698	3698	3698	3698	3698	3698	3738	3738	3779	3779	3779	3779	3779	3779	3779	3779	3779	3779	3779	3779	3779	3821	3821	3821	3821	3821	3821	3821	3821	3821	3821	3821	3821	3821	3821	3821	3821	3821	3821	3821	3821	3821	3821	3779	3821	3779	3779	3821	3821	3821	3821	3821	3821	3821	3821	3779	3821	3821	3779	3779	3821	3821	3821	3821	3821	3779	3779	3779	3779	3779	3779	3779	3821	3821	3779	3779	3779	3779	3779	3779	3821	3821	3864	3864	3864	3864	3864	3821	3821	3821	3821	3821	3779	3821	3821	3779	3779	3779	3779	3779	3779	3779	3779	3821	3821	3779	3779	3779	3779	3779	3779	3779	3779	3821	3779	3779	3779	3779	3779	3779	3779	3779	3738	3738	3779	3779	3738	3738	3738	3738	3738	3738	3738	3738	3738	3738	3738	3738	3738	3738	3738	3738	3738	3779	3779	3779	3779	3779	3779	3779	3779	3779	3779	3779	3779	3779	3779	3779	3779	3779	3779	3779	3779	3779	3821	3821	3821	3821	3779	3779	3779	3779	3779	3779	3779	3779	3779	3779	3779	3779	3779	3779	3779	3779	3779	3779	3779	3779	3779	3779	3779	3779	3779	3779	3779	3779	3779	3779	3779	3779	3779	3779	3779	3779	3821	3821	3821	3779	3821	3779	3779	3779	3779	3821	3779	3779	3779	3779	3779	3779	3779	3779	3821	3821	3821	3821	3821	3821	3821	3821	3821	3779	3779	3779	3779	3779	3779	3779	3821	3821	3821	3779	3779	3779	3779	3738	3738	3738	3779	3779	3779	3779	3779	3779	3821	3779	3779	3779	3779	3779	3779	3779	3779	3779	3821	3821	3821	3821	3821	3821	3821	3821	3821	3821	3821	3821	3779	3779	3738	3779	3821	3821	3779	3821	3821	3821	3821	3821	3821	3821	3821	3821	3821	3821	3821	3821	3821	3821	3821	3821	3821	3821	3821	3821	3821	3821	3821	3821	3821	3821	3821	3821	3779	3821	3821	3821	3779	3779	3779	3779	3779	3779	3779	3779	3779	3821	3821	3821	0	0	0	0	0	0	0	0	0	0	0	0	0	0	0	0	0	0	0	0	0	0	0	0	0	0	0	0	0	0	0	0	0	0	0	0	0	0	0	0	0	0	0	0	0	0	0	0	0	0	0	0	0	0	0	0	0	0	0	0	0	0	0	0	0	0	0	0	0	0	0	0	0	0	0	0	0	0	0	0	0	0	0	0	0	0	0	0	0	0	0	0	0	0	0	0	0	0	0	0	0	0	0	0	0	0	0	0	0	0	0	0	0	0	0	0	0	0	0	0	0	0	0	0	0	0	0	0	0	0	0	0	0	0	0	0	0	0	0	0	0
0	0	0	925	927	927	927	932	935	937	937	940	945	945	945	953	953	953	953	955	958	963	969	972	977	980	985	988	991	991	991	994	1000	1003	1003	1006	1011	1011	1011	1011	0	0	0	0	0	2167	2167	2297	2297	2297	2297	2297	2281	2281	2281	2281	2281	2281	2281	2281	2297	2297	2312	2312	2297	2297	2312	2327	2343	2343	2343	2343	2312	2312	2312	2297	2281	2281	2281	2281	2281	2281	2281	2281	2281	2297	2297	2297	2297	2297	2297	2297	2281	2281	2629	2629	2629	2629	2609	2609	2609	2629	2609	2609	2629	2609	2609	2609	2609	2609	2609	2609	2609	2609	2609	2629	2629	2629	2609	2609	2629	2629	2629	2609	2629	2629	3101	3101	3101	3101	3101	3101	3101	3073	3073	3073	3073	3073	3073	3101	3101	3101	3101	3101	3073	3129	3073	3073	3073	3779	3779	3738	3779	3738	3738	3738	3738	3738	3738	3698	3698	3698	3698	3698	3698	3698	3738	3738	3738	3738	3698	3698	3698	3698	3698	3698	3738	3738	3779	3779	3779	3779	3779	3779	3779	3779	3779	3779	3779	3779	3779	3779	3821	3821	3821	3821	3821	3821	3821	3821	3821	3821	3821	3821	3821	3821	3821	3821	3821	3821	3821	3821	3821	3821	3821	3821	3821	3821	3821	3821	3821	3821	3821	3821	3821	3821	3779	3821	3821	3821	3821	3821	3821	3821	3821	3821	3779	3779	3779	3779	3779	3779	3779	3779	3821	3779	3779	3779	3779	3821	3821	3821	3821	3864	3864	3864	3821	3821	3821	3821	3821	3821	3821	3821	3821	3821	3779	3779	3779	3779	3779	3779	3779	3779	3821	3779	3779	3779	3779	3779	3779	3738	3779	3779	3779	3779	3779	3779	3738	3738	3738	3738	3738	3738	3779	3779	3779	3738	3738	3738	3738	3779	3738	3738	3738	3738	3738	3738	3738	3738	3738	3738	3738	3738	3779	3779	3779	3779	3779	3779	3779	3779	3779	3779	3779	3779	3779	3779	3779	3779	3779	3779	3779	3779	3779	3821	3821	3821	3779	3779	3779	3779	3779	3779	3779	3779	3779	3779	3779	3779	3779	3779	3779	3779	3779	3779	3779	3779	3779	3779	3779	3779	3779	3779	3779	3779	3779	3779	3779	3779	3779	3779	3738	3738	3738	3821	3821	3821	3779	3821	3779	3779	3779	3779	3779	3779	3779	3779	3779	3779	3779	3779	3779	3821	3821	3821	3821	3821	3821	3779	3779	3779	3779	3779	3779	3779	3779	3779	3779	3821	3821	3821	3779	3779	3779	3779	3738	3738	3738	3779	3779	3779	3821	3821	3821	3821	3779	3779	3779	3779	3779	3779	3779	3779	3779	3821	3821	3821	3821	3821	3821	3821	3821	3821	3821	3821	3821	3779	3779	3779	3779	3779	3821	3779	3821	3821	3821	3821	3821	3821	3821	3821	3821	3821	3821	3821	3821	3821	3821	3821	3821	3821	3821	3821	3821	3821	3821	3821	3821	3821	3779	3779	3821	3821	3821	3821	3779	3779	3779	3779	3779	3779	3779	3779	3779	3779	3821	3821	3779	3779	0	0	0	0	0	0	0	0	0	0	0	0	0	0	0	0	0	0	0	0	0	0	0	0	0	0	0	0	0	0	0	0	0	0	0	0	0	0	0	0	0	0	0	0	0	0	0	0	0	0	0	0	0	0	0	0	0	0	0	0	0	0	0	0	0	0	0	0	0	0	0	0	0	0	0	0	0	0	0	0	0	0	0	0	0	0	0	0	0	0	0	0	0	0	0	0	0	0	0	0	0	0	0	0	0	0	0	0	0	0	0	0	0	0	0	0	0	0	0	0	0	0	0	0	0	0	0	0	0	0	0	0	0	0	0	0	0	0	0	0
0	0	0	925	925	925	925	932	932	937	937	940	942	948	950	950	953	953	950	953	958	963	966	972	977	980	985	988	991	991	991	994	1000	1003	1006	1006	1011	1011	1011	1011	0	0	0	0	0	0	0	2312	2312	2312	2297	2297	2297	2297	2297	2281	2281	2281	2297	2297	2297	2312	2312	2312	2312	2312	2297	2312	2327	2359	2359	2359	2327	2327	2327	2312	2312	2297	2297	2297	2297	2297	2281	2297	2297	2297	2297	2297	2312	2312	2312	2312	2281	2297	2297	2629	2629	2629	2609	2609	2629	2629	2629	2609	2629	2629	2609	2609	2609	2609	2609	2609	2609	2609	2609	2609	2609	2629	2609	2609	2609	2609	2609	2609	2629	2629	2629	3073	3073	3101	3101	3101	3101	3073	3073	3073	3101	3101	3101	3101	3101	3101	3101	3101	3101	3101	3073	3073	3101	3101	3779	3779	3779	3779	3738	3779	3738	3738	3738	3698	3659	3659	3698	3698	3698	3659	3659	3738	3698	3698	3698	3698	3698	3738	3698	3738	3738	3779	3779	3779	3779	3779	3779	3779	3779	3779	3779	3779	3779	3779	3779	3779	3821	3821	3821	3821	3821	3821	3821	3864	3821	3821	3821	3821	3821	3821	3821	3821	3821	3821	3821	3821	3821	3821	3821	3821	3779	3821	3821	3821	3821	3821	3821	3821	3821	3821	3779	3779	3779	3779	3779	3821	3821	3821	3821	3821	3779	3779	3779	3779	3779	3779	3779	3779	3779	3779	3779	3779	3779	3821	3821	3779	3821	3821	3864	3864	3864	3864	3821	3821	3821	3821	3821	3821	3821	3821	3821	3779	3779	3779	3779	3779	3779	3779	3779	3779	3779	3779	3779	3779	3779	3779	3779	3779	3779	3779	3779	3779	3738	3738	3738	3738	3738	3738	3738	3779	3779	3738	3738	3779	3779	3779	3779	3779	3779	3738	3738	3738	3738	3738	3738	3738	3738	3738	3738	3779	3779	3779	3779	3779	3779	3779	3779	3779	3779	3779	3779	3779	3779	3779	3779	3779	3779	3779	3779	3821	3821	3779	3779	3779	3779	3779	3738	3779	3779	3779	3779	3779	3779	3779	3779	3779	3779	3779	3779	3779	3779	3779	3779	3779	3779	3779	3779	3779	3779	3779	3779	3779	3779	3779	3779	3779	3779	3779	3779	3821	3821	3821	3821	3821	3779	3779	3821	3779	3779	3779	3779	3779	3779	3779	3779	3779	3779	3821	3821	3821	3821	3821	3821	3821	3779	3779	3779	3779	3779	3779	3779	3779	3779	3779	3779	3821	3779	3779	3779	3779	3779	3779	3779	3779	3779	3779	3779	3821	3821	3779	3779	3779	3779	3779	3779	3779	3779	3779	3779	3821	3821	3821	3821	3821	3821	3821	3821	3821	3821	3821	3821	3779	3779	3779	3779	3779	3821	3821	3821	3821	3821	3821	3779	3821	3821	3821	3821	3821	3821	3821	3821	3821	3821	3821	3821	3821	3821	3779	3779	3779	3821	3779	3821	3779	3779	3779	3821	3821	3821	3821	3779	3779	3779	3779	3779	3779	3779	3779	3779	3779	3821	3821	3821	3864	3864	0	0	0	0	0	0	0	0	0	0	0	0	0	0	0	0	0	0	0	0	0	0	0	0	0	0	0	0	0	0	0	0	0	0	0	0	0	0	0	0	0	0	0	0	0	0	0	0	0	0	0	0	0	0	0	0	0	0	0	0	0	0	0	0	0	0	0	0	0	0	0	0	0	0	0	0	0	0	0	0	0	0	0	0	0	0	0	0	0	0	0	0	0	0	0	0	0	0	0	0	0	0	0	0	0	0	0	0	0	0	0	0	0	0	0	0	0	0	0	0	0	0	0	0	0	0	0	0	0	0	0	0	0	0	0	0	0	0	0
0	0	0	925	925	925	925	930	932	935	937	940	940	945	948	950	950	950	950	953	955	958	966	969	977	980	985	988	991	991	994	994	1000	1003	1006	1006	1006	1006	1006	0	0	0	0	0	0	0	0	2312	2312	2312	2312	2312	2297	2297	2297	2297	2297	2297	2297	2312	2312	2312	2312	2312	2312	2312	2297	2312	2343	2343	2343	2343	2343	2343	2327	2327	2312	2312	2312	2312	2312	2297	2297	2297	2297	2297	2312	2312	2312	2312	2312	2312	2312	2327	2327	2327	2629	2629	2629	2629	2629	2629	2609	2609	2629	2609	2609	2609	2609	2609	2609	2609	2609	2609	2609	2609	2629	2629	2609	2609	2609	2609	2609	2609	2609	2629	2629	3101	3073	3101	3101	3101	3101	3101	3101	3101	3101	3101	3101	3129	3129	3129	3101	3101	3101	3101	3101	3101	3101	3101	3101	3779	3779	3738	3738	3738	3738	3738	3698	3698	3659	3659	3698	3698	3698	3698	3738	3698	3698	3698	3698	3698	3698	3738	3738	3738	3779	3779	3779	3779	3779	3779	3779	3779	3779	3779	3779	3779	3779	3779	3779	3779	3821	3821	3821	3821	3821	3821	3821	3864	3864	3864	3864	3864	3864	3821	3821	3821	3821	3821	3821	3821	3821	3821	3821	3821	3779	3821	3821	3864	3864	3821	3821	3821	3821	3821	3821	3821	3821	3821	3821	3821	3821	3821	3821	3821	3779	3779	3779	3779	3779	3779	3779	3779	3779	3779	3779	3779	3779	3779	3779	3779	3821	3864	3864	3864	3864	3821	3821	3821	3821	3821	3821	3779	3821	3821	3821	3779	3779	3821	3821	3779	3779	3779	3779	3779	3779	3738	3779	3779	3779	3779	3779	3779	3779	3779	3779	3779	3738	3738	3738	3738	3738	3738	3738	3779	3779	3779	3779	3779	3779	3821	3779	3779	3779	3738	3738	3738	3738	3738	3738	3738	3738	3779	3779	3779	3779	3779	3779	3779	3779	3779	3779	3779	3779	3779	3779	3779	3779	3779	3779	3779	3779	3779	3779	3779	3779	3779	3779	3779	3779	3779	3738	3779	3779	3779	3779	3779	3779	3779	3779	3779	3779	3779	3779	3779	3779	3779	3779	3779	3779	3779	3779	3779	3779	3779	3779	3779	3779	3779	3779	3779	3779	3779	3779	3821	3821	3821	3821	3821	3779	3779	3779	3779	3779	3779	3779	3779	3779	3779	3779	3779	3779	3821	3821	3821	3821	3821	3821	3821	3779	3821	3779	3779	3779	3779	3779	3779	3779	3779	3779	3821	3779	3779	3779	3779	3779	3779	3779	3779	3779	3779	3779	3779	3821	3779	3779	3779	3779	3779	3779	3779	3779	3779	3779	3821	3821	3821	3821	3821	3821	3821	3821	3821	3821	3821	3821	3821	3779	3779	3779	3779	3779	3821	3821	3821	3821	3821	3779	3821	3821	3821	3821	3821	3821	3821	3821	3821	3779	3779	3779	3779	3779	3779	3779	3779	3779	3779	3779	3779	3779	3779	3779	3779	3779	3779	3779	3779	3779	3779	3779	3779	3779	3779	3779	3779	3821	3821	3821	3864	3864	0	0	0	0	0	0	0	0	0	0	0	0	0	0	0	0	0	0	0	0	0	0	0	0	0	0	0	0	0	0	0	0	0	0	0	0	0	0	0	0	0	0	0	0	0	0	0	0	0	0	0	0	0	0	0	0	0	0	0	0	0	0	0	0	0	0	0	0	0	0	0	0	0	0	0	0	0	0	0	0	0	0	0	0	0	0	0	0	0	0	0	0	0	0	0	0	0	0	0	0	0	0	0	0	0	0	0	0	0	0	0	0	0	0	0	0	0	0	0	0	0	0	0	0	0	0	0	0	0	0	0	0	0	0	0	0	0	0	0
0	0	0	920	920	922	927	927	932	935	937	937	940	945	945	948	950	950	950	953	958	961	966	974	974	980	980	988	991	991	994	997	1000	1003	1006	1006	1006	1006	1006	0	0	0	0	0	0	0	2312	2312	2312	2312	2312	2312	2312	2312	2312	2312	2312	2312	2312	2312	2312	2312	2312	2312	2312	2312	2312	2327	2359	2343	2359	2343	2343	2343	2327	2327	2327	2312	2327	2312	2327	2312	2312	2312	2312	2312	2312	2312	2327	2327	2327	2327	2327	2327	2327	2327	2327	2629	2629	2629	2609	2629	2609	2609	2609	2609	2609	2609	2609	2609	2609	2609	2609	2609	2609	2609	2629	2609	2609	2609	2609	2609	2609	2609	2609	2609	3186	3101	3073	3101	3101	3101	3101	3101	3101	3101	3129	3129	3129	3129	3129	3129	3129	3129	3129	3129	3101	3129	3129	3129	3129	3129	3779	3779	3698	3698	3738	3738	3698	3698	3698	3698	3738	3738	3738	3698	3738	3698	3698	3698	3698	3698	3738	3738	3738	3738	3738	3738	3779	3779	3779	3779	3779	3779	3779	3779	3779	3779	3779	3738	3779	3779	3821	3821	3821	3821	3821	3821	3821	3864	3821	3864	3864	3821	3864	3821	3821	3821	3821	3821	3821	3821	3821	3821	3821	3821	3821	3821	3821	3821	3864	3821	3821	3821	3821	3821	3821	3821	3821	3821	3821	3821	3821	3821	3821	3821	3779	3779	3779	3779	3779	3779	3779	3779	3779	3779	3779	3779	3779	3779	3779	3779	3821	3864	3864	3864	3821	3821	3821	3821	3821	3821	3821	3779	3821	3821	3821	3779	3779	3779	3821	3779	3779	3779	3779	3779	3779	3779	3779	3779	3779	3779	3779	3779	3779	3779	3779	3779	3738	3738	3779	3738	3738	3779	3738	3779	3779	3779	3779	3779	3779	3779	3779	3779	3779	3738	3738	3738	3738	3738	3738	3738	3738	3779	3779	3779	3779	3779	3779	3779	3779	3779	3779	3779	3779	3779	3779	3779	3779	3779	3738	3779	3779	3779	3779	3779	3779	3779	3779	3779	3779	3779	3738	3779	3779	3779	3779	3779	3779	3738	3779	3779	3779	3779	3779	3779	3779	3779	3779	3779	3779	3779	3779	3779	3779	3779	3779	3779	3779	3779	3779	3779	3779	3779	3779	3821	3821	3821	3821	3821	3779	3779	3779	3779	3779	3779	3779	3779	3779	3779	3779	3779	3779	3779	3821	3821	3821	3821	3779	3779	3779	3821	3821	3779	3779	3779	3779	3779	3779	3779	3779	3779	3779	3779	3779	3779	3738	3779	3779	3779	3779	3779	3779	3779	3821	3779	3779	3779	3779	3779	3779	3779	3779	3779	3779	3821	3821	3821	3821	3821	3821	3821	3821	3821	3821	3821	3821	3821	3779	3779	3779	3779	3779	3779	3779	3779	3821	3779	3779	3821	3821	3821	3821	3821	3821	3821	3821	3821	3779	3779	3779	3779	3779	3779	3779	3779	3779	3779	3779	3779	3738	3779	3779	3779	3779	3779	3779	3779	3779	3779	3779	3779	3779	3779	3779	3779	3821	3821	3821	3864	3864	0	0	0	0	0	0	0	0	0	0	0	0	0	0	0	0	0	0	0	0	0	0	0	0	0	0	0	0	0	0	0	0	0	0	0	0	0	0	0	0	0	0	0	0	0	0	0	0	0	0	0	0	0	0	0	0	0	0	0	0	0	0	0	0	0	0	0	0	0	0	0	0	0	0	0	0	0	0	0	0	0	0	0	0	0	0	0	0	0	0	0	0	0	0	0	0	0	0	0	0	0	0	0	0	0	0	0	0	0	0	0	0	0	0	0	0	0	0	0	0	0	0	0	0	0	0	0	0	0	0	0	0	0	0	0	0	0	0	0
0	0	0	917	920	925	925	925	930	930	937	937	942	942	945	948	950	950	950	955	958	958	966	972	974	974	980	983	991	991	997	1000	1003	1006	1008	1011	1011	1011	0	0	0	0	0	0	0	2327	2312	2312	2327	2327	2327	2327	2312	2312	2312	2312	2312	2312	2327	2327	2327	2327	2327	2327	2312	2312	2327	2343	2359	2359	2359	2343	2343	2343	2343	2327	2327	2327	2327	2327	2327	2327	2327	2327	2327	2327	2327	2327	2327	2327	2327	2327	2343	2343	2343	2343	2343	2343	2669	2629	2629	2629	2609	2609	2609	2609	2609	2609	2609	2589	2609	2609	2609	2609	2609	2609	2609	2609	2609	2609	2609	2609	2609	2609	2629	2629	3186	3101	3101	3101	3101	3101	3129	3101	3101	3101	3129	3129	3129	3129	3129	3129	3129	3129	3129	3129	3129	3129	3129	3129	3129	3129	3864	3864	3738	3738	3738	3738	3698	3698	3698	3738	3738	3738	3738	3738	3738	3698	3698	3698	3698	3698	3698	3738	3738	3738	3779	3738	3779	3779	3779	3779	3779	3779	3779	3779	3779	3779	3779	3738	3779	3779	3821	3821	3821	3821	3821	3821	3821	3821	3821	3821	3821	3821	3864	3821	3821	3821	3821	3821	3821	3821	3821	3821	3821	3821	3821	3821	3821	3821	3821	3821	3821	3821	3821	3779	3779	3779	3779	3779	3779	3821	3821	3821	3821	3779	3779	3779	3779	3779	3779	3779	3779	3779	3779	3779	3779	3738	3779	3779	3779	3779	3779	3821	3821	3821	3821	3821	3821	3821	3821	3821	3821	3779	3821	3821	3821	3821	3821	3821	3821	3821	3821	3779	3821	3779	3779	3779	3779	3779	3779	3779	3779	3779	3779	3779	3779	3779	3738	3738	3779	3738	3738	3738	3738	3779	3779	3779	3779	3779	3779	3779	3779	3779	3779	3779	3738	3738	3779	3779	3738	3738	3738	3738	3779	3779	3779	3779	3779	3779	3779	3779	3779	3779	3779	3779	3779	3779	3779	3738	3738	3779	3779	3779	3779	3779	3779	3779	3779	3779	3779	3779	3738	3779	3779	3779	3779	3779	3779	3738	3779	3738	3738	3738	3738	3779	3779	3779	3779	3779	3779	3779	3779	3779	3779	3779	3779	3779	3779	3779	3779	3779	3779	3779	3779	3821	3821	3821	3821	3821	3779	3779	3779	3779	3821	3779	3779	3779	3779	3779	3779	3779	3779	3779	3821	3821	3779	3779	3779	3779	3821	3821	3821	3821	3821	3779	3779	3779	3779	3779	3779	3779	3779	3779	3779	3779	3738	3779	3779	3779	3779	3779	3779	3779	3779	3779	3779	3779	3779	3779	3779	3779	3779	3779	3779	3821	3821	3821	3821	3821	3821	3821	3821	3821	3821	3821	3821	3821	3821	3779	3779	3779	3779	3779	3779	3779	3779	3779	3779	3779	3821	3821	3821	3821	3821	3821	3821	3821	3779	3821	3779	3779	3779	3738	3738	3779	3779	3779	3779	3779	3779	3779	3779	3779	3779	3779	3779	3779	3779	3779	3779	3779	3779	3779	3779	3779	3821	3821	3821	3821	3821	3821	0	0	0	0	0	0	0	0	0	0	0	0	0	0	0	0	0	0	0	0	0	0	0	0	0	0	0	0	0	0	0	0	0	0	0	0	0	0	0	0	0	0	0	0	0	0	0	0	0	0	0	0	0	0	0	0	0	0	0	0	0	0	0	0	0	0	0	0	0	0	0	0	0	0	0	0	0	0	0	0	0	0	0	0	0	0	0	0	0	0	0	0	0	0	0	0	0	0	0	0	0	0	0	0	0	0	0	0	0	0	0	0	0	0	0	0	0	0	0	0	0	0	0	0	0	0	0	0	0	0	0	0	0	0	0	0	0	0
0	0	0	917	917	925	922	925	927	930	935	935	937	942	945	945	948	950	950	955	958	958	969	969	974	974	980	980	991	991	997	1000	1003	1003	1011	1017	1020	1023	1023	0	0	0	0	0	0	2327	2327	2327	2343	2327	2327	2327	2327	2327	2327	2312	2327	2327	2327	2327	2327	2343	2327	2327	2327	2327	2327	2359	2376	2359	2359	2359	2343	2343	2343	2343	2327	2327	2343	2343	2343	2343	2327	2343	2343	2343	2327	2343	2327	2343	2343	2343	2343	2359	2343	2359	2359	2359	2629	2629	2629	2629	2609	2609	2609	2609	2609	2609	2609	2609	2609	2609	2609	2609	2609	2609	2609	2609	2609	2609	2589	2609	2609	2609	2629	2629	3101	3101	3073	3101	3101	3129	3129	3101	3101	3129	3129	3129	3129	3129	3129	3129	3129	3129	3129	3157	3129	3129	3129	3129	3129	3129	3129	3779	3738	3698	3698	3698	3698	3698	3698	3738	3738	3779	3779	3738	3738	3738	3698	3698	3698	3698	3698	3698	3738	3738	3779	3738	3779	3779	3779	3779	3779	3779	3779	3779	3779	3779	3779	3738	3738	3779	3821	3821	3821	3821	3821	3821	3821	3821	3821	3821	3821	3821	3821	3821	3821	3821	3821	3821	3821	3821	3821	3821	3821	3821	3821	3821	3821	3821	3821	3821	3821	3821	3779	3738	3779	3779	3779	3779	3821	3821	3821	3821	3779	3779	3779	3779	3779	3779	3779	3779	3779	3779	3779	3779	3779	3738	3779	3779	3779	3779	3779	3821	3821	3864	3821	3821	3821	3821	3821	3821	3779	3779	3821	3821	3821	3821	3821	3821	3821	3821	3821	3821	3821	3779	3779	3779	3779	3779	3779	3779	3738	3779	3779	3779	3738	3738	3738	3738	3738	3738	3738	3738	3738	3738	3738	3738	3738	3738	3738	3738	3779	3779	3779	3738	3738	3738	3779	3779	3738	3738	3738	3738	3779	3779	3779	3779	3779	3779	3779	3779	3779	3779	3779	3779	3779	3779	3779	3738	3738	3779	3779	3779	3779	3779	3779	3779	3779	3779	3779	3779	3738	3779	3779	3779	3779	3779	3779	3738	3779	3738	3738	3738	3738	3779	3779	3779	3779	3779	3779	3779	3779	3779	3779	3779	3779	3779	3779	3779	3779	3779	3779	3779	3779	3821	3821	3821	3821	3821	3821	3821	3821	3821	3821	3779	3779	3779	3779	3779	3779	3779	3779	3779	3779	3779	3779	3779	3779	3779	3779	3821	3821	3821	3821	3779	3779	3779	3779	3779	3779	3779	3779	3779	3779	3779	3738	3779	3779	3779	3779	3779	3779	3779	3779	3779	3779	3779	3738	3779	3779	3779	3779	3779	3779	3821	3821	3821	3821	3821	3821	3821	3821	3821	3821	3821	3821	3821	3821	3779	3779	3779	3779	3779	3738	3779	3779	3779	3779	3779	3779	3821	3821	3821	3821	3821	3821	3821	3779	3779	3779	3779	3779	3779	3738	3779	3779	3779	3779	3779	3779	3821	3779	3779	3779	3779	3779	3779	3779	3779	3779	3779	3779	3779	3779	3779	3821	3821	3821	3821	3821	3821	0	0	0	0	0	0	0	0	0	0	0	0	0	0	0	0	0	0	0	0	0	0	0	0	0	0	0	0	0	0	0	0	0	0	0	0	0	0	0	0	0	0	0	0	0	0	0	0	0	0	0	0	0	0	0	0	0	0	0	0	0	0	0	0	0	0	0	0	0	0	0	0	0	0	0	0	0	0	0	0	0	0	0	0	0	0	0	0	0	0	0	0	0	0	0	0	0	0	0	0	0	0	0	0	0	0	0	0	0	0	0	0	0	0	0	0	0	0	0	0	0	0	0	0	0	0	0	0	0	0	0	0	0	0	0	0	0	0
0	0	0	917	917	920	925	925	930	932	935	937	940	940	942	945	948	950	950	955	955	955	955	969	974	977	980	980	991	991	991	997	1003	1011	1017	1020	1023	1023	1023	0	0	0	0	0	2327	2327	2343	2327	2343	2327	2327	2327	2327	2327	2327	2327	2327	2327	2343	2343	2343	2359	2343	2343	2327	2327	2343	2359	2376	2359	2376	2359	2376	2359	2343	2343	2343	2343	2343	2343	2343	2343	2343	2343	2343	2343	2343	2343	2343	2343	2343	2343	2343	2359	2359	2359	2376	2376	2376	2629	2629	2609	2609	2609	2609	2609	2609	2609	2609	2609	2609	2609	2609	2609	2609	2609	2609	2609	2589	2589	2589	2589	2609	2609	2629	2629	3186	3101	3101	3101	3129	3129	3129	3129	3129	3129	3129	3129	3129	3129	3157	3157	3157	3157	3157	3157	3157	3157	3157	3157	3157	3157	3157	3907	3738	3738	3738	3738	3698	3698	3698	3698	3738	3738	3738	3738	3738	3738	3698	3698	3698	3698	3698	3698	3738	3738	3779	3738	3779	3779	3779	3779	3779	3779	3779	3779	3779	3779	3779	3779	3779	3779	3821	3821	3821	3779	3821	3821	3821	3821	3779	3821	3821	3821	3821	3821	3821	3821	3821	3821	3821	3821	3821	3821	3821	3821	3821	3821	3821	3821	3821	3821	3779	3779	3738	3779	3779	3779	3738	3779	3779	3779	3821	3821	3779	3821	3821	3821	3779	3779	3779	3779	3779	3779	3779	3779	3779	3738	3779	3779	3779	3779	3779	3821	3821	3864	3821	3821	3821	3821	3821	3821	3779	3779	3779	3779	3821	3821	3821	3821	3821	3821	3821	3821	3821	3779	3779	3738	3738	3779	3779	3779	3738	3779	3779	3779	3738	3738	3738	3738	3738	3738	3738	3738	3738	3738	3738	3738	3738	3738	3779	3779	3779	3779	3779	3779	3779	3779	3779	3779	3738	3738	3738	3738	3779	3779	3779	3779	3779	3779	3779	3779	3779	3779	3779	3779	3779	3779	3779	3779	3738	3738	3738	3738	3779	3779	3779	3779	3779	3779	3779	3779	3738	3779	3779	3779	3779	3779	3779	3738	3779	3738	3738	3738	3738	3738	3738	3779	3779	3779	3779	3779	3779	3779	3779	3779	3779	3779	3779	3779	3779	3779	3779	3779	3779	3821	3821	3779	3821	3821	3779	3779	3779	3821	3821	3821	3821	3779	3779	3779	3779	3779	3779	3779	3779	3779	3779	3779	3779	3779	3779	3779	3821	3821	3821	3821	3779	3779	3779	3779	3779	3779	3779	3779	3779	3779	3779	3779	3779	3779	3779	3779	3779	3779	3779	3779	3779	3738	3738	3738	3738	3738	3779	3779	3779	3821	3821	3821	3821	3821	3821	3821	3821	3821	3821	3821	3821	3821	3821	3779	3779	3779	3779	3779	3779	3779	3779	3779	3779	3779	3779	3821	3821	3821	3821	3821	3821	3821	3779	3779	3779	3779	3779	3738	3738	3779	3779	3779	3779	3779	3821	3779	3779	3779	3779	3779	3779	3779	3779	3779	3779	3779	3779	3779	3779	3779	3821	3821	3821	3779	3779	0	0	0	0	0	0	0	0	0	0	0	0	0	0	0	0	0	0	0	0	0	0	0	0	0	0	0	0	0	0	0	0	0	0	0	0	0	0	0	0	0	0	0	0	0	0	0	0	0	0	0	0	0	0	0	0	0	0	0	0	0	0	0	0	0	0	0	0	0	0	0	0	0	0	0	0	0	0	0	0	0	0	0	0	0	0	0	0	0	0	0	0	0	0	0	0	0	0	0	0	0	0	0	0	0	0	0	0	0	0	0	0	0	0	0	0	0	0	0	0	0	0	0	0	0	0	0	0	0	0	0	0	0	0	0	0	0	0	0
0	0	0	917	920	925	927	925	930	932	935	935	937	937	942	945	948	948	953	955	955	958	966	966	974	974	980	980	988	994	994	1000	1011	1014	1020	1020	1023	1023	0	0	0	0	0	0	2343	2327	2327	2327	2343	2327	2327	2327	2327	2327	2327	2327	2327	2343	2343	2343	2343	2343	2343	2343	2343	2343	2343	2376	2376	2376	2376	2376	2376	2359	2343	2343	2343	2343	2359	2343	2343	2343	2343	2359	2359	2359	2343	2359	2359	2359	2359	2359	2359	2359	2359	2376	2376	2376	2376	2629	2629	2609	2609	2609	2609	2609	2609	2609	2609	2609	2609	2609	2609	2609	2609	2609	2609	2609	2589	2589	2609	2609	2629	2649	2649	2649	2649	3101	3101	3129	3129	3157	3157	3129	3157	3157	3157	3129	3129	3129	3157	3157	3157	3157	3157	3157	3157	3157	3157	3157	3157	3157	3129	3129	3779	3779	3738	3738	3738	3698	3698	3698	3698	3738	3738	3698	3698	3738	3698	3698	3698	3698	3698	3698	3738	3738	3779	3738	3779	3779	3779	3779	3779	3779	3779	3779	3779	3779	3779	3779	3779	3779	3821	3821	3821	3821	3821	3821	3821	3821	3821	3821	3821	3821	3864	3821	3821	3821	3821	3821	3821	3821	3821	3821	3821	3821	3821	3821	3821	3821	3821	3821	3779	3779	3779	3738	3779	3779	3738	3779	3779	3821	3821	3821	3821	3821	3821	3821	3821	3779	3779	3779	3779	3779	3779	3779	3779	3779	3779	3779	3779	3779	3779	3821	3821	3864	3864	3821	3821	3821	3821	3821	3779	3779	3779	3779	3821	3821	3821	3821	3821	3821	3821	3821	3821	3779	3779	3738	3738	3779	3779	3779	3738	3779	3779	3779	3738	3738	3738	3738	3738	3738	3738	3738	3738	3738	3738	3738	3779	3738	3779	3779	3779	3779	3779	3738	3779	3779	3779	3779	3779	3738	3738	3738	3779	3779	3779	3779	3779	3779	3779	3779	3779	3779	3779	3779	3779	3779	3779	3779	3738	3779	3738	3738	3779	3779	3779	3779	3779	3738	3779	3779	3738	3779	3738	3738	3738	3738	3738	3738	3738	3738	3738	3738	3738	3738	3738	3779	3779	3779	3738	3779	3779	3779	3779	3779	3779	3779	3779	3779	3779	3738	3738	3779	3779	3821	3779	3779	3779	3821	3779	3779	3779	3821	3779	3821	3779	3779	3779	3779	3779	3779	3779	3779	3779	3738	3779	3779	3779	3779	3779	3779	3821	3821	3821	3779	3779	3779	3779	3779	3779	3779	3779	3779	3779	3779	3779	3779	3779	3779	3779	3779	3779	3779	3779	3738	3738	3738	3738	3738	3738	3738	3738	3738	3779	3779	3779	3821	3821	3821	3821	3821	3821	3821	3821	3821	3821	3821	3821	3821	3779	3779	3779	3779	3779	3779	3779	3779	3779	3779	3779	3779	3779	3821	3821	3821	3821	3779	3779	3821	3779	3779	3779	3779	3779	3779	3779	3779	3779	3779	3779	3779	3779	3779	3779	3779	3779	3779	3779	3779	3779	3779	3779	3779	3779	3779	3821	3821	3779	3779	3779	0	0	0	0	0	0	0	0	0	0	0	0	0	0	0	0	0	0	0	0	0	0	0	0	0	0	0	0	0	0	0	0	0	0	0	0	0	0	0	0	0	0	0	0	0	0	0	0	0	0	0	0	0	0	0	0	0	0	0	0	0	0	0	0	0	0	0	0	0	0	0	0	0	0	0	0	0	0	0	0	0	0	0	0	0	0	0	0	0	0	0	0	0	0	0	0	0	0	0	0	0	0	0	0	0	0	0	0	0	0	0	0	0	0	0	0	0	0	0	0	0	0	0	0	0	0	0	0	0	0	0	0	0	0	0	0	0	0	0
0	0	0	917	920	925	927	925	925	932	935	937	937	937	945	945	948	948	953	953	958	958	966	969	974	974	977	977	991	991	994	1003	1011	1014	1020	1020	1020	1023	0	0	0	0	0	2327	2343	2327	2343	2343	2359	2359	2359	2343	2359	2343	2343	2343	2343	2343	2343	2343	2343	2359	2359	2343	2343	2359	2359	2376	2376	2376	2392	2376	2376	2376	2359	2359	2359	2343	2359	2359	2359	2359	2359	2359	2359	2376	2359	2359	2359	2359	2359	2359	2359	2376	2359	2376	2376	2392	2392	2392	2609	2609	2589	2589	2589	2589	2589	2589	2589	2589	2609	2609	2609	2609	2609	2609	2609	2609	2589	2609	2609	2629	2649	2669	2649	2649	2649	3129	3129	3129	3157	3186	3157	3157	3157	3157	3157	3157	3157	3157	3157	3157	3157	3157	3157	3157	3157	3157	3186	3186	3186	3186	3186	3186	3779	3738	3738	3698	3698	3698	3698	3698	3698	3698	3698	3698	3698	3698	3698	3698	3698	3698	3698	3698	3698	3698	3738	3738	3738	3779	3779	3779	3779	3779	3779	3779	3779	3779	3779	3779	3779	3779	3821	3821	3821	3821	3821	3821	3821	3821	3821	3821	3821	3821	3821	3821	3779	3821	3821	3821	3821	3821	3821	3821	3821	3821	3821	3779	3779	3779	3779	3779	3779	3779	3779	3779	3821	3779	3738	3779	3779	3821	3821	3779	3779	3821	3821	3821	3779	3779	3779	3779	3779	3779	3779	3779	3779	3779	3779	3779	3779	3779	3779	3821	3821	3864	3821	3821	3821	3821	3821	3779	3779	3738	3779	3779	3821	3779	3821	3821	3821	3821	3864	3821	3821	3821	3821	3779	3779	3779	3779	3779	3738	3779	3779	3779	3738	3738	3738	3738	3738	3738	3738	3738	3738	3738	3738	3779	3779	3779	3738	3779	3779	3779	3779	3779	3779	3779	3779	3779	3779	3779	3738	3738	3779	3779	3779	3779	3779	3779	3779	3779	3779	3779	3779	3779	3779	3779	3779	3779	3779	3779	3738	3738	3779	3779	3779	3779	3779	3738	3779	3779	3738	3738	3738	3738	3779	3738	3738	3738	3738	3738	3738	3738	3738	3738	3738	3779	3738	3738	3738	3738	3738	3779	3779	3738	3779	3779	3779	3779	3779	3738	3738	3779	3779	3821	3779	3779	3779	3779	3779	3779	3779	3779	3779	3821	3821	3779	3779	3779	3779	3779	3779	3779	3738	3738	3738	3738	3738	3779	3779	3779	3779	3779	3779	3779	3779	3779	3779	3779	3779	3779	3779	3779	3779	3779	3779	3779	3779	3779	3779	3779	3779	3779	3779	3779	3738	3738	3738	3738	3738	3738	3738	3738	3738	3779	3779	3779	3821	3821	3821	3821	3821	3821	3821	3821	3821	3821	3779	3779	3779	3779	3779	3779	3779	3779	3779	3779	3779	3779	3779	3779	3821	3821	3821	3821	3779	3779	3779	3779	3779	3779	3779	3779	3779	3821	3821	3779	3779	3779	3779	3779	3779	3738	3779	3779	3779	3779	3779	3779	3779	3779	3779	3779	3779	3779	3821	3821	3821	3779	3779	0	0	0	0	0	0	0	0	0	0	0	0	0	0	0	0	0	0	0	0	0	0	0	0	0	0	0	0	0	0	0	0	0	0	0	0	0	0	0	0	0	0	0	0	0	0	0	0	0	0	0	0	0	0	0	0	0	0	0	0	0	0	0	0	0	0	0	0	0	0	0	0	0	0	0	0	0	0	0	0	0	0	0	0	0	0	0	0	0	0	0	0	0	0	0	0	0	0	0	0	0	0	0	0	0	0	0	0	0	0	0	0	0	0	0	0	0	0	0	0	0	0	0	0	0	0	0	0	0	0	0	0	0	0	0	0	0	0	0
0	0	0	917	920	922	922	925	930	932	935	937	937	940	945	945	948	948	953	953	958	958	969	972	977	977	977	983	988	991	994	1003	1014	1014	1020	1020	1020	0	0	0	0	0	2312	2327	2343	2343	2343	2359	2359	2359	2376	2359	2376	2359	2359	2359	2343	2343	2359	2343	2359	2359	2359	2359	2359	2376	2359	2392	2392	2392	2392	2376	2392	2376	2359	2359	2359	2359	2376	2359	2359	2376	2376	2376	2376	2392	2376	2392	2392	2376	2392	2376	2376	2376	2376	2376	2392	2392	2409	2551	2589	2589	2570	2570	2570	2589	2589	2589	2589	2589	2609	2609	2609	2609	2609	2609	2609	2609	2609	2609	2609	2629	2649	2669	2669	2690	2690	3157	3129	3129	3157	3186	3186	3186	3186	3186	3186	3157	3186	3157	3186	3186	3157	3186	3186	3186	3157	3157	3186	3186	3186	3186	3157	3186	3779	3738	3738	3738	3698	3698	3698	3698	3698	3698	3698	3698	3698	3698	3698	3698	3698	3698	3698	3698	3698	3698	3738	3738	3738	3779	3779	3779	3779	3779	3779	3779	3779	3779	3779	3779	3779	3779	3821	3821	3821	3821	3821	3821	3821	3821	3779	3779	3779	3779	3821	3821	3821	3821	3821	3821	3821	3821	3821	3821	3821	3821	3821	3779	3779	3779	3821	3821	3779	3779	3779	3779	3821	3779	3779	3779	3779	3821	3821	3779	3779	3821	3821	3821	3779	3779	3779	3779	3779	3779	3779	3779	3779	3779	3779	3821	3779	3779	3779	3821	3821	3821	3821	3821	3821	3779	3821	3779	3779	3738	3779	3779	3779	3779	3779	3821	3821	3821	3864	3821	3821	3821	3779	3779	3779	3779	3738	3779	3738	3779	3738	3738	3738	3738	3738	3738	3738	3738	3738	3738	3738	3738	3738	3738	3779	3738	3738	3738	3738	3779	3779	3779	3779	3779	3779	3779	3779	3779	3738	3738	3779	3779	3779	3779	3779	3779	3779	3779	3779	3779	3779	3779	3779	3779	3779	3779	3779	3779	3779	3738	3779	3779	3779	3779	3779	3779	3779	3779	3738	3738	3738	3738	3738	3738	3738	3738	3738	3738	3738	3738	3738	3738	3738	3738	3738	3738	3738	3738	3738	3779	3738	3738	3738	3779	3779	3779	3779	3738	3779	3779	3779	3821	3779	3779	3779	3779	3779	3779	3779	3779	3779	3779	3779	3779	3779	3779	3779	3779	3779	3779	3738	3738	3738	3738	3738	3779	3779	3779	3779	3779	3779	3779	3779	3779	3779	3779	3779	3779	3779	3779	3779	3779	3779	3779	3779	3779	3779	3779	3779	3779	3779	3738	3738	3698	3738	3738	3738	3738	3738	3738	3738	3779	3779	3779	3779	3821	3821	3821	3821	3821	3821	3821	3821	3821	3779	3779	3779	3779	3779	3779	3738	3779	3779	3779	3779	3779	3779	3779	3779	3779	3779	3821	3779	3779	3779	3821	3779	3779	3779	3779	3779	3821	3821	3779	3779	3779	3779	3779	3738	3738	3738	3738	3738	3779	3779	3779	3779	3779	3779	3779	3779	3779	3779	3821	3779	3779	3779	0	0	0	0	0	0	0	0	0	0	0	0	0	0	0	0	0	0	0	0	0	0	0	0	0	0	0	0	0	0	0	0	0	0	0	0	0	0	0	0	0	0	0	0	0	0	0	0	0	0	0	0	0	0	0	0	0	0	0	0	0	0	0	0	0	0	0	0	0	0	0	0	0	0	0	0	0	0	0	0	0	0	0	0	0	0	0	0	0	0	0	0	0	0	0	0	0	0	0	0	0	0	0	0	0	0	0	0	0	0	0	0	0	0	0	0	0	0	0	0	0	0	0	0	0	0	0	0	0	0	0	0	0	0	0	0	0	0	0
0	0	0	920	922	922	925	925	925	927	930	935	937	937	948	948	948	950	955	955	955	958	969	974	977	977	980	983	988	991	994	1003	1011	1014	1020	1020	0	0	0	0	0	0	2327	2327	2343	2343	2376	2359	2376	2376	2376	2376	2376	2376	2359	2359	2359	2359	2359	2359	2359	2359	2376	2359	2376	2376	2376	2392	2392	2392	2392	2392	2392	2392	2376	2376	2376	2359	2359	2376	2376	2376	2376	2376	2409	2409	2409	2409	2409	2409	2409	2409	2392	2392	2392	2392	2392	2392	2409	2460	2570	2589	2514	2532	2551	2589	2589	2589	2589	2589	2609	2609	2609	2609	2609	2609	2609	2609	2609	2609	2609	2629	2629	2629	2629	2629	2629	3157	3157	3157	3186	3186	3186	3186	3216	3216	3186	3186	3186	3186	3186	3186	3186	3186	3186	3186	3157	3186	3186	3186	3186	3186	3186	3186	3216	3738	3738	3698	3698	3698	3698	3698	3659	3698	3698	3698	3698	3698	3698	3738	3738	3738	3738	3698	3698	3698	3738	3738	3738	3779	3779	3779	3779	3779	3779	3779	3779	3779	3779	3779	3779	3779	3821	3821	3821	3821	3821	3821	3821	3821	3779	3779	3779	3779	3821	3821	3821	3821	3821	3821	3821	3864	3864	3864	3864	3821	3821	3821	3779	3779	3779	3779	3821	3779	3821	3821	3821	3779	3779	3821	3821	3821	3821	3779	3779	3821	3821	3821	3779	3779	3779	3779	3779	3779	3779	3779	3779	3779	3779	3779	3779	3779	3779	3821	3821	3821	3821	3821	3821	3779	3821	3779	3779	3779	3779	3779	3779	3779	3779	3779	3821	3821	3864	3821	3821	3821	3779	3779	3779	3779	3738	3738	3738	3738	3738	3738	3738	3738	3738	3738	3738	3738	3738	3738	3738	3738	3738	3738	3738	3738	3738	3738	3738	3738	3779	3779	3779	3779	3779	3779	3738	3738	3738	3738	3779	3779	3779	3779	3779	3779	3779	3779	3779	3779	3779	3779	3779	3779	3779	3779	3779	3779	3779	3779	3779	3779	3779	3779	3779	3779	3779	3779	3738	3738	3738	3738	3738	3738	3738	3738	3738	3738	3738	3738	3738	3738	3738	3738	3738	3738	3738	3738	3738	3738	3738	3738	3738	3779	3779	3779	3738	3738	3738	3779	3779	3779	3779	3779	3779	3779	3779	3779	3779	3779	3779	3821	3821	3779	3779	3779	3779	3779	3779	3779	3779	3738	3738	3779	3779	3779	3779	3779	3779	3779	3779	3779	3779	3779	3779	3779	3779	3779	3779	3779	3779	3779	3779	3779	3779	3779	3779	3779	3779	3779	3738	3738	3738	3698	3698	3698	3698	3738	3738	3738	3738	3779	3779	3779	3779	3779	3821	3821	3821	3821	3821	3821	3821	3821	3779	3779	3779	3779	3779	3779	3779	3779	3779	3779	3779	3779	3779	3779	3779	3779	3779	3821	3779	3779	3779	3779	3779	3779	3779	3738	3738	3779	3779	3779	3779	3779	3779	3779	3738	3738	3779	3779	3779	3779	3779	3779	3779	3779	3779	3779	3779	3779	3779	3821	3779	3779	3779	0	0	0	0	0	0	0	0	0	0	0	0	0	0	0	0	0	0	0	0	0	0	0	0	0	0	0	0	0	0	0	0	0	0	0	0	0	0	0	0	0	0	0	0	0	0	0	0	0	0	0	0	0	0	0	0	0	0	0	0	0	0	0	0	0	0	0	0	0	0	0	0	0	0	0	0	0	0	0	0	0	0	0	0	0	0	0	0	0	0	0	0	0	0	0	0	0	0	0	0	0	0	0	0	0	0	0	0	0	0	0	0	0	0	0	0	0	0	0	0	0	0	0	0	0	0	0	0	0	0	0	0	0	0	0	0	0	0	0
0	0	0	917	920	920	922	922	922	925	927	932	935	935	948	948	950	953	955	955	958	958	961	969	980	980	980	980	985	988	994	1003	1003	1011	1020	1020	0	0	0	0	2392	2392	2359	2359	2359	2376	2359	2376	2376	2376	2376	2376	2376	2376	2376	2359	2359	2376	2376	2376	2376	2376	2376	2376	2376	2376	2376	2376	2392	2392	2392	2392	2392	2392	2392	2376	2376	2376	2376	2376	2376	2392	2392	2392	2409	2409	2409	2409	2409	2426	2409	2409	2409	2409	2392	2392	2392	2392	2409	2426	2443	2443	2478	2496	2514	2589	2589	2609	2609	2609	2609	2609	2609	2609	2609	2609	2609	2609	2609	2629	2629	2629	2629	2629	2629	2629	2629	3186	3186	3186	3216	3216	3216	3216	3216	3216	3216	3186	3216	3216	3216	3216	3186	3216	3216	3216	3186	3186	3186	3216	3186	3186	3186	3216	3216	3738	3738	3698	3698	3698	3659	3659	3659	3659	3659	3659	3659	3698	3698	3698	3738	3738	3738	3698	3698	3698	3738	3738	3779	3779	3779	3779	3779	3779	3779	3779	3779	3779	3779	3779	3779	3779	3821	3821	3821	3821	3821	3821	3821	3779	3821	3779	3779	3779	3821	3821	3821	3821	3821	3821	3864	3864	3864	3864	3864	3821	3821	3821	3821	3779	3779	3779	3821	3779	3821	3821	3821	3821	3821	3821	3821	3821	3779	3779	3779	3779	3821	3821	3779	3779	3779	3779	3779	3779	3779	3779	3779	3779	3779	3779	3779	3779	3779	3821	3821	3821	3821	3821	3821	3821	3821	3779	3779	3779	3779	3779	3779	3779	3779	3779	3821	3821	3821	3821	3821	3779	3779	3779	3779	3779	3738	3779	3738	3738	3738	3738	3738	3738	3698	3738	3738	3738	3738	3738	3738	3738	3738	3738	3738	3738	3738	3738	3738	3779	3779	3779	3779	3738	3698	3698	3738	3738	3738	3738	3779	3779	3779	3779	3779	3779	3779	3779	3779	3779	3779	3779	3779	3779	3779	3779	3779	3779	3779	3779	3779	3779	3779	3779	3779	3779	3779	3779	3779	3779	3738	3738	3738	3738	3738	3738	3738	3738	3738	3738	3738	3738	3738	3738	3738	3738	3738	3738	3738	3738	3738	3738	3738	3779	3779	3779	3738	3738	3738	3779	3779	3779	3779	3779	3779	3779	3779	3779	3779	3779	3779	3821	3821	3779	3779	3779	3779	3779	3779	3779	3779	3738	3779	3779	3779	3779	3779	3779	3779	3779	3779	3779	3779	3779	3779	3779	3779	3779	3779	3779	3779	3779	3779	3779	3779	3779	3779	3779	3779	3738	3738	3738	3698	3698	3698	3698	3698	3738	3738	3698	3698	3779	3738	3779	3779	3779	3821	3821	3821	3821	3821	3821	3821	3821	3779	3779	3779	3779	3738	3779	3779	3779	3779	3779	3779	3779	3779	3779	3779	3779	3779	3779	3779	3779	3779	3779	3779	3779	3779	3738	3738	3779	3779	3779	3779	3779	3779	3779	3738	3738	3779	3779	3779	3779	3779	3779	3779	3779	3779	3738	3738	3738	3779	3821	3779	3779	3779	0	0	0	0	0	0	0	0	0	0	0	0	0	0	0	0	0	0	0	0	0	0	0	0	0	0	0	0	0	0	0	0	0	0	0	0	0	0	0	0	0	0	0	0	0	0	0	0	0	0	0	0	0	0	0	0	0	0	0	0	0	0	0	0	0	0	0	0	0	0	0	0	0	0	0	0	0	0	0	0	0	0	0	0	0	0	0	0	0	0	0	0	0	0	0	0	0	0	0	0	0	0	0	0	0	0	0	0	0	0	0	0	0	0	0	0	0	0	0	0	0	0	0	0	0	0	0	0	0	0	0	0	0	0	0	0	0	0	0
0	0	0	917	920	920	920	920	922	922	925	937	937	942	942	950	953	953	955	955	955	958	966	969	972	974	977	977	980	980	1000	1000	1003	1011	1011	1020	0	0	0	0	2359	2359	2376	2376	2376	2376	2376	2376	2376	2376	2392	2392	2392	2392	2392	2392	2392	2392	2392	2392	2392	2392	2392	2392	2392	2392	2376	2409	2409	2409	2409	2392	2409	2409	2409	2392	2392	2392	2392	2392	2392	2392	2409	2409	2409	2409	2409	2409	2409	2409	2409	2409	2409	2409	2392	2409	2392	2409	2426	2443	2460	2460	2460	2478	2478	2570	2589	2609	2609	2609	2609	2609	2609	2609	2609	2609	2609	2609	2609	2609	2609	2629	2629	2629	2629	2609	2609	3216	3186	3186	3246	3216	3216	3216	3246	3246	3216	3216	3216	3216	3216	3216	3216	3216	3216	3216	3216	3216	3216	3216	3216	3216	3216	3216	3246	3246	3738	3698	3659	3659	3659	3659	3659	3659	3659	3659	3659	3659	3698	3698	3698	3698	3698	3698	3698	3698	3738	3738	3779	3779	3779	3779	3779	3779	3779	3779	3779	3779	3779	3779	3779	3779	3821	3821	3821	3821	3821	3821	3821	3821	3821	3821	3821	3821	3821	3821	3821	3821	3821	3821	3864	3864	3864	3864	3864	3821	3821	3779	3779	3779	3738	3779	3779	3821	3821	3821	3821	3821	3821	3821	3821	3779	3779	3779	3779	3779	3779	3779	3779	3779	3779	3779	3779	3779	3779	3779	3779	3779	3779	3779	3779	3779	3821	3864	3864	3864	3864	3864	3864	3864	3821	3779	3821	3779	3779	3738	3779	3779	3821	3779	3821	3821	3821	3821	3821	3779	3779	3779	3779	3779	3779	3779	3738	3738	3738	3738	3738	3738	3738	3738	3738	3738	3738	3738	3738	3738	3738	3738	3738	3738	3738	3738	3738	3779	3779	3738	3738	3738	3698	3698	3738	3738	3738	3738	3779	3779	3779	3779	3779	3779	3779	3779	3779	3779	3779	3779	3779	3779	3738	3779	3779	3779	3779	3779	3779	3779	3779	3779	3779	3779	3779	3779	3779	3779	3738	3738	3738	3738	3738	3738	3738	3738	3738	3738	3738	3738	3738	3738	3738	3738	3738	3738	3738	3738	3738	3738	3738	3779	3779	3779	3738	3738	3738	3779	3779	3779	3779	3779	3779	3779	3779	3779	3779	3779	3779	3821	3821	3779	3779	3779	3779	3779	3779	3779	3779	3779	3779	3779	3779	3779	3779	3779	3821	3779	3821	3779	3779	3779	3779	3779	3779	3779	3779	3779	3779	3779	3779	3779	3779	3779	3779	3779	3779	3779	3738	3738	3738	3738	3738	3738	3698	3738	3738	3738	3738	3779	3779	3779	3779	3779	3779	3821	3821	3821	3821	3779	3779	3779	3779	3779	3738	3738	3738	3779	3779	3779	3779	3779	3821	3779	3779	3779	3779	3779	3821	3821	3779	3779	3821	3821	3779	3779	3779	3779	3779	3779	3779	3779	3779	3779	3779	3779	3779	3738	3779	3779	3779	3821	3779	3779	3779	3779	3779	3738	3738	3738	3779	3821	3779	3779	3779	0	0	0	0	0	0	0	0	0	0	0	0	0	0	0	0	0	0	0	0	0	0	0	0	0	0	0	0	0	0	0	0	0	0	0	0	0	0	0	0	0	0	0	0	0	0	0	0	0	0	0	0	0	0	0	0	0	0	0	0	0	0	0	0	0	0	0	0	0	0	0	0	0	0	0	0	0	0	0	0	0	0	0	0	0	0	0	0	0	0	0	0	0	0	0	0	0	0	0	0	0	0	0	0	0	0	0	0	0	0	0	0	0	0	0	0	0	0	0	0	0	0	0	0	0	0	0	0	0	0	0	0	0	0	0	0	0	0	0
0	0	0	917	917	920	920	920	922	922	925	940	942	942	950	953	955	955	958	958	961	966	969	972	974	974	977	980	980	1000	1003	1011	1011	1011	1011	1011	0	0	0	0	2359	2359	2376	2392	2392	2392	2392	2392	2392	2392	2392	2392	2392	2392	2392	2392	2392	2392	2392	2392	2409	2392	2392	2392	2392	2392	2392	2409	2409	2409	2409	2409	2409	2409	2409	2409	2392	2392	2392	2409	2409	2409	2409	2409	2409	2409	2409	2409	2409	2409	2409	2409	2409	2409	2409	2409	2409	2409	2409	2426	2443	2443	2443	2460	2478	2496	2589	2589	2609	2609	2609	2609	2609	2609	2609	2609	2589	2589	2609	2609	2609	2609	2629	2629	2609	2609	2609	3216	3216	3216	3246	3246	3246	3246	3246	3246	3246	3216	3246	3246	3246	3246	3216	3216	3246	3246	3216	3216	3216	3246	3216	3216	3216	3216	3216	3216	3698	3698	3659	3698	3659	3659	3659	3659	3659	3659	3659	3698	3698	3698	3698	3698	3698	3698	3698	3738	3738	3779	3779	3779	3779	3779	3779	3779	3779	3779	3779	3779	3779	3779	3779	3779	3864	3864	3821	3821	3821	3821	3821	3821	3821	3821	3821	3821	3821	3821	3821	3821	3821	3821	3864	3864	3864	3864	3821	3821	3821	3779	3779	3779	3779	3779	3779	3779	3821	3821	3821	3821	3821	3821	3821	3779	3779	3779	3779	3779	3779	3779	3779	3779	3779	3779	3779	3779	3779	3779	3779	3779	3779	3779	3779	3821	3821	3864	3864	3864	3864	3864	3864	3864	0	3779	3779	3738	3738	3738	3779	3779	3779	3779	3779	3821	3821	3821	3821	3779	3779	3821	3779	3779	3779	3779	3779	3738	3738	3738	3738	3738	3738	3738	3738	3738	3738	3738	3738	3738	3738	3738	3738	3738	3738	3738	3738	3738	3779	3738	3738	3738	3698	3738	3738	3738	3738	3738	3779	3779	3779	3779	3779	3779	3779	3738	3738	3779	3779	3779	3779	3779	3738	3779	3779	3779	3779	3779	3779	3779	3779	3779	3779	3779	3779	3779	3779	3779	3738	3738	3738	3738	3738	3738	3738	3738	3738	3738	3738	3738	3738	3738	3738	3738	3738	3738	3738	3738	3779	3738	3738	3779	3779	3779	3738	3738	3738	3779	3738	3738	3779	3779	3738	3779	3779	3779	3779	3779	3779	3779	3779	3779	3779	3779	3779	3779	3779	3779	3779	3779	3779	3779	3779	3779	3779	3779	3779	3779	3779	3779	3779	3779	3779	3779	3779	3779	3779	3779	3779	3779	3779	3779	3779	3779	3779	3779	3779	3779	3779	3738	3738	3738	3738	3738	3738	3738	3738	3738	3738	3779	3779	3779	3779	3779	3821	3821	3821	3821	3821	3779	3779	3779	3779	3738	3779	3738	3779	3779	3779	3779	3779	3779	3779	3779	3779	3779	3779	3779	3779	3779	3779	3779	3821	3821	3779	3779	3738	3738	3738	3738	3738	3738	3738	3779	3779	3779	3779	3738	3779	3779	3779	3779	3779	3779	3738	3779	3738	3738	3738	3738	3779	3779	3779	3779	3779	0	0	0	0	0	0	0	0	0	0	0	0	0	0	0	0	0	0	0	0	0	0	0	0	0	0	0	0	0	0	0	0	0	0	0	0	0	0	0	0	0	0	0	0	0	0	0	0	0	0	0	0	0	0	0	0	0	0	0	0	0	0	0	0	0	0	0	0	0	0	0	0	0	0	0	0	0	0	0	0	0	0	0	0	0	0	0	0	0	0	0	0	0	0	0	0	0	0	0	0	0	0	0	0	0	0	0	0	0	0	0	0	0	0	0	0	0	0	0	0	0	0	0	0	0	0	0	0	0	0	0	0	0	0	0	0	0	0	0
0	0	0	917	917	920	920	920	922	922	925	937	942	940	953	953	955	955	958	958	961	966	972	974	974	977	977	980	980	1000	1006	1008	1011	1008	1008	1008	0	0	0	0	0	0	0	2392	2392	2392	2443	2392	2392	2392	2392	2392	2392	2392	2392	2392	2409	2392	2392	2409	2409	2409	2392	2409	2392	2392	2392	2409	2426	2426	2426	2426	2426	2426	2426	2409	2409	2409	2409	2409	2409	2409	2426	2426	2426	2426	2426	2409	2409	2426	2426	2426	2426	2426	2426	2426	2409	2426	2426	2426	2426	2443	2443	2443	2460	2478	2551	2589	2609	2589	2609	2609	2609	2609	2609	2609	2609	2609	2609	2609	2609	2609	2609	2629	2609	2609	2609	3216	3216	3216	3246	3246	3246	3246	3246	3246	3246	3216	3246	3246	3246	3246	3216	3216	3216	3216	3216	3216	3216	3246	3216	3216	3216	3216	3216	3246	3246	3698	3659	3659	3659	3659	3659	3659	3659	3659	3698	3698	3698	3698	3698	3659	3698	3659	3698	3698	3738	3738	3779	3779	3779	3779	3779	3779	3779	3779	3779	3779	3779	3779	3779	3779	3779	3821	3821	3821	3821	3821	3821	3821	3821	3821	3821	3821	3821	3821	3821	3864	3821	3821	3864	3864	3864	3864	3821	3821	3821	3779	3779	3779	3779	3738	3779	3779	3821	3821	3821	3821	3821	3821	3821	3779	3779	3738	3738	3738	3738	3738	3779	3738	3738	3779	3779	3779	3779	3738	3779	3779	3779	3779	3779	3821	3821	0	0	0	0	3864	3864	3864	0	0	3779	3738	3738	3738	3779	3779	3779	3779	3779	3821	3821	3821	3821	3779	3779	3779	3779	3779	3779	3779	3779	3738	3738	3738	3738	3738	3738	3738	3738	3738	3738	3738	3738	3738	3738	3738	3738	3738	3738	3738	3738	3738	3779	3738	3738	3738	3738	3738	3738	3738	3738	3738	3779	3779	3779	3779	3779	3779	3779	3738	3738	3738	3738	3738	3779	3779	3738	3779	3779	3779	3779	3779	3779	3779	3779	3779	3779	3779	3779	3779	3779	3779	3738	3738	3738	3738	3738	3738	3738	3738	3738	3738	3738	3738	3738	3738	3738	3738	3738	3738	3738	3738	3738	3738	3738	3779	3779	3779	3738	3738	3738	3738	3738	3779	3779	3779	3779	3779	3779	3779	3779	3779	3779	3779	3779	3779	3779	3779	3779	3779	3779	3779	3779	3779	3779	3779	3779	3779	3779	3779	3779	3779	3779	3779	3779	3779	3779	3779	3779	3779	3779	3779	3779	3779	3779	3779	3779	3779	3779	3779	3779	3779	3779	3779	3779	3738	3738	3738	3738	3738	3738	3738	3738	3779	3779	3779	3779	3779	3821	3821	3821	3821	3821	3779	3779	3779	3779	3738	3738	3738	3738	3738	3779	3738	3779	3779	3821	3779	3779	3779	3779	3821	3821	3779	3779	3779	3821	3779	3779	3779	3738	3738	3738	3779	3779	3779	3779	3779	3779	3779	3779	3779	3779	3779	3779	3779	3779	3779	3738	3779	3738	3738	3738	3738	3779	3779	3779	3779	3779	0	0	0	0	0	0	0	0	0	0	0	0	0	0	0	0	0	0	0	0	0	0	0	0	0	0	0	0	0	0	0	0	0	0	0	0	0	0	0	0	0	0	0	0	0	0	0	0	0	0	0	0	0	0	0	0	0	0	0	0	0	0	0	0	0	0	0	0	0	0	0	0	0	0	0	0	0	0	0	0	0	0	0	0	0	0	0	0	0	0	0	0	0	0	0	0	0	0	0	0	0	0	0	0	0	0	0	0	0	0	0	0	0	0	0	0	0	0	0	0	0	0	0	0	0	0	0	0	0	0	0	0	0	0	0	0	0	0	0
0	0	0	917	920	920	920	922	932	935	935	937	940	937	948	950	955	955	958	958	961	963	969	972	974	977	980	983	983	994	1008	1008	1011	1008	1008	1011	1011	1011	0	0	0	0	0	2392	2392	2443	2443	2443	2409	2409	2409	2409	2409	2392	2392	2409	2426	2426	2426	2426	2426	2426	2426	2409	2409	2409	2392	2426	2426	2426	2426	2426	2426	2426	2426	2426	2409	2409	2409	2426	2426	2426	2426	2426	2426	2426	2426	2426	2426	2426	2426	2443	2443	2443	2443	2426	2426	2426	2426	2426	2426	2443	2443	2443	2460	2478	2496	2496	2589	2589	2589	2589	2609	2609	2609	2609	2589	2589	2609	2609	2609	2609	2609	2609	2609	2609	3277	3246	3246	3216	3246	3246	3246	3246	3246	3246	3246	3246	3246	3246	3246	3246	3246	3246	3246	3246	3246	3216	3216	3246	3246	3246	3246	3246	3246	3246	3246	3246	3659	3698	3698	3659	3659	3698	3698	3698	3698	3698	3698	3698	3659	3659	3659	3659	3698	3738	3738	3779	3779	3779	3779	3779	3779	3779	3779	3738	3738	3779	3779	3779	3779	3779	3821	3821	3821	3821	3821	3821	3821	3821	3821	3821	3821	3821	3821	3821	3821	3864	3864	3864	3864	3864	3864	3864	3821	3821	3821	3821	3821	3779	3779	3779	3779	3779	3821	3779	3821	3821	3821	3779	3779	3779	3779	3738	3738	3738	3738	3738	3779	3738	3738	3779	3779	3738	3738	3738	3779	3779	3779	3779	0	0	0	0	0	0	0	0	0	0	0	0	0	0	0	3738	3779	3779	3779	3821	3779	3821	3821	3779	3779	3779	3779	3779	3821	3779	3779	3779	3779	3738	3738	3738	3738	3738	3738	3738	3738	3738	3738	3738	3738	3738	3738	3738	3738	3738	3738	3738	3738	3738	3738	3738	3738	3738	3738	3738	3738	3738	3738	3738	3779	3779	3779	3779	3779	3779	3738	3738	3738	3738	3738	3779	3779	3779	3738	3779	3779	3779	3779	3779	3779	3779	3779	3779	3779	3779	3779	3779	3779	3779	3738	3738	3738	3738	3738	3738	3738	3738	3738	3738	3738	3738	3738	3738	3738	3738	3738	3738	3738	3738	3738	3738	3738	3738	3738	3779	3738	3738	3738	3738	3738	3779	3779	3779	3779	3779	3779	3779	3779	3779	3779	3779	3779	3779	3779	3779	3779	3779	3779	3779	3779	3779	3779	3779	3779	3779	3779	3779	3779	3779	3779	3779	3779	3779	3779	3779	3779	3779	3779	3779	3779	3779	3779	3779	3779	3779	3779	3779	3779	3779	3779	3779	3779	3738	3738	3738	3738	3779	3738	3738	3738	3779	3779	3779	3779	3779	3821	3821	3821	3821	3779	3779	3779	3779	3779	3738	3738	3738	3738	3738	3779	3738	3779	3779	3821	3779	3779	3779	3779	3779	3821	3779	3779	3779	3779	3779	3779	3738	3738	3738	3738	3738	3738	3738	3779	3779	3779	3779	3779	3779	3779	3779	3779	3779	3779	3779	3738	3738	3738	3738	3738	3738	3779	3779	3779	3779	3779	0	0	0	0	0	0	0	0	0	0	0	0	0	0	0	0	0	0	0	0	0	0	0	0	0	0	0	0	0	0	0	0	0	0	0	0	0	0	0	0	0	0	0	0	0	0	0	0	0	0	0	0	0	0	0	0	0	0	0	0	0	0	0	0	0	0	0	0	0	0	0	0	0	0	0	0	0	0	0	0	0	0	0	0	0	0	0	0	0	0	0	0	0	0	0	0	0	0	0	0	0	0	0	0	0	0	0	0	0	0	0	0	0	0	0	0	0	0	0	0	0	0	0	0	0	0	0	0	0	0	0	0	0	0	0	0	0	0	0
0	0	0	917	917	920	920	922	935	935	937	937	940	937	942	948	953	955	955	958	958	963	966	969	972	977	980	980	985	994	1008	1011	1011	1011	1014	1014	1011	1011	0	0	0	0	0	2426	2426	2443	2443	2443	2426	2426	2426	2426	2426	2426	2426	2426	2443	2443	2443	2443	2443	2443	2443	2426	2426	2409	2409	2443	2443	2443	2443	2426	2426	2443	2426	2426	2426	2426	2426	2426	2443	2426	2443	2443	2443	2443	2426	2426	2426	2426	2443	2443	2443	2443	2443	2443	2443	2426	2426	2426	2443	2443	2460	2460	2460	2478	2478	2496	2551	2589	2589	2589	2609	2609	2609	2589	2589	2589	2609	2589	2609	2609	2609	2609	2589	2589	3277	3246	3246	3246	3277	3277	3277	3277	3246	3246	3246	3246	3246	3246	3246	3246	3246	3246	3246	3246	3246	3246	3246	3277	3246	3277	3277	3246	3246	3277	3277	3246	3246	3738	3698	3698	3698	3698	3698	3698	3698	3659	3659	3698	3659	3659	3698	3698	3738	3738	3779	3779	3779	3821	3779	3779	3779	3779	3779	3738	3738	3779	3779	3779	3779	3779	3821	3821	3821	3821	3821	3821	3821	3821	3821	3821	3864	3864	3821	3821	3864	3864	3864	3821	3821	3821	3821	3821	3821	3779	3779	3779	3779	3779	3779	3779	3779	3779	3821	3779	3821	3821	3821	3821	3821	3779	3779	3779	3738	3738	3738	3738	3779	3738	3738	3779	3738	3738	3738	3698	3738	3698	3698	0	0	0	0	0	0	0	0	0	0	0	0	0	0	0	0	0	0	0	0	3821	3779	3779	3779	3779	3779	3779	3779	3779	3779	3779	3779	3821	3779	3738	3738	3738	3738	3738	3738	3738	3738	3738	3738	3738	3738	3738	3738	3738	3738	3738	3738	3738	3738	3738	3738	3738	3738	3698	3698	3738	3738	3738	3738	3738	3779	3779	3779	3779	3779	3779	3779	3738	3738	3738	3738	3779	3779	3779	3738	3779	3779	3779	3779	3779	3779	3779	3779	3779	3779	3779	3779	3779	3779	3779	3738	3738	3738	3738	3738	3738	3738	3738	3738	3738	3738	3738	3738	3738	3738	3738	3738	3738	3738	3738	3738	3738	3738	3779	3779	3779	3738	3738	3738	3738	3738	3779	3779	3779	3779	3779	3779	3779	3779	3779	3779	3779	3779	3779	3779	3779	3779	3779	3779	3779	3779	3779	3779	3779	3779	3779	3779	3779	3779	3779	3779	3779	3779	3738	3779	3738	3738	3738	3738	3779	3779	3779	3779	3779	3779	3779	3779	3779	3779	3779	3779	3779	3779	3738	3738	3738	3738	3779	3779	3738	3738	3779	3779	3779	3779	3779	3779	3821	3779	3779	3779	3779	3779	3779	3738	3738	3738	3738	3738	3738	3738	3738	3779	3779	3779	3779	3779	3779	3779	3779	3779	3779	3779	3779	3779	3779	3779	3738	3738	3738	3738	3738	3738	3738	3779	3779	3779	3821	3821	3779	3779	3779	3779	3779	3779	3738	3738	3738	3738	3738	3738	3738	3779	3779	3779	3779	3779	0	0	0	0	0	0	0	0	0	0	0	0	0	0	0	0	0	0	0	0	0	0	0	0	0	0	0	0	0	0	0	0	0	0	0	0	0	0	0	0	0	0	0	0	0	0	0	0	0	0	0	0	0	0	0	0	0	0	0	0	0	0	0	0	0	0	0	0	0	0	0	0	0	0	0	0	0	0	0	0	0	0	0	0	0	0	0	0	0	0	0	0	0	0	0	0	0	0	0	0	0	0	0	0	0	0	0	0	0	0	0	0	0	0	0	0	0	0	0	0	0	0	0	0	0	0	0	0	0	0	0	0	0	0	0	0	0	0	0
0	0	0	917	920	920	920	922	932	935	935	937	940	937	940	945	953	953	958	961	961	961	963	969	969	977	980	983	985	985	1011	1011	1011	1011	1011	1011	0	0	0	0	0	0	0	2426	2443	2443	2460	2443	2443	2443	2443	2443	2443	2426	2443	2443	2443	2443	2443	2443	2443	2443	2443	2443	2443	2426	2426	2460	2460	2460	2460	2443	2443	2460	2443	2443	2426	2426	2443	2443	2460	2443	2443	2460	2460	2443	2443	2426	2426	2443	2460	2460	2460	2460	2460	2443	2443	2426	2426	2426	2443	2443	2460	2460	2460	2478	2478	2496	2532	2589	2589	2589	2609	2609	2589	2589	2589	2589	2589	2589	2589	2609	2609	2609	2609	3309	3277	3277	3277	3246	3309	3277	3277	3277	3277	3277	3246	3246	3246	3246	3246	3246	3246	3246	3246	3277	3277	3277	3246	3277	3277	3309	3277	3277	3277	3309	3277	3246	3277	3779	3738	3738	3698	3738	3738	3698	3698	3698	3698	3698	3698	3659	3698	3698	3738	3738	3779	3779	3779	3821	3779	3779	3779	3779	3779	3738	3738	3779	3779	3779	3779	3779	3821	3821	3821	3821	3821	3821	3821	3821	3821	3821	3821	3821	3821	3821	3821	3821	3821	3821	3821	3821	3821	3821	3821	3779	3779	3779	3779	3779	3779	3779	3779	3779	3779	3779	3779	3821	3779	3779	3779	3779	3779	3779	3779	3779	3738	3779	3779	3779	3779	3779	3738	3738	3738	3698	3698	3698	3698	0	0	0	0	0	0	0	0	0	0	0	0	0	0	0	0	0	0	0	0	0	3779	3779	3779	3779	3779	3738	3738	3738	3779	3779	3779	3821	3779	3779	3779	3738	3738	3738	3738	3738	3779	3738	3738	3738	3738	3738	3738	3738	3738	3738	3738	3738	3738	3738	3738	3738	3738	3738	3738	3738	3738	3738	3738	3738	3738	3779	3779	3779	3779	3779	3779	3738	3738	3738	3738	3779	3779	3779	3738	3779	3779	3779	3779	3779	3779	3779	3779	3779	3779	3779	3779	3779	3779	3779	3779	3738	3738	3738	3738	3738	3738	3738	3738	3738	3738	3738	3738	3738	3738	3738	3738	3738	3738	3738	3738	3738	3738	3779	3779	3779	3779	3779	3738	3738	3738	3779	3779	3779	3779	3779	3779	3779	3779	3779	3779	3779	3779	3779	3779	3779	3779	3779	3779	3779	3779	3779	3779	3779	3779	3779	3779	3779	3779	3779	3779	3779	3779	3738	3738	3738	3738	3738	3738	3779	3779	3779	3779	3779	3779	3779	3779	3779	3779	3738	3738	3738	3738	3738	3738	3738	3779	3779	3779	3779	3738	3779	3779	3779	3779	3779	3779	3821	3779	3779	3779	3779	3779	3738	3738	3738	3738	3738	3738	3738	3738	3738	3738	3738	3779	3779	3779	3779	3779	3779	3779	3779	3738	3779	3779	3779	3738	3738	3738	3738	3738	3738	3738	3779	3779	3779	3779	3821	3821	3779	3779	3738	3738	3779	3738	3738	3698	3698	3698	3698	3698	3738	3779	3779	3779	3779	3779	0	0	0	0	0	0	0	0	0	0	0	0	0	0	0	0	0	0	0	0	0	0	0	0	0	0	0	0	0	0	0	0	0	0	0	0	0	0	0	0	0	0	0	0	0	0	0	0	0	0	0	0	0	0	0	0	0	0	0	0	0	0	0	0	0	0	0	0	0	0	0	0	0	0	0	0	0	0	0	0	0	0	0	0	0	0	0	0	0	0	0	0	0	0	0	0	0	0	0	0	0	0	0	0	0	0	0	0	0	0	0	0	0	0	0	0	0	0	0	0	0	0	0	0	0	0	0	0	0	0	0	0	0	0	0	0	0	0	0
0	0	0	917	920	922	922	925	935	935	937	937	940	940	945	948	950	953	958	963	961	966	969	969	972	974	980	988	988	1006	1011	1011	1011	1011	1011	1011	0	0	0	0	0	0	0	2443	2443	2460	2460	2460	2460	2460	2460	2460	2460	2443	2443	2443	2460	2460	2460	2460	2460	2460	2443	2443	2460	2443	2443	2478	2478	2478	2460	2460	2460	2460	2460	2443	2443	2443	2460	2460	2460	2460	2460	2460	2460	2460	2443	2443	2443	2443	2460	2460	2460	2460	2460	2460	2460	2460	2443	2443	2443	2443	2460	2460	2460	2478	2478	2496	2514	2551	2589	2589	2589	2609	2609	2589	2589	2589	2589	2589	2589	2609	2609	2609	2609	3309	3309	3277	3277	3277	3309	3277	3277	3277	3277	3277	3246	3246	3246	3246	3277	3277	3246	3277	3277	3277	3277	3277	3277	3309	3309	3309	3309	3309	3309	3309	3309	3277	3277	3277	3738	3698	3698	3698	3738	3698	3698	3698	3698	3698	3659	3659	3698	3698	3738	3738	3779	3779	3779	3779	3779	3779	3779	3779	3779	3779	3779	3779	3779	3779	3779	3779	3821	3821	3821	3821	3821	3821	3821	3821	3821	3821	3821	3821	3821	3821	3864	3821	3864	3821	3821	3821	3821	3821	3821	3779	3779	3779	3779	3779	3779	3779	3779	3779	3779	3779	3779	3779	3779	3779	3779	3779	3779	3779	3779	3779	3779	3779	3779	3779	3779	3738	3738	3738	3738	3738	3698	0	0	0	0	3216	3246	3277	3277	3277	3277	3277	3277	3277	3277	3309	3309	0	0	0	0	0	0	0	0	0	3779	3738	3779	3779	3738	3779	3779	3779	3779	3821	3779	3779	3779	3738	3738	3738	3738	3738	3779	3738	3738	3738	3738	3738	3738	3738	3738	3738	3738	3738	3738	3738	3738	3738	3738	3738	3738	3738	3738	3738	3738	3738	3779	3779	3779	3779	3779	3779	3779	3779	3779	3738	3738	3779	3779	3738	3738	3738	3779	3779	3779	3779	3779	3779	3779	3779	3779	3779	3779	3779	3779	3779	3779	3738	3738	3738	3738	3738	3738	3738	3738	3738	3738	3738	3738	3738	3738	3779	3738	3738	3738	3738	3738	3738	3738	3738	3779	3779	3738	3738	3738	3738	3738	3779	3779	3779	3779	3779	3779	3779	3779	3779	3779	3779	3779	3779	3779	3779	3779	3779	3779	3779	3779	3779	3779	3779	3738	3738	3738	3738	3698	3738	3738	3738	3738	3738	3738	3738	3738	3738	3738	3779	3779	3779	3779	3779	3779	3779	3779	3779	3779	3738	3738	3738	3738	3738	3738	3738	3779	3779	3779	3779	3738	3779	3779	3821	3779	3779	3779	3821	3779	3779	3779	3779	3779	3738	3738	3738	3738	3738	3698	3738	3738	3738	3738	3738	3779	3779	3779	3779	3779	3779	3779	3779	3738	3738	3779	3779	3738	3738	3738	3738	3738	3738	3738	3779	3779	3821	3779	3821	3821	3779	3779	3738	3738	3738	3738	3738	3698	3698	3738	3738	3698	3698	3738	3779	3779	3738	3738	0	0	0	0	0	0	0	0	0	0	0	0	0	0	0	0	0	0	0	0	0	0	0	0	0	0	0	0	0	0	0	0	0	0	0	0	0	0	0	0	0	0	0	0	0	0	0	0	0	0	0	0	0	0	0	0	0	0	0	0	0	0	0	0	0	0	0	0	0	0	0	0	0	0	0	0	0	0	0	0	0	0	0	0	0	0	0	0	0	0	0	0	0	0	0	0	0	0	0	0	0	0	0	0	0	0	0	0	0	0	0	0	0	0	0	0	0	0	0	0	0	0	0	0	0	0	0	0	0	0	0	0	0	0	0	0	0	0	0
0	0	0	920	920	922	925	925	927	932	935	937	940	940	945	948	950	953	958	963	966	969	969	972	972	977	983	988	991	1008	1011	1011	1011	1008	1008	1011	0	0	0	0	0	0	2460	2460	2460	2460	2478	2460	2478	2460	2460	2460	2460	2460	2460	2460	2460	2460	2460	2460	2460	2460	2460	2460	2460	2460	2460	2460	2478	2478	2478	2478	2478	2478	2460	2460	2460	2460	2478	2478	2478	2478	2460	2460	2478	2460	2460	2443	2443	2460	2460	2460	2460	2460	2460	2460	2460	2460	2460	2460	2460	2460	2460	2460	2478	2478	2478	2496	2532	2532	2570	2589	2589	2589	2589	2589	2589	2570	2570	2589	2589	2609	2609	2609	2609	3309	3309	3277	3277	3277	3309	3309	3309	3277	3309	3309	3277	3246	3277	3277	3277	3277	3277	3277	3277	3309	3309	3309	3309	3341	3341	3341	3341	3341	3341	3341	3309	3277	3277	3277	3698	3698	3698	3698	3738	3698	3698	3698	3698	3698	3659	3659	3698	3698	3698	3738	3779	3779	3779	3779	3779	3779	3779	3779	3779	3738	3738	3779	3779	3779	3779	3779	3821	3821	3821	3821	3821	3821	3821	3821	3821	3821	3821	3821	3821	3821	3864	3821	3821	3821	3821	3821	3821	3821	3821	3779	3779	3779	3779	3779	3779	3779	3779	3779	3779	3779	3779	3779	3779	3779	3779	3779	3779	3779	3779	3779	3738	3779	3779	3779	3779	3738	3738	3738	3738	3738	0	0	0	3216	3216	3216	3246	3277	3277	3246	3277	3277	3277	3277	3277	3277	3277	3277	3277	0	0	0	0	0	0	0	0	3738	3738	3779	3779	3779	3779	3779	3779	3821	3779	3779	3779	3779	3738	3738	3738	3738	3738	3738	3738	3738	3738	3738	3738	3738	3738	3738	3738	3738	3738	3738	3738	3738	3738	3738	3738	3738	3738	3738	3738	3738	3779	3779	3779	3779	3779	3779	3779	3779	3779	3738	3779	3779	3779	3738	3738	3738	3779	3779	3779	3779	3779	3779	3779	3779	3779	3779	3779	3779	3779	3779	3738	3779	3738	3779	3738	3738	3738	3738	3738	3738	3738	3738	3738	3738	3779	3779	3738	3779	3738	3738	3738	3738	3738	3738	3738	3738	3738	3738	3738	3738	3738	3779	3779	3779	3779	3779	3779	3779	3779	3779	3779	3779	3779	3779	3779	3779	3779	3779	3779	3779	3779	3779	3779	3738	3738	3738	3738	3698	3698	3698	3698	3698	3738	3738	3738	3738	3738	3738	3738	3738	3738	3779	3779	3779	3779	3779	3779	3779	3779	3779	3779	3738	3738	3738	3779	3738	3779	3779	3779	3779	3779	3779	3821	3821	3779	3779	3779	3779	3779	3779	3779	3779	3779	3738	3738	3738	3738	3738	3738	3738	3738	3738	3738	3738	3779	3779	3779	3779	3779	3779	3779	3779	3738	3779	3779	3779	3738	3738	3738	3738	3738	3738	3738	3738	3738	3779	3779	3821	3821	3779	3779	3738	3738	3738	3738	3738	3698	3698	3698	3738	3738	3738	3779	3779	3779	3779	3779	0	0	0	0	0	0	0	0	0	0	0	0	0	0	0	0	0	0	0	0	0	0	0	0	0	0	0	0	0	0	0	0	0	0	0	0	0	0	0	0	0	0	0	0	0	0	0	0	0	0	0	0	0	0	0	0	0	0	0	0	0	0	0	0	0	0	0	0	0	0	0	0	0	0	0	0	0	0	0	0	0	0	0	0	0	0	0	0	0	0	0	0	0	0	0	0	0	0	0	0	0	0	0	0	0	0	0	0	0	0	0	0	0	0	0	0	0	0	0	0	0	0	0	0	0	0	0	0	0	0	0	0	0	0	0	0	0	0	0
0	0	0	922	922	925	930	930	932	932	935	937	937	937	942	948	950	950	958	966	966	969	972	974	974	977	985	991	991	997	1003	1003	1000	1003	1003	0	0	0	0	0	0	0	2478	2478	2460	2478	2478	2478	2478	2478	2460	2460	2478	2460	2478	2460	2478	2478	2478	2478	2478	2460	2460	2460	2460	2460	2460	2460	2478	2478	2478	2478	2478	2478	2478	2460	2478	2460	2478	2478	2478	2478	2478	2478	2478	2460	2460	2460	2460	2460	2460	2460	2460	2478	2478	2478	2478	2460	2460	2460	2460	2460	2460	2460	2478	2478	2496	2496	2514	2532	2551	2570	2570	2589	2589	2589	2589	2589	2589	2589	2589	2609	2609	2609	2609	3309	3309	3277	3277	3277	3309	3309	3309	3309	3309	3309	3277	3277	3277	3277	3277	3277	3277	3277	3309	3309	3309	3309	3309	3341	3341	3341	3341	3341	3341	3341	3341	3309	3309	3309	3621	3621	3659	3698	3698	3698	3698	3698	3698	3698	3698	3698	3698	3698	3698	3738	3779	3779	3779	3779	3779	3779	3779	3779	3779	3738	3738	3738	3779	3779	3779	3779	3821	3821	3821	3821	3821	3821	3821	3821	3821	3821	3821	3821	3821	3821	3864	3821	3821	3821	3821	3821	3821	3821	3821	3779	3779	3779	3779	3779	3779	3779	3779	3779	3779	3779	3779	3779	3779	3779	3779	3779	3779	3779	3779	3779	3779	3779	3779	3779	3779	3738	3738	3738	3738	0	0	0	3216	3216	3216	3246	3246	3277	3277	3277	3277	3277	3277	3277	3277	3246	3246	3246	3246	3246	0	0	0	0	0	0	0	3738	3738	3779	3738	3779	3779	3779	3779	3821	3779	3779	3779	3779	3779	3738	3738	3738	3738	3738	3738	3738	3738	3779	3738	3779	3738	3738	3738	3738	3738	3738	3738	3738	3738	3738	3738	3738	3738	3738	3738	3738	3779	3779	3779	3779	3779	3779	3779	3779	3779	3779	3779	3779	3779	3738	3738	3738	3779	3779	3779	3779	3779	3779	3779	3779	3779	3779	3779	3779	3779	3779	3738	3779	3738	3779	3738	3779	3738	3738	3738	3738	3738	3738	3738	3779	3779	3779	3779	3779	3738	3738	3738	3738	3738	3738	3738	3738	3738	3738	3738	3738	3738	3779	3779	3779	3779	3779	3779	3779	3779	3779	3779	3779	3779	3779	3779	3779	3779	3779	3779	3779	3779	3779	3779	3779	3738	3738	3738	3698	3698	3698	3698	3738	3738	3738	3738	3738	3738	3738	3779	3779	3779	3779	3779	3779	3779	3779	3779	3779	3779	3738	3738	3738	3738	3738	3779	3779	3779	3779	3779	3779	3779	3821	3821	3821	3779	3779	3779	3779	3779	3779	3779	3779	3779	3738	3738	3738	3738	3738	3738	3738	3738	3738	3738	3738	3779	3779	3779	3738	3779	3779	3779	3779	3779	3738	3779	3779	3738	3738	3738	3738	3738	3738	3738	3779	3779	3779	3779	3821	3821	3779	3779	3738	3738	3738	3738	3738	3698	3698	3738	3738	3738	3738	3779	3779	3779	3779	3779	0	0	0	0	0	0	0	0	0	0	0	0	0	0	0	0	0	0	0	0	0	0	0	0	0	0	0	0	0	0	0	0	0	0	0	0	0	0	0	0	0	0	0	0	0	0	0	0	0	0	0	0	0	0	0	0	0	0	0	0	0	0	0	0	0	0	0	0	0	0	0	0	0	0	0	0	0	0	0	0	0	0	0	0	0	0	0	0	0	0	0	0	0	0	0	0	0	0	0	0	0	0	0	0	0	0	0	0	0	0	0	0	0	0	0	0	0	0	0	0	0	0	0	0	0	0	0	0	0	0	0	0	0	0	0	0	0	0	0
0	0	0	922	925	927	927	932	932	935	937	937	937	940	942	945	948	950	955	963	966	969	972	974	974	980	985	991	991	997	1000	1000	1000	1000	1000	0	0	0	0	0	0	0	2496	2496	2478	2478	2496	2478	2496	2478	2478	2478	2496	2496	2496	2496	2496	2496	2496	2496	2478	2478	2478	2478	2478	2478	2478	2478	2496	2496	2496	2496	2478	2496	2478	2478	2478	2478	2478	2478	2478	2478	2478	2478	2478	2478	2478	2478	2460	2478	2478	2478	2460	2478	2478	2478	2478	2478	2478	2460	2478	2478	2478	2478	2478	2478	2496	2496	2514	2532	2551	2570	2570	2589	2589	2589	2589	2589	2589	2589	2589	2589	2609	2609	2609	3309	3309	3309	3309	3277	3309	3309	3309	3309	3341	3309	3341	3309	3309	3309	3309	3309	3309	3309	3309	3309	3341	3341	3341	3341	3341	3341	3341	3341	3341	3341	3341	3341	3341	3341	3373	3583	3659	3698	3698	3698	3698	3698	3698	3698	3698	3698	3698	3698	3698	3738	3738	3779	3779	3779	3779	3738	3738	3779	3738	3738	3738	3738	3779	3779	3779	3779	3821	3821	3821	3821	3821	3821	3821	3821	3821	3821	3821	3821	3821	3821	3821	3821	3821	3821	3821	3821	3821	3821	3821	3779	3821	3821	3821	3821	3779	3779	3779	3779	3779	3779	3779	3779	3779	3779	3779	3779	3779	3821	3779	3779	3779	3779	3779	3779	3779	3738	3738	3738	0	0	0	3246	3246	3246	3246	3246	3246	3277	3277	3277	3277	3277	3277	3246	3246	3246	3246	3246	3216	3216	3246	3246	0	0	0	0	0	3738	3738	3738	3738	3738	3779	3779	3779	3779	3779	3779	3779	3779	3779	3738	3738	3779	3779	3738	3738	3738	3738	3738	3738	3738	3738	3738	3738	3738	3738	3738	3738	3738	3738	3738	3738	3738	3738	3738	3738	3738	3779	3779	3779	3821	3779	3779	3779	3779	3779	3779	3779	3779	3779	3738	3738	3738	3738	3779	3779	3779	3779	3779	3779	3779	3779	3779	3738	3738	3738	3779	3738	3738	3738	3779	3738	3779	3738	3738	3738	3738	3738	3779	3779	3779	3779	3779	3779	3779	3738	3738	3738	3738	3738	3738	3738	3738	3738	3738	3738	3779	3779	3779	3779	3779	3779	3779	3779	3779	3779	3779	3779	3779	3779	3779	3779	3779	3779	3779	3779	3779	3779	3779	3779	3779	3738	3738	3738	3698	3698	3698	3698	3698	3738	3738	3738	3738	3738	3738	3779	3779	3779	3779	3779	3779	3779	3779	3779	3779	3738	3738	3738	3738	3738	3738	3779	3779	3779	3779	3779	3779	3779	3821	3821	3779	3779	3779	3779	3779	3779	3738	3738	3738	3779	3738	3738	3738	3779	3738	3738	3738	3738	3738	3738	3738	3779	3779	3738	3738	3779	3779	3779	3779	3779	3738	3738	3738	3738	3738	3738	3738	3779	3779	3779	3779	3738	3779	3779	3779	3779	3779	3779	3738	3738	3738	3738	3738	3698	3698	3738	3738	3738	3738	3779	3779	3779	3779	3779	0	0	0	0	0	0	0	0	0	0	0	0	0	0	0	0	0	0	0	0	0	0	0	0	0	0	0	0	0	0	0	0	0	0	0	0	0	0	0	0	0	0	0	0	0	0	0	0	0	0	0	0	0	0	0	0	0	0	0	0	0	0	0	0	0	0	0	0	0	0	0	0	0	0	0	0	0	0	0	0	0	0	0	0	0	0	0	0	0	0	0	0	0	0	0	0	0	0	0	0	0	0	0	0	0	0	0	0	0	0	0	0	0	0	0	0	0	0	0	0	0	0	0	0	0	0	0	0	0	0	0	0	0	0	0	0	0	0	0
0	0	0	925	925	927	927	927	932	935	937	937	937	940	945	945	948	950	955	963	963	966	972	974	977	983	985	988	997	1000	1000	1003	1003	1003	1000	0	0	0	0	0	0	0	2514	2514	2514	2496	2514	2496	2496	2478	2478	2478	2496	2496	2496	2496	2514	2496	2496	2496	2478	2478	2478	2478	2478	2478	2478	2478	2496	2496	2496	2514	2496	2496	2496	2496	2496	2496	2496	2496	2496	2496	2478	2496	2478	2478	2478	2478	2478	2478	2478	2478	2478	2478	2478	2478	2478	2478	2478	2478	2478	2478	2478	2478	2496	2496	2496	2514	2514	2532	2570	2570	2570	2589	2589	2589	2589	2589	2589	2589	2589	2589	2609	2609	3309	3309	3309	3309	3309	3309	3341	3341	3341	3341	3341	3341	3341	3341	3341	3373	3373	3373	3373	3341	3373	3341	3373	3341	3341	3341	3341	3341	3341	3341	3373	3373	3341	3341	3341	3373	3406	3510	3621	3659	3659	3659	3659	3698	3698	3698	3659	3698	3698	3698	3698	3698	3738	3738	3738	3738	3738	3738	3738	3738	3738	3738	3738	3738	3779	3779	3738	3779	3821	3821	3821	3821	3821	3821	3821	3821	3821	3821	3821	3821	3821	3821	3821	3821	3821	3821	3821	3821	3821	3821	3821	3779	3821	3821	3821	3821	3821	3821	3779	3779	3779	3738	3779	3779	3738	3738	3779	3779	3779	3821	3821	3779	3779	3779	3779	3779	3779	3738	3738	3738	0	0	0	3246	3246	3246	3246	3246	3246	3277	3277	3277	3277	3277	3246	3246	3246	3246	3246	3246	3216	3246	3246	3246	3246	0	0	0	0	0	3738	3738	3738	3779	3779	3779	3779	3779	3779	3738	3779	3779	3779	3738	3738	3779	3779	3738	3738	3738	3738	3738	3738	3779	3779	3738	3738	3738	3738	3738	3738	3738	3738	3738	3738	3738	3738	3738	3738	3738	3779	3779	3779	3779	3779	3779	3779	3779	3779	3779	3779	3779	3779	3738	3738	3738	3738	3779	3779	3779	3779	3779	3779	3779	3779	3779	3779	3779	3738	3779	3738	3779	3779	3779	3738	3738	3738	3738	3779	3779	3738	3779	3779	3779	3779	3779	3738	3779	3738	3738	3738	3738	3738	3738	3738	3738	3738	3738	3738	3738	3738	3779	3779	3779	3779	3779	3779	3779	3779	3779	3779	3779	3779	3779	3779	3779	3779	3779	3779	3779	3779	3779	3779	3779	3779	3738	3738	3738	3698	3698	3698	3698	3738	3738	3738	3738	3738	3738	3779	3779	3779	3779	3779	3779	3779	3779	3738	3738	3738	3738	3738	3698	3738	3738	3738	3779	3779	3779	3779	3779	3779	3821	3821	3821	3779	3779	3779	3738	3779	3779	3779	3738	3779	3738	3738	3738	3738	3738	3738	3738	3738	3738	3738	3698	3738	3779	3738	3738	3738	3779	3779	3779	3779	3738	3738	3779	3779	3738	3738	3738	3779	3779	3779	3779	3779	3779	3779	3821	3821	3779	3779	3779	3779	3738	3738	3738	3698	3698	3698	3738	3738	3698	3779	3779	3779	3779	3779	0	0	0	0	0	0	0	0	0	0	0	0	0	0	0	0	0	0	0	0	0	0	0	0	0	0	0	0	0	0	0	0	0	0	0	0	0	0	0	0	0	0	0	0	0	0	0	0	0	0	0	0	0	0	0	0	0	0	0	0	0	0	0	0	0	0	0	0	0	0	0	0	0	0	0	0	0	0	0	0	0	0	0	0	0	0	0	0	0	0	0	0	0	0	0	0	0	0	0	0	0	0	0	0	0	0	0	0	0	0	0	0	0	0	0	0	0	0	0	0	0	0	0	0	0	0	0	0	0	0	0	0	0	0	0	0	0	0	0
