0	0	0	0	945	948	948	948	950	953	953	955	955	961	961	961	972	972	977	977	977	983	983	985	985	991	994	994	997	1000	1003	1003	1006	1006	1020	1026	1036	1036	1042	1039	1045	1061	1064	1071	1074	1074	1074	0	0	0	0	0	0	2669	2649	2649	2629	2629	2609	2609	2589	2589	2589	2589	2589	2570	2589	2589	2589	2570	2570	2570	2570	2570	2589	2570	2589	2570	2570	2570	2570	2589	2589	2609	2609	2609	2609	2609	2589	2570	2570	2570	2589	2589	2589	2589	2589	2609	2589	2589	2589	2609	2609	2589	2589	2570	2570	2570	2570	2570	2570	2570	2570	2570	2570	2570	2570	2570	2551	2551	2551	2551	2551	2669	2669	2669	2690	2690	2690	3475	3510	3546	3546	3583	3583	3583	3583	3583	3546	3583	3621	3583	3583	3583	3583	3583	3583	3583	3583	3546	3546	3546	3546	3546	3546	3546	3546	3546	3546	3546	3546	3546	3546	3546	3546	3583	3583	3583	3583	3621	3621	3621	3621	3621	3621	3659	3659	3659	3698	3738	3738	3738	3738	3738	3738	3738	3738	3738	3779	3779	3779	3779	3779	3779	3779	3779	3779	3779	3779	3821	3779	3779	3779	3779	3779	3779	3779	3779	3779	3779	3779	3779	3779	3779	3779	3779	3779	3779	3738	3738	3738	3738	3738	3738	3738	3738	3738	3779	3738	3779	3738	3738	3698	3698	3698	3698	3698	3698	3698	3738	3698	3698	3698	3698	3698	3698	3698	3698	3738	3738	3738	3738	3738	3738	3738	3698	3738	3738	3738	3738	3738	3738	3779	3779	3779	3738	3738	3738	3738	3738	3738	3738	3738	3738	3738	3738	3738	3738	3738	3738	3738	3738	3738	2942	2967	2967	2967	2942	2942	2967	2942	2942	2942	2942	2942	2917	2893	2893	2893	2893	2869	2869	2869	2869	2869	2869	2869	2869	2869	2869	2869	2869	2893	2893	2893	2893	2893	2893	2893	2893	2893	2893	2893	2893	2917	2917	2917	2917	2917	2917	2917	2917	2917	2917	2917	2917	2917	2893	2893	2893	2893	2893	2893	2893	2893	2917	2917	2893	2893	3698	3698	3698	3698	3738	3738	3738	3738	3738	3738	3698	3738	3738	3738	3738	3738	3738	3738	3698	3698	3698	3738	3779	3779	3779	3779	3779	3779	3779	3779	3779	3779	3779	3738	3738	3738	3698	3738	3738	3738	3738	3738	3698	3698	3738	3738	3738	3738	3738	3738	3738	3738	3738	3738	3738	3738	3738	3738	3738	3738	3738	3738	3738	3738	3738	3738	3738	3738	3738	3698	3698	3698	3698	3698	3698	3698	3698	3738	3698	3698	3698	3738	3698	3698	3738	3698	3738	3738	3779	3779	3779	3738	3738	3779	3738	3779	3779	3779	3779	3779	3779	3779	3779	3738	3698	3698	3698	3698	3698	3698	3698	3698	3698	3698	3698	3698	3698	3698	3698	3698	3738	3738	3738	3738	3698	3698	3698	3698	3698	3698	3698	3698	3738	3698	3698	3698	3698	3738	3738	3738	3738	3738	3738	3738	3738	3738	3738	3738	3738	3738	3738	3698	3698	3698	3738	0	0	0	0	0	0	0	0	0	0	0	0	0	0	0	0	0	0	0	0	0	0	0	0	0	0	0	0	0	0	0	0	0	0	0	0	0	0	0	0	0	0	0	0	0	0	0	0	0	0	0	0	0	0	0	0	0	0	0	0	0	0	0	0	0	0	0	0	0	0	0	0	0	0	0	0	0	0	0	0	0	0	0	0	0	0	0	0	0	0	0	0	0	0	0	0	0	0	0	0	0	0	0	0	0	0	0	0	0	0	0	0	0	0	0	0	0	0	0	0	0	0	0	0	0	0	0	0	0	0	0	0	0	0	0	0
0	0	0	0	948	948	948	950	953	955	955	955	958	961	963	963	969	972	974	977	977	983	983	985	988	991	994	994	997	1000	1003	1003	1008	1017	1023	1030	1036	1036	1039	1039	1039	1071	1068	1071	1074	1074	1074	0	0	0	0	0	0	2629	2629	2629	2629	2609	2609	2609	2589	2589	2589	2589	2589	2570	2589	2570	2570	2570	2570	2570	2570	2570	2570	2589	2589	2570	2570	2570	2570	2589	2589	2609	2609	2609	2609	2589	2589	2570	2570	2570	2570	2570	2589	2589	2589	2609	2609	2609	2589	2609	2609	2589	2589	2570	2570	2570	2570	2570	2551	2551	2570	2570	2570	2551	2551	2551	2551	2551	2551	2551	2629	2669	2669	2690	2690	2690	2690	2690	3583	3583	3583	3583	3583	3583	3621	3583	3583	3583	3621	3621	3621	3621	3621	3583	3583	3583	3583	3583	3583	3583	3583	3583	3546	3546	3546	3546	3546	3546	3546	3546	3546	3546	3546	3583	3583	3583	3583	3621	3621	3621	3621	3621	3621	3659	3659	3659	3698	3738	3738	3738	3738	3738	3738	3738	3738	3779	3779	3779	3779	3779	3779	3779	3738	3738	3738	3738	3779	3821	3821	3821	3779	3779	3779	3779	3779	3779	3779	3779	3738	3779	3738	3779	3779	3779	3779	3779	3779	3738	3738	3779	3779	3779	3779	3779	3779	3779	3779	3779	3779	3738	3698	3738	3738	3698	3698	3698	3698	3738	3698	3698	3698	3698	3698	3698	3698	3698	3698	3698	3698	3738	3738	3738	3738	3738	3779	3738	3738	3779	3738	3738	3779	3738	3738	3738	3738	3738	3738	3738	3738	3738	3738	3738	3738	3738	3738	3738	3738	2942	2942	2942	2942	2967	2967	2967	2967	2967	2942	2942	2942	2942	2942	2942	2942	2917	2893	2893	2893	2893	2893	2869	2893	2869	2893	2893	2869	2869	2869	2869	2869	2869	2893	2893	2893	2893	2893	2893	2893	2893	2893	2893	2893	2893	2893	2893	2893	2893	2917	2917	2917	2893	2893	2893	2893	2893	2893	2893	2893	2893	2893	2893	2893	2893	2893	2893	2893	2893	2893	2893	3698	3698	3738	3738	3738	3738	3738	3738	3738	3738	3738	3738	3738	3738	3738	3738	3738	3698	3698	3738	3738	3779	3779	3779	3779	3779	3779	3779	3779	3779	3779	3779	3738	3738	3738	3738	3738	3738	3738	3738	3738	3738	3738	3738	3738	3738	3698	3698	3738	3738	3738	3738	3738	3738	3738	3738	3738	3738	3738	3738	3738	3738	3738	3738	3738	3738	3738	3738	3698	3698	3698	3698	3698	3698	3698	3698	3698	3698	3698	3738	3698	3698	3698	3698	3698	3698	3738	3738	3738	3738	3738	3738	3779	3738	3779	3779	3779	3779	3779	3779	3779	3738	3738	3698	3698	3698	3698	3698	3698	3698	3698	3698	3698	3698	3698	3659	3698	3698	3698	3698	3738	3698	3698	3698	3698	3698	3698	3698	3698	3698	3698	3698	3698	3698	3698	3698	3738	3738	3738	3738	3738	3738	3738	3738	3738	3738	3738	3738	3738	3738	3698	3698	3738	0	0	0	0	0	0	0	0	0	0	0	0	0	0	0	0	0	0	0	0	0	0	0	0	0	0	0	0	0	0	0	0	0	0	0	0	0	0	0	0	0	0	0	0	0	0	0	0	0	0	0	0	0	0	0	0	0	0	0	0	0	0	0	0	0	0	0	0	0	0	0	0	0	0	0	0	0	0	0	0	0	0	0	0	0	0	0	0	0	0	0	0	0	0	0	0	0	0	0	0	0	0	0	0	0	0	0	0	0	0	0	0	0	0	0	0	0	0	0	0	0	0	0	0	0	0	0	0	0	0	0	0	0	0	0	0	0
0	0	0	0	950	948	950	950	953	955	955	955	958	961	961	963	969	969	974	977	977	980	983	985	988	991	994	994	994	1000	1003	1006	1011	1017	1023	1026	1036	1036	1042	1042	1064	1064	1064	1068	1074	1074	1074	0	0	0	0	0	0	2629	2629	2629	2629	2609	2609	2609	2589	2589	2589	2589	2589	2570	2570	2570	2570	2570	2551	2551	2551	2570	2570	2570	2570	2570	2570	2570	2589	2589	2589	2589	2609	2609	2609	2589	2589	2570	2570	2570	2570	2570	2570	2589	2589	2609	2609	2609	2589	2609	2609	2589	2589	2589	2570	2570	2570	2570	2551	2551	2570	2570	2570	2551	2570	2570	2551	2551	2551	2570	2629	2669	2669	2690	2690	2690	2690	2690	2690	3583	3583	3583	3583	3583	3621	3621	3583	3583	3621	3621	3621	3621	3583	3583	3621	3621	3621	3583	3583	3583	3583	3583	3583	3546	3583	3583	3583	3546	3546	3546	3583	3583	3583	3583	3621	3621	3621	3659	3621	3659	3659	3659	3621	3659	3659	3698	3738	3738	3779	3779	3738	3738	3738	3738	3738	3779	3779	3779	3779	3779	3779	3738	3738	3738	3738	3738	3779	3821	3779	3779	3779	3779	3779	3779	3779	3779	3738	3738	3738	3738	3738	3779	3779	3779	3738	3779	3738	3738	3738	3738	3738	3779	3779	3779	3779	3779	3779	3779	3779	3738	3698	3738	3738	3698	3698	3698	3698	3698	3698	3698	3698	3698	3698	3698	3698	3698	3698	3698	3698	3738	3738	3738	3738	3698	3779	3738	3738	3779	3738	3738	3779	3738	3738	3738	3738	3738	3738	3738	3738	3738	3738	3738	3779	3738	3738	3738	2942	2967	2967	2967	2967	2967	2967	2967	2942	2942	2942	2942	2942	2942	2942	2942	2917	2917	2893	2893	2893	2869	2893	2869	2893	2869	2893	2869	2869	2869	2869	2869	2869	2869	2893	2893	2893	2893	2893	2893	2893	2893	2893	2893	2893	2893	2893	2893	2893	2893	2893	2893	2893	2893	2893	2893	2893	2893	2893	2893	2893	2893	2893	2893	2893	2893	2893	2893	2893	2893	2893	2893	3698	3738	3738	3738	3738	3738	3738	3738	3738	3738	3738	3738	3738	3738	3738	3738	3738	3738	3698	3738	3738	3779	3738	3779	3779	3779	3779	3779	3779	3779	3779	3779	3738	3738	3738	3738	3738	3738	3738	3738	3738	3738	3738	3738	3738	3738	3738	3738	3738	3738	3738	3738	3738	3738	3738	3738	3738	3738	3738	3738	3738	3738	3738	3738	3738	3738	3738	3738	3698	3698	3698	3698	3698	3698	3698	3698	3698	3698	3698	3738	3738	3698	3738	3738	3698	3698	3738	3738	3738	3738	3738	3738	3738	3738	3779	3779	3779	3779	3779	3779	3779	3738	3738	3698	3698	3698	3698	3698	3698	3698	3698	3698	3698	3698	3698	3698	3698	3698	3698	3698	3698	3698	3698	3698	3698	3698	3698	3698	3698	3698	3698	3698	3698	3698	3698	3698	3738	3738	3738	3738	3738	3738	3738	3738	3738	3738	3738	3738	3738	3698	3698	3698	3738	0	0	0	0	0	0	0	0	0	0	0	0	0	0	0	0	0	0	0	0	0	0	0	0	0	0	0	0	0	0	0	0	0	0	0	0	0	0	0	0	0	0	0	0	0	0	0	0	0	0	0	0	0	0	0	0	0	0	0	0	0	0	0	0	0	0	0	0	0	0	0	0	0	0	0	0	0	0	0	0	0	0	0	0	0	0	0	0	0	0	0	0	0	0	0	0	0	0	0	0	0	0	0	0	0	0	0	0	0	0	0	0	0	0	0	0	0	0	0	0	0	0	0	0	0	0	0	0	0	0	0	0	0	0	0	0	0
0	0	0	0	948	948	950	950	953	955	958	958	958	963	963	966	969	969	972	974	974	980	983	985	988	991	994	997	997	1000	1003	1006	1011	1014	1020	1023	1033	1036	1048	1052	1061	1064	1064	1068	1074	1074	1074	0	0	0	0	0	0	2629	2629	2629	2609	2609	2609	2609	2589	2589	2589	2589	2589	2570	2570	2570	2570	2551	2551	2551	2551	2551	2570	2551	2570	2570	2570	2570	2570	2589	2589	2589	2589	2609	2609	2589	2589	2570	2570	2570	2570	2570	2570	2570	2570	2589	2589	2589	2589	2609	2609	2589	2589	2570	2570	2570	2570	2570	2570	2551	2551	2551	2551	2551	2551	2551	2551	2551	2570	2570	2629	2649	2669	2690	2690	2690	2690	2690	2690	3621	3621	3621	3583	3583	3621	3621	3583	3583	3621	3621	3621	3621	3583	3583	3621	3583	3621	3621	3583	3621	3621	3621	3583	3583	3583	3621	3583	3583	3583	3583	3583	3621	3621	3621	3621	3621	3621	3659	3659	3659	3659	3659	3621	3659	3698	3698	3738	3779	3779	3779	3738	3738	3738	3738	3738	3738	3779	3779	3738	3738	3738	3779	3779	3738	3738	3779	3779	3821	3821	3821	3779	3779	3779	3779	3779	3779	3738	3738	3738	3738	3738	3738	3738	3738	3738	3779	3779	3738	3738	3738	3738	3738	3779	3779	3779	3779	3779	3779	3738	3738	3698	3738	3738	3738	3738	3698	3738	3738	3738	3698	3698	3698	3698	3698	3698	3698	3698	3698	3698	3738	3738	3738	3738	3698	3779	3738	3738	3738	3779	3738	3779	3779	3738	3738	3738	3738	3738	3738	3738	3738	3738	3738	3738	3738	2942	2942	2967	2967	2967	2967	2967	2942	2942	2942	2942	2942	2942	2942	2942	2942	2942	2917	2917	2893	2893	2893	2869	2869	2869	2869	2869	2869	2869	2869	2869	2869	2869	2869	2869	2869	2893	2893	2893	2893	2893	2893	2893	2893	2893	2893	2893	2893	2893	2893	2893	2893	2893	2893	2893	2893	2893	2893	2893	2893	2893	2893	2893	2893	2893	2893	2893	2893	2893	2893	2893	2893	2893	2893	2893	3738	3738	3738	3738	3738	3738	3738	3738	3738	3738	3738	3738	3738	3738	3738	3738	3698	3698	3698	3738	3779	3779	3779	3779	3779	3779	3779	3779	3779	3779	3779	3738	3738	3738	3738	3738	3738	3738	3738	3738	3738	3738	3738	3698	3698	3698	3698	3698	3738	3738	3738	3738	3738	3738	3738	3738	3738	3698	3698	3698	3738	3738	3738	3738	3698	3738	3738	3698	3698	3698	3698	3698	3698	3698	3698	3698	3698	3698	3738	3738	3738	3738	3738	3738	3738	3738	3738	3738	3738	3738	3738	3738	3738	3779	3738	3779	3779	3738	3779	3779	3738	3738	3698	3698	3698	3698	3698	3698	3698	3698	3698	3698	3698	3698	3698	3698	3698	3698	3698	3698	3698	3698	3698	3698	3698	3698	3698	3698	3698	3698	3738	3698	3738	3738	3738	3738	3738	3738	3738	3738	3738	3738	3738	3738	3738	3738	3738	3738	3738	3738	3738	0	0	0	0	0	0	0	0	0	0	0	0	0	0	0	0	0	0	0	0	0	0	0	0	0	0	0	0	0	0	0	0	0	0	0	0	0	0	0	0	0	0	0	0	0	0	0	0	0	0	0	0	0	0	0	0	0	0	0	0	0	0	0	0	0	0	0	0	0	0	0	0	0	0	0	0	0	0	0	0	0	0	0	0	0	0	0	0	0	0	0	0	0	0	0	0	0	0	0	0	0	0	0	0	0	0	0	0	0	0	0	0	0	0	0	0	0	0	0	0	0	0	0	0	0	0	0	0	0	0	0	0	0	0	0	0	0	0
0	0	0	0	948	948	948	948	953	955	958	958	958	963	966	972	972	969	972	974	974	977	983	988	991	991	994	997	997	1000	1006	1008	1011	1014	1017	1020	1026	1030	1055	1058	1064	1064	1068	1071	1074	1074	1074	0	0	0	0	0	0	2629	2629	2629	2609	2609	2609	2589	2589	2589	2589	2589	2589	2570	2570	2551	2551	2551	2532	2532	2551	2551	2570	2570	2570	2570	2570	2570	2570	2570	2570	2570	2589	2589	2589	2589	2589	2570	2570	2570	2570	2551	2570	2570	2570	2589	2609	2589	2589	2589	2609	2589	2589	2570	2570	2570	2570	2570	2551	2551	2551	2570	2570	2551	2551	2570	2570	2570	2570	2589	2629	2649	2669	2669	2669	2690	2690	2690	0	3621	3621	3621	3621	3621	3621	3621	3583	3583	3621	3621	3621	3621	3621	3621	3621	3621	3621	3621	3621	3621	3659	3621	3621	3621	3621	3621	3583	3583	3583	3583	3583	3621	3621	3621	3621	3621	3621	3659	3659	3659	3659	3659	3659	3659	3698	3698	3738	3779	3779	3779	3738	3738	3738	3738	3738	3738	3738	3738	3738	3738	3738	3738	3779	3738	3779	3779	3779	3779	3821	3821	3779	3779	3821	3821	3779	3779	3738	3738	3738	3738	3738	3738	3738	3738	3738	3779	3779	3738	3738	3779	3779	3779	3779	3779	3779	3779	3779	3779	3738	3738	3738	3738	3738	3738	3738	3738	3738	3738	3738	3738	3738	3698	3698	3698	3698	3698	3698	3698	3698	3698	3738	3738	3698	3698	3779	3738	3738	3738	3738	3738	3779	3779	3738	3738	3738	3738	3738	3738	3738	3738	3738	3738	3779	2942	2942	2942	2942	2967	2967	2967	2942	2942	2942	2942	2942	2942	2942	2942	2942	2942	2942	2917	2917	2917	2917	2893	2893	2869	2869	2869	2893	2869	2869	2869	2869	2869	2869	2869	2869	2869	2893	2893	2893	2893	2893	2893	2893	2893	2893	2893	2893	2893	2893	2893	2869	2869	2893	2893	2893	2893	2893	2893	2893	2893	2893	2893	2893	2893	2893	2893	2893	2893	2893	2893	2893	2893	2893	2893	2893	3698	3738	3738	3738	3738	3738	3738	3738	3738	3698	3738	3738	3738	3698	3738	3738	3738	3698	3738	3738	3779	3738	3738	3779	3779	3779	3779	3779	3779	3779	3779	3738	3738	3738	3738	3738	3738	3738	3738	3738	3738	3738	3738	3698	3698	3698	3698	3698	3698	3698	3738	3738	3738	3738	3738	3738	3738	3738	3738	3698	3738	3738	3738	3738	3698	3738	3698	3698	3659	3698	3698	3698	3698	3698	3698	3698	3698	3698	3738	3738	3738	3738	3738	3738	3738	3738	3738	3738	3738	3698	3738	3738	3698	3738	3738	3738	3738	3738	3738	3738	3738	3698	3698	3698	3698	3698	3659	3698	3698	3698	3698	3698	3698	3698	3659	3659	3659	3659	3698	3698	3698	3698	3698	3698	3698	3698	3698	3698	3698	3738	3738	3738	3738	3738	3738	3779	3738	3738	3738	3738	3738	3738	3738	3738	3738	3738	3738	3738	3738	3738	3738	0	0	0	0	0	0	0	0	0	0	0	0	0	0	0	0	0	0	0	0	0	0	0	0	0	0	0	0	0	0	0	0	0	0	0	0	0	0	0	0	0	0	0	0	0	0	0	0	0	0	0	0	0	0	0	0	0	0	0	0	0	0	0	0	0	0	0	0	0	0	0	0	0	0	0	0	0	0	0	0	0	0	0	0	0	0	0	0	0	0	0	0	0	0	0	0	0	0	0	0	0	0	0	0	0	0	0	0	0	0	0	0	0	0	0	0	0	0	0	0	0	0	0	0	0	0	0	0	0	0	0	0	0	0	0	0	0	0
0	0	0	0	948	948	948	948	950	953	958	961	961	966	969	972	972	972	972	974	974	977	980	985	988	994	997	1000	1000	1000	1003	1008	1011	1011	1014	1020	1026	1026	1061	1061	1064	1064	1068	1074	1078	1081	1081	1081	0	0	0	0	0	2629	2629	2629	2609	2609	2589	2589	2589	2589	2589	2589	2589	2570	2570	2570	2570	2551	2551	2551	2551	2551	2551	2551	2570	2570	2570	2570	2570	2589	2570	2570	2589	2589	2589	2589	2589	2570	2570	2570	2570	2570	2570	2570	2570	2570	2589	2589	2589	2589	2589	2589	2589	2570	2570	2570	2570	2570	2551	2551	2551	2551	2551	2570	2570	2570	2589	2570	2589	2589	2609	2649	2649	2669	2690	2711	2711	2777	2777	0	3621	3621	3621	3621	3621	3621	3621	3621	3621	3621	3621	3621	3621	3621	3621	3621	3659	3659	3659	3659	3659	3659	3659	3659	3659	3621	3621	3583	3583	3583	3583	3621	3621	3621	3621	3659	3659	3659	3659	3659	3659	3659	3659	3659	3698	3698	3738	3779	3779	3779	3738	3738	3738	3738	3738	3738	3738	3698	3698	3698	3738	3738	3738	3779	3779	3779	3779	3821	3821	3821	3779	3779	3779	3779	3779	3738	3738	3738	3738	3738	3738	3738	3738	3738	3738	3779	3779	3738	3738	3779	3738	3738	3779	3779	3779	3779	3738	3779	3738	3738	3738	3738	3738	3738	3738	3738	3779	3779	3738	3738	3738	3738	3698	3698	3698	3698	3698	3698	3698	3698	3698	3738	3698	3698	3779	3738	3738	3738	3779	3779	3779	3779	3738	3738	3738	3738	3738	3738	3738	3738	2942	2942	2942	2942	2942	2942	2942	2942	2942	2942	2942	2942	2942	2942	2942	2942	2942	2942	2942	2917	2917	2917	2917	2917	2893	2893	2893	2869	2869	2869	2869	2869	2869	2869	2869	2869	2869	2869	2869	2869	2893	2893	2893	2893	2893	2893	2893	2893	2893	2893	2893	2893	2893	2893	2869	2869	2869	2893	2869	2869	2893	2893	2893	2893	2893	2893	2893	2893	2893	2893	2893	2893	2893	2893	2893	2893	2893	2893	2893	2893	3698	3738	3738	3738	3738	3738	3738	3738	3698	3698	3738	3738	3698	3698	3698	3698	3698	3698	3698	3698	3738	3738	3738	3738	3738	3779	3779	3779	3779	3779	3779	3738	3738	3738	3738	3738	3738	3738	3738	3738	3738	3738	3698	3698	3698	3698	3698	3738	3698	3738	3738	3738	3738	3738	3738	3738	3698	3698	3698	3698	3738	3738	3698	3698	3698	3698	3698	3659	3698	3698	3698	3698	3698	3698	3738	3698	3698	3738	3738	3738	3738	3738	3738	3738	3738	3738	3738	3738	3738	3738	3738	3698	3738	3738	3738	3738	3738	3738	3779	3738	3738	3698	3698	3698	3698	3659	3698	3698	3698	3698	3698	3698	3698	3698	3659	3659	3659	3659	3698	3698	3698	3698	3698	3698	3698	3698	3698	3698	3698	3698	3698	3738	3738	3738	3738	3738	3738	3738	3738	3738	3738	3738	3738	3738	3738	3738	3738	3738	3738	0	0	0	0	0	0	0	0	0	0	0	0	0	0	0	0	0	0	0	0	0	0	0	0	0	0	0	0	0	0	0	0	0	0	0	0	0	0	0	0	0	0	0	0	0	0	0	0	0	0	0	0	0	0	0	0	0	0	0	0	0	0	0	0	0	0	0	0	0	0	0	0	0	0	0	0	0	0	0	0	0	0	0	0	0	0	0	0	0	0	0	0	0	0	0	0	0	0	0	0	0	0	0	0	0	0	0	0	0	0	0	0	0	0	0	0	0	0	0	0	0	0	0	0	0	0	0	0	0	0	0	0	0	0	0	0	0	0	0
0	0	0	0	945	948	945	948	950	953	958	961	963	969	969	972	969	972	972	974	974	977	980	985	988	994	997	1000	1003	1003	1006	1008	1008	1011	1014	1023	1033	1036	1064	1061	1064	1068	1071	1074	1078	1078	1085	1105	1105	0	0	0	0	0	2629	2629	2609	2589	2589	2589	2589	2589	2570	2570	2589	2589	2570	2551	2551	2551	2551	2551	2532	2551	2551	2551	2570	2570	2570	2570	2570	2589	2570	2570	2570	2570	2589	2570	2589	2570	2570	2570	2570	2570	2570	2570	2570	2570	2589	2589	2589	2589	2589	2589	2589	2570	2570	2570	2570	2570	2551	2551	2551	2551	2551	2551	2570	2570	2589	2570	2589	2609	2609	2629	2649	2649	2711	2754	2777	2777	2799	2799	2799	3621	3621	3621	3621	3621	3621	3583	3621	3621	3621	3621	3621	3621	3659	3659	3659	3659	3659	3659	3659	3659	3659	3659	3659	3659	3621	3621	3621	3621	3621	3621	3621	3621	3621	3659	3659	3698	3698	3698	3698	3698	3698	3698	3738	3698	3738	3779	3779	3779	3738	3738	3738	3738	3698	3698	3698	3698	3698	3698	3698	3738	3738	3738	3738	3738	3779	3821	3821	3821	3779	3779	3779	3779	3779	3779	3738	3738	3738	3738	3738	3738	3738	3738	3779	3779	3779	3779	3738	3779	3738	3779	3779	3779	3779	3779	3779	3738	3738	3738	3738	3738	3738	3738	3738	3738	3738	3738	3738	3698	3738	3698	3698	3698	3698	3698	3698	3698	3698	3698	3698	3738	3698	3698	3738	3738	3738	3738	3738	3779	3779	3779	3738	3738	3738	3738	3738	3738	3738	2942	2942	2942	2942	2942	2942	2942	2942	2942	2942	2942	2942	2942	2942	2942	2942	2942	2942	2942	2917	2917	2917	2917	2917	2893	2893	2893	2869	2869	2869	2869	2869	2869	2869	2869	2869	2869	2869	2869	2869	2869	2893	2893	2893	2893	2869	2893	2869	2893	2893	2869	2893	2869	2869	2869	2869	2869	2869	2869	2869	2869	2869	2893	2893	2893	2893	2893	2893	2893	2893	2893	2893	2893	2893	2869	2893	2893	2893	2893	2869	2869	3738	3738	3738	3738	3738	3738	3738	3738	3738	3738	3738	3738	3698	3698	3698	3698	3738	3698	3698	3738	3738	3738	3738	3738	3738	3738	3738	3738	3779	3779	3779	3738	3738	3738	3738	3738	3738	3738	3738	3738	3738	3738	3698	3698	3698	3698	3698	3698	3698	3698	3738	3738	3738	3738	3738	3738	3738	3738	3738	3738	3738	3738	3698	3698	3698	3698	3698	3659	3698	3698	3698	3698	3698	3698	3738	3738	3698	3779	3738	3738	3738	3738	3738	3738	3738	3738	3738	3738	3698	3698	3698	3698	3738	3738	3738	3738	3738	3738	3738	3738	3698	3698	3698	3698	3698	3659	3698	3698	3698	3698	3698	3698	3698	3698	3698	3698	3698	3698	3698	3698	3698	3698	3698	3698	3698	3698	3698	3698	3698	3698	3698	3698	3738	3738	3738	3738	3738	3738	3738	3738	3738	3738	3698	3738	3738	3738	3738	3738	3738	3738	0	0	0	0	0	0	0	0	0	0	0	0	0	0	0	0	0	0	0	0	0	0	0	0	0	0	0	0	0	0	0	0	0	0	0	0	0	0	0	0	0	0	0	0	0	0	0	0	0	0	0	0	0	0	0	0	0	0	0	0	0	0	0	0	0	0	0	0	0	0	0	0	0	0	0	0	0	0	0	0	0	0	0	0	0	0	0	0	0	0	0	0	0	0	0	0	0	0	0	0	0	0	0	0	0	0	0	0	0	0	0	0	0	0	0	0	0	0	0	0	0	0	0	0	0	0	0	0	0	0	0	0	0	0	0	0	0	0
0	0	0	0	945	945	945	945	948	950	955	961	961	969	969	972	969	972	974	974	974	977	980	980	985	994	1000	1003	1003	1003	1008	1011	1011	1011	1014	1017	1026	1030	1058	1064	1068	1071	1074	1074	1081	1081	1081	1105	1105	0	0	0	0	0	2609	2609	2589	2589	2589	2589	2589	2589	2570	2589	2570	2589	2570	2551	2551	2551	2551	2551	2532	2551	2551	2551	2570	2570	2570	2570	2570	2589	2589	2570	2570	2570	2589	2570	2589	2570	2570	2570	2570	2570	2570	2570	2570	2570	2589	2589	2589	2589	2589	2589	2589	2570	2570	2570	2551	2570	2551	2551	2551	2570	2551	2570	2551	2570	2589	2570	2589	2589	2609	2629	2649	2690	2754	2777	2777	2777	2799	2799	2845	2845	3621	3621	3621	3621	3621	3621	3621	3659	3621	3621	3659	3659	3659	3659	3659	3659	3659	3659	3698	3698	3698	3698	3698	3659	3659	3659	3621	3621	3621	3621	3621	3621	3659	3659	3659	3698	3698	3698	3698	3698	3698	3738	3738	3698	3738	3738	3738	3738	3738	3738	3738	3738	3738	3738	3738	3698	3738	3698	3738	3738	3738	3738	3738	3738	3738	3779	3821	3821	3779	3779	3779	3779	3779	3738	3738	3738	3738	3738	3738	3779	3738	3779	3779	3779	3779	3779	3738	3779	3738	3779	3779	3779	3779	3779	3779	3738	3738	3738	3738	3738	3738	3738	3738	3738	3738	3738	3698	3698	3698	3698	3698	3698	3698	3698	3698	3698	3698	3698	3698	3738	3698	3698	3698	3738	3738	3738	3779	3779	3779	3779	3738	3738	3738	3738	3738	3738	3738	2942	2942	2942	2942	2942	2942	2942	2942	2942	2942	2942	2942	2942	2942	2942	2917	2917	2942	2917	2917	2917	2917	2917	2917	2893	2893	2893	2893	2869	2869	2869	2869	2869	2869	2869	2869	2845	2869	2869	2869	2869	2869	2893	2893	2869	2869	2869	2869	2893	2893	2869	2869	2869	2869	2869	2869	2869	2869	2869	2869	2869	2869	2893	2893	2893	2893	2893	2893	2893	2893	2893	2893	2893	2893	2869	2893	2893	2893	2893	2893	2893	3738	3738	3738	3738	3738	3738	3738	3738	3738	3738	3738	3738	3698	3698	3698	3698	3738	3738	3698	3738	3738	3738	3738	3738	3738	3738	3738	3738	3779	3779	3738	3738	3738	3738	3779	3738	3738	3779	3738	3779	3738	3738	3738	3738	3698	3738	3698	3698	3698	3698	3698	3738	3738	3738	3738	3738	3738	3738	3738	3738	3738	3738	3698	3698	3698	3698	3698	3659	3698	3698	3698	3698	3738	3698	3738	3738	3738	3779	3779	3738	3738	3738	3738	3738	3738	3738	3738	3738	3738	3738	3738	3698	3738	3738	3738	3738	3698	3698	3698	3698	3698	3698	3698	3698	3659	3659	3698	3698	3698	3698	3698	3698	3698	3698	3698	3698	3698	3698	3698	3698	3698	3698	3698	3698	3698	3698	3698	3698	3698	3698	3698	3698	3738	3698	3698	3738	3738	3738	3738	3738	3738	3738	3738	3738	3779	3738	3779	3738	3779	3779	0	0	0	0	0	0	0	0	0	0	0	0	0	0	0	0	0	0	0	0	0	0	0	0	0	0	0	0	0	0	0	0	0	0	0	0	0	0	0	0	0	0	0	0	0	0	0	0	0	0	0	0	0	0	0	0	0	0	0	0	0	0	0	0	0	0	0	0	0	0	0	0	0	0	0	0	0	0	0	0	0	0	0	0	0	0	0	0	0	0	0	0	0	0	0	0	0	0	0	0	0	0	0	0	0	0	0	0	0	0	0	0	0	0	0	0	0	0	0	0	0	0	0	0	0	0	0	0	0	0	0	0	0	0	0	0	0	0
0	0	0	0	945	945	945	945	948	950	955	961	963	972	972	972	972	972	972	972	972	974	977	980	983	985	988	1000	1000	1003	1006	1006	1011	1011	1014	1017	1023	1026	1036	1064	1068	1074	1078	1081	1081	1085	1085	1085	0	0	0	0	0	0	2589	2589	2589	2589	2570	2589	2589	2570	2570	2570	2570	2570	2570	2551	2551	2551	2551	2551	2532	2551	2551	2551	2551	2551	2551	2551	2570	2589	2570	2570	2570	2570	2570	2570	2570	2570	2570	2570	2570	2570	2570	2570	2570	2589	2589	2589	2589	2589	2589	2589	2570	2570	2570	2570	2570	2570	2570	2551	2570	2570	2551	2551	2551	2570	2589	2570	2589	2589	2609	2629	2649	2777	2799	2799	2799	2799	2799	2799	2845	2822	2822	3621	3621	3621	3621	3621	3659	3659	3621	3659	3659	3659	3659	3659	3659	3659	3698	3659	3698	3698	3698	3659	3698	3659	3659	3659	3621	3621	3621	3621	3621	3621	3659	3659	3698	3698	3698	3698	3698	3698	3698	3698	3698	3698	3738	3738	3738	3738	3738	3738	3738	3738	3698	3698	3698	3698	3698	3698	3738	3738	3738	3738	3738	3738	3738	3779	3779	3779	3779	3738	3738	3779	3779	3738	3738	3738	3738	3779	3779	3779	3779	3779	3779	3779	3738	3738	3738	3779	3738	3738	3738	3738	3738	3779	3738	3738	3738	3738	3738	3738	3738	3738	3738	3738	3738	3738	3698	3698	3698	3698	3698	3698	3698	3698	3698	3698	3698	3698	3698	3698	3698	3698	3738	3738	3738	3738	3738	3738	3779	3779	3738	3738	3738	3738	3738	3738	3738	2942	2942	2967	2942	2942	2942	2942	2942	2942	2942	2942	2942	2942	2942	2942	2917	2917	2917	2917	2917	2893	2893	2893	2893	2893	2893	2893	2893	2869	2869	2869	2869	2869	2845	2845	2845	2845	2845	2845	2845	2845	2869	2869	2893	2869	2869	2869	2869	2869	2869	2869	2869	2869	2869	2869	2869	2869	2869	2869	2869	2869	2869	2893	2893	2893	2893	2893	2893	2893	2893	2893	2893	2893	2893	2869	2869	2869	2893	2869	2869	2869	3738	3738	3738	3738	3738	3738	3738	3738	3698	3698	3698	3698	3698	3698	3698	3698	3738	3738	3698	3738	3738	3738	3738	3738	3738	3738	3738	3738	3738	3738	3738	3738	3738	3738	3779	3738	3738	3779	3779	3779	3779	3779	3738	3738	3698	3698	3698	3698	3659	3698	3698	3698	3698	3698	3698	3698	3738	3698	3698	3698	3698	3698	3698	3698	3698	3698	3698	3659	3698	3698	3698	3738	3738	3698	3738	3738	3738	3779	3779	3738	3738	3738	3738	3738	3738	3698	3738	3738	3698	3738	3698	3698	3738	3698	3698	3698	3698	3698	3698	3698	3698	3698	3698	3698	3698	3659	3698	3698	3698	3698	3698	3698	3698	3698	3698	3698	3698	3698	3698	3698	3698	3698	3698	3698	3698	3698	3698	3698	3698	3698	3698	3698	3698	3698	3738	3738	3738	3738	3738	3738	3738	3738	3738	3779	3779	3738	3779	3738	3738	3779	3779	0	0	0	0	0	0	0	0	0	0	0	0	0	0	0	0	0	0	0	0	0	0	0	0	0	0	0	0	0	0	0	0	0	0	0	0	0	0	0	0	0	0	0	0	0	0	0	0	0	0	0	0	0	0	0	0	0	0	0	0	0	0	0	0	0	0	0	0	0	0	0	0	0	0	0	0	0	0	0	0	0	0	0	0	0	0	0	0	0	0	0	0	0	0	0	0	0	0	0	0	0	0	0	0	0	0	0	0	0	0	0	0	0	0	0	0	0	0	0	0	0	0	0	0	0	0	0	0	0	0	0	0	0	0	0	0	0
0	0	0	0	945	945	945	945	948	950	953	958	958	969	972	972	969	972	974	974	974	977	977	980	980	985	988	997	1000	1003	1006	1008	1008	1011	1014	1017	1020	1023	1023	1064	1071	1074	1074	1081	1081	1081	1085	1085	0	0	0	0	0	0	2609	2589	2589	2570	2570	2570	2570	2551	2551	2570	2570	2570	2570	2551	2551	2551	2551	2551	2551	2551	2551	2551	2570	2551	2551	2551	2551	2570	2570	2570	2570	2570	2570	2570	2570	2570	2570	2570	2570	2570	2570	2570	2570	2589	2589	2589	2589	2589	2589	2589	2570	2570	2570	2570	2570	2570	2570	2551	2570	2570	2551	2551	2570	2589	2589	2570	2589	2589	2629	2649	2649	2777	2799	2777	2799	2799	2799	2799	2822	2799	2822	2822	3583	3583	3621	3621	3659	3659	3659	3659	3659	3659	3659	3659	3659	3659	3698	3659	3698	3698	3659	3659	3698	3659	3659	3659	3659	3659	3659	3659	3659	3659	3659	3659	3698	3698	3698	3738	3698	3698	3698	3659	3698	3698	3698	3738	3738	3738	3738	3738	3738	3738	3698	3698	3698	3698	3698	3698	3698	3738	3738	3738	3779	3738	3779	3779	3821	3779	3779	3779	3738	3738	3779	3738	3738	3738	3738	3779	3779	3779	3779	3779	3779	3738	3738	3738	3738	3738	3738	3738	3738	3738	3738	3738	3698	3738	3738	3738	3738	3738	3738	3738	3738	3738	3738	3698	3698	3698	3698	3698	3698	3698	3698	3698	3698	3738	3698	3698	3698	3698	3698	3698	3738	3738	3738	3738	3738	3738	3738	3738	3738	3738	3738	3738	3738	3738	3738	2942	2942	2942	2942	2942	2942	2942	2942	2942	2942	2942	2942	2942	2942	2942	2917	2917	2917	2917	2893	2893	2893	2893	2893	2893	2893	2893	2893	2869	2869	2869	2869	2845	2845	2845	2845	2845	2845	2845	2845	2845	2869	2869	2869	2869	2869	2869	2869	2869	2869	2869	2869	2869	2869	2869	2869	2869	2869	2869	2869	2869	2869	2893	2893	2893	2893	2893	2893	2893	2893	2893	2893	2893	2893	2869	2869	2869	2869	2869	2869	2869	2869	3738	3738	3738	3738	3738	3738	3738	3738	3738	3738	3738	3738	3698	3698	3698	3738	3698	3698	3738	3738	3779	3738	3738	3738	3738	3738	3738	3738	3738	3738	3738	3738	3738	3738	3738	3738	3738	3738	3738	3738	3738	3738	3738	3698	3698	3698	3698	3659	3659	3659	3698	3698	3698	3698	3738	3738	3698	3698	3698	3698	3698	3698	3698	3698	3698	3698	3659	3698	3698	3698	3738	3698	3738	3738	3698	3738	3779	3738	3738	3738	3738	3738	3738	3738	3738	3738	3698	3698	3698	3698	3698	3698	3698	3698	3698	3698	3698	3698	3698	3698	3698	3659	3698	3698	3659	3698	3698	3698	3698	3698	3698	3698	3698	3698	3698	3698	3698	3698	3698	3698	3698	3698	3698	3698	3698	3698	3698	3698	3698	3698	3698	3698	3698	3738	3738	3738	3738	3738	3738	3738	3738	3738	3738	3738	3738	3738	3738	3738	3779	3779	0	0	0	0	0	0	0	0	0	0	0	0	0	0	0	0	0	0	0	0	0	0	0	0	0	0	0	0	0	0	0	0	0	0	0	0	0	0	0	0	0	0	0	0	0	0	0	0	0	0	0	0	0	0	0	0	0	0	0	0	0	0	0	0	0	0	0	0	0	0	0	0	0	0	0	0	0	0	0	0	0	0	0	0	0	0	0	0	0	0	0	0	0	0	0	0	0	0	0	0	0	0	0	0	0	0	0	0	0	0	0	0	0	0	0	0	0	0	0	0	0	0	0	0	0	0	0	0	0	0	0	0	0	0	0	0	0
0	0	0	0	950	948	948	948	950	950	953	955	961	969	969	969	969	969	972	974	974	977	977	980	980	983	988	994	1000	1000	1006	1008	1008	1014	1014	1017	1020	1023	1061	1064	1071	1071	1074	1081	1081	1085	1085	1085	0	0	0	0	0	2609	2609	2609	2589	2570	2570	2570	2570	2551	2551	2551	2570	2570	2570	2570	2551	2570	2551	2551	2551	2551	2551	2570	2570	2570	2570	2570	2570	2570	2570	2570	2570	2570	2570	2570	2570	2570	2570	2570	2589	2570	2570	2570	2570	2589	2589	2589	2589	2589	2589	2589	2570	2570	2589	2589	2570	2570	2570	2570	2570	2570	2551	2551	2551	2570	2589	2570	2589	2589	2609	2629	2629	2799	2799	2799	2799	2799	2799	2799	2822	2822	2822	2822	3621	3583	3621	3621	3659	3659	3659	3659	3698	3659	3659	3659	3659	3659	3659	3659	3698	3698	3698	3659	3698	3659	3659	3659	3659	3659	3659	3659	3621	3621	3659	3659	3698	3698	3698	3738	3738	3698	3659	3659	3698	3698	3738	3738	3738	3738	3738	3738	3738	3738	3698	3698	3698	3659	3698	3698	3698	3738	3738	3738	3779	3738	3779	3779	3779	3779	3779	3779	3779	3779	3738	3738	3738	3738	3738	3779	3779	3779	3738	3738	3738	3738	3738	3698	3698	3738	3738	3738	3738	3698	3738	3738	3738	3738	3738	3738	3738	3738	3738	3738	3738	3738	3698	3698	3698	3698	3698	3698	3698	3698	3738	3698	3698	3738	3698	3698	3698	3698	3698	3698	3738	3738	3738	3738	3738	3738	3738	3738	3738	3738	3738	3738	3738	3738	2942	2942	2967	2942	2942	2942	2942	2942	2942	2942	2942	2942	2942	2942	2917	2917	2917	2917	2917	2893	2893	2893	2893	2893	2893	2893	2893	2893	2869	2869	2869	2845	2845	2845	2845	2845	2845	2845	2845	2845	2845	2845	2869	2869	2869	2869	2869	2869	2869	2869	2869	2869	2869	2869	2869	2869	2869	2869	2869	2869	2869	2869	2869	2869	2869	2893	2869	2893	2893	2893	2893	2893	2893	2893	2893	2869	2893	2893	2893	2869	2869	2869	2869	3738	3738	3738	3738	3738	3738	3738	3738	3738	3738	3738	3738	3738	3698	3698	3738	3738	3738	3738	3779	3779	3779	3779	3779	3738	3738	3738	3738	3738	3738	3738	3738	3738	3738	3738	3738	3738	3738	3738	3738	3738	3698	3698	3698	3698	3698	3698	3659	3698	3698	3698	3698	3698	3698	3738	3738	3738	3738	3738	3738	3698	3698	3698	3698	3698	3698	3659	3698	3698	3698	3698	3698	3698	3698	3698	3698	3738	3738	3738	3738	3738	3738	3738	3738	3698	3738	3698	3698	3698	3698	3698	3698	3698	3698	3698	3698	3698	3698	3698	3698	3698	3698	3698	3698	3659	3698	3698	3698	3698	3698	3659	3698	3698	3698	3698	3698	3698	3698	3698	3698	3698	3698	3698	3698	3698	3698	3698	3698	3698	3698	3698	3698	3698	3738	3738	3738	3738	3738	3738	3738	3738	3738	3738	3738	3738	3738	3738	3738	3738	3738	0	0	0	0	0	0	0	0	0	0	0	0	0	0	0	0	0	0	0	0	0	0	0	0	0	0	0	0	0	0	0	0	0	0	0	0	0	0	0	0	0	0	0	0	0	0	0	0	0	0	0	0	0	0	0	0	0	0	0	0	0	0	0	0	0	0	0	0	0	0	0	0	0	0	0	0	0	0	0	0	0	0	0	0	0	0	0	0	0	0	0	0	0	0	0	0	0	0	0	0	0	0	0	0	0	0	0	0	0	0	0	0	0	0	0	0	0	0	0	0	0	0	0	0	0	0	0	0	0	0	0	0	0	0	0	0	0
0	0	0	0	948	948	948	950	950	950	953	955	961	966	969	969	969	969	969	972	974	974	977	977	980	983	985	991	1000	1000	1006	1006	1008	1014	1017	1020	1020	1023	1064	1068	1074	1074	1074	1078	1081	1081	1081	0	0	0	0	0	0	2629	2609	2609	2589	2570	2570	2551	2551	2551	2551	2551	2570	2570	2570	2570	2570	2570	2570	2551	2551	2551	2551	2551	2570	2551	2551	2570	2570	2589	2589	2570	2570	2570	2570	2570	2570	2570	2570	2570	2570	2570	2570	2570	2570	2589	2589	2589	2570	2589	2589	2589	2570	2570	2570	2589	2570	2570	2570	2570	2570	2570	2570	2570	2570	2589	2589	2589	2589	2589	2609	2609	2822	2822	2822	2799	2799	2799	2799	2799	2822	2822	2822	2822	2822	3621	3621	3621	3659	3659	3659	3659	3698	3659	3659	3659	3698	3659	3659	3659	3659	3659	3698	3659	3659	3659	3659	3659	3659	3621	3659	3659	3621	3621	3659	3698	3698	3698	3738	3738	3738	3698	3698	3659	3698	3698	3698	3698	3698	3698	3698	3698	3698	3698	3698	3659	3698	3659	3698	3698	3698	3738	3738	3738	3738	3738	3738	3779	3779	3779	3779	3779	3779	3779	3738	3738	3738	3738	3738	3779	3779	3779	3779	3738	3738	3738	3698	3698	3698	3698	3738	3738	3738	3698	3738	3738	3738	3738	3738	3738	3738	3738	3738	3698	3698	3698	3698	3698	3698	3698	3698	3698	3698	3698	3738	3738	3698	3738	3698	3698	3738	3698	3698	3698	3738	3738	3738	3738	3738	3738	3738	3738	3738	3738	3738	3738	3698	3698	2942	2942	2942	2942	2942	2942	2942	2942	2942	2942	2942	2917	2917	2917	2917	2917	2893	2893	2893	2893	2893	2893	2893	2893	2893	2869	2869	2869	2869	2869	2869	2845	2845	2845	2845	2845	2845	2845	2845	2845	2845	2845	2869	2869	2869	2869	2869	2869	2869	2869	2869	2869	2869	2869	2869	2869	2869	2869	2869	2869	2869	2869	2869	2869	2893	2893	2869	2893	2893	2893	2893	2893	2893	2893	2893	2869	2893	2869	2869	2869	2869	2869	2869	3738	3738	3738	3738	3738	3738	3738	3738	3738	3738	3738	3738	3738	3738	3738	3738	3738	3698	3779	3738	3779	3738	3779	3738	3738	3738	3738	3738	3738	3738	3738	3738	3738	3738	3738	3698	3738	3738	3738	3738	3738	3698	3698	3698	3698	3698	3698	3698	3698	3698	3698	3698	3698	3698	3698	3738	3698	3698	3698	3698	3698	3698	3698	3698	3698	3698	3698	3698	3698	3698	3698	3698	3698	3698	3698	3698	3738	3738	3698	3738	3698	3738	3698	3698	3698	3698	3698	3698	3698	3698	3738	3698	3698	3698	3698	3698	3698	3698	3698	3698	3698	3698	3698	3698	3698	3698	3698	3698	3698	3698	3698	3698	3698	3698	3698	3698	3698	3698	3698	3698	3698	3698	3659	3659	3659	3659	3659	3659	3698	3698	3698	3698	3698	3738	3738	3738	3738	3738	3738	3738	3738	3738	3779	3738	3738	3738	3738	3738	3738	3738	0	0	0	0	0	0	0	0	0	0	0	0	0	0	0	0	0	0	0	0	0	0	0	0	0	0	0	0	0	0	0	0	0	0	0	0	0	0	0	0	0	0	0	0	0	0	0	0	0	0	0	0	0	0	0	0	0	0	0	0	0	0	0	0	0	0	0	0	0	0	0	0	0	0	0	0	0	0	0	0	0	0	0	0	0	0	0	0	0	0	0	0	0	0	0	0	0	0	0	0	0	0	0	0	0	0	0	0	0	0	0	0	0	0	0	0	0	0	0	0	0	0	0	0	0	0	0	0	0	0	0	0	0	0	0	0	0
0	0	0	0	948	948	950	950	950	953	953	955	961	966	966	966	969	969	969	972	974	977	977	980	980	983	985	991	997	1000	1006	1006	1008	1014	1017	1020	1023	1023	1061	1071	1074	1074	1074	1078	1078	1078	1081	0	0	0	0	0	0	2669	2629	2609	2589	2589	2570	2570	2570	2551	2551	2551	2551	2570	2570	2551	2551	2551	2551	2551	2532	2532	2551	2551	2551	2551	2551	2551	2570	2570	2570	2570	2570	2570	2570	2570	2570	2570	2570	2570	2570	2570	2570	2570	2570	2589	2589	2589	2570	2589	2589	2589	2570	2570	2570	2589	2570	2570	2570	2589	2589	2589	2589	2570	2570	2589	2589	2589	2589	2589	2609	2609	2845	2845	2822	2799	2822	2822	2822	2822	2822	2822	2822	2822	2822	2822	3621	3659	3698	3698	3698	3698	3698	3698	3659	3659	3659	3659	3659	3659	3659	3698	3659	3659	3659	3659	3659	3659	3659	3621	3659	3659	3621	3621	3659	3698	3698	3698	3738	3738	3738	3698	3698	3659	3698	3698	3698	3698	3698	3738	3738	3738	3738	3738	3698	3698	3698	3698	3698	3698	3698	3738	3738	3738	3738	3698	3738	3738	3779	3779	3779	3779	3779	3738	3738	3738	3738	3738	3738	3779	3779	3779	3779	3738	3738	3698	3698	3698	3698	3698	3738	3698	3698	3698	3738	3738	3738	3738	3738	3738	3738	3738	3738	3698	3698	3698	3698	3698	3698	3698	3698	3698	3698	3698	3738	3738	3698	3738	3738	3738	3738	3698	3698	3698	3738	3738	3738	3738	3738	3738	3738	3738	3738	3738	3738	3738	3738	3738	2967	2967	2967	2967	2942	2942	2942	2942	2942	2942	2942	2917	2917	2917	2917	2917	2893	2893	2893	2893	2893	2869	2869	2869	2869	2869	2869	2869	2869	2869	2869	2845	2845	2845	2845	2845	2845	2845	2845	2845	2845	2845	2869	2869	2869	2869	2869	2869	2845	2869	2869	2869	2869	2869	2869	2869	2869	2869	2869	2869	2869	2869	2869	2869	2869	2893	2869	2893	2893	2893	2893	2893	2893	2893	2893	2869	2869	2869	2869	2869	2869	2869	2869	2869	3738	3738	3738	3738	3738	3738	3738	3738	3738	3738	3738	3738	3738	3698	3698	3698	3698	3779	3779	3779	3779	3779	3779	3738	3738	3738	3738	3738	3738	3738	3738	3698	3698	3698	3698	3738	3738	3738	3738	3738	3698	3698	3698	3698	3698	3698	3698	3698	3698	3698	3698	3698	3698	3698	3738	3698	3698	3738	3698	3698	3698	3698	3698	3698	3698	3698	3698	3698	3698	3698	3698	3698	3698	3698	3698	3738	3738	3698	3738	3698	3698	3698	3698	3698	3698	3698	3698	3698	3698	3698	3698	3698	3698	3698	3698	3698	3698	3698	3698	3698	3698	3698	3698	3698	3698	3698	3698	3698	3698	3698	3698	3698	3698	3698	3698	3698	3698	3698	3698	3659	3659	3659	3659	3659	3659	3659	3659	3698	3698	3698	3698	3698	3738	3738	3738	3738	3738	3738	3738	3738	3738	3738	3738	3738	3738	3698	3698	3698	3698	3698	0	0	0	0	0	0	0	0	0	0	0	0	0	0	0	0	0	0	0	0	0	0	0	0	0	0	0	0	0	0	0	0	0	0	0	0	0	0	0	0	0	0	0	0	0	0	0	0	0	0	0	0	0	0	0	0	0	0	0	0	0	0	0	0	0	0	0	0	0	0	0	0	0	0	0	0	0	0	0	0	0	0	0	0	0	0	0	0	0	0	0	0	0	0	0	0	0	0	0	0	0	0	0	0	0	0	0	0	0	0	0	0	0	0	0	0	0	0	0	0	0	0	0	0	0	0	0	0	0	0	0	0	0	0	0	0
0	0	0	0	948	948	950	950	950	953	953	955	958	963	966	966	969	969	969	972	974	977	977	980	980	983	988	991	997	1000	1003	1006	1008	1014	1017	1020	1023	1023	1064	1071	1074	1074	1074	1078	1078	1078	0	0	0	0	0	0	2690	2669	2629	2609	2589	2589	2570	2570	2551	2551	2551	2551	2551	2570	2570	2570	2551	2551	2551	2551	2532	2532	2551	2551	2551	2551	2551	2551	2551	2570	2570	2570	2570	2570	2589	2570	2589	2570	2570	2570	2570	2570	2551	2570	2570	2589	2589	2589	2570	2589	2589	2589	2570	2570	2589	2589	2589	2589	2589	2589	2589	2589	2589	2570	2570	2589	2589	2589	2589	2570	2609	2609	2845	2845	2845	2822	2845	2845	2845	2822	2845	2845	2845	2845	2845	2845	2845	3659	3659	3698	3698	3659	3659	3659	3659	3659	3659	3659	3659	3659	3659	3698	3659	3659	3659	3659	3659	3659	3659	3659	3659	3659	3621	3659	3659	3698	3698	3698	3698	3738	3738	3698	3698	3659	3698	3698	3698	3698	3738	3738	3738	3738	3738	3738	3698	3698	3698	3698	3698	3698	3698	3738	3698	3698	3698	3698	3698	3738	3738	3738	3779	3779	3779	3779	3738	3738	3738	3738	3779	3779	3779	3779	3779	3738	3738	3698	3698	3698	3738	3738	3738	3738	3738	3698	3698	3698	3698	3738	3738	3738	3738	3698	3698	3698	3698	3698	3698	3698	3698	3698	3698	3698	3698	3698	3698	3698	3698	3738	3698	3738	3738	3698	3698	3698	3738	3738	3738	3738	3738	3738	3738	3738	3738	3738	3738	3738	3738	3738	2967	2967	2967	2967	2942	2942	2942	2942	2942	2942	2917	2917	2917	2893	2893	2893	2893	2893	2893	2869	2869	2869	2869	2869	2869	2869	2869	2869	2845	2869	2845	2845	2845	2845	2845	2845	2845	2822	2845	2845	2845	2845	2869	2869	2869	2869	2869	2869	2845	2869	2869	2845	2869	2869	2869	2869	2869	2869	2869	2869	2869	2869	2869	2893	2893	2869	2869	2869	2869	2869	2893	2893	2893	2893	2893	2893	2893	2869	2893	2869	2893	2893	2893	2893	3738	3738	3738	3738	3738	3738	3738	3738	3738	3738	3738	3738	3738	3738	3738	3698	3698	3698	3779	3779	3779	3779	3779	3738	3738	3738	3738	3738	3738	3698	3738	3698	3698	3698	3698	3698	3698	3698	3698	3698	3698	3698	3698	3698	3698	3698	3698	3698	3698	3698	3698	3698	3698	3698	3698	3698	3698	3738	3738	3698	3698	3698	3698	3698	3698	3659	3698	3659	3659	3659	3659	3659	3659	3659	3659	3738	3738	3698	3698	3698	3698	3698	3698	3698	3698	3698	3698	3698	3698	3698	3698	3698	3698	3698	3698	3698	3698	3698	3698	3698	3698	3698	3698	3698	3698	3698	3698	3698	3698	3659	3698	3698	3698	3659	3698	3698	3698	3659	3659	3659	3659	3659	3659	3659	3659	3659	3659	3698	3698	3698	3698	3698	3738	3738	3738	3738	3738	3738	3738	3738	3738	3738	3738	3738	3738	3698	3698	3698	3698	3698	0	0	0	0	0	0	0	0	0	0	0	0	0	0	0	0	0	0	0	0	0	0	0	0	0	0	0	0	0	0	0	0	0	0	0	0	0	0	0	0	0	0	0	0	0	0	0	0	0	0	0	0	0	0	0	0	0	0	0	0	0	0	0	0	0	0	0	0	0	0	0	0	0	0	0	0	0	0	0	0	0	0	0	0	0	0	0	0	0	0	0	0	0	0	0	0	0	0	0	0	0	0	0	0	0	0	0	0	0	0	0	0	0	0	0	0	0	0	0	0	0	0	0	0	0	0	0	0	0	0	0	0	0	0	0	0
0	0	0	0	950	950	950	950	950	953	953	955	958	961	963	963	966	966	969	972	974	977	977	980	983	985	988	991	994	997	1003	1003	1006	1011	1014	1017	1023	1023	1068	1071	1074	1074	1074	1078	1078	0	0	0	0	0	2754	2711	2690	2669	2649	2609	2589	2589	2570	2570	2551	2551	2532	2551	2551	2551	2551	2570	2551	2570	2551	2551	2532	2551	2551	2551	2551	2551	2551	2551	2551	2570	2570	2570	2570	2570	2589	2570	2570	2570	2570	2570	2570	2570	2570	2589	2589	2609	2609	2589	2589	2589	2589	2589	2570	2570	2589	2609	2589	2589	2589	2589	2589	2589	2589	2570	2589	2589	2589	2589	2589	2570	2609	2609	2845	2845	2869	2845	2845	2845	2845	2845	2845	2845	2869	2869	2869	2845	2845	3659	3698	3698	3698	3659	3659	3659	3659	3659	3659	3659	3659	3659	3659	3659	3659	3659	3659	3659	3659	3659	3659	3659	3659	3659	3621	3621	3659	3659	3698	3698	3698	3698	3698	3698	3698	3659	3698	3698	3698	3698	3698	3698	3698	3698	3738	3738	3698	3698	3738	3698	3738	3698	3698	3738	3738	3698	3738	3698	3698	3738	3738	3738	3779	3779	3779	3779	3738	3738	3738	3738	3779	3779	3779	3779	3779	3738	3738	3698	3698	3698	3698	3698	3738	3738	3738	3698	3698	3698	3698	3738	3738	3738	3698	3698	3698	3698	3698	3698	3698	3698	3698	3698	3698	3698	3698	3738	3698	3738	3698	3698	3698	3698	3698	3698	3698	3698	3738	3738	3738	3738	3738	3738	3738	3738	3738	3738	3738	3738	3738	3738	2967	2967	2967	2967	2942	2942	2942	2942	2942	2942	2917	2917	2917	2893	2893	2893	2893	2869	2869	2869	2869	2869	2869	2869	2869	2869	2845	2845	2845	2845	2845	2845	2845	2845	2845	2845	2845	2822	2845	2845	2845	2845	2869	2869	2869	2869	2869	2869	2869	2869	2869	2869	2869	2869	2869	2869	2869	2845	2869	2869	2869	2869	2869	2869	2869	2869	2869	2869	2869	2869	2869	2869	2893	2893	2893	2893	2893	2893	2893	2893	2893	2893	2893	2893	3738	3738	3738	3738	3738	3738	3738	3738	3738	3738	3738	3738	3738	3738	3698	3698	3698	3698	3738	3738	3738	3779	3779	3738	3738	3738	3738	3738	3738	3698	3738	3698	3698	3698	3698	3698	3698	3698	3698	3698	3698	3698	3698	3698	3698	3698	3698	3698	3738	3698	3698	3698	3698	3698	3698	3698	3738	3738	3738	3698	3698	3698	3698	3698	3698	3659	3659	3659	3659	3659	3659	3659	3659	3659	3659	3659	3698	3698	3698	3698	3698	3698	3698	3698	3698	3698	3698	3698	3698	3698	3698	3698	3698	3698	3698	3698	3698	3698	3698	3698	3698	3698	3698	3698	3698	3698	3698	3698	3698	3659	3698	3698	3698	3698	3698	3659	3698	3659	3659	3659	3659	3659	3659	3659	3659	3659	3659	3659	3659	3659	3698	3698	3738	3738	3738	3738	3738	3738	3738	3738	3738	3738	3738	3738	3738	3698	3698	3698	3698	3698	0	0	0	0	0	0	0	0	0	0	0	0	0	0	0	0	0	0	0	0	0	0	0	0	0	0	0	0	0	0	0	0	0	0	0	0	0	0	0	0	0	0	0	0	0	0	0	0	0	0	0	0	0	0	0	0	0	0	0	0	0	0	0	0	0	0	0	0	0	0	0	0	0	0	0	0	0	0	0	0	0	0	0	0	0	0	0	0	0	0	0	0	0	0	0	0	0	0	0	0	0	0	0	0	0	0	0	0	0	0	0	0	0	0	0	0	0	0	0	0	0	0	0	0	0	0	0	0	0	0	0	0	0	0	0	0
0	0	0	0	950	950	953	953	953	953	953	955	955	961	961	963	966	966	969	972	974	977	977	980	983	985	988	991	994	997	1000	1003	1006	1014	1020	1030	1033	1061	1064	1064	1071	1071	1071	1071	0	0	0	0	0	0	1958	1958	2733	2669	2649	2609	2589	2589	2570	2570	2570	2551	2551	2551	2551	2570	2570	2570	2570	2570	2570	2570	2551	2551	2551	2551	2551	2551	2551	2551	2551	2570	2570	2570	2570	2570	2589	2589	2589	2570	2570	2570	2570	2570	2570	2589	2609	2629	2609	2609	2589	2589	2589	2589	2570	2589	2589	2609	2589	2589	2589	2589	2570	2589	2589	2570	2570	2589	2589	2589	2589	2589	2589	2609	2609	2845	2869	2869	2869	2869	2869	2869	2869	2869	2869	2869	2869	2845	2845	2845	3698	3698	3698	3698	3659	3659	3659	3659	3659	3659	3659	3659	3698	3698	3659	3659	3659	3659	3659	3659	3659	3659	3659	3659	3659	3659	3659	3659	3659	3698	3698	3698	3698	3698	3659	3698	3698	3698	3698	3698	3738	3738	3738	3738	3738	3738	3698	3698	3738	3738	3738	3698	3738	3738	3738	3698	3738	3698	3738	3738	3779	3779	3779	3779	3738	3779	3738	3738	3738	3779	3779	3779	3779	3779	3779	3738	3738	3738	3738	3738	3738	3738	3698	3738	3738	3698	3698	3698	3698	3738	3698	3698	3698	3698	3698	3698	3698	3698	3698	3698	3698	3698	3698	3698	3698	3698	3698	3698	3698	3698	3698	3698	3698	3698	3698	3698	3738	3738	3738	3738	3738	3738	3738	3738	3738	3738	3738	3738	3738	2967	2967	2967	2967	2967	2967	2942	2942	2942	2942	2942	2917	2917	2893	2893	2893	2893	2893	2869	2869	2869	2869	2869	2869	2869	2869	2845	2845	2845	2845	2845	2845	2845	2845	2845	2845	2845	2845	2845	2845	2845	2822	2845	2869	2869	2869	2869	2869	2869	2869	2869	2869	2869	2869	2869	2869	2869	2869	2845	2845	2869	2869	2869	2869	2869	2869	2869	2869	2869	2869	2869	2869	2869	2893	2893	2893	2893	2893	2893	2893	2893	2893	2893	2893	2893	3738	3738	3738	3738	3738	3738	3738	3738	3738	3738	3738	3738	3738	3738	3698	3698	3698	3698	3738	3738	3738	3779	3738	3738	3738	3738	3738	3738	3738	3698	3698	3698	3698	3698	3698	3698	3698	3698	3698	3698	3698	3698	3698	3698	3698	3698	3738	3698	3738	3698	3698	3698	3698	3698	3698	3698	3738	3738	3738	3738	3738	3738	3698	3738	3698	3659	3698	3659	3659	3659	3659	3659	3659	3659	3659	3698	3698	3698	3698	3698	3698	3698	3698	3698	3698	3698	3698	3698	3698	3698	3698	3698	3698	3698	3698	3698	3698	3698	3698	3698	3698	3698	3738	3698	3698	3698	3698	3698	3698	3659	3659	3698	3698	3698	3698	3698	3698	3659	3659	3659	3659	3659	3659	3659	3659	3659	3659	3659	3659	3659	3698	3698	3738	3738	3738	3738	3738	3738	3738	3738	3738	3738	3738	3698	3698	3698	3698	3659	3659	3659	3659	0	0	0	0	0	0	0	0	0	0	0	0	0	0	0	0	0	0	0	0	0	0	0	0	0	0	0	0	0	0	0	0	0	0	0	0	0	0	0	0	0	0	0	0	0	0	0	0	0	0	0	0	0	0	0	0	0	0	0	0	0	0	0	0	0	0	0	0	0	0	0	0	0	0	0	0	0	0	0	0	0	0	0	0	0	0	0	0	0	0	0	0	0	0	0	0	0	0	0	0	0	0	0	0	0	0	0	0	0	0	0	0	0	0	0	0	0	0	0	0	0	0	0	0	0	0	0	0	0	0	0	0	0	0	0
0	0	0	0	950	950	950	950	950	953	953	955	955	961	961	963	966	969	972	972	974	977	977	980	980	985	988	991	991	994	1000	1000	1003	1011	1030	1036	1039	1061	1064	1068	1071	1071	1071	1071	0	0	0	0	0	1947	1947	1947	1936	1936	2649	2609	2589	2589	2570	2551	2551	2551	2551	2551	2551	2570	2570	2570	2570	2570	2570	2570	2551	2551	2551	2551	2570	2570	2551	2551	2551	2570	2570	2570	2570	2570	2570	2570	2570	2570	2570	2570	2589	2570	2570	2589	2609	2609	2609	2589	2589	2589	2589	2589	2570	2589	2589	2589	2570	2570	2570	2570	2570	2570	2570	2570	2570	2570	2589	2589	2589	2570	2570	2570	2845	2869	2869	2869	2869	2869	2869	2869	2869	2869	2869	2869	2869	2869	2869	2869	2869	3738	3698	3659	3659	3659	3659	3659	3659	3659	3659	3659	3698	3698	3659	3659	3659	3659	3659	3659	3659	3659	3659	3659	3621	3659	3659	3659	3659	3659	3698	3698	3698	3659	3659	3698	3698	3698	3698	3698	3738	3738	3738	3738	3738	3738	3698	3738	3738	3738	3738	3738	3738	3738	3738	3738	3738	3738	3738	3779	3779	3779	3779	3779	3779	3779	3779	3779	3779	3779	3779	3779	3779	3779	3738	3738	3738	3738	3738	3738	3738	3738	3738	3738	3738	3738	3738	3738	3738	3738	3738	3698	3698	3698	3698	3698	3698	3698	3698	3698	3698	3698	3698	3698	3698	3698	3698	3698	3698	3698	3698	3698	3738	3698	3698	3698	3738	3738	3738	3738	3738	3738	3738	3738	3738	3738	3738	3738	3738	2967	2967	2967	2967	2967	2942	2942	2942	2942	2917	2917	2917	2893	2893	2869	2869	2869	2869	2869	2869	2869	2869	2869	2869	2845	2869	2845	2845	2845	2845	2845	2845	2845	2845	2845	2845	2845	2845	2845	2845	2845	2822	2845	2869	2869	2869	2869	2869	2869	2869	2869	2869	2869	2869	2869	2869	2869	2869	2845	2869	2869	2869	2869	2869	2869	2869	2869	2845	2845	2845	2869	2869	2869	2893	2893	2893	2893	2893	2893	2893	2893	2893	2893	2893	2893	2893	3738	3738	3738	3738	3738	3738	3738	3738	3738	3738	3738	3738	3738	3698	3698	3698	3698	3738	3738	3738	3738	3738	3738	3738	3738	3738	3698	3738	3738	3738	3698	3698	3698	3698	3698	3698	3698	3698	3698	3698	3698	3698	3698	3698	3698	3738	3738	3738	3698	3698	3698	3698	3698	3698	3698	3698	3738	3738	3738	3738	3738	3738	3738	3698	3698	3698	3659	3659	3659	3659	3659	3659	3659	3659	3698	3698	3698	3698	3698	3698	3698	3698	3698	3698	3698	3698	3698	3698	3698	3698	3698	3698	3698	3698	3698	3698	3698	3698	3698	3698	3698	3698	3698	3698	3659	3659	3659	3659	3659	3659	3659	3698	3698	3698	3698	3698	3659	3659	3659	3659	3659	3659	3659	3659	3659	3659	3659	3659	3659	3698	3698	3738	3738	3738	3738	3738	3738	3738	3738	3738	3738	3738	3738	3698	3698	3698	3659	3621	3621	3621	0	0	0	0	0	0	0	0	0	0	0	0	0	0	0	0	0	0	0	0	0	0	0	0	0	0	0	0	0	0	0	0	0	0	0	0	0	0	0	0	0	0	0	0	0	0	0	0	0	0	0	0	0	0	0	0	0	0	0	0	0	0	0	0	0	0	0	0	0	0	0	0	0	0	0	0	0	0	0	0	0	0	0	0	0	0	0	0	0	0	0	0	0	0	0	0	0	0	0	0	0	0	0	0	0	0	0	0	0	0	0	0	0	0	0	0	0	0	0	0	0	0	0	0	0	0	0	0	0	0	0	0	0	0	0
0	0	0	0	948	948	950	950	950	953	953	955	955	958	961	963	969	969	972	974	974	977	977	980	980	983	988	991	991	994	1000	1000	1003	1014	1033	1036	1039	1061	1064	1064	1071	1071	1071	1071	0	0	0	0	0	1947	1947	1936	1936	1936	1936	2609	2589	2589	2589	2570	2589	2570	2551	2551	2570	2570	2570	2589	2570	2570	2570	2570	2551	2551	2551	2551	2551	2551	2551	2551	2551	2570	2570	2570	2570	2570	2589	2589	2570	2570	2570	2570	2570	2570	2570	2589	2609	2609	2609	2589	2589	2589	2589	2589	2570	2570	2570	2570	2570	2551	2570	2570	2570	2570	2570	2570	2570	2570	2589	2589	2589	2589	2589	2589	2845	2869	2869	2869	2869	2893	2893	2893	2869	2869	2869	2869	2869	2869	2869	2869	2869	3698	3698	3659	3659	3659	3659	3659	3659	3659	3659	3659	3698	3698	3659	3659	3698	3659	3659	3659	3659	3659	3659	3659	3621	3659	3659	3659	3659	3698	3698	3698	3659	3659	3659	3659	3698	3698	3698	3698	3698	3738	3738	3698	3698	3698	3698	3738	3738	3738	3738	3738	3738	3738	3738	3738	3738	3698	3738	3779	3779	3779	3779	3779	3779	3779	3779	3779	3779	3779	3779	3779	3779	3779	3738	3738	3738	3738	3738	3738	3738	3738	3738	3738	3738	3698	3698	3738	3698	3738	3698	3698	3698	3698	3698	3698	3698	3698	3698	3698	3698	3698	3698	3698	3698	3698	3698	3738	3738	3698	3698	3738	3738	3698	3698	3698	3738	3738	3738	3738	3738	3738	3738	3738	3738	3738	3738	3738	2967	2967	2967	2967	2967	2967	2967	2942	2942	2942	2917	2917	2893	2893	2893	2869	2869	2869	2869	2869	2869	2869	2869	2869	2845	2845	2845	2845	2845	2845	2822	2845	2845	2845	2845	2845	2845	2845	2845	2845	2845	2845	2822	2845	2869	2869	2869	2869	2869	2869	2869	2869	2869	2869	2845	2845	2869	2869	2869	2822	2822	2845	2845	2869	2845	2845	2845	2845	2845	2845	2845	2869	2869	2869	2893	2893	2893	2893	2893	2893	2893	2893	2893	2893	2917	2917	2917	3738	3738	3738	3738	3738	3698	3738	3738	3698	3698	3698	3698	3698	3698	3698	3698	3698	3738	3738	3738	3698	3698	3698	3698	3698	3698	3698	3738	3738	3738	3698	3698	3698	3698	3698	3698	3698	3698	3698	3698	3698	3698	3698	3698	3698	3738	3738	3738	3698	3698	3698	3698	3698	3698	3698	3698	3738	3738	3738	3738	3738	3698	3698	3698	3659	3659	3659	3659	3659	3659	3659	3659	3659	3659	3698	3698	3698	3698	3698	3698	3698	3698	3698	3698	3698	3698	3698	3698	3698	3698	3698	3698	3698	3698	3698	3698	3698	3738	3698	3698	3698	3738	3698	3698	3659	3659	3659	3659	3659	3698	3659	3698	3698	3698	3698	3698	3659	3659	3659	3659	3659	3659	3659	3659	3659	3659	3659	3659	3659	3659	3698	3738	3698	3698	3738	3738	3738	3738	3738	3738	3738	3738	3698	3698	3698	3659	3659	3621	3621	3621	0	0	0	0	0	0	0	0	0	0	0	0	0	0	0	0	0	0	0	0	0	0	0	0	0	0	0	0	0	0	0	0	0	0	0	0	0	0	0	0	0	0	0	0	0	0	0	0	0	0	0	0	0	0	0	0	0	0	0	0	0	0	0	0	0	0	0	0	0	0	0	0	0	0	0	0	0	0	0	0	0	0	0	0	0	0	0	0	0	0	0	0	0	0	0	0	0	0	0	0	0	0	0	0	0	0	0	0	0	0	0	0	0	0	0	0	0	0	0	0	0	0	0	0	0	0	0	0	0	0	0	0	0	0	0
0	0	0	0	945	945	948	948	950	953	953	955	955	958	961	961	969	969	972	974	977	977	977	980	980	983	988	991	991	994	1000	1000	1003	1006	1014	1014	1014	1074	1068	1068	1071	1074	1074	1074	0	0	0	0	0	1936	1936	1936	1936	1936	1947	1947	2589	2589	2589	2570	2589	2570	2551	2551	2551	2570	2570	2570	2570	2570	2570	2570	2551	2551	2551	2551	2551	2551	2551	2551	2551	2570	2570	2570	2570	2570	2589	2570	2570	2570	2570	2570	2570	2570	2570	2570	2589	2589	2589	2570	2570	2589	2570	2570	2551	2570	2570	2570	2551	2551	2570	2570	2570	2570	2570	2570	2570	2570	2570	2589	2589	2589	2589	2589	2845	2845	2869	2893	2893	2893	2893	2893	2893	2893	2893	2893	2869	2869	2869	2869	2893	2893	3698	3659	3659	3659	3659	3659	3659	3659	3659	3659	3659	3659	3659	3659	3659	3659	3659	3659	3659	3659	3659	3659	3659	3659	3659	3659	3659	3659	3659	3659	3659	3659	3659	3659	3659	3698	3698	3698	3738	3738	3738	3698	3738	3738	3738	3738	3738	3738	3779	3738	3738	3738	3738	3738	3738	3698	3738	3738	3779	3779	3821	3779	3779	3779	3779	3779	3779	3779	3779	3779	3779	3779	3738	3738	3738	3738	3738	3738	3738	3738	3738	3738	3698	3698	3698	3738	3698	3738	3738	3698	3698	3698	3698	3698	3698	3698	3698	3698	3698	3698	3698	3698	3698	3698	3698	3698	3738	3698	3698	3698	3738	3738	3698	3698	3738	3738	3738	3738	3738	3738	3738	3738	3738	3738	3738	3738	2967	2967	2967	2967	2967	2967	2942	2942	2942	2942	2917	2893	2893	2893	2893	2869	2869	2869	2869	2869	2869	2869	2869	2869	2845	2845	2845	2845	2845	2845	2845	2845	2845	2845	2845	2845	2845	2845	2845	2822	2845	2845	2822	2845	2869	2869	2869	2869	2869	2869	2869	2869	2869	2869	2845	2845	2845	2869	2869	2845	2845	2845	2845	2845	2845	2845	2845	2845	2845	2845	2869	2869	2869	2869	2893	2893	2893	2893	2893	2893	2893	2893	2893	2893	2917	2917	2869	2869	3738	3738	3738	3738	3738	3738	3738	3698	3698	3698	3698	3698	3698	3698	3698	3698	3738	3738	3698	3698	3698	3698	3738	3698	3698	3698	3738	3738	3738	3738	3698	3738	3698	3698	3698	3698	3698	3698	3698	3698	3698	3698	3738	3698	3738	3738	3738	3698	3698	3698	3698	3698	3698	3698	3698	3738	3738	3738	3738	3738	3698	3698	3698	3659	3659	3659	3659	3659	3659	3659	3659	3659	3659	3698	3698	3698	3698	3698	3698	3698	3698	3698	3698	3698	3698	3698	3698	3698	3698	3698	3698	3698	3698	3698	3698	3698	3738	3738	3698	3698	3698	3698	3698	3659	3659	3659	3659	3659	3659	3659	3698	3698	3698	3698	3698	3698	3659	3659	3659	3698	3698	3659	3659	3659	3659	3659	3659	3659	3659	3659	3698	3698	3698	3698	3738	3738	3738	3738	3738	3738	3738	3698	3698	3698	3659	3659	3659	3659	3659	0	0	0	0	0	0	0	0	0	0	0	0	0	0	0	0	0	0	0	0	0	0	0	0	0	0	0	0	0	0	0	0	0	0	0	0	0	0	0	0	0	0	0	0	0	0	0	0	0	0	0	0	0	0	0	0	0	0	0	0	0	0	0	0	0	0	0	0	0	0	0	0	0	0	0	0	0	0	0	0	0	0	0	0	0	0	0	0	0	0	0	0	0	0	0	0	0	0	0	0	0	0	0	0	0	0	0	0	0	0	0	0	0	0	0	0	0	0	0	0	0	0	0	0	0	0	0	0	0	0	0	0	0	0	0
0	0	0	0	945	945	948	948	950	950	953	955	955	958	961	963	969	972	974	977	977	977	977	980	980	983	988	991	991	994	1000	1003	1003	1003	1008	1036	1039	1064	1064	1064	1071	1071	1071	1074	0	0	0	0	1936	1947	1947	1936	1936	1947	1958	1958	1958	2589	2589	2589	2609	2589	2570	2570	2570	2570	2570	2570	2570	2570	2570	2551	2551	2551	2551	2551	2551	2570	2551	2551	2551	2551	2551	2551	2551	2551	2551	2570	2570	2570	2570	2570	2570	2570	2570	2570	2589	2589	2570	2570	2570	2589	2570	2570	2551	2570	2570	2570	2570	2551	2570	2570	2570	2570	2570	2570	2570	2570	2570	2589	2589	2589	2589	2589	2869	2869	2893	2893	2893	2893	2893	2893	2893	2893	2893	2893	2893	2893	2893	2893	2893	2893	3659	3659	3659	3659	3659	3659	3659	3659	3659	3659	3659	3659	3659	3659	3659	3659	3659	3659	3659	3659	3659	3659	3659	3659	3659	3659	3659	3659	3659	3659	3659	3659	3659	3659	3659	3698	3698	3738	3738	3738	3738	3738	3738	3738	3738	3738	3738	3779	3779	3779	3738	3738	3738	3738	3738	3738	3738	3821	3821	3821	3821	3779	3779	3779	3779	3779	3779	3779	3779	3821	3779	3779	3738	3738	3738	3738	3738	3738	3738	3738	3738	3738	3698	3698	3698	3698	3698	3698	3698	3698	3698	3698	3698	3698	3698	3698	3698	3698	3698	3698	3698	3698	3698	3698	3698	3698	3698	3698	3698	3698	3698	3698	3698	3698	3738	3738	3738	3738	3738	3738	3738	3738	3738	3738	3738	3738	2967	2967	2967	2967	2942	2942	2942	2942	2942	2917	2917	2893	2893	2893	2893	2869	2869	2869	2869	2869	2869	2869	2869	2845	2845	2845	2845	2845	2845	2845	2822	2845	2845	2822	2845	2845	2845	2845	2845	2822	2845	2845	2822	2822	2845	2869	2869	2845	2869	2845	2845	2845	2845	2845	2845	2845	2869	2869	2869	2845	2845	2845	2845	2845	2845	2845	2845	2845	2845	2845	2869	2869	2869	2869	2893	2893	2893	2893	2893	2893	2893	2893	2893	2917	2917	2917	2893	2893	3738	3738	3738	3738	3738	3738	3738	3698	3698	3698	3698	3698	3698	3698	3698	3698	3738	3738	3738	3698	3738	3698	3738	3698	3698	3698	3698	3738	3738	3738	3698	3698	3698	3698	3698	3698	3698	3698	3698	3698	3698	3738	3738	3738	3738	3738	3738	3698	3738	3698	3698	3698	3698	3698	3698	3738	3738	3698	3698	3698	3698	3698	3698	3659	3659	3659	3659	3659	3659	3659	3659	3659	3659	3698	3698	3698	3698	3698	3698	3698	3698	3698	3698	3698	3698	3698	3698	3698	3698	3698	3698	3698	3698	3698	3698	3738	3738	3738	3698	3698	3698	3698	3698	3698	3698	3659	3659	3659	3698	3659	3698	3698	3698	3698	3698	3698	3698	3698	3659	3698	3698	3659	3659	3659	3659	3659	3659	3659	3659	3659	3698	3698	3698	3698	3698	3738	3738	3738	3738	3738	3738	3738	3698	3698	3698	3659	3659	3659	3659	0	0	0	0	0	0	0	0	0	0	0	0	0	0	0	0	0	0	0	0	0	0	0	0	0	0	0	0	0	0	0	0	0	0	0	0	0	0	0	0	0	0	0	0	0	0	0	0	0	0	0	0	0	0	0	0	0	0	0	0	0	0	0	0	0	0	0	0	0	0	0	0	0	0	0	0	0	0	0	0	0	0	0	0	0	0	0	0	0	0	0	0	0	0	0	0	0	0	0	0	0	0	0	0	0	0	0	0	0	0	0	0	0	0	0	0	0	0	0	0	0	0	0	0	0	0	0	0	0	0	0	0	0	0	0
0	0	0	0	945	945	948	948	950	950	953	953	955	958	961	966	972	972	974	977	977	977	977	980	980	983	988	991	991	997	1000	1003	1003	1003	1006	1006	1039	1064	1064	1064	1071	1071	1071	0	0	0	0	1936	1936	1947	1947	1947	1947	1958	1969	1969	1969	2589	2589	2589	2609	2589	2570	2570	2570	2570	2570	2589	2570	2570	2570	2551	2551	2551	2551	2551	2551	2551	2551	2551	2532	2551	2551	2570	2570	2551	2570	2570	2570	2570	2570	2570	2570	2570	2570	2570	2570	2570	2570	2570	2570	2570	2570	2570	2570	2570	2570	2570	2551	2551	2570	2570	2570	2570	2570	2570	2570	2570	2570	2589	2570	2570	2629	2629	2629	2893	2917	2917	2917	2917	2917	2917	2917	2917	2917	2917	2893	2893	2893	2893	2917	2917	2917	3698	3698	3659	3659	3659	3659	3659	3659	3659	3659	3659	3659	3659	3659	3659	3659	3659	3659	3659	3659	3659	3659	3659	3659	3659	3659	3659	3659	3659	3659	3659	3659	3659	3659	3659	3698	3738	3738	3738	3698	3698	3698	3698	3698	3698	3738	3738	3779	3779	3738	3738	3738	3738	3738	3738	3738	3779	3821	3779	3779	3738	3738	3738	3738	3779	3779	3779	3779	3779	3779	3738	3738	3738	3738	3738	3738	3698	3738	3738	3698	3698	3698	3698	3698	3698	3698	3698	3698	3698	3698	3698	3698	3698	3698	3698	3698	3698	3698	3698	3698	3698	3698	3698	3698	3698	3738	3698	3698	3698	3698	3698	3698	3698	3738	3738	3738	3738	3738	3738	3738	3738	3738	3738	3738	2967	2967	2942	2942	2942	2942	2942	2942	2942	2942	2917	2917	2893	2893	2893	2893	2869	2869	2869	2869	2869	2869	2869	2869	2845	2845	2845	2845	2845	2845	2845	2822	2822	2845	2845	2845	2845	2845	2845	2845	2845	2845	2845	2822	2822	2845	2845	2845	2845	2845	2845	2845	2845	2845	2845	2845	2845	2869	2869	2869	2845	2845	2845	2845	2845	2822	2822	2845	2845	2845	2845	2869	2869	2869	2869	2869	2893	2893	2893	2893	2893	2893	2893	2893	2893	2917	2917	2893	2869	2869	3738	3738	3738	3738	3738	3698	3698	3698	3698	3698	3698	3698	3698	3698	3698	3738	3738	3738	3698	3738	3738	3738	3698	3698	3698	3738	3738	3738	3738	3738	3738	3698	3698	3698	3659	3698	3698	3698	3698	3698	3738	3738	3738	3738	3738	3738	3738	3738	3698	3698	3698	3698	3698	3698	3698	3698	3698	3698	3698	3698	3659	3659	3659	3659	3659	3659	3659	3659	3659	3659	3659	3659	3698	3698	3738	3698	3698	3698	3698	3698	3698	3698	3698	3698	3698	3698	3698	3698	3698	3698	3698	3698	3698	3698	3698	3698	3698	3698	3698	3698	3698	3698	3698	3698	3698	3659	3659	3698	3698	3698	3698	3698	3698	3698	3698	3698	3698	3698	3698	3698	3659	3698	3659	3659	3659	3659	3659	3659	3659	3698	3698	3698	3698	3698	3738	3738	3738	3738	3738	3738	3738	3698	3698	3698	3659	3659	3659	3659	0	0	0	0	0	0	0	0	0	0	0	0	0	0	0	0	0	0	0	0	0	0	0	0	0	0	0	0	0	0	0	0	0	0	0	0	0	0	0	0	0	0	0	0	0	0	0	0	0	0	0	0	0	0	0	0	0	0	0	0	0	0	0	0	0	0	0	0	0	0	0	0	0	0	0	0	0	0	0	0	0	0	0	0	0	0	0	0	0	0	0	0	0	0	0	0	0	0	0	0	0	0	0	0	0	0	0	0	0	0	0	0	0	0	0	0	0	0	0	0	0	0	0	0	0	0	0	0	0	0	0	0	0	0	0
0	0	0	0	945	945	948	948	950	950	953	955	955	958	961	963	969	972	974	977	977	977	977	980	980	980	983	988	991	997	1000	1003	1003	1003	1014	1026	1036	1039	1064	1058	1058	1071	0	0	0	0	1947	1947	1947	1947	1947	1947	1947	1958	1958	1958	1958	1969	1992	1980	1992	1992	2551	2551	2551	2570	2570	2570	2570	2570	2570	2551	2551	2551	2551	2551	2532	2551	2551	2551	2532	2551	2551	2551	2570	2551	2570	2570	2570	2570	2570	2570	2570	2570	2570	2570	2570	2570	2570	2570	2570	2570	2570	2570	2551	2570	2570	2570	2551	2551	2570	2570	2570	2570	2570	2570	2570	2570	2570	2589	2570	2570	2609	2609	3101	3073	2942	2917	2917	2942	2942	2942	2917	2917	2917	2917	2917	2917	2917	2917	2942	2917	2917	2917	2917	3698	3698	3698	3659	3659	3659	3659	3659	3698	3698	3659	3659	3698	3698	3659	3659	3659	3659	3659	3659	3659	3659	3659	3659	3659	3659	3659	3659	3659	3659	3659	3659	3698	3698	3738	3738	3738	3738	3698	3698	3698	3698	3738	3738	3738	3779	3779	3738	3738	3738	3738	3738	3738	3738	3779	3779	3779	3779	3738	3738	3738	3738	3779	3779	3738	3738	3779	3779	3738	3738	3698	3698	3698	3738	3698	3698	3698	3698	3698	3698	3698	3698	3698	3698	3698	3698	3698	3698	3698	3698	3698	3698	3698	3698	3698	3698	3698	3659	3659	3698	3698	3698	3698	3738	3738	3738	3738	3738	3738	3738	3698	3738	3738	3738	3738	3738	3738	3738	3738	3738	3738	3738	2967	2967	2942	2942	2942	2942	2942	2942	2942	2942	2917	2893	2893	2893	2869	2869	2869	2869	2869	2869	2869	2845	2845	2845	2845	2845	2845	2845	2845	2845	2845	2845	2822	2845	2822	2845	2822	2845	2845	2845	2822	2845	2822	2822	2822	2822	2845	2845	2822	2845	2845	2845	2845	2845	2822	2822	2822	2845	2845	2845	2845	2845	2822	2822	2845	2822	2822	2845	2845	2845	2845	2869	2869	2869	2869	2893	2893	2893	2893	2893	2893	2893	2893	2893	2893	2893	2893	2893	2845	2845	3698	3698	3698	3738	3738	3698	3698	3698	3698	3698	3698	3698	3698	3698	3698	3738	3738	3738	3738	3738	3738	3738	3698	3698	3738	3738	3738	3738	3738	3738	3738	3698	3698	3698	3659	3698	3698	3698	3698	3698	3738	3738	3738	3738	3738	3738	3738	3738	3698	3698	3698	3698	3698	3698	3698	3698	3698	3698	3698	3698	3659	3659	3659	3659	3659	3659	3659	3659	3659	3659	3659	3659	3698	3698	3738	3698	3698	3698	3698	3698	3698	3698	3698	3698	3698	3698	3698	3698	3698	3698	3698	3698	3698	3698	3698	3698	3698	3698	3698	3698	3698	3698	3698	3698	3698	3659	3659	3659	3659	3698	3698	3698	3698	3698	3698	3698	3698	3698	3698	3698	3659	3659	3659	3659	3659	3659	3659	3659	3659	3698	3698	3698	3698	3738	3738	3698	3738	3738	3738	3738	3698	3698	3698	3698	3659	3659	3659	3659	0	0	0	0	0	0	0	0	0	0	0	0	0	0	0	0	0	0	0	0	0	0	0	0	0	0	0	0	0	0	0	0	0	0	0	0	0	0	0	0	0	0	0	0	0	0	0	0	0	0	0	0	0	0	0	0	0	0	0	0	0	0	0	0	0	0	0	0	0	0	0	0	0	0	0	0	0	0	0	0	0	0	0	0	0	0	0	0	0	0	0	0	0	0	0	0	0	0	0	0	0	0	0	0	0	0	0	0	0	0	0	0	0	0	0	0	0	0	0	0	0	0	0	0	0	0	0	0	0	0	0	0	0	0	0
0	0	0	0	0	945	945	948	950	953	953	955	955	958	961	963	969	969	972	977	977	977	977	977	980	980	980	988	991	997	1000	1003	1003	1006	1014	1026	1033	1036	1052	1058	1058	0	0	0	0	0	1958	1947	1947	1947	1947	1947	1947	1958	1958	1958	1969	1980	1980	1992	1992	1992	2551	2551	2570	2570	2570	2570	2570	2570	2551	2551	2551	2551	2551	2551	2532	2551	2551	2551	2532	2551	2551	2570	2570	2551	2570	2570	2570	2570	2570	2570	2570	2570	2570	2570	2570	2570	2570	2570	2551	2551	2551	2551	2551	2551	2551	2551	2551	2551	2570	2570	2570	2570	2570	2570	2589	2589	2570	2589	2589	2570	2609	2609	3101	3073	3073	2942	2942	2942	2942	2942	2942	2942	2942	2942	2917	2917	2942	2942	2967	2942	2942	2942	2942	3738	3738	3698	3698	3698	3698	3698	3698	3698	3659	3659	3659	3698	3698	3659	3659	3659	3659	3659	3659	3659	3659	3659	3659	3659	3659	3659	3659	3659	3659	3659	3659	3698	3738	3738	3738	3738	3738	3698	3698	3698	3698	3698	3738	3738	3738	3738	3738	3738	3738	3738	3738	3738	3738	3779	3779	3779	3779	3738	3738	3738	3738	3738	3738	3738	3738	3738	3738	3738	3738	3698	3698	3698	3738	3698	3698	3698	3698	3698	3698	3698	3698	3698	3698	3698	3698	3698	3698	3698	3698	3698	3698	3698	3698	3698	3698	3698	3698	3698	3698	3659	3698	3698	3698	3698	3698	3698	3738	3738	3738	3698	3738	3738	3738	3738	3738	3738	3738	3738	3738	3738	3738	2967	2967	2942	2942	2942	2942	2942	2942	2942	2917	2917	2893	2893	2893	2869	2869	2869	2869	2869	2869	2869	2869	2869	2845	2845	2845	2845	2845	2845	2845	2845	2845	2822	2845	2845	2845	2822	2822	2822	2822	2822	2822	2822	2822	2822	2845	2845	2845	2845	2845	2845	2822	2822	2822	2822	2822	2822	2822	2845	2845	2822	2845	2822	2822	2845	2822	2822	2845	2845	2845	2845	2869	2869	2869	2869	2893	2893	2893	2893	2893	2893	2893	2893	2869	2869	2869	2893	2869	2845	2845	3698	3698	3698	3698	3738	3698	3698	3698	3698	3698	3698	3698	3698	3698	3698	3738	3738	3738	3738	3738	3738	3738	3738	3698	3698	3738	3738	3738	3738	3738	3738	3698	3698	3698	3698	3698	3698	3698	3698	3698	3738	3738	3698	3698	3738	3738	3698	3698	3698	3698	3698	3698	3698	3659	3659	3659	3659	3698	3659	3659	3659	3659	3659	3659	3659	3659	3659	3659	3659	3659	3659	3659	3698	3698	3738	3698	3698	3698	3698	3698	3698	3698	3698	3698	3698	3698	3698	3698	3698	3698	3698	3698	3698	3698	3698	3698	3698	3698	3698	3698	3698	3698	3698	3698	3698	3659	3659	3659	3659	3698	3698	3698	3698	3698	3698	3698	3698	3698	3698	3698	3659	3698	3659	3659	3659	3659	3659	3659	3659	3698	3698	3698	3698	3698	3698	3698	3698	3738	3738	3738	3738	3698	3698	3698	3698	3659	3659	3659	0	0	0	0	0	0	0	0	0	0	0	0	0	0	0	0	0	0	0	0	0	0	0	0	0	0	0	0	0	0	0	0	0	0	0	0	0	0	0	0	0	0	0	0	0	0	0	0	0	0	0	0	0	0	0	0	0	0	0	0	0	0	0	0	0	0	0	0	0	0	0	0	0	0	0	0	0	0	0	0	0	0	0	0	0	0	0	0	0	0	0	0	0	0	0	0	0	0	0	0	0	0	0	0	0	0	0	0	0	0	0	0	0	0	0	0	0	0	0	0	0	0	0	0	0	0	0	0	0	0	0	0	0	0	0
0	0	0	0	0	945	945	948	950	953	953	955	955	961	961	966	969	969	972	974	977	977	977	977	980	980	980	985	988	997	1000	1000	1003	1006	1011	1017	1026	1026	1026	1030	1058	0	0	0	0	1947	1947	1947	1947	1947	1947	1958	1958	1958	1969	1969	1969	1992	2003	2003	2003	2003	2532	2551	2551	2570	2570	2570	2570	2570	2570	2551	2551	2551	2532	2532	2532	2551	2532	2551	2532	2570	2570	2570	2570	2570	2570	2589	2570	2570	2570	2570	2570	2570	2570	2570	2570	2551	2551	2551	2551	2551	2551	2551	2551	2551	2551	2551	2551	2551	2570	2570	2570	2570	2570	2570	2589	2589	2570	2589	2589	2589	2589	3101	3073	3046	2967	2967	2967	2967	2967	2967	2967	2967	2967	2942	2942	2942	2942	2942	2967	2967	2942	2942	2967	2942	2942	3738	3698	3698	3659	3659	3659	3659	3659	3659	3659	3698	3698	3659	3659	3659	3659	3659	3659	3659	3659	3659	3659	3659	3659	3659	3659	3659	3659	3659	3659	3698	3738	3738	3738	3738	3738	3698	3698	3698	3698	3698	3738	3738	3779	3779	3738	3738	3738	3738	3738	3698	3738	3779	3738	3779	3738	3738	3698	3738	3738	3738	3738	3738	3738	3738	3738	3738	3738	3738	3738	3738	3738	3738	3698	3698	3738	3698	3698	3698	3698	3738	3698	3738	3698	3698	3698	3698	3698	3698	3698	3698	3698	3698	3698	3698	3698	3698	3698	3659	3659	3698	3698	3698	3698	3698	3698	3698	3738	3698	3698	3738	3738	3738	3738	3738	3738	3738	3738	3738	3738	2967	2942	2942	2942	2942	2942	2942	2942	2942	2917	2917	2893	2893	2893	2869	2869	2869	2869	2869	2869	2869	2845	2869	2845	2845	2845	2845	2845	2845	2845	2845	2845	2845	2845	2822	2822	2822	2822	2822	2822	2822	2822	2822	2822	2822	2845	2845	2845	2822	2822	2822	2822	2822	2822	2799	2822	2822	2822	2822	2822	2822	2822	2822	2822	2822	2822	2822	2822	2845	2845	2845	2869	2869	2869	2869	2893	2893	2893	2893	2893	2893	2893	2893	2893	2869	2893	2893	2869	2845	2845	3698	3698	3698	3698	3738	3738	3698	3698	3698	3698	3698	3698	3698	3698	3698	3738	3738	3738	3738	3738	3738	3738	3738	3698	3738	3738	3738	3738	3738	3738	3738	3738	3738	3698	3698	3698	3698	3698	3698	3698	3738	3738	3698	3698	3698	3738	3738	3738	3738	3738	3698	3698	3698	3698	3698	3698	3698	3698	3698	3659	3659	3659	3659	3659	3659	3659	3659	3659	3659	3659	3659	3659	3738	3698	3738	3738	3698	3698	3698	3698	3698	3698	3698	3698	3698	3698	3698	3698	3698	3698	3698	3698	3698	3698	3698	3698	3698	3698	3698	3698	3698	3698	3698	3698	3698	3698	3659	3659	3659	3698	3698	3659	3659	3698	3698	3698	3698	3698	3698	3698	3659	3698	3659	3659	3698	3659	3659	3659	3659	3698	3698	3698	3698	3698	3698	3698	3698	3698	3698	3698	3698	3698	3698	3698	3698	3659	3698	3698	0	0	0	0	0	0	0	0	0	0	0	0	0	0	0	0	0	0	0	0	0	0	0	0	0	0	0	0	0	0	0	0	0	0	0	0	0	0	0	0	0	0	0	0	0	0	0	0	0	0	0	0	0	0	0	0	0	0	0	0	0	0	0	0	0	0	0	0	0	0	0	0	0	0	0	0	0	0	0	0	0	0	0	0	0	0	0	0	0	0	0	0	0	0	0	0	0	0	0	0	0	0	0	0	0	0	0	0	0	0	0	0	0	0	0	0	0	0	0	0	0	0	0	0	0	0	0	0	0	0	0	0	0	0	0
0	0	0	0	0	945	945	945	948	950	953	955	955	961	961	966	966	969	972	974	974	977	977	977	980	980	983	983	991	997	997	1000	1003	1006	1014	1023	1030	1030	1030	1036	1036	0	0	0	0	1947	1947	1947	1947	1958	1958	1958	1958	1969	1969	1980	1980	1992	2003	2003	2015	2015	2532	2551	2551	2570	2570	2570	2570	2570	2570	2570	2551	2551	2532	2532	2532	2551	2532	2551	2551	2570	2570	2570	2570	2570	2570	2570	2570	2570	2570	2570	2570	2570	2570	2551	2570	2551	2551	2570	2551	2551	2551	2551	2551	2551	2551	2551	2551	2551	2570	2570	2570	2570	2570	2570	2570	2570	2570	2570	2570	2570	2570	3073	3046	3046	2993	2967	2967	2967	2967	2967	2967	2967	2967	2967	2942	2967	2967	2967	2967	2967	2967	2967	2967	2942	2942	3738	3738	3698	3698	3698	3659	3659	3659	3659	3659	3659	3659	3659	3659	3659	3659	3659	3659	3659	3659	3659	3659	3659	3659	3659	3659	3659	3659	3659	3659	3698	3738	3738	3738	3738	3738	3698	3698	3698	3698	3738	3738	3738	3738	3779	3738	3738	3738	3698	3738	3738	3738	3779	3738	3779	3738	3738	3698	3698	3738	3738	3738	3738	3698	3738	3738	3738	3738	3738	3738	3738	3738	3738	3698	3698	3738	3738	3698	3698	3698	3698	3698	3698	3698	3698	3698	3698	3698	3698	3698	3698	3698	3698	3698	3698	3698	3698	3698	3659	3698	3698	3698	3698	3698	3698	3698	3698	3698	3698	3698	3738	3738	3738	3738	3738	3738	3738	3738	3738	3738	2942	2942	2942	2942	2942	2942	2942	2942	2917	2917	2917	2893	2893	2893	2869	2869	2869	2869	2869	2869	2869	2845	2845	2845	2845	2845	2845	2845	2845	2845	2845	2845	2845	2845	2822	2822	2822	2799	2822	2799	2822	2822	2799	2799	2799	2822	2845	2845	2822	2822	2822	2822	2822	2822	2799	2822	2822	2822	2845	2822	2822	2845	2822	2822	2845	2822	2822	2822	2845	2845	2869	2869	2869	2869	2869	2893	2893	2893	2893	2893	2893	2893	2893	2893	2893	2893	2893	2869	2869	2869	2869	3698	3698	3698	3698	3698	3698	3698	3698	3698	3698	3698	3698	3659	3698	3738	3738	3738	3738	3738	3738	3738	3738	3698	3738	3738	3738	3738	3738	3738	3738	3738	3738	3698	3698	3698	3698	3698	3698	3698	3698	3738	3698	3698	3698	3738	3738	3698	3698	3698	3698	3698	3698	3659	3698	3659	3659	3698	3698	3698	3659	3659	3659	3659	3659	3659	3659	3659	3659	3659	3659	3659	3738	3698	3738	3738	3738	3698	3698	3698	3698	3698	3698	3698	3698	3698	3698	3698	3698	3698	3698	3698	3698	3698	3698	3698	3698	3698	3698	3698	3698	3698	3698	3659	3698	3659	3659	3659	3659	3698	3698	3659	3659	3698	3698	3698	3698	3698	3698	3698	3659	3698	3659	3659	3659	3659	3659	3659	3659	3698	3698	3698	3698	3698	3698	3698	3698	3698	3698	3698	3698	3698	3698	3698	3698	3698	3698	3698	0	0	0	0	0	0	0	0	0	0	0	0	0	0	0	0	0	0	0	0	0	0	0	0	0	0	0	0	0	0	0	0	0	0	0	0	0	0	0	0	0	0	0	0	0	0	0	0	0	0	0	0	0	0	0	0	0	0	0	0	0	0	0	0	0	0	0	0	0	0	0	0	0	0	0	0	0	0	0	0	0	0	0	0	0	0	0	0	0	0	0	0	0	0	0	0	0	0	0	0	0	0	0	0	0	0	0	0	0	0	0	0	0	0	0	0	0	0	0	0	0	0	0	0	0	0	0	0	0	0	0	0	0	0	0
0	0	0	0	0	945	945	945	948	950	953	953	955	958	961	966	969	969	972	972	974	977	977	980	980	983	983	988	991	997	1000	1000	1003	1006	1020	1026	1030	1033	1036	1036	1036	0	0	0	0	0	1980	1958	1969	1969	1969	1969	1969	1980	1980	1980	1980	1992	2003	2003	2015	2027	2027	2027	2027	2570	2570	2570	2570	2570	2570	2551	2551	2532	2532	2532	2532	2532	2532	2551	2551	2570	2570	2570	2589	2570	2570	2589	2570	2570	2570	2570	2570	2570	2570	2570	2570	2570	2570	2570	2570	2551	2551	2551	2551	2551	2551	2551	2551	2551	2570	2570	2570	2589	2589	2570	2570	2570	2570	2570	2570	2570	2570	3046	3046	3046	2993	2993	2993	2993	2967	2993	2967	2967	2967	2967	2967	2967	2967	2967	2993	2993	2967	2967	2967	2942	2942	3779	3738	3698	3698	3659	3659	3659	3659	3659	3659	3659	3659	3659	3659	3659	3659	3659	3659	3659	3659	3659	3659	3659	3659	3659	3659	3659	3659	3659	3698	3738	3738	3738	3738	3738	3738	3698	3698	3698	3698	3698	3738	3738	3738	3738	3738	3738	3738	3738	3738	3738	3738	3779	3738	3779	3738	3738	3698	3698	3698	3698	3738	3698	3698	3738	3738	3738	3738	3738	3738	3738	3738	3738	3698	3698	3738	3738	3738	3738	3698	3738	3698	3698	3698	3698	3698	3698	3698	3698	3698	3698	3698	3698	3698	3698	3698	3698	3698	3698	3698	3698	3698	3698	3698	3698	3698	3698	3698	3698	3698	3738	3738	3738	3738	3698	3698	3738	3738	3698	3738	2967	2942	2942	2942	2942	2942	2942	2942	2917	2917	2917	2893	2893	2893	2869	2869	2893	2869	2869	2869	2869	2845	2845	2845	2845	2845	2845	2845	2845	2845	2845	2845	2845	2845	2822	2822	2822	2799	2799	2799	2822	2822	2799	2799	2799	2822	2822	2822	2822	2822	2822	2822	2822	2822	2799	2822	2822	2822	2845	2822	2822	2845	2822	2822	2845	2822	2822	2822	2845	2845	2869	2869	2869	2869	2893	2893	2893	2893	2893	2893	2893	2893	2893	2893	2893	2893	2893	2893	2869	2869	2869	3698	3698	3698	3698	3698	3698	3698	3698	3698	3698	3698	3698	3698	3698	3738	3738	3738	3738	3738	3738	3738	3738	3698	3738	3738	3738	3738	3738	3738	3738	3738	3738	3698	3698	3698	3698	3698	3698	3698	3698	3698	3698	3698	3698	3738	3738	3698	3698	3698	3698	3698	3698	3659	3698	3659	3698	3698	3698	3698	3659	3659	3659	3659	3659	3659	3659	3659	3659	3659	3659	3659	3738	3698	3738	3738	3698	3738	3698	3698	3698	3698	3698	3698	3698	3698	3698	3698	3698	3698	3698	3698	3698	3698	3698	3698	3698	3698	3698	3698	3698	3698	3698	3659	3698	3659	3659	3659	3659	3659	3659	3659	3659	3659	3659	3698	3698	3698	3698	3698	3659	3698	3659	3659	3659	3659	3659	3659	3659	3698	3698	3698	3698	3698	3698	3698	3698	3698	3698	3698	3698	3698	3698	3698	3698	3698	3698	3698	0	0	0	0	0	0	0	0	0	0	0	0	0	0	0	0	0	0	0	0	0	0	0	0	0	0	0	0	0	0	0	0	0	0	0	0	0	0	0	0	0	0	0	0	0	0	0	0	0	0	0	0	0	0	0	0	0	0	0	0	0	0	0	0	0	0	0	0	0	0	0	0	0	0	0	0	0	0	0	0	0	0	0	0	0	0	0	0	0	0	0	0	0	0	0	0	0	0	0	0	0	0	0	0	0	0	0	0	0	0	0	0	0	0	0	0	0	0	0	0	0	0	0	0	0	0	0	0	0	0	0	0	0	0	0
0	0	0	0	0	945	945	948	950	950	950	953	955	961	963	966	969	969	969	972	974	977	977	977	980	980	983	988	991	997	997	1000	1003	1003	1003	1026	1030	1030	1030	1036	1036	0	0	0	0	1980	1980	1980	1980	1980	1980	1980	1980	1980	1992	1992	1992	1992	2003	2015	2015	2027	2027	2027	2039	2039	2039	2570	2570	2570	2570	2570	2551	2551	2551	2551	2551	2551	2551	2551	2551	2589	2589	2589	2589	2589	2589	2589	2570	2570	2570	2551	2570	2570	2570	2570	2570	2589	2589	2589	2570	2570	2570	2551	2551	2551	2551	2551	2551	2551	2570	2570	2570	2570	2589	2589	2570	2570	2570	2570	2570	2551	2551	2551	3046	3046	2993	2993	2993	2993	2993	2993	2993	2993	2967	2967	2967	2993	2993	2993	2993	2993	2993	2993	2993	2967	2967	3738	3738	3698	3698	3698	3659	3659	3659	3659	3659	3659	3659	3659	3659	3659	3659	3659	3659	3659	3659	3659	3659	3659	3659	3659	3659	3659	3659	3659	3738	3738	3738	3698	3698	3698	3698	3659	3659	3659	3659	3698	3698	3698	3738	3738	3738	3738	3698	3698	3698	3698	3698	3738	3738	3779	3738	3738	3738	3738	3698	3698	3698	3698	3698	3738	3738	3738	3738	3738	3738	3738	3738	3698	3698	3738	3738	3738	3738	3738	3698	3698	3698	3698	3698	3698	3698	3698	3698	3698	3698	3698	3698	3698	3698	3698	3698	3698	3698	3698	3698	3698	3698	3698	3698	3698	3738	3698	3698	3698	3698	3738	3738	3698	3698	3698	3698	3698	3698	3698	2942	2942	2942	2942	2942	2942	2942	2942	2942	2917	2917	2917	2893	2893	2893	2869	2869	2869	2869	2869	2869	2869	2845	2845	2845	2845	2845	2845	2845	2845	2845	2845	2845	2845	2822	2822	2822	2822	2799	2799	2799	2822	2822	2799	2799	2799	2822	2822	2822	2822	2822	2822	2822	2822	2822	2822	2822	2822	2822	2822	2822	2822	2822	2822	2822	2822	2822	2822	2845	2845	2845	2869	2869	2869	2869	2869	2869	2869	2893	2893	2893	2893	2893	2893	2893	2869	2893	2893	2869	2869	2869	2869	3698	3698	3698	3698	3698	3698	3698	3698	3698	3698	3698	3698	3698	3698	3738	3738	3738	3738	3738	3738	3738	3738	3698	3738	3738	3738	3738	3698	3738	3738	3738	3738	3738	3738	3698	3738	3738	3738	3698	3698	3698	3698	3698	3698	3738	3738	3698	3738	3698	3698	3698	3698	3659	3698	3659	3659	3698	3698	3698	3659	3659	3659	3659	3659	3659	3659	3659	3659	3659	3659	3659	3738	3698	3738	3698	3698	3698	3698	3698	3698	3698	3698	3698	3698	3698	3698	3698	3698	3698	3698	3698	3698	3698	3698	3698	3698	3698	3698	3698	3698	3698	3698	3659	3659	3659	3659	3659	3659	3659	3659	3659	3659	3659	3659	3659	3659	3698	3698	3698	3659	3698	3659	3659	3659	3659	3659	3659	3659	3698	3698	3698	3698	3698	3698	3698	3698	3698	3698	3698	3698	3698	3698	3698	3698	3698	3698	3698	0	0	0	0	0	0	0	0	0	0	0	0	0	0	0	0	0	0	0	0	0	0	0	0	0	0	0	0	0	0	0	0	0	0	0	0	0	0	0	0	0	0	0	0	0	0	0	0	0	0	0	0	0	0	0	0	0	0	0	0	0	0	0	0	0	0	0	0	0	0	0	0	0	0	0	0	0	0	0	0	0	0	0	0	0	0	0	0	0	0	0	0	0	0	0	0	0	0	0	0	0	0	0	0	0	0	0	0	0	0	0	0	0	0	0	0	0	0	0	0	0	0	0	0	0	0	0	0	0	0	0	0	0	0	0
0	0	0	0	0	945	945	948	950	953	953	953	955	955	961	966	966	966	969	969	974	974	977	977	980	980	980	983	988	997	997	997	1000	1003	1006	1006	1006	1006	1030	0	0	0	0	0	1980	1980	1980	1980	1980	1992	1992	1992	1992	1992	1992	1992	1992	2003	2003	2015	2027	2027	2039	2039	2039	2039	2051	2076	2076	2570	2570	2570	2551	2551	2551	2551	2551	2551	2551	2551	2551	2589	2589	2589	2589	2589	2589	2589	2570	2570	2570	2570	2570	2570	2570	2570	2589	2589	2589	2589	2570	2570	2570	2570	2551	2551	2551	2551	2551	2551	2570	2570	2570	2570	2589	2570	2570	2570	2570	2570	2570	2551	2551	2551	3073	3073	3019	2993	2993	2993	2993	2993	2993	2993	2993	2993	2993	2993	2993	2993	2993	3019	2993	3019	3019	2993	2993	2993	3779	3738	3698	3698	3659	3659	3659	3659	3698	3659	3659	3659	3659	3659	3659	3659	3659	3659	3659	3659	3659	3659	3659	3659	3659	3659	3659	3659	3738	3738	3738	3698	3698	3698	3698	3659	3659	3659	3659	3698	3698	3698	3738	3698	3698	3698	3698	3698	3698	3698	3698	3738	3698	3738	3738	3738	3698	3698	3698	3698	3698	3698	3698	3698	3738	3698	3738	3738	3738	3738	3738	3738	3738	3738	3738	3738	3738	3698	3698	3698	3698	3698	3698	3698	3698	3698	3698	3698	3698	3698	3698	3698	3698	3698	3698	3698	3698	3698	3698	3698	3698	3698	3698	3698	3698	3698	3698	3698	3698	3738	3698	3698	3698	3698	3698	3698	3698	2942	2942	2942	2942	2942	2942	2942	2942	2942	2942	2917	2917	2917	2893	2893	2869	2869	2869	2869	2869	2869	2869	2869	2845	2845	2845	2845	2845	2845	2845	2845	2845	2845	2822	2822	2822	2822	2799	2799	2799	2799	2799	2822	2799	2799	2799	2799	2822	2822	2822	2799	2822	2822	2822	2822	2822	2822	2822	2822	2822	2822	2822	2822	2822	2822	2822	2822	2845	2845	2845	2845	2845	2845	2845	2845	2869	2869	2893	2893	2893	2893	2893	2893	2893	2893	2869	2869	2869	2893	2869	2869	2869	2869	3698	3698	3698	3698	3698	3698	3698	3698	3698	3698	3698	3698	3698	3698	3779	3779	3738	3738	3738	3738	3738	3738	3738	3738	3738	3738	3738	3738	3738	3738	3738	3738	3738	3779	3738	3738	3738	3738	3738	3698	3698	3698	3698	3698	3698	3738	3698	3698	3698	3698	3698	3698	3659	3698	3659	3698	3698	3698	3698	3659	3659	3659	3659	3659	3659	3659	3659	3659	3659	3659	3659	3738	3698	3698	3698	3698	3698	3698	3698	3698	3698	3698	3698	3698	3698	3698	3698	3698	3698	3698	3698	3698	3659	3659	3698	3698	3698	3698	3698	3698	3698	3698	3659	3659	3659	3659	3659	3659	3659	3659	3659	3659	3659	3659	3659	3659	3659	3659	3659	3659	3659	3659	3659	3659	3659	3659	3659	3659	3698	3698	3698	3698	3698	3698	3698	3698	3698	3698	3698	3698	3698	3698	3698	3698	3698	3659	3659	0	0	0	0	0	0	0	0	0	0	0	0	0	0	0	0	0	0	0	0	0	0	0	0	0	0	0	0	0	0	0	0	0	0	0	0	0	0	0	0	0	0	0	0	0	0	0	0	0	0	0	0	0	0	0	0	0	0	0	0	0	0	0	0	0	0	0	0	0	0	0	0	0	0	0	0	0	0	0	0	0	0	0	0	0	0	0	0	0	0	0	0	0	0	0	0	0	0	0	0	0	0	0	0	0	0	0	0	0	0	0	0	0	0	0	0	0	0	0	0	0	0	0	0	0	0	0	0	0	0	0	0	0	0	0
0	0	0	0	0	945	945	948	950	950	950	953	955	958	961	966	966	966	969	969	972	974	974	977	977	980	980	983	985	994	994	997	1000	1003	1003	1003	1006	1006	0	0	0	0	0	0	1980	1992	1992	1992	1992	1992	1992	1992	1992	1992	2003	2003	2003	2015	2015	2027	2027	2027	2039	2039	2039	2039	2051	2051	2063	2063	2589	2570	2570	2551	2551	2551	2551	2551	2551	2551	2551	2570	2589	2589	2589	2589	2589	2570	2570	2570	2551	2570	2570	2570	2570	2570	2589	2589	2589	2589	2570	2570	2570	2570	2551	2551	2551	2551	2551	2551	2570	2551	2570	2570	2570	2570	2570	2551	2551	2570	2570	2570	2570	2570	3073	3073	3019	3019	2993	3019	2993	2993	3019	3019	2993	3019	3019	3019	3019	3019	3046	3046	3046	3019	3019	3019	2993	2993	2993	3698	3698	3659	3659	3659	3659	3659	3659	3659	3659	3659	3659	3659	3659	3659	3659	3659	3659	3659	3659	3659	3659	3659	3659	3659	3659	3659	3698	3738	3738	3698	3698	3698	3698	3659	3659	3659	3698	3698	3698	3698	3738	3698	3698	3698	3698	3698	3698	3698	3698	3738	3698	3738	3738	3738	3738	3738	3738	3698	3698	3698	3698	3698	3738	3738	3738	3738	3738	3738	3738	3738	3738	3738	3738	3738	3738	3738	3698	3738	3698	3698	3698	3698	3698	3698	3698	3698	3698	3698	3698	3698	3698	3698	3698	3698	3698	3698	3698	3698	3698	3698	3698	3698	3698	3698	3698	3698	3698	3698	3698	3698	3698	3698	3698	3698	3698	3698	2942	2942	2942	2942	2942	2942	2942	2942	2942	2917	2917	2917	2893	2893	2893	2869	2869	2869	2869	2869	2869	2869	2869	2845	2845	2845	2845	2845	2845	2845	2845	2845	2822	2822	2822	2822	2799	2799	2799	2799	2799	2822	2799	2799	2799	2799	2799	2822	2799	2799	2822	2822	2822	2822	2822	2822	2822	2822	2822	2822	2822	2822	2822	2822	2822	2822	2845	2845	2845	2845	2845	2845	2845	2845	2869	2869	2893	2893	2893	2893	2893	2893	2893	2893	2893	2869	2893	2893	2869	2869	2869	2869	3738	3698	3698	3698	3698	3698	3698	3659	3659	3698	3698	3698	3698	3698	3738	3779	3738	3738	3738	3738	3738	3738	3698	3738	3738	3738	3738	3698	3738	3738	3738	3738	3738	3779	3738	3738	3738	3738	3738	3698	3698	3698	3698	3698	3698	3698	3698	3698	3698	3698	3698	3698	3698	3698	3698	3698	3698	3698	3698	3659	3659	3659	3659	3659	3659	3659	3659	3659	3659	3659	3659	3698	3698	3698	3698	3698	3698	3698	3698	3698	3698	3698	3698	3698	3698	3698	3698	3698	3698	3698	3698	3698	3698	3698	3698	3698	3698	3698	3698	3698	3659	3659	3659	3659	3659	3659	3659	3659	3659	3659	3659	3659	3659	3659	3659	3659	3659	3659	3659	3659	3659	3659	3659	3659	3659	3659	3659	3659	3698	3698	3698	3698	3698	3698	3698	3698	3698	3698	3698	3698	3698	3698	3698	3698	3698	3659	3659	0	0	0	0	0	0	0	0	0	0	0	0	0	0	0	0	0	0	0	0	0	0	0	0	0	0	0	0	0	0	0	0	0	0	0	0	0	0	0	0	0	0	0	0	0	0	0	0	0	0	0	0	0	0	0	0	0	0	0	0	0	0	0	0	0	0	0	0	0	0	0	0	0	0	0	0	0	0	0	0	0	0	0	0	0	0	0	0	0	0	0	0	0	0	0	0	0	0	0	0	0	0	0	0	0	0	0	0	0	0	0	0	0	0	0	0	0	0	0	0	0	0	0	0	0	0	0	0	0	0	0	0	0	0	0
0	0	0	0	0	945	948	948	950	950	950	953	955	958	961	963	966	969	969	972	974	974	974	977	977	980	980	983	985	991	994	997	1000	1000	1000	1000	0	0	0	0	0	0	0	0	0	2003	2003	2003	2003	2003	2003	2003	2003	2003	2003	2015	2015	2027	2027	2027	2027	2039	2039	2039	2039	2039	2051	2051	2063	2063	2570	2570	2551	2551	2551	2551	2551	2551	2551	2551	2570	2589	2589	2589	2589	2589	2589	2589	2570	2570	2551	2570	2570	2570	2570	2570	2589	2589	2589	2589	2570	2570	2570	2570	2551	2551	2551	2551	2551	2551	2551	2570	2570	2570	2551	2551	2551	2551	2570	2570	2551	2570	2570	2570	3046	3019	3019	3019	3019	3046	3046	3019	3046	3046	3046	3046	3019	3019	3019	3019	3046	3046	3073	3046	3073	3046	3073	3046	3046	3698	3698	3659	3659	3659	3659	3659	3659	3659	3659	3659	3659	3659	3659	3659	3659	3659	3659	3659	3659	3659	3659	3659	3659	3659	3621	3659	3698	3698	3698	3659	3698	3698	3698	3698	3659	3698	3698	3698	3698	3698	3738	3698	3698	3698	3698	3698	3698	3698	3698	3738	3698	3738	3738	3738	3738	3738	3738	3698	3698	3698	3698	3698	3698	3698	3698	3698	3738	3738	3738	3738	3738	3738	3738	3738	3738	3698	3698	3698	3698	3698	3698	3698	3698	3698	3698	3698	3698	3698	3698	3698	3698	3698	3698	3698	3698	3698	3698	3698	3698	3698	3698	3698	3698	3698	3698	3698	3698	3738	3698	3698	3738	3698	3698	3698	3698	3698	2942	2942	2942	2942	2942	2942	2942	2942	2942	2917	2917	2917	2917	2893	2893	2869	2869	2869	2869	2869	2869	2869	2845	2845	2845	2845	2845	2845	2845	2845	2845	2822	2822	2822	2822	2799	2799	2799	2799	2799	2799	2799	2799	2799	2799	2799	2799	2799	2799	2799	2822	2822	2822	2822	2822	2822	2822	2822	2822	2822	2822	2799	2822	2822	2822	2822	2822	2845	2845	2845	2845	2869	2869	2869	2869	2893	2893	2893	2893	2893	2893	2893	2893	2893	2893	2893	2893	2893	2893	2893	2893	3779	3738	3738	3698	3698	3698	3698	3698	3659	3659	3698	3698	3698	3698	3698	3738	3738	3738	3738	3738	3738	3738	3738	3698	3698	3738	3738	3738	3698	3738	3738	3738	3738	3738	3779	3738	3738	3738	3738	3738	3698	3698	3698	3698	3698	3738	3738	3698	3698	3698	3698	3698	3698	3698	3698	3698	3698	3698	3698	3659	3659	3659	3659	3659	3659	3659	3659	3659	3659	3659	3659	3659	3698	3698	3698	3698	3698	3698	3698	3698	3698	3698	3698	3698	3698	3698	3698	3698	3698	3698	3698	3698	3698	3698	3698	3698	3698	3698	3698	3698	3698	3698	3659	3659	3659	3659	3659	3659	3659	3659	3659	3659	3659	3659	3659	3659	3659	3659	3659	3659	3659	3698	3659	3659	3659	3659	3659	3659	3659	3698	3698	3698	3698	3698	3698	3698	3698	3698	3698	3698	3698	3698	3698	3698	3698	3698	3659	3659	3698	0	0	0	0	0	0	0	0	0	0	0	0	0	0	0	0	0	0	0	0	0	0	0	0	0	0	0	0	0	0	0	0	0	0	0	0	0	0	0	0	0	0	0	0	0	0	0	0	0	0	0	0	0	0	0	0	0	0	0	0	0	0	0	0	0	0	0	0	0	0	0	0	0	0	0	0	0	0	0	0	0	0	0	0	0	0	0	0	0	0	0	0	0	0	0	0	0	0	0	0	0	0	0	0	0	0	0	0	0	0	0	0	0	0	0	0	0	0	0	0	0	0	0	0	0	0	0	0	0	0	0	0	0	0
0	0	0	0	0	945	948	948	950	950	950	953	953	953	961	963	966	969	969	972	974	977	977	977	977	980	980	980	983	994	997	997	1000	1000	1000	1000	0	0	0	0	0	0	0	0	0	2003	2003	2015	2027	2015	2015	2015	2015	2015	2015	2015	2015	2015	2027	2027	2027	2039	2039	2039	2039	2039	2051	2051	2076	2088	2088	2551	2532	2532	2532	2551	2551	2551	2551	2570	2570	2589	2589	2570	2589	2589	2589	2570	2570	2551	2551	2551	2551	2551	2570	2570	2589	2609	2609	2589	2589	2589	2570	2570	2551	2551	2551	2551	2551	2551	2551	2551	2551	2551	2551	2551	2551	2551	2551	2551	2551	2570	2570	2570	3073	3073	3046	3046	3046	3046	3046	3046	3046	3046	3046	3073	3046	3046	3046	3046	3073	3073	3073	3073	3101	3073	3073	3073	3073	3073	3073	3698	3698	3659	3659	3659	3698	3698	3659	3659	3698	3659	3659	3659	3659	3659	3659	3659	3659	3659	3659	3659	3659	3621	3621	3621	3659	3698	3659	3659	3659	3698	3698	3659	3659	3698	3698	3698	3698	3698	3698	3698	3698	3698	3698	3698	3698	3698	3698	3738	3698	3738	3738	3738	3738	3738	3738	3698	3698	3698	3698	3698	3698	3698	3698	3698	3698	3738	3738	3738	3698	3738	3738	3738	3698	3698	3698	3698	3698	3698	3698	3698	3698	3698	3698	3698	3698	3698	3698	3698	3698	3698	3698	3698	3659	3698	3698	3698	3698	3698	3698	3698	3698	3698	3698	3698	3698	3698	3698	3698	3698	3698	3698	3698	3698	3698	2942	2942	2942	2942	2917	2917	2917	2917	2917	2917	2917	2893	2917	2893	2893	2869	2869	2869	2869	2869	2869	2869	2869	2845	2845	2845	2845	2845	2845	2845	2845	2822	2822	2822	2799	2799	2799	2799	2799	2799	2799	2799	2799	2799	2777	2799	2799	2799	2799	2799	2799	2822	2799	2822	2822	2822	2822	2822	2822	2799	2799	2799	2799	2822	2822	2822	2845	2845	2845	2845	2845	2869	2869	2869	2893	2893	2893	2893	2893	2893	2893	2893	2869	2893	2893	2893	2893	2893	2893	2893	2893	3779	3738	3738	3698	3698	3698	3698	3698	3659	3659	3659	3698	3698	3698	3698	3738	3738	3738	3738	3738	3738	3738	3738	3738	3738	3738	3738	3738	3738	3738	3738	3738	3738	3738	3738	3738	3738	3738	3698	3698	3698	3659	3698	3698	3698	3698	3698	3698	3698	3698	3698	3698	3698	3698	3698	3698	3698	3698	3659	3659	3659	3659	3659	3659	3659	3659	3659	3659	3659	3659	3698	3659	3698	3698	3698	3698	3698	3698	3698	3698	3698	3698	3698	3698	3698	3698	3698	3698	3698	3698	3698	3698	3698	3698	3698	3698	3698	3698	3698	3698	3698	3698	3659	3659	3659	3659	3659	3659	3659	3659	3659	3659	3659	3659	3659	3659	3659	3659	3659	3659	3659	3698	3659	3659	3659	3659	3659	3659	3659	3698	3698	3698	3698	3698	3698	3698	3698	3698	3698	3698	3698	3698	3698	3698	3698	3698	3659	3698	3659	3659	0	0	0	0	0	0	0	0	0	0	0	0	0	0	0	0	0	0	0	0	0	0	0	0	0	0	0	0	0	0	0	0	0	0	0	0	0	0	0	0	0	0	0	0	0	0	0	0	0	0	0	0	0	0	0	0	0	0	0	0	0	0	0	0	0	0	0	0	0	0	0	0	0	0	0	0	0	0	0	0	0	0	0	0	0	0	0	0	0	0	0	0	0	0	0	0	0	0	0	0	0	0	0	0	0	0	0	0	0	0	0	0	0	0	0	0	0	0	0	0	0	0	0	0	0	0	0	0	0	0	0	0	0
0	0	0	0	0	948	948	948	950	950	950	953	955	955	961	963	966	966	969	972	974	977	977	977	977	980	980	980	983	985	997	1000	1000	1000	1003	1003	0	0	0	0	0	0	0	0	0	2003	2015	2027	2027	2039	2027	2027	2027	2027	2027	2027	2027	2027	2039	2039	2039	2039	2039	2039	2039	2039	2051	2051	2076	2088	2101	2101	2532	2532	2532	2551	2551	2551	2551	2551	2570	2570	2570	2570	2570	2570	2589	2570	2570	2570	2551	2570	2570	2551	2570	2570	2589	2589	2589	2589	2589	2589	2570	2570	2551	2551	2551	2551	2551	2551	2551	2551	2551	2551	2551	2551	2551	2551	2570	2551	2570	2570	2570	0	3101	3101	3073	3073	3073	3073	3073	3073	3073	3073	3073	3073	3073	3073	3073	3073	3101	3101	3101	3101	3101	3101	3101	3073	3073	3073	3073	3073	3659	3659	3659	3659	3698	3698	3659	3698	3698	3698	3659	3659	3659	3659	3659	3659	3659	3659	3659	3659	3659	3659	3621	3659	3659	3698	3659	3659	3698	3698	3698	3659	3659	3698	3698	3698	3698	3698	3698	3659	3698	3698	3698	3698	3698	3698	3698	3698	3698	3698	3738	3738	3779	3738	3738	3698	3698	3698	3698	3698	3698	3698	3698	3698	3698	3698	3698	3698	3698	3698	3698	3698	3698	3698	3698	3698	3698	3698	3698	3698	3698	3698	3698	3698	3698	3698	3698	3698	3698	3698	3698	3659	3659	3659	3698	3698	3698	3698	3698	3698	3698	3698	3698	3698	3698	3738	3698	3738	3738	3738	3698	3698	3698	3698	2917	2917	2917	2917	2917	2917	2917	2917	2917	2917	2893	2917	2917	2893	2869	2869	2869	2869	2869	2869	2869	2869	2869	2845	2845	2845	2845	2845	2845	2845	2822	2822	2822	2822	2822	2799	2799	2799	2799	2799	2799	2799	2777	2799	2777	2799	2799	2799	2799	2799	2822	2822	2822	2822	2822	2822	2822	2822	2799	2799	2799	2799	2799	2822	2822	2822	2845	2845	2845	2845	2845	2869	2869	2869	2893	2893	2893	2893	2893	2893	2893	2893	2869	2869	2869	2869	2893	2893	2893	2893	2893	3779	3738	3738	3698	3698	3698	3698	3659	3659	3659	3659	3659	3698	3698	3698	3738	3738	3738	3738	3738	3738	3738	3738	3698	3698	3738	3698	3738	3738	3738	3738	3738	3738	3738	3738	3738	3738	3738	3698	3698	3698	3659	3659	3698	3698	3698	3698	3698	3698	3698	3698	3698	3698	3698	3698	3698	3698	3698	3659	3659	3659	3659	3659	3659	3659	3659	3659	3659	3659	3659	3659	3659	3698	3698	3698	3698	3698	3698	3698	3698	3698	3698	3698	3698	3698	3698	3698	3698	3698	3698	3698	3698	3698	3698	3698	3698	3698	3698	3698	3698	3659	3698	3659	3659	3659	3659	3659	3659	3659	3659	3659	3659	3659	3659	3659	3659	3659	3659	3659	3659	3659	3698	3659	3659	3659	3659	3659	3659	3659	3659	3698	3698	3698	3698	3698	3698	3698	3698	3698	3698	3698	3698	3698	3698	3698	3698	3659	3698	3659	3659	0	0	0	0	0	0	0	0	0	0	0	0	0	0	0	0	0	0	0	0	0	0	0	0	0	0	0	0	0	0	0	0	0	0	0	0	0	0	0	0	0	0	0	0	0	0	0	0	0	0	0	0	0	0	0	0	0	0	0	0	0	0	0	0	0	0	0	0	0	0	0	0	0	0	0	0	0	0	0	0	0	0	0	0	0	0	0	0	0	0	0	0	0	0	0	0	0	0	0	0	0	0	0	0	0	0	0	0	0	0	0	0	0	0	0	0	0	0	0	0	0	0	0	0	0	0	0	0	0	0	0	0	0
0	0	0	0	0	948	948	948	950	950	953	953	953	958	961	963	966	966	966	969	972	974	974	977	977	980	980	980	983	991	997	1000	1000	1000	1000	1000	0	0	0	0	0	0	0	0	2088	2088	2088	2051	2051	2051	2039	2039	2039	2039	2039	2039	2039	2039	2039	2051	2039	2039	2039	2039	2039	2051	2051	2051	2076	2088	2101	2101	2514	2514	2532	2551	2551	2551	2551	2551	2570	2570	2570	2570	2570	2570	2589	2570	2570	2570	2551	2570	2570	2551	2570	2551	2570	2570	2570	2551	2551	2570	2570	2551	2551	2551	2551	2551	2551	2551	2551	2551	2551	2551	2551	2551	2551	2551	2551	2551	2570	2589	2589	2589	3101	3101	3101	3073	3073	3073	3073	3073	3073	3073	3101	3101	3073	3073	3073	3101	3129	3129	3129	3129	3129	3101	3101	3101	3101	3101	3101	3101	3129	3129	3129	3659	3698	3698	3659	3659	3698	3698	3659	3659	3659	3659	3659	3659	3659	3621	3621	3659	3659	3659	3621	3659	3659	3659	3659	3659	3698	3698	3698	3659	3698	3698	3698	3698	3698	3698	3698	3698	3659	3659	3698	3698	3698	3698	3698	3738	3698	3698	3738	3738	3779	3738	3738	3698	3698	3698	3698	3698	3698	3698	3698	3698	3698	3698	3698	3698	3698	3698	3698	3698	3698	3698	3698	3698	3698	3698	3698	3659	3659	3698	3659	3698	3698	3698	3698	3698	3698	3659	3659	3659	3659	3659	3698	3698	3698	3698	3698	3698	3698	3698	3698	3698	3698	3698	3698	3698	3698	3698	3698	3698	3698	3698	2893	2917	2917	2917	2917	2917	2917	2917	2917	2917	2917	2917	2917	2893	2893	2869	2869	2869	2869	2869	2869	2869	2869	2845	2845	2845	2845	2845	2845	2822	2822	2822	2822	2822	2822	2799	2799	2799	2799	2799	2777	2777	2777	2777	2777	2777	2777	2799	2799	2799	2799	2799	2799	2799	2799	2822	2822	2822	2799	2799	2799	2799	2799	2799	2822	2822	2845	2845	2845	2845	2845	2869	2869	2869	2893	2893	2893	2893	2893	2893	2893	2893	2869	2869	2869	2869	2893	2893	2893	2893	2893	3779	3738	3738	3738	3698	3698	3698	3659	3659	3659	3659	3659	3698	3698	3698	3738	3738	3738	3738	3738	3738	3738	3738	3738	3738	3738	3738	3738	3738	3738	3738	3738	3738	3738	3738	3738	3698	3698	3698	3698	3659	3659	3659	3659	3698	3698	3698	3698	3698	3698	3698	3698	3698	3698	3698	3698	3698	3659	3659	3659	3659	3659	3621	3621	3621	3659	3659	3659	3659	3659	3659	3659	3698	3698	3698	3698	3698	3659	3698	3698	3698	3698	3698	3659	3659	3659	3698	3698	3698	3698	3698	3698	3698	3698	3698	3698	3698	3698	3698	3698	3659	3659	3659	3659	3659	3659	3659	3659	3621	3621	3659	3659	3659	3659	3659	3659	3659	3659	3659	3659	3659	3698	3659	3659	3659	3659	3659	3659	3659	3659	3698	3698	3698	3698	3698	3698	3698	3698	3698	3698	3698	3738	3738	3698	3698	3698	3698	3698	3621	3621	0	0	0	0	0	0	0	0	0	0	0	0	0	0	0	0	0	0	0	0	0	0	0	0	0	0	0	0	0	0	0	0	0	0	0	0	0	0	0	0	0	0	0	0	0	0	0	0	0	0	0	0	0	0	0	0	0	0	0	0	0	0	0	0	0	0	0	0	0	0	0	0	0	0	0	0	0	0	0	0	0	0	0	0	0	0	0	0	0	0	0	0	0	0	0	0	0	0	0	0	0	0	0	0	0	0	0	0	0	0	0	0	0	0	0	0	0	0	0	0	0	0	0	0	0	0	0	0	0	0	0	0	0
0	0	0	0	0	945	948	950	950	953	953	953	955	958	961	963	963	966	966	969	972	974	974	977	977	977	980	980	983	985	994	997	1000	1000	1000	1000	1000	0	0	0	0	0	0	2088	2088	2088	2088	2076	2063	2063	2051	2051	2051	2051	2051	2063	2051	2051	2051	2051	2051	2051	2051	2051	2051	2051	2051	2051	2063	2076	2088	2101	2101	2101	2532	2532	2551	2551	2551	2551	2551	2570	2570	2570	2570	2551	2570	2570	2570	2551	2551	2551	2551	2551	2551	2551	2570	2551	2551	2551	2570	2551	2551	2551	2551	2551	2551	2551	2551	2551	2551	2551	2551	2551	2551	2551	2551	2551	2551	2551	2570	2589	2589	2609	3129	3129	3101	3101	3101	3101	3101	3101	3101	3101	3101	3101	3101	3101	3101	3101	3129	3129	3129	3129	3129	3129	3129	3101	3101	3101	3101	3129	3129	3129	3129	3129	3698	3659	3659	3659	3698	3698	3659	3659	3659	3621	3659	3659	3659	3621	3621	3659	3621	3621	3621	3659	3659	3659	3659	3659	3698	3698	3698	3659	3698	3698	3698	3698	3698	3698	3698	3659	3659	3698	3698	3698	3698	3698	3698	3738	3698	3698	3698	3738	3738	3738	3698	3698	3698	3698	3698	3698	3698	3698	3698	3698	3698	3698	3698	3698	3698	3738	3698	3698	3698	3698	3698	3698	3698	3698	3698	3698	3698	3698	3698	3698	3698	3698	3698	3698	3659	3659	3659	3659	3659	3659	3659	3659	3659	3659	3698	3698	3698	3659	3659	3698	3659	3659	3698	3698	3698	3698	3698	3738	3738	3738	2869	2869	2893	2917	2917	2917	2917	2917	2917	2917	2893	2893	2917	2893	2893	2869	2869	2869	2869	2869	2869	2869	2845	2845	2845	2845	2845	2845	2822	2822	2822	2822	2822	2822	2822	2799	2799	2799	2799	2799	2777	2777	2777	2777	2777	2799	2799	2799	2799	2799	2799	2799	2799	2799	2799	2822	2822	2799	2799	2799	2799	2799	2799	2799	2799	2822	2822	2845	2845	2845	2869	2869	2869	2869	2869	2893	2893	2893	2893	2893	2893	2893	2893	2869	2869	2869	2869	2869	2869	2893	2893	3698	3738	3738	3738	3738	3698	3698	3659	3659	3659	3659	3698	3659	3659	3659	3738	3738	3738	3738	3738	3738	3738	3738	3698	3738	3738	3698	3738	3738	3738	3738	3738	3738	3738	3738	3738	3698	3698	3698	3698	3659	3659	3659	3698	3698	3698	3698	3698	3698	3698	3698	3698	3698	3698	3698	3698	3698	3698	3659	3659	3659	3659	3659	3621	3621	3659	3659	3659	3659	3659	3659	3659	3698	3698	3698	3659	3698	3659	3659	3659	3659	3659	3659	3659	3659	3659	3659	3659	3698	3698	3698	3698	3698	3698	3698	3698	3698	3659	3659	3659	3659	3659	3659	3659	3659	3659	3659	3659	3659	3621	3659	3659	3659	3659	3659	3659	3659	3659	3659	3659	3659	3698	3659	3659	3698	3659	3659	3659	3659	3659	3698	3698	3698	3698	3698	3698	3698	3698	3698	3698	3738	3698	3738	3698	3698	3698	3698	3698	3621	3621	0	0	0	0	0	0	0	0	0	0	0	0	0	0	0	0	0	0	0	0	0	0	0	0	0	0	0	0	0	0	0	0	0	0	0	0	0	0	0	0	0	0	0	0	0	0	0	0	0	0	0	0	0	0	0	0	0	0	0	0	0	0	0	0	0	0	0	0	0	0	0	0	0	0	0	0	0	0	0	0	0	0	0	0	0	0	0	0	0	0	0	0	0	0	0	0	0	0	0	0	0	0	0	0	0	0	0	0	0	0	0	0	0	0	0	0	0	0	0	0	0	0	0	0	0	0	0	0	0	0	0	0	0
