0	0	0	1017	1020	1026	1030	1030	1030	1030	1030	1030	1030	1030	1030	1026	1026	1153	1150	1150	1150	1150	1150	1150	1150	1150	1146	1146	1146	1146	1146	1150	1146	1146	1150	1150	1150	1150	1150	1150	1150	1150	1150	1150	1146	1146	1150	1146	1146	1146	1142	1142	1138	1138	1138	1138	1138	1138	1138	1138	1138	1138	1146	1150	1153	1157	1161	1165	1165	1165	1169	1169	1169	1169	1169	1169	1181	1181	0	0	0	0	0	0	0	0	5364	5364	5364	5448	5364	5364	5364	5364	5364	5364	5282	5282	5364	5364	5364	5364	5364	5448	5364	5448	5448	5448	5448	5448	5364	5448	5364	5364	5364	5364	5364	5364	5364	5364	5364	5364	5364	5448	5448	5448	5448	5448	5448	5448	5448	5364	5364	5364	5364	5364	5364	5364	5364	5364	5364	5364	5364	5448	5448	5448	5448	5448	5364	5364	5364	5364	5364	5364	5364	0	0	0	0	0	0	0	0	0	0	0	0	0	0	0	5448	5448	5448	5448	5448	5448	5364	5364	5364	5364	5448	5364	5448	5448	5364	5364	5364	5364	5282	5282	5282	5125	0	0	0	0	0	0	0	5448	5364	5364	0	5364	5364	5364	5364	5364	5364	5364	5364	5364	5364	5364	5448	5364	5364	5364	5364	5364	5364	5364	5364	5364	5364	5364	5364	5364	5364	5364	5364	5364	5364	5364	5364	5364	5364	5364	5364	5364	5364	5364	5364	5364	5364	5364	5364	5364	5364	5364	5364	5364	5364	5364	5364	5364	5364	5448	5364	5364	5364	5364	5364	5364	5282	5364	5364	5364	5364	5448	5448	5448	5364	5448	5448	5448	5448	5364	5364	5364	5364	5364	5364	5364	5364	5364	5364	5364	5364	5364	5364	5364	5364	5364	5448	5364	5364	5364	5364	5448	5364	5364	5364	5448	5448	5364	5364	5364	5364	5364	5364	5364	5364	5282	5282	5282	5282	5282	5282	5282	5282	5364	5364	5364	5364	5364	5364	5364	5282	5282	5282	5282	5282	5125	5125	0	0	0	0	0	0	0	0	0	0	0	0	0	0	5202	5364	5282	5202	5282	5202	5202	5282	5282	0	0	0	0	5202	5202	5202	5125	5282	5282	5364	5282	5719	5626	5626	0	0	0	0	0	0	0	0	0	0	0	0	5626	5535	5364	5364	5364	5364	5364	5364	5364	5364	5364	5364	5364	5282	5282	5282	5282	5282	5282	5282	5282	5364	5364	5364	5364	5364	5364	5364	5364	5364	5364	5364	5364	5364	5364	5364	5364	5364	5282	5282	5282	5282	5282	5282	5282	5364	5364	5364	5364	5364	5364	5364	5364	5364	5282	5282	5282	5282	5282	5282	5282	5282	5282	5282	5282	5364	5364	5364	5448	5364	5364	5364	5364	5364	5364	5364	5282	5364	5282	5364	5364	5364	5364	5364	5364	5364	5282	5282	5364	5282	5282	5282	5282	5364	5364	5364	5364	5448	5364	5364	5448	5448	5448	5448	5364	5364	5364	5282	5282	5282	5282	5282	5282	5282	5282	5364	5364	5364	5364	5364	5364	5364	5364	5364	5364	0	0	0	0	0	0	0	0	0	0	0	0	0	0	0	0	0	0	0	0	0	0	0	0	0	0	0	0	0	0	0	0	0	0	0	0	0	0	0	0	0	0	0	0	0	0	0	0	0	0	0	0	0	0	0	0	0	0	0	0	5282	5282	5202	5202	0	5202	5125	5125	5125	5125	5125	5202	5202	5202	5202	5202	5282	5202	5282	5282	5202	5202	5202	0	0	0	0	0	0	0	0	0	0	0	0	0	0	0	0	0	0	0	0	0	0	0	0	0	0	0	0	0	0	0	0	0	0	0	0	0	0	0	0	0	0	0	0	0	0	0
0	0	0	1017	1020	1023	1023	1030	1030	1030	1030	1030	1030	1030	1026	1026	1026	1150	1150	1150	1150	1150	1150	1150	1150	1150	1146	1150	1146	1146	1146	1150	1146	1150	1150	1150	1150	1153	1150	1153	1150	1146	1150	1146	1146	1146	1146	1146	1146	1146	1142	1142	1138	1138	1138	1138	1138	1138	1138	1138	1138	1138	1134	1150	1153	1153	1161	1161	1165	1165	1169	1169	1169	1173	1173	1173	1177	1177	0	0	0	0	0	0	0	0	5364	5364	5364	5448	5448	5448	5448	5364	5364	5364	5364	5364	5364	5364	5364	5364	5364	5448	5364	5448	5448	5448	5448	5448	5364	5448	5448	5448	5364	5364	5364	5364	5364	5364	5364	5364	5364	5364	5448	5448	5448	5448	5448	5448	5448	5448	5448	5448	5448	5364	5364	5364	5364	5364	5364	5448	5448	5448	5448	5448	5448	5448	5448	5448	5448	5364	0	0	0	0	0	0	0	0	0	0	0	0	0	0	0	0	0	0	0	0	5448	5448	5448	5448	5364	5364	0	0	5448	5448	5448	5448	5364	5364	5364	5448	5364	5364	5282	0	0	0	0	0	0	0	0	0	0	0	0	0	5364	5364	5364	5364	5448	5448	5448	5448	5448	5448	5448	5448	5364	5448	5448	5364	5364	5364	5364	5364	5364	5364	5364	5364	5364	5364	5364	5364	5448	5448	5448	5448	5448	5448	5448	5448	5364	5364	5364	5364	5364	5364	5364	5364	5364	5364	5364	5364	5364	5364	5364	5364	5364	5364	5364	5364	5364	5364	5364	5364	5364	5364	5364	5448	5448	5448	5448	5448	5448	5448	5448	5448	5448	5448	5364	5448	5448	5448	5448	5364	5364	5364	5364	5364	5364	5364	5364	5364	5364	5364	5448	5364	5448	5448	5448	5448	5448	5448	5448	5448	5448	5448	5364	5364	5364	5364	5364	5364	5364	5282	5202	5282	5282	5282	5282	5282	5282	5364	5364	5364	5364	5364	5364	5364	5282	5282	5282	5282	5282	5282	5282	0	0	0	0	0	0	0	0	0	0	0	0	0	0	0	5364	5282	5282	5282	5125	5125	0	0	0	0	0	0	5202	5202	5202	0	5282	5282	5448	5364	5364	5626	5626	0	0	0	0	0	0	0	0	0	0	0	5719	5626	5535	5448	5364	5364	5364	5364	5364	5364	5364	5364	5364	5364	5364	5282	5282	5282	5282	5282	5282	5282	5364	5364	5364	5364	5364	5364	5364	5364	5364	5364	5364	5364	5364	5364	5364	5364	5364	5364	5282	5282	5282	5282	5282	5282	5364	5364	5364	5364	5364	5364	5364	5364	5364	5364	5364	5364	5282	5282	5282	5282	5282	5282	5282	5364	5364	5364	5364	5364	5364	5364	5364	5364	5364	5364	5364	5364	5364	5364	5364	5364	5364	5364	5364	5364	5364	5364	5364	5364	5364	5282	5364	5364	5364	5448	5448	5448	5448	5448	5448	5448	5448	5448	5448	5448	5364	5364	5364	5364	5282	5282	5282	5282	5282	5364	5364	5364	5364	5364	5364	5364	5364	5364	5364	5364	0	0	0	0	0	0	0	0	0	0	0	0	0	0	0	0	0	0	0	0	0	0	0	0	0	0	0	0	0	0	0	0	0	0	0	0	0	0	0	0	0	0	0	0	0	0	0	0	0	0	0	0	0	0	0	0	0	5202	5202	5202	5282	5282	5282	5202	5202	5202	5202	5125	5125	5202	5202	5202	5202	5202	5202	5282	5282	5282	5282	5282	5282	5282	5282	0	0	0	0	0	0	0	0	0	0	0	0	0	0	0	0	0	0	0	0	0	0	0	0	0	0	0	0	0	0	0	0	0	0	0	0	0	0	0	0	0	0	0	0	0	0	0
0	0	0	0	1020	1023	1023	1030	1030	1030	1030	1030	1030	1030	1026	1026	1026	1150	1150	1150	1150	1150	1150	1150	1150	1150	1150	1150	1146	1150	1146	1150	1146	1150	1150	1150	1150	1150	1150	1150	1150	1146	1146	1146	1146	1146	1146	1146	1146	1146	1142	1142	1138	1138	1138	1138	1134	1138	1138	1134	1138	1138	1138	1146	1150	1157	1161	1165	1165	1165	1169	1169	1173	1173	1173	1173	1177	1177	1177	0	0	0	0	0	0	0	0	5364	5364	5364	5364	5364	5364	5364	5448	5364	5364	5364	5364	5364	5448	5448	5448	5448	5448	5448	5448	0	5448	5448	0	5448	5448	5448	5448	5448	5448	5364	5364	5364	5364	5364	5364	5448	5448	5448	5448	5448	5535	5448	5448	5448	5448	5448	5448	5448	5448	5448	5448	5448	5448	5448	5448	5448	5535	5535	5535	5535	5535	5535	5448	0	0	0	0	0	0	0	0	0	0	0	0	0	0	0	0	0	0	0	0	0	0	0	0	0	0	0	0	0	0	5448	5448	5448	5448	5364	5535	5535	5535	5535	0	0	0	0	0	0	0	0	0	0	0	0	0	0	0	5364	5364	5364	5448	5448	5448	5448	5448	5448	5448	5448	5448	5448	5448	5364	5364	5364	5364	5364	5364	5364	5448	5448	5364	5448	5448	5448	5448	5448	5448	5448	5448	5448	5448	5448	5364	5364	5364	5364	5364	5364	5364	5364	5364	5364	5448	5448	5448	5364	5448	5364	5364	5448	5364	5364	5364	5364	5364	5364	5364	5364	5364	5364	5448	5448	5448	5364	5364	5448	5448	5448	5448	5448	5448	5448	5448	5448	5448	5448	5448	5448	5448	5448	5364	5364	5364	5364	5364	5364	5364	5364	5364	5364	5364	5448	5364	5448	5448	5448	5448	5448	5364	5364	5364	5364	5364	5364	5364	5282	5202	5282	5282	5282	5282	5282	5282	5282	5364	5364	5364	5364	5364	5364	5364	5282	5364	5364	5282	5282	5282	5364	5364	5364	0	0	0	0	0	0	0	0	0	0	0	0	5364	5364	5282	5282	5282	5125	0	0	0	0	0	0	5202	5202	0	0	0	0	5448	5364	5719	5719	5626	5626	0	0	0	0	0	0	0	0	0	0	5719	5626	5626	5448	5448	5364	5364	5364	5364	5364	5364	5364	5364	5364	5364	5282	5282	5282	5282	5282	5282	5282	5282	5364	5364	5364	5364	5364	5364	5364	5448	5448	5448	5364	5448	5448	5364	5364	5364	5364	5282	5282	5282	5282	5282	5282	5364	5364	5364	5364	5364	5364	5364	5364	5364	5364	5364	5364	5364	5364	5364	5282	5282	5364	5364	5364	5448	5364	5364	5448	5364	5364	5364	5364	5364	5364	5364	5282	5364	5364	5364	5364	5364	5364	5364	5364	5364	5364	5364	5364	5364	5364	5364	5448	5448	5448	5448	5535	5535	5448	5448	5448	5448	5448	5448	5448	5364	5364	5364	5364	5364	5364	5364	5364	5364	5364	5364	5364	5364	5364	5364	5364	5364	5364	5364	5364	0	0	0	0	0	0	0	0	0	0	0	0	0	0	0	0	0	0	0	0	0	0	0	0	0	0	0	0	0	0	0	0	0	0	0	0	0	0	0	0	0	0	0	0	0	0	0	0	0	0	0	0	0	0	0	0	5202	5202	5202	5202	5282	5282	5282	5282	5282	5282	5202	5202	5202	5202	5125	5202	5202	5202	5202	5282	5282	5282	5282	5282	5282	5282	5282	0	0	0	0	0	0	0	0	0	0	0	0	0	0	0	0	0	0	0	0	0	0	0	0	0	0	0	0	0	0	0	0	0	0	0	0	0	0	0	0	0	0	0	0	0	0	0
0	0	0	0	1023	1023	1026	1026	1030	1030	1030	1030	1030	1026	1030	1030	0	1146	1150	1146	1150	1150	1150	1150	1153	1150	1150	1150	1150	1150	1150	1150	1150	1150	1150	1150	1153	1153	1153	1153	1153	1150	1150	1146	1146	1146	1146	1146	1146	1146	1142	1142	1142	1138	1138	1138	1134	1138	1134	1134	1134	1134	1134	1146	1150	1157	1161	1165	1165	1169	1169	1169	1173	1173	1173	1177	1181	1181	1181	0	0	0	0	0	0	0	0	0	5364	5364	5448	5448	5364	5364	5448	5448	5364	5364	5448	5448	5448	5448	5448	5448	5448	5448	5448	0	0	0	0	5448	5448	5448	5448	5448	5448	5448	5448	5364	5364	5364	5448	5448	5448	5448	5535	5535	5535	5448	5448	5448	5448	5448	5448	5448	5448	5535	5448	5448	5448	5448	5535	5535	5448	5535	5535	5535	5535	5535	0	0	0	0	0	0	0	0	0	0	0	0	0	0	0	0	0	0	0	0	0	0	0	0	0	0	0	0	0	0	0	0	0	0	5535	5535	5626	5626	5626	5535	0	0	0	0	0	0	0	0	0	0	0	0	0	0	0	5364	5364	5448	5448	5448	5448	5448	5448	5448	5535	5448	5448	5448	5448	5448	5364	5364	5364	5364	5448	5448	5448	5448	5448	5448	5448	5448	5448	5448	5448	5448	5448	5448	5448	5448	5448	5448	5448	5448	5448	5448	5448	5448	5364	5364	5448	5448	5448	5448	5448	5448	5448	5448	5448	5364	5364	5364	5364	5448	5364	5364	5364	5448	5448	5448	5448	5448	5448	5448	5448	5448	5448	5448	5448	5448	5448	5448	5448	5448	5448	5448	5448	5448	5364	5364	5364	5364	5364	5364	5364	5364	5364	5364	5364	5448	5364	5364	5364	5364	5364	5448	5448	5448	5364	5364	5364	5364	5364	5364	5202	5282	5282	5282	5282	5282	5282	5282	5364	5364	5364	5364	5364	5364	5364	5364	5282	5282	5202	5364	5364	5364	5364	5282	5282	0	0	0	0	0	0	0	0	0	0	0	0	5448	5448	5535	5535	0	0	0	0	0	0	0	0	0	0	0	0	0	0	0	5626	5719	5448	5448	0	0	0	0	0	0	0	0	0	0	5719	5626	5535	5448	5448	5364	5364	5364	5364	5364	5364	5364	5364	5364	5364	5282	5364	5364	5364	5364	5364	5364	5364	5364	5364	5364	5364	5364	5364	5448	5448	5448	5448	5448	5448	5448	5448	5448	5364	5364	5282	5282	5282	5364	5364	5364	5364	5364	5448	5448	5448	5448	5364	5364	5364	5364	5448	5364	5364	5364	5364	5282	5282	5364	5364	5448	5448	5448	5448	5448	5364	5364	5364	5364	5364	5364	5364	5364	5364	5364	5364	5364	5448	5448	5448	5448	5448	5364	5364	5448	5448	5448	5448	5448	5448	5448	5448	5535	5535	5448	5448	5535	5448	5448	5448	5448	5364	5448	5364	5364	5364	5364	5364	5364	5364	5448	5364	5364	5364	5364	5364	5364	5364	5364	5364	0	0	0	0	0	0	0	0	0	0	0	0	0	0	0	0	0	0	0	0	0	0	0	0	0	0	0	0	0	0	0	0	0	0	0	0	0	0	0	0	0	0	0	0	0	0	0	0	0	0	0	0	0	0	0	0	0	5202	5202	5282	5282	5282	5282	5282	5282	5282	5282	5202	5202	5202	5202	5202	5202	5202	5282	5282	5282	5282	5282	5282	5282	5282	5282	5282	0	0	0	0	0	0	0	0	0	0	0	0	0	0	0	0	0	0	0	0	0	0	0	0	0	0	0	0	0	0	0	0	0	0	0	0	0	0	0	0	0	0	0	0	0	0	0
0	0	0	0	1026	1030	1030	1030	1030	1030	1030	1030	1030	1030	1030	1030	1142	1142	1142	1146	1146	1146	1146	1150	1153	1157	1157	1150	1150	1150	1150	1150	1150	1150	1150	1150	1150	1153	1153	1157	1161	1157	1153	1150	1150	1150	1150	1146	1146	1146	1146	1142	1142	1142	1138	1134	1134	1134	1134	1131	1134	1134	1134	1138	1150	1157	1165	1165	1169	1169	1169	1173	1173	1177	1177	1181	1185	1185	1185	0	0	0	0	0	0	0	0	5282	5282	5364	5364	5448	5364	5364	5448	5448	5448	5448	5448	5448	5448	5448	5448	5535	5535	5535	5535	0	0	0	0	5535	5448	5448	5448	5448	5448	5448	5448	5364	5364	5448	5448	5535	5535	5535	5626	5626	5535	5535	5448	5448	5448	5448	5448	5448	5448	5535	5535	5535	5535	5535	5535	5535	5535	5535	5448	5535	5535	5535	5448	5448	0	0	0	0	0	0	0	0	0	0	0	0	0	0	0	0	0	0	0	0	0	0	0	0	0	0	0	0	0	0	0	0	5535	5535	5719	5719	5719	0	0	0	0	0	0	0	0	0	0	0	0	0	0	0	0	5364	5364	5448	5448	5448	5448	5448	5448	5448	5535	5535	5448	5448	5448	5448	5448	5364	5364	5364	5448	5448	5448	5448	5448	5448	5448	5448	5448	5448	5448	5448	5448	5448	5448	5448	5448	5448	5448	5448	5448	5448	5448	5448	5448	5364	5364	5364	5364	5364	5364	5364	5448	5448	5448	5448	5448	5448	5448	5448	5448	5448	5448	5448	5448	5448	5448	5448	5448	5448	5448	5448	5448	5448	5448	5535	5535	5448	5448	5448	5448	5448	5448	5448	5448	5448	5364	5364	5448	5448	5448	5448	5448	5448	5448	5448	5364	5364	5364	5364	5448	5448	5448	5448	5448	5364	5448	5448	5364	5364	5202	5282	5282	5282	5282	5282	5282	5282	5364	5364	5364	5364	5448	5448	5364	5364	5448	5282	5364	5364	5448	5448	5448	5364	5364	0	0	0	0	0	0	0	0	0	0	0	5719	5626	5535	5535	5535	0	0	0	0	0	0	0	0	0	0	0	0	0	0	0	5626	5719	5448	5448	0	0	0	0	0	0	0	0	0	0	5626	5535	5535	5448	5364	5364	5364	5364	5364	5364	5364	5364	5364	5448	5448	5364	5364	5364	5364	5364	5364	5364	5364	5364	5364	5364	5448	5448	5448	5448	5448	5535	5448	5448	5535	5535	5448	5448	5448	5364	5364	5282	5282	5364	5364	5364	5448	5448	5448	5448	5448	5364	5448	5364	5364	5364	5448	5364	5364	5364	5364	5282	5282	5364	5364	5448	5448	5448	5448	5448	5448	5448	5448	5364	5364	5364	5364	5364	5364	5364	5364	5364	5448	5448	5448	5448	5448	5448	5448	5448	5448	5448	5448	5448	5448	5448	5535	5535	5535	5535	5535	5535	5535	5535	5448	5448	5448	5448	5448	5448	5448	5364	5364	5364	5364	5448	5448	5364	5364	5364	5448	5448	5364	0	0	0	0	0	0	0	0	0	0	0	0	0	0	0	0	0	0	0	0	0	0	0	0	0	0	0	0	0	0	0	0	0	0	0	0	0	0	0	0	0	0	0	0	0	0	0	0	0	0	0	0	0	0	0	0	0	0	5125	5125	5202	5282	5282	5282	5282	5282	5282	5282	5282	5282	5282	5282	5282	5282	5282	5282	5282	5282	5282	5282	5282	5282	5282	5282	5282	5282	0	0	0	0	0	0	0	0	0	0	0	0	0	0	0	0	0	0	0	0	0	0	0	0	0	0	0	0	0	0	0	0	0	0	0	0	0	0	0	0	0	0	0	0	0	0	0
0	0	0	0	1030	1030	1030	1030	1030	1033	1033	1033	1030	1030	1030	1142	1138	1138	1142	1142	1146	1146	1146	1153	1153	1150	1150	1150	1150	1150	1150	1150	1150	1150	1150	1150	1150	1150	1153	1165	1169	1165	1157	1153	1153	1150	1150	1150	1146	1146	1146	1146	1146	1142	1138	1134	1134	1134	1134	1134	1134	1134	1138	1146	1150	1157	1165	1169	1169	1169	1173	1173	1177	1177	1181	1181	1185	1185	1185	0	0	0	0	0	0	0	5282	5282	5282	5364	5364	5448	5364	5448	5448	5448	5535	5535	5535	5448	5448	5448	5448	5448	5448	5448	5448	0	0	0	5535	5535	5448	5448	5448	5448	5448	5448	5448	5448	5448	5448	5535	5535	5535	5626	5626	5626	5626	5535	5448	5448	5448	5448	5535	5448	5448	5535	5535	5535	5535	5535	5626	5626	5535	5535	5535	5535	5535	5535	5535	5448	0	0	0	0	0	0	0	0	0	0	0	0	0	0	0	0	0	0	0	0	0	0	0	0	0	0	0	0	0	0	0	0	0	0	5815	5719	5719	0	0	0	0	0	0	0	0	0	0	0	0	0	0	0	0	0	5448	5448	5448	5448	5448	5448	5448	5535	5535	5535	5535	5448	5448	5448	5448	5448	5364	5448	5448	5448	5448	5448	5448	5448	5448	5448	5448	5535	5535	5535	5535	5448	5448	5448	5448	5448	5448	5448	5448	5448	5448	5448	5448	5448	5448	5364	5364	5448	5364	5448	5448	5448	5448	5448	5448	5448	5448	5448	5448	5448	5448	5535	5535	5448	5448	5448	5448	5448	5448	5448	5448	5448	5448	5535	5535	5535	5448	5448	5448	5448	5448	5448	5448	5448	5448	5448	5448	5448	5448	5448	5448	5448	5448	5448	5448	5448	5364	5448	5448	3475	3475	3475	3475	3475	5448	5448	5364	5364	5202	5202	5202	5202	5202	5282	5282	5282	5364	5364	5364	5364	5448	5448	5448	5448	5448	5282	5282	5282	5282	5448	5364	5282	5282	0	0	0	0	0	0	0	0	0	0	0	5719	5719	5626	5626	0	0	0	0	0	0	0	0	0	0	0	0	0	0	0	0	0	0	0	0	0	0	0	0	0	0	0	0	0	0	5626	5535	5535	5448	5448	5364	5448	5364	5448	5448	5448	5448	5448	5535	5448	5448	5364	5364	5364	5364	5364	5364	5364	5364	5364	5448	5448	5448	5448	5448	5535	5535	5535	5535	5535	5448	5448	5448	5448	5364	5364	5364	5364	5364	5364	5364	5448	5448	5448	5448	5448	5448	5448	5448	5448	5448	5448	5364	5364	5364	5364	5282	5282	5364	5364	5448	5535	5535	5448	5535	5448	5448	5448	5448	5448	5448	5448	5448	5364	5364	5364	5448	5448	5448	5448	5448	5535	5448	5448	5535	5448	5535	5448	5448	5448	5448	5535	5626	5535	5535	5626	5535	5535	5535	5535	5535	5535	5535	5448	5448	5448	5364	5364	5364	5448	5448	5448	5364	5364	5535	5535	5448	0	0	0	0	0	0	0	0	0	0	0	0	0	0	0	0	0	0	0	0	0	0	0	0	0	0	0	0	0	0	0	0	0	0	0	0	0	0	0	0	0	0	0	0	0	0	0	0	0	0	0	0	0	0	0	0	0	0	0	5125	5125	5202	5282	5282	5282	5282	5282	5282	5364	5282	5282	5282	5282	5282	5282	5282	5282	5282	5282	5282	5282	5364	5364	5364	5364	5364	5364	0	0	0	0	0	0	0	0	0	0	0	0	0	0	0	0	0	0	0	0	0	0	0	0	0	0	0	0	0	0	0	0	0	0	0	0	0	0	0	0	0	0	0	0	0	0	0
0	0	0	0	1030	1030	1030	1030	1030	1033	1033	1033	1033	1033	0	1142	1138	1138	1138	1142	1142	1146	1146	1153	1153	1150	1153	1150	1150	1150	1146	1146	1146	1150	1150	1150	1150	1150	1153	1165	1169	1165	1153	1153	1153	1153	1150	1150	1150	1150	1150	1146	1150	1142	1138	1134	1134	1134	1134	1134	1138	1138	1142	1134	1150	1157	1161	1169	1169	1173	1173	1173	1177	1177	1181	1181	1181	1185	0	0	0	0	0	0	0	5125	5202	5282	5282	5364	5364	5364	5448	5448	5448	5448	5535	5535	5535	5535	5535	5535	5535	5535	5535	5535	5535	0	0	0	5535	5535	5535	5535	5535	5535	5448	5448	5448	5448	5448	5535	5535	5535	5626	5626	5626	5626	5626	5535	5535	5535	5535	5448	5448	5448	5448	5535	5535	5626	5626	5626	5626	5626	5535	5535	5535	5535	5535	5535	5535	0	0	0	0	0	0	0	0	0	0	0	0	0	0	0	0	0	0	0	0	0	0	0	0	0	0	0	0	0	0	0	0	0	0	0	5815	5815	5719	0	0	0	0	0	0	0	0	0	0	0	0	0	0	0	0	0	5448	5448	5448	5448	5448	5448	5448	5535	5535	5535	5535	5535	5535	5448	5448	5448	5448	5448	5448	5448	5448	5448	5448	5448	5448	5535	5535	5535	5535	5535	5448	5448	5448	5448	5364	5448	5448	5448	5448	5448	5448	5448	5448	5448	5448	5364	5448	5448	5364	5448	5448	5448	5448	5448	5448	5448	5448	5448	5448	5448	5448	5535	5535	5535	5535	5448	5448	5448	5448	5448	5448	5448	5448	5448	5535	5535	5448	5448	5535	5535	5535	5448	5448	5448	5448	5448	5448	5448	5448	5448	5448	5448	5448	5448	5448	5448	0	3475	3475	3475	3475	3475	3475	3475	5448	5448	5364	5364	5202	5202	5202	5202	5202	5282	5282	5282	5364	5364	5364	5448	5448	5448	5448	5448	5448	5282	5282	5282	5282	5282	5364	5282	5282	0	0	0	0	0	0	0	0	0	0	0	0	5719	5626	5626	0	0	0	0	0	0	0	0	0	0	0	0	0	0	0	0	0	0	0	0	0	5282	5282	0	0	0	0	0	0	0	0	5448	5448	5448	5448	5364	5448	5448	5448	5535	5448	5448	5535	5535	5535	5448	5364	5364	5364	5364	5364	5364	5364	5364	5448	5448	5448	5448	5448	5448	5448	5535	5535	5535	5535	5448	5448	5448	5448	5448	5364	5364	5364	5448	5448	5448	5448	5448	5535	5535	5535	5448	5535	5448	5448	5448	5448	5364	5364	5364	5364	5282	5282	5364	5448	5535	5535	5535	5535	5535	5535	5535	5535	5535	5535	5535	5535	5448	5448	5448	5448	5448	5448	5448	5535	5535	5535	5535	5535	5535	5535	5535	5535	5535	5448	5535	5535	5626	5535	5535	5626	5535	5535	5535	5535	5535	5535	5535	5448	5535	5448	5448	5448	5448	5448	5448	5448	5448	5448	5448	5535	0	0	0	0	0	0	0	0	0	0	0	0	0	0	0	0	0	0	0	0	0	0	0	0	0	0	0	0	0	0	0	0	0	0	0	0	0	0	0	0	0	0	0	0	0	0	0	0	0	0	0	0	0	0	0	0	0	0	0	0	5202	5202	5282	5282	5282	5364	5282	5282	5282	5364	5282	5282	5282	5282	5364	5282	5282	5282	5364	5364	5282	5364	5364	5364	5364	5364	5364	5364	0	0	0	0	0	0	0	0	0	0	0	0	0	0	0	0	0	0	0	0	0	0	0	0	0	0	0	0	0	0	0	0	0	0	0	0	0	0	0	0	0	0	0	0	0	0	0
0	0	0	0	1026	1026	1026	1026	1030	1030	1030	1030	1030	1033	0	1142	1138	1138	1138	1138	1138	1142	1142	1153	1153	1150	1150	1150	1146	1146	1146	1142	1142	1146	1146	1146	1146	1142	1142	1138	1138	1138	1146	1146	1146	1150	1150	1150	1150	1150	1150	1150	1150	1146	1127	1123	1123	1134	1134	1134	1134	1134	1138	1138	1142	1150	1161	1165	1169	1169	1169	1169	1177	1177	1181	1181	1181	0	0	0	0	0	0	0	0	5202	5282	5282	5364	5364	5364	5448	5448	5535	5626	5535	5626	5626	5626	5535	5535	5626	5535	5626	5535	5535	5626	5626	5626	5626	5626	5626	5535	5535	5535	5535	5535	5448	5448	5448	5535	5626	5626	5626	5626	5626	5626	5626	5626	5535	5535	5535	5535	5448	5448	5448	5535	5535	5626	5626	5626	5626	5626	5626	5626	5535	5535	5535	5535	5535	5535	0	0	0	0	0	0	0	0	0	0	0	0	0	0	0	0	0	0	0	0	0	0	0	0	0	0	0	0	0	0	0	0	0	0	0	5915	5915	0	0	0	0	0	0	0	0	0	0	0	0	0	0	0	0	0	0	0	5448	5448	5448	5448	5448	5448	5535	5535	5535	5626	5535	5535	5448	5448	5448	5448	5448	5448	5448	5448	5535	5535	5535	5535	5535	5535	5626	5535	5535	5535	5448	5448	5448	5364	5364	5364	5448	5448	5448	5448	5448	5448	5448	5448	5448	5448	5448	5448	5448	5448	5448	5448	5448	5448	5448	5448	5448	5448	5448	5448	5448	5535	5535	5535	5448	5535	5448	5448	5535	5535	5535	5535	5535	5535	5535	5535	5535	5535	5535	5626	5535	5535	5535	5535	5448	5535	5535	5535	5535	5535	5535	5448	0	0	0	3440	3440	3440	3440	3440	3440	3475	3440	3440	3440	5364	5364	5202	5202	5202	5202	5282	5282	5282	5364	5364	5364	5364	5448	5448	5448	5364	5448	5448	0	0	0	5282	5282	0	0	0	0	0	0	0	0	0	0	0	0	0	0	0	5815	5719	5719	0	0	0	0	0	0	0	0	0	0	0	0	0	0	0	0	0	0	0	0	0	5282	5364	5364	0	0	0	0	0	0	0	5448	5535	5535	5448	5448	5448	5448	5448	5535	5535	5535	5535	5626	5535	5364	5448	5448	5448	5448	5448	5448	5364	5448	5448	5448	5448	5448	5448	5448	5448	5448	5448	5535	5448	5448	5448	5448	5448	5364	5364	5364	5364	5448	5448	5448	5535	5535	5626	5535	5535	5535	5535	5535	5535	5448	5448	5448	5364	5364	5364	5364	5364	5364	5448	5535	5535	5535	5535	5535	5626	5535	5626	5626	5535	5535	5535	5535	5535	5535	5535	5535	5535	5448	5535	5535	5535	5535	5535	5535	5535	5535	5535	5535	5535	5535	5535	5626	5626	5535	5626	5626	5626	5535	5535	5535	5535	5535	5535	5535	5535	5448	5448	5448	5448	5535	5535	5448	5448	5448	0	0	0	0	0	0	0	0	0	0	0	0	0	0	0	0	0	0	0	0	0	0	0	0	0	0	0	0	0	0	0	0	0	0	0	0	0	0	0	0	0	0	0	0	0	0	0	0	0	0	0	0	0	0	0	5719	5719	5719	5719	0	5202	5202	5282	5282	5282	5282	5282	5282	5282	5282	5282	5282	5282	5282	5282	5282	5364	5364	5364	5364	5364	5282	5364	5364	5364	5448	5364	5448	5448	0	0	0	0	0	0	0	0	0	0	0	0	0	0	0	0	0	0	0	0	0	0	0	0	0	0	0	0	0	0	0	0	0	0	0	0	0	0	0	0	0	0	0	0	0	0	0
0	0	0	0	1026	1026	1026	1030	1030	1033	1030	1030	1030	1142	1142	1142	1138	1138	1138	1138	1142	1142	1150	1150	1150	1150	1150	1150	1142	1146	1142	1142	1142	1142	1142	1142	1142	1142	1146	1138	1142	1138	1142	1142	1150	1150	1150	1153	1150	1153	1153	1153	1153	1153	1127	1127	1127	1134	1146	1134	1134	1138	1142	1142	1142	1165	1165	1165	1165	1165	1169	1169	1169	1181	1181	1181	1181	0	0	0	0	0	0	0	5282	5282	5364	5364	5364	5364	5364	5448	5448	5535	5535	5535	5626	5626	5626	5626	5626	5626	5626	5626	5626	5626	5626	5626	5626	5626	5626	5626	5626	5626	5626	5535	5535	5535	5535	5626	5626	5626	5626	5626	5626	5626	5719	5719	5626	5626	5535	5626	5626	5535	5535	5535	5535	5626	5626	5626	5626	5719	5719	5626	5626	5626	5535	5535	5535	0	0	0	0	0	0	0	0	0	0	0	0	0	0	0	0	0	0	0	0	0	0	0	0	0	0	0	0	0	0	0	0	0	0	0	0	0	5915	5915	0	0	0	0	0	0	0	0	0	0	0	0	0	0	0	0	0	0	0	0	5448	5448	5448	5448	5535	5535	5535	5535	5626	5535	5535	5535	5535	5535	5448	5448	5535	5535	5535	5535	5535	5535	5535	5535	5535	5535	5535	5535	5535	5448	5448	5364	5364	5364	5364	5448	5448	5535	5448	5448	5448	5448	5448	5448	5448	5448	5448	5448	5448	5448	5448	5448	5448	5448	5448	5448	5448	5448	5448	5535	5535	5535	5535	5448	5535	5535	5535	5535	5535	5535	5626	5626	5626	5626	5535	5626	5626	5626	5626	5626	5626	5626	5626	5626	5535	5535	5535	5535	5535	5535	0	0	0	0	3440	3440	3440	3440	3440	3440	3440	3475	3440	3440	3406	3406	3373	3373	5202	5202	5282	5282	5282	5364	5364	5364	5364	5448	5448	5448	5448	5448	5448	0	0	0	0	0	0	0	0	0	0	0	0	0	0	0	0	0	0	0	0	5815	5719	5719	0	0	0	0	0	0	0	0	0	0	0	0	0	0	0	0	0	0	0	0	0	0	5364	5364	0	0	0	0	0	0	0	5535	5535	5535	5535	5448	5535	5448	5535	5626	5626	5626	5626	5626	5626	5364	5535	5448	5448	5448	5448	5448	5448	5448	5448	5535	5448	5448	5448	5448	5448	5535	5535	5535	5535	5535	5448	5535	5535	5448	5448	5448	5448	5535	5535	5535	5535	5535	5626	5626	5535	5535	5535	5535	5535	5535	5535	5535	5364	5364	5364	5364	5364	5448	5535	5535	5535	5535	5626	5626	5626	5626	5626	5626	5626	5535	5535	5535	5535	5535	5535	5535	5535	5448	5535	5535	5535	5535	5535	5535	5535	5535	5535	5535	5535	5535	5535	5535	5535	5535	5626	5535	5535	5535	5535	5535	5535	5626	5535	5535	5535	5535	5535	5535	5535	5535	5535	5535	5448	0	0	0	0	0	0	0	0	0	0	0	0	0	0	0	0	0	0	0	0	0	0	0	0	0	0	0	0	0	0	0	0	0	0	0	0	0	0	0	0	0	0	0	0	0	0	0	0	0	0	0	0	0	0	0	0	5719	5719	5719	5719	5202	5202	5202	5282	5282	5282	5282	5282	5282	5282	5282	5282	5364	5364	5364	5364	5364	5364	5364	5282	5364	5364	5282	5364	5448	5535	5535	5535	5626	5626	0	0	0	0	0	0	0	0	0	0	0	0	0	0	0	0	0	0	0	0	0	0	0	0	0	0	0	0	0	0	0	0	0	0	0	0	0	0	0	0	0	0	0	0	0	0	0
0	0	0	0	0	1026	1030	1030	1030	1033	1030	1030	1146	1142	1138	1138	1138	1138	1138	1138	1142	1142	1142	1153	1153	1150	1150	1146	1142	1142	1142	1142	1142	1142	1146	1142	1142	1142	1150	1138	1142	1138	1138	1142	1146	1146	1146	1150	1146	1146	1127	1120	1120	1120	1127	1127	1127	0	1146	1134	1134	1138	1142	1142	1153	1157	1165	1165	1161	1161	1165	1165	1169	1165	1165	1181	0	0	0	0	0	0	0	5282	5282	5282	5364	5364	5364	5364	5448	5448	5448	5535	5535	5535	5626	5626	5626	5626	5626	5626	5626	5626	5626	5626	5626	5626	5719	5719	5626	5626	5626	5626	5626	5626	5626	5626	5719	5626	5626	5626	5626	5626	5626	5626	5626	5719	5626	5626	5626	5719	5626	5535	5535	5535	5626	5719	5626	5626	5626	5719	5626	5626	5626	5626	5535	5535	5535	0	0	0	0	0	0	0	0	0	0	0	0	0	0	0	0	0	0	0	0	0	0	0	0	0	0	0	0	0	0	0	0	0	0	0	0	0	0	0	0	0	0	0	0	0	0	0	0	0	0	0	0	0	0	0	0	0	0	0	5364	5448	5448	5448	5535	5535	5535	5626	5626	5626	5626	5535	5535	5535	5535	5535	5535	5535	5535	5626	5535	5535	5535	5535	5535	5535	5535	5535	5535	5535	5448	5448	5448	5448	5364	5448	5535	5535	5535	5535	5448	5448	5448	5448	5448	5448	5535	5535	5535	5535	5535	5535	5535	5535	5535	5448	5448	5448	5448	5535	5535	5535	5535	5448	5535	5535	5448	5535	5535	5535	5535	5626	5626	5626	5626	5626	5626	5626	5719	5626	5719	5719	5626	5626	5626	5535	5535	5535	5626	5626	5626	0	0	0	3440	3440	3440	3406	3406	3440	3440	3406	3406	3440	3406	3406	3406	3406	3406	3406	5282	5282	5282	5364	5364	5364	5364	5448	5448	5448	5448	5448	0	0	0	0	0	0	0	0	0	0	0	0	0	0	0	0	0	0	0	0	0	0	0	0	0	0	0	0	0	0	5448	5448	0	0	0	0	0	0	0	0	0	0	0	0	0	0	5626	5626	5626	0	0	0	0	0	0	5535	5535	5535	5535	5535	5535	5535	5535	5626	5626	5626	5626	5626	5626	5535	5535	5448	5448	5448	5448	5448	5448	5448	5448	5535	5535	5448	5448	5448	5535	5535	5535	5535	5535	5535	5448	5535	5535	5448	5448	5448	5448	5535	5535	5535	5626	5626	5626	5626	5626	5626	5626	5626	5626	5535	5535	5535	5364	5364	5364	5364	5364	5448	5535	5535	5535	5626	5626	5626	5626	5626	5626	5626	5626	5626	5626	5535	5535	5626	5626	5626	5535	5535	5535	5535	5535	5448	5448	5535	5535	5535	5535	5535	5535	5535	5535	5535	5535	5535	5626	5535	5626	5535	5535	5535	5535	5535	5535	5535	5535	5535	5535	5535	5535	5535	5535	5535	0	0	0	0	0	0	0	0	0	0	0	0	0	0	0	0	0	0	0	0	0	0	0	0	0	0	0	0	0	0	0	0	0	0	0	0	0	0	0	0	0	0	0	0	0	0	0	0	0	0	0	0	0	0	0	0	5626	5626	5626	5626	5626	5448	5364	5282	5282	5282	5282	5282	5282	5282	5282	5282	5364	5364	5364	5364	5364	5364	5364	5364	5282	5282	5364	5364	5364	5448	5626	5626	5626	5626	5626	0	0	0	0	0	0	0	0	0	0	0	0	0	0	0	0	0	0	0	0	0	0	0	0	0	0	0	0	0	0	0	0	0	0	0	0	0	0	0	0	0	0	0	0	0	0	0
0	0	0	0	0	1026	1030	1030	1030	1030	1150	1142	1142	1142	1138	1138	1138	1138	1138	1138	1142	1142	1153	1153	1153	1150	1146	1146	1142	1142	1142	1142	1142	1142	1146	1142	1142	1142	1150	1138	1142	1138	1138	1138	1134	1134	1134	1146	1138	1138	1127	1120	1120	1120	0	0	0	0	0	0	0	0	0	0	1153	1157	1157	1161	1157	1157	1161	1165	1165	1165	1165	0	0	0	0	0	0	0	0	5282	5282	5282	5282	5364	5364	5364	5448	5448	5448	5448	5535	5535	5626	5626	5626	5626	5626	5626	5626	5626	5626	5626	5719	5719	5719	5719	5719	5719	5719	5626	5626	5626	5626	5626	5719	5626	5626	5719	5719	5719	5719	5626	5719	5719	5719	5626	5626	5719	5626	5535	5535	5535	5535	5626	5626	5535	5626	5719	5626	5626	5626	5626	5626	5535	5535	5535	5535	0	0	0	0	0	0	0	0	0	0	0	0	0	0	0	0	0	0	0	0	0	0	0	0	0	0	0	0	0	0	0	0	0	0	0	0	0	0	0	0	0	0	0	0	0	0	0	0	0	0	0	0	0	0	0	0	0	5364	5448	5535	5535	5626	5535	5626	5626	5719	5719	5626	5626	5626	5626	5535	5535	5535	5535	5535	5626	5535	5535	5535	5535	5535	5535	5535	5535	5535	5535	5535	5535	5535	5626	5626	5626	5626	5626	5535	5535	5535	5535	5448	5448	5448	5448	5535	5535	5535	5535	5535	5535	5535	5535	5535	5448	5448	5448	5535	5535	5535	5535	5535	5535	5535	5535	5535	5626	5626	5626	5626	5626	5626	5626	5626	5626	5719	5719	5719	5719	5719	5719	5626	5626	5626	5535	5626	5626	5626	5626	5626	0	0	3440	3440	3440	3440	3406	3406	3406	3440	3440	3406	3440	3406	3406	3406	3406	3406	3373	3373	3373	5364	5364	5364	5448	5364	5448	5448	5448	5448	5448	0	0	0	0	0	0	0	0	0	0	0	0	0	0	0	0	0	0	0	0	0	0	0	0	0	0	0	0	0	0	5448	5448	5719	5626	5626	0	0	0	0	0	0	0	0	0	0	0	5719	5719	5719	5719	0	0	0	0	0	5626	5626	5626	5535	5535	5626	5626	5626	5626	5626	5626	5626	5626	5626	5626	5535	5448	5535	5535	5535	5535	5535	5448	5535	5535	5535	5448	5448	5535	5448	5535	5535	5535	5535	5535	5535	5535	5535	5535	5535	5448	5448	5535	5535	5535	5535	5626	5626	5626	5626	5626	5626	5626	5626	5535	5535	5535	0	5364	5364	5364	5448	5448	5535	5535	5535	5626	5626	5626	5719	5626	5626	5626	5626	5626	5626	5535	5626	5626	5626	5626	5626	5535	5626	5535	5535	5535	5535	5535	5626	5535	5535	5535	5535	5535	5535	5626	5626	5626	5626	5626	5626	5626	5535	5535	5626	5535	5535	5535	5535	5535	5535	5535	5535	5535	5535	0	0	0	0	0	0	0	0	0	0	0	0	0	0	0	0	0	0	0	0	0	0	0	0	0	0	0	0	0	0	0	0	0	0	0	0	0	0	0	0	0	0	0	0	0	0	0	0	0	0	0	0	0	0	0	0	0	5719	5719	5719	5719	5626	5535	5448	5364	5282	5282	5282	5282	5282	5282	5282	5282	5364	5364	5364	5364	5364	5364	5364	5364	5364	5282	5364	5364	5448	5448	5626	5626	5626	5719	5719	0	0	0	0	0	0	0	0	0	0	0	0	0	0	0	0	0	0	0	0	0	0	0	0	0	0	0	0	0	0	0	0	0	0	0	0	0	0	0	0	0	0	0	0	0	0	0
0	0	0	0	0	0	1026	1026	1023	1023	1023	1142	1142	1138	1138	1138	1138	1138	1138	1142	1142	1146	1146	1150	1150	1146	1146	1146	1146	1146	1146	1142	1142	1142	1146	1142	1142	1142	1150	1138	1138	1134	1134	1134	1131	1131	1131	1127	1123	1123	1123	1116	1116	0	0	0	0	0	0	0	0	0	0	0	1153	1157	1153	1161	1153	1157	1157	1165	1165	1165	1165	0	0	0	0	5282	5202	5364	5364	5282	5282	5282	5282	5364	5364	5364	5364	5448	5448	5448	5535	5535	5626	5626	5626	5626	5626	5626	5626	5626	5626	5626	5626	5626	5719	5719	5719	5719	5719	5719	5719	5626	5719	5719	5719	5719	5626	5719	5719	5719	5626	5626	5719	5719	5719	5719	5719	5719	5719	5626	5535	5626	5626	5626	5626	5626	5626	5719	5626	5626	5626	5626	5626	5626	5626	5535	5535	0	0	0	0	0	0	0	0	0	0	0	0	0	0	0	0	0	0	0	0	0	0	0	0	0	0	0	0	0	0	0	0	0	0	0	0	0	0	0	0	0	0	0	0	0	0	0	0	0	0	0	0	0	0	0	0	0	0	0	5535	5626	5626	5626	5626	5719	5719	5719	5719	5626	5719	5626	5626	5626	5626	5626	5626	5626	5535	5535	5535	5535	5535	5535	5535	5535	5626	5535	5535	5535	5535	5626	5626	5626	5626	5626	5626	5626	5626	5535	5535	5535	5535	5535	5535	5535	5626	5535	5535	5535	5535	5535	5535	5535	5535	5535	5535	5626	5535	5535	5626	5535	5626	5626	5535	5626	5626	5626	5626	5626	5626	5626	5626	5719	5719	5719	5719	5719	5719	5719	5719	5626	5626	5535	5626	5535	5535	5535	5626	0	0	3440	3440	3440	3440	3406	3406	3406	3406	3406	3406	3406	3373	3406	3406	3373	3406	3373	3373	3373	3373	5448	5448	5448	5448	5448	5448	5535	5448	5448	5364	5364	0	0	0	0	0	0	0	0	0	0	0	0	0	0	0	0	0	0	0	0	0	0	0	0	0	0	0	5535	5535	5535	5626	5626	5626	5626	0	0	0	0	0	0	0	0	0	0	5719	5719	5719	5719	0	0	0	5626	5626	5626	5626	5626	5626	5535	5626	5626	5626	5626	5626	5626	5626	5626	5626	5626	5535	5535	5535	5535	5535	5535	5535	5535	5535	5535	5535	5535	5535	5535	5448	5535	5535	5535	5535	5535	5535	5535	5535	5535	5535	5448	5448	5535	5535	5535	5535	5626	5626	5626	5626	5626	5626	5626	5626	5535	5535	5535	5535	5364	5364	5364	5364	5448	5535	5535	5626	5626	5626	5719	5719	5719	5626	5626	5626	5626	5626	5626	5626	5626	5626	5626	5626	5626	5626	5535	5535	5535	5535	5535	5626	5626	5626	5626	5626	5626	5626	5626	5626	5626	5626	5626	5626	5535	5535	5535	5535	5535	5448	5535	5535	5535	5535	5535	5535	0	0	0	0	0	0	0	0	0	0	0	0	0	0	0	0	0	0	0	0	0	0	0	0	0	0	0	0	0	0	0	0	0	0	0	0	0	0	0	0	0	0	0	0	0	0	0	0	0	0	0	0	0	0	0	0	0	0	5626	5626	5626	5626	5626	5626	5535	5535	5448	5364	5364	5282	5364	5282	5282	5282	5282	5364	5364	5364	5364	5364	5364	5364	5364	5364	5364	5364	5448	5448	5448	5626	5535	5626	5535	5719	5719	0	0	0	0	0	0	0	0	0	0	0	0	0	0	0	0	0	0	0	0	0	0	0	0	0	0	0	0	0	0	0	0	0	0	0	0	0	0	0	0	0	0	0	0	0	0
0	0	0	0	0	0	1026	1026	1023	1142	1142	1138	1142	1138	1138	1138	1138	1138	1138	1142	1142	1146	1150	1150	1150	1146	1146	1146	1146	1146	1142	1142	1142	1142	1142	1138	1138	1138	1142	1138	1134	1134	1131	1131	1127	1127	1127	1123	1120	1120	1120	1116	1113	1123	1123	0	0	0	0	0	0	0	0	1153	1157	1157	1157	1157	1153	1153	1153	0	0	0	0	0	0	0	0	5364	5282	5448	5364	5364	5364	5364	5364	5364	5364	5364	5364	5448	5448	5535	5535	5535	5626	5626	5719	5719	5719	5719	5626	5626	5626	5626	5626	5626	5719	5719	5719	5719	5719	5719	5719	5719	5719	5719	5719	5719	5719	5719	5719	5719	5719	5626	5719	5719	5719	5719	5719	5719	5719	5626	5626	5626	5626	5719	5626	5626	5719	5719	5626	5719	5626	5626	5626	5626	5626	5626	5626	0	0	0	0	0	0	0	0	0	0	0	0	0	0	0	0	0	0	0	0	0	0	0	0	0	0	0	0	0	0	0	5815	5815	0	0	0	0	0	0	0	0	0	0	0	0	0	0	0	0	0	0	0	0	0	0	0	0	0	0	5626	5626	5626	5626	5626	5719	5719	5719	5719	5719	5719	5719	5719	5719	5626	5626	5626	5626	5535	5535	5535	5535	5535	5535	5535	5626	5626	5626	5535	5626	5626	5626	5626	5719	5626	5719	5719	5719	5626	5626	5626	5626	5626	5626	5626	5626	5626	5535	5626	5535	5535	5535	5535	5535	5535	5535	5535	5626	5626	5626	5626	5626	5626	5626	5626	5626	5626	5626	5626	5626	5626	5626	5719	5719	5719	5719	5719	5719	5719	5719	5719	5626	5626	5626	5626	5626	5626	5535	0	0	0	3406	3406	3406	3406	3406	3406	3406	3406	3406	3406	3406	3373	3406	3373	3373	3373	3373	3373	3373	3373	5448	5448	5448	5448	5535	5448	5535	5448	5448	5364	5364	0	0	0	0	0	0	0	0	0	0	0	0	0	0	0	0	0	0	0	0	0	0	0	0	0	0	5535	5535	5535	5535	5626	5626	5626	5626	0	0	0	0	0	0	0	0	0	0	5719	5719	5719	5719	5719	5815	5719	5719	5719	5719	5626	5626	5626	5626	5626	5626	5626	5626	5626	5626	5626	5626	5535	5535	5535	5535	5535	5535	5626	5626	5626	5626	5626	5626	5626	5535	5535	5535	5535	5535	5535	5535	5535	5626	5535	5535	5535	5535	5535	5535	5535	5535	5626	5626	5626	5626	5626	5626	5626	5626	5626	5626	5626	5626	5535	5535	5535	5364	5364	5448	5448	5535	5626	5626	5626	5626	5626	5719	5719	5626	5626	5626	5626	5626	5626	5535	5626	5626	5626	5626	5626	5626	5626	5626	5626	5535	5535	5626	5626	5626	5626	5626	5626	5626	5626	5626	5626	5626	5626	5626	5535	5535	5535	5448	5535	5535	5535	5535	5535	5535	5535	5535	0	0	0	0	0	0	0	0	0	0	0	0	0	0	0	0	0	0	0	0	0	0	0	0	0	0	0	0	0	0	0	0	0	0	0	0	0	0	0	0	0	0	0	0	0	0	0	0	0	0	0	0	0	0	0	0	0	0	5626	5626	5626	5626	5626	5626	5626	5535	5535	5364	5364	5364	5282	5364	5282	5282	5282	5282	5364	5364	5364	5364	5364	5448	5364	5364	5364	5364	5364	5448	5448	5448	5626	5448	5626	5719	5448	5448	0	0	0	0	0	0	0	0	0	0	0	0	0	0	0	0	0	0	0	0	0	0	0	0	0	0	0	0	0	0	0	0	0	0	0	0	0	0	0	0	0	0	0	0	0	0
0	0	0	0	0	0	0	0	0	1142	1142	1142	1142	1138	1138	1142	1142	1142	1138	1142	1142	1146	1146	1150	1150	1146	1146	1146	1146	1146	1146	1146	1142	1142	1142	1142	1138	1138	1142	1138	1134	1131	1131	1131	1123	1123	1120	1120	1120	1120	1120	1116	1116	1120	1120	0	0	0	0	0	0	0	0	1153	1157	1157	1157	1157	1157	1153	1153	0	0	0	0	0	0	0	0	5448	5282	5448	5364	5364	5364	5364	5364	5282	5364	5364	5448	5448	5535	5535	5626	5626	5719	5719	5719	5815	5719	5719	5626	5626	5626	5626	5626	5719	5719	5719	5719	5719	5719	5719	5719	5719	5719	5719	5719	5626	5626	5626	5719	5626	5626	5626	5626	5719	5719	5719	5719	5719	5719	5626	5626	5719	5719	5719	5719	5719	5719	5719	5719	5719	5626	5626	5626	5626	5626	5626	5719	5719	0	0	0	0	0	0	0	0	0	0	0	0	0	0	0	0	0	0	0	0	0	0	0	0	0	0	0	0	0	0	5815	5815	5815	0	0	0	0	0	0	0	0	0	0	0	0	0	0	0	0	0	0	0	0	0	0	0	0	0	5719	5626	5626	5626	5719	5719	5719	5719	5719	5719	5719	5719	5719	5719	5719	5719	5719	5719	5626	5626	5626	5626	5626	5626	5626	5626	5626	5626	5626	5626	5626	5626	5626	5719	5719	5719	5719	5719	5626	5719	5626	5626	5626	5626	5626	5626	5626	5626	5626	5535	5535	5535	5535	5535	5535	5626	5626	5626	5626	5626	5626	5719	5626	5719	5719	5719	5719	5626	5626	5719	5719	5626	5719	5719	5719	5719	5719	5719	5719	5719	5719	5626	5626	5626	5626	5626	5626	5626	0	0	3440	3440	3440	3406	3440	3406	3406	3406	3406	3406	3406	3406	3373	3406	3406	3406	3406	3406	3406	3406	3440	3440	5535	5535	5535	5535	5535	5535	5448	5448	5448	5535	5535	0	0	0	0	0	0	0	0	0	0	0	0	0	0	0	0	0	0	0	0	0	0	0	0	5535	5626	5626	5626	5719	5719	5719	5815	5815	0	0	0	0	0	0	0	0	0	5719	5719	5719	5719	5719	5719	5719	5719	5719	5719	5626	5626	5626	5626	5535	5626	5626	5626	5626	5626	5626	5626	5626	5535	5626	5535	5535	5535	5626	5626	5626	5626	5626	5626	5626	5626	5535	5535	5535	5535	5535	5448	5535	5626	5626	5535	5535	5626	5626	5626	5535	5535	5535	5626	5626	5626	5626	5626	5626	5626	5626	5626	5626	5626	5626	5626	5535	5626	5448	5448	5448	5448	5535	5626	5626	5626	5626	5626	5719	5719	5719	5626	5626	5626	5626	5626	5535	5535	5626	5626	5626	5626	5626	5719	5626	5626	5626	5626	5626	5626	5626	5626	5626	5626	5626	5626	5626	5626	5626	5626	5626	5626	5535	5535	5535	5535	5535	5535	5626	5626	5626	5626	5626	0	0	0	0	0	0	0	0	0	0	0	0	0	0	0	0	0	0	0	0	0	0	0	0	0	0	0	0	0	0	0	0	0	0	0	0	0	0	0	0	0	0	0	0	0	0	0	0	0	0	0	0	0	0	0	0	0	0	5626	5626	5626	5626	5626	5626	5626	5535	5535	5448	5364	5364	5364	5364	5364	5364	5282	5282	5364	5364	5364	5364	5364	5364	5364	5364	5364	5364	5448	5535	5448	5448	5626	5626	5626	5719	5448	5448	0	0	0	0	0	0	0	0	0	0	0	0	0	0	0	0	0	0	0	0	0	0	0	0	0	0	0	0	0	0	0	0	0	0	0	0	0	0	0	0	0	0	0	0	0	0
0	0	0	0	0	0	0	0	1134	1134	1138	1138	1142	1138	1138	1138	1138	1138	1138	1138	1138	1142	1142	1150	1150	1142	1146	1146	1146	1146	1146	1146	1146	1142	1142	1138	1138	1138	1138	1131	1131	1131	1127	1127	1123	1120	1120	1120	1120	1120	1120	1116	1116	1120	1120	1120	0	0	0	0	0	0	0	0	1161	1157	1157	1161	1157	1157	1157	1161	1161	1161	0	0	0	1165	1165	5448	5282	5448	5448	5364	5364	5364	5364	5448	5448	5448	5448	5448	5535	5535	5626	5626	5719	5719	5719	5719	5719	5719	5626	5626	5626	5626	5719	5719	5719	5719	5719	5719	5719	5719	5719	5719	5719	5719	5719	5719	5719	5719	5719	5719	5719	5719	5719	5719	5719	5719	5719	5719	5719	5719	5626	5719	5719	5719	5719	5815	5815	5815	5719	5719	5719	5719	5719	5626	5626	5719	5719	5719	5719	0	0	0	0	0	0	0	0	0	0	0	0	0	0	0	0	0	0	0	0	0	0	0	0	0	0	0	5815	5815	5815	5815	5815	0	0	0	0	0	0	0	0	0	0	0	0	0	0	0	0	0	0	0	0	0	0	0	0	0	5719	5626	5626	5626	5719	5719	5719	5719	5719	5719	5815	5719	5719	5719	5719	5719	5719	5719	5626	5626	5626	5626	5626	5626	5626	5719	5719	5719	5719	5719	5626	5719	5719	5719	5719	5719	5719	5719	5719	5719	5719	5719	5626	5626	5626	5626	5626	5626	5626	5626	5626	5626	5626	5626	5626	5626	5626	5719	5719	5719	5719	5719	5719	5719	5719	5719	5719	5719	5719	5719	5719	5719	5719	5719	5719	5719	5719	5719	5719	5719	5719	5626	5626	5626	5626	5626	5719	5719	0	0	3440	3440	3440	3440	3440	3406	3373	3406	3406	3406	3406	3406	3373	3406	3406	3406	3406	3406	3406	3373	3373	3373	5448	5535	5535	5535	5626	5626	5535	5535	5535	5626	5626	5626	0	0	0	0	0	0	0	0	0	0	0	0	0	0	0	0	0	0	0	0	0	0	0	5626	5626	5626	5719	5719	5815	5719	5815	6018	6018	6124	6124	0	0	0	0	0	0	5719	5719	5719	5719	5719	5719	5719	5719	5626	5626	5626	5626	5626	5626	5535	5626	5626	5626	5719	5626	5719	5626	5626	5626	5626	5626	5626	5626	5626	5626	5626	5626	5626	5719	5719	5626	5626	5626	5626	5626	5626	5535	5626	5626	5626	5626	5626	5626	5626	5626	5626	5626	5535	5626	5626	5626	5626	5626	5626	5626	5626	5626	5626	5626	5626	5626	5626	5626	5535	5535	5535	5535	5626	5626	5626	5626	5626	5719	5719	5719	5719	5719	5719	5626	5626	5626	5535	5626	5626	5719	5626	5626	5719	5719	5626	5626	5626	5626	5626	5626	5626	5626	5626	5626	5626	5626	5626	5719	5626	5626	5626	5626	5626	5626	5626	5535	5535	5626	5626	5626	5626	5626	5626	0	0	0	0	0	0	0	0	0	0	0	0	0	0	0	0	0	0	0	0	0	0	0	0	0	0	0	0	0	0	0	0	0	0	0	0	0	0	0	0	0	0	0	0	0	0	0	0	0	0	0	0	0	0	0	0	5535	5535	5626	5626	5626	5626	5626	5626	5535	5448	5448	5448	5364	5364	5364	5364	5364	5364	5364	5282	5364	5364	5448	5448	5448	5448	5364	5364	5364	5364	5448	5535	5535	5535	5626	5626	5626	5626	5626	5626	0	0	0	0	0	0	0	0	0	0	0	0	0	0	0	0	0	0	0	0	0	0	0	0	0	0	0	0	0	0	0	0	0	0	0	0	0	0	0	0	0	0	0	0	0	0
0	0	0	0	0	0	0	1134	1138	1138	1138	1138	1142	1138	1138	1138	1138	1138	1138	1138	1138	1138	1142	1142	1142	1142	1142	1146	1146	1142	1142	1142	1142	1142	1138	1138	1146	1146	1146	1116	1123	1123	1123	1123	1120	1120	1120	1120	1120	1120	1120	1120	1116	1120	1123	1123	0	0	0	0	0	0	0	0	1157	1157	1157	1157	1157	1153	1157	1161	1165	1165	1165	0	1165	1165	1165	1165	1165	0	5448	5448	5364	5364	5364	5448	5448	5448	5448	5448	5535	5535	5626	5626	5626	5719	5719	5815	5719	5719	5626	5626	5626	5626	5719	5719	5719	5719	5719	5719	5719	5719	5719	5719	5719	5719	5719	5719	5719	5719	5719	5719	5719	5719	5719	5719	5719	5719	5719	5719	5719	5719	5719	5719	5719	5719	5719	5815	5815	5815	5719	5719	5719	5719	5719	5719	5719	5719	5719	5719	5815	5815	0	0	0	0	0	0	0	0	0	0	0	0	0	0	0	0	0	0	0	0	0	0	0	5626	5626	5626	5719	5719	5719	5815	5815	5815	0	0	0	0	0	0	0	0	0	0	0	0	0	0	0	0	0	0	0	0	0	0	0	0	0	5626	5719	5719	5719	5719	5719	5815	5815	5815	5815	5815	5719	5815	5719	5719	5719	5719	5626	5626	5626	5626	5626	5626	5626	5719	5719	5719	5719	5719	5719	5719	5719	5719	5719	5719	5719	5719	5719	5719	5719	5719	5719	5719	5719	5719	5626	5626	5626	5626	5626	5626	5626	5626	5719	5719	5719	5719	5719	5719	5719	5719	5719	5719	5719	5719	5719	5719	5719	5719	5719	5719	5719	5719	5719	5719	5719	5719	5719	5719	5719	5626	5626	5719	5719	5719	5719	5719	0	0	3440	3440	3440	3406	3406	3373	3373	3406	3406	3406	3406	3406	3373	3406	3373	3373	3373	3373	3373	3373	3373	3373	5719	5626	5626	5626	5626	5626	5535	5535	5535	5535	5626	5626	0	0	0	0	0	0	0	0	0	0	0	0	0	0	0	0	0	0	0	0	0	0	0	5719	5719	5626	5719	5719	5815	5719	5719	5915	6018	6018	6018	0	0	0	0	0	5719	5719	5719	5719	5719	5719	5815	5719	5719	5719	5719	5626	5626	5626	5626	5626	5626	5626	5626	5719	5626	5626	5626	5626	5626	5626	5626	5626	5626	5626	5719	5719	5719	5719	5719	5719	5626	5626	5626	5626	5626	5626	5626	5626	5626	5626	5626	5626	5626	5626	5626	5626	5626	5626	5626	5626	5626	5626	5626	5626	5626	5626	5626	5626	5626	5626	5626	5626	5626	5626	5626	5626	5626	5626	5626	5626	5626	5626	5719	5719	5719	5719	5719	5626	5626	5626	5626	5626	5626	5626	5719	5719	5719	5719	5719	5719	5626	5626	5626	5626	5626	5626	5626	5626	5626	5626	5719	5719	5719	5626	5626	5626	5626	5626	5626	5626	5626	5626	5626	5626	5626	5626	5626	5626	0	0	0	0	0	0	0	0	0	0	0	0	0	0	0	0	0	0	0	0	0	0	0	0	0	0	0	0	0	0	0	0	0	0	0	0	0	0	0	0	0	0	0	0	0	0	0	0	0	0	0	0	0	0	0	5626	5535	5535	5626	5626	5626	5626	5626	5626	5535	5448	5448	5448	5448	5364	5364	5364	5364	5364	5364	5364	5448	5448	5448	5448	5448	5448	5448	5364	5448	5535	5535	5535	5535	5535	5626	5626	5626	5626	5626	5626	0	0	0	0	0	0	0	0	0	0	0	0	0	0	0	0	0	0	0	0	0	0	0	0	0	0	0	0	0	0	0	0	0	0	0	0	0	0	0	0	0	0	0	0	0	0
0	0	0	0	0	0	0	1138	1138	1138	1138	1138	1142	1138	1138	1138	1138	1138	1134	1138	1134	1138	1138	1142	1142	1142	1142	1146	1146	1142	1142	1138	1138	1138	1138	1134	1150	1146	1146	1120	1120	1120	1123	1123	1120	1120	1120	1120	1120	1123	1120	1120	1120	1123	1123	1123	1123	0	0	0	0	0	0	0	1157	1157	1157	1157	1157	1153	1157	1161	1165	1161	1161	0	1165	1165	1165	1161	1161	0	0	5448	5535	5535	0	0	0	5364	5448	5448	5448	5535	5626	5626	5626	5719	5719	5815	5719	5719	5719	5719	5626	5719	5719	5719	5719	5719	5815	5815	5815	5815	5815	5815	5815	5719	5719	5719	5719	5719	5815	5719	5815	5719	5719	5719	5719	5719	5719	5719	5719	5719	5719	5719	5719	5719	5719	5815	5815	5815	5815	5719	5719	5719	5719	5719	5719	5719	5719	5719	5815	5815	5815	0	0	0	0	0	0	0	0	0	0	0	0	0	0	0	0	0	0	0	0	5626	5626	5626	5626	5626	5719	5719	5815	5915	5815	5815	0	0	0	0	0	0	0	0	0	0	0	0	0	0	0	0	0	0	0	0	0	0	0	0	0	0	5719	5719	5719	5815	5719	5815	5815	5815	5815	5815	5815	5815	5815	5719	5719	5719	5719	5719	5719	5719	5719	5626	5719	5719	5719	5719	5719	5719	5719	5719	5719	5719	5719	5719	5719	5815	5719	5815	5719	5719	5719	5719	5719	5719	5719	5626	5626	5626	5719	5719	5719	5719	5719	5719	5719	5719	5719	5719	5719	5719	5719	5719	5719	5719	5719	5719	5719	5719	5719	5719	5719	5719	5719	5719	5719	5719	5719	5719	5719	5719	5719	5719	5719	5719	5719	5719	0	3440	3440	3440	3440	3406	3406	3373	3373	3406	3406	3406	3440	3440	3373	3406	3406	3373	3373	3373	3373	3373	3373	3373	5719	5719	5719	5626	5626	5626	5626	5626	5626	5535	0	0	0	0	0	0	0	0	0	0	0	0	0	0	0	0	0	0	0	0	0	0	0	0	0	5719	5719	5719	5719	5719	5815	5719	5815	6018	6018	6018	6018	0	0	0	0	0	5719	5719	5719	5719	5719	5719	5815	5719	5719	5626	5719	5626	5626	5626	5626	5626	5626	5626	5626	5719	5719	5626	5626	5626	5626	5626	5626	5626	5626	5719	5719	5719	5719	5719	5719	5719	5719	5719	5719	5626	5626	5626	5626	5626	5719	5626	5719	5719	5626	5626	5626	5626	5626	5626	5626	5626	5626	5626	5626	5626	5626	5626	5719	5719	5626	5719	5719	5626	5626	5626	5626	5626	5535	5626	5626	5626	5626	5626	5719	5719	5719	5719	5719	5719	5719	5719	5626	5626	5626	5719	5719	5719	5719	5719	5719	5719	5626	5719	5626	5626	5719	5626	5626	5719	5719	5719	5719	5719	5719	5719	5719	5719	5719	5719	5719	5626	5626	5626	5719	5719	5626	5626	5626	5626	0	0	0	0	0	0	0	0	0	0	0	0	0	0	0	0	0	0	0	0	0	0	0	0	0	0	0	0	0	0	0	0	0	0	5719	5719	5719	0	0	0	0	0	0	0	5626	5626	0	5719	5815	5815	5719	5719	5719	5626	5626	5626	5626	5626	5626	5626	5626	5626	5626	5535	5535	5448	5535	5535	5448	5448	5448	5448	5448	5448	5448	5448	5448	5448	5448	5535	5535	5535	5535	5535	5535	5535	5535	5535	5535	5535	5535	5535	5626	5535	5535	5626	0	0	0	0	0	0	0	0	0	0	0	0	0	0	0	0	0	0	0	0	0	0	0	0	0	0	0	0	0	0	0	0	0	0	0	0	0	0	0	0	0	0	0	0	0	0
0	0	0	0	0	1134	1138	1138	1142	1138	1142	1138	1138	1138	1138	1138	1138	1138	1134	1134	1134	1138	1138	1138	1142	1142	1142	1142	1142	1142	1138	1138	1134	1138	1134	1131	1131	1131	1131	1120	1120	1123	1123	1123	1123	1120	1120	1120	1123	1123	1123	1123	1123	1127	1127	1127	1120	1109	1109	0	0	0	0	0	1153	1157	1157	1161	1161	1157	1161	1165	1165	1161	1161	1161	1161	1165	1165	1161	1161	1161	1161	5448	5535	5535	0	0	0	5364	5448	5448	5448	5448	5626	5626	5626	5719	5719	5815	5719	5719	5719	5719	5626	5626	5719	5719	5719	5719	5815	5815	5815	5815	5815	5815	5815	5815	5815	5815	5815	5815	5815	5815	5815	5719	5719	5815	5815	5719	5719	5719	5719	5719	5719	5719	5719	5719	5719	5815	5815	5815	5815	5719	5815	5815	5815	5719	5719	5815	5815	5815	5815	5815	5815	5815	5815	5815	0	0	0	0	0	0	0	0	0	0	0	0	0	0	0	0	0	5535	5535	5535	5535	5626	5719	5719	5815	5915	5915	5815	5815	5815	0	0	0	0	0	0	0	0	0	0	0	0	0	0	0	0	0	0	0	0	0	0	0	0	5719	5815	5815	5815	5815	5815	5815	5815	5815	5815	5815	5815	5815	5719	5719	5719	5719	5719	5719	5719	5719	5719	5719	5719	5719	5719	5719	5719	5719	5719	5719	5719	5719	5815	5815	5815	5815	5815	5719	5815	5719	5719	5719	5719	5719	5719	5719	5719	5719	5719	5719	5719	5719	5815	5815	5815	5719	5719	5719	5719	5719	5719	5719	5719	5719	5719	5719	5719	5815	5815	5719	5719	5815	5719	5719	5719	5719	5719	5719	5719	5719	5719	5719	5719	5719	0	0	3475	3475	3440	3440	3440	3406	3406	3406	3406	3406	3406	3440	3406	3373	3373	3373	3373	3373	3373	3373	3373	3373	3373	5719	5719	5719	5626	5719	5719	5626	5719	5719	0	0	0	0	0	0	0	0	0	0	0	0	0	0	0	0	0	0	0	0	0	0	0	0	0	0	5815	5719	5719	5719	5719	5815	5719	5815	5815	6018	0	0	0	0	0	0	5815	5815	5719	5719	5719	5719	5719	5815	5719	5719	5626	5626	5626	5626	5626	5626	5626	5626	5719	5719	5719	5719	5719	5719	5626	5626	5719	5626	5626	5626	5719	5719	5719	5719	5719	5815	5719	5719	5719	5719	5719	5719	5626	5626	5719	5719	5626	5719	5719	5626	5626	5626	5626	5626	5626	5626	5626	5626	5626	5626	5626	5626	5626	5626	5626	5626	5719	5719	5719	5626	5626	5626	5626	5626	5626	5626	5626	5719	5719	5719	5719	5719	5719	5719	5719	5719	5719	5719	5626	5719	5719	5719	5719	5719	5719	5719	5719	5719	5719	5719	5719	5719	5719	5719	5719	5719	5719	5719	5719	5815	5719	5719	5815	5815	5815	5719	5719	5719	5719	5719	5719	5626	5626	5626	5626	0	0	0	0	0	0	0	0	0	0	0	0	0	0	0	0	0	0	0	0	0	0	5719	5719	5719	5815	5815	0	0	5719	5815	5815	0	0	5815	5815	5815	5815	0	5719	5719	5719	5719	5719	5626	5719	5719	5719	5719	5815	5719	5719	5719	5626	5626	5626	5626	5626	5626	5626	5626	5626	5626	5626	5535	5535	5535	5535	5535	5535	5535	5535	5535	5535	5535	5535	5535	5535	5535	5535	5626	5626	5626	5535	5535	5535	5535	5535	5535	5448	5535	5535	5535	5448	5448	0	0	0	0	0	0	0	0	0	0	0	0	0	0	0	0	0	0	0	0	0	0	0	0	0	0	0	0	0	0	0	0	0	0	0	0	0	0	0	0	0	0	0	0	0	0	0
0	0	0	0	0	1134	1142	1142	1142	1142	1142	1142	1138	1138	1138	1138	1138	1138	1134	1134	1134	1134	1138	1138	1138	1142	1142	1142	1142	1138	1138	1138	1134	1134	1134	1131	1131	1131	1131	0	1120	1120	1120	1120	1120	1120	1120	1120	1120	1123	1123	1123	1123	1127	1131	1131	1123	1113	1113	0	0	0	0	0	1153	1157	1157	1161	1161	1157	1161	1161	1161	1157	1157	1161	1161	1165	1165	1165	1161	1161	1169	1169	0	0	0	0	0	0	0	5448	5719	5719	5719	5719	5719	5719	5719	5815	5719	5719	5719	5719	5719	5719	5719	5719	5719	5719	5815	5815	5915	5815	5815	5815	5815	5815	5815	5815	5815	5815	5815	5815	5815	5719	5719	5815	5815	5815	5719	5719	5719	5719	5719	5719	5719	5719	5815	5815	5815	5815	5815	0	5815	5815	5815	5815	5815	5815	5815	5815	5815	5815	5815	5815	5719	5719	5719	0	0	0	0	0	0	0	0	0	0	0	0	0	0	0	0	5448	5448	5535	5535	5626	5626	5719	5915	6018	5915	6018	6018	5815	0	0	0	0	0	0	0	0	0	0	0	0	0	0	0	0	0	0	0	0	0	0	0	0	0	5815	5815	5815	5815	5815	5815	5815	5815	5815	5815	5815	5815	5815	5815	5815	5719	5719	5815	5719	5719	5719	5719	5719	5719	5719	5719	5719	5719	5815	5815	5815	5815	5815	5815	5815	5815	5815	5815	5815	5815	5815	5719	5815	5719	5719	5719	5719	5719	5719	5719	5719	5815	5815	5815	5815	5815	5815	5815	5719	5719	5719	5815	5815	5815	5719	5815	5815	5815	5815	5815	5815	5815	5719	5719	5719	5719	5719	5719	5719	5719	5719	5719	5719	5719	0	0	3475	3475	3440	3440	3440	3440	3406	3406	3406	3406	3406	3406	3440	3406	3373	3373	3373	3373	3373	3373	3373	3373	3373	5719	5719	5719	5626	5719	5719	5626	5719	5719	0	0	0	0	0	0	0	0	0	0	0	0	0	0	0	0	0	0	0	0	0	0	0	0	0	0	5719	5719	5719	5719	5719	5719	5719	5815	5815	0	0	0	0	0	0	0	5815	5815	5815	5719	5719	5719	5719	5719	5719	5719	5626	5626	5626	5626	5626	5719	5719	5719	5719	5719	5815	5719	5719	5719	5719	5719	5719	5626	5719	5719	5719	5719	5719	5719	5815	5815	5719	5719	5719	5719	5719	5719	5719	5719	5719	5719	5719	5719	5719	5719	5719	5719	5719	5626	5626	5626	5719	5626	5626	5626	5626	5626	5719	5719	5719	5719	5719	5719	5719	5719	5626	5719	5719	5626	5626	5719	5626	5719	5719	5719	5719	5719	5719	5719	5719	5719	5719	5719	5719	5719	5719	5719	5719	5719	5719	5719	5719	5719	5815	5815	5815	5815	5719	5719	5719	5719	5719	5719	5719	5815	5719	5719	5815	5815	5815	5815	5719	5719	5719	5719	5719	5626	5626	5626	5626	5626	0	0	0	0	0	0	0	0	0	0	0	0	0	0	0	5815	5815	0	5719	5719	5815	5815	5815	5815	5815	5815	5815	5815	5815	5815	5815	0	5815	5815	5719	5815	5815	5719	5719	5719	5719	5719	5719	5626	5719	5719	5719	5719	5815	5815	5719	5719	5719	5626	5719	5626	5626	5719	5626	5626	5626	5626	5626	5535	5626	5626	5626	5626	5626	5626	5626	5626	5535	5535	5535	5535	5626	5626	5626	5626	5626	5626	5626	5626	5626	5535	5535	5535	5535	5535	5535	5535	5448	5448	0	0	0	0	0	0	0	0	0	0	0	0	0	0	0	0	0	0	0	0	0	0	0	0	0	0	0	0	0	0	0	0	0	0	0	0	0	0	0	0	0	0	0	0	0	0	0
0	0	0	0	0	1134	1134	1138	1142	1138	1142	1142	1142	1138	1138	1138	1138	1138	1134	1134	1134	1134	1138	1138	1138	1142	1138	1142	1142	1138	1138	1138	1134	1134	1134	1131	1131	1131	1131	0	1120	1120	1120	1131	1120	1120	1120	1123	1123	1123	1123	1123	1123	1131	1131	1131	1123	1120	1120	1120	0	0	0	0	1153	1157	1157	1161	1165	1161	1165	1165	1161	1161	1157	1157	1161	1161	1161	1161	1161	1169	1165	1165	0	0	0	0	0	0	0	0	5719	5719	5719	5719	5719	5719	5719	5719	5719	5719	5719	5719	5719	5719	5719	5719	5815	5815	5815	5815	5815	5815	5815	5815	5815	5815	5815	5815	5815	5815	5815	5815	5815	5815	5815	5815	5815	5815	5719	5719	5719	5719	5719	5815	5815	5815	5815	5815	5815	5815	5815	5815	0	5915	5915	5815	5815	5815	5815	5815	5815	5815	5815	5815	5815	5815	5815	5815	0	0	0	0	0	0	0	0	0	0	0	0	0	0	0	5535	5535	5535	5535	5535	5719	5815	6018	6018	6018	6018	6018	6018	0	0	0	0	0	0	0	0	0	0	0	0	0	0	0	0	0	0	0	0	0	0	0	0	0	0	5815	5815	5815	5815	5815	5815	5815	5815	5815	5815	5815	5815	5815	5815	5719	5719	5719	5719	5719	5719	5719	5815	5815	5815	5815	5815	5815	5815	5815	5815	5815	5815	5815	5815	5815	5815	5815	5815	5815	5815	5815	5815	5719	5815	5719	5719	5719	5719	5719	5719	5719	5815	5815	5815	5815	5815	5815	5719	5815	5815	5815	5815	5815	5815	5815	5815	5815	5815	5815	5815	5815	5719	5719	5719	5719	5719	5719	5719	5719	5815	5815	5815	5719	0	0	3475	3475	3440	3440	3440	3440	3406	3406	3406	3406	3406	3406	3406	3373	3373	3373	3373	3373	3373	3373	3341	3341	3341	3341	5719	5719	5626	5719	5719	5719	5719	5719	5719	0	0	0	0	0	0	0	0	0	0	0	0	0	0	0	0	0	0	0	0	0	0	0	0	0	5719	5719	5719	5815	5815	5815	5815	0	0	0	0	0	0	0	0	0	5719	5815	5719	5719	5719	5815	5815	5719	5719	5719	5719	5719	5626	5626	5719	5719	5719	5719	5719	5719	5815	5815	5719	5719	5719	5719	5719	5719	5719	5719	5719	5719	5719	5719	5719	5815	5719	5719	5815	5719	5719	5719	5719	5719	5719	5719	5719	5719	5719	5719	5719	5719	5719	5719	5719	5719	5719	5719	5626	5626	5719	5719	5719	5719	5719	5719	5719	5719	5719	5719	5719	5719	5719	5719	5719	5719	5719	5719	5719	5719	5719	5815	5815	5719	5719	5719	5719	5719	5719	5719	5719	5719	5719	5719	5719	5719	5719	5719	5815	5815	5815	5815	5719	5719	5719	5719	5719	5719	5719	5815	5815	5815	5815	5815	5815	5815	5719	5719	5719	5815	5719	5719	5626	5626	5719	5719	0	0	0	0	0	0	0	0	0	0	6018	5915	5915	5915	5915	5815	5815	5915	5815	5719	5815	5815	5815	5815	5915	5815	5815	5815	5815	5815	5815	5815	5815	5915	5815	5815	5815	5815	5815	5719	5719	5719	5719	5719	5719	5719	5719	5815	5815	5719	5719	5719	5719	5626	5626	5626	5626	5719	5626	5626	5626	5626	5626	5626	5626	5626	5626	5626	5626	5626	5626	5535	5535	5626	5626	5535	5626	5626	5626	5626	5626	5626	5626	5626	5626	5535	5535	5448	5535	5535	5535	5535	5448	5448	0	0	0	0	0	0	0	0	0	0	0	0	0	0	0	0	0	0	0	0	0	0	0	0	0	0	0	0	0	0	0	0	0	0	0	0	0	0	0	0	0	0	0	0	0	0	0
0	0	0	0	0	1134	1138	1138	1138	1138	1142	1138	1138	1138	1138	1138	1138	1138	1138	1138	1138	1138	1138	1138	1138	1138	1138	1142	1138	1138	1138	1138	1134	1134	1134	1134	1134	1131	1131	0	0	0	0	1127	1127	1123	1123	1127	1127	1127	1127	1127	1131	1134	1134	1134	1131	1131	1134	1134	1134	1138	1138	1142	1150	1153	1161	1165	1165	1165	1165	1165	1165	1161	1161	1161	1161	1161	1161	1161	1161	1165	1165	1165	1169	1169	0	0	0	0	0	0	0	0	0	0	5719	5719	5719	5719	5719	5719	5719	5719	5719	5719	5719	5719	5815	5815	5815	5815	5815	5815	5815	5815	5915	5915	5915	5915	5915	5915	5915	5915	5915	5815	5815	5815	5815	5815	5815	5719	5719	5815	5815	5815	5815	5815	5815	5815	5915	5815	5815	5815	5815	5815	5915	5815	5915	5915	5915	5915	5815	5815	5815	5815	5815	5815	5815	5815	0	0	0	0	0	0	0	0	0	0	0	0	0	0	0	5535	5535	5535	5535	5535	5719	5815	6018	6124	6018	5815	5915	5915	0	0	0	0	0	0	0	0	0	0	0	0	5719	5719	5719	0	0	0	0	0	0	0	0	0	0	0	0	5915	5815	5915	5915	5815	5815	5915	5815	5815	5815	5815	5815	5815	5719	5815	5815	5719	5719	5719	5719	5719	5815	5719	5815	5815	5815	5815	5815	5815	5815	5815	5815	5815	5815	5815	5815	5815	5815	5815	5815	5815	5815	5815	5815	5719	5815	5815	5815	5815	5815	5815	5815	5815	5815	5815	5815	5815	5815	5815	5815	5815	5815	5815	5815	5815	5815	5815	5815	5815	5815	5815	5815	5815	5915	5815	5815	5815	5815	5815	5815	5815	0	0	0	3475	3475	3440	3440	3440	3440	3406	3406	3406	3406	3406	3406	3406	3373	3373	3373	3373	3341	3341	3341	3341	3341	3440	3440	3440	5719	5719	5719	5719	5719	5719	5719	5719	0	0	0	0	0	0	0	0	0	0	0	0	0	0	0	0	0	0	0	0	0	0	0	0	0	5815	5815	5815	5915	5915	5815	5815	0	0	0	0	0	0	0	0	0	5719	5815	5719	5719	5815	5815	5815	5815	5719	5719	5719	5719	5626	5626	5719	5719	5719	5719	5719	5815	5815	5815	5815	5815	5719	5719	5719	5719	5719	5719	5719	5719	5719	5719	5719	5719	5719	5815	5815	5815	5815	5719	5815	5719	5719	5719	5719	5719	5719	5719	5719	5719	5719	5719	5719	5719	5626	5626	5626	5719	5719	5719	5719	5719	5719	5719	5815	5815	5815	5815	5719	5719	5719	5719	5719	5719	5719	5719	5719	5719	5815	5815	5815	5815	5719	5815	5815	5719	5719	5815	5815	5815	5815	5719	5815	5815	5719	5719	5815	5815	5815	5719	5719	5815	5815	5815	5815	5719	5815	5815	5815	5815	5815	5815	5815	5815	5815	5719	5815	5815	5719	5719	5719	5626	5719	5815	5815	0	0	0	6018	5915	5915	5915	6124	6018	6018	5915	6018	5915	5915	5815	5815	5915	5815	5815	5815	5815	5915	5815	5915	5815	5719	5815	5719	5815	5815	5815	5815	5815	5815	5815	5815	5815	5719	5719	5719	5719	5719	5719	5719	5815	5815	5815	5815	5815	5719	5719	5719	5626	5719	5719	5719	5719	5719	5719	5626	5626	5626	5626	5626	5626	5626	5626	5626	5626	5626	5626	5626	5626	5626	5626	5626	5719	5719	5719	5719	5626	5626	5626	5626	5626	5535	5535	5535	5626	5535	5535	5448	5448	0	0	0	0	0	0	0	0	0	0	0	0	0	0	0	0	0	0	0	0	0	0	0	0	0	0	0	0	0	0	0	0	0	0	0	0	0	0	0	0	0	0	0	0	0	0	0
0	0	0	0	0	1134	1134	1134	1138	1138	1138	1138	1138	1138	1138	1138	1138	1138	1138	1138	1138	1138	1138	1138	1138	1138	1138	1138	1138	1138	1138	1138	1134	1134	1134	1134	1134	1131	1131	0	0	0	0	1138	1127	1127	1127	1138	1131	1131	1131	1134	1134	1138	1138	1134	1134	1134	1134	1138	1134	1138	1138	1142	1150	1153	1157	1161	1165	1165	1165	1169	1165	1165	1161	1161	1161	1161	1165	1165	1165	1165	1169	1169	1169	1169	0	0	0	0	0	0	0	0	0	0	0	0	5719	5719	5719	5719	5719	5719	5719	5719	5815	5815	5815	5815	5815	5815	5815	5815	5815	5815	5815	5915	6018	6018	5915	5915	5915	5915	5915	5915	5815	5815	5815	5815	5815	5815	5815	5815	5815	5815	5815	5815	5815	5815	5815	5815	5815	5815	5815	5915	5915	5915	5915	5915	5915	5915	5915	5815	5915	5815	5815	5815	5815	5815	5815	0	0	0	0	0	0	0	0	0	0	0	0	0	0	5535	5535	0	0	0	0	0	6124	6124	6018	6018	6018	6018	6018	6018	0	0	0	0	0	0	0	0	0	5815	5719	5719	5719	0	0	0	0	0	0	0	0	0	0	0	0	5915	5915	5915	5915	5915	5915	5915	5815	5815	5815	5815	5815	5815	5815	5815	5815	5815	5719	5719	5719	5815	5815	5815	5815	5915	5915	5815	5815	5815	5815	5815	5815	5815	5815	5815	5815	5815	5815	5815	5815	5815	5815	5815	5815	5815	5815	5815	5815	5815	5815	5815	5815	5815	5815	5815	5815	5815	5815	5815	5815	5815	5815	5815	5815	5815	5815	5815	5815	5815	5815	5815	5815	5815	5915	5915	5815	5815	5815	5815	5815	0	0	0	0	3475	3440	3440	3440	3440	3406	3406	3406	3406	3406	3406	3406	3406	3373	3373	3373	3373	3373	3373	3341	3341	3440	3440	3440	3440	5719	5719	5719	5719	5719	5719	5719	0	0	0	0	0	0	0	0	0	0	0	0	0	0	0	0	0	0	0	0	0	0	5815	5815	5815	5915	6018	5915	5815	5815	5815	5815	5815	0	0	0	0	0	0	0	0	5815	5815	5815	5815	5815	5815	5815	5915	5815	5719	5815	5719	5719	5719	5626	5719	5719	5815	5719	5815	5815	5915	5815	5815	5815	5815	5815	5815	5719	5719	5719	5719	5719	5719	5719	5719	5719	5815	5815	5915	5815	5815	5815	5815	5815	5815	5719	5719	5719	5719	5719	5719	5719	5719	5626	5626	5719	5626	5626	5626	5719	5719	5719	5719	5815	5815	5815	5815	5815	5815	5815	5815	5719	5719	5719	5719	5719	5719	5719	5719	5719	5815	5815	5815	5719	5719	5719	5719	5719	5815	5815	5815	5815	5815	5815	5815	5815	5815	5815	5915	5915	5915	5915	5915	5915	5815	5915	5815	5815	5815	5815	5815	5815	5815	5815	5815	5815	5815	5719	5815	5815	5719	5719	5626	5626	5719	5815	5815	5915	5915	6018	6018	5915	5915	5915	5915	6018	6018	5915	6018	6018	5915	5915	5915	5915	5915	5815	5915	5815	5915	5815	5915	5815	5815	5815	5815	5815	5815	5815	5815	5815	5815	5815	5815	5815	5815	5719	5815	5815	5815	5815	5815	5815	5915	5915	5815	5815	5719	5719	5719	5719	5719	5719	5719	5719	5719	5719	5719	5626	5626	5626	5626	5626	5626	5626	5626	5626	5626	5626	5626	5626	5719	5626	5719	5719	5719	5719	5719	5719	5719	5626	5626	5626	5626	5626	5626	5626	5535	5535	0	0	0	0	0	0	0	0	0	0	0	0	0	0	0	0	0	0	0	0	0	0	0	0	0	0	0	0	0	0	0	0	0	0	0	0	0	0	0	0	0	0	0	0	0	0	0	0	0
0	0	0	0	0	1134	1134	1134	1138	1138	1138	1138	1138	1138	1138	1138	1138	1138	1138	1138	1138	1138	1134	1138	1134	1138	1138	1138	1138	1138	1138	1138	1134	1134	1134	1134	1134	1131	1131	0	0	0	0	1134	1134	1131	1131	1131	1131	1131	1134	1134	1138	1138	1138	1134	1134	1134	1134	1138	1134	1138	1138	1142	1146	1153	1153	1161	1165	1165	1165	1165	1165	1165	1161	1161	1161	1161	1165	1165	1165	1169	1169	1169	1173	1173	0	0	0	0	0	0	0	0	0	0	0	0	5626	5626	5719	5719	5719	5719	5719	5719	5815	5815	5815	5815	5815	5815	5815	5815	5815	5815	5815	5915	6018	6018	5915	6018	6018	6018	5915	5915	5915	5915	5915	5915	5915	5815	5915	5915	5915	5915	5915	5815	5815	5815	5915	5815	5815	5815	5815	5915	5915	5915	5915	5915	5915	5915	5915	5815	5815	5815	5815	5815	5815	5815	5815	0	0	0	0	0	0	0	0	0	0	0	0	0	0	0	0	0	0	0	0	0	6124	6124	6018	6018	6018	6018	6124	6124	0	0	0	0	0	0	0	0	0	5815	5719	5719	5719	0	0	0	0	0	0	0	0	0	0	0	0	6018	5915	6018	6018	5915	5915	5915	5915	5815	5815	5815	5815	5815	5815	5815	5815	5815	5815	5719	5719	5815	5815	5815	5915	5915	5915	5815	5815	5815	5815	5815	5815	5815	5815	5815	5815	5915	5915	5815	5815	5815	5815	5815	5815	5815	5815	5815	5815	5815	5815	5815	5815	5815	5815	5815	5815	5815	5815	5815	5815	5815	5815	5915	5915	5915	5815	5915	5915	5815	5815	5815	5815	5815	5915	5915	5915	5915	5915	0	0	0	0	0	0	3440	3440	3440	3440	3440	3440	3406	3406	3406	3406	3406	3406	3406	3373	3373	3373	3373	3373	3373	3373	3373	3373	3440	3440	3440	0	0	5719	5719	5719	0	0	0	0	6124	6124	0	0	0	0	0	0	0	0	0	0	0	0	0	0	0	5815	5915	5815	5815	5815	5815	5915	6018	5915	5915	5915	5915	5915	5915	0	0	0	0	0	6018	5915	5915	5915	5815	5815	5815	5815	5815	5815	5815	5815	5815	5815	5815	5719	5719	5719	5719	5815	5815	5719	5815	5915	5915	5915	5915	5915	5815	5815	5719	5719	5719	5719	5719	5719	5719	5815	5815	5815	5815	5915	5915	5915	5815	5815	5815	5815	5815	5815	5719	5815	5719	5719	5719	5719	5719	5626	5626	5626	5626	5626	5626	5719	5719	5719	5815	5815	5815	5915	5915	5915	5815	5815	5915	5815	5815	5815	5719	5719	5719	5719	5719	5719	5815	5815	5719	5719	5719	5719	5815	5815	5815	5815	5815	5815	5815	5815	5815	5815	5815	5915	5915	6018	6018	5915	5915	5915	5915	5815	5815	5815	5815	5815	5815	5815	5815	5815	5815	5815	5815	5815	5915	5915	5915	5719	5719	5719	5719	5719	6018	5915	6018	6018	6018	5915	5915	6018	6018	6018	6018	6018	6018	6018	5915	5915	5915	5915	5915	5815	5815	5815	5915	5815	5915	5915	5815	5915	5915	5915	5915	5915	5915	5915	5915	5915	5915	5815	5915	5815	5915	5915	5915	5915	5915	5815	5915	5915	5815	5815	5719	5815	5719	5719	5719	5719	5719	5719	5719	5719	5719	5719	5719	5719	5719	5719	5719	5719	5719	5626	5626	5719	5626	5626	5719	5719	5719	5719	5719	5719	5719	5719	5719	5719	5626	5626	5626	5626	5626	5626	5626	5626	5626	0	0	0	0	0	0	0	0	0	0	0	0	0	0	0	0	0	0	0	0	0	0	0	0	0	0	0	0	0	0	0	0	0	0	0	0	0	0	0	0	0	0	0	0	0	0	0	0
0	0	0	0	0	0	1134	1134	1138	1138	1138	1138	1138	1138	1138	1138	1138	1138	1138	1138	1138	1138	1134	1138	1138	1142	1138	1138	1142	1142	1138	1138	1134	1134	1134	1134	1134	1134	1138	1138	0	0	0	1134	1138	1131	1131	1131	1131	1131	1131	1134	1138	1138	1138	1134	1134	1131	1134	1134	1134	1134	1134	1138	1142	1150	1153	1157	1165	1165	1165	1165	1165	1165	1161	1161	1161	1161	1165	1165	1165	1165	1169	1169	1173	1173	1173	0	0	0	0	0	0	0	0	0	0	0	5626	5626	5719	5719	5719	5719	5719	5815	5815	5815	5815	5915	5915	5815	5815	5815	5815	5815	5815	5815	5915	5915	5915	5915	6018	6018	6018	6018	5915	5915	6018	5915	5915	5915	5915	5915	5915	5915	5915	5915	5915	5915	5915	5915	5915	5815	5815	5915	5915	5915	6018	5915	6018	6018	5915	5915	5915	5915	5915	5915	5915	5915	5915	0	0	0	0	0	0	0	0	0	0	0	0	0	0	0	0	0	0	0	0	0	6124	6124	6018	6018	6018	6018	6124	6124	0	0	0	0	0	0	0	0	0	5815	5815	5815	0	0	0	0	0	0	0	0	0	0	0	0	0	6124	6124	6124	6124	6018	6018	6018	5915	5915	5915	5915	5915	5915	5815	5815	5915	5815	5815	5815	5815	5815	5915	5815	5915	5915	5915	5915	5915	5815	5815	5815	5815	5915	5915	5915	5915	5915	5915	5915	5815	5815	5815	5815	5815	5815	5815	5815	5815	5815	5815	5815	5815	5815	5815	5815	5815	5815	5915	5815	5815	5815	5815	5815	5815	5915	5815	5815	5815	5815	5815	5815	5815	5815	6018	6018	5915	5915	5915	0	0	0	0	0	0	3475	3440	3440	3440	3440	3440	3440	3406	3406	3406	3406	3406	3406	3373	3373	3373	3373	3373	3373	3373	3373	3373	3440	3440	0	0	0	0	0	0	0	0	0	6124	6018	6018	6018	6018	0	5915	5915	0	0	0	0	0	0	0	5915	5915	5915	5815	5915	5815	5815	5815	5815	5915	6018	5915	5915	5915	5915	5815	5915	5815	5815	6018	6018	6018	6018	5915	5915	5915	5815	5815	5815	5815	5815	5815	5815	5815	5719	5815	5815	5719	5719	5719	5815	5815	5915	5815	5815	5815	5915	5815	5815	5815	5815	5815	5719	5719	5719	5719	5719	5719	5815	5815	5815	5915	5915	5915	6018	5915	5915	5915	5915	5915	5915	5815	5815	5815	5719	5719	5719	5719	5719	5719	5719	5719	5719	5719	5719	5719	5815	5815	5815	5815	5915	5915	5915	5915	5815	5815	5915	5815	5815	5719	5719	5815	5815	5815	5815	5815	5815	5815	5815	5815	5815	5815	5815	5815	5815	5815	5815	5815	5815	5815	5815	5915	5815	5915	5915	6018	6018	6018	6018	5915	5915	5915	5815	5815	5815	5815	5915	5815	5815	5815	5915	5815	5815	5915	5915	5915	5915	5815	5815	5815	5815	5719	6018	6018	6018	6018	6018	6018	6018	6018	6018	6018	6018	6018	6018	6018	6018	6018	6018	6018	6018	5915	6018	5915	5915	5915	6018	5915	5815	5915	5815	5815	5915	5915	5915	5915	5915	5915	5915	5915	5915	5915	5915	6018	5915	5915	5915	5915	5915	5915	5915	5815	5815	5815	5815	5719	5719	5815	5815	5815	5815	5719	5815	5815	5815	5719	5719	5719	5719	5719	5626	5626	5626	5626	5719	5626	5719	5719	5719	5719	5719	5719	5719	5719	5719	5719	5719	5626	5626	5626	5626	5626	5626	5626	5626	5626	0	0	0	0	0	0	0	0	0	0	0	0	0	0	0	0	0	0	0	0	0	0	0	0	0	0	0	0	0	0	0	0	0	0	0	0	0	0	0	0	0	0	0	0	0	0	0
0	0	0	0	0	0	1134	1134	1138	1138	1138	1138	1138	1138	1134	1138	1138	1138	1138	1138	1138	1138	1138	1138	1134	1138	1138	1138	1138	1138	1138	1138	1134	1138	1138	1138	1138	1138	1138	1138	1142	1134	1138	1138	1138	1131	1131	1131	1134	1134	1134	1134	1138	1138	1138	1134	1134	1131	1134	1134	1134	1134	1134	1138	1142	1146	1150	1153	1161	1165	1165	1165	1165	1165	1165	1165	1165	1161	1165	1165	1165	1169	1169	1173	1173	1177	1181	1181	1181	1181	1181	0	0	0	0	0	0	0	0	5626	5719	5719	5719	5719	5719	5815	5815	5815	5815	5915	5915	5815	5815	5719	5815	5719	5815	5815	6018	6018	6018	6018	6018	6018	6018	6018	6018	5915	6018	6018	6018	5915	5915	6018	6018	6018	6018	6018	6018	6018	6018	5915	5915	5815	5815	5915	5915	6018	6018	6018	6018	6018	6018	5915	5915	6018	6018	5915	6018	5915	5915	0	0	0	0	0	0	0	0	0	0	0	0	0	0	0	0	0	0	0	0	0	6124	6124	6018	6018	6018	6018	6124	6235	6235	0	0	0	0	0	0	0	0	5815	5815	5815	0	0	0	0	0	0	0	0	0	0	0	0	0	6124	6124	6124	6124	6018	6018	6018	6018	5915	5915	5915	6018	6018	6018	6018	5915	5815	5815	5815	5915	5815	5915	5915	5915	5915	5915	5815	5815	5815	5815	5815	5815	5915	5915	5915	5915	5915	5915	6018	5915	5915	5815	5815	5815	5815	5815	5815	5815	5815	5815	5815	5915	5915	5915	5915	5915	5915	5915	5915	5915	5915	5915	5915	5915	5915	5815	5915	5915	5815	5915	5915	5915	5915	5915	6018	6018	6018	6018	0	0	0	0	0	3510	3475	3440	3440	3440	3440	3406	3406	3406	3406	3406	3406	3406	3406	3373	3373	3373	3373	3373	3373	3373	3373	3406	3406	3406	3406	0	0	0	0	0	0	0	6124	6124	6018	6018	6018	5815	5915	5815	5719	5719	5719	5719	5719	5719	5815	5915	5915	5915	6018	5915	5915	5915	5915	5915	5915	5915	5915	5815	5915	5915	5815	5815	5815	5815	5915	5915	5915	5915	5915	5915	5915	5915	5815	5815	5815	5815	5815	5815	5815	5815	5719	5815	5815	5815	5815	5815	5915	5915	5915	5815	5915	5915	5815	5815	5815	5815	5815	5815	5815	5719	5719	5719	5719	5719	5815	5815	5815	5915	5915	6018	6018	5915	5915	5915	5915	5915	5915	5815	5815	5815	5815	5815	5815	5815	5815	5719	5719	5719	5719	5719	5815	5815	5915	5915	5915	5915	5915	5915	5915	5915	5915	5815	5915	5915	5915	6018	5815	5815	5815	5815	5815	5815	5915	5915	5815	5815	5815	5815	5815	5815	5915	5915	5815	5815	5815	5815	5815	5915	5915	5915	6018	6018	6018	6018	6018	5915	5915	5815	5815	5719	5815	5815	5815	5815	5815	5815	5815	5815	5815	5815	5815	5815	5815	5719	5719	5815	5815	0	6468	6349	6124	6124	6124	6018	6018	6018	5915	5915	6018	6018	6018	6018	6018	6018	6018	6124	6124	6018	6018	6018	6018	5915	6018	5915	5815	5915	5815	5815	5815	5915	5915	5915	5915	6018	5915	5915	5915	5915	6018	6018	6018	6018	6018	6018	6018	6018	6018	5815	5815	5815	5815	5719	5719	5815	5815	5815	5815	5815	5815	5915	5915	5815	5815	5815	5719	5719	5626	5626	5626	5719	5719	5626	5719	5719	5719	5719	5719	5719	5719	5719	5626	5719	5719	5719	5719	5719	5719	5719	5626	5626	5626	5626	5626	0	0	0	0	0	0	0	0	0	0	0	0	0	0	0	0	0	0	0	0	0	0	0	0	0	0	0	0	0	0	0	0	0	0	0	0	0	0	0	0	0	0	0	0	0	0
0	0	0	0	0	0	0	1150	1138	1138	1138	1134	1134	1134	1134	1138	1138	1138	1138	1138	1138	1138	1138	1138	1138	1138	1138	1138	1138	1142	1138	1138	1134	1138	1138	1138	1134	1134	1138	1138	1138	1131	1131	1131	1131	1131	1134	1134	1138	1138	1134	1138	1138	1138	1134	1134	1134	1134	1134	1134	1134	1134	1134	1138	1142	1146	1150	1153	1161	1165	1165	1165	1165	1165	1165	1165	1165	1165	1165	1165	1169	1169	1169	1173	1173	1177	1181	1185	1181	1181	1181	1181	0	0	0	0	0	0	0	5626	5626	5719	5719	5815	5815	5815	5815	5815	5815	5915	5915	5815	5815	5719	5815	5719	5719	5719	6124	6124	6018	6018	6018	6018	6018	6018	6018	6018	6124	6018	6124	6018	6018	6018	6018	6018	6018	6018	6018	6018	5915	5915	5915	5815	5915	5915	6018	6018	6018	6018	6124	6018	6018	6018	6018	6018	6018	6018	6018	6018	6018	6018	0	0	0	0	0	0	0	0	0	0	5815	5719	5719	0	0	0	0	0	0	0	6124	6124	6124	6018	6018	6018	6124	6235	6235	6235	6235	0	0	0	6235	6235	0	0	0	0	0	5915	5915	6018	6018	0	0	0	0	0	0	0	6124	6124	6124	6124	6124	6018	6018	6018	6018	5915	5915	5915	6018	6018	6018	6018	6018	5915	5815	5815	5915	5815	5915	5915	5915	5915	5915	5815	5815	5815	5815	5815	5815	5815	5915	5915	5915	5915	5915	6018	5915	5915	5915	5815	5915	5815	5815	5815	5915	5915	5915	5915	5915	5915	6018	6018	6124	6018	6124	6018	6018	6018	6018	6018	6018	6018	5915	5915	5915	5915	5915	5915	5915	5915	5915	6018	6124	6018	6124	6124	0	0	0	0	3510	3475	3440	3440	3440	3440	3406	3406	3406	3406	3406	3406	3406	3406	3373	3373	3373	3373	3373	3373	3373	3373	3406	3406	3373	3373	0	0	0	0	0	0	0	6018	6018	6018	5815	5815	5815	5815	5815	5719	5719	5719	5719	5815	5815	5815	5915	6018	5915	5915	5915	5915	5915	5915	5915	5915	5915	5915	5915	5915	5915	5815	5815	5815	5815	5915	5915	5915	5915	5915	5915	5915	5915	5815	5815	5815	5815	5815	5915	5915	5815	5815	5915	5915	5915	5915	5915	5915	6018	6018	5815	5815	5915	5815	5815	5815	5915	5915	5815	5815	5815	5815	5815	5719	5815	5815	5815	5915	5915	5915	6018	6018	5915	5915	5915	5915	5915	5915	5815	5815	5915	5815	5815	5815	5815	5815	5815	5815	5815	5915	5915	5815	5915	5915	6018	5915	5915	5915	6018	6018	5915	5915	5915	5915	5915	6018	6018	5815	5815	5815	5815	5815	5815	5915	5915	5915	5915	5915	5915	5915	5915	5915	5915	5915	5815	5815	5915	5915	5915	5915	5915	6018	6018	6018	6018	6018	6018	5915	5915	5815	5815	5815	5815	5815	5815	5815	5915	5915	5915	5915	5915	5915	5915	5815	5719	5719	0	0	0	6468	6349	6349	6349	6349	6124	6124	6124	6018	6018	6124	6124	6124	6124	6124	6124	6124	6124	6124	6018	6018	6018	6018	5915	6018	5915	5915	5915	5815	5915	5915	5915	6018	6018	6018	6018	6018	6018	6018	6018	6018	6018	6018	6018	6018	6018	6018	6018	6018	0	5815	5815	5815	5815	5815	5815	5915	5815	5815	5915	5915	5915	5915	5915	5915	5815	5719	5719	0	0	0	5719	5719	5719	5719	5719	5719	5719	5719	5719	5719	5719	5719	5719	5719	5719	5719	5719	5719	5719	5719	5626	5626	5719	5719	0	0	0	0	0	0	0	0	0	0	0	0	0	0	0	0	0	0	0	0	0	0	0	0	0	0	0	0	0	0	0	0	0	0	0	0	0	0	0	0	0	0	0	0	0	0
0	0	0	0	0	0	0	1150	1134	1134	1134	1134	1138	1138	1138	1138	1138	1138	1138	1138	1138	1138	1138	1138	1138	1138	1138	1138	1138	1138	1138	1138	1134	1138	1138	1138	1138	1138	1138	1138	1138	1134	1134	1131	1131	1131	1134	1134	1134	1134	1134	1134	1138	1138	1134	1134	1134	1134	1134	1134	1134	1134	1134	1138	1138	1142	1146	1150	1157	1161	1161	1165	1165	1165	1165	1165	1169	1165	1169	1169	1169	1169	1177	1177	1181	1185	1193	1193	1189	1193	1189	1189	0	0	0	0	0	0	0	0	5626	5815	5719	5815	5815	5815	5815	5815	5815	5815	5815	5815	5815	5815	5815	5815	5915	5915	6124	6124	6018	6018	6018	6018	6018	6018	6018	6018	6124	6124	6124	6124	6124	6124	6124	6124	6124	6124	6124	6018	6018	5915	5915	5815	5915	5915	6018	6018	6124	6124	6124	6124	6124	6018	6018	6018	6018	6018	6018	6018	6018	6018	0	0	0	0	0	0	5915	5915	6018	6018	5915	5915	5815	5815	0	0	0	0	0	0	6124	6018	6018	6018	6018	6018	6124	6124	6235	6235	6235	0	0	0	6124	6124	0	0	0	0	0	6018	6018	6018	6018	6124	6124	6124	6124	6124	6124	6124	6124	6124	6124	6124	6124	6018	6018	6018	6018	5915	5915	5915	6018	6018	6018	6018	6018	6018	5915	5915	5915	5915	5915	5915	5915	6018	5915	5915	5915	5915	5915	5915	5915	5915	5915	5915	5915	5915	6018	6018	5915	5915	5915	5915	5915	5915	5815	5915	5915	6018	6018	6018	6018	6018	6018	6018	6124	6018	6124	6124	6018	6018	6018	6018	6018	6018	5915	5915	5915	5915	6018	6018	6018	6018	6018	6124	6124	6018	6018	6124	0	0	0	0	3510	3475	3440	3440	3440	3406	3406	3406	3406	3406	3406	3406	3406	3406	3373	3373	3373	3373	3373	3373	3373	3373	3406	3406	3341	3341	0	0	0	0	0	0	5815	5815	5815	5815	5815	5815	5815	5815	5815	5719	5815	5815	5815	5915	5915	5815	5915	6018	6018	5915	5915	5915	5915	5915	5915	5915	5915	5915	5915	5915	5915	5915	5815	5815	5915	5915	5915	5915	5915	5915	5915	5815	5815	5815	5815	5815	5815	5815	5915	5915	5815	5815	5915	5915	5915	5915	6018	6018	6018	6018	5815	5815	5915	5815	5815	5815	5815	5915	5915	5915	5815	5815	5815	5815	5815	5815	5915	5915	6018	6018	6018	6018	6018	5915	5915	5915	5915	5915	5915	5915	5915	5815	5815	5815	5815	5815	5815	5815	5915	5915	5915	5915	6018	6018	6018	6018	5915	5915	6018	6018	6018	6018	6018	6018	6018	6018	6018	0	5815	5815	5815	5815	5815	5915	5915	5915	5915	5915	5915	5915	5915	6018	5915	5915	5915	5915	5915	5915	5915	5915	6018	6018	6018	6018	6018	6018	6018	6018	5915	5915	5915	5915	5915	5915	5915	5915	6018	6018	5915	6018	6018	6018	6018	0	0	0	0	0	0	6468	6468	6468	6468	6468	6468	6124	6124	6018	6018	6124	6124	6124	6124	6124	6235	6124	6124	6124	6124	6124	6018	6018	6018	6124	5915	5915	5915	5915	5915	5915	6018	6018	6018	6018	6018	6018	6018	6018	6018	6018	6018	6018	6018	6018	6018	6018	6018	6018	0	0	5815	5815	5815	5815	5915	5915	5915	5915	5915	5915	6018	6018	6018	6018	0	0	0	0	0	0	5815	5815	5719	5719	5719	5719	5719	5719	5719	5719	5719	5719	5719	5719	5719	5719	5719	5719	5719	5719	5719	5719	5719	5719	0	0	0	0	0	0	0	0	0	0	0	0	0	0	0	0	0	0	0	0	0	0	0	0	0	0	0	0	0	0	0	0	0	0	0	0	0	0	0	0	0	0	0	0	0	0
0	0	0	0	0	0	0	0	1134	1134	1134	1134	1134	1134	1138	1138	1138	1138	1138	1138	1138	1138	1138	1138	1138	1138	1138	1138	1138	1138	1138	1138	1138	1138	1138	1138	1138	1138	1138	1142	1138	1131	1127	1127	1131	1131	1131	1131	1131	1134	1134	1134	1134	1134	1138	1134	1134	1134	1134	1134	1134	1134	1134	1134	1138	1142	1146	1146	1157	1161	1165	1169	1169	1169	1169	1169	1169	1169	1169	1173	1169	1181	1185	1185	1189	1193	1197	1197	1193	1193	1189	1189	0	0	0	0	0	0	0	0	0	5719	5719	5815	5815	5815	5815	5815	5815	5815	5915	5815	5815	5815	5915	5915	5915	5915	0	6018	6018	6018	6018	6018	6018	6018	6124	6124	6124	6124	6124	6124	6124	6124	6124	6124	6124	6124	6124	6124	6124	6018	6018	5915	6018	6018	6018	6124	6124	6124	6124	6124	6124	6124	6124	6124	6124	6124	6018	6018	6018	6018	0	0	0	0	0	5915	6018	6018	6018	6018	6018	5915	5915	5915	0	0	0	0	0	6124	6124	6018	6018	6018	6018	6124	6124	6124	6235	6235	6235	6235	6235	6235	6235	6124	6124	6018	6018	0	6235	5915	6018	6018	6124	6124	6124	6124	6124	6124	6124	6124	6124	6124	6124	6124	6124	6018	6018	6018	6018	6018	5915	5915	6018	6018	6018	6018	6018	6018	6018	6018	6018	5915	6018	5915	6018	6018	6018	6018	6018	6018	5915	5915	5915	5915	5915	5915	5915	6018	6018	6018	6018	6018	6018	6018	6018	6018	6018	6018	6018	6018	6018	6124	6124	6124	6124	6124	6124	6124	6124	6124	6124	6018	6018	6018	6018	6018	5915	5915	6018	6018	6018	6018	6018	6018	6018	6124	6124	6124	6018	0	0	0	0	3510	3510	3510	3475	3440	3440	3440	3440	3406	3406	3406	3406	3406	3406	3406	3373	3373	3373	3373	3373	3373	3373	3406	3406	3406	3406	3406	3406	0	0	0	0	0	5915	5915	5915	5815	5815	5815	5815	5915	5915	5915	5915	5915	5915	5915	5915	5915	5915	6018	6018	6018	5915	6018	5915	5915	6018	5915	5915	5915	5915	5915	5915	5815	5915	5815	5915	5915	5915	5915	5915	5915	5915	5915	5915	5815	5815	5815	5815	5915	5915	5915	5915	5915	5915	5915	5915	5915	6018	6018	6018	6018	5915	5815	5815	5815	5815	5815	5815	5915	5915	5915	5915	5815	5915	5915	5915	5915	5915	5915	6018	6018	6018	6018	6018	5915	5915	5915	5915	6018	5915	5915	5915	5915	5915	5915	5915	5915	5915	5915	5915	6018	6018	5915	6018	6018	6018	6018	6018	6018	6018	6018	6018	6018	6018	6018	6018	6018	5915	5915	5815	5815	5815	5815	5915	5915	5915	5915	6018	6018	6018	6018	6018	6018	6018	6018	5915	5915	5915	5915	5915	5915	6018	6018	6018	6124	6018	6018	6018	6018	6018	6018	5915	5915	6018	5915	5915	6018	6018	6018	6018	6018	6018	6018	6018	6018	0	0	0	0	0	0	6720	6468	6592	6592	6592	6592	6592	0	0	0	6124	6124	6124	6124	6124	6124	6124	6124	6124	6124	6018	6124	6124	6124	6018	6018	5915	5915	6018	6018	6018	6018	6018	6124	6124	6018	6018	6018	6018	6018	6018	6018	6018	6018	6018	6018	6018	6018	0	0	0	0	0	5915	5915	6018	6018	6018	6018	6018	6018	6018	6018	6018	0	0	0	0	0	0	5815	5719	5719	5719	5719	5719	5719	5719	5719	5719	5719	5719	5815	5719	5719	5719	5719	5719	5719	5719	5719	5719	5626	5626	0	0	0	0	0	0	0	0	0	0	0	0	0	0	0	0	0	0	0	0	0	0	0	0	0	0	0	0	0	0	0	0	0	0	0	0	0	0	0	0	0	0	0	0	0	0
0	0	0	930	927	927	932	937	937	1134	1134	1134	1134	1134	1134	1134	1134	1138	1138	1138	1134	1134	1138	1138	1138	1138	1138	1138	1138	1138	1138	1138	1138	1138	1138	1138	1138	1138	1142	1138	1138	1134	1127	1131	1131	1131	1131	1131	1134	1134	1134	1134	1134	1134	1134	1134	1131	1131	1134	1134	1134	1134	1134	1138	1138	1142	1146	1150	1153	1161	1169	1169	1173	1169	1169	1173	1173	1173	1173	1177	1181	1185	1189	1189	1193	1193	1197	1197	1193	1193	1193	1193	0	0	0	0	0	0	0	0	0	5815	5815	5815	5815	5815	5815	5815	5815	5815	5915	5815	5815	5815	5815	5915	5915	5915	0	6018	6018	6018	6018	6124	6124	6124	6124	6124	6235	6235	6124	6124	6124	6124	6124	6124	6124	6124	6124	6124	6124	6018	6018	6018	6018	6018	6124	6124	6124	6124	6124	6124	6124	6018	6018	6124	6124	6018	6018	6018	6018	6018	6018	6018	0	6018	6018	5915	6018	5915	5915	5915	6018	6018	6018	6018	6124	6124	6124	6124	6124	6124	6124	6124	6124	6018	6018	6018	6124	6124	6124	6124	6235	6235	6235	6235	6235	6235	6235	6124	6124	6124	6124	6124	6124	6124	6124	6124	6124	6124	6235	6124	6235	6235	6235	6124	6124	6124	6124	6018	6124	6018	6124	6018	6018	6018	6018	6018	6018	6018	6124	6018	6018	6018	5915	5915	6018	6018	6018	6018	6018	6018	6018	6018	5915	5915	5915	5915	5915	5915	5915	6018	6018	6018	6018	6018	6018	6018	6018	6018	6018	6018	6018	6018	6124	6124	6124	6124	6124	6124	6235	6124	6124	6124	6124	6124	6124	6018	6124	6018	6018	6018	6018	6124	6124	6124	6124	6124	6124	6124	6124	6124	0	0	0	0	0	3510	3510	3475	3475	3440	3440	3440	3440	3406	3406	3406	3406	3406	3406	3406	3373	3406	3406	3406	3406	3373	3406	3406	3406	3406	3440	3406	3440	3440	0	0	0	6018	6018	6018	5915	5915	5915	5915	5815	5915	5915	5915	5915	5915	5915	5915	5915	5915	5915	6018	6018	6018	6018	6018	6018	5915	6018	5915	6018	5915	5915	5915	5915	5815	5815	5815	5915	5915	5915	5915	5915	5915	5915	5915	5915	5915	5915	5915	5915	5915	5915	5915	5915	6018	6018	6018	6018	6018	6018	6018	6018	6018	5915	5915	5915	5815	5815	5815	5915	5915	5915	5915	5915	5915	5915	5915	5915	5915	6018	6018	6018	6018	6018	6018	6018	5915	6018	5915	5915	5915	5915	5915	5915	5915	5915	5915	5915	6018	6018	6018	6018	6018	6018	6018	6018	6018	6018	6018	6018	6018	6018	6018	6018	6018	6018	6018	6018	5915	5915	5915	5815	5815	5815	5815	5915	5915	5915	6018	6018	6018	6018	6124	6018	6018	6018	6018	5915	5915	5915	5915	5915	5915	6018	6018	6018	6124	6124	6124	6124	6124	6018	6018	6018	6018	6018	6018	5915	6018	6018	6018	6018	6018	6018	6018	6018	6018	0	0	0	0	0	0	6468	6468	6468	6468	6592	6592	6592	0	0	0	6124	6124	6124	6124	6124	6124	6124	6124	6124	6124	6124	6124	6124	6124	6018	6018	6018	6018	6018	6018	6018	6124	6124	6124	6124	6124	6018	6018	6018	6018	6018	6018	6018	6018	6018	6018	6018	6018	0	0	0	0	0	5915	6018	6018	6018	6018	6018	6018	6018	6124	6124	6124	0	0	0	0	0	0	5815	5815	5719	5719	5719	5719	5719	5719	5719	5719	5719	5719	5719	5719	5719	5719	5719	5815	5815	5815	5719	5719	5719	5719	0	0	0	0	0	0	0	0	0	0	0	0	0	0	0	0	0	0	0	0	0	0	0	0	0	0	0	0	0	0	0	0	0	0	0	0	0	0	0	0	0	0	0	0	0	0
0	0	0	930	930	935	935	937	937	937	1134	1134	1138	1134	1134	1134	1138	1138	1134	1134	1134	1134	1138	1138	1138	1138	1138	1138	1138	1138	1138	1138	1138	1138	1138	1138	1134	1138	1142	1138	1138	1134	1131	1131	1131	1131	1127	1127	1131	1134	1134	1134	1134	1134	1134	1134	1131	1131	1131	1131	1134	1134	1134	1138	1142	1142	1146	1150	1157	1165	1169	1173	1173	1173	1173	1173	1177	1177	1177	1181	1181	1185	1189	1193	1197	1197	1202	1202	1197	1197	1197	1197	1197	1197	0	0	0	0	0	0	0	5815	5815	5815	5815	5815	5815	5815	5815	5815	5915	5815	5915	5915	6018	5915	5915	6018	6018	6018	6018	6018	6124	6124	6124	6124	6124	6124	6235	6235	6124	6124	6124	6124	6124	6124	6124	6124	6124	6124	6124	6124	6124	6124	6124	6124	6124	6124	6124	6124	6124	6124	6124	6018	6018	6124	6124	6124	6018	6018	6018	6018	6018	6018	6018	5915	5915	5915	6018	6018	5915	6018	6018	6018	6018	6018	6124	6124	6124	6124	6124	6124	6124	6124	6124	6124	6124	6124	6124	6124	6124	6124	6235	6124	6235	6235	6235	6124	6235	6235	6235	6235	6124	6124	6124	6124	6124	6124	6124	6124	6235	6124	6235	6235	6235	6124	6124	6124	6124	6018	6124	6124	6124	6124	6124	6124	6124	6124	6124	6124	6124	6124	6018	6018	6018	6018	6018	6124	6124	6124	6124	6018	6018	6018	6018	6018	6018	6018	6018	6018	5915	6018	6018	6018	6018	6018	6018	6018	6018	6018	6018	6018	6124	6018	6124	6124	6124	6124	6124	6124	6235	6235	6235	6124	6235	6235	6124	6018	6124	6124	6018	5915	6018	6018	6124	6124	6124	6124	6124	6124	6124	0	0	0	0	0	0	3510	3510	3475	3475	3440	3440	3440	3440	3406	3406	3406	3406	3406	3406	3406	3406	3406	3406	3406	3406	3406	3406	3406	3406	3440	3440	3406	3440	3440	0	0	6018	6018	6018	6018	5915	5915	5915	5915	5915	5915	5915	5915	5915	5915	5915	5915	5915	5915	6018	6018	6018	6018	6018	6018	6018	6018	6018	6018	6018	6018	5915	6018	6018	5915	5815	5915	5915	5915	5915	5915	5915	5915	5915	5915	5915	5915	5915	5915	5915	6018	6018	6018	6018	6018	6018	6018	6018	6018	6018	6018	6018	6018	5915	5915	5815	5815	5815	5815	5815	5915	5915	5915	5915	5915	5915	5915	6018	6018	6018	6018	6018	6018	6124	6018	6018	6018	6018	5915	6018	6018	5915	5915	6018	6018	6018	6018	6018	6018	6018	6018	6018	6018	6018	6018	6018	6018	6018	6018	6018	6018	6018	6018	6018	6018	6018	6018	6018	6018	5915	5915	5815	5815	5815	5815	5915	6018	6018	6018	6018	6018	6124	6124	6124	6124	6018	6018	6018	5915	5915	5915	5915	5915	6018	6018	6018	6124	6124	6124	6124	6124	6018	6018	6018	6018	6018	5915	5915	6018	6018	6018	6018	6124	6124	6018	6018	6018	0	0	0	0	0	0	6468	6468	6468	6468	6592	6592	6592	0	0	0	6124	6124	6124	6124	6124	6124	6124	6124	6124	6124	6124	6124	6124	6124	6124	6124	6124	6018	6124	6124	6124	6124	6124	6124	6124	6124	6124	6018	6018	6018	6018	6018	6018	6018	6018	6018	6018	6018	0	0	0	0	0	0	5915	6018	6018	6018	6018	6018	6124	6018	6018	6018	0	0	0	0	0	0	5815	5815	5719	5719	5719	5719	5719	5626	5626	5626	5815	5815	5815	5719	5719	5815	5915	5915	5915	5815	5815	5815	5719	5719	0	0	0	0	0	0	0	0	0	0	0	0	0	0	0	0	0	0	0	0	0	0	0	0	0	0	0	0	0	0	0	0	0	0	0	0	0	0	0	0	0	0	0	0	0	0
0	0	0	930	932	935	935	937	940	940	940	1134	1134	1134	1134	1134	1134	1134	1134	1134	1134	1134	1134	1134	1134	1138	1134	1138	1138	1138	1138	1138	1138	1138	1134	1134	1134	1134	1138	1138	1138	1134	1134	1134	1134	1134	1127	1127	1127	1134	1131	1134	1134	1134	1134	1134	1134	1134	1134	1134	1134	1134	1138	1142	1142	1142	1150	1153	1161	1169	1173	1173	1177	1177	1173	1177	1177	1181	1181	1185	1185	1189	1189	1193	1197	1197	1202	1202	1197	1197	1202	1202	1219	1219	1219	0	0	0	0	0	0	0	5815	5815	5815	5815	5815	5815	5815	5815	5815	5815	5915	5915	6018	5915	6018	6018	6018	6018	6018	6018	6124	6124	6124	6124	6124	6124	6235	6235	6124	6124	6124	6124	6124	6124	6124	6124	6124	6124	6124	6124	6124	6124	6124	6124	6124	6124	6124	6124	6124	6124	6124	6018	6018	6124	6124	6124	6124	6018	6124	6124	6018	6018	6018	6018	5915	5915	6018	6018	6018	6018	6018	6018	6018	6018	6124	6124	6124	6124	6124	6235	6235	6124	6124	6124	6124	6124	6235	6124	6124	6124	6124	6124	6235	6235	6235	6235	6235	6235	6235	6235	6124	6124	6124	6124	6124	6124	6124	6124	6235	6124	6235	6235	6235	6124	6124	6124	6124	6018	6124	6124	6124	6124	6124	6124	6124	6124	6124	6124	6124	6018	6018	6018	6018	6124	6124	6124	6124	6124	6124	6124	6124	6124	6018	6018	6018	6018	6018	6018	6018	6018	6018	6124	6018	6018	6124	6124	6124	6124	6018	6018	6124	6124	6124	6124	6124	6124	6124	6124	6235	6235	6235	6124	6235	6124	6124	6018	6124	6124	6124	6018	6124	6124	6124	6124	6124	6124	6124	6124	6124	0	0	0	0	0	0	3510	3475	3475	3475	3440	3440	3440	3440	3406	3406	3406	3406	3406	3440	3440	3406	3406	3406	3406	3406	3406	3406	3440	3440	3440	3440	3440	3440	3440	6124	6124	6018	6018	6018	6018	6018	6018	5915	5915	5915	5915	5915	5915	5915	5915	5915	6018	6018	6018	6018	6018	6018	6018	6018	6018	6018	6018	6018	6018	6018	6018	5915	5915	5915	5815	5815	5815	5915	6018	6018	6018	6018	5915	6018	6018	6018	5915	5915	6018	6018	6018	6018	6018	6018	6018	6018	6018	6018	6018	6018	6018	6018	6018	5915	5915	5915	5815	5815	5815	5915	6018	6018	6018	6018	5915	6018	6018	6018	6018	6018	6018	6018	6018	6018	6018	6018	6018	6018	6018	6018	6018	6018	6018	6018	6018	6018	6018	6018	6018	6018	6018	6018	6018	6018	6018	6018	6018	6124	6124	6018	6018	6018	6018	6018	6018	6018	6018	6018	6018	6018	5915	5915	5915	5915	5915	5915	6018	6018	6124	6124	6124	6124	6124	6124	6124	6124	6124	6018	6018	6018	5915	5915	5915	5915	6018	6018	6018	6124	6124	6124	6124	6018	6018	6018	6018	6018	6018	6018	6018	6124	6124	6124	6124	6124	6124	6018	6018	0	0	0	0	6349	6349	6468	6468	6349	6468	6468	6468	6468	0	0	0	6124	6124	6124	6124	6124	6124	6124	6124	6235	6235	6235	6124	6124	6235	6235	6124	6124	6124	6124	6124	6124	6124	6124	6124	6124	6124	6124	6018	6018	6018	6018	6018	6018	6018	6018	6018	6018	6018	0	0	0	0	0	0	6018	6124	6018	6018	6018	6018	6124	6018	6018	6018	0	0	0	0	6018	5915	5915	5815	5815	5719	5719	5719	5719	5626	5626	5719	5815	5815	5815	5719	5815	5915	5915	6018	6018	6018	5815	5815	0	0	0	0	0	0	0	0	0	0	0	0	0	0	0	0	0	0	0	0	0	0	0	0	0	0	0	0	0	0	0	0	0	0	0	0	0	0	0	0	0	0	0	0	0	0	0	0
0	0	0	930	932	935	937	940	940	942	942	942	1134	1134	1134	1134	1134	1134	1134	1134	1134	1134	1134	1134	1138	1138	1138	1138	1138	1138	1138	1138	1138	1134	1134	1134	1134	1134	1138	1138	1138	1134	1134	1134	1134	1134	1127	1127	1127	1131	1131	1131	1134	1134	1134	1134	1134	1134	1134	1134	1134	1138	1138	1142	1142	1146	1150	1161	1165	1173	1177	1177	1181	1177	1177	1177	1181	1181	1181	1185	1189	1193	1193	1193	1197	1197	1197	1202	1202	1197	1202	1210	1219	1219	1232	1236	1236	0	0	0	0	0	0	5815	5815	5815	5815	5815	5815	5815	5915	5915	5915	5915	6018	5915	6018	6018	6018	6018	6018	6018	6124	6124	6124	6124	6235	6235	6235	6235	6124	6124	6235	6124	6124	6124	6124	6124	6235	6124	6124	6235	6235	6235	6235	6235	6235	6124	6124	6124	6124	6124	6124	6018	6018	6124	6124	6124	6124	6124	6124	6124	6124	6124	6124	6018	6018	6018	6018	6018	6018	6018	6018	6018	6018	6018	6124	6124	6124	6124	6124	6235	6235	6124	6124	6124	6124	6124	6124	6124	6124	6124	6235	6235	6235	6235	6235	6235	6235	6235	6235	6235	6124	6124	6124	6124	6124	6124	6124	6124	6235	6235	6235	6235	6235	6235	6124	6124	6124	6124	6124	6124	6124	6124	6124	6124	6124	6124	6124	6124	6124	6124	6124	6018	6018	6124	6124	6124	6124	6124	6124	6124	6124	6124	6124	6124	6124	6124	6124	6124	6018	6018	6018	6124	6018	6124	6124	6124	6124	6124	6124	6018	6124	6018	6124	6124	6124	6124	6124	6235	6235	6235	6235	6124	6124	6124	6124	6124	6124	6124	6124	6124	6124	6235	6235	6124	6124	6124	6124	6124	6124	0	0	0	0	0	0	3510	3475	3475	3475	3440	3440	3406	3406	3406	3406	3406	3406	3406	3406	3406	3406	3406	3406	3406	3406	3406	3406	3406	3406	3406	3406	3406	6124	6124	6124	6124	6018	6018	6018	6018	6018	6018	5915	5915	5915	5915	6018	6018	5915	6018	6018	6018	6018	5915	6018	6018	6018	6018	6018	6018	6018	6018	6018	6018	6018	6018	5915	5915	5915	5815	5815	5815	5915	6018	6018	6018	6018	6018	6018	6018	6018	6018	6018	6018	6018	6018	6124	6018	6018	6018	6018	6018	6018	6018	6018	6124	6124	6018	6018	6018	6018	6018	5915	5915	6018	6018	6018	6018	6018	6018	6018	6018	6018	6018	6018	6018	6018	6018	6018	6018	6018	6018	6018	6018	6018	6018	6018	6018	6018	6018	6018	6018	6018	6018	6018	6018	6018	6018	6018	6018	6124	6124	6124	6124	6124	6018	6018	6018	6018	6018	6018	6018	6018	6018	6018	6018	5915	5915	5915	5915	5915	6018	6018	6124	6124	6124	6235	6235	6235	6235	6124	6124	6018	6018	6018	6018	6018	6018	6018	6018	6018	6018	6124	6018	6124	6124	6018	6018	6018	6018	6018	6018	6018	6018	6124	6124	6124	6124	6124	6124	6124	6124	0	0	0	0	6235	6235	6349	6468	6349	6349	6235	6235	6235	6124	6124	6124	6124	6124	6124	6124	6124	6124	6124	6124	6235	6235	6235	6235	6235	6235	6235	6124	6124	6124	6124	6124	6124	6124	6124	6124	6124	6124	6124	6018	6018	6018	6018	6018	6018	6018	6018	6124	6124	0	0	0	0	0	0	6124	6124	6124	6124	6124	6124	6124	6124	6124	6018	0	0	0	6124	6018	6018	6018	5915	5915	5915	5815	5815	5719	5815	5815	5815	5719	5815	5815	5815	5719	5719	5815	5815	5915	5915	6018	0	0	0	0	0	0	0	0	0	0	0	0	0	0	0	0	0	0	0	0	0	0	0	0	0	0	0	0	0	0	0	0	0	0	0	0	0	0	0	0	0	0	0	0	0	0	0	0	0	0
0	0	0	930	932	935	937	940	942	942	948	955	953	953	1134	1134	1131	1134	1134	1134	1134	1134	1134	1134	1134	1134	1134	1134	1138	1142	1138	1138	1138	1138	1134	1134	1134	1134	1138	1138	1138	1138	1138	1138	1134	1134	1127	1127	1131	1131	1131	1131	1134	1134	1134	1134	1131	1131	1134	1134	1134	1134	1138	1138	1142	1142	1150	1153	1157	1157	1193	1189	1185	1185	1185	1185	1185	1185	1189	1193	1197	1197	1197	1197	1197	1202	1197	1202	1197	1197	1202	1206	1219	1219	1232	1236	1236	1236	1240	1240	0	0	0	0	0	5815	5815	5719	5719	5815	5915	5915	5915	5915	6018	5915	6018	6018	6018	6018	6018	6018	6124	6124	6235	6235	6235	6235	6235	6235	6124	6124	6235	6124	6124	6124	6124	6124	6235	6124	6235	6235	6235	6235	6235	6235	6235	6124	6124	6124	6124	6124	6124	6124	6124	6124	6235	6235	6124	6124	6124	6124	6124	6124	6124	6124	6018	6018	6018	6018	6018	6018	6018	6124	6018	6124	6124	6124	6124	6124	6124	6124	6124	6124	6124	6124	6235	6235	6235	6235	6235	6124	6124	6235	6235	6235	6235	6235	6235	6235	6235	6235	6235	6124	6124	6124	6124	6124	6124	6124	6235	6235	6235	6124	6235	6124	6124	6124	6124	6235	6235	6235	6235	6235	6235	6235	6235	6235	6124	6124	6124	6124	6124	6124	6124	6124	6124	6124	6124	6124	6235	6124	6124	6124	6124	6124	6124	6124	6124	6124	6018	6018	6018	6124	6018	6018	6124	6124	6124	6124	6124	6124	6124	6124	6124	6124	6124	6124	6124	6124	6235	6124	6124	6124	6124	6124	6124	6018	6124	6124	6018	6124	6124	6235	6235	6235	6235	6235	6235	6124	0	0	0	0	0	0	0	3510	3475	3440	3440	3440	3440	3406	3440	3406	3406	3406	3406	3406	3406	3406	3373	3406	3406	3406	3406	3406	3440	3440	3440	3440	3440	3406	6124	6124	6124	6124	6124	6018	6018	6018	6018	6018	6018	6018	6018	6018	6018	6018	6018	6018	6018	6018	6018	6018	6018	6018	6018	6018	6018	6018	6018	6018	6018	6018	6018	6018	6018	6018	6018	6018	6018	6018	6018	6018	6018	6018	6018	6018	6018	6018	6018	6018	6018	6018	6018	6018	6124	6018	6018	6018	6018	6018	6018	6018	6018	6124	6124	6124	6018	6124	6018	6018	6018	6018	6018	6018	6018	6018	6018	6018	6018	6018	6124	6124	6124	6018	6124	6018	6018	6018	6018	6018	6018	6018	6018	6018	6018	6018	6018	6018	6018	6018	6018	6018	6018	6018	6018	6018	6018	6124	6124	6124	6124	6124	6124	6124	6124	6018	6018	6018	6018	6018	6124	6018	6018	6018	5915	5915	6018	5915	6018	6018	6124	6124	6235	6235	6235	6235	6235	6235	6124	6124	6018	6018	6018	6018	6018	6018	6018	6018	6018	6018	6124	6124	6124	6124	6124	6124	6124	6018	6018	6018	6124	6124	6124	6124	6235	6235	6235	6235	6124	6124	6235	6235	6124	6235	6235	6235	6235	6349	6235	6235	6235	6235	6235	6235	6124	6124	6235	6124	6124	6124	6124	6124	6124	6124	6235	6235	6235	6235	6235	6235	6235	6235	6235	6124	6235	6124	6235	6235	6235	6235	6235	6124	6124	6018	6018	6018	6018	6018	6018	6018	6124	6124	6124	0	0	0	0	0	6124	6124	6124	6124	6018	6018	6018	6018	6124	6124	6124	6124	0	6124	6018	6018	6018	6018	5915	5915	5915	5915	5815	5815	5915	5915	5915	5815	5815	5815	5815	5719	5815	5915	5915	6018	6018	0	0	0	0	0	0	0	0	0	0	0	0	0	0	0	0	0	0	0	0	0	0	0	0	0	0	0	0	0	0	0	0	0	0	0	0	0	0	0	0	0	0	0	0	0	0	0	0	0	0	0
0	0	0	932	935	937	940	940	942	942	948	955	953	953	953	953	1131	1131	1131	1134	1131	1131	1131	1134	1134	1134	1134	1138	1138	1142	1138	1138	1138	1134	1134	1134	1134	1131	1134	1138	1138	1138	1138	1134	1131	1131	1127	1127	1127	1131	1127	1131	1134	1134	1134	1131	1131	1131	1134	1134	1131	1131	1134	1134	1138	1138	1146	1150	1150	1197	1197	1193	1193	1197	1197	1193	1193	1189	1197	1202	1202	1202	1197	1197	1202	1202	1202	1202	1202	1202	1206	1214	1219	1223	1232	1236	1236	1236	1240	1245	1245	0	0	0	0	0	0	5719	5719	5719	5915	5915	5915	5915	5915	5915	6018	6018	6018	6018	6018	6124	6124	6235	6235	6235	6235	6235	6235	6235	6124	6124	6124	6124	6124	6124	6124	6124	6235	6124	6235	6235	6235	6235	6235	6235	6235	6124	6124	6124	6124	6124	6124	6124	6124	6235	6235	6235	6235	6235	6235	6235	6235	6235	6124	6124	6124	6124	6124	6124	6124	6124	6124	6124	6124	6124	6124	6124	6124	6124	6124	6124	6124	6124	6124	6124	6235	6235	6235	6235	6235	6124	6124	6124	6235	6235	6235	6235	6235	6235	6235	6235	6235	6124	6235	6235	6235	6124	6124	6124	6235	6235	6235	6235	6235	6235	6235	6124	6235	6235	6235	6235	6235	6235	6235	6235	6235	6235	6124	6124	6124	6124	6124	6124	6124	6235	6235	6235	6235	6235	6235	6235	6124	6124	6124	6124	6124	6124	6124	6124	6124	6124	6124	6124	6124	6124	6124	6124	6124	6124	6124	6124	6124	6124	6124	6124	6124	6124	6124	6124	6235	6124	6124	6124	6124	6124	6124	6124	6235	6124	6124	6235	6235	6235	6235	6235	6124	6124	6124	0	0	0	0	0	0	0	0	0	3440	3440	3440	3440	3440	3440	3440	3406	3406	3406	3406	3406	3406	3373	3373	3373	3406	3406	3440	3440	3440	3440	3440	3440	3440	0	6124	6124	6124	6124	6018	6124	6018	6018	6018	6018	6018	6018	6018	6018	6018	6018	6018	6018	6018	6018	6018	6018	6018	6018	6018	6018	6018	6018	6018	6018	6018	6018	6018	6018	6018	6018	6018	6018	6018	6018	6018	6018	6124	6124	6018	6018	6018	6018	6018	6018	6018	6018	6124	6124	6124	6018	6018	6018	6018	6018	6018	6018	6018	6018	6124	6124	6124	6124	6124	6124	6018	6018	6018	6018	6018	6018	6018	6018	6018	6018	6124	6124	6018	6018	6018	6018	6018	6018	6018	6018	6018	6018	6018	6018	6018	6018	6018	6018	6018	6018	6018	6018	6018	6124	6018	6018	6018	6124	6124	6235	6235	6235	6235	6124	6124	6124	6124	6124	6018	6124	6124	6124	6018	6018	6018	6018	6018	6018	6018	6124	6124	6124	6235	6235	6235	6235	6235	6235	6235	6124	6124	6018	6018	6018	6018	6018	6018	6018	6018	6018	6124	6124	6124	6124	6124	6124	6124	6124	6124	6124	6124	6235	6124	6124	6235	6235	6235	6235	6124	6124	6235	6235	6124	6235	6235	6235	6235	6349	6235	6349	6235	6235	6124	6124	6124	6124	6124	6124	6124	6124	6124	6124	6124	6124	6235	6349	6235	6235	6235	6235	6235	6235	6235	6235	6235	6235	6235	6235	6349	6235	6235	6124	6124	6018	6018	6018	6018	6018	6018	6124	6235	6235	6124	0	0	6349	6235	6235	6235	6124	6124	6124	6124	6124	6124	6124	6124	6124	6124	6124	6124	6124	6124	6124	6124	6018	6018	5915	5915	5815	5815	5815	5815	5815	5915	5815	5815	5815	5815	5815	5815	5915	5915	6018	6018	0	0	0	0	0	0	0	0	0	0	0	0	0	0	0	0	0	0	0	0	0	0	0	0	0	0	0	0	0	0	0	0	0	0	0	0	0	0	0	0	0	0	0	0	0	0	0	0	0	0	0
0	0	0	932	935	940	940	942	942	945	953	955	955	955	955	955	0	1131	1131	1131	1131	1131	1134	1131	1134	1134	1134	1134	1138	1138	1138	1138	1138	1138	1134	1134	1134	1134	1138	1138	1138	1138	1138	1134	1134	1131	1127	1127	1127	1127	1131	1131	1134	1134	1134	1131	1131	1131	1131	1134	1131	1131	1134	1134	1138	1138	1146	1146	1146	1197	1197	1197	1193	1202	1197	1202	1210	1210	1206	1210	1210	1202	1197	1197	1202	1202	1202	1202	1202	1202	1210	1219	1227	1232	1236	1236	1236	1240	1245	1249	1249	1249	1249	0	0	0	0	0	5719	5719	5915	5915	5915	5915	6018	6018	6018	6124	6124	6018	6018	6124	6124	6235	6235	6235	6235	6235	6235	6235	6235	6124	6124	6124	6018	6124	6124	6124	6124	6235	6235	6235	6235	6235	6235	6235	6235	6235	6124	6124	6124	6124	6124	6124	6235	6235	6235	6235	6235	6235	6235	6235	6235	6235	6124	6124	6235	6124	6124	6124	6124	6124	6124	6124	6124	6124	6235	6235	6124	6124	6124	6124	6124	6124	6124	6235	6235	6235	6235	6235	6235	6235	6235	6235	6235	6235	6235	6235	6235	6235	6235	6235	6235	6235	6235	6235	6235	6235	6124	6124	6235	6235	6235	6235	6124	6124	6235	6235	6235	6235	6349	6349	6235	6235	6235	6235	6235	6124	6124	6124	6235	6124	6124	6124	6124	6235	6235	6235	6235	6235	6235	6235	6124	6124	6124	6124	6124	6124	6124	6235	6235	6235	6124	6124	6124	6124	6124	6124	6124	6235	6124	6124	6235	6124	6124	6235	6124	6124	6124	6124	6235	6124	6124	6124	6124	6124	6124	6124	6235	6124	6124	6349	6349	6349	6349	6235	6235	6349	6349	6349	6349	0	0	0	0	0	0	0	3440	3440	3440	3440	3440	3440	3440	3406	3406	3406	3406	3406	3406	3406	3373	3406	3406	3406	3440	3475	3475	3440	3440	3440	3440	0	6124	6124	6124	6124	6124	6124	6018	6124	6124	6124	6018	6018	6124	6124	6124	6124	6124	6124	6018	6018	6018	6018	6018	6018	6018	6018	6018	6018	6018	6018	6018	6018	6018	6018	6018	6124	6124	6124	6124	6124	6124	6124	6124	6124	6124	6124	6124	6124	6124	6124	6124	6124	6124	6124	6124	6124	6018	6018	6018	6018	6018	6018	6018	6124	6124	6124	6124	6124	6124	6124	6018	6018	6018	6018	6018	6124	6018	6018	6018	6124	6124	6124	6018	6018	6124	6124	6124	6018	6018	6018	6018	6018	6018	6018	6018	6018	6018	6018	6018	6018	6018	6018	6018	6124	6124	6124	6124	6124	6124	6235	6235	6235	6235	6124	6124	6124	6124	6124	6124	6124	6124	6124	6124	6124	6018	6018	6018	6018	6124	6124	6124	6124	6235	6235	6235	6235	6235	6235	6235	6124	6124	6124	6018	6018	6018	6018	6018	6018	6124	6124	6124	6124	6124	6124	6124	6124	6124	6124	6124	6235	6235	6349	6349	6349	6468	6349	6349	6349	6349	6235	6235	6235	6235	6235	6235	6235	6235	6235	6235	6235	6235	6235	6124	6124	6124	6124	6124	6124	6124	6124	6124	6124	6349	6349	6349	6349	6349	6235	6235	6235	6235	6235	6235	6235	6349	6349	6349	6349	6468	6349	6349	6235	6124	6018	6018	6018	6018	6018	6018	6124	6235	6235	6235	6349	6349	6349	6349	6235	6235	6235	6235	6124	6124	6124	6124	6124	6124	6124	6124	6124	6124	6124	6124	6124	6124	6124	6018	5915	5915	5915	5815	5815	5815	5815	0	0	5719	5815	5815	5815	5815	5915	6018	6018	6018	0	0	0	0	0	0	0	0	0	0	0	0	0	0	0	0	0	0	0	0	0	0	0	0	0	0	0	0	0	0	0	0	0	0	0	0	0	0	0	0	0	0	0	0	0	0	0	0	0	0	0
