0	0	0	0	0	0	0	0	0	0	0	0	0	0	0	0	0	0	0	0	0	0	0	0	0	0	0	0	0	0	0	0	0	0	0	0	0	0	0	0	0	0	0	0	0	0	4521	4581	4581	4581	4521	4521	4521	4521	4521	4521	4463	4463	4581	4581	4643	4643	4643	4643	4643	4643	4643	4643	4706	4643	4643	4643	4581	4581	4581	4581	4581	4643	4643	4643	4706	4643	4643	4706	4643	4643	4643	4643	4643	4643	4706	4706	4643	4706	4706	4706	4706	4706	4643	4643	4643	4706	4706	4643	4643	4706	4706	4706	4706	4643	4643	4581	4581	4581	4581	4581	4581	4581	4643	4706	5050	5050	5202	5202	5202	5202	5125	5125	5050	4977	4977	5125	4906	4906	4906	4906	6235	6235	6235	6235	6018	6018	5815	5364	5282	5202	5202	5202	5202	5202	5202	5125	5050	5050	5050	4977	5050	5125	5050	5125	5125	5125	5125	5125	5050	5125	5125	5125	5125	5125	0	0	0	0	0	0	0	0	0	0	0	7959	7959	7959	7959	7779	7959	7959	7959	7959	7959	7959	8146	8146	7959	7959	7959	7959	7959	7779	7608	7608	7608	7608	7608	7608	7608	7608	7608	7608	0	0	0	0	3546	3546	3546	3546	3510	3510	3510	3510	3510	3475	3475	3475	3475	3475	3475	3475	3510	3510	3475	3475	3475	3510	3475	3475	3510	3510	3510	3546	3546	3583	3583	3583	3583	3546	3546	3546	3546	3546	3546	3546	3546	3510	3546	3510	3510	3510	3546	3546	3546	3546	3546	3583	3583	3546	3546	3583	5626	5535	5535	5535	5535	5448	5448	5448	5448	5448	5535	5535	5535	5535	5626	5535	5535	5626	5535	5535	5448	5364	5050	4906	4838	4838	4771	4771	4706	4706	4771	4771	4706	4771	4706	4771	4771	4706	4706	4706	4706	4706	4643	4643	4706	4706	4706	4771	4771	4706	4771	4643	4581	4581	4581	4581	4581	4581	4643	4706	4706	4771	4771	4771	4771	4771	4771	4771	4706	4706	4706	4706	4706	4706	4706	4643	4643	4706	4643	4643	4643	4643	4643	4643	4643	4581	4581	4643	4643	4643	4643	4706	4706	4706	4706	4706	4706	4706	4706	4643	4643	4643	4643	4581	4581	4521	4521	4521	4521	4521	4521	4521	4521	4581	4581	4581	4643	4643	4643	4643	4581	4581	4521	4521	4521	4521	4581	4521	4581	4706	4771	4771	4771	4771	4771	4771	4771	4771	4706	4706	4771	4771	4771	4771	4771	4706	4706	4706	4706	4706	4643	4706	4706	4706	4771	4771	4771	4771	4771	4771	4838	4771	4771	4771	4771	4706	4706	4706	4706	4706	4706	4706	4706	4706	4706	4643	4643	4706	4706	4706	4706	4706	4771	4706	4706	4706	4643	4643	4643	4581	4581	4581	4521	4463	4463	4463	4643	4771	4771	4771	4838	4838	4771	4771	4838	4838	4771	4838	4838	8146	8146	8146	7959	8146	8146	8146	7959	7959	7959	8146	8146	8146	8146	8146	8146	8146	8146	8146	8146	8146	8146	8146	8146	8146	8146	8146	8146	8146	8146	8146	0	0	0	0	0	0	0	0	0	0	0	0	0	0	0	0	0	0	0	8146	8146	8146	8146	7779	7779	7959	7959	7959	7959	7959	7959	0	8146	7959	7959	7959	7959	0	0	0	0	0	2649	2629	2629	2609	2609	2609	2589	2589	2589	2570	2570	2551	2551	2551	2551	2532	2514	2496	2496	2496	2496	2478	2460	2460	2443	2443	2443	2443	2426	2409	2392	2392	2376	2376	2359	2359	2343	2327	2327	2312	2312	2297	2297	2266	2266	2252	2252	2237	2237	2237	2237	2237	0	0	0	0	0	0	0	0	0	0	0	0	0	0	0	0	0	0	0	0	0	0	0	0	0	0	0	0	0	0	0	0	0	0	0	0
0	0	0	0	0	0	0	0	0	0	0	0	0	0	0	0	0	0	0	0	0	0	0	0	0	0	0	0	0	0	0	0	0	0	0	0	0	0	0	0	0	0	0	0	0	0	0	0	4581	4581	4463	4463	4463	4463	4406	4406	4406	4406	4581	4581	4643	4643	4581	4581	4581	4643	4643	4643	4706	4643	4643	4581	4581	4581	4581	4581	4581	4581	4643	4706	4706	4706	4706	4706	4643	4643	4643	4643	4643	4643	4706	4706	4706	4706	4706	4706	4706	4706	4643	4643	4643	4643	4643	4643	4643	4643	4643	4643	4643	4643	4581	4581	4581	4581	4581	4581	4581	4643	4643	4643	4643	5125	5202	5202	5125	5125	5125	5125	5050	5050	5125	5125	5125	5125	5125	5125	5125	6018	5915	6124	5915	5626	5282	5282	5282	5125	5202	5125	5125	5125	5125	5050	5050	5050	5050	5050	5125	5125	5050	5050	5050	5125	5282	5202	5202	5202	5125	5125	5125	5125	0	0	0	0	0	0	0	0	0	0	0	0	7959	8146	7959	7959	7959	7959	7779	7959	7959	7959	8146	8146	8146	7959	7959	7959	7959	7779	7608	7608	7608	7608	7608	7608	7608	7608	7608	7608	0	0	0	0	3546	3546	3546	3510	3510	3510	3475	3510	3475	3475	3475	3475	3475	3475	3475	3475	3510	3510	3475	3475	3475	3475	3475	3510	3510	3510	3546	3583	3583	3583	3583	3583	3583	3546	3546	3546	3546	3546	3546	3546	3546	3546	3546	3546	3510	3546	3546	3546	3546	3546	3546	3546	3546	3546	3546	0	5719	5626	5626	5535	5535	5448	5448	5448	5448	5448	5535	5535	5535	5535	5535	5535	5535	5535	5535	5535	5448	5364	5050	4906	4838	4838	4771	4771	4771	4771	4771	4771	4771	4771	4771	4771	4771	4706	4706	4706	4706	4706	4643	4643	4643	4643	4643	4706	4706	4706	4706	4581	4581	4581	4581	4521	4581	4581	4643	4706	4706	4771	4771	4771	4771	4771	4771	4771	4706	4706	4706	4706	4706	4771	4706	4706	4643	4643	4643	4643	4643	4643	4643	4643	4581	4581	4581	4581	4581	4581	4643	4643	4706	4706	4706	4706	4706	4706	4706	4643	4643	4643	4643	4581	4581	4521	4521	4521	4521	4521	4521	4521	4521	4521	4581	4581	4581	4643	4643	4643	4581	4581	4521	4521	4521	4521	4521	4581	4643	4643	4771	4771	4771	4771	4771	4771	4771	4771	4771	4706	4771	4771	4771	4771	4771	4771	4706	4706	4706	4706	4643	4706	4706	4706	4706	4706	4706	4706	4771	4771	4771	4771	4771	4771	4706	4706	4706	4706	4706	4706	4706	4706	4771	4706	4706	4706	4643	4643	4706	4706	4706	4706	4706	4706	4706	4643	4643	4643	4643	4581	4581	4581	4463	4406	4406	4463	4581	4706	4771	4771	4771	4771	4771	4771	4771	4771	4706	4706	4706	8146	8146	8146	7959	7959	8146	8146	7959	7959	7959	8146	8146	8146	8146	8146	8146	8146	8146	8146	8146	8146	8146	8146	8146	8146	8146	8146	8343	8343	8343	8146	8146	0	0	0	0	0	0	0	0	0	0	0	0	0	0	0	0	0	0	8146	8146	8146	8146	7959	7959	8146	8146	7959	0	0	0	0	0	0	0	0	0	0	0	0	0	0	2649	2649	2629	2609	2609	2589	2589	2589	2589	2570	2570	2570	2551	2551	2551	2532	2514	2496	2496	2478	2478	2460	2460	2443	2443	2443	2443	2426	2426	2409	2392	2392	2376	2376	2359	2359	2343	2327	2327	2312	2312	2312	2297	2281	2281	2252	2252	2237	2237	2237	2237	2237	0	0	0	0	0	0	0	0	0	0	0	0	0	0	0	0	0	0	0	0	0	0	0	0	0	0	0	0	0	0	0	0	0	0	0	0
0	0	0	0	0	0	0	0	0	0	0	0	0	0	0	0	0	0	0	0	0	0	0	0	0	0	0	0	0	0	0	0	0	0	0	0	0	0	0	0	0	0	0	0	0	0	0	0	0	0	4463	4463	4192	4192	4296	4350	4350	4350	4521	4521	4581	4581	4581	4581	4581	4581	4581	4643	4706	4643	4581	4581	4581	4581	4581	4581	4581	4581	4643	4706	4643	4706	4706	4706	4706	4706	4643	4643	4643	4643	4706	4706	4706	4706	4706	4643	4643	4643	4581	4581	4581	4581	4643	4643	4643	4643	4643	4643	4643	4643	4581	4581	4581	4581	4581	4581	4581	4643	4643	4643	4643	5125	5202	5202	5202	5125	5125	5125	5050	5125	5125	5125	5125	5125	5125	5050	5050	5125	5125	5915	5626	5364	5282	5282	5282	5125	5202	5125	5050	5125	5125	5050	5050	4977	4977	5050	5125	5125	5050	5125	5125	5125	5202	5125	5202	5282	5202	5202	5202	5282	5282	0	0	0	0	0	0	0	0	0	0	0	0	8146	7959	7959	7959	7959	7779	7779	7959	7959	7959	7959	7959	7959	7959	7959	7779	7779	7608	7608	7608	7608	7608	7608	7608	7608	7608	7608	0	0	0	0	3546	3546	3546	3510	3510	3510	3475	3475	3475	3475	3475	3475	3475	3475	3440	3475	3475	3510	3475	3475	3510	3510	3510	3510	3510	3510	3546	3583	3583	3583	3583	3583	3583	3546	3546	3546	3546	3546	3546	3546	3546	3546	3546	3546	3546	3546	3546	3546	3546	3546	3583	3583	3583	3583	3583	3583	5719	5626	5626	5626	5535	5448	5448	5448	5448	5535	5535	5535	5535	5535	5626	5535	5535	5535	5448	5448	5448	5364	5050	4977	4906	4838	4771	4771	4771	4771	4771	4771	4706	4706	4706	4706	4706	4706	4706	4706	4706	4643	4643	4643	4643	4643	4706	4706	4706	4706	4771	4581	4581	4521	4521	4521	4581	4581	4643	4706	4706	4771	4771	4706	4706	4771	4771	4771	4706	4706	4706	4706	4706	4706	4706	4706	4706	4706	4643	4643	4643	4643	4643	4581	4581	4581	4581	4581	4581	4581	4643	4643	4706	4643	4643	4643	4643	4643	4643	4643	4643	4581	4581	4581	4581	4521	4521	4521	4521	4521	4521	4521	4521	4521	4581	4581	4581	4581	4581	4581	4581	4581	4521	4521	4521	4521	4581	4581	4581	4643	4706	4771	4706	4771	4771	4838	4771	4771	4771	4771	4771	4838	4771	4771	4771	4771	4771	4706	4706	4706	4706	4706	4706	4706	4771	4771	4771	4771	4771	4771	4771	4771	4706	4706	4706	4706	4643	4706	4706	4706	4706	4706	4706	4706	4706	4643	4706	4706	4706	4706	4706	4706	4706	4706	4643	4643	4643	4643	4581	4581	4521	4521	4406	4406	4406	4463	4581	4706	4771	4771	4771	4771	4771	4771	4771	4771	4706	4706	8146	8146	8146	8146	7959	7959	7959	7959	7959	7959	7959	8146	8146	8146	8146	8146	8146	8146	8146	8146	8343	8343	8343	8146	8146	8146	8146	8146	8146	8146	8146	8146	8146	0	0	0	0	0	0	0	0	0	0	0	0	0	0	0	0	0	0	8146	8146	8146	8146	7959	8146	8146	8146	0	0	0	0	0	0	0	0	0	0	0	0	0	0	0	0	2649	2649	2629	2609	2609	2589	2589	2589	2570	2570	2570	2551	2551	2551	2532	2514	2496	2496	2478	2460	2460	2460	2460	2443	2443	2443	2426	2426	2409	2392	2392	2376	2376	2376	2359	2343	2343	2327	2312	2312	2312	2297	2281	2281	2266	2252	2252	2237	2237	2237	2237	0	0	0	0	0	0	0	0	0	0	0	0	0	0	0	0	0	0	0	0	0	0	0	0	0	0	0	0	0	0	0	0	0	0	0	0
0	0	0	0	0	0	0	0	0	0	0	0	0	0	0	0	0	0	0	0	0	0	0	0	0	0	0	0	0	0	0	0	0	0	0	0	0	0	0	0	0	0	0	0	0	0	0	0	0	0	4192	4192	4192	4192	4296	4296	4350	4350	4350	4581	4581	4581	4521	4521	4521	4581	4581	4643	4706	4643	4581	4581	4581	4581	4581	4581	4581	4643	4643	4643	4771	4706	4706	4706	4706	4706	4643	4643	4643	4643	4706	4706	4643	4643	4643	4643	4643	4643	4581	4581	4581	4581	4581	4581	4581	4581	4643	4643	4643	4581	4581	4581	4581	4581	4581	4581	4581	4643	4643	4643	4643	5125	5202	5202	5202	5202	5125	5125	5125	5125	5125	5202	5202	5125	5125	5050	5125	5125	5125	5202	5202	5282	5202	5282	5202	5125	5202	5125	5125	5125	5125	5050	5050	5050	5050	5050	5125	5125	5050	5125	5125	5202	5202	5202	5202	5202	5202	5202	5282	5282	5282	0	0	0	0	0	0	0	0	0	0	0	0	8146	7959	7959	7779	7779	7779	7779	7959	7779	7959	7959	7959	7959	7779	7779	7959	7779	7779	7608	7608	7608	7608	7608	7608	7608	7608	7608	0	0	0	0	3546	3546	3546	3510	3510	3510	3510	3475	3475	3475	3475	3475	3475	3475	3475	3475	3475	3510	3475	3475	3475	3510	3510	3510	3510	3510	3546	3583	3583	3583	3583	3583	3583	3546	3546	3546	3546	3546	3546	3546	3546	3546	3546	3546	3546	3546	3546	3546	3546	3546	3583	3583	3583	3583	3583	3583	0	5626	5626	5626	5535	5448	5448	5448	5448	5535	5535	5535	5535	5535	5535	5535	5535	5535	5448	5535	5448	5364	4977	4977	4838	4838	4771	4771	4771	4771	4771	4706	4706	4706	4706	4706	4706	4706	4706	4706	4706	4643	4643	4643	4643	4706	4706	4771	4771	4706	4771	4706	4521	4521	4521	4521	4581	4581	4581	4643	4706	4706	4706	4706	4706	4706	4706	4771	4706	4706	4706	4706	4706	4706	4706	4706	4706	4706	4643	4706	4643	4643	4643	4643	4643	4643	4581	4581	4581	4581	4643	4643	4706	4643	4643	4643	4643	4643	4706	4643	4643	4581	4581	4581	4581	4521	4521	4521	4521	4521	4521	4521	4521	4521	4581	4581	4581	4581	4581	4581	4581	4581	4521	4521	4521	4521	4581	4581	4581	4643	4706	4706	4706	4771	4771	4771	4771	4771	4771	4706	4771	4771	4771	4771	4706	4706	4706	4706	4706	4706	4706	4706	4771	4771	4771	4771	4771	4771	4771	4771	4771	4771	4706	4706	4706	4643	4643	4706	4643	4643	4706	4706	4706	4706	4706	4643	4706	4706	4706	4706	4706	4706	4706	4706	4706	4643	4643	4643	4643	4581	4521	4463	4406	4350	4406	4406	4521	4643	4771	4771	4771	4771	4771	4771	4771	4771	4838	4838	8146	8146	8146	8146	7959	7959	8146	8146	7959	7959	7959	7959	8146	8146	8146	8146	8146	8146	8146	8343	8343	8343	8146	8146	8146	8146	8146	8146	8146	8146	8146	8146	0	0	0	0	0	0	0	0	0	0	0	0	0	0	0	0	0	0	0	0	8146	8146	8146	7959	8146	8146	0	0	0	0	0	0	0	0	0	0	0	0	0	0	0	0	0	0	2649	2629	2609	2609	2589	2589	2589	2570	2570	2551	2551	2532	2532	2514	2496	2496	2478	2478	2478	2478	2460	2460	2443	2443	2443	2443	2426	2426	2392	2392	2392	2376	2376	2359	2343	2343	2327	2312	2312	2297	2297	2281	2281	2266	2252	2252	2237	2237	2237	2237	0	0	0	0	0	0	0	0	0	0	0	0	0	0	0	0	0	0	0	0	0	0	0	0	0	0	0	0	0	0	0	0	0	0	0	0
0	0	0	0	0	0	0	0	0	0	0	0	0	0	0	0	0	0	0	0	0	0	0	0	0	0	0	0	0	0	0	0	0	0	0	0	0	0	0	0	0	0	0	0	0	0	0	0	0	0	4192	4192	4296	4296	4350	4350	4350	4350	4350	4350	4350	4350	4406	4406	4406	4406	4406	4581	4643	4643	4521	4581	4581	4581	4581	4581	4581	4643	4706	4771	4771	4706	4706	4706	4706	4643	4643	4643	4581	4581	4643	4643	4643	4643	4581	4581	4581	4581	4581	4581	4581	4581	4581	4581	4643	4581	4643	4643	4643	4581	4581	4581	4581	4581	4581	4581	4581	4643	4643	4706	4706	5125	5202	5202	5202	5202	5202	5202	5125	5202	5202	5202	5202	5125	5125	5050	5050	5125	5125	5125	5125	5202	5125	5202	5202	5125	5202	5125	5050	5050	5125	5050	5050	4977	5050	5050	5050	5050	5050	5125	5125	5125	5202	5202	5202	5282	5282	5282	5282	5282	5282	0	0	0	0	0	0	0	0	0	0	0	0	0	7959	7779	7779	7779	7779	7779	7959	7779	7959	7959	7959	7959	7779	7779	7779	7779	7779	7779	7608	7779	7608	7608	7608	7608	7608	7608	0	0	0	0	0	3546	3546	3546	3510	3510	3510	3510	3475	3475	3475	3510	3475	3475	3475	3475	3475	3510	3475	3475	3475	3510	3510	3475	3475	3510	3546	3583	3583	3583	3621	3583	3583	3546	3546	3546	3546	3546	3546	3546	3546	3546	3546	3546	3546	3546	3546	3546	3546	3546	3583	3583	3583	3583	3583	3583	0	5719	5626	5535	5626	5448	5448	5448	5448	5448	5535	5535	5535	5535	5535	5535	5448	5535	5448	5535	5448	5364	4838	4771	4771	4771	4771	4771	4771	4706	4706	4706	4706	4706	4706	4706	4706	4706	4706	4706	4706	4706	4643	4706	4706	4706	4706	4771	4771	4771	4771	4771	4581	4521	4521	4581	4581	4581	4643	4643	4643	4643	4706	4706	4706	4706	4771	4771	4706	4771	4771	4706	4706	4771	4706	4771	4643	4706	4643	4706	4643	4643	4643	4643	4643	4643	4581	4581	4581	4643	4643	4643	4706	4643	4643	4643	4706	4643	4643	4643	4643	4581	4581	4521	4581	4521	4521	4521	4521	4521	4521	4521	4521	4521	4521	4581	4581	4581	4581	4581	4581	4581	4581	4521	4521	4521	4581	4581	4581	4643	4706	4706	4706	4771	4771	4771	4771	4771	4771	4706	4771	4771	4771	4706	4706	4706	4706	4706	4706	4706	4706	4706	4706	4771	4771	4771	4771	4771	4771	4771	4771	4706	4706	4706	4643	4643	4706	4706	4706	4643	4706	4706	4706	4706	4706	4643	4706	4706	4706	4706	4706	4706	4706	4706	4643	4643	4643	4643	4643	4581	4521	4521	4406	4406	4406	4463	4581	4771	4771	4771	4771	4771	4771	4771	4771	4771	4706	4706	8146	8146	8146	7959	7959	7959	7959	7959	7959	7959	7959	8146	8146	8146	8146	8146	8146	8146	8146	8343	8343	8343	8343	8343	8146	8146	8146	8146	8146	7959	7959	8146	0	0	0	0	0	0	0	0	0	0	0	0	0	0	0	0	0	0	0	0	0	0	0	0	0	0	0	0	0	0	0	0	0	0	0	0	0	0	0	0	0	0	0	0	2649	2649	2609	2609	2589	2589	2589	2570	2570	2551	2551	2532	2532	2514	2496	2496	2496	2478	2496	2478	2460	2460	2460	2443	2443	2426	2426	2426	2409	2392	2392	2392	2376	2359	2359	2343	2327	2312	2312	2312	2297	2281	2266	2266	2252	2252	2237	2237	2237	2237	0	0	0	0	0	0	0	0	0	0	0	0	0	0	0	0	0	0	0	0	0	0	0	0	0	0	0	0	0	0	0	0	0	0	0	0
0	0	0	0	0	0	0	0	0	0	0	0	0	0	0	0	0	0	0	0	0	0	0	0	0	0	0	0	0	0	0	0	0	0	0	0	0	0	0	0	0	0	0	0	0	0	0	0	0	0	4296	4296	4296	4296	4296	4350	4296	4296	0	4350	4243	4243	4243	4296	4296	4350	4350	4296	4581	4463	4463	4463	4643	4643	4581	4581	4581	4581	4643	4771	4771	4706	4706	4706	4706	4643	4643	4643	4581	4581	4581	4643	4643	4581	4581	4581	4581	4581	4581	4581	4581	4581	4581	4643	4643	4581	4581	4581	4643	4581	4581	4581	4581	4581	4581	4581	4581	4581	4643	4643	4643	5125	5202	5202	5202	5202	5202	5202	5202	5125	5282	5282	5202	5125	5125	5050	5050	5050	5050	5050	5125	5125	5125	5125	5125	5125	5202	4977	4977	4977	5125	5050	5050	4977	4977	5050	5050	5050	5125	5125	5125	5202	5202	5202	5282	5282	5282	5282	5282	5282	5282	0	0	0	0	0	0	0	0	0	0	0	0	0	0	7779	7779	7779	7779	7779	7959	7779	7959	7959	7959	7959	7779	7779	7779	7608	7608	7608	7608	7608	7608	7608	7608	7608	7608	7608	0	0	0	0	0	3546	3546	3546	3510	3510	3510	3510	3475	3475	3475	3475	3475	3475	3475	3475	3475	3510	3475	3475	3475	3510	3510	3475	3475	3510	3546	3546	3583	3583	3583	3583	3583	3546	3546	3546	3546	3546	3546	3546	3546	3546	3546	3546	3546	3546	3546	3546	3546	3546	3583	3583	3583	3583	3583	3583	0	5815	5626	5535	5535	5448	5448	5448	5448	5535	5535	5535	5535	5535	5535	5535	5535	5535	5535	5535	5448	5364	4838	4838	4771	4771	4771	4771	4771	4706	4706	4706	4706	4706	4706	4706	4706	4706	4706	4706	4706	4706	4706	4706	4706	4706	4706	4771	4771	4771	4771	4771	4581	4581	4581	4581	4581	4581	4581	4643	4706	4706	4643	4643	4706	4706	4706	4706	4706	4706	4771	4706	4706	4771	4706	4771	4643	4643	4643	4706	4643	4643	4643	0	0	0	0	0	4581	4581	4581	4581	4643	4643	4643	4643	4643	4643	4643	4643	4643	4581	4581	4581	4581	4521	4521	4521	4521	4521	4521	4521	4521	4521	4581	4581	4581	4581	4581	4643	4581	4581	4521	4521	4521	4581	4581	4581	4581	4581	4643	4706	4706	4771	4771	4771	4771	4771	4706	4706	4706	4771	4706	4706	4643	4643	4706	4706	4706	4706	4706	4771	4771	4771	4771	4771	4771	4771	4771	4706	4771	4706	4706	4706	4706	4706	4706	4706	4706	4706	4706	4706	4706	4706	4706	4706	4706	4706	4771	4706	4706	4706	4706	4643	4643	4643	4643	4643	4581	4581	4521	4521	4406	4406	4406	4463	4581	4706	4771	4771	4771	4771	4771	4771	4771	4771	4771	8343	8146	8146	8146	7959	7959	7959	7959	7959	7959	7959	7959	8146	8146	8146	8146	8146	8146	8146	8146	8146	8146	8146	8146	8146	8146	8146	8146	8146	8146	7779	7779	0	0	0	0	0	0	0	0	0	0	0	0	0	0	0	0	0	0	0	0	0	0	0	0	0	0	0	0	0	0	0	0	0	0	0	0	0	0	0	0	0	0	0	0	0	2669	2669	2649	2609	2609	2589	2589	2570	2570	2551	2551	2532	2532	2514	2496	2496	2496	2478	2478	2478	2460	2460	2460	2443	2443	2443	2426	2426	2409	2392	2392	2392	2376	2359	2359	2343	2327	2327	2312	2312	2297	2281	2281	2266	2266	2252	2252	2237	2237	2237	0	0	0	0	0	0	0	0	0	0	0	0	0	0	0	0	0	0	0	0	0	0	0	0	0	0	0	0	0	0	0	0	0	0	0	0
0	0	0	0	0	0	0	0	0	0	0	0	0	0	0	0	0	0	0	0	0	0	0	0	0	0	0	0	0	0	0	0	0	0	0	0	0	0	0	0	0	0	0	0	0	0	0	0	0	0	4296	4296	4296	4296	4350	4350	4350	4296	0	0	4243	4243	4243	4243	4243	4296	4296	4296	4581	4581	4581	4643	4643	4643	4643	4581	4643	4643	4643	4771	4706	4706	4706	4706	4706	4706	4643	4643	4643	4643	4643	4643	4643	4643	4581	4581	4581	4581	4581	4581	4581	4581	4581	4643	4581	4581	4581	4581	4581	4581	4581	4581	4581	4581	4581	4581	4581	4643	4706	4706	4706	5125	5125	5282	5202	5202	5202	5202	5202	5202	5282	5282	5202	5202	5202	5050	5050	5050	5050	5050	5125	5125	5050	5125	5125	5125	5202	5125	5050	5050	5050	5050	5050	5050	5050	5125	5125	5125	5125	5125	5125	5202	5202	5282	5282	5282	5364	5364	5282	5364	5364	0	0	0	0	0	0	0	0	0	0	0	0	7779	7608	7608	7608	7779	7779	7779	7959	7779	7959	7959	7959	7959	7779	7779	7608	7608	7608	7608	7608	7608	7608	7608	7608	7608	7608	7608	0	0	0	0	0	3546	3546	3546	3510	3510	3510	3475	3475	3475	3475	3475	3475	3475	3475	3475	3475	3475	3475	3475	3475	3510	3510	3510	3510	3510	3546	3546	3583	3583	3621	3583	3583	3546	3546	3546	3546	3546	3546	3546	3546	3546	3546	3546	3546	3546	3546	3546	3546	3546	3546	3546	3583	3583	3583	3583	3583	5815	5626	5535	5535	5448	5535	5448	5535	5626	5535	5535	5535	5535	5535	5535	5535	5535	5535	5535	5535	5448	5448	4771	4771	4771	4771	4771	4771	4706	4706	4706	4706	4706	4706	4706	4706	4706	4706	4706	4706	4706	4706	4706	4643	4706	4706	4771	4771	4771	4771	4771	4706	4581	4581	4643	4643	4643	4643	4643	4643	4706	4643	4643	4643	4643	4706	4706	4706	4706	4706	4706	4706	4771	4706	4771	4643	4706	4643	4643	4581	4581	4643	0	0	0	0	0	4521	4581	4521	4581	4581	4581	4643	4643	4643	4643	4643	4643	4643	4581	4581	4581	4581	4521	4521	4521	4521	4521	4521	4521	4521	4521	4521	4521	4581	4581	4581	4643	4643	4581	4521	4521	4521	4581	4581	4581	4581	4581	4643	4706	4706	4771	4771	4771	4838	4771	4771	4706	4706	4706	4706	4706	4643	4643	4706	4706	4706	4771	4771	4771	4771	4771	4771	4771	4771	4771	4771	4771	4771	4706	4706	4706	4706	4706	4706	4706	4706	4706	4706	4771	4706	4706	4706	4706	4706	4706	4771	4706	4706	4706	4706	4643	4643	4643	4643	4643	4581	4581	4581	4521	4463	4406	4463	4521	4581	4643	4771	4771	4771	4771	4771	4838	4771	4771	4771	8146	8146	8146	8146	8146	7959	7959	7959	7959	7959	7959	7959	8146	8146	8146	8146	8146	8146	8146	8146	8146	8343	8146	8146	8146	8146	8146	8146	8146	8146	8146	8146	0	0	0	0	0	0	0	0	0	0	0	0	0	0	0	0	0	0	0	0	7959	7959	0	0	0	0	0	0	0	0	0	0	0	0	0	0	0	0	0	0	0	0	0	0	0	2669	2649	2649	2609	2609	2589	2589	2570	2570	2551	2532	2514	2514	2514	2496	2496	2496	2478	2478	2478	2460	2460	2460	2443	2443	2426	2426	2409	2409	2392	2392	2376	2376	2359	2359	2343	2327	2327	2312	2312	2312	2281	2281	2266	2266	2252	2252	2237	2237	2237	0	0	0	0	0	0	0	0	0	0	0	0	0	0	0	0	0	0	0	0	0	0	0	0	0	0	0	0	0	0	0	0	0	0	0	0
0	0	0	0	0	0	0	0	0	0	0	0	0	0	0	0	0	0	0	0	0	0	0	0	0	0	0	0	0	0	0	0	0	0	0	0	0	0	0	0	0	0	0	0	0	0	0	0	0	0	0	4296	4350	4350	4350	4350	4350	0	0	0	0	0	0	4243	4243	4350	4350	4406	4581	4581	4581	4643	4643	4706	4706	4643	4643	4643	4643	4643	4643	4643	4643	4706	4706	4706	4706	4643	4643	4643	4643	4643	4643	4581	4581	4581	4581	4643	4581	4581	4581	4581	4643	4643	4581	4581	4581	4581	4581	4581	4581	4581	4581	4643	4643	4581	4643	4643	4643	4643	4643	5050	5125	5202	5202	5202	5282	5282	5282	5202	5282	5202	5202	5202	5125	5050	5050	5050	5050	5050	5050	5125	5050	5050	5050	5050	5050	5125	5050	5125	5125	5050	5050	5050	5050	5125	5125	5125	5125	5125	5125	5202	5202	5282	5282	5282	5364	5364	5282	5282	5282	0	0	0	0	0	0	0	0	0	0	0	0	7608	7608	7608	7608	7608	7608	7608	7608	7779	7779	7779	7779	7779	7779	7779	7608	7608	7608	7608	0	0	0	0	0	0	0	0	0	0	0	0	3546	3546	3546	3546	3510	3510	3510	3475	3475	3475	3475	3475	3475	3475	3440	3475	3475	3510	3475	3475	3510	3510	3510	3510	3510	3510	3546	3546	3546	3546	3621	3583	3583	3583	3546	3546	3546	3546	3546	3546	3546	3546	3546	3546	3546	3546	3546	3546	3546	3546	3583	3583	3583	3583	3583	3583	3583	0	5626	5535	5535	5448	5535	5535	5535	5626	5535	5626	5626	5626	5535	5535	5535	5535	5535	5535	5535	5535	4771	4771	4771	4771	4771	4771	4771	4706	4706	4706	4706	4706	4706	4706	4706	4706	4706	4706	4706	4706	4706	4706	4706	4706	4706	4706	4771	4706	4771	4706	4581	4581	4581	4643	4643	4643	4643	4643	4706	4706	4643	4643	4643	4643	4706	4706	4706	4771	4771	4771	4771	4771	4771	4771	4643	4706	4706	4643	4581	4581	0	0	0	0	0	0	4521	4581	4521	4521	4581	4581	4643	4643	4706	4643	4706	4643	4643	4581	4581	4581	4581	4581	4521	4521	4521	4521	4521	4521	4521	4521	4521	4521	4581	4581	4581	4643	4643	4581	4521	4521	4521	4581	4581	4581	4581	4581	4643	4643	4643	4706	4771	4771	4771	4771	4706	4706	4706	4706	4643	4643	4643	4643	4706	4706	4771	4771	4771	4771	4771	4771	4771	4771	4771	4771	4706	4706	4771	4706	4706	4706	4706	4706	4706	4706	4706	4706	4706	4706	4706	4706	4706	4706	4706	4706	4706	4706	4706	4706	4706	4643	4643	4643	4643	4581	4581	4521	4521	4521	4463	4463	4463	4521	4581	4706	4771	4706	4771	4771	4838	4838	4838	4771	4771	8146	8146	8146	8146	8146	8146	8146	7959	7959	7959	7959	7959	8146	8146	8146	8146	8146	8146	8146	8146	8146	8146	8146	8146	8146	8146	8146	8146	7959	7959	8146	8146	0	0	0	0	0	0	0	0	0	0	0	0	0	0	0	0	0	0	7608	7779	7779	7779	0	0	0	0	0	0	0	0	0	0	0	0	0	0	0	0	0	0	0	0	0	0	2669	2669	2669	2649	2629	2609	2589	2589	2570	2570	2551	2532	2514	2514	2496	2496	2496	2478	2478	2478	2478	2460	2460	2460	2443	2443	2426	2426	2409	2409	2392	2392	2376	2376	2376	2359	2359	2327	2327	2327	2312	2312	2297	2281	2266	2266	2252	2252	2237	2237	2237	0	0	0	0	0	0	0	0	0	0	0	0	0	0	0	0	0	0	0	0	0	0	0	0	0	0	0	0	0	0	0	0	0	0	0	0
0	0	0	0	0	0	0	0	0	0	0	0	0	0	0	0	0	0	0	0	0	0	0	0	0	0	0	0	0	0	0	0	0	0	0	0	0	0	0	0	0	0	0	0	0	0	0	0	0	0	0	0	4350	4350	4350	4350	4406	4406	0	0	0	0	0	0	0	4406	4406	4521	4521	4581	4581	4643	4643	4706	4706	4643	4643	4643	4643	4643	4643	4643	4643	4706	4643	4643	4706	4706	4643	4643	4643	4643	4643	4581	4581	4581	4581	4581	4581	4581	4581	4581	4643	4643	4581	4643	4643	4643	4643	4581	4581	4581	4581	4581	4643	4643	4643	4643	4643	4643	4977	5125	5125	5202	5282	5282	5282	5282	5282	5282	5282	5282	5202	5125	5125	5050	5050	5050	5050	4977	4977	5050	5050	5050	5050	5050	5202	5202	5050	5125	5125	5125	5125	5050	5125	5202	5202	5125	5125	5202	5125	5125	5125	5202	5282	5282	5282	5282	5282	5282	5282	0	0	0	0	0	0	0	0	0	0	0	0	7608	7608	7608	7608	7608	7608	7608	7608	7608	7779	7608	7779	7779	7779	7608	7608	7608	7608	7608	0	0	0	0	0	0	0	0	0	0	0	0	3546	3546	3546	3546	3546	3510	3510	3475	3475	3475	3475	3475	3475	3475	3440	3475	3440	3475	3475	3510	3510	3510	3546	3510	3510	3546	3546	3546	3583	3583	3583	3583	3583	3583	3546	3546	3546	3546	3546	3546	3546	3546	3546	3546	3546	3546	3583	3546	3583	3583	3583	3583	3583	3583	3583	3583	3583	0	5535	5535	5535	5535	5535	5535	5535	5626	5535	5626	5626	5626	5535	5535	5448	5535	5535	5535	5535	5535	4771	4771	4771	4771	4771	4771	4706	4706	4706	4706	4706	4706	4706	4706	4706	4706	4706	4706	4706	4706	4706	4706	4706	4706	4706	4771	4771	4771	4771	4771	4581	4581	4581	4643	4643	4643	4643	4643	4706	4706	4706	4643	4643	4643	4706	4706	4706	4706	4771	4771	4771	4771	4706	4706	4643	4643	4643	4643	4643	4581	0	0	0	0	0	0	0	0	4521	4521	4581	4581	4581	4643	4643	4643	4643	4643	4643	4643	4643	4581	4581	4581	4581	4521	4581	4521	4521	4521	4521	4521	4521	4521	4521	4521	4521	4581	4581	4581	4521	4521	4521	4581	4581	4581	4581	4581	4643	4643	4643	4706	4771	4771	4771	4771	4706	4706	4706	4643	4643	4643	4643	4643	4643	4706	4771	4771	4771	4771	4771	4771	4771	4771	4771	4771	4706	4706	4771	4706	4706	4706	4706	4706	4706	4771	4706	4706	4706	4706	4706	4706	4706	4706	4706	4706	4706	4706	4706	4706	4706	4643	4643	4643	4581	4581	4521	4463	4463	4463	4463	4463	4521	4581	4581	4643	4643	4706	4771	4838	4838	4838	4838	4771	4771	8343	8343	8146	8146	8146	8146	8146	8146	8146	8146	7959	7959	8146	8146	8146	8146	8146	8146	8146	8146	8343	8343	8146	8146	8146	8146	8146	8146	8146	7959	0	0	0	0	0	0	0	0	0	0	0	0	0	0	0	0	0	0	0	7444	7608	7608	7779	7779	0	0	0	0	0	0	0	0	0	0	0	0	0	0	0	0	0	0	0	0	0	0	2669	2669	2669	2649	2609	2609	2589	2589	2570	2570	2551	2532	2514	2514	2496	2496	2496	2478	2478	2478	2478	2460	2460	2460	2443	2443	2426	2409	2409	2392	2392	2392	2376	2376	2359	2359	2343	2327	2327	2312	2312	2312	2297	2281	2266	2266	2252	2252	2252	2237	2237	0	0	0	0	0	0	0	0	0	0	0	0	0	0	0	0	0	0	0	0	0	0	0	0	0	0	0	0	0	0	0	0	0	0	0	0
0	0	0	0	0	0	0	0	0	0	0	0	0	0	0	0	0	0	0	0	0	0	0	0	0	0	0	0	0	0	0	0	0	0	0	0	0	0	0	0	0	0	0	0	0	0	0	0	0	0	0	0	4521	4521	4463	4463	4463	4406	0	0	0	0	0	0	0	4406	4406	4463	4521	4581	4581	4643	4643	4706	4706	4643	4643	4643	4643	4643	4643	4643	4643	4643	4643	4643	4643	4643	4643	4643	4643	4643	4643	4581	4521	4581	4581	4581	4581	4581	4581	4581	4643	4581	4581	4581	4581	4581	4581	4581	4581	4581	4581	4581	4643	4643	4643	4643	4643	4771	4977	5050	5125	5202	5202	5202	5202	5202	5202	5282	5282	5202	5202	5125	5125	5050	5050	4977	4977	4977	4977	5050	5050	4977	4977	5050	5202	5202	5125	5050	5125	5125	5125	5050	5125	5202	5202	5125	5202	5202	5125	5125	5125	5202	5282	5202	5282	5282	5202	5202	5202	0	0	0	0	0	0	0	0	0	0	0	0	7608	7779	7608	7608	7608	7608	7608	7608	7608	7608	7608	7608	7608	7779	7608	7608	7608	7608	7608	0	0	0	0	0	0	0	0	0	0	0	0	3510	3510	3546	3546	3510	3510	3510	3510	3510	3475	3475	3475	3475	3475	3440	3440	3440	3510	3510	3510	3510	3510	3546	3546	3546	3546	3546	3583	3583	3583	3621	3583	3583	3583	3546	3546	3546	3546	3546	3546	3546	3546	3546	3546	3546	3546	3583	3546	3583	3583	3583	3583	3583	3583	3621	3583	3583	0	5535	5535	5535	5535	5535	5535	5535	5626	5535	5626	5535	5626	5535	5535	5535	5535	5535	5535	5535	4771	4771	4771	4771	4771	4771	4771	4706	4706	4706	4706	4706	4706	4771	4706	4706	4706	4706	4706	4706	4706	4706	4706	4706	4706	4706	4771	4771	4771	4771	4771	4706	4581	4581	4643	4643	4643	4706	4706	4706	4706	4706	4643	4643	4643	4706	4706	4706	4771	4771	4771	4771	4771	4771	4706	4643	4706	4706	4643	4581	4581	4581	0	0	0	0	0	0	0	0	4521	4581	4581	4643	4643	4643	4643	4706	4643	4643	4643	4643	4581	4581	4581	4581	4521	4521	4521	4521	4521	4521	4521	4521	4521	4521	4521	4521	4581	4581	4581	4521	4463	4521	4581	4581	4581	4581	4581	4581	4643	4643	4706	4706	4706	4771	4706	4706	4706	4643	4643	4643	4643	4643	4643	4643	4706	4706	4771	4771	4771	4771	4771	4771	4771	4771	4706	4706	4706	4771	4706	4771	4706	4771	4771	4706	4771	4771	4706	4706	4706	4771	4771	4771	4706	4771	4771	4706	4706	4706	4706	4643	4643	4643	4581	4581	4521	4521	4463	4463	4521	4463	4463	4521	4581	4581	4643	4706	4706	4771	4771	4771	4771	4771	4771	4771	8343	8343	8146	8146	8146	8146	8146	8146	8146	8146	8146	8146	8146	8146	8146	8146	8146	8146	8146	8146	8146	8146	8146	8146	8146	8146	8146	7959	7959	0	0	0	0	0	0	0	0	0	0	0	0	0	0	0	0	0	7287	7287	7444	7444	7608	7608	7779	7779	7779	0	0	0	0	0	0	0	0	0	0	0	0	0	0	0	0	0	0	0	0	0	0	2669	2669	2649	2629	2609	2589	2589	2570	2570	2551	2532	2514	2514	2514	2496	2496	2496	2478	2478	2478	2478	2460	2460	2460	2443	2426	2426	2409	2409	2392	2392	2376	2376	2359	2343	2343	2327	2327	2312	2312	2297	2297	2281	2266	2266	2252	2252	2252	2252	2252	0	0	0	0	0	0	0	0	0	0	0	0	0	0	0	0	0	0	0	0	0	0	0	0	0	0	0	0	0	0	0	0	0	0	0	0
0	0	0	0	0	0	0	0	0	0	0	0	0	0	0	0	0	0	0	0	0	0	0	0	0	0	0	0	0	0	0	0	0	0	0	0	4643	4581	4581	4581	4521	4521	0	0	0	0	0	0	0	0	4581	4521	4581	4521	4521	4521	4521	4521	0	0	0	0	0	0	0	4406	4521	4581	4581	4581	4643	4706	4706	4706	4706	4643	4706	4643	4643	4643	4643	4643	4643	4643	4643	4643	4643	4643	4643	4643	4581	4581	4581	4581	4521	4521	4521	4581	4581	4581	4581	4581	4643	4643	4643	4581	4643	4643	4581	4581	4581	4581	4581	4581	4643	4643	4643	4643	4706	4771	4906	5050	5050	5125	5202	5202	5202	5202	5202	5282	5282	5364	5282	5202	5282	5202	5050	4977	4906	4906	4906	4977	4977	4977	4977	5050	5202	5125	5125	5050	5125	5125	5050	5050	5050	5125	5202	5202	5125	5202	5202	5202	5202	5202	5282	5282	5202	5202	5202	5202	5202	0	0	0	0	0	0	0	0	0	0	0	0	0	7779	7608	7608	7608	7287	7444	7444	7444	7608	7608	7608	7608	7608	7608	7608	7444	7608	7444	7444	0	0	0	0	0	0	0	0	0	0	0	3510	3546	3546	3546	3510	3510	3510	3510	3510	3475	3475	3475	3475	3475	3440	3440	3440	3510	3510	3510	3510	3546	3546	3546	3546	3546	3546	3583	3583	3583	3546	3546	3546	3546	3546	3546	3546	3546	3546	3546	3546	3546	3546	3546	3546	3546	3583	3546	3583	3583	3583	3583	3583	3583	3583	3583	3583	0	5535	5535	5535	5535	5535	5535	5626	5626	5535	5535	5626	5626	5535	5535	5535	5535	5535	5535	5626	5626	4771	4771	4771	4771	4771	4771	4706	4706	4706	4706	4706	4706	4771	4771	4771	4706	4706	4706	4706	4706	4706	4706	4706	4706	4706	4771	4771	4771	4771	4706	4706	4581	4581	4643	4643	4643	4643	4643	4706	4706	4706	4643	4643	4643	4706	4706	4706	4706	4771	4706	4771	4771	4706	4706	4643	4643	4643	4643	4581	4581	4581	0	0	0	0	0	0	0	0	0	0	4581	4643	4643	4643	4643	4706	4706	4643	4643	4643	4581	4581	4581	4581	4521	4521	4521	4521	4521	4521	4521	4521	4521	4521	4521	4521	4581	4521	4521	4521	4463	4463	4581	4581	4581	4643	4581	4643	4643	4643	4706	4771	4706	4706	4771	4706	4643	4643	4581	4581	4581	4581	4643	4643	4706	4706	4771	4771	4771	4706	4771	4771	4771	4771	4706	4706	4706	4771	4771	4771	4771	4771	4771	4771	4771	4771	4771	4771	4706	4771	4771	4771	4706	4706	4706	4706	4706	4706	4706	4643	4643	4643	4643	4581	4581	4521	4463	4521	4581	4581	4581	4581	4581	4581	4643	4643	4643	4706	4771	4771	4771	4771	4771	8146	8343	8146	8146	8146	8146	8146	8146	8146	8146	8146	8146	8146	8343	8146	8146	8146	8146	8146	8146	8146	8146	8146	8146	8146	8146	8146	8146	8146	8146	0	0	0	0	0	0	0	0	0	0	0	0	0	0	0	7287	7287	7287	7287	7287	7444	7444	7608	7779	7779	7779	0	0	0	0	0	0	0	0	0	0	0	0	0	0	0	0	0	0	0	0	0	0	2649	2629	2629	2609	2589	2589	2589	2570	2570	2551	2532	2514	2514	2514	2496	2496	2496	2478	2478	2478	2460	2460	2460	2460	2443	2426	2426	2426	2392	2392	2376	2376	2376	2359	2343	2343	2327	2327	2312	2312	2297	2297	2281	2266	2266	2252	2252	2252	2237	2237	0	0	0	0	0	0	0	0	0	0	0	0	0	0	0	0	0	0	0	0	0	0	0	0	0	0	0	0	0	0	0	0	0	0	0	0
0	0	0	0	0	0	0	0	0	0	0	0	0	0	0	0	0	0	0	0	0	0	0	0	0	0	0	0	0	0	0	0	0	0	4706	4643	4643	4581	4581	4581	4581	4581	0	0	0	0	0	0	4581	4581	4643	4581	4643	4581	4581	4581	4581	4581	4706	4706	0	0	0	0	0	4581	4581	4581	4581	4643	4643	4706	4706	4706	4706	4643	4643	4643	4581	4581	4581	4581	4581	4643	4581	4643	4643	4643	4643	4643	4643	4581	4581	4581	4521	4521	4581	4581	4581	4581	4581	4581	4643	4643	4643	4581	4643	4581	4581	4581	4581	4581	4581	4581	4643	4643	4643	4643	4706	4771	4838	4906	5050	5050	5125	5202	5202	5282	5282	5282	5282	5719	5719	5202	5282	5202	5050	4977	4977	4977	4906	5050	5050	5050	5050	5050	5125	5125	5125	5050	5125	5125	5125	5125	5125	5125	5202	5202	5202	5202	5202	5202	5202	5202	5202	5202	5202	5202	5202	5125	5125	0	0	0	0	0	0	0	0	0	0	0	0	0	0	7444	7444	7444	7444	7444	7444	7608	7608	7608	7608	7608	7608	7608	7608	7608	7608	7608	7608	0	0	0	0	0	7779	7779	0	0	0	0	3510	3510	3510	3510	3510	3510	3510	3510	3510	3475	3475	3475	3475	3475	3440	3440	3475	3510	3510	3510	3510	3546	3546	3546	3546	3546	3546	3546	3583	3583	3546	3546	3546	3583	3546	3546	3546	3546	3546	3546	3546	3546	3546	3546	3546	3546	3583	3546	3583	3583	3583	3583	3583	3583	3583	3583	3583	0	5535	5626	5535	5535	5535	5535	5626	5626	5535	5626	5626	5626	5626	5535	5535	5535	5535	5535	5535	4771	4771	4771	4771	4771	4771	4771	4706	4706	4706	4706	4706	4706	4771	4771	4771	4706	4706	4706	4706	4706	4706	4706	4706	4706	4706	4771	4771	4771	4771	4706	4706	4581	4581	4581	4581	4581	4581	4643	4643	4706	4643	4643	4643	4643	4706	4706	4706	4706	4706	4706	4706	4706	4706	4643	4643	4706	4706	4643	4643	4643	0	0	0	0	0	0	0	0	0	0	0	4581	4643	4643	4643	4643	4643	4706	4643	4643	4643	4581	4581	4581	4581	4521	4521	4521	4521	4521	4521	4521	4521	4521	4521	4521	4521	4521	4521	4521	4521	4406	4463	4581	4581	4643	4643	4643	4581	4581	4643	4643	4643	4643	4706	4706	4643	4643	4643	4581	4581	4581	4581	4581	4643	4643	4643	4643	4706	4706	4706	4706	4706	4706	4706	4706	4706	4706	4771	4771	4771	4771	4771	4771	4706	4706	4706	4706	4643	4706	4706	4706	4706	4706	4706	4706	4706	4706	4706	4643	4643	4643	4581	4581	4581	4521	4521	4463	4521	4581	4521	4521	4521	4581	4581	4643	4643	4643	4643	4706	4706	4706	4706	4706	8146	8146	8146	8146	8146	8146	8146	8343	8146	8146	8146	8146	8146	8343	8343	8343	8146	8146	8146	8146	8146	8146	8146	8146	8146	8146	8146	8146	8146	8146	0	0	0	0	0	0	0	0	0	0	0	0	0	0	0	7287	7287	7287	7287	7287	7287	7444	7444	7444	7444	7779	0	0	0	0	0	0	0	0	0	0	0	0	0	0	0	0	0	0	0	0	0	0	2629	2629	2609	2589	2589	2589	2589	2570	2570	2570	2551	2532	2514	2514	2496	2496	2478	2478	2478	2478	2460	2460	2460	2460	2443	2426	2426	2409	2409	2392	2376	2376	2376	2359	2343	2343	2327	2327	2327	2312	2312	2297	2281	2266	2266	2252	2252	2252	2237	2237	0	0	0	0	0	0	0	0	0	0	0	0	0	0	0	0	0	0	0	0	0	0	0	0	0	0	0	0	0	0	0	0	0	0	0	0
0	0	0	0	0	0	0	0	0	0	0	0	0	0	0	0	0	0	0	0	0	0	0	0	0	0	0	0	0	0	0	0	0	4706	4643	4581	4581	4581	4581	4581	4581	4581	4581	4581	4581	4581	4581	4581	4581	4581	4581	4581	4581	4581	4581	4581	4581	4581	4581	4706	4706	0	0	0	0	4581	4581	4581	4581	4643	4643	4643	4643	4706	4643	4643	4643	4581	4581	4581	4581	4581	4581	4643	4581	4643	4643	4643	4643	4643	4643	4643	4581	4581	4521	4581	4581	4643	4581	4581	4643	4643	4643	4643	4643	4643	4643	4643	4581	4581	4581	4581	4581	4643	4643	4643	4643	4643	4643	4643	4706	4838	4838	5125	5125	5125	5202	5202	5282	0	0	5719	5719	0	0	5202	5050	4906	4977	5050	5050	5125	5125	5050	5050	5050	5125	5125	5125	5050	5125	5125	5125	5125	5202	5202	5202	5202	5125	5202	5125	5202	5202	5202	5202	5202	5202	5202	5125	5050	5050	0	0	0	0	0	0	0	0	0	0	0	0	0	0	7444	7287	7287	7444	7444	7444	7608	7444	7608	7608	7608	7608	7608	7608	7608	7608	7608	7444	7444	7608	7608	7608	0	7779	7779	0	0	0	0	3546	3546	3546	3546	3510	3510	3510	3510	3510	3475	3475	3475	3475	3475	3475	3475	3475	3510	3510	3510	3510	3510	3546	3546	3583	3583	3583	3583	3583	3583	3546	3546	3546	3546	3546	3546	3546	3546	3546	3546	3546	3546	3546	3546	3546	3546	3583	3583	3583	3583	3583	3583	3621	3583	3583	3583	3583	0	5535	5535	5535	5535	5535	5535	5535	5535	5535	5626	5626	5626	5626	5535	5535	5535	5626	5535	5535	4771	4771	4771	4771	4771	4771	4771	4706	4706	4706	4706	4706	4706	4706	4771	4771	4706	4706	4706	4706	4706	4706	4706	4706	4706	4706	4771	4771	4771	4771	4771	4706	4581	4581	4581	4521	4581	4581	4581	4581	4643	4643	4581	4643	4643	4643	4706	4706	4706	4706	4706	4706	4643	4643	4643	4581	4581	4643	4643	4643	4643	0	0	0	0	0	0	0	0	0	0	0	0	4643	4581	4643	4643	4643	4706	4643	4643	4643	4581	4581	4581	4521	4521	4521	4521	4521	4521	4521	4521	4521	4521	4521	4521	4521	4581	4521	4581	4581	4463	4463	4643	4643	4643	4643	4581	4581	4643	4643	4643	4643	4643	4643	4643	4643	4581	4581	4581	4581	4581	4581	4581	4581	4581	4581	4643	4643	4643	4643	4643	4706	4706	4706	4706	4706	4771	4771	4771	4771	4771	4771	4706	4706	4643	4643	4643	4643	4643	4706	4706	4706	4643	4643	4706	4581	4581	4581	4581	4581	4581	4581	4581	4521	4463	4521	4463	4521	4581	4521	4581	4581	4581	4581	4643	4643	4643	4643	4706	4706	4706	4706	4706	8146	8146	8146	8146	8146	8146	8146	8343	8146	8146	8146	8146	8146	8343	8343	8343	8343	8343	8343	8343	8146	8146	8146	8146	8146	8146	8146	8146	8146	0	0	0	0	0	0	0	0	0	0	0	0	0	0	7287	7287	7287	7287	7287	7287	7137	7137	7137	7444	7287	7287	0	0	0	0	0	0	0	0	0	0	0	0	0	0	0	0	0	0	0	0	0	0	0	2629	2609	2609	2589	2589	2589	2570	2570	2570	2551	2532	2514	2514	2514	2496	2496	2478	2478	2478	2478	2460	2460	2460	2443	2443	2426	2426	2409	2409	2392	2376	2376	2376	2359	2343	2343	2327	2327	2312	2312	2297	2297	2266	2266	2252	2252	2252	2252	2237	2237	0	0	0	0	0	0	0	0	0	0	0	0	0	0	0	0	0	0	0	0	0	0	0	0	0	0	0	0	0	0	0	0	0	0	0	0
0	0	0	0	0	0	0	0	0	0	0	0	0	0	0	0	0	0	0	0	0	0	0	0	0	0	0	0	0	0	0	4706	4771	4706	4643	4643	4643	4581	4581	4581	4581	4581	4581	4581	4581	4581	4521	4521	4521	4581	4581	4581	4581	4581	4581	4581	4581	4581	4581	4706	4706	0	0	0	0	4643	4581	4581	4581	4643	4643	4643	4643	4643	4643	4643	4643	4643	4581	4581	4581	4581	4581	4643	4581	4643	4643	4643	4643	4643	4643	4581	4581	4581	4581	4581	4581	4581	4581	4581	4643	4643	4643	4581	4581	4581	4643	4643	4581	4581	4581	4581	4581	4581	4643	4581	4643	4643	4643	4643	4706	4838	5050	5125	5125	5202	5202	5202	0	0	0	0	0	0	0	0	0	4906	4977	5125	5125	5125	5125	5050	5050	5050	5125	5125	5125	5050	5050	5202	5202	5202	5202	5202	5202	5202	5125	5125	5125	5125	5202	5202	5202	5125	5125	5202	5125	5050	5050	0	0	0	0	0	0	0	0	0	0	0	0	0	0	0	7287	7444	7444	7608	7608	7608	7608	7608	7608	7608	7608	7608	7608	7608	7608	7779	7608	7608	7608	7608	7608	7608	7779	7779	7779	0	0	0	3546	3546	3546	3546	3510	3510	3510	3510	3510	3510	3510	3510	3510	3475	3475	3475	3475	3475	3510	3510	3510	3546	3546	3546	3546	3546	3546	3583	3621	3621	3546	3546	3546	3583	3546	3546	3546	3546	3546	3546	3546	3546	3546	3546	3546	3546	3583	3583	3583	3583	3583	3583	3621	3621	3583	3583	3583	3583	5535	5535	5535	5535	5448	5535	5535	5535	5535	5535	5535	5626	5626	5535	5535	5535	5535	5448	5448	4771	4771	4771	4771	4771	4771	4706	4706	4706	4706	4706	4706	4706	4706	4706	4706	4706	4706	4706	4706	4706	4706	4706	4706	4706	4706	4771	4771	4771	4771	4706	4643	4581	4521	4521	4521	4521	4521	4521	4521	4581	4581	4581	4581	4581	4643	4643	4581	4581	4581	4581	4581	4581	4581	4581	4581	4643	4643	0	0	0	0	0	0	0	0	0	0	0	0	0	0	0	4581	4581	4643	4643	4643	4706	4643	4643	4581	4581	4581	4581	4521	4521	4521	4521	4521	4521	4521	4521	4521	4521	4521	4521	4521	4581	4521	4521	4521	4643	4463	4706	4706	4706	4643	4643	4581	4581	4581	4643	4581	4581	4581	4581	4581	4521	4581	4581	4581	4521	4521	4521	4581	4521	4521	4581	4581	4581	4581	4643	4706	4643	4706	4706	4706	4706	4771	4771	4771	4706	4706	4643	4643	4643	4643	4581	4581	4581	4521	4521	4521	4521	4521	4581	4581	4581	4581	4581	4581	4581	4521	4521	4463	4463	4521	4463	4521	4521	4521	4521	4581	4581	4581	4643	4643	4643	4706	4706	4706	4706	4706	4706	8146	8146	8146	8146	8146	8146	8146	8146	8146	8146	8146	8146	8146	8343	8343	8343	8343	8343	8343	8343	8146	8146	8146	8146	8146	8146	8146	8146	0	0	0	0	0	0	0	0	0	0	0	0	7137	7137	7137	7287	7137	7137	7137	7287	7137	7137	7137	7137	7287	7137	7287	7287	0	0	0	0	0	0	0	0	0	0	0	0	0	0	0	0	0	0	0	0	0	0	0	2609	2609	2589	2589	2589	2570	2570	2570	2551	2551	2532	2514	2514	2496	2496	2496	2478	2496	2478	2478	2460	2460	2443	2426	2426	2409	2409	2409	2392	2376	2376	2376	2359	2343	2327	2327	2312	2312	2297	2297	2281	2266	2266	2266	2252	2252	2252	2237	2237	0	0	0	0	0	0	0	0	0	0	0	0	0	0	0	0	0	0	0	0	0	0	0	0	0	0	0	0	0	0	0	0	0	0	0	0
0	0	0	0	0	0	0	0	0	0	0	0	0	0	0	0	0	0	0	0	0	0	0	0	0	0	0	0	0	0	0	4771	4771	4706	4643	4643	4643	4581	4581	4581	4581	4581	4581	4581	4581	4521	4581	4581	4643	4581	4581	4581	4581	4581	4581	4581	4581	4581	4581	4706	4706	4643	4643	4643	4643	4643	4643	4643	4581	4643	4643	4706	4643	4643	4643	4643	4643	4581	4581	4581	4581	4581	4643	4581	4581	4643	4643	4643	4643	4643	4643	4581	4581	4581	4581	4581	4581	4581	4581	4581	4643	4643	4643	4643	4581	4581	4581	4643	4581	4581	4581	4581	4581	4643	4643	4581	4643	4643	4643	4706	4706	4838	5050	5125	5125	5202	5202	5202	0	0	0	0	0	0	0	0	0	0	0	5125	5125	5125	5125	5050	5050	5050	5125	5125	5125	5125	5125	5202	5202	5202	5202	5202	5202	5202	5125	5125	5125	5125	5125	5125	5125	5125	5125	5125	5125	5050	5050	0	0	0	0	0	0	0	0	0	0	0	0	0	0	0	7287	7608	7608	7779	7608	7608	7608	7608	7608	7608	7608	7608	7608	7608	7608	7779	7608	7608	7608	7608	7608	7608	7779	7779	7779	0	0	0	3546	3546	3546	3546	3510	3510	3510	3510	3510	3510	3510	3510	3510	3475	3475	3475	3475	3510	3475	3510	3510	3510	3546	3546	3546	3546	3546	3546	3546	3621	0	0	3546	3546	3546	3546	3546	3546	3546	3546	3546	3546	3546	3546	3546	3546	3546	3546	3583	3583	3583	3583	3583	3583	3583	3583	3583	3583	0	5535	5448	5448	5448	5448	5448	5448	5448	5448	5448	5448	5535	5535	5535	5448	5448	5448	5448	5535	4771	4771	4771	4771	4771	4771	4706	4706	4706	4706	4706	4706	4706	4706	4771	4706	4706	4706	4706	4706	4706	4706	4706	4706	4706	4771	4771	4771	4771	4771	4706	4581	4521	4463	4463	4521	4463	4463	4463	4521	4521	4521	4521	4521	4521	4521	4521	4521	4521	4581	4581	4521	4521	4521	4521	4521	4643	0	0	0	0	0	0	0	0	0	0	0	0	4463	4406	4463	4521	4581	4581	4581	4581	4643	4643	4581	4581	4581	4521	4521	4521	4521	4521	4521	4521	4521	4521	4521	4521	4521	4463	4463	4406	4406	4406	4406	4406	4463	4463	4521	4643	4643	4581	4581	4521	4581	4581	4581	4521	4521	4463	4521	4463	4463	4521	4521	4521	4521	4521	4463	4521	4521	4463	4521	4521	4581	4581	4643	4643	4643	4706	4643	4643	4643	4706	4706	4706	4706	4706	4643	4643	4643	4581	4463	4463	4463	4463	4463	4463	4521	4463	4581	4521	4521	4521	4521	4521	4521	4521	4521	4463	4463	4463	4521	4463	4521	4521	4521	4581	4521	4581	4643	4643	4643	4643	4643	4643	4643	4643	4643	7959	8146	8146	8146	8146	8146	8146	8146	8146	8146	8146	8146	8146	8343	8343	8343	8343	8343	8343	8146	8146	8146	8146	8146	8146	8146	7959	7959	0	0	0	0	0	0	0	0	0	0	0	7137	7137	7137	7137	7287	7137	7137	7287	7287	7287	7137	7137	7137	7287	7137	7137	7137	0	0	0	0	0	0	0	0	0	0	0	0	0	0	0	0	0	0	0	0	0	0	0	2609	2609	2609	2589	2589	2570	2570	2570	2551	2532	2514	2514	2514	2496	2496	2478	2478	2496	2478	2478	2478	2460	2460	2443	2426	2409	2409	2409	2392	2376	2376	2359	2343	2327	2327	2327	2312	2312	2297	2281	2281	2266	2266	2252	2252	2252	2252	2237	2237	0	0	0	0	0	0	0	0	0	0	0	0	0	0	0	0	0	0	0	0	0	0	0	0	0	0	0	0	0	0	0	0	0	0	0	0
0	0	0	0	0	0	0	0	0	0	0	0	0	0	0	0	0	0	0	0	0	0	0	0	0	0	0	0	0	0	0	4771	4771	4706	4643	4643	4581	4581	4581	4581	4521	4521	4581	4581	4581	4581	4581	4581	4643	4581	4581	4581	4581	4581	4581	4581	4581	4581	4643	4643	4643	4643	4643	4643	4643	4643	4643	4581	4643	4643	4643	4643	4643	4643	4643	4643	4643	4581	4581	4581	4581	4643	4643	4643	4581	4643	4643	4643	4643	4643	4643	4581	4581	4581	4581	4521	4521	4581	4581	4581	4581	4581	4581	4643	4581	4581	4581	4581	4581	4581	4581	4581	4581	4643	4643	4581	4581	4643	4643	4643	4706	4706	4977	5050	5125	5125	5125	0	0	0	0	0	0	0	0	0	0	0	0	4977	5125	5125	5125	5125	5050	5050	5125	5125	5125	5125	5125	5202	5202	5202	5202	5202	5202	5202	5125	5125	5125	5125	5125	5125	5125	5125	5125	5125	5125	5050	5050	0	0	0	0	0	0	0	0	0	0	0	0	0	0	0	0	7287	7608	7779	7608	7608	7608	7608	7608	7608	7608	7608	7608	7608	7608	7608	7444	7608	7608	7608	7608	7608	7608	7779	7779	0	0	0	3546	3546	3546	3546	3546	3510	3510	3510	3510	3510	3510	3510	3510	3510	3510	3475	3475	3510	3510	3510	3510	3546	3510	3546	3546	3546	3546	3546	3546	0	0	0	3546	3546	3546	3546	3546	3546	3546	3546	3546	3546	3546	3546	3546	3546	3546	3546	3583	3583	3583	3583	3583	3583	3583	3583	3583	3583	5535	5535	5448	5448	5448	5448	5448	5448	5448	5535	5535	5535	5535	5535	5535	5535	5535	5535	5535	5535	4771	4771	4771	4771	4771	4771	4706	4706	4706	4706	4706	4706	4706	4771	4771	4706	4771	4771	4706	4706	4706	4706	4706	4706	4706	4771	4771	4771	4771	4771	4706	4643	4521	4521	4463	4463	4463	4463	4406	4406	4463	4463	4463	4463	4463	4463	4463	4521	4521	4521	4521	4521	4521	4521	4463	4463	0	0	4581	4581	4521	4581	4643	4643	4581	4463	4463	0	4463	4463	4406	4406	4463	4521	4521	4521	4581	4581	4581	4581	4521	4521	4521	4521	4521	4521	4521	4521	4521	4463	4463	4521	4521	4463	4463	4463	4406	4406	4406	4350	4463	4463	4463	4521	4581	4581	4521	4521	4463	4521	4521	4581	4463	4521	4463	4521	4521	4463	4463	4521	4463	4463	4463	4463	4463	4463	4406	4463	4463	4463	4521	4581	4643	4643	4643	4643	4643	4643	4643	4643	4706	4706	4643	4643	4643	4581	4521	4463	4463	4463	4463	4463	4463	4463	4463	4521	4463	4521	4521	4521	4521	4521	4521	4521	4463	4463	4463	4463	4406	4463	4406	4406	4406	4521	4581	4581	4643	4643	4706	4643	4643	4643	4643	4643	4643	8146	8146	8146	8146	8146	8146	8146	8146	8146	8146	8146	8146	8343	8343	8343	8343	8343	8343	8146	8146	8146	8146	8146	8146	8146	7959	7779	7779	0	0	0	0	0	0	0	0	0	0	7137	7137	7137	7137	7137	7137	7137	7137	7287	7137	7137	7137	6992	7137	6992	6992	6992	6992	0	0	0	0	0	0	0	0	0	0	0	0	0	0	0	0	0	0	0	0	0	0	2629	2609	2609	2589	2589	2570	2570	2551	2551	2532	2514	2514	2514	2496	2496	2496	2478	2496	2496	2478	2478	2460	2443	2443	2426	2426	2409	2409	2392	2359	2359	2359	2343	2327	2327	2327	2312	2312	2297	2297	2281	2266	2266	2252	2252	2237	2237	2237	2237	0	0	0	0	0	0	0	0	0	0	0	0	0	0	0	0	0	0	0	0	0	0	0	0	0	0	0	0	0	0	0	0	0	0	0	0
0	0	0	0	0	0	0	0	0	0	0	0	0	0	0	0	0	0	0	0	0	0	0	0	0	0	0	0	0	0	0	0	4771	4706	4706	4643	4581	4581	4581	4581	4521	4581	4581	4581	4581	4581	4581	4581	4581	4581	4581	4521	4521	4581	4581	4581	4581	4581	4581	4643	4643	4643	4643	4643	4643	4643	4643	4643	4643	4643	4643	4643	4643	4643	4643	4643	4643	4581	4581	4581	4643	4643	4643	4643	4643	4643	4643	4643	4643	4643	4643	4581	4581	4581	4581	4581	4581	4581	4581	4581	4643	4643	4643	4643	4643	4581	4643	4643	4581	4581	4581	4581	4581	4581	4643	4581	4581	4643	4643	4643	4643	4706	4977	4977	5125	5125	5125	0	0	0	0	0	0	0	0	0	0	0	0	5202	5125	5125	5125	5125	5050	5125	5202	5125	5202	5202	5202	5202	5202	5202	5202	5202	5202	5202	5125	5050	5125	5125	5125	5050	5125	5125	5125	5125	5125	0	0	0	0	0	0	0	0	0	0	0	0	0	0	0	6853	6853	6992	7287	7444	7608	7608	7608	7608	7608	7608	7608	7608	7608	7608	7608	7608	7608	7608	7608	7608	7608	7608	7608	7779	7779	7779	0	0	0	0	3583	3546	3546	3546	3546	3510	3510	3510	3510	3510	3510	3510	3510	3475	3475	3475	3510	3510	3510	3510	3510	3510	3510	3546	3546	3546	3546	3546	0	0	0	3546	3546	3546	3546	3546	3546	3583	3546	3546	3546	3546	3546	3546	3546	3546	3546	3546	3583	3583	3583	3583	3583	3583	3583	3583	3583	5626	5535	5448	5448	5448	5448	5448	5448	5448	5448	5448	5535	5535	5535	5535	5535	5535	5626	5626	5626	4771	4771	4771	4771	4771	4771	4706	4706	4706	4706	4706	4706	4706	4771	4706	4706	4771	4771	4771	4771	4706	4706	4706	4706	4706	4771	4771	4771	4771	4706	4643	4581	4521	4463	4463	4463	4406	4463	4406	4406	4406	4406	4406	4463	4463	4463	4463	4463	4463	4463	4463	4521	4463	4463	4463	4463	0	4581	4581	4581	4581	4643	4643	4643	4581	4521	4521	4521	4521	4463	4406	4406	4463	4521	4521	4581	4581	4581	4581	4521	4521	4521	4521	4521	4521	4463	4463	4521	4521	4463	4521	4463	4521	4463	4463	4463	4296	4296	4296	4350	4463	4463	4463	4521	4521	4581	4521	4463	4463	4463	4463	4521	4463	4463	4463	4463	4463	4463	4463	4463	4463	4463	4463	4406	4406	4406	4406	4406	4463	4463	4463	4463	4581	4581	4581	4581	4581	4581	4581	4581	4643	4643	4643	4581	4581	4581	4521	4463	4406	4406	4406	4463	4406	4406	4406	4463	4463	4463	4463	4463	4521	4521	4521	4521	4463	4463	4463	4406	4406	4406	4406	4406	4406	4406	4521	4581	4643	4643	4706	4706	4643	4643	4643	4643	4643	8146	8146	8146	8146	8146	8146	8146	8146	8146	8146	8146	8146	8343	8343	8343	8343	8343	8343	8343	8146	8146	8146	8146	8146	8146	7959	7779	7779	7779	0	0	0	0	0	0	7287	7137	7137	7137	7137	7137	7137	7287	7137	7137	7287	7137	7137	7137	6992	6992	6992	6992	6992	6853	6853	6992	0	0	6992	6853	6853	0	0	0	0	0	0	0	0	0	0	0	0	0	0	0	2629	2629	2609	2609	2589	2589	2570	2570	2551	2551	2532	2514	2514	2514	2496	2496	2478	2478	2496	2496	2478	2478	2460	2443	2443	2426	2426	2409	2409	2392	2359	2359	2359	2343	2327	2327	2327	2312	2312	2297	2297	2281	2266	2252	2252	2237	2237	2237	2237	2237	0	0	0	0	0	0	0	0	0	0	0	0	0	0	0	0	0	0	0	0	0	0	0	0	0	0	0	0	0	0	0	0	0	0	0	0
0	0	0	0	0	0	0	0	0	0	0	0	0	0	0	0	0	0	0	0	0	0	0	0	0	0	0	0	0	0	0	0	4771	4706	4706	4643	4581	4581	4581	4581	4521	4521	4581	4521	4581	4521	4581	4581	4581	4581	4521	4521	4521	4521	4521	4521	4521	4521	4521	4581	4643	4643	4581	4581	4643	4643	4643	4581	4643	4643	4643	4643	4643	4643	4643	4643	4643	4581	4643	4643	4643	4643	4643	4643	4643	4643	4643	4643	4643	4643	4581	4581	4581	4581	4581	4581	4581	4581	4643	4581	4643	4581	4643	4643	4643	4643	4643	4643	4643	4581	4643	4643	4581	4643	4643	4643	4581	4643	4643	4643	4643	4706	4906	4906	4906	0	0	0	0	0	0	0	0	0	0	0	0	0	0	5202	5202	5125	5125	5125	5125	5125	5202	5202	5202	5202	5202	5202	5202	5202	5202	5202	5202	5125	5125	5050	5050	5125	5125	5050	5050	5050	0	0	0	0	0	0	0	0	0	0	0	0	0	0	0	0	0	6853	6853	6853	6992	7137	7444	7608	7608	7608	7608	7608	7608	7608	7608	7608	7608	7608	7608	7608	7608	7608	7444	7608	7608	7608	7608	7779	7779	0	0	0	0	3546	3546	3546	3546	3546	3546	3510	3510	3510	3510	3510	3510	3510	3510	3510	3510	3546	3510	3510	3510	3510	3510	3510	3546	3546	3546	3546	3546	0	0	0	3510	3546	3546	3546	3546	3546	3546	3546	3546	3546	3546	3546	3546	3546	3546	3546	3546	3546	3546	3583	3583	3583	3583	3583	3583	3583	5626	5535	5448	5448	5448	5448	5448	5448	5448	5535	5535	5535	5535	5535	5535	5535	5535	5626	5626	5626	4771	4771	4771	4771	4771	4771	4706	4706	4706	4706	4706	4706	4706	4706	4706	4706	4771	4771	4706	4706	4706	4706	4706	4706	4706	4771	4771	4771	4771	4706	4643	4581	4463	4463	4463	4406	4406	4406	4406	4406	4463	4463	4463	4463	4463	4406	4406	4463	4406	4463	4463	4463	4463	4463	4463	4463	4463	4581	4581	4581	4581	4643	4643	4706	4643	4581	4521	4521	4521	4463	4406	4406	4463	4521	4521	4581	4581	4581	4581	4581	4521	4521	4521	4463	4463	4463	4463	4521	4521	4463	4521	4463	4521	4463	4521	4406	4350	4296	4296	4350	4350	4406	4463	4463	4521	4521	4463	4463	4406	4406	4406	4463	4406	4406	4406	4406	4463	4463	4463	4463	4463	4406	4463	4406	4406	4406	4406	4406	4406	4463	4463	4463	4463	4521	4521	4521	4521	4521	4521	4581	4581	4581	4581	4521	4521	4521	4463	4463	4406	4406	4463	4406	4463	4406	4406	4463	4406	4463	4406	4463	4463	4463	4463	4463	4463	4463	4406	4406	4406	4406	4406	4406	4350	4406	4463	4581	4643	4706	4706	4706	4706	4643	4643	4643	4643	4643	8146	8146	8146	8146	8146	8146	8146	8146	8146	8146	8146	8343	8343	8343	8146	8146	8343	8146	8146	8146	8146	8146	8146	7959	7779	7779	7779	7779	0	0	0	0	0	7287	7287	7137	7287	7137	7137	7137	7137	7137	7137	7137	7137	7137	7137	6992	6992	6992	6992	6992	6992	6992	6992	6992	6992	7137	6992	6992	6992	6992	0	0	0	0	0	0	0	0	0	0	0	0	0	0	2649	2629	2609	2609	2589	2570	2570	2570	2551	2551	2532	2514	2514	2496	2496	2478	2478	2460	2478	2478	2478	2460	2443	2443	2443	2426	2426	2409	2409	2392	2359	2359	2359	2343	2327	2327	2327	2312	2312	2297	2281	2281	2266	2266	2252	2252	2252	2237	2237	2237	0	0	0	0	0	0	0	0	0	0	0	0	0	0	0	0	0	0	0	0	0	0	0	0	0	0	0	0	0	0	0	0	0	0	0	0
0	0	0	0	0	0	0	0	0	0	0	0	0	0	0	0	0	0	0	0	0	0	0	0	0	0	0	0	0	0	0	0	0	0	0	4581	4581	4581	4521	4521	4521	4521	4521	4521	4521	4521	4581	4521	4521	4521	4463	4463	4463	4581	4463	4521	4521	4521	4581	4581	4643	4643	4643	4581	4643	4643	4643	4581	4581	4643	4643	4643	4581	4581	4643	4643	4643	4581	4643	4643	4643	4643	4581	4643	4643	4643	4643	4643	4643	4643	4581	4581	4581	4581	4581	4581	4581	4581	4581	4581	4581	4581	4643	4643	4643	4643	4643	4643	4643	4643	4643	4643	4643	4643	4643	4643	4643	4643	4643	4643	4643	4706	4706	4706	4906	0	0	0	0	0	0	0	0	0	0	0	0	0	0	5202	5202	5202	5202	5125	5125	5125	5125	5202	5202	5202	5202	5282	5202	5202	5202	5202	5125	5125	5050	5050	5050	5050	5125	4977	4977	5050	0	0	0	0	0	0	0	0	0	0	0	0	0	0	0	0	0	6992	6853	6853	6992	6992	7137	7608	7608	7608	7608	7608	7608	7608	7608	7608	7608	7608	7608	7608	7608	7444	7444	7444	7444	7444	7608	7779	7779	0	0	0	0	3546	3546	3546	3546	3546	3546	3510	3510	3510	3510	3510	3510	3510	3475	3475	3475	3510	3510	3510	3510	3510	3510	3475	3546	3546	3546	3546	0	0	0	0	3546	3546	3546	3546	3546	3546	3546	3546	3546	3546	3546	3546	3510	3510	3510	3546	3546	3546	3546	3583	3583	3583	3583	3583	3583	3583	5448	5535	5448	5364	5364	5364	5364	5364	5448	5448	5448	5448	5448	5448	5535	5535	5535	5626	5626	5626	5626	5626	4771	4771	4771	4771	4706	4706	4706	4706	4706	4706	4706	4706	4706	4706	4771	4706	4706	4706	4706	4706	4706	4706	4706	4706	4771	4771	4706	4706	4581	4581	4463	4463	4463	4463	4406	4463	4463	4463	4463	4463	4463	4406	4406	4406	4350	4406	4406	4463	4463	4521	4521	4521	4521	4463	4463	4581	4581	4581	4581	4643	4643	4706	4643	4581	4521	4581	4521	4463	4463	4406	4463	4521	4521	4521	4581	4581	4581	4581	4581	4581	4521	4463	4463	4406	4406	4463	4521	4463	4521	4463	4521	4521	4521	4463	4350	4350	4296	4350	4463	4406	4406	4463	4463	4463	4463	4406	4406	4350	4350	4406	4406	4406	4406	4406	4406	4406	4406	4463	4406	4406	4406	4406	4406	4406	4406	4406	4406	4406	4406	4406	4463	4521	4521	4521	4521	4521	4521	4521	4581	4581	4581	4521	4521	4521	4463	4463	4406	4406	4406	4406	4406	4406	4406	4406	4406	4463	4406	4463	4463	4463	4463	4463	4406	4406	4406	4406	4406	4406	4406	4406	4406	4406	4521	4581	4643	4706	4706	4706	4706	4706	4643	4771	4643	4643	8343	8343	8146	8146	8146	8146	8146	8146	8146	8146	8146	8343	8343	8146	8146	8146	8146	8146	8146	8146	8146	8146	8146	7959	7959	7779	7779	7779	0	0	0	0	0	7287	7287	7137	7137	7137	7137	7137	7137	7137	7137	7137	7137	7137	7137	6992	6992	6992	6992	6992	6992	6992	6992	7137	6992	7137	6992	6992	6992	6853	6853	0	0	0	0	0	0	0	0	0	0	0	0	0	2629	2629	2609	2609	2589	2570	2570	2551	2551	2551	2532	2514	2514	2496	2496	2478	2478	2460	2478	2478	2460	2460	2443	2443	2443	2426	2426	2409	2409	2392	2359	2359	2359	2343	2343	2327	2327	2312	2312	2297	2281	2281	2266	2266	2252	2252	2252	2237	2237	2237	0	0	0	0	0	0	0	0	0	0	0	0	0	0	0	0	0	0	0	0	0	0	0	0	0	0	0	0	0	0	0	0	0	0	0	0
0	0	0	0	0	0	0	0	0	0	0	0	0	0	0	0	0	0	0	0	0	0	0	0	0	0	0	0	0	0	0	0	0	0	0	4581	4581	4581	4521	4521	4521	4521	4521	4521	4581	4581	4643	4581	4581	4581	4581	4581	4581	4581	4463	4521	4521	4521	4521	4581	4643	4643	4643	4643	4643	4643	4643	4581	4581	4581	4643	4581	4581	4581	4581	4643	4643	4581	4643	4643	4643	4643	4581	4581	4581	4643	4643	4643	4643	4643	4581	4643	4643	4581	4581	4581	4581	4581	4581	4581	4581	4581	4643	4643	4643	4643	4643	4643	4643	4643	4643	4643	4643	4643	4643	4643	4643	4643	4643	4643	4706	4706	4706	4906	4906	0	0	0	0	0	0	0	0	0	0	0	0	0	0	5202	5202	5202	5125	5125	5125	5125	5202	5202	5202	5202	5202	5202	5202	5202	5202	5202	5202	5125	5050	5050	5050	5050	5125	4906	4906	0	0	0	0	0	0	0	0	0	0	0	0	0	0	0	0	0	0	6992	6992	6992	6992	6992	6992	7444	7444	7608	7608	7608	7444	7444	7608	7608	7608	7608	7444	7444	7287	7287	7287	7287	7287	7287	7444	7608	7608	0	0	0	0	3546	3546	3546	3546	3546	3546	3546	3510	3510	3510	3510	3510	3475	3475	3475	3475	3510	3510	3510	3510	3510	3510	3510	3546	3510	3510	0	0	0	0	0	3546	3546	3546	3546	3546	3546	3546	3546	3546	3546	3546	3546	3546	3546	3546	3546	3546	3546	3546	3583	3583	3583	3583	3583	3583	0	5448	5535	5448	5448	5364	5364	5364	5364	5448	5448	5364	5448	5448	5448	5535	5448	5448	5535	5535	5535	5535	4771	4771	4771	4771	4771	4771	4706	4706	4706	4706	4706	4706	4706	4706	4706	4771	4706	4706	4706	4706	4706	4706	4706	4706	4771	4706	4706	4706	4643	4581	4521	4463	4463	4463	4463	4463	4463	4521	4521	4521	4521	4463	4406	4463	4406	4406	4463	4463	4521	4521	4521	4521	4581	4521	4521	4521	4581	4643	4643	4581	4521	4643	4706	4643	4581	4581	4581	4581	4521	4463	4463	4521	4521	4521	4581	4581	4581	4581	4581	4581	4581	4521	4521	4521	4521	4521	4521	4521	4521	4521	4521	4521	4521	4521	4521	4463	4463	4406	4463	4406	4350	4406	4406	4463	4463	4463	4406	4406	4350	4350	4406	4350	4406	4406	4406	4406	4406	4406	4463	4463	4406	4406	4406	4406	4406	4406	4406	4406	4406	4406	4406	4463	4463	4521	4463	4463	4463	4463	4521	4581	4521	4581	4581	4581	4521	4521	4463	4463	4406	4406	4406	4406	4406	4406	4406	4406	4406	4406	4463	4463	4463	4406	4406	4406	4406	4406	4406	4406	4406	4406	4406	4406	4406	4406	4521	4581	4581	4706	4706	4706	4706	4706	4771	4706	4706	4706	8343	8146	8146	8146	8146	8146	8146	8146	8146	8146	8343	8146	8146	8146	8146	8146	8146	8146	8146	8146	8146	8146	8146	7959	7779	7779	0	0	0	0	0	0	7287	7287	7137	7137	7137	7137	7137	7137	7137	7137	7137	7137	7137	7137	6992	6992	6992	6992	6992	6992	6992	6992	6992	6992	6992	6992	6992	6992	6992	6992	6992	0	0	0	0	0	0	0	0	0	0	0	2649	2629	2629	2609	2609	2589	2570	2570	2551	2551	2532	2532	2514	2514	2496	2496	2478	2478	2460	2478	2460	2460	2460	2443	2443	2443	2426	2426	2409	2392	2392	2359	2359	2359	2343	2343	2327	2327	2312	2312	2297	2281	2281	2266	2266	2252	2252	2252	2237	2237	2237	0	0	0	0	0	0	0	0	0	0	0	0	0	0	0	0	0	0	0	0	0	0	0	0	0	0	0	0	0	0	0	0	0	0	0	0
0	0	0	0	0	0	0	0	0	0	0	0	0	0	0	0	0	0	0	0	0	0	0	0	0	0	0	0	0	0	0	0	0	0	0	4521	4521	4521	4521	4521	4521	4521	4521	4521	4581	4581	4643	4581	4581	4581	4581	4581	4581	4521	4463	4463	4463	4521	4581	4581	4643	4643	4643	4643	4643	4643	4643	4581	4581	4643	4643	4581	4581	4581	4581	4643	4643	4581	4643	4643	4643	4643	4581	4581	4581	4643	4643	4643	4643	4643	4643	4643	4643	4581	4581	4581	4581	4581	4581	4581	4581	4581	4643	4643	4643	4643	4643	4643	4643	4643	4643	4643	4643	4643	4643	4643	4643	4643	4643	4643	4706	4771	4838	4906	4977	4977	0	0	0	0	0	0	0	0	0	0	0	0	0	5202	5202	5125	5125	5125	5125	5125	5202	5202	5202	5202	5202	5282	5202	5202	5202	5202	5202	5125	5125	5050	5050	5050	5050	4977	4977	0	0	0	0	0	0	0	0	0	0	0	0	0	0	0	0	0	0	6992	6992	6992	6992	6992	6992	7137	7287	7444	7608	7608	7608	7608	7444	7444	7444	7444	7444	7287	7287	7287	7137	7137	7137	7137	7137	7608	7608	0	0	0	0	3583	3583	3583	3546	3546	3546	3510	3510	3510	3510	3510	3510	3475	3475	3475	3475	3510	3510	3510	3510	3546	3510	3510	3546	3510	3510	0	0	0	0	0	3546	3546	3546	3546	3546	3546	3546	3546	3546	3546	3546	3546	3546	3546	3546	3546	3546	3546	3546	3583	3583	3583	3583	3583	3583	0	5364	5448	5448	5448	5448	5448	5448	5448	5448	5448	5364	5448	5364	5364	5448	5448	5448	5535	5535	5535	5535	5535	4771	4771	4771	4771	4771	4706	4706	4706	4706	4706	4706	4706	4706	4706	4706	4706	4706	4706	4706	4706	4706	4706	4706	4771	4771	4706	4706	4643	4581	4521	4463	4463	4463	4463	4463	4463	4521	4521	4581	4521	4521	4463	4463	4463	4521	4521	4521	4581	4581	4581	4581	4581	4643	4581	4643	4643	4643	4643	4581	4521	4581	4643	4643	4581	4581	4581	4581	4521	4521	4521	4521	4521	4521	4521	4581	4581	4581	4581	4581	4643	4581	4581	4581	4581	4521	4581	4581	4521	4521	4521	4581	4581	4581	4521	4521	4463	4406	4463	4350	4350	4350	4350	4406	4463	4406	4406	4406	4406	4406	4406	4406	4406	4406	4406	4406	4406	4406	4406	4406	4406	4406	4406	4406	4406	4406	4406	4406	4406	4406	4406	4463	4463	4463	4463	4463	4463	4463	4521	4521	4521	4581	4521	4521	4463	4463	4463	4463	4406	4406	4406	4406	4406	4406	4406	4406	4406	4406	4406	4406	4406	4406	4406	4406	4406	4406	4406	4406	4406	4406	4406	4406	4406	4406	4463	4521	4581	4706	4706	4706	4706	4706	4706	4706	4643	4643	4643	8146	8146	8146	8146	8146	8146	8146	7959	8146	8146	8146	8146	8146	8146	8146	8146	8343	8146	8146	8146	8146	8146	7959	7779	7608	7444	7444	0	0	0	0	0	7287	7137	7137	7137	7137	7137	7137	7137	7137	7137	7137	7137	7137	7137	7137	6992	6992	6992	6992	6992	6992	6992	6992	6992	6992	6992	6992	6992	6992	6992	6992	0	0	0	0	0	0	0	0	0	0	2649	2649	2629	2609	2609	2589	2570	2570	2570	2551	2532	2532	2532	2514	2496	2496	2478	2478	2460	2460	2460	2460	2460	2443	2443	2443	2426	2409	2409	2392	2392	2359	2359	2359	2343	2327	2327	2327	2312	2312	2297	2281	2281	2281	2266	2252	2252	2252	2237	2237	2237	0	0	0	0	0	0	0	0	0	0	0	0	0	0	0	0	0	0	0	0	0	0	0	0	0	0	0	0	0	0	0	0	0	0	0	0
0	0	0	0	0	0	0	0	0	0	0	0	0	0	0	0	0	0	0	0	0	0	0	0	0	0	0	0	0	0	0	0	0	0	0	4521	4521	4521	4521	4521	4521	4521	4521	4581	4581	4643	4643	4643	4581	4581	4581	4581	4521	4521	4463	4406	4463	4521	4581	4581	4643	4643	4643	4643	4643	4643	4643	4581	4581	4581	4581	4581	4581	4581	4581	4643	4643	4643	4643	4643	4643	4643	4581	4643	4581	4706	4643	4643	4643	4643	4643	4643	4643	4581	4581	4581	4581	4581	4581	4581	4581	4643	4643	4643	4643	4643	4643	4643	4643	4643	4643	4643	4643	4643	4643	4643	4643	4643	4643	4643	4706	4771	4838	4838	4906	4906	4906	5125	5125	5125	5125	0	0	0	0	0	0	0	0	5125	5125	5125	5125	5125	5050	5125	5202	5202	5202	5202	5202	5202	5202	5202	5202	5202	5202	5125	5125	5050	5050	5125	5125	4977	4906	4906	0	0	0	0	0	0	0	0	0	0	0	0	0	0	0	6992	6992	6992	6992	6992	6992	6992	6992	6992	6992	7444	7444	7444	7608	7608	7444	7444	7444	7444	7287	7137	7137	7137	7137	6992	6992	6992	6992	0	0	0	0	0	0	3583	3583	3546	3546	3546	3546	3510	3510	3510	3510	3510	3510	3510	3475	3475	3475	3510	3510	3510	3510	3546	3546	3546	3546	3546	3546	0	0	0	0	0	3546	3546	3546	3546	3546	3546	3546	3546	3546	3546	3546	3546	3546	3546	3546	3546	3546	3546	3546	3583	3583	3583	3583	3583	3583	5364	5364	5448	5448	5448	5448	5448	5448	5448	5448	5448	5364	5364	5364	5364	5448	5364	5448	5535	5535	5535	5535	4771	4771	4771	4771	4771	4771	4706	4706	4706	4706	4706	4706	4706	4706	4706	4706	4706	4706	4706	4706	4706	4706	4706	4706	4771	4771	4771	4706	4706	4643	4581	4463	4521	4521	4521	4521	4521	4581	4581	4643	4581	4581	4581	4581	4581	4521	4521	4521	4581	4581	4643	4643	4643	4643	4706	4643	4706	4706	4706	4706	4581	4581	4706	4643	4643	4706	4706	4643	4581	4581	4581	4581	4521	4521	4581	4581	4581	4581	4643	4643	4643	4643	4643	4581	4581	4581	4581	4581	4581	4581	4581	4581	4581	4581	4581	4521	4521	4463	4463	4350	4350	4350	4350	4350	4406	4406	4406	4406	4406	4406	4463	4406	4406	4406	4406	4406	4406	4406	4406	4406	4406	4406	4406	4406	4406	4406	4406	4406	4406	4406	4406	4406	4406	4463	4463	4463	4463	4463	4463	4463	4463	4521	4463	4463	4406	4406	4406	4406	4406	4406	4406	4406	4406	4406	4406	4406	4406	4350	4406	4406	4406	4406	4406	4406	4406	4406	4406	4406	4406	4406	4406	4406	4406	4406	4521	4581	4643	4706	4706	4706	4706	4706	4771	4706	4706	4643	4643	8146	8146	8146	8146	8146	8146	8146	7959	7959	8146	8146	8146	8146	8146	8146	8146	8146	8146	8146	8146	8146	8146	7959	7779	7779	7608	7608	0	0	0	0	0	7287	7137	7137	7137	7137	7137	7137	7137	7137	7137	7137	6992	6992	6992	6992	6992	6992	7137	7137	6992	7137	7137	6992	7137	7137	6992	6992	6992	6992	6853	6853	0	0	0	0	0	0	0	0	0	0	0	2629	2629	2609	2609	2589	2589	2589	2570	2570	2551	2532	2532	2514	2514	2496	2478	2478	2460	2460	2460	2460	2443	2443	2443	2443	2426	2409	2409	2392	2392	2376	2359	2359	2343	2327	2327	2327	2312	2312	2297	2297	2281	2281	2281	2252	2252	2252	2237	2237	2237	0	0	0	0	0	0	0	0	0	0	0	0	0	0	0	0	0	0	0	0	0	0	0	0	0	0	0	0	0	0	0	0	0	0	0	0
0	0	0	0	0	0	0	0	0	0	0	0	0	0	0	0	0	0	0	0	0	0	0	0	0	0	0	0	0	0	0	0	0	0	0	4521	4521	4521	4521	4521	4521	4581	4581	4581	4581	4581	4643	4643	4581	4521	4581	4581	4521	4463	4406	4406	4463	4521	4521	4521	4643	4643	4643	4643	4581	4643	4643	4581	4581	4581	4581	4581	4581	4581	4581	4581	4581	4581	4643	4643	4643	4581	4581	4643	4643	4643	4643	4643	4643	4581	4643	4581	4643	4581	4581	4581	4581	4581	4643	4643	4643	4643	4643	4643	4643	4643	4643	4643	4643	4643	4643	4643	4643	4643	4643	4643	4643	4643	4643	4643	4706	4771	4838	4838	4906	4906	4906	5050	5050	5125	5125	0	0	0	0	0	0	0	0	5202	5125	5125	5125	5125	5050	5125	5202	5202	5202	5202	5202	5202	5202	5202	5202	5202	5202	5202	5125	5125	5125	5125	5125	4977	4977	4977	0	0	0	0	0	0	0	0	0	0	0	0	0	0	0	6853	6992	6992	6853	6853	6853	6853	6853	6853	6992	7287	7444	7444	7608	7608	7444	7444	7287	7137	6992	6992	6992	6992	7137	6992	6992	6992	6992	0	0	0	0	0	0	0	3546	3546	3546	3546	3546	3510	3510	3510	3510	3510	3510	3475	3475	3475	3475	3510	3546	3546	3546	3546	3546	3546	3546	3510	3475	3475	0	0	0	0	3546	3583	3583	3583	3546	3546	3546	3546	3546	3546	3546	3546	3546	3546	3546	3546	3546	3583	3583	3583	3583	3583	3583	3583	3583	5364	5364	5448	5448	5448	5448	5448	5535	5448	5448	5364	5364	5364	5364	5364	5448	5364	5448	5535	5448	5448	5448	4771	4771	4771	4771	4771	4706	4706	4706	4706	4706	4706	4706	4706	4706	4706	4706	4706	4706	4706	4706	4706	4706	4706	4706	4771	4771	4771	4706	4706	4643	4581	4521	4521	4521	4581	4581	4581	4643	4643	4643	4643	4643	4643	4643	4643	4643	4581	4581	4643	4643	4706	4706	4706	4706	4771	4706	4706	4706	4706	4706	4706	4706	4706	4706	4706	4706	4706	4643	4643	4643	4643	4581	4581	4581	4581	4581	4581	4643	4643	4706	4706	4643	4643	4643	4643	4581	4581	4643	4643	4643	4643	4643	4643	4643	4643	4581	4581	4521	4521	4463	4350	4350	4350	4406	4406	4406	4406	4406	4406	4406	4406	4406	4406	4406	4406	4406	4406	4406	4406	4406	4406	4406	4406	4406	4406	4406	4406	4406	4406	4406	4406	4406	4406	4406	4406	4463	4463	4463	4463	4463	4463	4463	4463	4463	4406	4406	4406	4406	4406	4406	4406	4406	4406	4406	4350	4406	4406	4350	4406	4406	4350	4350	4406	4406	4406	4406	4406	4406	4406	4406	4406	4406	4406	4406	4463	4581	4643	4706	4706	4706	4706	4706	4771	4771	4706	4643	4643	8146	7959	7959	8146	8146	8146	8146	7959	7959	8146	8146	8146	8146	8146	8146	8146	8343	8146	8343	8146	8146	8146	8146	7959	7959	7959	7608	0	0	0	0	0	7287	7287	0	0	7137	7137	6992	7137	7137	6992	6992	6992	7137	7137	7137	6992	7137	7137	7287	7137	7137	7137	7137	6992	7137	6992	6992	6992	6992	6992	6853	0	0	0	0	0	0	0	0	0	0	0	2609	2609	2589	2589	2589	2589	2589	2589	2570	2570	2532	2532	2514	2514	2496	2496	2496	2460	2460	2460	2460	2443	2443	2443	2426	2426	2409	2392	2392	2376	2376	2376	2376	2327	2327	2327	2312	2312	2312	2297	2297	2297	2297	2281	2266	2266	2252	2237	2237	2237	0	0	0	0	0	0	0	0	0	0	0	0	0	0	0	0	0	0	0	0	0	0	0	0	0	0	0	0	0	0	0	0	0	0	0	0
0	0	0	0	0	0	0	0	0	0	0	0	0	0	0	0	0	0	0	0	0	0	0	0	0	0	0	0	0	0	0	0	0	0	4521	4521	4521	4521	4521	4521	4521	4581	4581	4581	4581	4581	4581	4581	4581	4581	4581	4581	4581	4521	4521	4463	4521	4521	4521	4581	4581	4643	4643	4706	4706	4706	4706	4643	4581	4581	4581	4581	4581	4581	4581	4581	4581	4581	4581	4581	4581	4581	4581	4643	4643	4643	4643	4643	4643	4643	4643	4581	4643	4581	4581	4581	4581	4581	4643	4643	4643	4643	4643	4643	4643	4643	4643	4643	4643	4643	4643	4706	4643	4643	4643	4643	4643	4643	4643	4706	4771	4771	4838	4906	4906	4977	4977	4977	5050	5125	0	0	0	0	0	0	0	0	5202	5202	5125	5125	5125	5050	5050	5125	5202	5202	5202	5202	5202	5202	5202	5202	5202	5202	5202	5125	5125	5125	5125	5125	5125	4977	4977	4977	0	0	0	0	0	0	0	0	0	0	0	0	6592	6592	6853	6853	6853	6853	6853	6853	6853	6853	6853	6853	6992	6992	7287	7444	7608	7608	7608	7444	6992	6853	6853	6720	6720	6992	0	0	0	0	0	0	0	0	0	0	0	0	3583	3546	3546	3546	3510	3510	3510	3510	3510	3510	3475	3475	3475	3475	3475	3510	3546	3546	3546	3546	3546	3546	3583	3546	3546	3546	0	0	0	0	0	3583	3583	3583	3583	3546	3546	3546	3546	3546	3546	3546	3546	3546	3546	3546	3546	3583	3583	3583	3583	3621	3583	3583	5364	5364	5364	5364	5448	5364	5364	5364	5448	5448	5448	5448	5364	5364	5364	5364	5364	5364	5364	5448	5364	5364	5364	4771	4771	4771	4771	4771	4706	4706	4706	4706	4706	4706	4706	4706	4706	4706	4706	4706	4706	4706	4706	4706	4706	4706	4706	4771	4771	4706	4706	4706	4643	4581	4581	4521	4581	4581	4581	4643	4643	4643	4706	4706	4706	4643	4706	4706	4643	4581	4643	4643	4643	4706	4706	4706	4706	4706	4706	4706	4706	4706	4706	4643	4706	4706	4706	4706	4706	4706	4706	4643	4643	4643	4581	4581	4581	4581	4581	4581	4643	4643	4643	4706	4643	4706	4643	4643	4581	4643	4643	4643	4643	4643	4643	4643	4643	4643	4581	4581	4581	4521	4463	4406	4350	4350	4406	4406	4406	4406	4406	4406	4406	4463	4406	4406	4406	4406	4406	4406	4406	4406	4406	4406	4406	4406	4406	4406	4406	4350	4406	4406	4406	4406	4406	4406	4406	4406	4406	4406	4463	4463	4406	4406	4463	4463	4406	4406	4406	4406	4406	4406	4406	4406	4406	4406	4406	4350	4406	4406	4350	4350	4350	4350	4350	4350	4350	4406	4406	4406	4406	4406	4406	4406	4406	4406	4463	4521	4581	4643	4706	4771	4771	4771	4771	4771	4771	4706	4643	4643	7959	7959	7959	7959	8146	8146	8146	8146	8146	8343	8146	8146	8146	8146	8343	8146	8146	8146	8146	8146	8146	8146	8146	7959	7959	7959	0	0	0	0	0	0	0	0	0	0	0	7137	6992	7137	7137	7137	7137	6992	7137	7137	7137	7137	7137	7287	7287	7137	7287	7287	7137	6992	7137	6992	6992	6992	6992	6992	0	0	0	0	0	0	0	0	0	0	0	0	2609	2589	2589	2589	2589	2589	2589	2589	2570	2551	2532	2532	2514	2514	2496	2496	2496	2460	2460	2460	2460	2460	2443	2443	2426	2426	2409	2392	2392	2376	2376	2359	2359	2327	2327	2327	2312	2312	2312	2297	2297	2297	2297	2281	2281	2266	2252	2252	2252	2252	0	0	0	0	0	0	0	0	0	0	0	0	0	0	0	0	0	0	0	0	0	0	0	0	0	0	0	0	0	0	0	0	0	0	0	0
0	0	0	0	0	0	0	0	0	0	0	0	0	0	0	0	0	0	0	0	0	0	0	0	0	0	0	0	0	0	0	0	0	0	4521	4521	4521	4521	4521	4521	4521	4581	4581	4581	4581	4581	4643	4643	4581	4581	4581	4581	4581	4521	4521	4463	4463	4521	4581	4643	4643	4643	4706	4771	4771	4706	4706	4581	4581	4581	4581	4581	4581	4581	4581	4581	4581	4581	4581	4581	4581	4581	4581	4643	4643	4643	4643	4643	4643	4643	4643	4643	4643	4581	4643	4581	4581	4581	4643	4643	4643	4643	4643	4643	4643	4643	4643	4643	4643	4643	4643	4643	4643	4643	4643	4643	4643	4643	4643	4706	4771	4838	4906	4906	4906	4977	4906	4906	0	0	0	0	0	0	0	0	0	0	5202	5202	5202	5125	5125	5125	5125	5125	5202	5202	5125	5202	5202	5202	5202	5202	5202	5202	5202	5125	5125	5125	5125	5125	5125	4977	4977	0	0	0	0	0	0	0	0	0	0	0	0	0	6592	6853	6853	6853	6853	6853	6853	6853	6853	6853	6853	6853	6853	6992	7137	7137	7608	7608	7608	0	6992	6853	6853	6720	6720	0	0	0	0	0	0	0	0	0	0	0	0	0	3546	3546	3546	3546	3510	3510	3510	3510	3475	3510	3475	3475	3475	3475	3475	3510	3510	3546	3546	3546	3546	3546	3583	3546	3510	3510	0	0	0	0	0	3583	3583	3583	3583	3583	3546	3546	3546	3546	3546	3546	3546	3546	3546	3546	3546	3583	3583	3583	3583	3583	3583	5364	5364	5364	5364	5364	5364	5364	5364	5364	5448	5448	5448	5448	5364	5448	5364	5364	5364	5364	5364	5364	5364	5364	5364	4771	4771	4771	4771	4771	4706	4706	4706	4706	4771	4706	4706	4706	4706	4706	4706	4706	4706	4706	4706	4706	4706	4706	4706	4771	4771	4706	4706	4643	4643	4581	4581	4521	4643	4643	4643	4643	4643	4643	4706	4706	4706	4643	4706	4643	4643	4643	4581	4581	4643	4643	4706	4706	4706	4706	4706	4643	4643	4643	4643	4643	4643	4643	4643	4706	4706	4706	4706	4643	4643	4643	4643	4581	4581	4581	4581	4581	4643	4643	4643	4643	4643	4643	4643	4581	4581	4581	4643	4643	4643	4643	4643	4643	4643	4643	4581	4581	4581	4581	4521	4463	4350	4406	4463	4406	4406	4463	4463	4463	4463	4521	4463	4463	4406	4406	4406	4406	4406	4406	4406	4406	4406	4406	4406	4406	4406	4350	4350	4350	4350	4406	4406	4406	4406	4406	4406	4406	4463	4463	4406	4406	4406	4406	4406	4406	4406	4406	4406	4406	4406	4406	4406	4406	4406	4406	4406	4406	4406	4350	4350	4350	4350	4350	4350	4350	4406	4406	4406	4406	4406	4406	4406	4406	4463	4463	4581	4643	4706	4771	4771	4771	4706	4771	4706	4706	4643	4643	7959	7959	7959	7959	7959	8146	8146	8146	8146	8343	8146	8146	8146	8146	8343	8146	8146	8146	8146	8146	8146	8146	8146	7959	7959	0	0	0	0	0	0	0	0	0	0	0	0	0	6992	7137	7137	7137	7137	6992	7137	7137	7137	7137	7287	7287	7287	7137	7137	7137	6992	6992	7137	7137	7137	6992	6992	6992	0	0	0	0	0	0	0	0	0	0	0	0	0	2589	2589	2589	2589	2589	2589	2570	2570	2551	2532	2532	2532	2514	2514	2496	2496	2478	2460	2460	2460	2443	2443	2443	2426	2426	2409	2392	2392	2376	2376	2376	2359	2327	2327	2327	2312	2312	2312	2297	2297	2297	2297	2297	2281	2266	2252	2252	2252	2252	0	0	0	0	0	0	0	0	0	0	0	0	0	0	0	0	0	0	0	0	0	0	0	0	0	0	0	0	0	0	0	0	0	0	0	0
0	0	0	0	0	0	0	0	0	0	0	0	0	0	0	0	0	0	0	0	0	0	0	0	0	0	0	0	0	0	0	0	0	0	4581	4521	4521	4521	4521	4521	4581	4581	4581	4581	4581	4581	4581	4581	4581	4581	4581	4581	4581	4521	4581	4521	4581	4521	4581	4643	4643	4643	4643	4643	4706	4643	4643	4581	4581	4581	4581	4581	4581	4581	4581	4581	4643	4643	4643	4581	4581	4581	4581	4643	4643	4643	4581	4643	4581	4643	4643	4643	4643	4643	4643	4581	4581	4581	4643	4643	4643	4643	4643	4643	4643	4643	4643	4643	4643	4643	4643	4643	4643	4643	4643	4643	4643	4643	4643	4706	4771	4838	4906	4906	4977	4977	4977	4977	4977	0	0	0	0	0	0	0	0	0	5202	5125	5125	5125	5125	5125	5125	5125	5202	5202	5202	5202	5202	5202	5202	5202	5202	5202	5202	5202	5125	5125	5202	5202	4977	4977	4977	0	0	0	0	0	0	0	0	0	0	0	0	6592	6720	6853	6853	6853	6853	6853	6853	6853	6853	6853	6853	6853	6853	6992	6992	6992	0	0	0	0	0	0	0	0	0	0	0	0	0	0	0	0	0	0	0	0	0	0	3546	3546	3546	3546	3510	3510	3510	3510	3475	3475	3475	3475	3475	3475	3475	3510	3510	3510	3546	3546	3546	3546	3546	3546	3546	3546	3546	0	0	0	0	0	3583	3583	3583	3583	3546	3546	3546	3546	3546	3546	3546	3546	3546	3546	3546	3583	3583	3583	3583	3583	3583	5364	5364	5364	5364	5364	5364	5364	5364	5364	5364	5364	5364	5364	5364	5364	5364	5364	5364	5364	5364	5364	5282	5282	4838	4771	4771	4771	4771	4771	4706	4706	4771	4771	4771	4771	4771	4706	4771	4706	4706	4706	4706	4706	4706	4706	4706	4706	4706	4771	4706	4706	4706	4706	4643	4643	4643	4581	4706	4706	4706	4706	4643	4643	4706	4706	4706	4643	4706	4643	4643	4643	4643	4643	4643	4643	4706	4706	4706	4706	4706	4706	4643	4643	4643	4643	4643	4643	4643	4643	4706	4706	4706	4706	4643	4643	4643	4581	4581	4581	4581	4581	4643	4643	4643	4706	4643	4706	4643	4643	4643	4643	4643	4643	4643	4643	4643	4643	4643	4643	4581	4581	4581	4581	4521	4521	4406	4463	4463	4463	4463	4463	4463	4463	4521	4521	4463	4463	4463	4463	4463	4463	4463	4463	4463	4463	4463	4406	4406	4406	4406	4350	4406	4406	4406	4406	4406	4406	4406	4406	4406	4406	4463	4463	4406	4406	4406	4406	4406	4406	4406	4406	4406	4406	4406	4406	4406	4406	4406	4406	4406	4406	4406	4350	4350	4350	4350	4350	4350	4350	4406	4406	4406	4406	4406	4406	4406	4406	4463	4463	4521	4643	4706	4771	4771	4771	4771	4771	4771	4706	4643	4643	7959	7959	7959	7959	7959	8146	8146	8146	8146	8343	8146	8146	8146	8146	8343	8343	8343	8343	8146	8146	8146	8146	8343	8146	8146	0	0	0	0	0	0	0	0	0	0	0	0	0	0	7137	7137	6992	7137	6992	7137	7137	7287	7287	7287	7287	7287	7137	7137	7137	6992	6992	6992	6992	6992	6992	6992	0	0	0	0	0	0	0	0	0	0	0	0	0	0	2589	2589	2589	2589	2589	2589	2570	2570	2570	2532	2551	2532	2514	2514	2496	2478	2460	2460	2460	2460	2443	2443	2443	2443	2426	2409	2392	2392	2376	2376	2376	2359	2327	2327	2327	2312	2312	2312	2312	2297	2297	2297	2281	2281	2266	2252	2252	2252	2252	0	0	0	0	0	0	0	0	0	0	0	0	0	0	0	0	0	0	0	0	0	0	0	0	0	0	0	0	0	0	0	0	0	0	0	0
0	0	0	0	0	0	0	0	0	0	0	0	0	0	0	0	0	0	0	0	0	0	0	0	0	0	0	0	0	0	0	0	0	0	4581	4521	4581	4521	4521	4581	4581	4581	4581	4581	4581	4581	4581	4581	4581	4581	4581	4581	4581	4521	4581	4521	4581	4521	4581	4643	4643	4643	4643	4643	4521	4581	4643	4581	4581	4581	4581	4581	4643	4581	4643	4643	4643	4643	4643	4581	4581	4581	4581	4643	4643	4643	4581	4643	4581	4643	4643	4643	4643	4643	4643	4643	4581	4581	4643	4643	4643	4643	4643	4643	4643	4643	4643	4643	4643	4643	4643	4643	4643	4643	4643	4643	4643	4643	4643	4643	4771	4838	4906	4906	4977	4977	4977	4977	4977	0	0	0	0	0	0	0	0	0	5202	5202	5125	5125	5125	5125	5050	5125	5202	5202	5202	5202	5202	5202	5202	5202	5202	5202	5202	5202	5202	5202	5202	5202	5202	4977	4977	0	0	0	0	0	0	0	0	0	0	0	0	6720	6853	6992	6720	6720	6853	6853	6853	6853	6853	6853	6853	6853	6853	6853	6853	6853	0	0	0	0	0	0	0	0	0	0	0	0	0	0	0	0	0	0	0	0	0	0	3546	3546	3546	3546	3510	3510	3510	3475	3475	3475	3475	3475	3475	3475	3475	3546	3546	3510	3546	3546	3546	3546	3546	3546	3510	3510	3546	0	0	0	0	0	3583	3583	3583	3583	3546	3546	3546	3546	3546	3546	3546	3546	3546	3583	3583	3583	3583	3583	3583	3621	3621	5364	5364	5282	5364	5364	5364	5364	5364	5364	5364	5364	5364	5364	5364	5364	5364	5364	5364	5364	5282	5364	5282	5282	4838	4771	4771	4771	4771	4771	4706	4771	4771	4771	4771	4771	4706	4706	4771	4706	4706	4706	4706	4706	4706	4706	4706	4706	4706	4771	4706	4706	4706	4706	4643	4643	4706	4643	4771	4706	4706	4706	4643	4643	4643	4643	4643	4643	4706	4643	4643	4643	4643	4643	4643	4643	4706	4706	4706	4706	4706	4643	4643	4643	4643	4643	4643	4643	4643	4643	4706	4706	4706	4706	4643	4643	4643	4581	4581	4581	4643	4643	4643	4643	4706	4706	4643	4643	4643	4643	4581	4581	4643	4581	4581	4581	4643	4643	4643	4643	4643	4643	4581	4581	4521	4521	4463	4463	4463	4406	4406	4406	4463	4463	4463	4521	4463	4521	4463	4463	4463	4463	4463	4463	4463	4463	4406	4406	4406	4406	4406	4406	4406	4406	4406	4406	4406	4406	4406	4406	4406	4406	4406	4406	4406	4406	4406	4406	4406	4406	4406	4406	4406	4406	4406	4406	4406	4406	4406	4406	4406	4406	4406	4406	4350	4350	4350	4350	4406	4350	4406	4406	4406	4406	4406	4406	4406	4463	4463	4463	4581	4581	4706	4771	4771	4771	4706	4706	4706	4643	4643	7959	7959	7959	7959	7959	8146	8146	8146	8146	8146	8146	8343	8343	8343	8343	8343	8343	8343	8146	8146	8146	8146	7959	8146	7959	8146	8146	0	0	0	0	0	0	0	0	0	0	0	0	0	0	6992	6992	6992	6992	6992	7137	7137	7287	7287	7287	7287	7287	7287	7287	7287	7287	6992	6992	6992	0	0	0	0	0	0	0	0	0	0	0	0	0	0	0	0	0	2589	2589	2589	2570	2570	2570	2570	2551	2532	2532	2532	2514	2514	2496	2478	2460	2443	2460	2460	2443	2443	2426	2426	2409	2409	2392	2392	2376	2376	2359	2343	2343	2312	2312	2312	2327	2312	2312	2312	2297	2297	2297	2281	2266	2252	2252	2237	2237	0	0	0	0	0	0	0	0	0	0	0	0	0	0	0	0	0	0	0	0	0	0	0	0	0	0	0	0	0	0	0	0	0	0	0	0
0	0	0	0	0	0	0	0	0	0	0	0	0	0	0	0	0	0	0	0	0	0	0	0	0	0	0	0	0	0	0	0	0	0	4581	4521	4581	4521	4521	4521	4521	4521	4581	4581	4581	4581	4581	4581	4581	4581	4581	4581	4581	4521	4581	4581	4581	4581	4581	4643	4643	4643	4581	4581	4581	4581	4643	4581	4581	4581	4581	4581	4581	4581	4643	4643	4643	4643	4643	4581	4581	4581	4581	4643	4643	4643	4581	4643	4581	4643	4643	4643	4643	4643	4643	4643	4643	4643	4643	4643	4643	4643	4643	4643	4643	4643	4643	4643	4581	4643	4643	4643	4643	4643	4643	4643	4643	4643	4643	4643	4771	4838	4906	5050	5050	5125	5050	5050	0	0	0	0	0	0	0	0	0	0	5282	5202	5125	5125	5125	5050	5050	5125	5202	5202	5202	5202	5202	5202	5202	5202	5202	5202	5202	5202	5202	5202	5202	5202	5202	0	0	0	0	0	0	0	0	0	0	0	0	0	6853	6853	6853	6853	6853	6853	6853	6853	6853	6853	6853	6853	6853	6853	6853	6853	6853	6853	6853	0	0	0	0	0	0	0	0	0	0	0	0	0	0	0	0	0	0	0	0	0	3546	3546	3510	3510	3510	3510	3510	3475	3475	3475	3475	3475	3475	3475	3475	3510	3510	3510	3546	3510	3546	3546	3546	3546	3546	3546	3546	0	0	0	0	0	3583	3583	3583	3583	3546	3583	3546	3546	3546	3546	3546	3546	3546	3583	3583	3583	3583	3583	3583	3621	3621	5364	5364	5364	5364	5364	5364	5364	5282	5282	5364	5364	5282	5282	5364	5364	5364	5364	5364	5364	5282	5282	5282	5202	4977	4906	4771	4771	4771	4771	4706	4771	4706	4771	4771	4771	4706	4706	4706	4706	4706	4706	4706	4706	4706	4706	4771	4706	4706	4771	4771	4706	4706	4706	4706	4643	4643	4706	4706	4706	4706	4643	4643	4643	4643	4706	4706	4706	4706	4643	4643	4643	4643	4643	4643	4643	4706	4643	4706	4706	4643	4643	4643	4643	4643	4643	4643	4643	4643	4643	4706	4706	4706	4643	4643	4643	4643	4581	4581	4581	4643	4581	4643	4643	4643	4643	4643	4643	4643	4643	4643	4643	4643	4643	4643	4581	4643	4643	4643	4643	4643	4581	4581	4581	4581	4521	4463	4463	4463	4406	4406	4406	4406	4463	4463	4521	4463	4521	4521	4463	4521	4521	4521	4521	4521	4521	4521	4463	4463	4406	4406	4406	4406	4406	4406	4406	4406	4406	4463	4463	4463	4463	4463	4463	4406	4406	4406	4406	4406	4406	4406	4406	4406	4406	4406	4463	4406	4406	4406	4406	4406	4406	4406	4406	4406	4406	4406	4406	4406	4406	4406	4406	4463	4463	4406	4406	4406	4406	4463	4463	4581	4581	4706	4771	4771	4771	4706	4706	4706	4643	4643	7959	7959	7959	7959	7959	7959	7959	7959	7959	8146	8343	8343	8343	8343	8343	8343	8343	8343	8146	8146	8146	8146	7959	8146	8146	8146	8146	0	0	0	0	0	0	0	0	0	0	0	0	0	0	6992	6992	6992	6992	6992	7137	7137	7287	7287	7287	7287	7287	7287	7444	7287	7287	0	0	0	0	0	0	0	0	0	0	0	0	0	0	0	0	0	0	0	0	2589	2589	2589	2570	2570	2570	2551	2551	2532	2532	2532	2514	2514	2496	2496	2460	2443	2460	2443	2443	2443	2426	2426	2409	2409	2392	2392	2376	2376	2359	2343	2343	2327	2327	2327	2327	2312	2312	2312	2297	2297	2281	2281	2266	2266	2252	2252	2252	0	0	0	0	0	0	0	0	0	0	0	0	0	0	0	0	0	0	0	0	0	0	0	0	0	0	0	0	0	0	0	0	0	0	0	0
0	0	0	0	0	0	0	0	0	0	0	0	0	0	0	0	0	0	0	0	0	0	0	0	0	0	0	0	0	0	0	0	0	0	0	4643	4581	4521	4521	4521	4521	4581	4581	4581	4581	4581	4581	4581	4581	4581	4581	4581	4581	4581	4643	4643	4643	4581	4581	4643	4643	4643	4581	4643	4643	4581	4581	4581	4581	4581	4581	4581	4581	4581	4643	4643	4643	4643	4643	4581	4581	4581	4581	4643	4643	4643	4581	4581	4581	4643	4643	4643	4643	4643	4643	4643	4643	4643	4643	4643	4643	4643	4581	4581	4643	4581	4581	4581	4581	4581	4643	4643	4643	4643	4643	4643	4643	4643	4643	4643	4706	4906	4977	5050	5125	5125	5050	5050	0	0	0	0	0	0	0	0	5282	5202	5202	5125	5125	5125	5050	5050	5050	5125	5202	5202	5202	5202	5202	5202	5202	5202	5202	5202	5202	5202	5202	5282	5282	5202	0	0	0	0	0	0	0	0	0	0	0	0	0	0	6853	6992	6992	6992	6853	6853	6853	6853	6853	6853	6853	6853	6853	6853	6853	6853	6720	6720	6720	0	0	0	0	0	0	0	0	0	0	0	0	0	0	0	0	0	0	0	0	0	3546	3546	3546	3546	3510	3510	3510	3475	3475	3475	3475	3475	3475	3475	3475	3510	3510	3510	3546	3546	3510	3546	3546	3546	3546	3546	3546	0	0	0	0	0	3583	3583	3583	3583	3546	3583	3546	3546	3546	3546	3546	3546	3546	3583	3583	3583	3583	3583	3583	3583	3621	5364	5364	5364	5364	5364	5364	5282	5282	5282	5282	5282	5282	5282	5364	5364	5364	5364	5364	5282	5282	5282	5202	5125	4977	4906	4771	4771	4771	4771	4771	4771	4706	4771	4771	4771	4706	4706	4706	4706	4706	4706	4706	4771	4706	4706	4771	4706	4706	4771	4771	4706	4706	4706	4706	4581	4581	4838	4838	4771	4643	4643	4643	4643	4643	4706	4706	4706	4706	4706	4706	4706	4706	4706	4706	4643	4706	4643	4643	4643	4643	4643	4643	4643	4643	4643	4643	4643	4643	4643	4643	4706	4706	4643	4643	4643	4643	4643	4643	4581	4643	4643	4643	4643	4643	4643	4643	4643	4643	4643	4643	4643	4643	4643	4581	4581	4643	4581	4643	4643	4581	4581	4581	4581	4521	4521	4463	4463	4463	4406	4406	4406	4463	4463	4521	4521	4521	4521	4521	4521	4581	4581	4581	4581	4581	4581	4581	4521	4521	4463	4463	4406	4406	4463	4463	4463	4521	4463	4521	4521	4521	4581	4581	4521	4521	4463	4406	4406	4406	4406	4406	4406	4463	4463	4463	4521	4521	4521	4463	4463	4463	4463	4463	4463	4406	4406	4406	4406	4406	4406	4406	4406	4463	4463	4463	4406	4406	4406	4463	4463	4521	4521	4706	4771	4771	4771	4706	4706	4706	4643	4643	7959	7959	7959	7959	7959	7959	8146	8146	8146	8146	8343	8343	8343	8343	8343	8343	8343	8343	8343	8146	8146	8146	8146	8146	8146	8146	0	0	0	0	0	0	0	0	0	0	0	0	0	0	0	0	0	0	6992	6992	6992	7137	7137	7287	7287	7287	7287	7287	7444	7444	7444	0	0	0	0	0	0	0	0	0	0	0	0	0	0	0	0	0	0	0	2589	2589	2589	2589	2570	2570	2570	2551	2551	2532	2514	2514	2514	2514	2514	2496	2478	2460	2460	2460	2443	2443	2426	2426	2409	2409	2392	2392	2376	2376	2359	2343	2343	2327	2327	2327	2327	2327	2312	2312	2297	2297	2281	2281	2266	2266	2252	2252	2252	0	0	0	0	0	0	0	0	0	0	0	0	0	0	0	0	0	0	0	0	0	0	0	0	0	0	0	0	0	0	0	0	0	0	0	0
0	0	0	0	0	0	0	0	0	0	0	0	0	0	0	0	0	0	0	0	0	0	0	0	0	0	0	0	0	0	0	0	0	0	0	4581	4581	4581	4521	4521	4521	4581	4581	4581	4581	4581	4581	4581	4581	4581	4581	4581	4581	4581	4643	4643	4643	4581	4581	4643	4643	4643	4581	4643	4521	4581	4581	4581	4581	4581	4581	4581	4581	4581	4581	4643	4643	4643	4581	4581	4581	4643	4643	4643	4643	4643	4581	4581	4581	4643	4643	4643	4643	4643	4643	4643	4643	4643	4643	4581	4643	4643	4581	4581	4643	4581	4581	4581	4581	4581	4581	4581	4581	4643	4643	4643	4643	4643	4643	4706	4771	4906	4977	5050	5125	5125	5050	5050	0	0	0	0	0	0	5626	5448	5202	5202	5202	5202	5125	5125	5125	5050	5125	5125	5202	5202	5202	5202	5202	5202	5202	5202	5202	5202	5202	5202	5202	5202	5282	0	0	0	0	0	0	0	0	0	0	0	0	0	0	0	6992	6992	6992	6853	6853	6853	6853	6853	6853	6853	6853	6853	6853	6853	6853	6853	6720	6592	6592	0	0	0	0	0	0	0	0	0	0	0	0	0	0	0	0	0	0	0	0	0	0	3510	3510	3546	3510	3510	3510	3475	3475	3475	3475	3475	3475	3475	3475	3546	3510	3510	3510	3546	3510	3546	3546	3546	3546	3546	0	0	0	0	0	3659	3583	3583	3583	3583	3583	3583	3546	3546	3546	3546	3546	3546	3546	3546	3546	3583	3583	3583	3583	3621	3621	5364	5364	5364	5364	5364	5364	5282	5282	5282	5282	5282	5282	5282	5364	5364	5364	5364	5364	5282	5282	5282	5202	5125	4977	4906	4771	4771	4771	4771	4706	4771	4706	4706	4706	4706	4706	4706	4706	4706	4706	4706	4706	4706	4706	4706	4706	4706	4706	4706	4706	4706	4706	4706	4706	4581	4643	4643	4706	4643	4643	4643	4643	4643	4643	4706	4706	4706	4706	4706	4706	4706	4643	4706	4643	4643	4706	4643	4643	4643	4706	4643	4643	4643	4643	4643	4643	4643	4643	4643	4643	4643	4706	4643	4643	4643	4643	4643	4643	4643	4643	4643	4643	4643	4643	4643	4706	4643	4643	4643	4643	4643	4643	4581	4581	4581	4643	4643	4643	4643	4581	4581	4581	4581	4521	4521	4463	4463	4463	4406	4463	4463	4463	4521	4521	4581	4581	4581	4581	4581	4581	4581	4643	4643	4643	4643	4643	4581	4581	4581	4581	4521	4521	4643	4706	4581	4643	4643	4643	4643	4643	4581	4643	4643	4581	4521	4463	4463	4463	4463	4406	4463	4463	4521	4521	4581	4581	4581	4521	4521	4521	4521	4521	4521	4521	4463	4463	4463	4463	4463	4463	4463	4521	4521	4463	4463	4463	4463	4463	4463	4463	4643	4771	4771	4771	4771	4706	4706	4643	4643	7959	7959	7959	7959	7959	7959	7959	8146	8146	8146	8146	8550	8550	8550	8550	8343	8343	8343	8343	8343	8343	8146	8146	8146	8146	8146	8146	8146	0	0	0	0	0	0	0	0	0	0	0	0	0	0	0	0	0	6992	6992	7137	7137	7137	7137	7287	7287	7287	7287	7444	7444	7444	0	0	0	0	0	0	0	0	0	0	0	0	0	0	0	0	0	0	0	2589	2589	2589	2589	2570	2570	2551	2551	2532	2532	2514	2514	2514	2514	2514	2496	2478	2460	2460	2460	2443	2443	2443	2426	2426	2409	2392	2392	2376	2376	2359	2343	2343	2327	2327	2327	2327	2312	2312	2297	2281	2281	2281	2266	2266	2266	2252	2252	2252	0	0	0	0	0	0	0	0	0	0	0	0	0	0	0	0	0	0	0	0	0	0	0	0	0	0	0	0	0	0	0	0	0	0	0	0
0	0	0	0	0	0	0	0	0	0	0	0	0	0	0	0	0	0	0	0	0	0	0	0	0	0	0	0	0	0	0	0	0	0	0	4521	4521	4521	4521	4521	4581	4581	4581	4581	4581	4581	4581	4581	4581	4581	4581	4581	4581	4581	4643	4643	4643	4581	4581	4643	4643	4581	4581	4581	4521	4521	4581	4581	4581	4643	4643	4581	4643	4643	4643	4643	4643	4643	4581	4581	4581	4643	4643	4643	4643	4581	4581	4581	4581	4643	4643	4643	4643	4643	4643	4643	4643	4643	4643	4581	4643	4581	4581	4581	4581	4581	4581	4581	4581	4581	4643	4581	4643	4643	4643	4643	4643	4643	4643	4706	4706	4906	5050	5125	5125	5125	5125	5050	5125	5125	0	0	0	0	5448	5282	5202	5202	5202	5125	5125	5125	5125	5050	5050	5050	5125	5202	5202	5202	5202	5202	5202	5202	5202	5202	5282	5202	5282	5282	0	0	0	0	0	0	0	0	0	0	0	0	0	0	0	0	6992	6992	6992	6992	6853	6853	6853	6853	6853	6853	6853	6853	6853	6853	6853	6720	6720	6592	6592	0	0	0	0	0	0	0	0	0	0	0	0	0	0	0	0	0	0	0	0	0	3546	3510	3510	3546	3510	3510	3510	3475	3475	3475	3475	3475	3475	3475	3475	3510	3546	3546	3546	3546	3546	3546	3546	3546	3546	3546	0	0	0	0	3621	3621	3621	3583	3583	3583	3583	3583	3546	3546	3546	3546	3546	3546	3546	3546	3546	3583	3583	3583	3583	3583	3621	3621	5364	5364	5364	5364	5364	5282	5282	5282	5282	5282	5282	5282	5364	5364	5364	5364	5364	5282	5282	5282	5202	5125	5050	4906	4771	4771	4771	4771	4706	4706	4706	4706	4706	4706	4706	4706	4706	4706	4706	4706	4706	4706	4706	4706	4706	4706	4706	4706	4706	4706	4706	4706	4643	4581	4643	4643	4706	4706	4643	4706	4706	4643	4643	4643	4643	4706	4706	4643	4706	4706	4706	4706	4643	4643	4643	4643	4643	4643	4706	4706	4706	4643	4643	4643	4643	4643	4643	4643	4643	4643	4706	4643	4643	4643	4643	4643	4643	4643	4643	4643	4706	4643	4643	4643	4643	4643	4643	4643	4643	4581	4581	4581	4581	4581	4643	4643	4643	4643	4581	4581	4581	4581	4521	4521	4463	4463	4463	4463	4463	4521	4581	4581	4581	4643	4643	4643	4643	4643	4643	4643	4643	4643	4706	4706	4706	4643	4706	4706	4706	4643	4706	4706	4706	4706	4643	4643	4643	4643	4643	4643	4643	4643	4643	4581	4581	4581	4521	4521	4521	4521	4521	4581	4581	4581	4581	4581	4581	4581	4581	4581	4581	4581	4581	4581	4581	4581	4581	4521	4521	4463	4521	4521	4521	4463	4463	4463	4463	4521	4463	4521	4643	4706	4706	4706	4706	4706	4643	4643	7959	7959	7959	7959	7959	7959	7959	8146	8146	8146	8146	8343	8343	8550	8550	8343	8343	8343	8343	8343	8343	8146	8146	8146	8146	8146	8146	8146	0	0	0	0	0	0	0	0	0	0	0	0	0	0	0	0	0	6992	6992	6992	7137	7137	7137	7137	7287	7287	7287	7444	7444	7444	7444	7444	0	0	0	0	0	0	0	0	0	0	0	0	0	0	0	0	0	2589	2589	2589	2589	2589	2570	2551	2532	2532	2532	2514	2514	2514	2514	2496	2496	2478	2460	2460	2460	2443	2443	2443	2426	2426	2409	2392	2392	2376	2376	2376	2359	2343	2327	2327	2327	2312	2312	2312	2281	2266	2281	2266	2266	2266	2266	2252	2252	2252	0	0	0	0	0	0	0	0	0	0	0	0	0	0	0	0	0	0	0	0	0	0	0	0	0	0	0	0	0	0	0	0	0	0	0	0
0	0	0	0	0	0	0	0	0	0	0	0	0	0	0	0	0	0	0	0	0	0	0	0	0	0	0	0	0	0	0	0	0	0	0	4463	4521	4521	4521	4521	4581	4581	4581	4581	4581	4581	4581	4581	4581	4581	4581	4581	4581	4581	4581	4643	4643	4581	4581	4643	4643	4581	4581	4581	4581	4581	4581	4581	4581	4643	4581	4581	4581	4581	4581	4643	4643	4643	4581	4643	4643	4643	4643	4643	4643	4643	4643	4581	4643	4643	4643	4643	4643	4643	4643	4643	4643	4643	4643	4581	4581	4581	4581	4581	4581	4581	4581	4581	4643	4643	4643	4643	4643	4706	4643	4643	4643	4643	4643	4706	4771	4838	4977	5050	5125	5125	5125	5050	5125	5202	5282	5364	5202	5202	5364	5282	5202	5202	5125	5125	5125	5125	5125	5125	5050	5050	5125	5125	5202	5202	5202	5202	5202	5202	5202	5202	5282	5202	5202	5282	5282	5282	0	0	0	0	0	0	0	0	0	0	0	0	0	0	7137	6992	6992	6853	6853	6853	6853	6853	6853	6853	6853	6853	6853	6853	6853	6720	6720	6720	6720	0	0	0	0	0	0	0	0	0	0	0	0	0	0	0	0	0	0	0	0	0	3546	3546	3546	3546	3546	3510	3510	3510	3510	3475	3475	3475	3475	3475	3475	3546	3546	3546	3546	3546	3510	3546	3546	3546	3546	3546	0	0	0	0	3621	3621	3583	3583	3583	3583	3583	3583	3546	3546	3546	3546	3546	3546	3546	3546	3546	3583	3583	3583	3583	3583	3621	3621	5364	5364	5364	5364	5364	5364	5282	5282	5282	5282	5282	5282	5364	5364	5364	5364	5364	5282	5282	5282	5202	5202	5050	4977	4771	4771	4771	4771	4706	4706	4706	4706	4706	4706	4706	4706	4706	4706	4706	4706	4706	4706	4706	4706	4706	4706	4706	4706	4771	4771	4771	4771	4706	4581	4706	4643	4706	4706	4643	4706	4706	4706	4706	4706	4706	4706	4706	4706	4706	4706	4643	4643	4643	4643	4643	4643	4643	4706	4706	4706	4706	4643	4643	4643	4643	4643	4643	4643	4643	4643	4643	4643	4643	4643	4643	4643	4643	4643	4706	4706	4706	4706	4706	4643	4643	4643	4643	4643	4643	4581	4581	4581	4581	4643	4643	4643	4643	4643	4643	4581	4581	4581	4521	4521	4463	4463	4463	4463	4463	4581	4581	4581	4643	4706	4771	4706	4706	4643	4643	4706	4706	4706	4706	4706	4706	4706	4706	4706	4706	4706	4706	4706	4706	4706	4706	4706	4706	4706	4706	4706	4771	4771	4771	4771	4771	4706	4643	4643	4643	4643	4643	4643	4643	4643	4581	4643	4643	4581	4581	4581	4643	4643	4643	4643	4643	4643	4643	4581	4581	4581	4581	4581	4521	4463	4463	4463	4463	4463	4521	4521	4643	4706	4706	4706	4706	4706	4706	4706	7959	7959	7959	7959	8146	8146	7959	8146	8146	8146	8146	8343	8343	8550	8550	8343	8343	8343	8343	8343	8343	8146	8146	8146	8146	8146	7959	7959	7959	0	0	0	0	0	0	0	0	0	0	0	0	0	0	0	0	0	6992	7137	7137	7137	7287	7287	7287	7444	7444	7444	7444	7444	7444	7444	7444	0	0	0	0	0	0	0	0	0	0	0	0	0	0	0	0	0	2589	2589	2589	2589	2570	2551	2532	2532	2514	2514	2514	2496	2496	2496	2496	2496	2478	2478	2460	2460	2443	2443	2443	2426	2409	2409	2392	2376	2376	2376	2359	2343	2327	2327	2327	2312	2312	2297	2281	2266	2266	2266	2266	2266	2266	2252	2252	2252	0	0	0	0	0	0	0	0	0	0	0	0	0	0	0	0	0	0	0	0	0	0	0	0	0	0	0	0	0	0	0	0	0	0	0	0
0	0	0	0	0	0	0	0	0	0	0	0	0	0	0	0	0	0	0	0	0	0	0	0	0	0	0	0	0	0	0	0	0	0	0	4406	4406	4521	4521	4521	4521	4521	4581	4581	4581	4581	4581	4581	4581	4521	4581	4581	4581	4581	4581	4581	4643	4581	4581	4643	4643	4581	4581	4581	4581	4581	4581	4581	4581	4643	4643	4581	4643	4643	4643	4581	4643	4643	4581	4643	4643	4643	4643	4643	4643	4643	4643	4643	4643	4643	4643	4643	4643	4643	4643	4643	4643	4643	4643	4581	4581	4581	4581	4581	4581	4581	4581	4581	4643	4643	4643	4643	4643	4706	4706	4643	4643	4706	4706	4706	4706	4771	4977	5050	5050	5125	5050	5050	5125	5202	5202	5282	5125	5202	5202	5202	5202	5125	5125	5125	5125	5125	5125	5125	5050	5125	5125	5125	5202	5202	5202	5202	5202	5202	5202	5202	5202	5202	5125	5125	5202	5282	5282	0	0	0	0	0	0	0	0	0	0	0	0	0	6992	6992	6853	6853	6853	6853	6853	6853	6853	6853	6853	6853	6853	6853	6853	6720	6468	6468	6720	0	0	0	0	0	0	0	0	0	0	0	0	0	0	0	0	0	0	0	0	3546	3546	3510	3510	3546	3546	3510	3510	3510	3510	3510	3510	3510	3475	3475	3475	3546	3546	3546	3546	3546	3546	3546	3546	3546	3583	3583	0	0	0	0	3621	3659	3621	3583	3583	3583	3583	3583	3583	3546	3546	3546	3546	3546	3546	3546	3546	3583	3583	3583	3583	3583	3621	3621	5364	5364	5364	5364	5364	5364	5282	5282	5282	5282	5282	5282	5364	5364	5364	5364	5364	5282	5282	5202	5202	5125	5050	4906	4838	4771	4706	4706	4706	4706	4706	4706	4706	4706	4706	4706	4706	4706	4706	4706	4706	4706	4706	4706	4706	4706	4706	4706	4771	4771	4771	4706	4706	4581	4706	4643	4643	4643	4643	4706	4706	4706	4706	4706	4706	4706	4706	4706	4643	4643	4643	4643	4643	4643	4643	4643	4706	4706	4706	4706	4706	4706	4643	4643	4643	4643	4643	4643	4643	4643	4643	4643	4643	4643	4643	4643	4643	4643	4643	4643	4643	4643	4643	4643	4643	4581	4581	4581	4643	4581	4581	4643	4643	4643	4643	4643	4643	4643	4643	4581	4581	4581	4581	4521	4463	4463	4463	4463	4521	4706	4706	4706	4706	4771	4771	4771	4706	4706	4706	4706	4771	4706	4771	4771	4706	4706	4706	4706	4706	4771	4706	4706	4706	4706	4706	4706	4706	4706	4706	4771	4771	4771	4838	4771	4838	4771	4771	4706	4643	4643	4643	4643	4643	4643	4643	4643	4643	4643	4643	4643	4643	4643	4643	4643	4643	4643	4643	4581	4581	4581	4581	4581	4521	4521	4521	4521	4521	4581	4581	4581	4643	4706	4706	4706	4706	4643	4643	4643	8146	7959	7959	7959	7959	7959	7959	7959	7959	8146	8146	8146	8343	8550	8550	8343	8343	8343	8343	8343	8343	8146	8146	8146	8146	8146	7959	7959	7959	0	0	0	0	0	0	0	0	0	0	0	0	0	0	0	0	0	0	7137	7137	7137	7137	7287	7287	7287	7287	7444	7444	7444	7444	7444	7608	7444	7444	0	0	0	0	0	0	0	0	0	0	0	0	0	0	2649	2589	2589	2589	2589	2570	2570	2532	2532	2514	2514	2496	2496	2514	2496	2496	2496	2478	2478	2460	2460	2443	2443	2443	2426	2409	2409	2392	2376	2376	2376	2359	2343	2343	2327	2327	2312	2312	2297	2281	2266	2266	2266	2266	2266	2252	2252	2252	2252	0	0	0	0	0	0	0	0	0	0	0	0	0	0	0	0	0	0	0	0	0	0	0	0	0	0	0	0	0	0	0	0	0	0	0	0
0	0	0	0	0	0	0	0	0	0	0	0	0	0	0	0	0	0	0	0	0	0	0	0	0	0	0	0	0	0	0	0	0	0	4350	4406	4463	4521	4521	4521	4521	4521	4521	4581	4581	4521	4581	4581	4581	4581	4581	4581	4581	4581	4581	4581	4581	4581	4581	4643	4643	4643	4581	4581	4581	4643	4643	4581	4581	4643	4581	4581	4643	4643	4643	4643	4643	4643	4643	4581	4643	4643	4643	4643	4643	4643	4643	4643	4643	4643	4643	4643	4643	4643	4643	4643	4581	4643	4581	4581	4581	4581	4581	4581	4581	4581	4581	4643	4643	4643	4643	4643	4643	4706	4643	4643	4643	4706	4706	4706	4771	4838	4977	5050	5050	5050	5050	5050	5125	5202	5202	5202	5202	5202	5202	5202	5125	5125	5125	5125	5125	5125	5125	5125	5125	5125	5125	5125	5202	5202	5202	5202	5202	5202	5202	5202	5202	5202	5125	5125	5125	5125	5282	0	0	0	0	0	0	0	0	0	0	0	0	0	6992	6992	6853	6853	6853	6853	6853	6853	6992	6992	6853	6853	6853	6853	6720	6468	6349	6349	0	0	0	0	0	0	0	0	0	0	0	0	0	0	0	0	0	0	0	0	3546	3546	3546	3546	3546	3510	3546	3510	3510	3510	3510	3510	3510	3510	3510	3475	3510	3546	3546	3546	3546	3546	3546	3546	3546	3546	3546	3583	0	0	0	0	0	3659	3583	3583	3583	3583	3583	3583	3583	3546	3546	3546	3546	3546	3546	3546	3583	3583	3583	3583	3583	3583	3583	3583	5364	5364	5364	5364	5364	5282	5282	5282	5282	5282	5282	5282	5364	5364	5364	5364	5364	5282	5282	5202	5202	5202	5050	4906	4906	4771	4706	4706	4706	4706	4643	4706	4706	4706	4706	4643	4706	4706	4706	4706	4706	4706	4706	4706	4706	4706	4706	4706	4771	4771	4771	4706	4643	4581	4581	4581	4581	4581	4643	4706	4706	4706	4706	4643	4643	4643	4643	4643	4643	4643	4643	4643	4643	4643	4643	4643	4643	4643	4643	4706	4706	4706	4706	4643	4643	4643	4643	4643	4643	4643	4643	4643	4643	4643	4643	4706	4643	4643	4643	4643	4706	4643	4643	4643	4643	4643	4581	4643	4643	4643	4643	4643	4643	4643	4643	4643	4643	4643	4581	4581	4581	4581	4581	4521	4521	4463	4521	4521	4581	4706	4706	4706	4706	4706	4771	4771	4771	4771	4771	4771	4771	4706	4771	4771	4706	4706	4706	4706	4706	4771	4771	4771	4771	4706	4771	4771	4706	4706	4706	4771	4771	4771	4771	4771	4771	4771	4771	4706	4706	4706	4643	4706	4643	4643	4643	4643	4706	4643	4643	4643	4706	4706	4706	4706	4706	4706	4706	4581	4643	4643	4643	4581	4581	4521	4521	4521	4521	4581	4521	4581	4581	4706	4706	4706	4706	4706	4706	4643	4643	7959	7959	7779	7959	7959	7959	7959	7959	8146	8146	8146	8343	8550	8343	8343	8343	8343	8343	8343	8343	8146	8146	8146	8146	8146	7959	7959	7959	0	0	0	0	0	0	0	0	0	0	0	0	0	0	0	0	0	0	7137	7137	7287	7287	7287	7287	7287	7287	7287	7444	7287	7287	7444	7444	7444	7608	7608	0	0	0	0	0	0	0	0	0	0	0	0	0	2649	2609	2609	2589	2589	2570	2570	2532	2514	2514	2514	2496	2496	2496	2496	2496	2496	2478	2478	2478	2460	2443	2443	2443	2426	2409	2409	2392	2376	2376	2376	2376	2359	2343	2343	2327	2327	2312	2297	2281	2266	2266	2266	2266	2266	2252	2252	2252	2252	0	0	0	0	0	0	0	0	0	0	0	0	0	0	0	0	0	0	0	0	0	0	0	0	0	0	0	0	0	0	0	0	0	0	0	0
