0	0	0	0	0	0	0	0	0	0	0	0	0	0	0	0	0	0	0	0	0	0	0	0	0	491	489	490	490	490	498	497	497	498	497	497	496	496	497	497	497	497	498	498	499	499	498	498	499	500	500	500	501	503	504	506	507	507	506	505	506	506	510	510	510	511	511	511	511	511	518	518	0	0	0	0	0	0	0	0	0	0	0	0	0	0	0	0	0	0	0	0	0	0	0	0	0	0	0	873	875	873	875	875	878	878	878	878	878	878	880	880	880	880	882	882	882	882	882	884	884	884	887	887	889	891	891	894	894	898	898	901	901	903	903	905	905	905	0	0	0	0	0	0	0	0	3406	3406	3373	3373	3406	3406	3373	3373	3373	3373	3373	3373	3373	3373	3373	3373	3373	3406	3406	3406	3440	3475	3510	3698	3738	3738	3738	3738	3738	3738	3698	3698	3698	3698	3738	3738	3779	3779	3779	3779	3779	3779	3779	3779	3779	3779	3779	3779	3779	3779	3779	3779	3779	3779	3779	3779	3779	3779	3779	3779	3779	3779	3779	3779	3779	3779	3738	3738	3738	3738	3738	3738	3738	3738	3738	3738	3738	3738	3779	3779	3779	3779	3779	3779	3779	3738	3738	3738	3738	3738	3738	3738	3738	3738	3738	3738	3738	3738	3738	3738	3738	3738	3738	3738	3738	3738	3738	3738	3738	3738	3738	3738	3738	3738	3738	3738	3738	3738	3738	3738	3738	3738	3738	3738	3738	3738	3738	3019	2993	2993	3019	3019	3019	3019	3019	2993	3019	3019	2993	2993	2993	2993	2993	2967	2967	2942	2942	2893	2893	2893	2893	2893	2893	2893	2893	2893	2893	2869	2869	2869	2869	2869	2869	2869	2869	2869	2845	2845	2845	2845	2845	2845	2845	2845	2845	2845	2845	2845	2845	2845	2845	2845	2845	2845	2845	2845	2845	2845	2845	2845	2845	2845	2845	2845	2869	2893	2893	2917	2942	2942	2942	2967	2967	2967	2967	2967	2967	2967	2967	2967	2967	2967	2967	2967	3698	3698	3698	3698	3698	3698	3698	3698	3698	3698	3698	3698	3698	3698	3698	3659	3698	3698	3698	3698	3698	3698	3698	3698	3698	3698	3698	3698	3698	3698	3698	3698	3698	3698	3698	3698	3698	3698	3698	3698	3698	3698	3698	3698	3698	3698	3698	3659	3698	3698	3698	3698	3698	3698	3698	3659	3659	3659	3659	3659	3659	3659	3621	3659	3659	3621	3621	3621	3621	3621	3621	3621	3621	3621	3659	3659	3659	3659	3659	3659	3659	3659	3659	3659	3659	3659	3659	3659	3659	3659	3659	3659	3659	3659	3659	3659	3659	3659	3659	3659	3621	3621	3621	3621	3621	3621	3621	3621	3621	3621	3621	3621	3621	3583	3621	3659	3659	3659	3659	3659	3698	3659	3659	3659	3659	3659	3659	3659	3659	3659	3659	3659	3659	3659	3659	0	0	0	0	0	0	0	0	0	0	0	0	0	0	0	0	0	0	0	0	0	0	0	0	0	0	0	0	0	0	0	0	0	0	0	0	0	0	0	0	0	0	0	0	0	0	0	0	0	0	0	0	0	0	0	0	0	0	0	0	0	0	0	0	0	0	0	0	0	0	0	0	0	0	0	0	0	0	0	0	0	0	0	0	0	0	0	0	0	0	0	0	0	0	0	0	0	0	0	0	0	0	0	0	0	0	0	0	0	0	0	0	0	0	0	0	0	0	0	0	0	0	0	0	0	0	0	0	0	0	0	0	0	0	0	0	0	0	0	0	0	0	0	0	0
0	0	0	0	0	0	0	0	0	0	0	0	0	0	0	0	0	0	0	0	0	0	0	0	0	0	489	490	490	490	498	498	498	499	498	497	496	496	498	498	498	498	498	499	500	500	499	501	501	501	501	501	502	503	503	506	507	507	507	505	505	510	510	510	510	511	511	511	511	513	513	0	0	0	0	0	0	0	0	0	0	0	0	0	0	0	0	0	0	0	0	0	0	0	0	0	0	0	875	875	875	875	875	875	878	880	878	878	880	880	880	880	882	882	882	882	882	882	884	884	884	887	887	889	891	894	894	894	894	898	901	903	905	905	905	905	0	0	0	0	0	0	0	0	0	0	3440	3440	3406	3406	3406	3406	3373	3373	3373	3406	3373	3373	3373	3373	3406	3373	3373	3406	3406	3406	3406	3475	3475	3510	3659	3698	3738	3738	3738	3738	3698	3698	3698	3698	3738	3738	3738	3779	3779	3779	3779	3779	3779	3779	3779	3779	3779	3779	3779	3779	3779	3779	3779	3779	3779	3779	3779	3779	3779	3779	3779	3779	3779	3779	3779	3738	3738	3738	3738	3738	3738	3738	3738	3738	3738	3738	3738	3738	3738	3738	3779	3738	3738	3779	3738	3738	3738	3738	3738	3738	3738	3738	3738	3738	3738	3738	3738	3738	3738	3738	3738	3738	3738	3738	3738	3738	3738	3738	3738	3738	3738	3738	3738	3738	3738	3738	3738	3738	3738	3738	3738	3738	3738	3738	3698	3738	3738	3779	3019	3019	3019	3019	3019	3019	3019	2993	2993	3019	2993	2993	2993	2993	2993	2967	2967	2942	2917	2893	2893	2893	2893	2893	2893	2893	2893	2893	2893	2893	2869	2869	2869	2869	2869	2869	2869	2869	2845	2845	2822	2845	2822	2845	2845	2845	2845	2845	2845	2845	2845	2845	2845	2845	2845	2845	2845	2845	2845	2845	2845	2845	2845	2845	2845	2869	2869	2893	2893	2917	2942	2942	2942	2967	2942	2967	2967	2967	2967	2967	2967	2967	2967	2967	2967	3698	3698	3698	3698	3698	3698	3698	3698	3698	3698	3698	3698	3698	3698	3698	3698	3659	3698	3698	3698	3698	3698	3698	3698	3698	3698	3698	3698	3698	3698	3698	3698	3698	3698	3698	3698	3698	3698	3698	3698	3698	3698	3698	3698	3698	3698	3698	3659	3659	3698	3698	3698	3698	3698	3698	3698	3698	3659	3659	3659	3659	3659	3659	3659	3659	3659	3659	3621	3621	3621	3621	3621	3621	3621	3621	3621	3659	3659	3659	3659	3659	3659	3659	3659	3659	3659	3659	3659	3659	3659	3621	3621	3659	3659	3659	3659	3659	3659	3659	3659	3659	3621	3621	3621	3621	3621	3621	3583	3621	3621	3621	3621	3621	3621	3621	3659	3659	3659	3659	3659	3659	3659	3659	3659	3659	3659	3659	3621	3659	3659	3659	3659	3659	3659	3659	3659	0	0	0	0	0	0	0	0	0	0	0	0	0	0	0	0	0	0	0	0	0	0	0	0	0	0	0	0	0	0	0	0	0	0	0	0	0	0	0	0	0	0	0	0	0	0	0	0	0	0	0	0	0	0	0	0	0	0	0	0	0	0	0	0	0	0	0	0	0	0	0	0	0	0	0	0	0	0	0	0	0	0	0	0	0	0	0	0	0	0	0	0	0	0	0	0	0	0	0	0	0	0	0	0	0	0	0	0	0	0	0	0	0	0	0	0	0	0	0	0	0	0	0	0	0	0	0	0	0	0	0	0	0	0	0	0	0	0	0	0	0	0	0	0	0
0	0	0	0	0	0	0	0	0	0	0	0	0	0	0	0	0	0	0	0	0	0	0	0	0	0	0	489	489	490	498	498	498	499	500	499	498	498	499	498	498	498	499	500	501	501	501	501	502	501	502	503	504	504	504	505	507	507	507	506	510	511	511	510	510	511	511	511	512	512	513	0	0	0	0	0	0	0	0	0	0	0	0	0	0	0	0	0	0	0	0	0	0	0	0	0	0	0	880	875	875	875	878	875	880	880	880	880	880	880	880	882	882	882	882	882	882	882	884	884	887	889	891	891	894	896	896	896	898	898	901	903	908	908	908	905	0	0	0	0	0	0	0	0	0	3440	3440	3440	3440	3440	3440	3440	3406	3373	3373	3406	3406	3406	3406	3406	3406	3406	3406	3406	3406	3406	3406	3440	3440	3475	3546	3698	3698	3698	3738	3738	3738	3698	3698	3738	3738	3738	3738	3779	3779	3779	3779	3779	3779	3779	3779	3779	3779	3779	3779	3779	3779	3779	3779	3779	3779	3779	3779	3779	3779	3779	3779	3779	3779	3779	3738	3738	3738	3738	3738	3738	3738	3738	3738	3738	3738	3738	3738	3738	3738	3738	3738	3738	3738	3779	3738	3738	3738	3738	3738	3738	3738	3738	3738	3738	3738	3738	3738	3738	3738	3738	3738	3738	3738	3738	3738	3738	3738	3738	3738	3738	3738	3738	3738	3738	3738	3738	3738	3738	3738	3698	3738	3738	3738	3738	3738	3738	3738	3046	3019	3019	3019	3046	3019	3046	3019	3019	3019	3019	2993	2993	2993	2993	2993	2967	2967	2942	2942	2917	2893	2893	2893	2893	2893	2893	2893	2893	2893	2869	2869	2869	2869	2869	2869	2869	2869	2869	2845	2845	2845	2845	2845	2845	2845	2845	2845	2845	2845	2845	2845	2845	2845	2845	2845	2845	2845	2845	2845	2845	2845	2845	2845	2845	2845	2869	2869	2893	2893	2917	2942	2967	2967	2967	2967	2967	2967	2967	2967	2967	2967	2967	2967	2967	3698	3698	3698	3698	3698	3698	3698	3698	3698	3698	3698	3698	3698	3698	3698	3698	3698	3659	3698	3698	3698	3698	3698	3698	3698	3698	3698	3698	3698	3698	3698	3659	3698	3698	3698	3698	3698	3698	3698	3698	3698	3698	3698	3698	3698	3698	3698	3698	3659	3659	3698	3698	3698	3659	3659	3659	3698	3659	3659	3659	3659	3659	3659	3659	3659	3659	3659	3659	3621	3621	3621	3621	3621	3621	3621	3621	3621	3659	3659	3659	3659	3659	3659	3659	3659	3659	3659	3659	3659	3659	3659	3621	3621	3659	3659	3659	3659	3659	3659	3659	3659	3659	3659	3621	3621	3621	3621	3621	3621	3621	3621	3621	3621	3621	3621	3583	3621	3659	3659	3621	3659	3659	3659	3659	3659	3659	3659	3659	3659	3659	3659	3659	3659	3659	3659	3659	3659	0	0	0	0	0	0	0	0	0	0	0	0	0	0	0	0	0	0	0	0	0	0	0	0	0	0	0	0	0	0	0	0	0	0	0	0	0	0	0	0	0	0	0	0	0	0	0	0	0	0	0	0	0	0	0	0	0	0	0	0	0	0	0	0	0	0	0	0	0	0	0	0	0	0	0	0	0	0	0	0	0	0	0	0	0	0	0	0	0	0	0	0	0	0	0	0	0	0	0	0	0	0	0	0	0	0	0	0	0	0	0	0	0	0	0	0	0	0	0	0	0	0	0	0	0	0	0	0	0	0	0	0	0	0	0	0	0	0	0	0	0	0	0	0	0
0	0	0	0	0	0	0	0	0	0	0	0	0	0	0	0	0	0	0	0	0	0	0	0	0	0	489	489	489	0	0	498	498	500	500	501	501	499	499	499	499	499	500	500	501	501	501	501	501	501	502	503	504	504	504	505	506	507	508	507	510	511	511	511	511	511	512	512	512	512	0	0	0	0	0	0	0	0	0	0	0	0	0	0	0	0	0	0	0	0	0	0	0	0	0	0	878	878	880	878	878	875	878	878	880	880	880	880	880	882	882	882	882	882	884	884	887	887	887	889	891	891	891	894	896	896	898	898	898	901	901	905	908	910	910	0	0	0	0	0	0	0	0	0	0	3440	3440	3440	3440	3440	3440	3440	3406	3406	3406	3440	3406	3406	3406	3440	3440	3440	3440	3440	3440	3440	3406	3440	3475	3475	3510	3698	3698	3738	3738	3738	3738	3698	3738	3738	3738	3738	3738	3779	3779	3779	3779	3779	3779	3738	3779	3779	3779	3779	3779	3779	3779	3779	3779	3779	3779	3779	3779	3779	3779	3779	3779	3779	3779	3779	3779	3779	3738	3738	3738	3738	3738	3738	3738	3738	3738	3738	3738	3738	3738	3738	3738	3738	3738	3779	3738	3738	3738	3738	3738	3738	3738	3738	3738	3738	3738	3738	3738	3738	3738	3738	3738	3738	3738	3738	3738	3738	3738	3738	3738	3738	3738	3738	3738	3738	3738	3738	3738	3738	3738	3738	3738	3738	3738	3738	3738	3738	3738	3738	3046	3046	3046	3046	3019	3019	3019	3019	3019	3019	2993	2993	2993	2993	2967	2967	2967	2942	2917	2893	2893	2893	2893	2893	2893	2893	2893	2893	2869	2869	2869	2869	2869	2869	2869	2869	2869	2869	2845	2845	2845	2845	2845	2845	2845	2845	2845	2845	2845	2845	2845	2845	2845	2845	2845	2845	2845	2845	2845	2845	2845	2845	2845	2845	2845	2869	2869	2869	2893	2917	2942	2967	2967	2967	2967	2967	2967	2967	2967	2967	2967	2967	2967	2967	3698	3698	3698	3698	3698	3698	3698	3698	3698	3698	3698	3698	3698	3698	3698	3698	3698	3659	3659	3698	3698	3698	3698	3698	3698	3698	3698	3698	3698	3698	3698	3659	3698	3698	3698	3698	3698	3659	3659	3659	3659	3659	3659	3659	3659	3659	3698	3659	3659	3659	3698	3698	3698	3698	3698	3698	3698	3698	3659	3659	3698	3659	3659	3659	3659	3659	3659	3659	3659	3659	3621	3621	3621	3621	3621	3621	3621	3659	3621	3659	3659	3659	3659	3659	3659	3659	3698	3659	3659	3659	3659	3621	3621	3621	3659	3621	3621	3659	3659	3659	3659	3659	3621	3621	3621	3621	3621	3621	3621	3621	3621	3621	3621	3621	3583	3583	3621	3621	3621	3621	3659	3659	3659	3659	3659	3659	3659	3659	3659	3659	3659	3659	3659	3659	3659	3659	3659	0	0	0	0	0	0	0	0	0	0	0	0	0	0	0	0	0	0	0	0	0	0	0	0	0	0	0	0	0	0	0	0	0	0	0	0	0	0	0	0	0	0	0	0	0	0	0	0	0	0	0	0	0	0	0	0	0	0	0	0	0	0	0	0	0	0	0	0	0	0	0	0	0	0	0	0	0	0	0	0	0	0	0	0	0	0	0	0	0	0	0	0	0	0	0	0	0	0	0	0	0	0	0	0	0	0	0	0	0	0	0	0	0	0	0	0	0	0	0	0	0	0	0	0	0	0	0	0	0	0	0	0	0	0	0	0	0	0	0	0	0	0	0	0	0
0	0	0	0	0	0	0	0	0	0	0	0	0	0	0	0	0	0	0	0	0	0	0	0	0	0	489	489	489	0	0	0	0	500	500	500	499	499	500	500	498	498	501	501	501	501	501	501	502	502	503	503	504	504	505	505	507	508	509	510	510	511	511	512	512	511	512	513	513	516	517	517	519	519	0	0	0	0	0	0	0	0	0	0	0	0	0	0	0	0	0	0	0	0	0	0	878	878	878	878	878	878	878	878	878	880	880	880	882	882	882	882	882	884	887	887	887	889	889	891	891	891	894	894	898	898	898	901	901	903	905	908	910	910	910	0	0	0	0	0	0	0	0	0	0	3440	3475	3475	3440	3440	3440	3440	3440	3406	3406	3440	3440	3440	3440	3440	3440	3440	3440	3440	3440	3440	3406	3440	3440	3440	3510	3659	3698	3698	3738	3738	3698	3698	3698	3738	3738	3738	3738	3779	3779	3779	3779	3779	3779	3738	3779	3779	3779	3779	3779	3779	3779	3779	3779	3779	3738	3738	3779	3779	3779	3779	3779	3779	3779	3779	3779	3738	3738	3738	3738	3738	3738	3738	3738	3738	3738	3738	3738	3738	3738	3738	3738	3738	3738	3738	3738	3738	3738	3738	3738	3738	3738	3738	3738	3738	3738	3738	3738	3738	3738	3738	3738	3738	3738	3738	3738	3738	3738	3738	3738	3738	3738	3738	3738	3738	3738	3738	3738	3738	3738	3738	3738	3738	3738	3698	3738	3738	3738	3779	3046	3046	3046	3046	3019	3019	3019	3019	2993	2993	2993	2993	2993	2993	2967	2967	2967	2942	2942	2917	2893	2893	2893	2893	2893	2893	2893	2869	2869	2869	2869	2869	2869	2869	2869	2869	2869	2845	2822	2845	2822	2845	2822	2845	2845	2845	2822	2822	2845	2845	2845	2845	2845	2845	2845	2845	2845	2845	2845	2845	2845	2845	2845	2845	2845	2845	2869	2893	2893	2917	2942	2967	2967	2967	2967	2967	2967	2967	2967	2967	2967	2967	2967	2967	3698	3698	3698	3698	3698	3698	3698	3698	3698	3698	3698	3698	3698	3698	3698	3698	3698	3698	3698	3698	3698	3698	3698	3698	3698	3698	3659	3659	3659	3698	3698	3659	3698	3698	3698	3659	3659	3659	3659	3659	3659	3659	3659	3698	3698	3698	3698	3698	3698	3698	3698	3698	3698	3698	3698	3698	3698	3698	3659	3659	3659	3659	3659	3659	3659	3659	3659	3659	3621	3621	3621	3621	3621	3621	3621	3621	3621	3659	3621	3659	3659	3659	3659	3659	3659	3659	3698	3659	3659	3659	3659	3621	3621	3621	3621	3621	3621	3621	3621	3621	3659	3659	3621	3621	3659	3659	3659	3621	3621	3621	3621	3621	3621	3583	3583	3583	3621	3621	3621	3621	3659	3659	3698	3659	3659	3659	3659	3659	3659	3621	3621	3659	3621	3659	3621	3659	3659	0	0	0	0	0	0	0	0	0	0	0	0	0	0	0	0	0	0	0	0	0	0	0	0	0	0	0	0	0	0	0	0	0	0	0	0	0	0	0	0	0	0	0	0	0	0	0	0	0	0	0	0	0	0	0	0	0	0	0	0	0	0	0	0	0	0	0	0	0	0	0	0	0	0	0	0	0	0	0	0	0	0	0	0	0	0	0	0	0	0	0	0	0	0	0	0	0	0	0	0	0	0	0	0	0	0	0	0	0	0	0	0	0	0	0	0	0	0	0	0	0	0	0	0	0	0	0	0	0	0	0	0	0	0	0	0	0	0	0	0	0	0	0	0	0
0	0	0	0	0	0	0	0	0	0	0	0	0	0	0	0	0	0	0	0	0	0	0	489	488	488	489	489	0	0	0	0	0	500	500	500	498	498	498	499	499	501	501	501	501	502	502	502	502	502	503	504	504	504	505	505	507	508	509	510	510	511	512	512	512	513	513	514	514	516	516	516	520	520	0	0	0	0	0	0	0	0	0	0	0	0	0	0	0	0	0	0	0	0	0	0	878	880	880	880	878	878	880	880	880	880	880	880	882	882	882	884	884	887	889	889	889	889	891	891	894	894	894	896	901	901	901	901	903	905	905	908	910	910	910	0	0	0	0	0	0	0	0	0	0	0	3475	3475	3475	3475	3475	3440	3440	3440	3440	3440	3440	3440	3440	3475	3475	3475	3440	3440	3440	3440	3440	3440	3440	3475	3475	3583	3659	3698	3698	3738	3738	3738	3738	3738	3738	3738	3738	3779	3779	3779	3779	3779	3779	3738	3779	3779	3779	3779	3779	3779	3779	3779	3779	3779	3779	3779	3738	3779	3779	3779	3779	3779	3779	3779	3779	3779	3738	3738	3738	3738	3738	3738	3738	3738	3738	3738	3738	3738	3738	3738	3738	3738	3738	3738	3738	3738	3738	3738	3738	3738	3738	3738	3738	3738	3738	3738	3738	3738	3738	3738	3738	3738	3738	3738	3738	3738	3738	3738	3738	3738	3738	3738	3738	3738	3738	3738	3738	3738	3738	3738	3738	3738	3738	3738	3738	3738	3738	3738	3046	3046	3046	3046	3019	3019	3019	3019	3019	2993	2993	2993	2993	2993	2967	2967	2967	2942	2942	2893	2893	2893	2893	2893	2893	2869	2869	2869	2869	2869	2869	2869	2869	2869	2869	2845	2845	2845	2822	2845	2822	2822	2822	2822	2845	2845	2822	2845	2845	2845	2845	2845	2845	2845	2845	2845	2845	2845	2845	2845	2845	2845	2845	2845	2845	2869	2869	2893	2893	2917	2942	2967	2967	2967	2967	2967	2967	2967	2967	2967	2993	2993	2993	2993	3738	3698	3698	3698	3698	3698	3698	3698	3698	3698	3698	3698	3698	3698	3698	3698	3659	3659	3659	3698	3698	3698	3698	3698	3698	3698	3659	3659	3659	3659	3659	3659	3659	3698	3659	3659	3621	3621	3621	3659	3659	3659	3659	3698	3698	3698	3698	3698	3698	3698	3698	3698	3698	3698	3698	3698	3698	3698	3698	3659	3698	3698	3659	3659	3659	3659	3659	3659	3659	3659	3659	3621	3621	3621	3621	3621	3659	3659	3621	3659	3659	3659	3659	3659	3659	3659	3698	3698	3659	3659	3659	3621	3621	3621	3621	3621	3621	3621	3621	3621	3621	3659	3659	3621	3659	3659	3659	3659	3621	3621	3659	3621	3621	3621	3583	3583	3583	3621	3621	3621	3659	3659	3698	3659	3659	3659	3659	3659	3621	3621	3621	3621	3621	3659	3659	3659	3659	0	0	0	0	0	0	0	0	0	0	0	0	0	0	0	0	0	0	0	0	0	0	0	0	0	0	0	0	0	0	0	0	0	0	0	0	0	0	0	0	0	0	0	0	0	0	0	0	0	0	0	0	0	0	0	0	0	0	0	0	0	0	0	0	0	0	0	0	0	0	0	0	0	0	0	0	0	0	0	0	0	0	0	0	0	0	0	0	0	0	0	0	0	0	0	0	0	0	0	0	0	0	0	0	0	0	0	0	0	0	0	0	0	0	0	0	0	0	0	0	0	0	0	0	0	0	0	0	0	0	0	0	0	0	0	0	0	0	0	0	0	0	0	0	0
0	0	0	0	0	0	0	0	0	0	0	0	0	0	0	0	0	0	0	0	0	0	0	488	488	488	489	489	0	0	0	0	0	500	500	500	498	498	498	498	500	501	501	501	502	503	503	502	503	503	504	504	504	504	505	506	507	509	510	510	511	511	512	513	513	513	514	515	514	515	515	520	520	520	521	521	0	0	0	0	0	0	0	0	0	0	0	0	0	0	0	0	0	0	0	0	0	880	880	880	878	878	880	880	880	880	882	882	882	882	882	884	884	889	889	891	891	891	891	891	896	896	898	898	901	901	903	903	905	905	908	908	910	910	910	0	0	0	0	0	0	0	0	0	0	0	3510	3510	3510	3475	3475	3475	3440	3440	3440	3440	3440	3440	3475	3475	3475	3475	3440	3475	3440	3440	3440	3440	3440	3475	3475	3510	3621	3659	3659	3698	3698	3698	3698	3738	3738	3738	3738	3738	3779	3738	3738	3738	3738	3738	3738	3779	3779	3779	3821	3779	3779	3779	3779	3779	3779	3779	3738	3779	3779	3779	3779	3779	3779	3779	3779	3738	3738	3738	3738	3738	3738	3738	3738	3738	3738	3738	3738	3738	3738	3738	3738	3738	3738	3738	3738	3738	3738	3738	3738	3738	3738	3738	3738	3738	3738	3738	3738	3738	3738	3738	3738	3738	3738	3738	3738	3738	3738	3738	3738	3738	3738	3738	3738	3738	3738	3738	3738	3738	3738	3738	3738	3738	3738	3698	3698	3698	3738	3738	3738	3046	3046	3046	3019	3019	3019	3019	3019	2993	2993	2993	2993	2993	2967	2967	2942	2942	2942	2917	2893	2893	2893	2893	2869	2869	2869	2869	2869	2869	2869	2869	2869	2845	2845	2845	2845	2845	2822	2822	2822	2822	2845	2845	2845	2845	2822	2845	2845	2845	2845	2845	2845	2845	2845	2845	2845	2845	2845	2845	2845	2845	2845	2845	2845	2845	2869	2893	2893	2917	2942	2967	2967	2967	2967	2967	2967	2967	2967	2967	2993	2993	2993	2993	3738	3738	3698	3698	3698	3698	3698	3698	3698	3698	3698	3698	3698	3698	3698	3698	3659	3659	3659	3698	3698	3698	3659	3659	3698	3698	3659	3659	3659	3659	3659	3659	3659	3698	3659	3659	3659	3621	3659	3659	3659	3659	3698	3698	3698	3698	3698	3698	3659	3698	3698	3698	3698	3698	3698	3698	3698	3698	3698	3698	3698	3698	3659	3659	3659	3659	3659	3621	3621	3659	3659	3621	3621	3621	3659	3621	3659	3659	3659	3659	3659	3659	3659	3659	3659	3698	3698	3659	3659	3659	3659	3621	3583	3583	3583	3583	3621	3621	3621	3621	3659	3659	3659	3621	3659	3659	3659	3621	3621	3621	3621	3621	3583	3583	3583	3583	3583	3583	3621	3621	3621	3621	3659	3659	3659	3659	3659	3621	3621	3621	3621	3621	3621	3659	3659	3659	3659	0	0	0	0	0	0	0	0	0	0	0	0	0	0	0	0	0	0	0	0	0	0	0	0	0	0	0	0	0	0	0	0	0	0	0	0	0	0	0	0	0	0	0	0	0	0	0	0	0	0	0	0	0	0	0	0	0	0	0	0	0	0	0	0	0	0	0	0	0	0	0	0	0	0	0	0	0	0	0	0	0	0	0	0	0	0	0	0	0	0	0	0	0	0	0	0	0	0	0	0	0	0	0	0	0	0	0	0	0	0	0	0	0	0	0	0	0	0	0	0	0	0	0	0	0	0	0	0	0	0	0	0	0	0	0	0	0	0	0	0	0	0	0	0	0
0	0	0	0	0	0	0	0	0	0	0	0	0	0	0	0	0	0	0	0	0	0	488	488	488	488	0	0	0	0	0	0	0	499	500	500	498	498	498	499	499	499	502	502	503	504	503	503	504	504	504	504	504	505	506	506	508	509	510	511	511	512	512	513	513	513	513	514	514	516	519	519	520	520	520	520	0	0	0	0	0	0	0	0	0	0	0	0	0	0	0	0	0	0	0	0	0	0	0	880	878	880	878	880	880	880	882	882	882	882	882	884	887	889	891	894	891	894	896	896	898	898	901	901	903	903	903	903	905	905	905	908	908	908	910	0	0	0	0	0	0	0	0	0	3546	3546	3546	3510	3510	3510	3475	3475	3475	3475	3475	3475	3475	3475	3475	3475	3475	3475	3475	3475	3475	3475	3440	3475	3475	3475	3510	3510	3583	3621	3659	3698	3698	3698	3738	3738	3738	3738	3738	3738	3738	3738	3738	3738	3738	3738	3738	3779	3779	3779	3821	3779	3779	3779	3779	3779	3779	3779	3779	3779	3779	3779	3779	3779	3779	3779	3779	3738	3738	3738	3738	3738	3738	3738	3738	3738	3738	3738	3738	3738	3738	3738	3738	3738	3738	3738	3738	3738	3738	3738	3738	3738	3738	3738	3738	3738	3738	3738	3738	3738	3738	3738	3738	3738	3738	3738	3738	3738	3738	3738	3738	3738	3738	3738	3738	3738	3738	3738	3738	3738	3738	3738	3738	3738	3738	3698	3698	3698	3738	3738	3046	3046	3046	3046	3046	3019	3019	3019	2993	2993	2993	2993	2993	2993	2967	2967	2942	2942	2942	2917	2893	2893	2893	2869	2869	2869	2869	2869	2869	2869	2869	2845	2845	2845	2845	2845	2845	2845	2822	2822	2822	2845	2845	2845	2845	2822	2822	2822	2845	2845	2845	2845	2845	2845	2845	2845	2845	2845	2845	2845	2845	2845	2845	2845	2845	2845	2869	2869	2869	2917	2942	2967	2967	2967	2967	2967	2967	2967	2967	2967	2993	2993	2993	2993	3738	3738	3698	3698	3698	3698	3698	3698	3698	3698	3698	3698	3659	3659	3659	3698	3659	3659	3659	3698	3698	3698	3659	3698	3698	3698	3659	3659	3659	3659	3659	3659	3659	3659	3659	3659	3659	3659	3659	3659	3659	3659	3698	3698	3698	3659	3659	3659	3659	3659	3659	3698	3698	3698	3698	3698	3698	3698	3698	3698	3698	3698	3698	3659	3659	3659	3659	3659	3659	3659	3659	3621	3621	3621	3659	3621	3659	3621	3621	3659	3659	3659	3659	3659	3659	3659	3659	3659	3621	3621	3621	3621	3583	3583	3583	3621	3621	3621	3621	3621	3621	3621	3621	3621	3621	3621	3621	3621	3621	3621	3621	3583	3583	3583	3583	3583	3583	3583	3583	3621	3621	3621	3659	3621	3659	3621	3621	3621	3621	3621	3621	3621	3621	3621	3659	3698	3698	0	0	0	0	0	0	0	0	0	0	0	0	0	0	0	0	0	0	0	0	0	0	0	0	0	0	0	0	0	0	0	0	0	0	0	0	0	0	0	0	0	0	0	0	0	0	0	0	0	0	0	0	0	0	0	0	0	0	0	0	0	0	0	0	0	0	0	0	0	0	0	0	0	0	0	0	0	0	0	0	0	0	0	0	0	0	0	0	0	0	0	0	0	0	0	0	0	0	0	0	0	0	0	0	0	0	0	0	0	0	0	0	0	0	0	0	0	0	0	0	0	0	0	0	0	0	0	0	0	0	0	0	0	0	0	0	0	0	0	0	0	0	0	0	0
0	0	0	0	0	0	0	0	0	0	0	0	0	0	0	0	0	0	0	0	0	0	488	488	488	488	0	0	0	0	0	0	0	499	499	498	498	498	498	498	499	499	502	502	503	504	503	503	504	504	505	505	505	505	506	507	509	509	510	510	511	512	513	513	514	514	516	516	516	517	520	520	520	520	520	520	0	0	0	0	0	0	0	0	0	0	0	0	0	0	0	0	0	0	0	0	0	0	0	0	878	880	878	880	882	880	882	882	882	882	882	884	887	891	891	894	894	896	896	898	901	901	901	903	903	903	903	905	905	905	908	908	908	908	0	0	0	0	0	0	0	0	0	3583	3583	3583	3546	3546	3546	3510	3475	3475	3475	3475	3475	3475	3475	3475	3510	3510	3510	3510	3475	3510	3475	3475	3475	3475	3475	3475	3510	3510	3583	3621	3621	3659	3659	3698	3698	3738	3738	3738	3738	3738	3738	3738	3738	3738	3738	3738	3738	3779	3779	3779	3779	3779	3779	3779	3779	3779	3779	3779	3779	3779	3779	3779	3779	3779	3779	3779	3738	3738	3738	3738	3738	3738	3738	3738	3738	3738	3738	3738	3738	3738	3738	3738	3738	3738	3738	3738	3738	3738	3738	3738	3738	3738	3738	3738	3738	3738	3738	3738	3738	3738	3738	3738	3738	3738	3738	3738	3738	3779	3738	3738	3738	3738	3738	3738	3738	3738	3738	3738	3738	3738	3738	3738	3738	3738	3738	3738	3738	3738	3738	3738	3046	3046	3046	3046	3019	3019	3019	2993	2993	2993	2993	2993	2993	2967	2967	2967	2967	2942	2942	2917	2893	2893	2893	2893	2893	2869	2869	2869	2869	2869	2869	2845	2845	2845	2822	2845	2845	2845	2822	2845	2845	2845	2822	2845	2845	2822	2822	2822	2822	2845	2845	2845	2845	2845	2845	2845	2845	2845	2845	2845	2845	2845	2845	2845	2845	2845	2869	2893	2893	2917	2967	2967	2967	2967	2967	2967	2967	2967	2967	2967	2967	2993	2993	2993	3698	3698	3698	3698	3698	3698	3698	3698	3698	3698	3698	3698	3659	3698	3659	3659	3659	3659	3659	3659	3659	3659	3659	3659	3659	3659	3659	3621	3621	3659	3659	3621	3621	3659	3659	3659	3621	3621	3659	3659	3659	3659	3659	3659	3659	3659	3659	3659	3659	3659	3698	3698	3698	3698	3698	3698	3698	3698	3698	3698	3698	3698	3659	3659	3659	3659	3621	3621	3621	3621	3621	3621	3621	3659	3659	3659	3659	3659	3659	3659	3659	3659	3659	3659	3659	3659	3659	3659	3621	3621	3621	3621	3583	3583	3583	3583	3583	3583	3621	3621	3621	3621	3621	3621	3621	3621	3621	3621	3621	3621	3621	3583	3583	3583	3583	3583	3583	3583	3583	3583	3583	3621	3621	3621	3621	3621	3621	3621	3621	3621	3621	3621	3621	3621	3659	3698	3698	0	0	0	0	0	0	0	0	0	0	0	0	0	0	0	0	0	0	0	0	0	0	0	0	0	0	0	0	0	0	0	0	0	0	0	0	0	0	0	0	0	0	0	0	0	0	0	0	0	0	0	0	0	0	0	0	0	0	0	0	0	0	0	0	0	0	0	0	0	0	0	0	0	0	0	0	0	0	0	0	0	0	0	0	0	0	0	0	0	0	0	0	0	0	0	0	0	0	0	0	0	0	0	0	0	0	0	0	0	0	0	0	0	0	0	0	0	0	0	0	0	0	0	0	0	0	0	0	0	0	0	0	0	0	0	0	0	0	0	0	0	0	0	0	0
0	0	0	0	0	0	0	0	0	0	0	0	0	0	0	0	0	0	0	0	0	0	0	0	0	0	0	0	0	0	0	0	501	499	499	498	498	498	498	497	497	500	502	502	503	504	503	503	503	504	504	505	505	505	505	508	509	510	511	512	513	513	514	514	514	515	516	516	516	516	516	516	520	520	0	0	0	0	0	0	0	0	0	0	0	0	0	0	0	0	0	0	0	0	0	0	0	0	0	0	0	0	0	0	882	880	882	882	882	882	882	884	889	891	894	894	894	896	898	898	901	901	903	905	905	905	905	908	908	908	910	910	908	0	0	0	0	0	0	0	0	0	3621	3621	3621	3583	3583	3583	3546	3546	3510	3510	3510	3510	3510	3475	3475	3510	3510	3510	3510	3510	3510	3546	3510	3510	3510	3510	3546	3546	3546	3546	3546	3583	3621	3621	3659	3698	3738	3738	3738	3738	3738	3738	3738	3738	3738	3738	3738	3738	3738	3738	3779	3779	3779	3779	3779	3779	3779	3779	3779	3779	3779	3779	3779	3779	3779	3779	3779	3779	3779	3738	3738	3738	3738	3738	3738	3738	3738	3738	3738	3738	3738	3738	3738	3738	3738	3738	3738	3738	3738	3738	3738	3738	3738	3738	3738	3738	3738	3738	3738	3738	3738	3738	3738	3738	3738	3738	3738	3738	3738	3779	3738	3738	3738	3738	3738	3738	3738	3738	3738	3738	3738	3738	3738	3738	3738	3738	3738	3738	3738	3738	3738	3738	3779	3046	3019	3046	3019	3019	2993	2993	2993	2993	2993	2993	2993	2967	2967	2967	2942	2942	2942	2917	2893	2893	2893	2869	2869	2869	2869	2869	2869	2869	2845	2845	2845	2822	2822	2845	2845	2845	2822	2822	2822	2822	2822	2822	2822	2822	2822	2822	2822	2822	2845	2845	2845	2845	2845	2845	2845	2845	2845	2845	2845	2845	2845	2845	2845	2845	2869	2869	2869	2917	2942	2967	2967	2967	2967	2967	2967	2967	2967	2967	2967	2967	2993	2993	3698	3698	3698	3698	3698	3698	3698	3698	3698	3698	3698	3659	3659	3659	3659	3659	3621	3621	3621	3659	3659	3659	3659	3659	3659	3659	3659	3621	3621	3621	3659	3659	3659	3659	3659	3621	3621	3621	3659	3659	3659	3659	3659	3659	3659	3659	3659	3698	3659	3659	3698	3698	3698	3698	3698	3698	3698	3698	3698	3698	3698	3659	3659	3659	3659	3659	3621	3621	3621	3621	3621	3621	3621	3621	3659	3659	3659	3659	3659	3698	3659	3659	3659	3659	3621	3621	3621	3621	3621	3621	3621	3621	3583	3583	3583	3583	3583	3583	3621	3621	3621	3621	3621	3621	3621	3621	3621	3621	3621	3621	3621	3583	3583	3583	3583	3583	3583	3583	3583	3583	3583	3621	3621	3621	3621	3621	3621	3583	3583	3583	3621	3621	3621	3621	3659	3698	3698	0	0	0	0	0	0	0	0	0	0	0	0	0	0	0	0	0	0	0	0	0	0	0	0	0	0	0	0	0	0	0	0	0	0	0	0	0	0	0	0	0	0	0	0	0	0	0	0	0	0	0	0	0	0	0	0	0	0	0	0	0	0	0	0	0	0	0	0	0	0	0	0	0	0	0	0	0	0	0	0	0	0	0	0	0	0	0	0	0	0	0	0	0	0	0	0	0	0	0	0	0	0	0	0	0	0	0	0	0	0	0	0	0	0	0	0	0	0	0	0	0	0	0	0	0	0	0	0	0	0	0	0	0	0	0	0	0	0	0	0	0	0	0	0	0
0	0	0	0	0	0	0	0	0	0	0	0	0	0	0	0	0	0	0	0	0	0	0	0	0	0	0	0	0	0	0	0	501	499	498	498	499	499	498	499	499	504	503	502	503	504	504	504	504	504	505	505	505	506	507	509	510	510	511	511	513	513	514	514	515	515	517	516	516	516	521	521	0	0	0	0	0	0	0	0	0	0	0	0	0	0	0	0	0	0	0	0	0	0	0	0	0	0	0	0	0	0	0	0	880	880	880	880	882	882	882	887	891	896	896	896	896	896	898	901	901	901	901	905	905	908	905	908	908	908	908	910	0	0	0	0	0	0	0	0	0	3779	3621	3621	3621	3621	3583	3583	3583	3546	3546	3510	3510	3510	3510	3510	3510	3510	3546	3546	3546	3546	3546	3546	3546	3546	3583	3546	3583	3583	3583	3583	3583	3583	3621	3621	3659	3698	3738	3738	3738	3738	3738	3738	3738	3738	3738	3738	3738	3738	3738	3738	3738	3738	3779	3779	3779	3779	3779	3779	3779	3779	3738	3779	3779	3779	3779	3779	3779	3779	3738	3738	3738	3738	3738	3738	3738	3738	3738	3738	3738	3738	3738	3738	3698	3738	3738	3738	3738	3738	3738	3738	3738	3738	3738	3738	3738	3738	3738	3738	3738	3738	3738	3738	3738	3738	3738	3738	3738	3738	3738	3738	3738	3738	3738	3738	3738	3738	3738	3738	3738	3738	3738	3738	3738	3738	3738	3738	3738	3738	3738	3738	3738	3738	3779	3019	3019	3019	3019	2993	2993	2993	2993	2993	2993	2993	2993	2967	2967	2967	2942	2942	2917	2917	2893	2893	2893	2869	2869	2869	2869	2869	2869	2845	2845	2845	2845	2822	2822	2845	2845	2845	2822	2822	2822	2822	2822	2822	2822	2822	2799	2799	2822	2822	2822	2822	2822	2845	2845	2845	2845	2845	2845	2845	2845	2845	2845	2845	2845	2845	2845	2869	2869	2917	2942	2967	2967	2967	2967	2967	2967	2967	2967	2967	2967	2967	2993	2993	3698	3698	3698	3698	3698	3698	3698	3698	3698	3659	3659	3659	3659	3659	3621	3659	3621	3621	3621	3659	3659	3659	3659	3659	3659	3659	3659	3621	3621	3659	3659	3659	3659	3659	3659	3659	3659	3659	3659	3659	3659	3659	3659	3698	3659	3659	3659	3659	3659	3659	3659	3698	3698	3659	3659	3698	3698	3698	3698	3698	3698	3659	3659	3659	3659	3659	3621	3621	3621	3659	3621	3621	3621	3659	3659	3659	3659	3659	3659	3659	3659	3659	3621	3621	3621	3621	3621	3583	3583	3583	3583	3621	3583	3621	3583	3621	3621	3621	3621	3621	3621	3621	3621	3621	3621	3621	3621	3621	3621	3621	3621	3583	3583	3583	3583	3583	3583	3583	3583	3583	3583	3621	3583	3583	3621	3621	3621	3583	3583	3583	3621	3621	3621	3583	3621	3621	3621	0	0	0	0	0	0	0	0	0	0	0	0	0	0	0	0	0	0	0	0	0	0	0	0	0	0	0	0	0	0	0	0	0	0	0	0	0	0	0	0	0	0	0	0	0	0	0	0	0	0	0	0	0	0	0	0	0	0	0	0	0	0	0	0	0	0	0	0	0	0	0	0	0	0	0	0	0	0	0	0	0	0	0	0	0	0	0	0	0	0	0	0	0	0	0	0	0	0	0	0	0	0	0	0	0	0	0	0	0	0	0	0	0	0	0	0	0	0	0	0	0	0	0	0	0	0	0	0	0	0	0	0	0	0	0	0	0	0	0	0	0	0	0	0	0
0	0	0	0	0	0	0	0	0	0	0	0	0	0	0	0	0	0	0	0	0	0	0	0	0	0	0	0	0	0	0	0	0	499	498	498	499	500	500	501	503	504	504	503	504	505	504	504	504	504	506	505	506	507	507	509	510	511	511	511	513	513	515	516	516	517	517	517	519	520	521	521	0	0	0	0	0	0	0	0	0	0	0	0	0	0	0	0	0	0	0	0	0	0	0	0	0	0	0	0	0	0	0	0	880	880	882	882	882	884	884	889	894	896	896	896	896	896	898	901	903	905	905	905	905	908	905	908	908	908	908	0	0	0	0	0	0	0	0	0	3821	3659	3621	3621	3621	3621	3621	3583	3583	3583	3546	3546	3546	3546	3546	3510	3510	3546	3546	3583	3583	3583	3583	3583	3583	3583	3583	3583	3583	3583	3583	3583	3583	3583	3621	3621	3659	3698	3738	3738	3738	3738	3738	3738	3738	3738	3738	3738	3738	3738	3738	3738	3738	3738	3779	3779	3779	3738	3779	3779	3779	3779	3738	3779	3779	3779	3779	3779	3779	3779	3738	3738	3738	3738	3738	3738	3738	3738	3738	3738	3738	3738	3738	3738	3738	3738	3738	3738	3738	3738	3738	3738	3738	3738	3738	3738	3738	3738	3738	3738	3738	3738	3738	3738	3738	3738	3738	3738	3738	3738	3738	3738	3738	3738	3738	3738	3738	3738	3738	3738	3738	3738	3738	3738	3738	3738	3738	3738	3738	3738	3738	3738	3738	3738	3779	3019	3019	3046	3019	3019	2993	2993	2993	2993	2993	2993	2993	2967	2967	2967	2942	2942	2917	2917	2893	2893	2893	2869	2869	2869	2869	2869	2869	2845	2845	2845	2822	2822	2822	2845	2845	2845	2822	2822	2822	2822	2822	2822	2822	2799	2799	2799	2822	2799	2822	2822	2822	2845	2845	2845	2845	2845	2845	2845	2845	2845	2845	2845	2845	2845	2845	2869	2893	2917	2942	2942	2967	2967	2967	2967	2967	2967	2967	2967	2967	2967	2967	3738	3698	3698	3698	3698	3698	3698	3698	3698	3698	3698	3698	3659	3659	3659	3621	3621	3621	3621	3621	3621	3659	3659	3659	3659	3659	3659	3659	3621	3621	3659	3659	3659	3659	3659	3659	3659	3659	3659	3698	3659	3659	3659	3659	3659	3659	3659	3659	3659	3659	3659	3659	3659	3659	3659	3659	3698	3698	3659	3698	3659	3698	3698	3659	3659	3659	3659	3659	3621	3659	3659	3659	3621	3621	3659	3659	3659	3659	3621	3621	3621	3621	3621	3621	3621	3621	3621	3621	3583	3583	3583	3621	3621	3621	3621	3621	3621	3621	3621	3621	3621	3621	3621	3621	3621	3621	3621	3621	3621	3621	3621	3621	3583	3583	3583	3583	3583	3583	3583	3583	3583	3583	3583	3583	3583	3583	3621	3621	3583	3583	3583	3621	3621	3621	3621	3659	3698	3698	0	0	0	0	0	0	0	0	0	0	0	0	0	0	0	0	0	0	0	0	0	0	0	0	0	0	0	0	0	0	0	0	0	0	0	0	0	0	0	0	0	0	0	0	0	0	0	0	0	0	0	0	0	0	0	0	0	0	0	0	0	0	0	0	0	0	0	0	0	0	0	0	0	0	0	0	0	0	0	0	0	0	0	0	0	0	0	0	0	0	0	0	0	0	0	0	0	0	0	0	0	0	0	0	0	0	0	0	0	0	0	0	0	0	0	0	0	0	0	0	0	0	0	0	0	0	0	0	0	0	0	0	0	0	0	0	0	0	0	0	0	0	0	0	0
0	0	0	0	0	0	0	0	0	0	0	0	0	0	0	0	0	0	0	0	0	0	0	0	0	0	0	0	0	0	498	498	499	499	499	501	501	501	501	501	502	504	504	504	504	504	504	504	504	504	505	505	505	507	508	509	510	511	511	511	513	513	515	515	515	519	519	519	520	520	520	520	520	0	0	0	0	0	0	0	0	0	0	0	0	0	0	0	0	0	0	743	745	747	748	748	0	0	0	0	0	0	0	0	0	880	882	882	882	884	887	891	896	898	898	898	898	898	898	901	905	905	908	908	908	908	908	908	908	908	0	0	0	0	0	0	0	0	0	0	3659	3621	3621	3621	3621	3621	3621	3621	3621	3583	3583	3583	3583	3583	3583	3583	3583	3621	3583	3621	3621	3621	3621	3621	3621	3621	3621	3583	3621	3583	3583	3583	3583	3583	3583	3621	3621	3659	3698	3738	3738	3738	3738	3738	3738	3738	3738	3738	3738	3738	3738	3738	3738	3738	3738	3738	3738	3738	3738	3738	3738	3738	3738	3738	3779	3779	3779	3779	3779	3779	3738	3738	3738	3738	3738	3738	3738	3738	3738	3738	3738	3738	3738	3738	3738	3738	3738	3738	3738	3738	3738	3738	3738	3738	3738	3738	3738	3738	3738	3738	3738	3738	3738	3738	3738	3738	3738	3738	3738	3738	3738	3779	3738	3738	3738	3738	3738	3738	3738	3738	3738	3738	3738	3738	3738	3738	3738	3738	3738	3738	3738	3698	3738	3698	3738	3019	3019	3019	3019	3019	2993	2993	2993	2993	2993	2993	2967	2967	2967	2967	2942	2942	2917	2917	2893	2893	2893	2869	2869	2869	2869	2869	2869	2845	2845	2845	2845	2822	2822	2845	2845	2845	2822	2822	2822	2822	2799	2799	2799	2799	2799	2799	2822	2822	2822	2822	2845	2845	2845	2845	2845	2845	2845	2845	2845	2845	2845	2845	2845	2845	2845	2845	2869	2917	2942	2967	2967	2967	2967	2967	2967	2967	2967	2967	2967	2967	2967	3698	3698	3698	3698	3698	3698	3698	3698	3698	3698	3698	3698	3659	3659	3621	3621	3621	3621	3621	3583	3621	3621	3621	3621	3659	3621	3659	3659	3621	3621	3621	3621	3621	3659	3659	3659	3659	3659	3698	3698	3659	3659	3659	3659	3659	3621	3621	3659	3659	3659	3621	3659	3659	3659	3659	3659	3659	3659	3659	3698	3659	3698	3659	3659	3659	3659	3659	3659	3659	3659	3659	3659	3659	3659	3659	3659	3621	3621	3621	3621	3621	3621	3621	3621	3621	3583	3621	3583	3583	3583	3583	3583	3583	3583	3621	3621	3621	3621	3621	3621	3621	3621	3621	3621	3621	3621	3621	3621	3621	3621	3621	3583	3583	3583	3583	3583	3583	3583	3583	3583	3583	3583	3583	3583	3583	3583	3583	3621	3621	3583	3583	3621	3621	3621	3621	3659	3698	3698	0	0	0	0	0	0	0	0	0	0	0	0	0	0	0	0	0	0	0	0	0	0	0	0	0	0	0	0	0	0	0	0	0	0	0	0	0	0	0	0	0	0	0	0	0	0	0	0	0	0	0	0	0	0	0	0	0	0	0	0	0	0	0	0	0	0	0	0	0	0	0	0	0	0	0	0	0	0	0	0	0	0	0	0	0	0	0	0	0	0	0	0	0	0	0	0	0	0	0	0	0	0	0	0	0	0	0	0	0	0	0	0	0	0	0	0	0	0	0	0	0	0	0	0	0	0	0	0	0	0	0	0	0	0	0	0	0	0	0	0	0	0	0	0	0
0	0	0	0	0	0	0	0	0	0	0	0	0	0	0	0	0	0	0	0	0	0	0	0	0	0	0	0	0	0	498	498	499	499	499	501	501	501	501	502	503	504	504	504	504	504	504	503	503	504	504	505	506	507	508	510	510	511	511	511	513	513	513	519	519	519	519	519	520	520	520	520	520	0	0	0	0	0	0	0	0	0	0	0	0	0	0	0	0	0	740	742	743	745	747	747	0	0	0	0	0	0	0	0	0	0	0	0	0	0	887	891	896	898	898	898	896	898	901	901	905	908	908	908	908	910	910	910	910	910	0	0	0	0	0	0	0	0	0	0	3621	3621	3621	3621	3621	3621	3621	3621	3621	3621	3621	3583	3621	3621	3583	3621	3621	3621	3583	3621	3621	3621	3621	3621	3621	3621	3621	3583	3621	3621	3621	3583	3621	3583	3621	3621	3659	3659	3698	3738	3738	3738	3738	3738	3738	3738	3738	3738	3738	3738	3738	3738	3738	3738	3738	3738	3738	3738	3738	3738	3738	3738	3738	3738	3779	3779	3779	3738	3738	3738	3738	3738	3738	3738	3738	3738	3738	3738	3738	3738	3738	3738	3738	3738	3738	3738	3738	3738	3738	3738	3738	3738	3738	3738	3738	3738	3738	3738	3738	3738	3738	3738	3738	3738	3738	3738	3738	3738	3738	3738	3738	3779	3738	3779	3738	3738	3738	3738	3738	3738	3738	3738	3738	3738	3738	3738	3738	3738	3738	3738	3738	3698	3698	3738	3738	3019	3019	3046	3019	3019	2993	2993	2993	2993	2993	2993	2993	2967	2967	2967	2942	2942	2917	2917	2893	2893	2893	2869	2869	2869	2869	2845	2845	2845	2845	2845	2845	2822	2822	2822	2822	2845	2822	2822	2822	2822	2799	2799	2799	2799	2799	2799	2799	2822	2822	2822	2845	2845	2845	2845	2845	2845	2845	2845	2845	2845	2845	2845	2845	2845	2845	2869	2893	2917	2942	2967	2967	2967	2967	2967	2967	2967	2967	2967	2967	2967	2967	3698	3659	3659	3698	3698	3698	3698	3698	3698	3698	3698	3698	3659	3659	3659	3621	3621	3621	3621	3621	3621	3621	3621	3621	3621	3621	3659	3621	3621	3621	3621	3621	3659	3659	3659	3659	3659	3659	3659	3659	3659	3659	3659	3659	3621	3621	3621	3621	3659	3659	3659	3659	3659	3659	3659	3659	3659	3659	3659	3659	3659	3698	3659	3659	3659	3659	3659	3659	3621	3659	3659	3621	3621	3621	3621	3621	3621	3621	3621	3621	3621	3621	3621	3583	3583	3583	3583	3583	3583	3583	3583	3583	3583	3621	3621	3621	3621	3621	3621	3621	3621	3659	3621	3621	3621	3621	3621	3621	3583	3583	3583	3583	3583	3583	3583	3583	3583	3583	3583	3583	3583	3583	3583	3583	3583	3583	3583	3621	3621	3583	3583	3621	3621	3621	3621	3621	3621	3621	0	0	0	0	0	0	0	0	0	0	0	0	0	0	0	0	0	0	0	0	0	0	0	0	0	0	0	0	0	0	0	0	0	0	0	0	0	0	0	0	0	0	0	0	0	0	0	0	0	0	0	0	0	0	0	0	0	0	0	0	0	0	0	0	0	0	0	0	0	0	0	0	0	0	0	0	0	0	0	0	0	0	0	0	0	0	0	0	0	0	0	0	0	0	0	0	0	0	0	0	0	0	0	0	0	0	0	0	0	0	0	0	0	0	0	0	0	0	0	0	0	0	0	0	0	0	0	0	0	0	0	0	0	0	0	0	0	0	0	0	0	0	0	0	0
0	0	0	0	0	0	0	0	0	0	0	0	0	0	0	0	0	0	0	0	0	0	0	0	0	0	0	0	0	0	498	499	500	500	499	501	502	502	502	502	503	504	504	504	504	505	505	503	505	505	506	507	507	508	508	510	510	511	511	511	514	514	519	519	519	519	519	519	520	520	520	520	520	0	532	532	0	0	0	0	0	0	0	0	0	0	0	0	0	0	740	742	742	745	745	747	752	752	753	784	782	779	779	779	779	0	0	0	0	0	0	891	898	898	898	898	898	901	901	905	908	908	908	908	910	913	913	910	910	910	0	0	0	0	0	0	0	0	0	0	3621	3621	3659	3659	3659	3659	3621	3621	3621	3621	3621	3621	3621	3621	3621	3621	3659	3659	3621	3659	3698	3698	3698	3621	3621	3621	3621	3621	3621	3621	3621	3583	3621	3621	3621	3621	3659	3659	3698	3738	3738	3738	3738	3738	3738	3738	3738	3738	3738	3738	3738	3738	3738	3738	3738	3738	3738	3738	3738	3738	3738	3738	3738	3738	3738	3779	3738	3738	3738	3738	3738	3738	3738	3738	3738	3738	3738	3738	3738	3738	3738	3738	3738	3738	3738	3738	3738	3698	3698	3738	3738	3738	3738	3738	3738	3738	3738	3738	3738	3738	3738	3738	3738	3738	3738	3738	3738	3738	3738	3738	3738	3779	3738	3779	3738	3738	3738	3738	3738	3738	3738	3738	3738	3738	3738	3738	3738	3738	3738	3738	3738	3698	3698	3738	3738	3019	2993	2993	3019	3019	2993	2993	2993	2993	2993	2993	2967	2967	2967	2967	2942	2917	2917	2917	2893	2893	2869	2869	2869	2869	2869	2845	2845	2845	2845	2845	2845	2845	2845	2845	2845	2845	2822	2822	2799	2799	2799	2799	2799	2799	2799	2799	2799	2799	2822	2822	2822	2845	2845	2845	2845	2845	2845	2845	2845	2845	2845	2845	2845	2845	2845	2869	2893	2917	2942	2967	2967	2967	2967	2967	2967	2967	2967	2967	2967	2993	2993	3698	3659	3659	3698	3698	3698	3698	3698	3698	3698	3659	3659	3659	3621	3621	3621	3621	3621	3621	3621	3621	3621	3621	3621	3621	3621	3621	3621	3621	3583	3621	3659	3659	3659	3659	3698	3659	3659	3659	3659	3659	3621	3621	3621	3621	3621	3621	3659	3659	3659	3659	3659	3659	3659	3659	3659	3659	3659	3659	3659	3659	3659	3659	3659	3659	3659	3659	3659	3659	3659	3659	3621	3659	3659	3659	3621	3621	3621	3621	3621	3621	3621	3621	3583	3583	3583	3583	3583	3583	3583	3583	3583	3583	3621	3621	3621	3621	3621	3621	3621	3621	3659	3621	3621	3621	3621	3621	3621	3583	3621	3621	3621	3583	3583	3621	3621	3621	3583	3583	3583	3583	3583	3583	3583	3583	3621	3621	3621	3621	3583	3621	3621	3621	3621	3583	3583	3621	3621	0	0	0	0	0	0	0	0	0	0	0	0	0	0	0	0	0	0	0	0	0	0	0	0	0	0	0	0	0	0	0	0	0	0	0	0	0	0	0	0	0	0	0	0	0	0	0	0	0	0	0	0	0	0	0	0	0	0	0	0	0	0	0	0	0	0	0	0	0	0	0	0	0	0	0	0	0	0	0	0	0	0	0	0	0	0	0	0	0	0	0	0	0	0	0	0	0	0	0	0	0	0	0	0	0	0	0	0	0	0	0	0	0	0	0	0	0	0	0	0	0	0	0	0	0	0	0	0	0	0	0	0	0	0	0	0	0	0	0	0	0	0	0	0	0
0	0	0	0	0	0	0	0	0	0	0	0	0	0	0	0	0	0	0	0	0	0	0	0	0	0	0	0	498	498	498	499	500	500	500	503	503	503	502	503	504	505	505	505	504	505	505	0	505	505	510	510	510	510	508	510	511	511	511	511	511	519	519	519	519	519	519	520	520	520	520	520	520	531	531	530	530	530	0	0	0	0	0	0	0	0	0	0	0	0	739	740	740	743	745	745	747	750	750	780	780	779	779	777	777	777	0	0	0	0	0	0	898	898	898	898	898	901	903	905	908	910	910	910	910	913	913	910	910	910	0	0	0	0	0	0	0	0	0	0	3659	3659	3659	3659	3659	3659	3659	3659	3659	3659	3659	3621	3621	3659	3621	3659	3698	3659	3659	3698	3698	3738	3738	3659	3659	3659	3659	3621	3621	3621	3621	3621	3621	3621	3621	3621	3659	3659	3698	3738	3738	3738	3738	3738	3738	3738	3779	3738	3738	3738	3738	3738	3738	3738	3738	3738	3738	3738	3738	3738	3738	3738	3738	3738	3738	3779	3738	3738	3738	3738	3738	3738	3738	3738	3738	3738	3738	3738	3738	3738	3738	3738	3738	3738	3738	3738	3738	3698	3698	3698	3738	3738	3738	3738	3738	3738	3738	3738	3738	3738	3738	3738	3738	3738	3738	3738	3738	3738	3738	3779	3738	3779	3779	3779	3738	3738	3738	3738	3738	3738	3738	3738	3738	3738	3738	3738	3738	3738	3738	3738	3738	3698	3698	3698	3698	3698	2993	3019	3019	3046	3019	3019	2993	2993	2993	2993	2967	2967	2967	2942	2917	2917	2893	2893	2893	2893	2869	2869	2869	2869	2845	2845	2845	2845	2845	2845	2845	2845	2845	2845	2845	2845	2822	2822	2799	2799	2799	2799	2799	2799	2799	2799	2799	2799	2822	2822	2822	2822	2822	2822	2845	2822	2822	2845	2845	2845	2845	2845	2845	2845	2845	2869	2869	2893	2942	2942	2967	2967	2967	2967	2967	2967	2967	2967	2967	2967	2967	2967	3659	3659	3698	3698	3698	3698	3698	3659	3659	3659	3659	3659	3621	3621	3621	3621	3621	3621	3621	3621	3621	3621	3621	3621	3621	3621	3621	3583	3583	3583	3621	3621	3659	3659	3659	3659	3659	3659	3659	3659	3659	3659	3659	3621	3621	3621	3621	3659	3659	3659	3659	3659	3659	3659	3659	3659	3659	3659	3659	3659	3659	3659	3659	3659	3659	3659	3659	3659	3659	3659	3659	3659	3659	3659	3621	3621	3621	3621	3621	3583	3583	3621	3583	3583	3583	3583	3583	3583	3583	3583	3583	3583	3621	3621	3621	3621	3621	3621	3621	3621	3659	3659	3659	3659	3659	3621	3621	3583	3583	3583	3583	3583	3583	3621	3583	3583	3583	3583	3583	3583	3583	3583	3583	3583	3621	3621	3659	3621	3621	3621	3621	3621	3621	3583	3583	3583	3583	0	0	0	0	0	0	0	0	0	0	0	0	0	0	0	0	0	0	0	0	0	0	0	0	0	0	0	0	0	0	0	0	0	0	0	0	0	0	0	0	0	0	0	0	0	0	0	0	0	0	0	0	0	0	0	0	0	0	0	0	0	0	0	0	0	0	0	0	0	0	0	0	0	0	0	0	0	0	0	0	0	0	0	0	0	0	0	0	0	0	0	0	0	0	0	0	0	0	0	0	0	0	0	0	0	0	0	0	0	0	0	0	0	0	0	0	0	0	0	0	0	0	0	0	0	0	0	0	0	0	0	0	0	0	0	0	0	0	0	0	0	0	0	0	0
0	0	0	0	0	0	0	0	0	0	0	0	0	0	0	0	0	0	0	0	0	0	0	0	0	0	0	498	498	498	499	499	499	502	502	503	503	503	503	503	503	504	504	505	0	0	0	0	0	0	510	510	510	510	510	510	510	511	511	511	511	519	519	519	520	520	520	521	521	521	521	521	530	530	531	530	530	530	0	0	0	0	0	0	0	0	0	0	0	0	737	739	739	743	745	747	750	750	750	780	780	779	779	777	777	777	0	0	0	0	0	0	903	901	901	901	903	903	905	910	915	915	915	915	913	915	913	913	913	910	0	0	0	0	0	0	0	0	0	3659	3659	3659	3659	3659	3659	3659	3659	3659	3659	3659	3659	3659	3659	3659	3659	3698	3698	3698	3698	3738	3738	3738	3738	3698	3659	3698	3659	3659	3659	3621	3621	3621	3621	3621	3621	3659	3659	3659	3698	3738	3738	3738	3738	3738	3738	3738	3779	3738	3738	3738	3738	3738	3738	3738	3738	3738	3738	3738	3738	3738	3738	3738	3738	3738	3738	3738	3738	3738	3738	3738	3738	3738	3738	3738	3738	3738	3738	3738	3738	3738	3738	3738	3738	3738	3738	3738	3698	3698	3698	3698	3698	3738	3738	3738	3738	3738	3738	3738	3738	3738	3738	3738	3738	3738	3738	3738	3738	3738	3738	3738	3738	3738	3738	3779	3738	3738	3738	3738	3698	3738	3738	3738	3738	3738	3738	3738	3738	3738	3738	3738	3698	3698	3698	3698	3698	3698	3019	3019	3019	3019	3019	3019	2993	2993	2993	2993	2967	2967	2942	2942	2917	2893	2893	2893	2893	2893	2869	2869	2869	2869	2845	2845	2845	2845	2845	2845	2845	2845	2845	2845	2845	2822	2799	2799	2799	2799	2799	2799	2799	2799	2799	2799	2799	2799	2799	2822	2822	2822	2822	2822	2845	2822	2845	2845	2845	2845	2845	2845	2845	2845	2845	2845	2869	2893	2942	2942	2967	2967	2967	2967	2967	2967	2967	2967	2967	2993	2967	2967	3659	3698	3698	3698	3659	3698	3698	3659	3659	3659	3659	3659	3621	3621	3621	3621	3621	3621	3621	3621	3621	3621	3621	3621	3621	3583	3583	3583	3583	3583	3621	3621	3659	3659	3659	3659	3659	3659	3659	3659	3621	3621	3621	3621	3621	3621	3621	3659	3659	3659	3659	3659	3659	3659	3659	3659	3659	3659	3659	3659	3659	3659	3659	3659	3659	3659	3659	3659	3659	3659	3659	3659	3659	3659	3621	3621	3621	3621	3621	3583	3583	3583	3583	3583	3583	3583	3583	3583	3583	3583	3583	3583	3621	3621	3621	3621	3621	3621	3621	3621	3659	3621	3621	3621	3621	3621	3621	3621	3621	3621	3583	3583	3621	3621	3583	3583	3583	3583	3583	3583	3583	3621	3621	3621	3659	3659	3659	3621	3621	3621	3621	3621	3583	3583	3583	3583	3583	0	0	0	0	0	0	0	0	0	0	0	0	0	0	0	0	0	0	0	0	0	0	0	0	0	0	0	0	0	0	0	0	0	0	0	0	0	0	0	0	0	0	0	0	0	0	0	0	0	0	0	0	0	0	0	0	0	0	0	0	0	0	0	0	0	0	0	0	0	0	0	0	0	0	0	0	0	0	0	0	0	0	0	0	0	0	0	0	0	0	0	0	0	0	0	0	0	0	0	0	0	0	0	0	0	0	0	0	0	0	0	0	0	0	0	0	0	0	0	0	0	0	0	0	0	0	0	0	0	0	0	0	0	0	0	0	0	0	0	0	0	0	0	0	0
0	0	0	0	0	0	0	0	0	0	0	0	0	0	0	0	0	0	0	0	0	0	0	0	0	497	498	498	498	498	499	499	501	501	503	503	503	503	503	503	504	504	505	505	0	0	0	0	0	0	510	510	510	510	510	511	512	513	513	513	511	0	519	520	520	519	520	521	521	521	521	521	530	530	530	530	530	530	530	0	0	0	0	0	0	0	0	0	0	0	739	740	740	742	743	743	747	748	750	752	752	752	752	772	772	773	772	772	0	0	0	0	903	901	903	903	905	905	908	910	915	917	917	915	915	915	915	915	913	0	0	0	0	0	0	0	0	0	0	3659	3659	3659	3659	3698	3659	3698	3659	3698	3698	3659	3698	3659	3659	3659	3659	3738	3698	3698	3698	3698	3738	3738	3738	3698	3698	3698	3698	3659	3659	3659	3659	3659	3659	3659	3659	3698	3659	3698	3698	3698	3698	3698	3738	3738	3738	3738	3738	3738	3738	3738	3738	3738	3738	3738	3738	3738	3738	3738	3738	3779	3779	3779	3738	3738	3738	3738	3738	3738	3738	3738	3738	3738	3738	3738	3738	3738	3738	3738	3738	3738	3779	3779	3738	3738	3738	3738	3738	3698	3698	3698	3738	3738	3738	3738	3738	3738	3738	3738	3738	3738	3738	3738	3738	3738	3738	3738	3738	3738	3738	3738	3738	3738	3738	3779	3738	3738	3738	3698	3698	3698	3738	3738	3738	3738	3738	3738	3738	3738	3738	3738	3698	3698	3698	3659	3698	3698	3019	3019	3019	3046	3019	3019	3019	2993	2993	2993	2967	2967	2942	2942	2917	2917	2893	2893	2893	2893	2869	2869	2869	2869	2845	2845	2845	2845	2845	2845	2869	2845	2845	2845	2845	2845	2799	2799	2799	2799	2777	2777	2777	2777	2777	2799	2799	2799	2822	2822	2822	2822	2822	2822	2822	2822	2822	2845	2845	2845	2845	2845	2845	2845	2845	2845	2869	2893	2917	2942	2942	2967	2967	2967	2967	2967	2967	2967	2967	2993	2993	3698	3659	3698	3698	3698	3659	3698	3698	3659	3659	3659	3659	3659	3659	3621	3621	3621	3621	3621	3621	3621	3621	3621	3621	3621	3621	3583	3583	3583	3583	3583	3621	3621	3621	3659	3659	3659	3659	3659	3659	3659	3621	3621	3621	3621	3621	3621	3621	3659	3659	3659	3659	3659	3659	3659	3659	3659	3659	3659	3659	3659	3659	3659	3659	3659	3659	3659	3659	3659	3659	3659	3659	3659	3659	3621	3621	3621	3621	3621	3621	3583	3583	3621	3621	3621	3621	3621	3621	3583	3621	3583	3583	3583	3583	3621	3621	3621	3621	3621	3621	3621	3659	3659	3621	3621	3621	3621	3621	3621	3621	3621	3621	3621	3621	3621	3583	3583	3583	3583	3583	3583	3621	3621	3621	3621	3659	3659	3659	3621	3621	3621	3621	3583	3583	3583	3583	3583	3583	3583	0	0	0	0	0	0	0	0	0	0	0	0	0	0	0	0	0	0	0	0	0	0	0	0	0	0	0	0	0	0	0	0	0	0	0	0	0	0	0	0	0	0	0	0	0	0	0	0	0	0	0	0	0	0	0	0	0	0	0	0	0	0	0	0	0	0	0	0	0	0	0	0	0	0	0	0	0	0	0	0	0	0	0	0	0	0	0	0	0	0	0	0	0	0	0	0	0	0	0	0	0	0	0	0	0	0	0	0	0	0	0	0	0	0	0	0	0	0	0	0	0	0	0	0	0	0	0	0	0	0	0	0	0	0	0	0	0	0	0	0	0	0	0	0
0	0	0	0	0	0	0	0	0	0	0	0	0	0	0	0	0	0	0	0	0	0	0	0	0	497	497	498	498	498	498	500	501	501	503	503	503	503	503	503	504	505	505	505	0	508	508	510	510	510	510	510	510	510	510	511	512	513	513	513	517	518	519	519	520	519	520	521	522	522	522	522	529	529	530	531	530	532	532	533	533	0	0	0	0	0	0	0	0	0	737	737	739	739	740	742	742	745	748	750	752	752	752	765	775	772	772	772	772	0	0	0	0	0	905	905	908	905	908	910	915	917	917	917	917	917	917	915	0	0	0	0	0	0	0	0	0	3659	3659	3659	3659	3659	3659	3698	3659	3659	3659	3698	3659	3659	3659	3659	3698	3698	3698	3698	3738	3698	3698	3738	3738	3738	3738	3698	3698	3698	3698	3698	3698	3659	3659	3659	3659	3659	3659	3698	3659	3659	3698	3698	3698	3698	3738	3738	3738	3738	3738	3738	3738	3738	3738	3738	3738	3738	3779	3779	3779	3779	3779	3779	3738	3779	3738	3738	3738	3738	3738	3738	3738	3738	3738	3738	3738	3738	3738	3738	3738	3738	3738	3738	3779	3779	3738	3738	3738	3738	3738	3738	3698	3738	3738	3738	3738	3738	3738	3738	3738	3738	3738	3738	3738	3738	3738	3738	3738	3738	3738	3738	3738	3738	3738	3738	3738	3738	3738	3738	3738	3738	3738	3738	3738	3738	3738	3738	3738	3738	3738	3738	3738	3738	3698	3698	3659	3659	3659	3659	3019	3019	3019	3046	3019	3019	2993	2993	2993	2993	2967	2967	2942	2942	2917	2893	2893	2893	2893	2893	2869	2869	2869	2869	2869	2845	2845	2845	2845	2845	2845	2845	2845	2845	2845	2822	2799	2799	2777	2777	2777	2777	2777	2799	2799	2799	2799	2822	2822	2822	2822	2822	2822	2822	2822	2822	2822	2822	2845	2845	2845	2845	2845	2845	2845	2845	2869	2893	2917	2942	2942	2967	2967	2967	2993	2967	2993	2993	2993	2993	2993	3698	3659	3659	3659	3659	3659	3659	3659	3659	3659	3659	3659	3659	3659	3621	3621	3621	3621	3621	3621	3621	3621	3659	3659	3659	3621	3621	3621	3621	3621	3621	3621	3621	3621	3659	3659	3659	3659	3659	3659	3659	3659	3659	3621	3621	3621	3621	3621	3659	3698	3659	3698	3698	3659	3659	3659	3659	3698	3698	3659	3698	3659	3659	3659	3659	3659	3659	3659	3659	3659	3621	3621	3621	3659	3659	3621	3621	3659	3621	3621	3621	3621	3621	3621	3621	3621	3621	3621	3583	3621	3583	3583	3583	3583	3583	3583	3621	3583	3583	3583	3583	3621	3621	3621	3621	3583	3621	3621	3583	3621	3583	3583	3583	3583	3583	3583	3583	3583	3583	3583	3583	3621	3621	3621	3621	3621	3659	3659	3621	3621	3621	3583	3583	3583	3583	3583	3583	3583	3583	0	0	0	0	0	0	0	0	0	0	0	0	0	0	0	0	0	0	0	0	0	0	0	0	0	0	0	0	0	0	0	0	0	0	0	0	0	0	0	0	0	0	0	0	0	0	0	0	0	0	0	0	0	0	0	0	0	0	0	0	0	0	0	0	0	0	0	0	0	0	0	0	0	0	0	0	0	0	0	0	0	0	0	0	0	0	0	0	0	0	0	0	0	0	0	0	0	0	0	0	0	0	0	0	0	0	0	0	0	0	0	0	0	0	0	0	0	0	0	0	0	0	0	0	0	0	0	0	0	0	0	0	0	0	0	0	0	0	0	0	0	0	0	0
0	0	0	0	0	0	0	0	0	0	0	0	0	0	0	0	0	0	0	0	0	0	0	0	0	497	497	498	498	498	499	500	501	502	504	504	504	504	504	505	506	506	506	506	508	508	509	510	510	510	510	510	510	511	511	511	513	513	514	514	517	518	519	519	519	519	519	522	522	523	523	524	528	529	531	532	531	532	533	533	533	533	0	0	0	0	0	0	732	732	736	739	739	739	740	742	743	743	747	750	752	752	753	763	777	770	772	772	772	772	0	0	0	0	905	905	908	908	910	915	917	917	920	917	917	917	917	0	0	0	0	0	0	0	0	0	0	3738	3698	3659	3659	3698	3698	3698	3698	3698	3698	3698	3698	3698	3698	3698	3698	3698	3698	3738	3738	3738	3698	3698	3738	3738	3738	3698	3698	3698	3698	3698	3659	3659	3659	3659	3659	3659	3659	3698	3659	3698	3698	3698	3698	3698	3738	3738	3738	3738	3738	3738	3738	3738	3738	3738	3738	3738	3779	3779	3779	3779	3779	3779	3779	3779	3738	3738	3738	3738	3738	3738	3738	3738	3738	3738	3738	3738	3738	3738	3738	3738	3738	3779	3779	3779	3779	3779	3738	3738	3738	3738	3698	3738	3738	3738	3738	3738	3738	3738	3738	3738	3738	3738	3738	3738	3738	3738	3738	3738	3738	3738	3738	3738	3738	3738	3738	3738	3738	3738	3738	3738	3738	3738	3738	3738	3738	3738	3738	3738	3738	3738	3738	3738	3738	3698	3698	3698	3698	3698	3019	3019	3019	3046	3019	3019	2993	2993	2993	2993	2967	2967	2942	2917	2917	2893	2893	2893	2893	2893	2869	2869	2869	2869	2845	2845	2845	2845	2845	2845	2869	2845	2845	2845	2822	2822	2799	2799	2799	2777	2777	2777	2777	2799	2799	2799	2799	2799	2822	2822	2822	2822	2822	2822	2822	2799	2822	2822	2845	2845	2845	2845	2845	2845	2845	2845	2869	2893	2917	2942	2942	2967	2967	2967	2993	2993	2993	2993	2993	3698	3698	3698	3659	3659	3659	3659	3621	3659	3659	3659	3659	3659	3659	3659	3621	3621	3621	3621	3621	3621	3659	3659	3659	3659	3659	3659	3659	3621	3621	3621	3621	3621	3621	3621	3659	3659	3659	3659	3659	3659	3659	3659	3659	3659	3659	3659	3621	3659	3659	3659	3698	3698	3659	3698	3659	3698	3698	3698	3698	3698	3659	3659	3659	3659	3659	3659	3659	3659	3659	3659	3621	3621	3621	3621	3659	3621	3659	3659	3659	3659	3659	3621	3621	3621	3621	3621	3583	3583	3583	3583	3583	3583	3583	3583	3583	3583	3583	3583	3621	3621	3583	3621	3621	3621	3621	3621	3621	3621	3621	3621	3621	3583	3583	3621	3583	3583	3583	3583	3583	3621	3583	3621	3621	3621	3659	3621	3621	3659	3621	3621	3621	3621	3583	3583	3583	3583	3583	3583	3583	3583	0	0	0	0	0	0	0	0	0	0	0	0	0	0	0	0	0	0	0	0	0	0	0	0	0	0	0	0	0	0	0	0	0	0	0	0	0	0	0	0	0	0	0	0	0	0	0	0	0	0	0	0	0	0	0	0	0	0	0	0	0	0	0	0	0	0	0	0	0	0	0	0	0	0	0	0	0	0	0	0	0	0	0	0	0	0	0	0	0	0	0	0	0	0	0	0	0	0	0	0	0	0	0	0	0	0	0	0	0	0	0	0	0	0	0	0	0	0	0	0	0	0	0	0	0	0	0	0	0	0	0	0	0	0	0	0	0	0	0	0	0	0	0	0
0	0	0	0	0	0	0	0	0	0	0	0	0	0	0	0	0	0	0	0	0	0	0	0	0	497	497	498	498	498	499	501	501	502	503	504	504	504	505	505	507	507	508	508	507	507	507	509	510	510	510	510	510	511	510	511	511	513	515	515	519	519	519	519	519	519	519	522	522	523	523	525	527	528	528	532	532	534	534	534	533	533	0	0	0	0	732	732	732	732	732	737	737	737	740	742	742	742	743	748	748	750	753	765	770	770	772	777	777	777	777	0	0	0	0	0	0	908	913	915	917	920	920	920	920	920	917	0	0	0	0	0	0	0	0	0	3698	3738	3738	3698	3698	3698	3698	3698	3698	3698	3698	3698	3698	3698	3698	3698	3698	3698	3698	3698	3738	3698	3698	3659	3698	3698	3698	3659	3659	3659	3698	3698	3659	3659	3659	3659	3659	3659	3659	3698	3698	3659	3659	3659	3659	3698	3738	3738	3779	3779	3779	3779	3738	3738	3738	3738	3738	3738	3779	3779	3779	3779	3779	3779	3779	3779	3738	3738	3738	3738	3738	3738	3738	3738	3738	3738	3738	3738	3738	3738	3738	3738	3738	3738	3779	3779	3779	3779	3738	3738	3738	3738	3738	3738	3738	3738	3738	3738	3738	3738	3738	3738	3738	3738	3738	3738	3738	3738	3738	3738	3738	3738	3738	3738	3738	3738	3779	3779	3738	3738	3738	3738	3738	3738	3738	3738	3738	3738	3738	3738	3738	3738	3738	3738	3738	3698	3698	3698	3698	3698	3046	3019	3046	3046	3019	3019	2993	2993	2993	2993	2993	2967	2942	2917	2917	2893	2893	2893	2893	2869	2869	2869	2869	2845	2845	2845	2845	2845	2822	2822	2845	2845	2822	2822	2822	2822	2799	2799	2777	2777	2777	2777	2777	2799	2777	2799	2799	2799	2822	2822	2822	2822	2822	2822	2822	2822	2822	2845	2845	2845	2845	2845	2845	2845	2845	2845	2845	2893	2917	2942	2942	2967	2967	2967	2993	2993	2993	2993	2993	3738	3698	3698	3659	3659	3659	3659	3659	3659	3659	3659	3659	3659	3659	3659	3621	3621	3621	3621	3621	3621	3659	3659	3659	3659	3659	3659	3659	3621	3621	3621	3621	3621	3621	3621	3621	3621	3659	3659	3659	3659	3659	3659	3659	3659	3659	3659	3659	3659	3659	3659	3659	3698	3698	3698	3698	3698	3698	3698	3659	3698	3659	3659	3659	3659	3659	3659	3659	3659	3659	3659	3659	3659	3659	3659	3659	3659	3659	3659	3659	3659	3659	3621	3621	3621	3621	3621	3583	3583	3583	3583	3583	3583	3583	3583	3583	3583	3621	3621	3621	3621	3621	3621	3621	3621	3621	3621	3621	3621	3621	3621	3621	3621	3621	3621	3621	3583	3583	3583	3583	3583	3621	3621	3621	3621	3621	3621	3621	3621	3621	3621	3621	3621	3621	3583	3583	3583	3583	3583	3583	3583	0	0	0	0	0	0	0	0	0	0	0	0	0	0	0	0	0	0	0	0	0	0	0	0	0	0	0	0	0	0	0	0	0	0	0	0	0	0	0	0	0	0	0	0	0	0	0	0	0	0	0	0	0	0	0	0	0	0	0	0	0	0	0	0	0	0	0	0	0	0	0	0	0	0	0	0	0	0	0	0	0	0	0	0	0	0	0	0	0	0	0	0	0	0	0	0	0	0	0	0	0	0	0	0	0	0	0	0	0	0	0	0	0	0	0	0	0	0	0	0	0	0	0	0	0	0	0	0	0	0	0	0	0	0	0	0	0	0	0	0	0	0	0	0
0	0	0	0	0	0	0	0	0	0	0	0	0	0	0	0	0	0	0	0	0	0	0	0	496	496	496	498	498	500	500	501	502	503	504	504	504	504	505	505	506	506	508	508	508	508	508	510	510	510	510	510	510	511	511	511	511	515	515	518	519	519	519	519	519	519	520	522	523	523	523	525	527	528	530	532	532	533	533	533	0	0	0	0	0	0	732	732	732	732	732	737	737	737	739	742	742	743	743	748	748	750	753	760	765	768	775	777	777	777	777	0	0	0	0	0	0	0	913	917	920	920	922	920	920	920	0	0	0	0	0	0	0	0	0	3738	3698	3738	3738	3698	3698	3698	3698	3698	3698	3698	3698	3698	3698	3698	3659	3698	3698	3659	3698	3698	3698	3698	3698	3659	3698	3698	3698	3659	3659	3659	3698	3698	3659	3659	3659	3659	3659	3659	3659	3659	3659	3659	3659	3659	3698	3698	3738	3738	3738	3779	3779	3779	3738	3779	3738	3738	3738	3738	3779	3779	3779	3779	3779	3779	3779	3779	3738	3738	3738	3738	3738	3738	3738	3738	3738	3738	3738	3738	3738	3738	3738	3738	3779	3779	3779	3779	3779	3738	3738	3738	3738	3738	3738	3738	3738	3738	3738	3738	3738	3738	3738	3738	3738	3738	3738	3738	3738	3738	3698	3698	3698	3738	3738	3738	3738	3738	3738	3738	3738	3738	3738	3738	3738	3738	3738	3738	3698	3738	3738	3738	3738	3738	3738	3738	3738	3698	3698	3698	3698	3698	3698	3019	3019	3046	3019	3019	2993	2993	2993	2993	2967	2942	2942	2917	2893	2893	2893	2893	2893	2869	2869	2869	2869	2845	2845	2845	2845	2845	2845	2822	2845	2822	2822	2822	2822	2822	2799	2777	2777	2777	2777	2777	2777	2799	2799	2799	2799	2799	2822	2822	2822	2822	2822	2822	2822	2822	2822	2822	2845	2845	2845	2845	2845	2845	2845	2845	2845	2869	2893	2917	2942	2942	2967	2967	2993	2993	2993	2993	3738	3738	3698	3698	3659	3698	3698	3698	3659	3659	3659	3659	3659	3659	3659	3659	3621	3621	3621	3621	3621	3621	3659	3659	3659	3698	3659	3698	3659	3659	3659	3659	3621	3621	3659	3621	3659	3659	3659	3659	3659	3659	3659	3659	3659	3659	3659	3659	3659	3659	3659	3659	3698	3698	3698	3698	3659	3698	3698	3659	3659	3659	3659	3659	3659	3659	3659	3659	3659	3659	3659	3659	3621	3659	3659	3659	3659	3621	3659	3659	3659	3659	3659	3621	3621	3621	3621	3621	3583	3583	3583	3583	3583	3583	3583	3583	3583	3583	3583	3583	3621	3621	3621	3621	3621	3621	3621	3621	3621	3621	3621	3621	3621	3583	3583	3583	3583	3583	3583	3583	3583	3583	3621	3621	3621	3621	3621	3621	3621	3621	3621	3621	3583	3583	3583	3621	3583	3621	3583	3621	3621	0	0	0	0	0	0	0	0	0	0	0	0	0	0	0	0	0	0	0	0	0	0	0	0	0	0	0	0	0	0	0	0	0	0	0	0	0	0	0	0	0	0	0	0	0	0	0	0	0	0	0	0	0	0	0	0	0	0	0	0	0	0	0	0	0	0	0	0	0	0	0	0	0	0	0	0	0	0	0	0	0	0	0	0	0	0	0	0	0	0	0	0	0	0	0	0	0	0	0	0	0	0	0	0	0	0	0	0	0	0	0	0	0	0	0	0	0	0	0	0	0	0	0	0	0	0	0	0	0	0	0	0	0	0	0	0	0	0	0	0	0	0	0	0	0
0	0	0	0	0	0	0	0	0	0	0	0	0	0	0	0	0	0	0	0	0	0	0	0	497	497	497	497	499	500	501	502	503	504	504	504	504	504	505	504	507	507	507	508	508	508	508	509	510	510	510	510	510	511	511	511	513	514	515	516	517	518	519	519	520	520	521	523	523	523	523	526	527	529	532	533	532	535	535	535	535	0	0	0	0	0	732	732	732	734	736	737	737	737	739	742	743	743	745	748	750	752	753	756	758	763	768	779	775	777	777	0	0	0	0	0	0	0	0	917	922	922	922	922	920	0	0	0	0	0	0	0	0	0	3659	3698	3698	3698	3698	3698	3698	3698	3698	3698	3698	3698	3698	3698	3698	3698	3698	3698	3698	3698	3698	3698	3698	3698	3698	3659	3698	3698	3698	3659	3621	3621	3659	3659	3659	3659	3659	3698	3698	3659	3659	3698	3659	3659	3659	3698	3698	3698	3738	3738	3738	3738	3738	3738	3738	3738	3738	3738	3738	3738	3779	3738	3738	3779	3779	3779	3738	3779	3738	3738	3738	3738	3738	3738	3738	3738	3738	3738	3738	3738	3738	3738	3738	3738	3738	3738	3779	3779	3738	3738	3738	3738	3738	3738	3738	3738	3738	3738	3738	3738	3738	3738	3738	3738	3738	3738	3738	3738	3738	3738	3698	3698	3698	3738	3738	3738	3738	3738	3738	3738	3738	3738	3738	3738	3738	3738	3698	3698	3698	3698	3738	3738	3738	3738	3738	3738	3738	3738	3698	3698	3698	3698	3073	3019	3046	3046	3019	3019	2993	2993	2993	2993	2967	2942	2917	2893	2893	2893	2893	2869	2869	2869	2869	2869	2845	2845	2845	2845	2845	2845	2822	2822	2845	2822	2822	2822	2822	2822	2799	2777	2777	2777	2777	2777	2777	2799	2799	2799	2822	2822	2822	2822	2822	2822	2822	2822	2822	2822	2822	2845	2845	2845	2845	2845	2845	2845	2845	2845	2845	2869	2893	2917	2942	2942	2942	2967	2967	3019	3019	3738	3738	3738	3698	3698	3659	3698	3698	3698	3659	3659	3659	3659	3659	3659	3659	3659	3621	3621	3621	3621	3621	3659	3659	3659	3659	3659	3659	3698	3659	3659	3659	3659	3621	3621	3659	3621	3659	3659	3659	3659	3659	3659	3659	3659	3659	3659	3659	3698	3659	3659	3659	3659	3659	3659	3659	3659	3659	3659	3659	3659	3659	3659	3659	3659	3659	3659	3659	3621	3621	3659	3659	3621	3621	3621	3621	3621	3621	3621	3621	3659	3659	3621	3621	3621	3621	3621	3621	3621	3583	3583	3583	3583	3583	3621	3583	3583	3583	3583	3583	3583	3583	3621	3621	3621	3621	3621	3621	3621	3621	3583	3621	3621	3621	3583	3583	3583	3583	3583	3583	3583	3583	3621	3621	3621	3621	3621	3621	3621	3621	3583	3583	3583	3583	3583	3583	3621	3621	3621	3621	3621	3621	0	0	0	0	0	0	0	0	0	0	0	0	0	0	0	0	0	0	0	0	0	0	0	0	0	0	0	0	0	0	0	0	0	0	0	0	0	0	0	0	0	0	0	0	0	0	0	0	0	0	0	0	0	0	0	0	0	0	0	0	0	0	0	0	0	0	0	0	0	0	0	0	0	0	0	0	0	0	0	0	0	0	0	0	0	0	0	0	0	0	0	0	0	0	0	0	0	0	0	0	0	0	0	0	0	0	0	0	0	0	0	0	0	0	0	0	0	0	0	0	0	0	0	0	0	0	0	0	0	0	0	0	0	0	0	0	0	0	0	0	0	0	0	0	0
0	0	0	0	0	0	0	0	0	0	0	0	0	0	0	0	0	0	0	0	0	0	0	496	496	497	497	497	499	499	501	502	503	504	504	504	505	505	505	505	506	507	510	508	508	508	508	509	509	509	510	510	513	513	513	513	513	515	517	517	518	519	519	519	520	520	521	522	523	523	523	528	528	530	532	533	533	534	535	535	535	0	0	0	0	0	0	729	729	732	736	737	737	737	739	742	743	743	745	748	750	752	753	755	758	760	765	775	777	779	780	780	0	0	0	0	0	0	0	0	922	922	922	922	0	0	0	0	0	0	0	0	3738	3698	3659	3698	3698	3698	3698	3698	3698	3698	3698	3698	3698	3698	3698	3698	3659	3659	3659	3698	3698	3698	3698	3738	3698	3698	3698	3659	3659	3659	3659	3621	3621	3621	3659	3659	3659	3659	3659	3659	3659	3659	3659	3659	3659	3659	3659	3659	3659	3698	3738	3738	3738	3738	3738	3738	3738	3738	3738	3738	3738	3738	3738	3738	3738	3779	3779	3738	3738	3738	3738	3738	3738	3738	3738	3738	3738	3738	3738	3738	3738	3738	3738	3738	3738	3738	3738	3738	3779	3779	3738	3738	3738	3738	3738	3738	3738	3738	3738	3738	3738	3738	3738	3738	3738	3738	3738	3738	3738	3738	3738	3738	3738	3738	3738	3738	3738	3738	3738	3738	3738	3738	3738	3738	3738	3738	3698	3738	3698	3698	3698	3698	3698	3738	3698	3738	3738	3738	3738	3738	3698	3738	3738	3738	3738	3019	3046	3046	3019	2993	2993	2993	2993	2967	2967	2917	2917	2893	2893	2893	2893	2869	2869	2869	2869	2869	2869	2845	2845	2845	2845	2845	2822	2822	2822	2822	2822	2822	2799	2822	2799	2799	2777	2777	2777	2777	2777	2799	2799	2799	2799	2799	2822	2822	2822	2822	2822	2822	2822	2822	2822	2845	2845	2845	2845	2845	2845	2845	2845	2845	2845	2869	2893	2893	2942	2942	2967	2967	2967	2967	3738	3698	3698	3698	3698	3659	3659	3659	3659	3659	3659	3659	3659	3659	3659	3659	3659	3659	3621	3621	3621	3621	3621	3659	3659	3659	3659	3659	3659	3698	3698	3659	3659	3698	3659	3659	3659	3659	3659	3659	3659	3659	3659	3659	3659	3659	3659	3659	3659	3659	3659	3659	3659	3659	3659	3659	3659	3659	3659	3659	3659	3659	3659	3659	3659	3659	3659	3659	3659	3659	3659	3659	3659	3659	3621	3621	3621	3659	3659	3659	3659	3659	3659	3659	3659	3621	3621	3621	3621	3583	3583	3583	3583	3583	3583	3621	3583	3583	3621	3621	3621	3621	3621	3621	3621	3621	3621	3621	3621	3621	3621	3621	3621	3621	3621	3583	3583	3583	3583	3583	3583	3583	3583	3583	3583	3621	3621	3621	3583	3583	3583	3583	3583	3583	3583	3583	3583	3621	3621	3621	3621	3583	3583	0	0	0	0	0	0	0	0	0	0	0	0	0	0	0	0	0	0	0	0	0	0	0	0	0	0	0	0	0	0	0	0	0	0	0	0	0	0	0	0	0	0	0	0	0	0	0	0	0	0	0	0	0	0	0	0	0	0	0	0	0	0	0	0	0	0	0	0	0	0	0	0	0	0	0	0	0	0	0	0	0	0	0	0	0	0	0	0	0	0	0	0	0	0	0	0	0	0	0	0	0	0	0	0	0	0	0	0	0	0	0	0	0	0	0	0	0	0	0	0	0	0	0	0	0	0	0	0	0	0	0	0	0	0	0	0	0	0	0	0	0	0	0	0	0
0	0	0	0	0	0	0	0	0	0	0	0	0	0	0	0	0	0	0	501	499	496	496	496	496	497	497	497	499	499	501	502	501	501	504	505	505	505	505	505	506	506	506	507	508	508	509	509	510	510	510	510	514	514	514	514	514	515	517	519	519	520	520	520	520	521	521	523	523	524	524	528	530	531	532	533	534	535	536	536	536	536	0	0	0	0	0	729	731	731	732	736	736	737	737	742	743	743	745	748	748	752	753	756	758	761	765	775	777	779	779	780	780	0	0	0	0	0	0	0	0	0	0	0	0	0	0	0	0	0	0	3779	3738	3738	3698	3698	3698	3698	3698	3698	3698	3698	3698	3698	3698	3698	3698	3698	3698	3698	3698	3698	3698	3698	3698	3698	3698	3698	3698	3659	3659	3659	3659	3621	3621	3621	3621	3659	3659	3659	3659	3659	3659	3659	3659	3659	3659	3659	3659	3659	3659	3698	3738	3738	3738	3738	3738	3738	3738	3738	3738	3738	3738	3738	3738	3738	3738	3779	3779	3738	3738	3738	3738	3738	3738	3738	3738	3738	3738	3738	3738	3738	3738	3738	3738	3738	3738	3738	3738	3738	3738	3738	3738	3738	3738	3738	3738	3738	3738	3738	3738	3738	3738	3738	3738	3738	3738	3738	3738	3698	3698	3738	3738	3738	3738	3738	3738	3738	3738	3738	3738	3738	3738	3738	3738	3738	3738	3698	3698	3698	3698	3698	3659	3698	3698	3698	3698	3738	3738	3738	3738	3738	3738	3738	3738	3738	3738	3019	3046	3046	3019	3019	2993	2993	2967	2967	2967	2893	2893	2893	2893	2869	2869	2869	2869	2869	2869	2869	2845	2845	2845	2845	2845	2822	2822	2822	2822	2822	2822	2799	2799	2822	2799	2799	2799	2777	2777	2777	2799	2799	2799	2799	2799	2799	2822	2822	2822	2822	2822	2822	2822	2822	2822	2845	2845	2845	2845	2845	2845	2845	2845	2845	2845	2869	2893	2917	2917	2942	2942	2967	2967	3738	3698	3698	3698	3698	3659	3659	3659	3659	3659	3659	3659	3659	3659	3659	3659	3659	3659	3659	3659	3659	3659	3659	3659	3621	3621	3659	3659	3659	3659	3698	3698	3698	3698	3698	3659	3659	3659	3659	3659	3659	3659	3659	3659	3659	3659	3659	3659	3659	3659	3659	3659	3659	3659	3659	3659	3659	3659	3659	3659	3659	3659	3659	3659	3659	3659	3659	3659	3659	3659	3659	3659	3659	3659	3659	3659	3659	3659	3659	3659	3659	3659	3659	3659	3659	3659	3659	3621	3621	3583	3583	3583	3583	3583	3583	3583	3583	3583	3583	3621	3621	3621	3621	3621	3621	3621	3621	3621	3621	3621	3621	3583	3621	3621	3583	3583	3583	3583	3583	3583	3583	3546	3583	3583	3583	3583	3583	3621	3583	3583	3583	3583	3583	3583	3583	3583	3583	3583	3583	3583	3621	3621	3621	3621	0	0	0	0	0	0	0	0	0	0	0	0	0	0	0	0	0	0	0	0	0	0	0	0	0	0	0	0	0	0	0	0	0	0	0	0	0	0	0	0	0	0	0	0	0	0	0	0	0	0	0	0	0	0	0	0	0	0	0	0	0	0	0	0	0	0	0	0	0	0	0	0	0	0	0	0	0	0	0	0	0	0	0	0	0	0	0	0	0	0	0	0	0	0	0	0	0	0	0	0	0	0	0	0	0	0	0	0	0	0	0	0	0	0	0	0	0	0	0	0	0	0	0	0	0	0	0	0	0	0	0	0	0	0	0	0	0	0	0	0	0	0	0	0	0
0	0	0	0	0	0	0	0	0	0	0	0	0	0	0	0	0	0	0	501	500	496	496	496	496	497	497	499	499	500	501	501	501	501	504	504	505	506	505	506	508	509	510	510	511	511	511	513	514	514	514	514	514	515	515	514	515	517	519	519	519	520	520	520	520	521	522	523	524	524	524	524	530	531	532	534	534	535	536	536	536	536	0	0	0	0	0	0	731	731	732	736	736	737	737	739	742	743	743	747	748	750	753	756	758	760	777	775	777	779	779	779	779	0	0	0	0	0	0	0	0	0	0	0	0	0	0	0	0	0	3779	3779	3738	3738	3738	3738	3738	3698	3698	3698	3698	3738	3698	3698	3738	3738	3738	3698	3698	3698	3698	3698	3698	3698	3698	3698	3698	3698	3698	3659	3659	3659	3659	3621	3621	3621	3659	3659	3659	3659	3659	3659	3659	3659	3659	3659	3659	3659	3659	3698	3698	3698	3738	3738	3738	3738	3738	3738	3738	3738	3738	3738	3738	3738	3738	3738	3738	3738	3738	3738	3738	3738	3738	3738	3738	3738	3738	3738	3738	3738	3738	3738	3738	3738	3738	3738	3738	3738	3738	3738	3738	3738	3738	3738	3738	3738	3738	3738	3738	3738	3738	3738	3738	3738	3698	3698	3698	3738	3738	3698	3698	3738	3738	3738	3738	3738	3738	3738	3738	3738	3738	3738	3738	3738	3738	3698	3698	3698	3698	3698	3698	3698	3698	3698	3698	3698	3698	3738	3738	3738	3738	3738	3738	3738	3738	3738	3738	3046	3019	3046	3019	2993	2993	2993	2967	2942	2942	2893	2893	2893	2869	2869	2869	2869	2869	2869	2869	2869	2845	2845	2845	2845	2822	2822	2822	2822	2822	2822	2822	2822	2799	2822	2777	2799	2799	2777	2777	2777	2777	2799	2799	2799	2799	2799	2799	2822	2822	2822	2822	2822	2822	2822	2822	2845	2845	2845	2845	2845	2845	2845	2845	2845	2845	2869	2893	2893	2917	2917	2942	2942	2942	3698	3698	3659	3698	3659	3659	3659	3659	3659	3698	3659	3659	3659	3659	3659	3659	3659	3659	3659	3659	3659	3659	3659	3621	3621	3621	3621	3659	3659	3659	3698	3698	3698	3698	3698	3659	3659	3698	3659	3659	3659	3659	3659	3659	3659	3659	3659	3659	3659	3621	3659	3659	3659	3659	3659	3659	3659	3659	3659	3659	3659	3659	3659	3659	3659	3659	3659	3621	3659	3621	3621	3621	3659	3659	3659	3659	3621	3659	3659	3659	3621	3621	3659	3659	3659	3659	3621	3621	3621	3583	3583	3583	3583	3583	3621	3583	3621	3583	3583	3621	3621	3621	3621	3621	3621	3621	3621	3621	3621	3621	3621	3621	3621	3621	3583	3583	3583	3583	3583	3583	3583	3583	3583	3583	3583	3583	3621	3621	3583	3583	3583	3583	3583	3583	3583	3583	3583	3583	3583	3583	3621	3621	3621	3621	0	0	0	0	0	0	0	0	0	0	0	0	0	0	0	0	0	0	0	0	0	0	0	0	0	0	0	0	0	0	0	0	0	0	0	0	0	0	0	0	0	0	0	0	0	0	0	0	0	0	0	0	0	0	0	0	0	0	0	0	0	0	0	0	0	0	0	0	0	0	0	0	0	0	0	0	0	0	0	0	0	0	0	0	0	0	0	0	0	0	0	0	0	0	0	0	0	0	0	0	0	0	0	0	0	0	0	0	0	0	0	0	0	0	0	0	0	0	0	0	0	0	0	0	0	0	0	0	0	0	0	0	0	0	0	0	0	0	0	0	0	0	0	0	0
0	0	0	0	0	0	0	0	0	0	0	0	0	0	0	0	0	0	0	501	501	499	496	496	496	497	497	498	501	501	501	502	503	504	505	504	505	506	506	506	506	509	510	510	510	512	513	513	514	514	514	514	514	516	516	516	516	518	519	519	519	520	520	520	520	523	523	523	523	525	527	530	530	531	533	534	534	534	536	536	536	536	0	0	0	0	0	0	0	737	737	737	737	737	737	739	742	743	743	747	748	750	752	755	756	758	772	773	775	777	779	779	779	0	0	0	0	0	0	0	0	0	0	0	0	0	0	0	0	0	3779	3779	3779	3738	3738	3738	3738	3738	3738	3698	3698	3698	3698	3698	3698	3738	3738	3698	3698	3698	3698	3698	3698	3698	3698	3698	3698	3698	3698	3659	3659	3659	3659	3621	3621	3621	3659	3659	3659	3659	3659	3659	3659	3659	3659	3659	3659	3659	3659	3659	3698	3698	3738	3738	3738	3738	3738	3738	3738	3738	3738	3738	3738	3738	3738	3738	3738	3738	3738	3738	3738	3738	3738	3738	3738	3738	3738	3738	3738	3738	3738	3738	3738	3738	3738	3738	3738	3698	3698	3698	3738	3738	3738	3738	3738	3738	3738	3738	3698	3698	3738	3738	3698	3698	3698	3698	3698	3698	3698	3698	3698	3738	3738	3738	3738	3738	3738	3738	3738	3738	3738	3698	3698	3738	3698	3698	3698	3698	3698	3698	3698	3698	3698	3698	3698	3698	3698	3738	3738	3738	3738	3738	3738	3738	3738	3738	3738	3738	3046	3019	3019	2993	2993	2967	2967	2942	2917	2893	2893	2869	2869	2869	2869	2869	2869	2869	2869	2869	2845	2845	2845	2822	2822	2822	2822	2822	2822	2822	2799	2822	2799	2822	2799	2799	2799	2799	2799	2799	2777	2799	2799	2799	2799	2799	2799	2822	2822	2822	2822	2822	2822	2822	2822	2845	2845	2845	2822	2822	2845	2845	2845	2845	2845	2869	2869	2893	2893	2893	2893	3698	3698	3698	3698	3659	3659	3659	3659	3659	3659	3659	3698	3659	3698	3659	3659	3659	3659	3659	3659	3659	3621	3659	3659	3621	3621	3621	3621	3621	3621	3659	3659	3659	3659	3659	3659	3659	3659	3659	3659	3659	3659	3659	3659	3659	3659	3659	3659	3659	3659	3659	3659	3659	3659	3659	3659	3659	3621	3621	3659	3659	3659	3659	3659	3659	3659	3659	3659	3659	3621	3621	3621	3621	3621	3659	3659	3621	3659	3621	3621	3621	3621	3621	3621	3659	3659	3659	3659	3621	3621	3621	3583	3583	3583	3583	3583	3621	3583	3621	3583	3583	3583	3621	3621	3621	3621	3621	3621	3621	3621	3621	3621	3621	3621	3621	3621	3583	3583	3583	3583	3583	3583	3546	3546	3583	3583	3583	3583	3583	3583	3583	3583	3583	3583	3583	3583	3583	3583	3583	3583	3583	3583	3621	3621	3621	3621	0	0	0	0	0	0	0	0	0	0	0	0	0	0	0	0	0	0	0	0	0	0	0	0	0	0	0	0	0	0	0	0	0	0	0	0	0	0	0	0	0	0	0	0	0	0	0	0	0	0	0	0	0	0	0	0	0	0	0	0	0	0	0	0	0	0	0	0	0	0	0	0	0	0	0	0	0	0	0	0	0	0	0	0	0	0	0	0	0	0	0	0	0	0	0	0	0	0	0	0	0	0	0	0	0	0	0	0	0	0	0	0	0	0	0	0	0	0	0	0	0	0	0	0	0	0	0	0	0	0	0	0	0	0	0	0	0	0	0	0	0	0	0	0	0
0	0	0	0	0	0	0	0	0	0	0	0	0	0	0	0	0	0	0	501	501	499	496	496	496	497	497	497	499	499	501	502	502	504	505	504	505	505	507	507	507	509	510	510	510	513	513	513	513	514	514	514	515	516	516	516	516	519	519	519	519	520	520	520	520	523	523	523	523	529	529	530	531	531	532	534	534	535	536	536	536	536	0	0	0	0	0	0	0	737	737	737	737	737	737	739	740	743	745	748	750	750	752	753	755	760	767	770	773	777	779	779	779	0	0	0	0	0	0	0	0	0	0	0	0	0	0	0	0	0	3779	3779	3738	3698	3698	3738	3698	3698	3698	3698	3698	3698	3698	3698	3698	3698	3698	3698	3698	3698	3698	3698	3698	3698	3698	3698	3698	3698	3698	3659	3659	3659	3659	3621	3659	3659	3659	3659	3659	3659	3659	3659	3659	3659	3659	3659	3659	3659	3659	3659	3698	3698	3738	3738	3738	3738	3738	3738	3738	3738	3738	3738	3738	3738	3738	3738	3738	3738	3738	3738	3738	3738	3738	3738	3738	3738	3738	3738	3738	3738	3698	3698	3698	3738	3738	3738	3738	3698	3738	3698	3738	3738	3698	3698	3738	3698	3698	3698	3698	3698	3698	3698	3698	3698	3698	3698	3698	3698	3698	3698	3698	3698	3738	3738	3738	3738	3738	3738	3698	3698	3698	3698	3698	3698	3738	3738	3738	3738	3698	3738	3698	3698	3698	3698	3698	3698	3698	3738	3738	3738	3738	3738	3738	3738	3738	3738	3738	3738	3046	3019	2993	2993	2967	2967	2942	2917	2893	2893	2893	2869	2869	2869	2869	2869	2869	2869	2869	2869	2869	2845	2845	2822	2822	2822	2822	2822	2822	2822	2799	2822	2799	2822	2799	2799	2799	2799	2799	2799	2799	2799	2799	2799	2799	2799	2799	2799	2822	2822	2799	2845	2822	2822	2822	2845	2822	2845	2822	2822	2822	2845	2845	2845	2845	2845	2869	2869	2869	2869	3698	3698	3698	3698	3698	3659	3659	3659	3659	3659	3659	3659	3659	3659	3659	3659	3659	3659	3659	3659	3659	3659	3621	3659	3659	3659	3621	3621	3621	3621	3621	3621	3621	3659	3659	3659	3659	3659	3659	3659	3659	3659	3659	3659	3659	3659	3659	3659	3659	3659	3659	3659	3659	3659	3659	3659	3659	3621	3621	3621	3621	3659	3621	3659	3659	3659	3659	3621	3621	3659	3621	3621	3621	3621	3621	3621	3621	3621	3621	3621	3621	3621	3621	3621	3621	3621	3659	3659	3659	3621	3621	3621	3621	3583	3583	3583	3583	3621	3583	3621	3583	3583	3583	3583	3621	3621	3621	3621	3621	3621	3621	3621	3621	3621	3621	3583	3583	3583	3583	3546	3546	3546	3546	3546	3546	3583	3583	3583	3583	3583	3583	3583	3583	3583	3583	3583	3583	3583	3583	3583	3583	3583	3583	3583	3621	3621	3621	0	0	0	0	0	0	0	0	0	0	0	0	0	0	0	0	0	0	0	0	0	0	0	0	0	0	0	0	0	0	0	0	0	0	0	0	0	0	0	0	0	0	0	0	0	0	0	0	0	0	0	0	0	0	0	0	0	0	0	0	0	0	0	0	0	0	0	0	0	0	0	0	0	0	0	0	0	0	0	0	0	0	0	0	0	0	0	0	0	0	0	0	0	0	0	0	0	0	0	0	0	0	0	0	0	0	0	0	0	0	0	0	0	0	0	0	0	0	0	0	0	0	0	0	0	0	0	0	0	0	0	0	0	0	0	0	0	0	0	0	0	0	0	0	0
0	0	0	0	0	0	0	0	0	0	0	0	0	0	0	0	0	0	0	0	0	499	496	496	497	497	498	498	498	498	499	499	502	504	504	504	505	505	507	507	507	510	510	510	511	513	513	513	514	514	514	515	515	516	516	517	518	519	519	519	520	520	521	521	521	526	526	526	526	529	529	529	530	531	532	533	534	536	536	538	538	0	0	0	0	0	0	0	0	0	0	737	737	737	737	739	740	743	745	748	750	750	752	753	756	761	767	768	772	775	777	777	777	0	0	0	0	0	0	0	0	0	0	0	0	0	0	0	0	0	3738	3738	3738	3698	3698	3738	3698	3698	3698	3698	3698	3698	3659	3659	3698	3698	3698	3698	3698	3698	3698	3698	3659	3698	3659	3659	3698	3659	3659	3659	3659	3659	3659	3621	3621	3621	3659	3659	3659	3659	3659	3659	3659	3621	3659	3659	3659	3659	3659	3659	3659	3698	3698	3738	3738	3738	3738	3738	3738	3738	3738	3738	3738	3738	3738	3738	3738	3738	3738	3738	3738	3738	3738	3738	3738	3738	3738	3738	3738	3738	3698	3698	3738	3738	3738	3738	3698	3698	3738	3698	3698	3698	3698	3738	3738	3698	3698	3698	3698	3698	3698	3698	3698	3698	3698	3698	3698	3698	3659	3698	3698	3698	3698	3738	3698	3698	3698	3698	3698	3698	3698	3698	3698	3698	3698	3698	3698	3698	3698	3738	3698	3698	3698	3698	3698	3698	3698	3698	3698	3738	3738	3738	3738	3738	3738	3738	3738	3738	3046	3019	2993	2967	2967	2942	2917	2917	2893	2893	2869	2869	2869	2869	2869	2869	2869	2869	2869	2869	2845	2845	2845	2822	2822	2822	2822	2822	2822	2822	2799	2799	2799	2822	2799	2799	2799	2799	2799	2799	2799	2799	2777	2777	2777	2777	2799	2799	2799	2822	2799	2845	2845	2822	2845	2845	2822	2845	2822	2822	2822	2845	2845	2845	2845	2845	2869	2869	2869	2869	3698	3698	3698	3659	3659	3659	3659	3659	3659	3659	3659	3659	3659	3659	3659	3659	3659	3659	3659	3659	3659	3659	3659	3659	3659	3659	3621	3621	3621	3621	3621	3621	3621	3659	3659	3659	3659	3659	3659	3659	3659	3659	3659	3659	3659	3659	3659	3659	3659	3659	3659	3659	3659	3659	3659	3659	3659	3621	3621	3621	3621	3621	3621	3621	3621	3621	3659	3659	3659	3659	3621	3621	3621	3621	3621	3621	3621	3621	3621	3621	3621	3621	3621	3621	3621	3621	3659	3659	3659	3621	3621	3621	3621	3621	3621	3621	3621	3621	3583	3621	3583	3583	3583	3583	3583	3621	3621	3621	3621	3621	3621	3621	3583	3621	3583	3583	3583	3583	3583	3546	3583	3583	3546	3546	3546	3583	3583	3583	3583	3583	3583	3583	3583	3583	3583	3583	3583	3583	3583	3583	3583	3621	3583	3583	3621	3621	0	0	0	0	0	0	0	0	0	0	0	0	0	0	0	0	0	0	0	0	0	0	0	0	0	0	0	0	0	0	0	0	0	0	0	0	0	0	0	0	0	0	0	0	0	0	0	0	0	0	0	0	0	0	0	0	0	0	0	0	0	0	0	0	0	0	0	0	0	0	0	0	0	0	0	0	0	0	0	0	0	0	0	0	0	0	0	0	0	0	0	0	0	0	0	0	0	0	0	0	0	0	0	0	0	0	0	0	0	0	0	0	0	0	0	0	0	0	0	0	0	0	0	0	0	0	0	0	0	0	0	0	0	0	0	0	0	0	0	0	0	0	0	0	0	0
0	0	0	0	0	0	0	0	0	0	0	0	0	0	0	0	0	0	0	0	0	0	496	497	497	497	498	498	498	498	500	500	0	504	504	504	505	505	507	507	509	510	510	511	511	513	513	514	514	514	514	514	515	516	516	517	518	519	519	520	520	521	522	523	523	526	526	526	526	528	529	530	530	530	530	536	536	536	537	538	538	545	545	545	0	0	0	0	0	0	0	739	739	737	737	739	740	743	745	750	750	752	753	755	756	758	758	770	770	775	777	777	777	0	0	0	0	0	0	0	0	0	0	0	0	0	0	0	0	0	3738	3738	3738	3698	3698	3698	3698	3698	3698	3698	3698	3698	3659	3659	3659	3698	3698	3659	3698	3698	3698	3698	3659	3698	3659	3659	3659	3659	3659	3659	3659	3659	3621	3621	3621	3621	3659	3659	3659	3659	3698	3659	3659	3621	3621	3659	3659	3659	3659	3659	3659	3698	3698	3738	3738	3738	3738	3738	3738	3738	3738	3738	3738	3738	3738	3738	3738	3738	3738	3738	3738	3738	3738	3738	3738	3738	3738	3738	3738	3738	3698	3698	3698	3738	3738	3698	3698	3698	3698	3698	3698	3698	3698	3738	3738	3698	3698	3698	3698	3698	3698	3698	3698	3698	3698	3698	3698	3659	3659	3698	3698	3698	3698	3698	3698	3698	3698	3698	3698	3698	3698	3698	3698	3698	3738	3698	3698	3698	3738	3738	3698	3698	3698	3698	3698	3698	3698	3738	3738	3738	3738	3738	3738	3738	3738	3738	3738	3698	3659	2993	2967	2967	2942	2942	2917	2917	2893	2893	2869	2869	2869	2869	2869	2869	2869	2869	2869	2869	2845	2845	2845	2822	2822	2822	2822	2822	2822	2799	2799	2799	2799	2822	2777	2799	2799	2799	2799	2799	2799	2777	2777	2777	2777	2777	2777	2799	2799	2799	2799	2822	2822	2822	2822	2845	2822	2845	2822	2822	2845	2845	2845	2845	2845	2845	2869	2869	2869	2869	3698	3698	3698	3659	3659	3659	3621	3621	3621	3621	3659	3659	3659	3659	3659	3659	3659	3659	3659	3659	3659	3659	3621	3659	3659	3621	3621	3621	3621	3621	3621	3621	3621	3659	3659	3659	3659	3659	3659	3659	3659	3659	3659	3659	3698	3659	3659	3659	3659	3659	3659	3659	3659	3659	3621	3659	3659	3621	3621	3621	3621	3621	3621	3621	3621	3621	3659	3659	3659	3659	3659	3659	3621	3621	3621	3621	3583	3621	3621	3583	3621	3621	3583	3621	3621	3621	3621	3621	3621	3621	3621	3621	3621	3621	3621	3621	3621	3621	3583	3583	3583	3583	3583	3583	3621	3621	3621	3621	3621	3621	3621	3621	3583	3583	3583	3583	3583	3583	3583	3546	3583	3583	3583	3583	3583	3583	3583	3583	3583	3583	3583	3583	3583	3583	3583	3583	3583	3583	3583	3583	3583	3621	3583	3583	3621	3621	0	0	0	1833	1824	1824	1824	0	0	0	0	0	0	0	0	0	0	0	0	0	0	0	0	0	0	0	0	0	0	0	0	0	0	0	0	0	0	0	0	0	0	0	0	0	0	0	0	0	0	0	0	0	0	0	0	0	0	0	0	0	0	0	0	0	0	0	0	0	0	0	0	0	0	0	0	0	0	0	0	0	0	0	0	0	0	0	0	0	0	0	0	0	0	0	0	0	0	0	0	0	0	0	0	0	0	0	0	0	0	0	0	0	0	0	0	0	0	0	0	0	0	0	0	0	0	0	0	0	0	0	0	0	0	0	0	0	0	0	0	0	0	0	0	0	0	0
0	0	0	0	0	0	0	0	0	0	0	0	0	0	0	0	0	0	0	0	0	0	501	498	497	498	498	498	499	499	500	500	0	0	504	504	505	505	508	508	509	510	510	510	510	511	513	513	513	514	514	514	515	516	516	517	519	519	520	520	520	522	523	523	526	527	527	527	527	529	529	530	530	530	530	536	536	546	547	547	547	545	545	547	547	0	0	0	0	0	0	737	739	737	737	739	740	742	745	748	748	752	753	755	758	760	767	768	773	775	777	777	777	0	0	0	0	0	0	0	0	0	0	0	0	0	0	0	0	0	0	3698	3698	3659	3698	3698	3698	3698	3698	3698	3698	3698	3659	3659	3698	3698	3698	3659	3698	3698	3698	3698	3659	3659	3659	3659	3659	3659	3659	3659	3659	3659	3621	3621	3621	3621	3659	3659	3659	3659	3659	3659	3659	3621	3621	3621	3621	3621	3621	3659	3659	3659	3698	3738	3738	3738	3738	3738	3738	3738	3738	3738	3738	3738	3738	3738	3738	3738	3738	3738	3738	3738	3738	3738	3738	3738	3738	3738	3738	3738	3698	3738	3698	3738	3738	3698	3698	3698	3698	3698	3698	3698	3698	3698	3698	3698	3698	3698	3698	3698	3698	3698	3698	3698	3698	3698	3698	3659	3659	3698	3698	3698	3698	3698	3698	3698	3698	3698	3698	3698	3698	3698	3698	3698	3738	3698	3698	3698	3698	3698	3698	3698	3698	3698	3738	3698	3698	3698	3738	3738	3738	3738	3738	3738	3738	3738	3738	3698	2993	2993	2967	2942	2917	2917	2917	2893	2893	2869	2869	2869	2869	2869	2869	2869	2869	2869	2869	2869	2845	2845	2845	2822	2822	2822	2799	2799	2799	2799	2799	2799	2799	2799	2777	2777	2799	2799	2799	2799	2799	2777	2777	2777	2777	2777	2777	2799	2799	2799	2799	2822	2822	2822	2822	2822	2822	2822	2822	2822	2822	2822	2845	2845	2845	2845	2845	2845	2845	3659	3698	3698	3659	3659	3659	3621	3621	3621	3621	3621	3659	3659	3659	3659	3659	3659	3659	3659	3659	3659	3659	3659	3659	3659	3659	3621	3621	3621	3621	3621	3621	3621	3621	3659	3659	3659	3659	3659	3659	3659	3659	3659	3659	3659	3659	3659	3659	3659	3659	3659	3659	3659	3659	3659	3621	3621	3621	3621	3621	3621	3621	3621	3621	3621	3621	3621	3621	3621	3659	3659	3621	3659	3621	3621	3621	3621	3621	3621	3621	3583	3621	3583	3583	3621	3583	3621	3621	3621	3621	3621	3621	3621	3621	3621	3621	3621	3621	3621	3583	3583	3583	3583	3583	3583	3621	3621	3621	3621	3621	3621	3583	3583	3583	3583	3583	3583	3583	3583	3583	3583	3583	3583	3583	3583	3583	3583	3583	3583	3583	3583	3583	3583	3583	3583	3583	3621	3583	3583	3583	3583	3583	3583	3583	3583	3583	3621	0	0	1833	1833	1824	1814	1804	1795	1786	1786	0	0	0	0	0	0	0	0	0	0	0	0	0	0	0	0	0	0	0	0	0	0	0	0	0	0	0	0	0	0	0	0	0	0	0	0	0	0	0	0	0	0	0	0	0	0	0	0	0	0	0	0	0	0	0	0	0	0	0	0	0	0	0	0	0	0	0	0	0	0	0	0	0	0	0	0	0	0	0	0	0	0	0	0	0	0	0	0	0	0	0	0	0	0	0	0	0	0	0	0	0	0	0	0	0	0	0	0	0	0	0	0	0	0	0	0	0	0	0	0	0	0	0	0	0	0	0	0	0	0	0	0	0	0	0	0
0	0	0	0	0	0	0	0	0	0	0	0	0	0	0	0	0	0	0	0	0	0	501	498	496	497	498	498	500	500	0	0	0	0	504	504	505	505	508	508	510	510	510	510	510	511	513	513	514	514	514	514	515	515	516	517	518	520	521	522	522	523	523	524	526	527	528	528	528	529	529	529	529	530	530	0	0	546	546	546	546	547	547	547	547	0	0	0	0	0	739	739	739	739	739	739	742	743	747	748	750	752	755	756	758	758	758	767	775	777	777	779	779	0	0	0	0	0	0	0	0	0	0	0	0	0	0	0	0	0	0	3659	3659	3659	3659	3659	3659	3698	3698	3698	3698	3698	3659	3659	3698	3698	3659	3659	3698	3659	3659	3659	3621	3659	3659	3659	3621	3659	3659	3659	3659	3621	3621	3621	3621	3621	3621	3659	3621	3621	3659	3659	3659	3659	3659	3659	3621	3621	3621	3659	3659	3659	3698	3738	3738	3738	3738	3738	3698	3698	3698	3738	3738	3738	3738	3738	3738	3738	3738	3698	3738	3738	3738	3738	3738	3738	3738	3738	3738	3738	3738	3738	3738	3738	3738	3738	3698	3698	3738	3698	3698	3698	3698	3698	3698	3698	3698	3698	3698	3698	3698	3698	3698	3698	3659	3659	3659	3659	3659	3698	3698	3698	3698	3698	3659	3698	3659	3698	3698	3698	3698	3698	3698	3698	3698	3698	3698	3698	3698	3698	3738	3698	3698	3738	3738	3698	3698	3698	3698	3738	3738	3738	3738	3738	3738	3738	3738	3698	2967	2967	2967	2942	2917	2917	2893	2893	2893	2869	2869	2869	2869	2869	2869	2869	2869	2869	2869	2869	2845	2845	2822	2822	2822	2822	2799	2799	2799	2799	2799	2799	2799	2799	2777	2777	2777	2777	2777	2799	2799	2799	2777	2777	2777	2777	2777	2777	2799	2799	2799	2822	2822	2822	2822	2822	2822	2822	2822	2822	2822	2822	2845	2845	2845	2845	2845	2845	2845	3698	3698	3698	3698	3659	3659	3621	3621	3621	3621	3621	3659	3659	3659	3659	3659	3659	3659	3659	3659	3659	3659	3659	3659	3659	3659	3621	3621	3621	3621	3621	3621	3621	3659	3659	3659	3659	3659	3659	3659	3659	3659	3659	3659	3659	3659	3659	3659	3698	3659	3659	3659	3659	3659	3659	3621	3621	3621	3621	3621	3621	3621	3621	3621	3621	3621	3621	3621	3621	3621	3659	3659	3659	3621	3621	3621	3621	3583	3583	3583	3583	3583	3583	3583	3583	3583	3583	3621	3621	3621	3621	3621	3621	3621	3621	3621	3621	3621	3621	3583	3583	3583	3583	3583	3583	3583	3621	3621	3621	3621	3621	3583	3583	3583	3583	3583	3583	3583	3583	3583	3583	3583	3583	3583	3583	3583	3583	3583	3583	3583	3583	3583	3583	3583	3583	3583	3621	3583	3583	3583	3583	3583	3583	3583	3583	3583	0	0	0	1833	1833	1824	1814	1814	1795	1786	1786	1786	0	0	0	0	0	0	0	0	0	0	0	0	0	0	0	0	0	0	0	0	0	0	0	0	0	0	0	0	0	0	0	0	0	0	0	0	0	0	0	0	0	0	0	0	0	0	0	0	0	0	0	0	0	0	0	0	0	0	0	0	0	0	0	0	0	0	0	0	0	0	0	0	0	0	0	0	0	0	0	0	0	0	0	0	0	0	0	0	0	0	0	0	0	0	0	0	0	0	0	0	0	0	0	0	0	0	0	0	0	0	0	0	0	0	0	0	0	0	0	0	0	0	0	0	0	0	0	0	0	0	0	0	0	0	0
0	0	0	0	0	0	0	0	0	0	0	0	0	0	0	0	0	0	0	0	0	0	0	498	496	497	498	499	499	500	0	0	0	0	0	504	507	507	509	509	510	510	510	510	510	511	512	513	514	514	514	514	515	515	516	517	517	520	521	522	521	523	524	525	527	527	528	529	529	529	529	529	529	0	0	0	0	545	545	546	546	547	547	548	548	0	0	0	0	0	739	739	740	739	740	740	743	745	748	750	752	753	755	756	758	758	761	767	775	779	779	780	780	0	0	0	0	0	0	0	0	0	0	0	0	0	0	0	0	0	0	3659	3659	3621	3659	3659	3659	3698	3659	3659	3698	3698	3659	3659	3659	3698	3659	3659	3698	3698	3659	3659	3659	3659	3659	3659	3621	3659	3659	3659	3659	3659	3621	3621	3621	3621	3659	3659	3621	3621	3659	3659	3659	3659	3659	3659	3621	3659	3621	3621	3621	3659	3659	3698	3738	3738	3738	3698	3698	3698	3698	3698	3738	3738	3738	3738	3738	3738	3738	3738	3738	3738	3738	3738	3738	3738	3738	3738	3738	3738	3738	3738	3738	3738	3738	3738	3698	3698	3738	3698	3698	3698	3698	3738	3698	3698	3698	3698	3698	3698	3698	3698	3698	3698	3698	3698	3698	3698	3659	3698	3659	3659	3659	3698	3659	3698	3659	3659	3698	3698	3698	3698	3698	3698	3738	3698	3698	3698	3738	3698	3738	3698	3698	3698	3698	3698	3698	3698	3698	3738	3738	3738	3738	3738	3738	3738	3738	3738	2942	2942	2942	2917	2893	2917	2893	2893	2893	2869	2869	2869	2869	2845	2845	2845	2845	2845	2869	2845	2845	2845	2822	2822	2822	2799	2799	2799	2822	2799	2799	2799	2799	2799	2777	2777	2777	2777	2777	2799	2799	2777	2777	2777	2777	2777	2777	2777	2799	2799	2799	2799	2822	2822	2822	2822	2822	2822	2822	2822	2822	2822	2822	2845	2845	2845	2845	2845	2845	3698	3698	3698	3698	3659	3659	3621	3621	3621	3621	3621	3621	3659	3659	3659	3659	3659	3659	3659	3659	3659	3659	3659	3659	3659	3659	3621	3621	3621	3659	3659	3659	3659	3659	3659	3659	3659	3659	3659	3659	3659	3659	3659	3659	3659	3659	3659	3698	3698	3659	3659	3659	3659	3659	3659	3621	3621	3621	3621	3621	3621	3621	3621	3621	3621	3621	3621	3659	3659	3659	3659	3659	3659	3621	3621	3621	3621	3583	3583	3583	3583	3583	3583	3583	3583	3583	3583	3583	3621	3621	3621	3621	3621	3621	3621	3621	3621	3621	3621	3583	3583	3583	3583	3583	3583	3621	3621	3583	3583	3583	3583	3583	3583	3583	3583	3583	3583	3583	3583	3583	3583	3583	3583	3583	3583	3546	3583	3583	3546	3546	3583	3583	3583	3583	3583	3583	3621	3583	3583	3583	3583	3583	3621	3583	3583	3583	0	0	1833	1833	1833	1824	1814	1814	1795	1786	1786	1786	0	0	0	0	0	0	0	0	0	0	0	0	0	0	0	0	0	0	0	0	0	0	0	0	0	0	0	0	0	0	0	0	0	0	0	0	0	0	0	0	0	0	0	0	0	0	0	0	0	0	0	0	0	0	0	0	0	0	0	0	0	0	0	0	0	0	0	0	0	0	0	0	0	0	0	0	0	0	0	0	0	0	0	0	0	0	0	0	0	0	0	0	0	0	0	0	0	0	0	0	0	0	0	0	0	0	0	0	0	0	0	0	0	0	0	0	0	0	0	0	0	0	0	0	0	0	0	0	0	0	0	0	0	0	0
0	0	0	0	0	0	0	0	0	0	0	0	0	0	0	0	0	0	0	0	0	0	0	0	496	496	501	499	499	0	0	0	0	0	0	0	507	510	510	510	510	510	510	510	511	511	512	513	514	514	514	515	516	515	516	516	519	520	522	523	523	525	527	527	527	528	529	529	529	529	529	530	530	0	0	0	545	546	546	546	548	548	548	548	548	0	0	0	0	740	740	739	740	740	740	742	743	745	750	750	752	755	755	758	756	758	758	765	777	780	780	782	782	0	0	0	0	0	0	0	0	0	0	0	0	0	0	0	0	0	0	0	0	3583	3621	3621	3659	3659	3659	3659	3698	3698	3659	3659	3659	3698	3659	3659	3659	3659	3659	3659	3659	3659	3659	3659	3621	3659	3659	3621	3659	3621	3621	3621	3621	3621	3621	3621	3621	3621	3621	3621	3621	3621	3621	3621	3621	3621	3621	3621	3621	3659	3659	3698	3738	3738	3738	3698	3698	3698	3698	3738	3738	3738	3738	3738	3738	3738	3738	3698	3738	3698	3738	3738	3738	3738	3738	3738	3738	3738	3738	3738	3738	3738	3698	3698	3698	3698	3698	3698	3698	3698	3698	3698	3698	3698	3698	3698	3698	3698	3698	3698	3698	3698	3698	3659	3659	3659	3659	3698	3659	3659	3659	3659	3698	3698	3659	3698	3698	3698	3698	3698	3698	3698	3738	3698	3698	3698	3698	3698	3698	3698	3698	3698	3698	3698	3698	3698	3698	3738	3738	3738	3738	3738	3738	3738	3738	3738	2893	2917	2917	2917	2893	2893	2893	2893	2893	2869	2869	2869	2869	2845	2845	2845	2845	2845	2869	2845	2845	2845	2822	2822	2822	2822	2822	2822	2799	2799	2799	2799	2799	2799	2777	2777	2777	2777	2777	2777	2777	2777	2777	2777	2777	2777	2777	2777	2777	2799	2799	2799	2799	2799	2799	2822	2822	2822	2822	2822	2822	2822	2822	2822	2845	2845	2845	2845	2845	3698	3698	3698	3698	3659	3659	3659	3621	3659	3621	3659	3659	3659	3659	3659	3659	3659	3659	3659	3659	3621	3659	3659	3659	3659	3659	3659	3659	3659	3659	3659	3659	3659	3659	3659	3659	3659	3621	3621	3659	3621	3621	3659	3659	3659	3659	3659	3698	3659	3659	3659	3659	3659	3659	3659	3621	3621	3621	3621	3621	3621	3621	3659	3621	3621	3621	3621	3659	3621	3621	3659	3659	3659	3621	3621	3621	3621	3621	3583	3583	3583	3583	3583	3583	3583	3583	3583	3583	3621	3621	3621	3621	3621	3621	3621	3621	3621	3621	3621	3583	3583	3583	3583	3621	3621	3621	3621	3621	3621	3621	3583	3583	3583	3583	3583	3583	3583	3583	3583	3583	3583	3583	3583	3583	3583	3583	3546	3546	3546	3546	3546	3583	3583	3583	3583	3583	3621	3583	3583	3583	3583	3583	3583	3621	3583	0	0	1843	1833	1833	1833	1824	1824	1814	1795	1786	1768	1759	1759	0	0	0	0	0	0	0	0	0	0	0	0	0	0	0	0	0	0	0	0	0	0	0	0	0	0	0	0	0	0	0	0	0	0	0	0	0	0	0	0	0	0	0	0	0	0	0	0	0	0	0	0	0	0	0	0	0	0	0	0	0	0	0	0	0	0	0	0	0	0	0	0	0	0	0	0	0	0	0	0	0	0	0	0	0	0	0	0	0	0	0	0	0	0	0	0	0	0	0	0	0	0	0	0	0	0	0	0	0	0	0	0	0	0	0	0	0	0	0	0	0	0	0	0	0	0	0	0	0	0	0	0	0	0
0	0	0	0	0	0	0	0	0	0	0	0	0	0	0	0	0	0	0	0	0	0	0	0	0	496	501	501	499	0	0	0	0	0	0	0	513	511	511	511	511	510	511	511	511	512	513	514	514	515	515	516	516	516	517	517	517	520	522	523	525	525	527	527	527	527	527	529	530	530	530	530	530	0	0	0	545	546	547	547	548	548	549	549	549	0	0	0	0	740	740	740	742	740	742	742	745	747	750	752	753	756	756	758	760	761	765	765	779	780	780	784	784	0	0	797	798	798	0	0	0	0	0	0	0	0	0	0	0	0	0	0	0	3583	3621	3621	3659	3621	3659	3659	3698	3659	3659	3659	3698	3698	3659	3659	3698	3698	3659	3659	3659	3659	3659	3659	3621	3621	3621	3621	3659	3621	3621	3621	3621	3621	3621	3621	3621	3621	3621	3621	3621	3621	3621	3621	3621	3621	3621	3621	3621	3621	3659	3698	3738	3738	3698	3698	3698	3698	3738	3738	3738	3738	3738	3779	3738	3738	3738	3698	3698	3698	3698	3698	3698	3738	3738	3738	3738	3738	3698	3698	3698	3698	3698	3698	3698	3698	3738	3698	3698	3698	3698	3698	3698	3698	3698	3698	3698	3698	3698	3698	3698	3698	3659	3659	3659	3659	3659	3659	3659	3659	3659	3659	3698	3698	3698	3698	3698	3698	3698	3698	3698	3698	3738	3698	3698	3698	3698	3698	3698	3698	3698	3698	3698	3698	3698	3698	3698	3738	3738	3738	3738	3738	3738	3738	3738	3738	2893	2917	2917	2893	2893	2893	2893	2893	2893	2869	2869	2869	2869	2845	2845	2845	2845	2845	2845	2845	2845	2822	2822	2822	2822	2822	2822	2822	2822	2799	2799	2799	2799	2799	2777	2777	2777	2777	2777	2777	2777	2777	2777	2777	2777	2777	2777	2777	2777	2799	2799	2799	2799	2799	2799	2822	2822	2822	2822	2822	2822	2822	2822	2822	2845	2845	2845	2845	2822	2822	3698	3659	3659	3659	3659	3659	3659	3659	3659	3659	3659	3659	3659	3659	3621	3659	3659	3659	3659	3659	3659	3659	3659	3659	3659	3659	3659	3659	3659	3659	3659	3659	3659	3621	3621	3659	3659	3659	3659	3621	3659	3659	3659	3659	3659	3659	3659	3659	3659	3659	3659	3659	3659	3621	3621	3621	3621	3621	3621	3621	3621	3659	3659	3659	3621	3621	3659	3659	3621	3659	3659	3659	3621	3621	3621	3621	3621	3621	3583	3621	3621	3583	3621	3583	3583	3583	3583	3621	3621	3583	3621	3621	3621	3621	3621	3621	3621	3621	3583	3621	3621	3621	3621	3621	3621	3621	3621	3621	3621	3621	3583	3583	3583	3583	3583	3583	3583	3583	3583	3583	3583	3583	3583	3583	3583	3546	3546	3546	3546	3546	3583	3583	3583	3583	3621	3621	3583	3583	3583	3583	3583	3583	3621	0	0	0	1843	1843	1833	1833	1824	1824	1814	1804	1786	1777	1768	1768	0	0	0	0	0	0	0	0	0	0	0	0	0	0	0	0	0	0	0	0	0	0	0	0	0	0	0	0	0	0	0	0	0	0	0	0	0	0	0	0	0	0	0	0	0	0	0	0	0	0	0	0	0	0	0	0	0	0	0	0	0	0	0	0	0	0	0	0	0	0	0	0	0	0	0	0	0	0	0	0	0	0	0	0	0	0	0	0	0	0	0	0	0	0	0	0	0	0	0	0	0	0	0	0	0	0	0	0	0	0	0	0	0	0	0	0	0	0	0	0	0	0	0	0	0	0	0	0	0	0	0	0	0	0
0	0	0	0	0	0	0	0	0	0	0	0	0	0	0	0	0	0	0	0	0	0	0	0	0	0	501	501	0	0	0	0	0	0	513	513	513	513	513	512	511	511	511	512	511	511	512	513	515	515	516	516	516	517	517	517	517	520	523	523	526	527	527	527	527	527	529	530	530	530	530	0	0	0	0	0	546	546	547	548	549	551	554	554	549	0	0	0	0	0	742	740	742	742	743	743	747	748	752	752	753	756	756	758	760	761	765	765	779	779	786	788	788	0	793	797	798	798	0	0	0	0	0	0	0	0	0	0	0	0	0	0	0	0	3621	3621	3621	3621	3621	3659	3659	3659	3659	3659	3659	3698	3659	3698	3698	3698	3659	3659	3659	3621	3659	3621	3621	3621	3621	3621	3621	3621	3621	3621	3621	3621	3621	3621	3621	3621	3621	3621	3621	3621	3621	3621	3621	3621	3621	3621	3621	3621	3659	3659	3738	3738	3698	3698	3698	3698	3738	3738	3738	3738	3738	3779	3779	3738	3738	3698	3698	3698	3698	3698	3698	3738	3738	3738	3738	3738	3698	3698	3698	3698	3698	3698	3698	3698	3698	3698	3698	3698	3698	3698	3698	3698	3738	3738	3698	3698	3698	3698	3698	3698	3659	3659	3659	3659	3659	3659	3659	3659	3659	3659	3698	3698	3698	3738	3738	3698	3698	3698	3698	3698	3698	3698	3698	3698	3698	3698	3698	3698	3698	3698	3698	3698	3698	3698	3698	3738	3738	3738	3738	3738	3738	3738	3738	3738	2917	2917	2917	2917	2893	2893	2893	2893	2869	2869	2869	2845	2845	2845	2845	2845	2845	2845	2845	2845	2845	2845	2822	2822	2822	2822	2822	2799	2799	2799	2799	2799	2799	2799	2777	2777	2777	2777	2777	2777	2777	2777	2777	2777	2777	2777	2777	2777	2777	2777	2799	2777	2799	2799	2799	2822	2822	2799	2799	2822	2822	2822	2822	2822	2822	2845	2845	2845	2845	2845	3698	3698	3698	3698	3659	3659	3659	3659	3659	3659	3659	3659	3659	3659	3621	3621	3659	3659	3659	3621	3659	3659	3659	3659	3659	3659	3659	3659	3659	3659	3659	3659	3659	3659	3659	3659	3659	3659	3659	3659	3659	3659	3659	3659	3659	3659	3659	3659	3659	3659	3659	3659	3659	3659	3621	3621	3621	3621	3621	3621	3621	3659	3659	3659	3621	3621	3659	3621	3621	3621	3659	3659	3621	3621	3621	3621	3621	3621	3583	3583	3583	3583	3583	3583	3583	3583	3583	3583	3583	3583	3583	3583	3583	3621	3621	3621	3621	3621	3621	3621	3621	3621	3621	3621	3621	3621	3621	3621	3621	3583	3583	3583	3583	3583	3583	3583	3583	3583	3583	3583	3583	3583	3583	3583	3583	3546	3583	3546	3546	3546	3583	3583	3583	3583	3583	3621	3583	3583	3583	3583	3583	0	0	0	0	0	1843	1843	1833	1833	1824	1824	1814	1795	1786	1777	1759	1759	0	0	0	0	0	0	0	0	0	0	0	0	0	0	0	0	0	0	0	0	0	0	0	0	0	0	0	0	0	0	0	0	0	0	0	0	0	0	0	0	0	0	0	0	0	0	0	0	0	0	0	0	0	0	0	0	0	0	0	0	0	0	0	0	0	0	0	0	0	0	0	0	0	0	0	0	0	0	0	0	0	0	0	0	0	0	0	0	0	0	0	0	0	0	0	0	0	0	0	0	0	0	0	0	0	0	0	0	0	0	0	0	0	0	0	0	0	0	0	0	0	0	0	0	0	0	0	0	0	0	0	0	0	0
0	0	0	0	0	0	0	0	0	0	0	0	0	0	0	0	0	0	0	0	0	0	0	0	0	0	0	0	0	0	0	0	0	513	513	513	513	513	513	512	512	511	511	512	512	512	512	512	515	516	516	516	517	518	518	516	516	520	523	524	525	527	527	527	527	527	529	530	531	531	533	533	0	0	0	545	546	547	546	548	549	550	551	551	0	0	0	0	0	0	742	742	743	743	743	745	748	750	752	752	753	755	756	760	761	765	765	779	779	779	786	788	791	795	795	797	798	798	0	0	0	0	0	0	0	0	0	0	0	0	0	0	0	0	0	3621	3621	3583	3621	3659	3659	3659	3698	3698	3698	3698	3659	3659	3698	3659	3659	3659	3659	3621	3621	3659	3621	3621	3621	3621	3659	3659	3659	3659	3621	3621	3621	3621	3621	3621	3621	3621	3621	3621	3621	3621	3621	3621	3621	3621	3621	3621	3659	3659	3698	3698	3698	3698	3698	3698	3698	3738	3738	3738	3738	3738	3738	3738	3698	3698	3698	3698	3698	3698	3698	3698	3698	3738	3738	3738	3698	3698	3698	3698	3698	3698	3698	3698	3698	3698	3698	3698	3698	3698	3698	3698	3698	3738	3698	3698	3698	3698	3698	3698	3659	3659	3659	3659	3659	3659	3659	3659	3659	3659	3698	3698	3698	3698	3698	3698	3698	3698	3698	3698	3698	3698	3698	3698	3698	3698	3698	3698	3698	3698	3698	3698	3698	3698	3738	3738	3738	3738	3738	3738	3738	3738	3738	3738	2917	2917	2917	2917	2893	2893	2893	2869	2869	2869	2845	2845	2845	2845	2845	2845	2845	2822	2822	2845	2845	2845	2822	2822	2822	2822	2822	2799	2799	2799	2799	2799	2799	2799	2777	2777	2777	2777	2777	2777	2777	2777	2777	2777	2777	2777	2777	2777	2777	2777	2777	2777	2799	2799	2799	2799	2799	2799	2799	2799	2822	2822	2822	2822	2845	2845	2845	2845	2822	2822	3698	3698	3698	3659	3659	3659	3659	3659	3659	3659	3659	3659	3659	3659	3621	3621	3659	3659	3659	3659	3659	3659	3659	3659	3659	3659	3659	3659	3659	3659	3659	3659	3659	3659	3659	3659	3659	3659	3659	3621	3621	3621	3659	3659	3659	3659	3659	3659	3659	3621	3659	3659	3659	3621	3621	3621	3621	3621	3621	3621	3621	3659	3621	3659	3659	3659	3659	3621	3621	3621	3621	3621	3621	3621	3659	3621	3621	3621	3621	3621	3583	3583	3583	3583	3583	3583	3583	3583	3583	3583	3583	3583	3621	3621	3621	3621	3621	3621	3621	3621	3621	3621	3621	3621	3621	3621	3583	3621	3621	3583	3583	3583	3621	3621	3621	3583	3583	3583	3583	3583	3583	3583	3583	3583	3583	3583	3583	3546	3546	3583	3583	3583	3583	3583	3621	3621	3583	3583	3583	3583	0	0	0	0	1873	1863	1853	1843	1833	1833	1824	1824	1814	1804	1786	1786	1759	1759	0	0	0	0	0	0	0	0	0	0	0	0	0	0	0	0	0	0	0	0	0	0	0	0	0	0	0	0	0	0	0	0	0	0	0	0	0	0	0	0	0	0	0	0	0	0	0	0	0	0	0	0	0	0	0	0	0	0	0	0	0	0	0	0	0	0	0	0	0	0	0	0	0	0	0	0	0	0	0	0	0	0	0	0	0	0	0	0	0	0	0	0	0	0	0	0	0	0	0	0	0	0	0	0	0	0	0	0	0	0	0	0	0	0	0	0	0	0	0	0	0	0	0	0	0	0	0	0	0	0	0	0	0	0
