0	0	0	0	0	0	0	0	0	0	1715	1715	1723	1723	1723	1723	1723	1732	1732	1741	1741	1750	1750	1750	1750	1759	1750	1750	1741	1741	0	2514	2514	2514	2496	2496	2514	2514	2496	2514	2514	2514	2514	2478	2514	2532	2514	2514	2532	2514	2514	2532	2532	2514	2514	2532	2532	2532	2532	2551	2551	2551	2514	2514	2532	2532	2514	2514	2514	2514	2514	2514	2514	2514	2514	2514	2532	2532	2532	2532	2532	2514	2514	2514	2514	2532	2514	2532	2532	2532	2532	2532	2514	2514	2514	2514	2514	2514	2514	2514	2514	2514	2514	2514	2514	2514	2514	2514	2532	2532	2532	2532	2532	2532	2532	2532	2532	3406	3440	3440	3440	3475	3475	3475	3510	3510	3510	3510	3475	3475	3475	3475	3475	3475	3475	3475	3475	3475	3475	3475	3475	3475	3475	3475	3475	3475	3440	3475	3475	3475	3475	3510	3475	3510	3510	3510	3475	3475	3475	3510	3510	3546	3621	3659	3621	3659	3659	3621	3659	3698	3621	3698	3659	3659	3659	3659	3659	3659	3698	3698	3698	3698	3698	3698	3698	3698	3738	3779	3779	3779	3779	3779	3779	3779	3738	3779	3738	3738	3738	3738	3738	3738	3779	3779	3738	3738	3779	3779	3779	3738	3779	3738	3779	3779	3779	3738	3738	3738	3738	3738	3738	3738	3738	3698	3698	3698	3698	3698	3698	3698	3698	3698	3698	3698	3698	3738	3698	3698	3698	3698	3698	3698	3698	3698	3698	3738	3698	3698	3698	3738	3738	3738	3738	3738	3738	3738	3738	3738	3738	3738	3738	3698	3738	3698	3698	3698	3698	3698	3698	3698	3698	3698	3738	3738	3738	3738	3738	3738	3738	3738	3698	3738	3738	3738	3738	3738	3738	3738	3738	3738	3738	3738	3738	3738	3738	3738	3738	3738	3738	3738	3738	3738	3738	3738	3738	3738	3738	3738	3738	3738	3738	3738	3698	3738	3738	3779	3779	3101	3101	3101	3101	3101	3073	3073	3046	3046	3046	3046	3046	3046	3046	3046	3046	3073	3073	3046	3046	3046	3046	3019	3019	3019	3738	3779	3779	3779	3738	3738	3738	3738	3738	3738	3738	3738	3738	3779	3738	3779	3738	3779	3779	3779	3779	3779	3779	3779	3779	3738	3738	3779	3738	3738	3779	3738	3779	3738	3738	3779	3779	3779	3779	3779	3779	3779	3779	3779	3779	3779	3779	3779	3779	3779	3779	3779	3779	3779	3779	3779	3779	3779	3779	3779	3779	3779	3779	3779	3779	3779	3779	3779	3779	3779	3821	3821	3821	3779	3779	3779	3779	3779	3738	3738	3738	3738	3738	3779	3779	3779	3779	3779	3779	3779	3779	3779	3779	3779	3779	3779	3779	3779	3779	3821	3821	3821	3864	3864	3864	3864	3821	3821	3821	3821	3821	3821	3821	3821	3821	3821	3821	3821	3821	3821	3821	3779	3779	3779	3779	3779	3779	3821	3821	3821	3821	3821	3779	3821	3779	3779	3821	3821	3821	3821	3821	3821	3821	3821	3821	3821	3821	3821	3821	3821	3821	3821	3821	3779	3779	3821	3779	3821	3821	3779	3821	3821	3821	3864	3864	3864	3864	3864	3864	3864	3864	3864	3864	3864	3864	3864	3864	3864	3864	3864	3864	3864	3864	3864	3864	3864	3864	3864	3864	3864	3864	3864	3864	3821	3864	3821	3821	3821	3821	3821	3779	3779	3779	3779	3738	3779	3779	3779	3779	3738	3738	3738	3738	3738	3738	3738	3738	3779	3779	3779	3779	3779	3738	3738	3738	3738	3698	3698	3738	3738	3738	3738	3738	3738	3738	3738	3738	0	0	0	0	0	0	0	0	0	0	0	0	0	0	0	0	0	0	0	0	0	0	0	0	0	0	0	0	0	0	0	0	0	0	0	0	0	0	0	0	0	0	0	0	0	0	0	0	0	0	0	0	0	0	0	0	0	0	0	0	0
0	0	0	0	0	0	0	0	0	0	1715	1715	1723	1723	1723	1723	1723	1732	1732	1741	1741	1750	1750	1759	1759	1759	1759	1750	1750	1741	1741	1741	2514	2514	2551	2496	2532	2514	2514	2514	2514	2532	2514	2496	2514	2514	2514	2514	2514	2514	2514	2532	2532	2532	2514	2514	2532	2532	2532	2532	2532	2514	2514	2514	2514	2514	2514	2514	2514	2514	2514	2514	2514	2532	2514	2532	2532	2532	2532	2514	2532	2514	2532	2514	2514	2514	2532	2532	2532	2532	2532	2532	2532	2532	2514	2514	2514	2514	2514	2514	2514	2514	2514	2514	2514	2514	2514	2514	2514	2514	2514	2532	2532	2532	2532	2532	2532	3440	3440	3440	3475	3475	3475	3475	3510	3510	3510	3510	3510	3475	3475	3475	3475	3475	3475	3475	3475	3510	3475	3510	3510	3510	3510	3510	3510	3510	3475	3475	3475	3475	3475	3510	3510	3510	3510	3510	3510	3475	3475	3510	3546	3583	3621	3659	3621	3659	3659	3621	3698	3621	3621	3698	3659	3659	3659	3659	3659	3659	3659	3698	3698	3698	3698	3698	3698	3738	3779	3779	3779	3779	3779	3779	3779	3738	3738	3738	3779	3779	3779	3738	3738	3779	3779	3738	3738	3738	3779	3779	3779	3738	3779	3738	3779	3779	3779	3738	3738	3738	3738	3738	3738	3698	3698	3698	3698	3698	3698	3698	3698	3698	3698	3698	3698	3698	3698	3698	3698	3698	3698	3698	3698	3698	3698	3698	3698	3698	3698	3698	3698	3738	3738	3738	3738	3738	3738	3738	3738	3738	3738	3738	3698	3698	3698	3698	3698	3698	3698	3698	3698	3698	3698	3738	3738	3738	3738	3738	3698	3738	3698	3698	3698	3738	3738	3738	3738	3738	3738	3738	3738	3738	3738	3738	3738	3738	3738	3738	3738	3738	3738	3738	3738	3738	3738	3738	3738	3738	3738	3738	3738	3738	3698	3738	3698	3738	3738	3738	3779	3101	3101	3073	3101	3073	3073	3073	3073	3073	3046	3046	3046	3046	3046	3046	3046	3073	3073	3046	3046	3073	3046	3046	3019	3019	3738	3779	3738	3738	3738	3738	3738	3738	3738	3738	3738	3738	3738	3738	3738	3738	3738	3738	3738	3738	3779	3779	3779	3779	3779	3738	3738	3779	3779	3738	3738	3738	3738	3738	3779	3821	3779	3779	3779	3779	3779	3779	3779	3779	3779	3779	3779	3779	3779	3779	3779	3779	3779	3779	3779	3779	3779	3779	3779	3779	3779	3779	3779	3779	3779	3779	3779	3779	3779	3779	3821	3821	3821	3821	3779	3779	3779	3779	3738	3738	3738	3738	3738	3738	3779	3779	3779	3779	3779	3779	3779	3779	3779	3779	3779	3779	3779	3779	3779	3821	3821	3864	3864	3864	3821	3864	3821	3821	3821	3821	3821	3821	3821	3821	3821	3821	3821	3821	3821	3821	3821	3779	3821	3779	3779	3821	3779	3821	3821	3821	3821	3821	3779	3779	3779	3779	3821	3821	3821	3821	3821	3821	3821	3821	3821	3821	3821	3821	3821	3821	3821	3821	3821	3779	3779	3821	3821	3821	3821	3779	3821	3821	3821	3821	3864	3864	3864	3864	3864	3864	3864	3864	3864	3864	3864	3864	3864	3864	3864	3864	3864	3864	3864	3864	3864	3864	3864	3864	3864	3864	3864	3864	3864	3821	3821	3821	3821	3821	3821	3821	3779	3779	3779	3779	3738	3738	3738	3738	3738	3738	3738	3738	3738	3738	3738	3738	3779	3738	3738	3738	3779	3779	3738	3738	3738	3738	3698	3698	3738	3779	3779	3779	3738	3738	3738	3779	3738	3738	0	0	0	0	0	0	0	0	0	0	0	0	0	0	0	0	0	0	0	0	0	0	0	0	0	0	0	0	0	0	0	0	0	0	0	0	0	0	0	0	0	0	0	0	0	0	0	0	0	0	0	0	0	0	0	0	0	0	0	0
0	0	0	0	0	0	0	0	0	0	1741	1741	1732	1723	1732	1741	1741	1741	1741	1750	1750	1759	1759	1759	1759	1759	1759	1750	1741	1750	1750	1750	1786	1795	1795	2514	2478	2478	2478	2478	2514	2514	2514	2496	2514	2514	2514	2514	2532	2532	2532	2532	2532	2532	2514	2532	2532	2514	2532	2532	2532	2532	2514	2514	2514	2532	2532	2532	2514	2514	2514	2514	2532	2532	2514	2532	2532	2532	2514	2514	2532	2514	2532	2532	2514	2514	2532	2532	2532	2532	2532	2514	2532	2532	2532	2532	2514	2514	2514	2532	2514	2514	2514	2514	2514	2514	2514	2496	2496	2514	2514	2514	2514	2532	2514	2514	2514	3475	3475	3475	3475	3546	3510	3546	3510	3510	3510	3510	3510	3510	3510	3475	3475	3475	3510	3510	3510	3510	3510	3510	3510	3510	3510	3510	3510	3510	3475	3475	3510	3510	3510	3510	3510	3475	3475	3475	3475	3510	3510	3510	3583	3621	3621	3659	3659	3659	3659	3659	3698	3698	3698	3698	3659	3659	3659	3659	3659	3659	3659	3659	3659	3698	3698	3698	3698	3698	3698	3779	3779	3738	3779	3779	3779	3779	3738	3779	3738	3779	3779	3738	3738	3779	3738	3779	3738	3779	3779	3779	3779	3779	3779	3738	3779	3738	3738	3738	3738	3738	3738	3738	3738	3738	3738	3738	3698	3698	3698	3698	3698	3738	3698	3698	3698	3698	3698	3698	3698	3698	3698	3698	3698	3698	3698	3698	3698	3698	3698	3698	3698	3738	3779	3738	3738	3738	3738	3738	3738	3738	3738	3738	3698	3698	3698	3698	3698	3738	3738	3738	3698	3698	3698	3738	3698	3738	3738	3698	3698	3698	3698	3698	3698	3738	3738	3738	3738	3738	3738	3738	3738	3738	3738	3738	3738	3738	3738	3738	3738	3738	3738	3738	3738	3738	3738	3738	3738	3738	3738	3738	3738	3738	3738	3738	3698	3779	3738	3779	3779	3101	3101	3073	3073	3073	3073	3073	3073	3073	3046	3046	3046	3046	3046	3046	3046	3046	3073	3046	3073	3073	3073	3046	3019	3046	3046	3779	3738	3738	3738	3738	3738	3738	3738	3738	3738	3738	3738	3738	3738	3738	3738	3738	3738	3738	3738	3738	3779	3779	3779	3738	3738	3738	3738	3738	3779	3738	3738	3738	3779	3779	3779	3779	3779	3779	3779	3779	3779	3779	3779	3779	3779	3779	3779	3779	3779	3779	3779	3779	3779	3779	3779	3779	3779	3779	3779	3779	3779	3779	3779	3779	3779	3779	3779	3779	3821	3779	3779	3779	3779	3779	3779	3738	3738	3738	3738	3738	3738	3738	3779	3779	3779	3779	3779	3779	3779	3779	3779	3779	3779	3779	3779	3779	3779	3821	3821	3821	3821	3821	3821	3821	3821	3821	3821	3821	3821	3821	3821	3821	3821	3821	3821	3821	3821	3821	3821	3821	3821	3779	3779	3821	3779	3821	3821	3821	3821	3821	3821	3779	3779	3821	3821	3821	3821	3821	3821	3821	3821	3821	3821	3821	3821	3821	3821	3821	3821	3821	3821	3779	3821	3821	3821	3821	3821	3779	3821	3821	3821	3821	3864	3864	3864	3864	3864	3864	3864	3864	3864	3864	3864	3864	3864	3864	3864	3864	3864	3821	3864	3821	3864	3864	3864	3864	3821	3821	3864	3864	3821	3864	3864	3864	3864	3864	3821	3821	3821	3779	3779	3779	3738	3779	3779	3779	3779	3738	3738	3738	3779	3738	3738	3738	3779	3738	3738	3738	3779	3738	3738	3738	3738	3738	3698	3698	3738	3738	3738	3779	3779	3779	3738	3779	3779	3738	0	0	0	0	0	0	0	0	0	0	0	0	0	0	0	0	0	0	0	0	0	0	0	0	0	0	0	0	0	0	0	0	0	0	0	0	0	0	0	0	0	0	0	0	0	0	0	0	0	0	0	0	0	0	0	0	0	0	0	0
0	0	0	0	0	0	0	0	0	0	1750	1750	1750	1732	1732	1768	1759	1759	1759	1759	1759	1759	1759	1759	1768	1768	1768	1759	1759	1786	1795	1795	1795	1795	1768	1768	1768	1768	2478	2532	2514	2514	2514	2496	2514	2532	2514	2532	2532	2532	2532	2532	2532	2532	2514	2532	2532	2532	2532	2532	2532	2532	2532	2532	2514	2514	2514	2514	2514	2514	2514	2532	2532	2532	2514	2532	2532	2532	2532	2514	2514	2514	2532	2532	2532	2532	2532	2532	2532	2532	2514	2532	2532	2532	2514	2532	2514	2514	2514	2532	2514	2514	2514	2514	2514	2514	2514	2496	2496	2514	2514	2514	2514	2514	2514	2514	3510	3510	3475	3475	3510	3546	3546	3546	3546	3546	3546	3510	3510	3510	3510	3510	3510	3510	3510	3510	3510	3510	3510	3510	3510	3510	3510	3510	3510	3510	3510	3510	3510	3510	3510	3546	3546	3510	3510	3510	3510	3510	3510	3546	3583	3621	3621	3659	3659	3659	3659	3659	3698	3698	3659	3698	3659	3659	3659	3659	3659	3659	3659	3698	3698	3698	3698	3698	3698	3738	3779	3779	3779	3779	3779	3779	3779	3738	3738	3738	3738	3779	3779	3738	3738	3779	3738	3779	3738	3738	3738	3779	3779	3779	3779	3738	3738	3698	3698	3698	3698	3698	3698	3698	3698	3698	3698	3698	3698	3698	3698	3698	3698	3698	3738	3698	3698	3698	3738	3698	3698	3698	3698	3698	3698	3698	3698	3698	3698	3698	3698	3698	3698	3738	3738	3738	3738	3738	3738	3738	3738	3738	3738	3738	3698	3698	3698	3698	3738	3738	3738	3698	3698	3698	3698	3738	3698	3738	3738	3738	3698	3698	3698	3698	3698	3738	3698	3698	3738	3738	3738	3738	3738	3738	3738	3738	3738	3738	3738	3738	3738	3738	3738	3738	3738	3738	3738	3738	3738	3738	3738	3738	3738	3738	3738	3738	3698	3779	3738	3738	3779	3101	3073	3073	3101	3073	3073	3073	3073	3073	3073	3073	3073	3046	3046	3046	3046	3073	3073	3073	3073	3073	3073	3046	3019	3046	3046	3046	3779	3779	3779	3738	3738	3738	3738	3738	3738	3738	3738	3738	3738	3738	3738	3738	3738	3738	3779	3779	3779	3779	3779	3779	3738	3738	3738	3738	3738	3698	3738	3738	3738	3779	3779	3779	3779	3779	3779	3779	3779	3779	3779	3779	3779	3779	3779	3779	3779	3779	3779	3779	3779	3779	3779	3779	3779	3779	3779	3779	3779	3779	3779	3779	3779	3779	3779	3779	3779	3779	3779	3779	3779	3779	3779	3738	3738	3738	3738	3738	3738	3779	3779	3779	3779	3779	3779	3779	3779	3779	3779	3779	3779	3779	3779	3779	3779	3821	3821	3821	3821	3821	3821	3821	3821	3821	3821	3821	3821	3821	3821	3821	3821	3821	3821	3821	3821	3821	3821	3779	3779	3779	3779	3779	3779	3821	3821	3779	3821	3821	3779	3779	3821	3821	3821	3821	3821	3821	3821	3821	3821	3821	3821	3821	3821	3821	3821	3821	3821	3821	3821	3779	3779	3821	3821	3821	3821	3821	3821	3821	3821	3821	3821	3821	3864	3864	3864	3864	3864	3864	3864	3864	3864	3864	3864	3864	3864	3864	3864	3864	3864	3864	3864	3864	3864	3864	3821	3821	3821	3821	3821	3821	3821	3821	3821	3821	3821	3821	3779	3779	3779	3779	3738	3779	3779	3779	3779	3738	3738	3738	3738	3738	3738	3738	3779	3738	3738	3738	3738	3738	3738	3738	3738	3738	3738	3738	3779	3779	3779	3779	3779	3779	3779	3779	3779	0	0	0	0	0	0	0	0	0	0	0	0	0	0	0	0	0	0	0	0	0	0	0	0	0	0	0	0	0	0	0	0	0	0	0	0	0	0	0	0	0	0	0	0	0	0	0	0	0	0	0	0	0	0	0	0	0	0	0	0	0
0	0	0	0	0	0	0	0	0	0	1750	1777	1777	1777	1777	1777	1777	1768	1768	1768	1768	1768	1768	1768	1768	1768	1777	1759	1786	1786	1795	1795	1795	1795	1795	1786	1786	1786	0	2532	2514	2532	2514	2514	2514	2532	2514	2514	2514	2514	2532	2514	2514	2514	2514	2532	2532	2532	2532	2532	2532	2532	2532	2532	2514	2532	2532	2514	2514	2514	2514	2532	2532	2532	2532	2514	2514	2532	2514	2514	2514	2514	2532	2532	2514	2532	2532	2532	2532	2532	2532	2532	2532	2532	2532	2532	2514	2514	2532	2532	2514	2514	2514	2514	2514	2514	2496	2496	2496	2496	2514	2514	2514	2514	2514	2514	3546	3510	3510	3510	3510	3546	3546	3583	3546	3583	3583	3546	3510	3510	3510	3546	3546	3583	3583	3546	3546	3546	3510	3546	3510	3546	3510	3546	3546	3546	3510	3546	3546	3546	3546	3546	3583	3583	3583	3510	3510	3510	3510	3583	3583	3621	3621	3621	3659	3659	3659	3659	3659	3698	3659	3698	3698	3659	3659	3698	3698	3698	3659	3698	3698	3698	3738	3698	3698	3738	3821	3779	3779	3779	3779	3779	3779	3738	3698	3779	3738	3779	3779	3738	3738	3738	3738	3738	3738	3738	3738	3738	3779	3779	3779	3738	3698	3698	3698	3698	3698	3698	3698	3698	3698	3698	3698	3698	3698	3698	3698	3698	3698	3698	3738	3698	3698	3698	3738	3698	3698	3698	3698	3698	3698	3698	3698	3698	3698	3698	3698	3698	3698	3698	3738	3738	3738	3738	3738	3738	3738	3738	3738	3698	3698	3698	3698	3698	3738	3738	3738	3738	3738	3738	3698	3738	3698	3738	3698	3698	3698	3698	3698	3698	3698	3698	3698	3698	3738	3738	3738	3738	3738	3738	3738	3738	3738	3738	3738	3738	3738	3738	3738	3738	3738	3738	3738	3738	3738	3738	3698	3698	3738	3738	3738	3738	3738	3738	3779	3779	3101	3101	3073	3073	3101	3101	3073	3073	3073	3073	3073	3073	3073	3073	3046	3073	3073	3073	3073	3073	3073	3073	3073	3046	3019	3019	3046	3046	3779	3779	3779	3779	3779	3779	3738	3738	3738	3738	3738	3738	3738	3738	3738	3738	3738	3738	3738	3738	3738	3779	3779	3738	3738	3738	3738	3738	3738	3698	3738	3738	3738	3779	3779	3779	3779	3779	3779	3779	3779	3779	3779	3779	3779	3779	3779	3779	3779	3779	3779	3779	3779	3779	3779	3779	3779	3779	3779	3779	3779	3779	3779	3779	3779	3779	3779	3779	3779	3779	3779	3779	3779	3779	3738	3738	3738	3738	3779	3738	3738	3779	3779	3779	3779	3779	3779	3779	3779	3779	3738	3738	3779	3779	3779	3779	3779	3821	3821	3821	3821	3821	3821	3821	3821	3779	3821	3821	3821	3779	3821	3821	3821	3821	3821	3821	3821	3821	3821	3779	3779	3779	3779	3779	3779	3821	3821	3821	3821	3821	3821	3821	3821	3821	3821	3821	3821	3821	3821	3821	3821	3821	3821	3821	3821	3821	3821	3821	3821	3821	3821	3821	3821	3821	3821	3821	3821	3821	3821	3821	3779	3821	3821	3821	3864	3864	3864	3864	3864	3864	3864	3864	3864	3864	3821	3821	3821	3821	3821	3821	3821	3821	3821	3864	3821	3821	3821	3821	3821	3821	3821	3821	3864	3864	3864	3864	3864	3821	3821	3821	3738	3738	3738	3738	3779	3738	3738	3738	3738	3738	3738	3738	3738	3738	3738	3738	3738	3738	3738	3738	3738	3738	3738	3738	3738	3698	3779	3779	3779	3779	3779	3779	3821	3779	3779	3779	0	0	0	0	0	0	0	0	0	0	0	0	0	0	0	0	0	0	0	0	0	0	0	0	0	0	0	0	0	0	0	0	0	0	0	0	0	0	0	0	0	0	0	0	0	0	0	0	0	0	0	0	0	0	0	0	0	0	0	0
0	0	0	0	0	0	0	0	0	0	0	1777	1777	1786	1786	1786	1777	1777	1777	1777	1777	1777	1786	1777	1786	1786	1786	1786	1795	1795	1795	1795	1795	1795	1795	1795	1786	1786	0	0	2532	2532	2514	2514	2514	2514	2514	2514	2514	2514	2514	2514	2514	2514	2514	2532	2532	2532	2532	2532	2532	2532	2532	2532	2532	2532	2514	2514	2514	2514	2514	2532	2532	2532	2532	2532	2532	2532	2532	2532	2514	2532	2532	2532	2532	2532	2532	2532	2532	2532	2514	2514	2532	2532	2532	2532	2532	2532	2532	2532	2514	2514	2514	2496	2496	2496	2496	2496	2496	2496	2532	2514	2514	2496	2496	2514	3510	3510	3510	3510	3510	3546	3546	3583	3583	3583	3583	3583	3546	3546	3546	3546	3546	3583	3621	3621	3621	3546	3546	3546	3546	3546	3546	3546	3546	3546	3546	3546	3583	3546	3546	3583	3583	3621	3583	3546	3546	3546	3546	3546	3583	3583	3621	3659	3659	3659	3659	3698	3659	3698	3698	3698	3698	3698	3698	3698	3698	3659	3659	3659	3659	3698	3698	3698	3698	3698	3779	3779	3779	3738	3779	3779	3738	3738	3698	3738	3738	3779	3779	3738	3738	3738	3738	3738	3698	3698	3738	3738	3738	3738	3738	3738	3698	3698	3698	3698	3698	3698	3698	3698	3698	3698	3698	3698	3698	3698	3698	3698	3698	3698	3698	3698	3738	3738	3738	3698	3698	3698	3698	3659	3698	3698	3698	3698	3698	3698	3698	3698	3698	3698	3698	3738	3738	3738	3738	3738	3738	3738	3698	3698	3698	3698	3698	3698	3698	3738	3698	3698	3698	3698	3698	3698	3698	3698	3698	3698	3698	3698	3698	3698	3698	3698	3698	3698	3738	3738	3738	3738	3738	3738	3738	3738	3738	3738	3738	3738	3738	3738	3738	3738	3738	3698	3698	3698	3698	3698	3698	3738	3738	3738	3738	3738	3738	3779	3779	3101	3101	3101	3073	3073	3101	3101	3101	3101	3073	3073	3073	3073	3073	3073	3046	3073	3073	3073	3073	3073	3073	3073	3073	3046	3019	3019	3019	3019	3019	3821	3779	3779	3779	3779	3779	3738	3738	3738	3738	3738	3738	3738	3738	3738	3738	3738	3738	3738	3738	3738	3738	3738	3738	3738	3738	3738	3738	3698	3738	3738	3738	3779	3779	3779	3779	3779	3779	3779	3779	3779	3779	3738	3779	3779	3779	3779	3779	3779	3779	3779	3779	3779	3779	3779	3779	3779	3779	3779	3779	3779	3779	3779	3779	3779	3779	3779	3779	3779	3779	3738	3779	3779	3738	3738	3738	3738	3738	3738	3738	3779	3779	3779	3779	3779	3779	3779	3738	3738	3738	3738	3738	3738	3738	3738	3738	3821	3821	3779	3779	3821	3821	3821	3821	3779	3821	3821	3821	3779	3821	3779	3821	3821	3821	3821	3821	3821	3821	3821	3779	3821	3779	3779	3779	3821	3821	3821	3821	3821	3821	3821	3821	3821	3821	3821	3821	3821	3821	3821	3821	3821	3821	3821	3821	3821	3821	3821	3821	3821	3821	3821	3821	3821	3821	3821	3821	3779	3779	3821	3779	3821	3821	3821	3821	3864	3864	3864	3864	3864	3864	3864	3864	3821	3821	3821	3821	3821	3821	3821	3821	3821	3821	3864	3864	3821	3864	3821	3864	3864	3821	3821	3864	3864	3864	3864	3864	3821	3821	3821	3738	3738	3738	3738	3738	3738	3738	3738	3738	3738	3738	3738	3738	3738	3738	3779	3738	3738	3738	3698	3738	3738	3738	3738	3698	3698	3779	3779	3779	3779	3738	3738	3779	3779	3779	3779	0	0	0	0	0	0	0	0	0	0	0	0	0	0	0	0	0	0	0	0	0	0	0	0	0	0	0	0	0	0	0	0	0	0	0	0	0	0	0	0	0	0	0	0	0	0	0	0	0	0	0	0	0	0	0	0	0	0	0	0
0	0	0	0	0	0	0	0	0	0	0	1777	1777	1786	1786	1786	1786	1777	1786	1786	1786	1795	1795	1795	1795	1795	1795	1795	1795	1795	1795	1795	1795	1795	1795	1795	1786	1786	1786	0	2532	2514	2496	2496	2514	2514	2496	2496	2496	2496	2514	2532	2514	2532	2514	2532	2532	2532	2532	2532	2532	2532	2532	2514	2532	2532	2532	2532	2532	2532	2532	2532	2532	2532	2532	2532	2532	2532	2532	2514	2514	2532	2532	2532	2532	2532	2532	2532	2532	2514	2514	2514	2532	2532	2532	2532	2514	2532	2514	2532	2514	2514	2514	2496	2496	2496	2496	2496	2496	2496	2514	2514	2496	2532	2532	0	3475	3475	3510	3510	3510	3583	3583	3583	3583	3583	3583	3583	3583	3583	3583	3583	3583	3583	3621	3621	3621	3621	3621	3583	3546	3583	3546	3583	3583	3583	3583	3621	3621	3583	3583	3621	3621	3621	3583	3546	3546	3583	3546	3546	3583	3583	3621	3621	3621	3659	3659	3659	3659	3698	3698	3698	3698	3698	3698	3698	3698	3698	3659	3659	3698	3698	3698	3698	3698	3698	3779	3779	3779	3779	3779	3779	3738	3738	3698	3738	3738	3738	3779	3738	3738	3738	3738	3738	3698	3738	3738	3738	3738	3738	3738	3738	3738	3698	3738	3738	3738	3738	3738	3698	3698	3698	3698	3698	3698	3698	3698	3698	3698	3738	3698	3698	3738	3738	3738	3698	3698	3698	3698	3659	3698	3698	3698	3698	3698	3698	3698	3698	3698	3698	3738	3738	3738	3738	3738	3738	3738	3738	3698	3698	3698	3698	3698	3698	3738	3738	3698	3698	3738	3698	3698	3698	3698	3698	3738	3738	3738	3698	3698	3698	3698	3738	3698	3698	3738	3738	3738	3738	3738	3738	3738	3738	3738	3738	3738	3738	3738	3738	3738	3738	3738	3698	3698	3698	3698	3698	3698	3698	3738	3738	3738	3738	3738	3821	3073	3073	3073	3101	3073	3073	3073	3101	3101	3101	3073	3073	3073	3073	3073	3073	3073	3073	3073	3073	3073	3073	3073	3073	3073	3073	3019	3019	3019	3019	3019	3779	3779	3779	3779	3779	3779	3738	3738	3738	3738	3738	3738	3738	3738	3738	3738	3738	3738	3738	3738	3738	3738	3738	3738	3738	3738	3738	3738	3698	3738	3738	3738	3821	3779	3779	3779	3779	3779	3779	3779	3779	3779	3779	3779	3779	3779	3779	3779	3779	3779	3779	3779	3779	3779	3779	3779	3779	3779	3779	3779	3779	3779	3779	3779	3779	3738	3779	3779	3779	3779	3738	3738	3779	3738	3738	3738	3738	3738	3738	3738	3779	3779	3779	3779	3779	3779	3779	3738	3738	3738	3738	3738	3738	3738	3738	3738	3779	3779	3779	3821	3821	3821	3821	3821	3779	3821	3821	3821	3779	3821	3779	3821	3821	3779	3821	3821	3821	3821	3821	3821	3779	3779	3779	3779	3779	3779	3779	3779	3779	3779	3779	3821	3821	3821	3779	3779	3821	3821	3821	3821	3821	3821	3821	3821	3821	3821	3821	3821	3821	3821	3821	3821	3821	3821	3821	3821	3821	3821	3821	3779	3821	3821	3821	3864	3864	3864	3864	3864	3864	3864	3864	3864	3864	3821	3864	3864	3864	3864	3864	3821	3821	3821	3821	3821	3821	3821	3821	3864	3864	3821	3821	3864	3864	3864	3864	3864	3864	3821	3821	3738	3738	3738	3738	3738	3738	3738	3738	3779	3738	3738	3738	3738	3738	3738	3779	3779	3738	3779	3738	3738	3738	3738	3738	3738	3698	3779	3779	3779	3779	3779	3738	3779	3738	3738	3779	0	0	0	0	0	0	0	0	0	0	0	0	0	0	0	0	0	0	0	0	0	0	0	0	0	0	0	0	0	0	0	0	0	0	0	0	0	0	0	0	0	0	0	0	0	0	0	0	0	0	0	0	0	0	0	0	0	0	0	0
0	0	0	0	0	0	0	0	0	0	0	1777	1786	1786	1786	1786	1786	1786	1795	1795	1795	1804	1814	1804	1804	1804	1804	1804	1804	1804	1795	1795	1795	1795	1795	1804	1795	1795	1786	0	2514	2532	2514	2514	2514	2514	2496	2496	2496	2496	2514	2496	2514	2514	2514	2532	2514	2532	2532	2532	2532	2514	2532	2532	2532	2532	2532	2532	2532	2532	2532	2532	2532	2532	2532	2532	2532	2532	2514	2514	2514	2532	2532	2532	2532	2514	2532	2532	2532	2514	2514	2514	2532	2532	2532	2532	2532	2532	2532	2532	2514	2514	2496	2496	2496	2496	2496	2478	2478	2496	2496	2496	2496	2496	2496	0	3583	3510	3510	3510	3510	3583	3583	3583	3583	3583	3583	3583	3621	3583	3583	3621	3583	3621	3621	3621	3659	3621	3621	3621	3583	3583	3583	3583	3583	3621	3583	3621	3621	3583	3583	3659	3659	3621	3621	3583	3621	3621	3621	3583	3583	3621	3621	3621	3621	3621	3659	3659	3659	3659	3659	3698	3698	3659	3659	3659	3698	3698	3659	3659	3698	3698	3698	3698	3698	3698	3779	3779	3779	3738	3738	3738	3738	3738	3698	3738	3738	3779	3779	3738	3738	3738	3738	3738	3738	3738	3738	3738	3738	3738	3738	3698	3698	3698	3738	3738	3738	3738	3738	3738	3738	3738	3738	3698	3738	3698	3698	3698	3698	3698	3698	3698	3698	3698	3698	3698	3698	3659	3659	3659	3659	3698	3698	3698	3698	3698	3698	3698	3698	3698	3738	3738	3738	3738	3738	3738	3738	3738	3698	3698	3698	3698	3698	3698	3698	3738	3698	3698	3698	3698	3698	3698	3698	3698	3738	3738	3738	3698	3698	3698	3698	3738	3698	3698	3738	3738	3738	3738	3738	3738	3738	3738	3738	3738	3738	3738	3738	3738	3738	3738	3738	3698	3659	3659	3698	3738	3738	3738	3738	3779	3779	3073	3101	3101	3073	3073	3073	3073	3073	3073	3073	3101	3101	3101	3101	3101	3073	3073	3073	3073	3073	3073	3073	3073	3073	3073	3073	3073	3073	3073	3046	3046	3046	3046	3046	3046	3821	3821	3779	3779	3779	3779	3046	3046	3073	3073	3073	3738	3738	3738	3738	3738	3738	3738	3738	3738	3738	3738	3738	3738	3738	3738	3738	3738	3738	3738	3738	3821	3779	3779	3779	3779	3779	3779	3779	3738	3738	3779	3779	3779	3779	3779	3779	3779	3779	3779	3779	3779	3779	3779	3779	3779	3779	3779	3779	3779	3779	3779	3779	3738	3738	3738	3698	3779	3738	3698	3738	3738	3738	3738	3738	3738	3738	3738	3779	3779	3779	3779	3779	3779	3779	3738	3738	3738	3738	3738	3738	3738	3738	3738	3738	3779	3779	3779	3821	3821	3821	3821	3821	3779	3821	3821	3821	3821	3821	3779	3821	3821	3779	3821	3821	3821	3821	3821	3821	3779	3779	3779	3779	3779	3779	3779	3779	3779	3779	3779	3779	3779	3779	3779	3821	3821	3821	3821	3821	3821	3821	3821	3821	3821	3821	3821	3821	3821	3821	3821	3821	3821	3821	3821	3821	3821	3779	3821	3779	3821	3821	3821	3864	3864	3864	3864	3821	3821	3864	3821	3821	3821	3821	3864	3864	3864	3864	3864	3821	3821	3821	3821	3821	3821	3821	3821	3864	3864	3821	3821	3821	3864	3864	3864	3864	3864	3864	3821	3738	3738	3779	3738	3779	3738	3779	3779	3779	3738	3738	3738	3738	3779	3738	3779	3779	3738	3779	3698	3738	3698	3698	3698	3738	3698	3779	3779	3779	3779	3779	3779	3779	3738	3738	0	0	0	0	0	0	0	0	0	0	0	0	0	0	0	0	0	0	0	0	0	0	0	0	0	0	0	0	0	0	0	0	0	0	0	0	0	0	0	0	0	0	0	0	0	0	0	0	0	0	0	0	0	0	0	0	0	0	0	0	0
0	0	0	0	0	0	0	0	0	0	0	1786	1786	1795	1786	1795	1795	1795	1795	1804	1804	1814	1814	1814	1814	1814	1804	1804	1814	1804	1804	1804	1795	1795	1795	1804	1795	1814	1814	0	2514	2514	2496	2514	2514	2514	2496	2496	2496	2496	2496	2496	2514	2514	2496	2532	2532	2532	2532	2532	2532	2514	2532	2532	2532	2532	2532	2532	2532	2532	2532	2532	2532	2532	2532	2532	2514	2514	2514	2514	2514	2514	2514	2514	2496	2514	2514	2514	2514	2514	2496	2496	2514	2532	2532	2532	2532	2532	2532	2532	2514	2514	2514	2496	2496	2496	2496	2478	2478	2478	2496	2478	2478	2478	2478	0	3583	3546	3546	3546	3546	3583	3583	3583	3583	3621	3621	3621	3621	3583	3621	3621	3621	3621	3621	3621	3659	3621	3621	3621	3621	3621	3621	3621	3583	3621	3621	3621	3621	3621	3621	3659	3659	3659	3659	3659	3621	3621	3621	3621	3583	3621	3621	3621	3659	3621	3659	3659	3659	3659	3659	3659	3698	3698	3659	3698	3698	3698	3659	3659	3698	3698	3738	3698	3698	3698	3779	3779	3779	3738	3738	3698	3698	3738	3698	3738	3738	3779	3738	3738	3738	3738	3738	3738	3738	3738	3698	3738	3698	3698	3738	3698	3698	3698	3738	3738	3738	3738	3738	3698	3738	3738	3698	3698	3698	3698	3698	3698	3698	3698	3698	3698	3698	3698	3698	3698	3698	3659	3659	3659	3659	3659	3698	3698	3698	3698	3698	3698	3698	3698	3738	3738	3738	3738	3738	3738	3738	3738	3698	3698	3738	3698	3698	3698	3698	3738	3698	3698	3738	3698	3698	3698	3698	3698	3698	3698	3738	3698	3698	3698	3698	3698	3698	3698	3698	3738	3738	3738	3738	3738	3738	3738	3738	3738	3738	3738	3738	3738	3698	3659	3698	3659	3073	3073	3046	3046	3046	3046	3864	3073	3073	3073	3101	3101	3073	3073	3073	3073	3073	3073	3073	3101	3101	3101	3101	3101	3073	3073	3073	3073	3073	3073	3073	3073	3073	3073	3073	3073	3073	3073	3046	3046	3046	3046	3046	3046	3046	3073	3073	3073	3046	3073	3073	3073	3073	3073	3073	3073	3073	3073	3738	3738	3738	3738	3738	3738	3738	3738	3738	3738	3738	3738	3738	3738	3738	3738	3738	3821	3779	3779	3779	3779	3779	3779	3738	3738	3738	3779	3779	3779	3779	3779	3779	3779	3779	3779	3779	3779	3738	3779	3779	3779	3779	3779	3779	3779	3779	3779	3779	3779	3738	3738	3738	3738	3738	3738	3738	3738	3738	3779	3738	3738	3779	3779	3779	3779	3779	3779	3779	3779	3779	3738	3738	3738	3738	3738	3738	3738	3738	3738	3738	3779	3821	3821	3821	3821	3821	3821	3821	3821	3821	3821	3821	3779	3779	3779	3779	3779	3779	3779	3821	3821	3821	3821	3821	3821	3821	3779	3779	3779	3779	3779	3779	3779	3779	3779	3779	3779	3779	3779	3779	3821	3821	3821	3821	3821	3821	3821	3821	3821	3821	3821	3821	3821	3821	3821	3821	3821	3821	3821	3779	3779	3779	3821	3779	3821	3821	3821	3864	3821	3821	3821	3821	3864	3821	3821	3821	3821	3821	3821	3821	3864	3864	3864	3821	3821	3821	3821	3821	3821	3821	3821	3864	3864	3821	3821	3821	3821	3821	3864	3821	3821	3821	3779	3738	3779	3779	3738	3779	3738	3779	3779	3779	3738	3738	3738	3738	3779	3738	3779	3779	3738	3738	3698	3738	3738	3738	3738	3738	3738	3779	3779	3779	3779	3779	3738	3738	3738	3738	0	0	0	0	0	0	0	0	0	0	0	0	0	0	0	0	0	0	0	0	0	0	0	0	0	0	0	0	0	0	0	0	0	0	0	0	0	0	0	0	0	0	0	0	0	0	0	0	0	0	0	0	0	0	0	0	0	0	0	0	0
0	0	0	0	0	0	0	0	0	0	0	1786	1804	1804	1804	1804	1804	1804	1804	1814	1814	1814	1824	1814	1814	1814	1814	1814	1814	1814	1804	1804	1804	1804	1814	1814	1795	1804	1824	1824	1824	2514	2496	2514	2514	2514	2496	2496	2496	2496	2514	2496	2514	2496	2514	2514	2532	2514	2532	2532	2514	2514	2532	2514	2532	2532	2532	2532	2532	2532	2532	2532	2532	2532	2532	2514	2514	2514	2478	2496	2496	2514	2514	2514	2496	2514	2514	2514	2514	2514	2514	2514	2532	2532	2532	2532	2514	2514	2514	2514	2514	2496	2496	2496	2496	2496	2496	2496	2496	2496	2514	2514	2514	2514	2514	0	3583	3546	3546	3546	3546	3583	3621	3621	3621	3621	3621	3621	3621	3621	3621	3621	3621	3621	3621	3621	3621	3621	3621	3621	3621	3621	3621	3621	3621	3621	3621	3621	3621	3659	3659	3659	3659	3659	3659	3659	3621	3621	3621	3621	3621	3583	3621	3621	3621	3659	3659	3659	3659	3659	3698	3698	3698	3698	3659	3698	3698	3698	3698	3659	3698	3738	3738	3738	3698	3698	3779	3779	3738	3738	3738	3698	3698	3698	3698	3738	3738	3738	3738	3738	3738	3738	3738	3738	3738	3698	3698	3698	3698	3698	3698	3698	3698	3738	3738	3738	3738	3738	3738	3698	3738	3738	3738	3698	3698	3698	3698	3698	3698	3698	3698	3698	3698	3698	3698	3698	3698	3659	3659	3659	3698	3659	3698	3698	3698	3698	3698	3698	3698	3698	3738	3738	3738	3738	3738	3738	3738	3738	3738	3738	3738	3698	3698	3698	3738	3738	3738	3698	3738	3698	3698	3698	3698	3698	3698	3698	3738	3738	3698	3698	3738	3738	3738	3698	3698	3738	3738	3738	3738	3698	3698	3738	3738	3738	3738	3698	3698	3698	3698	3046	3046	3073	3073	3073	3046	3046	3046	3046	3046	3046	3046	3073	3101	3101	3101	3073	3073	3073	3073	3073	3073	3073	3073	3073	3073	3073	3073	3073	3073	3073	3073	3073	3073	3073	3073	3073	3073	3073	3073	3073	3046	3046	3046	3073	3046	3073	3073	3073	3073	3073	3073	3073	3073	3073	3073	3073	3073	3073	3073	3073	3779	3779	3738	3738	3738	3738	3738	3738	3738	3738	3738	3738	3738	3738	3738	3738	3738	3821	3779	3779	3779	3779	3779	3779	3779	3738	3779	3779	3779	3779	3779	3779	3779	3779	3779	3779	3779	3738	3738	3738	3738	3779	3779	3779	3779	3779	3779	3779	3779	3779	3738	3738	3738	3779	3738	3738	3738	3779	3779	3779	3779	3779	3779	3779	3779	3779	3779	3779	3779	3779	3779	3738	3738	3738	3698	3698	3738	3738	3738	3738	3738	3779	3821	3821	3821	3821	3821	3821	3821	3821	3821	3821	3821	3779	3779	3779	3779	3779	3779	3779	3821	3821	3821	3821	3821	3779	3821	3779	3779	3779	3779	3779	3779	3738	3738	3738	3738	3779	3779	3779	3779	3779	3821	3821	3821	3821	3821	3821	3821	3821	3821	3779	3821	3821	3779	3821	3821	3821	3821	3779	3779	3779	3779	3779	3779	3821	3821	3821	3821	3821	3821	3821	3821	3821	3821	3821	3821	3821	3821	3821	3821	3864	3821	3821	3821	3779	3821	3821	3821	3821	3821	3821	3821	3864	3821	3821	3821	3821	3821	3821	3821	3821	3821	3738	3738	3738	3779	3779	3779	3779	3779	3779	3779	3779	3779	3738	3738	3779	3738	3738	3738	3738	3738	3698	3698	3738	3738	3738	3738	3738	3779	3779	3779	3779	3779	3738	3738	3738	3698	3698	0	0	0	0	0	0	0	0	0	0	0	0	0	0	0	0	0	0	0	0	0	0	0	0	0	0	0	0	0	0	0	0	0	0	0	0	0	0	0	0	0	0	0	0	0	0	0	0	0	0	0	0	0	0	0	0	0	0	0	0
0	0	0	0	0	0	0	0	0	0	0	1795	1804	1814	1814	1814	1814	1814	1814	1814	1814	1824	1824	1824	1824	1824	1824	1824	1824	1824	1814	1814	1814	1814	1814	1824	1804	1814	1824	1843	1843	0	2532	2514	2514	2514	2496	2496	2478	2478	2496	2496	2496	2496	2514	2514	2532	2514	2532	2532	2532	2514	2514	2514	2514	2514	2532	2532	2532	2532	2532	2532	2532	2532	2532	2514	2514	2514	2478	2514	2496	2514	2514	2514	2514	2514	2514	2514	2514	2514	2514	2514	2514	2532	2514	2514	2514	2514	2496	2496	2496	2496	2532	2496	2532	2514	2496	2496	2496	2496	2514	2514	2514	2514	2514	2514	3583	3546	3546	3546	3546	3583	3621	3621	3621	3621	3621	3621	3621	3621	3621	3621	3621	3621	3621	3621	3621	3621	3621	3621	3659	3659	3659	3659	3659	3659	3621	3621	3621	3621	3621	3659	3621	3621	3659	3659	3621	3621	3621	3621	3583	3583	3621	3621	3621	3621	3659	3659	3659	3659	3698	3698	3698	3659	3659	3698	3698	3698	3698	3659	3698	3738	3738	3738	3698	3698	3779	3779	3779	3738	3738	3738	3738	3738	3738	3738	3738	3738	3738	3779	3738	3738	3738	3738	3738	3738	3698	3738	3698	3698	3698	3698	3698	3698	3738	3738	3738	3738	3738	3698	3738	3698	3698	3698	3698	3698	3698	3698	3698	3698	3698	3698	3698	3698	3698	3698	3698	3659	3659	3698	3698	3659	3698	3698	3698	3698	3698	3698	3698	3698	3738	3738	3738	3738	3738	3738	3738	3738	3738	3738	3738	3738	3698	3738	3738	3738	3738	3738	3738	3698	3698	3698	3698	3698	3738	3738	3738	3738	3738	3738	3738	3738	3738	3738	3698	3738	3738	3738	3738	3698	3698	3698	3738	3738	3046	3046	3046	3046	3046	3046	3046	3046	3046	3046	3046	3046	3046	3046	3046	3046	3046	3046	3101	3101	3101	3101	3101	3101	3101	3073	3073	3101	3101	3073	3073	3073	3073	3073	3073	3073	3073	3073	3073	3073	3073	3073	3073	3073	3073	3046	3046	3019	3019	3046	3046	3046	3046	3073	3073	3073	3073	3073	3073	3073	3073	3073	3073	3073	3073	3046	3046	3779	3738	3698	3738	3738	3738	3698	3698	3738	3738	3738	3738	3738	3738	3738	3738	3779	3779	3779	3779	3779	3779	3779	3779	3779	3779	3779	3779	3779	3779	3779	3779	3779	3779	3779	3779	3738	3738	3738	3738	3738	3779	3779	3779	3779	3779	3779	3779	3738	3698	3738	3738	3779	3738	3738	3779	3779	3779	3779	3779	3779	3779	3779	3779	3779	3779	3779	3779	3779	3738	3738	3738	3738	3698	3698	3738	3738	3738	3738	3738	3779	3821	3821	3821	3821	3821	3821	3821	3821	3821	3821	3779	3779	3779	3738	3779	3779	3779	3779	3779	3779	3821	3821	3779	3779	3779	3779	3738	3738	3738	3738	3779	3738	3738	3738	3738	3738	3738	3738	3779	3779	3779	3779	3821	3779	3821	3779	3821	3779	3779	3779	3779	3821	3779	3821	3821	3821	3821	3779	3779	3779	3779	3779	3779	3779	3779	3821	3821	3821	3821	3821	3821	3821	3821	3779	3821	3821	3821	3821	3821	3821	3821	3864	3821	3779	3821	3821	3821	3821	3821	3821	3821	3821	3821	3821	3821	3821	3821	3821	3821	3821	3738	3738	3738	3779	3779	3779	3779	3779	3779	3779	3738	3738	3779	3698	3738	3779	3738	3738	3738	3738	3738	3698	3738	3738	3698	3738	3698	3738	3779	3738	3738	3779	3779	3738	3698	3738	3698	3698	0	0	0	0	0	0	0	0	0	0	0	0	0	0	0	0	0	0	0	0	0	0	0	0	0	0	0	0	0	0	0	0	0	0	0	0	0	0	0	0	0	0	0	0	0	0	0	0	0	0	0	0	0	0	0	0	0	0	0	0
0	0	0	0	0	0	0	0	0	0	0	1814	1814	1824	1824	1824	1833	1833	1824	1824	1824	1824	1824	1824	1824	1824	1824	1824	1824	1824	1814	1814	1814	1824	1824	1824	1814	1833	1853	1853	1863	1863	1863	2514	2514	2514	2496	2478	2478	2478	2496	2496	2496	2514	2514	2514	2514	2514	2532	2514	2496	2514	2514	2514	2514	2532	2532	2532	2532	2532	2532	2532	2532	2532	2532	2514	2514	2514	2478	2514	2496	2514	2514	2514	2514	2514	2514	2514	2514	2514	2514	2514	2532	2514	2514	2514	2514	2514	2496	2496	2496	2496	2532	2478	2532	2514	2514	2514	2514	2496	2532	2514	2532	2532	2514	2514	0	3546	3546	3546	3546	3546	3583	3621	3621	3621	3621	3621	3621	3621	3621	3621	3621	3621	3621	3621	3621	3621	3621	3621	3621	3659	3621	3621	3621	3621	3621	3621	3621	3621	3621	3621	3621	3621	3621	3659	3621	3621	3583	3621	3583	3583	3621	3621	3621	3621	3659	3659	3659	3659	3698	3698	3698	3659	3659	3659	3659	3659	3659	3659	3659	3659	3659	3698	3698	3698	3779	3738	3738	3738	3738	3738	3738	3738	3738	3738	3698	3738	3738	3738	3738	3738	3738	3738	3738	3738	3698	3698	3698	3698	3698	3698	3698	3698	3738	3738	3738	3738	3738	3698	3698	3698	3698	3698	3698	3698	3698	3698	3698	3698	3698	3698	3698	3698	3698	3698	3698	3698	3698	3698	3698	3698	3698	3698	3659	3659	3659	3659	3698	3698	3738	3738	3738	3738	3738	3738	3738	3738	3738	3738	3738	3738	3738	3738	3738	3738	3738	3738	3738	3698	3698	3698	3698	3698	3698	3738	3738	3738	3738	3738	3738	3738	3738	3738	3698	3698	3698	3698	3738	3698	3698	3738	3046	3046	3046	3046	3046	3046	3046	3046	3046	3046	3046	3046	3046	3046	3046	3046	3046	3046	3046	3046	3073	3073	3073	3073	3073	3073	3073	3073	3073	3073	3073	3073	3073	3073	3073	3073	3073	3073	3073	3073	3073	3073	3073	3073	3073	3073	3046	3046	3046	3019	3046	3046	3046	3046	3046	3046	3073	3046	3073	3073	3073	3073	3073	3073	3073	3073	3073	3073	3101	3101	3101	3101	3738	3738	3738	3698	3698	3738	3738	3738	3738	3738	3738	3738	3738	3779	3779	3779	3779	3779	3779	3779	3779	3738	3738	3779	3779	3779	3779	3779	3779	3779	3779	3738	3779	3738	3738	3738	3738	3738	3779	3779	3779	3779	3779	3779	3779	3779	3738	3738	3738	3738	3738	3738	3779	3779	3779	3779	3738	3738	3779	3779	3779	3779	3779	3779	3779	3779	3738	3738	3738	3738	3698	3698	3738	3738	3738	3738	3738	3779	3821	3821	3821	3821	3821	3821	3821	3821	3821	3821	3821	3779	3779	3779	3779	3779	3738	3779	3738	3779	3779	3821	3779	3779	3738	3738	3738	3738	3738	3738	3738	3738	3738	3738	3738	3738	3738	3738	3779	3779	3779	3779	3821	3779	3821	3779	3779	3779	3779	3779	3779	3779	3779	3821	3779	3821	3779	3779	3779	3779	3779	3779	3779	3779	3821	3821	3821	3821	3821	3821	3821	3821	3821	3779	3821	3821	3779	3821	3821	3821	3821	3864	3821	3779	3821	3821	3779	3821	3821	3821	3821	3821	3821	3821	3821	3779	3779	3779	3779	3779	3779	3779	3779	3779	3779	3779	3779	3779	3779	3779	3779	3779	3779	3738	3738	3738	3738	3738	3738	3738	3738	3738	3698	3698	3698	3738	3698	3698	3698	3738	3779	3779	3779	3738	3698	3698	3659	3659	0	0	0	0	0	0	0	0	0	0	0	0	0	0	0	0	0	0	0	0	0	0	0	0	0	0	0	0	0	0	0	0	0	0	0	0	0	0	0	0	0	0	0	0	0	0	0	0	0	0	0	0	0	0	0	0	0	0	0	0
0	0	0	0	0	0	0	0	0	0	0	1814	1814	1824	1833	1833	1833	1843	1843	1833	1833	1824	1833	1824	1833	1824	1833	1833	1833	1833	1833	1833	1833	1824	1824	1843	1833	1843	1853	1873	1873	1873	1873	1894	1894	1894	2460	2460	2460	2460	2496	2478	2514	2514	2514	2514	2514	2514	2514	2514	2496	2496	2496	2496	2496	2532	2532	2514	2532	2532	2532	2532	2532	2532	2532	2532	2532	2514	2496	2496	2496	2514	2514	2496	2496	2514	2514	2496	2514	2496	2514	2514	2532	2514	2514	2514	2514	2496	2496	2496	2496	2496	2496	2478	2532	2514	2514	2514	2514	2514	2532	2532	2532	2532	2532	2514	3621	3583	3583	3546	3583	3621	3621	3621	3621	3621	3621	3621	3621	3621	3621	3621	3621	3621	3621	3621	3621	3621	3621	3621	3621	3659	3621	3621	3621	3621	3621	3621	3621	3621	3621	3621	3621	3659	3659	3659	3659	3659	3621	3621	3583	3583	3621	3621	3621	3621	3621	3659	3659	3659	3659	3698	3698	3698	3659	3659	3659	3659	3659	3659	3659	3659	3659	3698	3698	3698	3738	3738	3698	3738	3738	3738	3698	3698	3698	3698	3698	3698	3738	3738	3738	3738	3738	3738	3738	3738	3698	3738	3698	3698	3698	3698	3698	3698	3698	3698	3738	3738	3698	3698	3738	3698	3698	3698	3698	3698	3698	3698	3698	3698	3698	3698	3698	3698	3698	3698	3698	3698	3698	3698	3698	3698	3698	3698	3659	3659	3659	3659	3698	3698	3738	3738	3738	3738	3738	3738	3738	3738	3738	3738	3738	3738	3738	3738	3738	3698	3698	3738	3698	3698	3698	3698	3698	3738	3738	3738	3738	3738	3738	3738	3738	3698	3698	3698	3698	3698	3698	3698	3698	3698	3698	3046	3046	3046	3046	3046	3046	3046	3046	3046	3046	3046	3046	3046	3046	3046	3046	3046	3046	3046	3046	3046	3073	3073	3101	3073	3073	3073	3073	3073	3073	3073	3073	3073	3073	3073	3073	3073	3073	3073	3073	3073	3073	3073	3073	3046	3046	3046	3046	3046	3046	3019	3046	3046	3046	3046	3046	3046	3046	3046	3046	3073	3073	3073	3073	3073	3073	3073	3073	3073	3101	3101	3101	3101	3101	3738	3738	3738	3738	3738	3738	3738	3738	3738	3738	3738	3738	3779	3779	3779	3779	3779	3779	3779	3779	3779	3779	3779	3779	3779	3779	3779	3779	3779	3779	3738	3738	3738	3738	3738	3738	3779	3779	3779	3779	3779	3779	3779	3779	3779	3738	3738	3779	3779	3779	3779	3779	3779	3779	3779	3779	3779	3779	3779	3779	3738	3738	3738	3779	3738	3698	3738	3738	3738	3698	3698	3738	3738	3738	3738	3738	3821	3821	3821	3821	3821	3821	3821	3821	3821	3821	3821	3821	3779	3779	3779	3779	3779	3779	3779	3738	3779	3779	3779	3738	3698	3698	3738	3698	3698	3738	3738	3738	3738	3698	3738	3698	3738	3738	3738	3738	3779	3779	3779	3821	3779	3779	3779	3779	3779	3779	3779	3779	3779	3779	3779	3779	3779	3779	3779	3779	3779	3779	3779	3779	3779	3821	3821	3821	3821	3821	3821	3821	3821	3821	3779	3779	3779	3779	3821	3821	3821	3821	3864	3821	3821	3821	3779	3779	3821	3821	3821	3821	3821	3821	3779	3821	3779	3779	3779	3779	3779	3738	3779	3779	3779	3779	3779	3779	3779	3779	3821	3779	3779	3821	3821	3821	3821	3738	3738	3779	3738	3738	3738	3698	3698	3698	3698	3698	3738	3738	3738	3779	3779	3779	3738	3698	3698	3698	3698	0	0	0	0	0	0	0	0	0	0	0	0	0	0	0	0	0	0	0	0	0	0	0	0	0	0	0	0	0	0	0	0	0	0	0	0	0	0	0	0	0	0	0	0	0	0	0	0	0	0	0	0	0	0	0	0	0	0	0	0
0	0	0	0	0	0	0	0	0	0	0	1824	1824	1833	1833	1833	1843	1843	1843	1843	1843	1833	1833	1824	1833	1833	1833	1833	1833	1843	1833	1833	1824	1833	1833	1833	1863	1863	1873	1873	1873	1873	1873	1883	1894	1883	1894	1894	2460	2496	2496	2496	2514	2514	2496	2514	2514	2496	2514	2514	2496	2496	2496	2496	2496	2532	2532	2532	2532	2532	2532	2532	2532	2532	2532	2532	2532	2496	2496	2514	2514	2514	2514	2496	2496	2514	2514	2496	2514	2496	2514	2496	2532	2514	2514	2514	2514	2496	2496	2496	2496	2496	2496	2496	2496	2532	2514	2514	2514	2514	2532	2532	2532	2532	2532	0	3621	3659	3621	3583	3583	3659	3659	3621	3621	3621	3621	3621	3659	3621	3621	3621	3621	3621	3621	3621	3621	3621	3621	3621	3621	3659	3621	3621	3621	3621	3621	3621	3621	3621	3621	3621	3621	3583	3583	3659	3659	3621	3659	3621	3621	3583	3583	3621	3621	3621	3621	3621	3659	3698	3698	3698	3698	3698	3698	3698	3659	3659	3659	3659	3698	3659	3698	3659	3659	3698	3738	3738	3698	3738	3698	3698	3698	3698	3698	3698	3698	3698	3738	3738	3738	3738	3738	3738	3738	3738	3698	3698	3698	3698	3698	3698	3698	3698	3698	3738	3738	3738	3698	3698	3698	3698	3698	3698	3659	3698	3698	3698	3659	3698	3698	3698	3659	3659	3698	3659	3698	3659	3698	3698	3698	3698	3698	3659	3659	3659	3659	3659	3698	3698	3738	3738	3738	3738	3738	3738	3738	3738	3738	3738	3738	3738	3738	3738	3738	3738	3738	3738	3738	3698	3698	3698	3698	3738	3738	3738	3738	3738	3738	3738	3738	3698	3698	3698	3698	3698	3698	3698	3698	3698	3046	3046	3073	3046	3046	3046	3046	3046	3046	3046	3046	3046	3046	3046	3046	3046	3046	3046	3046	3046	3046	3046	3073	3073	3073	3073	3073	3073	3073	3073	3073	3073	3073	3073	3046	3046	3073	3073	3073	3073	3046	3046	3046	3046	3046	3046	3046	3046	3046	3046	3019	3019	3046	3046	3019	3046	3046	3046	3046	3046	3046	3073	3073	3073	3046	3073	3073	3073	3073	3073	3073	3073	3073	3101	3101	3101	3779	3779	3779	3738	3738	3738	3738	3738	3738	3738	3738	3779	3779	3779	3779	3779	3779	3779	3779	3779	3779	3779	3779	3779	3779	3779	3779	3779	3779	3738	3779	3738	3738	3738	3738	3738	3779	3779	3779	3779	3779	3779	3738	3738	3738	3738	3779	3779	3779	3779	3779	3779	3779	3779	3779	3779	3779	3779	3779	3779	3738	3738	3738	3738	3738	3738	3738	3738	3738	3738	3738	3738	3738	3738	3779	3821	3821	3821	3821	3821	3821	3821	3821	3821	3821	3821	3821	3779	3779	3779	3698	3698	3698	3698	3738	3698	3698	3698	3698	3698	3698	3698	3698	3698	3738	3738	3738	3738	3738	3738	3738	3738	3738	3779	3779	3779	3779	3779	3821	3779	3779	3779	3779	3779	3779	3779	3779	3779	3779	3779	3779	3779	3779	3779	3779	3779	3779	3779	3779	3779	3821	3779	3821	3821	3821	3821	3821	3779	3821	3779	3779	3779	3779	3779	3821	3821	3821	3821	3821	3779	3821	3779	3779	3779	3779	3821	3821	3779	3779	3779	3779	3779	3779	3779	3738	3779	3779	3779	3779	3779	3779	3779	3779	3779	3779	3779	3779	3779	3779	3779	3779	3821	3821	3779	3779	3738	3738	3738	3698	3698	3698	3738	3738	3738	3738	3738	3779	3779	3779	3738	3698	3738	3698	3698	0	0	0	0	0	0	0	0	0	0	0	0	0	0	0	0	0	0	0	0	0	0	0	0	0	0	0	0	0	0	0	0	0	0	0	0	0	0	0	0	0	0	0	0	0	0	0	0	0	0	0	0	0	0	0	0	0	0	0	0
0	0	0	0	0	0	0	0	0	0	0	1824	1824	1833	1843	1843	1843	1853	1853	1853	1853	1843	1843	1833	1843	1833	1853	1843	1853	1853	1853	1853	1833	1863	1853	1863	1863	1863	1863	1873	1873	1873	1873	1883	1883	1894	1904	1904	1904	2496	2496	2478	2478	2478	2496	2496	2496	2496	2496	2496	2496	2496	2496	2496	2496	2514	2514	2532	2496	2514	2496	2496	2532	2496	2532	2514	2532	2514	2496	2514	2496	2514	2514	2496	2496	2496	2496	2496	2496	2478	2478	2478	2496	2496	2496	2496	2514	2496	2496	2496	2514	2514	2514	2514	2532	2514	2514	2514	2514	2514	2514	2514	2532	2532	2532	0	3583	3659	3583	3583	3583	3621	3659	3621	3621	3621	3621	3659	3659	3621	3621	3621	3621	3621	3621	3583	3621	3621	3621	3621	3621	3621	3621	3621	3621	3621	3621	3621	3621	3621	3621	3621	3583	3583	3583	3583	3583	3583	3621	3621	3583	3583	3583	3621	3621	3621	3621	3659	3659	3738	3698	3698	3698	3698	3698	3698	3659	3659	3659	3698	3698	3659	3698	3698	3698	3698	3738	3698	3738	3698	3698	3698	3698	3698	3698	3738	3738	3738	3738	3738	3738	3698	3698	3698	3738	3738	3698	3698	3698	3698	3698	3698	3698	3698	3698	3738	3738	3738	3698	3698	3698	3698	3659	3659	3659	3659	3659	3698	3698	3698	3698	3698	3659	3698	3698	3659	3698	3659	3698	3698	3698	3698	3698	3659	3659	3659	3659	3659	3659	3698	3738	3738	3738	3738	3738	3738	3738	3738	3738	3738	3738	3738	3738	3738	3738	3738	3738	3738	3738	3738	3698	3698	3698	3738	3738	3698	3738	3738	3738	3738	3738	3698	3698	3698	3698	3698	3698	3698	3698	3698	3073	3073	3046	3046	3046	3046	3046	3046	3046	3046	3046	3046	3046	3046	3046	3046	3046	3019	3019	3046	3046	3046	3073	3073	3073	3073	3073	3073	3073	3073	3073	3073	3073	3046	3046	3046	3046	3046	3046	3019	3019	3019	3019	3019	3019	3046	3046	3046	3046	3046	3019	3019	3019	3019	3019	3019	3019	3046	3046	3019	3046	3046	3046	3046	3046	3046	3046	3073	3073	3073	3073	3073	3073	3101	3101	3073	3073	3907	3821	3779	3738	3738	3738	3738	3738	3738	3738	3738	3779	3779	3779	3779	3779	3779	3779	3779	3779	3779	3779	3779	3779	3779	3779	3779	3779	3738	3738	3738	3738	3738	3738	3738	3738	3779	3779	3738	3738	3779	3738	3738	3738	3779	3779	3779	3779	3779	3779	3779	3779	3779	3779	3779	3738	3738	3779	3738	3738	3738	3738	3738	3738	3738	3738	3738	3738	3738	3738	3738	3738	3738	3738	3821	3821	3821	3821	3821	3821	3821	3821	3821	3821	3779	3779	3779	3779	3698	3698	3698	3698	3698	3698	3698	3698	3698	3698	3698	3698	3738	3738	3698	3738	3738	3738	3738	3738	3738	3738	3738	3738	3779	3779	3779	3779	3779	3821	3779	3779	3779	3779	3779	3779	3779	3779	3779	3779	3779	3779	3779	3779	3779	3779	3779	3779	3779	3779	3779	3821	3821	3821	3821	3821	3821	3821	3821	3821	3779	3779	3779	3779	3779	3779	3821	3821	3821	3821	3779	3821	3779	3779	3779	3779	3779	3821	3779	3779	3779	3779	3779	3779	3779	3779	3738	3738	3779	3738	3779	3779	3779	3779	3779	3779	3779	3779	3779	3779	3779	3821	3821	3821	3779	3779	3738	3738	3738	3738	3698	3738	3738	3738	3738	3779	3779	3779	3779	3779	3698	3698	3698	3698	3698	0	0	0	0	0	0	0	0	0	0	0	0	0	0	0	0	0	0	0	0	0	0	0	0	0	0	0	0	0	0	0	0	0	0	0	0	0	0	0	0	0	0	0	0	0	0	0	0	0	0	0	0	0	0	0	0	0	0	0	0
0	0	0	0	0	0	0	0	0	0	0	1833	1833	1853	1853	1853	1853	1863	1863	1853	1853	1853	1833	1833	1833	1833	1843	1843	1843	1853	1853	1853	1853	1863	1863	1863	1863	1863	1863	1873	1873	1863	1873	1873	1873	1883	1894	1894	1894	0	2478	2478	2478	2496	2496	2496	2496	2496	2496	2496	2496	2496	2478	2496	2496	2496	2496	2496	2496	2514	2496	2496	2514	2514	2532	2514	2532	2532	2496	2514	2514	2514	2514	2496	2496	2496	2496	2478	2478	2478	2478	2478	2478	2496	2496	2514	2514	2514	2514	2514	2514	2514	2514	2532	2532	2532	2532	2532	2532	2532	2532	2532	2532	2532	2532	0	3621	3621	3621	3583	3583	3583	3621	3621	3621	3621	3621	3621	3659	3621	3621	3621	3621	3621	3583	3583	3583	3583	3621	3621	3621	3621	3621	3621	3621	3621	3621	3621	3621	3621	3583	3583	3583	3583	3583	3583	3583	3583	3659	3659	3583	3583	3583	3621	3621	3621	3621	3659	3659	3738	3698	3698	3698	3698	3698	3698	3659	3659	3698	3698	3659	3659	3698	3698	3659	3698	3738	3738	3698	3698	3698	3698	3698	3698	3698	3698	3698	3698	3698	3698	3738	3698	3698	3738	3738	3738	3698	3698	3698	3698	3698	3698	3698	3698	3698	3698	3738	3738	3698	3698	3698	3698	3659	3659	3659	3659	3659	3659	3659	3698	3698	3698	3698	3698	3698	3659	3698	3698	3698	3698	3698	3698	3698	3659	3659	3659	3659	3659	3659	3698	3738	3738	3738	3738	3738	3738	3698	3698	3698	3698	3738	3738	3738	3738	3738	3738	3738	3738	3738	3738	3698	3738	3738	3738	3738	3738	3738	3738	3738	3738	3738	3698	3698	3738	3698	3698	3698	3698	3698	3073	3073	3073	3046	3046	3046	3046	3046	3046	3046	3046	3046	3046	3046	3046	3046	3046	3046	3019	3019	3019	3019	3019	3019	3073	3073	3073	3073	3073	3073	3073	3073	3073	3073	3046	3046	3046	3046	3046	3046	3046	3046	3046	3046	3046	3046	3046	3046	3046	3019	3019	3019	3019	3019	3019	3019	3019	3019	3046	3046	3019	3046	3046	3046	3046	3046	3046	3046	3046	3073	3073	3073	3073	3073	3101	3101	3073	3073	3073	3864	3779	3738	3738	3738	3738	3738	3738	3738	3779	3779	3779	3779	3779	3779	3779	3779	3779	3779	3779	3779	3779	3779	3779	3779	3779	3738	3738	3738	3738	3738	3738	3738	3738	3779	3779	3779	3779	3779	3779	3738	3738	3779	3779	3779	3779	3779	3779	3779	3779	3779	3738	3738	3738	3738	3738	3738	3738	3738	3738	3738	3738	3738	3738	3738	3738	3738	3738	3738	3738	3738	3738	3738	3779	3779	3738	3779	3779	3779	3821	3779	3779	3779	3779	3779	3738	3779	3738	3698	3698	3698	3698	3698	3698	3738	3698	3738	3738	3698	3738	3738	3738	3738	3738	3738	3738	3738	3738	3738	3738	3738	3779	3779	3779	3779	3779	3821	3779	3779	3779	3779	3779	3779	3779	3779	3779	3779	3779	3779	3779	3821	3821	3779	3779	3779	3779	3779	3821	3821	3821	3821	3821	3821	3821	3821	3821	3821	3779	3779	3821	3779	3779	3779	3821	3821	3821	3821	3779	3821	3779	3779	3779	3779	3779	3779	3779	3779	3779	3779	3779	3779	3779	3779	3779	3779	3779	3779	3779	3779	3779	3779	3779	3779	3779	3779	3779	3779	3821	3821	3821	3821	3779	3779	3738	3738	3738	3738	3698	3738	3738	3738	3738	3779	3779	3779	3779	3779	3738	3698	3738	3698	3698	0	0	0	0	0	0	0	0	0	0	0	0	0	0	0	0	0	0	0	0	0	0	0	0	0	0	0	0	0	0	0	0	0	0	0	0	0	0	0	0	0	0	0	0	0	0	0	0	0	0	0	0	0	0	0	0	0	0	0	0
0	0	0	0	0	0	0	0	0	0	0	1833	1843	1863	1863	1863	1863	1863	1863	1863	1863	1853	1853	1853	1853	1863	1863	1863	1863	1863	1863	1863	1853	1863	1863	1863	1863	1863	1863	1873	1873	1873	1873	1863	1873	1873	1883	1894	1915	1915	1915	2478	2478	2478	2478	2496	2496	2478	2496	2496	2496	2478	2478	2496	2496	2478	2478	2496	2478	2478	2496	2496	2496	2496	2514	2514	2514	2514	2514	2514	2514	2514	2514	2496	2496	2496	2496	2478	2478	2478	2478	2478	2478	2478	2496	2514	2514	2514	2514	2514	2514	2532	2532	2514	2514	2514	2532	2532	2532	2532	2532	2514	2514	2532	2532	0	3583	3583	3583	3583	3583	3621	3659	3621	3621	3621	3659	3659	3621	3621	3621	3621	3621	3621	3621	3621	3621	3583	3621	3621	3621	3621	3621	3621	3621	3621	3621	3621	3621	3621	3583	3659	3659	3659	3621	3659	3583	3583	3621	3583	3583	3583	3583	3583	3621	3621	3621	3621	3659	3738	3738	3738	3738	3698	3698	3698	3659	3659	3698	3698	3698	3698	3659	3659	3698	3698	3698	3698	3698	3698	3698	3698	3698	3698	3698	3698	3698	3698	3698	3738	3738	3698	3698	3738	3738	3698	3698	3698	3698	3698	3698	3698	3698	3698	3698	3698	3698	3698	3698	3698	3698	3659	3659	3659	3659	3659	3659	3659	3659	3659	3659	3659	3659	3659	3659	3659	3698	3698	3698	3698	3698	3698	3698	3659	3659	3659	3659	3659	3659	3698	3738	3738	3738	3738	3738	3738	3698	3698	3698	3698	3738	3738	3738	3738	3738	3738	3738	3738	3698	3738	3738	3738	3738	3738	3738	3738	3698	3738	3738	3738	3738	3698	3698	3738	3698	3698	3698	3698	3698	3073	3073	3073	3046	3046	3046	3046	3046	3046	3046	3046	3046	3046	3046	3046	3046	3046	3046	3019	3019	3019	3019	3019	3019	3046	3073	3073	3073	3073	3073	3073	3073	3046	3046	3046	3019	3019	3046	3019	3046	3046	3046	3046	3046	3046	3046	3046	3019	3019	3019	3019	3019	3019	3019	3019	3019	3019	2993	3019	3019	2993	3019	3019	3019	3046	3046	3046	3046	3046	3046	3046	3046	3046	3073	3073	3073	3073	3073	3073	3779	3738	3738	3738	3738	3738	3738	3698	3698	3779	3779	3738	3779	3779	3779	3779	3779	3779	3779	3779	3779	3779	3779	3779	3779	3779	3738	3738	3738	3738	3779	3779	3738	3738	3779	3738	3779	3738	3738	3738	3738	3738	3779	3779	3779	3779	3779	3779	3779	3738	3738	3738	3738	3738	3738	3738	3738	3738	3738	3738	3738	3738	3738	3738	3738	3738	3738	3738	3738	3738	3738	3738	3738	3779	3779	3738	3779	3779	3779	3779	3779	3779	3779	3779	3779	3738	3738	3659	3659	3659	3698	3698	3698	3698	3698	3698	3738	3738	3698	3738	3738	3698	3738	3738	3738	3738	3738	3738	3738	3738	3738	3779	3779	3779	3779	3779	3779	3779	3779	3779	3779	3779	3779	3779	3779	3779	3779	3779	3779	3779	3821	3821	3779	3779	3779	3779	3779	3821	3821	3821	3821	3864	3821	3821	3821	3821	3821	3821	3821	3821	3821	3821	3821	3821	3821	3821	3821	3821	3821	3779	3779	3821	3821	3779	3779	3779	3779	3779	3779	3779	3779	3779	3779	3779	3779	3779	3779	3779	3779	3779	3779	3779	3779	3779	3821	3821	3821	3821	3821	3821	3821	3779	3779	3738	3738	3738	3738	3698	3738	3738	3738	3738	3779	3779	3779	3779	3779	3779	3738	3738	3698	3698	0	0	0	0	0	0	0	0	0	0	0	0	0	0	0	0	0	0	0	0	0	0	0	0	0	0	0	0	0	0	0	0	0	0	0	0	0	0	0	0	0	0	0	0	0	0	0	0	0	0	0	0	0	0	0	0	0	0	0	0
0	0	0	0	0	0	0	0	0	0	0	1833	1853	1873	1873	1873	1873	1873	1873	1873	1863	1863	1863	1863	1873	1873	1873	1883	1873	1873	1863	1863	1863	1873	1863	1873	1873	1863	1873	1873	1863	1873	1863	1863	1863	1873	1873	1873	1894	1904	1904	0	2460	2460	2478	2478	2478	2478	2478	2478	2478	2478	2478	2478	2478	2478	2478	2496	2478	2496	2496	2496	2496	2514	2514	2496	2532	2532	2514	2514	2496	2514	2496	2496	2496	2496	2496	2478	2478	2478	2478	2478	2478	2496	2496	2496	2514	2514	2514	2514	2514	2532	2514	2514	2496	2496	2496	2496	2514	2496	2496	2514	2514	2514	2532	3475	3546	3583	3583	3583	3583	3621	3659	3621	3659	3659	3659	3659	3621	3659	3659	3621	3621	3621	3621	3621	3583	3583	3583	3621	3583	3621	3583	3621	3621	3621	3621	3621	3621	3621	3621	3621	3621	3621	3621	3621	3583	3621	3621	3621	3583	3583	3583	3583	3583	3621	3621	3621	3659	3738	3738	3738	3738	3698	3698	3698	3659	3659	3659	3698	3698	3698	3659	3698	3698	3698	3698	3698	3698	3698	3698	3698	3698	3698	3698	3698	3698	3698	3698	3698	3698	3698	3698	3698	3698	3698	3698	3698	3698	3698	3698	3698	3698	3698	3698	3698	3698	3698	3698	3698	3659	3659	3659	3659	3659	3659	3659	3659	3659	3659	3659	3659	3659	3659	3659	3659	3698	3698	3698	3698	3698	3698	3698	3659	3659	3659	3659	3659	3659	3698	3738	3738	3738	3738	3698	3698	3698	3698	3698	3698	3698	3738	3738	3738	3738	3738	3738	3738	3698	3738	3698	3698	3698	3698	3698	3698	3698	3698	3698	3738	3738	3698	3698	3698	3698	3698	3698	3698	3046	3046	3073	3046	3046	3046	3046	3046	3046	3046	3046	3046	3046	3046	3046	3046	3046	3046	3046	3019	3019	3019	3019	3019	3019	3046	3073	3073	3073	3046	3046	3046	3046	3019	3046	3046	3019	3019	3019	3019	3046	3019	3019	3046	3046	3046	3046	3046	3019	3019	3019	3019	3019	3019	3019	3019	3019	2993	3019	3019	2993	2993	3019	3019	3019	3019	3019	3019	3019	3046	3046	3046	3046	3046	3073	3073	3073	3073	3073	3073	3073	3738	3738	3738	3738	3738	3738	3698	3738	3779	3779	3738	3779	3779	3779	3779	3779	3779	3779	3779	3779	3779	3779	3779	3738	3779	3738	3738	3738	3779	3738	3779	3738	3738	3738	3738	3738	3738	3738	3738	3738	3738	3738	3779	3779	3779	3779	3779	3779	3738	3738	3738	3738	3738	3738	3738	3738	3738	3738	3738	3738	3738	3738	3738	3738	3738	3738	3738	3738	3738	3738	3698	3738	3738	3779	3738	3779	3779	3779	3779	3779	3779	3779	3779	3738	3738	3738	3659	3659	3659	3698	3698	3698	3698	3738	3738	3738	3738	3738	3738	3738	3738	3738	3738	3738	3779	3779	3738	3779	3779	3779	3779	3779	3779	3779	3779	3779	3779	3779	3779	3779	3779	3779	3779	3779	3779	3738	3738	3779	3779	3821	3821	3821	3821	3821	3821	3779	3821	3821	3821	3821	3864	3864	3821	3821	3821	3821	3821	3821	3821	3821	3864	3864	3864	3864	3821	3821	3821	3821	3821	3821	3821	3821	3821	3821	3779	3779	3779	3779	3821	3821	3779	3779	3779	3779	3779	3738	3779	3779	3779	3779	3779	3779	3779	3821	3821	3821	3864	3821	3821	3821	3779	3779	3738	3738	3738	3738	3698	3738	3738	3738	3738	3779	3779	3779	3779	3779	3779	3738	3779	3738	3698	3659	3659	0	0	0	0	0	0	0	0	0	0	0	0	0	0	0	0	0	0	0	0	0	0	0	0	0	0	0	0	0	0	0	0	0	0	0	0	0	0	0	0	0	0	0	0	0	0	0	0	0	0	0	0	0	0	0	0	0	0
0	0	0	0	0	0	0	0	0	0	0	0	1873	1883	1894	1883	1873	1873	1873	1873	1873	1873	1873	1873	1873	1873	1873	1894	1883	1873	1873	1873	1873	1873	1873	1873	1873	1863	1863	1863	1863	1873	1863	1863	1863	1863	1873	1873	1894	1904	1904	1915	1915	2514	2478	2478	2478	2478	2478	2478	2496	2478	2478	2478	2478	2478	2478	2496	2478	2496	2496	2496	2514	2514	2514	2514	2514	2514	2514	2514	2496	2514	2514	2496	2496	2496	2478	2478	2478	2478	2478	2478	2478	2478	2496	2496	2496	2514	2532	2532	2532	2532	2532	2514	2514	2514	2496	2496	2496	2496	2496	2514	2514	2514	0	3475	3546	3546	3583	3583	3583	3583	3621	3621	3659	3659	3659	3659	3659	3659	3621	3621	3621	3621	3621	3621	3583	3583	3621	3621	3583	3621	3583	3583	3621	3621	3621	3621	3621	3621	3621	3621	3659	3659	3621	3659	3621	3659	3621	3621	3621	3621	3621	3583	3621	3621	3621	3621	3659	3698	3698	3698	3738	3698	3698	3698	3659	3659	3659	3698	3659	3698	3659	3738	3698	3698	3738	3698	3698	3698	3698	3698	3698	3698	3738	3738	3738	3698	3738	3738	3738	3698	3698	3698	3698	3698	3698	3698	3698	3698	3698	3698	3698	3698	3698	3698	3698	3698	3698	3698	3698	3659	3659	3659	3659	3659	3659	3659	3659	3659	3659	3659	3659	3659	3659	3659	3698	3698	3698	3698	3698	3659	3698	3659	3659	3659	3659	3659	3659	3698	3738	3738	3738	3738	3698	3698	3698	3698	3698	3698	3698	3738	3738	3738	3738	3738	3738	3738	3698	3738	3698	3698	3698	3698	3698	3698	3698	3738	3698	3698	3698	3698	3698	3698	3698	3659	3698	3073	3073	3073	3073	3046	3046	3046	3046	3046	3046	3046	3046	3046	3046	3046	3046	3046	3046	3046	3019	3019	3019	3019	3019	3019	3019	3019	3046	3046	3046	3046	3046	3046	3046	3046	3046	3046	3046	3046	3046	3046	3019	3019	3019	3019	3019	3019	3019	3019	3019	3019	3019	3019	3019	3019	3019	2993	2993	2993	2993	2993	2993	2993	2993	3019	3019	3019	3019	3046	3019	3046	3046	3046	3046	3046	3046	3046	3073	3073	3073	3073	3073	3779	3779	3779	3738	3738	3738	3738	3738	3779	3738	3738	3779	3779	3779	3779	3779	3779	3779	3779	3779	3779	3779	3779	3779	3779	3738	3738	3738	3779	3779	3779	3738	3738	3738	3738	3738	3738	3738	3738	3738	3738	3738	3779	3779	3779	3779	3779	3779	3738	3738	3738	3738	3738	3738	3738	3738	3738	3738	3738	3738	3738	3738	3738	3738	3738	3738	3738	3738	3738	3738	3698	3698	3779	3779	3738	3738	3779	3779	3779	3779	3738	3738	3738	3738	3698	3698	3698	3698	3698	3738	3738	3698	3738	3738	3738	3779	3738	3738	3738	3738	3698	3738	3738	3738	3738	3738	3738	3779	3779	3779	3779	3821	3821	3821	3821	3779	3779	3779	3779	3779	3779	3779	3779	3779	3779	3779	3779	3779	3779	3821	3821	3821	3821	3821	3779	3779	3821	3821	3821	3821	3864	3821	3821	3821	3821	3821	3821	3821	3821	3821	3864	3821	3821	3821	3821	3864	3821	3821	3821	3821	3821	3821	3821	3821	3821	3779	3779	3779	3779	3779	3779	3779	3779	3779	3779	3779	3779	3779	3779	3779	3779	3779	3779	3821	3821	3821	3821	3821	3821	3821	3779	3738	3738	3738	3738	3738	3698	3738	3738	3738	3738	3779	3779	3779	3779	3779	3779	3738	3738	3738	3698	3698	3698	0	0	0	0	0	0	0	0	0	0	0	0	0	0	0	0	0	0	0	0	0	0	0	0	0	0	0	0	0	0	0	0	0	0	0	0	0	0	0	0	0	0	0	0	0	0	0	0	0	0	0	0	0	0	0	0	0	0
0	0	0	0	0	0	0	0	0	0	0	0	1894	1904	1894	1894	1883	1883	1883	1883	1873	1873	1873	1873	1873	1873	1873	1894	1883	1883	1883	1873	1873	1873	1873	1873	1873	1873	1873	1873	1873	1883	1873	1863	1873	1883	1883	1883	1894	1904	1915	1915	1915	2514	2514	2514	2478	2478	2496	2478	2496	2496	2496	2496	2496	2496	2478	2478	2478	2496	2496	2496	2514	2514	2514	2514	2514	2514	2514	2496	2496	2496	2496	2496	2496	2496	2478	2478	2478	2478	2478	2478	2478	2496	2496	2496	2496	2514	2532	2532	2532	2514	2514	2514	2514	2496	2496	2496	2496	2496	2496	2514	2514	2532	2532	3216	3510	3546	3583	3546	3583	3583	3621	3621	3659	3659	3659	3659	3659	3659	3621	3621	3621	3621	3621	3621	3583	3583	3583	3583	3583	3583	3583	3583	3621	3621	3621	3583	3583	3621	3621	3621	3621	3621	3621	3659	3621	3659	3621	3621	3621	3621	3621	3621	3621	3621	3659	3659	3698	3698	3698	3698	3698	3698	3621	3621	3621	3659	3659	3738	3698	3738	3698	3698	3698	3698	3738	3738	3738	3698	3738	3698	3698	3698	3738	3738	3738	3698	3698	3738	3738	3698	3698	3698	3698	3659	3659	3659	3698	3698	3698	3698	3698	3698	3698	3738	3698	3698	3698	3698	3698	3659	3659	3659	3659	3659	3659	3659	3659	3659	3659	3659	3659	3659	3659	3659	3659	3698	3659	3659	3698	3659	3698	3659	3659	3659	3659	3659	3698	3698	3698	3738	3698	3738	3698	3698	3698	3698	3659	3698	3698	3738	3738	3738	3738	3738	3738	3738	3698	3738	3698	3698	3698	3698	3698	3698	3698	3738	3698	3698	3698	3698	3698	3698	3698	3659	3698	3073	3073	3073	3073	3073	3046	3046	3046	3046	3046	3046	3046	3046	3046	3046	3046	3046	3019	3019	3019	3019	3019	3019	3019	3019	3019	3046	3046	3046	3046	3019	3046	3046	3019	3019	3046	3046	3046	3019	3019	3019	3019	3019	3019	3019	3019	3019	3019	3019	3019	3019	3019	3019	3019	3019	3019	2993	2993	2993	2993	2993	2993	2993	2993	3019	3019	3019	3019	3046	3046	3046	3046	3019	3019	3019	3046	3046	3046	3046	3046	3073	3073	3073	3073	3779	3738	3738	3738	3738	3738	3779	3779	3738	3779	3779	3779	3779	3779	3779	3779	3779	3779	3779	3779	3779	3779	3779	3738	3738	3738	3779	3779	3779	3738	3738	3738	3738	3738	3738	3738	3738	3738	3738	3738	3738	3738	3779	3738	3738	3738	3738	3738	3738	3738	3738	3738	3738	3738	3738	3738	3738	3738	3738	3738	3738	3738	3738	3738	3738	3738	3698	3698	3698	3698	3738	3738	3738	3738	3779	3779	3779	3738	3738	3738	3738	3738	3698	3698	3698	3698	3698	3738	3738	3698	3698	3738	3738	3779	3738	3738	3738	3738	3738	3738	3738	3738	3779	3779	3779	3779	3779	3779	3821	3821	3821	3821	3821	3779	3779	3779	3779	3779	3779	3779	3779	3779	3779	3738	3779	3779	3779	3821	3821	3821	3779	3779	3779	3779	3821	3821	3821	3821	3864	3864	3821	3821	3821	3821	3821	3821	3821	3821	3864	3864	3821	3864	3864	3864	3821	3821	3864	3821	3821	3821	3821	3821	3779	3779	3779	3779	3779	3779	3779	3779	3779	3779	3779	3779	3779	3779	3779	3779	3779	3779	3779	3779	3779	3779	3779	3821	3779	3779	3738	3738	3738	3738	3738	3698	3698	3738	3738	3738	3738	3779	3779	3779	3779	3738	3779	3738	3738	3738	3698	3698	3698	0	0	0	0	0	0	0	0	0	0	0	0	0	0	0	0	0	0	0	0	0	0	0	0	0	0	0	0	0	0	0	0	0	0	0	0	0	0	0	0	0	0	0	0	0	0	0	0	0	0	0	0	0	0	0	0	0	0
0	0	0	0	0	0	0	0	0	0	0	0	1904	1904	1904	1894	1894	1894	1883	1883	1904	1904	1904	1894	1894	1894	1904	1904	1894	1894	1894	1883	1883	1883	1883	1873	1873	1873	1873	1873	1873	1873	1873	1873	1873	1883	1883	1894	1904	1915	1915	1915	1925	1925	2532	2532	2514	2514	2496	2478	2496	2496	2496	2496	2496	2496	2496	2496	2478	2496	2496	2496	2496	2514	2514	2514	2496	2514	2496	2496	2496	2496	2496	2496	2496	2496	2478	2478	2478	2478	2478	2478	2478	2496	2496	2514	2496	2514	2532	2532	2532	2514	2514	2514	2496	2496	2496	2496	2496	2496	2496	2496	2514	2532	2551	2551	3510	3546	3583	3546	3546	3583	3621	3621	3621	3659	3659	3659	3659	3659	3621	3621	3621	3621	3621	3621	3621	3583	3621	3621	3583	3583	3583	3583	3583	3621	3583	3583	3583	3583	3659	3621	3659	3659	3659	3659	3659	3621	3621	3621	3621	3621	3621	3621	3621	3621	3621	3659	3659	3659	3698	3698	3698	3659	3659	3659	3659	3659	3659	3698	3698	3698	3698	3698	3698	3698	3738	3738	3738	3698	3738	3698	3698	3698	3738	3738	3738	3698	3738	3738	3738	3698	3698	3698	3698	3659	3659	3659	3698	3698	3698	3698	3698	3738	3738	3738	3698	3698	3698	3698	3698	3659	3659	3659	3659	3659	3659	3659	3659	3659	3659	3659	3659	3659	3698	3659	3698	3698	3659	3659	3659	3659	3659	3659	3659	3659	3659	3659	3659	3698	3738	3738	3738	3698	3698	3698	3698	3698	3698	3698	3698	3738	3738	3738	3738	3738	3738	3738	3698	3698	3698	3698	3698	3698	3698	3698	3698	3698	3698	3698	3698	3698	3698	3698	3698	3659	3073	3073	3073	3046	3073	3046	3046	3046	3046	3046	3046	3046	3046	3046	3046	3046	3046	3019	3019	3019	3019	2993	2993	3019	3019	3019	3019	3019	3019	3019	3019	3019	3019	3019	3019	3019	3019	3046	3019	3019	3019	3019	3019	3019	3019	2993	3019	3019	3019	3019	3019	3019	2993	3019	2993	2993	3019	2993	2993	2993	2993	2993	2993	2993	2993	2993	3019	3019	3019	3019	3019	3019	3019	3046	3019	3046	3046	3046	3046	3046	3046	3073	3046	3073	3073	3738	3738	3738	3738	3738	3738	3779	3779	3738	3779	3779	3779	3738	3779	3738	3779	3779	3738	3738	3738	3738	3738	3779	3738	3738	3738	3779	3738	3738	3738	3738	3738	3738	3738	3698	3738	3738	3738	3738	3738	3738	3738	3738	3738	3738	3738	3738	3738	3738	3738	3738	3738	3738	3738	3738	3738	3738	3738	3738	3738	3738	3738	3738	3738	3738	3738	3698	3698	3698	3698	3738	3738	3738	3738	3738	3738	3738	3738	3738	3738	3698	3698	3698	3698	3698	3698	3738	3738	3738	3779	3779	3779	3779	3779	3779	3779	3779	3779	3779	3779	3779	3779	3779	3779	3779	3779	3779	3779	3821	3821	3779	3779	3779	3779	3779	3779	3779	3779	3779	3779	3738	3738	3738	3738	3779	3779	3779	3779	3821	3821	3779	3779	3779	3779	3821	3821	3821	3821	3821	3821	3821	3821	3821	3821	3821	3821	3821	3821	3821	3821	3821	3821	3821	3864	3864	3821	3864	3864	3821	3821	3821	3821	3821	3779	3779	3779	3779	3779	3779	3779	3779	3779	3779	3779	3779	3779	3738	3779	3738	3779	3738	3779	3779	3779	3779	3821	3779	3779	3779	3738	3738	3738	3738	3698	3698	3738	3738	3738	3738	3779	3779	3779	3779	3738	3779	3738	3738	3698	3698	3659	3659	0	0	0	0	0	0	0	0	0	0	0	0	0	0	0	0	0	0	0	0	0	0	0	0	0	0	0	0	0	0	0	0	0	0	0	0	0	0	0	0	0	0	0	0	0	0	0	0	0	0	0	0	0	0	0	0	0	0
0	0	0	0	0	0	0	0	0	0	0	0	1915	1915	1904	1904	1904	1904	1904	1904	1904	1915	1904	1904	1904	1904	1904	1904	1904	1904	1904	1894	1883	1883	1883	1883	1873	1873	1883	1883	1873	1883	1873	1873	1873	1883	1883	1883	1904	1915	1925	1915	1925	1936	1958	1958	2514	2514	2514	2496	2514	2514	2496	2496	2496	2496	2496	2496	2496	2496	2496	2496	2496	2514	2514	2514	2514	2514	2496	2496	2496	2496	2496	2496	2496	2496	2496	2478	2478	2496	2478	2478	2496	2496	2496	2514	2496	2514	2514	2514	2514	2514	2514	2514	2496	2496	2478	2478	2496	2496	2496	2496	2514	2532	2551	2551	0	3546	3583	3546	3546	3546	3621	3621	3621	3621	3659	3659	3659	3659	3659	3621	3621	3621	3621	3621	3583	3583	3621	3583	3583	3583	3583	3546	3583	3583	3583	3583	3621	3621	3659	3659	3659	3659	3659	3621	3621	3659	3621	3621	3621	3621	3621	3659	3621	3621	3659	3659	3659	3698	3698	3659	3659	3659	3621	3659	3659	3659	3659	3698	3659	3698	3698	3698	3698	3698	3738	3738	3738	3698	3738	3738	3698	3698	3738	3698	3738	3698	3738	3698	3698	3698	3698	3698	3698	3659	3698	3698	3698	3698	3698	3698	3698	3698	3698	3698	3698	3698	3698	3698	3698	3659	3659	3659	3659	3659	3659	3659	3659	3659	3659	3659	3659	3698	3698	3698	3698	3698	3698	3698	3698	3659	3698	3698	3659	3659	3659	3698	3698	3698	3738	3738	3738	3698	3698	3698	3698	3698	3698	3698	3698	3738	3738	3738	3738	3738	3738	3738	3698	3698	3698	3698	3698	3698	3698	3698	3698	3738	3738	3698	3698	3698	3698	3698	3698	3698	3073	3073	3073	3046	3073	3046	3046	3046	3046	3046	3046	3046	3046	3046	3046	3019	3019	3019	3019	3019	3019	3019	3019	3019	3019	3019	3019	3019	3019	3019	3019	2993	3019	3019	3019	3019	3019	3019	3019	3019	3019	3019	3019	3019	3019	3019	3019	3019	3019	3019	2993	2993	2993	2993	2993	2993	2993	2993	2993	2993	2993	2993	2993	2993	2993	2993	2993	2993	2993	3019	3019	3019	3046	3046	3046	3046	3046	3046	3046	3046	3046	3073	3046	3046	3073	3073	3738	3738	3738	3738	3738	3779	3779	3738	3738	3738	3779	3738	3779	3738	3779	3738	3738	3738	3738	3738	3738	3738	3738	3738	3738	3779	3738	3738	3738	3738	3738	3738	3738	3738	3738	3738	3738	3738	3698	3698	3738	3738	3738	3738	3738	3738	3738	3738	3738	3738	3738	3738	3738	3738	3738	3738	3738	3738	3779	3738	3779	3738	3738	3738	3738	3698	3698	3698	3698	3698	3738	3738	3738	3738	3738	3738	3738	3738	3738	3698	3738	3698	3698	3698	3698	3698	3738	3738	3738	3779	3779	3779	3779	3779	3779	3779	3779	3779	3779	3779	3779	3779	3779	3779	3779	3779	3779	3779	3821	3821	3821	3821	3779	3779	3779	3779	3779	3779	3779	3738	3738	3738	3738	3738	3779	3738	3779	3779	3779	3779	3779	3738	3779	3821	3821	3821	3821	3821	3821	3821	3821	3821	3821	3821	3821	3821	3821	3821	3821	3821	3821	3864	3864	3864	3864	3864	3864	3864	3864	3864	3821	3821	3779	3779	3779	3821	3779	3779	3779	3779	3779	3779	3779	3779	3779	3738	3738	3738	3779	3738	3779	3779	3779	3779	3779	3779	3779	3779	3738	3738	3738	3738	3738	3738	3738	3738	3738	3738	3779	3779	3779	3779	3738	3779	3738	3738	3698	3698	3659	3510	3510	0	0	0	0	0	0	0	0	0	0	0	0	0	0	0	0	0	0	0	0	0	0	0	0	0	0	0	0	0	0	0	0	0	0	0	0	0	0	0	0	0	0	0	0	0	0	0	0	0	0	0	0	0	0	0	0	0
0	0	0	0	0	0	0	0	0	0	0	0	1904	1904	1915	1915	1915	1915	1915	1915	1915	1915	1915	1904	1904	1904	1915	1915	1904	1904	1904	1904	1904	1894	1894	1883	1883	1883	1915	1915	1904	1904	1883	1883	1894	1894	1894	1894	1904	1915	1915	1915	1925	1936	1958	1958	2514	2514	2514	2478	2496	2514	2496	2496	2514	2496	2496	2496	2496	2496	2496	2496	2496	2496	2496	2496	2496	2496	2496	2496	2496	2496	2496	2496	2496	2496	2496	2478	2496	2496	2496	2496	2496	2496	2496	2496	2478	2496	2514	2496	2496	2496	2496	2496	2496	2496	2478	2478	2496	2496	2496	2496	2496	2514	2532	2532	0	3546	3583	3546	3546	3583	3621	3621	3621	3621	3659	3659	3659	3621	3621	3621	3621	3621	3621	3621	3583	3583	3621	3621	3621	3621	3621	3621	3621	3621	3621	3621	3621	3621	3621	3621	3621	3621	3621	3621	3621	3621	3621	3621	3621	3621	3659	3659	3621	3659	3698	3659	3659	3698	3698	3698	3659	3659	3659	3659	3659	3659	3659	3698	3659	3698	3698	3698	3698	3738	3738	3738	3738	3738	3779	3738	3698	3738	3738	3738	3738	3698	3698	3698	3698	3698	3698	3698	3698	3659	3659	3659	3698	3698	3698	3698	3698	3698	3698	3698	3698	3698	3698	3659	3659	3659	3659	3659	3659	3659	3659	3659	3659	3659	3659	3659	3698	3698	3698	3698	3698	3698	3698	3698	3698	3698	3698	3698	3698	3698	3659	3698	3698	3698	3698	3738	3738	3698	3698	3698	3698	3698	3698	3698	3698	3738	3738	3738	3698	3738	3738	3738	3698	3698	3698	3698	3698	3698	3698	3698	3698	3698	3698	3698	3698	3698	3698	3698	3698	3073	3073	3073	3073	3046	3073	3046	3046	3046	3046	3046	3046	3046	3046	3046	3046	3019	3019	3019	3019	3019	2993	3019	3019	3019	2993	2993	2993	3019	3019	3019	2993	2993	3019	3019	2993	3019	3019	3019	3019	3019	3019	3019	3019	3019	3019	3019	3019	3019	3019	2993	2993	2993	2993	2993	2993	2993	2993	2993	2993	2993	2993	2993	2993	2993	2993	2993	2993	2993	2993	3019	3019	3019	3046	3019	3046	3046	3019	3046	3046	3046	3046	3046	3046	3046	3046	3046	3738	3738	3738	3738	3738	3779	3779	3738	3738	3738	3779	3738	3738	3738	3779	3738	3738	3738	3738	3738	3738	3738	3738	3738	3738	3738	3738	3698	3738	3738	3738	3738	3738	3698	3738	3738	3738	3738	3698	3779	3779	3779	3738	3738	3738	3738	3738	3738	3738	3738	3738	3738	3738	3738	3738	3738	3779	3738	3779	3779	3738	3738	3738	3698	3698	3698	3698	3659	3698	3738	3738	3738	3779	3779	3779	3738	3738	3738	3738	3738	3738	3738	3738	3738	3738	3738	3738	3779	3779	3779	3779	3821	3779	3779	3779	3779	3738	3738	3738	3738	3738	3779	3779	3779	3779	3779	3779	3779	3821	3779	3821	3779	3779	3779	3779	3779	3779	3779	3738	3738	3738	3738	3738	3779	3779	3779	3779	3779	3779	3779	3738	3738	3738	3821	3779	3821	3821	3821	3821	3821	3821	3821	3821	3821	3821	3821	3821	3821	3821	3821	3821	3821	3864	3864	3864	3864	3864	3821	3821	3821	3821	3821	3779	3779	3779	3779	3779	3779	3779	3779	3779	3779	3779	3779	3779	3738	3738	3738	3738	3738	3738	3779	3738	3738	3779	3779	3779	3779	3738	3738	3738	3738	3738	3738	3738	3738	3738	3738	3779	3738	3738	3738	3738	3779	3738	3738	3698	3738	3738	3738	3510	0	0	0	0	0	0	0	0	0	0	0	0	0	0	0	0	0	0	0	0	0	0	0	0	0	0	0	0	0	0	0	0	0	0	0	0	0	0	0	0	0	0	0	0	0	0	0	0	0	0	0	0	0	0	0	0	0
0	0	0	0	0	0	0	0	0	0	0	0	1904	1904	1904	1904	1925	1925	1925	1925	1925	1925	1915	1915	1904	1915	1915	1915	1915	1904	1904	1904	1904	1915	1904	1904	1904	1904	1915	1915	1915	1904	1894	1904	1904	1904	1904	1904	1915	1915	1915	1925	1925	1936	1958	1969	1969	2514	2496	2478	2496	2514	2496	2514	2514	2514	2514	2514	2496	2496	2514	2496	2496	2496	2496	2496	2496	2496	2496	2496	2496	2496	2496	2496	2496	2514	2496	2496	2496	2496	2496	2496	2496	2496	2496	2496	2478	2496	2496	2496	2478	2496	2496	2496	2496	2478	2478	2478	2496	2496	2496	2478	2478	2532	2532	2532	0	3546	3583	3583	3583	3583	3621	3621	3621	3621	3621	3621	3659	3659	3659	3621	3621	3621	3621	3621	3583	3583	3621	3621	3621	3621	3621	3621	3621	3621	3583	3583	3583	3621	3621	3621	3621	3621	3621	3621	3621	3621	3621	3621	3659	3621	3659	3659	3621	3659	3659	3659	3659	3698	3698	3698	3659	3659	3659	3659	3659	3659	3659	3659	3698	3698	3698	3698	3698	3738	3738	3738	3738	3738	3738	3738	3698	3738	3738	3738	3738	3698	3698	3698	3698	3698	3698	3698	3698	3659	3659	3698	3698	3698	3698	3698	3698	3698	3698	3698	3698	3698	3698	3698	3659	3659	3698	3659	3659	3659	3659	3659	3659	3659	3659	3698	3698	3698	3698	3698	3698	3698	3698	3698	3698	3698	3698	3698	3698	3698	3698	3698	3698	3698	3738	3738	3738	3698	3698	3698	3698	3698	3698	3698	3738	3738	3738	3738	3698	3738	3738	3738	3698	3698	3698	3698	3698	3698	3698	3698	3698	3698	3698	3698	3698	3698	3698	3698	3698	3073	3073	3073	3073	3073	3073	3046	3046	3046	3046	3046	3046	3046	3019	3046	3019	3019	3019	3019	2993	3019	2993	2993	2993	2993	2993	2993	2993	3019	2993	2993	2993	2993	2993	2993	2993	2993	3019	3019	3019	3019	2993	3019	3019	3019	3019	3019	3019	3019	3019	2993	2993	2993	2993	2993	2993	2993	2993	2993	2993	2993	2993	2993	2993	2993	2993	2993	2993	2993	2993	3019	3019	3019	3019	3019	3046	3046	3046	3046	3046	3046	3046	3046	3046	3046	3046	3046	3019	3738	3738	3738	3738	3779	3779	3738	3738	3738	3738	3738	3738	3738	3738	3738	3738	3738	3738	3738	3738	3738	3738	3738	3738	3738	3738	3698	3698	3698	3738	3738	3738	3738	3738	3738	3738	3738	3738	3779	3779	3738	3738	3738	3738	3738	3738	3738	3738	3779	3779	3738	3738	3738	3738	3738	3779	3779	3779	3779	3738	3738	3738	3698	3698	3698	3698	3659	3698	3738	3738	3779	3779	3779	3779	3779	3738	3738	3738	3738	3738	3738	3738	3738	3738	3738	3738	3738	3698	3738	3779	3779	3779	3779	3779	3738	3738	3738	3738	3738	3738	3738	3779	3779	3779	3779	3821	3779	3821	3821	3821	3821	3821	3779	3779	3779	3779	3779	3738	3738	3738	3698	3738	3738	3738	3738	3779	3779	3779	3738	3738	3698	3738	3779	3779	3779	3779	3821	3821	3821	3821	3821	3821	3821	3821	3821	3779	3821	3821	3779	3821	3821	3821	3864	3864	3864	3864	3821	3821	3821	3821	3821	3779	3779	3779	3779	3779	3779	3779	3779	3779	3779	3779	3779	3779	3779	3779	3779	3738	3738	3738	3738	3738	3738	3738	3738	3738	3738	3738	3738	3738	3738	3738	3738	3738	3738	3738	3698	3738	3738	3738	3738	3738	3738	3738	3738	3738	3738	3698	3698	0	0	0	0	0	0	0	0	0	0	0	0	0	0	0	0	0	0	0	0	0	0	0	0	0	0	0	0	0	0	0	0	0	0	0	0	0	0	0	0	0	0	0	0	0	0	0	0	0	0	0	0	0	0	0	0	0	0
0	0	0	0	0	0	0	0	0	0	0	0	1904	1915	1936	1915	1925	1925	1925	1925	1925	1925	1915	1915	1915	1915	1915	1915	1915	1915	1915	1915	1915	1915	1915	1915	1915	1915	1925	1925	1925	1915	1904	1915	1915	1915	1915	1915	1915	1915	1915	1915	1925	1936	1958	1969	1969	2496	2478	2478	2496	2496	2496	2514	2514	2514	2514	2514	2496	2496	2514	2496	2496	2496	2496	2496	2496	2496	2478	2496	2496	2496	2496	2496	2514	2514	2496	2496	2514	2496	2496	2496	2496	2496	2496	2496	2478	2478	2496	2478	2478	2478	2478	2496	2496	2478	2478	2478	2514	2496	2496	2478	2496	2514	2514	2514	0	3583	3583	3583	3583	3583	3659	3621	3621	3621	3621	3621	3621	3621	3621	3621	3621	3621	3621	3583	3583	3583	3583	3583	3583	3583	3621	3621	3621	3583	3583	3583	3583	3621	3621	3583	3583	3583	3621	3583	3621	3621	3583	3583	3583	3621	3621	3659	3621	3659	3659	3659	3659	3659	3659	3698	3659	3659	3659	3659	3659	3659	3659	3659	3659	3698	3659	3659	3659	3698	3698	3698	3698	3698	3738	3738	3698	3738	3698	3698	3738	3698	3698	3698	3698	3698	3698	3698	3698	3698	3659	3698	3698	3698	3698	3698	3698	3698	3698	3698	3698	3698	3698	3698	3698	3698	3698	3698	3698	3698	3698	3698	3698	3698	3698	3698	3698	3698	3698	3698	3698	3698	3698	3698	3698	3698	3698	3698	3698	3698	3698	3698	3698	3698	3738	3738	3738	3698	3698	3698	3698	3698	3698	3698	3738	3738	3738	3738	3738	3698	3738	3738	3738	3698	3698	3698	3698	3698	3698	3698	3698	3698	3698	3698	3698	3698	3698	3698	3698	3101	3073	3073	3073	3073	3073	3046	3046	3046	3046	3046	3046	3019	3019	3019	3019	2993	2993	2993	2993	2993	2967	2993	2993	2993	2993	2993	2993	2993	2993	2993	2993	2993	2993	2993	2993	2993	3019	2993	3019	2993	2993	2993	2993	2993	3019	2993	2993	2993	3019	2993	2993	2967	2993	2993	2993	2993	2993	2993	2993	2993	2993	2993	2993	2993	2993	2993	2993	2993	2993	3019	3019	3019	3019	3019	3046	3046	3019	3046	3046	3046	3046	3046	3046	3046	3046	3046	3019	3019	3738	3738	3738	3779	3779	3779	3738	3738	3738	3738	3738	3738	3738	3738	3698	3698	3738	3738	3738	3738	3738	3738	3738	3738	3738	3698	3738	3738	3738	3738	3738	3738	3738	3738	3738	3738	3738	3779	3779	3779	3738	3738	3738	3738	3738	3738	3738	3779	3738	3738	3738	3738	3738	3738	3779	3779	3779	3779	3738	3738	3738	3698	3698	3698	3698	3698	3698	3738	3738	3779	3779	3779	3779	3779	3779	3738	3738	3738	3738	3738	3738	3738	3738	3738	3738	3738	3738	3738	3738	3779	3779	3779	3738	3738	3738	3738	3738	3738	3738	3779	3738	3779	3779	3779	3779	3779	3821	3779	3821	3779	3779	3779	3779	3738	3738	3738	3738	3738	3738	3738	3738	3738	3738	3738	3779	3779	3738	3738	3738	3738	3738	3779	3779	3779	3779	3821	3821	3821	3821	3779	3821	3779	3821	3821	3779	3821	3821	3779	3821	3821	3821	3821	3864	3864	3864	3821	3821	3821	3821	3779	3779	3779	3779	3779	3779	3779	3779	3779	3779	3779	3779	3779	3779	3779	3738	3779	3738	3738	3738	3738	3738	3738	3738	3738	3779	3738	3738	3738	3738	3738	3738	3738	3738	3738	3738	3738	3779	3738	3738	3738	3738	3738	3738	3738	3698	3698	3698	3698	0	0	0	0	0	0	0	0	0	0	0	0	0	0	0	0	0	0	0	0	0	0	0	0	0	0	0	0	0	0	0	0	0	0	0	0	0	0	0	0	0	0	0	0	0	0	0	0	0	0	0	0	0	0	0	0	0	0
0	0	0	0	0	0	0	0	0	0	0	0	1904	1915	1915	1915	1915	1904	1915	1915	1915	1915	1915	1915	1915	1925	1925	1915	1915	1915	1915	1915	1925	1925	1925	1925	1925	1936	1925	1925	1915	1915	1915	1915	1915	1915	1915	1915	1915	1915	1915	1915	1925	1936	1958	1969	1969	1969	2478	2478	2478	2496	2496	2496	2514	2514	2514	2514	2514	2496	2514	2496	2496	2496	2496	2496	2496	2496	2496	2496	2496	2496	2496	2496	2496	2514	2496	2496	2514	2496	2496	2496	2496	2496	2496	2496	2478	2478	2478	2478	2478	2478	2496	2496	2496	2496	2478	2496	2514	2514	2514	2496	2478	2496	2514	2514	2514	3583	3583	3583	3583	3621	3659	3659	3621	3583	3621	3621	3621	3621	3621	3621	3621	3621	3583	3583	3583	3546	3546	3546	3546	3583	3621	3583	3621	3621	3621	3583	3583	3583	3583	3583	3583	3621	3621	3621	3621	3621	3621	3583	3621	3583	3583	3659	3659	3659	3659	3659	3659	3659	3698	3698	3659	3659	3659	3659	3659	3659	3659	3659	3659	3659	3659	3659	3659	3698	3698	3698	3698	3698	3738	3738	3698	3698	3698	3698	3698	3698	3698	3698	3698	3698	3698	3698	3698	3698	3698	3698	3698	3698	3698	3698	3698	3698	3698	3698	3698	3698	3659	3659	3698	3698	3698	3698	3698	3698	3698	3698	3698	3698	3698	3698	3698	3698	3698	3698	3698	3698	3698	3698	3698	3698	3698	3698	3698	3698	3698	3698	3698	3698	3738	3738	3738	3698	3698	3698	3698	3698	3698	3698	3738	3738	3738	3738	3738	3738	3738	3738	3738	3698	3698	3698	3698	3698	3698	3698	3698	3698	3698	3698	3698	3698	3698	3698	3073	3073	3073	3073	3073	3073	3073	3046	3046	3046	3046	3046	3019	3019	3019	3019	3019	2993	2993	2993	2993	2993	2967	2993	2993	2993	2993	2967	2967	2993	2993	2993	2993	2993	2993	2993	2993	2993	3019	2993	2993	2993	2993	2993	2993	2993	3019	2993	2993	2993	2993	2993	2993	2967	2967	2967	2993	2967	2993	2993	2993	2993	2993	2993	2993	2993	2993	2993	2993	2993	2993	2993	3019	3019	3019	3019	3019	3046	3019	3019	3019	3019	3046	3046	3046	3073	3046	3046	3019	3019	3738	3738	3738	3779	3779	3779	3779	3738	3738	3738	3738	3698	3698	3698	3698	3698	3738	3738	3738	3698	3738	3738	3738	3738	3698	3698	3738	3738	3738	3738	3698	3698	3738	3738	3738	3738	3738	3779	3779	3738	3738	3738	3738	3779	3779	3779	3779	3779	3738	3738	3738	3738	3738	3738	3738	3738	3738	3779	3738	3738	3738	3738	3698	3698	3698	3698	3698	3738	3779	3779	3779	3779	3779	3779	3779	3738	3738	3738	3738	3738	3738	3738	3738	3738	3738	3738	3738	3738	3779	3779	3779	3738	3738	3738	3698	3698	3738	3738	3738	3779	3779	3779	3779	3779	3779	3779	3779	3779	3779	3779	3779	3779	3779	3738	3738	3738	3738	3738	3738	3738	3738	3738	3738	3738	3738	3738	3738	3738	3738	3738	3738	3738	3779	3821	3821	3821	3821	3821	3821	3779	3821	3779	3821	3821	3779	3821	3821	3821	3821	3821	3821	3821	3821	3864	3821	3821	3821	3821	3821	3779	3779	3779	3779	3779	3738	3738	3738	3779	3779	3779	3779	3779	3779	3779	3738	3779	3738	3738	3738	3738	3738	3738	3738	3738	3738	3738	3738	3738	3738	3738	3738	3738	3738	3738	3738	3738	3779	3779	3738	3738	3738	3738	3738	3698	3698	3698	3659	3659	0	0	0	0	0	0	0	0	0	0	0	0	0	0	0	0	0	0	0	0	0	0	0	0	0	0	0	0	0	0	0	0	0	0	0	0	0	0	0	0	0	0	0	0	0	0	0	0	0	0	0	0	0	0	0	0	0	0
0	0	0	0	0	0	0	0	0	0	0	0	1915	1915	1936	1936	1936	1936	1936	1936	1936	1947	1947	1947	1947	1947	1947	1947	1925	1925	1915	1925	1936	1936	1925	1936	1947	1947	1936	1936	1936	1936	1925	1925	1936	1936	1925	1925	1925	1925	1925	1925	1925	1947	1958	1969	1969	1969	2478	2478	2478	2496	2496	2496	2514	2514	2514	2514	2514	2496	2532	2496	2496	2496	2478	2496	2478	2496	2496	2496	2496	2496	2496	2496	2496	2496	2496	2496	2496	2496	2496	2496	2496	2496	2496	2496	2478	2478	2478	2478	2478	2478	2478	2496	2496	2478	2478	2478	2496	2496	2496	2478	2478	2478	2496	2514	2514	0	3583	3583	3583	3583	3621	3621	3621	3583	3583	3583	3583	3621	3621	3621	3621	3621	3621	3621	3583	3546	3546	3546	3546	3583	3621	3621	3621	3621	3621	3583	3621	3621	3621	3583	3583	3621	3621	3621	3621	3621	3621	3583	3583	3583	3583	3583	3583	3659	3621	3659	3659	3659	3659	3659	3659	3659	3659	3659	3659	3659	3659	3659	3659	3659	3659	3698	3659	3698	3698	3738	3738	3698	3738	3738	3698	3698	3698	3698	3698	3698	3698	3698	3698	3698	3698	3698	3698	3698	3698	3698	3698	3698	3698	3698	3698	3698	3698	3698	3698	3698	3659	3659	3659	3698	3698	3698	3698	3698	3698	3698	3698	3698	3698	3698	3698	3698	3698	3698	3698	3698	3698	3698	3698	3698	3698	3698	3698	3698	3698	3698	3698	3698	3738	3738	3738	3698	3698	3698	3698	3698	3698	3698	3738	3738	3698	3698	3738	3698	3698	3738	3738	3738	3698	3698	3698	3698	3698	3698	3698	3698	3698	3698	3698	3698	3698	3698	3073	3073	3073	3073	3073	3073	3046	3046	3046	3046	3046	3019	3019	3019	3019	3019	3019	2993	2967	2967	2967	2967	2967	2967	2967	2967	2967	2967	2967	2993	2993	2993	2993	2993	2993	2993	2993	2993	2993	2993	2993	2993	2993	2993	2993	2993	2993	2993	2993	2993	2993	2993	2993	2967	2967	2967	2967	2967	2967	2967	2993	2993	2993	2993	2993	2993	2993	2993	2993	2993	2993	2993	3019	3019	3019	3019	3019	3046	3019	3046	3019	3019	3046	3046	3046	3046	3046	3046	3019	2993	2993	3738	3738	3779	3779	3779	3779	3738	3738	3698	3698	3698	3698	3698	3698	3698	3738	3738	3738	3738	3738	3738	3738	3738	3738	3698	3738	3738	3738	3698	3698	3698	3738	3738	3738	3738	3779	3779	3779	3779	3779	3779	3738	3779	3779	3779	3779	3779	3738	3738	3738	3738	3738	3738	3738	3738	3779	3738	3738	3738	3738	3738	3698	3698	3698	3698	3698	3738	3738	3779	3779	3779	3779	3779	3779	3779	3779	3738	3738	3738	3738	3738	3738	3738	3738	3738	3738	3738	3738	3738	3738	3738	3738	3738	3698	3698	3698	3698	3738	3738	3738	3779	3779	3779	3779	3738	3779	3738	3779	3738	3779	3738	3738	3738	3738	3738	3738	3738	3738	3738	3738	3738	3738	3738	3738	3738	3738	3698	3698	3738	3738	3779	3779	3779	3779	3779	3821	3821	3821	3779	3821	3821	3821	3821	3821	3821	3821	3821	3821	3821	3821	3821	3821	3821	3821	3821	3821	3821	3821	3779	3779	3779	3779	3779	3738	3779	3738	3779	3779	3779	3779	3779	3779	3779	3738	3779	3738	3738	3738	3738	3738	3738	3738	3738	3779	3779	3738	3738	3738	3738	3738	3738	3738	3738	3738	3738	3779	3738	3738	3738	3738	3779	3738	3738	3738	3738	3698	3698	0	0	0	0	0	0	0	0	0	0	0	0	0	0	0	0	0	0	0	0	0	0	0	0	0	0	0	0	0	0	0	0	0	0	0	0	0	0	0	0	0	0	0	0	0	0	0	0	0	0	0	0	0	0	0	0	0	0
0	0	0	0	0	0	0	0	0	0	0	0	1915	1925	1936	1925	1925	1925	1947	1947	1958	1958	1958	1958	1958	1936	1936	1936	1936	1925	1925	1925	1936	1936	1936	1936	1947	1947	1947	1936	1936	1936	1936	1936	1936	1936	1936	1936	1936	1925	1925	1925	1936	1947	1958	1958	1969	1980	1980	1980	2478	2478	2478	2478	2514	2514	2514	2514	2514	2514	2514	2496	2532	2496	2496	2496	2478	2496	2496	2496	2496	2496	2496	2496	2496	2496	2478	2478	2496	2496	2496	2496	2496	2496	2496	2496	2478	2478	2478	2460	2460	2460	2478	2496	2496	2478	2478	2496	2496	2496	2496	2478	2478	2496	2496	2496	2496	0	3583	3583	3583	3583	3621	3621	3621	3583	3583	3583	3621	3621	3621	3621	3621	3621	3621	3621	3583	3583	3546	3546	3583	3621	3621	3621	3621	3621	3621	3583	3621	3583	3621	3583	3583	3583	3583	3583	3621	3583	3583	3583	3583	3583	3583	3583	3659	3659	3621	3659	3659	3659	3659	3659	3659	3659	3659	3659	3659	3659	3659	3659	3659	3659	3659	3659	3659	3659	3698	3698	3698	3698	3698	3698	3698	3698	3698	3698	3698	3698	3698	3698	3698	3698	3698	3698	3698	3698	3698	3698	3698	3698	3698	3698	3698	3698	3698	3659	3698	3698	3659	3659	3698	3698	3698	3698	3698	3698	3698	3698	3698	3698	3698	3698	3698	3698	3698	3698	3698	3698	3698	3698	3698	3698	3698	3698	3698	3698	3698	3698	3698	3698	3738	3738	3738	3698	3698	3698	3698	3738	3738	3698	3738	3738	3698	3698	3698	3698	3698	3698	3738	3698	3698	3698	3698	3698	3698	3698	3698	3698	3698	3698	3698	3698	3698	3698	3101	3073	3073	3073	3073	3073	3046	3046	3046	3046	3019	3019	3019	2993	2993	2993	2993	2967	2967	2967	2967	2967	2967	2967	2967	2967	2967	2967	2967	2993	2993	2993	2993	2993	2993	2993	2993	2993	2993	2993	2993	2993	2993	2967	2993	2993	2993	2993	2993	2993	2993	2993	2993	2967	2967	2967	2967	2967	2967	2967	2967	2967	2967	2993	2993	2993	2993	2993	2993	2993	2993	2993	3019	3019	3019	3019	3019	3019	3019	3046	3046	3019	3046	3046	3046	3046	3046	3046	3019	3019	3779	3738	3738	3779	3779	3779	3779	3738	3738	3698	3738	3698	3698	3698	3698	3698	3738	3738	3738	3738	3738	3738	3738	3738	3738	3698	3738	3738	3738	3738	3698	3698	3698	3738	3738	3738	3779	3779	3779	3779	3779	3779	3738	3779	3779	3738	3738	3738	3698	3698	3698	3698	3738	3738	3738	3738	3779	3738	3738	3738	3738	3738	3738	3698	3698	3698	3698	3738	3738	3779	3779	3779	3779	3779	3779	3779	3738	3738	3738	3738	3779	3738	3738	3738	3738	3738	3779	3738	3698	3698	3738	3698	3698	3738	3698	3698	3698	3698	3698	3738	3738	3779	3738	3779	3738	3738	3779	3738	3738	3738	3738	3738	3738	3738	3738	3738	3738	3738	3738	3738	3738	3779	3738	3779	3738	3738	3738	3698	3738	3738	3738	3779	3779	3779	3779	3821	3821	3821	3821	3779	3821	3821	3821	3779	3779	3821	3821	3821	3821	3821	3821	3821	3821	3821	3821	3821	3821	3821	3821	3821	3779	3779	3779	3779	3779	3779	3779	3779	3779	3779	3738	3779	3779	3779	3738	3738	3738	3738	3738	3738	3738	3738	3738	3738	3779	3738	3738	3738	3738	3738	3738	3738	3738	3738	3738	3738	3779	3738	3738	3738	3738	3738	3738	3738	3738	3738	3738	3698	0	0	0	0	0	0	0	0	0	0	0	0	0	0	0	0	0	0	0	0	0	0	0	0	0	0	0	0	0	0	0	0	0	0	0	0	0	0	0	0	0	0	0	0	0	0	0	0	0	0	0	0	0	0	0	0	0	0
0	0	0	0	0	0	0	0	0	0	0	0	1925	1925	1936	1947	1947	1947	1958	1958	1958	1958	1958	1958	1958	1947	1947	1958	1958	1936	1936	1936	1936	1947	1936	1947	1947	1947	1947	1947	1947	1947	1947	1947	1947	1947	1947	1947	1947	1947	1936	1947	1947	1947	1958	1969	1969	1969	1969	1980	2460	2478	2478	2460	2514	2514	2514	2514	2514	2514	2514	2496	2496	2496	2496	2496	2496	2496	2496	2496	2496	2496	2496	2496	2496	2496	2496	2496	2496	2496	2496	2496	2496	2496	2496	2478	2478	2478	2478	2460	2460	2460	2478	2478	2478	2478	2478	2478	2496	2496	2496	2478	2496	2496	2496	2514	2514	0	3583	3583	3583	3583	3621	3621	3621	3583	3583	3583	3583	3621	3621	3621	3621	3621	3583	3621	3583	3546	3546	3546	3621	3621	3621	3621	3621	3621	3621	3621	3621	3621	3621	3621	3621	3583	3621	3583	3621	3583	3583	3583	3583	3583	3583	3583	3659	3621	3621	3621	3659	3659	3659	3659	3659	3659	3659	3659	3659	3659	3659	3659	3659	3659	3659	3659	3698	3659	3698	3738	3698	3698	3738	3738	3698	3698	3698	3698	3698	3698	3698	3698	3698	3698	3698	3698	3698	3698	3698	3698	3698	3698	3698	3698	3698	3698	3698	3659	3698	3659	3698	3698	3698	3698	3698	3698	3698	3698	3698	3698	3698	3698	3698	3698	3698	3698	3698	3698	3698	3698	3698	3698	3698	3698	3698	3698	3698	3698	3698	3698	3698	3698	3738	3738	3738	3698	3698	3698	3698	3738	3738	3698	3738	3738	3698	3698	3738	3698	3698	3698	3738	3698	3698	3698	3698	3698	3698	3698	3698	3698	3698	3698	3698	3698	3698	3073	3073	3073	3073	3073	3073	3073	3046	3046	3019	3046	3019	3019	2993	2993	2993	2993	2993	2993	2993	2967	2967	2967	2967	2967	2967	2967	2967	2967	2967	2993	2993	2993	2993	2993	2993	2993	2993	2993	2993	2993	2993	2993	2993	2967	2967	2967	2967	2993	2993	2993	2993	2993	2993	2967	2967	2967	2967	2967	2967	2967	2967	2967	2967	2993	2993	2993	2993	2993	2993	2993	2993	2993	3019	3019	3019	3019	3019	3019	3019	3019	3019	3019	3046	3046	3046	3046	3046	3046	3046	3046	3779	3779	3738	3738	3779	3779	3779	3779	3738	3738	3738	3738	3738	3738	3738	3738	3738	3738	3738	3738	3738	3738	3738	3738	3738	3738	3738	3738	3738	3698	3698	3698	3738	3738	3738	3738	3779	3779	3779	3779	3779	3779	3779	3779	3779	3738	3738	3738	3738	3659	3659	3659	3738	3738	3698	3738	3779	3738	3738	3698	3698	3738	3698	3698	3698	3698	3698	3738	3779	3779	3779	3779	3779	3779	3779	3779	3779	3779	3779	3779	3779	3738	3779	3779	3738	3738	3738	3738	3738	3738	3738	3698	3698	3698	3698	3698	3698	3698	3698	3738	3738	3738	3738	3738	3738	3779	3779	3779	3738	3738	3738	3738	3738	3738	3738	3738	3738	3738	3738	3738	3738	3738	3738	3738	3738	3738	3738	3698	3698	3738	3738	3779	3779	3779	3779	3821	3821	3821	3821	3779	3779	3779	3821	3821	3821	3821	3821	3821	3821	3821	3821	3821	3821	3821	3821	3821	3821	3821	3821	3779	3779	3779	3779	3779	3738	3779	3738	3779	3738	3738	3738	3738	3779	3779	3738	3738	3738	3738	3738	3738	3738	3738	3738	3738	3779	3738	3738	3738	3738	3738	3738	3738	3738	3738	3738	3738	3779	3738	3738	3738	3738	3779	3779	3738	3738	3698	3698	0	0	0	0	0	0	0	0	0	0	0	0	0	0	0	0	0	0	0	0	0	0	0	0	0	0	0	0	0	0	0	0	0	0	0	0	0	0	0	0	0	0	0	0	0	0	0	0	0	0	0	0	0	0	0	0	0	0	0
0	0	0	0	0	0	0	0	0	0	0	0	1925	1936	1947	1958	1958	1958	1958	1958	1958	1958	1958	1958	1958	1969	1947	1958	1958	1947	1947	1947	1947	1947	1947	1947	1947	1947	1958	1947	1947	1958	1958	1958	1958	1958	1958	1958	1969	1958	1958	1958	1958	1958	1958	1969	1969	1969	1969	1980	1980	2478	2478	2478	2532	2532	2514	2532	2514	2514	2514	2532	2532	2496	2496	2496	2496	2514	2496	2496	2496	2496	2496	2496	2478	2478	2496	2496	2496	2496	2496	2496	2496	2496	2496	2478	2478	2478	2478	2460	2460	2460	2478	2478	2478	2478	2478	2478	2496	2478	2496	2478	2496	2496	2514	2514	2514	2514	3583	3546	3583	3583	3621	3621	3621	3621	3583	3583	3583	3621	3621	3621	3621	3621	3621	3621	3621	3621	3621	3583	3621	3621	3621	3621	3621	3621	3621	3583	3621	3621	3621	3583	3621	3621	3621	3621	3621	3621	3621	3583	3621	3621	3583	3621	3621	3621	3621	3659	3659	3659	3659	3659	3659	3659	3659	3659	3698	3659	3659	3659	3659	3659	3659	3659	3659	3659	3698	3698	3698	3698	3698	3738	3698	3698	3698	3698	3698	3698	3698	3698	3698	3698	3698	3698	3698	3698	3698	3698	3698	3698	3698	3698	3698	3698	3698	3659	3659	3698	3659	3659	3698	3698	3698	3698	3698	3698	3698	3698	3698	3698	3698	3698	3698	3698	3698	3698	3698	3698	3659	3659	3698	3659	3659	3659	3659	3698	3698	3698	3698	3698	3738	3738	3738	3698	3698	3698	3698	3738	3738	3698	3738	3738	3738	3738	3738	3698	3738	3738	3738	3698	3698	3698	3698	3698	3698	3698	3698	3698	3698	3698	3698	3698	3073	3073	3073	3073	3073	3073	3073	3073	3046	3046	3019	3046	3019	3019	3019	3019	3019	3019	3019	2993	2993	2967	2967	2967	2967	2967	2967	2967	2967	2967	2967	2993	2993	2993	2993	2993	3019	2993	2993	2993	2993	2993	2993	2967	2967	2967	2967	2967	2967	2967	2993	2993	2993	2993	2967	2967	2967	2967	2967	2967	2967	2967	2967	2967	2967	2967	2993	2993	2993	2993	2993	2993	2993	2993	2993	3019	3019	3019	3019	3019	3019	3046	3019	3046	3046	3046	3046	3073	3073	3046	3073	3073	3073	3779	3738	3779	3779	3779	3779	3779	3738	3738	3738	3738	3738	3738	3738	3738	3738	3738	3738	3738	3738	3738	3738	3738	3738	3738	3738	3738	3738	3698	3698	3698	3738	3738	3738	3738	3738	3779	3779	3738	3738	3738	3738	3738	3738	3738	3738	3738	3698	3698	3659	3659	3738	3738	3738	3738	3738	3738	3738	3698	3698	3698	3698	3698	3698	3698	3698	3738	3779	3779	3779	3779	3779	3779	3779	3779	3779	3779	3779	3779	3779	3738	3779	3738	3738	3738	3738	3698	3738	3698	3698	3698	3698	3698	3698	3698	3698	3698	3698	3738	3738	3738	3738	3738	3738	3738	3779	3738	3738	3738	3738	3738	3738	3698	3698	3738	3738	3738	3738	3738	3738	3738	3738	3738	3738	3698	3738	3698	3738	3738	3738	3779	3779	3779	3779	3779	3779	3779	3779	3779	3779	3821	3821	3821	3821	3821	3821	3821	3821	3821	3821	3821	3821	3821	3821	3779	3821	3779	3821	3821	3779	3779	3779	3738	3738	3738	3738	3738	3738	3738	3738	3738	3738	3779	3738	3738	3738	3738	3738	3738	3738	3738	3738	3738	3779	3738	3738	3738	3738	3738	3738	3738	3738	3738	3738	3738	3779	3779	3779	3779	3779	3779	3779	3738	3738	3698	3698	0	0	0	0	0	0	0	0	0	0	0	0	0	0	0	0	0	0	0	0	0	0	0	0	0	0	0	0	0	0	0	0	0	0	0	0	0	0	0	0	0	0	0	0	0	0	0	0	0	0	0	0	0	0	0	0	0	0	0
0	0	0	0	0	0	0	0	0	0	0	0	1936	1947	1947	1969	1980	1980	1969	1969	1969	1980	1969	1969	1958	1958	1958	1958	1958	1958	1958	1958	1958	1958	1958	1958	1958	1958	1958	1958	1958	1958	1958	1958	1958	1969	1969	1980	1980	1969	1958	1969	1958	1958	1969	1969	1969	1980	1980	1980	1980	0	2460	2460	2496	2532	2514	2532	2514	2514	2514	2514	2514	2514	2496	2496	2496	2514	2496	2496	2478	2478	2478	2478	2478	2478	2478	2478	2478	2496	2496	2496	2496	2496	2496	2478	2478	2478	2478	2460	2460	2460	2478	2478	2478	2478	2478	2496	2496	2496	2496	2496	2496	2532	2532	2532	2551	2551	0	3546	3546	3546	3621	3621	3621	3621	3583	3583	3583	3621	3621	3621	3621	3621	3621	3621	3621	3621	3621	3583	3583	3621	3621	3621	3621	3621	3621	3583	3621	3621	3621	3583	3621	3621	3621	3621	3621	3621	3621	3621	3621	3621	3621	3621	3621	3621	3621	3621	3659	3659	3659	3659	3659	3659	3659	3659	3659	3659	3659	3659	3659	3659	3659	3659	3659	3659	3698	3698	3698	3698	3698	3738	3698	3698	3698	3698	3698	3698	3698	3698	3698	3698	3698	3698	3698	3698	3698	3698	3698	3698	3698	3698	3698	3698	3698	3659	3659	3698	3659	3659	3659	3698	3698	3698	3698	3698	3698	3698	3698	3698	3698	3659	3659	3659	3659	3659	3659	3659	3659	3659	3659	3659	3659	3659	3659	3698	3698	3698	3698	3698	3738	3698	3698	3698	3698	3698	3698	3738	3738	3738	3698	3698	3698	3698	3698	3698	3698	3698	3698	3698	3698	3698	3698	3698	3698	3698	3698	3698	3698	3698	3698	3046	3073	3073	3073	3073	3073	3073	3073	3073	3046	3046	3019	3046	3019	3019	3019	3019	3019	3019	3019	3019	2993	2967	2967	2967	2967	2967	2967	2967	2967	2967	2967	2993	2993	2993	2993	2993	2993	2993	2993	2993	2993	2993	2993	2967	2967	2967	2967	2967	2967	2967	2993	2993	2993	2993	2993	2967	2967	2967	2967	2967	2967	2967	2967	2967	2967	2967	2967	2993	2993	2993	2993	2993	3019	2993	3019	3019	3019	3019	3019	3019	3046	3046	3019	3046	3046	3046	3046	3073	3073	3073	3101	3073	3073	3779	3779	3779	3779	3779	3779	3779	3738	3738	3738	3738	3738	3738	3738	3738	3738	3738	3738	3738	3738	3738	3779	3779	3779	3738	3738	3738	3738	3738	3738	3698	3698	3698	3738	3738	3738	3738	3738	3738	3738	3738	3738	3738	3738	3738	3698	3698	3698	3659	3659	3698	3698	3738	3738	3738	3738	3738	3738	3698	3698	3698	3698	3698	3698	3698	3698	3779	3779	3779	3779	3779	3779	3779	3779	3779	3779	3779	3779	3779	3779	3738	3738	3738	3738	3738	3738	3738	3738	3738	3738	3698	3738	3738	3698	3698	3698	3698	3698	3738	3738	3738	3738	3738	3738	3738	3779	3738	3738	3738	3738	3738	3738	3698	3698	3738	3738	3738	3738	3738	3779	3779	3779	3779	3738	3738	3738	3738	3738	3738	3738	3779	3779	3779	3779	3779	3779	3779	3779	3779	3779	3821	3821	3821	3821	3821	3821	3821	3821	3821	3821	3821	3821	3821	3821	3821	3821	3821	3821	3821	3821	3779	3779	3738	3738	3738	3738	3738	3738	3738	3738	3738	3738	3779	3738	3738	3738	3738	3738	3738	3738	3738	3738	3738	3779	3738	3738	3738	3738	3738	3779	3738	3779	3738	3738	3738	3779	3779	3779	3779	3738	3738	3779	3738	3738	3698	3698	3698	0	0	0	0	0	0	0	0	0	0	0	0	0	0	0	0	0	0	0	0	0	0	0	0	0	0	0	0	0	0	0	0	0	0	0	0	0	0	0	0	0	0	0	0	0	0	0	0	0	0	0	0	0	0	0	0	0	0
0	0	0	0	0	0	0	0	0	0	0	0	1936	1947	1992	1992	1992	2003	2003	1992	1992	2003	1992	1969	1969	1992	1992	1980	1969	1958	1958	1969	1980	1969	1980	1980	1969	1969	1969	1969	1980	1969	1969	1969	1969	1980	1980	1980	1992	1980	1980	1980	1969	1969	1969	1980	1980	1980	1980	1980	1992	1992	1992	2460	2460	2478	2496	2532	2514	2514	2514	2496	2496	2496	2496	2496	2478	2478	2496	2496	2496	2478	2478	2478	2478	2478	2478	2478	2478	2478	2478	2478	2496	2496	2496	2478	2478	2478	2478	2478	2460	2478	2478	2478	2478	2478	2496	2496	2496	2496	2496	2496	2514	2532	2532	2551	2551	2551	3510	3546	3546	3546	3621	3621	3621	3621	3583	3583	3583	3621	3621	3621	3621	3621	3621	3583	3621	3583	3583	3583	3583	3621	3621	3621	3621	3621	3583	3583	3621	3621	3621	3621	3621	3621	3621	3621	3621	3621	3621	3621	3621	3621	3621	3621	3621	3621	3621	3659	3659	3659	3659	3659	3659	3659	3659	3659	3659	3659	3659	3659	3659	3659	3659	3659	3659	3659	3659	3698	3698	3698	3738	3738	3698	3698	3659	3698	3698	3698	3698	3698	3698	3698	3698	3698	3698	3698	3698	3698	3698	3698	3698	3698	3698	3698	3698	3659	3698	3698	3659	3659	3698	3698	3698	3659	3659	3698	3698	3698	3659	3659	3659	3659	3659	3659	3659	3659	3659	3659	3659	3659	3659	3659	3659	3659	3659	3698	3698	3698	3698	3698	3698	3698	3698	3738	3698	3698	3698	3698	3698	3698	3698	3698	3698	3698	3698	3698	3698	3698	3698	3698	3698	3698	3698	3698	3698	3698	3698	3698	3698	3698	3698	3073	3073	3073	3073	3046	3073	3073	3046	3073	3046	3046	3019	3019	3019	3019	3019	3019	3019	3019	3019	3019	2993	2967	2967	2967	2967	2967	2967	2967	2967	2967	2967	2993	2993	2993	2993	2993	2993	2993	2993	2993	2993	2993	2993	2967	2967	2967	2967	2967	2967	2993	2993	2993	2993	2993	2967	2967	2967	2967	2967	2967	2967	2967	2967	2967	2967	2967	2967	2967	2993	2993	2993	2993	2993	2993	2993	3019	3019	3019	3019	3019	3046	3019	3019	3046	3046	3073	3101	3073	3073	3073	3101	3073	3073	3779	3779	3779	3779	3779	3779	3779	3738	3738	3738	3738	3738	3738	3738	3738	3738	3738	3738	3738	3738	3738	3738	3738	3779	3738	3738	3738	3738	3738	3738	3698	3738	3698	3698	3738	3738	3738	3738	3738	3738	3738	3738	3738	3738	3738	3738	3698	3698	3698	3659	3698	3698	3698	3698	3698	3698	3738	3698	3698	3698	3698	3698	3738	3698	3738	3738	3779	3779	3779	3779	3779	3779	3779	3779	3779	3779	3738	3738	3738	3738	3738	3738	3738	3779	3738	3738	3738	3779	3738	3738	3738	3738	3738	3698	3698	3698	3698	3698	3738	3738	3738	3738	3738	3738	3738	3738	3738	3738	3738	3698	3698	3698	3698	3698	3738	3738	3738	3738	3738	3779	3779	3779	3779	3738	3738	3738	3738	3738	3738	3738	3779	3779	3779	3779	3779	3738	3779	3738	3779	3779	3779	3779	3779	3821	3821	3821	3821	3821	3821	3821	3821	3779	3779	3821	3821	3821	3821	3821	3821	3821	3779	3779	3779	3779	3779	3738	3738	3738	3738	3738	3738	3738	3738	3738	3738	3738	3738	3738	3738	3738	3738	3738	3738	3779	3738	3738	3738	3738	3779	3779	3738	3779	3738	3738	3738	3779	3779	3779	3779	3779	3738	3779	3738	3738	3698	3698	3698	0	0	0	0	0	0	0	0	0	0	0	0	0	0	0	0	0	0	0	0	0	0	0	0	0	0	0	0	0	0	0	0	0	0	0	0	0	0	0	0	0	0	0	0	0	0	0	0	0	0	0	0	0	0	0	0	0	0
