0	0	0	0	0	0	0	1153	1153	1153	1157	1157	1157	0	0	0	0	0	0	0	0	0	0	0	0	0	0	0	0	0	0	0	0	0	0	0	0	0	0	0	0	0	0	0	0	0	0	0	0	0	0	0	0	0	0	0	0	0	0	0	0	0	0	0	0	0	0	0	0	0	0	0	0	0	0	0	1750	1750	1750	1750	1750	1759	1759	1777	1777	1786	1795	1814	1824	1824	1833	1843	1853	1853	1873	1894	1894	1894	1904	1915	1925	1936	1947	1947	1947	1947	5202	5125	5125	4771	4706	4643	4643	4581	4581	4581	4581	4581	4581	4581	4643	4643	4581	4581	4581	4581	4581	4581	4581	4581	4581	4581	4581	4643	4643	4643	4643	4643	4706	4643	4643	4643	4643	4643	4643	4643	4643	4643	4643	4643	4643	4643	4643	4643	4643	4643	4643	4643	4643	4643	4643	4643	4643	4643	4643	4643	4643	4643	4643	4643	4643	4643	4643	4643	4643	4706	4706	4706	4706	4706	4706	4706	4706	4706	4706	4706	4706	4706	4706	4706	4706	4706	4706	4706	4771	4706	4706	4706	4706	4706	4706	4706	4771	4771	4771	4771	4706	4706	4771	4706	4706	4706	4706	4706	4706	4706	4706	4706	4706	4706	4706	4706	4706	4706	4706	4706	4706	4706	4706	4706	4706	4706	4706	4706	4706	4706	4706	4706	4706	4706	3309	3277	3277	3277	3277	3277	3277	3277	3277	3277	3277	3277	3246	3246	3277	3246	3246	3246	3216	3216	3216	3216	3216	3216	3216	3216	3186	3186	3186	3157	3186	3216	3186	3186	3186	3186	3216	3186	3186	0	3277	3246	3246	3246	3246	3216	3186	3186	3216	3216	3186	3186	3186	3186	3186	3186	3186	3186	3216	3216	3186	3186	3186	3186	3186	3216	3216	3216	3246	3277	3277	3277	3277	3309	3341	3309	3309	3309	3309	3309	3309	3309	3277	3277	3277	4463	4463	4463	4463	4463	4463	4463	4463	4521	4521	4521	4521	4521	4521	4521	4521	4581	4521	4581	4463	4463	4406	4463	4463	4463	4463	4463	4463	4463	4521	4521	4521	4463	4463	4521	4521	4463	4463	4463	4406	4463	4463	4463	4463	4406	4406	4463	4521	4521	4521	4521	4521	4521	4521	4463	4406	4350	4350	4296	4296	4296	4296	4296	4296	4296	4296	4296	4296	4296	4296	4296	4296	4296	4296	4296	4296	4296	4296	4296	4296	4296	4296	4296	4296	4296	4296	4296	4296	4296	4296	4296	4296	4296	4296	4296	4296	4296	4296	4296	4296	4296	4296	4296	4296	4296	4296	4296	4243	4243	4296	4296	4296	4296	4296	4296	4296	4296	4296	4350	4406	4406	4463	4463	4521	4521	4581	4581	4521	4521	4581	3341	3309	3309	3277	3246	3246	3186	3186	3216	3157	3129	3129	3129	3129	3129	3101	3129	3101	3101	3101	3101	3101	3073	3073	3073	3073	3073	3073	3101	3101	3101	3101	3101	3101	3101	3101	3101	3101	3073	3073	3073	3073	3101	3073	3073	3073	3073	3046	3046	3019	3019	3019	3019	2993	2993	2993	2993	2993	2967	2967	2942	2967	2967	2967	2967	2967	2967	3019	2993	2993	0	0	0	0	0	0	0	0	0	0	0	0	0	0	0	0	0	0	0	0	0	0	0	0	0	0	0	0	0	0	0	0	0	0	0	0	0	0	0	0	0	0	0	0	0	0	0	0	0	0	0	0	0	0	0	0	0	0	0	0	0	0	0	0	0	0	0	0	0	0	0	0	0	0	0	0	0	0	0	0	0	0	0	0	0	0	0	0	0	0	0	0	0	0	0	0	0	0	0	0	0	0	0	0	0	0	0	0	0	0	0	0	0	0	0
0	0	0	0	0	0	0	1153	1153	1157	1157	1157	1157	1157	0	0	0	0	0	0	0	0	0	0	0	0	0	0	0	0	0	0	0	0	0	0	0	0	0	0	0	0	0	0	0	0	0	0	0	0	0	0	0	0	0	0	0	0	0	0	0	0	0	0	0	0	0	0	0	0	0	0	0	0	0	0	1750	1750	1750	1759	1759	1759	1768	1777	1777	1786	1804	1814	1824	1824	1833	1843	1853	1853	1863	1883	1883	1894	1904	1915	1925	1936	1936	1936	1936	1947	0	5125	4977	4706	4706	4643	4643	4581	4581	4581	4581	4581	4581	4581	4581	4581	4581	4581	4581	4581	4581	4581	4581	4581	4581	4581	4581	4643	4643	4643	4643	4643	4706	4706	4643	4643	4643	4643	4643	4643	4643	4643	4643	4643	4643	4643	4643	4643	4643	4643	4643	4643	4643	4643	4643	4643	4643	4643	4643	4643	4643	4643	4643	4643	4643	4643	4643	4643	4643	4643	4643	4643	4706	4706	4706	4706	4706	4771	4771	4706	4706	4706	4706	4706	4706	4706	4706	4706	4706	4706	4706	4706	4771	4706	4771	4771	4771	4771	4771	4771	4771	4706	4706	4706	4706	4706	4706	4706	4706	4706	4706	4706	4706	4706	4771	4706	4771	4706	4706	4706	4706	4706	4706	4706	4706	4706	4706	4706	4706	4706	4706	4706	4706	4706	3277	3277	3277	3277	3277	3277	3277	3277	3277	3277	3277	3277	3277	3277	3277	3246	3246	3246	3246	3246	3246	3216	3216	3186	3216	3186	3186	3157	3157	3157	3186	3186	3186	3157	3157	3186	3216	3186	3186	0	0	3246	3246	3246	3216	3216	3186	3186	3216	3186	3186	3186	3186	3186	3216	3216	3186	3216	3216	3216	3186	3186	3186	3186	3186	3216	3216	3216	3246	3246	3277	3277	3277	3277	3341	3309	3309	3309	3309	3309	3309	3309	3277	3277	3277	4463	4463	4406	4406	4463	4406	4406	4406	4463	4463	4463	4463	4521	4521	4521	4581	4581	4581	4581	4521	4521	4463	4463	4521	4521	4463	4521	4463	4521	4521	4521	4521	4521	4521	4521	4521	4521	4521	4521	4521	4463	4463	4463	4463	4406	4406	4463	4463	4521	4521	4521	4521	4521	4521	4463	4406	4350	4350	4350	4296	4296	4296	4296	4296	4296	4296	4296	4296	4296	4296	4350	4350	4296	4296	4296	4296	4296	4296	4296	4296	4296	4296	4296	4296	4296	4296	4296	4296	4296	4296	4296	4296	4296	4296	4296	4296	4296	4296	4296	4296	4296	4296	4296	4296	4243	4243	4243	4243	4243	4243	4296	4296	4296	4296	4243	4296	4296	4296	4350	4406	4406	4406	4463	4463	4581	4581	4581	4521	4521	0	3309	3309	3309	3277	3246	3246	3216	3186	3186	3157	3129	3129	3129	3129	3101	3101	3129	3101	3101	3101	3101	3101	3101	3073	3073	3073	3073	3073	3101	3101	3101	3101	3101	3101	3101	3101	3101	3073	3073	3073	3073	3101	3101	3101	3101	3073	3073	3073	3046	3019	3019	3019	2993	2993	2993	2993	2993	2993	2993	2993	2967	2993	2993	2993	2993	2993	2993	3046	3019	3019	0	0	0	0	0	0	0	0	0	0	0	0	0	0	0	0	0	0	0	0	0	0	0	0	0	0	0	0	0	0	0	0	0	0	0	0	0	0	0	0	0	0	0	0	0	0	0	0	0	0	0	0	0	0	0	0	0	0	0	0	0	0	0	0	0	0	0	0	0	0	0	0	0	0	0	0	0	0	0	0	0	0	0	0	0	0	0	0	0	0	0	0	0	0	0	0	0	0	0	0	0	0	0	0	0	0	0	0	0	0	0	0	0	0	0
0	0	0	0	0	0	0	1153	1157	1157	1157	1157	1157	1157	0	0	0	0	0	0	0	0	0	0	0	0	0	0	0	0	0	0	0	0	0	0	0	0	0	0	0	0	0	0	0	0	0	0	0	0	0	0	0	0	0	0	0	0	0	0	0	0	0	0	0	0	0	0	0	0	0	0	0	0	0	0	1750	1750	1750	1759	1759	1759	1768	1777	1777	1777	1786	1814	1814	1824	1833	1843	1853	1853	1863	1873	1883	1894	1904	1915	1925	1925	1936	1936	1936	1936	0	0	4977	4706	4706	4643	4643	4581	4581	4581	4581	4581	4581	4581	4581	4581	4581	4581	4581	4581	4581	4581	4581	4581	4581	4581	4581	4643	4581	4643	4643	4643	4643	4643	4643	4643	4643	4643	4643	4643	4581	4581	4643	4643	4643	4581	4643	4643	4643	4643	4643	4643	4643	4643	4643	4643	4643	4706	4706	4643	4643	4643	4643	4643	4643	4643	4643	4643	4643	4643	4643	4643	4643	4706	4706	4706	4706	4706	4771	4771	4706	4706	4706	4706	4706	4706	4706	4706	4706	4706	4706	4706	4771	4771	4771	4771	4771	4771	4771	4771	4771	4771	4771	4706	4706	4706	4706	4706	4706	4706	4706	4706	4706	4706	4706	4706	4771	4706	4771	4706	4706	4706	4706	4706	4706	4706	4706	4706	4706	4706	4706	4706	4706	4706	3277	3309	3309	3277	3277	3277	3277	3246	3246	3277	3246	3246	3277	3277	3277	3277	3277	3246	3246	3246	3246	3216	3216	3186	3186	3186	3186	3186	3186	3157	3186	3186	3186	3157	3157	3157	3216	3186	3186	0	0	3246	3246	3216	3216	3216	3186	3186	3216	3186	3186	3186	3186	3186	3216	3216	3186	3216	3216	3216	3186	3186	3186	3186	3186	3216	3216	3246	3246	3277	3277	3277	3277	3277	3309	3309	3309	3309	3309	3309	3309	3309	3277	3277	3277	3277	4463	4463	4463	4463	4463	4463	4406	4463	4463	4463	4521	4521	4521	4521	4581	4581	4581	4521	4521	4521	4521	4521	4521	4521	4521	4521	4521	4521	4521	4521	4521	4521	4521	4521	4521	4521	4521	4521	4521	4463	4463	4463	4406	4463	4463	4521	4521	4521	4521	4521	4521	4521	4521	4463	4463	4406	4350	4350	4296	4296	4296	4296	4296	4296	4296	4296	4296	4296	4350	4350	4350	4350	4296	4296	4350	4296	4296	4296	4296	4296	4296	4296	4296	4296	4296	4350	4296	4296	4296	4296	4296	4296	4296	4296	4296	4296	4296	4296	4296	4296	4296	4296	4243	4243	4243	4243	4243	4243	4296	4296	4296	4296	4296	4296	4296	4296	4296	4350	4350	4350	4463	4463	4463	4581	0	0	0	0	0	3309	3309	3309	3277	3246	3246	3216	3186	3186	3186	3129	3129	3129	3129	3101	3101	3101	3101	3101	3101	3101	3073	3073	3101	3073	3073	3073	3101	3101	3046	3046	3101	3101	3073	3073	3073	3101	3073	3073	3101	3073	3101	3101	3073	3073	3101	3073	3073	3046	3019	3019	2993	2993	2993	2993	2993	2993	2993	2967	2967	2942	2967	2967	2967	2993	2993	2993	3046	3019	3019	0	0	0	0	0	0	0	0	0	0	0	0	0	0	0	0	0	0	0	0	0	0	0	0	0	0	0	0	0	0	0	0	0	0	0	0	0	0	0	0	0	0	0	0	0	0	0	0	0	0	0	0	0	0	0	0	0	0	0	0	0	0	0	0	0	0	0	0	0	0	0	0	0	0	0	0	0	0	0	0	0	0	0	0	0	0	0	0	0	0	0	0	0	0	0	0	0	0	0	0	0	0	0	0	0	0	0	0	0	0	0	0	0	0	0
0	0	0	0	0	0	0	0	1157	1157	1157	1157	1157	1157	0	0	0	0	0	0	0	0	0	0	0	0	0	0	0	0	0	0	0	0	0	0	0	0	0	0	0	0	0	0	0	0	0	0	0	0	0	0	0	0	0	0	0	0	0	0	0	0	0	0	0	0	0	0	0	0	0	0	0	0	0	0	1750	1759	1750	1759	1768	1768	1777	1777	1786	1786	1786	1814	1814	1824	1833	1833	1853	1853	1863	1883	1883	1894	1894	1904	1936	1936	1936	1936	1936	1936	0	0	0	4706	4643	4643	4643	4581	4581	4581	4521	4581	4581	4581	4581	4581	4581	4581	4581	4581	4581	4581	4581	4581	4581	4581	4643	4643	4643	4643	4643	4643	4643	4643	4643	4643	4643	4581	4643	4643	4581	4581	4581	4581	4581	4581	4581	4643	4643	4643	4581	4581	4643	4643	4643	4643	4643	4643	4643	4643	4643	4643	4643	4643	4643	4643	4643	4643	4643	4643	4643	4643	4643	4643	4643	4706	4706	4706	4771	4771	4771	4771	4706	4706	4706	4706	4706	4706	4706	4706	4706	4706	4771	4706	4771	4771	4771	4771	4771	4771	4771	4771	4771	4706	4706	4706	4706	4706	4706	4706	4706	4706	4706	4706	4706	4706	4771	4771	4771	4706	4706	4706	4706	4706	4706	4706	4706	4706	4706	4706	4706	4706	4706	4706	4521	3309	3309	3277	3277	3277	3277	3246	3246	3246	3246	3246	3277	3277	3277	3277	3277	3246	3246	3246	3216	3216	3216	3186	3186	3186	3186	3186	3186	3157	3186	3186	3186	3186	3186	3157	0	0	0	0	0	0	0	3216	3216	3216	3216	3186	3186	3186	3186	3186	3186	3186	3216	3216	3186	3186	3186	3186	3186	3186	3216	3216	3216	3246	3246	3246	3246	3277	3277	3277	3277	3277	3309	3309	3309	3309	3309	3309	3309	3309	3277	3309	3309	3309	4521	4463	4521	4521	4463	4463	4463	4463	4521	4521	4521	4521	4581	4581	4581	4581	4581	4581	4581	4521	4521	4521	4521	4521	4521	4521	4521	4581	4581	4581	4581	4581	4581	4581	4581	4581	4581	4581	4581	4463	4463	4463	4463	4406	4406	4463	4463	4521	4521	4521	4521	4521	4521	4463	4406	4406	4350	4350	4296	4350	4296	4296	4296	4296	4296	4296	4296	4296	4350	4350	4350	4350	4350	4350	4296	4350	4296	4296	4296	4296	4296	4296	4296	4296	4296	4296	4296	4296	4296	4296	4296	4296	4296	4296	4296	4296	4296	4296	4296	4296	4296	4296	4296	4296	4243	4296	4296	4296	4296	4296	4296	4296	4296	4296	4296	4296	4296	4350	4350	4406	4406	4406	4406	0	0	0	0	0	0	3309	3309	3277	3277	3246	3216	3216	3186	3157	3157	3129	3129	3129	3129	3101	3101	3101	3101	3101	3101	3101	3073	3073	3073	3073	3073	3046	3073	3073	3046	3046	3101	3101	3073	3073	3073	3073	3073	3073	3073	3073	3073	3073	3101	3073	3101	3073	3073	3046	3019	3019	2993	2993	2967	2967	2967	2967	2993	2967	2967	2967	2967	2967	2967	2967	2967	2993	0	0	0	0	0	0	0	0	0	0	0	0	0	0	0	0	0	0	0	0	0	0	0	0	0	0	0	0	0	0	0	0	0	0	0	0	0	0	0	0	0	0	0	0	0	0	0	0	0	0	0	0	0	0	0	0	0	0	0	0	0	0	0	0	0	0	0	0	0	0	0	0	0	0	0	0	0	0	0	0	0	0	0	0	0	0	0	0	0	0	0	0	0	0	0	0	0	0	0	0	0	0	0	0	0	0	0	0	0	0	0	0	0	0	0	0	0	0
0	0	0	0	0	0	0	0	1153	1157	1157	1157	1157	1157	0	0	0	0	0	0	0	0	0	0	0	0	0	0	0	0	0	0	0	0	0	0	0	0	0	0	0	0	0	0	0	0	0	0	0	0	0	0	0	0	0	0	0	0	0	0	0	0	0	0	0	0	0	0	0	0	0	0	0	0	0	0	1759	1759	1759	1768	1777	1777	1777	1786	1786	1795	1804	1814	1814	1824	1833	1843	1853	1863	1873	1873	1883	1894	1894	1925	1947	1947	1947	1947	1947	1947	0	0	0	4706	4643	4643	4643	4581	4581	4581	4521	4581	4581	4581	4581	4581	4581	4581	4643	4643	4581	4643	4643	4643	4581	4643	4643	4643	4581	4643	4643	4643	4643	4643	4643	4643	4643	4643	4643	4643	4581	4581	4581	4581	4581	4581	4581	4643	4643	4643	4581	4581	4581	4643	4643	4643	4643	4643	4706	4643	4643	4643	4643	4643	4643	4643	4643	4643	4643	4643	4643	4643	4643	4643	4643	4643	4643	4706	4771	4771	4771	4771	4771	4771	4771	4706	4706	4706	4706	4706	4706	4706	4706	4706	4771	4771	4771	4771	4771	4771	4771	4771	4771	4706	4706	4706	4706	4706	4706	4706	4706	4706	4706	4706	4706	4706	4706	4706	4771	4706	4706	4706	4706	4706	4706	4706	4706	4706	4706	4706	4706	4771	4706	4771	4581	3309	3277	3277	3277	3246	3246	3246	3246	3246	3246	3246	3277	3277	3277	3277	3277	3246	3246	3246	3216	3216	3216	3186	3186	3186	3186	3186	0	0	0	0	0	3186	3186	0	0	0	0	0	0	3186	3186	3216	3216	3186	3186	3186	3186	3186	3186	3157	3157	3157	3186	3186	3186	3186	3186	3216	3186	3216	3216	3216	3216	3216	3246	3246	3277	3277	3277	3277	3309	3277	3309	3309	3309	3309	3309	3309	3309	3309	3277	3309	3309	3309	4581	4581	4581	4521	4521	4521	4463	4463	4521	4521	4581	4581	4581	4581	4643	4643	4706	4706	4643	4643	4581	4581	4581	4581	4581	4581	4581	4581	4581	4581	4581	4581	4581	4581	4581	4581	4581	4581	4581	0	4463	4463	4463	4406	4406	4406	4463	4521	4521	4521	4521	4521	4521	4463	4463	4406	4350	4350	4350	4350	4296	4296	4296	4296	4296	4296	4296	4296	4350	4350	4350	4350	4350	4350	4350	4350	4350	4296	4296	4296	4296	4296	4296	4296	4296	4296	4296	4296	4296	4296	4296	4296	4296	4296	4296	4296	4296	4296	4296	4296	4296	4296	4296	4296	4296	4296	4296	4296	4296	4296	4296	4296	4296	4296	4296	4296	4296	4350	4350	4406	4463	4463	4643	4643	0	0	0	0	0	3309	3277	3277	3246	3246	3216	3186	3186	3157	3129	3129	3129	3129	3129	3101	3101	3101	3101	3101	3073	3073	3073	3073	3073	3073	3073	3073	3073	3073	3046	3046	3101	3101	3073	3073	3073	3073	3073	3073	3073	3073	3073	3073	3073	3073	3073	3073	3073	3046	3019	3019	2993	2993	2993	2993	2967	2967	2993	2967	2967	2942	2942	2967	2967	2967	2967	0	0	0	0	0	0	0	0	0	0	0	0	0	0	0	0	0	0	0	0	0	0	0	0	0	0	0	0	0	0	0	0	0	0	0	0	0	0	0	0	0	0	0	0	0	0	0	0	0	0	0	0	0	0	0	0	0	0	0	0	0	0	0	0	0	0	0	0	0	0	0	0	0	0	0	0	0	0	0	0	0	0	0	0	0	0	0	0	0	0	0	0	0	0	0	0	0	0	0	0	0	0	0	0	0	0	0	0	0	0	0	0	0	0	0	0	0	0	0
0	0	0	0	0	0	0	0	1153	1157	1157	1161	1161	1157	0	0	0	0	0	0	0	0	0	0	0	0	0	0	0	0	0	0	0	0	0	0	0	0	0	0	0	0	0	0	0	0	0	0	0	0	0	0	0	0	0	0	0	0	0	0	0	0	0	0	0	0	0	0	0	0	0	0	0	0	0	0	1759	1759	1759	1777	1777	1777	1777	1786	1786	1786	1795	1795	1814	1814	1814	1843	1863	1873	1873	1873	1894	1894	1904	1915	1936	1947	1947	1947	1947	1947	0	0	0	4643	4643	4643	4643	4581	4581	4581	4521	4521	4581	4581	4581	4581	4581	4581	4581	4643	4581	4643	4643	4643	4643	4643	4643	4643	4643	4643	4643	4643	4643	4643	4643	4643	4643	4581	4643	4581	4581	4581	4581	4581	4581	4581	4581	4581	4643	4643	4581	4643	4643	4643	4643	4643	4643	4643	4643	4643	4643	4643	4643	4643	4643	4643	4643	4643	4643	4643	4643	4643	4643	4643	4643	4643	4643	4706	4771	4771	4771	4771	4771	4771	4771	4706	4706	4706	4706	4706	4706	4706	4706	4706	4771	4771	4771	4706	4771	4771	4771	4706	4706	4706	4706	4706	4706	4706	4706	4706	4706	4706	4706	4706	4706	4706	4706	4706	4771	4706	4706	4706	4706	4706	4706	4706	4706	4706	4706	4706	4706	4706	4706	4706	4581	4521	3277	3277	3277	3277	3246	3246	3246	3246	3246	3277	3277	3277	3277	3277	3277	3277	3246	3216	3216	3216	3216	3186	3186	3186	3186	3186	0	0	0	0	0	0	0	0	0	0	0	0	0	3186	3186	3216	3216	3186	3186	3186	3186	3186	3157	3157	3186	3186	3186	3186	3186	3186	3186	3216	3216	3216	3216	3216	3216	3246	3246	3246	3277	3277	3277	3277	3277	3277	3309	3309	3309	3309	3309	3309	3309	3309	3309	3309	3309	3309	3309	4581	4581	4521	4521	4521	4463	4521	4521	4521	4581	4581	4643	4643	4643	4706	4706	4706	4706	4771	4771	4771	4771	4771	4581	4581	4581	4643	4581	4581	4581	4581	4581	4643	4643	4643	0	0	0	0	4521	4463	4463	4406	4406	4406	4463	4521	4521	4521	4521	4521	4521	4463	4463	4406	4350	4350	4350	4350	4296	4296	4296	4296	4296	4296	4296	4296	4296	4350	4350	4350	4350	4350	4350	4350	4350	4350	4350	4350	4296	4296	4296	4296	4296	4296	4296	4296	4296	4296	4296	4296	4296	4296	4296	4296	4296	4296	4296	4296	4296	4296	4296	4296	4296	4296	4296	4296	4296	4296	4296	4296	4296	4296	4296	4350	4350	4350	4406	4463	4463	4463	4581	4581	0	0	0	0	3341	3277	3277	3277	3246	3216	3216	3186	3157	3157	3129	3129	3129	3129	3129	3101	3101	3101	3101	3101	3073	3073	3073	3073	3073	3073	3073	3073	3073	3073	3073	3073	3073	3101	3073	3073	3073	3073	3101	3073	3073	3073	3073	3073	3073	3073	3073	3073	3073	3073	3019	3019	2993	2993	2993	2967	2967	2967	2993	2967	2967	2942	2967	2967	2967	2967	0	0	0	0	0	0	0	0	0	0	0	0	0	0	0	0	0	0	0	0	0	0	0	0	0	0	0	0	0	0	0	0	0	0	0	0	0	0	0	0	0	0	0	0	0	0	0	0	0	0	0	0	0	0	0	0	0	0	0	0	0	0	0	0	0	0	0	0	0	0	0	0	0	0	0	0	0	0	0	0	0	0	0	0	0	0	0	0	0	0	0	0	0	0	0	0	0	0	0	0	0	0	0	0	0	0	0	0	0	0	0	0	0	0	0	0	0	0	0	0
0	0	0	0	0	0	0	0	1157	1157	1157	1157	1161	0	0	0	0	0	0	0	0	0	0	0	0	0	0	0	0	0	0	0	0	0	0	0	0	0	0	0	0	0	0	0	0	0	0	0	0	0	0	0	0	0	0	0	0	0	0	0	0	0	0	0	0	0	0	0	0	0	0	0	0	0	0	1759	1759	1759	1768	1777	1777	1777	1777	1786	1786	1795	1795	1804	1804	1814	1824	1843	1863	1873	1873	1883	1894	1904	1904	1925	1936	1936	1947	1947	1947	1947	0	0	0	4643	4643	4643	4581	4581	4581	4581	4521	4521	4581	4521	4581	4581	4581	4581	4581	4581	4581	4643	4643	4643	4643	4643	4643	4643	4643	4643	4643	4643	4643	4643	4643	4581	4581	4581	4581	4581	4581	4581	4581	4581	4581	4581	4643	4643	4643	4643	4643	4643	4643	4643	4643	4643	4706	4706	4706	4706	4706	4706	4706	4706	4643	4643	4643	4643	4643	4643	4643	4643	4643	4643	4643	4643	4643	4706	4706	4706	4771	4771	4706	4706	4706	4706	4706	4706	4706	4706	4706	4706	4706	4706	4706	4771	4771	4706	4706	4771	4706	4706	4706	4706	4706	4706	4706	4706	4706	4706	4706	4706	4706	4706	4706	4706	4706	4706	4706	4706	4706	4706	4706	4706	4706	4706	4706	4706	4706	4706	4706	4706	4706	4771	4771	3277	3277	3246	3246	3246	3246	3246	3246	3246	3246	3277	3277	3277	3277	3277	3277	3277	3246	3246	3216	3216	3186	3186	3157	3186	3186	3186	0	0	0	0	0	0	0	0	0	0	0	0	3186	3186	3186	3186	3186	3186	3186	3186	3186	3186	3157	3157	3186	3186	3186	3186	3186	3186	3216	3216	3246	3246	3246	3246	3246	3246	3246	3246	3277	3277	3277	3277	3277	3277	3309	3309	3309	3309	3309	3309	3309	3309	3277	3309	3309	3341	3341	4643	4643	4643	4643	4643	4643	4643	4643	4643	4643	4643	4643	4643	4643	4706	4771	4771	4771	4771	4771	4771	4771	4771	4771	4771	4643	4643	4643	4581	4581	4581	4643	4643	4771	4771	0	0	0	0	4521	4521	4521	4463	4463	4463	4463	4521	4521	4521	4521	4521	4521	4521	4463	4406	4406	4350	4350	4350	4296	4296	4296	4296	4350	4350	4296	4296	4296	4350	4350	4350	4350	4350	4350	4350	4350	4350	4350	4350	4296	4296	4296	4296	4296	4296	4296	4296	4296	4296	4296	4296	4296	4296	4243	4243	4296	4296	4296	4296	4296	4296	4296	4296	4296	4296	4296	4296	4296	4296	4296	4296	4296	4296	4296	4350	4350	4350	4350	4406	4463	4463	4581	4581	4581	0	0	0	3341	3277	3246	3246	3246	3216	3216	3186	3157	3129	3129	3129	3129	3129	3129	3101	3101	3101	3101	3101	3073	3073	3073	3073	3073	3073	3073	3073	3073	3073	3073	3073	3073	3073	3073	3073	3073	3073	3101	3073	3073	3073	3073	3073	3073	3073	3073	3073	3073	3046	3019	2993	2993	2993	2967	2942	2967	2967	2993	2967	2967	2967	2967	2967	0	0	0	0	0	0	0	0	0	0	0	0	0	0	0	0	0	0	0	0	0	0	0	0	0	0	0	0	0	0	0	0	0	0	0	0	0	0	0	0	0	0	0	0	0	0	0	0	0	0	0	0	0	0	0	0	0	0	0	0	0	0	0	0	0	0	0	0	0	0	0	0	0	0	0	0	0	0	0	0	0	0	0	0	0	0	0	0	0	0	0	0	0	0	0	0	0	0	0	0	0	0	0	0	0	0	0	0	0	0	0	0	0	0	0	0	0	0	0	0	0	0
0	0	0	0	0	0	0	0	1157	1157	1157	1161	1161	0	0	0	0	0	0	0	0	0	0	0	0	0	0	0	0	0	0	0	0	0	0	0	0	0	0	0	0	0	0	0	0	0	0	0	0	0	0	0	0	0	0	0	0	0	0	0	0	0	0	0	0	0	0	0	0	0	0	0	0	0	0	1759	1768	1768	1777	1777	1777	1777	1786	1786	1795	1804	1804	1804	1814	1814	1824	1843	1863	1873	1883	1883	1894	1904	1915	1925	1936	1936	1947	1947	1947	1947	0	0	0	4581	4581	4643	4581	4581	4581	4581	4521	4521	4581	4581	4581	4581	4581	4581	4581	4581	4581	4643	4643	4643	4643	4643	4643	4643	4643	4643	4643	4581	4581	4581	4581	4581	4581	4581	4581	4581	4581	4581	4581	4581	4643	4581	4643	4643	4643	4643	4643	4643	4643	4643	4643	4643	4643	4643	4643	4643	4706	4706	4706	4706	4643	4643	4643	4643	4643	4643	4643	4581	4643	4643	4643	4643	4643	4706	4706	4706	4771	4771	4771	4706	4706	4706	4706	4706	4706	4706	4706	4706	4706	4771	4771	4771	4771	4706	4706	4771	4706	4706	4706	4706	4706	4706	4706	4706	4706	4706	4706	4706	4706	4706	4706	4706	4706	4706	4706	4706	4706	4706	4706	4706	4706	4706	4706	4706	4706	4706	4706	4706	4706	4771	4643	3277	3277	3246	3246	3246	3246	3246	3216	3246	3246	3277	3277	3277	3277	3277	3277	3277	3246	3246	3216	3216	3186	3186	3157	3186	3186	0	0	0	0	0	0	0	0	3186	3186	3157	3157	3157	3157	3186	3186	3157	3157	3186	3186	3186	3186	3186	3186	3186	3186	3186	3186	3186	3186	3186	3216	3246	3246	3246	3246	3246	3246	3246	3246	3277	3277	3277	3277	3277	3277	3277	3309	3309	3309	3309	3309	3309	3309	3309	3277	3309	3309	3341	3341	4643	4643	4643	4643	4643	4643	4643	4643	4643	4643	4771	4706	4771	4771	4771	4771	4771	4771	4771	4771	4771	4771	4771	4771	4771	4706	4706	4581	4581	4643	4643	4643	4643	4771	4771	0	0	0	0	0	4521	4521	4521	4521	4521	4521	4521	4521	4521	4521	4521	4521	4521	4463	4406	4406	4350	4350	4350	4296	4296	4296	4350	4350	4350	4296	4296	4296	4296	4350	4350	4350	4350	4350	4350	4350	4350	4350	4350	4296	4296	4296	4296	4296	4296	4296	4296	4296	4296	4296	4296	4296	4296	4296	4243	4296	4296	4296	4296	4296	4296	4296	4296	4243	4243	4296	4243	4243	4296	4296	4296	4296	4350	4350	4350	4350	4350	4350	4406	4406	4463	4521	4581	4643	4643	0	3373	3341	3277	3277	3246	3246	3216	3216	3186	3157	3129	3129	3129	3129	3129	3129	3101	3101	3101	3101	3101	3073	3073	3073	3073	3073	3073	3073	3073	3073	3073	3073	3073	3073	3073	3073	3073	3073	3073	3073	3073	3046	3073	3073	3073	3073	3073	3073	3073	3073	3019	2993	2993	2993	2993	2993	2967	2993	2993	2993	2993	2993	2993	2993	0	0	0	0	0	0	0	0	0	0	0	0	0	0	0	0	0	0	0	0	0	0	0	0	0	0	0	0	0	0	0	0	0	0	0	0	0	0	0	0	0	0	0	0	0	0	0	0	0	0	0	0	0	0	0	0	0	0	0	0	0	0	0	0	0	0	0	0	0	0	0	0	0	0	0	0	0	0	0	0	0	0	0	0	0	0	0	0	0	0	0	0	0	0	0	0	0	0	0	0	0	0	0	0	0	0	0	0	0	0	0	0	0	0	0	0	0	0	0	0	0	0	0
0	0	0	0	0	0	0	0	1157	1161	1161	1161	1161	0	0	0	0	0	0	0	0	0	0	0	0	0	0	0	0	0	0	0	0	0	0	0	0	0	0	0	0	0	0	0	0	0	0	0	0	0	0	0	0	0	0	0	0	0	0	0	0	0	0	0	0	0	0	0	0	0	0	0	0	0	0	1759	1768	1768	1777	1777	1777	1786	1786	1795	1795	1814	1824	1824	1824	1824	1843	1853	1853	1863	1873	1883	1894	1904	1915	1915	1936	1936	1947	1936	1947	1947	0	0	0	4643	4643	4643	4581	4581	4581	4581	4521	4521	4581	4581	4581	4581	4643	4643	4581	4581	4581	4581	4643	4643	4643	4643	4643	4643	4581	4643	4581	4581	4581	4581	4581	4581	4581	4581	4581	4643	4643	4643	4643	4643	4643	4581	4643	4643	4643	4643	4643	4643	4643	4643	4643	4643	4643	4643	4643	4643	4643	4706	4643	4706	4643	4643	4643	4643	4643	4643	4643	4581	4643	4643	4643	4643	4643	4706	4706	4771	4771	4771	4706	4706	4706	4706	4706	4706	4643	4706	4706	4706	4706	4706	4706	4706	4706	4706	4706	4706	4706	4706	4706	4706	4706	4706	4706	4706	4706	4706	4706	4706	4706	4706	4706	4706	4706	4706	4706	4706	4706	4706	4706	4706	4706	4706	4706	4706	4706	4706	4771	4706	4706	4771	3341	3309	3277	3246	3246	3277	3246	3246	3246	3246	3246	3277	3277	3277	3277	3277	3277	3277	3277	3216	3216	3186	3186	3186	3186	3186	3186	0	0	0	0	0	0	0	0	3157	3157	3157	3157	3186	3157	3157	3157	3157	3157	3157	3157	3157	3186	3186	3186	3186	3186	3186	3186	3186	3186	3157	3216	3246	3246	3246	3246	3246	3246	3246	3246	3277	3277	3277	3309	3277	3277	3277	3309	3309	3309	3309	3309	3309	3309	3309	3309	3309	3309	3309	3341	4771	4706	4706	4771	4771	4838	4838	0	0	4838	4838	4838	4838	4771	4771	4771	4771	4771	4771	4771	4771	4771	4838	4838	4771	4643	4643	4581	4581	4643	4643	4706	4706	4771	4771	4771	0	0	0	0	4521	4581	4521	4521	4521	4521	4521	4521	4521	4521	4521	4521	4463	4463	4406	4406	4350	4350	4350	4296	4296	4296	4350	4350	4350	4296	4296	4296	4296	4296	4296	4296	4350	4350	4350	4350	4296	4350	4350	4296	4296	4296	4296	4296	4296	4296	4296	4296	4296	4296	4296	4296	4296	4296	4296	4296	4296	4296	4296	4296	4296	4296	4243	4243	4243	4243	4243	4243	4243	4296	4296	4296	4350	4350	4350	4350	4350	4350	4406	4406	4463	4521	4581	4643	4643	4643	3373	3373	3341	3277	3246	3246	3216	3216	3186	3157	3157	3129	3129	3129	3129	3129	3101	3101	3101	3101	3101	3073	3073	3073	3073	3073	3073	3101	3073	3073	3073	3073	3073	3073	3073	3073	3073	3073	3046	3073	3073	3073	3073	3073	3073	3073	3073	3073	3073	3073	3046	2993	2993	2993	2967	2967	2967	2967	2967	2993	2993	2993	2993	2993	0	0	0	0	0	0	0	0	0	0	0	0	0	0	0	0	0	0	0	0	0	0	0	0	0	0	0	0	0	0	0	0	0	0	0	0	0	0	0	0	0	0	0	0	0	0	0	0	0	0	0	0	0	0	0	0	0	0	0	0	0	0	0	0	0	0	0	0	0	0	0	0	0	0	0	0	0	0	0	0	0	0	0	0	0	0	0	0	0	0	0	0	0	0	0	0	0	0	0	0	0	0	0	0	0	0	0	0	0	0	0	0	0	0	0	0	0	0	0	0	0	0	0
0	0	0	0	0	0	0	0	0	1153	1153	1161	0	0	0	0	0	0	0	0	0	0	0	0	0	0	0	0	0	0	0	0	0	0	0	0	0	0	0	0	0	0	0	0	0	0	0	0	0	0	0	0	0	0	0	0	0	0	0	0	0	0	0	0	0	0	0	0	0	0	0	0	0	0	1777	1768	1768	1777	1786	1777	1786	1786	1786	1814	1824	1814	1824	1824	1824	1833	1843	1853	1853	1863	1873	1883	1894	1904	1915	1925	1936	1947	1947	1947	1947	1947	0	0	0	4643	4643	4643	4581	4581	4581	4581	4521	4581	4581	4581	4643	4581	4643	4643	4581	4581	4643	4643	4643	4643	4643	4643	4643	4643	4643	4643	4581	4581	4581	4581	4581	4581	4581	4581	4581	4643	4643	4643	4581	4643	4643	4581	4581	4643	4581	4643	4643	4643	4643	4643	4643	4643	4643	4643	4643	4643	4643	4706	4643	4706	4643	4643	4643	4643	4643	4643	4643	4581	4643	4643	4643	4643	4643	4706	4706	4706	4706	4706	4706	4706	4706	4706	4706	4706	4706	4706	4706	4706	4706	4706	4706	4706	4706	4706	4706	4706	4706	4706	4706	4706	4706	4706	4706	4706	4706	4706	4643	4706	4706	4706	4706	4706	4706	4706	4706	4706	4706	4706	4706	4706	4706	4706	4706	4706	4706	4706	4706	4771	4706	3341	3309	3309	3277	3246	3246	3246	3246	3246	3246	3246	3246	3277	3277	3277	3277	3277	3277	3246	3246	3216	3216	3186	3186	3186	3186	3157	3186	3186	0	0	0	0	0	3157	3157	3157	3157	3157	3157	3157	3186	3157	3157	3157	3157	3157	3157	3157	3186	3186	3186	3186	3186	3186	3186	3186	3186	3157	3157	3277	3277	3246	3246	3246	3246	3246	3246	3277	3277	3277	3309	3309	3277	3309	3341	3309	3309	3309	3309	3309	3309	3309	3309	3341	3341	3341	3341	4771	4771	4771	4771	4771	4838	4838	4771	4771	4838	4838	4838	4838	4838	4838	4771	4771	4838	4838	4838	4838	4838	4838	4906	4838	4771	4771	4771	4706	4706	4643	4706	4771	4771	4771	4771	0	0	0	0	0	4581	4581	4521	4521	4521	4521	4521	4521	4521	4521	4521	4463	4463	4463	4406	4350	4350	4350	4350	4350	4296	4296	4296	4296	4296	4296	4296	4296	4296	4296	4296	4296	4350	4350	4350	4296	4350	4350	4296	4296	4296	4296	4296	4296	4296	4296	4296	4296	4296	4296	4296	4296	4296	4243	4296	4296	4296	4296	4296	4296	4296	4243	4243	4243	4243	4243	4243	4243	4296	4296	4296	4350	4350	4350	4350	4350	4350	4406	4406	4463	4581	4581	4643	4643	4643	4643	3373	3341	3246	3246	3216	3216	3186	3157	3157	3157	3129	3129	3129	3129	3129	3101	3101	3101	3101	3101	3073	3101	3101	3101	3073	3101	3101	3101	3073	3073	3073	3073	3073	3073	3046	3046	3046	3046	3073	3073	3046	3046	3046	3046	3046	3046	3046	3046	3046	2993	2993	2993	2993	2967	2967	2967	2993	2993	2993	2993	2993	0	0	0	0	0	0	0	0	0	0	0	0	0	0	0	0	0	0	0	0	0	0	0	0	0	0	0	0	0	0	0	0	0	0	0	0	0	0	0	0	0	0	0	0	0	0	0	0	0	0	0	0	0	0	0	0	0	0	0	0	0	0	0	0	0	0	0	0	0	0	0	0	0	0	0	0	0	0	0	0	0	0	0	0	0	0	0	0	0	0	0	0	0	0	0	0	0	0	0	0	0	0	0	0	0	0	0	0	0	0	0	0	0	0	0	0	0	0	0	0	0	0	0	0	0
0	0	0	0	0	0	0	0	0	1153	1153	0	0	0	0	0	0	0	0	0	0	0	0	0	0	0	0	0	0	0	0	0	0	0	0	0	0	0	0	0	0	0	0	0	0	0	0	0	0	0	0	0	0	0	0	0	0	0	0	0	0	0	0	0	0	0	0	0	0	0	0	0	0	0	1777	1768	1768	1777	1777	1777	1786	1786	1786	1814	1814	1814	1814	1824	1824	1824	1853	1853	1863	1863	1883	1894	1904	1915	1925	1936	1947	1947	1947	1947	1969	1969	1969	0	0	4643	4643	4643	4581	4581	4581	4581	4581	4581	4581	4643	4643	4643	4643	4643	4581	4581	4581	4581	4581	4581	4581	4581	4643	4581	4581	4581	4581	4581	4581	4581	4581	4581	4643	4643	4643	4643	4643	4643	4643	4643	4643	4643	4643	4643	4643	4643	4643	4643	4643	4643	4643	4643	4643	4643	4643	4643	4643	4643	4643	4643	4643	4643	4643	4643	4643	4643	4643	4643	4643	4643	4581	4643	4643	4706	4706	4706	4706	4706	4706	4706	4706	4706	4706	4706	4706	4706	4706	4706	4706	4706	4706	4706	4706	4706	4706	4706	4706	4706	4706	4706	4706	4706	4706	4706	4706	4706	4706	4706	4706	4706	4706	4643	4706	4643	4706	4706	4706	4706	4706	4706	4706	4706	4706	4706	4706	4706	4706	4706	4706	3309	3309	3277	3277	3246	3246	3277	3277	3246	3246	3246	3246	3277	3277	3277	3277	3277	3277	3246	3246	3216	3216	3186	3186	3186	3186	3157	3157	3186	0	0	0	0	3157	3157	3157	3157	3157	3157	3157	3157	3186	3157	3157	3157	3157	3157	3157	3157	3186	3186	3186	3186	3186	3186	3186	3186	3186	3186	3186	3277	3277	3277	3277	3246	3246	3246	3246	3246	3277	3277	3277	3277	3277	3309	3309	3309	3341	3309	3341	3309	3341	3309	3341	3341	3341	3341	3341	4771	4706	4771	4771	4771	4838	4838	4838	4838	4906	4906	4906	4838	4838	4838	4838	4771	4838	4838	4838	4838	4838	4838	4906	4906	4838	4838	4771	4771	4706	4643	4771	4771	4771	4771	4771	4771	0	0	0	0	4581	4581	4521	4521	4521	4521	4521	4521	4521	4521	4521	4521	4463	4406	4406	4350	4350	4296	4296	4296	4296	4296	4296	4296	4296	4296	4243	4243	4296	4296	4296	4296	4296	4350	4350	4350	4350	4350	4296	4296	4296	4296	4296	4296	4296	4296	4296	4296	4296	4296	4296	4296	4296	4296	4296	4296	4296	4296	4296	4296	4296	4296	4296	4243	4296	4296	4243	4296	4296	4296	4296	4350	4296	4350	4350	4350	4350	4406	4406	4406	4521	4581	4581	4581	4581	4581	3373	3277	3246	3246	3216	3216	3186	3157	3157	3129	3129	3129	3129	3129	3129	3101	3101	3101	3101	3101	3073	3073	3101	3101	3073	3101	3101	3101	3073	3073	3073	3073	3073	3073	3046	3046	3046	3046	3073	3073	3073	3073	3073	3073	3046	3046	3019	3046	3019	2993	2993	2993	2993	2967	2967	2967	2993	2993	3019	3019	0	0	0	0	0	0	0	0	0	0	0	0	0	0	0	0	0	0	0	0	0	0	0	0	0	0	0	0	0	0	0	0	0	0	0	0	0	0	0	0	0	0	0	0	0	0	0	0	0	0	0	0	0	0	0	0	0	0	0	0	0	0	0	0	0	0	0	0	0	0	0	0	0	0	0	0	0	0	0	0	0	0	0	0	0	0	0	0	0	0	0	0	0	0	0	0	0	0	0	0	0	0	0	0	0	0	0	0	0	0	0	0	0	0	0	0	0	0	0	0	0	0	0	0	0	0
0	0	0	0	0	0	0	0	0	0	0	0	0	0	0	0	0	0	0	0	0	0	0	0	0	0	0	0	0	0	0	0	0	0	0	0	0	0	0	0	0	0	0	0	0	0	0	0	0	0	0	0	0	0	0	0	0	0	0	0	0	0	0	0	0	0	0	0	0	0	0	0	0	0	1777	1777	1768	1777	1777	1777	1777	1786	1795	1814	1814	1814	1824	1824	1824	1833	1853	1863	1863	1863	1873	1883	1894	1904	1904	1936	1947	1947	1947	1947	1947	1969	1969	0	0	0	4643	4643	4581	4581	4581	4581	4581	4643	4581	4643	4643	4643	4643	4643	4581	4581	4581	4581	4581	4581	4581	4581	4581	4581	4643	4643	4643	4581	4581	4581	4581	4581	4581	4643	4643	4643	4643	4643	4643	4581	4581	4581	4581	4581	4581	4581	4643	4643	4643	4643	4643	4643	4643	4643	4643	4643	4643	4643	4643	4643	4643	4643	4643	4643	4643	4643	4643	4643	4643	4643	4581	4643	4643	4706	4706	4706	4706	4706	4706	4706	4706	4706	4706	4706	4706	4706	4706	4706	4706	4706	4706	4706	4706	4706	4706	4706	4706	4706	4706	4706	4706	4706	4706	4706	4706	4706	4706	4706	4706	4706	4706	4706	4706	4706	4706	4706	4706	4706	4706	4706	4706	4706	4706	4706	4706	4706	4706	4706	4706	4771	3309	3309	3277	3246	3246	3277	3277	3277	3277	3277	3277	3277	3277	3277	3277	3277	3277	3277	3246	3246	3216	3186	3186	3186	3157	3157	3157	0	0	0	0	0	3157	3157	3157	3157	3157	3157	3157	3157	3186	3157	3157	3157	3157	3157	3157	3157	3186	3186	3186	3186	3186	3186	3186	3186	3186	3186	3186	0	3341	3277	3246	3246	3246	3246	3246	3246	3277	3277	3277	3277	3277	3309	3341	3309	3341	3341	3341	3309	3341	3341	3341	3341	3341	3309	3341	3309	3309	4771	4771	4771	4771	4838	4838	4838	4838	4838	4838	4838	4838	4838	4838	4838	4838	4838	4838	4838	4838	4838	4906	4838	4838	4838	4838	4838	4771	4771	4771	4838	4771	4771	4771	4771	4771	0	0	0	0	4581	4581	4521	4581	4521	4521	4463	4521	4521	4521	4463	4463	4406	4406	4406	4350	4296	4296	4296	4296	4296	4296	4296	4296	4296	4243	4243	4296	4296	4296	4296	4296	4350	4350	4350	4350	4350	4296	4296	4296	4296	4296	4296	4296	4296	4296	4296	4296	4296	4296	4296	4296	4296	4296	4296	4296	4296	4296	4296	4296	4296	4296	4243	4296	4296	4296	4296	4296	4296	4296	4296	4296	4350	4350	4350	4350	4350	4406	4406	4521	4521	4581	4581	4581	4581	4581	3277	3246	3216	3216	3186	3186	3157	3157	3157	3129	3129	3101	3101	3101	3101	3101	3101	3101	3101	3073	3073	3073	3073	3073	3073	3073	3101	3073	3073	3073	3073	3073	3073	3046	3046	3046	3046	3073	3073	3046	3046	3046	3046	3046	3046	3019	3019	3019	2993	2993	2967	2967	2967	2967	2967	2993	2993	3019	3019	0	0	0	0	0	0	0	0	0	0	0	0	0	0	0	0	0	0	0	0	0	0	0	0	0	0	0	0	0	0	0	0	0	0	0	0	0	0	0	0	0	0	0	0	0	0	0	0	0	0	0	0	0	0	0	0	0	0	0	0	0	0	0	0	0	0	0	0	0	0	0	0	0	0	0	0	0	0	0	0	0	0	0	0	0	0	0	0	0	0	0	0	0	0	0	0	0	0	0	0	0	0	0	0	0	0	0	0	0	0	0	0	0	0	0	0	0	0	0	0	0	0	0	0	0	0
0	0	0	0	0	0	0	0	0	0	0	0	0	0	0	0	0	0	0	0	0	0	0	0	0	0	0	0	0	0	0	0	0	0	0	0	0	0	0	0	0	0	0	0	0	0	0	0	0	0	0	0	0	0	0	0	0	0	0	0	0	0	0	0	0	0	0	0	0	0	0	0	0	0	1786	1786	1777	1786	1786	1786	1777	1795	1804	1814	1814	1814	1824	1824	1824	1833	1853	1853	1863	1873	1883	1894	1904	1904	1904	1936	1947	1947	1958	1958	1980	1980	1980	0	0	0	4706	4643	4643	4643	4643	4643	4643	4643	4643	4643	4643	4643	4643	4643	4643	4581	4581	4581	4581	4581	4581	4581	4581	4581	4643	4643	4643	4581	4581	4581	4581	4581	4581	4581	4643	4643	4643	4643	4581	4643	4643	4643	4643	4643	4643	4643	4643	4643	4643	4643	4643	4643	4643	4643	4643	4643	4643	4643	4643	4643	4643	4643	4643	4643	4643	4643	4643	4643	4643	4581	4581	4581	4643	4706	4706	4706	4706	4643	4643	4643	4643	4706	4706	4706	4706	4706	4706	4706	4706	4706	4706	4706	4706	4706	4706	4706	4706	4706	4706	4706	4706	4706	4706	4706	4706	4706	4706	4706	4706	4706	4706	4706	4706	4643	4706	4706	4706	4706	4706	4706	4706	4706	4706	4706	4706	4706	4706	4706	4706	3309	3309	3309	3309	3277	3277	3277	3277	3277	3277	3277	3277	3277	3277	3277	3309	3277	3277	3277	3277	3246	3216	3186	3186	3186	3157	3157	0	0	0	0	0	0	0	3157	3186	3186	3157	3157	3157	3157	3157	3157	3157	3157	3157	3157	3157	3157	3157	3186	3186	3186	3186	3186	3186	3186	3157	3157	0	0	3341	3277	3246	3246	3246	3246	3246	3246	3246	3277	3277	3277	3309	3309	3309	3309	3341	3341	3341	3341	3341	3341	3341	3341	3341	3309	3309	3309	4706	4771	4771	4771	4771	4838	4771	4838	4838	4838	4838	4838	4838	4838	4838	4838	4838	4838	4838	4838	4838	4838	4838	4838	4838	4838	4771	4771	4771	4838	4771	4838	4838	4771	4771	4771	4771	0	0	0	0	0	4581	4521	4581	4521	4521	4521	4521	4463	4463	4463	4463	4406	4406	4406	4350	4296	4296	4296	4296	4296	4296	4296	4296	4296	4243	4243	4296	4296	4296	4296	4296	4350	4296	4296	4350	4350	4296	4296	4296	4296	4296	4296	4296	4296	4296	4296	4296	4296	4296	4296	4296	4296	4296	4296	4296	4296	4296	4296	4296	4296	4243	4243	4296	4296	4296	4296	4296	4296	4296	4296	4296	4296	4350	4350	4350	4350	4350	4406	4521	4521	4521	4581	4581	4581	4581	0	3216	3216	3186	3186	3186	3157	3157	3157	3129	3101	3101	3101	3101	3101	3101	3101	3101	3101	3073	3073	3101	3073	3073	3073	3073	3101	3073	3073	3073	3073	3073	3073	3073	3046	3046	3019	3046	3046	3046	3046	3046	3019	3019	3019	3019	3019	3019	2993	2967	2942	2967	2942	2942	2942	0	0	0	0	0	0	0	0	0	0	0	0	0	0	0	0	0	0	0	0	0	0	0	0	0	0	0	0	0	0	0	0	0	0	0	0	0	0	0	0	0	0	0	0	0	0	0	0	0	0	0	0	0	0	0	0	0	0	0	0	0	0	0	0	0	0	0	0	0	0	0	0	0	0	0	0	0	0	0	0	0	0	0	0	0	0	0	0	0	0	0	0	0	0	0	0	0	0	0	0	0	0	0	0	0	0	0	0	0	0	0	0	0	0	0	0	0	0	0	0	0	0	0	0	0	0	0	0	0	0
0	0	0	0	0	0	0	0	0	0	0	0	0	0	0	0	0	0	0	0	0	0	0	0	0	0	0	0	0	0	0	0	0	0	0	0	0	0	0	0	0	0	0	0	0	0	0	0	0	0	0	0	0	0	0	0	0	0	0	0	0	0	0	0	0	0	0	0	0	0	0	0	0	0	1786	1786	1786	1777	1786	1786	1795	1804	1814	1814	1814	1814	1814	1814	1824	1843	1843	1863	1873	1873	1883	1915	1925	1936	1936	1936	1947	1947	1947	1947	1969	1969	1969	0	0	0	4706	4706	4643	4643	4643	4643	4643	4643	4643	4643	4643	4643	4643	4643	4643	4643	4581	4581	4581	4581	4581	4581	4581	4581	4643	4643	4643	4643	4581	4581	4581	4581	4581	4581	4581	4581	4643	4643	4643	4643	4643	4643	4643	4643	4643	4643	4643	4643	4643	4643	4643	4643	4643	4643	4643	4643	4643	4643	4643	4643	4643	4643	4643	4643	4643	4643	4643	4643	4643	4643	4581	4581	4643	4643	4706	4706	4706	4643	4706	4706	4706	4706	4706	4706	4706	4706	4706	4706	4706	4706	4706	4706	4706	4706	4706	4706	4706	4706	4706	4706	4706	4706	4706	4706	4706	4706	4706	4706	4706	4706	4706	4706	4706	4706	4706	4706	4706	4706	4706	4706	4706	4706	4706	4706	4706	4706	4706	4706	3309	3309	3309	3309	3309	3277	3277	3277	3309	3277	3277	3277	3277	3277	3277	3309	3309	3277	3277	3277	3277	3246	3246	3216	3186	3186	3157	3157	0	0	0	0	0	0	0	3186	3186	3157	3157	3157	3157	3157	3157	3157	3157	3157	3157	3157	3157	3157	3186	3186	3186	3186	3186	3186	3186	3186	3186	3157	0	0	0	3277	3246	3246	3246	3246	3246	3277	3277	3277	3277	3277	3309	3309	3341	3341	3341	3341	3341	3341	3341	3341	3341	3341	3341	3309	3309	0	4771	4771	4771	4838	4771	4771	4771	4838	4838	4838	4838	4838	4838	4838	4838	4838	4838	4838	4838	4838	4838	4838	4838	4838	4838	4771	4838	4838	4838	4771	4838	4838	4838	4838	4838	4838	4838	4838	0	0	0	0	0	4521	4521	4463	4521	4521	4521	4463	4463	4463	4463	4406	4406	4350	4350	4296	4296	4296	4296	4296	4296	4296	4296	4296	4296	4296	4296	4296	4296	4296	4296	4296	4296	4296	4296	4296	4296	4296	4296	4296	4296	4296	4296	4296	4296	4296	4296	4296	4296	4296	4296	4296	4296	4296	4296	4296	4296	4296	4296	4296	4243	4243	4296	4296	4296	4296	4296	4296	4296	4296	4296	4296	4350	4350	4350	4350	4350	4406	4463	4463	4463	4463	4521	4521	4521	0	3216	3216	3186	3186	3157	3157	3129	3157	3129	3129	3101	3101	3101	3101	3073	3101	3101	3101	3073	3073	3073	3101	3073	3073	3073	3101	3073	3073	3073	3073	3046	3046	3073	3046	3046	3019	3046	3046	3046	3046	3046	3019	3019	3019	3019	3019	2993	2993	2993	2993	2967	2942	2942	2942	0	0	0	0	0	0	0	0	0	0	0	0	0	0	0	0	0	0	0	0	0	0	0	0	0	0	0	0	0	0	0	0	0	0	0	0	0	0	0	0	0	0	0	0	0	0	0	0	0	0	0	0	0	0	0	0	0	0	0	0	0	0	0	0	0	0	0	0	0	0	0	0	0	0	0	0	0	0	0	0	0	0	0	0	0	0	0	0	0	0	0	0	0	0	0	0	0	0	0	0	0	0	0	0	0	0	0	0	0	0	0	0	0	0	0	0	0	0	0	0	0	0	0	0	0	0	0	0	0	0
0	0	0	0	0	0	0	0	0	0	0	0	0	0	0	0	0	0	0	0	0	0	0	0	0	0	0	0	0	0	0	0	0	0	0	0	0	0	0	0	0	0	0	0	0	0	0	0	0	0	0	0	0	0	0	0	0	0	0	0	0	0	0	0	0	0	0	0	0	0	0	0	0	0	1786	1768	1768	1777	1777	1786	1777	1804	1804	1814	1814	1814	1814	1824	1824	1843	1863	1863	1873	1873	1883	1894	1925	1936	1936	1936	1947	1947	1958	1958	1980	1980	1969	0	0	4706	4706	4706	4643	4643	4643	4643	4643	4643	4643	4643	4643	4643	4643	4643	4643	4643	4581	4581	4581	4581	4581	4581	4643	4643	4643	4643	4643	4643	4643	4581	4581	4643	4581	4643	4643	4581	4643	4643	4581	4643	4643	4643	4643	4643	4643	4643	4643	4643	4643	4643	4643	4643	4643	4643	4643	4643	4643	4643	4643	4643	4643	4643	4643	4643	4643	4643	4643	4643	4581	4643	4581	4581	4581	4643	4706	4706	4643	4643	4706	4643	4706	4706	4706	4706	4706	4706	4706	4706	4706	4706	4706	4706	4643	4706	4706	4706	4706	4706	4706	4706	4706	4706	4706	4706	4706	4706	4706	4706	4706	4706	4706	4706	4706	4706	4706	4706	4706	4706	4706	4643	4643	4706	4706	4706	4706	4706	4706	4706	4771	3309	3309	3309	3309	3309	3277	3277	3309	3277	3309	3277	3309	3277	3309	3309	3309	3277	3277	3277	3277	3246	3246	3216	3186	3186	3157	3157	3157	0	0	0	0	0	3216	3186	3186	3186	3186	3157	3157	3129	3129	3129	3157	3157	3157	3157	3157	3186	3186	3157	3157	3186	3157	3157	3157	3157	3186	0	0	0	0	0	3216	3216	3216	3216	3246	3246	3277	3277	3277	3309	3309	3309	3341	3341	3341	3341	3341	3341	3341	3341	3341	3341	3309	3309	3309	4771	4706	4771	4771	4771	4838	4838	4771	4838	4838	4838	4838	4838	4838	4838	4838	4838	4838	4771	4771	4771	4838	4838	4838	4838	4838	4838	4838	4838	4838	4771	4771	4838	4838	4838	4838	4838	4838	4838	0	0	0	0	0	4521	4521	4463	4521	4521	4463	4463	4463	4406	4463	4406	4406	4350	4350	4350	4350	4296	4296	4296	4296	4296	4296	4296	4243	4243	4296	4296	4296	4296	4296	4296	4296	4296	4296	4296	4296	4296	4296	4296	4296	4296	4296	4296	4296	4296	4296	4296	4296	4296	4296	4296	4296	4296	4296	4296	4296	4296	4296	4296	4243	4243	4296	4296	4296	4296	4296	4296	4296	4296	4296	4296	4296	4350	4350	4350	4350	4406	4406	4463	4463	4463	4463	4521	4521	0	3216	3186	3186	3186	3157	3157	3129	3157	3129	3129	3101	3101	3101	3101	3073	3101	3101	3101	3073	3073	3073	3101	3101	3101	3073	3101	3073	3073	3073	3073	3046	3046	3046	3046	3046	3046	3046	3046	3046	3019	3019	3019	3019	3019	3019	3019	3019	2967	2967	2993	0	0	0	0	0	0	0	0	0	0	0	0	0	0	0	0	0	0	0	0	0	0	0	0	0	0	0	0	0	0	0	0	0	0	0	0	0	0	0	0	0	0	0	0	0	0	0	0	0	0	0	0	0	0	0	0	0	0	0	0	0	0	0	0	0	0	0	0	0	0	0	0	0	0	0	0	0	0	0	0	0	0	0	0	0	0	0	0	0	0	0	0	0	0	0	0	0	0	0	0	0	0	0	0	0	0	0	0	0	0	0	0	0	0	0	0	0	0	0	0	0	0	0	0	0	0	0	0	0	0	0	0	0	0
0	0	0	0	0	0	0	0	0	0	0	0	0	0	0	0	0	0	0	0	0	0	0	0	0	0	0	0	0	0	0	0	0	0	0	0	0	0	0	0	0	0	0	0	0	0	0	0	0	0	0	0	0	0	0	0	0	0	0	0	0	0	0	0	0	0	0	0	0	0	0	0	0	0	1786	1768	1786	1786	1786	1795	1777	1804	1814	1814	1814	1814	1824	1824	1824	1843	1863	1863	1873	1873	1894	1925	1936	1936	1947	1947	1947	1958	1958	1969	1980	1992	1992	0	0	4706	4643	4643	4643	4643	4643	4643	4643	4643	4643	4643	4643	4643	4643	4643	4643	4643	4643	4581	4581	4581	4581	4581	4643	4643	4643	4643	4643	4643	4643	4643	4581	4643	4643	4643	4643	4643	4643	4643	4643	4643	4643	4643	4643	4643	4643	4643	4643	4643	4643	4643	4643	4643	4643	4643	4643	4643	4643	4643	4581	4581	4643	4643	4581	4581	4643	4643	4643	4643	4643	4643	4581	4643	4643	4643	4643	4643	4643	4643	4643	4643	4706	4706	4706	4706	4706	4706	4706	4706	4706	4706	4706	4706	4643	4706	4706	4706	4706	4706	4706	4706	4706	4706	4706	4706	4706	4771	4706	4706	4706	4706	4706	4706	4706	4706	4706	4706	4706	4706	4706	4706	4706	4706	4706	4706	4706	4706	4706	4706	4706	3309	3309	3277	3277	3309	3309	3309	3309	3309	3309	3277	3309	3309	3309	3309	3309	3277	3277	3277	3277	3246	3246	3216	3186	3186	3186	3157	3157	0	0	0	3186	3216	3216	3216	3186	3186	3186	3129	3101	3101	3101	3101	3129	3157	3157	3186	3186	3186	3186	3186	3157	3186	3157	3157	3157	3157	0	0	0	0	0	0	3216	3216	3216	3246	3246	3246	3277	3277	3277	3309	3309	3309	3309	3341	3341	3341	3341	3341	3341	3341	3341	3341	3309	3309	3309	4771	4771	4771	4771	4771	4771	4771	4771	4838	4838	4838	4838	4838	4838	4838	4838	4838	4838	4771	4771	4771	4838	4838	4838	4838	4838	4771	4838	4838	4838	4838	4838	4838	4838	4838	4838	4838	4838	0	0	0	0	0	0	4521	4463	4463	4521	4463	4463	4463	4463	4406	4406	4406	4350	4350	4350	4350	4350	4296	4296	4296	4296	4296	4296	4296	4243	4243	4243	4296	4296	4296	4296	4296	4296	4296	4296	4296	4296	4296	4296	4296	4296	4296	4296	4296	4296	4296	4296	4296	4296	4296	4296	4296	4243	4243	4296	4296	4296	4296	4296	4243	4243	4243	4296	4296	4296	4296	4296	4296	4296	4296	4296	4296	4296	4296	4296	4350	4406	4406	4463	4463	4463	4463	4463	0	0	3216	3216	3216	3186	3186	3157	3157	3129	3129	3129	3129	3101	3101	3101	3101	3101	3101	3101	3101	3073	3073	3073	3073	3101	3073	3073	3073	3073	3073	3046	3046	3073	3046	3046	3046	3046	3046	3046	3046	3046	3046	3046	3019	3019	3019	3019	3019	2993	2993	2967	0	0	0	0	0	0	0	0	0	0	0	0	0	0	0	0	0	0	0	0	0	0	0	0	0	0	0	0	0	0	0	0	0	0	0	0	0	0	0	0	0	0	0	0	0	0	0	0	0	0	0	0	0	0	0	0	0	0	0	0	0	0	0	0	0	0	0	0	0	0	0	0	0	0	0	0	0	0	0	0	0	0	0	0	0	0	0	0	0	0	0	0	0	0	0	0	0	0	0	0	0	0	0	0	0	0	0	0	0	0	0	0	0	0	0	0	0	0	0	0	0	0	0	0	0	0	0	0	0	0	0	0	0	0	0
0	0	0	0	0	0	0	0	0	0	0	0	0	0	0	0	0	0	0	0	0	0	0	0	0	0	0	0	0	0	0	0	0	0	0	0	0	0	0	0	0	0	0	0	0	0	0	0	0	0	0	0	0	0	0	0	0	0	0	0	0	0	0	0	0	0	0	0	0	0	0	0	0	0	1777	1768	1786	1786	1786	1795	1795	1804	1814	1814	1814	1814	1814	1833	1833	1843	1853	1863	1873	1873	1894	1904	1936	1947	1947	1947	1958	1958	1969	1969	1980	1980	1992	0	0	4643	4643	4643	4643	4643	4643	4643	4643	4643	4643	4643	4643	4643	4643	4643	4643	4643	4643	4581	4581	4581	4643	4581	4643	4643	4643	4643	4643	4643	4643	4643	4643	4643	4643	4643	4643	4581	4643	4581	4581	4643	4643	4643	4643	4643	4643	4643	4643	4643	4643	4643	4643	4643	4643	4643	4643	4643	4643	4643	4643	4643	4643	4643	4643	4643	4643	4643	4643	4643	4643	4643	4581	4643	4643	4643	4643	4643	4643	4643	4706	4706	4706	4706	4706	4706	4706	4706	4706	4706	4706	4706	4643	4643	4706	4706	4706	4706	4706	4706	4706	4706	4706	4706	4706	4706	4771	4771	4706	4706	4706	4706	4706	4706	4706	4706	4706	4706	4706	4706	4706	4706	4706	4706	4706	4706	4706	4706	4643	4643	4643	3309	3309	3309	3309	3309	3309	3309	3309	3309	3309	3309	3309	3309	3309	3309	3309	3277	3277	3277	3277	3246	3246	3216	3186	3186	3186	3157	3157	0	0	0	3186	3186	3186	3186	3186	3186	3129	3129	3129	3101	3101	3129	3129	3157	3157	3186	3186	3186	3186	3186	3186	3186	3157	3157	3157	3157	0	0	0	0	0	0	3157	3216	3186	3246	3246	3246	3277	3277	3309	3309	3309	3309	3309	3341	3341	3341	3341	3341	3341	3341	3341	3341	3309	3309	3309	4771	4771	4771	4771	4771	4771	4771	4771	4838	4771	4838	4838	4838	4838	4838	4838	4838	4838	4838	4771	4838	4838	4771	4771	4771	4771	4771	4838	4838	4838	4838	4838	4838	4838	4838	4771	4838	4838	0	0	0	0	0	0	0	4463	4463	4463	4463	4406	4406	4406	4406	4406	4350	4350	4350	4350	4350	4350	4296	4296	4296	4296	4296	4296	4296	4296	4296	4296	4296	4296	4296	4296	4296	4296	4296	4296	4296	4296	4296	4296	4296	4296	4296	4296	4296	4296	4296	4296	4296	4243	4243	4243	4243	4243	4243	4243	4296	4296	4296	4296	4296	4296	4296	4296	4296	4296	4296	4296	4296	4296	4296	4296	4296	4296	4296	4296	4350	4350	4406	4463	4463	4463	4463	4463	0	0	3216	3216	3186	3186	3157	3157	3129	3129	3129	3101	3101	3101	3101	3101	3101	3101	3101	3101	3101	3073	3073	3073	3073	3073	3073	3073	3073	3073	3073	3073	3073	3046	3046	3046	3046	3046	3019	3019	3046	3046	3046	3046	3019	3046	3019	3019	3019	3019	2993	0	0	0	0	0	0	0	0	0	0	0	0	0	0	0	0	0	0	0	0	0	0	0	0	0	0	0	0	0	0	0	0	0	0	0	0	0	0	0	0	0	0	0	0	0	0	0	0	0	0	0	0	0	0	0	0	0	0	0	0	0	0	0	0	0	0	0	0	0	0	0	0	0	0	0	0	0	0	0	0	0	0	0	0	0	0	0	0	0	0	0	0	0	0	0	0	0	0	0	0	0	0	0	0	0	0	0	0	0	0	0	0	0	0	0	0	0	0	0	0	0	0	0	0	0	0	0	0	0	0	0	0	0	0	0	0
0	0	0	0	0	0	0	0	0	0	0	0	0	0	0	0	0	0	0	0	0	0	0	0	0	0	0	0	0	0	0	0	0	0	0	0	0	0	0	0	0	0	0	0	0	0	0	0	0	0	0	0	0	0	0	0	0	0	0	0	0	0	0	0	0	0	0	0	0	0	0	0	0	0	1768	1768	1786	1786	1786	1795	1804	1804	1814	1814	1814	1814	1824	1833	1833	1843	1853	1863	1863	1883	1904	1925	1936	1947	1947	1947	1958	1958	1958	1958	1980	1980	0	4643	4643	4643	4643	4643	4643	4643	4643	4643	4643	4643	4581	4643	4643	4643	4643	4643	4643	4643	4643	4643	4581	4581	4581	4581	4643	4643	4643	4643	4643	4643	4643	4643	4643	4643	4643	4643	4643	4643	4643	4581	4581	4643	4643	4643	4643	4643	4581	4581	4581	4581	4581	4581	4581	4643	4643	4706	4643	4643	4643	4643	4643	4643	4643	4643	4643	4643	4643	4643	4643	4643	4643	4643	4643	4643	4643	4643	4706	4706	4706	4643	4643	4706	4706	4706	4706	4706	4706	4706	4706	4706	4706	4706	4706	4706	4643	4706	4706	4706	4706	4706	4706	4706	4706	4706	4706	4706	4771	4706	4706	4706	4706	4706	4706	4706	4706	4706	4706	4706	4706	4706	4706	4706	4706	4706	4706	4706	4706	4706	4643	4643	4643	3309	3309	3309	3309	3309	3309	3309	3309	3309	3309	3309	3309	3309	3309	3309	3309	3277	3277	3277	3277	3246	3246	3216	3186	3186	3186	3157	3157	3129	3129	3129	3157	3129	3157	3186	3129	3129	3129	3129	3129	3129	3129	3129	3129	3157	3157	3186	3186	3186	3186	3186	3157	3186	3157	3129	3129	3129	0	0	0	0	0	3216	3186	3216	3216	3216	3246	3277	3277	3309	3309	3309	3309	3309	3309	3341	3341	3341	3341	3341	3341	3341	3341	3341	3309	3309	3309	4838	4838	4771	4771	4838	4838	4771	4771	4771	4771	4838	4838	4838	4838	4838	4838	4838	4838	4771	4771	4771	4771	4771	4771	4771	4771	4838	4838	4838	4838	4838	4838	4838	4838	4838	4771	4771	4771	0	0	0	0	0	0	0	4463	4406	4463	4463	4406	4406	4406	4406	4406	4350	4350	4350	4296	4296	4296	4296	4296	4296	4296	4296	4296	4296	4296	4296	4296	4296	4296	4296	4296	4296	4296	4296	4296	4296	4296	4296	4296	4296	4296	4296	4296	4296	4296	4296	4296	4296	4296	4296	4296	4296	4296	4296	4296	4296	4296	4296	4296	4296	4296	4296	4296	4296	4243	4296	4296	4296	4296	4243	4296	4296	4296	4296	4296	4350	4406	4406	4463	4463	4463	4463	4463	0	3246	3216	3216	3186	3157	3157	3129	3129	3129	3129	3101	3101	3101	3101	3101	3101	3101	3101	3101	3101	3073	3073	3073	3073	3073	3073	3073	3073	3073	3073	3073	3046	3046	3046	3019	3019	3046	3019	3019	3046	3046	3019	3046	3019	3046	3046	3019	3019	3019	0	0	0	0	0	0	0	0	0	0	0	0	0	0	0	0	0	0	0	0	0	0	0	0	0	0	0	0	0	0	0	0	0	0	0	0	0	0	0	0	0	0	0	0	0	0	0	0	0	0	0	0	0	0	0	0	0	0	0	0	0	0	0	0	0	0	0	0	0	0	0	0	0	0	0	0	0	0	0	0	0	0	0	0	0	0	0	0	0	0	0	0	0	0	0	0	0	0	0	0	0	0	0	0	0	0	0	0	0	0	0	0	0	0	0	0	0	0	0	0	0	0	0	0	0	0	0	0	0	0	0	0	0	0	0	0	0
0	0	0	0	0	0	0	0	0	0	0	0	0	0	0	0	0	0	0	0	0	0	0	0	0	0	0	0	0	0	0	0	0	0	0	0	0	0	0	0	0	0	0	0	0	0	0	0	0	0	0	0	0	0	0	0	0	0	0	0	0	0	0	0	0	0	0	0	0	0	0	0	0	1786	1777	1777	1786	1786	1786	1795	1804	1814	1814	1814	1814	1824	1824	1833	1833	1853	1883	1883	1883	1894	1904	1925	1947	1947	1958	1947	1958	1958	1958	1980	1980	0	0	4581	4643	4643	4581	4643	4581	4643	4581	4643	4581	4581	4581	4643	4643	4643	4643	4643	4643	4643	4643	4643	4643	4581	4643	4643	4643	4643	4643	4643	4643	4643	4643	4643	4643	4643	4643	4643	4643	4581	4643	4581	4581	4581	4643	4643	4643	4581	4643	4643	4581	4643	4643	4643	4643	4643	4643	4706	4643	4643	4643	4643	4643	4643	4643	4643	4643	4643	4643	4643	4643	4643	4643	4643	4643	4643	4643	4643	4706	4706	4706	4706	4643	4706	4706	4643	4643	4706	4706	4706	4706	4706	4643	4706	4643	4706	4643	4706	4706	4706	4706	4706	4706	4706	4706	4706	4706	4706	4706	4706	4706	4706	4706	4706	4706	4706	4706	4706	4706	4706	4706	4706	4706	4706	4706	4706	4706	4706	4706	4706	4643	4643	3277	3277	3277	3277	3309	3309	3309	3309	3309	3309	3309	3309	3309	3309	3309	3309	3309	3309	3277	3277	3277	3246	3246	3216	3216	3186	3186	3186	3157	3157	3157	3157	3157	3129	3186	3186	3129	3129	3129	3129	3129	3129	3129	3129	3129	3157	3157	3157	3186	3186	3186	3186	3157	3186	3157	3129	3129	3157	3157	0	0	0	0	3216	3186	3216	3246	3246	3246	3277	3277	3309	3309	3309	3309	3309	3309	3341	3341	3341	3341	3341	3341	3341	3341	3341	3309	3309	4838	4838	4838	4771	4771	4771	4771	4771	4771	4771	4771	4838	4838	4838	4771	4771	4771	4771	4771	4771	4771	4771	4771	4771	4771	4771	4771	4771	4838	4838	4838	4838	4838	4838	4771	4771	4771	4706	4706	0	0	0	0	0	0	0	4406	4406	4463	4463	4406	4406	4406	4406	4406	4350	4350	4350	4350	4296	4350	4296	4296	4296	4350	4296	4350	4296	4296	4296	4296	4296	4296	4296	4296	4296	4296	4296	4296	4243	4243	4243	4296	4296	4296	4296	4296	4296	4296	4296	4296	4296	4296	4296	4296	4296	4243	4243	4243	4296	4296	4296	4296	4296	4296	4296	4296	4296	4296	4296	4296	4296	4296	4243	4296	4296	4350	4296	4296	4350	4350	4406	4463	4406	4406	4406	4406	0	3246	3186	3216	3186	3186	3157	3129	3129	3129	3129	3101	3101	3101	3101	3101	3101	3101	3101	3101	3101	3101	3073	3073	3073	3073	3073	3073	3073	3073	3046	3046	3046	3046	3046	3019	3019	3046	3019	3019	3046	3019	3019	3019	3046	3019	3019	3019	3019	0	0	0	0	0	0	0	0	0	0	0	0	0	0	0	0	0	0	0	0	0	0	0	0	0	0	0	0	0	0	0	0	0	0	0	0	0	0	0	0	0	0	0	0	0	0	0	0	0	0	0	0	0	0	0	0	0	0	0	0	0	0	0	0	0	0	0	0	0	0	0	0	0	0	0	0	0	0	0	0	0	0	0	0	0	0	0	0	0	0	0	0	0	0	0	0	0	0	0	0	0	0	0	0	0	0	0	0	0	0	0	0	0	0	0	0	0	0	0	0	0	0	0	0	0	0	0	0	0	0	0	0	0	0	0	0	0	0
0	0	0	0	0	0	0	0	0	0	0	0	0	0	0	0	0	0	0	0	0	0	0	0	0	0	0	0	0	0	0	0	0	0	0	0	0	0	0	0	0	0	0	0	0	0	0	0	0	0	0	0	0	0	0	0	0	0	0	0	0	0	0	0	0	0	0	0	0	0	0	0	0	1786	1777	1777	1786	1777	1786	1786	1786	1814	1814	1824	1824	1824	1833	1843	1853	1873	1883	1883	1883	1894	1904	1915	1936	1947	1958	1958	1969	1980	1980	1980	1980	0	0	4581	4581	4581	4581	4581	4581	4581	4581	4581	4581	4581	4581	4581	4643	4643	4643	4643	4643	4643	4643	4643	4643	4643	4643	4643	4643	4643	4643	4581	4643	4643	4643	4643	4643	4581	4581	4581	4581	4581	4581	4581	4581	4643	4643	4643	4643	4643	4643	4643	4581	4643	4643	4643	4643	4643	4643	4706	4643	4643	4643	4643	4643	4643	4643	4643	4643	4643	4643	4643	4643	4643	4643	4643	4581	4643	4643	4706	4706	4706	4706	4706	4643	4706	4706	4643	4643	4706	4643	4706	4643	4643	4643	4706	4643	4706	4706	4706	4706	4706	4706	4706	4706	4706	4706	4706	4706	4706	4706	4706	4706	4706	4643	4706	4643	4706	4706	4706	4706	4706	4706	4706	4706	4706	4706	4706	4706	4706	4706	4706	4706	4643	3277	3277	3309	3277	3309	3309	3309	3309	3309	3309	3309	3309	3309	3309	3309	3309	3309	3277	3277	3246	3246	3246	3246	3216	3186	3186	3186	3186	3157	3157	3157	3157	3157	3129	3157	3157	3129	3129	3129	3129	3157	3129	3129	3129	3129	3157	3186	3186	3186	3186	3186	3186	3186	3157	3157	3101	3101	3157	3157	3157	3157	3157	3157	3216	3186	3216	3246	3246	3246	3277	3277	3309	3309	3309	3309	3309	3309	3341	3341	3341	3341	3341	3341	3341	3341	3341	3341	3341	4838	4838	4838	4771	4771	4771	4771	4771	4771	4771	4771	4771	4771	4771	4771	4771	4706	4771	4771	4771	4706	4706	4771	4771	4771	4771	4706	4771	4771	4771	4771	4771	4771	4771	4771	4706	4706	4706	4706	0	0	0	0	0	0	0	4350	4350	4406	4406	4406	4406	4406	4406	4406	4350	4350	4350	4350	4296	4296	4296	4296	4350	4350	4350	4350	4296	4296	4296	4296	4296	4296	4296	4296	4296	4296	4243	4243	4243	4243	4243	4243	4243	4296	4296	4296	4296	4296	4296	4296	4296	4243	4243	4243	4296	4243	4243	4296	4296	4296	4296	4296	4296	4296	4296	4296	4296	4296	4296	4296	4296	4296	4243	4296	4296	4350	4296	4350	4350	4350	4406	4463	4406	4463	4406	4406	0	3246	3216	3216	3186	3186	3157	3157	3129	3129	3129	3101	3101	3101	3101	3101	3101	3101	3101	3101	3101	3101	3101	3101	3101	3073	3073	3073	3073	3073	3046	3046	3046	3046	3046	3019	3019	3019	3019	3019	3046	3019	3019	3019	3046	3019	3019	0	0	0	0	0	0	0	0	0	0	0	0	0	0	0	0	0	0	0	0	0	0	0	0	0	0	0	0	0	0	0	0	0	0	0	0	0	0	0	0	0	0	0	0	0	0	0	0	0	0	0	0	0	0	0	0	0	0	0	0	0	0	0	0	0	0	0	0	0	0	0	0	0	0	0	0	0	0	0	0	0	0	0	0	0	0	0	0	0	0	0	0	0	0	0	0	0	0	0	0	0	0	0	0	0	0	0	0	0	0	0	0	0	0	0	0	0	0	0	0	0	0	0	0	0	0	0	0	0	0	0	0	0	0	0	0	0	0	0	0
0	0	0	0	0	0	0	0	0	0	0	0	0	0	0	0	0	0	0	0	0	0	0	0	0	0	0	0	0	0	0	0	0	0	0	0	0	0	0	0	0	0	0	0	0	0	0	0	0	0	0	0	0	0	0	0	0	0	0	0	0	0	0	0	0	0	0	0	0	0	0	0	0	1786	1777	1777	1777	1777	1786	1786	1786	1814	1814	1814	1824	1833	1833	1843	1853	1873	1883	1883	1883	1894	1904	1925	1947	1958	1958	1958	1969	1980	1980	1980	0	0	0	4521	4581	4581	4581	4581	4581	4581	4521	4581	4581	4581	4581	4581	4643	4643	4643	4643	4643	4643	4643	4643	4643	4643	4643	4643	4643	4643	4643	4521	4581	4581	4581	4581	4581	4581	4581	4581	4581	4643	4643	4581	4581	4643	4643	4643	4643	4643	4643	4643	4581	4643	4643	4643	4643	4643	4643	4643	4643	4643	4643	4643	4643	4643	4643	4643	4643	4643	4643	4643	4643	4643	4643	4643	4643	4643	4643	4706	4706	4706	4706	4706	4643	4706	4706	4643	4643	4706	4706	4706	4706	4706	4643	4706	4706	4706	4706	4706	4706	4706	4706	4706	4706	4706	4706	4706	4706	4706	4706	4706	4706	4706	4706	4706	4706	4706	4706	4706	4706	4706	4706	4706	4706	4706	4706	4706	4706	4706	4706	4706	4706	4643	3309	3309	3309	3309	3309	3309	3309	3309	3309	3277	3309	3309	3309	3277	3309	3309	3277	3277	3246	3246	3246	3246	3216	3216	3186	3186	3186	3186	3186	3157	3157	3157	3157	3157	3157	3157	3129	3129	3129	3129	3129	3157	3157	3157	3129	3129	3157	3186	3186	3186	3186	3186	3186	3157	3157	3101	3101	3157	3157	3157	3157	3157	3157	3216	3216	3246	3277	3246	3246	3277	3277	3277	3309	3309	3309	3309	3309	3341	3341	3341	3341	3341	3341	3341	3341	3309	3309	3309	4838	4838	4838	4771	4771	4706	4706	4706	4706	4706	4706	4771	4706	4706	4706	4771	4706	4706	4706	4706	4706	4706	4771	4706	4771	4771	4706	4771	4771	4706	4706	4771	4771	4771	4706	4643	4643	4643	4643	0	0	0	0	0	0	0	4406	4350	4406	4406	4406	4406	4406	4350	4350	4350	4296	4296	4296	4296	4350	4296	4296	4350	4350	4350	4296	4296	4296	4296	4296	4296	4296	4296	4296	4296	4296	4296	4296	4296	4243	4296	4296	4296	4296	4296	4296	4296	4296	4296	4296	4296	4243	4243	4243	4296	4243	4243	4296	4296	4296	4296	4296	4296	4296	4296	4296	4296	4296	4296	4296	4296	4296	4296	4296	4296	4350	4296	4350	4350	4350	4406	4463	4406	4406	4406	4406	0	3246	3216	3216	3186	3186	3157	3157	3129	3157	3129	3129	3101	3101	3101	3101	3101	3101	3101	3101	3101	3101	3101	3073	3073	3073	3073	3073	3073	3073	3046	3046	3046	3046	3046	3019	3019	3019	3019	3019	3046	3046	3046	3046	3019	3019	3019	0	0	0	0	0	0	0	0	0	0	0	0	0	0	0	0	0	0	0	0	0	0	0	0	0	0	0	0	0	0	0	0	0	0	0	0	0	0	0	0	0	0	0	0	0	0	0	0	0	0	0	0	0	0	0	0	0	0	0	0	0	0	0	0	0	0	0	0	0	0	0	0	0	0	0	0	0	0	0	0	0	0	0	0	0	0	0	0	0	0	0	0	0	0	0	0	0	0	0	0	0	0	0	0	0	0	0	0	0	0	0	0	0	0	0	0	0	0	0	0	0	0	0	0	0	0	0	0	0	0	0	0	0	0	0	0	0	0	0	0
0	0	0	0	0	0	0	0	0	0	0	0	0	0	0	0	0	0	0	0	0	0	0	0	0	0	0	0	0	0	0	0	0	0	0	0	0	0	0	0	0	0	0	0	0	0	0	0	0	0	0	0	0	0	0	0	0	0	0	0	0	0	0	0	0	0	0	0	0	0	0	0	1786	1777	1777	1777	1777	1777	1786	1786	1795	1814	1824	1824	1824	1833	1833	1853	1863	1873	1883	1883	1894	1894	1904	1925	1947	1969	1969	1969	1980	1992	1992	1992	0	0	0	4521	4581	4581	4581	4581	4581	4521	4521	4581	4581	4581	4581	4581	4643	4643	4643	4643	4643	4643	4643	4643	4643	4643	4643	4643	4643	4643	4581	4521	4581	4581	4581	4581	4581	4581	4581	4581	4581	4581	4581	4581	4581	4643	4643	4643	4643	4643	4643	4643	4581	4581	4581	4581	4643	4643	4581	4643	4643	4643	4581	4581	4643	4643	4643	4643	4643	4643	4643	4643	4643	4643	4643	4643	4643	4581	4581	4706	4706	4706	4706	4706	4643	4706	4706	4643	4643	4643	4706	4706	4706	4706	4643	4706	4706	4643	4706	4706	4706	4706	4706	4706	4706	4706	4706	4706	4706	4706	4706	4706	4706	4706	4706	4706	4706	4706	4706	4706	4706	4706	4706	4706	4706	4706	4706	4706	4706	4706	4706	4706	4706	4643	3309	3309	3309	3309	3309	3309	3309	3309	3309	3277	3309	3309	3309	3277	3277	3277	3277	3277	3216	3216	3216	3216	3216	3216	3186	3186	3186	3186	3186	3157	3157	3157	3157	3157	3157	3157	3129	3129	3129	3129	3157	3157	3157	3157	3129	3129	3157	3157	3157	3157	3157	3157	3157	3129	3129	3101	3129	3157	3157	3157	3186	3186	3186	3216	3216	3246	3277	3277	3277	3277	3277	3309	3309	3309	3309	3309	3309	3341	3341	3341	3341	3341	3341	3341	3341	3341	3341	3341	4643	4771	4771	4771	4706	4706	4643	4643	4706	4706	4643	4706	4706	4706	4581	4643	4643	4706	4643	4643	4643	4643	4706	4706	4706	4706	4706	4706	4706	4643	4643	4643	4706	4706	4643	4643	4643	4643	4643	4643	0	0	0	0	0	0	4406	4406	4406	4406	4406	4406	4406	4350	4350	4350	4296	4296	4296	4296	4296	4296	4296	4296	4350	4350	4296	4296	4296	4296	4296	4296	4296	4296	4296	4296	4296	4296	4296	4243	4296	4296	4296	4296	4296	4296	4296	4296	4296	4296	4296	4296	4243	4243	4243	4296	4296	4296	4296	4296	4296	4296	4296	4296	4296	4296	4296	4296	4296	4296	4296	4243	4243	4296	4296	4296	4296	4296	4296	4350	4350	4406	4463	4406	4406	4406	4406	0	3186	3186	3216	3186	3157	3157	3129	3157	3157	3129	3101	3101	3101	3101	3101	3101	3101	3101	3101	3101	3101	3101	3073	3073	3073	3073	3073	3073	3073	3046	3073	3046	3046	3019	3019	3019	3019	3019	3019	3046	3046	3073	3073	3019	3019	0	0	0	0	0	0	0	0	0	0	0	0	0	0	0	0	0	0	0	0	0	0	0	0	0	0	0	0	0	0	0	0	0	0	0	0	0	0	0	0	0	0	0	0	0	0	0	0	0	0	0	0	0	0	0	0	0	0	0	0	0	0	0	0	0	0	0	0	0	0	0	0	0	0	0	0	0	0	0	0	0	0	0	0	0	0	0	0	0	0	0	0	0	0	0	0	0	0	0	0	0	0	0	0	0	0	0	0	0	0	0	0	0	0	0	0	0	0	0	0	0	0	0	0	0	0	0	0	0	0	0	0	0	0	0	0	0	0	0	0	0
0	0	0	0	0	0	0	0	0	0	0	0	0	0	0	0	0	0	0	0	0	0	0	0	0	0	0	0	0	0	0	0	0	0	0	0	0	0	0	0	0	0	0	0	0	0	0	0	0	0	0	0	0	0	0	0	0	0	0	0	0	0	0	0	0	0	0	0	0	0	0	1795	1786	1777	1777	1777	1777	1777	1786	1786	1795	1814	1824	1824	1824	1833	1843	1853	1863	1873	1883	1883	1894	1894	1904	1947	1958	1969	1969	1980	1980	1992	1992	1992	0	0	0	4521	4581	4581	4581	4581	4581	4521	4521	4581	4581	4581	4521	4581	4643	4706	4643	4581	4581	4581	4643	4643	4643	4643	4643	4643	4643	4643	4581	4581	4581	4581	4581	4581	4581	4581	4581	4581	4581	4581	4581	4581	4581	4581	4643	4643	4643	4581	4581	4643	4581	4581	4581	4581	4581	4581	4581	4643	4643	4581	4581	4581	4643	4643	4643	4643	4643	4643	4643	4643	4643	4643	4643	4643	4581	4581	4581	4643	4643	4643	4643	4643	4706	4643	4706	4643	4643	4643	4706	4706	4706	4706	4643	4706	4706	4706	4706	4706	4706	4706	4706	4706	4706	4706	4706	4706	4706	4706	4706	4706	4706	4706	4706	4706	4706	4706	4706	4706	4706	4706	4706	4643	4643	4643	4706	4706	4706	4706	4706	4706	4643	3309	3309	3277	3277	3309	3309	3309	3309	3277	3309	3277	3277	3309	3309	3277	3277	3277	3277	3277	3246	3246	3246	3216	3216	3216	3186	3186	3186	3186	3186	3157	3157	3157	3157	3157	3157	3129	3129	3129	3129	3129	3157	3157	3186	3157	3157	3157	3157	3157	3157	3129	3129	3129	3157	3129	3129	3129	3129	3157	3157	3186	3186	3186	3186	3216	3186	3216	3277	3246	3246	3277	3277	3277	3309	3309	3309	3309	3309	3341	3341	3341	3341	3341	3341	3341	3341	3341	3341	4643	4643	4643	4771	4771	4706	4643	4643	4643	4643	4643	4643	4643	4643	4643	4643	4581	4581	4581	4581	4581	4581	4581	4643	4581	4643	4581	4581	4706	4643	4643	4643	4643	4643	4643	4643	4643	4643	4643	4643	4643	4643	0	0	0	0	0	4406	4406	4406	4406	4406	4406	4406	4350	4350	4350	4296	4296	4296	4296	4296	4296	4296	4296	4350	4350	4296	4296	4296	4296	4296	4296	4296	4296	4296	4296	4296	4296	4296	4243	4243	4243	4296	4243	4296	4296	4296	4296	4296	4296	4296	4296	4243	4243	4243	4243	4296	4296	4296	4296	4296	4296	4296	4296	4296	4296	4296	4296	4296	4296	4296	4296	4296	4243	4296	4296	4296	4296	4296	4350	4350	4406	4463	4406	4406	4406	4406	0	3186	3186	3186	3186	3157	3157	3129	3129	3129	3129	3101	3101	3101	3101	3101	3101	3101	3101	3101	3101	3073	3101	3073	3073	3073	3073	3073	3073	3073	3073	3046	3046	3046	3019	3019	3046	3046	3019	3019	3046	3073	3073	3073	0	0	0	0	0	0	0	0	0	0	0	0	0	0	0	0	0	0	0	0	0	0	0	0	0	0	0	0	0	0	0	0	0	0	0	0	0	0	0	0	0	0	0	0	0	0	0	0	0	0	0	0	0	0	0	0	0	0	0	0	0	0	0	0	0	0	0	0	0	0	0	0	0	0	0	0	0	0	0	0	0	0	0	0	0	0	0	0	0	0	0	0	0	0	0	0	0	0	0	0	0	0	0	0	0	0	0	0	0	0	0	0	0	0	0	0	0	0	0	0	0	0	0	0	0	0	0	0	0	0	0	0	0	0	0	0	0	0	0	0	0	0	0
0	0	0	0	0	0	0	0	0	0	0	0	0	0	0	0	0	0	0	0	0	0	0	0	0	0	0	0	0	0	0	0	0	0	0	0	0	0	0	0	0	0	0	0	0	0	0	0	0	0	0	0	0	0	0	0	0	0	0	0	0	0	0	0	0	0	0	0	0	0	0	1795	1786	1777	1777	1777	1777	1786	1795	1795	1804	1814	1824	1824	1824	1843	1843	1853	1863	1883	1894	1883	1894	1904	1915	1947	1969	1969	1980	1980	1969	1980	1992	2003	2003	0	0	4521	4521	4581	4581	4581	4581	4521	4581	4581	4581	4581	4521	4521	4521	4643	4581	4581	4581	4643	4643	4643	4643	4643	4643	4643	4643	4643	4581	4581	4581	4581	4581	4581	4581	4581	4581	4581	4581	4581	4581	4581	4581	4581	4643	4643	4643	4581	4581	4581	4581	4521	4521	4521	4521	4581	4581	4581	4643	4581	4581	4643	4643	4643	4643	4643	4643	4643	4643	4643	4643	4643	4643	4643	4643	4581	4581	4706	4706	4706	4706	4643	4706	4643	4706	4643	4643	4643	4706	4706	4706	4706	4643	4643	4706	4706	4706	4706	4706	4706	4706	4706	4706	4706	4706	4706	4706	4706	4706	4706	4706	4706	4706	4706	4706	4706	4643	4706	4706	4706	4643	4643	4643	4706	4643	4706	4706	4706	4706	4706	4706	4643	3309	3246	3309	3309	3309	3341	3309	3309	3309	3277	3309	3309	3309	3277	3277	3277	3246	3246	3246	3246	3246	3246	3216	3186	3186	3186	3186	3186	3186	3186	3186	3157	3157	3157	3157	3129	3129	3129	3129	3129	3157	3157	3157	3157	3157	3157	3157	3157	3157	3157	3129	3157	3157	3157	3157	3129	3157	3157	3157	3186	3186	3186	3186	3216	3186	3216	3277	3246	3246	3277	3277	3309	3309	3309	3309	3309	3309	3341	3341	3341	3341	3341	3341	3373	3373	3373	3373	4581	4581	4581	4581	4706	4706	4643	4643	4643	4643	4581	4581	4581	4643	4581	4581	4581	4581	4581	4521	4581	4581	4581	4581	4581	4581	4581	4643	4643	4643	4581	4581	4581	4581	4581	4581	4581	4643	4643	4706	4643	4643	4581	4581	4521	4521	4521	4406	4406	4406	4406	4406	4350	4521	4350	4350	4350	4296	4296	4296	4296	4296	4296	4296	4296	4350	4350	4296	4296	4296	4296	4296	4296	4296	4296	4296	4296	4296	4296	4296	4296	4296	4243	4296	4243	4296	4296	4296	4296	4296	4296	4296	4296	4243	4243	4243	4243	4296	4296	4296	4296	4296	4296	4296	4296	4296	4296	4296	4296	4296	4296	4296	4296	4296	4296	4296	4296	4296	4296	4296	4350	4350	4350	4406	4406	4581	4581	4581	0	0	3216	3216	3186	3157	3157	3157	3129	3157	3129	3101	3101	3101	3101	3101	3101	3101	3101	3101	3101	3101	3073	3073	3073	3073	3073	3073	3073	3073	3073	3073	3046	3046	3019	3019	3019	3019	3019	3019	3019	3019	3073	0	0	0	0	0	0	0	0	0	0	0	0	0	0	0	0	0	0	0	0	0	0	0	0	0	0	0	0	0	0	0	0	0	0	0	0	0	0	0	0	0	0	0	0	0	0	0	0	0	0	0	0	0	0	0	0	0	0	0	0	0	0	0	0	0	0	0	0	0	0	0	0	0	0	0	0	0	0	0	0	0	0	0	0	0	0	0	0	0	0	0	0	0	0	0	0	0	0	0	0	0	0	0	0	0	0	0	0	0	0	0	0	0	0	0	0	0	0	0	0	0	0	0	0	0	0	0	0	0	0	0	0	0	0	0	0	0	0	0	0	0	0	0	0
0	0	0	0	0	0	0	0	0	0	0	0	0	0	0	0	0	0	0	0	0	0	0	0	0	0	0	0	0	0	0	0	0	0	0	0	0	0	0	0	0	0	0	0	0	0	0	0	0	0	0	0	0	0	0	0	0	0	0	0	0	0	0	0	0	0	0	0	0	0	0	1795	1786	1786	1777	1777	1786	1786	1786	1795	1814	1814	1833	1843	1843	1853	1853	1863	1873	1883	1894	1894	1904	1904	1925	1947	1969	1980	1980	1980	1969	1980	1992	1992	2003	2003	0	0	4581	4581	4581	4581	4581	4581	4581	4643	4581	4581	4581	4521	4581	4643	4581	4581	4581	4643	4643	4643	4643	4643	4643	4643	4643	4581	4581	4581	4581	4581	4581	4581	4581	4581	4581	4581	4581	4643	4581	4581	4581	4581	4643	4643	4643	4643	4643	4643	4581	4581	4581	4581	4581	4581	4581	4581	4643	4643	4581	4643	4643	4643	4643	4643	4643	4643	4643	4643	4643	4643	4643	4643	4643	4581	4581	4706	4706	4706	4706	4706	4706	4643	4643	4643	4643	4643	4643	4706	4706	4706	4706	4706	4771	4706	4706	4706	4706	4706	4706	4706	4706	4643	4706	4706	4706	4706	4706	4706	4706	4706	4706	4706	4706	4706	4706	4706	4706	4643	4643	4643	4643	4706	4643	4706	4706	4706	4706	4706	4706	4643	3277	3277	3277	3277	3277	3309	3309	3277	3309	3309	3309	3309	3309	3277	3277	3277	3246	3246	3246	3216	3216	3186	3186	3186	3186	3186	3186	3186	3186	3157	3186	3157	3157	3157	3157	3157	3157	3157	3129	3129	3157	3157	3157	3157	3157	3157	3157	3157	3157	3157	3157	3157	3157	3157	3157	3129	3157	3157	3186	3186	3186	3186	3186	3216	3186	3216	3277	3246	3246	3277	3277	3277	3309	3309	3309	3309	3309	3309	3341	3373	3341	3341	3341	3341	3341	3373	3373	4581	4581	4643	4706	4706	4643	4643	4581	4581	4581	4581	4581	4581	4581	4581	4581	4521	4521	4581	4521	4581	4581	4581	4581	4581	4581	4521	4581	4581	4581	4581	4581	4581	4581	4581	4581	4581	4581	4643	4643	4643	4643	4581	4581	4521	4521	4463	4463	4463	4463	4406	4406	4406	4406	4350	4350	4350	4296	4296	4296	4296	4296	4296	4296	4296	4350	4350	4296	4296	4296	4296	4296	4296	4296	4296	4296	4296	4296	4296	4296	4296	4296	4296	4296	4296	4296	4296	4296	4296	4296	4296	4296	4296	4243	4243	4243	4243	4296	4296	4296	4296	4296	4296	4296	4296	4296	4296	4296	4296	4296	4296	4296	4296	4296	4296	4296	4296	4296	4296	4296	4350	4350	4350	4406	4406	4521	4521	4521	3216	3216	3216	3216	3186	3157	3157	3129	3129	3157	3101	3101	3101	3101	3101	3129	3101	3073	3073	3073	3101	3073	3073	3073	3073	3073	3073	3073	3073	3073	3046	3073	3046	3046	3046	3046	3046	3046	3046	3046	3046	3046	0	0	0	0	0	0	0	0	0	0	0	0	0	0	0	0	0	0	0	0	0	0	0	0	0	0	0	0	0	0	0	0	0	0	0	0	0	0	0	0	0	0	0	0	0	0	0	0	0	0	0	0	0	0	0	0	0	0	0	0	0	0	0	0	0	0	0	0	0	0	0	0	0	0	0	0	0	0	0	0	0	0	0	0	0	0	0	0	0	0	0	0	0	0	0	0	0	0	0	0	0	0	0	0	0	0	0	0	0	0	0	0	0	0	0	0	0	0	0	0	0	0	0	0	0	0	0	0	0	0	0	0	0	0	0	0	0	0	0	0	0	0	0	0	0
0	0	0	0	0	0	0	0	0	0	0	0	0	0	0	0	0	0	0	0	0	0	0	0	0	0	0	0	0	0	0	0	0	0	0	0	0	0	0	0	0	0	0	0	0	0	0	0	0	0	0	0	0	0	0	0	0	0	0	0	0	0	0	0	0	0	0	0	0	0	0	0	1786	1786	1786	1786	1786	1786	1786	1795	1814	1824	1843	1853	1843	1853	1853	1863	1894	1894	1904	1904	1904	1915	1925	1925	1947	1947	1980	1969	1969	1980	1992	1992	1992	2003	0	0	4643	4581	4581	4643	4581	4581	4581	4581	4581	4581	4521	4521	4521	4581	4581	4521	4581	4643	4643	4643	4643	4643	4643	4643	4643	4581	4581	4581	4581	4581	4581	4581	4643	4643	4643	4643	4643	4643	4581	4581	4581	4643	4643	4643	4643	4643	4643	4643	4581	4581	4581	4581	4581	4581	4581	4581	4643	4643	4581	4643	4643	4643	4643	4643	4643	4643	4643	4643	4643	4643	4643	4643	4643	4581	4581	4706	4706	4706	4706	4643	4643	4643	4643	4706	4643	4706	4706	4706	4706	4771	4706	4706	4706	4706	4706	4706	4706	4706	4706	4706	4706	4643	4643	4706	4706	4706	4706	4706	4706	4706	4706	4706	4706	4706	4643	4643	4643	4643	4643	4643	4643	4706	4643	4706	4706	4706	4706	4706	4706	4643	3277	3277	3277	3309	3309	3309	3309	3309	3309	3309	3309	3309	3309	3277	3277	3277	3246	3246	3246	3216	3216	3186	3186	3186	3186	3186	3186	3186	3186	3157	3186	3186	3157	3157	3157	3157	3157	3157	3157	3157	3129	3157	3157	3157	3157	3157	3157	3157	3157	3129	3157	3157	3157	3157	3157	3157	3157	3157	3157	3157	3186	3186	3186	3186	3216	3216	3246	3246	3246	3246	3246	3277	3277	3309	3341	3341	3309	3341	3341	3373	3373	3341	3341	3373	3341	3373	3373	3373	4581	4706	4706	4706	4706	4643	4643	4643	4581	4581	4581	4581	4581	4581	4581	4581	4581	4581	4581	4581	4581	4581	4581	4581	4581	4581	4581	4581	4581	4581	4521	4581	4581	4581	4581	4581	4581	4643	4706	4643	4581	4581	4581	4521	4521	4463	4463	4463	4463	4463	4406	4521	4406	4350	4350	4350	4296	4296	4296	4296	4296	4296	4296	4296	4296	4350	4296	4296	4296	4296	4296	4296	4296	4296	4296	4296	4296	4296	4296	4296	4296	4296	4296	4296	4296	4296	4296	4296	4296	4243	4296	4296	4243	4243	4243	4243	4296	4296	4296	4296	4296	4296	4296	4296	4296	4296	4296	4296	4296	4296	4296	4296	4296	4296	4296	4296	4296	4350	4296	4350	4350	4350	4406	4463	4463	4463	4463	3216	3216	3216	3216	3186	3157	3157	3129	3129	3129	3129	3101	3101	3101	3101	3101	3101	3073	3073	3073	3101	3073	3073	3073	3073	3073	3073	3073	3073	3073	3046	3073	3046	3046	3019	3046	3046	3046	3046	3046	3046	3046	0	0	0	0	0	0	0	0	0	0	0	0	0	0	0	0	0	0	0	0	0	0	0	0	0	0	0	0	0	0	0	0	0	0	0	0	0	0	0	0	0	0	0	0	0	0	0	0	0	0	0	0	0	0	0	0	0	0	0	0	0	0	0	0	0	0	0	0	0	0	0	0	0	0	0	0	0	0	0	0	0	0	0	0	0	0	0	0	0	0	0	0	0	0	0	0	0	0	0	0	0	0	0	0	0	0	0	0	0	0	0	0	0	0	0	0	0	0	0	0	0	0	0	0	0	0	0	0	0	0	0	0	0	0	0	0	0	0	0	0	0	0	0	0	0
0	0	0	0	0	0	0	0	0	0	0	0	0	0	0	0	0	0	0	0	0	0	0	0	0	0	0	0	0	0	0	0	0	0	0	0	0	0	0	0	0	0	0	0	0	0	0	0	0	0	0	0	0	0	0	0	0	0	0	0	0	0	0	0	0	0	0	0	0	0	0	0	1786	1795	1786	1786	1786	1786	1795	1804	1814	1824	1833	1853	1853	1853	1863	1883	1883	1883	1894	1904	1904	1915	1936	1947	1958	1980	1992	1980	1992	1992	1992	1992	1992	0	2845	2845	2845	2845	4643	4643	4643	4581	4643	4643	4581	4581	4521	4521	4521	4581	4581	4581	4581	4643	4643	4643	4643	4643	4643	4643	4643	4581	4581	4581	4581	4581	4643	4643	4643	4643	4643	4643	4643	4643	4581	4581	4581	4581	4643	4643	4643	4643	4643	4643	4581	4581	4581	4581	4521	4581	4581	4581	4643	4581	4581	4643	4643	4643	4643	4643	4643	4643	4643	4643	4643	4643	4643	4643	4643	4643	4643	4706	4706	4706	4706	4643	4643	4643	4643	4706	4706	4643	4706	4706	4706	4771	4771	4706	4771	4706	4706	4706	4706	4706	4643	4706	4643	4706	4706	4706	4706	4706	4643	4643	4643	4706	4643	4706	4706	4706	4643	4706	4643	4643	4643	4643	4643	4643	4643	4706	4706	4706	4706	4706	4706	4643	4581	3277	3277	3309	3309	3309	3277	3309	3309	3309	3309	3309	3309	3309	3277	3277	3246	3246	3246	3216	3216	3186	3186	3186	3186	3186	3186	3186	3186	3157	3186	3157	3157	3157	3157	3157	3157	3157	3129	3129	3129	3157	3157	3157	3157	3157	3157	3157	3157	3157	3129	3157	3157	3157	3129	3129	3157	3157	3157	3157	3186	3186	3186	3186	3186	3216	3277	3246	3246	3246	3277	3309	3309	3341	3341	3341	3341	3373	3373	3341	3373	3341	3341	3373	3341	3373	3373	3373	4643	4706	4771	4706	4706	4643	4643	4643	4581	4581	4581	4581	4581	4581	4581	4521	4581	4581	4581	4581	4581	4581	4581	4581	4581	4581	4581	4581	4521	4521	4521	4521	4521	4521	4521	4581	4643	4643	4581	4581	4581	4581	4581	4521	4521	4463	4463	4463	4463	4463	4463	4521	4521	4406	4350	4350	4296	4296	4296	4296	4296	4296	4296	4296	4296	4296	4296	4296	4296	4296	4296	4296	4296	4296	4296	4296	4296	4296	4296	4350	4296	4296	4296	4296	4296	4296	4296	4296	4296	4243	4243	4243	4243	4243	4243	4243	4296	4296	4296	4296	4296	4296	4296	4296	4296	4296	4243	4296	4296	4296	4296	4296	4296	4296	4296	4296	4296	4350	4350	4350	4350	4350	4406	4406	4463	4463	4643	3216	3216	3216	3216	3186	3157	3157	3129	3129	3129	3129	3101	3129	3101	3101	3101	3101	3073	3101	3073	3101	3073	3073	3073	3073	3073	3073	3073	3073	3073	3046	3073	3073	3073	3046	3019	3019	3046	3046	3073	3073	3073	0	0	0	0	0	0	0	0	0	0	0	0	0	0	0	0	0	0	0	0	0	0	0	0	0	0	0	0	0	0	0	0	0	0	0	0	0	0	0	0	0	0	0	0	0	0	0	0	0	0	0	0	0	0	0	0	0	0	0	0	0	0	0	0	0	0	0	0	0	0	0	0	0	0	0	0	0	0	0	0	0	0	0	0	0	0	0	0	0	0	0	0	0	0	0	0	0	0	0	0	0	0	0	0	0	0	0	0	0	0	0	0	0	0	0	0	0	0	0	0	0	0	0	0	0	0	0	0	0	0	0	0	0	0	0	0	0	0	0	0	0	0	0	0	0
0	0	0	0	0	0	0	0	0	0	0	0	0	0	0	0	0	0	0	0	0	0	0	0	0	0	0	0	0	0	0	0	0	0	0	0	0	0	0	0	0	0	0	0	0	0	0	0	0	0	0	0	0	0	0	0	0	0	0	0	0	0	0	0	0	0	0	0	0	0	0	1795	1795	1795	1786	1786	1786	1786	1804	1814	1814	1824	1833	1843	1843	1863	1883	1883	1883	1894	1904	1904	1925	1925	1947	1947	1969	1980	1992	1992	1992	1992	1992	1992	1992	0	2845	2845	2845	2845	4643	4706	4643	4643	4643	4581	4581	4581	4521	4463	4521	4581	4581	4581	4581	4643	4643	4643	4643	4643	4643	4643	4643	4581	4581	4581	4581	4581	4643	4643	4643	4643	4643	4643	4643	4643	4643	4581	4581	4581	4643	4581	4643	4643	4643	4643	4581	4581	4521	4581	4521	4581	4521	4581	4581	4581	4581	4643	4643	4643	4643	4643	4643	4643	4643	4643	4643	4643	4643	4643	4643	4643	4643	4706	4706	4706	4706	4643	4643	4643	4706	4706	4706	4706	4643	4706	4771	4771	4771	4706	4771	4706	4706	4706	4643	4706	4706	4706	4643	4706	4706	4706	4706	4706	4643	4643	4643	4706	4643	4706	4706	4706	4643	4643	4643	4643	4643	4643	4643	4643	4643	4706	4643	4706	4643	4643	4643	4643	4643	3277	3277	3277	3309	3309	3309	3309	3309	3309	3309	3309	3309	3277	3277	3277	3246	3246	3216	3216	3246	3246	3216	3157	3186	3186	3186	3186	3157	3157	3157	3157	3157	3157	3157	3129	3157	3157	3129	3129	3129	3157	3157	3157	3157	3157	3157	3157	3157	3157	3157	3157	3157	3157	3157	3157	3157	3157	3157	3157	3157	3157	3186	3186	3186	3186	3216	3216	3216	3216	3216	3277	3341	3373	3373	3406	3341	3373	3373	3373	3373	3341	3341	3373	3373	3440	3440	3475	3475	4706	4771	4771	4706	4706	4643	4643	4581	4581	4581	4581	4581	4581	4581	4581	4581	4581	4521	4581	4581	4581	4581	4581	4581	4581	4581	4521	4521	4521	4521	4521	4521	4521	4521	4581	4581	4643	4581	4581	4581	4581	4581	4521	4521	4463	4463	4463	4463	4463	4463	4521	4521	4406	4350	4350	4350	4296	4296	4296	4296	4296	4296	4296	4296	4296	4296	4296	4296	4296	4296	4296	4296	4296	4296	4296	4296	4296	4296	4350	4350	4296	4296	4296	4296	4296	4296	4296	4296	4243	4296	4296	4243	4243	4243	4243	4296	4296	4296	4296	4296	4296	4296	4296	4296	4296	4296	4296	4296	4296	4296	4296	4296	4296	4296	4296	4296	4350	4350	4350	4350	4350	4463	4521	4581	4643	4643	3246	3246	3216	3216	3216	3157	3157	3129	3129	3129	3129	3101	3101	3101	3101	3101	3101	3101	3101	3073	3101	3073	3073	3073	3073	3073	3046	3046	3046	3046	3046	3046	3046	3046	3046	3019	3046	3073	3073	3073	3073	3073	0	0	0	0	0	0	0	0	0	0	0	0	0	0	0	0	0	0	0	0	0	0	0	0	0	0	0	0	0	0	0	0	0	0	0	0	0	0	0	0	0	0	0	0	0	0	0	0	0	0	0	0	0	0	0	0	0	0	0	0	0	0	0	0	0	0	0	0	0	0	0	0	0	0	0	0	0	0	0	0	0	0	0	0	0	0	0	0	0	0	0	0	0	0	0	0	0	0	0	0	0	0	0	0	0	0	0	0	0	0	0	0	0	0	0	0	0	0	0	0	0	0	0	0	0	0	0	0	0	0	0	0	0	0	0	0	0	0	0	0	0	0	0	0	0
0	0	0	0	0	0	0	0	0	0	0	0	0	0	0	0	0	0	0	0	0	0	0	0	0	0	0	0	0	0	0	0	0	0	0	0	0	0	0	0	0	0	0	0	0	0	0	0	0	0	0	0	0	0	0	0	0	0	0	0	0	0	0	0	0	0	0	0	0	0	0	1786	1777	1777	1786	1786	1786	1795	1795	1814	1824	1824	1833	1833	1853	1863	1883	1883	1894	1894	1904	1925	1936	1936	1947	1958	1969	1992	1992	1992	1992	1992	1992	1992	2917	2845	2845	2822	2822	2822	2822	4706	4706	4643	4581	4581	4521	4521	4521	4463	4521	4521	4521	4521	4581	4643	4643	4643	4581	4581	4581	4581	4581	4581	4581	4581	4643	4643	4643	4643	4643	4643	4643	4643	4643	4643	4643	4581	4581	4643	4643	4581	4643	4643	4643	4581	4581	4521	4521	4581	4521	4521	4521	4521	4521	4581	4581	4581	4643	4643	4643	4643	4643	4643	4643	4643	4643	4643	4643	4643	4643	4643	4643	4706	4706	4706	4706	4706	4706	4706	4643	4643	4643	4643	4706	4706	4706	4706	4706	4706	4706	4706	4706	4706	4706	4706	4706	4706	4643	4706	4706	4706	4706	4643	4643	4643	4643	4643	4643	4706	4706	4706	4643	4706	4643	4643	4643	4643	4643	4706	4643	4706	4643	4706	4643	4643	4706	4643	4581	4581	3277	3277	3309	3309	3309	3309	3309	3309	3309	3309	3309	3277	3277	3277	3246	3246	3246	3246	3246	3246	3216	3186	3157	3186	3157	3157	3157	3157	3157	3157	3157	3157	3129	3129	3129	3157	3129	3129	3129	3129	3157	3157	3157	3157	3157	3157	3157	3157	3157	3157	3157	3157	3157	3157	3157	3157	3157	3157	3186	3186	3186	3186	3186	3186	3216	3216	3186	3186	3186	3510	3510	3510	3510	3406	3373	3373	3341	3373	3373	3341	3373	3373	3373	3440	3440	3475	3475	4771	4771	4771	4771	4706	4706	4643	4581	4581	4581	4581	4581	4581	4581	4581	4581	4581	4581	4581	4581	4581	4581	4581	4581	4581	4581	4581	4521	4581	4521	4521	4521	4521	4521	4521	4581	4581	4581	4521	4581	4581	4581	4521	4521	4463	4463	4463	4463	4463	4463	4463	4463	4406	4406	4350	4350	4296	4296	4296	4296	4296	4296	4296	4296	4296	4296	4296	4296	4296	4296	4296	4296	4296	4296	4296	4296	4296	4296	4296	4296	4296	4296	4296	4296	4296	4296	4296	4296	4243	4296	4296	4243	4243	4243	4243	4296	4296	4296	4296	4296	4296	4296	4296	4296	4296	4243	4296	4296	4296	4296	4296	4296	4296	4296	4296	4296	4296	4350	4350	4350	4350	4463	4521	4643	4643	4643	3246	3246	3246	3216	3216	3129	3129	3129	3129	3129	3129	3101	3101	3101	3101	3101	3101	3101	3101	3101	3073	3073	3073	3073	3073	3046	3046	3046	3046	3046	3046	3046	3019	3019	3046	3046	3046	3046	3073	3073	0	0	0	0	0	0	0	0	0	0	0	0	0	0	0	0	0	0	0	0	0	0	0	0	0	0	0	0	0	0	0	0	0	0	0	0	0	0	0	0	0	0	0	0	0	0	0	0	0	0	0	0	0	0	0	0	0	0	0	0	0	0	0	0	0	0	0	0	0	0	0	0	0	0	0	0	0	0	0	0	0	0	0	0	0	0	0	0	0	0	0	0	0	0	0	0	0	0	0	0	0	0	0	0	0	0	0	0	0	0	0	0	0	0	0	0	0	0	0	0	0	0	0	0	0	0	0	0	0	0	0	0	0	0	0	0	0	0	0	0	0	0	0	0	0	0	0
0	0	0	0	0	0	0	0	0	0	0	0	0	0	0	0	0	0	0	0	0	0	0	0	0	0	0	0	0	0	0	0	0	0	0	0	0	0	0	0	0	0	0	0	0	0	0	0	0	0	0	0	0	0	0	0	0	0	0	0	0	0	0	0	0	0	0	0	0	0	0	1777	1777	1786	1786	1786	1795	1804	1814	1814	1824	1824	1824	1833	1843	1863	1873	1883	1894	1904	1915	1925	1936	1936	1947	1958	1969	1992	2003	2015	2015	2015	2015	0	2845	2845	2845	2822	2822	2822	2822	2822	4706	4643	4581	4521	4463	4463	4463	4463	4521	4521	4521	4521	4581	4643	4643	4643	4581	4581	4581	4581	4581	4581	4581	4521	4581	4581	4581	4643	4643	4643	4643	4643	4706	4643	4643	4643	4643	4643	4643	4581	4643	4643	4643	4581	4521	4521	4521	4581	4521	4521	4521	4521	4581	4581	4581	4643	4643	4643	4643	4643	4643	4643	4643	4643	4643	4643	4643	4643	4643	4643	4643	4706	4706	4706	4706	4706	4706	4706	4643	4643	4643	4643	4643	4706	4706	4706	4706	4706	4706	4706	4706	4706	4643	4643	4643	4643	4643	4706	4706	4706	4706	4643	4643	4643	4643	4706	4643	4643	4643	4643	4643	4643	4643	4643	4643	4643	4706	4706	4706	4706	4706	4643	4643	4643	4643	4643	4581	4581	3277	3277	3309	3309	3309	3309	3309	3309	3309	3309	3277	3277	3277	3277	3277	3246	3246	3216	3216	3216	3186	3157	3186	3157	3157	3157	3157	3157	3157	3157	3157	3157	3129	3129	3129	3157	3129	3129	3129	3129	3157	3129	3157	3157	3157	3157	3157	3157	3157	3129	3129	3157	3157	3157	3157	3157	3157	3157	3186	3186	3186	3186	3186	3186	3216	3216	3186	3186	3186	3510	3475	3475	3510	3440	3373	3373	3341	3341	3373	3373	3373	3373	3373	3440	3475	3475	3510	3510	4838	4771	4771	4706	4643	4643	4581	4581	4581	4581	4581	4581	4581	4581	4581	4581	4581	4581	4581	4581	4581	4581	4581	4581	4581	4581	4521	4581	4521	4521	4521	4521	4521	4521	4581	4581	4521	4521	4521	4521	4581	4581	4521	4463	4463	4463	4463	4521	4463	4463	4463	4406	4406	4350	4350	4296	4296	4296	4296	4296	4296	4296	4296	4296	4296	4296	4296	4296	4296	4296	4296	4296	4296	4296	4296	4296	4296	4296	4296	4296	4296	4296	4296	4296	4243	4296	4296	4243	4296	4296	4296	4243	4243	4243	4243	4296	4296	4296	4296	4296	4296	4296	4296	4296	4296	4296	4296	4296	4296	4296	4296	4296	4296	4296	4350	4350	4350	4406	4406	4406	4463	4521	4643	4643	3246	3246	3246	3216	3216	3186	3157	3129	3129	3129	3129	3129	3101	3101	3101	3101	3101	3101	3101	3101	3101	3073	3073	3073	3073	3046	3046	3046	3046	3046	3046	3019	3046	3019	3019	3019	3019	3046	3046	0	0	0	0	0	0	0	0	0	0	0	0	0	0	0	0	0	0	0	0	0	0	0	0	0	0	0	0	0	0	0	0	0	0	0	0	0	0	0	0	0	0	0	0	0	0	0	0	0	0	0	0	0	0	0	0	0	0	0	0	0	0	0	0	0	0	0	0	0	0	0	0	0	0	0	0	0	0	0	0	0	0	0	0	0	0	0	0	0	0	0	0	0	0	0	0	0	0	0	0	0	0	0	0	0	0	0	0	0	0	0	0	0	0	0	0	0	0	0	0	0	0	0	0	0	0	0	0	0	0	0	0	0	0	0	0	0	0	0	0	0	0	0	0	0	0	0	0	0
0	0	0	0	0	0	0	0	0	0	0	0	0	0	0	0	0	0	0	0	0	0	0	0	0	0	0	0	0	0	0	0	0	0	0	0	0	0	0	0	0	0	0	0	0	0	0	0	0	0	0	0	0	0	0	0	0	0	0	0	0	0	0	0	0	0	0	0	0	0	1777	1777	1777	1777	1786	1786	1795	1804	1814	1814	1824	1824	1833	1824	1843	1863	1873	1883	1904	1915	1925	1925	1936	1936	1947	1958	1980	1992	2027	2039	2027	2027	2027	0	2845	2845	2845	2822	2822	2822	2822	2822	2822	2822	4581	4521	4463	4463	4521	4463	4521	4521	4521	4581	4581	4643	4643	4643	4643	4581	4581	4581	4581	4581	4521	4521	4581	4581	4581	4643	4643	4643	4643	4643	4706	4643	4643	4581	4643	4643	4643	4643	4643	4643	4643	4643	4581	4581	4643	4643	4581	4581	4581	4581	4581	4581	4581	4643	4643	4643	4643	4643	4643	4643	4643	4581	4643	4643	4643	4643	4643	4643	4643	4706	4706	4706	4706	4706	4706	4706	4643	4643	4643	4643	4643	4643	4706	4706	4706	4706	4706	4706	4706	4643	4643	4643	4643	4643	4643	4643	4643	4706	4706	4643	4643	4643	4643	4643	4643	4643	4643	4643	4643	4643	4643	4643	4643	4643	4643	4643	4643	4706	4706	4643	4643	4643	4643	4643	4643	3309	3309	3309	3309	3309	3309	3309	3309	3309	3309	3277	3277	3277	3277	3277	3246	3246	3246	3216	3216	3216	3186	3186	3186	3157	3157	3157	3157	3157	3157	3157	3157	3157	3129	3129	3157	3157	3129	3129	3129	3129	3157	3157	3157	3157	3157	3157	3157	3157	3129	3129	3157	3157	3157	3157	3157	3157	3157	3157	3157	3186	3186	3186	3186	3186	3186	3186	3186	3186	3186	3510	3475	3475	3475	3440	3406	3406	3373	3341	3373	3373	3373	3373	3373	3440	3440	3475	3475	3475	4838	4771	4771	4771	4706	4643	4581	4581	4581	4581	4581	4581	4581	4581	4581	4581	4581	4581	4643	4643	4581	4581	4581	4581	4581	4581	4581	4581	4581	4581	4581	4521	4521	4521	4581	4581	4521	4521	4581	4521	4521	4581	4521	4463	4463	4463	4463	4463	4463	4463	4406	4406	4406	4350	4350	4350	4350	4350	4296	4296	4296	4296	4296	4296	4296	4296	4296	4296	4296	4296	4296	4243	4296	4296	4296	4296	4296	4296	4296	4296	4296	4296	4296	4296	4296	4296	4296	4296	4296	4296	4296	4296	4296	4243	4296	4296	4296	4296	4296	4296	4296	4296	4296	4296	4296	4350	4296	4296	4296	4296	4296	4296	4296	4296	4296	4350	4350	4406	4406	4406	4463	4521	4581	3246	3216	3216	3216	3216	3216	3186	3157	3129	3129	3129	3129	3101	3101	3101	3101	3101	3101	3073	3101	3101	3073	3073	3073	3073	3073	3046	3046	3046	3019	3019	3046	3019	3019	3019	3019	3019	3019	3019	3046	0	0	0	0	0	0	0	0	0	0	0	0	0	0	0	0	0	0	0	0	0	0	0	0	0	0	0	0	0	0	0	0	0	0	0	0	0	0	0	0	0	0	0	0	0	0	0	0	0	0	0	0	0	0	0	0	0	0	0	0	0	0	0	0	0	0	0	0	0	0	0	0	0	0	0	0	0	0	0	0	0	0	0	0	0	0	0	0	0	0	0	0	0	0	0	0	0	0	0	0	0	0	0	0	0	0	0	0	0	0	0	0	0	0	0	0	0	0	0	0	0	0	0	0	0	0	0	0	0	0	0	0	0	0	0	0	0	0	0	0	0	0	0	0	0	0	0	0	0
0	0	0	0	0	0	0	0	0	0	0	0	0	0	0	0	0	0	0	0	0	0	0	0	0	0	0	0	0	0	0	0	0	0	0	0	0	0	0	0	0	0	0	0	0	0	0	0	0	0	0	0	0	0	0	0	0	0	0	0	0	0	0	0	0	0	0	0	0	0	1777	1777	1777	1777	1786	1786	1795	1804	1804	1824	1824	1824	1833	1833	1843	1863	1873	1883	1904	1915	1925	1925	1936	1936	1947	1958	1980	1992	2027	2051	2039	2039	2039	0	2845	2845	2822	2822	2822	2822	2822	2822	2822	2822	2822	4521	4463	4463	4463	4463	4521	4521	4581	4581	4581	4643	4643	4643	4581	4581	4581	4521	4521	4521	4521	4521	4581	4581	4581	4643	4643	4643	4643	4643	4643	4643	4643	4581	4643	4643	4643	4643	4643	4643	4643	4643	4643	4643	4643	4643	4643	4643	4581	4581	4581	4581	4643	4643	4581	4581	4581	4581	4581	4581	4581	4581	4581	4581	4643	4643	4643	4643	4643	4706	4706	4706	4706	4706	4706	4706	4643	4643	4643	4643	4643	4706	4706	4706	4706	4706	4706	4706	4706	4643	4643	4643	4643	4643	4643	4643	4643	4706	4706	4643	4643	4643	4643	4643	4643	4643	4643	4643	4643	4643	4643	4643	4643	4643	4643	4643	4643	4643	4643	4643	4643	4643	4706	4643	4643	3309	3309	3309	3309	3309	3309	3309	3309	3309	3309	3309	3277	3277	3277	3277	3246	3277	3246	3216	3186	3186	3186	3186	3157	3157	3157	3157	3157	3157	3157	3157	3157	3157	3157	3129	3157	3157	3157	3129	3129	3129	3157	3129	3129	3157	3157	3157	3157	3129	3129	3129	3157	3157	3157	3157	3157	3157	3157	3157	3157	3186	3186	3186	3186	3186	3186	3186	3186	3186	3186	3186	3440	3440	3440	3406	3373	3373	3341	3341	3373	3373	3373	3373	3406	3440	3475	3475	3475	3475	4771	4771	4771	4771	4706	4706	4643	4581	4581	4581	4581	4521	4581	4581	4581	4581	4581	4581	4643	4643	4581	4581	4581	4581	4581	4581	4581	4581	4581	4581	4581	4521	4521	4521	4581	4581	4521	4521	4521	4521	4521	4581	4581	4463	4521	4463	4521	4521	4463	4463	4406	4406	4406	4350	4350	4350	4350	4350	4296	4296	4296	4243	4296	4296	4296	4243	4243	4296	4243	4296	4296	4296	4296	4296	4296	4296	4296	4296	4296	4296	4296	4296	4296	4296	4296	4296	4243	4243	4243	4243	4243	4296	4243	4243	4243	4296	4296	4296	4296	4296	4296	4296	4296	4296	4296	4296	4296	4296	4296	4296	4296	4296	4296	4296	4296	4296	4350	4406	4406	4406	4463	4521	4581	3246	3216	3216	3216	3216	3216	3186	3157	3157	3129	3129	3129	3101	3101	3101	3101	3101	3073	3073	3101	3101	3101	3073	3073	3073	3073	3073	3046	3046	3019	3019	3019	3019	3019	3019	3019	3019	3019	3019	0	0	0	0	0	0	0	0	0	0	0	0	0	0	0	0	0	0	0	0	0	0	0	0	0	0	0	0	0	0	0	0	0	0	0	0	0	0	0	0	0	0	0	0	0	0	0	0	0	0	0	0	0	0	0	0	0	0	0	0	0	0	0	0	0	0	0	0	0	0	0	0	0	0	0	0	0	0	0	0	0	0	0	0	0	0	0	0	0	0	0	0	0	0	0	0	0	0	0	0	0	0	0	0	0	0	0	0	0	0	0	0	0	0	0	0	0	0	0	0	0	0	0	0	0	0	0	0	0	0	0	0	0	0	0	0	0	0	0	0	0	0	0	0	0	0	0	0	0	0
0	0	0	0	0	0	0	0	0	0	0	0	0	0	0	0	0	0	0	0	0	0	0	0	0	0	0	0	0	0	0	0	0	0	0	0	0	0	0	0	0	0	0	0	0	0	0	0	0	0	0	0	0	0	0	0	0	0	0	0	0	0	0	0	0	0	0	0	0	1786	1777	1777	1777	1777	1786	1786	1795	1804	1814	1824	1824	1824	1833	1833	1833	1853	1863	1873	1873	1904	1925	1925	1936	1947	1947	1969	1992	2003	2027	2039	2039	2039	2039	0	2845	2845	2822	2822	2822	2822	2822	2822	2822	2822	2822	0	4463	4463	4463	4463	4521	4521	4581	4581	4643	4581	4643	4643	4643	4581	4581	4521	4581	4581	4581	4581	4581	4581	4581	4643	4643	4643	4643	4643	4643	4643	4643	4643	4643	4643	4581	4581	4581	4643	4643	4643	4643	4643	4643	4643	4643	4581	4643	4581	4643	4581	4643	4643	4581	4581	4581	4581	4581	4581	4521	4521	4521	4581	4581	4581	4581	4643	4643	4706	4706	4706	4706	4706	4706	4643	4643	4643	4643	4643	4643	4643	4643	4706	4706	4643	4643	4706	4643	4643	4643	4643	4643	4643	4643	4643	4643	4643	4706	4643	4643	4643	4643	4643	4706	4706	4706	4706	4706	4706	4706	4706	4643	4643	4643	4643	4643	4643	4581	4643	4643	4643	4643	4643	4643	3341	3309	3309	3309	3309	3309	3309	3309	3309	3309	3309	3277	3277	3277	3277	3277	3277	3246	3216	3186	3186	3186	3186	3157	3157	3157	3157	3157	3157	3157	3157	3157	3129	3129	3129	3157	3129	3129	3129	3129	3129	3129	3129	3129	3129	3129	3129	3129	3129	3129	3129	3129	3157	3157	3157	3157	3186	3157	3157	3186	3186	3186	3186	3186	3186	3186	3186	3186	3186	3186	3406	3440	3440	3406	3406	3373	3373	3341	3341	3341	3341	3373	3373	3373	3440	3475	3475	3475	3475	4771	4771	4771	4771	4706	4706	4643	4643	4643	4581	4581	4581	4581	4581	4581	4581	4581	4643	4643	4643	4581	4581	4581	4581	4581	4581	4463	4463	4521	4521	4521	4521	4521	4521	4581	4521	4521	4521	4521	4581	4521	4521	4521	4521	4521	4406	4463	4463	4463	4406	4406	4406	4406	4406	4350	4350	4296	4296	4296	4243	4243	4243	4243	4243	4296	4243	4243	4243	4243	4296	4296	4296	4296	4296	4296	4296	4350	4350	4296	4296	4296	4296	4296	4296	4296	4296	4243	4243	4243	4243	4243	4243	4243	4243	4243	4296	4296	4296	4296	4296	4296	4296	4296	4296	4296	4296	4296	4296	4296	4296	4296	4296	4296	4296	4296	4296	4350	4350	4406	4406	4406	4581	4581	3216	3216	3216	3216	3216	3216	3186	3186	3157	3129	3129	3129	3101	3101	3101	3101	3101	3073	3073	3073	3101	3101	3101	3101	3073	3073	3046	3046	3046	3019	3019	3019	3019	3019	3019	3019	3019	2993	2993	0	0	0	0	0	0	0	0	0	0	0	0	0	0	0	0	0	0	0	0	0	0	0	0	0	0	0	0	0	0	0	0	0	0	0	0	0	0	0	0	0	0	0	0	0	0	0	0	0	0	0	0	0	0	0	0	0	0	0	0	0	0	0	0	0	0	0	0	0	0	0	0	0	0	0	0	0	0	0	0	0	0	0	0	0	0	0	0	0	0	0	0	0	0	0	0	0	0	0	0	0	0	0	0	0	0	0	0	0	0	0	0	0	0	0	0	0	0	0	0	0	0	0	0	0	0	0	0	0	0	0	0	0	0	0	0	0	0	0	0	0	0	0	0	0	0	0	0	0	0
0	0	0	0	0	0	0	0	0	0	0	0	0	0	0	0	0	0	0	0	0	0	0	0	0	0	0	0	0	0	0	0	0	0	0	0	0	0	0	0	0	0	0	0	0	0	0	0	0	0	0	0	0	0	0	0	0	0	0	0	0	0	0	0	0	0	0	0	1768	1768	1777	1777	1777	1777	1786	1795	1804	1804	1814	1824	1824	1833	1833	1833	1833	1843	1863	1873	1894	1904	1925	1925	1936	1936	1947	1969	1992	2003	2027	2051	2051	2051	2051	0	2822	2822	2822	2822	2845	2822	2822	2845	2845	2822	2822	0	4521	4521	4521	4521	4581	4581	4643	4643	4643	4643	4643	4643	4581	4581	4581	4521	4581	4581	4581	4581	4581	4643	4643	4643	4643	4643	4643	4643	4643	4643	4643	4643	4643	4643	4581	4521	4521	4643	4643	4643	4643	4643	4643	4643	4643	4643	4643	4643	4643	4581	4581	4581	4581	4581	4581	4581	4581	4581	4581	4521	4521	4581	4581	4581	4581	4581	4581	4706	4706	4706	4643	4643	4643	4643	4643	4643	4643	4643	4643	4643	4643	4643	4643	4643	4643	4643	4643	4643	4643	4643	4643	4643	4643	4581	4581	4581	4643	4643	4643	4643	4643	4706	4643	4706	4706	4706	4706	4706	4706	4706	4643	4643	4643	4706	4643	4643	4643	4706	4643	4643	4706	4643	4643	3309	3309	3341	3341	3309	3341	3309	3309	3309	3309	3309	3277	3277	3277	3277	3277	3277	3246	3216	3186	3186	3186	3186	3186	3157	3157	3157	3157	3157	3157	3129	3129	3129	3129	3129	3129	3129	3129	3129	3129	3129	3129	3129	3129	3129	3101	3129	3129	3129	3129	3129	3129	3157	3157	3157	3157	3186	3157	3157	3157	3186	3186	3186	3186	3186	3186	3186	3186	3186	3216	3373	3406	3406	3406	3373	3341	3373	3341	3373	3341	3341	3373	3373	3373	3475	3510	3440	3440	3440	3475	4771	4771	4771	4771	4643	4643	4643	4581	4581	4581	4581	4581	4581	4643	4581	4581	4581	4643	4643	4581	4581	4581	4581	4581	4521	4463	4463	4463	4521	4521	4521	4463	4521	4521	4521	4521	4521	4521	4581	4581	4521	4521	4521	4521	4406	4463	4463	4463	4406	4406	4350	4350	4350	4350	4296	4296	4296	4296	4243	4243	4243	4243	4243	4243	4243	4243	4243	4243	4296	4296	4296	4296	4296	4296	4296	4296	4296	4296	4296	4296	4296	4296	4296	4243	4296	4243	4243	4243	4243	4243	4243	4243	4243	4243	4296	4296	4243	4243	4296	4296	4296	4243	4243	4243	4296	4243	4296	4296	4296	4296	4296	4296	4296	4296	4296	4350	4350	4350	4406	4406	4581	3216	3216	3216	3216	3216	3216	3216	3186	3157	3129	3129	3129	3129	3101	3101	3101	3101	3101	3073	3073	3101	3101	3101	3101	3073	3046	3046	3046	3046	3046	3019	3019	3019	3019	3019	3019	2993	2993	2993	2993	0	0	0	0	0	0	0	0	0	0	0	0	0	0	0	0	0	0	0	0	0	0	0	0	0	0	0	0	0	0	0	0	0	0	0	0	0	0	0	0	0	0	0	0	0	0	0	0	0	0	0	0	0	0	0	0	3073	3073	0	0	0	0	0	0	0	0	0	0	0	0	0	0	0	0	0	0	0	0	0	0	0	0	0	0	0	0	0	0	0	0	0	0	0	0	0	0	0	0	0	0	0	0	0	0	0	0	0	0	0	0	0	0	0	0	0	0	0	0	0	0	0	0	0	0	0	0	0	0	0	0	0	0	0	0	0	0	0	0	0	0	0	0	0	0	0	0	0	0	0	0
0	0	0	0	0	0	0	0	0	0	0	0	0	0	0	0	0	0	0	0	0	0	0	0	0	0	0	0	0	0	0	0	0	0	0	0	0	0	0	0	0	0	0	0	0	0	0	0	0	0	0	0	0	0	0	0	0	0	0	0	0	0	0	0	0	0	0	1768	1768	1768	1759	1768	1768	1777	1786	1795	1804	1804	1814	1814	1824	1833	1833	1833	1843	1853	1873	1873	1894	1915	1925	1936	1936	1947	1969	1980	1992	2015	2039	2051	2051	2051	2051	0	2822	2822	2845	2822	2845	2822	2845	2845	2822	2822	2822	0	4581	4581	4581	4581	4581	4581	4643	4643	4643	4581	4643	4581	4581	4581	4581	4581	4581	4581	4581	4643	4643	4643	4643	4643	4643	4643	4643	4643	4643	4643	4643	4643	4643	4643	4581	4521	4521	4643	4643	4643	4643	4643	4643	4643	4643	4643	4643	4581	4643	4643	4581	4581	4581	4521	4521	4581	4581	4581	4521	4521	4521	4521	4521	4521	4521	4581	4581	4706	4706	4706	4643	4643	4643	4643	4643	4643	4643	4643	4643	4643	4643	4643	4643	4643	4581	4643	4643	4643	4643	4643	4643	4643	4643	4643	4643	4643	4706	4643	4643	4643	4643	4643	4643	4706	4706	4643	4706	4706	4706	4706	4643	4643	4643	4706	4643	4643	4643	4643	4643	4643	4643	4581	4581	4581	3309	3341	3341	3341	3341	3309	3309	3309	3309	3277	3277	3277	3277	3277	3246	3277	3246	3186	3186	3186	3186	3186	3186	3157	3157	3157	3157	3157	3129	3129	3129	3129	3129	3129	3129	3129	3129	3129	3129	3129	3129	3129	3129	3101	3101	3101	3101	3101	3129	3129	3129	3157	3157	3157	3157	3186	3157	3157	3157	3157	3186	3186	3186	3186	3186	3186	3186	3186	3216	3216	3406	3406	3373	3341	3341	3373	3341	3341	3341	3341	3341	3341	3341	3373	3341	3341	3341	3341	3475	4771	4771	4771	4771	4706	4581	4581	4581	4581	4581	4581	4581	4581	4581	4581	4581	4706	4706	4706	4581	4643	4643	4581	4581	4581	4463	4463	4521	4521	4521	4521	4521	4521	4581	4581	4581	4581	4581	4643	4521	4581	4521	4463	4463	4406	4406	4463	4463	4406	4406	4406	4350	4350	4296	4296	4296	4296	4296	4243	4243	4243	4243	4243	4243	4243	4296	4296	4243	4296	4296	4296	4296	4296	4296	4296	4296	4296	4296	4296	4296	4296	4296	4243	4243	4243	4243	4243	4243	4243	4243	4243	4243	4243	4243	4243	4296	4243	4243	4296	4296	4243	4243	4243	4243	4243	4243	4296	4296	4296	4296	4296	4296	4296	4296	4296	4350	4350	4350	4350	4406	4521	3216	3216	3216	3216	3216	3216	3216	3186	3157	3129	3129	3129	3129	3129	3101	3101	3073	3073	3073	3046	3073	3101	3101	3073	3073	3073	3046	3046	3046	3046	3019	3019	3019	3019	3019	3019	2993	2993	2993	0	0	0	0	0	0	0	0	0	0	0	0	0	0	0	0	0	0	0	0	0	0	0	0	0	0	0	0	0	0	0	0	0	0	0	0	0	0	0	0	0	0	0	0	0	0	0	0	0	0	0	0	0	0	3157	3129	3101	3101	3073	3073	3073	3073	0	0	0	0	0	0	0	0	0	0	0	0	0	0	0	0	0	0	0	0	0	0	0	0	0	0	0	0	0	0	0	0	0	0	0	0	0	0	0	0	0	0	0	0	0	0	0	0	0	0	0	0	0	0	0	0	0	0	0	0	0	0	0	0	0	0	0	0	0	0	0	0	0	0	0	0	0	0	0	0	0	0	0	0	0	0	0	0	0
0	0	0	0	0	0	0	0	0	0	0	0	0	0	0	0	0	0	0	0	0	0	0	0	0	0	0	0	0	0	0	0	0	0	0	0	0	0	0	0	0	0	0	0	0	0	0	0	0	0	0	0	0	0	0	0	0	0	0	0	0	0	0	0	0	0	1768	1768	1768	1768	1777	1777	1777	1777	1786	1795	1804	1814	1824	1824	1824	1833	1843	1843	1853	1863	1873	1873	1883	1894	1925	1925	1936	1947	1969	1992	2003	2015	2039	2051	2051	2051	2051	0	2822	2822	2822	2822	2822	2822	2822	2822	2822	2822	2822	2822	4581	4581	4581	4581	4581	4643	4643	4643	4643	4581	4643	4643	4643	4643	4643	4643	4643	4643	4643	4643	4643	4643	4643	4643	4643	4643	4643	4643	4643	4643	4643	4643	4643	4643	4581	4521	4521	4521	4521	4643	4643	4643	4643	4643	4643	4643	4643	4643	4643	4643	4643	4581	4581	4521	4521	4581	4581	4581	4521	4521	4521	4521	4521	4521	4521	4521	4521	4706	4643	4643	4643	4581	4643	4643	4643	4643	4643	4706	4643	4643	4643	4643	4643	4581	4581	4643	4706	4706	4706	4706	4643	4643	4643	4643	4643	4643	4706	4643	4643	4643	4643	4706	4643	4643	4643	4643	4643	4706	4706	4706	4643	4643	4643	4643	4643	4643	4643	4643	4643	4643	4643	4643	4643	4581	3341	3341	3341	3341	3341	3309	3309	3309	3309	3309	3277	3277	3277	3277	3277	3277	3246	3216	3186	3186	3186	3186	3157	3157	3157	3157	3157	3129	3157	3129	3129	3129	3129	3129	3129	3129	3129	3129	3129	3129	3129	3101	3101	3101	3101	3101	3101	3101	3129	3129	3129	3157	3157	3157	3157	3157	3157	3157	3157	3157	3157	3157	3186	3186	3186	3186	3186	3186	3216	3216	3406	3373	3373	3309	3341	3373	3341	3341	3341	3341	3341	3341	3341	3373	3341	3341	3341	3341	0	4771	4771	4771	4643	4643	4581	4643	4581	4581	4581	4581	4581	4581	4581	4581	4581	4706	4706	4706	4643	4643	4581	4581	4581	4521	4463	4463	4521	4521	4521	4521	4521	4581	4581	4581	4581	4581	4581	4643	4581	4521	4521	4463	4463	4406	4463	4463	4463	4463	4463	4406	4350	4350	4350	4296	4296	4296	4296	4243	4243	4243	4243	4243	4243	4243	4296	4296	4296	4296	4296	4296	4296	4296	4296	4296	4296	4296	4296	4296	4296	4296	4296	4243	4243	4243	4243	4243	4192	4192	4243	4243	4243	4243	4243	4296	4296	4243	4296	4296	4296	4243	4243	4243	4243	4243	4243	4296	4243	4296	4296	4296	4296	4296	4296	4296	4350	4350	4350	4350	4406	4463	3216	3216	3216	3216	3216	3216	3186	3186	3157	3129	3129	3129	3129	3101	3101	3101	3073	3073	3073	3073	3101	3101	3073	3073	3073	3073	3046	3046	3046	3046	3019	3019	3019	3019	3019	3019	3019	2993	0	0	0	0	0	0	0	0	0	0	0	0	0	0	0	0	0	0	0	0	0	0	0	0	0	0	0	0	0	0	0	0	0	0	0	0	0	0	0	0	0	0	0	0	0	0	0	0	0	0	0	0	0	0	3186	3157	3129	3129	3101	3073	3101	3101	3073	0	0	0	0	0	0	0	0	0	0	0	0	0	0	0	0	0	0	0	0	0	0	0	0	0	0	0	0	0	0	0	0	0	0	0	0	0	0	0	0	0	0	0	0	0	0	0	0	0	0	0	0	0	0	0	0	0	0	0	0	0	0	0	0	0	0	0	0	0	0	0	0	0	0	0	0	0	0	0	0	0	0	0	0	0	0	0	0	0
0	0	0	0	0	0	0	0	0	0	0	0	0	0	0	0	0	0	0	0	0	0	0	0	0	0	0	0	0	0	0	0	0	0	0	0	0	0	0	0	0	0	0	0	0	0	0	0	0	0	0	0	0	0	0	0	0	0	0	0	0	0	0	0	0	0	1777	1768	1777	1777	1777	1777	1786	1777	1786	1795	1804	1814	1824	1824	1833	1853	1853	1843	1853	1863	1873	1873	1894	1904	1925	1925	1936	1947	1980	2003	2003	2015	2027	2039	2051	2051	2051	0	2845	2845	2845	2822	2822	2822	2822	2822	2822	2822	2799	2799	0	4581	4643	4643	4643	4643	4643	4643	4581	4581	4643	4643	4643	4643	4643	4643	4643	4643	4643	4643	4643	4643	4643	4643	4643	4643	4643	4643	4643	4643	4643	4643	4643	4643	4581	4521	4521	4581	4581	4581	4643	4643	4643	4643	4643	4643	4643	4643	4643	4643	4643	4581	4581	4521	4521	4581	4521	4581	4581	4521	4521	4521	4521	4521	4521	4581	4521	4643	4581	4643	4581	4581	4643	4643	4643	4643	4643	4706	4706	4643	4643	4643	4581	4643	4643	4643	4643	4706	4643	4643	4706	4706	4706	4643	4643	4643	4706	4643	4643	4643	4643	4706	4643	4643	4706	4643	4643	4706	4706	4643	4643	4643	4643	4643	4643	4643	4643	4643	4643	4643	4643	4643	4643	4463	3373	3373	3341	3341	3341	3309	3309	3309	3309	3309	3309	3309	3277	3277	3277	3277	3246	3216	3186	3186	3186	3186	3157	3157	3157	3157	3157	3157	3157	3157	3129	3129	3129	3129	3129	3101	3129	3129	3129	3101	3101	3101	3101	3101	3101	3101	3101	3101	3101	3129	3129	3157	3157	3157	3157	3157	3157	3157	3157	3157	3157	3157	3186	3186	3186	3186	3186	3216	3246	3246	3373	3373	3373	3309	3341	3341	3373	3373	3341	3341	3341	3341	3341	3341	3341	3341	3341	3341	0	4771	4771	4771	4706	4643	4581	4581	4581	4581	4581	4581	4581	4581	4581	4643	4643	4706	4706	4706	4643	4581	4581	4581	4581	4521	4463	4406	4463	4521	4521	4521	4521	4581	4581	4581	4581	4581	4581	4581	4581	4521	4521	4463	4463	4463	4521	4463	4463	4463	4463	4406	4350	4350	4296	4296	4296	4296	4296	4243	4243	4243	4243	4296	4296	4243	4296	4296	4296	4296	4296	4296	4296	4296	4296	4296	4296	4296	4296	4296	4296	4296	4296	4243	4243	4243	4243	4243	4192	4192	4192	4243	4243	4243	4243	4243	4243	4243	4243	4243	4243	4243	4243	4243	4243	4243	4243	4243	4243	4296	4296	4296	4296	4296	4296	4296	4350	4350	4350	4350	4350	4463	3216	3216	3216	3216	3216	3216	3157	3157	3157	3129	3129	3129	3129	3101	3101	3101	3073	3073	3073	3073	3073	3073	3073	3073	3073	3073	3046	3046	3046	3019	3019	3019	3019	3019	2993	3019	3019	0	0	0	0	0	0	0	0	0	0	0	0	0	0	0	0	0	0	0	0	0	0	0	0	0	0	0	0	0	0	0	0	0	0	0	0	0	0	0	0	0	0	0	0	0	0	0	0	0	0	0	0	0	0	0	3157	3157	3129	3129	3129	3101	3101	3101	0	0	0	0	0	0	0	0	0	0	0	0	0	0	0	0	0	0	0	0	0	0	0	0	0	0	0	0	0	0	0	0	0	0	0	0	0	0	0	0	0	0	0	0	0	0	0	0	0	0	0	0	0	0	0	0	0	0	0	0	0	0	0	0	0	0	0	0	0	0	0	0	0	0	0	0	0	0	0	0	0	0	0	0	0	0	0	0	0	0
