0	0	0	0	0	0	0	0	0	1291	1291	1301	1301	1306	1306	1311	1311	1316	1316	1326	1326	1326	1331	1331	1331	1331	0	1681	1681	1673	1665	1665	1657	1657	1657	1657	1657	0	0	0	0	0	0	0	0	0	0	0	0	0	0	0	0	0	0	0	0	1407	1407	1425	1431	1431	1431	1431	1431	1425	1425	1419	1413	1419	1419	1419	1431	1431	1431	1437	1437	1437	1431	1431	0	0	0	0	0	0	0	0	0	0	0	0	0	0	0	0	0	0	0	0	0	0	0	0	0	0	0	0	0	0	0	0	0	0	0	0	0	0	0	0	0	0	0	0	0	0	0	0	0	0	0	0	0	0	0	0	0	0	0	0	0	0	0	0	0	0	0	0	0	0	0	0	0	0	0	0	0	0	0	0	0	0	0	0	0	0	0	0	0	0	0	8767	8550	8550	8550	8767	8767	8767	8767	8767	8550	8767	8550	8767	8550	8550	8550	8550	8550	8550	8550	8550	8343	8343	8550	8343	8550	8343	8550	8343	8550	8550	8550	8343	8550	8550	8550	8343	8550	8343	8343	8550	8343	8343	8343	8343	8343	8550	8550	8550	8550	8550	8550	8550	8550	8550	8343	8550	8343	8343	8343	8343	8343	8343	8343	8343	8343	8343	0	0	0	0	0	0	0	0	0	0	0	0	0	0	0	0	0	0	0	6592	6592	6592	6592	6592	6468	6468	6592	6592	6592	6592	6592	6592	6592	6592	6592	6592	6468	6468	6468	6468	6592	6592	6592	6592	6592	6592	6592	6592	6592	6592	6592	6592	6592	6592	6592	6592	6592	6592	6592	6592	6592	6468	6592	6592	6592	6592	6592	6592	6592	6592	6720	4296	4296	4243	4350	4350	4350	4350	4350	4350	4350	4296	4296	4296	4296	4296	4296	4296	4296	4296	4296	4296	4296	4350	4350	4350	4350	4350	4350	6992	6853	6720	6720	6720	6720	6720	6720	6720	6720	6592	6592	0	0	0	0	0	0	0	0	0	0	0	0	0	0	0	0	0	0	0	0	0	0	0	0	6992	6853	6853	6853	6853	6720	6720	6720	6592	6592	6592	6720	6720	6720	6720	6720	6720	6853	6720	6853	6853	6853	6720	6720	6720	6720	6720	6720	6720	6720	6720	6720	6720	6720	6720	6720	6720	6720	6592	6592	6592	6592	6592	6592	6592	6592	6592	6468	6468	6592	6592	6468	6592	6592	6468	6592	6592	6592	6592	6592	6592	6592	6592	6592	6592	6592	6468	6468	6592	6592	6592	6592	6592	6592	6592	6592	6592	6592	6592	6592	6592	6592	6592	6592	6592	6720	6720	6720	6592	6592	6592	6592	6720	6592	6592	6592	6592	6592	6592	6592	6592	6592	6592	6592	6468	6468	6592	6235	6349	6124	6124	6124	6018	6018	6018	5915	5815	5815	5815	5815	5815	5815	5915	6018	6018	6018	6018	6018	6018	5815	5915	5815	5815	5815	5815	5815	5719	5719	5626	5626	5626	5626	5626	5626	5626	5626	5626	5448	5448	5448	5364	5364	5364	5364	5282	5282	5202	5202	5125	5125	5125	5050	5050	5050	5050	4977	4906	4838	4838	4838	4838	4771	4771	4706	4643	4643	4643	4581	4581	4581	4581	4581	4581	4581	4581	4521	4521	4521	4463	4463	4406	4406	4350	4350	4296	4296	4296	4243	4243	4192	4142	4142	4142	4142	4093	4093	4093	4045	3998	3998	3998	3952	3952	3907	3907	3907	3907	3864	3821	3821	3821	3779	0	0	0	0	0	0	0	0	0	0	0	0	0	0	0	0	0	0	0	0	0	0	0	0	0	0	0	0	0	0	0	0	0	0	0	0	0	0	0	0	0	0	0	0	0
0	0	0	0	0	0	0	0	0	1296	1301	1301	1301	1306	1306	1311	1311	1311	1321	1326	1326	1331	1331	1331	1331	1331	1690	1690	1681	1681	1673	1673	1665	1665	1665	1665	1665	0	0	0	0	0	0	0	0	0	0	0	0	0	0	0	0	0	0	0	0	0	1419	1425	1425	1431	1431	1437	1431	1431	1431	1431	1413	1407	1413	1425	1425	1431	1431	1431	1437	1437	1437	1443	1443	0	0	0	0	0	0	0	0	0	0	0	0	0	0	0	0	0	0	0	0	0	0	0	0	0	0	0	0	0	0	0	0	0	0	0	0	0	0	0	0	0	0	0	0	0	0	0	0	0	0	0	0	0	0	0	0	0	0	0	0	0	0	0	0	0	0	0	0	0	0	0	0	0	0	0	0	0	0	0	0	0	0	0	0	0	0	0	0	0	0	8550	8550	8550	8550	8550	8550	8767	8767	8550	8550	8550	8550	8550	8550	8550	8550	8550	8550	8550	8550	8343	8343	8343	8550	8343	8550	8343	8550	8550	8550	8550	8550	8550	8550	8550	8550	8343	8343	8343	8343	8343	8343	8550	8343	8343	8550	8550	8550	8550	8550	8550	8550	8550	8550	8550	8343	8343	8343	8343	8343	8343	8343	8343	8343	8343	8343	8343	0	0	0	0	0	0	0	0	0	0	0	0	0	0	0	0	0	0	0	6592	6592	6592	6592	6592	6468	6468	6468	6592	6592	6592	6592	6592	6592	6592	6592	6592	6468	6592	6592	6592	6592	6592	6592	6592	6592	6592	6592	6720	6720	6592	6592	6592	6592	6592	6592	6592	6592	6592	6468	6468	6468	6592	6592	6592	6592	6592	6592	6592	6592	6853	4243	4296	4243	4296	4296	4350	4350	4350	4350	4350	4350	4296	4296	4296	4296	4296	4296	4296	4296	4296	4296	4296	4350	4350	4350	4350	4350	4350	4406	4406	6853	6720	6720	6720	6720	6720	6720	6720	6720	6720	6720	0	0	0	0	0	0	0	0	0	0	0	0	0	0	0	0	0	0	0	0	0	0	0	0	6992	6853	6853	6853	6853	6720	6720	6720	6720	6720	6720	6720	6720	6720	6720	6853	6720	6853	6853	6853	6853	6853	6853	6853	6720	6853	6853	6720	6720	6720	6720	6720	6720	6720	6720	6592	6720	6720	6592	6592	6720	6592	6592	6592	6592	6592	6592	6468	6592	6592	6592	6468	6592	6468	6468	6592	6592	6592	6592	6592	6592	6592	6592	6592	6592	6592	6592	6592	6592	6592	6592	6592	6592	6592	6592	6592	6592	6592	6592	6592	6592	6592	6592	6592	6592	6592	6592	6592	6592	6592	6592	6592	6592	6592	6592	6592	6592	6592	6592	6592	6592	6592	6592	6720	6720	6468	6349	6235	6235	6124	6124	6124	6018	6018	6018	5915	5815	5815	5815	5815	5815	5815	5915	5915	6018	6018	6018	6018	6018	5915	5915	5815	5815	5815	5815	5815	5719	5719	5719	5626	5626	5626	5626	5626	5626	5626	5535	5535	5448	5364	5364	5364	5364	5364	5282	5282	5202	5202	5125	5125	5125	5125	5050	5050	5050	4977	4906	4838	4838	4838	4838	4771	4771	4771	4643	4643	4581	4581	4581	4581	4581	4581	4581	4581	4581	4521	4521	4521	4463	4406	4406	4350	4350	4296	4296	4296	4296	4296	4243	4192	4142	4142	4142	4142	4093	4093	4093	4045	3998	3998	3998	3952	3952	3952	3907	3907	3907	3907	3864	3821	3821	0	0	0	0	0	0	0	0	0	0	0	0	0	0	0	0	0	0	0	0	0	0	0	0	0	0	0	0	0	0	0	0	0	0	0	0	0	0	0	0	0	0	0	0	0	0
0	0	0	0	0	0	0	0	0	1296	1296	1301	1301	1306	1306	1311	1311	1311	1316	1316	1326	1331	1326	1326	1326	0	1690	1698	1690	1690	1690	1681	1681	1673	1673	1673	1665	0	0	0	0	0	0	0	0	0	0	0	0	0	0	0	0	0	0	0	0	0	1419	1425	1425	1425	1437	1431	1431	1431	1431	1431	1413	1407	1407	1425	1425	1455	1437	1437	1443	1443	1443	1443	1443	0	0	0	0	0	0	0	0	0	0	0	0	0	0	0	0	0	0	0	0	0	0	0	0	0	0	0	0	0	0	0	0	0	0	0	0	0	0	0	0	0	0	0	0	0	0	0	0	0	0	0	0	0	0	0	0	0	0	0	0	0	0	0	0	0	0	0	0	0	0	0	0	0	0	0	0	0	0	0	0	0	0	0	0	0	0	0	0	0	8550	8550	8550	8767	8550	8550	8550	8550	8767	8550	8550	8550	8550	8550	8550	8550	8550	8550	8550	8550	8550	8343	8343	8343	8550	8343	8550	8343	8550	8550	8767	8550	8550	8550	8550	8550	8550	8343	8550	8343	8343	8343	8343	8343	8343	8343	8550	8550	8550	8550	8550	8550	8550	8550	8550	8550	8343	8343	8343	8343	8343	8343	8343	8343	8343	8343	8343	8343	0	0	0	0	0	0	0	0	0	0	0	0	0	0	0	0	0	0	0	6592	6592	6592	6592	6468	6468	6468	6468	6592	6592	6592	6592	6592	6592	6592	6592	6592	6592	6592	6592	6592	6592	6592	6592	6592	6592	6592	6592	6592	6720	6592	6592	6592	6592	6592	6592	6592	6592	6592	6468	6592	6592	6592	6592	6592	6592	6592	6592	6720	6853	6853	4296	4296	4243	4296	4296	4350	4350	4350	4350	4350	4296	4296	4296	4296	4296	4296	4350	4296	4296	4296	4296	4350	4350	4350	4350	4350	4350	4350	4350	4350	6720	6720	6720	6853	6720	6720	6720	6720	6853	6720	6720	0	0	0	0	0	0	0	0	0	0	0	0	0	0	0	0	0	0	0	0	0	0	0	0	0	6853	6992	6853	6853	6720	6720	6720	6720	6720	6720	6720	6720	6720	6853	6853	6853	6853	6853	6853	6720	6853	6853	6720	6720	6720	6720	6720	6720	6720	6720	6720	6720	6720	6592	6592	6592	6720	6592	6592	6720	6592	6592	6592	6592	6592	6592	6468	6592	6592	6592	6468	6592	6468	6468	6592	6468	6592	6592	6592	6592	6592	6592	6592	6592	6592	6592	6592	6468	6468	6468	6468	6468	6468	6592	6592	6592	6592	6592	6592	6592	6592	6592	6592	6592	6592	6592	6592	6592	6592	6592	6592	6720	6720	6720	6720	6720	6720	6592	6592	6592	6592	6592	6592	6349	6349	6235	6235	6124	6124	6124	6124	6018	6018	6018	5915	5915	5815	5815	5815	5815	5815	5915	5915	6018	6018	6018	6018	6018	5815	5915	5915	5815	5815	5815	5815	5719	5719	5626	5626	5626	5626	5626	5626	5535	5535	5448	5448	5448	5364	5364	5364	5282	5282	5282	5282	5202	5202	5202	5125	5125	5125	5050	5050	5050	5050	4977	4906	4838	4838	4838	4771	4771	4706	4643	4643	4581	4581	4581	4581	4581	4581	4521	4521	4521	4521	4521	4463	4406	4406	4350	4350	4350	4296	4296	4296	4296	4296	4296	4192	4192	4142	4142	4142	4142	4093	4093	4045	3998	3998	3998	3998	3952	3952	3907	3907	3907	3907	3864	3864	3864	0	0	0	0	0	0	0	0	0	0	0	0	0	0	0	0	0	0	0	0	0	0	0	0	0	0	0	0	0	0	0	0	0	0	0	0	0	0	0	0	0	0	0	0	0	0
0	0	0	0	0	0	0	0	0	1296	1296	1301	1301	1301	1306	1311	1311	1311	1316	1321	1326	1331	1336	1336	1336	0	0	1706	1698	1698	1698	1698	1690	1690	1681	1681	0	0	0	0	0	0	0	0	0	0	0	0	0	0	0	0	0	0	0	0	1431	1431	1425	1431	1431	1425	1437	1425	1425	0	0	0	0	1407	1407	0	0	1455	1449	1443	1443	1443	1449	1449	1449	0	0	0	0	0	0	0	0	0	0	0	0	0	0	0	0	0	0	0	0	0	0	0	0	0	0	0	0	0	0	0	0	0	0	0	0	0	0	0	0	0	0	0	0	0	0	0	0	0	0	0	0	0	0	0	0	0	0	0	0	0	0	0	0	0	0	0	0	0	0	0	0	0	0	0	0	0	0	0	0	0	0	0	0	0	0	0	0	0	8550	8550	8550	8767	8550	8550	8550	8767	8767	8550	8550	8550	8550	8550	8550	8550	8550	8550	8550	8550	8550	8550	8343	8343	8550	8343	8343	8343	8550	8550	8550	8550	8550	8550	8550	8550	8550	8343	8343	8343	8343	8343	8343	8343	8343	8343	8343	8550	8550	8550	8343	8550	8550	8550	8343	8343	8343	8343	8343	8343	8343	8343	8343	8343	8343	8343	8343	8343	0	0	0	0	0	0	0	0	0	0	0	0	0	0	0	0	0	0	0	6592	6592	6592	6592	6468	6468	6468	6468	6468	6592	6592	6592	6592	6592	6592	6592	6592	6592	6592	6592	6592	6592	6592	6592	6592	6592	6592	6592	6592	6592	6592	6592	6592	6592	6592	6592	6592	6592	6592	6592	6592	6592	6592	6592	6592	6592	6592	6592	6592	6720	6853	4296	4296	4296	4296	4296	4350	4350	4350	4350	4350	4350	4296	4296	4296	4296	4296	4350	4296	4296	4296	4296	4350	4350	4296	4296	4296	4296	4296	4350	4296	4296	6720	6720	6853	6720	6720	6720	6720	6853	6853	6720	0	0	0	0	0	0	0	0	0	0	0	0	0	0	0	0	0	0	0	0	0	0	0	0	0	6853	6992	6853	6853	6720	6720	6720	6720	6720	6720	6720	6720	6853	6853	6853	6720	6853	6720	6720	6720	6720	6720	6720	6720	6853	6853	6720	6720	6720	6720	6720	6720	6720	6720	6592	6720	6720	6592	6720	6720	6592	6592	6592	6592	6592	6592	6468	6592	6592	6592	6468	6468	6468	6468	6468	6468	6592	6592	6592	6592	6592	6592	6592	6592	6592	6468	6468	6468	6468	6468	6468	6468	6468	6592	6592	6592	6592	6592	6592	6592	6592	6592	6592	6592	6592	6592	6592	6592	6592	6592	6592	6720	6720	6720	6720	6720	6720	6592	6592	6592	6592	6468	6349	6349	6349	6235	6124	6018	6018	6018	6018	6018	6018	5915	5915	5815	5815	5719	5719	5815	5815	5915	6018	6018	6018	6018	6018	5915	5915	5915	5915	5815	5815	5815	5815	5815	5719	5719	5719	5626	5626	5626	5535	5535	5535	5448	5448	5448	5364	5364	5364	5282	5282	5282	5282	5202	5202	5125	5125	5125	5125	5050	5050	4977	4977	4977	4906	4838	4838	4838	4771	4771	4706	4643	4581	4581	4581	4521	4521	4581	4521	4521	4521	4521	4521	4463	4463	4406	4350	4350	4350	4296	4296	4296	4296	4296	4296	4296	4243	4243	4192	4142	4142	4142	4093	4093	4045	3998	3998	3998	3998	3952	3952	3907	3907	3907	3907	3864	3864	3864	0	0	0	0	0	0	0	0	0	0	0	0	0	0	0	0	0	0	0	0	0	0	0	0	0	0	0	0	0	0	0	0	0	0	0	0	0	0	0	0	0	0	0	0	0	0
0	0	0	0	0	0	0	0	0	1301	1301	1301	1301	1306	1306	1311	1311	1311	1316	1321	1326	1326	1326	1331	1336	1336	0	1715	1715	1706	1715	1706	1706	1690	1706	1706	0	0	0	0	0	0	0	0	0	0	0	0	0	0	0	0	0	0	0	0	1437	1431	1431	1431	1425	1425	1437	1425	1419	1419	0	0	0	0	0	0	0	1449	1449	1449	1443	1443	1449	1443	1443	0	0	0	0	0	0	0	0	0	0	0	0	0	0	0	0	0	0	0	0	0	0	0	0	0	0	0	0	0	0	0	0	0	0	0	0	0	0	0	0	0	0	0	0	0	0	0	0	0	0	0	0	0	0	0	0	0	0	0	0	0	0	0	0	0	0	0	0	0	0	0	0	0	0	0	0	0	0	0	0	0	0	0	0	0	0	0	0	0	8343	8343	8550	8550	8550	8550	8550	8767	8767	8550	8550	8550	8550	8550	8550	8550	8550	8550	8550	8550	8343	8343	8343	8343	8550	8343	8343	8343	8343	8550	8550	8550	8550	8550	8550	8550	8550	8343	8343	8343	8343	8343	8343	8343	8343	8343	8343	8550	8550	8550	8550	8550	8550	8343	8343	8343	8343	8343	8343	8343	8343	8343	8343	8343	8343	8343	8343	8343	0	0	0	0	0	0	0	0	0	0	0	0	0	0	0	0	0	0	0	6592	6592	6592	6592	6592	6468	6468	6468	6468	6592	6592	6592	6592	6592	6592	6592	6592	6592	6592	6592	6592	6592	6592	6592	6592	6592	6592	6592	6592	6592	6592	6592	6592	6592	6592	6592	6592	6592	6592	6592	6592	6592	6592	6592	6468	6468	6468	6592	6592	4192	4192	4243	4243	4243	4296	4296	4350	4350	4350	4296	4350	4296	4296	4296	4296	4296	4296	4350	4296	4296	4350	4296	4350	4350	4350	4296	4350	4350	4350	4350	4350	4350	4350	4350	6992	6992	6853	6720	6720	6853	6853	0	0	0	0	0	0	0	0	0	0	0	0	0	0	0	0	0	0	0	0	0	0	0	0	0	0	6992	6992	6853	6853	6720	6720	6720	6720	6720	6720	6720	6720	6720	6720	6853	6720	6720	6720	6720	6720	6720	6720	6720	6853	6853	6853	6720	6853	6720	6720	6720	6720	6720	6720	6720	6720	6720	6720	6720	6720	6720	6720	6592	6592	6592	6592	6592	6592	6592	6592	6468	6592	6468	6468	6592	6592	6592	6592	6592	6592	6592	6592	6592	6592	6592	6592	6468	6468	6468	6468	6468	6468	6468	6592	6592	6592	6592	6592	6592	6592	6592	6592	6592	6592	6592	6592	6592	6592	6592	6592	6592	6720	6720	6720	6720	6720	6720	6592	6592	6592	6468	6468	6349	6235	6235	6124	6018	6018	6018	6018	6018	6018	5915	5915	5815	5815	5815	5719	5815	5719	5815	5915	6018	6018	6018	6018	6018	6018	5915	5915	5915	5915	5815	5815	5815	5815	5719	5719	5626	5626	5626	5626	5535	5535	5448	5448	5448	5448	5364	5364	5364	5282	5282	5282	5282	5202	5202	5125	5125	5125	5050	5050	4977	4977	4977	4977	4906	4838	4838	4838	4771	4771	4771	4706	4643	4581	4581	4581	4581	4581	4581	4521	4521	4521	4521	4463	4463	4406	4350	4350	4350	4296	4296	4296	4296	4296	4296	4296	4243	4243	4192	4192	4142	4142	4093	4093	4045	4045	3998	3998	3998	3952	3952	3952	3952	3952	3907	3864	3907	3907	3907	0	0	0	0	0	0	0	0	0	0	0	0	0	0	0	0	0	0	0	0	0	0	0	0	0	0	0	0	0	0	0	0	0	0	0	0	0	0	0	0	0	0	0	0	0
0	0	0	0	0	0	0	0	0	1296	1296	1301	1301	1306	1306	1306	1306	1311	1316	1316	1321	1326	1326	1331	1336	1336	0	1715	1732	1732	1732	1723	1723	1723	1723	1706	0	0	0	0	0	0	0	0	0	0	0	0	0	0	0	0	0	0	0	0	1437	1437	1437	1431	1425	1419	1431	1419	1419	1419	0	0	0	0	0	0	0	1449	1449	1431	1431	1437	1437	1437	1437	0	0	0	0	0	0	0	0	0	0	0	0	0	0	0	0	0	0	0	0	0	0	0	0	0	0	0	0	0	1596	1596	0	0	0	0	0	0	0	0	0	0	0	0	0	0	0	0	0	0	0	0	0	0	0	0	0	0	0	0	0	0	0	0	0	0	0	0	0	0	0	0	0	0	0	0	0	0	0	0	0	0	0	0	0	0	0	0	0	0	8343	8550	8550	8767	8767	8767	8767	8767	8767	8550	8550	8550	8550	8550	8550	8550	8550	8343	8550	8343	8343	8343	8343	8343	8550	8343	8343	8343	8343	8343	8550	8550	8550	8550	8550	8550	8550	8343	8343	8343	8343	8343	8343	8343	8343	8343	8343	8550	8550	8550	8343	8343	8550	8343	8343	8343	8343	8343	8343	8343	8343	8343	8343	8343	8343	8343	8343	8343	8343	0	0	0	0	0	0	0	0	0	0	0	0	0	0	0	0	0	0	6720	6592	6592	6592	6592	6468	6468	6468	6468	6592	6592	6592	6592	6592	6592	6592	6592	6592	6592	6592	6592	6592	6592	6592	6592	6592	6592	6592	6592	6592	6592	6592	6592	6592	6592	6592	6592	6592	6592	6592	6592	6592	6592	6468	6468	6468	6468	4192	4243	4192	4243	4243	4243	4243	4243	4243	4296	4296	4296	4296	4296	4296	4296	4296	4296	4296	4296	4296	4296	4296	4296	4296	4296	4350	4296	4296	4296	4296	4296	4350	4296	4350	4350	4296	4296	4296	4296	4243	4296	4296	4296	4350	4350	0	0	0	0	0	0	0	0	0	0	0	0	0	0	0	0	0	0	0	0	0	0	0	0	6992	6992	6853	6853	6720	6720	6720	6720	6720	6720	6720	6720	6720	6720	6720	6720	6720	6720	6720	6720	6720	6720	6720	6720	6720	6720	6720	6720	6720	6720	6720	6720	6720	6720	6720	6720	6720	6720	6720	6720	6720	6720	6592	6592	6592	6592	6592	6592	6592	6592	6468	6592	6468	6468	6592	6592	6592	6592	6592	6592	6592	6592	6592	6592	6592	6592	6592	6468	6468	6468	6592	6468	6468	6468	6592	6592	6592	6592	6592	6592	6592	6592	6592	6592	6592	6592	6592	6592	6592	6592	6592	6720	6720	6720	6720	6720	6592	6592	6592	6468	6468	6349	6235	6235	6235	6235	6124	5915	5915	5915	5915	5915	5915	5915	5915	5815	5815	5719	5719	5719	5815	5815	5915	5915	6018	6018	6018	5915	5915	5815	5915	5815	5815	5815	5815	5815	5719	5719	5719	5719	5626	5626	5535	5535	5448	5448	5364	5364	5364	5364	5282	5282	5202	5202	5202	5202	5202	5125	5050	5050	5050	5050	4977	4977	4977	4977	4906	4906	4838	4838	4838	4771	4771	4706	4706	4643	4581	4581	4581	4581	4581	4521	4521	4521	4521	4463	4463	4406	4350	4350	4350	4296	4296	4296	4296	4296	4296	4296	4243	4243	4192	4142	4142	4142	4093	4093	4093	4045	4045	3998	3998	3952	3952	3952	3952	3952	3952	3907	3907	3907	3907	0	0	0	0	0	0	0	0	0	0	0	0	0	0	0	0	0	0	0	0	0	0	0	0	0	0	0	0	0	0	0	0	0	0	0	0	0	0	0	0	0	0	0	0	0
0	0	0	0	0	0	0	0	0	1291	1291	1301	1301	1306	1306	1311	1306	1311	1321	1321	1321	1321	1326	1326	1342	1342	1342	0	1741	1741	1741	1732	1732	1732	1723	1723	0	0	0	0	0	0	0	0	0	0	0	0	0	0	0	0	0	0	0	0	1437	1443	1443	1437	1431	1431	1437	1431	1431	1419	0	0	0	0	0	0	0	1443	1443	1431	1431	1437	1437	1437	1437	0	0	0	0	0	0	0	0	0	0	0	0	0	0	0	0	0	0	0	0	0	0	0	0	0	0	0	0	1596	1596	1596	1596	1626	1626	0	0	0	0	0	0	0	0	0	0	0	0	0	0	0	0	0	0	0	0	0	0	0	0	0	0	0	0	0	0	0	0	0	0	0	0	0	0	0	0	0	0	0	0	0	0	0	0	0	0	0	0	0	0	0	0	8550	8550	8767	8767	8767	8767	8767	8767	8550	8550	8550	8550	8550	8550	8550	8550	8343	8343	8343	8343	8343	8343	8343	8343	8550	8343	8343	8343	8343	8550	8550	8550	8550	8550	8550	8550	8550	8343	8343	8343	8343	8343	8343	8343	8343	8343	8343	8550	8550	8343	8343	8343	8343	8343	8343	8343	8343	8343	8343	8343	8343	8343	8343	8343	8343	8343	8343	8343	8343	0	0	0	0	0	0	0	0	0	0	0	0	0	0	0	0	0	6720	6592	6592	6592	6592	6468	6468	6468	6468	6468	6592	6592	6592	6592	6592	6592	6592	6592	6592	6592	6592	6592	6592	6592	6592	6468	6468	6592	6592	6592	6592	6592	6592	6592	6592	6592	6720	6592	6720	6720	6592	6592	6592	6468	6468	4243	4243	4243	4243	4243	4243	4243	4243	4243	4243	4243	4296	4296	4296	4296	4296	4296	4296	4243	4296	4296	4296	4296	4296	4296	4296	4296	4296	4350	4296	4296	4296	4296	4296	4350	4350	4350	4350	4350	4350	4296	4296	4296	4296	4296	4350	4350	4350	4350	4350	0	0	0	0	0	0	0	0	0	0	0	0	0	0	0	0	0	0	0	0	0	0	6992	6992	6853	6853	6720	6720	6720	6592	6720	6720	6720	6720	6720	6720	6720	6720	6720	6720	6720	6720	6720	6720	6720	6720	6720	6720	6720	6720	6720	6720	6720	6720	6720	6720	6720	6720	6720	6720	6720	6720	6720	6720	6592	6592	6592	6592	6592	6592	6592	6592	6592	6592	6468	6468	6468	6468	6468	6468	6592	6592	6592	6592	6592	6592	6592	6592	6592	6592	6592	6468	6592	6468	6468	6592	6592	6592	6592	6592	6592	6592	6592	6592	6592	6592	6592	6592	6592	6592	6592	6592	6592	6592	6720	6720	6592	6592	6592	6592	6592	6468	6468	6349	6349	6349	6349	6235	6124	5915	6018	6018	6018	5915	5915	5915	5915	5815	5815	5815	5719	5719	5719	5815	5915	5915	5915	6018	6018	6018	5915	5915	5915	5815	5815	5815	5815	5815	5719	5815	5815	5719	5719	5719	5535	5535	5448	5448	5364	5364	5364	5282	5282	5202	5202	5202	5202	5202	5202	5125	5050	5050	5050	5050	4977	4977	4977	4906	4906	4906	4838	4838	4838	4771	4771	4771	4771	4643	4581	4581	4581	4581	4581	4581	4521	4521	4521	4463	4463	4406	4350	4350	4350	4296	4296	4296	4296	4296	4296	4296	4243	4243	4192	4192	4142	4142	4093	4093	4093	4045	4045	4045	3998	3998	3952	3952	3952	3952	3907	3907	3907	3907	3907	0	0	0	0	0	0	0	0	0	0	0	0	0	0	0	0	0	0	0	0	0	0	0	0	0	0	0	0	0	0	0	0	0	0	0	0	0	0	0	0	0	0	0	0	0
0	0	0	0	0	0	0	0	0	1291	1282	1296	1301	1306	1306	1311	1306	1311	1321	1321	1321	1321	1326	1336	1342	1342	1342	0	1741	1750	1750	1741	1741	1741	1732	1741	1741	0	0	0	0	0	0	0	0	0	0	0	0	0	0	0	0	0	0	0	0	1443	1443	1437	1431	1431	1431	1431	1431	0	0	0	0	0	0	0	0	1443	1443	1437	1431	1437	1437	1437	1437	0	0	0	0	0	0	0	0	0	0	0	0	0	0	0	0	0	0	0	0	0	0	0	0	0	0	0	0	1596	1596	1603	1611	1626	1626	1626	0	0	0	0	0	0	0	0	0	0	0	0	0	0	0	0	0	0	0	0	0	0	0	0	0	0	0	0	0	0	0	0	0	0	0	0	0	0	0	0	0	0	0	0	0	0	0	0	0	0	0	0	0	0	0	0	8550	8550	8767	8767	8767	8767	8767	8550	8550	8550	8550	8550	8550	8550	8550	8343	8343	8343	8343	8343	8343	8343	8550	8343	8343	8343	8343	8343	8550	8550	8550	8550	8550	8550	8550	8343	8343	8343	8343	8343	8343	8343	8343	8343	8343	8550	8343	8343	8343	8343	8343	8343	8343	8343	8343	8343	8343	8343	8343	8343	8343	8343	8343	8343	6468	6468	8343	8343	0	0	0	0	0	0	0	0	0	0	0	0	0	0	0	0	0	6592	6592	6592	6592	6592	6468	6468	6468	6468	6468	6592	6592	6592	6592	6592	6592	6592	6592	6592	6592	6592	6592	6592	6592	6592	6468	6592	6592	6592	6592	6592	6592	6592	6592	6592	6592	6592	6592	6592	6592	6592	4296	4243	4243	4243	4243	4243	4243	4243	4243	4243	4243	4243	4243	4243	4243	4296	4296	4296	4296	4296	4296	4296	4243	4296	4243	4243	4296	4296	4296	4296	4296	4296	4296	4296	4296	4296	4296	4350	4350	4350	4350	4350	4350	4350	4296	4296	4296	4296	4350	4350	4350	4350	4350	4350	4350	0	0	0	0	0	0	0	0	0	0	0	0	0	0	0	6592	6592	0	6592	6720	6853	6853	6853	6853	6720	6720	6720	6720	6592	6592	6720	6720	6720	6720	6720	6720	6720	6720	6720	6592	6592	6592	6720	6720	6720	6720	6720	6720	6720	6720	6592	6592	6720	6720	6720	6592	6720	6720	6720	6720	6720	6720	6720	6720	6592	6592	6592	6592	6592	6592	6592	6592	6592	6468	6468	6468	6468	6468	6592	6592	6592	6592	6592	6592	6592	6592	6592	6592	6592	6592	6468	6592	6592	6592	6592	6592	6592	6592	6592	6592	6592	6592	6592	6592	6592	6592	6592	6592	6592	6592	6592	6592	6720	6720	6720	6720	6592	6592	6468	6468	6349	6349	6349	6349	6349	6349	6235	6124	5915	6018	6018	5915	5915	5915	5915	5915	5815	5815	5815	5719	5719	5719	5815	5915	5915	5915	6018	6018	6018	5915	5915	5915	5815	5815	5815	5815	5719	5719	5719	5815	5719	5719	5626	5535	5535	5448	5448	5364	5364	5202	5202	5202	5202	5125	5125	5202	5202	5202	5125	5050	5050	5050	4977	4977	4977	4977	4977	4906	4906	4838	4838	4838	4838	4771	4771	4771	4643	4581	4581	4581	4581	4581	4581	4581	4521	4521	4463	4463	4406	4350	4350	4350	4296	4296	4296	4296	4296	4296	4296	4243	4243	4243	4192	4142	4142	4142	4142	4093	4093	4045	4045	3998	3998	3952	3952	3952	3952	3952	3907	3907	3864	3864	0	0	0	0	0	0	0	0	0	0	0	0	0	0	0	0	0	0	0	0	0	0	0	0	0	0	0	0	0	0	0	0	0	0	0	0	0	0	0	0	0	0	0	0	0
0	0	0	0	0	0	0	0	0	1287	1282	1291	1296	1301	1306	1311	1311	1311	1316	1321	1321	1321	1321	1331	1342	1342	1342	0	0	1750	1750	1750	1750	1750	1750	1741	1741	1768	1768	0	0	0	0	0	0	0	0	0	0	0	0	0	0	0	0	0	0	0	1443	1431	1419	1419	1431	1431	0	0	0	0	0	0	0	0	0	1437	1443	1437	1437	1437	1437	1437	1437	0	0	0	0	0	0	0	0	0	0	0	0	0	0	0	0	0	0	0	0	0	0	0	0	0	0	0	1603	1603	1611	1618	1618	1626	1626	1626	0	0	0	0	0	0	0	0	0	0	0	0	0	0	0	0	0	0	0	0	0	0	0	0	0	0	0	0	0	0	0	0	0	0	0	0	0	0	0	0	0	0	0	0	0	0	0	0	0	0	0	0	0	0	0	0	8550	8767	8767	8767	8550	8550	8550	8550	8550	8550	8550	8550	8550	8550	8550	8550	8343	8343	8343	8343	8343	8343	8343	8550	8343	8343	8343	8343	8550	8550	8343	8550	8343	8343	8343	8343	8343	8343	8146	8343	8343	8343	8343	8343	8146	8343	8343	8343	8343	8343	8343	8343	8343	8343	8343	8343	8343	8343	8343	8343	8343	8343	6592	6468	6468	6468	0	0	0	0	0	0	0	0	0	0	0	0	0	0	0	0	0	0	0	6592	6592	6592	6592	6592	6468	6468	6592	6468	6592	6592	6592	6592	6592	6592	6592	6592	6592	6592	6592	6592	6592	6592	6592	6592	6468	6468	6592	6468	6468	6468	6592	6592	6592	6592	6592	6592	6592	4296	4296	4296	4243	4243	4243	4192	4243	4243	4243	4243	4243	4243	4243	4243	4243	4243	4243	4296	4296	4296	4296	4296	4296	4296	4296	4296	4296	4296	4296	4296	4296	4296	4296	4296	4296	4296	4296	4296	4296	4296	4296	4350	4350	4350	4296	4296	4296	4296	4296	4296	4296	4296	4350	4350	4350	4296	4350	4350	0	0	0	0	0	0	0	0	0	0	0	0	6592	6592	6592	6592	6592	6720	6720	6853	6992	6992	6853	6720	6720	6720	6720	6592	6592	6720	6720	6720	6720	6720	6720	6720	6720	6592	6720	6592	6720	6720	6720	6720	6720	6720	6592	6720	6720	6592	6592	6592	6720	6720	6720	6720	6720	6720	6720	6720	6720	6720	6720	6592	6592	6592	6592	6592	6592	6592	6592	6592	6592	6468	6468	6468	6592	6592	6592	6592	6592	6592	6592	6592	6592	6592	6592	6592	6592	6468	6592	6592	6592	6592	6592	6592	6592	6592	6592	6592	6592	6592	6592	6592	6592	6592	6592	6720	6720	6592	6592	6592	6720	6592	6592	6592	6468	6349	6349	6235	6349	6349	6349	6349	6349	6235	6124	6124	6018	6018	6018	5915	5915	5915	5915	5815	5815	5719	5719	5719	5719	5815	5815	5915	5915	6018	6018	6018	5915	5915	5815	5815	5815	5815	5719	5719	5719	5719	0	0	5719	5626	5626	5535	5535	5535	5364	5364	5125	5125	5202	5125	5125	5125	5202	5202	5125	5125	5125	5050	5050	4977	4977	4977	4977	4906	4906	4906	4838	4838	4838	4838	4771	4771	4706	4643	4643	4581	4581	4643	4581	4581	4581	4521	4521	4463	4463	4406	4350	4350	4350	4350	4296	4296	4296	4296	4296	4296	4243	4243	4192	4192	4142	4142	4142	4142	4093	4093	4093	4045	3998	3998	3998	3952	3907	3907	3907	3907	3907	3864	3864	3864	0	0	0	0	0	0	0	0	0	0	0	0	0	0	0	0	0	0	0	0	0	0	0	0	0	0	0	0	0	0	0	0	0	0	0	0	0	0	0	0	0	0	0	0
0	0	0	0	0	0	0	0	0	1291	1282	1296	1301	1306	1306	1306	1311	1311	1316	1316	1316	1316	1321	1326	1336	1336	1336	0	1768	1768	1759	1759	1759	1759	1759	1750	1759	1768	1768	0	0	0	0	0	0	0	0	0	0	0	0	0	0	0	0	0	0	0	1443	1431	1419	1419	0	0	1413	1413	1413	1413	1425	1425	1437	1431	1437	1437	1443	1437	1431	1431	1431	1431	1431	0	0	0	0	0	0	0	0	0	0	0	0	0	0	0	0	0	0	0	0	0	0	0	0	1567	1574	1589	1589	1611	1611	1618	1618	1641	1641	1649	1649	0	0	0	0	0	0	0	0	0	0	0	0	0	0	0	0	0	0	0	0	0	0	0	0	0	0	0	0	0	0	0	0	0	0	0	0	0	0	0	0	0	0	0	0	0	0	0	0	0	0	0	0	0	0	0	0	8767	8767	8767	8550	8767	8550	8550	8550	8550	8550	8550	8550	8550	8550	8550	8343	8550	8343	8343	8550	8343	8343	8343	8343	8343	8146	8146	8146	8343	8343	8343	8343	8343	8343	8343	8146	8146	8146	8146	8146	8343	8343	8343	8146	8343	8343	8343	8343	8343	8343	8343	8146	8343	8343	8343	8343	8343	8343	6592	6592	6592	6592	6468	6468	6468	0	0	0	0	0	0	0	0	0	0	0	0	0	6468	6468	0	6592	6592	6592	6592	6592	6592	6592	6592	6592	6468	6592	6468	6592	6592	6592	6592	6720	6592	6720	6592	6592	6592	6592	6592	6592	6592	6592	6592	6592	6592	6592	6468	6468	6468	6468	6592	6592	6592	6592	6592	4243	4243	4296	4296	4296	4243	4243	4243	4243	4243	4243	4243	4243	4243	4243	4243	4243	4243	4243	4296	4296	4296	4296	4296	4296	4296	4296	4296	4243	4296	4296	4296	4296	4296	4296	4296	4296	4296	4296	4296	4296	4296	4296	4350	4350	4350	4296	4296	4296	4296	4296	4296	4296	4350	4350	4350	4350	4296	4350	4350	4350	0	0	0	0	0	0	0	6720	6720	6592	6720	6720	6592	6720	6592	6592	6720	6853	6853	6853	6992	6853	6720	6720	6720	6720	6592	6720	6720	6720	6720	6720	6720	6720	6720	6592	6592	6720	6592	6592	6720	6720	6592	6720	6592	6592	6592	6720	6592	6592	6592	6720	6720	6720	6720	6720	6720	6720	6720	6720	6720	6720	6592	6592	6592	6592	6592	6592	6592	6592	6592	6592	6468	6468	6468	6592	6592	6592	6592	6592	6592	6592	6720	6592	6592	6592	6592	6592	6592	6592	6592	6592	6592	6592	6592	6592	6592	6592	6592	6592	6592	6592	6592	6592	6592	6592	6720	6720	6592	6592	6720	6720	6720	6592	6592	6592	6349	6349	6235	6349	6349	6349	6349	6349	6235	6124	6124	6018	6018	6018	5915	5915	5815	5815	5815	5815	5719	5719	5719	5719	5815	5815	5915	5915	6018	6124	6018	6018	5915	5815	5815	5815	5719	5719	5719	0	0	0	0	0	5626	5626	5535	5535	2297	2281	2281	2281	5125	5202	5125	5125	5125	2237	2223	2208	2208	2208	5050	5050	4906	4906	4906	4906	4906	4906	4906	4838	4838	4838	4838	4838	4771	4706	4706	4643	4643	4581	4643	4581	4581	4581	4521	4521	4521	4463	4406	4350	4350	4350	4350	4350	4296	4296	4296	4296	4296	4243	4192	4192	4142	4142	4142	4142	4093	4093	4093	4045	3998	3998	3998	3998	3952	3952	3952	3907	3907	3907	3821	3821	3864	0	0	0	0	0	0	0	0	0	0	0	0	0	0	0	0	0	0	0	0	0	0	0	0	0	0	0	0	0	0	0	0	0	0	0	0	0	0	0	0	0	0	0	0
0	0	0	0	0	0	0	0	0	1296	1291	1296	1301	1306	1306	1306	1311	1311	1316	1316	1316	1316	1321	1321	1336	1336	1336	0	1786	1777	1777	1777	1777	1777	1759	1750	1759	1768	1768	0	0	0	0	0	0	0	0	0	0	0	0	0	0	0	0	0	0	0	0	0	0	0	1419	1419	1413	1413	1413	1413	1419	1425	1431	1431	1431	1431	1437	1431	1431	1431	1431	1431	1431	1431	0	0	0	0	0	0	0	0	0	0	0	0	0	0	0	0	1553	1553	1560	1560	1560	1567	1567	1567	1574	1611	1611	1611	1618	1626	1626	1626	1641	1641	1649	0	0	0	0	0	0	0	0	0	0	0	0	0	0	0	0	0	0	0	0	0	0	0	0	0	0	0	0	0	0	0	0	0	0	0	0	0	0	0	0	0	0	0	0	0	0	0	0	0	0	0	0	0	0	0	0	0	6592	6592	6592	8343	8343	8550	8550	8550	8550	8550	8550	8550	8550	8550	8343	8343	8343	8343	8550	6720	6720	8343	8343	8146	7959	6592	6592	6592	8146	8146	8146	8343	8343	8343	8343	8146	7779	6592	6592	6592	6592	6592	6592	6592	8146	8146	8146	8146	8146	8146	8146	6720	6720	6592	6592	6592	6592	6592	6592	6592	6468	6468	6468	6468	0	0	0	0	0	0	0	0	6592	6592	0	6468	6468	6468	6468	6468	6468	6592	6592	6592	6592	6592	6592	6592	6592	6592	6592	6592	6592	6592	6592	6592	6592	6592	6720	6592	6592	6592	6592	6592	6592	6592	6592	6592	6468	6468	6592	6468	6468	6468	6468	6592	6592	6592	6592	6592	4296	4243	4243	4296	4243	4243	4243	4243	4243	4243	4243	4243	4243	4243	4192	4192	4243	4243	4192	4296	4296	4296	4296	4296	4296	4243	4243	4243	4243	4243	4243	4243	4296	4296	4296	4296	4296	4296	4296	4296	4296	4296	4296	4296	4350	4296	4296	4296	4296	4296	4296	4296	4296	4296	4296	4296	4296	4296	4350	4350	4406	4406	0	0	0	0	0	0	6592	6592	6592	6720	6720	6592	6720	6720	6720	6720	6720	6853	6853	6992	6853	6720	6720	6720	6720	6592	6720	6720	6720	6720	6720	6720	6720	6720	6720	6592	6720	6592	6592	6720	6720	6592	6592	6592	6592	6720	6720	6720	6720	6720	6720	6720	6720	6720	6720	6720	6720	6720	6720	6720	6720	6592	6592	6592	6592	6592	6592	6592	6592	6592	6592	6468	6468	6468	6592	6592	6592	6592	6592	6592	6720	6720	6720	6592	6592	6592	6592	6592	6592	6592	6592	6592	6592	6720	6720	6592	6592	6592	6592	6720	6720	6592	6592	6592	6720	6853	6853	6853	6853	6592	6592	6592	6592	6592	6235	6235	6349	6235	6349	6349	6235	6349	6235	6235	6235	6235	6018	6018	6018	5915	5915	5815	5815	5815	5815	5815	5719	5719	5719	5815	5815	5815	5815	5915	6018	6018	6018	5915	5815	5815	5815	5719	5719	0	0	0	0	0	0	0	0	0	0	2281	2281	2281	2281	2281	0	5125	5125	5125	2223	2237	2223	2223	2223	2208	2208	4906	4838	4977	4977	4906	4906	4838	4838	4838	4838	4771	4771	4771	4706	4706	4643	4643	4643	4643	4643	4581	4581	4521	4521	4521	4463	4406	4350	4350	4350	4350	4350	4296	4296	4296	4296	4296	4243	4192	4192	4192	4142	4142	4142	4093	4093	4093	4045	3998	3998	3998	3998	3952	3952	3952	3952	3952	3907	3821	3821	0	0	0	0	0	0	0	0	0	0	0	0	0	0	0	0	0	0	0	0	0	0	0	0	0	0	0	0	0	0	0	0	0	0	0	0	0	0	0	0	0	0	0	0	0
0	0	0	0	0	0	0	0	0	1296	1296	1296	1301	1306	1306	1306	1311	1311	1311	1316	1316	1316	1316	1321	1326	1326	1336	1795	1795	1795	1795	1795	1795	1795	0	0	0	0	0	0	0	0	0	0	0	0	0	0	0	0	0	0	0	0	0	0	0	0	0	0	0	0	1419	1419	1413	1413	1413	1419	1419	1431	1425	1431	1425	1425	1431	1431	1425	1425	1431	1425	1431	1431	0	0	0	0	0	0	0	0	0	0	0	0	0	0	0	0	1553	1560	1567	1560	1567	1567	1567	1567	1596	1611	1611	1618	1626	1626	1626	1626	1626	1626	0	0	0	0	0	0	0	0	0	0	0	0	0	0	0	0	0	0	0	0	0	0	0	0	0	0	0	0	0	0	0	0	0	0	0	0	0	0	0	0	0	0	0	0	0	0	0	0	0	0	0	0	0	0	0	0	0	6592	6592	6592	6592	6592	6592	6592	8550	8767	8767	8767	8550	8550	8550	6592	6720	6720	6592	6592	6592	6720	6592	6592	6592	6592	6592	6592	6592	6592	6592	6592	6592	6592	6592	6720	6468	7444	6592	6592	6592	6592	6592	6720	6592	6592	6853	7608	7608	7608	6992	6592	6720	6720	6720	6592	6592	6592	6592	6592	6592	6468	6468	6468	6468	6468	6468	6592	6592	6592	6592	6592	6592	6592	6468	6468	6592	6468	6468	6468	6468	6468	6468	6468	6592	6592	6592	6592	6720	6720	6592	6592	6592	6592	6592	6592	6592	6592	6592	6592	6720	6592	6592	6592	6592	6592	6592	6592	6592	6592	6592	6592	6592	6592	6468	6468	6592	6592	6592	6592	6468	4296	4296	4243	4243	4243	4243	4243	4243	4243	4192	4243	4243	4243	4243	4243	4192	4192	4243	4192	4192	4243	4243	4296	4296	4296	4296	4243	4243	4243	4243	4243	4243	4243	4243	4243	4296	4296	4296	4243	4296	4296	4296	4296	4296	4296	4296	4296	4296	4296	4296	4296	4296	4296	4296	4296	4296	4296	4350	4350	4350	4350	4350	4350	4350	0	0	0	0	0	6592	6592	6592	6720	6720	6720	6720	6720	6720	6720	6853	6853	6853	6853	6853	6720	6720	6720	6720	6720	6720	6720	6720	6720	6720	6720	6720	6720	6720	6592	6720	6592	6592	6592	6720	6592	6592	6592	6592	6720	6720	6720	6720	6720	6720	6720	6720	6720	6720	6720	6720	6720	6720	6720	6592	6592	6592	6592	6592	6592	6592	6592	6592	6592	6592	6468	6468	6468	6592	6592	6592	6592	6592	6720	6592	6720	6592	6592	6468	6468	6592	6592	8343	6720	6720	6720	8343	8343	8343	8550	8550	8550	8550	8343	6720	8343	8343	8146	8343	8343	8343	8343	8343	8146	8146	8146	8146	8146	6349	6349	6468	6349	6349	6349	6349	6349	6235	6349	6124	6235	6018	6018	6018	5915	5915	5915	5915	5815	5815	5815	5815	5719	5719	5719	5815	5815	5815	5915	6018	6018	6018	5915	5815	5815	5815	0	0	0	0	0	0	0	0	0	0	0	0	2266	2266	2281	2266	2281	2223	2223	2223	2223	2223	2223	2223	2223	2208	2208	2194	2194	4838	4977	4977	4906	4906	4838	4838	4838	4838	4838	4771	4771	4706	4706	4643	4643	4643	4643	4581	4581	4581	4581	4521	4521	4463	4463	4406	4350	4350	4350	4350	4350	4296	4296	4296	4296	4296	4243	4243	4192	4142	4142	4142	4093	4093	4093	4045	3998	3998	3998	3952	3952	3907	3952	3952	3952	3952	3952	3821	0	0	0	0	0	0	2101	2101	0	0	0	0	0	0	0	0	0	0	0	0	0	0	0	0	0	0	0	0	0	0	0	0	0	0	0	0	0	0	0	0	0	0	0	0	0
0	0	0	0	0	0	0	0	0	1296	1296	1296	1301	1306	1306	1306	1306	1311	1311	1311	1316	1311	1316	1321	1321	1326	0	1804	1814	1814	1814	1814	1814	1814	0	0	0	0	0	0	0	0	0	0	0	0	0	0	0	0	0	0	0	0	0	0	0	0	0	0	0	0	1413	1413	1413	1413	1413	1413	1419	1425	1425	1431	1425	1425	1431	1431	1425	1425	1431	1431	1431	1431	0	0	0	0	0	0	0	0	0	0	0	0	0	0	0	0	1560	1560	1567	1560	1567	1567	1567	1574	1589	1618	1618	1618	1626	1626	1626	1626	1626	1626	0	0	0	0	0	0	0	0	0	0	0	0	0	0	0	0	0	0	0	0	0	0	0	0	0	0	0	0	0	0	0	0	0	0	0	0	0	0	0	0	0	0	0	0	0	0	0	0	0	0	0	0	0	0	6592	6592	6592	6592	6592	6592	6592	6592	6592	6592	6592	6592	6592	6592	6592	6592	6592	6592	6720	6720	6592	6592	6592	6720	6592	6592	6468	6468	6468	6468	6592	6592	6592	6592	6592	6592	6592	6720	6468	6592	6720	6592	6592	6592	6592	6720	6720	6720	6853	6853	7137	6992	6992	6592	6720	6592	6592	6592	6592	6592	6592	6592	6592	6468	6468	6468	6468	6468	6468	6468	6592	6592	6592	6592	6592	6592	6468	6468	6592	6468	6468	6468	6468	6468	6468	6468	6592	6592	6592	6592	6592	6592	6592	6592	6592	6592	6592	6592	6592	6592	6592	6592	6592	6592	6592	6592	6592	6592	6592	6592	6592	6592	6592	6592	6592	6592	6468	6592	6592	6592	6592	6468	6468	4296	4296	4243	4243	4243	4243	4243	4243	4192	4192	4192	4192	4192	4243	4192	4192	4192	4243	4192	4192	4243	4243	4296	4296	4243	4243	4243	4243	4243	4192	4243	4243	4243	4243	4243	4243	4296	4296	4243	4296	4296	4296	4296	4243	4296	4296	4296	4296	4296	4296	4296	4296	4296	4296	4296	4296	4350	4350	4350	4350	4350	4350	4350	4350	4350	0	0	0	0	0	0	0	0	6720	6720	6720	6720	0	6720	6853	6853	6853	6853	6853	6720	6720	6720	6720	6720	6592	6720	6720	6720	6720	6720	6720	6720	6720	6720	6592	6592	6592	6720	6720	6592	6592	6592	6592	6592	6720	6720	6720	6720	6720	6720	6720	6720	6720	6720	6720	6720	6720	6720	6592	6592	6592	6592	6592	6592	6592	6592	6592	6592	6592	6468	6468	6468	6592	6592	6592	6592	6592	6720	6720	6720	6720	6720	6720	8550	8550	8550	8343	8343	8343	8146	8343	8343	8343	8550	8550	8550	8550	8343	8343	8343	8343	8146	8343	8343	8343	8343	8550	8343	8146	8146	8146	8146	6349	6468	6468	6349	6468	6468	6468	6468	6349	6349	6235	6235	6124	6124	6124	6018	5915	5915	5915	5815	5815	5815	5719	5719	5719	5719	5815	5815	5915	5915	6018	6018	6018	5915	5915	5915	0	0	0	0	0	0	0	0	0	0	0	0	0	2266	2266	2266	2266	2266	2223	2223	2223	2223	2252	2252	2223	2223	2223	2223	2208	2208	0	0	4977	4906	4906	4838	4771	4838	4838	4771	4771	4706	4706	4706	4706	4643	4643	4643	4581	4581	4581	4581	4521	4521	4463	4463	4406	4350	4350	4350	4350	4350	4296	4296	4296	4296	4296	4243	4192	4192	4192	4142	4142	4093	4093	4093	4045	3998	3998	3998	3952	3907	3907	3952	3952	3952	3952	3952	0	0	0	2167	2153	2140	2114	2114	2114	0	0	0	0	0	0	0	0	0	0	0	0	0	0	0	0	0	0	0	0	0	0	0	0	0	0	0	0	0	0	0	0	0	0	0	0	0
0	0	0	0	0	0	0	0	0	1296	1296	1296	1301	1306	1306	1306	1306	1306	1311	1316	1316	1311	1311	1316	1316	1316	0	1814	1814	1824	1824	1824	1824	1824	1824	0	0	0	0	0	0	0	0	0	0	0	0	0	0	0	0	0	0	0	0	0	0	0	0	0	0	0	1413	1413	1413	1419	1419	1419	1413	1419	1425	1425	1419	1419	1425	1425	1419	1419	1419	1425	1425	1437	1437	0	0	0	0	0	0	0	0	0	0	0	0	0	0	1560	1560	1560	1567	1560	1567	1567	1567	1574	1589	1611	1618	1618	1626	1626	1626	1618	1626	1626	0	0	0	0	0	0	0	0	0	0	0	0	0	0	0	0	0	0	0	0	0	0	0	0	0	0	0	0	0	0	0	0	0	0	0	0	0	0	0	0	0	0	0	0	0	0	0	0	0	0	0	0	0	6853	6592	6720	6592	6592	6592	6592	6592	6592	6592	6592	6592	6592	6592	6592	6592	6592	6592	6592	6592	6592	6592	6592	6592	6592	6592	6592	6468	6468	6468	6592	6592	6592	6592	6592	6592	6592	6468	6468	6468	6468	6468	6592	6592	6592	6592	6592	6592	6592	6720	6720	6853	6992	6853	6853	6720	6592	6592	6592	6592	6592	6468	6592	6592	6468	6468	6592	6592	6592	6468	6468	6468	6592	6592	6592	6592	6592	6592	6468	6468	6468	6468	6468	6468	6468	6468	6468	6592	6592	6592	6592	6720	6592	6592	6592	6592	6592	6592	6592	6592	6592	6592	6592	6592	6592	6592	6592	6592	6592	6592	6592	6592	6592	6592	6592	6592	6592	6592	6592	6592	6592	6592	6468	4296	4296	4243	4243	4243	4243	4243	4243	4243	4192	4192	4192	4192	4192	4192	4192	4192	4192	4192	4192	4192	4243	4243	4243	4243	4243	4243	4243	4243	4243	4243	4243	4243	4243	4243	4243	4243	4243	4243	4243	4243	4243	4243	4243	4243	4243	4296	4296	4296	4296	4296	4296	4296	4296	4296	4296	4296	4296	4350	4350	4350	4350	4350	4350	4350	4350	4350	0	0	0	0	0	0	0	0	0	0	0	0	0	6853	6853	6853	6720	6720	6720	6853	6720	6720	6720	6720	6720	6720	6720	6592	6720	6720	6592	6592	6720	6720	6592	6720	6720	6720	6720	6592	6592	6592	6720	6720	6720	6720	6720	6720	6720	6720	6720	6720	6720	0	0	0	0	0	0	6592	6592	6592	6592	0	0	0	0	0	0	0	0	0	6592	6592	6720	6720	6720	6720	6720	8550	8550	6720	8550	8550	8550	8550	8343	8343	8343	8343	8343	8343	8550	8550	8550	8550	8550	8343	8550	8343	8343	8343	8343	8343	8343	8550	8343	8343	8146	8146	8146	0	6468	6468	6468	6468	6468	6468	6468	6468	6235	6235	6235	6235	6124	6124	6018	6018	5915	5915	5815	5815	5815	5719	5719	5719	5719	5719	5719	5915	5915	6018	6018	6018	6018	5915	5915	0	0	0	0	0	0	0	0	0	0	0	0	0	2266	2266	2281	2266	2266	2266	2266	2266	2266	2252	2252	2223	2223	2223	2223	2208	2194	2194	0	4977	4906	4838	4838	4771	4771	4771	4771	4706	4706	4706	4706	4706	4643	4643	4581	4581	4581	4521	4521	4521	4463	4463	4463	4406	4350	4350	4350	4350	4350	4296	4296	4296	4296	4296	4192	4192	4192	4142	4142	4142	4093	4093	4045	4045	3998	3998	3998	3998	3907	3907	3952	3952	0	0	0	2167	2167	2167	2153	2153	2140	2114	2101	2101	0	0	0	0	0	0	0	0	0	0	0	0	0	0	0	0	0	0	0	0	0	0	0	0	0	0	0	0	0	0	0	0	0	0	0	0	0
0	0	0	0	0	0	0	0	0	1296	1296	1296	1301	1301	1306	1306	1306	1306	1311	1316	1316	1316	1316	1316	1316	1316	1824	1824	1824	1824	1824	1824	1824	1824	1824	0	0	0	0	0	0	0	0	0	0	0	0	0	0	0	0	0	0	0	0	0	0	0	0	0	0	1390	1390	1407	1402	1413	1413	1419	1413	1419	1419	1419	1419	1419	1425	1425	1419	1431	1431	1431	1437	1449	1449	1449	1449	0	0	0	0	0	0	0	1486	1486	0	0	0	1560	1560	1560	1567	1560	1567	1567	1567	1574	1589	1611	1611	1618	1626	1626	1618	1618	1618	1611	1611	0	0	0	0	0	0	0	0	0	0	0	0	0	0	0	0	0	0	0	0	0	0	0	0	0	0	0	0	0	0	0	0	0	0	0	0	0	0	0	0	0	0	0	0	0	0	0	0	0	0	0	6720	6720	6720	6720	6720	6592	6592	6592	6592	6592	6592	6592	6592	6592	6592	6592	6592	6592	6592	6592	6592	6592	6592	6592	6592	6592	6592	6592	6468	6468	6592	6592	6592	6592	6592	6592	6592	6592	6592	6468	6468	6468	6592	6592	6592	6592	6592	6592	6592	6592	6592	6592	6720	6853	6720	6592	6592	6592	6592	6592	6468	6592	6468	6592	6468	6468	6468	6468	6592	6592	6468	6468	6468	6468	6592	6592	6592	6592	6592	6592	6468	6468	6468	6468	6468	6468	6468	6468	6592	6592	6592	6592	6592	6720	6592	6592	6592	6592	6592	6592	6592	6592	6592	6592	6592	6592	6592	6592	6592	6592	6592	6592	6592	6592	6592	6592	6592	6592	6592	6592	6592	6592	6592	4296	4243	4243	4243	4243	4192	4192	4243	4243	4243	4192	4192	4192	4192	4142	4192	4192	4192	4192	4192	4192	4192	4192	4243	4243	4243	4243	4243	4243	4243	4243	4243	4243	4243	4243	4243	4243	4243	4243	4243	4243	4296	4243	4243	4192	4243	4243	4243	4296	4296	4243	4296	4296	4296	4296	4296	4296	4296	4296	4350	4350	4350	4350	4350	4350	4350	4350	4350	0	0	0	0	0	0	0	0	0	0	0	0	0	0	0	0	6720	6720	6720	6720	6720	6720	6720	6720	6720	6720	6720	6592	6720	6592	6592	6592	6720	6720	6592	6592	6592	6592	6592	6592	6592	6592	6592	6720	6720	6720	0	0	6720	6720	0	0	0	0	0	0	0	0	0	0	0	0	0	0	0	0	0	0	0	0	0	0	0	0	6720	6720	6720	0	0	8550	8550	8550	8550	8550	8550	8343	8343	8343	8343	8343	8343	8550	8550	8550	8550	8550	8550	8550	8550	8343	8343	8550	8343	8343	8550	8550	8550	8343	8343	8343	8343	6468	6468	6468	6468	6468	6468	6468	6468	6468	6468	6349	6349	6235	6235	6124	6018	6018	5915	5915	5815	5815	5815	5815	5719	5719	5719	5815	5719	5815	5815	6018	6018	6018	6018	5915	5915	0	0	0	0	0	0	0	0	0	0	0	0	0	2266	2223	2223	2223	2223	2266	2266	2266	2266	2252	2252	2237	2223	2252	2223	2208	2194	2194	2167	2167	4906	4838	4838	4771	4771	4771	4706	4706	4643	4706	4706	4643	4643	4643	4581	4581	4581	4521	4521	4521	4463	4463	4406	4406	4406	4406	4350	4350	4350	4296	4296	4296	4296	4296	4192	4192	4192	4192	4142	4142	4045	4045	4045	4045	3952	4045	3998	3998	3952	3952	0	0	0	2167	2167	2167	2167	2167	2153	2153	2140	2114	2114	2114	0	0	0	0	0	0	0	0	0	0	0	0	0	0	0	0	0	0	0	0	0	0	0	0	0	0	0	0	0	0	0	0	0	0	0	0	0
0	0	0	0	0	0	0	0	0	1296	1296	1296	1301	1301	1306	1306	1311	1311	1311	1316	1316	1316	1316	1316	1321	1321	1824	1824	1824	1824	1824	1824	1824	1833	1833	0	0	0	0	0	0	0	0	0	0	0	0	0	0	0	0	0	0	0	0	0	0	0	0	1385	1385	1385	1390	1390	1396	1413	1419	1419	1419	1419	1425	1425	1425	1419	1425	1425	1419	1425	1425	1425	1437	1449	1455	1455	1455	0	0	0	0	0	0	1486	1486	1486	0	0	0	1560	1560	1560	1560	1560	1560	1567	1567	1581	1596	1611	1611	1618	1618	1626	1626	1626	1626	1618	1618	0	0	0	0	0	0	0	0	0	0	0	0	0	0	0	0	0	0	0	0	0	0	0	0	0	0	0	0	0	0	0	0	0	0	0	0	0	0	0	0	0	0	0	0	0	0	0	0	0	0	6720	6720	6720	6720	6720	6592	6592	6592	6592	6592	6592	6592	6592	6592	6592	6592	6592	6592	6592	6592	6592	6592	6592	6592	6592	6592	6592	6592	6592	6592	6468	6592	6468	6592	6592	6592	6592	6592	6592	6592	6468	6468	6468	6468	6468	6468	6468	6592	6592	6592	6592	6592	6592	6720	6720	6720	6592	6592	6592	6592	6592	6592	6592	6468	6592	6592	6592	6468	6468	6468	6592	6468	6468	6468	6592	6592	6592	6592	6592	6592	6468	6592	6592	6468	6468	6468	6468	6468	6468	6592	6592	6592	6592	6592	6720	6592	6592	6592	6592	6592	6592	6592	6592	6592	6592	6592	6592	6592	6592	6592	6592	6592	6592	6592	6592	6592	6592	6592	6592	6468	6592	6592	6592	6468	4296	4296	4243	4243	4243	4243	4192	4243	4243	4243	4192	4192	4192	4142	4142	4192	4192	4192	4192	4192	4142	4142	4192	4192	4243	4192	4192	4192	4192	4192	4243	4243	4243	4243	4243	4243	4243	4243	4243	4243	4243	4243	4243	4192	4192	4192	4243	4243	4243	4296	4296	4296	4296	4296	4296	4296	4296	4296	4296	4296	4296	4350	4350	4350	4350	4350	4350	4350	4350	0	0	0	0	0	0	0	0	0	0	0	0	0	0	0	6720	6720	6720	6720	6720	6720	6720	6720	6720	6720	6720	6592	6720	6592	6592	6592	6720	6720	6720	6592	6592	6720	6720	6720	6720	6592	6720	6592	6592	6720	0	0	0	0	0	0	0	0	0	0	0	0	0	0	0	0	0	0	0	0	0	0	0	0	0	0	0	0	0	0	0	0	0	8767	8767	8767	8550	8550	8343	8343	8343	8343	8343	8550	8550	8550	8550	8550	8550	8550	8550	8550	8550	8343	8343	8550	8550	8550	8550	8550	8550	8550	8550	8550	8343	6468	6468	6468	6468	6468	6468	6468	6349	6468	6468	6349	6468	6349	6349	6235	6235	6124	5915	5915	5815	5815	5815	5719	5719	5719	5719	5719	5719	5815	5815	0	0	0	0	0	0	0	0	0	0	0	0	0	0	0	0	0	0	0	0	2223	2223	2223	2223	0	0	0	0	2252	2252	2237	2237	2237	2237	2223	2223	2181	2167	2167	2167	2181	2181	4771	4771	4771	4771	4771	4706	4706	4706	4706	4643	4643	4581	4521	4521	4521	4521	4463	4406	4406	4406	4463	4406	4406	4350	4350	4350	4296	4296	4296	4296	4296	4243	4192	4192	4192	0	0	4045	4045	4045	4045	3998	4045	3998	3952	2167	2167	2167	2167	2167	2167	2181	2167	2167	2167	2167	2153	2140	2127	2114	2114	0	0	0	0	0	0	0	0	0	0	0	0	0	0	0	0	0	0	0	0	0	0	0	0	0	0	0	0	0	0	0	0	0	0	0	0	0
0	0	0	0	0	0	0	0	0	1296	1296	1301	1301	1301	1306	1306	1311	1311	1311	1316	1316	1316	1316	1321	1321	1321	0	1824	1824	1824	1824	1824	1833	1833	1833	0	0	0	0	0	0	0	0	0	0	0	0	0	0	0	0	0	0	0	0	0	0	0	1390	1390	1390	1385	1390	1390	1396	1425	1425	1425	1425	1425	1425	1425	1425	1419	1425	1425	1419	1419	1425	1425	1431	1449	1455	1455	1455	0	0	0	0	0	0	1486	1486	1492	1492	1492	1553	1553	1553	1560	1560	1560	1560	1560	1567	1567	1589	1589	1603	1611	1618	1626	1626	1626	1618	1611	1626	1626	0	0	0	0	0	0	0	0	0	0	0	0	0	0	0	0	0	0	0	0	0	0	0	0	0	0	0	0	0	0	0	0	0	0	0	0	0	0	0	0	0	0	0	0	0	0	0	0	6592	6592	6592	6592	6592	6592	6592	6592	6592	6592	6592	6592	6592	6592	6592	6592	6592	6592	6592	6592	6592	6592	6592	6592	6592	6592	6592	6592	6592	6592	6468	6468	6592	6468	6592	6592	6592	6592	6592	6592	6592	6468	6468	6468	6468	6592	6592	6592	6592	6592	6592	6592	6592	6592	6592	6592	6592	6592	6592	6592	6592	6592	6592	6592	6468	6468	6592	6592	6468	6592	6592	6592	6592	6592	6592	6468	6592	6592	6592	6592	6592	6468	6468	6592	6592	6468	6468	6468	6468	6592	6592	6592	6592	6592	6592	6720	6592	6592	6592	6592	6592	6592	6592	6592	6592	6592	6592	6592	6592	6592	6592	6592	6592	6592	6592	6592	6592	6592	6592	6592	6592	6592	6592	6592	4296	4243	4243	4243	4243	4243	4243	4243	4243	4192	4243	4192	4192	4142	4142	4142	4142	4192	4192	4192	4192	4142	4142	4192	4192	4192	4192	4192	4192	4192	4192	4243	4243	4243	4243	4243	4243	4243	4243	4192	4243	4243	4243	4243	4243	4192	4192	4243	4243	4243	4296	4296	4296	4296	4296	4296	4296	4296	4296	4296	4296	4296	4350	4350	4350	4350	4350	4350	4350	4350	0	0	0	0	0	0	0	0	0	0	0	0	0	0	0	6720	6720	6720	6720	6720	6720	6720	6720	6720	6720	6720	6592	6592	6592	6592	6720	6720	6720	6720	6592	6592	6720	6720	6720	6720	6592	6592	6592	6592	0	0	0	0	0	0	0	0	0	0	0	0	0	0	0	0	0	0	0	0	0	0	0	0	0	0	0	0	0	0	0	0	0	0	8767	8550	8550	8343	8343	8343	8343	8343	8343	8343	8343	8550	8550	8550	8550	8550	8550	8550	8550	8550	8343	8343	8550	8550	8550	8550	8550	8550	8343	8343	8550	0	6592	6592	6592	6468	6468	6468	6468	6468	6468	6468	6468	6592	6592	6592	6468	6235	6124	5915	5915	5815	5815	5719	5719	5719	5719	5719	5719	0	0	0	0	0	0	0	0	0	0	0	0	0	0	0	0	0	0	0	0	0	0	0	0	2223	2223	0	0	0	0	0	2237	2237	2237	2237	2237	2237	2223	2223	2223	2181	2181	2181	2181	2181	0	0	0	4771	4706	4706	4706	4706	4706	4643	4643	4581	4581	4521	4521	4521	4463	4463	4406	4406	4463	4463	4406	4350	4350	4350	4296	4296	4296	4296	4296	4192	4142	4142	4192	0	0	4045	4045	4045	4045	3952	3952	3952	2167	2181	2167	2167	2167	2167	2167	2167	2167	2167	2167	2167	2153	2140	2127	2114	2114	0	0	0	0	0	0	0	0	0	0	0	0	0	0	0	0	0	0	0	0	0	0	0	0	0	0	0	0	0	0	0	0	0	0	0	0	0
0	0	0	0	0	0	0	0	0	1291	1296	1296	1301	1301	1306	1306	1311	1311	1311	1316	1321	1321	1321	1331	1331	1321	0	0	1824	1824	1824	1833	1833	1833	0	0	0	0	0	0	0	0	0	0	0	0	0	0	0	0	0	0	0	0	0	0	0	0	1390	1390	1390	1390	1390	1390	1396	1425	1425	1425	1425	1425	1425	1425	1425	1425	1425	1425	1425	1419	1419	1425	1437	1443	1443	1455	1455	0	0	0	0	0	1499	1499	1499	1506	1506	1512	1532	1553	1553	1553	1560	1553	1553	1553	1560	1560	1560	1618	1618	1618	1626	1626	1626	1626	1626	1626	1657	1681	1690	1698	1706	1706	1706	0	0	0	0	0	0	0	0	0	0	0	0	0	0	0	0	0	0	0	0	0	0	0	0	0	0	0	0	0	0	0	0	0	0	0	0	0	0	0	0	0	0	0	6592	6592	6592	6592	6592	6592	6592	6592	6592	6592	6592	6592	6592	6592	6592	6592	6592	6592	6592	6592	6592	6592	6592	6592	6592	6592	6592	6592	6468	6468	6468	6468	6592	6468	6592	6592	6592	6592	6592	6592	6592	6468	6468	6468	6468	6468	6592	6592	6592	6592	6592	6592	6592	6592	6592	6592	6592	6592	6592	6468	6468	6592	6592	6592	6592	6592	6468	6468	6468	6468	6468	6592	6592	6592	6468	6468	6592	6592	6592	6592	6592	6468	6468	6468	6468	6468	6468	6468	6468	6592	6592	6592	6592	6592	6592	6592	6592	6592	6592	6592	6592	6592	6592	6592	6592	6592	6592	6592	6592	6592	6592	6592	6592	6592	6592	6592	6592	6592	6592	6592	6468	6592	6468	6468	4350	4243	4296	4243	4243	4243	4243	4243	4243	4243	4243	4192	4192	4192	4142	4142	4142	4142	4192	4142	4142	4142	4142	4192	4192	4192	4192	4192	4192	4192	4192	4192	4243	4243	4243	4243	4192	4243	4192	4192	4192	4243	4243	4243	4192	4192	4192	4192	4243	4243	4243	4243	4243	4296	4296	4296	4296	4296	4296	4296	4296	4296	4296	4350	4350	4350	4350	4350	4350	4350	0	0	0	0	0	0	0	0	0	0	0	0	0	0	0	6720	6720	6720	6720	6720	6720	6720	6720	6720	6720	6720	6720	6720	6720	6720	6720	6720	6720	6720	6720	6720	6720	6720	6720	6592	6592	6592	6592	0	0	0	0	0	0	0	0	0	0	0	0	0	0	0	9757	9757	9757	0	0	0	0	0	0	0	0	0	0	0	0	0	0	0	0	9235	8995	8767	8550	8343	8343	8343	8343	8343	8343	8343	8343	8550	8550	8550	8550	8550	8550	8550	8550	8550	8343	8343	8550	8550	8550	8550	8550	8550	8550	8343	8343	6592	6592	6468	6468	6468	6468	6349	6349	6349	6349	6592	6592	6592	6592	6592	6468	6235	6235	6124	6018	5815	5915	5719	5815	5719	5815	5815	5719	0	0	0	0	0	0	0	0	0	0	0	0	0	0	0	0	0	0	0	0	0	0	0	0	0	0	0	0	0	0	0	2237	2237	2223	2223	2237	2237	2223	2223	2223	2194	2194	2194	2194	2181	2181	0	0	0	4706	4706	4706	4706	4643	4643	4643	4581	4581	4581	4521	4521	4521	4521	4463	4463	4463	4463	4406	4406	4350	4350	4296	4296	4296	4243	4243	4192	4142	4142	0	0	0	0	0	4045	4045	3952	3952	3952	2167	2181	2181	2167	2181	2167	2167	2167	2167	2167	2167	2167	2153	2140	2127	2114	2114	0	0	0	0	0	0	0	0	0	0	0	0	0	0	0	0	0	0	0	0	0	0	0	0	0	0	0	0	0	0	0	0	0	0	0	0	0
0	0	0	0	0	0	0	0	0	1291	1291	1296	1301	1301	1306	1306	1311	1311	1311	1316	1316	1321	1316	1336	1336	0	0	0	0	0	0	1833	1833	1833	0	0	0	0	0	0	0	0	0	0	0	0	0	0	0	0	0	0	0	0	0	0	0	1390	1390	1390	1390	1390	1390	1390	1396	1425	1425	1425	1425	1425	1431	1431	1425	1425	1425	1431	1425	1425	1425	1431	1431	1443	1443	0	0	0	0	0	1486	1492	1499	1499	1506	1506	1512	1512	1532	1532	1546	1546	1553	1553	1553	1553	1553	1553	1553	1618	1618	1618	1626	1626	1626	1618	1618	1618	1626	1681	1690	1698	1706	1706	1698	1706	1706	0	0	0	0	0	0	0	0	0	0	0	0	0	0	0	0	0	0	0	0	0	0	0	0	0	0	0	0	0	0	0	0	0	0	0	0	0	0	0	0	0	6592	6592	6592	6592	6592	6592	6592	6592	6592	6592	6592	6592	6592	6592	6592	6592	6592	6592	6592	6592	6592	6592	6592	6592	6592	6592	6592	6592	6468	6468	6468	6468	6468	6468	6592	6592	6592	6592	6592	6592	6592	6592	6468	6468	6468	6592	6592	6592	6592	6592	6592	6592	6592	6592	6592	6592	6592	6592	6468	6468	6468	6592	6592	6592	6592	6592	6592	6592	6468	6592	6468	6592	6468	6592	6468	6468	6592	6592	6468	6468	6592	6468	6592	6468	6468	6468	6468	6468	6468	6592	6468	6468	6468	6592	6592	6592	6592	6592	6592	6592	6592	6592	6592	6592	6592	6592	6592	6592	6592	6592	6592	6592	6592	6592	6592	6592	6592	6592	6592	6592	6592	6592	6468	4296	4296	4296	4296	4192	4243	4243	4243	4243	4243	4243	4243	4243	4243	4192	4142	4142	4142	4142	4142	4142	4142	4142	4142	4142	4142	4142	4142	4142	4142	4192	4192	4192	4243	4243	4243	4243	4243	4243	4243	4192	4192	4192	4243	4192	4192	4192	4192	4192	4192	4192	4243	4243	4243	4296	4296	4296	4296	4296	4296	4296	4296	4350	4350	4350	4350	4350	4350	4350	4350	4350	0	0	0	0	0	0	0	0	0	0	0	0	0	0	0	6853	6720	6720	6720	6720	6720	6720	6720	6720	6720	6720	6720	6720	6720	6720	6720	6720	6720	6720	6720	6592	6720	6720	6592	6592	6592	6592	6592	0	0	0	0	0	0	0	0	0	0	0	0	0	0	0	9757	9757	9757	0	0	0	0	0	0	0	0	0	0	0	0	0	0	0	0	9235	8995	8550	8550	8343	8343	8343	8343	8343	8343	8343	8550	8550	8550	8550	8550	8550	8550	8550	8550	8550	8550	8343	8550	8343	8343	8343	8343	8343	8343	8343	8343	6592	6592	6468	6468	6468	6349	6349	6468	6468	6592	6592	6592	6592	6592	6592	6592	6235	6235	6124	6018	5815	5915	5815	5719	5626	5626	5815	0	0	0	0	0	0	0	0	0	0	0	0	0	0	0	0	0	0	0	0	0	0	0	0	0	0	0	0	0	0	0	0	2237	2237	2237	2223	2223	2223	2223	2223	2223	2208	2208	2194	2181	2181	2194	2194	0	0	4706	4706	4706	4643	4643	4643	4643	4581	4581	4581	4521	4521	4521	4521	4463	4463	4463	4463	4406	4406	4350	4350	4350	4296	4296	4243	4243	4243	4243	4142	0	0	0	0	0	0	0	0	0	0	0	2194	2181	2167	2181	2167	2167	2167	2167	2167	2167	2167	2153	2153	2127	2114	2114	0	0	0	0	0	0	0	0	0	0	0	0	0	0	0	0	0	0	0	0	0	0	0	0	0	0	0	0	0	0	0	0	0	0	0	0	0
0	0	0	0	0	0	0	0	0	1287	1291	1296	1296	1301	1306	1306	1311	1306	1306	1321	1321	1326	1331	1331	1342	1342	0	0	0	0	0	0	0	0	0	0	0	0	0	0	0	0	0	0	0	0	0	0	0	0	0	0	0	0	0	0	0	1396	1396	1390	1390	1390	1396	1396	1396	1425	1425	1431	1425	1425	1425	1425	1425	1419	1425	1425	1425	1419	1413	1413	1431	0	0	0	0	0	0	0	1486	1499	1499	1506	1506	1506	1506	1506	1519	1519	1532	1539	1546	1546	1546	1553	1553	1553	1553	1611	1611	1618	1618	1626	1626	1618	1618	1626	1657	1681	1681	1681	1706	1706	1698	1690	1690	0	0	0	0	0	0	0	0	0	0	0	0	0	0	0	0	0	0	0	0	0	0	0	0	0	0	0	0	0	0	0	0	0	0	0	0	0	0	0	0	0	6592	6592	6592	6592	6592	6592	6592	6592	6592	6592	6592	6592	6592	6592	6592	6592	6592	6592	6592	6592	6592	6592	6592	6592	6592	6592	6592	6468	6468	6468	6468	6468	6592	6468	6592	6592	6592	6592	6592	6592	6592	6592	6468	6592	6592	6592	6592	6592	6592	6592	6592	6592	6592	6592	6592	6592	6592	6592	6468	6468	6468	6468	6592	6592	6592	6592	6592	6592	6592	6592	6592	6592	6592	6592	6468	6468	6468	6468	6468	6468	6592	6592	6592	6468	6592	6592	6468	6468	6468	6468	6468	6468	6468	6592	6592	6592	6592	6592	6592	6592	6592	6592	6592	6592	6592	6592	6592	6592	6592	6592	6592	6592	6592	6592	6592	6592	6592	6592	6592	6592	6592	6592	4243	4243	4296	4296	4243	4243	4243	4243	4243	4243	4243	4243	4243	4243	4243	4192	4192	4192	4192	4142	4142	4142	4142	4142	4093	4142	4142	4142	4142	4142	4142	4192	4192	4192	4243	4243	4243	4243	4243	4243	4243	4142	4142	4192	4192	4192	4192	4192	4192	4192	4192	4192	4243	4243	4243	4296	4296	4296	4296	4296	4296	4296	4296	4350	4350	4350	4350	4350	4350	4296	4350	4350	0	0	0	0	0	0	0	0	0	0	0	0	0	0	0	6720	6720	6720	6720	6720	6720	6720	6720	6720	6720	6720	6720	6720	6720	6720	6720	6720	6720	6720	6720	6720	6720	6720	6592	6592	6592	6592	6592	0	0	0	0	0	0	0	0	0	0	0	0	0	0	0	9757	9757	9757	0	0	0	0	0	0	0	0	0	0	0	0	0	0	0	0	0	0	8550	8767	8550	8343	8343	8343	8343	8343	8343	8550	8550	8550	8550	8550	8550	8550	8343	8343	8550	8550	8343	8343	8343	8343	8343	8343	8343	8343	8343	0	6468	6468	6349	6349	6349	6235	6235	6468	6349	6592	6592	6592	6720	6720	6720	6592	6235	6235	6235	6018	5815	5915	5815	5626	5626	5626	0	0	0	0	0	0	0	0	0	0	0	0	0	0	0	0	0	0	0	0	0	0	0	0	0	0	0	0	0	2237	2237	2237	2237	2237	2237	2237	2223	2223	2223	2223	2223	2223	2208	2208	2194	2181	2181	2194	2181	2181	0	0	4771	4706	4706	4706	4643	4643	4581	4581	4521	4521	4463	4463	4521	4463	4406	4463	4463	4406	4406	4350	4350	4296	4296	4296	4243	4243	4243	4243	0	0	0	0	0	0	0	0	2208	2194	2208	2194	2208	2194	2181	2194	2194	2194	2181	2181	2181	2167	2167	2153	2153	2140	2140	2140	0	0	0	0	0	0	0	0	0	0	0	0	0	0	0	0	0	0	0	0	0	0	0	0	0	0	0	0	0	0	0	0	0	0	0	0	0
0	0	0	0	0	0	0	0	0	1287	1291	1291	1296	1301	1301	1301	1301	1306	1306	1321	1321	1326	1326	1342	1342	1342	0	0	0	0	0	0	0	0	0	0	0	0	0	0	0	0	0	0	0	0	0	0	0	0	0	0	0	0	0	0	0	1396	1396	1390	1396	1396	1396	1407	1407	1431	1431	1431	1425	1431	1431	1425	1425	1425	1425	1425	1425	1419	1419	1413	0	0	0	0	0	0	0	0	0	1499	1506	1506	1506	1512	1512	1512	1512	1512	1525	1532	1539	1546	1546	1553	1560	1560	1560	1596	1611	1611	1618	1626	1626	1626	1626	1626	1657	1673	1681	1698	1706	1698	1698	1690	1690	0	0	0	0	0	0	0	0	0	0	0	0	0	0	0	0	0	0	0	0	0	0	0	0	0	0	0	0	0	0	0	0	0	0	0	0	0	0	0	0	6592	6592	6592	6592	6592	6592	6592	6592	6592	6592	6592	6592	6592	6592	6592	6592	6592	6592	6592	6592	6592	6592	6592	6592	6592	6592	6592	6592	6468	6468	6468	6468	6468	6468	6468	6592	6592	6592	6592	6592	6592	6592	6592	6468	6468	6468	6592	6468	6592	6592	6592	6592	6592	6592	6592	6592	6468	6468	6592	6592	6468	6468	6468	6592	6592	6592	6592	6592	6468	6468	6468	6468	6468	6592	6592	6592	6592	6592	6592	6592	6592	6592	6468	6592	6592	6592	6468	6468	6468	6468	6468	6468	6468	6468	6592	6592	6592	6592	6592	6592	6592	6592	6592	6592	6592	6592	6592	6592	6592	6592	6592	6592	6592	6592	6592	6468	6592	6592	6592	6592	6592	6592	6592	4243	4243	4296	4296	4192	4243	4243	4243	4243	4243	4243	4243	4243	4243	4243	4192	4192	4192	4192	4142	4142	4142	4142	4142	4093	4142	4142	4142	4142	4142	4142	4192	4192	4192	4243	4243	4243	4243	4192	4192	4192	4142	4142	4192	4192	4192	4192	4192	4192	4192	4192	4192	4192	4192	4192	4243	4243	4243	4296	4296	4296	4296	4296	4296	4350	4350	4350	4350	4296	4296	4296	4350	4350	0	0	0	0	0	0	0	0	0	0	0	0	0	0	6720	6720	6720	6720	6720	6720	6720	6720	6720	6720	6720	6720	6720	6720	6720	6720	6720	6720	6720	6720	6720	6720	6720	6592	6592	6592	6592	6468	6235	6235	0	0	0	0	0	0	0	0	0	0	0	0	0	0	0	0	0	0	0	0	0	0	0	0	0	0	0	0	0	0	0	0	0	0	8550	8550	8550	8343	8343	8343	8550	8343	8550	8550	8550	8550	8550	8550	8550	8550	8550	8550	8550	8550	8343	8343	8343	8343	8343	8146	8146	8146	8146	0	6592	6468	6349	6349	6235	6235	6235	6349	6349	6468	6592	6592	6592	6720	6720	6592	6592	6592	6235	0	0	5915	5815	5626	5626	0	0	0	0	0	0	0	0	0	0	0	0	0	0	0	0	0	0	0	0	0	0	0	0	0	0	0	0	0	0	2237	2237	2223	2223	2223	2223	2223	2223	2223	2223	2223	2223	2223	2208	2208	2208	2208	2194	2194	2181	2181	2181	0	4771	4771	4706	4706	4643	4643	4581	4581	4521	4521	4521	4463	4521	4521	4463	4463	4463	4406	4406	4350	4350	4296	4350	4296	4243	4243	4243	4243	0	0	0	2281	2297	2266	2252	2237	2223	2208	2208	2208	2208	2181	2181	2194	2194	2194	2181	2181	2181	2167	2167	2153	2140	2127	2127	2127	0	0	0	0	0	0	0	0	0	0	0	0	0	0	0	0	0	0	0	0	0	0	0	0	0	0	0	0	0	0	0	0	0	0	0	0	0
0	0	0	0	0	0	0	0	0	1287	1291	1296	1296	1301	1301	1301	1306	1306	1306	1311	1321	1326	1326	1336	1336	1342	0	0	0	0	0	0	0	0	0	0	0	0	0	0	0	0	0	0	0	0	0	0	0	0	0	0	0	0	0	0	0	0	1396	1390	1402	1407	1413	1419	1419	1437	1437	1437	1425	1431	1425	1425	1425	1431	1425	1425	1431	1431	1419	0	0	0	0	0	0	0	0	0	0	1499	1506	1506	1512	1512	1512	1512	1519	1512	1525	1539	1539	1546	1546	1553	1560	1553	1553	1589	1611	1611	1618	1626	1626	1626	1626	1634	1657	1673	1681	1690	1690	1698	1698	1698	1690	0	0	0	0	0	0	0	0	0	0	0	0	0	0	0	0	0	0	0	0	0	0	0	0	0	0	0	0	0	0	0	0	0	0	0	0	0	0	0	0	6468	6592	6468	6592	6592	6592	6592	6592	6592	6592	6592	6592	6592	6592	6592	6592	6592	6592	6592	6592	6592	6592	6592	6592	6592	6592	6592	6592	6592	6468	6468	6592	6592	6592	6468	6592	6592	6592	6592	6592	6592	6592	6592	6468	6592	6592	6592	6592	6592	6592	6592	6592	6592	6592	6468	6592	6468	6468	6468	6468	6468	6468	6468	6592	6592	6592	6592	6592	6468	6592	6592	6468	6468	6468	6468	6468	6468	6468	6468	6468	6468	6592	6592	6592	6592	6592	6468	6468	6468	6468	6468	6468	6592	6592	6592	6592	6592	6592	6592	6592	6592	6592	6592	6592	6592	6592	6592	6592	6592	6592	6592	6592	6592	6592	6592	6468	6592	6592	6468	6468	6468	6592	6592	4192	4192	4296	4296	4192	4192	4192	4243	4243	4243	4243	4243	4243	4243	4192	4192	4192	4192	4142	4142	4142	4142	4142	4093	4093	4142	4142	4142	4142	4142	4142	4142	4142	4192	4192	4192	4192	4192	4192	4192	4142	4192	4142	4192	4192	4142	4192	4192	4192	4192	4192	4192	4192	4192	4192	4243	4243	4243	4296	4296	4296	4296	4296	4296	4350	4350	4350	4350	4296	4296	4296	4296	4296	0	0	0	0	0	0	0	0	0	0	0	0	0	0	6853	6720	6720	6720	6720	6720	6720	6720	6720	6720	6720	6720	6720	6720	6720	6720	6720	6720	6720	6720	6720	6720	6592	6592	6592	6592	6468	6468	6468	6235	0	0	0	0	0	0	0	0	0	0	9757	9757	0	0	0	0	0	0	0	0	0	0	0	0	0	0	0	0	0	0	0	0	0	0	8550	8550	8343	8343	8343	8343	8550	8550	8550	8550	8550	8550	8550	8550	8550	8343	8343	8550	8550	8550	8550	8343	8343	8343	8343	8146	8146	8343	8343	6349	6349	6349	6235	6235	6349	6235	6235	6349	6349	6592	6720	6720	6720	6720	6720	6592	6592	6592	0	0	0	0	0	0	0	0	0	0	0	0	0	0	0	0	0	0	0	0	0	0	0	0	0	0	0	0	0	0	0	0	0	0	0	0	0	0	2223	2223	2223	2223	2223	2223	2223	2223	2223	2223	2223	2208	2208	2208	2194	2194	2194	2181	2181	2181	2194	2194	0	4771	4771	4706	4706	4706	4643	4581	4521	4521	4581	4521	4521	4521	4463	4463	4463	4463	4406	4350	4350	4296	4296	4296	4243	4243	4243	4243	0	0	2312	2297	2312	2281	2237	2223	2223	2208	2208	2208	2208	2194	2181	2194	2194	2194	2194	2181	2167	2167	2167	2153	2153	2140	2127	2127	0	0	0	0	0	0	0	0	0	0	0	0	0	0	0	0	0	0	0	0	0	0	0	0	0	0	0	0	0	0	0	0	0	0	0	0	0
0	0	0	0	0	0	0	0	0	1291	1296	1296	1296	1301	1301	1306	1306	1306	1306	1311	1311	1326	1326	1326	1336	0	0	0	0	0	0	0	0	0	0	0	0	0	0	0	0	0	0	0	0	0	0	0	0	0	0	0	0	0	0	0	0	0	0	0	1413	1419	1419	1425	1431	1437	1437	1437	1431	1431	1431	1431	1431	1431	1425	1431	1437	1437	0	0	0	0	0	0	0	0	0	0	0	0	0	1492	1506	1512	1512	1512	1512	1512	1525	1532	1539	1539	1539	1546	1546	1546	1581	1581	1603	1611	1611	1618	1618	1626	1626	1649	1657	1673	1681	1690	1698	1698	1698	1698	0	0	0	0	0	0	0	0	0	0	0	0	0	0	0	0	0	0	0	0	0	0	0	0	0	0	0	0	0	0	0	0	0	0	0	0	0	0	0	0	0	6592	6592	6592	6592	6592	6592	6592	6592	6592	6592	6592	6592	6592	6592	6592	6592	6592	6592	6592	6592	6592	6592	6592	6592	6592	6592	6592	6592	6592	6468	6592	6592	6592	6592	6468	6592	6592	6592	6592	6592	6592	6592	6592	6468	6592	6592	6592	6592	6592	6468	6592	6468	6592	6592	6468	6592	6468	6468	6468	6468	6468	6468	6468	6468	6592	6468	6468	6468	6468	6592	6468	6468	6592	6592	6592	6592	6468	6592	6592	6592	6592	6592	6592	6592	6592	6592	6592	6468	6468	6468	6468	6468	6592	6592	6592	6592	6592	6592	6592	6592	6592	6468	6468	6592	6592	6592	6592	6592	6592	6592	6592	6592	6592	6592	6592	6592	6592	6592	6592	6468	6468	6592	6592	4192	4192	4243	4192	4192	4192	4243	4243	4243	4243	4243	4243	4243	4243	4192	4192	4192	4192	4142	4142	4142	4093	4093	4093	4093	4142	4142	4142	4142	4142	4142	4142	4142	4142	4192	4192	4192	4192	4192	4192	4142	4142	4142	4142	4142	4142	4192	4192	4142	4142	4192	4192	4192	4142	4192	4192	4243	4243	4243	4296	4296	4296	4296	4296	4350	4350	4350	4350	4296	4296	4296	4296	4296	0	0	0	0	0	0	0	0	0	0	0	0	0	0	6853	6720	6720	6720	6592	6720	6720	6720	6592	6720	6720	6720	6720	6720	6720	6720	6720	6720	6720	6720	6720	6720	6592	6592	6592	6592	6468	6468	6468	0	0	0	0	0	0	0	0	0	0	0	9757	9757	0	0	0	0	0	0	0	0	0	0	0	0	0	0	0	0	0	0	0	0	0	0	8343	8550	8343	8343	8550	8550	8550	8550	8550	8550	8550	8550	8550	8550	8550	8343	8343	8550	8343	8343	8343	8343	8343	8343	8343	8343	8343	8343	8343	6349	6349	6349	6235	6235	6349	6349	6349	6468	6468	6592	6720	6720	6720	6720	6720	6592	6468	6468	0	0	0	0	0	0	0	0	0	0	0	0	0	0	0	0	0	0	0	0	0	0	0	0	0	0	0	0	0	0	0	0	0	0	0	0	0	0	2223	2208	2208	2208	2208	2223	2223	2208	2223	2223	2208	2208	2208	2194	2194	2181	2181	2181	2181	2167	2194	2194	2194	0	4771	4771	4771	4706	4643	4581	4521	4521	4521	4521	4521	4521	4521	4463	4463	4463	4463	4350	4350	4296	4296	4296	4243	4243	4192	4192	0	0	2312	2297	2312	2281	2266	2223	2223	2208	2208	2208	2208	2208	2194	2194	2194	2194	2181	2181	2167	2167	2167	2153	2140	2140	2127	2127	0	0	0	0	0	0	0	0	0	0	0	0	0	0	0	0	0	0	0	0	0	0	0	0	0	0	0	0	0	0	0	0	0	0	0	0	0
0	0	0	0	0	0	0	0	0	1291	1291	1296	1296	1301	1306	1306	1311	1306	1311	1311	1316	1321	1326	1326	0	0	0	0	0	0	0	0	0	0	0	0	0	0	0	0	0	0	0	0	0	0	0	0	0	0	0	0	0	0	0	0	0	0	0	0	1413	1425	1425	1425	1425	1437	1431	1431	1425	1425	1425	1431	1431	1431	1425	1425	1425	1437	0	0	0	0	0	0	0	0	0	0	0	0	0	1492	1512	1512	1512	1512	1512	1512	1532	1532	1532	1532	1539	1539	1539	1546	1546	1611	1618	1618	1618	1618	1626	1626	1641	1649	1649	1673	1681	1690	1698	1698	1698	0	0	0	0	0	0	0	0	0	0	0	0	0	0	0	0	0	0	0	0	0	0	0	0	0	0	0	0	0	0	0	0	0	0	0	0	0	0	0	0	0	0	6592	6592	6592	6592	6592	6592	6592	6592	6592	6592	6592	6592	6592	6592	6592	6592	6592	6592	6592	6592	6592	6592	6592	6592	6592	6592	6592	6592	6592	6468	6468	6592	6592	6592	6592	6592	6592	6592	6592	6592	6592	6592	6592	6468	6592	6468	6468	6592	6468	6468	6592	6468	6592	6468	6468	6468	6468	6468	6468	6468	6468	6592	6468	6468	6592	6468	6468	6592	6592	6592	6592	6468	6592	6592	6592	6592	6468	6592	6592	6592	6592	6592	6592	6592	6592	6592	6592	6592	6592	6592	6592	6592	6592	6592	6592	6592	6592	6592	6592	6592	6468	6468	6468	6468	6468	6592	6592	6468	6592	6592	6592	6592	6592	6592	6592	6592	6592	6592	6592	6468	6468	6592	4243	4192	4192	4243	4243	4192	4243	4243	4243	4243	4243	4243	4243	4243	4243	4243	4192	4192	4192	4142	4142	4142	4093	4093	4093	4093	4142	4142	4142	4142	4142	4142	4142	4142	4192	4192	4192	4192	4192	4192	4192	4142	4142	4142	4192	4192	4142	4192	4192	4192	4192	4142	4142	4142	4142	4192	4192	4192	4243	4243	4296	4296	4296	4296	4296	4296	4296	4296	4296	4296	4296	4296	4296	4296	4296	0	0	0	0	0	0	0	0	0	0	0	0	0	6720	6720	6720	6720	6592	6592	6720	6592	6720	6720	6720	6720	6592	6592	6720	6720	6720	6720	6720	6720	6720	6720	6592	6592	6592	6592	6468	6468	6468	0	0	0	0	0	0	0	0	9757	9757	9757	0	0	0	0	0	0	0	0	0	0	0	0	0	0	0	0	0	0	0	0	0	0	0	0	8343	8550	8343	8343	8550	8550	8550	8550	8550	8550	8550	8550	8550	8550	8550	8550	8550	8343	8343	8343	8343	8550	8146	8146	8343	8146	8146	8343	8343	0	0	0	6235	6235	6349	6349	6468	6468	6468	6592	6720	6720	6592	6592	6592	6592	6468	6349	6349	0	0	0	0	0	0	0	0	0	0	0	0	0	0	0	0	0	0	0	0	0	0	0	0	0	0	0	0	0	0	0	0	0	0	0	0	0	2223	2223	2223	2208	2208	2208	2208	2208	2208	2208	2208	2208	2208	2181	2181	2181	2181	2181	2181	2181	2194	2194	2194	2194	0	4771	4771	4706	4643	4581	4521	4521	4521	4521	4521	4521	4521	4463	4406	4463	4463	4350	4350	4296	4296	4296	4243	4243	4142	4093	4093	0	0	0	2252	2252	2252	2252	2237	2223	2223	2223	2223	2194	2181	2181	2208	2194	2181	2181	2181	2167	2167	2153	2140	2140	2127	2127	0	0	0	0	0	0	0	0	0	0	0	0	0	0	0	0	0	0	0	0	0	0	0	0	0	0	0	0	0	0	0	0	0	0	0	0	0
0	0	0	0	0	0	0	0	0	1291	1296	1296	1301	1301	1306	1306	1306	1311	1311	1311	1311	1326	1326	1326	0	0	0	0	0	0	0	0	0	0	0	0	0	0	0	0	0	0	0	0	0	0	0	0	0	0	0	0	0	0	0	0	0	0	0	0	1413	1425	1425	1425	1425	0	1431	1431	1425	1425	1419	1425	1431	1419	1419	1425	1425	0	0	0	0	0	0	0	0	0	0	0	0	0	0	1506	1506	1506	1512	1512	1512	1506	1506	1525	1532	1539	1539	1546	1539	1546	1546	1546	1611	1611	1618	1618	1611	1618	1618	1649	1649	0	0	0	0	0	0	0	0	0	0	0	0	0	0	0	0	0	0	0	0	0	0	0	0	0	0	0	0	0	0	0	0	0	0	0	0	0	0	0	0	0	0	0	0	0	0	0	0	0	6592	6592	6592	6592	6592	6592	6592	6592	6592	6592	6592	6592	6592	6592	6592	6592	6592	6592	6592	6468	6468	6468	6592	6592	6592	6592	6592	6592	6592	6592	6592	6468	6592	6592	6592	6592	6592	6592	6592	6592	6592	6592	6468	6468	6468	6468	6468	6468	6468	6468	6468	6468	6468	6468	6468	6468	6468	6468	6468	6468	6592	6592	6592	6468	6468	6468	6468	6468	6468	6468	6468	6468	6592	6592	6592	6592	6592	6592	6592	6592	6592	6592	6592	6592	6592	6592	6592	6592	6592	6592	6468	6592	6592	6592	6592	6592	6468	6592	6592	6592	6468	6468	6468	6468	6592	6592	6468	6592	6592	6592	6592	6468	6468	6468	6592	6592	6592	6592	6592	6592	6592	4243	4243	4243	4243	4192	4192	4192	4243	4243	4243	4243	4243	4243	4243	4243	4243	4192	4192	4192	4142	4142	4142	4093	4093	4093	4093	4142	4142	4142	4142	4142	4142	4142	4142	4192	4192	4142	4142	4192	4192	4192	4142	4192	4192	4192	4192	4142	4192	4192	4192	4192	4192	4192	4142	4142	4142	4192	4192	4192	4243	4243	4296	4296	4296	4296	4296	4296	4296	4296	4296	4296	4296	4296	4296	4296	4296	0	0	0	0	0	0	0	0	0	0	0	0	6720	6720	6720	6592	6592	6592	6720	6720	6720	6720	6720	6720	6720	6720	6720	6720	6720	6720	6720	6720	6720	6720	6592	6592	6592	6592	6468	6468	6468	0	0	0	0	0	0	0	0	9757	9757	9757	0	0	0	0	0	0	0	0	0	0	0	0	0	0	0	0	0	0	0	0	0	0	0	0	8343	8343	8343	8343	8343	8343	8550	8550	8550	8550	8550	8550	8550	8550	8550	8550	8343	8343	8343	5719	5719	5719	5815	5815	5626	5626	5626	5719	5719	5719	0	0	0	6235	6349	6349	6468	6468	6592	6720	6720	6592	6720	6720	6720	6592	6592	6349	6349	0	0	0	0	0	0	0	0	0	0	0	0	0	0	0	0	0	0	0	0	0	0	0	0	0	0	0	0	0	0	0	0	0	0	0	0	0	2223	2223	2208	2208	2208	2208	2208	2208	2223	2223	2223	2208	2208	2194	2181	2181	2194	2181	2181	2167	2194	2208	2194	2194	0	0	4771	4706	4643	4581	4521	4521	4521	4521	4521	4521	4521	4463	4406	4463	4463	4350	4350	4296	4350	4192	4192	4142	4093	4045	4045	3998	3998	0	2252	2252	2237	2237	2237	2223	2223	2223	2223	2208	2208	2181	2208	2194	2181	2181	2167	2167	2167	2153	2140	2140	2127	2127	0	0	0	0	0	0	0	0	0	0	0	0	0	0	0	0	0	0	0	0	0	0	0	0	0	0	0	0	0	0	0	0	0	0	0	0	0
0	0	0	0	0	0	0	0	0	1291	1296	1296	1301	1301	1306	1306	1306	1311	1311	1311	1316	1321	1321	1321	0	0	0	0	0	0	0	0	0	0	0	0	0	0	0	0	0	0	0	0	0	0	0	0	0	0	0	0	0	0	0	0	0	0	0	0	0	0	0	0	0	0	0	0	1419	1419	1419	1413	1413	1413	1413	1419	1419	0	0	0	0	0	0	0	0	0	0	0	0	0	1486	1486	1486	1506	1486	1525	1525	1506	1525	1525	1532	1546	1546	1546	1539	1546	1546	1546	1611	1611	1611	1611	1611	1618	1618	0	0	0	0	0	0	0	0	0	0	0	0	0	0	0	0	0	0	0	0	0	0	0	0	0	0	0	0	0	0	0	0	0	0	0	0	0	0	0	0	0	0	0	0	0	0	0	0	0	0	6720	6720	6592	6592	6592	6592	6592	6592	6592	6592	6592	6592	6592	6592	6592	6592	6592	6592	6592	6592	6592	6468	6592	6592	6592	6592	6592	6592	6592	6592	6592	6592	6592	6592	6592	6592	6592	6592	6592	6592	6592	6592	6592	6468	6468	6468	6468	6468	6468	6468	6592	6468	6468	6468	6468	6468	6468	6468	6468	6468	6468	6468	6592	6592	6592	6468	6468	6468	6468	6468	6468	6468	6468	6468	6468	6468	6468	6592	6592	6592	6592	6592	6592	6592	6592	6592	6592	6592	6592	6592	6592	6592	6592	6592	6592	6592	6592	6592	6592	6592	6592	6592	6468	6468	6468	6468	6592	6468	6468	6592	6592	6592	6468	6468	6468	6468	6592	6592	6592	6592	6592	6592	4243	4243	4243	4243	4243	4192	4243	4243	4243	4243	4243	4243	4243	4243	4243	4243	4192	4192	4192	4142	4142	4093	4093	4093	4093	4093	4142	4142	4142	4142	4142	4142	4142	4142	4142	4142	4142	4142	4192	4192	4192	4192	4192	4192	4192	4192	4142	4142	4142	4142	4142	4192	4142	4142	4142	4142	4192	4192	4192	4243	4296	4296	4296	4296	4296	4296	4296	4296	4296	4296	4296	4296	4296	4296	4350	4350	4350	0	0	0	0	0	0	0	0	0	0	0	6720	6720	6720	6592	6592	6592	6592	6592	6592	6720	6720	6720	6720	6720	6720	6720	6720	6720	6720	6720	6720	6720	6592	6592	6592	6592	6468	6468	0	0	0	0	0	0	0	0	0	0	0	0	0	0	0	0	0	0	0	0	0	0	0	0	0	0	0	0	0	0	0	0	0	0	0	0	8146	8343	8343	8343	8343	8343	8343	8550	8550	8550	8550	8550	8343	8343	8550	8550	8550	8550	5719	5719	5719	5719	5815	5815	5815	5719	5719	5719	5815	5815	5815	0	0	0	0	0	6468	6592	6592	6720	6720	6720	6720	6720	6720	6720	6592	6468	6468	0	0	0	0	0	0	0	0	0	0	0	0	0	0	0	0	0	0	0	0	0	0	0	0	0	0	0	0	0	0	0	0	0	0	0	0	0	2208	2208	2208	2208	2223	2223	2223	2223	2223	2223	2223	2223	2208	2194	2194	2181	2194	2181	2181	2167	2194	2194	2194	2194	0	0	4771	4706	4643	4581	4521	4521	4521	4463	4521	4521	4463	4463	4406	4463	4406	4350	4296	4296	4243	4142	4142	4093	4093	4093	4093	4093	4093	4093	4093	4093	4093	2237	2237	2223	2223	2223	2208	2208	2194	2181	2194	2194	2181	2181	2167	2167	2167	2153	2140	2140	2140	2140	0	0	0	0	0	0	0	0	0	0	0	0	0	0	0	0	0	0	0	0	0	0	0	0	0	0	0	0	0	0	0	0	0	0	0	0	0
0	0	0	0	0	0	0	0	0	1291	1296	1296	1301	1301	1306	1306	1306	1311	1306	1311	1316	1321	1321	1321	0	0	0	0	0	0	0	0	0	0	0	0	0	0	0	0	0	0	0	0	0	0	0	0	0	0	0	0	0	0	0	0	0	0	0	0	0	0	0	0	0	0	0	0	1419	1419	1419	1413	1413	1407	1407	1407	1419	0	0	0	0	0	0	0	0	0	0	0	1461	1461	1467	1467	1467	0	1486	1525	1525	0	1532	1532	1532	1546	1546	1546	1539	1546	1546	1546	1581	1596	1596	1611	1611	0	0	0	0	0	0	0	0	0	0	0	0	0	0	0	0	0	0	0	0	0	0	0	0	0	0	0	0	0	0	0	0	0	0	0	0	0	0	0	0	0	0	0	0	0	0	0	0	0	0	0	0	6720	6720	6592	6720	6720	6592	6592	6468	6468	6468	6592	6592	6592	6720	6720	6592	6592	6592	6592	6592	6592	6592	6592	6592	6720	6592	6592	6592	6592	6592	6592	6592	6592	6592	6592	6592	6720	6592	6592	6592	6592	6592	6592	6468	6468	6468	6468	6468	6468	6468	6468	6468	6468	6468	6468	6468	6468	6468	6468	6468	6468	6468	6592	6592	6592	6592	6468	6468	6468	6468	6468	6468	6468	6468	6468	6592	6468	6468	6592	6592	6592	6592	6592	6592	6592	6592	6592	6592	6592	6592	6592	6592	6592	6592	6592	6592	6592	6592	6592	6592	6592	6592	6468	6468	6468	6468	6592	6468	6468	6592	6468	6468	6468	6468	6468	6468	6592	6592	6468	6592	6592	6592	4243	4243	4243	4243	4243	4243	4243	4243	4243	4243	4243	4243	4243	4243	4243	4243	4192	4192	4142	4142	4142	4093	4093	4093	4093	4093	4142	4142	4142	4142	4142	4142	4142	4142	4142	4192	4142	4142	4192	4192	4192	4192	4192	4192	4192	4192	4192	4192	4192	4192	4192	4192	4142	4142	4142	4142	4192	4192	4192	4243	4296	4296	4296	4296	4296	4296	4296	4296	4296	4296	4296	4296	4350	4350	4350	4296	4296	0	0	0	0	0	0	0	0	0	0	0	6720	6720	6720	6720	6592	6592	6592	6720	6592	6720	6720	6720	6720	6720	6720	6720	6720	6720	6720	6720	6720	6720	6720	6720	6592	6592	6468	6468	0	0	0	0	0	0	0	0	0	0	0	0	0	0	0	0	0	0	0	0	0	0	0	0	0	0	0	0	0	0	0	0	0	0	0	0	8146	8343	8146	8343	8343	8343	8343	8550	8343	8343	8343	8550	8343	8343	8343	8343	8343	5448	5719	5719	5719	5719	5815	5815	5815	5719	5719	5719	5719	5719	5719	0	0	0	0	0	0	6592	6592	6720	6720	6720	6720	6720	6592	6592	6468	6468	6235	6235	0	0	0	0	0	0	0	0	0	0	0	0	0	0	0	0	0	0	0	0	0	0	0	0	2281	2281	2266	2266	2266	2266	2266	2252	2252	0	0	0	2208	2208	2208	2208	2223	2223	2223	2223	0	0	2223	2223	2208	2194	2181	2181	2194	2181	2181	2181	2194	2194	2181	2181	0	0	4771	4706	4643	4581	4581	4521	4521	4521	4521	4521	4521	4463	4406	4406	4406	4296	4296	4192	4142	4093	4093	4045	4045	4045	3998	3998	4045	4093	4093	4093	4093	4093	4142	2237	2237	2223	2223	2223	2208	2181	2194	2194	2181	2181	2167	2167	2167	2167	2153	2153	2153	2153	0	0	0	0	0	0	0	0	0	0	0	0	0	0	0	0	0	0	0	0	0	0	0	0	0	0	0	0	0	0	0	0	0	0	0	0	0
0	0	0	0	0	0	0	0	0	1291	1296	1296	1301	1306	1306	1306	1311	1311	1311	1311	1311	1316	1316	0	0	0	0	0	0	0	0	0	0	0	0	0	0	0	0	0	0	0	0	0	0	0	0	0	0	0	0	0	0	0	0	0	0	0	0	0	0	0	0	0	0	0	1431	1431	1413	1413	1413	1407	1407	1407	1407	1407	0	0	0	0	0	0	0	0	0	0	0	1455	1455	1461	1480	1480	1480	0	0	0	0	0	1532	1532	1539	1546	1546	1546	1539	1546	1546	1546	1546	1546	1546	0	0	0	0	0	0	0	0	0	0	0	0	0	0	0	0	0	0	0	0	0	0	0	0	0	0	0	0	0	0	0	0	0	0	0	0	0	0	0	0	0	0	0	0	0	0	0	0	0	0	0	0	0	0	6853	6720	6720	6720	6720	6592	6468	6468	6592	6592	6592	6592	6592	6720	6720	6720	6592	6592	6592	6592	6592	6468	6468	6592	6720	6592	6720	6720	6720	6720	6592	6592	6592	6720	6720	6853	6853	6720	6592	6720	6592	6592	6592	6468	6468	6468	6592	6468	6592	6468	6468	6468	6468	6592	6468	6468	6592	6468	6468	6468	6592	6468	6592	6592	6592	6468	6592	6592	6592	6468	6468	6468	6468	6468	6468	6592	6592	6592	6592	6592	6592	6592	6592	6592	6592	6592	6592	6592	6592	6592	6592	6592	6592	6592	6592	6592	6592	6592	6592	6592	6592	6592	6468	6468	6468	6468	6592	6468	6468	6592	6468	6468	6468	6468	6468	6468	6468	6468	6468	6468	6592	4243	4296	4296	4296	4243	4243	4243	4243	4243	4243	4243	4243	4243	4243	4243	4243	4243	4192	4192	4142	4142	4093	4093	4093	4093	4093	4093	4142	4142	4142	4142	4142	4142	4142	4142	4142	4142	4192	4142	4192	4192	4192	4192	4192	4192	4192	4192	4192	4192	4192	4192	4192	4192	4142	4142	4142	4142	4192	4192	4192	4243	4243	4296	4296	4296	4296	4296	4296	4296	4296	4296	4296	4296	4296	4296	4296	4296	4296	0	0	0	0	0	0	0	0	0	0	0	6853	6853	6720	6720	6720	6592	6720	6592	6592	6720	6720	6720	6720	6720	6720	6720	6720	6720	6720	6720	6720	6720	6720	6720	6720	6592	6468	6468	0	0	0	0	0	0	0	0	0	0	0	0	0	0	0	0	0	0	0	0	0	0	0	0	0	0	0	0	0	0	0	0	0	0	0	0	8343	8343	8343	8343	8343	8343	8343	8343	8343	8343	8343	8343	8343	8343	8343	8343	8343	5448	5626	5626	5719	5719	5815	5815	5815	5719	5719	5719	5719	5719	5448	5448	0	0	0	0	6468	6592	6592	6592	6592	6592	6592	6592	6592	6468	6468	6235	6235	6235	0	0	0	0	0	0	0	0	0	0	0	0	0	0	0	0	0	0	0	0	0	0	0	0	2281	2281	2281	2266	2266	2266	2266	2252	2252	2252	2252	2208	2194	2194	2194	0	0	0	0	0	0	0	0	2223	2223	2208	2194	2181	2194	2181	2181	2181	2181	2181	2181	2181	0	0	4771	4706	4643	4581	4581	4521	4521	4521	4521	4581	4463	4463	4406	4406	4350	4296	4142	4093	4093	4045	4045	4045	3998	4045	4045	4045	4045	4093	4045	4093	4093	4093	4142	2237	2252	2252	2223	2223	2208	2181	2181	2181	2181	2167	2167	2167	2153	2167	2167	2167	2167	2167	0	0	0	0	0	0	0	0	0	0	0	0	0	0	0	0	0	0	0	0	0	0	0	0	0	0	0	0	0	0	0	0	0	0	0	0	0
0	0	0	0	0	0	0	0	0	1291	1291	1296	1301	1301	1301	1306	1306	1311	1311	1311	1316	1316	1316	0	0	0	0	0	0	0	0	0	0	0	0	0	0	0	0	0	0	0	0	0	0	0	0	0	0	0	0	0	0	0	0	0	0	0	0	0	0	0	0	0	0	0	1431	1431	1413	1413	1413	1407	1407	1407	1407	1407	0	0	0	0	0	0	0	0	0	1455	1449	1449	1455	1461	1467	1480	1480	1480	0	0	0	0	1532	1539	1539	1539	1539	1539	1532	1539	1539	1539	1539	1546	1546	0	0	0	0	0	0	0	0	0	0	0	0	0	0	0	0	0	0	0	0	0	0	0	0	0	0	0	0	0	0	0	0	0	0	0	0	0	0	0	0	0	0	0	0	0	0	0	0	0	0	0	0	0	0	6992	6853	6853	6853	6720	6720	6592	6592	6592	6592	6592	6592	6592	6592	6592	6720	6592	6592	6592	6592	6592	6592	6592	6592	6720	6720	6720	6720	6720	6720	6592	6592	2845	2845	6720	6720	6853	6720	6720	6720	6592	6592	6592	6468	6468	6468	6592	6592	6592	6468	6592	6468	6592	6592	6468	6592	6592	6592	6592	6592	6592	6592	6592	6592	6592	6592	6592	6592	6468	6468	6468	6468	6468	6468	6592	6592	6592	6592	6592	6592	6592	6592	6592	6592	6592	6592	6592	6592	6592	6592	6592	6592	6592	6592	6592	6592	6592	6592	6592	6592	6592	6592	6468	6468	6468	6468	6468	6468	6468	6468	6468	6468	6468	6468	6468	6468	6468	6592	6592	6592	6468	4243	4243	4243	4243	4243	4243	4243	4243	4243	4243	4243	4243	4243	4192	4243	4192	4192	4192	4192	4192	4142	4142	4093	4093	4093	4093	4093	4142	4142	4142	4142	4142	4142	4142	4142	4142	4142	4192	4142	4192	4192	4192	4192	4192	4192	4192	4192	4192	4142	4192	4192	4192	4192	4142	4142	4142	4142	4142	4142	4192	4243	4243	4296	4296	4296	4296	4296	4296	4296	4296	4296	4296	4296	4296	4296	4296	4296	4296	4296	0	0	0	0	0	0	0	0	0	0	6853	6853	6720	6720	6720	6720	6720	6720	6720	6720	6720	6720	6720	6720	6720	6720	6720	6720	6720	6720	6720	6720	6592	6720	6592	6592	6468	6468	6468	0	0	0	0	0	0	0	0	0	0	0	0	0	0	0	0	0	0	0	0	0	0	0	0	0	0	0	0	0	0	0	0	0	0	0	8146	8146	8146	8343	8343	8343	8343	8343	8343	8343	8343	8343	8343	8343	8343	8343	8343	5448	5448	5719	5719	5719	5815	5815	5815	5719	5719	5719	5719	5626	5626	5626	0	0	0	0	6468	6592	6592	6592	6592	6592	6592	6468	6468	6235	6235	6349	6349	6349	6349	0	0	0	0	0	0	0	0	0	0	0	0	0	0	0	0	0	0	0	0	0	0	0	2281	2266	2266	2266	2266	2266	2252	2252	2252	2223	2223	2223	2194	2194	2194	0	0	0	0	0	0	0	0	2223	2223	2194	2194	2181	2181	2181	2181	2181	2181	2181	2181	2181	2167	2167	4771	4706	4643	4581	4581	4581	4521	4521	4521	4521	4521	4463	4350	4192	4093	4045	3952	3998	3998	3998	3998	3998	3998	3998	3998	4093	4045	4093	4045	4093	4093	4093	4142	2237	2237	2252	2237	2223	2208	2194	2194	2194	2181	2167	2167	2167	2167	2167	2167	2167	2167	2167	0	0	0	0	0	0	0	0	0	0	0	0	0	0	0	0	0	0	0	0	0	0	0	0	0	0	0	0	0	0	0	0	0	0	0	0	0
0	0	0	0	0	0	0	0	0	1287	1287	1291	1301	1301	1301	1306	1311	1311	1316	1316	1321	1326	1326	0	0	0	0	0	0	0	0	0	0	0	0	0	0	0	0	0	0	0	0	0	0	0	0	0	0	0	0	0	0	0	0	0	0	0	0	0	0	0	0	0	0	0	0	0	1407	1407	1407	1402	1402	1402	1402	1407	1407	0	0	0	0	0	0	0	1455	1455	1449	1449	1455	1461	1461	1461	1461	1480	0	0	0	0	1539	1539	1539	1539	1546	1539	1539	1539	1539	1560	1560	1581	1589	1589	0	0	0	0	0	0	0	0	0	0	0	0	0	0	0	0	0	0	0	0	0	0	0	0	0	0	0	0	0	0	0	0	0	0	0	0	0	0	0	0	0	0	0	0	0	0	0	0	0	0	0	0	0	6992	6853	6853	6853	6720	6720	6720	6592	6592	6592	6592	6592	6592	6592	6592	6592	6592	6592	6592	6592	6592	6592	6592	6592	6720	6592	6592	6720	6720	6720	6592	2845	2845	2845	6720	6720	6853	6592	6720	6720	6592	6592	6592	6468	6468	6592	6592	6592	6592	6468	6592	6592	6592	6592	6592	6592	6592	6468	6468	6468	6592	6592	6592	6592	6592	6592	6468	6468	6468	6468	6468	6468	6468	6468	6468	6592	6592	6592	6592	6592	6592	6592	6592	6592	6592	6592	6592	6592	6592	6592	6592	6592	6468	6468	6468	6468	6592	6468	6468	6592	6592	6592	6592	6468	6468	6468	6468	6468	6468	6468	6468	6468	6468	6468	6468	6468	6592	6592	6592	6592	4243	4243	4243	4243	4243	4243	4243	4243	4243	4243	4243	4243	4243	4243	4192	4192	4192	4192	4192	4192	4192	4142	4142	4093	4093	4093	4142	4093	4142	4142	4142	4142	4142	4142	4192	4142	4142	4192	4192	4142	4192	4192	4192	4142	4192	4192	4192	4192	4192	4192	4192	4192	4192	4192	4142	4142	4142	4142	4192	4192	4243	4243	4296	4296	4296	4296	4296	4296	4296	4296	4296	4296	4296	4296	4296	4350	4350	4350	4296	4296	0	0	0	0	0	0	0	0	0	0	6720	6720	6720	6720	6592	6720	6720	6720	6720	6720	6720	6720	6720	6720	6720	6720	6720	6720	6720	6720	6720	6720	6592	6592	6592	6592	6468	6468	6468	0	0	0	0	0	0	0	0	0	0	0	0	0	0	0	0	0	0	0	0	0	0	0	0	0	0	0	0	0	0	0	0	0	0	0	8146	8343	8343	8343	8343	8343	8343	8343	8343	8343	8343	8343	8343	8343	8343	8343	8550	5626	5626	5719	5719	5719	5815	5815	5815	5815	5719	5719	5719	5626	5448	5448	5448	0	0	0	6468	6592	6592	6592	6592	6592	6468	6349	6235	6235	6124	6124	6124	6124	6349	0	0	0	0	0	0	0	0	0	0	0	0	0	0	0	0	0	0	0	0	0	0	0	0	2281	2281	2266	2266	2266	2266	2252	2252	2223	2223	2223	2194	2194	2181	2181	0	0	0	0	0	0	0	2208	2208	2194	2194	2181	2194	2194	2194	2194	2194	2181	2181	2181	2167	2167	0	0	4643	4581	4581	4521	4521	4463	4463	4521	4521	4463	4350	4142	4045	3952	3952	3952	3952	3952	3952	3998	3998	3998	3998	4045	4093	4093	3952	3952	2252	2237	2237	2237	2252	2252	2252	2237	2223	2194	2194	2194	2194	2194	2181	2181	2167	2181	2181	2181	2181	2181	0	0	0	0	0	0	0	0	0	0	0	0	0	0	0	0	0	0	0	0	0	0	0	0	0	0	0	0	0	0	0	0	0	0	0	0	0
0	0	0	0	0	0	0	0	0	1287	1287	1287	1291	1296	1301	1301	1306	1311	1316	1321	1326	1326	1326	0	0	0	0	0	0	0	0	0	0	0	0	0	0	0	0	0	0	0	0	0	0	0	0	0	0	0	0	0	0	0	0	0	0	0	0	0	0	0	0	0	0	0	0	0	1407	1407	1407	1402	1396	1402	1396	1396	1396	1390	1390	0	0	0	0	0	1461	1455	1449	1449	1455	1461	1461	1455	1461	1461	0	0	0	0	1539	1532	1532	1532	1539	1539	1539	1539	1546	1560	1560	1581	1589	1589	1596	1589	1589	0	0	0	0	0	0	0	0	0	0	0	0	0	0	0	0	0	0	0	0	0	0	0	0	0	0	0	0	0	0	0	0	0	0	0	0	0	0	0	0	0	0	0	0	0	0	0	0	0	0	6853	6853	6720	6720	6720	6720	6720	6592	6592	6592	6592	6592	6592	6592	6592	6592	6592	6592	6592	6592	6592	6592	6592	6592	6592	6592	6592	6720	2893	2893	2845	2845	2845	2822	2822	2822	6853	6592	6592	6720	6592	6592	6468	6468	6592	6592	6592	6468	6592	6468	6468	6592	6592	6592	6592	6592	6592	6592	6592	6592	6592	6468	6468	6468	6468	6468	6468	6468	6468	6468	6468	6468	6468	6592	6468	6592	6592	6592	6592	6592	6592	6592	6592	6592	6592	6592	6592	6592	6592	6592	6592	6592	6468	6468	6468	6468	6592	6468	6592	6592	6592	6592	6592	6592	6468	6592	6468	6468	6468	6468	6468	6592	6468	6468	6468	6468	6592	6592	6592	6592	4243	4243	4243	4243	4243	4243	4243	4243	4243	4243	4243	4192	4243	4243	4243	4192	4192	4192	4192	4192	4192	4142	4142	4093	4093	4093	4142	4093	4192	4142	4142	4142	4142	4142	4192	4142	4142	4192	4192	4192	4192	4192	4192	4192	4192	4192	4192	4142	4142	4142	4142	4142	4142	4142	4142	4142	4192	4142	4192	4192	4243	4243	4296	4296	4296	4296	4296	4296	4296	4296	4296	4296	4296	4296	4296	4296	4296	4296	4296	4296	0	0	0	0	0	0	0	0	0	0	6720	6720	6720	6720	6720	6720	6720	6720	6720	6720	6720	6720	6720	6720	6720	6720	6720	6720	6720	6720	6720	6592	6592	6592	6592	6592	6468	6468	6468	6468	0	0	0	0	0	0	0	0	0	0	0	0	0	0	0	0	0	0	0	0	0	0	0	0	0	0	0	0	0	0	0	0	0	0	8146	8146	8343	8343	8343	8146	8343	8343	8550	8550	8343	8550	8550	8343	8343	8343	8343	5719	5719	5815	5719	5815	5815	5815	5815	5815	5719	5719	5719	5626	5626	5626	5626	5719	5719	0	6468	6468	6592	6592	6592	6592	6468	6349	6235	6124	6124	6124	6124	6124	0	0	0	0	0	0	0	0	0	0	0	0	0	0	0	0	0	0	0	0	0	0	0	2312	2312	2281	2281	2266	2266	2266	2252	2252	2252	2223	2223	2208	2194	2181	2181	2181	2181	0	0	0	0	0	0	2208	2194	2194	2181	2181	2194	2194	2194	2194	2194	2181	2181	2181	2167	2167	2167	2167	4643	4581	4521	4521	4463	4463	4463	4521	4463	4406	4350	4192	4093	3952	3952	3952	3952	3907	3952	3952	3952	3998	3952	3998	3998	3952	3952	2281	2252	2237	2237	2237	2252	2237	2223	2223	2223	2223	2208	2208	2208	2208	2194	2194	2194	2194	2194	2194	2194	2194	0	0	0	0	0	0	0	0	0	0	0	0	0	0	0	0	0	0	0	0	0	0	0	0	0	0	0	0	0	0	0	0	0	0	0	0	0
0	0	0	0	0	0	0	0	0	1287	1287	1287	1291	1296	1296	1301	1306	1306	1316	1316	1326	1326	0	0	0	0	0	0	0	0	0	0	0	0	0	0	0	0	0	0	0	0	0	0	0	0	0	0	0	0	0	0	0	0	0	0	0	0	0	0	0	0	0	0	0	0	0	0	1402	1402	1402	1396	1396	1396	1396	1402	1396	1390	1390	0	0	0	0	0	1461	1455	1449	1449	1449	1455	1455	1455	1455	1455	1455	1455	0	0	1539	1539	1532	1532	1539	1546	1539	1546	1546	1560	1567	1574	1574	1596	1596	1589	1589	1581	1589	1589	0	0	0	0	0	0	0	0	0	0	0	0	0	0	0	0	0	0	0	0	0	0	0	0	0	0	0	0	0	0	0	0	0	0	0	0	0	0	0	0	0	0	0	0	0	0	0	6853	6720	6720	6720	6720	6720	6720	6592	6592	6592	6592	6592	6592	6592	6592	6592	6592	6592	6592	6592	6592	6592	6592	6592	6592	6592	0	2893	2893	2893	2845	2845	2845	2822	2822	2822	2822	0	6592	6720	6592	6592	6468	6468	6468	6592	6468	6468	6468	6468	6592	6592	6592	6592	6592	6592	6592	6592	6592	6592	6592	6592	6468	6468	6468	6468	6468	6468	6468	6468	6468	6468	6592	6592	6468	6592	6592	6592	6592	6592	6592	6592	6592	6592	6592	6592	6592	6468	6592	6592	6592	6592	6592	6468	6468	6468	6592	6592	6592	6592	6592	6592	6592	6468	6468	6468	6468	6468	6468	6468	6468	6468	6468	6468	6468	6468	6592	6592	6592	6468	4243	4243	4243	4243	4243	4243	4243	4243	4243	4243	4243	4243	4243	4243	4243	4192	4192	4192	4192	4192	4192	4192	4192	4093	4093	4093	4142	4142	4192	4142	4142	4142	4142	4142	4142	4142	4142	4192	4192	4192	4192	4192	4192	4192	4192	4142	4142	4142	4142	4142	4142	4142	4142	4142	4142	4142	4192	4142	4192	4192	4243	4296	4296	4296	4296	4296	4296	4296	4296	4296	4296	4296	4296	4296	4296	4296	4350	4350	4296	4296	0	0	0	0	0	0	0	0	0	0	6720	6720	6720	6720	6720	6720	6720	6720	6592	6592	6720	6720	6720	6720	6720	6720	6720	6720	6592	6720	6720	6592	6592	6592	6592	6592	6592	6468	6468	6468	0	0	0	0	0	0	0	0	0	0	0	0	0	0	0	0	0	0	0	0	0	0	0	0	0	0	0	0	0	0	0	0	0	0	8550	8146	8343	8343	8343	8343	8343	8343	8343	8343	8343	8343	8550	8343	8343	8343	5719	5626	5626	5719	5719	5719	5815	5815	5719	5719	5719	5719	5719	5719	5626	5626	5719	5719	5815	5815	6468	6468	6592	6592	6592	6592	6349	6349	6235	6124	6124	6124	6124	0	0	0	0	0	0	0	0	0	0	0	0	0	0	0	0	0	0	0	0	0	0	0	2327	2327	2327	2312	2281	2266	2266	2266	2252	2266	2252	2223	2223	2208	2194	2194	2181	2181	2181	0	0	0	0	0	0	2194	2181	2181	2181	2194	2194	2194	2208	2194	2194	2194	2194	2181	2181	2181	2167	2167	2167	2167	4521	4521	4521	4521	4581	4521	4463	4406	4296	4142	4093	3952	3907	3907	3907	3907	3907	3952	3952	3998	3998	4045	4045	3998	2312	2281	2252	2237	2237	2266	2252	2237	2223	2223	2237	2223	2223	2208	2208	2208	2208	2208	2208	2208	2208	2208	2208	2208	0	0	0	0	0	0	0	0	0	0	0	0	0	0	0	0	0	0	0	0	0	0	0	0	0	0	0	0	0	0	0	0	0	0	0	0	0
0	0	0	0	0	0	0	0	0	1287	1287	1287	1287	1291	1296	1296	1311	1306	1316	1316	1321	1321	0	0	0	0	0	0	0	0	0	0	0	0	0	0	0	0	0	0	0	0	0	0	0	0	0	0	0	0	0	0	0	0	0	0	0	0	0	0	0	0	0	0	0	0	0	0	1402	1402	1396	1396	1396	1396	1402	1402	1402	1402	1402	0	0	0	0	0	1461	1455	1449	1449	1449	1455	1461	1455	1461	1455	1455	1455	0	0	1532	1525	1532	1532	1539	1546	1546	1546	1553	1560	1567	1574	1581	1589	1589	1589	1589	1589	1596	1596	0	0	0	0	0	0	0	0	0	0	0	0	0	0	0	0	0	0	0	0	0	0	0	0	0	0	0	0	0	0	0	0	0	0	0	0	0	0	0	0	0	0	0	0	0	0	0	0	6720	6720	6720	6720	6720	6720	6592	6592	6592	6592	6592	6592	6592	6592	6592	6592	6592	6592	6592	6592	6468	6468	6592	6592	6592	0	2893	2869	2869	2845	2822	2845	2845	2822	2845	2869	2869	0	6853	6592	6592	6468	6468	6592	6592	6592	6468	6468	6468	6592	6592	6592	6592	6592	6592	6592	6592	6592	6592	6592	6468	6468	6468	6468	6468	6468	6468	6468	6468	6468	6468	6592	6592	6592	6592	6592	6592	6592	6468	6592	6592	6592	6592	6592	6592	6592	6592	6592	6592	6592	6592	6592	6592	6592	6592	6592	6592	6592	6592	6592	6592	6592	6468	6468	6468	6468	6468	6468	6468	6468	6592	6592	6592	6592	6592	6592	6592	6592	6468	4243	4243	4243	4243	4243	4243	4243	4243	4243	4243	4243	4192	4243	4192	4192	4192	4192	4192	4192	4192	4192	4192	4192	4142	4142	4142	4142	4142	4192	4192	4142	4142	4142	4142	4142	4142	4142	4192	4192	4192	4192	4192	4192	4192	4142	4142	4142	4142	4142	4142	4142	4142	4142	4142	4142	4142	4192	4142	4192	4192	4243	4296	4296	4296	4296	4350	4296	4296	4296	4296	4296	4296	4296	4296	4296	4296	4296	4296	4296	4296	0	0	0	0	0	0	0	0	0	0	6720	6720	6720	6720	6720	6720	6720	6720	6720	6592	6720	6720	6720	6720	6720	6720	6720	6720	6720	6720	6720	6720	6592	6720	6592	6592	6592	6468	6468	6468	0	0	0	0	0	0	0	0	0	0	0	0	0	0	0	0	0	0	0	0	0	0	0	0	0	0	0	0	0	0	0	0	0	0	8550	8343	8343	8343	8343	8343	8343	8343	8343	8343	8343	8343	8550	8343	8343	8343	5719	5719	5719	5719	5719	5719	5815	5815	5815	5815	5719	5719	5719	5719	5719	5719	5815	5815	6018	6235	6349	6468	6468	6592	6468	6468	6235	6235	6235	6124	6124	6124	6124	0	0	0	0	0	0	0	0	0	0	0	0	0	0	0	0	0	0	0	0	0	0	0	2327	2327	2327	2327	2312	2281	2266	2266	2266	2266	2266	2223	2223	2208	2194	2194	2181	2181	0	0	0	0	0	0	0	2194	2194	2181	2181	2181	2194	2208	2208	2208	2194	2194	2194	2194	2194	2181	2181	2181	2181	2181	2181	2181	4521	4521	4581	4521	4350	4463	4243	4142	4045	3952	3952	3907	3907	3907	3907	3907	3952	2376	2376	2376	4045	3952	2297	2297	2266	2281	2266	2266	2252	2252	2252	2237	2237	2237	2237	2208	2208	2208	2208	2208	2208	2208	2208	2208	2223	2223	0	0	0	0	0	0	0	0	0	0	0	0	0	0	0	0	0	0	0	0	0	0	0	0	0	0	0	0	0	0	0	0	0	0	0	0	0
0	0	0	0	0	0	0	0	0	1287	1287	1287	1287	1291	1296	1296	1316	1311	1321	1316	1321	1321	1331	1331	1342	1347	1347	0	0	0	0	0	0	0	0	0	0	0	0	0	0	0	0	0	0	0	0	0	0	0	0	0	0	1374	1374	1374	0	0	0	0	0	0	0	0	0	0	0	0	0	0	1390	1390	1396	1396	1402	1402	1402	1402	1402	0	0	0	0	0	1467	1455	1449	1449	1449	1455	1455	1455	1455	1449	1449	1467	1467	1532	1532	1525	1532	1532	1539	1546	1546	1553	1567	1567	1567	1574	1581	1596	1596	1596	1596	1603	1611	1611	0	0	0	0	0	0	0	0	0	0	0	0	0	0	0	0	0	0	0	0	0	0	0	0	0	0	0	0	0	0	0	0	0	0	0	0	0	0	0	0	0	0	0	0	0	0	0	0	6592	6720	6720	6592	6720	6720	6592	6592	6592	6592	6592	6592	6592	6592	6592	6592	6592	6592	6592	6468	6468	6468	6468	6592	0	0	2893	2893	2869	2845	2822	2845	2845	2845	2845	2845	2869	2893	2893	2917	2917	6592	6592	6592	6592	6592	6468	6468	6468	6592	6468	6468	6468	6468	6592	6592	6468	6468	6592	6468	6468	6468	6468	6468	6468	6468	6468	6468	6468	6468	6468	6592	6592	6592	6592	6592	6592	6592	6468	6592	6592	6592	6468	6592	6592	6592	6592	6592	6592	6592	6592	6592	6592	6468	6468	6592	6592	6592	6468	6592	6592	6592	6468	6468	6468	6468	6468	6468	6468	6468	6592	6592	6592	6468	6468	6468	6468	6468	6349	4243	4243	4243	4243	4243	4243	4243	4243	4243	4243	4243	4192	4243	4192	4243	4192	4192	4192	4192	4192	4192	4192	4142	4142	4142	4142	4142	4142	4192	4142	4142	4142	4142	4142	4142	4142	4142	4142	4192	4192	4192	4192	4192	4142	4142	4142	4142	4142	4142	4142	4142	4142	4142	4142	4142	4142	4142	4142	4192	4192	4192	4296	4296	4296	4296	4296	4296	4296	4296	4296	4296	4296	4296	4296	4296	4296	4296	4296	4296	4296	0	0	0	0	0	0	0	0	0	0	6592	6592	6720	6720	6720	6720	6720	6720	6592	6592	6592	6720	6720	6720	6720	6720	6720	6720	6720	6720	6720	6592	6592	6592	6592	6592	6592	6468	6468	6468	0	0	0	0	0	0	0	0	0	0	0	0	0	0	0	0	0	0	0	0	0	0	0	0	0	0	0	0	0	0	0	0	0	8550	8550	8550	8550	8343	8343	8343	8343	8343	8343	8343	8343	8343	8550	8343	8343	8343	5626	5626	5626	5719	5719	5719	5815	5719	5719	5719	5719	5719	5719	5719	5719	5815	5815	5815	6018	6124	6124	6124	6124	6468	6468	2845	2845	2822	2822	2845	2822	2822	2799	2754	2754	0	0	0	0	0	0	0	0	0	0	0	0	0	0	0	0	0	0	0	0	0	2343	2327	2327	2327	2327	2312	2297	2281	2281	2266	2266	2252	2223	2223	2208	2208	2208	0	0	0	2194	2181	2181	0	2194	2194	2194	2181	2181	2181	2208	2208	2208	2208	2208	2208	2194	2194	2181	2181	2181	2181	2167	2181	2181	2181	0	0	4521	4521	4192	4142	4142	4093	4045	3952	3952	3907	3907	3907	3907	3952	3952	2359	2376	2376	2359	2359	2312	2312	2266	2281	2266	2266	2266	2252	2252	2252	2237	2237	2237	2223	2223	2208	2208	2223	2223	2208	2223	2223	2223	2223	0	0	0	0	0	0	0	0	0	0	0	0	0	0	0	0	0	0	0	0	0	0	0	0	0	0	0	0	0	0	0	0	0	0	0	0	0
0	0	0	0	0	0	0	0	0	1287	1287	1287	1287	1291	1291	1306	1306	1311	1316	1316	1321	1326	1326	1336	1342	1347	1352	1379	1396	1396	0	0	0	0	0	0	0	0	0	0	0	0	0	0	0	0	0	0	0	0	0	0	1368	1363	1368	1363	1368	1368	1368	0	0	0	0	0	0	0	0	0	0	1390	1390	1390	1390	1396	1396	1402	1402	1407	1402	1402	0	0	0	0	1461	1443	1443	1443	1443	1449	1455	1455	1461	1455	1461	1467	1467	1525	1525	1525	1532	1532	1532	1546	1546	1553	1560	1567	1574	1574	1581	1596	1603	1596	1596	1603	1603	1603	1603	0	0	0	0	0	0	0	0	0	0	0	0	0	0	0	0	0	0	0	0	0	0	0	0	0	0	0	0	0	0	0	0	0	0	0	0	0	0	0	0	0	0	0	0	0	0	6468	6468	6592	6592	6592	6592	6592	6592	6592	6592	6592	6592	6592	6592	6468	6468	6592	6468	6592	6592	6468	6468	6468	6468	0	0	0	2917	2893	2893	2845	2845	2845	2845	2822	2845	2845	2869	2893	2917	2917	2917	2917	6592	6592	6592	6468	6468	6468	6468	6592	6468	6468	6468	6468	6468	6592	6592	6592	6592	6592	6592	6592	6468	6468	6468	6468	6468	6468	6468	6468	6468	6592	6592	6592	6592	6592	6592	6592	6592	6592	6592	6592	6468	6468	6468	6468	6592	6592	6592	6592	6592	6592	6592	6468	6468	6592	6468	6468	6468	6468	6468	6592	6592	6468	6468	6468	6592	6468	6468	6468	6592	6592	6468	6468	6468	6468	6468	6468	6468	4243	4243	4243	4243	4243	4243	4243	4243	4243	4243	4192	4192	4192	4192	4243	4192	4192	4192	4192	4192	4192	4192	4192	4142	4142	4142	4142	4142	4192	4192	4142	4142	4142	4142	4142	4142	4142	4142	4142	4192	4192	4192	4192	4142	4142	4142	4142	4142	4142	4142	4142	4142	4142	4142	4142	4142	4142	4142	4142	4243	4296	4296	4296	4296	4296	4296	4296	4296	4296	4296	4296	4296	4296	4296	4296	4296	4296	4296	4296	4296	0	0	0	0	0	0	0	0	0	0	6592	6720	6592	6592	6592	6592	6592	6592	6592	6592	6592	6720	6720	6592	6720	6720	6720	6592	6592	6592	6592	6592	6592	6592	6592	6468	6592	6468	6468	0	0	0	0	0	0	0	0	0	0	0	0	0	0	0	0	0	0	0	0	0	0	0	0	0	0	0	0	0	0	0	0	0	0	8767	8767	8550	8550	8550	8343	8343	8343	8343	8550	8343	8343	8550	8550	8550	8343	5719	5719	5719	5719	5719	5719	5719	5719	5719	5719	5719	5719	5719	5719	5719	5719	5815	5815	5815	5815	6124	6124	6124	6124	6468	2845	2845	2845	2822	2822	2822	2822	2799	2777	2754	2754	0	0	0	0	0	0	0	0	0	0	0	0	0	0	0	0	0	0	0	0	0	2343	2327	2327	2327	2327	2327	2327	2281	2281	2281	2266	2252	2237	2223	2223	2223	2208	0	0	0	2194	2194	2194	2194	2194	2194	2167	2181	2181	2181	2181	2208	2208	2208	2208	2208	2208	2194	2194	2181	2181	2181	2181	2181	2181	2181	0	0	4521	4243	4142	4142	4142	4093	3998	3952	3952	3907	3907	3907	3952	3952	3952	2359	2359	2359	2343	2343	2312	2297	2281	2281	2266	2281	2266	2266	2266	2266	2266	2252	2252	2252	2223	2223	2223	2237	2237	2223	2237	2252	2252	2252	0	0	0	0	0	0	0	0	0	0	0	0	0	0	0	0	0	0	0	0	0	0	0	0	0	0	0	0	0	0	0	0	0	0	0	0	0
0	0	0	0	0	0	0	0	0	1287	1287	1287	1287	1296	1301	1306	1316	1316	1316	1316	1316	1316	1321	1331	1342	1352	1368	1368	1379	1379	1379	0	0	0	0	0	0	0	0	0	0	0	0	0	0	0	0	0	0	0	0	1368	1368	1363	1368	1363	1363	1358	1358	0	0	0	0	0	0	0	0	0	1379	1390	1390	1390	1396	1396	1402	1402	1402	1407	1402	1402	0	0	1437	1437	1437	1437	1437	1437	1437	1443	1449	1455	1455	1455	1461	1467	1467	1525	1525	1525	1532	1525	1532	1539	1539	1546	1560	1560	1567	1567	1567	1581	1581	1596	1596	1603	1596	1596	1596	0	0	0	0	0	0	0	0	0	0	0	0	0	0	0	0	0	0	0	0	0	0	0	0	0	0	0	0	0	0	0	0	0	0	0	0	0	0	0	0	0	0	0	0	0	0	6468	6468	6592	6592	6592	6592	6592	6592	6592	6592	6592	6592	6592	6592	6468	6468	6468	6468	6592	6592	6592	6592	6592	6468	0	0	0	2917	2893	2822	2822	2845	2845	2845	2845	2845	2845	2869	2893	2893	2917	2917	2942	2942	0	6592	6592	6468	6468	6468	6592	6468	6468	6468	6468	6592	6592	6592	6592	6592	6592	6592	6592	6468	6468	6468	6468	6468	6468	6468	6468	6468	6592	6592	6592	6592	6592	6592	6592	6592	6468	6592	6468	6468	6468	6468	6468	6468	6468	6468	6468	6592	6592	6592	6468	6468	6468	6468	6468	6468	6468	6468	6468	6592	6468	6592	6592	6592	6468	6592	6468	6592	6592	6592	6468	6468	6468	6468	6468	4192	4192	4243	4243	4243	4192	4192	4192	4192	4243	4192	4192	4192	4192	4192	4192	4192	4192	4192	4192	4142	4142	4142	4142	4142	4142	4142	4142	4142	4192	4142	4142	4142	4142	4142	4142	4142	4142	4142	4142	4142	4142	4192	4192	4142	4142	4142	4142	4142	4142	4142	4142	4142	4142	4142	4142	4142	4142	4142	4192	4192	4243	4296	4296	4296	4296	4296	4296	4296	4296	4296	4296	4296	4296	4296	4296	4296	4296	4296	4296	4296	0	0	0	0	0	0	0	0	0	0	6592	6720	6592	6592	6592	6592	6592	6720	6592	6592	6592	6720	6720	6720	6720	6592	6720	6720	6592	6592	6592	6592	6592	6592	6468	6468	6468	6468	6468	0	0	0	0	0	0	0	0	0	0	0	0	0	0	0	0	0	0	0	0	0	0	0	0	0	0	0	0	0	0	0	0	0	9489	8767	8767	8550	8550	8550	8343	8343	8343	8343	8343	8343	8550	8550	8550	8550	5719	5719	5719	5719	5719	5719	5719	5719	5719	5719	5719	5719	5719	5719	5719	5719	5719	5815	5815	5915	5915	0	0	2869	2869	2845	2845	2845	2845	2822	2822	2822	2799	2799	2777	2754	2733	2733	2733	2733	2733	0	0	0	0	0	0	0	0	0	0	0	0	0	0	0	0	0	2327	2327	2327	2327	2327	2327	2312	2297	2281	2281	2281	2266	2252	2237	2237	2237	0	0	0	0	2181	2181	2181	2167	2167	2167	2167	2194	2181	2181	2181	2208	2208	2208	2208	2194	2194	2194	2194	2181	2194	2181	2181	2181	2167	2167	0	0	0	4406	4142	4142	4142	4093	4045	4045	3998	3952	3952	3952	3952	3952	2376	2376	2359	2359	2343	2343	2312	2312	2297	2297	2281	2281	2281	2281	2281	2281	2281	2266	2281	2266	2266	2237	2237	2252	2237	2237	2266	2281	2266	2266	0	0	0	0	0	0	0	0	0	0	0	0	0	0	0	0	0	0	0	0	0	0	0	0	0	0	0	0	0	0	0	0	0	0	0	0	0
0	0	0	0	0	0	0	0	0	1287	1287	1287	1287	1291	1301	1306	1316	1316	1316	1311	1311	1311	1316	1321	1321	1321	1363	1363	1363	1363	1379	0	0	0	0	0	0	0	1390	1390	0	0	0	0	0	0	0	0	0	0	1363	1368	1363	1363	1363	1363	1363	1363	1363	1363	0	0	0	0	0	0	1385	1385	1379	1385	1390	1390	1390	1390	1396	1402	1402	1407	1407	1407	0	0	1431	1437	1437	1437	1437	1437	1437	1437	1455	1455	1461	1449	1455	1461	1461	1467	1519	1486	1486	1525	1525	1532	1539	1539	1560	1567	1567	1574	1574	1589	1596	1596	1596	1603	1596	1596	1596	0	0	0	0	0	0	0	0	0	0	0	0	0	0	0	0	0	0	0	0	0	0	0	0	0	0	0	0	0	0	0	0	0	0	0	0	0	0	0	0	0	0	0	0	0	0	6468	6468	6592	6592	6592	6592	6592	6592	6592	6592	6592	6592	6592	6592	6468	6468	6468	6468	6468	6592	6468	6468	6592	0	0	0	0	2917	2869	2869	2845	2845	2845	2845	2845	2845	2845	2869	2869	2893	2893	2917	2967	2967	0	0	6592	6592	6468	6592	6592	6592	6468	6468	6592	6592	6592	6592	6592	6592	6592	6592	6592	6468	6468	6468	6468	6468	6468	6468	6468	6468	6592	6592	6592	6592	6592	6592	6592	6592	6468	6468	6468	6468	6468	6468	6468	6468	6468	6468	6468	6592	6592	6592	6592	6592	6592	6592	6468	6468	6468	6468	6468	6468	6468	6592	6592	6592	6468	6468	6592	6592	6592	6468	6468	6468	6468	6468	6468	4192	4192	4243	4243	4243	4192	4192	4192	4192	4192	4192	4192	4192	4192	4192	4192	4192	4192	4192	4192	4142	4142	4142	4142	4142	4142	4093	4093	4093	4142	4142	4192	4142	4142	4142	4142	4142	4142	4142	4142	4142	4142	4142	4142	4142	4142	4142	4142	4142	4142	4142	4142	4142	4142	4142	4142	4142	4142	4142	4142	4192	4192	4296	4296	4296	4296	4296	4296	4296	4296	4296	4296	4296	4296	4296	4296	4296	4296	4243	4243	0	0	0	0	0	0	0	0	0	0	0	6592	6720	6720	6720	6720	6592	6592	6720	6592	6720	6720	6720	6720	6720	6720	6592	6720	6720	6592	6592	6592	6592	6592	6592	6592	6468	6468	6592	6592	0	0	0	0	0	0	0	0	0	0	0	0	0	0	0	0	0	0	0	0	0	0	0	0	0	0	0	0	0	0	0	0	0	9489	9235	8767	8767	8550	8550	8343	8343	8343	8343	8343	8550	8550	8550	8550	8550	5626	5626	5719	5719	5719	5719	5719	5719	5815	5719	5719	5719	5719	5719	5719	5719	5719	5719	5815	5815	5915	0	0	2893	2869	2869	2869	2845	2845	2754	2799	2799	2799	2799	2777	2754	2754	2777	2754	2733	2733	2733	2733	2733	0	0	0	0	0	0	0	0	0	0	0	0	0	0	2327	2327	2327	2327	2327	2327	2312	2312	2297	2281	2281	2266	2252	2237	2223	2223	2223	0	0	0	2194	2194	2194	2194	2194	2194	2194	2194	2194	2181	2194	2194	2208	2208	2194	2194	2194	2181	2181	2181	2181	2181	2181	2167	2167	2167	2153	2153	2153	4406	4142	4192	4192	4093	4093	4045	3998	3952	3952	3952	3952	3952	2376	2376	2359	2359	2343	2343	2327	2312	2312	2297	2281	2281	2281	2297	2297	2297	2297	2281	2281	2281	2297	2312	2312	2312	2281	2266	2297	2297	2281	2281	0	0	0	0	0	0	0	0	0	0	0	0	0	0	0	0	0	0	0	0	0	0	0	0	0	0	0	0	0	0	0	0	0	0	0	0	0
