0	0	0	0	0	0	0	0	0	0	0	1282	1282	1282	1287	1291	1291	1291	0	0	0	0	0	0	0	0	0	0	0	0	0	0	0	0	0	0	0	0	0	0	0	0	0	0	0	0	0	0	0	0	0	0	0	0	0	0	0	0	0	0	0	0	0	0	0	0	0	0	0	0	0	0	0	0	0	0	0	0	0	0	0	0	0	0	0	0	0	0	0	0	0	0	0	0	0	0	0	0	0	0	0	0	0	0	0	0	0	0	0	0	0	0	0	0	0	0	0	0	0	0	0	0	0	0	0	0	0	0	0	0	0	0	0	0	0	0	0	0	0	0	0	0	0	0	0	0	0	0	0	0	0	0	0	0	0	0	2754	2711	2711	2711	2711	2690	2690	2690	2690	2690	2690	2690	2690	2690	2669	2669	2669	2669	2669	2669	2690	2690	2711	2733	2777	2777	2777	2777	2777	2777	2777	2777	2777	2777	2754	2754	2754	2754	2754	2754	2754	2777	2777	2777	2777	2777	2799	2845	2845	2845	2845	2869	2869	2893	2917	2917	2942	0	0	0	0	0	0	0	0	0	0	0	0	0	0	0	4045	4045	4093	4093	4093	4093	4296	4350	4463	4463	4463	4463	4463	4463	4463	0	0	0	0	0	0	0	0	0	0	0	0	0	0	0	0	0	0	0	0	0	0	0	0	0	0	0	0	0	0	0	0	0	0	0	0	0	0	0	0	0	0	0	0	0	0	0	0	0	0	0	0	4045	3998	3998	3998	3998	3952	3907	3952	3952	3952	3952	3952	3952	3952	3952	3952	3952	3998	4045	4045	4045	4045	4045	4045	5202	5125	5050	5050	5050	5050	4045	4045	4045	4045	4045	3998	3998	3998	3998	3952	3952	3952	3952	3952	3952	3952	3952	3952	3952	3952	3952	3998	3998	3998	3998	3998	3998	5282	5448	5719	5719	5719	5815	5815	5815	5815	5815	5815	5815	5815	5815	5815	5815	5815	5815	5915	5815	5815	5815	5915	5915	5915	6124	6124	6235	6349	6349	6468	6468	6468	6468	6468	6468	6468	6468	6468	6349	6349	6468	6592	6592	6592	6592	6592	6592	6468	6468	6468	6468	6592	8767	8767	8767	8550	8343	8343	8343	8343	8146	8146	7959	7959	7959	7779	7779	7779	7779	7608	7779	7779	7779	7779	7779	7779	7959	7959	7959	7959	7779	7959	7779	7779	7779	7779	7779	7959	7959	8146	8146	8146	8550	8550	0	0	0	0	0	0	0	0	0	0	0	0	0	0	4243	4296	4350	4350	4406	4406	4406	4350	4406	4406	4406	0	0	0	0	0	0	0	0	0	0	0	0	0	0	0	0	0	0	0	0	0	0	0	0	0	0	0	0	0	0	0	0	0	0	0	0	0	0	0	0	0	0	0	0	2327	2343	2327	2327	2327	2312	2297	2297	2297	2297	2297	2297	2312	2312	2312	2327	2327	2327	2327	2312	2312	2297	2281	2281	2281	2281	2297	2297	2312	2312	2327	2343	2327	2343	2343	2327	2327	0	0	0	0	0	0	0	0	0	0	0	0	0	0	0	0	0	0	0	0	2327	2312	2312	0	0	0	0	0	0	0	0	0	0	0	0	0	0	0	0	0	0	0	0	0	0	3216	3216	3216	3216	3216	3186	3186	3186	0	0	0	0	0	0	0	0	0	0	0	0	0	0	0	0	0	0	0	0	0	0	0	0	0	0	0	0	0	0	0	0	0	0
0	0	0	0	0	0	0	0	0	0	0	1282	1282	1282	1287	1291	1291	1291	0	0	0	0	0	0	0	0	0	0	0	0	0	0	0	0	0	0	0	0	0	0	0	0	0	0	0	0	0	0	0	0	0	0	0	0	0	0	0	0	0	0	0	0	0	0	0	0	0	0	0	0	0	0	0	0	0	0	0	0	0	0	0	0	0	0	0	0	0	0	0	0	0	0	0	0	0	0	0	0	0	0	0	0	0	0	0	0	0	0	0	0	0	0	0	0	0	0	0	0	0	0	0	0	0	0	0	0	0	0	0	0	0	0	0	0	0	0	0	0	0	0	0	0	0	0	0	0	0	0	0	0	0	0	0	0	0	0	2733	2690	2690	2690	2690	2690	2690	2690	2690	2690	2690	2690	2690	2690	2669	2669	2669	2669	2669	2669	2669	2690	2733	2754	2754	2777	2777	2777	2777	2777	2777	2777	2777	2777	2754	2754	2754	2754	2777	2777	2777	2777	2777	2777	2777	2799	2799	2845	2845	2845	2845	2869	2869	2893	2893	2893	0	0	0	0	0	0	0	0	0	0	0	0	0	0	0	3998	4045	4045	4093	4093	4093	4093	4192	4296	4296	4463	4463	4463	4463	4463	4463	4463	0	0	0	0	0	0	0	0	0	0	0	0	0	0	0	0	0	0	0	0	0	0	0	0	0	0	0	0	0	0	0	0	0	0	0	0	0	0	0	0	0	0	0	0	0	0	0	0	0	0	0	3998	3998	3998	3998	4045	3998	3998	3952	3952	3998	3952	3952	3952	3952	3998	3998	3998	3998	4045	4045	4045	4045	4045	5282	5125	5125	5125	5050	4977	4977	4093	4093	4093	4093	4045	4045	4045	3998	3998	3998	3998	3952	3952	3952	3952	3952	3952	3952	3952	3952	3998	3998	4093	3998	3998	3998	5282	5282	5448	5719	5719	5719	5719	5815	5815	5815	5815	5815	5815	5915	5815	5815	5815	5815	5815	5915	5815	5815	5815	5915	5915	6018	6124	6235	6235	6349	6468	6468	6592	6592	6592	6468	6468	6468	6468	6468	6349	6349	6592	6592	6592	6468	6468	6592	6468	6468	6468	6468	6468	6592	6720	8767	8767	8343	8343	8343	8343	8343	8343	8146	8146	7959	7959	7959	7779	7779	7779	7608	7608	7779	7779	7779	7779	7779	7959	7959	7959	7779	7779	7779	7779	7779	7779	7779	7779	7959	7959	8146	8146	8146	8343	8343	0	0	0	0	0	0	0	0	0	0	0	0	0	0	4243	4296	4350	4350	4463	4406	4406	4406	4406	4406	4463	4463	0	0	0	0	0	0	0	0	0	0	0	0	0	0	0	0	0	0	0	0	0	0	0	0	0	0	0	0	0	0	0	0	0	0	0	0	0	0	0	0	0	0	0	0	2343	2327	2327	2312	2312	2312	2297	2297	2297	2297	2297	2312	2312	2312	2327	2327	2327	2327	2312	2312	2297	2281	2281	2297	2281	2297	2297	2297	2312	2327	2327	2343	2327	2343	2327	2327	0	0	0	0	0	0	0	0	0	0	0	0	0	0	0	0	0	0	0	0	2343	2327	2343	2343	0	0	0	0	0	0	0	0	0	0	0	0	0	3186	3157	3157	3157	3186	3186	3216	3216	3216	3216	3216	3186	3186	3186	3186	3186	0	0	0	0	0	0	0	0	0	0	0	0	0	0	0	0	0	0	0	0	0	0	0	0	0	0	0	0	0	0	0	0	0	0
0	0	0	0	0	0	0	0	0	0	0	1282	1282	1282	1287	1287	1291	1291	0	0	0	0	0	0	0	0	0	0	0	0	0	0	0	0	0	0	0	0	0	0	0	0	0	0	0	0	0	0	0	0	0	0	0	0	0	0	0	0	0	0	0	0	0	0	2039	2039	0	0	0	0	0	0	0	0	0	0	0	0	0	0	0	0	0	0	0	0	0	0	0	0	0	0	0	0	0	0	0	0	0	0	0	0	0	0	0	0	0	0	0	0	0	0	0	0	0	0	0	0	0	0	0	0	0	0	0	0	0	0	0	0	0	0	0	0	0	0	0	0	0	0	0	0	0	0	0	0	0	0	0	0	0	0	0	2733	2711	2711	2690	2690	2690	2690	2669	2690	2690	2690	2690	2690	2690	2690	2690	2690	2690	2669	2669	2669	2669	2669	2669	2711	2733	2754	2754	2777	2777	2777	2777	2777	2777	2777	2777	2754	2754	2754	2754	2777	2777	2777	2777	2777	2777	2777	2777	2777	2799	2822	2822	2845	2845	2845	2845	2845	2869	2869	0	0	0	0	0	0	0	0	0	0	0	0	0	0	3907	3952	3998	4045	4045	4093	4093	4093	4192	4243	4296	4406	4463	4463	4463	4521	4463	4463	0	0	0	0	0	0	0	0	0	0	0	0	0	0	0	0	0	0	0	0	0	0	0	0	0	0	0	0	0	0	0	0	0	0	0	0	0	0	0	0	0	0	0	0	0	0	0	0	0	0	0	3998	3998	3998	3998	4045	3998	3998	3998	3998	3998	3998	3998	3998	3998	3998	3998	3998	3998	4045	4045	4045	4045	4045	5282	5125	5125	5050	5050	4977	4838	4142	4142	4093	4093	4093	4093	4093	4045	4045	4045	4045	3998	3998	3952	3952	3952	3952	3952	3952	3998	3998	3998	4093	4045	4045	4045	5282	5282	5535	5719	5719	5815	5815	5815	5815	5815	5815	5815	5815	5915	5815	5815	5815	5815	5815	5915	5815	5815	5815	5815	5915	6018	6124	6235	6349	6468	6468	6468	6468	6468	6468	6468	6468	6468	6468	6468	6349	6349	6349	6592	6592	6468	6349	6468	6468	6468	6468	6349	6468	6468	6720	8767	8767	8343	8343	8343	8343	8343	8343	8146	8146	7959	7959	7959	7779	7779	7779	7779	7779	7779	7779	7779	7779	7779	7779	7779	7779	7779	7779	7959	7779	7779	7779	7779	7779	7959	7959	8146	8343	8343	8343	8146	8146	0	0	0	0	0	0	0	0	0	0	0	4045	3952	3952	4296	4350	4350	4521	4406	4406	4350	4406	4406	4406	4463	0	0	0	0	0	0	0	0	0	0	0	0	0	0	0	0	0	0	0	0	0	0	0	0	0	0	0	0	0	0	0	0	0	0	0	0	0	0	0	0	0	0	0	0	0	2343	2327	2327	2312	2312	2297	2297	2312	2312	2312	2312	2312	2312	2312	2327	2327	2327	2327	2327	2327	2312	2312	2312	2312	2297	2297	2312	2327	2327	2327	2343	2343	2327	2327	2327	0	0	0	0	0	0	0	0	0	0	0	0	0	0	0	0	0	0	0	0	2343	2343	2343	2327	2327	2327	2312	2312	0	0	0	0	0	0	0	0	0	3186	3157	3157	3157	3186	3186	3216	3246	3246	3246	3216	3216	3216	3216	3186	3186	0	0	0	0	0	0	0	0	0	0	0	0	0	0	0	0	0	0	0	0	0	0	0	0	0	0	0	0	0	0	0	0	0	0
0	0	0	0	0	0	0	0	0	0	0	1282	1282	1282	1287	1291	1291	1321	1321	0	0	0	0	0	0	0	0	0	0	0	0	0	0	0	0	0	0	0	0	0	0	0	0	0	0	0	0	0	0	0	0	0	0	0	0	0	0	0	0	0	0	0	0	0	2051	2039	2039	2039	2039	2039	0	0	0	0	0	0	0	0	0	0	0	0	0	0	0	0	0	0	0	0	0	0	0	0	0	0	0	0	0	0	0	0	0	0	0	0	0	0	0	0	0	0	0	0	0	0	0	0	0	0	0	0	0	0	0	0	0	0	0	0	0	0	0	0	0	0	0	0	0	0	0	0	0	0	0	0	0	0	0	0	0	0	0	2711	2711	2690	2690	2690	2690	2690	2690	2690	2690	2690	2690	2690	2690	2690	2690	2690	2669	2669	2669	2669	2669	2669	2669	2711	2733	2733	2754	2754	2777	2777	2777	2777	2777	2777	2777	2754	2754	2777	2777	2777	2777	2777	2777	2799	2799	2777	2799	2799	2822	2822	2822	2822	2822	2845	2845	2845	2845	2845	0	0	0	0	0	3101	3101	3073	3073	3073	0	0	0	0	3907	3952	3998	4045	4045	4093	4093	4093	4192	4296	4350	4463	4463	4463	4463	4521	4463	4463	0	0	0	0	0	0	0	0	0	0	0	0	0	0	0	0	0	0	0	0	0	0	0	0	0	0	0	0	0	0	0	0	0	0	0	0	0	0	0	0	0	0	0	0	0	0	0	0	0	0	0	3952	3998	3998	3998	4045	4045	4045	4045	4045	4045	4045	4045	3998	3998	4045	4045	4045	4045	4045	4045	4045	4045	4045	5282	5050	5125	5050	5050	4977	4906	4142	4142	4142	4142	4093	4093	4093	4045	4045	4045	4045	3998	3998	3998	3998	3998	3998	3952	3952	3998	3998	4045	4045	5050	5050	5125	5125	5202	5535	5719	5719	5815	5719	5815	5815	5815	5815	5815	5815	5815	5815	5815	5815	5815	5815	5815	5815	5815	5815	5815	5815	5915	6018	6235	6468	6468	6468	6468	6468	6468	6468	6468	6468	6468	6468	6468	6349	6349	6349	6592	6592	6592	6468	6468	6592	6468	6349	6349	6468	6468	6592	8767	8550	8343	8343	8343	8343	8343	8343	8146	8146	7959	7959	7959	7959	7959	7779	7779	7779	7779	7779	7779	7779	7779	7779	7779	7779	7779	7779	7779	7779	7779	7779	7779	7779	7959	7959	8146	8146	8146	8343	8146	7959	7959	0	0	0	0	0	0	0	0	0	0	4045	3998	3998	4296	4350	4350	4406	4350	4406	4350	4350	4406	4406	4406	0	0	0	0	0	0	0	0	0	0	0	0	0	0	0	0	0	0	0	0	0	0	0	0	0	0	0	0	0	0	0	0	0	0	0	0	0	0	0	0	0	0	0	0	0	2343	2327	2327	2312	2312	2297	2297	2312	2312	2312	2312	2312	2312	2312	2327	2327	2327	2327	2327	2312	2327	2327	2312	2312	2312	2312	2327	2327	2343	2343	2343	2343	2327	2327	2327	2327	2312	2312	0	0	0	0	0	0	0	0	0	0	0	0	0	0	0	0	0	2343	2343	2343	2327	2327	2327	2312	2312	0	0	0	0	0	0	0	0	0	3186	3157	3157	3157	3216	3216	3216	3216	3246	3246	3246	3216	3216	3216	3216	3186	0	0	0	0	0	0	0	0	0	0	0	0	0	0	0	0	0	0	0	0	0	0	0	0	0	0	0	0	0	0	0	0	0	0
0	0	0	0	0	0	0	0	0	0	0	1282	1282	1287	1291	1291	1296	1321	1321	0	0	0	0	0	0	0	0	0	0	0	0	0	0	0	0	0	0	0	0	0	0	0	0	0	0	0	0	0	0	0	0	0	0	0	0	0	0	0	0	0	0	0	0	0	2051	2051	2039	2039	2039	2015	2015	2015	0	0	0	0	0	0	0	0	0	0	0	0	0	0	0	0	0	0	0	0	0	0	0	0	0	0	0	0	0	0	0	0	0	0	0	0	0	0	0	0	0	0	0	0	0	0	0	0	0	0	0	0	0	0	0	0	0	0	0	0	0	0	0	0	0	0	0	0	0	0	0	0	0	0	0	0	0	0	0	0	0	2711	2690	2690	2690	2690	2690	2690	2690	2690	2690	2690	2690	2690	2690	2690	2690	2690	2669	2669	2669	2669	2669	2669	2669	2690	2690	2733	2754	2754	2777	2777	2777	2777	2799	2777	2777	2777	2777	2777	2777	2777	2799	2799	2799	2799	2799	2777	2799	2799	2799	2822	2822	2822	2822	2822	2822	2822	2845	2845	2845	0	0	0	3101	3101	3101	3073	3073	3073	3073	0	0	0	3952	3952	3998	4045	4045	4093	4093	4093	4192	4243	4296	4406	4463	4521	4463	4521	4463	4463	0	0	0	0	0	0	0	0	0	0	0	0	0	0	0	0	0	0	0	0	0	0	0	0	0	0	0	0	0	0	0	0	0	0	0	0	0	0	0	0	0	0	0	0	0	0	0	0	0	0	0	3998	3998	3998	4045	4045	4045	4045	4045	4045	4045	4045	4045	3998	3998	4045	4045	4045	4045	4045	4045	4045	4045	4045	5050	5050	5125	5050	5050	4977	4977	4977	4142	4142	4142	4093	4093	4093	4093	4045	4045	4045	4045	4045	3998	3998	4045	3998	3998	3998	4045	4045	4045	4045	5050	5050	5125	5125	5202	5626	5719	5719	5815	5815	5815	5815	5815	5815	5815	5815	5815	5815	5815	5815	5815	5815	5815	5815	5815	5815	5815	5815	5815	6124	6349	6468	6468	6468	6592	6468	6468	6468	6468	6468	6468	6468	6468	6349	6349	6349	6468	6468	6592	6468	6468	6468	6468	6349	6349	6349	6349	6349	8343	8767	8343	8343	8343	8343	8146	8146	8146	7959	7959	7959	7959	7779	7779	7779	7779	7779	7779	7779	7779	7779	7779	7779	7779	7779	7779	7779	7779	7779	7779	7779	7779	7959	7959	7959	8146	8146	8146	8146	7959	7959	7959	0	0	0	0	0	0	0	0	0	0	4045	3998	3998	4296	4350	4406	4406	4406	4406	4350	4243	4192	4192	4192	4192	0	0	0	0	0	0	0	0	0	0	0	0	0	0	0	0	0	0	0	0	0	0	0	0	0	0	0	0	0	0	0	0	0	0	0	0	0	0	0	0	0	0	0	0	0	2327	2327	2312	2312	2312	2297	2312	2312	2312	2312	2312	2312	2327	2327	2327	2327	2327	2327	2312	2312	2312	2312	2312	2312	2312	2327	2327	2343	2343	2343	2343	2327	2327	2327	2312	2312	2312	2312	2312	0	0	0	0	0	3216	3216	3216	3216	3246	3216	3216	0	0	0	2343	2343	2343	2327	2327	2312	2312	2312	2312	2312	0	0	0	0	0	0	3216	3186	3186	3186	3186	3216	3216	3216	3216	3216	3216	3216	3186	3186	3186	3216	0	0	0	0	0	0	0	0	0	0	0	0	0	0	0	0	0	0	0	0	0	0	0	0	0	0	0	0	0	0	0	0	0	0	0
0	0	0	0	0	0	0	0	0	0	0	1287	1287	1291	1296	1296	1316	1321	1331	1331	0	0	0	0	0	0	0	0	0	0	0	0	0	0	0	0	0	0	0	0	0	0	0	0	0	0	0	0	0	0	0	0	0	0	0	0	0	0	0	0	0	0	0	0	2063	2051	2051	2039	2039	2039	2039	2027	2027	2027	0	0	0	0	0	0	0	0	0	0	0	0	0	0	0	0	0	0	0	0	0	0	0	0	0	0	0	0	0	0	0	0	0	0	0	0	0	0	0	0	0	0	0	0	0	0	0	0	0	0	0	0	0	0	0	0	0	0	0	0	0	0	0	0	0	0	0	0	0	0	0	0	0	0	0	0	0	0	0	2711	2690	2690	2690	2690	2690	2690	2690	2669	2690	2690	2690	2690	2690	2690	2690	2690	2690	2669	2669	2669	2669	2669	2669	2690	2733	2733	2754	2754	2777	2777	2777	2777	2777	2777	2777	2777	2777	2777	2777	2777	2799	2799	2799	2799	2799	2777	2799	2799	2799	2799	2799	2799	2822	2822	2822	2845	2845	2845	2869	2869	0	0	3073	3073	3073	3073	3073	3073	3073	3073	0	0	3907	3907	3952	4045	4045	4093	4093	4093	4142	4243	4296	4406	4521	4521	4463	4521	4521	4463	0	0	0	0	0	0	0	0	0	0	0	0	0	0	0	0	0	0	0	0	0	0	0	0	0	0	0	0	0	0	0	0	0	0	0	0	0	0	0	0	0	0	0	0	0	0	0	0	0	0	0	3952	3998	4045	4045	4093	4093	4093	4093	4093	4045	4045	4045	4045	4045	4045	4045	4045	4045	4045	4045	4045	4045	4045	5050	5050	5125	5050	5050	5050	5050	5050	4192	4192	4142	4142	4142	4093	4093	4093	4093	4093	4093	4045	4045	4045	4045	4045	4045	4045	4045	4093	4093	5050	5050	5050	5125	5125	5202	5626	5719	5815	5815	5719	5719	5815	5815	5815	5815	5815	5815	5815	5815	5815	5815	5815	5815	5815	5815	5815	5815	5815	5915	6018	6592	6592	6592	6468	6468	6468	6468	6468	6468	6468	6468	6468	6468	6349	6349	6349	6468	6468	6468	6468	6468	6468	6468	6468	6349	6349	6349	8767	8550	8343	8343	8343	8343	8343	8146	8146	8146	8146	7959	7959	7959	7959	7779	7779	7779	7779	7779	7779	7779	7779	7779	7779	7779	7779	7779	7779	7779	7779	7779	7779	7779	7959	7959	7959	8146	8146	8146	8146	8146	7959	7959	0	0	0	0	0	0	0	0	4093	4045	4093	4045	4045	4243	4296	4350	4350	4350	4350	4350	4243	4243	4243	4192	4192	0	0	0	0	0	0	0	0	0	0	0	0	0	0	0	0	0	0	0	0	0	0	0	0	0	0	0	0	0	0	0	0	0	0	0	0	0	0	0	0	0	0	0	0	0	0	0	2312	2312	2312	2297	2297	2297	2312	2312	2312	2312	2312	2312	2327	2327	2327	2327	2327	2312	2312	2312	2312	2312	2312	2312	2327	2343	2343	2327	2343	2327	2312	2312	2312	2312	2312	2327	2327	0	0	0	0	3246	3216	3216	3216	3216	3246	3216	3216	0	0	0	0	2343	2343	2327	2327	2327	2312	2297	2297	2297	2297	0	0	0	0	0	3216	3186	3186	3186	3186	3186	3186	3216	3216	3216	3216	3216	3186	3186	3186	3186	0	0	0	0	0	0	0	0	0	0	0	0	0	0	0	0	0	0	0	0	0	0	0	0	0	0	0	0	0	0	0	0	0	0	0
0	0	0	0	0	0	0	0	0	0	0	1287	1287	1291	1301	1301	1311	1321	1321	1326	0	0	0	0	0	0	0	0	0	0	0	0	0	0	0	0	0	0	0	0	0	0	0	0	0	0	0	0	0	0	0	0	0	0	0	0	0	0	0	0	0	0	0	0	2063	2051	2051	2039	2039	2039	2039	2027	2027	2027	2027	0	0	0	0	0	0	0	0	0	0	0	0	0	0	0	0	0	0	0	0	0	0	0	0	0	0	0	0	0	0	0	0	0	0	0	0	0	0	0	0	0	0	0	0	0	0	0	0	0	0	0	0	0	0	0	0	0	0	0	0	0	0	0	0	0	0	0	0	0	0	0	0	0	0	0	0	0	2690	2690	2690	2690	2690	2690	2690	2690	2690	2669	2690	2690	2690	2690	2690	2690	2690	2690	2690	2669	2669	2669	2669	2669	2669	2690	2733	2754	2754	2777	2777	2777	2777	2777	2799	2777	2799	2777	2777	2777	2799	2799	2822	2799	2799	2799	2777	2777	2777	2799	2799	2799	2799	2799	2799	2799	2799	2799	2845	2845	2869	2869	0	3073	3073	3073	3073	3073	3046	3046	3046	3046	3046	3864	3864	3907	3952	3998	4045	4093	4093	4093	4142	4192	4350	4463	4521	4521	4463	4463	4521	0	0	0	0	0	0	0	0	0	0	0	0	6468	6349	6349	6349	6349	6235	6235	6124	6124	0	0	0	0	0	0	0	0	0	0	0	0	0	0	0	0	0	0	0	0	0	0	0	0	0	0	0	0	0	0	0	3952	3952	4045	4045	4045	4093	4093	4093	4093	4093	4093	4093	4093	4093	4093	4093	4093	4045	4045	4045	4045	4045	5050	5050	5050	5050	5050	5050	4977	4977	5050	5050	4192	4192	4142	4142	4142	4093	4093	4093	4093	4093	4093	4093	4093	4093	4093	4093	4093	4093	4093	5125	5050	5050	5050	5125	5125	5125	5125	5719	5719	5719	5719	5815	5815	5815	5815	5815	5815	5815	5815	5719	5815	5815	5815	5915	5915	5815	5815	5815	5815	5815	5815	6592	6592	6592	6592	6468	6468	6468	6468	6468	6468	6468	6468	6468	6349	6349	6349	6468	6468	6468	6468	6468	6468	6468	6468	6349	6349	6349	6349	8550	8343	8343	8343	8343	8146	8343	8343	8146	8146	7959	7959	7959	7959	7779	7779	7779	7779	7779	7779	7779	7779	7779	7779	7779	7779	7779	7779	7779	7779	7779	7779	7779	7959	7779	7959	8146	8146	7959	8146	7959	7959	7959	0	0	0	0	0	0	0	4045	4045	4045	4045	4045	4093	4093	4093	4406	4406	4350	4350	4350	4192	4192	4192	4192	4192	0	0	0	0	0	0	0	0	0	0	0	0	0	0	0	0	0	0	0	0	0	0	0	0	0	0	0	0	0	0	0	0	0	0	0	0	0	0	0	0	0	3216	3216	3186	3157	3186	3186	3186	3186	0	2297	2297	2297	2312	2312	2312	2312	2312	2312	2327	2327	2327	2343	2343	2327	2327	2327	3309	3309	3309	2343	2343	2343	2343	2343	2327	2327	2327	2327	2312	2312	2312	2327	2343	2343	0	0	3246	3216	3216	3216	3216	3246	3246	3216	3216	3246	3246	0	0	0	0	2327	2327	2312	2312	2297	2297	2281	2281	2281	0	0	0	0	3246	3186	3186	3186	3186	3186	3186	3186	3186	3216	3216	3216	3186	3246	3157	3186	3186	0	0	0	0	0	0	0	0	0	0	0	0	0	0	0	0	0	0	0	0	0	0	0	0	0	0	0	0	0	0	0	0	0	0
0	0	0	0	0	0	0	0	0	0	0	1291	1291	1296	1296	1301	1306	1321	1331	1331	0	0	0	0	0	0	0	0	0	0	0	0	0	0	0	0	0	0	0	0	0	0	0	0	0	0	0	0	0	0	0	0	0	0	0	0	0	0	0	0	0	0	0	0	2076	2063	2039	2039	2039	2027	2015	2015	2015	2015	2015	2003	2003	2003	0	0	0	0	0	0	0	0	0	0	0	0	0	0	0	0	0	0	0	0	0	0	0	0	0	0	0	0	0	0	0	0	0	0	0	0	0	0	0	0	0	0	0	0	0	0	0	0	0	0	0	0	0	0	0	0	0	0	0	0	0	0	0	0	0	0	0	0	0	0	0	0	0	0	2690	2690	2690	2690	2690	2690	2690	2690	2690	2669	2690	2690	2690	2690	2690	2690	2690	2690	2690	2690	2669	2669	2669	2669	2690	2690	2754	2754	2777	2777	2777	2799	2777	2777	2777	2799	2799	2777	2777	2799	2799	2799	2799	2799	2799	2799	2777	2777	2777	2777	2799	2799	2799	2799	2799	2799	2799	2799	2799	2869	2869	2869	2869	3046	3046	3073	3073	3046	3046	3046	3046	3046	3046	3907	3864	3907	3952	4045	4093	4093	4093	4093	4142	4192	4296	4463	4463	4463	4521	4521	0	0	0	0	0	0	0	0	0	0	0	0	0	6468	6349	6349	6349	6349	6235	6235	6124	6018	6018	0	0	0	0	0	0	0	0	0	0	0	0	0	0	0	0	0	0	0	0	0	0	0	0	0	0	0	0	0	0	3698	3952	4045	4045	4093	4093	4093	4093	4093	4093	4093	4093	4093	4093	4093	4093	4093	4093	4093	4093	4093	4093	5125	5050	5050	5050	5050	5050	5050	5050	5050	5050	4192	4192	4142	4142	4142	4093	4093	4093	4093	4093	4093	4093	4093	4093	4093	4142	4093	4142	4142	5125	5050	5050	5050	5050	5125	5125	5626	5719	5719	5719	5719	5815	5815	5815	5815	5815	5815	5815	5815	5719	5815	5815	5815	5815	5815	5815	5815	5719	5815	5815	6720	6720	6720	6592	6592	6468	6468	6468	6468	6468	6349	6349	6468	6468	6349	6349	6349	6468	6468	6468	6468	6468	6468	6468	6468	6349	6349	6349	6235	8343	8343	8343	8146	8146	8146	8146	8146	8146	8146	7959	7959	7959	7959	7779	7779	7779	7779	7779	7779	7779	7779	7779	7779	7779	7779	7779	7779	7779	7779	7779	7779	7779	7779	7959	7959	7959	8146	8146	8146	8146	7779	7779	0	0	0	0	0	0	0	4045	4045	4045	4093	4045	4142	4142	4463	4463	4406	4350	4350	4296	4192	4192	4192	4192	0	0	0	0	0	0	0	0	0	0	0	0	0	0	0	0	0	0	0	0	0	0	0	0	0	0	0	0	0	0	0	0	0	0	0	0	0	0	0	0	0	0	3246	3216	3186	3157	3186	3186	3186	3186	0	0	0	0	0	0	0	0	0	0	2327	2327	3341	3309	3309	3277	3277	3277	3309	3309	3309	2266	2343	2343	2343	2327	2327	2327	2312	2327	2327	2297	2312	2312	2327	2327	0	0	3216	3216	3216	3216	3216	3216	3216	3216	3216	3216	3246	0	0	0	0	2312	2312	2312	2312	2297	2297	2281	2281	2281	2297	2297	0	0	3246	3186	3186	3186	3186	3186	3186	3186	3186	3216	3216	3216	3186	3216	3186	3186	3186	0	0	0	0	0	0	0	0	0	0	0	0	0	0	0	0	0	0	0	0	0	0	0	0	0	0	0	0	0	0	0	0	0	0
0	0	0	0	0	0	0	0	0	0	0	1291	1291	1296	1296	1301	1306	1306	1331	1331	0	0	0	0	0	0	0	0	0	0	0	0	0	0	0	0	0	0	0	0	0	0	0	0	0	0	0	0	0	0	0	0	0	0	0	0	0	0	0	0	0	0	0	2076	2076	2063	2027	2027	2027	2027	2015	2015	2015	2015	2015	2015	2015	2003	0	0	0	0	0	0	0	0	0	0	0	0	0	0	0	0	0	0	0	0	0	0	0	0	0	0	0	0	0	0	0	0	0	0	0	0	0	0	0	0	0	0	0	0	0	0	0	0	0	0	0	0	0	0	0	0	0	0	0	0	0	0	0	0	0	0	0	0	0	0	0	0	0	2690	2690	2690	2690	2690	2690	2690	2690	2690	2690	2669	2669	2669	2690	2669	2690	2690	2690	2690	2690	2690	2690	2690	2669	2690	2690	2711	2733	2754	2754	2754	2799	2799	2777	2777	2777	2799	2799	2799	2799	2799	2799	2799	2799	2799	2799	2799	2777	2777	2777	2777	2799	2799	2799	2799	2799	2799	2799	2799	2777	2799	2869	2869	2869	3019	3019	3046	3046	3046	3046	3019	3019	3019	3907	3907	3907	3907	3907	3998	4045	4045	4045	4093	4142	4142	4296	4296	4463	4521	4521	4521	0	0	0	0	0	0	0	0	0	0	0	0	6468	6468	6349	6349	6349	6349	6235	6235	6124	6124	6124	0	0	0	0	0	0	0	0	0	0	0	0	0	0	0	0	0	0	0	0	0	0	0	0	0	0	0	0	0	0	3698	4045	4045	4045	4093	4093	4093	4093	4093	4093	4093	4093	4093	4093	4093	4093	4093	4093	4093	4093	4093	4093	5125	5050	5050	5050	5050	5050	5050	5050	5050	5050	4192	4192	4142	4142	4142	4093	4093	4093	4093	4093	4093	4093	4093	4142	4142	4142	4093	4093	4093	5125	5050	5050	5050	5050	5050	5125	5626	5719	5719	5815	5719	5815	5815	5815	5815	5815	5815	5815	5719	5719	5815	5815	5815	5815	5815	5815	5815	5719	5719	5719	6720	6720	6720	6592	6592	6468	6468	6468	6468	6468	6468	6468	6468	6468	6468	6468	6468	6468	6468	6468	6468	6468	6468	6468	6468	6349	6349	6349	6349	8343	8146	8146	8146	8146	8146	8146	8146	8146	8146	7959	7959	7959	7959	7779	7779	7779	7779	7779	7779	7959	7779	7779	7779	7779	7779	7779	7779	7779	7779	7779	7779	7779	7779	7959	7959	7959	8146	8146	8146	7959	7779	7779	0	0	0	0	0	0	0	4045	4045	4093	4093	4093	4142	4142	4142	4406	4350	4350	4350	4296	4296	4243	4243	4192	0	0	0	0	0	0	0	0	0	0	0	0	0	0	0	0	0	0	0	0	0	0	0	0	0	0	0	0	0	0	0	0	0	0	0	0	0	0	0	0	0	3246	3246	3216	3216	3216	3216	3186	3186	3216	3216	2917	2893	2893	2893	2893	2893	0	0	0	0	0	3341	3341	3277	3216	3216	3216	3246	3246	3309	2266	2343	2343	2343	2327	2327	2327	2327	2327	2327	2312	2312	2327	2327	2327	0	3216	3216	3216	3216	3216	3216	3216	3246	3216	3216	3216	0	0	0	0	2327	2327	2312	2312	2312	2297	2297	2281	2281	2297	2297	2297	2297	0	0	3216	3186	3216	3186	3186	3216	3216	3186	3216	3216	3216	3186	3216	3186	3186	3186	0	0	0	0	0	0	0	0	0	0	0	0	0	0	0	0	0	0	0	0	0	0	0	0	0	0	0	0	0	0	0	0	0	0
0	0	0	0	0	0	0	0	0	0	0	1291	1291	1296	1296	1301	1301	1301	0	0	0	0	0	0	0	0	0	0	0	0	0	0	0	0	0	0	0	0	0	0	0	0	0	0	0	0	0	0	0	0	0	0	0	0	0	0	0	0	0	0	0	0	2039	2051	2051	2051	2027	2027	2027	2027	2027	2015	2015	2015	2015	2003	2003	0	0	0	0	0	0	0	0	0	0	0	0	0	0	0	0	0	0	0	0	0	0	0	0	0	0	0	0	0	0	0	0	0	0	0	0	0	0	0	0	0	0	0	0	0	0	0	0	0	0	0	0	0	0	0	0	0	0	0	0	0	0	0	0	0	0	0	0	0	0	0	0	0	0	2711	2690	2690	2690	2690	2690	2690	2690	2690	2690	2669	2669	2669	2669	2669	2690	2690	2690	2690	2690	2669	2669	2690	2690	2690	2690	2711	2733	2733	2754	2754	2777	2777	2777	2777	2777	2799	2799	2799	2799	2799	2822	2799	2799	2799	2777	2777	2777	2777	2777	2777	2777	2799	2799	2799	2799	2799	2799	2799	2799	2799	2845	2845	2869	2893	3046	3046	3019	3019	3019	3019	3019	3019	3907	3907	3907	3907	3952	3952	4045	4045	4045	4093	4142	4243	4296	4406	4463	4463	4463	4521	4521	0	0	0	0	0	0	0	0	0	0	0	6468	6468	6349	6349	6349	6349	6235	6349	6235	6124	6124	0	0	0	0	0	0	0	0	0	0	0	0	0	0	0	0	0	0	0	0	0	5448	5448	5364	5364	5364	5364	5364	5364	5364	5448	5448	4093	4093	4093	4093	4093	4093	4093	4093	4093	4093	4093	4093	4093	4093	4093	4093	4093	4093	4093	4093	5125	5050	5050	5125	5050	5050	5050	5050	5050	5050	4192	4192	4142	4142	4142	4093	4093	4093	4093	4093	4093	4093	4093	4093	4142	4142	4093	4142	4093	5050	5050	5050	5050	5050	5050	5125	5626	5719	5719	5815	5815	5815	5815	5815	5815	5815	5815	5815	5719	5719	5815	5815	5815	5815	5815	5815	5815	5719	5719	5719	6720	6720	6592	6592	6468	6468	6468	6349	6349	6349	6468	6468	6468	6468	6468	6468	6468	6468	6468	6592	6468	6468	6468	6468	6468	6349	6349	6349	6349	6349	8146	8146	8146	8146	8146	8146	8146	8146	8146	7959	7959	8146	7959	7959	7959	7959	7779	7779	7779	7779	7779	7779	7779	7779	7779	7779	7779	7779	7779	7779	7779	7779	7779	7779	7959	8146	8146	8146	8146	7959	7779	7779	0	0	0	0	0	0	0	4093	4045	4093	4093	4093	4142	4142	4192	4296	4296	4296	4296	4296	4243	4243	4243	0	0	0	0	0	0	0	0	0	0	0	0	0	0	0	0	0	0	0	0	0	0	0	0	0	0	0	0	0	0	0	0	0	0	0	0	0	0	0	3475	3475	3309	3246	3246	3216	3216	3216	3216	3216	3216	3186	3186	2917	2893	2893	2893	2845	2845	0	0	0	0	0	3309	3309	3216	3216	3216	3186	3216	3216	0	0	0	0	0	0	0	2327	2327	2327	2327	2312	2312	2312	2327	2327	2327	3216	3216	3216	3216	3216	3216	3216	3216	3216	3246	3246	0	0	0	0	2327	2327	2312	2312	2297	2297	2297	2281	2281	2297	2281	2281	2281	0	0	3186	3186	3216	3216	3186	3186	3216	3186	3216	3216	3216	3186	3216	3186	3186	3186	0	0	0	0	0	0	0	0	0	0	0	0	0	0	0	0	0	0	0	0	0	0	0	0	0	0	0	0	0	0	0	0	0	0
0	0	0	0	0	0	0	0	0	0	0	1291	1296	1296	1296	1301	1296	1296	0	0	0	0	0	0	0	0	0	0	0	0	0	0	0	0	0	0	0	0	0	0	0	0	0	0	0	0	0	0	0	0	0	0	0	0	0	0	0	0	0	0	0	0	2027	2039	2039	2039	2039	2039	2027	2027	2027	2027	2027	2027	2027	2027	2003	0	0	0	0	0	0	0	0	0	0	0	0	0	0	0	0	0	0	0	0	0	0	0	0	0	0	0	0	0	0	0	0	0	0	0	0	0	0	0	0	0	0	0	0	0	0	0	0	0	0	0	0	0	0	0	0	0	0	0	0	0	0	0	0	0	0	0	0	0	0	0	0	0	0	2711	2690	2690	2690	2690	2690	2690	2690	2690	2690	2669	2690	2690	2690	2669	2690	2669	2669	2669	2669	2669	2669	2690	2669	2690	2690	2711	2711	2711	2754	2754	2777	2777	2777	2754	2777	2777	2799	2822	2799	2799	2822	2799	2799	2777	2777	2777	2777	2777	2777	2777	2777	2777	2777	2777	2799	2799	2799	2799	2799	2822	2845	2845	2869	2917	2967	2993	2967	2993	2993	2967	2967	2942	2942	3907	3907	3907	3952	3952	3998	4045	4045	4093	4192	4243	4296	4350	4463	4463	4463	4521	4521	4521	0	0	0	0	0	0	0	0	0	0	6349	6349	6349	6235	6235	6235	6235	6235	6124	6124	6124	0	0	0	0	0	0	0	0	0	0	0	0	0	0	0	0	0	0	0	0	0	5364	5364	5364	5282	5364	5364	5364	5364	5364	5448	5448	4045	4093	4093	4093	4093	4093	4093	4093	4093	4093	4093	4093	4093	4093	4093	4093	4093	4093	4093	4093	5202	5050	5050	5125	5125	5125	5050	5050	5050	4977	4192	4192	4142	4142	4093	4093	4093	4093	4093	4093	4093	4093	4093	4093	4093	4142	4093	4142	4142	5050	4977	4977	5050	5050	5050	5050	5719	5719	5719	5815	5815	5815	5815	5815	5815	5815	5815	5815	5815	5719	5815	5815	5815	5815	5815	5815	5815	5815	5815	7137	6853	6720	6592	6592	6468	6468	6468	6349	6349	6468	6468	6468	6468	6468	6592	6592	6592	6592	6468	6592	6468	6468	6468	6349	6349	6349	6349	6349	6349	6349	8146	8146	8146	8146	8146	8146	8146	8146	8146	8146	7959	8146	7959	7959	7959	7959	7779	7779	7779	7959	7779	7779	7779	7779	7779	7779	7779	7779	7779	7779	7779	7779	7779	7779	7959	7959	8146	8146	8146	7959	7959	7779	0	0	0	0	0	0	0	4093	4045	4093	4093	4093	4142	4142	4142	4296	4296	4243	4243	4243	4243	4243	4243	0	0	0	0	0	0	0	0	0	0	0	0	0	0	0	0	0	0	0	0	0	0	0	0	0	0	0	0	0	0	0	0	0	0	0	0	0	0	3546	3475	3475	3309	3246	3246	3216	3216	3186	3186	3186	3186	3186	2917	2917	2893	2893	2869	2869	2845	2845	0	0	0	0	3309	3216	3216	3216	3186	3186	3186	3186	0	0	0	0	0	0	0	2327	2327	2327	2327	2327	2327	2327	2327	2327	2327	0	3246	3246	3246	3216	3216	3216	3216	3216	3216	3216	0	0	0	0	2327	2327	2327	2312	2312	2297	2297	2297	2281	2297	2281	2281	2281	0	3216	3186	3186	3216	3216	3186	3186	3186	3216	3186	3186	3186	3186	3186	3186	3157	3157	0	0	0	0	0	0	0	0	0	0	0	0	0	0	0	0	0	0	0	0	0	0	0	0	0	0	0	0	0	0	0	0	0	0
0	0	0	0	0	0	0	0	0	0	0	1291	1291	1296	1291	1296	1296	1296	0	0	0	0	0	0	0	0	0	0	0	0	0	0	0	0	0	0	0	0	0	0	0	0	0	0	0	0	0	0	0	0	0	0	0	0	0	0	0	0	0	0	2027	2015	2015	2027	2039	2039	2027	2027	2027	2039	2027	2015	2027	2015	2015	2027	0	0	0	0	0	0	0	0	0	0	0	0	0	0	0	0	0	0	0	0	0	0	0	0	0	0	0	0	0	0	0	0	0	0	0	0	0	0	0	0	0	0	0	0	0	0	0	0	0	0	0	0	0	0	0	0	0	0	0	0	0	0	0	0	0	0	0	0	0	0	0	0	0	0	2690	2711	2690	2690	2690	2690	2690	2690	2690	2669	2690	2690	2690	2690	2669	2669	2669	2669	2690	2690	2690	2669	2690	2669	2690	2690	2690	2690	2733	2733	2754	2754	2754	2754	2754	2754	2733	2754	2754	2822	2799	2822	2822	2799	2799	2777	2777	2777	2777	2777	2777	2777	2777	2777	2777	2777	2799	2799	2799	2799	2799	2822	2845	2845	2869	2893	2967	2967	2967	2967	2967	2967	2967	2967	3907	3907	3907	3952	3952	3952	3998	4045	4045	4093	4296	4243	4243	4406	4406	4463	4463	4463	4521	4521	0	0	0	0	0	0	0	0	0	0	6349	6349	6235	6235	6124	6235	6235	6235	6124	6124	6124	0	0	0	0	0	0	0	0	0	0	0	0	0	0	0	0	0	0	0	0	5364	5282	5282	5282	5282	5364	5364	5364	5364	5364	5448	5448	4093	4093	4093	4093	4093	4093	4093	4093	4093	4093	4093	4093	4093	4093	4093	4093	4093	4093	4093	4093	4093	5050	5050	5125	5050	5125	5050	5050	5050	5050	4142	4142	4142	4142	4093	4093	4093	4093	4093	4093	4093	4093	4093	4093	4093	4093	4093	4142	4142	5050	4977	4977	4977	5050	5050	5050	5719	5719	5719	5815	5815	5815	5815	5815	5815	5815	5815	5815	5815	5719	5815	5815	5815	5815	5915	5815	5815	5815	5815	7137	6853	6720	6592	6592	6592	6468	6468	6468	6468	6468	6468	6468	6468	6592	6592	6592	6592	6468	6468	6468	6468	6468	6592	6468	6468	6468	6468	6468	6468	8146	8146	8146	8146	8343	8146	8146	8146	8146	8146	8146	7959	8146	7959	7959	7959	7959	7779	7779	7959	7959	7779	7779	7779	7779	7779	7779	7779	7779	7608	7779	7779	7779	7779	7779	7959	8146	8146	8146	7959	7959	7959	0	0	0	0	0	0	0	0	0	0	0	0	0	4142	4142	4142	4296	4296	4243	4243	4243	4243	4243	4243	0	0	0	0	0	0	0	0	0	0	0	0	0	0	0	0	0	0	0	0	0	0	0	0	0	0	0	0	0	0	0	0	0	0	0	0	0	0	3583	3546	3510	3246	3246	3216	3216	3216	3186	3186	3186	3186	3186	3186	2917	2893	2893	2869	2869	2845	2845	2845	0	0	0	3216	3216	3186	3186	3186	3186	3186	3186	3186	0	0	0	0	0	0	2327	2327	2327	2327	2312	2312	2327	2327	2327	2327	0	3277	3277	3277	3246	3216	3216	3186	3186	3216	3216	0	0	0	0	2327	2327	2327	2312	2312	2297	2297	2312	2297	2297	2297	2297	2281	0	3216	3216	3216	3216	3216	3216	3186	3186	3216	3186	3186	3186	3186	3186	3186	3157	3157	3157	0	0	0	0	0	0	0	0	0	0	0	0	0	0	0	0	0	0	0	0	0	0	0	0	0	0	0	0	0	0	0	0	0
0	0	0	0	0	0	0	0	0	0	0	1287	1287	1291	1291	1296	1296	0	0	0	0	0	0	0	0	0	0	0	0	0	0	0	0	0	0	0	0	0	0	0	0	0	0	0	0	0	0	0	0	0	0	0	0	0	0	0	0	0	0	0	2027	2015	2003	2003	2039	2039	2027	2027	2027	2027	2015	2015	2015	2015	2015	0	0	0	0	0	0	0	0	0	0	0	0	0	0	0	0	0	0	0	0	0	0	0	0	0	0	0	0	0	0	0	0	0	0	0	0	0	0	0	0	0	0	0	0	0	0	0	0	0	0	0	0	0	0	0	0	0	0	0	0	0	0	0	0	0	0	0	0	0	0	0	0	0	0	0	2690	2690	2690	2690	2690	2690	2690	2690	2690	2669	2669	2690	2669	2669	2669	2669	2669	2669	2690	2690	2690	2669	2669	2669	2690	2690	2690	2690	2711	2733	2733	2754	2754	2754	2754	2733	2711	2711	2711	2711	2777	2799	2799	2799	2799	2777	2777	2777	2777	2777	2777	2777	2777	2777	2777	2777	2799	2799	2799	2799	2799	2822	2845	2845	2869	2917	2917	2942	2967	2967	2967	2967	2942	2942	2942	3952	3952	3998	3998	3998	4045	4045	4045	4243	4296	4296	4296	4406	4406	4406	4463	4463	4521	4521	0	0	0	0	0	0	0	0	0	0	6235	6235	6235	6124	6124	6124	6124	6124	6124	6124	6124	0	0	0	0	0	0	0	0	0	0	0	0	0	0	0	0	0	0	0	0	5364	5364	5282	5282	5282	5364	5364	5364	5282	5364	5364	5364	4093	4093	4093	4093	4093	4093	4093	4093	4093	4093	4093	4093	4093	4093	4093	4093	4093	4093	4093	4093	4093	4093	4977	5125	5050	5125	5050	5050	5050	5050	4142	4142	4142	4142	4093	4093	4093	4093	4093	4093	4093	4093	4093	4093	4093	4093	4093	4142	4142	5050	4977	4977	4977	4977	5050	5050	5815	5815	5815	5815	5815	5815	5815	5815	5815	5815	5815	5815	5815	5815	5815	5815	5815	5815	5915	5815	5815	5815	7287	7137	6853	6720	6592	6592	6468	6468	6468	6468	6468	6592	6592	6592	6592	6592	6592	6592	6592	6468	6468	6468	6468	6468	6468	6468	6468	6468	6468	6592	6592	6592	8146	8146	8146	8146	8146	8146	8146	8146	8146	8146	7959	8146	7959	7959	7959	7959	7959	7779	7959	7959	7959	7779	7779	7779	7779	7779	7779	7779	7779	7779	7779	7959	7959	7959	8146	8146	8146	8146	7959	7959	7959	0	0	0	0	0	0	0	0	0	0	0	0	0	0	0	0	0	0	4243	4243	4243	4243	4243	0	0	0	0	0	0	0	0	0	0	0	0	0	0	0	0	0	0	0	0	0	0	0	0	0	0	0	0	0	0	0	0	0	0	0	0	0	0	3546	3546	3510	3475	3309	3216	3216	3216	3216	3186	3186	3186	3186	3186	3186	2893	2893	2893	2869	2869	2845	2845	2845	2845	0	0	3216	3186	3186	3186	3186	3186	3186	3157	3157	0	0	0	0	0	0	2327	2327	2312	2312	2312	2312	2312	2312	2297	2297	0	3277	3277	3309	3186	3186	3186	3186	3186	3186	3186	0	0	0	0	2312	2312	2312	2312	2297	2297	2297	2297	2297	2297	2281	2281	2281	0	3186	3186	3186	3216	3216	3216	3216	3186	3186	3186	3186	3186	3186	3186	3157	3157	3157	3157	0	0	0	0	0	0	0	0	0	0	0	0	0	0	0	0	0	0	0	0	0	0	0	0	0	0	0	0	0	0	0	0	0
0	0	0	0	0	0	0	0	0	0	0	1287	1287	1296	1296	1296	1296	0	0	0	0	0	0	0	0	0	0	0	0	0	0	0	0	0	0	0	0	0	0	0	0	0	0	0	0	0	0	0	0	0	0	0	0	0	0	0	0	0	0	0	2015	2015	2003	2003	2039	2039	2027	2027	2027	2027	2015	2015	2015	2015	0	0	0	0	0	0	0	0	0	0	0	0	0	0	0	0	0	0	0	0	0	0	0	0	0	0	0	0	0	0	0	0	0	0	0	0	0	0	0	0	0	0	0	0	0	0	0	0	0	0	0	0	0	0	0	0	0	0	0	0	0	0	0	0	0	0	0	0	0	0	0	0	0	0	0	0	2690	2690	2690	2690	2690	2690	2690	2690	2669	2669	2690	2690	2669	2669	2669	2669	2669	2669	2690	2669	2690	2669	2669	2669	2690	2690	2690	2690	2733	2733	2754	2754	2754	2754	2733	2733	2711	2711	2711	2711	2777	2777	2777	2777	2777	2777	2777	2777	2777	2777	2777	2777	2777	2777	2777	2777	2777	2799	2799	2799	2799	2799	2845	2845	2869	2917	2917	2942	2942	2967	2967	2967	2942	2942	2942	3998	3998	3998	3998	3998	4045	4045	4093	4243	4296	4243	4296	4296	4406	4406	4463	4463	4463	4406	4406	0	6124	6124	0	0	0	6018	6124	6124	6124	6124	6124	6124	6124	6124	6018	6018	6018	5915	5915	0	0	0	0	0	0	0	0	0	0	0	0	0	0	0	0	0	0	0	0	5364	5282	5282	5282	5282	5364	5282	5282	5282	5282	5364	5364	4093	4093	4093	4093	4093	4093	4093	4093	4093	4093	4093	4093	4093	4093	4093	4093	4093	4093	4093	4093	4093	5050	5050	5125	5125	5125	5125	5050	5050	5050	4142	4142	4142	4142	4142	4093	4093	4093	4093	4142	4093	4093	4093	4093	4093	4093	4093	4093	4142	4093	4977	4977	5050	5050	5050	5050	5815	5815	5815	5815	5815	5815	5815	5815	5815	5815	5815	5815	5815	5815	5815	5815	5815	5815	5815	5815	5815	5815	7287	7287	6720	6592	6592	6468	6468	6468	6468	6468	6468	6592	6592	6592	6592	6592	6592	6592	6592	6468	6468	6468	6468	6468	6468	6468	6468	6468	6468	6592	6592	7959	8146	8146	8146	8146	8146	8146	8146	8146	8146	8146	7959	7959	7959	7959	7959	7959	7959	7959	7959	7959	7959	7959	7959	7779	7779	7779	7779	7779	7779	7779	7779	7959	8146	8146	8146	8146	8146	8146	7959	7959	7959	0	0	0	0	0	0	0	0	0	0	0	0	0	0	0	0	0	0	0	0	4243	4243	4243	0	0	0	4463	4463	0	0	0	0	0	0	0	0	4243	4296	4243	4243	4243	0	0	0	0	0	0	0	0	0	0	0	0	0	0	0	0	0	0	0	0	3546	3546	3510	3510	3373	3216	3216	3216	3186	3186	3186	3186	3186	3186	3186	2893	2893	2869	2869	2869	2845	2845	2869	2869	0	0	3216	3186	3186	3186	3186	3186	3186	3186	3157	0	0	0	0	0	0	2327	2327	2312	2312	2312	2297	2312	2297	2297	2297	0	0	3277	3277	3186	3186	3186	3186	3186	3216	3216	0	0	0	0	2312	2312	2297	2297	2297	2297	2297	2297	2297	2297	2297	2297	2297	0	3186	3186	3186	3216	3216	3216	3186	3186	3186	3186	3186	3186	3186	3186	3186	3157	3157	3157	0	0	0	0	0	0	0	0	0	0	0	0	0	0	0	0	0	0	0	0	0	0	0	0	0	0	0	0	0	0	0	0	0
0	0	0	0	0	0	0	0	0	0	0	1287	1287	1296	1296	1296	0	0	0	0	0	0	0	0	0	0	0	0	0	0	0	0	0	0	0	0	0	0	0	0	0	0	0	0	0	0	0	0	0	0	0	0	0	0	0	0	0	0	0	0	2027	2015	2015	2015	2027	2027	2027	2027	2027	2015	2015	2015	2015	2015	0	0	0	0	0	0	0	0	0	0	0	0	0	0	0	0	0	0	0	0	0	0	0	0	0	0	0	0	0	0	0	0	0	0	0	0	0	0	0	0	0	0	0	0	0	0	2015	2015	0	0	0	0	0	0	0	0	0	0	0	0	0	0	0	0	0	0	0	0	0	0	0	0	0	0	0	2669	2669	2690	2690	2690	2690	2690	2690	2690	2669	2669	2690	2669	2669	2669	2669	2669	2669	2669	2669	2669	2669	2690	2690	2690	2669	2690	2690	2690	2733	2733	2754	2754	2754	2754	2733	2711	2711	2711	2690	2690	2777	2777	2777	2777	2777	2777	2777	2777	2777	2777	2777	2754	2777	2777	2777	2777	2777	2777	2799	2799	2799	2822	2845	2845	2869	2893	2917	2942	2942	2967	2967	2967	2967	2967	2967	2967	3998	3998	3998	3998	4045	4093	4093	4243	4296	4243	4350	4406	4406	4406	4406	4406	4406	4406	4406	0	6124	6124	0	0	6124	6124	6124	6124	6018	6124	6124	6124	6018	6018	5915	5915	5915	5915	5815	5815	5719	5719	0	0	0	0	0	0	0	0	0	0	0	0	0	0	0	0	0	0	5364	5282	5282	5282	5364	5282	5282	5282	5282	5282	5282	4093	4093	4093	4093	4093	4093	4093	4093	4093	4093	4045	4093	4093	4093	4093	4093	4093	4093	4093	4093	4093	5125	5125	5202	5125	5125	5125	5050	5050	5125	4142	4142	4142	4142	4142	4093	4093	4093	4142	4142	4093	4093	4093	4093	4093	4093	4093	4093	4093	4093	5050	4977	4977	5050	5050	5050	5915	5915	5815	5815	5915	5915	5915	5815	5815	5815	5815	5815	5815	5815	5815	5815	5815	5815	5815	5815	5815	5815	7444	7287	6992	6592	6592	6468	6468	6468	6468	6592	6592	6592	6592	6592	6592	6592	6592	6592	6592	6468	6468	6468	6468	6468	6468	6468	6468	6468	6468	6592	6592	7959	8146	8146	8146	8146	8146	7959	7959	8146	8146	8146	8146	7959	7959	7959	7959	7959	7959	7959	7959	7959	7959	7959	7959	7779	7779	7779	7779	7779	7779	7779	7959	7959	8146	8146	8146	8146	8146	8146	7959	7959	7959	0	0	0	0	0	0	0	0	0	0	0	0	0	0	0	0	0	0	0	4350	4350	4350	4350	4350	4350	4350	4406	4406	0	0	4192	4142	4142	4093	4142	4192	4243	4296	4296	4243	4243	4243	4243	0	0	0	0	0	0	0	0	0	0	0	0	0	0	0	0	0	0	0	3546	3510	3510	3246	3216	3216	3216	3186	3186	3186	3186	3186	3186	3186	2893	2893	2869	2869	2869	2869	2845	2869	2869	2869	3186	3186	3186	3216	3186	3186	3157	3186	3186	0	0	0	0	0	0	0	2327	2327	2327	2327	2312	2312	2312	2297	2297	2297	0	0	3277	3277	3216	3216	3216	3186	3216	3216	3216	0	0	0	0	2312	2297	2297	2297	2281	2297	2297	2297	2297	2297	2297	2297	2312	2312	2297	2297	3186	3186	3186	3216	3186	3186	3186	3186	3186	3186	3186	3186	3186	3157	3186	3186	0	0	0	0	0	0	0	0	0	0	0	0	0	0	0	0	0	0	0	0	0	0	0	0	0	0	0	0	0	0	0	0	0
0	0	0	0	0	0	0	0	0	0	0	1287	1287	1296	1296	1296	1296	0	0	0	0	0	0	0	0	0	0	0	0	0	0	0	0	0	0	0	0	0	0	0	0	0	0	0	0	0	0	0	0	0	0	0	0	0	0	0	0	0	0	0	2015	2003	2003	2003	2015	2003	2027	2015	2015	2015	2015	2015	2015	2015	0	0	0	0	0	0	0	0	0	0	0	0	0	0	0	0	0	0	0	0	0	0	0	0	0	0	0	0	0	0	0	0	0	0	0	0	0	0	0	0	0	0	2003	2015	2015	2027	2015	2015	0	0	0	0	0	0	0	0	0	0	0	0	0	0	0	0	0	0	0	0	0	0	0	0	0	0	0	2690	2690	2690	2690	2690	2690	2690	2690	2690	2669	2669	2669	2669	2690	2690	2690	2690	2690	2690	2690	2690	2690	2690	2690	2669	2690	2690	2690	2690	2711	2733	2733	2754	2754	2733	2733	2711	2711	2690	2690	2711	2711	2777	2777	2777	2799	2777	2777	2777	2777	2777	2777	2754	2754	2754	2777	2777	2777	2777	2777	2777	2799	2822	2845	2845	2869	2893	2917	2942	2942	2967	2993	2993	2993	2993	2993	3998	3998	3998	3998	3998	4045	4093	4243	4243	4296	4243	4350	4350	4350	4350	4350	4350	4406	4406	0	6349	6124	6124	6124	0	6124	6124	6124	6124	6124	6018	6018	6018	5915	5915	5915	5915	5815	5719	5719	5719	5719	5719	5719	0	0	0	0	0	0	0	0	0	0	0	0	0	0	0	0	0	5364	5282	5282	5282	5364	5282	5282	5282	5282	5282	5282	5202	4093	4093	4093	4093	4093	4093	4093	4093	4093	4045	4045	4093	4093	4093	4093	4093	4093	4093	4093	4093	5125	5125	5202	5125	5125	5125	5050	5125	5125	4142	4142	4142	4142	4142	4093	4142	4142	4142	4142	4093	4093	4093	4093	4093	4093	4093	4093	4093	4093	5050	5050	4977	5050	5050	5050	5915	5915	5915	5915	5815	5815	5815	5815	5815	5815	5815	5815	5815	5815	5815	5815	5815	5815	5815	5815	5815	7444	7444	7287	6992	6592	6592	6592	6468	6468	6592	6592	6592	6592	6592	6592	6592	6592	6468	6592	6592	6592	6468	6468	6468	6468	6468	6468	6468	6592	6468	6592	6592	7959	8146	8146	8146	8146	8146	8146	8146	8343	8343	8343	8146	7959	7779	7779	7779	7779	7959	7959	7959	7959	7959	7959	7959	7959	7779	7779	7779	7779	7779	7779	7959	7959	7959	8146	8146	8146	8146	8146	7959	7959	7959	0	0	0	0	0	0	0	0	0	0	0	0	0	0	0	0	0	0	0	4296	4296	4296	4350	4350	4350	4350	4350	4406	4406	4142	4142	4093	4093	4093	4093	4192	4243	4243	4296	4296	4296	4243	4243	4243	0	0	0	0	0	0	0	0	0	0	0	0	0	0	0	0	0	0	0	0	0	3216	3216	3216	3216	3216	3216	3216	3216	3186	3186	3186	2869	2869	2869	2845	2845	2845	2845	2845	2845	2845	3186	3186	3186	3216	3186	3186	3157	3186	3186	0	0	0	0	0	0	0	0	2327	2312	2312	2312	2297	2297	2297	2297	2297	0	0	3246	3246	3216	3216	3216	3186	3186	3216	3246	3246	0	0	0	0	2297	2281	2297	2297	2297	2297	2297	2281	2297	2297	2312	2312	2312	2297	2297	2281	2281	3186	3216	3186	3186	3186	3186	3186	3186	3186	3186	3157	3157	3157	3157	0	0	0	0	0	0	0	0	0	0	0	0	0	0	0	0	0	0	0	0	0	0	0	0	0	0	0	0	0	0	0	0	0
0	0	0	0	0	0	0	0	0	0	0	0	1287	1296	1296	1296	1296	0	0	0	0	0	0	0	0	0	0	0	0	0	0	0	0	0	0	0	0	0	0	0	0	0	0	0	0	0	0	0	0	0	0	0	0	0	0	0	0	0	0	2015	2003	2003	2003	2003	2003	1992	2003	2003	2003	2003	2015	2015	2027	2027	0	0	0	0	0	0	0	0	0	0	0	0	0	0	0	0	0	0	0	0	0	0	0	0	0	0	0	0	0	0	0	0	0	0	0	0	0	0	0	0	2015	2015	2015	2015	2015	2027	2027	2027	0	0	0	0	0	0	0	0	0	0	0	0	0	0	0	0	0	0	0	0	0	0	0	0	0	0	2669	2669	2669	2690	2690	2690	2669	2669	2690	2690	2669	2669	2669	2669	2669	2669	2669	2669	2669	2669	2690	2690	2690	2669	2669	2669	2669	2669	2690	2690	2711	2733	2733	2754	2754	2733	2733	2733	2711	2711	2711	2711	2754	2777	2777	2777	2777	2777	2777	2777	2777	2777	2777	2777	2754	2754	2777	2777	2777	2777	2777	2777	2799	2822	2845	2845	2869	2893	2917	2942	2967	2967	2993	2993	2993	2993	4045	3998	3998	3998	3998	3952	4045	4045	4192	4243	4243	4296	4350	4350	4350	4350	4350	4350	0	0	0	6349	6124	6124	6124	6018	6018	6124	6124	6018	6018	6018	6018	6018	5915	5915	5719	5719	5719	5719	5626	5719	5719	5719	5719	0	0	0	0	0	0	0	0	0	0	0	0	0	0	0	0	0	5364	5282	5282	5282	5364	5364	5282	5282	5282	5282	5282	5282	4093	4142	4093	4093	4093	4093	4093	4093	4093	4045	4093	4093	4093	4093	4093	4093	4093	4045	4045	4045	5125	5125	5125	5125	5125	5050	5050	5125	5125	4142	4142	4142	4142	4142	4093	4142	4142	4142	4142	4093	4093	4093	4093	4093	4093	4093	4093	4093	4142	5050	4977	4977	4977	4977	6018	6018	6018	5915	5915	5915	5915	5915	5815	5815	5915	5815	5815	5815	5815	5815	5815	5815	5815	5719	5719	5719	7444	7444	7287	6992	6592	6592	6592	6468	6468	6468	6592	6592	6592	6592	6592	6592	6592	6468	6592	6592	6592	6592	6592	6468	6468	6468	6592	6468	6592	6468	6468	6468	8343	8343	8343	8343	8343	8343	8146	8146	8146	8343	8146	8146	7959	7779	7779	7779	7779	7779	7779	7959	7959	7959	7959	7959	7779	7779	7779	7779	7779	7779	7779	7959	7959	8146	8146	8146	8146	8146	8146	7959	7959	7959	7959	0	0	0	0	0	0	0	0	0	0	0	0	0	0	0	0	0	4350	4350	4296	4350	4406	4406	4350	4406	4350	4350	4350	4142	4142	4142	4142	4142	4142	4243	4296	4296	4296	4296	4296	4243	4243	4243	0	0	0	0	0	0	0	0	0	0	0	0	0	0	0	0	0	0	0	0	0	3216	3216	3216	3216	3216	3216	3216	3216	3186	3186	3186	2869	2869	2822	2822	2845	2845	2845	2845	2845	2845	3186	3186	3186	3216	3216	3186	3186	3186	3186	0	0	0	0	0	0	0	0	2327	2312	2297	2297	2297	2297	2281	2281	2281	0	0	3246	3216	3186	3216	3186	3186	3186	3216	3246	3246	0	0	0	0	2281	2281	2281	2281	2281	2281	2281	2281	2312	2312	2312	2312	2297	2281	2297	2281	2297	2297	3186	3186	3186	3157	3186	3186	3186	3186	3186	3157	3157	3157	3157	0	0	0	0	0	0	0	0	0	0	0	0	0	0	0	0	0	0	0	0	0	0	0	0	0	0	0	0	0	0	0	0	0
0	0	0	0	0	0	0	0	0	0	0	0	1287	1291	1296	1301	1301	0	0	0	0	0	0	0	0	0	0	0	0	0	0	0	0	0	0	0	0	0	0	0	0	0	0	0	0	0	0	0	0	0	0	0	0	0	0	0	0	0	0	2015	2003	2003	2003	2003	2003	1992	1992	2003	1992	1992	1992	1992	1992	2027	0	0	0	0	0	0	0	0	0	0	0	0	0	0	0	0	0	0	0	0	0	0	0	0	0	0	0	0	0	0	0	0	0	0	0	0	0	0	0	0	2003	2015	2015	2027	2039	2039	2039	2039	0	0	0	0	0	0	0	0	0	0	0	0	0	0	0	0	0	0	0	0	0	0	0	0	0	0	2669	2690	2690	2690	2690	2690	2690	2690	2690	2690	2669	2669	2690	2669	2669	2669	2669	2669	2669	2669	2690	2669	2690	2669	2669	2669	2669	2669	2669	2690	2711	2754	2754	2754	2754	2733	2733	2733	2711	2711	2733	2733	2754	2754	2777	2777	2777	2799	2799	2777	2777	2777	2777	2777	2777	2754	2777	2777	2777	2777	2777	2799	2799	2822	2822	2845	2869	2917	2917	2942	2967	2967	2993	3019	3019	3019	3019	3952	3998	3998	3998	3998	4045	4045	4093	4243	4192	4243	4243	4243	4296	4296	0	0	0	0	0	6124	6124	6124	6124	6124	6124	6124	6124	6018	6018	6018	6018	5915	5915	5915	5815	5815	5719	5719	5626	5719	5626	5626	0	0	0	0	0	0	0	0	0	0	0	0	0	0	0	0	0	0	0	5282	5282	5282	5364	5364	5364	5282	5364	5364	4142	4142	4093	4142	4093	4093	4093	4093	4093	4093	4093	4045	4093	4093	4093	4093	4093	4093	4093	4093	4093	4093	5125	5050	5125	5125	5125	5050	5050	5125	5125	5125	4093	4142	4142	4142	4142	4142	4142	4142	4142	4093	4093	4093	4093	4093	4093	4093	4093	4093	4093	4093	4977	4977	4977	4977	6235	6235	6124	5915	5915	5915	5915	5815	5815	5815	5815	5915	5915	5915	5815	5815	5915	5815	5815	5719	5719	5719	7444	7444	7137	6992	6720	6592	6592	6592	6592	6592	6592	6592	6592	6592	6592	6592	6592	6468	6592	6592	6592	6468	6468	6468	6468	6592	6592	6592	6592	6468	6592	6592	7959	8146	8146	8146	8146	8146	8146	8146	8146	8146	8146	7959	7959	7779	7779	7779	7779	7779	7779	7959	7959	7959	7959	7959	7959	7779	7779	7779	7779	7779	7779	7959	7959	8146	8146	8146	8146	8146	8146	7959	7959	7959	7959	0	0	0	0	0	0	0	0	0	0	0	0	0	0	0	4463	4463	4406	4406	4406	4406	4406	4406	4406	4406	4406	4350	4350	4192	4142	4142	4142	4142	4192	4243	4296	4296	4350	4296	4296	4296	4296	4296	0	0	0	0	0	0	0	0	0	0	0	0	0	0	0	0	0	0	0	0	0	3246	3216	3216	3216	3216	3186	3186	3186	3186	3186	3186	0	0	2822	2845	2845	2845	2845	2845	2845	2845	3186	3216	3216	3216	3216	3186	3186	3186	3186	3186	0	0	0	0	0	0	0	2327	2297	2297	2281	2281	2281	2281	2281	2281	2281	0	3216	3216	3216	3216	3186	3186	3186	3216	3216	3246	0	0	0	0	2281	2281	2281	2281	2281	2281	2281	2281	2297	2297	2312	2297	2297	2281	2281	2281	2281	2281	3186	3186	3186	3157	3186	3186	3186	3186	3186	3186	3186	3186	3186	0	0	0	0	0	0	0	0	0	0	0	0	0	0	0	0	0	0	0	0	0	0	0	0	0	0	0	0	0	0	0	0	0
0	0	0	0	0	0	0	0	0	0	0	0	1287	1287	1291	1296	1296	1296	0	0	0	0	0	0	0	0	0	0	0	0	0	0	0	0	0	0	0	0	0	0	0	0	0	0	0	0	0	0	0	0	0	0	0	0	0	0	0	0	0	0	2003	1992	2003	1992	1992	1992	1992	1992	1992	1992	1980	1980	1980	0	0	0	0	0	0	0	0	0	0	0	0	0	0	0	0	0	0	0	0	0	0	0	0	0	0	0	0	0	0	0	0	0	0	0	0	0	0	0	0	0	2015	2015	2015	2039	2039	2039	2039	2039	2039	0	0	0	0	0	0	0	0	0	0	0	0	0	0	0	0	0	0	0	0	0	0	0	0	0	0	2690	2690	2690	2690	2690	2690	2690	2690	2669	2669	2669	2669	2669	2669	2690	2669	2690	2669	2669	2669	2669	2669	2669	2669	2669	2669	2669	2669	2690	2711	2777	2777	2754	2754	2754	2733	2733	2733	2733	2733	2754	2754	2777	2777	2777	2777	2799	2799	2777	2777	2777	2777	2777	2777	2754	2777	2777	2777	2777	2799	2799	2799	2822	2822	2845	2893	2917	2942	2942	2967	2993	2993	3019	3046	3046	3046	3907	3907	3952	3998	3998	4045	4045	4093	4142	4142	4192	4243	4243	4296	4296	0	0	0	0	0	6235	6124	6124	6018	6018	6124	6018	6018	6124	6124	6018	6018	6018	5915	5915	5915	5815	5815	5719	5626	5626	5626	5626	0	0	0	0	0	0	0	0	0	0	0	0	0	0	0	0	0	0	0	0	5282	5364	5364	5364	5282	5282	5364	5364	4142	4142	4142	4142	4142	4093	4093	4093	4093	4093	4093	4045	4093	4093	4093	4093	4093	4093	4093	4093	4045	4045	5125	5050	5125	5125	5125	5050	5050	5125	5125	5125	4093	4142	4142	4142	4142	4142	4142	4142	4142	4093	4093	4093	4093	4093	4093	4093	4093	4093	4093	4093	4093	4977	4977	5050	5050	6124	6018	6018	5915	5915	5915	5815	5815	5815	5815	5815	5915	5915	5915	5915	5915	5815	5815	5719	5719	7779	7444	7444	7287	6992	6592	6592	6592	6468	6468	6468	6592	6468	6592	6592	6592	6592	6468	6468	6468	6592	6592	6592	6592	6468	6592	6592	6592	6592	6592	6468	6468	6468	6468	8146	8343	8146	8146	8146	7959	8146	8146	8146	8146	7959	7959	7779	7779	7779	7779	7779	7779	7959	7959	8146	7959	8146	7959	7779	7779	7779	7779	7779	7779	7959	7959	8146	8343	8146	8146	8146	8146	7959	7959	7959	7959	0	0	0	0	0	0	0	0	0	0	0	0	0	0	4406	4406	4463	4463	4406	4406	4406	4463	4406	4406	4406	4406	4350	4296	4142	4142	4093	4142	4093	4142	4192	4243	4296	4296	4296	4296	4296	4243	4243	0	0	0	0	0	0	0	0	0	0	0	0	0	0	0	0	0	0	0	0	3246	3246	3216	3216	3216	3216	3216	3186	3216	3186	3186	0	0	0	2822	2845	2845	2845	2869	2845	2845	2845	3186	3186	3216	3216	3216	3186	3186	3186	3216	3186	3186	0	0	0	0	0	0	2312	2297	2297	2297	2281	2281	2281	2281	2281	2281	3246	3246	3216	3216	3216	3216	3186	3186	3216	3216	3216	0	0	0	0	2266	2266	2266	2266	2266	2281	2266	2281	2297	2281	2312	2297	2297	2281	2281	2281	2281	2281	3186	3157	3186	3157	3157	3186	3186	3186	3186	3186	3186	3186	3186	0	0	0	0	0	0	0	0	0	0	0	0	0	0	0	0	0	0	0	0	0	0	0	0	0	0	0	0	0	0	0	0	0
0	0	0	0	0	0	0	0	0	0	0	0	1287	1287	1296	1296	1296	1296	0	0	0	0	0	0	0	0	0	0	0	0	0	0	0	0	0	0	0	0	0	0	0	0	0	0	0	0	0	0	0	0	0	0	0	0	0	0	0	0	0	0	2003	2003	2003	2003	1992	1992	1992	1992	1992	1980	1980	1980	1980	0	0	0	0	0	0	0	0	0	0	0	0	0	0	0	0	0	0	0	0	0	0	0	0	0	0	0	0	0	0	0	0	0	0	0	0	0	0	0	0	0	2003	2003	2027	2039	2039	2051	2039	2039	2039	2039	2039	2039	0	0	0	0	0	0	0	0	0	0	0	0	0	0	0	0	0	0	0	0	0	0	2711	2711	2690	2711	2690	2690	2690	2690	2690	2669	2669	2669	2690	2690	2669	2690	2669	2690	2669	2669	2669	2669	2669	2669	2669	2669	2669	2669	2669	2669	2711	2777	2777	2754	2754	2754	2733	2733	2754	2733	2754	2754	2754	2754	2777	2777	2777	2799	2799	2799	2777	2777	2777	2777	2777	2777	2777	2777	2777	2799	2799	2799	2799	2822	2845	2869	2893	2942	2942	2967	2993	3019	3019	3019	3046	3073	3073	3907	3907	3952	3952	3998	4045	4045	4093	4142	4142	4192	4192	4243	0	0	0	0	0	0	6235	6124	6124	6124	6124	6124	6124	6124	6124	6235	6235	6124	6124	6018	6018	6018	6018	5815	5815	5719	5719	5626	0	0	0	0	0	0	0	0	0	0	0	0	0	0	0	0	0	0	0	0	0	0	5282	5282	5364	5364	5282	5364	5364	5364	4093	4093	4093	4093	4093	4093	4093	4093	4093	4093	4093	4093	4093	4093	4093	4093	4093	4093	4045	4045	4045	4045	5050	5050	5125	5125	5050	5050	5050	5125	5125	5125	4142	4142	4142	4142	4142	4142	4142	4142	4142	4093	4093	4093	4093	4093	4093	4093	4093	4093	4093	4093	5050	5050	5050	5050	5050	6124	6018	6018	5915	5915	5915	5915	5815	5815	5915	5915	5915	5915	5915	5815	5815	5815	5719	5719	7959	7779	7779	7608	7287	6992	6592	6592	6468	6468	6468	6468	6468	6468	6468	6468	6468	6468	6468	6468	6468	6468	6592	6592	6592	6468	6468	6468	6592	6468	6468	6468	6349	6349	6349	8343	8343	8146	8146	8146	7959	7959	8146	7959	7959	7959	7959	7779	7779	7779	7779	7779	7779	7959	7959	8146	7959	8146	7959	7959	7779	7779	7779	7779	7779	7959	7959	8146	8146	8146	8146	8146	8146	7959	7959	7959	7959	0	0	0	0	0	0	0	0	0	0	0	0	0	4350	4406	4406	4406	4406	4406	4406	4406	4406	4406	4463	4463	4350	4350	4296	4142	4142	4142	4142	4093	4142	4192	4243	4296	4350	4296	4296	4296	4296	4296	0	0	4045	4045	0	0	0	0	0	0	0	0	0	0	0	0	0	0	0	0	3246	3246	3216	3216	3216	3216	3216	3186	3216	3216	3216	0	0	2845	2822	2845	2845	2869	2869	2869	2869	2869	3157	3157	3186	3216	3216	3216	3186	3216	3216	3216	3216	0	0	0	0	0	0	2327	2312	2297	2297	2281	2281	2281	2281	3277	3246	3246	3246	3216	3216	3216	3186	3186	3186	3186	3216	3216	0	0	0	0	2266	2266	2281	2281	2281	2281	2281	2281	2297	2281	2312	2281	2281	2266	2266	2266	3186	3186	3157	3157	3186	3157	3157	3157	3186	3186	3186	3186	3186	3186	3186	0	0	0	0	0	0	0	0	0	0	0	0	0	0	0	0	0	0	0	0	0	0	0	0	0	0	0	0	0	0	0	0	0
0	0	0	0	0	0	0	0	0	0	0	0	1287	1287	1296	1296	1296	1296	0	0	0	0	0	0	0	0	0	0	0	0	0	0	0	0	0	0	0	0	0	0	0	0	0	0	0	0	0	0	0	0	0	0	0	0	0	0	0	0	0	0	2003	2003	2003	2003	2003	1992	1992	1992	1992	1980	1980	1980	1980	0	0	0	0	0	0	0	0	0	0	0	0	0	0	0	0	0	0	0	0	0	0	0	0	0	0	0	0	0	0	0	0	0	0	0	0	0	0	0	0	0	1992	1992	2003	2027	2027	2027	2027	2027	2027	2039	2027	2015	2015	0	0	0	0	0	0	0	0	0	0	0	0	0	0	0	0	0	0	0	0	0	2733	2733	2711	2711	2711	2690	2690	2690	2690	2669	2669	2669	2690	2690	2669	2690	2669	2690	2669	2669	2669	2669	2690	2669	2669	2669	2669	2669	2669	2669	2669	0	2777	2754	2754	2754	0	0	2754	2754	2754	2754	2754	2754	2777	2777	2777	0	2799	2799	2777	2777	2777	2754	2777	2754	2777	2799	2799	2799	2799	2822	2822	2845	2845	2869	2917	2942	2967	2967	3019	3046	3046	3046	3073	3073	3864	3907	3907	3907	3952	3998	3998	4045	4045	4093	4142	4142	4192	4192	0	0	0	0	0	6124	6124	6124	6124	6124	6124	6124	6124	6235	6235	6349	6349	6349	6124	6124	6124	6349	6124	6124	6018	6018	5719	0	0	0	0	0	0	0	0	0	0	0	0	0	0	0	0	0	0	0	0	0	0	0	5364	5364	5448	5364	5364	5364	5364	5364	4093	4093	4093	4093	4093	4093	4093	4093	4093	4093	4093	4093	4093	4093	4093	4093	4093	4093	4093	4093	4045	4045	5050	5050	5050	5050	5050	5050	5050	5050	5125	5125	4142	4142	4142	4142	4142	4142	4142	4142	4093	4093	4093	4093	4093	4093	4093	4093	4093	4093	4093	4093	5050	5050	5050	4977	4977	6018	6018	6018	6018	5915	5915	5915	5815	5915	5915	5915	6018	5915	5915	5915	5815	5719	5719	5719	7959	7959	7779	7608	7608	6853	6592	6468	6468	6468	6349	6349	6349	6349	6349	6349	6468	6468	6468	6349	6468	6468	6468	6468	6592	6468	6468	6592	6592	6592	6468	6468	6468	6468	6468	8343	8146	8146	8146	8146	7959	7959	7959	7959	7959	8146	7959	7959	7959	7779	7779	7779	7779	7959	7959	8146	7959	8146	7959	7959	7779	7779	7779	7779	7779	7779	7959	7959	8146	8146	8146	8146	8146	8146	7959	7959	7959	0	0	0	0	0	0	0	0	0	0	0	0	0	4350	4350	4350	4406	4406	4406	4406	4406	4463	4463	4463	4406	4350	4296	4296	4192	4142	4142	4142	4093	4142	4142	4192	4296	4350	4296	4296	4296	4296	4296	0	0	4045	4045	0	0	0	0	0	0	0	0	0	0	0	0	0	0	0	0	3246	3246	3216	3216	3216	3216	3186	3216	3216	3216	3216	0	0	2845	2822	2845	2845	2869	2845	2822	2822	2822	3277	3216	3216	3216	3216	3186	3186	3186	3216	3186	3186	3186	0	0	0	0	0	2327	2312	2297	2297	2281	3216	3216	3216	3277	3277	3246	3246	3216	3216	3216	3186	3216	3186	3216	3216	3277	3277	0	0	0	0	2266	2281	2281	2281	2281	2281	2281	2281	2281	2281	2281	2281	2281	2266	3186	3186	3186	3186	3157	3186	3157	3157	3157	3186	3186	3186	3186	3186	3186	3186	0	0	0	0	0	0	0	0	0	0	0	0	0	0	0	0	0	0	0	0	0	0	0	0	0	0	0	0	0	0	0	0	0
0	0	0	0	0	0	0	0	0	0	0	0	1291	1287	1291	1296	1296	1296	0	0	0	0	0	0	0	0	0	0	0	0	0	0	0	0	0	0	0	0	0	0	0	0	0	0	0	0	0	0	0	0	0	0	0	0	0	0	0	0	0	0	2003	2003	2003	2003	2003	1980	1980	1980	1980	1980	1980	1980	0	0	0	0	0	0	0	0	0	0	0	0	0	0	0	0	0	0	0	0	0	0	0	0	0	0	0	0	0	0	0	0	0	0	0	0	0	0	0	0	0	0	1992	1992	2003	2003	2003	2003	2015	2027	2039	2039	2039	2015	2027	2027	0	0	0	0	0	0	0	0	0	0	0	0	0	0	0	0	0	0	0	0	2733	2733	2711	2711	2690	2690	2690	2690	2690	2669	2669	2669	2690	2690	2669	2690	2669	2669	2669	2669	2669	2669	2669	2669	2669	2669	2669	2669	2669	2669	2669	0	0	0	0	0	0	0	2754	2754	2754	2754	2754	2754	2777	2777	0	0	0	0	2777	2777	2777	2754	2754	2754	2777	2777	2799	2799	2822	2822	2845	2845	2845	2893	2942	2942	2967	2993	3046	3046	3046	3073	3073	3864	3864	3864	3907	3907	3952	3998	3998	4045	4093	4093	4142	4142	4192	4192	0	0	0	0	0	6124	6124	6124	6124	6124	6124	6124	6124	6235	6235	6349	6349	6349	6349	6349	6349	6349	6235	6124	6124	6124	6124	0	0	0	0	0	0	0	0	0	0	0	0	0	0	0	0	0	0	0	0	0	0	0	5364	5364	5448	5448	5364	5364	5364	5364	4045	4045	4093	4093	4093	4093	4093	4093	4093	4093	4093	4093	4093	4093	4093	4093	4093	4093	4093	4045	4045	4045	5050	4977	5050	5050	5050	5050	5050	5050	5125	5125	4093	4142	4142	4142	4142	4142	4142	4142	4142	4093	4093	4093	4093	4093	4093	4093	4093	4093	4093	4093	5050	5050	5050	5050	5050	5915	5915	6018	5915	5915	5915	5915	5815	5915	5915	5915	5915	5915	5915	5815	5815	5719	5719	5719	8146	7959	7779	7444	7287	6853	6592	6468	6468	6349	6349	6349	6349	6349	6349	6349	6349	6349	6349	6468	6468	6468	6592	6468	6468	6468	6468	6592	6592	6468	6468	6468	6468	6468	6468	8146	8146	8146	8146	8146	7959	7959	8146	8146	7959	8146	7959	7959	7959	7779	7779	7779	7779	7959	7959	8146	8146	8146	7959	7959	7959	7779	7779	7779	7779	7779	7959	8146	8146	8146	8146	8146	8146	8146	7959	7959	7959	7959	0	0	0	0	0	0	0	0	0	0	0	0	4350	4350	4350	4406	4406	4406	4406	4406	4463	4463	4463	4463	4350	4350	4296	4192	4142	4142	4142	4093	4093	4142	4192	4296	4350	4350	4350	4296	4296	4296	4142	3998	3998	3998	0	0	0	0	0	0	0	0	0	0	0	0	0	0	0	0	0	3246	3216	3216	3216	3216	3216	3216	3216	3216	3216	0	2845	2845	2845	2845	2869	2869	2869	2822	2822	2822	3277	3246	3246	3216	3216	3186	3186	3186	3216	3186	3186	3186	0	0	0	0	0	0	0	0	3246	3216	3216	3216	3216	3277	3277	3246	3246	3216	3216	3216	3216	3216	3186	3216	3216	3216	3277	0	0	0	0	2281	2281	2281	2281	2281	2266	2281	2281	2281	2281	2281	2266	2266	2266	3216	3186	3186	3186	3186	3186	3186	3186	3186	3186	3186	3186	3186	3186	3186	3186	0	0	0	0	0	0	0	0	0	0	0	0	0	0	0	0	0	0	0	0	0	0	0	0	0	0	0	0	0	0	0	0	0
0	0	0	0	0	0	0	0	0	0	0	0	1287	1287	1291	1296	1291	1287	1287	0	0	0	0	0	0	0	0	0	0	0	0	0	0	0	0	0	0	0	0	0	0	0	0	0	0	0	0	0	0	0	0	0	0	0	0	0	0	0	0	0	2003	2003	2027	2039	2051	2051	1980	1980	1980	1980	1980	1980	0	0	0	0	0	0	0	0	0	0	0	0	0	0	0	0	0	0	0	0	0	0	0	0	0	0	0	0	0	0	0	0	0	0	0	0	0	0	0	0	0	0	1992	2003	2003	2003	2003	2003	2003	2015	2027	2039	2027	2027	2039	2027	2027	0	0	0	0	0	0	0	0	0	0	0	0	0	0	0	0	2690	2690	0	2711	2733	2711	2711	2690	2690	2690	2690	2690	2669	2669	2669	2690	2690	2669	2690	2669	2669	2669	2669	2669	2669	2669	2669	2669	2669	2669	2669	2669	2669	2669	0	0	0	0	0	0	0	0	0	2754	2754	2754	2754	2777	2777	0	0	0	0	2777	2777	2777	2754	2754	2754	2754	2777	2799	2822	2845	2845	2845	2893	2917	2942	2942	2967	2967	2993	3046	3046	3073	3073	3073	3864	3864	3907	3864	3907	3952	3998	4045	4045	4093	4142	4142	4192	4192	4243	4296	4296	4296	0	0	6235	6235	6124	6124	6124	6235	6235	6235	6235	6235	6349	6349	6349	6349	6349	6349	6349	6235	6235	6124	6124	6124	0	0	0	0	0	0	0	0	0	0	0	0	0	0	0	0	0	0	0	0	0	0	0	5364	5364	5448	5364	5364	5364	5364	5364	4045	4045	4093	4093	4093	4093	4093	4093	4093	4093	4093	4093	4093	4093	4093	4093	4093	4093	4093	4045	4045	4045	5050	4977	5050	5050	5050	5050	5050	5050	5125	5125	5125	4142	4142	4142	4142	4142	4142	4142	4142	4093	4142	4093	4093	4142	4093	4093	4093	4093	4093	4093	5125	5050	5050	5050	5050	5815	5815	5915	5915	5915	5815	5815	5815	5915	5915	5915	5915	5915	5915	5815	5815	5719	5719	8550	8146	7959	7959	7779	7287	6992	6468	6468	6349	6349	6235	6235	6235	6235	6349	6349	6349	6349	6349	6468	6468	6468	6468	6468	6468	6468	6468	6592	6592	6592	6468	6468	6468	6468	6468	8146	8146	8146	8146	8146	7959	7959	7959	7959	7959	7959	7959	7959	7779	7779	7779	7779	7959	7959	8146	8146	8146	8146	8146	7959	7959	7779	7779	7779	7779	7779	7959	7959	8146	8146	8146	8146	8146	8146	7959	7959	7959	7959	0	0	0	0	0	0	0	0	0	0	0	0	0	4350	4350	4406	4463	4463	4406	4406	4463	4463	4463	4463	4350	4350	4296	4192	4142	4142	4093	4093	4093	4142	4192	4296	4350	4296	4350	4350	4296	4243	4142	3998	3998	3998	0	0	0	0	0	0	0	0	0	0	0	0	0	0	0	0	3216	3216	3216	3216	3216	3216	3216	3186	3186	3216	3216	0	2869	2869	2869	2845	2869	2869	2869	2822	2822	2822	3277	3246	3246	3216	3216	3186	3186	3186	3186	3186	3186	3157	3157	0	0	0	3246	3216	3216	3216	3216	3216	3246	3246	3246	3277	3277	3277	3246	3216	3216	3216	3216	3216	3186	3186	3186	3186	0	0	0	0	0	2281	2297	2281	2281	2281	2281	2281	2281	2281	2266	2266	2266	2266	2266	3186	3186	3186	3186	3186	3186	3157	3157	3186	3186	3186	3186	3186	3186	3186	3186	0	0	0	0	0	0	0	0	0	0	0	0	0	0	0	0	0	0	0	0	0	0	0	0	0	0	0	0	0	0	0	0	0
0	0	0	0	0	0	0	0	0	0	0	0	1287	1287	1287	1291	1287	1287	1287	0	0	0	0	0	0	0	0	0	0	0	0	0	0	0	0	0	0	0	0	0	0	0	0	0	0	0	0	0	0	0	0	0	0	0	0	0	0	0	0	0	0	0	2027	2039	2039	2051	1947	1947	1947	1980	0	0	0	0	0	0	0	0	0	0	0	0	0	0	0	0	0	0	0	0	0	0	0	0	0	0	0	0	0	0	0	0	0	0	0	0	2027	2003	2003	2003	0	0	0	2003	2003	2003	2003	2003	2003	2003	2003	2003	2015	2027	2015	2015	2027	2003	2003	0	0	0	0	0	0	0	0	0	0	0	0	0	0	2711	2690	2690	2669	2690	2711	2754	2690	2711	2690	2690	2690	2690	2690	2669	2669	2669	2690	2690	2669	2669	2690	2669	2669	2669	2669	2669	2669	2669	2669	2669	2669	2669	2669	2669	2669	0	0	0	0	0	0	0	0	0	2754	2754	2754	2754	0	0	0	0	0	0	0	0	0	0	2754	2754	2754	0	0	2822	2845	2845	2917	2917	2917	2967	2967	2967	2993	2993	3073	3046	3046	3046	3864	3864	3864	3907	3907	3907	3952	3998	4045	4093	4093	4142	4243	4243	4243	4296	4296	4350	4350	4350	6349	6349	6349	6235	6235	6235	6235	6235	6235	6235	6349	6349	6349	6349	6349	6349	6349	6349	6349	6235	6235	6235	6349	6349	0	0	0	0	0	0	0	0	0	0	0	0	0	0	0	0	0	0	0	0	0	0	5448	5364	5448	5364	5364	5364	5282	5282	4045	4045	4045	4093	4093	4093	4093	4093	4093	4093	4093	4093	4093	4093	4093	4093	4093	4093	4045	4045	4045	5050	5050	4977	5050	5050	5050	5050	5050	5050	5125	5125	5125	4142	4142	4142	4142	4142	4142	4142	4142	4142	4142	4142	4142	4142	4142	4142	4142	4093	4093	4093	5125	5050	5050	5125	5125	5915	5915	5915	5915	5915	5815	5915	5915	5815	5915	5915	5915	5915	5915	5815	5719	5719	5719	8550	7959	7959	7779	7779	7779	7137	6720	6468	6349	6349	6349	6349	6349	6349	6235	6349	6349	6349	6349	6468	6468	6468	6468	6468	6468	6468	6468	6592	6592	6592	6468	6592	6592	6592	6592	8146	8146	8146	8146	7959	7959	7959	7959	7959	7959	7959	7959	7959	7779	7779	7959	7959	7959	7959	8146	8146	8146	8146	8146	7959	7959	7779	7779	7779	7779	7779	7779	7959	7959	7959	8146	8146	8146	8146	7959	7959	7959	7959	0	0	0	0	0	0	0	0	0	0	0	0	0	0	4406	4463	4463	4463	4463	4463	4463	4463	4463	4406	4350	4296	4296	4243	4192	4142	4142	4093	4093	4093	4192	4296	4350	4350	4350	4350	4350	4296	4142	4142	3998	3998	0	0	0	0	0	0	0	0	0	0	0	0	0	0	0	0	3216	3216	3216	3216	3216	3216	3186	3186	3186	3216	3216	0	2869	2869	2869	2845	2869	2869	2869	2845	2845	2845	3277	3216	3216	3216	3216	3186	3186	3186	3216	3186	3186	3186	3186	3186	3186	3216	3216	3216	3216	3216	3246	3216	3216	3216	3216	3246	3277	3246	3246	3246	3216	3216	3216	3216	3186	3186	3186	3186	0	0	0	0	0	2297	2312	2297	2297	2281	2281	2281	2281	2281	2266	2281	2266	2266	3186	3186	3186	3157	3186	3157	3157	3157	3186	3186	3186	3186	3186	3186	3186	3186	3186	0	0	0	0	0	0	0	0	0	0	0	0	0	0	0	0	0	0	0	0	0	0	0	0	0	0	0	0	0	0	0	0	0
0	0	0	0	0	0	0	0	0	0	0	0	1287	1287	1287	1287	1287	1287	1287	0	0	0	0	0	0	0	0	0	0	0	0	0	0	0	0	0	0	0	0	0	0	0	0	0	0	0	0	0	0	0	0	0	0	0	0	0	0	0	0	0	0	0	2027	2039	2039	0	1947	1947	1947	0	0	0	0	0	0	0	0	0	0	0	0	0	0	0	0	0	0	0	0	0	0	0	0	0	0	0	0	0	0	0	0	0	2051	2039	2039	2027	2015	2003	2003	2003	2003	2003	2003	2003	2003	2003	2015	2003	2003	2003	2003	2003	2015	2015	2015	2015	2027	2027	2003	0	0	0	0	0	0	0	0	0	0	0	0	0	2711	2711	2690	2690	2669	2690	2711	2711	2711	2711	2690	2690	2690	2690	2690	2669	2669	2669	2690	2669	2669	2669	2669	2669	2669	2669	2669	2669	2669	2669	2669	2669	2669	2690	2669	2669	2669	0	0	0	0	0	0	0	0	0	2754	2754	2754	2754	0	0	0	0	0	0	0	0	0	0	0	0	0	0	0	0	2845	2845	2917	2917	2942	2942	2967	2967	2993	2993	3073	3073	3073	3073	3907	3864	3864	3907	3907	3907	3952	3998	4045	4093	4093	4243	4243	4243	4296	4296	4350	4350	4350	4350	6468	6349	6349	6349	6235	6235	6349	6349	6349	6349	6349	6468	6349	6349	6349	6349	6349	6349	6235	6235	6235	6235	6235	6235	6235	6235	0	0	0	0	0	0	0	0	0	0	0	0	0	0	0	0	0	0	0	0	5364	5364	5364	5364	5282	5282	5282	5202	5282	4093	4093	4093	4093	4093	4093	4093	4093	4093	4093	4093	4093	4093	4093	4093	4093	4045	4093	4045	3998	5050	4977	4977	4977	5050	5050	5050	5050	5050	5125	5125	5125	4142	4142	4142	4142	4142	4142	4142	4142	4142	4142	4142	4142	4142	4142	4093	4142	4093	4093	5125	5050	5050	5050	5050	5050	5815	5815	5915	5915	5915	5815	5815	5815	5815	5815	5915	5915	5915	5815	5719	5719	5719	5719	8343	8146	7959	7779	7779	7608	7444	6349	6349	6349	6235	6235	6349	6235	6349	6235	6349	6349	6349	6349	6468	6468	6468	6468	6468	6468	6468	6468	6592	6592	6592	6592	6592	6592	6592	6592	8343	8146	8146	8146	7959	7959	7959	7959	7959	7959	7959	7959	7959	7959	7959	7959	7959	7959	7959	8146	8146	8146	8146	7959	7959	7959	7959	7779	7779	7779	7779	7959	7959	7959	7959	7959	8146	8146	8146	7959	7959	7959	7959	0	0	0	0	0	0	0	0	0	0	0	0	0	0	4406	4406	4463	4463	4463	4463	4463	4406	4406	4406	4350	4296	4296	4296	4243	4243	4192	4142	4093	4296	4296	4350	4350	4350	4350	4406	4406	4350	4350	4350	4350	0	0	0	0	0	0	0	0	0	0	0	0	0	0	0	0	4406	3216	3216	3216	3216	3216	3216	3186	3186	3186	3216	3216	0	2869	2869	2869	2869	2869	2869	2869	2845	2845	2845	3277	3216	3216	3216	3186	3186	3186	3186	3186	3186	3186	3186	3186	3186	3216	3216	3216	3216	3216	3216	3216	3216	3216	3216	3216	3246	3246	3246	3216	3246	3246	3216	3216	3216	3216	3216	3186	3186	0	0	0	0	0	2297	2312	2297	2297	2281	2281	2281	2281	2281	2266	2266	2252	2252	3186	3186	3186	3186	3186	3186	3186	3186	3186	3186	3186	3186	3186	3186	3157	3157	3186	0	0	0	0	0	0	0	0	0	0	0	0	0	0	0	0	0	0	0	0	0	0	0	0	0	0	0	0	0	0	0	0	0
0	0	0	0	0	0	0	0	0	0	0	0	1282	1287	1287	1287	1287	1287	0	0	0	0	0	0	0	0	0	0	0	0	0	0	0	0	0	0	0	0	0	0	0	0	0	0	0	0	0	0	0	0	0	0	0	0	0	0	0	0	0	0	0	0	0	0	0	0	0	0	0	0	0	0	0	0	0	0	0	0	0	0	0	0	0	0	0	0	0	0	0	0	0	0	0	0	0	0	0	0	0	2051	2051	2063	2051	2039	2039	2039	2027	2015	2015	2003	2015	2015	2003	2015	2003	2003	2015	2003	2003	2003	2003	2003	2003	2015	2015	2027	2039	2039	0	0	0	0	0	0	0	0	0	0	0	0	0	0	2711	2711	2690	2669	2669	2690	2690	2711	2690	2690	2690	2690	2690	2690	2690	2690	2669	2669	2690	2669	2669	2669	2669	2669	2669	2669	2669	2669	2690	2690	2669	2669	2669	2669	2669	2649	2649	0	0	0	0	0	0	0	0	2754	2754	2754	2754	0	0	0	0	0	0	0	0	0	0	0	0	0	0	0	0	0	0	0	0	0	2942	2942	0	0	0	0	3073	3073	3073	3907	3907	3907	3907	3907	3907	3907	3952	3998	4045	4093	4142	4243	4243	4243	4296	4296	4350	4350	4350	4350	6468	6468	6349	6349	6235	6235	6349	6349	6349	6349	6349	6468	6468	6349	6349	6349	6349	6349	6349	6235	6235	6235	6235	6235	6235	6235	6235	0	0	0	0	0	0	0	0	0	0	0	0	0	0	0	0	0	0	0	5364	5364	5364	5364	5282	5282	5282	5202	5282	4093	4093	4093	4093	4093	4093	4093	4093	4093	4093	4093	4093	4093	4093	4093	4093	3998	3998	3998	5050	5050	4977	4977	5050	5050	5050	5050	5050	5050	5050	5125	5125	4142	4142	4142	4142	4142	4142	4142	4142	4142	4142	4142	4142	4142	4142	4093	4142	4093	4093	5050	5050	5050	5050	5050	5050	5915	5915	5915	5915	5915	5815	5815	5815	5815	5815	5815	5815	5815	5815	5719	5626	5626	8343	8343	8146	7959	7959	7608	7608	7444	7137	6468	6349	6235	6235	6235	6235	6349	6349	6349	6349	6349	6468	6468	6468	6468	6468	6468	6468	6468	6468	6592	6592	6592	6468	6468	6468	6468	8550	8343	8343	8146	8146	8146	7959	7959	7959	7959	7959	7959	7959	7959	7959	7959	7779	7779	7959	7959	7959	7959	8146	7959	7959	7959	7959	7959	7779	7779	7779	7779	7959	7959	7959	7959	7959	7959	8146	7959	7959	7959	7959	7959	0	0	0	0	0	0	0	0	0	0	0	0	0	0	4463	4463	4463	4463	4463	4463	4463	4406	4406	4406	4406	4350	4296	4296	4296	4296	4243	4192	4192	4296	4350	4350	4406	4350	4350	4406	4406	4350	4350	4350	4350	0	0	0	0	0	0	0	0	4521	4521	4521	4350	4350	4350	4406	4406	4406	4406	3216	3216	3216	3186	3186	3186	3186	3186	3186	3186	0	2893	2869	2869	2869	2869	2869	2869	2845	2799	2799	3309	3246	3216	3216	3186	3186	3186	3216	3216	3216	3186	3186	3186	3186	3216	3216	3216	3216	3216	3216	3216	3216	3216	3216	3216	3216	3216	3246	3246	3246	3216	3216	3216	3216	3186	3186	3186	3186	0	0	0	0	0	2297	2297	2297	2297	2281	2281	2281	2266	2266	2266	2266	2237	2237	2237	3186	3186	3186	3186	3186	3186	3186	3186	3186	3186	3157	3186	3157	3157	3157	3157	0	0	0	0	0	0	0	0	0	0	0	0	0	0	0	0	0	0	0	0	0	0	0	0	0	0	0	0	0	0	0	0	0
0	0	0	0	0	0	0	0	0	0	0	0	1282	1287	1282	1282	1282	1282	0	0	0	0	0	0	0	0	0	0	0	0	0	0	0	0	0	0	0	0	0	0	0	0	0	0	0	0	0	0	0	0	0	0	0	0	0	0	0	0	0	0	0	0	0	0	0	0	0	0	0	0	0	0	0	0	0	0	0	0	0	0	0	0	0	0	0	0	0	0	0	0	0	0	0	0	0	0	0	0	0	2051	2063	2063	2051	2039	2039	2039	2027	2015	2003	2015	2015	2015	2015	2015	2003	2015	2015	2003	2003	2003	2003	2015	2003	2015	2015	2015	2027	2027	0	0	0	0	0	0	0	0	0	0	0	0	0	2690	2690	2690	2690	2669	2669	2669	2690	2690	2690	2690	2690	2690	2690	2690	2669	2669	2669	2669	2669	2669	2669	2669	2669	2669	2669	2669	2669	2669	2669	2690	2669	2669	2669	2669	2649	2649	2649	0	0	0	0	0	0	0	0	2754	2754	2754	2754	0	0	0	0	0	0	0	0	0	0	0	0	0	0	0	0	0	0	0	0	0	0	0	0	0	0	0	0	0	0	3907	3907	3907	3864	3907	3907	3907	3907	3998	4045	4093	4192	4243	4243	4296	4296	4350	4350	4350	4350	4350	6468	6468	6468	6349	6349	6235	6349	6349	6349	6349	6349	6468	6468	6349	6349	6349	6349	6349	6235	6235	6235	6235	6235	6235	6235	6235	6349	6235	6235	0	0	0	0	0	0	0	0	0	0	0	0	0	0	0	0	0	0	5364	5364	5364	5282	5282	5282	5202	5202	5202	5202	4093	4093	4093	4093	4093	4093	4093	4093	4093	4093	4093	4045	4093	4045	4093	4045	5050	5050	5050	4977	4977	5050	5050	5050	5050	5050	5050	5050	5050	5050	4142	4142	4142	4142	4142	4142	4142	4142	4142	4142	4142	4142	4093	4093	4093	4093	4093	5125	5125	5050	5050	5050	5050	5050	5815	5815	5815	5915	5915	5815	5815	5815	5815	5815	5815	5719	5719	5815	5815	6018	6018	8343	8343	8146	7959	7779	7608	7608	7444	7287	6349	6349	6235	6235	6349	6349	6349	6349	6349	6349	6468	6468	6468	6468	6468	6468	6468	6468	6468	6468	6592	6468	6592	6468	6592	6468	6468	8343	8343	8146	8146	8146	8146	7959	7959	7959	7959	7959	7959	7959	7959	7779	7779	7779	7959	7959	8146	8146	8146	8146	8146	8146	7959	7959	7959	7779	7779	7779	7779	7959	7959	7959	7959	7959	8146	8146	8146	7959	7959	7959	7959	0	0	0	0	0	0	0	0	0	0	0	0	0	0	4463	4463	4463	4463	4463	4463	4406	4406	4406	4406	4406	4350	4350	4350	4350	4350	4350	4350	4350	4350	4350	4350	4406	4406	4350	4406	4406	4350	4350	4093	4093	3998	4045	4093	4192	4192	4581	4581	4521	4463	4463	4463	4406	4406	4350	4406	4406	4406	4406	4350	3246	3216	3216	3186	3186	3186	3186	3186	3186	0	2893	2893	2893	2869	2893	2869	2845	2845	2799	2822	2822	3246	3216	3216	3216	3216	3216	3216	3216	3216	3216	3216	3186	3216	3216	3216	3216	3216	3216	3186	3216	3186	3216	3216	3216	3216	3216	3216	3216	3216	3216	3216	3216	3216	3186	3186	3186	3186	0	0	0	0	0	2297	2312	2312	2297	2281	2281	2281	2281	2266	2266	2266	2252	2252	2252	2252	3186	3186	3186	3186	3186	3186	3186	3186	3186	3157	3186	3186	3157	3157	3157	0	0	0	0	0	0	0	0	0	0	0	0	0	0	0	0	0	0	0	0	0	0	0	0	0	0	0	0	0	0	0	0	0
0	0	0	0	0	0	0	0	0	0	0	0	1282	1287	1282	1282	1282	1282	0	0	0	0	0	0	0	0	0	0	0	0	0	0	0	0	0	0	0	0	0	0	0	0	0	0	0	0	0	0	0	0	0	0	0	0	0	0	0	0	0	0	0	0	0	0	0	0	0	0	0	0	0	0	0	0	0	0	0	0	0	0	0	0	0	0	0	0	0	0	0	0	0	0	0	0	0	0	0	0	0	2076	2076	2076	2076	2039	2039	2039	2015	2015	2003	2003	2015	2015	2015	2015	2015	2015	2015	2015	2003	2015	2015	2003	2003	2015	2015	2027	2027	2027	0	0	0	0	0	0	0	0	0	0	0	0	0	2690	2690	2690	2690	2669	2669	2690	2690	2690	2690	2690	2690	2690	2690	2669	2669	2669	2669	2669	2669	2669	2669	2669	2669	2669	2669	2669	2669	2669	2669	2669	2669	2669	2669	2669	2669	2649	2649	0	0	0	0	0	0	0	0	0	2754	2754	0	0	0	0	0	0	0	0	0	0	0	0	0	0	0	0	0	0	0	0	0	0	0	0	0	0	0	0	0	0	0	3907	3907	3907	3864	3907	3907	3907	3907	3952	4045	4093	4142	4192	4243	4296	4296	4296	4350	4350	4350	4350	6468	6468	6468	6468	6349	6349	6468	6468	6468	6349	6349	6349	6349	6349	6349	6349	6349	6235	6235	6235	6235	6235	6349	6235	6235	6235	6349	6235	6124	6124	0	0	0	0	0	0	0	0	0	0	0	0	0	0	0	0	0	0	5364	5282	5282	5282	5282	5202	5202	5202	5202	0	4142	4093	4093	4093	4093	4093	4093	4093	4093	4093	4045	4093	4045	4045	4045	5050	5050	5050	4977	4977	5050	5050	5050	5050	5050	4977	5050	5050	5050	5050	4142	4142	4142	4142	4142	4142	4142	4142	4142	4142	4142	4142	4093	4093	4093	5125	5125	5050	5050	4977	4977	5050	5050	5915	5915	5915	5915	5915	5815	5815	5815	5815	5815	5815	5719	5815	5815	5815	6018	6018	6018	8343	8146	7959	7779	7608	7608	7444	7444	7137	6468	6349	6349	6349	6349	6468	6468	6468	6468	6468	6468	6468	6592	6468	6592	6592	6592	6592	6592	6592	6592	6592	6592	6592	6592	6592	8550	8343	8343	8343	8343	8146	7959	7959	7959	7959	7959	7959	7959	7959	7779	7779	7779	7959	7959	8146	8146	8146	8146	8146	8146	7959	7959	7959	7959	7779	7959	7959	7959	7959	7959	7959	7959	7959	7959	7959	7959	7959	7959	7959	0	0	0	0	0	0	0	0	0	0	0	0	0	0	4521	4521	4463	4521	4521	4463	4406	4406	4406	4463	4406	4406	4350	4406	4350	4350	4350	4350	4350	4350	4406	4406	4406	4406	4350	4350	4350	4296	4192	4142	4045	4045	4045	4093	4192	4192	4521	4521	4463	4406	4406	4406	4406	4406	4350	4350	4406	4406	4350	3216	3216	3216	3186	3186	3186	3186	3157	3157	3186	0	0	2869	2869	2869	2869	2869	2845	2845	2845	2822	2822	3216	3216	3216	3216	3216	3216	3216	3216	3186	3186	3216	3186	3216	3216	3216	3216	3216	3186	3186	3186	3216	3216	3216	3216	3216	3216	3216	3216	3216	3216	3216	3216	3216	3186	3186	3186	3186	0	0	0	0	0	0	2297	2297	2297	2281	2281	2281	2281	2266	2266	2266	2252	2252	2252	2252	3186	3186	3186	3186	3186	3186	3186	3186	3186	3157	3186	3186	3157	3157	3157	0	0	0	0	0	0	0	0	0	0	0	0	0	0	0	0	0	0	0	0	0	0	0	0	0	0	0	0	0	0	0	0	0
0	0	0	0	0	0	0	0	0	0	0	0	1282	1282	1282	1282	1282	0	0	0	2027	2051	2039	2039	2015	2015	0	0	0	0	0	0	0	0	0	0	0	0	0	0	0	0	0	0	0	0	0	0	0	0	0	0	0	0	0	0	0	0	0	0	0	0	0	0	0	0	0	0	0	0	0	0	0	0	0	0	0	0	0	0	0	0	0	0	0	0	0	0	0	0	0	0	0	0	0	0	0	0	2088	2076	2088	2088	2076	2051	2039	2039	2027	2015	2015	2015	2015	2015	2015	2015	2015	2015	2015	2003	2003	2015	2003	2003	2003	2015	2015	2039	2039	2039	0	0	0	0	0	0	0	0	0	0	0	0	0	0	0	2690	2690	2669	2669	2690	2690	2690	2690	2690	2690	2690	2690	2690	2669	2669	2669	2669	2690	2690	2669	2669	2669	2669	2669	2669	2669	2669	2669	2669	2669	2669	2669	2669	2649	2629	2629	0	0	0	0	0	0	0	0	0	2754	2754	0	0	0	0	0	0	0	0	0	0	0	0	0	0	0	0	0	0	0	0	0	0	0	0	0	0	0	0	0	0	0	3907	3864	3864	3864	3907	3907	3907	3907	3952	4045	4093	4142	4243	4243	4296	4296	4350	4350	4350	4350	4350	6468	6468	6468	6468	6349	6349	6349	6468	6468	6349	6349	6468	6349	6349	6349	6349	6349	6349	6235	6235	6235	6235	6349	6235	6235	6235	6349	6235	6124	6124	0	0	0	0	0	0	0	0	0	0	0	0	0	0	0	0	0	0	0	5282	5282	5282	5282	4906	4906	5202	0	0	4142	4093	4093	4093	4093	4093	4093	4093	4093	4093	4045	4045	4045	4045	4045	5050	5050	4977	4977	4977	5050	5050	5050	5050	5050	5050	5050	5050	5050	4977	4142	4142	4142	4142	4142	4142	4142	4142	4142	4093	4093	4093	4093	4093	4093	5125	5125	5050	5050	4977	4838	4838	4838	4838	5915	5815	5915	5915	5815	5815	5815	5815	5815	5815	5815	5815	5815	5815	6018	6018	6018	8343	8146	7959	7779	7608	7608	7444	7444	7137	6592	6468	6468	6468	6468	6468	6468	6468	6468	6468	6468	6468	6592	6468	6468	6468	6592	6592	6592	6592	6592	6592	6592	6592	6592	6592	6592	8550	8550	8550	8343	8146	8146	8146	8146	8146	8146	7959	7959	7779	7779	7779	7779	7959	7959	7959	7959	7959	8146	8146	8146	7959	7959	7959	7779	7779	7959	7959	7959	7959	7959	7959	7959	8146	8146	8146	8146	7959	7959	7959	0	0	0	0	0	0	0	0	0	0	0	0	0	0	4463	4463	4463	4463	4463	4406	4406	4406	4406	4406	4406	4406	4350	4350	4350	4350	4350	4350	4350	4350	4350	4350	4406	4350	4350	4296	4296	4243	4142	4093	3998	3998	3998	4045	4142	4142	4521	4521	4463	4406	4406	4406	4406	4406	4350	4406	4406	4406	4350	3246	3216	3216	3186	3186	3186	3186	3157	3157	0	0	0	2869	2869	2869	2869	2869	2845	2869	2845	2845	3246	3246	3277	3246	3216	3216	3216	3216	3216	3186	3186	3216	3186	3216	3216	3216	3216	3216	3216	3216	3216	3216	3216	3216	3216	3216	3216	3216	3216	3216	3216	3216	3216	3216	3186	3186	3186	3186	0	0	0	0	0	0	2297	2281	2281	2281	2281	2281	2281	2281	2266	2266	2266	2266	2266	0	3186	3186	3186	3186	3186	3186	3186	3186	3157	3186	3186	3186	3186	3186	3186	0	0	0	0	0	0	0	0	0	0	0	0	0	0	0	0	0	0	0	0	0	0	0	0	0	0	0	0	0	0	0	0	0
0	0	0	0	0	0	0	0	0	0	0	0	1282	1282	1277	1277	1277	0	0	0	2027	2039	2039	2039	2015	2015	2015	2015	0	0	0	0	0	0	0	0	0	0	0	0	0	0	0	0	0	0	0	0	0	0	0	0	0	0	0	0	0	0	0	0	0	0	0	0	0	0	0	0	0	0	0	0	0	0	0	0	0	0	0	0	0	0	0	0	0	0	0	0	0	0	0	0	0	0	0	1958	1958	0	2101	2088	2101	2088	2088	2076	2051	2039	2039	2015	2015	2003	2015	2015	2003	2015	2015	2015	2015	2015	2003	2003	2015	2003	2003	2003	2015	2015	2027	2027	0	0	0	0	0	0	0	0	0	0	0	0	0	0	0	2690	2669	2669	2669	2669	2690	2690	2690	2690	2690	2690	2690	2690	2669	2669	2669	2669	2669	2690	2669	2669	2690	2669	2669	2669	2669	2669	2669	2669	2669	2669	2669	2669	2649	2649	2649	0	0	0	0	0	0	0	0	0	0	0	0	0	0	0	0	0	0	0	0	0	0	0	0	0	0	0	0	0	0	0	0	0	0	0	0	0	0	0	0	0	3738	3779	3821	3864	3864	3907	3907	3907	3952	3998	4045	4093	4142	4243	4243	4296	4296	4296	4350	4350	4350	4350	4406	6468	6468	6468	6349	6349	6349	6468	6468	6468	6349	6468	6468	6349	6349	6349	6349	6349	6349	6235	6349	6349	6349	6235	6235	6349	6349	6124	6124	6124	0	0	0	0	0	0	0	0	0	0	0	0	0	0	0	0	0	0	0	0	5282	5282	5282	4906	4906	0	0	0	0	4093	4093	4093	4093	4093	4093	4093	4093	4093	4045	4045	3998	3998	3998	5050	5050	4977	4977	4977	5050	5050	5050	5050	5050	5050	5050	4977	4977	4977	4142	4142	4142	4142	4142	4142	4142	4142	4142	4142	4093	4093	4093	4093	4093	5125	5050	5050	4977	4977	4977	4906	4906	4906	5915	5815	5915	5815	5815	5815	5815	5815	5815	5815	5815	5815	5815	5815	6124	6124	8343	8343	8146	7779	7779	7608	7608	7444	7287	7287	6592	6468	6468	6468	6468	6592	6468	6468	6468	6468	6468	6468	6468	6468	6468	6468	6592	6592	6592	6592	6592	6592	6592	6468	6349	6349	6349	8550	8550	8343	8343	8343	8146	8146	8146	8146	8146	7959	7959	7959	7959	7959	7779	7959	7959	7959	7959	7959	8146	8146	8146	7959	7959	7959	7779	7779	7779	7779	7959	7959	7959	7959	7959	8146	8146	8146	8146	8146	7959	7959	0	0	0	0	0	0	0	0	0	0	0	0	0	0	4463	4463	4463	4463	4463	4406	4406	4406	4406	4406	4406	4406	4350	4350	4350	4350	4406	4406	4406	4406	4406	4406	4406	4350	4296	4296	4296	4243	4142	4093	3998	3998	3998	4045	4093	4093	4463	4463	4406	4406	4406	4406	4350	4350	4350	4350	4406	4406	4350	3246	3216	3216	3186	3186	3186	3186	3186	3186	0	0	0	0	2845	2845	2869	2869	2845	2845	2845	2845	3277	3277	3277	3246	3216	3216	3216	3216	3216	3186	3186	3216	3186	3216	3216	3216	3216	3216	3216	3216	3216	3216	3186	3186	3216	3216	3216	3216	3216	3216	3216	3216	3216	3186	3186	3186	3186	3186	0	0	0	0	0	0	2281	2281	2297	2281	2281	2281	2281	2266	2266	2266	2266	2266	2266	0	0	3186	3186	3186	3186	3186	3186	3186	3157	3186	3186	3186	3186	3186	3186	0	0	0	0	0	0	0	0	0	0	0	0	0	0	0	0	0	0	0	0	0	0	0	0	0	0	0	0	0	0	0	0	0
0	0	0	0	0	0	0	0	0	0	0	0	1282	1282	1282	1277	1277	0	0	2015	2015	2039	2027	2039	2027	2027	2027	2015	2015	2015	0	0	0	0	0	0	0	0	0	0	0	0	0	0	0	0	0	0	0	0	0	0	0	0	0	0	0	0	0	0	0	0	0	0	0	0	0	0	0	0	0	0	0	0	0	0	0	0	0	0	0	0	0	0	0	0	0	0	0	0	0	0	0	0	1969	1958	1958	2088	2088	2088	2101	2088	2088	2051	2027	2039	2027	2015	2015	2003	2003	2015	2015	2015	2015	2015	2027	2015	2015	2015	2015	2015	2003	2003	2003	2015	2015	2015	0	0	0	0	0	0	0	0	0	0	0	0	0	0	0	0	2669	2649	2669	2669	2690	2690	2690	2690	2690	2690	2690	2669	2669	2669	2690	2690	2690	2690	2669	2669	2669	2690	2669	2669	2669	2669	2669	2669	2669	2669	2669	2669	2669	2669	2669	0	0	0	0	0	0	0	3373	3341	3341	3341	3341	3341	0	0	0	0	0	0	0	0	0	0	0	0	0	0	0	0	0	0	0	0	0	0	0	0	0	0	3698	3738	3779	3779	3821	3864	3864	3907	3907	3952	3952	3998	4045	4142	4142	4243	4243	4243	4296	4296	4296	4350	4350	4350	6349	6349	6468	6349	6349	6349	6349	6349	6349	6349	6349	6468	6468	6349	6349	6349	6349	6349	6235	6235	6349	6349	6349	6349	6349	6349	6235	6235	6124	6124	0	0	0	0	0	0	0	0	0	0	0	0	0	0	0	0	0	0	0	0	0	0	0	0	0	0	0	0	0	4093	4093	4093	4093	4093	4093	4093	4093	4093	4045	4045	3998	3998	4977	4977	4977	4977	4977	4977	5050	5050	5050	5050	5050	5050	5050	4977	4977	4977	4142	4142	4142	4142	4142	4142	4142	4142	4142	4142	4093	4093	4093	4093	5050	5050	5050	5050	4977	4977	4977	4906	4977	4977	5815	5815	5915	5815	5815	5815	5815	5815	5815	5815	5815	5815	5815	5815	5815	5815	8146	8146	7959	7779	7779	7608	7608	7287	7137	6720	6468	6468	6468	6468	6468	6468	6468	6468	6468	6468	6468	6468	6468	6592	6468	6468	6592	6468	6468	6468	6468	6468	6592	6592	6349	6349	8343	8146	8146	8146	8146	8146	8146	8146	8146	8146	8146	7959	7959	7959	7959	7779	7779	7959	7959	7959	7959	7959	7959	8146	8146	7959	7779	7959	7779	7779	7779	7779	7959	7959	7959	7959	7959	8146	8146	8146	8146	8146	7959	7959	0	0	0	0	0	0	0	0	0	0	0	0	0	0	4463	4463	4406	4406	4406	4406	4406	4406	4350	4406	4406	4406	4350	4350	4350	4350	4406	4406	4406	4406	4406	4406	4406	4406	4296	4296	4243	4142	4093	4045	3998	3998	3998	4045	4045	4045	4350	4350	4350	4350	4350	4350	4350	4350	4350	4350	4406	4406	3216	3216	3216	3216	3186	3186	3186	3216	3186	3186	0	0	0	0	2845	2845	2869	2869	2845	2845	2845	2845	3277	3277	3277	3246	3216	3216	3216	3216	3186	3186	3186	3216	3186	3216	3216	3216	3216	3216	3216	3216	3216	3216	3186	3186	3186	3186	3216	3186	3216	3216	3216	3216	3216	3186	3186	3186	3216	3216	0	0	0	0	0	0	2297	2297	2297	2297	2266	2266	2266	2281	2266	2266	2266	2266	2266	0	0	3246	3216	3186	3186	3186	3186	3186	3186	3186	3186	3186	3186	3186	3186	0	0	0	0	0	0	0	0	0	0	0	0	0	0	0	0	0	0	0	0	0	0	0	0	0	0	0	0	0	0	0	0	0
0	0	0	0	0	0	0	0	0	0	0	0	1282	1282	1282	1277	1277	0	0	2015	2027	2027	2027	2027	2027	2015	2015	2015	2015	2003	2003	0	0	0	0	0	0	0	0	0	0	0	0	0	0	0	0	0	0	0	0	0	0	0	0	0	0	0	0	0	0	0	0	0	0	0	0	0	0	0	0	0	0	0	0	0	0	0	0	0	0	0	0	0	0	0	0	0	0	0	0	0	0	0	1969	1969	1969	2015	2015	2015	2015	2088	2063	2039	2015	2039	2027	2015	2015	2003	2003	2015	2015	2015	2015	2015	2015	2015	2015	2015	2003	2003	2003	2003	1992	1992	2003	2003	2003	0	0	0	0	0	0	0	0	0	0	0	0	0	0	0	2669	2649	2669	2669	2690	2690	2690	2690	2690	2690	2690	2669	2669	2669	2690	2690	2669	2690	2669	2669	2669	2669	2669	2669	2669	2669	2669	2669	2669	2669	2669	2669	2669	2669	2669	0	0	0	0	0	0	3341	3373	3341	3341	3341	3341	3341	3309	3309	0	0	0	0	0	0	0	0	0	0	0	0	0	0	0	0	0	0	3546	3546	3583	3583	3583	3698	3698	3738	3779	3821	3821	3864	3864	3864	3907	3907	3952	3952	4045	4093	4142	4142	4243	4243	4296	4296	4296	4296	4296	4296	6349	6349	6349	6349	6349	6235	6235	6235	6235	6235	6349	6349	6349	6349	6349	6349	6349	6349	6349	6235	6349	6349	6349	6349	6349	6349	6349	6235	6124	6124	6124	0	0	0	0	0	0	0	0	0	0	0	0	0	0	0	0	0	0	0	0	0	0	0	0	0	0	0	0	4093	4045	4093	4093	4093	4093	4093	4093	4093	4045	4045	4045	4045	5050	4977	4977	4977	4977	4977	5050	5050	5050	5050	5050	5050	5050	5050	5050	5050	4142	4142	4142	4142	4142	4142	4142	4142	4142	4093	4093	4093	4093	4093	5125	5125	5050	5050	5050	4977	4977	4906	4977	4977	5915	5915	5915	5815	5815	5815	5815	5815	5815	5719	5719	5815	5815	5815	8550	8343	8146	8146	7959	7779	7779	7608	7444	7137	6992	6592	6592	6468	6468	6468	6468	6468	6468	6468	6468	6349	6468	6468	6468	6468	6468	6468	6468	6468	6592	6468	6468	6468	6468	6468	6349	6349	8343	8146	8146	8146	8146	8146	8146	8146	8146	8146	8146	7959	7959	7959	7959	7779	7779	7959	7959	7959	7959	7959	8146	8146	8146	7959	7779	7779	7779	7779	7779	7779	7779	7959	7959	7959	7959	8146	8146	8146	8146	8146	8146	8146	0	0	0	0	0	0	0	0	0	0	0	0	0	0	4463	4463	4406	4406	4406	4406	4406	4406	4406	4406	4406	4406	4350	4350	4350	4350	4406	4406	4406	4406	4406	4406	4406	4406	4350	4296	4243	4142	4093	4045	3998	3952	3952	3998	3952	3952	4296	4296	4350	4350	4350	4350	4350	4350	4350	4406	4406	4406	3216	3246	3216	3186	3186	3186	3216	3216	3216	3186	0	0	0	2822	2845	2845	2845	2845	2845	2845	2845	2822	2822	3309	3309	3277	3246	3216	3186	3216	3216	3186	3186	3216	3186	3216	3186	3216	3216	3216	3216	3216	3216	3186	3186	3186	3186	3186	3216	3186	3216	3216	3216	3216	3216	3186	3186	3186	3186	3186	0	0	0	0	0	0	2297	2297	2297	2281	2266	2297	2266	2281	2266	2252	2252	2252	2252	0	3246	3216	3186	3186	3186	3186	3186	3186	3186	3186	3186	3186	3186	3186	3186	0	0	0	0	0	0	0	0	0	0	0	0	0	0	0	0	0	0	0	0	0	0	0	0	0	0	0	0	0	0	0	0	0
0	0	0	0	0	0	0	0	0	0	0	0	1282	1282	1282	1282	1282	0	0	2015	2015	2015	2027	2027	2027	2015	2027	2027	2027	2015	2015	0	0	0	0	0	0	0	0	0	0	0	0	0	0	0	0	0	0	0	0	0	0	0	0	0	0	0	0	0	0	0	0	0	0	0	0	0	0	0	0	0	0	0	0	0	0	0	0	0	0	0	0	0	0	0	0	0	0	0	0	0	0	0	0	1992	2015	2015	1992	2003	2003	2063	2063	2027	2015	2027	2027	2015	2015	2003	2003	2015	2015	2015	2015	2015	2015	2015	2015	2015	2003	2003	1992	1992	1992	2003	1992	1992	1992	0	0	0	0	0	0	0	0	0	0	0	0	0	0	0	2669	2669	2690	2690	2690	2690	2690	2690	2711	2711	2690	2669	2669	2669	2690	2690	2669	2669	2649	2669	2669	2669	2669	2669	2669	2669	2669	2669	2669	2669	2669	2669	2669	2649	2629	2629	0	0	0	0	0	3341	3373	3341	3341	3341	3341	3341	3341	3309	3309	0	0	0	0	0	0	0	0	0	0	0	0	0	0	0	3583	3546	3583	3583	3583	3621	3659	3698	3698	3738	3779	3821	3821	3821	3821	3864	3864	3907	3907	3952	4045	4093	4142	4192	4243	4296	4296	4296	4243	4296	4296	4296	6349	6349	6349	6349	6349	6235	6235	6235	6235	6235	6235	6349	6349	6349	6349	6349	6349	6349	6349	6468	6349	6349	6349	6349	6349	6349	6349	6235	6124	6124	6124	0	0	0	0	0	0	0	0	0	0	0	0	0	0	0	0	0	0	0	0	0	0	0	0	0	0	0	0	4093	4093	4093	4093	4093	4093	4093	4093	4093	4045	4045	4045	5050	5050	4977	4977	4977	4977	4977	5050	5050	5050	5050	5050	5050	5050	5050	5050	5050	5125	4142	4142	4142	4142	4142	4142	4142	4142	4142	4093	4093	4045	3998	3998	5125	5125	5050	5050	4977	4977	4906	4906	4906	4906	5815	5815	5815	5815	5815	5815	5815	5815	5815	5719	5719	5719	5719	8550	8343	8146	8146	7959	7779	7779	7608	7444	7137	6992	6720	6592	6468	6468	6468	6468	6592	6468	6468	6349	6349	6349	6468	6468	6468	6468	6468	6468	6468	6468	6468	6468	6468	6468	6468	6468	6468	8343	8550	8550	8343	8343	8146	8146	8146	8146	8146	8146	7959	8146	7959	7959	7779	7959	7959	7959	7959	7959	7959	8146	8146	8146	7959	7779	7779	7779	7779	7779	7779	7779	7959	7959	7959	7959	8146	8146	8146	8146	8146	8343	8343	0	0	0	0	0	0	0	0	0	0	0	0	0	0	4463	4463	4406	4406	4406	4406	4406	4406	4406	4406	4406	4406	4406	4406	4350	4406	4406	4406	4406	4406	4406	4406	4406	4406	4350	4296	4243	4142	4093	4045	3998	3998	3952	3998	3998	3998	3952	3952	4296	4350	4350	4406	4406	4406	4406	4406	4463	4406	3246	3216	3216	3186	3186	3186	3216	3216	3216	0	0	0	2822	2822	2845	2845	2845	2845	2845	2845	2845	2822	2822	3309	3277	3277	3216	3216	3186	3216	3186	3186	3186	3186	3186	3186	3186	3186	3216	3216	3186	3186	3216	3186	3186	3186	3186	3186	3216	3186	3216	3216	3216	3186	3216	3186	3186	3186	3186	3186	0	0	0	0	0	0	2297	2297	2297	2281	2281	2297	2266	2281	2266	2252	2252	2252	2252	3277	3246	3246	3186	3186	3186	3186	3186	3186	3186	3186	3186	3186	3186	3186	3186	0	0	0	0	0	0	0	0	0	0	0	0	0	0	0	0	0	0	0	0	0	0	0	0	0	0	0	0	0	0	0	0	0
0	0	0	0	0	0	0	0	0	0	0	0	1287	1287	1282	1287	1287	0	0	2015	2015	2027	2027	2039	2039	2027	2027	2027	2039	2027	2027	0	0	0	0	0	0	0	0	0	0	0	0	0	0	0	0	0	0	0	0	0	0	0	0	0	0	0	0	0	0	0	0	0	0	0	0	0	0	0	0	0	0	0	0	0	0	0	0	0	0	0	0	0	0	0	0	0	0	0	0	0	0	0	0	1992	2003	2003	2003	2003	2003	2039	2039	2015	2003	2015	2015	2003	2003	2003	2003	2015	2003	2015	2015	2015	2015	2003	2003	2003	2003	2003	2003	1992	1992	2003	2003	1992	1992	0	0	0	0	0	0	0	0	0	0	0	0	0	0	0	2690	2690	2690	2690	2690	2690	2690	2690	2690	2711	2711	2690	2669	2669	2690	2690	2669	2669	2649	2669	2669	2669	2669	2669	2669	2669	2669	2669	2669	2669	2669	2669	2669	2649	2649	2649	0	0	3406	3406	0	3373	3373	3341	3373	3341	3373	3373	3373	3341	3341	3341	0	0	0	0	0	0	3406	3406	3510	3510	0	0	0	0	3583	3583	3583	3583	3621	3621	3698	3698	3738	3738	3738	3779	3821	3821	3821	3864	3907	3907	3952	3952	4045	4093	4142	4192	4243	4243	4296	4243	4243	4243	4463	4463	4463	6349	6349	6349	6349	6235	6235	6235	6235	6235	6235	6349	6349	6349	6349	6349	6349	6349	6349	6349	6468	6349	6349	6349	6235	6349	6349	6349	6124	6124	0	0	0	0	0	0	0	0	0	0	0	0	0	0	0	0	0	0	0	0	0	0	0	0	0	0	0	0	0	4093	4093	4093	4093	4093	4093	4093	4093	4093	4045	4045	4045	5050	5050	5050	4977	4977	4977	4977	5050	5050	5050	5050	5050	5050	5050	5050	5050	5050	5050	5050	4142	4142	4142	4142	4142	4142	4142	4142	4093	4093	4045	4045	4045	5125	5125	5050	5050	4977	4977	4977	4906	4906	4906	5915	5915	5815	5815	5815	5815	5815	5815	5815	5815	5815	5815	8550	8550	8343	8343	8146	7959	7779	7779	7608	7444	7137	6992	6720	6592	6468	6468	6468	6468	6468	6349	6349	6349	6349	6349	6349	6349	6468	6468	6468	6468	6468	6468	6468	6468	6468	6468	6468	6468	6468	6468	8343	8550	8343	8343	8343	8343	8146	8146	7959	7959	7959	7959	7959	7959	7779	7959	7959	7959	7959	7959	7959	8146	8146	8146	7959	7779	7779	7779	7779	7779	7779	7779	7959	7959	7959	7959	7959	8146	8146	8146	8146	8343	8343	8343	0	0	0	0	0	0	0	0	0	0	0	0	0	0	4406	4406	4406	4406	4406	4406	4406	4406	4406	4406	4406	4350	4350	4350	4406	4406	4406	4406	4406	4406	4406	4406	4406	4350	4296	4296	4142	4093	4045	3998	3998	3952	3952	3952	3952	3952	3952	4296	4296	4406	4406	4406	4406	4406	4463	4463	3277	3246	3216	3216	3186	3186	3186	3216	3216	3216	0	0	0	2822	2845	2845	2845	2845	2869	2845	2845	2845	2845	3309	3309	3309	3277	3246	3216	3186	3216	3186	3186	3186	3216	3186	3216	3186	3186	3216	3216	3216	3186	3216	3186	3186	3186	3186	3186	3186	3186	3216	3186	3186	3186	3186	3186	3186	3186	3186	0	0	0	0	0	0	0	2297	2297	2297	2281	2281	2281	2281	2266	2266	2237	2237	2237	0	3277	3277	3246	3186	3186	3157	3186	3186	3186	3186	3186	3216	3216	3216	3186	3186	0	0	0	0	0	0	0	0	0	0	0	0	0	0	0	0	0	0	0	0	0	0	0	0	0	0	0	0	0	0	0	0	0
0	0	0	0	0	0	0	0	0	0	0	0	1287	1287	1287	1287	1287	0	0	2015	2015	2027	2027	2027	2027	2027	2027	2027	2039	2039	2039	0	0	0	0	0	0	0	0	0	0	0	0	0	0	0	0	0	0	0	0	0	0	0	0	0	0	0	0	0	0	0	0	0	0	0	0	0	0	0	0	0	0	0	0	0	0	0	0	0	0	0	0	0	0	0	0	0	0	0	2015	2003	2003	1992	1992	2003	2003	2003	2003	2003	2003	2015	2027	2015	2015	2015	2015	2003	2003	2003	2003	2003	2003	2003	2015	2015	2015	2015	2015	2015	2003	2003	2003	2003	2003	2003	2003	2003	1992	0	0	0	0	0	0	0	0	0	0	0	0	0	0	0	2690	2690	2690	2690	2690	2690	2690	2690	2690	2690	2690	2690	2669	2669	2690	2690	2669	2669	2669	2669	2669	2669	2669	2669	2669	2669	2669	2669	2669	2669	2669	2669	2629	2629	2629	3406	3373	3373	3373	3406	3373	3373	3373	3341	3373	3373	3373	3373	3373	3341	3341	3341	3373	3341	3341	3341	3373	3373	3406	3373	3440	3475	3475	3440	3475	3546	3583	3583	3583	3621	3621	3659	3659	3698	3738	3779	3779	3821	3821	3821	3821	3864	3907	3907	3952	3952	4045	4093	4142	4192	4192	4243	4296	4296	4243	4243	4463	4463	6235	6349	6349	6235	6235	6235	6235	6235	6235	6235	6349	6235	6349	6349	6235	6349	6349	6349	6349	6235	6349	6349	6349	6349	6235	6349	6124	6124	6124	6124	0	0	0	0	0	0	0	0	0	0	0	0	0	0	0	0	0	0	0	0	0	0	0	0	0	0	0	0	0	4093	4093	4093	4093	4093	4093	4093	4093	4093	4045	4045	4045	5125	5050	5050	4977	4977	4977	4977	5050	5050	5050	5050	5050	5050	5050	5050	5050	5050	5125	5125	4142	4142	4142	4142	4142	4142	4142	4142	4093	4093	4045	4045	5282	5202	5125	5050	5050	5050	5050	5050	4977	5050	5050	5915	5915	5815	5815	5815	5815	5815	5815	5815	5815	5815	8767	8550	8550	8550	8146	8146	7959	7779	7779	7608	7444	7137	6853	6720	6592	6468	6468	6468	6468	6349	6349	6349	6349	6349	6349	6349	6349	6468	6468	6468	6468	6468	6468	6468	6468	6468	6468	6468	6349	6349	6349	8343	8343	8343	8146	8146	8146	8146	8146	8146	7959	7959	7959	7959	7959	7779	7779	7779	7959	7959	7959	7959	7959	7959	7959	7959	7959	7779	7779	7779	7779	7779	7779	7959	7959	7959	7959	8146	8146	8343	8343	8343	8343	8343	8343	0	0	0	0	0	0	0	0	0	0	0	0	0	4350	4406	4406	4406	4406	4406	4406	4406	4406	4406	4406	4350	4350	4350	4350	4350	4350	4350	4406	4406	4406	4406	4406	4406	4350	4350	4296	4296	3952	3952	3952	3952	3952	3952	3952	4045	4045	4045	4350	4350	4406	4406	4406	4463	4406	4463	4463	4406	3246	3216	3186	3186	3216	3186	3186	3216	3216	0	0	0	2845	2845	2869	2869	2869	2869	2845	2845	2845	2845	2822	3309	3309	3216	3216	3216	3186	3216	3186	3186	3216	3216	3186	3216	3186	3186	3216	3186	3186	3186	3216	3186	3186	3186	3186	3186	3186	3186	3216	3186	3186	3186	3186	3186	3186	3186	3157	3157	0	0	0	0	0	0	2281	2297	2281	2281	2281	2281	2281	2266	2266	2223	2223	2223	0	3186	3186	3186	3186	3186	3157	3186	3186	3186	3186	3186	3216	3186	3216	3186	3186	0	0	0	0	0	0	0	0	0	0	0	0	0	0	0	0	0	0	0	0	0	0	0	0	0	0	0	0	0	0	0	0	0
0	0	0	0	0	0	0	0	0	0	0	0	1287	1287	1287	1291	1291	0	0	2015	2015	2015	2027	2027	2027	2027	2027	2027	2039	2027	2027	0	0	0	0	0	0	0	0	0	0	0	0	0	0	0	0	0	0	0	0	0	0	0	0	0	0	0	0	0	0	0	0	0	0	0	0	0	0	0	0	0	0	0	0	0	0	0	0	0	0	0	0	0	0	2039	2039	2039	2039	2027	2015	2015	2015	1992	1992	2003	2003	2003	2003	2003	2027	2027	2027	2027	2027	2015	2015	2015	2003	2003	2003	2003	2003	2015	2015	2015	2015	2015	2015	2015	2015	2003	2003	2003	2003	2015	2003	2003	0	0	0	0	0	0	0	0	0	0	0	0	0	0	0	0	2690	2690	2690	2690	2690	2690	2690	2669	2690	2690	2690	2690	2690	2669	2669	2669	2649	2649	2669	2669	2669	2669	2669	2669	2669	2669	2669	2669	2669	2669	2669	2669	2649	2649	2649	3406	3406	3406	3406	3406	3406	3406	3406	3406	3406	3373	3373	3373	3373	3373	3373	3373	3373	3373	3373	3373	3373	3373	3373	3373	3406	3440	3440	3406	3475	3546	3546	3583	3583	3583	3621	3698	3738	3738	3779	3779	3821	3821	3821	3821	3821	3864	3907	3907	3952	3952	4045	4093	4093	4192	4192	4243	4192	4243	4243	4406	4463	4463	6468	6349	6235	6235	6235	6235	6235	6235	6235	6235	6235	6235	6349	6235	6235	6235	6235	6349	6235	6235	6235	6235	6235	6235	6235	6235	6235	6235	6124	6124	0	0	0	0	0	0	0	0	0	0	0	0	0	0	0	0	0	0	0	0	0	0	0	0	0	0	0	0	0	4045	4093	4093	4093	4093	4093	4093	4093	4045	4045	3998	3998	5050	5050	4977	4977	4977	4977	4906	4906	5050	5050	5050	5050	5050	5050	5050	4977	4977	5050	5125	4192	4192	4142	4142	4142	4142	4142	4142	4093	4093	3998	3998	5202	5125	5050	5050	5050	5050	5050	5050	5050	5050	5050	5050	5915	5815	5815	5815	5815	5815	5815	5815	5719	5719	8550	8550	8343	8343	8146	8146	7959	7959	7779	7608	7444	7137	6853	6592	6592	6468	6349	6349	6349	6349	6349	6349	6349	6235	6349	6349	6349	6468	6349	6468	6468	6468	6468	6468	6468	6468	6468	6468	6592	6592	6720	7779	8343	8146	8146	8146	8146	8146	8146	7959	7959	7959	7959	7959	7959	7779	7779	7779	7959	7959	7959	7959	7959	7959	7959	7959	7959	7779	7779	7779	7779	7779	7779	7959	7959	7959	7959	7959	8146	8146	8146	8146	8146	8343	8343	0	0	0	0	0	0	0	0	0	0	0	0	0	4350	4350	4406	4406	4406	4406	4406	4406	4406	4406	4406	4350	4350	4350	4350	4350	4350	4350	4350	4350	4350	4350	4406	4350	4350	4350	4296	4296	3952	3952	3952	3952	3952	4045	4045	4045	4045	4350	4296	4296	4350	4406	4406	4406	4406	4406	4463	4463	3277	3277	3246	3186	3216	3216	3216	3216	3216	3216	0	2869	2869	2869	2869	2845	2869	2869	2845	2845	2845	2822	2822	3309	3277	3277	3216	3216	3216	3216	3216	3216	3216	3216	3186	3186	3186	3186	3216	3186	3186	3186	3186	3186	3186	3186	3186	3186	3186	3216	3216	3186	3216	3186	3186	3186	3186	3157	3157	3157	0	0	0	2312	2297	2281	2281	2297	2281	2281	2281	2281	2281	2266	2223	2223	2208	2208	2208	3186	3246	3246	3186	3186	3157	3186	3186	3186	3186	3186	3186	3186	3186	3186	3186	0	0	0	0	0	0	0	0	0	0	0	0	0	0	0	0	0	0	0	0	0	0	0	0	0	0	0	0	0	0	0	0	0
0	0	0	0	0	0	0	0	0	0	0	0	1287	1287	1291	1291	1291	0	0	2003	2015	2015	2015	2027	2027	2027	2027	2027	2039	2039	2027	0	0	0	0	0	0	0	1581	1581	0	0	0	0	0	0	0	0	0	0	0	0	0	0	0	0	0	0	0	0	0	0	0	0	0	0	0	0	0	0	0	0	0	0	0	0	0	0	0	0	0	2063	2051	2051	2039	2039	2039	2039	2027	2027	2015	2015	2015	2015	2015	2003	2003	2003	2003	2003	2015	2015	2027	2027	2015	2015	2015	2003	2003	2003	2003	2015	2003	2015	2015	2015	2015	2015	2015	2015	2015	2015	2003	2015	2003	2003	2003	2003	0	0	0	0	0	0	0	0	0	0	0	0	0	0	0	0	0	0	2669	2690	2690	2690	2690	2690	2690	2690	2690	2669	2669	2669	2669	2669	2669	2669	2669	2669	2669	2669	2669	2669	2669	2669	2669	2669	2669	2669	2669	2649	2649	2609	2609	3406	3406	3440	3406	3406	3406	3406	3406	3373	3406	3373	3373	3373	3373	3373	3373	3373	3373	3373	3373	3373	3406	3373	3373	3373	3406	3406	3406	3440	3440	3546	3583	3583	3583	3621	3659	3738	3738	3821	3821	3821	3864	3864	3864	3821	3821	3864	3864	3907	3907	3952	3998	4045	4093	4192	4192	4243	4192	4296	4350	4406	4463	4463	6235	6349	6349	6349	6235	6235	6235	6235	6235	6349	6349	6349	6349	6235	6235	6235	6235	6349	6235	6235	6235	6235	6235	6235	6235	6235	6124	6235	6124	6018	5915	5915	0	0	0	0	0	0	0	0	0	0	0	0	0	0	0	0	0	0	0	0	0	0	0	0	0	0	0	4093	4093	4093	4093	4093	4093	4093	4045	4045	4045	4045	5125	5050	5050	5050	4977	4977	4977	4977	5050	5050	5050	5050	5050	5050	5050	4977	4977	4977	4977	5050	4142	4192	4142	4142	4142	4142	4142	4093	4093	4093	4045	5202	5202	5125	5050	5050	5050	4977	4977	5050	4977	5050	5050	5050	5915	5815	5815	5815	5815	5815	5815	5815	5719	8767	8550	8550	8343	8343	8146	7959	7959	7959	7779	7608	7287	6992	6720	6720	6592	6592	6468	6468	6468	6349	6349	6349	6349	6349	6468	6349	6349	6468	6468	6468	6468	6468	6468	6468	6592	6592	6592	6468	6592	6592	6853	7779	8343	8146	8146	8146	8146	7959	8146	7959	7959	7959	7959	7959	7779	7779	7779	7779	7779	7779	7959	7959	7959	7959	7959	7959	7959	7779	7779	7779	7779	7959	7959	7959	7959	7959	7959	7959	7959	8146	8146	8146	8146	8146	8343	0	0	0	0	0	0	0	0	0	0	0	0	0	4350	4350	4406	4406	4406	4406	4406	4406	4406	4406	4406	4350	4350	4350	4350	4350	4350	4350	4350	4350	4350	4350	4350	4350	4296	4296	4350	4045	4045	3998	3998	3998	3952	4045	4045	4093	4093	4350	4350	4350	4350	4350	4406	4406	4406	4463	4521	4463	4463	3246	3216	3216	3216	3186	3186	3186	3216	3216	0	2869	2845	2845	2869	2869	2869	2869	2845	2845	2845	2822	2822	3277	3277	3246	3216	3216	3186	3186	3186	3186	3216	3216	3186	3216	3186	3216	3216	3186	3186	3186	3186	3186	3186	3186	3186	3186	3216	3186	3186	3186	3186	3186	3216	3186	3186	3157	3157	3157	0	0	0	2312	2312	2297	2297	2281	2281	2281	2266	2266	2266	2266	2223	2223	2208	2208	2208	3186	3186	3186	3186	3157	3157	3157	3157	3157	3186	3186	3186	3186	3186	3186	3186	0	0	0	0	0	0	0	0	0	0	0	0	0	0	0	0	0	0	0	0	0	0	0	0	0	0	0	0	0	0	0	0	0
0	0	0	0	0	0	0	0	0	0	0	0	1287	1287	1291	1291	1291	0	2003	2003	2003	2003	2003	2003	2015	2015	2015	2027	2039	2039	0	0	0	0	0	0	0	0	1581	1581	0	0	0	0	0	0	0	0	0	0	0	0	0	0	0	0	0	0	0	0	0	0	0	0	0	0	0	0	0	0	0	0	0	0	0	0	0	0	0	0	0	2051	2051	2039	2039	2027	2027	2027	2027	2027	2027	2015	2027	2003	2003	2003	2003	2003	2003	2003	2003	2015	2027	2027	2027	2015	2015	2003	2003	2015	2015	2015	2003	2003	2015	2015	2015	2015	2015	2015	2015	2015	2027	2027	2027	2039	2039	0	0	0	0	0	0	0	0	0	0	0	0	0	0	0	0	0	0	2690	2690	2690	2690	2690	2690	2690	2690	2669	2669	2669	2669	2669	2669	2669	2669	2669	2669	2669	2669	2669	2669	2669	2669	2669	2669	2669	2669	2669	2649	2649	2649	2609	2609	3440	3406	3406	3440	3406	3406	3406	3406	3406	3406	3373	3373	3406	3406	3373	3373	3373	3373	3373	3373	3373	3406	3373	3373	3373	3373	3406	3440	3440	3440	3510	3583	3583	3621	3659	3698	3738	3821	3821	3821	3821	3864	3864	3864	3821	3821	3864	3864	3864	3907	3952	3998	4045	4093	4142	4192	4192	4192	4296	4406	4406	4463	4463	4463	6235	6349	6235	6235	6235	6235	6235	6349	6349	6349	6235	6235	6235	6235	6235	6235	6235	6235	6235	6235	6235	6235	6235	6235	6124	6124	6124	6124	6124	5915	5915	0	0	0	0	0	0	0	0	0	0	0	0	0	0	0	0	0	0	0	0	0	0	0	0	0	0	0	4093	4093	4093	4093	4093	4093	4093	4045	4045	3998	3998	5125	5050	5050	5050	4977	4977	4977	4977	5050	4977	4977	4977	4977	4977	5050	4977	4977	4906	4977	4977	4142	4142	4142	4142	4142	4142	4093	4093	4093	4045	4045	5202	5125	5125	5050	5050	5050	4977	4977	4977	4977	4977	4977	6018	5915	5815	5815	5815	5815	5815	5815	5719	5719	5719	8550	8550	8343	8146	7959	7959	7959	7959	7779	7608	7444	6992	6853	6720	6592	6592	6468	6468	6468	6468	6349	6349	6468	6349	6468	6349	6349	6349	6468	6468	6468	6468	6468	6468	6592	6468	6468	6468	6592	6592	6720	7959	8146	8146	8146	8146	8146	8146	8146	7959	7959	7959	7959	7959	7779	7779	7779	7779	7779	7779	7959	7959	7959	7959	7959	7959	7959	7779	7779	7959	7959	7959	7959	7959	7959	7959	7959	7959	7959	7959	7959	8146	8146	8146	0	0	0	0	0	0	0	0	0	0	0	0	0	0	0	4350	4406	4406	4406	4463	4406	4406	4406	4406	4350	4350	4350	4350	4350	4350	4350	4350	4350	4350	4350	4406	4350	4350	4296	4296	4296	4045	4045	4045	4045	4045	4045	4045	4045	4093	4093	4243	4296	4350	4350	4350	4406	4406	4406	4463	4463	4406	4406	3246	3216	3216	3216	3186	3186	3186	3216	3216	0	2869	2869	2869	2869	2869	2869	2869	2845	2845	2845	2845	2845	3309	3309	3216	3216	3186	3186	3186	3186	3186	3216	3216	3186	3216	3186	3216	3216	3216	3186	3186	3186	3186	3186	3186	3186	3186	3216	3186	3186	3186	3216	3186	3216	3186	3186	3157	3157	3186	3186	0	0	2327	2312	2297	2297	2281	2281	2266	2266	2266	2266	2266	2223	2223	2223	2223	2223	3186	3216	3186	3186	3186	3157	3157	3157	3157	3186	3157	3157	3186	3186	3186	3186	0	0	0	0	0	0	0	0	0	0	0	0	0	0	0	0	0	0	0	0	0	0	0	0	0	0	0	0	0	0	0	0	0
