0	0	0	0	0	0	0	0	0	1214	1219	1223	1223	1227	1232	1232	1232	1236	1240	1245	1249	1254	1254	1263	1268	1268	1268	1272	1272	1272	1272	1574	1560	1560	1553	1553	1553	1553	1553	1553	1553	1553	1553	1553	1560	1560	1553	1560	1567	1553	1553	1553	1553	1553	1546	1546	1546	1546	1553	1553	1553	1546	1546	1546	1546	1546	1546	1546	1553	1546	1553	1553	1553	1553	1553	1553	1553	1553	1553	1553	1553	1553	1553	1553	1553	1553	1553	1553	1553	1560	1560	1567	1574	1574	1574	1574	1603	1603	1603	0	0	2409	2409	2409	2392	2392	2392	2409	2409	2409	2409	2409	2409	2409	2409	2409	2409	2409	2392	2392	2392	2376	2376	2376	2392	2392	2409	2409	2409	2409	2409	2409	2409	2392	2392	2409	2392	2392	2392	2392	2392	2409	2409	2409	2426	2409	2409	2409	2426	2426	2426	2409	2409	2409	2426	2426	2426	2409	2426	2426	2426	2426	2426	2426	2426	2426	2426	2426	2426	2426	2426	2409	2409	2409	2409	2409	2409	2409	2409	2426	2426	2426	2426	2443	2443	2443	2443	2570	2570	2589	2589	2589	2589	2609	2609	2609	2589	2589	2589	2589	2589	2589	2589	2589	2589	3546	3546	3510	3510	3510	3510	3510	3510	3510	3510	3510	3510	3510	3510	3510	3510	3510	3546	3546	3583	3583	3621	3621	3659	3659	3659	3659	3659	3659	3659	3698	3698	3698	3698	3698	3698	3698	3698	3698	3698	3659	3659	3659	3659	3659	3698	3698	3738	3738	3738	3738	3738	3738	3738	3738	3698	3738	3738	3738	3738	3738	3738	3738	3738	3738	3738	3738	3698	3738	3738	3698	3698	3738	3698	3738	3738	3738	3738	3738	3738	3698	3698	3738	3738	3738	3698	3738	3738	3698	3698	3698	3698	3698	3698	3698	3698	3698	3698	3698	3698	3698	3698	3698	3698	3698	3698	3698	3698	3698	3738	3738	3738	3738	3738	3738	3738	3738	3738	3738	3738	3698	3698	3698	3698	3046	3046	3046	3046	3019	2993	2993	2967	2967	2967	2967	2967	2967	2967	2917	2917	2893	2869	2869	2893	2893	2893	2845	2845	2845	2869	2869	2845	2869	2869	2869	2845	2869	2869	2845	2845	2845	2845	2845	2845	2822	2822	2845	2822	2822	2822	2822	2799	2799	2799	2822	2822	0	0	2893	2893	2893	2893	2893	2893	2869	2869	2869	2917	2893	2893	2917	2893	2917	2917	2917	2917	2917	2917	2917	2893	2893	3659	3621	3659	3659	3698	3659	3659	3659	3659	3659	3659	3659	3659	3659	3659	3659	3621	3621	3659	3621	3621	3621	3621	3621	3621	3621	3621	3621	3621	3621	3621	3621	3621	3583	3583	3621	3583	3583	3621	3583	3583	3583	3583	3583	3546	3583	3583	3583	3583	3621	3621	3621	3583	3583	3583	3621	3583	3546	3546	3510	3510	3510	3510	3510	3510	3510	3510	3583	3583	3583	3583	3583	3621	3621	3583	3583	3583	3583	3583	3583	3546	3546	3583	3546	3546	3583	3583	3583	3583	3583	3583	3583	3583	3583	3621	3583	3583	3583	3583	3546	3546	3546	3546	3546	3546	3546	3510	3546	3546	3546	3546	3546	3546	3546	3546	3546	3546	3546	3583	3583	3546	3583	3583	3583	3621	3583	3583	3583	3583	3583	3583	3546	3546	3546	3546	3546	3583	3546	3546	3546	3546	3546	3546	3546	3546	3546	3510	3546	3583	3583	3546	3546	3546	3546	3546	3546	3546	3546	3546	3546	3546	3546	3546	3546	3546	3546	3546	3546	3546	3546	3546	3546	3546	3546	3546	3546	3546	3546	3546	3546	3583	3583	0	0	0	0	0	0	0	0	0	0	0	0	0	0	0	0	0	0	0	0	0	0	0	0	0	0	0	0	0	0	0	0	0	0	0	0	0	0	0	0	0	0	0	0	0	0	0	0	0	0	0	0
0	0	0	0	0	0	0	0	0	1214	1219	1223	1227	1232	1232	1236	1236	1236	1240	1245	1249	1254	1259	1263	1268	1268	1268	1272	1272	1282	1272	1272	1560	1560	1553	1553	1560	1553	1553	1553	1553	1560	1560	1553	1560	1553	1546	1553	1553	1546	1546	1546	1546	1553	1553	1546	1546	1546	1553	1553	1553	1546	1546	1546	1546	1546	1546	1546	1546	1553	1553	1560	1560	1553	1553	1553	1553	1553	1553	1553	1553	1553	1553	1553	1553	1553	1553	1553	1553	1560	1560	1567	1574	1574	1574	1596	1603	1603	1603	0	2409	2426	2426	2409	2409	2409	2409	2426	2426	2409	2426	2426	2426	2426	2426	2426	2426	2426	2426	2409	2409	2376	2426	2409	2426	2426	2426	2426	2426	2426	2426	2426	2426	2409	2409	2409	2409	2392	2392	2409	2409	2409	2409	2426	2426	2426	2409	2426	2426	2443	2443	2443	2443	2443	2443	2443	2443	2426	2426	2443	2443	2443	2443	2426	2443	2443	2443	2426	2426	2426	2426	2426	2426	2426	2426	2426	2426	2426	2426	2426	2426	2426	2426	2443	2443	2460	2496	2532	2570	2570	2570	2589	2589	2609	2609	2609	2589	2589	2589	2589	2589	2589	2589	2589	2589	3546	3546	3510	3510	3510	3510	3510	3510	3510	3510	3510	3510	3510	3510	3510	3510	3510	3510	3546	3583	3621	3621	3659	3659	3659	3659	3659	3659	3659	3659	3659	3659	3659	3659	3659	3659	3698	3698	3698	3659	3659	3659	3659	3659	3659	3698	3698	3738	3738	3738	3738	3738	3738	3738	3738	3738	3738	3738	3738	3738	3738	3738	3738	3738	3738	3738	3738	3738	3738	3738	3738	3738	3738	3738	3738	3738	3738	3738	3738	3738	3738	3738	3738	3738	3738	3698	3738	3738	3738	3738	3698	3698	3698	3698	3698	3698	3698	3698	3698	3698	3698	3698	3698	3698	3698	3698	3698	3698	3698	3738	3738	3738	3738	3738	3738	3779	3738	3738	3738	3738	3698	3659	3659	3046	3019	3019	3046	3019	3019	2993	2967	2967	2967	2967	2967	2967	2967	2967	2942	2942	2917	2917	2893	2893	2893	2893	2869	2845	2869	2869	2845	2845	2845	2845	2869	2845	2845	2845	2845	2845	2845	2845	2845	2845	2845	2822	2845	2822	2822	2822	2822	2799	2799	2822	2822	2822	0	0	2893	2893	2869	2869	2893	2893	2869	2869	2869	2917	2917	2917	2917	2893	2917	2917	2893	2893	2917	2893	2917	2917	2917	2917	3621	3659	3621	3659	3659	3659	3659	3659	3659	3659	3659	3621	3621	3621	3621	3621	3621	3659	3621	3621	3621	3621	3621	3621	3621	3621	3621	3621	3621	3621	3621	3621	3583	3583	3583	3583	3583	3621	3583	3583	3583	3583	3546	3546	3583	3583	3583	3583	3621	3621	3621	3621	3621	3621	3621	3583	3583	3546	3510	3510	3510	3510	3510	3510	3510	3546	3583	3583	3583	3583	3621	3621	3583	3583	3583	3583	3583	3546	3546	3546	3546	3583	3546	3546	3546	3546	3583	3583	3583	3583	3583	3583	3583	3621	3583	3583	3583	3583	3546	3546	3546	3546	3583	3583	3546	3510	3546	3546	3546	3546	3546	3546	3546	3546	3546	3546	3546	3546	3546	3546	3583	3583	3583	3583	3583	3583	3583	3546	3583	3546	3546	3546	3546	3583	3583	3546	3546	3546	3546	3546	3546	3546	3546	3546	3546	3510	3546	3546	3546	3546	3546	3546	3546	3546	3546	3546	3546	3546	3546	3546	3546	3546	3546	3546	3546	3546	3546	3546	3546	3546	3546	3546	3546	3546	3546	3546	3546	3546	3546	3546	3546	3546	0	0	0	0	0	0	0	0	0	0	0	0	0	0	0	0	0	0	0	0	0	0	0	0	0	0	0	0	0	0	0	0	0	0	0	0	0	0	0	0	0	0	0	0	0	0	0	0	0	0	0
0	0	0	0	0	0	0	0	0	1223	1223	1232	1236	1236	1236	1236	1232	1232	1240	1240	1240	1249	1259	1263	1263	1268	1268	1272	1272	1277	1277	1277	1277	1560	1553	1291	1291	1553	1553	1553	1553	1553	1553	1553	1553	1553	1546	1553	1553	1546	1546	1546	1546	1553	1553	1546	1546	1546	1553	1553	1553	1553	1553	1553	1553	1546	1553	1553	1553	1553	1553	1560	1560	1553	1553	1553	1546	1546	1553	1553	1553	1553	1553	1553	1553	1553	1553	1553	1553	1560	1560	1567	1574	1574	1567	1567	1567	1603	0	2426	2426	2426	2426	2426	2426	2426	2426	2426	2443	2426	2443	2443	2443	2460	2460	2443	2443	2443	2443	2426	2426	2426	2443	2426	2426	2426	2443	2443	2443	2426	2426	2443	2426	2426	2426	2426	2409	2409	2409	2409	2409	2426	2426	2426	2426	2426	2426	2443	2443	2460	2443	2443	2443	2443	2443	2443	2443	2443	2443	2443	2443	2443	2443	2443	2443	2443	2443	2443	2443	2443	2443	2443	2443	2443	2443	2443	2443	2443	2443	2443	2443	2443	2443	2443	2443	2460	2496	2514	2532	2570	2570	2589	2589	2589	2589	2609	2589	2589	2589	2589	2589	2589	2589	2589	2589	3546	3510	3510	3510	3510	3510	3475	3510	3475	3475	3475	3475	3475	3510	3510	3510	3510	3546	3546	3546	3583	3583	3621	3659	3659	3659	3659	3659	3659	3659	3698	3698	3698	3659	3659	3698	3698	3659	3659	3659	3659	3659	3621	3659	3659	3698	3698	3738	3738	3738	3738	3738	3698	3738	3738	3738	3738	3738	3738	3738	3738	3738	3738	3738	3738	3738	3738	3738	3738	3738	3738	3738	3738	3738	3738	3738	3738	3738	3738	3738	3698	3698	3698	3738	3738	3698	3738	3738	3738	3738	3698	3698	3698	3698	3698	3698	3698	3698	3698	3698	3698	3698	3698	3698	3698	3698	3698	3698	3698	3738	3738	3738	3738	3738	3738	3738	3738	3738	3738	3738	3698	3698	3698	3046	3019	3019	3019	3019	2993	2993	2967	2967	2967	2942	2942	2942	2942	2942	2942	2917	2917	2893	2893	2917	2893	2893	2869	2845	2869	2845	2822	2845	2822	2845	2845	2845	2845	2845	2845	2845	2845	2845	2845	2822	2822	2822	2845	2822	2822	2822	2822	2822	2822	2822	2822	2822	2822	0	0	0	2869	2869	2893	2893	2869	2869	2893	2917	2917	2917	2917	2917	2917	2917	2893	2893	2917	2917	2917	2917	2917	2917	3659	3621	3621	3621	3621	3659	3659	3621	3621	3621	3621	3621	3621	3621	3621	3621	3621	3659	3621	3621	3621	3621	3621	3621	3583	3621	3621	3621	3621	3621	3621	3621	3583	3583	3583	3583	3583	3621	3583	3583	3583	3583	3546	3583	3583	3583	3583	3583	3621	3621	3621	3621	3621	3621	3621	3583	3583	3546	3546	3546	3546	3546	3510	3510	3510	3510	3583	3583	3583	3583	3583	3621	3583	3546	3546	3546	3546	3546	3546	3546	3546	3583	3546	3546	3546	3546	3583	3583	3583	3583	3583	3583	3583	3621	3583	3583	3583	3583	3583	3583	3583	3583	3583	3583	3546	3546	3546	3546	3546	3546	3546	3546	3546	3546	3546	3546	3546	3546	3546	3546	3546	3546	3583	3583	3583	3583	3583	3583	3621	3621	3583	3583	3583	3583	3583	3583	3546	3546	3546	3546	3546	3510	3510	3510	3510	3510	3583	3583	3546	3546	3546	3546	3546	3546	3546	3546	3546	3546	3546	3546	3546	3546	3546	3546	3546	3546	3546	3546	3546	3583	3546	3546	3546	3546	3546	3546	3546	3546	3510	3510	3475	3510	3510	0	0	0	0	0	0	0	0	0	0	0	0	0	0	0	0	0	0	0	0	0	0	0	0	0	0	0	0	0	0	0	0	0	0	0	0	0	0	0	0	0	0	0	0	0	0	0	0	0	0
0	0	0	0	0	0	0	0	0	1227	1232	1236	1236	1232	1236	1236	1232	1236	1240	1240	1245	1249	1259	1263	1268	1268	1268	1268	1272	1272	1277	1282	1287	1287	1291	1291	1296	1296	1553	1553	1553	1553	1553	1553	1553	1546	1546	1546	1546	1546	1546	1546	1546	1553	1553	1546	1546	1546	1546	1546	1546	1546	1546	1546	1553	1553	1553	1553	1553	1553	1553	1560	1560	1553	1553	1553	1546	1546	1553	1553	1553	1553	1553	1553	1553	1546	1553	1553	1553	1553	1560	1567	1574	1574	1567	1567	1567	0	0	2426	2409	2426	2426	2426	2426	2426	2426	2443	2443	2443	2443	2460	2460	2478	2460	2460	2460	2460	2443	2443	2443	2443	2460	2460	2460	2460	2460	2478	2460	2460	2460	2443	2443	2426	2426	2426	2426	2426	2426	2426	2426	2443	2443	2443	2443	2443	2443	2460	2460	2460	2460	2460	2460	2460	2460	2443	2443	2443	2443	2443	2443	2460	2443	2443	2443	2443	2443	2460	2460	2460	2460	2460	2460	2460	2443	2460	2460	2460	2460	2443	2460	2443	2443	2443	2460	2478	2496	2514	2514	2532	2570	2570	2589	2589	2589	2589	2589	2589	2589	2609	2609	2609	2609	2609	2609	3546	3546	3510	3510	3510	3510	3475	3475	3510	3510	3475	3510	3510	3510	3510	3510	3510	3510	3546	3546	3583	3583	3621	3659	3659	3659	3659	3659	3659	3659	3698	3698	3698	3698	3698	3698	3698	3698	3659	3659	3659	3659	3621	3659	3659	3698	3698	3738	3738	3738	3738	3738	3738	3738	3738	3738	3738	3738	3738	3738	3738	3738	3738	3738	3738	3738	3738	3738	3738	3738	3738	3698	3698	3738	3738	3698	3738	3738	3738	3698	3698	3698	3698	3738	3738	3698	3738	3738	3738	3738	3698	3698	3698	3698	3698	3698	3698	3698	3698	3698	3698	3698	3698	3698	3698	3698	3698	3698	3698	3738	3738	3738	3738	3738	3738	3738	3738	3738	3738	3738	3738	3698	3698	3019	3019	2993	2993	2993	2993	2993	2967	2967	2967	2942	2942	2917	2917	2942	2942	2917	2893	2893	2893	2893	2893	2869	2869	2845	2869	2845	2845	2845	2822	2822	2845	2822	2845	2845	2845	2845	2845	2845	2845	2845	2845	2845	2845	2822	2822	2822	2822	2822	2822	2822	2799	2799	2822	2822	2822	2869	2869	2869	2893	2893	2893	2893	2893	2917	2917	2917	2917	2917	2917	2917	2893	2893	2917	2917	2917	2917	2917	2917	3659	3621	3621	3621	3621	3659	3659	3621	3621	3621	3621	3621	3621	3621	3621	3621	3621	3621	3621	3621	3621	3621	3583	3583	3583	3583	3583	3621	3621	3621	3621	3621	3621	3583	3583	3583	3583	3621	3583	3583	3583	3583	3583	3583	3583	3583	3583	3583	3583	3621	3621	3621	3621	3621	3621	3621	3546	3546	3510	3510	3510	3510	3510	3510	3510	3510	3583	3583	3583	3583	3583	3583	3583	3546	3546	3546	3546	3546	3583	3546	3546	3583	3546	3546	3546	3546	3583	3583	3583	3583	3583	3583	3583	3621	3621	3583	3583	3583	3583	3583	3546	3546	3546	3546	3546	3546	3546	3546	3546	3546	3546	3546	3546	3546	3546	3546	3546	3546	3546	3546	3546	3546	3546	3583	3583	3583	3583	3583	3621	3583	3583	3583	3583	3583	3583	3583	3583	3583	3546	3546	3546	3510	3510	3510	3510	3510	3546	3583	3546	3546	3546	3546	3546	3546	3546	3546	3546	3546	3546	3546	3546	3546	3510	3546	3546	3546	3546	3546	3546	3583	3546	3546	3546	3546	3546	3510	3510	3510	3510	3475	3475	3475	3510	0	0	0	0	0	0	0	0	0	0	0	0	0	0	0	0	0	0	0	0	0	0	0	0	0	0	0	0	0	0	0	0	0	0	0	0	0	0	0	0	0	0	0	0	0	0	0	0	0	0
0	0	0	0	0	0	0	0	0	1236	1236	1236	1240	1232	1232	1236	1236	1236	1245	1245	1249	1249	1254	1259	1263	1263	1268	1272	1277	1282	1282	1282	1287	1291	1291	1291	1296	1296	1296	1553	1553	1553	1560	1553	1553	1553	1553	1546	1546	1546	1546	1546	1546	1546	1553	1546	1546	1546	1546	1546	1546	1546	1546	1546	1553	1553	1553	1553	1553	1553	1560	1560	1560	1553	1553	1553	1553	1546	1553	1553	1553	1553	1553	1553	1553	1546	1553	1553	1553	1553	1567	1574	1574	1574	1574	1574	0	0	0	2426	2426	2426	2426	2426	2426	2426	2443	2460	2460	2460	2460	2460	2460	2478	2460	2460	2460	2460	2460	2460	2460	2460	2460	2460	2478	2478	2478	2478	2460	2460	2443	2460	2460	2460	2443	2443	2426	2443	2443	2443	2443	2460	2460	2460	2460	2460	2460	2478	2478	2478	2478	2478	2478	2478	2478	2478	2460	2460	2460	2460	2460	2460	2460	2443	2460	2460	2478	2478	2478	2478	2478	2478	2478	2478	2478	2478	2478	2478	2478	2478	2478	2460	2460	2460	2478	2496	2496	2514	2514	2514	2551	2570	2589	2589	2589	2589	2589	2589	2589	2589	2589	2589	2589	2609	2609	3546	3510	3510	3510	3510	3510	3510	3510	3510	3510	3475	3510	3510	3510	3510	3510	3510	3510	3510	3510	3546	3583	3621	3659	3659	3659	3659	3659	3659	3659	3698	3659	3698	3698	3698	3698	3698	3698	3659	3659	3659	3659	3659	3659	3698	3698	3698	3698	3698	3738	3738	3738	3738	3738	3738	3738	3738	3738	3698	3738	3698	3698	3738	3738	3738	3738	3738	3698	3738	3738	3738	3698	3738	3738	3738	3698	3698	3698	3698	3698	3698	3698	3698	3698	3698	3698	3698	3698	3698	3738	3698	3698	3698	3698	3698	3698	3698	3698	3698	3698	3698	3698	3698	3698	3698	3698	3698	3698	3698	3738	3738	3738	3738	3738	3738	3738	3698	3738	3738	3738	3698	3698	3698	2993	2993	2993	2993	2993	2993	2967	2967	2967	2967	2942	2942	2917	2917	2917	2917	2893	2893	2893	2893	2893	2893	2869	2893	2869	2869	2869	2845	2845	2822	2822	2822	2822	2845	2845	2845	2822	2845	2845	2845	2845	2845	2845	2845	2822	2822	2822	2822	2822	2822	2822	2799	2799	2799	2799	2822	2845	2869	2869	2893	2893	2893	2893	2893	2917	2917	2917	2917	2917	2917	2917	2917	2917	2917	2917	2917	2917	2917	2917	3659	3698	3621	3621	3621	3621	3659	3621	3621	3659	3659	3621	3621	3621	3621	3621	3621	3621	3621	3621	3621	3621	3583	3583	3583	3583	3583	3583	3621	3621	3621	3621	3621	3621	3621	3583	3583	3621	3621	3583	3583	3583	3583	3583	3583	3583	3583	3583	3621	3583	3583	3583	3621	3583	3583	3583	3546	3546	3510	3510	3510	3510	3510	3510	3510	3510	3583	3583	3583	3583	3583	3583	3583	3583	3546	3546	3583	3546	3583	3583	3583	3583	3583	3546	3583	3546	3583	3583	3583	3583	3621	3583	3583	3621	3621	3583	3583	3583	3583	3583	3546	3546	3546	3546	3546	3546	3546	3546	3546	3546	3546	3546	3583	3546	3546	3546	3546	3546	3546	3546	3546	3546	3546	3546	3583	3583	3583	3583	3583	3583	3583	3583	3621	3583	3583	3583	3583	3583	3583	3546	3510	3546	3510	3510	3510	3510	3546	3546	3546	3546	3546	3546	3546	3546	3546	3546	3546	3546	3546	3546	3546	3510	3510	3546	3546	3546	3546	3546	3546	3546	3546	3546	3546	3510	3546	3510	3510	3510	3475	3475	3475	3475	0	0	0	0	0	0	0	0	0	0	0	0	0	0	0	0	0	0	0	0	0	0	0	0	0	0	0	0	0	0	0	0	0	0	0	0	0	0	0	0	0	0	0	0	0	0	0	0	0	0	0
0	0	0	0	0	0	0	0	0	1236	1236	1236	1236	1236	1236	1236	1236	1245	1249	1249	1254	1254	1259	1259	1263	1263	1268	1272	1277	1287	1287	1287	1287	1291	1291	1291	1296	1296	1306	1306	1553	1546	1553	1553	1553	1546	1546	1546	1546	1546	1546	1546	1546	1546	1546	1546	1546	1546	1546	1546	1546	1546	1546	1546	1546	1546	1553	1553	1553	1553	1553	1560	1553	1553	1553	1553	1553	1546	1553	1553	1553	1553	1553	1553	1553	1553	1553	1553	1553	1553	1567	1574	1581	1574	1574	1574	0	0	2426	2426	2426	2426	2426	2426	2443	2443	2443	2478	2478	2478	2478	2460	2460	2478	2478	2460	2478	2478	2478	2478	2460	2478	2478	2478	2478	2478	2478	2478	2478	2496	2478	2478	2478	2478	2460	2460	2443	2460	2478	2478	2478	2478	2496	2496	2478	2478	2478	2478	2478	2478	2478	2478	2478	2478	2478	2496	2478	2478	2478	2478	2478	2478	2478	2478	2496	2496	2496	2496	2496	2496	2496	2496	2496	2496	2496	2496	2496	2496	2496	2496	2496	2478	2478	2478	2496	2496	2496	2496	2514	2514	2514	2570	2589	2589	2589	2589	2589	2589	2589	2609	2609	2589	2609	2609	3546	3546	3510	3510	3510	3510	3510	3510	3510	3510	3510	3475	3475	3475	3510	3510	3475	3475	3510	3510	3510	3546	3546	3583	3621	3659	3659	3659	3659	3659	3659	3659	3659	3659	3659	3659	3659	3659	3659	3659	3659	3659	3659	3659	3659	3698	3698	3698	3698	3698	3698	3738	3738	3738	3738	3738	3738	3738	3738	3738	3738	3698	3698	3698	3738	3738	3738	3738	3698	3738	3738	3738	3698	3738	3738	3738	3738	3698	3698	3698	3698	3698	3698	3698	3698	3698	3698	3698	3698	3698	3738	3698	3698	3698	3698	3698	3698	3698	3698	3698	3698	3698	3698	3698	3698	3698	3698	3698	3698	3698	3738	3738	3738	3738	3738	3738	3738	3738	3698	3738	3738	3738	3738	3738	2993	2993	2993	2993	2993	2993	2967	2967	2967	2967	2942	2942	2917	2893	2893	2893	2893	2893	2869	2893	2893	2893	2869	2893	2869	2869	2869	2845	2845	2822	2822	2822	2822	2845	2845	2822	2822	2845	2845	2845	2845	2845	2845	2845	2845	2845	2822	2822	2822	2799	2799	2799	2799	2799	2822	2845	2845	2869	2869	2893	2893	2893	2893	2893	2917	2917	2917	2917	2917	2917	2917	2917	2893	2917	2893	2917	2917	2917	2917	3698	3659	3659	3621	3659	3621	3621	3621	3621	3621	3621	3621	3621	3621	3621	3621	3621	3621	3621	3621	3583	3583	3583	3583	3583	3583	3583	3621	3621	3621	3621	3621	3621	3621	3621	3621	3583	3621	3621	3583	3583	3583	3583	3583	3583	3583	3583	3583	3621	3583	3583	3583	3583	3583	3583	3546	3546	3510	3510	3546	3546	3546	3546	3546	3510	3546	3583	3583	3583	3583	3583	3583	3583	3583	3546	3583	3583	3583	3583	3583	3583	3583	3583	3546	3583	3546	3583	3583	3583	3583	3583	3583	3583	3621	3621	3583	3583	3583	3583	3583	3546	3546	3546	3546	3546	3546	3546	3546	3546	3546	3583	3546	3546	3546	3546	3546	3546	3546	3546	3546	3546	3546	3546	3546	3546	3546	3583	3583	3583	3583	3583	3583	3583	3583	3583	3583	3583	3583	3546	3546	3510	3510	3510	3510	3510	3510	3546	3546	3546	3546	3546	3546	3546	3546	3546	3546	3546	3546	3546	3546	3546	3510	3510	3510	3510	3546	3546	3546	3546	3546	3546	3546	3510	3510	3475	3475	3475	3475	3475	3475	3475	3475	0	0	0	0	0	0	0	0	0	0	0	0	0	0	0	0	0	0	0	0	0	0	0	0	0	0	0	0	0	0	0	0	0	0	0	0	0	0	0	0	0	0	0	0	0	0	0	0	0	0	0
0	0	0	0	0	0	0	0	0	1240	1240	1245	1245	1245	1249	1249	1249	1254	1254	1254	1254	1259	1259	1259	1263	1263	1268	1272	1277	1282	1287	1287	1287	1291	1291	1296	1296	1301	1306	1306	1311	1311	1553	1553	1546	1546	1546	1546	1546	1546	1546	1546	1546	1546	1546	1546	1546	1546	1546	1546	1546	1546	1546	1546	1546	1546	1560	1553	1553	1553	1553	1553	1553	1553	1553	1553	1546	1546	1546	1553	1553	1553	1553	1553	1553	1553	1553	1553	1553	1553	1574	1574	1581	1581	1581	1581	0	0	2409	2409	2426	2426	2426	2426	2443	2443	2443	2478	2478	2478	2478	2478	2478	2478	2478	2478	2478	2496	2496	2496	2496	2496	2496	2478	2496	2496	2496	2478	2496	2496	2478	2496	2496	2478	2478	2478	2478	2496	2514	2514	2514	2496	2514	2514	2496	2496	2496	2496	2496	2496	2496	2496	2496	2496	2496	2514	2496	2496	2496	2496	2496	2496	2496	2496	2496	2496	2496	2496	2496	2496	2496	2514	2514	2514	2514	2514	2514	2514	2496	2496	2496	2496	2496	2478	2496	2496	2496	2496	2514	2514	2514	2532	2532	2570	2589	2589	2589	2589	2589	2589	2589	2589	2589	2589	3546	3546	3510	3510	3510	3510	3510	3510	3510	3510	3510	3510	3475	3475	3510	3510	3475	3475	3510	3510	3510	3546	3583	3621	3621	3659	3659	3659	3659	3659	3621	3659	3659	3659	3659	3659	3659	3659	3659	3659	3659	3659	3659	3659	3659	3698	3698	3698	3738	3738	3738	3738	3738	3738	3738	3738	3738	3738	3738	3738	3738	3738	3698	3698	3698	3698	3698	3738	3698	3738	3738	3738	3698	3738	3738	3698	3698	3698	3698	3698	3698	3698	3698	3698	3698	3698	3698	3698	3738	3738	3738	3738	3698	3698	3698	3698	3698	3698	3698	3698	3698	3698	3698	3659	3698	3659	3659	3698	3698	3698	3698	3738	3738	3738	3738	3738	3738	3738	3738	3738	3738	3738	3738	3738	2993	2993	3019	3019	2993	2993	2967	2967	2967	2967	2942	2942	2917	2893	2893	2893	2893	2893	2869	2869	2893	2869	2869	2869	2869	2869	2869	2845	2845	2822	2822	2822	2822	2845	2845	2822	2822	2845	2845	2845	2845	2845	2845	2845	2845	2822	2822	2822	2822	2799	2799	2799	2799	2822	2822	2845	2869	2869	2869	2893	2893	2893	2869	2869	2917	2917	2917	2917	2917	2917	2917	2917	2917	2917	2893	2917	2917	2917	2917	3698	3659	3621	3621	3621	3621	3621	3621	3621	3621	3621	3621	3621	3621	3621	3621	3621	3621	3621	3621	3621	3583	3583	3583	3583	3621	3621	3621	3621	3621	3621	3621	3621	3621	3621	3621	3621	3621	3621	3621	3583	3583	3583	3583	3583	3583	3583	3583	3621	3583	3583	3583	3583	3546	3546	3546	3510	3510	3510	3546	3546	3546	3546	3546	3546	3546	3583	3583	3583	3583	3583	3583	3583	3546	3546	3546	3621	3621	3583	3583	3583	3583	3583	3546	3583	3546	3546	3546	3583	3583	3546	3546	3546	3583	3583	3583	3583	3583	3546	3546	3546	3546	3546	3546	3546	3546	3546	3546	3546	3546	3546	3546	3546	3546	3546	3546	3546	3546	3546	3546	3546	3546	3546	3546	3546	3546	3546	3583	3546	3583	3583	3583	3583	3583	3583	3546	3546	3546	3546	3510	3510	3475	3510	3510	3510	3510	3546	3546	3546	3546	3510	3546	3546	3546	3546	3546	3546	3546	3546	3546	3546	3546	3510	3546	3546	3546	3546	3546	3546	3546	3510	3510	3510	3475	3475	3475	3475	3475	3475	3475	3475	3475	0	0	0	0	0	0	0	0	0	0	1732	1732	0	0	0	0	0	0	0	0	0	0	0	0	0	0	0	0	0	0	0	0	0	0	0	0	0	0	0	0	0	0	0	0	0	0	0	0	0	0	0
0	0	0	0	0	0	0	0	0	1245	1245	1245	1249	1249	1249	1254	1254	1263	1259	1259	1259	1263	1263	1263	1268	1263	1263	1272	1277	1287	1287	1287	1291	1291	1296	1301	1301	1306	1306	1306	1311	1321	1321	1553	1553	1546	1546	1553	1546	1546	1546	1546	1546	1546	1546	1546	1546	1546	1546	1546	1546	1546	1546	1546	1546	1546	1546	1546	1546	1553	1553	1553	1553	1553	1553	1553	1546	1539	1546	1553	1553	1553	1553	1553	1553	1553	1553	1553	1553	1567	1574	1581	1581	1581	1581	1581	0	0	2409	2409	2426	2426	2426	2443	2443	2460	2460	2478	2478	2496	2496	2496	2496	2514	2514	2514	2514	2496	2496	2496	2496	2496	2496	2478	2496	2496	2496	2496	2496	2496	2496	2496	2496	2496	2496	2496	2496	2514	2514	2532	2532	2532	2532	2532	2532	2514	2496	2496	2496	2496	2496	2496	2496	2496	2496	2514	2514	2514	2514	2496	2496	2496	2496	2514	2514	2496	2514	2514	2514	2514	2514	2514	2514	2514	2514	2514	2514	2514	2514	2514	2514	2514	2514	2496	2496	2496	2496	2496	2514	2514	2514	2532	2532	2551	2589	2589	2589	2609	2609	2589	2589	2589	2589	2589	3546	3546	3510	3510	3510	3510	3510	3475	3475	3510	3510	3510	3475	3510	3510	3510	3510	3475	3510	3546	3546	3546	3583	3621	3621	3659	3659	3659	3659	3659	3659	3659	3659	3659	3659	3659	3659	3698	3659	3698	3659	3659	3659	3698	3659	3698	3698	3698	3698	3698	3738	3698	3738	3738	3738	3738	3738	3738	3738	3738	3738	3738	3698	3698	3698	3698	3698	3698	3698	3738	3698	3738	3698	3738	3698	3698	3698	3698	3698	3698	3698	3698	3698	3698	3698	3698	3698	3698	3738	3738	3738	3738	3698	3698	3698	3698	3698	3698	3698	3698	3698	3698	3698	3698	3698	3659	3659	3659	3659	3698	3738	3738	3738	3738	3738	3738	3738	3698	3698	3698	3698	3738	3738	3738	2993	2993	2993	2993	2993	2993	2967	2967	2967	2942	2942	2917	2893	2893	2893	2893	2893	2869	2869	2869	2869	2869	2869	2869	2869	2869	2845	2845	2845	2822	2822	2822	2822	2822	2822	2822	2822	2845	2845	2845	2845	2845	2845	2845	2822	2822	2822	2822	2822	2799	2799	2799	2799	2822	2822	2822	2845	2845	2845	2869	2869	2869	2869	2869	2917	2893	2917	2917	2917	2917	2917	2917	2917	2917	2917	2917	2917	2917	2917	3698	3659	3621	3621	3621	3621	3621	3621	3621	3621	3621	3621	3621	3621	3621	3621	3621	3621	3621	3621	3583	3583	3583	3583	3583	3621	3621	3621	3621	3621	3621	3621	3621	3621	3621	3621	3621	3621	3621	3621	3621	3583	3583	3583	3546	3546	3583	3583	3583	3546	3546	3546	3546	3546	3546	3546	3510	3510	3510	3546	3546	3546	3546	3546	3546	3546	3621	3621	3583	3583	3583	3583	3583	3583	3583	3546	3583	3621	3583	3583	3583	3583	3583	3583	3546	3546	3546	3546	3546	3546	3546	3546	3546	3583	3583	3583	3583	3583	3546	3546	3546	3546	3546	3546	3546	3546	3546	3546	3546	3546	3546	3546	3546	3546	3546	3546	3546	3546	3546	3546	3546	3546	3546	3546	3546	3546	3546	3546	3546	3546	3546	3583	3583	3546	3546	3546	3546	3546	3546	3546	3510	3510	3510	3510	3510	3510	3546	3546	3546	3546	3546	3546	3546	3546	3546	3546	3546	3546	3546	3546	3546	3546	3510	3546	3510	3546	3546	3510	3510	3546	3510	3510	3510	3475	3475	3475	3475	3475	3440	3440	3440	3475	0	0	0	0	0	0	0	1759	1750	1741	1732	1732	0	0	0	0	0	0	0	0	0	0	0	0	0	0	0	0	0	0	0	0	0	0	0	0	0	0	0	0	0	0	0	0	0	0	0	0	0	0	0
0	0	0	0	0	0	0	0	0	1240	1240	1240	1245	1249	1249	1249	1254	1263	1263	1263	1263	1263	1263	1263	1268	1263	1272	1272	1277	1287	1287	1291	1291	1296	1301	1306	1306	1306	1311	1311	1311	1321	1326	1331	1331	1546	1546	1553	1553	1546	1546	1546	1553	1553	1553	1546	1546	1546	1546	1546	1546	1546	1546	1546	1539	1546	1546	1546	1546	1546	1553	1553	1553	1553	1553	1553	1553	1546	1546	1553	1553	1553	1553	1553	1553	1553	1553	1553	1567	1567	1581	1581	1581	1581	1581	1581	0	0	2392	2409	2409	2409	2443	2443	2460	2460	2460	2478	2496	2496	2496	2496	2496	2514	2514	2514	2514	2514	2514	2514	2496	2496	2496	2496	2514	2514	2496	2496	2496	2496	2496	2496	2496	2496	2496	2496	2496	2532	2532	2532	2532	2532	2532	2532	2532	2514	2514	2514	2514	2514	2514	2514	2514	2514	2514	2532	2514	2514	2496	2496	2496	2514	2514	2514	2514	2514	2532	2532	2514	2532	2532	2532	2514	2532	2532	2532	2532	2532	2532	2532	2551	2532	2532	2532	2532	2514	2514	2514	2514	2514	2514	2532	2532	2570	2589	2589	2589	2589	2589	2589	2589	2589	2589	2589	0	3510	3510	3510	3510	3510	3510	3510	3510	3510	3510	3510	3510	3510	3510	3510	3510	3510	3510	3546	3546	3546	3583	3621	3621	3659	3659	3659	3659	3659	3659	3659	3659	3659	3698	3659	3659	3698	3659	3659	3659	3621	3621	3659	3659	3659	3698	3698	3698	3738	3698	3698	3738	3738	3738	3738	3738	3738	3738	3738	3738	3738	3698	3698	3698	3698	3698	3698	3698	3698	3738	3738	3738	3738	3698	3698	3698	3698	3698	3698	3698	3698	3659	3698	3698	3698	3698	3698	3698	3738	3738	3738	3698	3698	3698	3698	3698	3698	3698	3698	3698	3698	3698	3698	3698	3698	3659	3698	3698	3698	3738	3738	3738	3738	3738	3738	3698	3698	3698	3698	3659	3698	3738	3738	2993	2993	2993	2993	2993	2993	2993	2967	2967	2942	2942	2917	2917	2893	2893	2893	2893	2893	2869	2869	2869	2869	2869	2869	2869	2869	2845	2845	2822	2822	2822	2822	2822	2822	2822	2822	2822	2845	2845	2845	2845	2845	2845	2822	2822	2822	2822	2822	2822	2799	2799	2799	2799	2822	2822	2822	2845	2845	2845	2869	2869	2869	2869	2869	2917	2917	2917	2917	2917	2917	2917	2917	2917	2917	2893	2917	2917	2917	2917	3659	3659	3659	3621	3621	3621	3621	3621	3621	3621	3621	3621	3621	3621	3621	3621	3621	3621	3621	3621	3583	3583	3583	3583	3583	3621	3621	3621	3621	3621	3621	3621	3621	3621	3621	3621	3621	3621	3621	3621	3621	3583	3583	3583	3546	3546	3583	3546	3546	3546	3546	3510	3510	3510	3510	3510	3510	3510	3546	3546	3546	3546	3546	3546	3546	3546	3583	3583	3583	3546	3583	3583	3583	3546	3546	3546	3583	3621	3621	3583	3583	3583	3583	3583	3583	3546	3546	3546	3546	3546	3546	3546	3546	3583	3583	3583	3546	3546	3546	3546	3546	3546	3546	3546	3546	3546	3546	3546	3510	3510	3546	3546	3546	3546	3546	3546	3546	3546	3546	3546	3546	3546	3546	3546	3546	3546	3546	3546	3546	3546	3546	3583	3546	3546	3546	3546	3546	3510	3546	3510	3510	3475	3546	3510	3510	3510	3546	3546	3546	3546	3546	3546	3546	3546	3546	3546	3546	3546	3546	3546	3546	3510	3510	3510	3510	3510	3510	3510	3475	3510	3510	3546	3510	3475	3546	3475	3475	3440	3440	3440	3440	0	0	0	0	0	0	1759	1759	1759	1750	1741	1732	1732	0	0	0	0	0	0	0	0	0	0	0	0	0	0	0	0	0	0	0	0	0	0	0	0	0	0	0	0	0	0	0	0	0	0	0	0	0	0	0
0	0	0	0	0	0	0	0	0	1232	1236	1240	1245	1249	1254	1254	1259	1268	1268	1268	1268	1268	1268	1268	1268	1272	1277	1277	1282	1287	1287	1291	1291	1296	1301	1306	1306	1306	1311	1311	1316	1326	1326	1331	1342	1347	1347	1553	1553	1553	1546	1546	1553	1553	1553	1553	1546	1546	1546	1546	1546	1546	1546	1546	1539	1546	1546	1546	1546	1546	1546	1553	1553	1553	1553	1546	1546	1546	1546	1546	1553	1553	1553	1553	1553	1553	1553	1560	1567	1567	1567	1581	1589	1589	1589	1589	0	0	2392	2409	2409	2426	2443	2443	2460	2460	2460	2496	2496	2496	2496	2496	2496	2532	2514	2532	2532	2514	2514	2514	2514	2514	2496	2514	2514	2514	2514	2514	2514	2514	2514	2532	2514	2514	2532	2532	2532	2532	2532	2532	2532	2532	2532	2532	2532	2532	2532	2532	2532	2532	2532	2532	2532	2514	2532	2551	2551	2551	2551	2514	2551	2532	2532	2532	2532	2532	2551	2532	2532	2532	2570	2551	2532	2551	2551	2551	2570	2551	2551	2551	2551	2551	2551	2551	2551	2532	2532	2514	2514	2514	2514	2514	2514	2570	2589	2589	2589	2589	2589	2589	2589	2589	2589	2589	0	3510	3510	3510	3510	3510	3510	3510	3510	3475	3510	3510	3510	3510	3510	3510	3510	3510	3510	3510	3546	3546	3583	3621	3621	3659	3659	3659	3659	3659	3621	3659	3698	3659	3698	3659	3659	3659	3621	3621	3621	3621	3621	3659	3659	3659	3659	3698	3698	3738	3698	3698	3738	3738	3738	3738	3738	3738	3738	3738	3738	3738	3698	3698	3698	3698	3698	3698	3698	3738	3738	3738	3738	3738	3738	3698	3698	3698	3698	3698	3698	3659	3659	3698	3698	3698	3698	3698	3698	3738	3738	3698	3698	3698	3698	3698	3698	3698	3698	3698	3698	3698	3698	3698	3698	3698	3659	3698	3698	3698	3738	3738	3738	3738	3738	3738	3738	3698	3698	3659	3659	3698	3698	3698	2993	2993	2993	2993	2993	2993	2993	2967	2967	2942	2942	2917	2893	2893	2893	2893	2869	2869	2869	2869	2869	2869	2869	2869	2869	2845	2845	2822	2822	2822	2822	2822	2822	2822	2822	2822	2822	2845	2845	2845	2822	2845	2845	2822	2822	2822	2822	2822	2822	2822	2799	2799	2799	2799	2799	2822	2822	2845	2869	2869	2869	2869	2869	2869	2893	2893	2917	2917	2917	2917	2917	2917	2917	2893	2893	2917	2917	2917	2917	3659	3659	3659	3621	3621	3621	3621	3621	3621	3621	3621	3621	3621	3621	3621	3621	3621	3621	3621	3621	3621	3583	3583	3621	3621	3621	3621	3621	3621	3621	3621	3621	3621	3621	3621	3621	3621	3621	3621	3621	3621	3621	3583	3583	3583	3583	3546	3583	3546	3546	3546	3546	3510	3510	3510	3510	3510	3510	3546	3546	3546	3546	3546	3583	3546	3546	3583	3583	3583	3546	3546	3546	3583	3546	3583	3583	3583	3621	3583	3583	3583	3546	3546	3546	3546	3546	3546	3546	3546	3546	3546	3546	3546	3583	3583	3546	3546	3546	3546	3546	3546	3546	3546	3546	3510	3546	3546	3546	3546	3546	3546	3546	3546	3546	3546	3546	3546	3546	3546	3546	3546	3546	3546	3546	3546	3546	3546	3546	3546	3546	3546	3583	3546	3546	3546	3546	3546	3510	3510	3510	3510	3510	3510	3510	3510	3510	3546	3546	3546	3546	3546	3546	3546	3546	3546	3546	3546	3546	3546	3546	3546	3546	3510	3546	3546	3546	3510	3475	3475	3510	3510	3475	3510	3475	3475	3475	3475	3440	3440	3440	0	0	0	0	0	1777	1768	1768	1768	1759	1759	1741	1732	1732	0	0	0	0	0	0	0	0	0	0	0	0	0	0	0	0	0	0	0	0	0	0	0	0	0	0	0	0	0	0	0	0	0	0	0	0	0	0	0
0	0	0	0	0	0	0	0	0	1223	1227	1232	1236	1240	1249	1263	1263	1268	1268	1268	1272	1272	1268	1268	1272	1272	1277	1277	1282	1287	1291	1296	1296	1296	1301	1306	1306	1311	1311	1311	1316	1326	1331	1331	1342	1347	1352	1352	1553	1553	1553	1553	1553	1560	1553	1553	1553	1553	1546	1546	1546	1546	1546	1539	1546	1546	1546	1546	1546	1546	1546	1553	1553	1553	1553	1553	1553	1546	1553	1553	1553	1553	1553	1553	1553	1553	1553	1553	1560	1567	1581	1589	1589	1589	1596	1596	0	0	2392	2409	2409	2426	2443	2460	2460	2478	2478	2496	2496	2496	2496	2514	2514	2532	2532	2532	2532	2532	2532	2532	2532	2514	2514	2514	2514	2514	2532	2514	2532	2532	2532	2551	2532	2532	2551	2551	2551	2551	2551	2551	2532	2532	2532	2532	2532	2551	2551	2551	2551	2551	2551	2551	2551	2532	2532	2570	2551	2570	2551	2532	2551	2551	2532	2532	2532	2551	2551	2551	2551	2551	2589	2589	2570	2570	2570	2570	2570	2570	2570	2570	2570	2570	2570	2570	2570	2570	2570	2570	2551	2551	2551	2514	2532	2570	2589	2570	2589	2589	2589	2589	2589	2589	2589	2589	0	3510	3475	3510	3510	3510	3510	3510	3510	3510	3510	3510	3510	3510	3510	3510	3510	3510	3510	3510	3546	3546	3583	3583	3621	3659	3659	3659	3659	3621	3621	3621	3621	3621	3659	3659	3621	3621	3621	3621	3621	3621	3621	3698	3659	3659	3659	3698	3698	3738	3698	3698	3738	3738	3738	3738	3738	3738	3738	3738	3738	3738	3698	3698	3698	3698	3698	3698	3698	3698	3698	3698	3738	3738	3738	3698	3698	3698	3698	3698	3698	3698	3659	3698	3698	3698	3698	3698	3698	3698	3698	3698	3738	3698	3698	3698	3698	3698	3698	3698	3698	3698	3698	3698	3698	3698	3698	3659	3659	3698	3738	3738	3738	3738	3738	3738	3738	3698	3698	3659	3659	3698	3738	3698	3019	3019	3019	3019	3019	2993	2967	2967	2967	2942	2917	2917	2893	2893	2893	2893	2869	2869	2869	2869	2869	2869	2869	2869	2869	2845	2845	2822	2822	2822	2822	2822	2822	2822	2822	2822	2822	2822	2822	2822	2822	2822	2845	2822	2822	2822	2822	2822	2822	2799	2799	2799	2799	2799	2799	2822	2822	2845	2845	2869	2869	2869	2869	2869	2893	2893	2917	2917	2917	2917	2917	2893	2893	2893	2893	2893	2893	2917	2917	3621	3659	3621	3621	3659	3621	3621	3659	3659	3621	3621	3621	3621	3621	3583	3621	3621	3621	3621	3621	3621	3583	3621	3621	3621	3621	3621	3621	3621	3621	3621	3621	3621	3621	3621	3621	3621	3621	3621	3621	3621	3621	3621	3583	3583	3583	3583	3583	3546	3546	3546	3546	3510	3510	3510	3510	3510	3546	3546	3546	3583	3583	3546	3583	3546	3546	3583	3583	3546	3546	3546	3546	3583	3583	3583	3583	3621	3583	3546	3546	3546	3546	3546	3546	3546	3546	3546	3546	3546	3546	3546	3546	3546	3546	3546	3546	3546	3546	3546	3546	3546	3546	3546	3546	3510	3546	3546	3546	3546	3546	3546	3546	3546	3546	3546	3546	3546	3546	3546	3546	3546	3546	3546	3546	3546	3546	3546	3546	3546	3546	3546	3546	3546	3546	3546	3546	3546	3510	3510	3510	3510	3510	3510	3510	3510	3510	3546	3546	3546	3546	3546	3546	3546	3546	3546	3546	3546	3546	3546	3546	3546	3546	3546	3546	3546	3546	3510	3510	3475	3510	3510	3510	3510	3475	3475	3475	3475	3440	3440	0	0	0	0	0	1786	1786	1777	1777	1768	1759	1759	1741	1741	1732	0	0	0	0	0	0	0	0	0	0	0	0	0	0	0	0	0	0	0	0	0	0	0	0	0	0	0	0	0	0	0	0	0	0	0	0	0	0	0
0	0	0	0	0	0	0	0	0	1219	1219	1227	1223	1232	1240	1240	1268	1268	1268	1272	1272	1272	1272	1272	1277	1277	1287	1287	1287	1291	1296	1296	1296	1296	1301	1306	1306	1306	1311	1316	1321	1326	1331	1336	1342	1347	1352	1358	1358	1358	1553	1553	1560	1560	1560	1546	1546	1553	1546	1546	1546	1546	1546	1546	1539	1546	1546	1539	1546	1539	1539	1546	1546	1546	1546	1546	1553	1546	1553	1553	1553	1553	1553	1546	1553	1546	1553	1553	1560	1560	1581	1589	1589	1589	1596	1596	0	0	2392	2409	2409	2426	2443	2443	2460	2460	2478	2496	2496	2496	2514	2514	2532	2551	2551	2551	2551	2551	2551	2551	2551	2551	2532	2551	2551	2551	2551	2551	2551	2551	2551	2551	2551	2551	2551	2570	2551	2570	2551	2551	2570	2570	2551	2551	2551	2570	2570	2570	2570	2570	2570	2570	2551	2551	2551	2570	2570	2570	2570	2532	2551	2551	2551	2551	2570	2570	2589	2589	2589	2589	2589	2589	2589	2589	2570	2570	2570	2570	2570	2570	2570	2589	2589	2589	2589	2589	2570	2570	2570	2570	2570	2570	2570	2570	2570	2570	2589	2589	2589	2589	2589	2589	2589	2589	0	3475	3475	3475	3510	3510	3510	3510	3510	3510	3510	3510	3510	3475	3510	3510	3510	3510	3510	3510	3546	3546	3583	3621	3621	3621	3621	3621	3621	3621	3621	3621	3621	3621	3659	3659	3621	3621	3621	3621	3621	3621	3621	3698	3659	3698	3698	3698	3698	3738	3698	3698	3738	3738	3738	3738	3738	3738	3738	3738	3738	3738	3738	3698	3698	3698	3698	3698	3698	3698	3698	3698	3738	3738	3698	3698	3698	3698	3698	3698	3698	3698	3698	3698	3698	3698	3698	3698	3698	3698	3698	3738	3698	3698	3698	3698	3698	3698	3698	3698	3698	3698	3698	3698	3698	3698	3698	3659	3659	3698	3738	3738	3738	3738	3738	3698	3698	3698	3698	3659	3659	3698	3738	3738	3019	3019	3019	3019	3019	2993	2967	2967	2967	2942	2942	2917	2893	2893	2893	2893	2893	2869	2869	2869	2869	2869	2869	2869	2869	2845	2845	2822	2822	2822	2822	2799	2799	2822	2822	2799	2799	2822	2822	2822	2822	2822	2822	2822	2822	2822	2822	2822	2822	2822	2822	2822	2822	2822	2822	2822	2822	2845	2845	2845	2869	2869	2869	2869	2869	2869	2917	2917	2917	2917	2917	2917	2917	2893	2893	2917	2893	2917	2917	3621	3621	3621	3621	3621	3621	3621	3659	3659	3621	3621	3621	3621	3621	3583	3621	3621	3583	3621	3621	3621	3621	3621	3621	3621	3621	3621	3621	3621	3621	3621	3583	3583	3583	3583	3621	3621	3621	3621	3621	3621	3621	3583	3583	3583	3583	3583	3583	3546	3546	3546	3510	3510	3510	3510	3510	3510	3546	3546	3546	3583	3583	3583	3583	3546	3546	3583	3583	3546	3546	3546	3546	3583	3583	3583	3546	3583	3583	3583	3546	3583	3546	3546	3546	3546	3546	3546	3546	3546	3546	3546	3546	3546	3546	3546	3546	3546	3546	3546	3546	3546	3546	3546	3510	3510	3546	3546	3546	3510	3510	3546	3546	3546	3546	3546	3546	3546	3546	3546	3546	3546	3546	3546	3546	3546	3546	3546	3546	3546	3546	3546	3546	3546	3546	3546	3510	3510	3510	3510	3510	3510	3510	3510	3510	3510	3510	3546	3546	3546	3546	3546	3546	3546	3546	3546	3546	3546	3546	3546	3546	3546	3546	3546	3546	3546	3546	3510	3510	3475	3510	3510	3475	3510	3475	3475	3510	3510	0	0	0	0	0	0	1795	1795	1786	1777	1777	1768	1759	1759	1741	1741	1741	0	0	0	0	0	0	0	0	0	0	0	0	0	0	0	0	0	0	0	0	0	0	0	0	0	0	0	0	0	0	0	0	0	0	0	0	0	0	0
0	0	0	0	0	0	0	0	0	1214	1214	1223	1223	1227	1232	1232	1236	1236	1272	1272	1277	1277	1277	1272	1277	1282	1287	1287	1287	1291	1296	1296	1296	1301	1306	1306	1311	1311	1311	1316	1321	1326	1331	1331	1336	1347	1352	1352	1358	1358	1363	1358	1358	1560	1560	1546	1546	1546	1546	1539	1539	1546	1546	1539	1539	1539	1546	1546	1539	1539	1546	1553	1553	1553	1546	1553	1553	1546	1553	1553	1546	1546	1546	1546	1546	1546	1553	1553	1553	1560	1574	1581	1589	1589	1589	1589	0	0	2409	2409	2426	2426	2443	2443	2460	2460	2478	2496	2496	2496	2514	2514	2532	2551	2551	2551	2551	2551	2551	2570	2570	2551	2551	2570	2570	2570	2570	2551	2570	2570	2551	2551	2551	2551	2551	2551	2570	2570	2570	2570	2589	2589	2570	2570	2570	2589	2589	2589	2589	2589	2589	2589	2570	2570	2551	2570	2570	2570	2570	2570	2570	2589	2589	2589	2589	2589	2589	2589	2589	2589	2609	2589	2589	2589	2589	2589	2589	2589	2589	2589	2589	2589	2589	2589	2589	2589	2589	2570	2570	2570	2570	2570	2570	2570	2570	2570	2589	2589	2589	2589	2589	2589	2589	2589	0	3475	3475	3475	3510	3510	3510	3510	3510	3510	3510	3510	3510	3510	3510	3510	3510	3510	3510	3510	3510	3546	3546	3583	3621	3621	3659	3621	3621	3621	3621	3659	3659	3659	3659	3659	3659	3621	3621	3621	3621	3583	3621	3698	3659	3659	3698	3698	3698	3738	3698	3698	3738	3738	3738	3738	3738	3738	3738	3738	3738	3738	3738	3698	3698	3698	3698	3698	3698	3738	3738	3698	3738	3738	3738	3698	3698	3698	3698	3698	3698	3698	3698	3698	3659	3698	3698	3698	3698	3698	3698	3698	3698	3698	3698	3698	3698	3698	3698	3698	3698	3698	3698	3698	3698	3698	3698	3698	3659	3659	3698	3698	3738	3698	3698	3698	3698	3698	3659	3659	3659	3698	3738	3738	3019	3019	3019	3019	3019	2993	2967	2967	2942	2942	2942	2917	2893	2893	2893	2893	2893	2893	2869	2869	2869	2869	2869	2845	2845	2845	2845	2845	2822	2822	2822	2799	2799	2799	2799	2799	2799	2799	2822	2822	2822	2822	2822	2822	2799	2799	2799	2845	2845	2822	2822	2822	2822	2822	2822	2822	2822	2845	2845	2845	2845	2845	2869	2869	2869	2893	2917	2917	2917	2917	2917	2917	2917	2893	2893	2893	2893	2893	2893	3621	3659	3621	3621	3659	3621	3621	3659	3659	3621	3621	3621	3621	3583	3583	3583	3621	3583	3621	3621	3621	3621	3621	3621	3621	3621	3621	3621	3621	3621	3621	3583	3621	3621	3621	3621	3621	3621	3621	3621	3621	3621	3583	3583	3583	3583	3583	3583	3546	3546	3546	3510	3510	3510	3510	3510	3510	3510	3546	3546	3583	3583	3583	3583	3546	3546	3583	3583	3546	3546	3546	3546	3583	3583	3583	3583	3583	3583	3583	3546	3583	3546	3546	3546	3583	3546	3546	3546	3546	3546	3546	3546	3510	3546	3510	3510	3510	3546	3546	3546	3510	3546	3546	3510	3510	3546	3546	3546	3546	3510	3546	3546	3546	3546	3546	3546	3546	3546	3546	3546	3546	3546	3546	3546	3546	3546	3546	3546	3546	3546	3546	3546	3546	3546	3546	3510	3510	3510	3510	3510	3510	3510	3510	3510	3510	3510	3546	3546	3546	3546	3546	3546	3546	3546	3546	3546	3510	3510	3510	3546	3546	3546	3546	3546	3546	3546	3510	3510	3475	3510	3510	3510	3510	3510	3510	3510	3510	0	0	1833	1824	1824	1824	1804	1795	1786	1777	1768	1768	1759	1759	1750	1741	1741	0	0	0	0	0	0	0	0	0	0	0	0	0	0	0	0	0	0	0	0	0	0	0	0	0	0	0	0	0	0	0	0	0	0	0	0	0	0	0
0	0	0	0	0	0	0	0	0	1214	1214	1219	1223	1227	1227	1227	1227	1227	1236	1277	1277	1277	1277	1272	1277	1282	1287	1291	1291	1296	1301	1301	1301	1306	1306	1311	1311	1311	1316	1316	1321	1326	1331	1336	1336	1342	1352	1352	1352	1358	1363	1363	1374	1379	1379	1385	1390	1390	1546	1546	1539	1546	1546	1546	1546	1546	1546	1546	1546	1539	1539	1553	1553	1553	1553	1553	1553	1546	1553	1546	1546	1546	1546	1546	1546	1546	1546	1553	1553	1553	1567	1574	1581	1581	1589	1589	0	0	2409	2426	2426	2426	2443	2443	2460	2460	2478	2496	2496	2496	2514	2514	2532	2532	2551	2551	2551	2551	2570	2570	2570	2570	2570	2589	2570	2570	2570	2570	2609	2609	2570	2570	2570	2570	2570	2570	2570	2570	2570	2570	2609	2589	2570	2570	2589	2589	2589	2589	2589	2609	2609	2609	2589	2589	2589	2609	2589	2589	2589	2589	2589	2589	2589	2609	2609	2609	2609	2609	2609	2609	2589	2589	2589	2609	2589	2589	2589	2589	2589	2589	2589	2589	2589	2589	2589	2589	2589	2589	2570	2570	2570	2570	2570	2589	2589	2589	2589	2589	2589	2589	2589	2589	2589	2589	0	3475	3475	3475	3510	3510	3510	3510	3510	3510	3510	3510	3475	3475	3510	3510	3510	3510	3510	3510	3546	3546	3583	3621	3621	3621	3659	3659	3659	3621	3621	3659	3659	3659	3659	3621	3621	3621	3621	3621	3621	3621	3659	3698	3698	3659	3698	3698	3698	3738	3738	3738	3738	3738	3738	3738	3738	3738	3738	3738	3738	3738	3738	3738	3698	3698	3698	3738	3738	3738	3738	3698	3698	3698	3698	3698	3698	3698	3698	3698	3698	3698	3698	3698	3698	3698	3698	3698	3698	3698	3698	3698	3698	3698	3698	3698	3698	3698	3698	3698	3698	3698	3698	3698	3698	3698	3698	3698	3659	3659	3698	3738	3698	3698	3698	3698	3698	3659	3659	3659	3659	3738	3738	3738	3738	3019	3019	3019	3019	2993	2967	2942	2942	2967	2917	2917	2893	2893	2893	2893	2893	2893	2869	2869	2869	2869	2869	2845	2845	2845	2845	2845	2822	2822	2822	2799	2822	2799	2799	2799	2799	2799	2822	2822	2822	2822	2822	2799	2799	2799	2799	2845	2845	2822	2822	2822	2822	2822	2822	2822	2822	2822	2845	2869	2869	2869	2869	2869	2869	2917	2917	2917	2917	2917	2917	2893	2893	2893	2893	2893	2893	2893	2893	3621	3621	3621	3621	3621	3621	3621	3659	3659	3621	3621	3621	3621	3621	3621	3621	3621	3621	3621	3621	3621	3621	3621	3621	3583	3583	3583	3621	3621	3621	3621	3583	3621	3621	3621	3621	3621	3621	3621	3621	3621	3621	3583	3583	3583	3583	3583	3583	3546	3546	3510	3510	3510	3510	3510	3510	3546	3546	3546	3546	3546	3583	3546	3546	3546	3510	3583	3546	3546	3546	3546	3583	3583	3583	3583	3583	3583	3546	3546	3546	3583	3546	3546	3546	3546	3546	3546	3546	3546	3546	3546	3546	3546	3546	3546	3510	3510	3546	3546	3546	3546	3546	3546	3510	3510	3510	3510	3510	3510	3510	3510	3510	3546	3546	3546	3546	3546	3546	3546	3546	3546	3546	3546	3546	3546	3546	3546	3583	3583	3546	3546	3546	3546	3546	3546	3510	3510	3510	3510	3510	3510	3510	3510	3510	3510	3510	3546	3546	3546	3546	3546	3546	3546	3546	3510	3510	3510	3510	3510	3546	3546	3546	3546	3546	3546	3546	3510	3510	3510	3510	3510	3510	3546	3546	3510	0	0	0	1833	1833	1824	1824	1824	1814	1795	1786	1786	1777	1777	1768	1759	1759	1750	1750	0	0	0	0	0	0	0	0	0	0	0	0	0	0	0	0	0	0	0	0	0	0	0	0	0	0	0	0	0	0	0	0	0	0	0	0	0	0	0
0	0	0	0	0	0	0	0	0	1210	1210	1219	1219	1227	1227	1227	1227	1232	1236	1236	1277	1277	1277	1272	1277	1287	1291	1291	1291	1301	1301	1301	1301	1306	1306	1311	1311	1311	1316	1321	1326	1326	1331	1336	1336	1347	1347	1352	1352	1358	1363	1368	1374	1379	1379	1385	1390	1390	1390	1546	1546	1546	1546	1546	1539	1546	1546	1546	1546	1539	1539	1553	1553	1553	1553	1553	1553	1546	1546	1546	1546	1546	1546	1546	1546	1546	1546	1553	1553	1553	1567	1581	1589	1581	1589	1589	0	0	2409	2426	2426	2426	2443	2443	2460	2460	2478	2478	2496	2496	2514	2532	2532	2551	2551	2551	2551	2551	2570	2570	2570	2589	2570	2609	2570	2589	2589	2589	2609	2609	2589	2589	2589	2570	2570	2570	2570	2589	2589	2609	2609	2629	2629	2589	2609	2609	2609	2609	2609	2609	2609	2609	2609	2609	2609	2629	2609	2609	2609	2589	2589	2609	2609	2609	2609	2629	2609	2629	2609	2609	2609	2609	2589	2609	2609	2589	2589	2589	2589	2589	2589	2589	2589	2589	2589	2589	2589	2589	2589	2589	2589	2589	2589	2589	2589	2589	2589	2589	2589	2589	2589	2589	2589	2589	2589	3475	3475	3475	3475	3475	3475	3510	3510	3510	3475	3475	3510	3475	3510	3510	3510	3510	3510	3510	3546	3583	3583	3621	3621	3621	3659	3659	3659	3659	3659	3659	3659	3659	3659	3659	3621	3621	3621	3621	3621	3583	3621	3659	3698	3659	3698	3698	3698	3738	3738	3738	3738	3738	3738	3738	3738	3738	3738	3738	3698	3698	3698	3738	3738	3738	3738	3738	3738	3738	3738	3738	3738	3738	3738	3738	3698	3698	3698	3698	3698	3698	3698	3698	3698	3698	3698	3698	3698	3698	3698	3698	3698	3698	3698	3698	3659	3698	3698	3698	3698	3698	3698	3698	3698	3698	3698	3698	3659	3659	3738	3698	3698	3698	3698	3698	3698	3659	3659	3659	3659	3698	3698	3698	3019	3019	2993	2993	2993	2993	2967	2967	2967	2967	2942	2917	2917	2893	2893	2893	2893	2893	2869	2869	2869	2869	2869	2845	2845	2845	2845	2845	2822	2822	2822	2822	2822	2822	2799	2799	2799	2799	2799	2822	2822	2822	2822	2822	2799	2799	2799	2845	2845	2822	2822	2799	2799	2799	2799	2799	2822	2845	2845	2869	2869	2869	2869	2869	2869	2917	2917	2917	2917	2917	2917	2893	2893	2893	2893	2893	2893	2893	2893	2893	3621	3621	3621	3621	3621	3621	3659	3659	3621	3621	3621	3621	3621	3621	3621	3621	3583	3621	3583	3621	3583	3583	3621	3583	3583	3583	3583	3583	3583	3621	3583	3621	3621	3583	3621	3621	3621	3621	3583	3621	3621	3621	3583	3583	3583	3583	3583	3546	3546	3546	3510	3510	3510	3510	3546	3546	3546	3546	3546	3546	3546	3546	3546	3546	3510	3510	3546	3546	3546	3546	3546	3583	3583	3621	3583	3583	3583	3583	3583	3583	3546	3546	3546	3546	3546	3546	3546	3546	3546	3546	3546	3546	3546	3546	3546	3510	3546	3546	3546	3546	3546	3546	3546	3510	3510	3510	3510	3510	3546	3546	3546	3546	3546	3546	3546	3546	3546	3546	3546	3546	3546	3546	3546	3546	3510	3510	3583	3546	3546	3546	3546	3546	3546	3546	3546	3510	3510	3510	3510	3510	3510	3510	3510	3510	3510	3510	3546	3546	3546	3546	3546	3546	3546	3546	3546	3546	3510	3510	3546	3546	3546	3546	3546	3546	3546	3475	3475	3475	3510	3510	3510	3546	3546	0	0	0	0	1843	1833	1824	1824	1824	1804	1795	1795	1786	1786	1777	1777	1768	1759	1759	1759	1759	0	0	0	0	0	0	0	0	0	0	0	0	0	0	0	0	0	0	0	0	0	0	0	0	0	0	0	0	0	0	0	0	0	0	0	0	0	0
0	0	0	0	0	0	0	0	0	1206	1210	1214	1219	1227	1227	1227	1232	1232	1236	1236	1259	1277	1277	1272	1277	1282	1287	1291	1291	1301	1301	1301	1306	1306	1306	1311	1311	1311	1316	1321	1321	1326	1331	1336	1342	1347	1347	1352	1352	1363	1363	1368	1374	1379	1379	1385	1396	1396	1402	1413	1413	1413	1546	1546	1539	1539	1539	1539	1546	1539	1539	1553	1553	1546	1553	1553	1553	1546	1546	1546	1546	1539	1546	1546	1546	1546	1553	1553	1553	1560	1567	1581	1581	1574	1581	1581	0	0	2426	2426	2426	2426	2426	2426	2460	2460	2478	2496	2496	2496	2514	2532	2532	2532	2551	2551	2551	2551	2570	2570	2570	2570	2570	2629	2629	2629	2629	2629	2629	2629	2609	2609	2609	2589	2589	2589	2570	2589	2589	2629	2649	2649	2629	2629	2629	2629	2629	2629	2609	2609	2609	2609	2609	2609	2609	2629	2609	2609	2609	2589	2609	2609	2609	2609	2629	2629	2629	2629	2609	2609	2589	2589	2589	2609	2609	2589	2609	2589	2589	2589	2589	2589	2589	2589	2589	2589	2589	2589	2589	2589	2589	2589	2589	2589	2589	2589	2589	2589	2589	2589	2589	2589	2589	2589	2589	3440	3440	3440	3440	3475	3475	3475	3475	3475	3475	3475	3475	3475	3475	3475	3510	3510	3510	3510	3546	3583	3583	3621	3621	3621	3659	3659	3659	3621	3621	3659	3659	3659	3659	3659	3659	3621	3621	3621	3621	3621	3621	3698	3659	3659	3698	3698	3698	3738	3698	3738	3738	3738	3738	3738	3738	3738	3738	3738	3698	3698	3698	3738	3698	3738	3738	3738	3738	3738	3738	3738	3738	3738	3738	3738	3738	3738	3738	3738	3698	3698	3698	3698	3698	3698	3698	3698	3698	3698	3698	3698	3698	3698	3698	3698	3698	3698	3698	3698	3698	3698	3698	3698	3698	3698	3698	3698	3698	3659	3738	3698	3698	3698	3698	3698	3698	3698	3698	3698	3659	3698	3698	3698	3019	3019	2993	2993	2993	2967	2967	2942	2967	2942	2942	2917	2893	2893	2893	2893	2893	2893	2869	2869	2869	2845	2869	2845	2845	2822	2845	2822	2822	2822	2822	2822	2822	2799	2799	2799	2799	2799	2822	2822	2822	2822	2822	2799	2799	2822	2822	2822	2845	2822	2799	2799	2799	2799	2799	2799	2822	2869	2845	2869	2869	2869	2869	2869	2869	2917	2917	2917	2917	2917	2917	2893	2893	2893	2893	2893	2893	2893	2893	2893	3621	3621	3621	3621	3621	3621	3659	3621	3621	3621	3621	3621	3621	3621	3621	3621	3621	3621	3621	3621	3621	3583	3583	3583	3583	3583	3583	3583	3583	3583	3583	3583	3583	3583	3583	3583	3583	3583	3583	3583	3583	3583	3583	3583	3583	3583	3583	3546	3546	3546	3510	3546	3546	3510	3546	3546	3510	3546	3510	3510	3510	3510	3510	3510	3510	3546	3546	3546	3546	3546	3546	3546	3583	3583	3583	3583	3583	3583	3583	3583	3546	3546	3546	3546	3546	3546	3546	3546	3546	3546	3546	3546	3546	3546	3546	3510	3546	3546	3546	3546	3546	3546	3546	3510	3510	3510	3510	3546	3546	3546	3546	3546	3546	3546	3546	3546	3546	3546	3546	3546	3546	3546	3546	3546	3546	3510	3546	3510	3546	3546	3546	3546	3546	3546	3546	3510	3510	3510	3510	3510	3510	3510	3510	3510	3510	3546	3546	3546	3546	3546	3546	3546	3546	3546	3546	3546	3510	3510	3546	3510	3510	3510	3546	3510	3475	3475	3510	3510	3510	3510	0	0	0	0	0	0	0	1843	1833	1824	1824	1824	1814	1804	1795	1786	1786	1777	1777	1768	1768	1768	1759	1759	0	0	0	0	0	0	0	0	0	0	0	0	0	0	0	0	0	0	0	0	0	0	0	0	0	0	0	0	0	0	0	0	0	0	0	0	0	0
0	0	0	0	0	0	0	0	0	1210	1210	1219	1223	1227	1227	1232	1232	1236	1240	1249	1259	1272	1272	1268	1272	1282	1287	1291	1296	1301	1306	1306	1306	1311	1311	1311	1311	1316	1321	1326	1331	1331	1336	1342	1342	1347	1352	1352	1352	1363	1363	1368	1374	1374	1379	1385	1396	1396	1402	1402	1407	1407	1407	1546	1539	1539	1546	1546	1546	1539	1539	1553	1553	1546	1546	1546	1546	1546	1546	1546	1539	1539	1539	1546	1546	1546	1546	1553	1553	1560	1567	1574	1581	1574	1581	1581	0	0	2426	2426	2426	2426	2426	2426	2460	2478	2478	2496	2496	2496	2514	2514	2532	2532	2532	2551	2551	2551	2570	2589	2570	2609	2629	2649	2629	2629	2649	2629	2609	2609	2609	2609	2609	2609	2589	2589	2589	2589	2629	2629	2629	2649	2629	2629	2629	2629	2629	2629	2629	2629	2629	2629	2609	2629	2609	2629	2609	2629	2609	2609	2609	2609	2629	2629	2629	2629	2629	2629	2629	2629	2589	2589	2589	2589	2589	2589	2589	2609	2609	2609	2589	2589	2589	2589	2589	2589	2589	2589	2589	2589	2589	2589	2589	2589	2589	2589	2589	2589	2589	2589	2589	2589	2589	2589	2589	2589	3440	3440	3475	3475	3475	3475	3475	3475	3475	3475	3475	3475	3475	3475	3475	3510	3510	3510	3546	3583	3621	3621	3621	3659	3659	3659	3659	3621	3621	3659	3659	3659	3659	3659	3659	3621	3621	3621	3621	3621	3659	3659	3659	3659	3698	3698	3698	3738	3698	3738	3738	3738	3738	3738	3738	3738	3738	3698	3698	3698	3738	3738	3698	3738	3738	3738	3738	3738	3738	3738	3738	3738	3738	3738	3738	3738	3738	3738	3698	3698	3698	3698	3698	3698	3698	3698	3698	3698	3698	3698	3698	3698	3698	3698	3698	3698	3698	3698	3698	3698	3698	3698	3698	3698	3698	3698	3621	3659	3698	3698	3698	3698	3698	3698	3698	3698	3698	3698	3659	3659	3738	3738	3019	3019	2993	2993	2993	2967	2967	2967	2967	2967	2942	2917	2893	2893	2893	2893	2893	2893	2869	2869	2869	2845	2845	2845	2822	2822	2822	2822	2845	2822	2845	2822	2822	2822	2799	2822	2799	2799	2822	2845	2822	2822	2822	2799	2799	2822	2822	2845	2845	2822	2822	2799	2799	2799	2799	2799	2822	2845	2845	2869	2869	2869	2869	2869	2869	2893	2917	2917	2917	2917	2893	2893	2893	2893	2893	2893	2893	2893	2893	2893	3621	3621	3621	3621	3621	3621	3659	3621	3621	3621	3621	3621	3621	3621	3621	3621	3621	3621	3621	3621	3621	3583	3621	3583	3583	3583	3583	3583	3583	3583	3583	3583	3583	3583	3583	3583	3583	3583	3583	3583	3621	3583	3583	3583	3583	3583	3583	3546	3546	3546	3546	3546	3546	3510	3510	3546	3546	3546	3510	3510	3510	3510	3510	3510	3510	3546	3546	3546	3546	3546	3546	3546	3583	3583	3583	3583	3583	3583	3583	3583	3546	3546	3546	3546	3546	3546	3546	3546	3546	3546	3546	3546	3546	3546	3546	3546	3546	3546	3510	3510	3510	3510	3510	3510	3510	3510	3510	3546	3546	3546	3546	3546	3546	3546	3546	3546	3546	3546	3546	3546	3546	3546	3546	3546	3546	3546	3546	3546	3546	3546	3546	3546	3546	3510	3510	3546	3510	3510	3510	3510	3510	3510	3510	3510	3510	3546	3546	3546	3546	3546	3546	3546	3546	3546	3546	3510	3510	3510	3546	3510	3510	3546	3546	3510	3475	3475	3510	3510	0	0	0	0	1883	1873	1883	1873	1863	1853	1853	1833	1824	1824	1814	1804	1795	1786	1786	1777	1777	1777	1768	1768	1759	1759	0	0	0	0	0	0	0	0	0	0	0	0	0	0	0	0	0	0	0	0	0	0	0	0	0	0	0	0	0	0	0	0	0	0	0	0	0	0
0	0	0	0	0	0	0	0	0	1210	1210	1219	1223	1232	1232	1236	1236	1240	1245	1249	1254	1263	1268	1268	1272	1277	1282	1287	1282	1282	1291	1291	1291	1306	1316	1321	1316	1321	1326	1326	1331	1331	1336	1336	1342	1342	1347	1352	1358	1363	1363	1368	1374	1374	1379	1379	1396	1402	1402	1407	1407	1407	1407	1407	1546	1539	1546	1546	1546	1546	1546	1553	1553	1553	1553	1546	1546	1546	1546	1546	1546	1546	1546	1546	1546	1546	1546	1546	1553	1560	1567	1574	1581	1581	1567	1567	0	0	2426	2426	2426	2426	2426	2426	2460	2460	2478	2496	2496	2496	2514	2514	2532	2532	2532	2551	2551	2551	2570	2589	2609	2609	2629	2629	2649	2629	2629	2629	2629	2629	2609	2609	2609	2609	2589	2609	2609	2629	2629	2629	2649	2649	2629	2629	2629	2629	2629	2629	2629	2629	2629	2629	2629	2609	2609	2629	2609	2629	2609	2609	2629	2609	2609	2629	2629	2629	2629	2629	2629	2629	2589	2589	2589	2589	2589	2589	2589	2589	2609	2589	2589	2589	2589	2589	2589	2589	2589	2589	2589	2589	2609	2589	2589	2589	2589	2589	2589	2589	2589	2589	2570	2570	2589	2589	2589	2589	3475	3475	3475	3475	3475	3475	3475	3475	3440	3475	3475	3475	3475	3475	3475	3510	3510	3546	3546	3583	3621	3659	3659	3659	3659	3659	3659	3659	3659	3698	3659	3659	3659	3698	3698	3659	3659	3659	3659	3659	3659	3659	3659	3659	3698	3698	3698	3738	3698	3698	3738	3698	3738	3738	3738	3738	3738	3738	3738	3738	3738	3738	3738	3738	3738	3738	3738	3738	3698	3738	3738	3738	3738	3738	3738	3738	3738	3738	3698	3698	3698	3698	3698	3698	3698	3698	3698	3659	3698	3698	3698	3698	3698	3698	3698	3698	3698	3698	3698	3698	3698	3698	3698	3698	3698	3698	3621	3621	3621	3738	3738	3698	3698	3698	3698	3698	3698	3698	3659	3659	3698	3738	2993	3019	2993	2993	2993	2967	2967	2967	2967	2942	2942	2917	2893	2893	2893	2893	2893	2869	2869	2869	2869	2845	2845	2822	2822	2822	2822	2822	2822	2822	2845	2822	2822	2822	2799	2822	2799	2799	2822	2822	2799	2799	2822	2799	2799	2822	2822	2845	2845	2822	2822	2822	2799	2799	2799	2799	2822	2845	2869	2869	2869	2869	2869	2869	2869	2893	2917	2917	2917	2893	2893	2893	2893	2893	2893	2893	2893	2893	2893	2893	3621	3621	3621	3621	3621	3621	3621	3621	3621	3621	3621	3621	3621	3621	3621	3621	3621	3621	3621	3621	3621	3621	3621	3621	3583	3583	3583	3583	3583	3583	3583	3583	3583	3583	3583	3583	3583	3583	3583	3583	3583	3583	3621	3621	3583	3583	3583	3583	3546	3546	3510	3510	3510	3510	3510	3510	3510	3510	3510	3510	3510	3510	3510	3510	3510	3546	3546	3546	3546	3546	3546	3546	3583	3583	3583	3583	3546	3583	3583	3583	3583	3546	3546	3583	3546	3546	3546	3546	3546	3546	3546	3546	3546	3546	3546	3510	3546	3510	3510	3546	3510	3510	3510	3510	3510	3510	3510	3546	3546	3546	3510	3546	3546	3546	3546	3546	3546	3546	3546	3546	3546	3546	3546	3546	3546	3546	3546	3510	3546	3546	3546	3546	3546	3510	3510	3510	3510	3510	3510	3510	3510	3510	3510	3510	3510	3546	3546	3546	3546	3546	3546	3546	3546	3546	3546	3546	3510	3546	3546	3510	3546	3546	3546	3546	3546	3583	3546	3546	0	0	0	1904	1894	1883	1883	1873	1863	1863	1853	1833	1824	1824	1814	1814	1795	1795	1786	1786	1777	1777	1768	1768	1768	1768	0	0	0	0	0	0	0	0	0	0	0	0	0	0	0	0	0	0	0	0	0	0	0	0	0	0	0	0	0	0	0	0	0	0	0	0	0	0
0	0	0	0	0	0	0	0	0	1206	1214	1223	1227	1232	1232	1236	1236	1240	1240	1249	1254	1259	1259	1263	1268	1272	1277	1282	1277	1277	1282	1287	1291	1296	1311	1321	1316	1326	1326	1331	1331	1331	1336	1336	1342	1342	1358	1352	1358	1363	1363	1368	1374	1374	1374	1379	1390	1402	1402	1402	1407	1407	1407	1407	1407	1539	1539	1546	1546	1539	1546	1553	1553	1546	1553	1546	1546	1546	1546	1546	1546	1539	1539	1539	1539	1546	1539	1546	1553	1560	1567	1574	1574	1560	1581	1581	0	0	2443	2426	2409	2426	2426	2426	2426	2460	2478	2496	2496	2496	2496	2514	2514	2514	2532	2532	2551	2570	2570	2589	2609	2609	2629	2649	2649	2629	2629	2629	2629	2629	2609	2609	2609	2609	2609	2609	2609	2629	2629	2629	2629	2649	2629	2629	2629	2629	2629	2629	2629	2629	2629	2629	2629	2629	2609	2629	2629	2629	2629	2629	2629	2629	2629	2629	2609	2629	2629	2629	2629	2629	2609	2629	2609	2589	2589	2589	2589	2589	2589	2589	2589	2589	2589	2589	2589	2589	2589	2589	2589	2589	2589	2589	2589	2589	2589	2589	2570	2570	2570	2570	2570	2570	2629	2629	2669	2669	2669	3475	3475	3475	3475	3475	3475	3475	3475	3475	3475	3475	3475	3475	3475	3510	3510	3546	3583	3583	3621	3621	3659	3659	3659	3659	3659	3659	3659	3698	3659	3659	3659	3698	3698	3659	3659	3659	3659	3621	3659	3659	3659	3659	3698	3698	3698	3738	3738	3738	3738	3698	3738	3738	3738	3738	3738	3738	3738	3738	3738	3738	3738	3738	3738	3738	3738	3738	3738	3738	3738	3738	3738	3738	3738	3738	3738	3738	3698	3698	3698	3698	3738	3738	3698	3698	3698	3698	3698	3659	3659	3698	3698	3698	3698	3698	3698	3698	3698	3698	3698	3698	3659	3698	3698	3698	3621	3659	3698	3698	3698	3698	3738	3698	3698	3698	3698	3698	3698	3659	3698	3019	3019	3019	2993	2993	2993	2967	2967	2967	2967	2942	2942	2917	2917	2893	2893	2869	2869	2869	2869	2869	2845	2845	2822	2822	2822	2822	2822	2822	2822	2799	2845	2845	2822	2822	2822	2822	2822	2822	2822	2799	2799	2799	2799	2799	2799	2799	2822	2822	2822	2799	2799	2799	2799	2799	2799	2799	2822	2869	2845	2869	2869	2869	2869	2869	2869	2893	2917	2893	2893	2893	2893	2893	2893	2893	2869	2869	2893	2893	2893	2893	3659	3621	3621	3621	3621	3621	3621	3621	3621	3621	3621	3621	3621	3621	3621	3621	3621	3621	3621	3621	3621	3583	3621	3583	3583	3583	3583	3621	3621	3583	3583	3583	3583	3583	3583	3583	3583	3583	3546	3583	3583	3583	3621	3621	3583	3583	3583	3546	3546	3546	3510	3546	3546	3546	3546	3510	3546	3546	3510	3510	3510	3510	3510	3510	3510	3546	3546	3546	3546	3546	3546	3546	3583	3583	3583	3583	3583	3583	3583	3583	3583	3546	3546	3583	3583	3546	3546	3546	3546	3546	3546	3546	3546	3546	3546	3510	3510	3510	3510	3510	3510	3510	3510	3510	3510	3510	3510	3546	3546	3546	3510	3546	3546	3546	3546	3546	3546	3546	3546	3546	3546	3546	3546	3546	3546	3546	3546	3546	3546	3546	3546	3546	3510	3510	3510	3510	3510	3510	3510	3510	3510	3510	3510	3510	3510	3546	3546	3546	3546	3546	3546	3546	3546	3546	3546	3546	3510	3546	3546	3510	3510	3546	3546	3583	3583	3583	3546	3546	0	1925	1915	1904	1894	1883	1883	1873	1863	1853	1853	1833	1824	1824	1824	1814	1804	1795	1786	1786	1777	1777	1768	1777	1768	1768	0	0	0	0	0	0	0	0	0	0	0	0	0	0	0	0	0	0	0	0	0	0	0	0	0	0	0	0	0	0	0	0	0	0	0	0	0	0
0	0	0	0	0	0	0	0	0	1210	1214	1223	1227	1227	1232	1240	1240	1240	1249	1249	1254	1254	1259	1263	1268	1272	1272	1277	1277	1272	1277	1287	1291	1301	1311	1321	1316	1326	1326	1331	1331	1336	1336	1336	1347	1347	1363	1363	1363	1363	1368	1374	1374	1374	1379	1379	1390	1390	1396	1396	1396	1407	1413	1413	1407	1407	1553	1553	1546	1539	1546	1546	1546	1546	1546	1546	1546	1546	1546	1546	1546	1539	1539	1539	1539	1546	1546	1546	1553	1560	1567	1574	1574	1560	1560	1560	0	0	2409	2409	2426	2426	2426	2426	2426	2460	2478	2478	2478	2496	2496	2514	2514	2514	2551	2551	2551	2551	2570	2570	2570	2609	2609	2629	2629	2629	2629	2629	2629	2629	2609	2629	2629	2629	2609	2609	2629	2629	2649	2629	2629	2649	2629	2629	2629	2629	2629	2629	2629	2629	2629	2629	2609	2609	2609	2629	2629	2629	2609	2629	2629	2609	2609	2609	2609	2629	2629	2629	2629	2629	2609	2629	2609	2589	2589	2589	2589	2589	2589	2589	2589	2589	2589	2589	2589	2589	2589	2589	2589	2589	2589	2589	2589	2589	2589	2570	2570	2570	2570	2570	2570	2570	2609	2669	2669	2669	2669	3475	3475	3475	3475	3475	3475	3475	3440	3475	3475	3475	3475	3475	3475	3510	3510	3546	3583	3583	3621	3621	3659	3659	3659	3659	3621	3621	3621	3659	3659	3659	3659	3698	3698	3698	3659	3659	3659	3659	3659	3659	3659	3659	3698	3698	3698	3738	3738	3738	3738	3738	3738	3738	3738	3738	3738	3738	3738	3738	3698	3738	3738	3738	3738	3738	3738	3738	3738	3738	3738	3738	3738	3738	3738	3738	3738	3738	3698	3698	3698	3698	3698	3698	3698	3698	3698	3698	3698	3659	3698	3698	3698	3698	3698	3698	3698	3698	3698	3698	3698	3698	3698	3698	3659	3659	3659	3659	3698	3698	3698	3738	3738	3698	3698	3659	3659	3659	3659	3659	3659	2993	2993	2993	2993	2967	2967	2967	2967	2942	2942	2942	2917	2917	2893	2893	2893	2869	2869	2869	2869	2869	2845	2845	2822	2822	2822	2822	2822	2822	2799	2799	2799	2799	2799	2822	2822	2822	2822	2822	2822	2822	2799	2799	2799	2799	2799	2799	2799	2822	2822	2799	2799	2822	2799	2799	2799	2799	2845	2845	2845	2869	2869	2869	2869	2869	2869	2893	2893	2893	2893	2893	2893	2893	2893	2869	2869	2869	2869	2845	2845	2845	2845	3621	3621	3621	3621	3621	3621	3621	3621	3621	3621	3621	3621	3621	3621	3621	3621	3621	3621	3621	3583	3583	3583	3583	3583	3583	3583	3621	3583	3583	3583	3583	3583	3583	3583	3546	3546	3583	3546	3583	3583	3583	3583	3583	3583	3583	3583	3583	3546	3546	3546	3546	3546	3546	3546	3546	3546	3546	3510	3510	3510	3510	3510	3510	3510	3546	3546	3546	3546	3546	3546	3546	3583	3583	3583	3583	3546	3583	3583	3583	3546	3546	3546	3583	3583	3546	3546	3546	3546	3546	3546	3546	3546	3546	3510	3510	3510	3510	3510	3510	3510	3510	3510	3510	3510	3510	3510	3546	3546	3546	3546	3546	3546	3546	3546	3546	3546	3546	3546	3546	3546	3546	3546	3546	3546	3546	3546	3546	3546	3510	3510	3510	3510	3510	3510	3510	3510	3510	3510	3510	3510	3510	3510	3510	3510	3546	3546	3546	3546	3546	3546	3546	3546	3546	3510	3510	3510	3510	3510	3475	3510	3546	3475	3546	3546	0	0	0	0	1947	1915	1904	1894	1883	1883	1873	1863	1853	1853	1833	1833	1824	1824	1814	1804	1804	1795	1786	1777	1777	1768	1768	1768	1768	0	0	0	0	0	0	0	0	0	0	0	0	0	0	0	0	0	0	0	0	0	0	0	0	0	0	0	0	0	0	0	0	0	0	0	0	0	0
0	0	0	0	0	0	0	0	0	1210	1219	1223	1227	1232	1236	1240	1240	1245	1249	1249	1254	1254	1259	1263	1268	1268	1272	1272	1272	1272	1277	1282	1287	1287	1311	1316	1316	1326	1326	1331	1331	1342	1352	1352	1347	1363	1368	1363	1363	1368	1368	1368	1374	1374	1379	1379	1390	1390	1390	1396	1396	1413	1413	1413	1413	1419	1419	1419	1443	1443	1443	1546	1546	1546	1546	1546	1546	1546	1546	1546	1546	1539	1539	1539	1546	1546	1546	1546	1553	1560	1574	1574	1574	1581	1560	1553	1553	0	2409	2409	2409	2409	2409	2409	2426	2443	2478	2478	2478	2496	2496	2496	2514	2532	2551	2551	2551	2551	2570	2570	2589	2589	2609	2629	2649	2649	2629	2629	2629	2629	2629	2629	2629	2629	2629	2629	2629	2629	2649	2629	2629	2649	2629	2629	2629	2629	2629	2629	2629	2629	2629	2629	2629	2609	2609	2629	2609	2629	2609	2609	2609	2609	2609	2609	2609	2629	2629	2629	2629	2629	2589	2629	2609	2589	2589	2589	2589	2589	2589	2589	2589	2589	2570	2570	2589	2589	2589	2589	2570	2589	2589	2589	2589	2589	2589	2570	2570	2570	2570	2570	2570	2589	2609	2669	2669	2669	2669	2669	3510	3510	3475	3475	3475	3475	3475	3475	3475	3475	3475	3475	3475	3510	3510	3546	3546	3583	3583	3621	3621	3621	3621	3621	3621	3621	3621	3659	3659	3659	3659	3698	3698	3698	3659	3659	3621	3621	3621	3659	3659	3698	3698	3698	3698	3698	3698	3698	3698	3698	3738	3738	3738	3738	3738	3738	3738	3698	3698	3738	3738	3738	3738	3738	3738	3738	3738	3738	3738	3738	3738	3738	3738	3738	3738	3738	3698	3698	3698	3698	3738	3738	3738	3738	3698	3698	3698	3698	3698	3698	3698	3698	3698	3698	3698	3698	3698	3698	3698	3698	3698	3698	3659	3659	3659	3659	3659	3698	3698	3698	3738	3738	3698	3659	3659	3659	3659	3659	3659	2993	2993	2993	2993	2967	2967	2967	2967	2942	2942	2917	2917	2893	2893	2893	2869	2869	2869	2869	2869	2845	2845	2845	2822	2822	2799	2799	2799	2822	2799	2799	2799	2799	2799	2799	2799	2799	2799	2799	2799	2799	2799	2777	2799	2799	2799	2799	2799	2799	2799	2822	2799	2799	2799	2777	2799	2822	2799	2845	2845	2869	2869	2869	2869	2869	2869	2893	2893	2893	2893	2893	2893	2893	2893	2869	2869	2869	2845	2845	2822	2822	3621	3621	3621	3621	3621	3621	3621	3621	3621	3621	3621	3621	3621	3621	3621	3621	3621	3621	3583	3621	3583	3621	3583	3583	3583	3621	3583	3621	3621	3621	3583	3583	3583	3583	3583	3583	3583	3583	3546	3583	3583	3583	3583	3583	3546	3583	3583	3583	3546	3546	3546	3546	3546	3546	3546	3546	3546	3546	3546	3510	3510	3510	3510	3510	3510	3546	3546	3546	3546	3546	3546	3546	3583	3583	3583	3583	3546	3583	3583	3583	3546	3546	3546	3583	3583	3583	3546	3583	3546	3546	3546	3546	3546	3546	3510	3510	3510	3546	3510	3510	3510	3510	3510	3510	3510	3546	3546	3546	3546	3546	3546	3546	3546	3546	3546	3546	3546	3546	3546	3546	3546	3546	3546	3546	3546	3546	3546	3546	3510	3510	3510	3510	3510	3510	3546	3546	3510	3510	3510	3510	3510	3510	3510	3510	3510	3546	3546	3546	3546	3546	3546	3546	3546	3546	3510	3510	3510	3510	3510	3440	3440	3440	3440	3440	3546	0	0	1947	1947	1947	1915	1915	1904	1894	1894	1873	1873	1863	1853	1843	1833	1824	1824	1824	1814	1804	1795	1786	1777	1777	1768	1768	1759	1759	0	0	0	0	0	0	0	0	0	0	0	0	0	0	0	0	0	0	0	0	0	0	0	0	0	0	0	0	0	0	0	0	0	0	0	0	0	0
0	0	0	0	0	0	0	0	0	1214	1219	1223	1227	1232	1232	1236	1236	1240	1245	1249	1249	1254	1254	1263	1268	1268	1272	1272	1272	1272	1277	1282	1291	1296	1306	1311	1311	1321	1321	1321	1326	1342	1358	1363	1368	1368	1368	1368	1368	1368	1368	1374	1374	1374	1379	1385	1390	1396	1396	1396	1396	1413	1413	1419	1419	1425	1431	1431	1443	1443	1443	1467	1473	1539	1539	1539	1546	1546	1546	1546	1546	1546	1539	1539	1546	1546	1546	1553	1553	1567	1574	1574	1574	1574	1567	1560	1560	0	0	2409	2409	2409	2409	2409	2426	2443	2460	2478	2496	2496	2496	2496	2514	2532	2551	2551	2551	2551	2570	2570	2589	2589	2609	2649	2649	2649	2649	2629	2629	2629	2629	2629	2629	2629	2629	2629	2629	2629	2629	2629	2629	2629	2629	2629	2629	2629	2629	2629	2629	2629	2629	2629	2629	2609	2609	2629	2609	2629	2609	2609	2629	2609	2609	2609	2609	2629	2629	2629	2629	2629	2629	2629	2629	2589	2589	2589	2589	2609	2589	2609	2609	2589	2589	2589	2589	2589	2589	2589	2589	2589	2589	2609	2589	2589	2589	2589	2589	2589	2589	2589	2589	2589	2609	2609	2649	2649	2649	2799	3510	3510	3475	3475	3475	3510	3475	3475	3510	3475	3510	3475	3475	3510	3510	3546	3546	3583	3583	3621	3659	3621	3621	3621	3583	3583	3583	3621	3621	3659	3621	3621	3621	3621	3621	3621	3621	3621	3659	3659	3659	3698	3698	3698	3698	3698	3698	3698	3698	3698	3698	3738	3738	3738	3738	3738	3738	3738	3698	3738	3738	3738	3738	3738	3738	3738	3738	3738	3698	3698	3698	3698	3738	3738	3738	3738	3698	3698	3698	3738	3738	3738	3738	3738	3738	3698	3698	3698	3698	3698	3698	3698	3698	3698	3698	3698	3698	3698	3698	3698	3698	3698	3659	3659	3659	3659	3659	3698	3698	3738	3738	3738	3738	3698	3659	3659	3659	3659	3659	3659	2993	2993	2993	2967	2967	2967	2967	2942	2942	2917	2917	2893	2893	2869	2869	2869	2869	2869	2869	2845	2845	2845	2822	2822	2822	2822	2822	2822	2799	2799	2799	2799	2799	2799	2799	2799	2799	2799	2777	2777	2777	2777	2799	2799	2799	2799	2799	2799	2799	2799	2799	2799	2799	2799	2799	2822	2799	2845	2845	2845	2869	2869	2869	2869	2869	2893	2893	2893	2893	2893	2893	2869	2869	2869	2869	2845	2822	2822	2822	2822	3621	3621	3621	3621	3621	3621	3621	3621	3621	3621	3621	3621	3621	3621	3621	3621	3621	3621	3621	3621	3621	3621	3621	3621	3583	3621	3583	3621	3621	3583	3583	3583	3583	3583	3583	3583	3583	3583	3583	3583	3583	3583	3583	3583	3546	3510	3510	3510	3510	3510	3510	3510	3510	3510	3510	3510	3510	3510	3510	3510	3510	3510	3510	3510	3510	3546	3546	3546	3546	3546	3546	3546	3583	3583	3546	3546	3546	3546	3546	3546	3546	3546	3546	3546	3583	3583	3583	3583	3583	3546	3546	3546	3546	3546	3510	3510	3510	3510	3510	3510	3510	3510	3546	3546	3510	3546	3546	3546	3546	3546	3546	3546	3546	3546	3546	3546	3546	3546	3546	3546	3546	3546	3546	3546	3546	3546	3546	3546	3546	3546	3510	3510	3510	3546	3546	3510	3510	3510	3510	3510	3510	3510	3510	3510	3510	3546	3546	3546	3546	3546	3546	3546	3546	3546	3546	3546	3510	3510	3510	3440	3406	3406	3406	3406	0	1958	1958	1947	1947	1936	1915	1915	1904	1904	1894	1873	1873	1863	1863	1843	1843	1833	1824	1824	1814	1804	1795	1786	1786	1777	1768	1768	1759	1759	0	0	0	0	0	0	0	0	0	0	0	0	0	0	0	0	0	0	0	0	0	0	0	0	0	0	0	0	0	0	0	0	0	0	0	0	0	0
0	0	0	0	0	0	0	0	0	1214	1219	1223	1227	1232	1232	1236	1236	1240	1245	1245	1249	1254	1254	1263	1263	1268	1272	1272	1272	1272	1277	1277	1287	1291	1301	1311	1311	1316	1316	1316	1321	1342	1363	1363	1368	1374	1374	1374	1368	1374	1374	1374	1374	1385	1390	1385	1390	1396	1396	1396	1396	1396	1402	1419	1419	1431	1431	1437	1443	1443	1449	1467	1473	1473	1473	1539	1539	1546	1546	1546	1546	1546	1546	1546	1546	1546	1546	1546	1553	1560	1567	1574	1574	1574	1581	1581	1560	0	2392	2409	2409	2409	2409	2409	2426	2426	2460	2478	2496	2496	2496	2532	2514	2532	2551	2551	2551	2551	2570	2570	2589	2589	2609	2629	2649	2649	2629	2629	2649	2629	2629	2629	2629	2629	2629	2629	2629	2629	2629	2629	2649	2649	2629	2629	2629	2629	2629	2629	2629	2629	2629	2629	2629	2609	2609	2629	2609	2629	2609	2629	2629	2629	2609	2609	2609	2609	2609	2609	2609	2629	2609	2629	2609	2609	2589	2589	2609	2589	2589	2589	2609	2589	2589	2589	2589	2589	2589	2589	2589	2589	2589	2589	2589	2589	2589	2589	2589	2589	2589	2589	2589	2589	2609	2609	2649	2649	2649	2799	2777	2777	2777	3475	3475	3475	3510	3475	3510	3510	3510	3475	3510	3510	3510	3546	3546	3546	3583	3583	3583	3583	3583	3583	3583	3583	3583	3583	3621	3621	3621	3621	3621	3621	3621	3621	3621	3621	3659	3659	3659	3698	3698	3698	3698	3698	3698	3698	3698	3698	3698	3698	3738	3738	3738	3738	3738	3738	3738	3738	3738	3738	3738	3738	3738	3738	3738	3738	3698	3698	3698	3698	3738	3738	3738	3738	3698	3698	3698	3738	3738	3698	3738	3738	3698	3698	3698	3698	3698	3698	3698	3698	3698	3698	3698	3698	3698	3698	3698	3698	3698	3698	3659	3659	3659	3659	3659	3698	3698	3698	3698	3738	3698	3698	3659	3659	3659	3659	3659	3698	2993	2993	2993	2967	2967	2967	2967	2942	2942	2917	2893	2893	2869	2869	2869	2869	2869	2869	2869	2845	2845	2845	2822	2822	2822	2799	2822	2822	2799	2799	2799	2799	2799	2799	2799	2799	2799	2799	2777	2777	2777	2777	2777	2777	2799	2799	2799	2799	2799	2799	2799	2799	2799	2799	2799	2799	2799	2822	2845	2845	2845	2869	2869	2869	2869	2893	2893	2893	2893	2893	2893	2869	2869	2869	2869	2869	2845	2845	2822	2822	3621	3621	3621	3621	3621	3621	3621	3621	3621	3621	3621	3621	3621	3621	3621	3621	3621	3621	3621	3621	3621	3621	3621	3621	3583	3621	3583	3583	3583	3583	3583	3583	3583	3583	3583	3583	3621	3583	3583	3583	3621	3621	3621	3583	3583	3546	3510	3510	3510	3510	3510	3510	3510	3510	3510	3510	3510	3510	3546	3546	3510	3510	3510	3510	3510	3546	3546	3546	3546	3583	3583	3546	3583	3583	3546	3546	3546	3546	3546	3546	3546	3546	3546	3546	3583	3546	3583	3583	3546	3546	3546	3546	3510	3510	3510	3510	3510	3510	3510	3510	3510	3510	3546	3510	3510	3510	3546	3546	3546	3546	3510	3510	3510	3546	3510	3546	3546	3546	3546	3546	3546	3546	3546	3546	3546	3546	3546	3546	3546	3510	3510	3510	3546	3546	3510	3510	3510	3510	3510	3510	3510	3510	3510	3510	3510	3546	3546	3546	3546	3546	3546	3546	3546	3546	3546	3546	3510	3510	3510	3440	3406	3406	3406	1980	1969	1969	1958	1947	1936	1936	1915	1915	1904	1904	1894	1883	1873	1873	1863	1853	1843	1833	1833	1824	1824	1814	1804	1795	1786	1777	1768	1759	1759	1759	0	0	0	0	0	0	0	0	0	0	0	0	0	0	0	0	0	0	0	0	0	0	0	0	0	0	0	0	0	0	0	0	0	0	0	0	0	0
0	0	0	0	0	0	0	0	0	1210	1219	1223	1227	1227	1232	1232	1236	1240	1245	1245	1249	1254	1254	1263	1263	1268	1268	1272	1272	1272	1277	1277	1282	1287	1296	1296	1306	1306	1311	1311	1316	1347	1358	1363	1374	1374	1374	1374	1374	1374	1379	1379	1385	1390	1390	1396	1396	1396	1396	1396	1396	1396	1402	1419	1425	1431	1437	1437	1443	1443	1449	1461	1467	1473	1480	1480	1480	1539	1539	1546	1546	1546	1546	1546	1546	1546	1546	1553	1553	1560	1567	1574	1574	1574	1581	1581	0	0	2392	2392	2409	2392	2409	2409	2426	2426	2478	2478	2496	2496	2514	2532	2532	2532	2551	2551	2551	2570	2570	2570	2589	2589	2609	2629	2649	2649	2629	2649	2649	2649	2629	2629	2629	2629	2629	2629	2629	2629	2649	2649	2629	2629	2629	2629	2629	2629	2629	2629	2629	2629	2629	2629	2609	2609	2609	2629	2609	2629	2609	2609	2629	2629	2609	2609	2609	2609	2609	2609	2629	2629	2629	2629	2629	2609	2589	2589	2609	2589	2589	2589	2589	2589	2589	2589	2589	2589	2589	2589	2589	2589	2589	2589	2589	2570	2589	2589	2589	2589	2570	2589	2589	2589	2589	2629	2629	2733	2754	2777	2777	2777	2777	3510	3510	3510	3510	3510	3510	3510	3510	3510	3475	3475	3510	3546	3546	3546	3583	3583	3583	3583	3583	3583	3583	3583	3583	3621	3621	3621	3621	3621	3621	3621	3621	3659	3621	3621	3659	3659	3659	3698	3698	3698	3698	3698	3698	3698	3698	3698	3698	3698	3738	3738	3738	3738	3738	3738	3738	3738	3738	3738	3738	3738	3738	3738	3698	3698	3698	3698	3698	3698	3698	3738	3738	3738	3698	3698	3698	3698	3698	3698	3698	3698	3698	3698	3698	3698	3698	3698	3698	3698	3698	3698	3698	3698	3698	3698	3698	3698	3698	3698	3659	3659	3659	3659	3659	3698	3698	3698	3698	3738	3738	3698	3659	3698	3659	3659	3698	3698	2993	2993	2993	2993	2967	2967	2967	2967	2942	2917	2893	2893	2869	2869	2869	2869	2869	2869	2869	2845	2845	2845	2845	2822	2822	2799	2799	2799	2799	2799	2799	2799	2799	2799	2799	2799	2799	2799	2777	2777	2777	2777	2777	2777	2777	2777	2777	2799	2777	2799	2777	2799	2799	2799	2799	2799	2799	2822	2822	2845	2845	2869	2845	2845	2869	2869	2893	2893	2893	2893	2893	2893	2893	2869	2869	2869	2869	2845	2869	3621	3621	3659	3621	3621	3621	3621	3621	3621	3621	3621	3621	3621	3621	3621	3621	3621	3621	3621	3621	3621	3621	3621	3621	3621	3583	3621	3583	3583	3583	3583	3583	3583	3583	3583	3583	3583	3583	3583	3583	3583	3583	3583	3621	3583	3546	3546	3510	3510	3510	3510	3510	3546	3546	3546	3510	3510	3510	3546	3546	3546	3510	3510	3510	3510	3510	3546	3546	3546	3546	3546	3546	3583	3546	3546	3546	3546	3510	3546	3546	3546	3546	3546	3546	3546	3546	3546	3546	3546	3546	3546	3546	3510	3510	3510	3510	3510	3510	3510	3510	3510	3510	3510	3510	3510	3510	3510	3546	3546	3546	3546	3510	3510	3510	3510	3510	3546	3546	3546	3546	3546	3546	3546	3546	3546	3546	3546	3510	3546	3546	3510	3510	3510	3510	3546	3510	3510	3510	3510	3510	3510	3510	3475	3510	3475	3475	3510	3546	3546	3546	3546	3546	3546	3546	3546	3546	3546	3510	3510	3510	3440	3406	3406	1980	1980	1969	1958	1958	1947	1936	1936	1915	1915	1904	1904	1894	1883	1883	1883	1863	1863	1853	1833	1833	1833	1824	1824	1814	1795	1786	1777	1768	1768	1750	1750	0	0	0	0	0	0	0	0	0	0	0	0	0	0	0	0	0	0	0	0	0	0	0	0	0	0	0	0	0	0	0	0	0	0	0	0	0	0
0	0	0	0	0	0	0	0	0	1210	1214	1219	1223	1223	1227	1227	1232	1236	1240	1240	1245	1249	1254	1259	1263	1268	1268	1272	1272	1272	1272	1277	1282	1287	1291	1296	1296	1306	1306	1311	1311	1342	1352	1358	1368	1374	1374	1374	1379	1379	1385	1385	1390	1396	1396	1396	1396	1402	1402	1402	1402	1396	1413	1419	1425	1431	1437	1437	1443	1443	1449	1461	1467	1473	1473	1480	1480	1480	1546	1546	1546	1546	1546	1546	1546	1546	1553	1553	1553	1560	1567	1567	1567	1574	1574	1574	0	0	2392	2409	2409	2409	2409	2409	2426	2426	2460	2478	2496	2514	2532	2532	2532	2551	2570	2551	2551	2570	2570	2570	2589	2589	2629	2629	2629	2649	2629	2629	2649	2649	2629	2629	2629	2629	2629	2629	2629	2629	2649	2649	2629	2629	2629	2629	2629	2629	2629	2629	2629	2629	2629	2629	2609	2609	2609	2609	2609	2609	2609	2629	2629	2629	2609	2609	2609	2609	2609	2609	2609	2609	2609	2609	2609	2589	2589	2589	2589	2589	2589	2589	2589	2609	2589	2589	2589	2589	2589	2589	2589	2589	2589	2570	2570	2570	2570	2570	2570	2570	2570	2589	2589	2589	2589	2609	2609	2609	2822	2822	2777	2822	2822	2822	2822	3546	3546	3510	3510	3510	3510	3510	3510	3475	3475	3510	3510	3546	3546	3583	3583	3583	3583	3583	3546	3546	3546	3583	3583	3621	3583	3621	3621	3621	3621	3659	3621	3621	3621	3659	3698	3698	3698	3698	3698	3698	3698	3698	3698	3698	3698	3698	3738	3738	3738	3738	3738	3738	3738	3738	3738	3738	3738	3738	3738	3738	3738	3698	3698	3698	3698	3698	3738	3738	3698	3698	3698	3698	3698	3698	3698	3698	3698	3698	3698	3698	3698	3698	3698	3698	3698	3698	3698	3698	3698	3698	3698	3698	3698	3698	3698	3698	3659	3659	3659	3659	3659	3698	3698	3698	3698	3698	3698	3659	3659	3659	3659	3659	3659	2942	2993	2993	2993	2967	2967	2967	2942	2942	2942	2893	2893	2893	2869	2893	2869	2869	2869	2869	2869	2845	2845	2845	2845	2822	2822	2822	2799	2799	2799	2799	2799	2799	2799	2799	2799	2799	2799	2799	2799	2799	2777	2777	2777	2777	2777	2777	2777	2777	2799	2799	2777	2799	2799	2799	2799	2799	2799	2799	2799	2822	2822	2845	2845	2845	2869	2893	2893	2893	2893	2893	2893	2869	2893	2893	2893	2869	2869	2845	2845	3621	3621	3621	3621	3621	3621	3621	3621	3621	3621	3621	3621	3583	3583	3621	3583	3621	3621	3621	3621	3621	3621	3621	3583	3583	3583	3583	3583	3583	3583	3583	3583	3583	3583	3583	3583	3583	3583	3583	3583	3583	3583	3583	3583	3583	3546	3546	3546	3510	3510	3510	3546	3546	3546	3510	3510	3510	3510	3546	3546	3546	3546	3510	3510	3546	3510	3546	3546	3583	3546	3583	3583	3583	3583	3546	3546	3546	3510	3546	3546	3546	3546	3546	3546	3546	3583	3583	3546	3583	3546	3546	3546	3510	3510	3510	3510	3510	3510	3510	3510	3510	3510	3510	3510	3546	3510	3510	3546	3546	3546	3546	3546	3510	3510	3546	3510	3546	3510	3510	3510	3546	3546	3546	3546	3546	3546	3546	3510	3546	3510	3510	3510	3510	3510	3510	3510	3510	3510	3510	3510	3510	3510	3475	3475	3475	3475	3510	3546	3546	3546	3546	3546	3546	3546	3546	3546	3546	3510	3510	0	0	0	1980	1980	1980	1969	1969	1958	1947	1936	1936	1915	1915	1915	1904	1904	1894	1894	1873	1873	1863	1853	1843	1833	1833	1824	1824	1814	1804	1786	1777	1768	1768	1759	1759	0	0	0	0	0	0	0	0	0	0	0	0	0	0	0	0	0	0	0	0	0	0	0	0	0	0	0	0	0	0	0	0	0	0	0	0	0	0
0	0	0	0	0	0	0	0	0	1206	1214	1219	1223	1223	1223	1227	1232	1236	1240	1240	1245	1254	1254	1259	1263	1268	1268	1272	1272	1272	1277	1277	1282	1287	1291	1291	1301	1301	1306	1306	1311	1311	1347	1352	1368	1374	1374	1374	1374	1379	1385	1390	1390	1396	1396	1396	1402	1402	1402	1396	1396	1396	1413	1425	1425	1431	1437	1437	1437	1443	1449	1461	1467	1473	1480	1480	1480	1480	1492	1546	1539	1546	1546	1546	1546	1546	1553	1553	1553	1560	1567	1567	1567	1574	1581	1581	0	0	2392	2409	2409	2409	2409	2409	2409	2426	2478	2478	2496	2514	2532	2551	2532	2570	2570	2570	2570	2570	2589	2589	2589	2629	2629	2649	2649	2649	2629	2649	2649	2649	2649	2629	2629	2629	2629	2649	2649	2649	2649	2649	2629	2629	2629	2629	2629	2629	2629	2629	2609	2609	2629	2629	2609	2589	2609	2629	2609	2609	2609	2629	2629	2629	2609	2609	2609	2609	2609	2609	2609	2609	2609	2609	2609	2589	2589	2589	2589	2589	2589	2589	2589	2609	2589	2589	2589	2589	2589	2589	2570	2570	2570	2570	2570	2570	2570	2570	2570	2570	2570	2589	2589	2589	2589	2589	2589	2777	2822	2822	2822	2822	2822	2822	2822	2822	3546	3546	3546	3510	3510	3510	3475	3475	3510	3510	3510	3546	3583	3583	3583	3583	3583	3583	3583	3583	3546	3583	3583	3621	3583	3621	3621	3621	3621	3621	3621	3621	3659	3698	3698	3698	3698	3738	3738	3698	3738	3738	3698	3698	3698	3698	3738	3738	3738	3738	3738	3738	3738	3738	3738	3738	3738	3738	3738	3738	3738	3698	3698	3698	3698	3698	3698	3698	3698	3698	3698	3698	3698	3698	3698	3698	3698	3698	3698	3698	3698	3698	3698	3698	3698	3698	3698	3698	3698	3698	3698	3698	3698	3698	3698	3698	3659	3698	3659	3659	3659	3698	3698	3698	3698	3738	3698	3659	3659	3659	3659	3659	3621	2942	2942	2942	2967	2967	2967	2967	2942	2942	2942	2917	2893	2893	2869	2893	2869	2869	2869	2869	2869	2869	2845	2845	2845	2822	2822	2799	2799	2799	2799	2799	2799	2799	2799	2799	2799	2799	2799	2799	2799	2799	2799	2777	2777	2777	2799	2799	2799	2799	2799	2799	2777	2777	2777	2777	2777	2777	2799	2799	2822	2822	2822	2845	2845	2845	2869	2893	2893	2893	2893	2893	2869	2869	2869	2869	2869	2869	2845	2845	2845	3621	3621	3621	3621	3621	3621	3621	3621	3621	3621	3621	3621	3621	3621	3621	3583	3621	3621	3621	3621	3621	3583	3621	3583	3583	3583	3583	3583	3583	3583	3583	3583	3583	3583	3583	3583	3583	3583	3583	3583	3583	3583	3583	3583	3583	3583	3583	3546	3546	3510	3510	3546	3546	3546	3546	3546	3583	3583	3546	3546	3546	3546	3546	3510	3510	3510	3546	3583	3583	3583	3583	3546	3546	3546	3546	3510	3510	3510	3510	3546	3546	3546	3546	3546	3546	3583	3546	3546	3546	3546	3546	3546	3510	3510	3510	3510	3510	3510	3510	3510	3510	3510	3510	3510	3510	3510	3510	3510	3546	3546	3546	3510	3510	3510	3546	3510	3546	3546	3546	3546	3546	3546	3546	3546	3546	3510	3510	3510	3510	3510	3510	3510	3510	3546	3546	3510	3510	3510	3510	3510	3475	3475	3475	3475	3475	3475	3510	3546	3546	3546	3546	3546	3546	3546	3546	3546	3546	3510	3510	0	0	1980	1980	1980	1980	1969	1958	1958	1947	1936	1925	1915	1915	1915	1904	1904	1894	1894	1894	1873	1863	1853	1843	1833	1833	1824	1824	1814	1786	1795	1777	1777	1768	1750	1750	0	0	0	0	0	0	0	0	0	0	0	0	0	0	0	0	0	0	0	0	0	0	0	0	0	0	0	0	0	0	0	0	0	0	0	0	0	0
0	0	0	0	0	0	0	0	0	1206	1214	1214	1219	1223	1223	1223	1232	1236	1240	1245	1245	1249	1254	1259	1263	1268	1268	1268	1272	1272	1272	1277	1282	1287	1291	1296	1301	1306	1306	1306	1306	1326	1336	1336	1347	1368	1368	1368	1363	1374	1379	1385	1390	1396	1402	1396	1402	1402	1402	1402	1396	1396	1425	1437	1437	1437	1437	1437	1443	1443	1449	1461	1467	1473	1480	1480	1480	1486	1486	1499	1499	1539	1539	1539	1546	1553	1546	1553	1553	1560	1560	1567	1567	1574	1574	1581	0	2376	2376	2392	2409	2409	2409	2409	2426	2443	2478	2478	2496	2514	2532	2551	2551	2551	2570	2570	2570	2570	2589	2589	2609	2629	2629	2649	2649	2649	2629	2649	2649	2649	2649	2649	2649	2649	2629	2649	2629	2649	2629	2629	2629	2629	2609	2609	2629	2629	2629	2629	2609	2609	2629	2629	2609	2609	2609	2629	2629	2629	2629	2629	2609	2629	2609	2609	2609	2609	2609	2589	2589	2589	2589	2589	2589	2589	2589	2589	2589	2589	2589	2589	2589	2589	2589	2589	2589	2589	2589	2589	2570	2570	2570	2570	2570	2570	2570	2570	2570	2570	2570	2589	2589	2589	2589	2589	2589	2822	2822	2845	2822	2822	2822	2845	2845	2845	2869	2869	3546	3510	3475	3475	3475	3475	3475	3510	3510	3546	3546	3583	3583	3583	3583	3583	3583	3583	3583	3621	3621	3621	3583	3621	3621	3621	3621	3621	3621	3621	3659	3698	3698	3698	3698	3738	3738	3738	3738	3738	3698	3698	3698	3698	3738	3738	3738	3698	3738	3738	3738	3738	3738	3738	3738	3738	3698	3698	3698	3698	3698	3698	3698	3698	3698	3698	3698	3698	3698	3698	3698	3698	3698	3698	3698	3698	3698	3698	3698	3698	3698	3698	3698	3698	3698	3698	3698	3698	3698	3698	3698	3698	3698	3698	3659	3698	3659	3659	3659	3698	3698	3698	3698	3698	3698	3698	3698	3659	3659	3659	3621	3621	2942	2942	2942	2967	2942	2967	2942	2942	2917	2893	2893	2893	2869	2869	2869	2869	2869	2869	2869	2869	2845	2845	2845	2845	2845	2822	2822	2799	2799	2799	2799	2799	2799	2799	2799	2799	2799	2799	2799	2799	2799	2799	2799	2799	2799	2799	2799	2799	2777	2777	2777	2777	2777	2777	2777	2777	2799	2799	2822	2822	2822	2845	2845	2845	2845	2869	2869	2869	2893	2893	2869	2869	2869	2869	2869	2869	2845	2845	2845	3621	3621	3621	3621	3621	3621	3621	3621	3621	3621	3621	3621	3621	3583	3621	3583	3621	3621	3583	3583	3583	3583	3583	3583	3583	3583	3583	3583	3583	3583	3583	3583	3583	3583	3583	3583	3621	3583	3583	3583	3583	3583	3583	3583	3583	3546	3546	3546	3546	3510	3510	3510	3546	3546	3546	3546	3546	3546	3583	3546	3546	3546	3546	3510	3510	3510	3510	3583	3583	3583	3546	3546	3546	3546	3510	3510	3510	3510	3546	3546	3546	3546	3546	3546	3546	3546	3546	3546	3546	3546	3546	3546	3510	3510	3510	3510	3510	3510	3510	3510	3510	3510	3510	3510	3510	3510	3510	3510	3510	3546	3546	3510	3510	3510	3546	3546	3510	3546	3546	3546	3546	3546	3546	3546	3546	3510	3510	3510	3510	3510	3510	3510	3510	3510	3546	3546	3510	3510	3510	3510	3475	3475	3475	3475	3475	3475	3510	3546	3546	3546	3546	3546	3546	3546	3546	3546	3546	0	0	0	2003	1992	1992	1992	1980	1980	1969	1958	1947	1936	1936	1915	1915	1915	1915	1904	1904	1894	1894	1873	1863	1853	1843	1833	1833	1824	1824	1814	1795	1786	1786	1777	1768	1750	1750	0	0	0	0	0	0	0	0	0	0	0	0	0	0	0	0	0	0	0	0	0	0	0	0	0	0	0	0	0	0	0	0	0	0	0	0	0	0
0	0	0	0	0	0	0	0	0	1206	1210	1214	1223	1223	1223	1227	1232	1240	1245	1245	1249	1254	1254	1259	1259	1263	1268	1268	1272	1272	1277	1277	1282	1287	1291	1291	1301	1306	1311	1311	1316	1321	1331	1336	1336	1352	1358	1358	1358	1368	1374	1385	1385	1396	1396	1402	1407	1407	1413	1413	1413	1425	1431	1437	1437	1437	1443	1443	1443	1449	1449	1461	1467	1473	1473	1480	1480	1480	1486	1486	1499	1539	1539	1539	1546	1546	1553	1553	1553	1560	1560	1567	1567	1574	1574	0	0	2359	2376	2392	2392	2409	2409	2409	2426	2426	2460	2478	2496	2514	2532	2532	2551	2551	2570	2570	2570	2589	2589	2609	2609	2629	2629	2649	2629	2649	2649	2649	2649	2649	2649	2649	2629	2629	2629	2629	2629	2629	2629	2629	2629	2629	2629	2629	2629	2629	2609	2609	2609	2609	2609	2609	2589	2609	2629	2649	2629	2649	2629	2629	2629	2629	2609	2609	2609	2609	2609	2589	2589	2589	2589	2589	2589	2589	2589	2589	2609	2589	2589	2589	2589	2589	2589	2589	2589	2589	2589	2570	2570	2570	2570	2570	2570	2570	2570	2570	2570	2570	2570	2589	2589	2570	2570	2570	2570	2822	2822	2822	2845	2845	2845	2869	2869	2869	2893	2917	2917	2917	3475	3475	3440	3440	3475	3510	3510	3546	3583	3583	3583	3583	3583	3583	3621	3583	3583	3621	3621	3621	3621	3621	3621	3621	3621	3621	3621	3621	3659	3659	3698	3698	3698	3738	3738	3738	3738	3738	3738	3698	3698	3698	3738	3738	3738	3738	3738	3738	3698	3698	3738	3738	3738	3698	3698	3698	3698	3698	3698	3698	3698	3698	3698	3698	3698	3698	3698	3698	3698	3698	3698	3698	3738	3698	3698	3698	3698	3698	3698	3698	3698	3698	3698	3698	3698	3698	3698	3698	3698	3698	3659	3698	3659	3659	3659	3659	3659	3698	3698	3698	3698	3698	3698	3698	3698	3659	3659	3621	3621	2942	2942	2942	2942	2942	2967	2967	2942	2942	2917	2917	2893	2893	2869	2869	2869	2869	2869	2869	2869	2869	2845	2845	2845	2845	2822	2822	2799	2799	2799	2799	2799	2799	2799	2799	2799	2799	2799	2799	2799	2799	2799	2777	2777	2799	2799	2777	2777	2799	2799	2799	2777	2777	2777	2777	2777	2777	2799	2799	2799	2822	2822	2822	2822	2845	2845	2869	2869	2869	2869	2869	2869	2869	2869	2869	2869	2869	2869	2869	3621	3621	3621	3621	3621	3621	3621	3659	3621	3621	3621	3621	3621	3583	3583	3621	3583	3583	3583	3583	3583	3583	3583	3583	3583	3583	3583	3583	3583	3583	3583	3583	3583	3583	3583	3583	3583	3621	3621	3583	3583	3583	3583	3583	3583	3583	3546	3546	3546	3546	3510	3510	3510	3546	3546	3510	3546	3546	3546	3546	3546	3510	3510	3510	3510	3510	3510	3546	3583	3583	3583	3583	3546	3546	3546	3510	3510	3510	3510	3546	3546	3546	3546	3546	3546	3546	3546	3546	3546	3546	3546	3546	3546	3546	3546	3546	3510	3546	3510	3546	3546	3510	3510	3510	3510	3510	3510	3510	3510	3510	3510	3546	3510	3546	3546	3546	3546	3546	3546	3546	3546	3546	3546	3546	3546	3546	3546	3546	3510	3510	3546	3510	3510	3510	3510	3546	3546	3510	3510	3510	3510	3510	3475	3475	3475	3475	3475	3510	3510	3546	3546	3546	3546	3546	3510	3510	3510	0	0	0	0	2003	2003	1992	1992	1992	1980	1969	1958	1947	1947	1936	1936	1915	1915	1915	1915	1904	1894	1894	1873	1863	1853	1853	1833	1833	1824	1824	1814	1795	1795	1786	1777	1777	1768	1768	0	0	0	0	0	0	0	0	0	0	0	0	0	0	0	0	0	0	0	0	0	0	0	0	0	0	0	0	0	0	0	0	0	0	0	0	0	0
0	0	0	0	0	0	0	0	0	1206	1214	1219	1223	1223	1223	1227	1232	1240	1245	1249	1249	1254	1254	1254	1259	1263	1268	1268	1272	1272	1277	1277	1282	1287	1291	1291	1301	1306	1311	1311	1311	1311	1326	1331	1336	1342	1347	1352	1352	1358	1368	1379	1385	1396	1402	1402	1402	1402	1407	1407	1419	1425	1425	1437	1437	1437	1443	1443	1443	1449	1449	1461	1467	1473	1473	1480	1486	1486	1486	1492	1499	1512	1525	1539	1539	1546	1553	1553	1553	1553	1560	1567	1567	1574	1574	0	0	2376	2376	2392	2409	2409	2426	2426	2443	2443	2460	2478	2478	2496	2514	2532	2551	2551	2570	2570	2570	2570	2589	2609	2609	2629	2629	2629	2629	2649	2629	2649	2649	2649	2649	2649	2629	2629	2629	2629	2629	2629	2629	2629	2629	2629	2629	2609	2629	2629	2609	2609	2609	2609	2609	2609	2589	2609	2629	2629	2629	2629	2629	2629	2609	2609	2609	2609	2609	2609	2589	2589	2589	2589	2589	2589	2589	2589	2589	2589	2589	2589	2589	2589	2589	2589	2589	2589	2589	2589	2589	2570	2570	2570	2570	2570	2570	2570	2570	2570	2570	2570	2570	2570	2570	2570	2570	2570	2570	2845	2845	2869	2845	2845	2869	2869	2893	2893	2893	2893	2893	2893	2893	3475	3475	3475	3510	3510	3546	3546	3583	3583	3546	3583	3546	3583	3583	3583	3583	3621	3621	3621	3621	3621	3621	3621	3659	3659	3621	3621	3659	3659	3698	3698	3698	3698	3738	3738	3738	3738	3698	3698	3698	3698	3738	3738	3738	3698	3698	3698	3698	3698	3698	3698	3698	3698	3698	3698	3698	3698	3698	3698	3698	3698	3698	3698	3698	3698	3698	3698	3738	3698	3738	3738	3738	3738	3738	3698	3698	3698	3698	3698	3698	3698	3698	3698	3698	3698	3659	3659	3698	3659	3659	3659	3659	3659	3659	3659	3659	3659	3659	3659	3659	3659	3659	3659	3659	3659	3621	3621	3621	2967	2967	2967	2967	2967	2942	2942	2917	2917	2917	2917	2893	2893	2893	2869	2869	2869	2869	2869	2845	2869	2845	2845	2845	2845	2822	2822	2799	2799	2799	2799	2799	2799	2799	2799	2799	2799	2799	2799	2799	2799	2777	2777	2777	2777	2799	2777	2799	2799	2799	2799	2799	2777	2777	2777	2777	2777	2799	2799	2799	2822	2822	2822	2822	2845	2845	2869	2845	2869	2869	2869	2869	2845	2869	2869	2869	2845	2845	2845	3621	3621	3621	3621	3621	3621	3621	3621	3621	3621	3621	3621	3621	3621	3583	3621	3583	3583	3583	3583	3583	3583	3583	3546	3583	3583	3583	3583	3583	3583	3583	3583	3583	3583	3583	3583	3583	3583	3583	3583	3583	3621	3583	3583	3583	3546	3546	3546	3546	3546	3546	3510	3546	3546	3546	3510	3546	3546	3546	3546	3546	3546	3510	3546	3510	3510	3510	3546	3583	3583	3583	3546	3546	3546	3546	3510	3510	3510	3510	3546	3546	3546	3546	3546	3546	3546	3546	3546	3546	3546	3546	3546	3546	3546	3546	3546	3546	3546	3546	3546	3546	3510	3510	3510	3546	3546	3510	3510	3546	3546	3546	3546	3546	3546	3546	3546	3510	3510	3546	3546	3546	3546	3546	3546	3546	3546	3546	3546	3510	3510	3546	3546	3510	3510	3510	3546	3510	3510	3510	3510	3510	3510	3475	3475	3475	3475	3475	3510	3510	3510	3546	3546	3510	3510	3510	3510	3510	0	0	0	0	2027	2003	2003	2003	1992	1980	1980	1969	1947	1947	1947	1947	1915	1915	1915	1904	1904	1894	1894	1873	1863	1863	1853	1853	1833	1833	1824	1814	1804	1795	1795	1786	1777	1768	1768	0	0	0	0	0	0	0	0	0	0	0	0	0	0	0	0	0	0	0	0	0	0	0	0	0	0	0	0	0	0	0	0	0	0	0	0	0	0
0	0	0	0	0	0	0	0	0	1206	1214	1219	1223	1227	1227	1227	1232	1236	1236	1249	1249	1254	1254	1259	1259	1263	1268	1268	1268	1272	1277	1277	1282	1287	1287	1291	1301	1306	1306	1311	1311	1316	1326	1331	1336	1342	1347	1347	1347	1352	1358	1368	1379	1396	1396	1396	1396	1402	1402	1407	1419	1425	1437	1437	1437	1443	1443	1443	1449	1449	1461	1461	1467	1473	1480	1486	1486	1486	1492	1492	1492	1506	1519	1532	1539	1546	1553	1553	1553	1553	1560	1567	1567	1574	1574	0	0	2359	2376	2392	2409	2409	2426	2426	2460	2460	2460	2478	2478	2478	2514	2532	2532	2551	2570	2570	2570	2589	2609	2629	2629	2629	2629	2629	2629	2629	2629	2629	2649	2649	2649	2649	2629	2629	2629	2629	2629	2629	2629	2609	2609	2609	2609	2609	2609	2609	2609	2609	2589	2609	2609	2609	2589	2609	2609	2629	2609	2629	2629	2629	2609	2609	2609	2609	2609	2609	2609	2609	2589	2589	2589	2589	2589	2589	2589	2589	2589	2589	2589	2589	2589	2589	2589	2589	2589	2589	2589	2570	2570	2570	2570	2570	2570	2570	2570	2570	2570	2570	2570	2570	2570	2570	2551	2551	2551	2869	2893	2893	2869	2869	2893	2893	2893	2893	2917	2893	2893	2917	2917	2917	3510	3510	3510	3546	3546	3546	3583	3583	3583	3583	3583	3621	3583	3621	3621	3621	3659	3621	3621	3659	3659	3621	3659	3659	3659	3659	3659	3659	3698	3698	3698	3698	3698	3698	3698	3698	3698	3698	3698	3698	3698	3738	3738	3738	3738	3738	3698	3698	3698	3698	3698	3698	3698	3698	3698	3698	3698	3698	3698	3698	3698	3698	3698	3698	3698	3738	3738	3738	3738	3738	3738	3698	3698	3698	3698	3698	3698	3698	3698	3698	3698	3698	3698	3698	3698	3659	3659	3659	3659	3659	3659	3659	3659	3659	3621	3621	3659	3698	3659	3659	3659	3659	3659	3659	3621	3621	3621	2967	2967	2942	2942	2942	2942	2942	2942	2917	2917	2893	2893	2893	2869	2869	2869	2869	2869	2869	2845	2845	2845	2822	2822	2822	2822	2822	2799	2799	2799	2799	2799	2799	2799	2799	2799	2799	2799	2799	2799	2799	2799	2777	2799	2799	2799	2777	2777	2777	2777	2777	2777	2777	2777	2777	2777	2777	2777	2799	2799	2799	2822	2822	2822	2822	2822	2845	2845	2845	2845	2869	2845	2845	2845	2845	2845	2845	2845	2822	2822	3621	3621	3621	3621	3659	3659	3621	3621	3621	3621	3621	3621	3621	3621	3621	3583	3583	3583	3583	3583	3583	3583	3583	3583	3583	3583	3583	3583	3583	3583	3583	3583	3583	3583	3583	3583	3583	3583	3583	3583	3583	3583	3583	3583	3546	3546	3546	3546	3546	3546	3546	3546	3546	3546	3546	3546	3546	3546	3546	3546	3546	3510	3546	3546	3510	3546	3583	3583	3583	3546	3546	3546	3546	3546	3510	3510	3546	3546	3546	3546	3546	3546	3546	3546	3546	3546	3546	3546	3546	3546	3546	3546	3546	3546	3546	3546	3546	3546	3546	3546	3546	3546	3546	3546	3546	3546	3510	3546	3546	3546	3546	3546	3546	3546	3546	3510	3546	3546	3546	3546	3546	3546	3546	3546	3546	3546	3546	3546	3546	3546	3510	3510	3510	3510	3510	3510	3510	3510	3510	3510	3510	3475	3475	3475	3475	3475	3475	3510	3510	3510	3510	3510	3510	3510	3510	0	0	0	0	2039	2027	2003	2003	2003	1992	1992	1980	1969	1958	1958	1947	1947	1936	1925	1915	1904	1904	1894	1894	1873	1863	1863	1853	1843	1833	1833	1824	1804	1804	1795	1786	1777	1768	1768	1768	0	0	0	0	0	0	0	0	0	0	0	0	0	0	0	0	0	0	0	0	0	0	0	0	0	0	0	0	0	0	0	0	0	0	0	0	0	0
0	0	0	0	0	0	0	0	0	1210	1219	1219	1227	1227	1227	1232	1232	1236	1236	1249	1254	1254	1259	1259	1259	1263	1268	1268	1268	1272	1277	1277	1282	1287	1291	1296	1301	1306	1311	1311	1311	1321	1326	1331	1331	1342	1347	1347	1347	1352	1352	1363	1374	1385	1396	1396	1396	1396	1402	1407	1419	1425	1431	1437	1437	1443	1443	1461	1461	1461	1467	1467	1473	1480	1480	1486	1492	1492	1492	1499	1499	1506	1512	1525	1532	1539	1546	1553	1546	1553	1560	1567	1567	1574	1574	1574	0	2359	2359	2392	2409	2409	2426	2426	2460	2460	2478	2478	2478	2478	2514	2532	2551	2551	2570	2570	2570	2570	2589	2589	2609	2609	2629	2629	2629	2629	2629	2649	2649	2649	2629	2629	2629	2629	2629	2629	2629	2629	2629	2609	2629	2609	2609	2609	2609	2609	2609	2609	2609	2609	2609	2609	2609	2609	2609	2629	2629	2609	2609	2629	2629	2609	2609	2609	2609	2609	2589	2609	2589	2589	2589	2589	2589	2589	2589	2589	2589	2589	2589	2589	2589	2589	2589	2589	2589	2589	2589	2570	2570	2570	2570	2570	2589	2589	2589	2589	2589	2570	2589	2589	2570	2570	2551	2551	2551	2869	2917	2917	2893	2893	2893	2893	2917	2917	2917	2917	2917	2942	2942	2942	2942	2942	3546	3546	3546	3546	3621	3583	3583	3583	3583	3621	3621	3621	3621	3621	3659	3659	3621	3659	3659	3621	3659	3698	3659	3659	3659	3659	3698	3698	3698	3698	3698	3698	3698	3698	3698	3698	3698	3698	3738	3738	3738	3738	3738	3738	3698	3698	3698	3698	3698	3698	3698	3698	3698	3698	3698	3698	3698	3698	3698	3698	3698	3698	3698	3698	3738	3698	3738	3738	3738	3698	3698	3698	3698	3698	3698	3698	3698	3698	3698	3698	3698	3698	3659	3659	3659	3659	3659	3698	3659	3659	3698	3659	3621	3698	3659	3698	3659	3659	3659	3659	3659	3621	3621	3621	3583	3583	2967	2967	2942	2942	2942	2917	2917	2917	2917	2893	2893	2893	2869	2869	2869	2869	2845	2845	2845	2845	2845	2822	2822	2822	2822	2822	2799	2799	2799	2799	2799	2799	2799	2799	2799	2799	2799	2799	2799	2799	2799	2799	2799	2799	2799	2777	2777	2777	2777	2777	2777	2799	2777	2777	2799	2777	2777	2799	2799	2799	2822	2822	2822	2822	2845	2845	2845	2845	2845	2845	2845	2845	2845	2845	2845	2822	2822	2822	2822	3621	3621	3621	3621	3621	3621	3621	3621	3621	3621	3621	3621	3621	3621	3621	3583	3583	3583	3583	3583	3583	3583	3583	3583	3583	3583	3583	3583	3583	3621	3583	3583	3583	3583	3583	3583	3583	3583	3583	3583	3583	3546	3546	3546	3546	3546	3546	3546	3546	3510	3510	3510	3546	3546	3546	3546	3546	3546	3546	3546	3546	3546	3546	3546	3546	3546	3583	3583	3583	3583	3546	3546	3546	3546	3546	3510	3546	3546	3546	3546	3546	3546	3546	3546	3546	3546	3546	3546	3546	3546	3546	3546	3546	3546	3546	3510	3546	3546	3546	3546	3546	3546	3546	3546	3546	3546	3546	3546	3546	3546	3546	3546	3546	3546	3546	3510	3510	3546	3546	3546	3546	3546	3546	3546	3546	3546	3546	3546	3546	3546	3546	3510	3510	3510	3510	3510	3510	3510	3510	3475	3475	3475	3475	3475	3475	3475	3475	3510	3510	3510	3510	3510	3510	3510	0	0	0	0	2039	2039	2027	2015	2003	2003	2003	1992	1980	1980	1958	1958	1958	1947	1947	1947	1925	1915	1904	1904	1894	1873	1863	1863	1853	1843	1833	1833	1824	1804	1804	1795	1795	1786	1777	1768	1768	0	0	0	0	0	0	0	0	0	0	0	0	0	0	0	0	0	0	0	0	0	0	0	0	0	0	0	0	0	0	0	0	0	0	0	0	0	0
