0	0	0	0	0	0	0	0	0	0	0	0	1567	1567	1560	1560	1553	1553	1553	1546	1553	1560	1560	1560	1560	1560	1567	1560	1560	1560	1560	1560	1560	1553	1560	1553	1560	1560	1560	1560	1567	1567	1567	1567	1560	1560	1560	1560	1560	1560	1560	1567	1567	1567	1567	1567	1567	1567	1567	1567	1567	1560	1560	1560	1560	1567	1560	1560	1560	1560	1553	1553	1553	1553	1553	1560	1560	1567	1567	1567	1567	1567	1567	1560	1560	1560	1560	1567	1567	1567	1567	1574	1574	1574	1581	1574	1574	1574	1574	1574	1574	1574	1574	1574	1574	1574	1581	1574	1574	1574	1574	1574	1574	1567	1567	1567	1567	1567	1567	1574	1567	1567	1567	1574	1574	1574	1574	1574	1574	1574	1574	1581	1581	1596	1603	1611	1618	1626	1634	1641	1649	1657	1673	1681	1690	1698	1723	1732	1741	1750	1759	1768	1777	1786	1795	1804	1814	1824	1824	1853	1883	1894	1894	1915	1925	1925	1936	1936	1947	2039	2051	2063	2063	2063	2063	2063	2063	2063	2076	2088	2101	2127	2140	2153	2181	2194	2208	2223	2237	2252	2266	2281	2297	2312	2327	2343	2376	2376	2392	2426	2426	2443	2460	2460	0	0	0	8146	8146	8146	8146	8146	8146	7959	8146	8146	8146	8146	8146	8146	8146	8146	8146	8146	8146	7959	7959	7959	7959	7959	7959	7959	7959	7959	8146	8146	8146	7959	7959	7959	7959	7959	7959	8146	8343	8343	8343	8343	8343	8146	8343	8343	8343	8343	8343	8343	4838	4771	4771	4771	4771	4771	4771	4706	4706	4706	4706	4706	4706	4706	4706	4706	4706	4706	4706	4706	4706	4706	4771	4706	4706	4706	4706	4706	4706	4706	4706	4706	4706	4706	4771	4771	4706	4706	4706	4706	4706	4706	4706	4643	3309	3309	3309	3277	3277	3277	3277	3277	3277	3277	3246	3246	3216	3186	3216	3216	3216	3216	3186	3186	3186	3186	3186	3157	3157	3157	3157	3186	3186	3186	3186	3186	3186	3186	3186	3186	3186	3186	3186	3186	3186	3186	3186	3186	3186	3186	3186	3186	3186	3186	3157	3157	3186	3186	3186	3186	3186	3186	3186	3186	3186	3216	3216	3246	3246	3277	3277	3277	3277	3309	3309	3309	3309	4706	4643	4643	4643	4643	4643	4643	4643	4643	4643	4643	4643	4643	4643	4643	4643	4706	4771	4771	4706	4706	4706	4706	4706	4706	4706	4643	4706	4706	4706	4706	4643	4643	4706	4706	4706	4706	4643	4643	4643	4643	4643	4643	4643	4643	4643	4643	4643	4581	4643	4643	4581	4643	4581	4581	4581	4643	4643	4643	4643	4581	4643	4581	4581	4581	4581	4643	4581	4581	4581	4521	4521	0	0	0	0	0	0	0	0	0	0	2496	2478	2478	2478	2460	2443	2409	2409	2392	2376	2359	2312	2312	2297	2297	2281	2266	2266	2252	2252	2252	2237	2237	2208	2194	2181	2167	2167	2153	2140	2140	0	0	0	0	0	0	1992	1992	1969	1969	1958	1958	1958	0	0	0	0	0	0	0	0	0	0	0	0	0	0	0	0	0	0	0	0	0	0	0	0	0	0	0	0	0	0	0	0	0	0	0	0	0	0	1181	1181	1189	1181	1181	0	0	0	0	0	0	0	0	0	0	0	0	0	0	0	0	0	0	0	0	0	0	0	0	0	0	0	0	0	0	0	0	0	0	0	0	0	0	0	0	0	0	0	0	0	0	0	0	0	0	0	0	0	0	0	0	0	0	0	0	0	0	0	0	0	0	0	0	0	0	0	0	0	0	0	0	0	0	0	0	0	0	0	0	0	0	0	0	0	0	0	0	0	0	0	0	0	0
0	0	0	0	0	0	0	0	0	0	0	0	1574	1567	1567	1567	1560	1553	1553	1553	1560	1560	1560	1560	1560	1567	1567	1567	1560	1560	1560	1560	1560	1553	1553	1553	1560	1560	1560	1560	1560	1567	1567	1567	1560	1560	1560	1560	1560	1560	1567	1567	1567	1567	1567	1567	1567	1574	1567	1567	1567	1560	1560	1560	1560	1560	1553	1553	1553	1553	1553	1553	1553	1553	1553	1553	1560	1560	1560	1560	1560	1567	1567	1560	1567	1560	1567	1574	1567	1567	1567	1574	1574	1574	1574	1574	1574	1574	1574	1574	1574	1574	1574	1574	1574	1574	1581	1574	1574	1574	1574	1574	1574	1574	1567	1567	1567	1567	1567	1567	1567	1567	1567	1574	1574	1574	1574	1567	1574	1574	1581	1581	1581	1596	1603	1611	1618	1634	1641	1649	1657	1665	1673	1681	1690	1698	1723	1732	1741	1750	1759	1768	1768	1786	1795	1804	1804	1824	1833	1863	1883	1894	1904	1915	1925	1925	1936	1947	1947	2039	2051	2063	2063	2063	2063	2063	2063	2063	2076	2088	2114	2127	2140	2153	2181	2194	2194	2208	2252	2266	2266	2297	2312	2312	2327	2359	2376	2392	2392	2426	2426	2443	2460	2460	0	0	0	8146	8146	8146	8146	8146	7959	8146	8146	8146	8146	8146	7959	7959	7959	7959	7959	7959	7959	7959	7959	7959	7959	7959	7959	7959	7959	8146	8146	8146	8146	7959	7959	7959	7959	7959	7959	8146	8343	8343	8343	8343	8343	8343	8343	8343	8343	8343	8146	8146	4838	4838	4771	4838	4771	4771	4706	4706	4706	4706	4706	4706	4706	4706	4706	4706	4706	4706	4706	4706	4706	4706	4706	4706	4706	4706	4706	4706	4706	4706	4706	4706	4706	4706	4706	4706	4706	4706	4706	4706	4706	4706	4643	4643	4643	3309	3277	3277	3277	3277	3277	3277	3277	3277	3246	3246	3216	3186	3216	3216	3216	3216	3186	3186	3186	3186	3186	3157	3157	3157	3186	3186	3186	3186	3186	3186	3186	3186	3186	3186	3186	3186	3186	3186	3186	3186	3186	3186	3186	3186	3186	3186	3186	3186	3186	3157	3157	3186	3186	3157	3186	3157	3186	3186	3186	3216	3216	3246	3246	3277	3277	3277	3277	3277	3309	3309	3309	4706	4643	4643	4643	4643	4643	4643	4643	4581	4581	4581	4581	4581	4643	4643	4706	4706	4771	4771	4706	4706	4706	4706	4706	4706	4706	4706	4706	4706	4706	4706	4643	4643	4706	4643	4706	4706	4643	4643	4643	4643	4643	4643	4643	4643	4643	4643	4643	4643	4643	4643	4643	4643	4581	4581	4581	4643	4643	4581	4581	4581	4581	4643	4643	4581	4581	4643	4581	4581	4521	4521	4521	0	0	0	0	0	0	0	0	0	2496	2478	2478	2478	2478	2478	2460	2409	2409	2392	2376	2359	2312	2312	2312	2297	2281	2266	2266	2252	2252	2237	2237	2208	2194	2181	2181	2167	2153	2140	2140	2140	2127	2088	2076	2076	2063	2039	2003	1992	1969	1969	1958	1947	1947	0	0	0	0	0	0	0	0	0	0	0	0	0	0	0	0	0	0	0	0	0	0	0	0	0	0	0	0	0	0	0	0	0	0	0	0	0	0	1189	1185	1193	1189	1189	0	0	0	0	0	0	0	0	0	0	0	0	0	0	0	0	0	0	0	0	0	0	0	0	0	0	0	0	0	0	0	0	0	0	0	0	0	0	0	0	0	0	0	0	0	0	0	0	0	0	0	0	0	0	0	0	0	0	0	0	0	0	0	0	0	0	0	0	0	0	0	0	0	0	0	0	0	0	0	0	0	0	0	0	0	0	0	0	0	0	0	0	0	0	0	0	0	0
0	0	0	0	0	0	0	0	0	0	0	0	1574	1574	1567	1567	1560	1567	1560	1560	1560	1560	1560	1560	1567	1567	1567	1567	1560	1560	1560	1560	1560	1553	1553	1560	1560	1567	1560	1560	1567	1567	1567	1567	1560	1560	1560	1560	1560	1560	1560	1567	1567	1567	1567	1567	1567	1567	1567	1567	1567	1560	1560	1560	1553	1560	1560	1553	1560	1560	1560	1553	1553	1553	1560	1560	1567	1567	1567	1560	1567	1567	1567	1560	1560	1560	1567	1567	1567	1567	1567	1574	1574	1574	1574	1574	1574	1574	1574	1574	1574	1574	1574	1574	1574	1574	1574	1574	1574	1574	1574	1574	1574	1574	1574	1567	1567	1567	1567	1567	1560	1567	1567	1574	1574	1574	1574	1574	1574	1574	1581	1581	1589	1596	1603	1611	1618	1626	1641	1649	1657	1665	1673	1681	1690	1698	1698	1732	1741	1750	1759	1768	1777	1786	1795	1795	1804	1814	1833	1863	1883	1904	1904	1925	1936	1936	1936	1947	1958	2039	2051	2051	2063	2051	2051	2051	2051	2063	2076	2088	2114	2127	2140	2153	2167	2181	2194	2208	2237	2266	2266	2297	2312	2327	2343	2359	2392	2376	2409	2426	2443	2460	2478	2478	2478	0	0	8146	8146	8146	8146	8146	8146	7959	7959	7959	7959	7959	7959	7959	8146	7959	7959	7959	7959	7959	7959	7959	7959	7959	7959	7959	7959	7959	8146	8146	8146	7959	7959	7959	7959	7959	7959	8343	8343	8343	8343	8343	8343	8343	8343	8343	8343	8343	8146	8146	4838	4838	4771	4771	4771	4771	4706	4706	4706	4706	4706	4706	4706	4706	4706	4706	4706	4706	4706	4706	4706	4706	4706	4706	4706	4706	4706	4706	4706	4706	4706	4706	4706	4706	4706	4706	4706	4706	4706	4706	4706	4706	4643	4643	4643	4643	3277	3277	3277	3277	3277	3277	3277	3277	3277	3246	3246	3186	3216	3216	3216	3216	3186	3186	3186	3186	3186	3157	3157	3157	3157	3186	3186	3186	3186	3186	3186	3186	3186	3186	3186	3186	3186	3216	3186	3186	3186	3186	3186	3186	3186	3186	3186	3186	3186	3186	3186	3186	3186	3186	3186	3157	3186	3186	3186	3216	3216	3216	3246	3277	3277	3277	3277	3216	3309	3309	3309	4706	4643	4643	4643	4643	4643	4643	4581	4581	4643	4581	4581	4581	4643	4643	4643	4643	4706	4706	4706	4706	4706	4706	4643	4706	4706	4706	4706	4706	4706	4706	4706	4643	4706	4643	4706	4643	4643	4643	4643	4643	4643	4643	4643	4643	4643	4643	4643	4643	4643	4643	4643	4643	4581	4581	4581	4581	4581	4581	4581	4581	4581	4643	4581	4643	4581	4643	4581	4581	4581	4521	4521	4521	0	0	0	0	0	0	0	0	2496	2478	2478	2478	2478	2460	2460	2409	2409	2392	2376	2359	2343	2312	2312	2297	2281	2266	2266	2252	2252	2237	2237	2223	2194	2181	2167	2153	2153	2140	2140	2140	2127	2088	2076	2076	2051	2039	2003	1992	1969	1958	1958	1947	1936	1936	0	0	0	0	0	0	0	0	0	0	0	0	0	0	0	0	0	0	0	0	0	0	0	0	0	0	0	0	0	0	0	0	0	0	0	1197	1197	1202	1197	1197	1193	1193	1193	1197	1197	1197	0	0	0	0	0	0	0	0	0	0	0	0	0	0	0	0	0	0	0	0	0	0	0	0	0	0	0	0	0	0	0	0	0	0	0	0	0	0	0	0	0	0	0	0	0	0	0	0	0	0	0	0	0	0	0	0	0	0	0	0	0	0	0	0	0	0	0	0	0	0	0	0	0	0	0	0	0	0	0	0	0	0	0	0	0	0	0	0	0	0	0	0	0	0
0	0	0	0	0	0	0	0	0	0	0	0	1574	1574	1567	1567	1567	1560	1560	1560	1560	1560	1567	1560	1567	1567	1567	1567	1560	1560	1560	1560	1560	1553	1553	1560	1567	1560	1560	1560	1567	1567	1567	1567	1567	1560	1567	1560	1560	1560	1560	1567	1567	1567	1567	1567	1567	1567	1567	1567	1567	1560	1560	1560	1560	1560	1560	1560	1560	1567	1560	1560	1560	1560	1567	1567	1567	1567	1560	1560	1567	1567	1567	1560	1567	1560	1567	1567	1567	1560	1567	1574	1574	1574	1574	1574	1574	1574	1567	1567	1567	1567	1574	1574	1574	1574	1574	1574	1574	1574	1574	1574	1574	1574	1574	1574	1567	1567	1567	1567	1560	1560	1560	1567	1567	1567	1567	1567	1574	1574	1581	1581	1589	1596	1603	1603	1611	1626	1641	1649	1649	1665	1673	1681	1690	1698	1715	1732	1732	1750	1759	1768	1777	1786	1795	1795	1804	1814	1833	1863	1873	1894	1894	1915	1925	1936	1936	1947	1947	2039	2051	2063	2063	2063	2051	2051	2051	2063	2076	2076	2101	2127	2140	2153	2181	2194	2208	2208	2252	2266	2266	2297	2312	2312	2343	2359	2392	2376	2409	2426	2426	2426	2460	2478	2478	0	0	8146	8146	8146	8146	8146	7959	7959	7959	7959	7959	7959	8146	7959	8146	7959	7959	7959	7959	7959	7959	7959	7959	7959	8146	8146	8146	8146	7959	8146	8146	8146	8146	7959	7959	7959	7959	8146	8343	8343	8343	8343	8343	8343	8343	8343	8343	8343	7959	7959	4771	4771	4771	4706	4706	4706	4706	4706	4706	4706	4706	4771	4706	4706	4706	4706	4706	4706	4706	4706	4706	4706	4706	4643	4706	4706	4706	4706	4706	4706	4706	4706	4706	4706	4706	4706	4706	4706	4706	4706	4706	4706	4706	4643	4643	4643	3277	3277	3277	3277	3277	3277	3277	3277	3277	3277	3246	3216	3216	3216	3216	3186	3186	3186	3186	3157	3157	3157	3157	3157	3157	3186	3186	3186	3186	3186	3186	3186	3186	3186	3186	3186	3216	3216	3216	3186	3186	3186	3186	3186	3186	3186	3186	3186	3186	3186	3186	3186	3186	3186	3157	3157	3186	3186	3186	3216	3216	3246	3246	3277	3246	3277	3277	3216	3309	3309	4643	4643	4643	4581	4581	4581	4581	4581	4581	4581	4643	4581	4581	4643	4643	4643	4643	4643	4706	4706	4706	4706	4643	4643	4643	4706	4643	4643	4706	4706	4706	4706	4643	4643	4706	4643	4706	4706	4643	4643	4643	4643	4643	4643	4643	4643	4643	4643	4643	4643	4643	4643	4581	4643	4581	4581	4581	4581	4581	4581	4581	4581	4581	4581	4581	4643	4643	4643	4643	4581	4581	4581	4521	4521	0	0	0	0	0	0	0	0	0	2478	2478	2478	2478	2460	2460	2409	2409	2392	2376	2359	2343	2327	2312	2297	2281	2266	2266	2252	2252	2237	2237	2223	2194	2181	2167	2153	2140	2140	2140	2127	2114	2088	2076	2063	2051	2027	2003	1992	1969	1958	1958	1947	1936	1936	1936	0	0	0	0	0	0	0	0	0	0	0	0	0	0	0	0	0	0	0	0	0	0	0	0	0	0	0	0	1214	1210	1210	1214	1210	1210	1206	1202	1202	1202	1197	1193	1193	1193	1193	1193	1189	1189	1189	0	0	0	0	0	0	0	0	0	0	0	0	0	0	0	0	0	0	0	0	0	0	0	0	0	0	0	0	0	0	0	0	0	0	0	0	0	0	0	0	0	0	0	0	0	0	0	0	0	0	0	0	0	0	0	0	0	0	0	0	0	0	0	0	0	0	0	0	0	0	0	0	0	0	0	0	0	0	0	0	0	0	0	0	0	0	0	0	0	0	0	0
0	0	0	0	0	0	0	0	0	0	0	0	1574	1574	1567	1567	1567	1560	1560	1560	1560	1567	1567	1567	1567	1567	1567	1560	1560	1553	1553	1553	1553	1553	1553	1553	1560	1560	1560	1560	1560	1567	1567	1567	1560	1560	1560	1560	1560	1560	1560	1560	1560	1567	1567	1567	1567	1567	1567	1560	1560	1560	1560	1560	1560	1560	1560	1560	1567	1567	1567	1560	1560	1560	1567	1560	1560	1560	1560	1560	1560	1560	1567	1560	1560	1560	1567	1567	1567	1560	1560	1567	1567	1567	1574	1574	1574	1574	1567	1567	1574	1567	1574	1574	1567	1567	1574	1574	1574	1574	1574	1574	1574	1574	1567	1567	1567	1560	1560	1560	1553	1560	1560	1567	1567	1567	1574	1567	1574	1574	1574	1581	1589	1596	1596	1603	1611	1626	1634	1657	1665	1665	1673	1681	1690	1698	1706	1723	1732	1741	1768	1777	1777	1786	1795	1795	1804	1814	1824	1863	1883	1894	1904	1925	1936	1936	1936	1936	1947	2027	2051	2063	2063	2063	2051	2063	2063	2076	2088	2088	2114	2127	2140	2153	2181	2181	2194	2208	2237	2252	2266	2297	2312	2312	2343	2359	2376	2392	2409	2409	2426	2426	2460	2460	2478	0	0	8343	8146	8146	8146	8146	7959	7959	7959	7959	7959	7959	7959	7959	8146	7959	7959	7959	7959	7959	7959	7959	7959	7959	8146	8146	8146	8146	8146	8146	8146	8146	8146	8146	8146	7959	7959	8146	8343	8343	8343	8343	8343	8343	8343	8343	8343	8343	7959	7779	4706	4706	4706	4706	4706	4706	4706	4706	4706	4771	4771	4771	4771	4771	4706	4771	4771	4706	4706	4706	4706	4706	4643	4643	4706	4706	4706	4706	4706	4706	4706	4706	4706	4706	4706	4706	4706	4706	4706	4706	4706	4706	4706	4643	4643	4643	3309	3277	3277	3277	3277	3277	3277	3277	3277	3277	3246	3246	3216	3216	3216	3186	3186	3186	3186	3157	3157	3157	3157	3157	3186	3186	3186	3186	3216	3186	3216	3216	3216	3216	3216	3186	3216	3216	3186	3186	3186	3186	3186	3186	3186	3186	3186	3186	3186	3186	3157	3157	3186	3157	3157	3157	3157	3186	3186	3216	3216	3246	3246	3277	3277	3277	3277	3277	4706	4706	4643	4581	4581	4581	4581	4581	4581	4581	4581	4581	4643	4643	4643	4643	4643	4643	4643	4643	4706	4706	4706	4706	4643	4643	4643	4643	4643	4643	4643	4643	4643	4706	4643	4643	4643	4643	4706	4706	4643	4643	4643	4643	4643	4643	4643	4643	4643	4643	4643	4643	4643	4643	4581	4643	4581	4643	4643	4643	4581	4581	4581	4581	4581	4581	4581	4643	4643	4643	4643	4581	4581	4581	4581	4581	0	0	0	0	0	0	0	0	2478	2478	2478	2478	2478	2460	2443	2409	2426	2409	2376	2359	2343	2312	2312	2281	2266	2266	2266	2252	2237	2237	2223	2208	2181	2181	2167	2153	2140	2140	2140	2127	2114	2088	2076	2063	2051	2027	2003	1992	1958	1958	1947	1947	1936	1936	1915	1894	1883	1883	1873	1863	1853	1843	1833	1833	0	0	1786	1777	1777	1777	1768	1768	1759	1750	1750	0	0	0	0	0	0	0	0	1214	1210	1210	1210	1210	1210	1206	1202	1202	1202	1197	1197	1197	1197	1197	1197	1197	1193	1197	1193	1193	1197	1202	1202	1202	0	0	0	0	0	0	0	0	0	0	0	0	0	0	0	0	0	0	0	0	0	0	0	0	0	1581	1581	0	0	0	0	0	0	0	0	0	0	0	0	0	1131	1127	1127	1127	0	0	0	0	0	0	0	0	0	0	0	0	0	0	0	0	0	0	0	0	0	0	0	0	0	0	0	0	0	0	0	0	0	0	0	0	0	0	0	0	0	0
0	0	0	0	0	0	0	0	0	0	0	0	1567	1567	1567	1567	1567	1560	1560	1560	1560	1567	1567	1567	1567	1567	1567	1560	1553	1553	1553	1553	1553	1553	1553	1553	1560	1560	1560	1560	1560	1560	1567	1567	1560	1560	1560	1560	1560	1560	1560	1560	1560	1560	1560	1560	1560	1560	1560	1560	1560	1553	1560	1560	1560	1560	1560	1560	1567	1567	1567	1560	1567	1560	1567	1560	1560	1567	1560	1560	1567	1567	1567	1567	1560	1560	1567	1567	1560	1560	1560	1567	1567	1567	1574	1574	1574	1574	1574	1574	1574	1574	1574	1574	1574	1574	1574	1574	1574	1574	1574	1574	1574	1567	1567	1567	1560	1560	1560	1560	1553	1553	1560	1560	1560	1560	1567	1560	1567	1574	1574	1581	1589	1596	1603	1611	1618	1626	1634	1657	1665	1665	1673	1681	1690	1698	1706	1715	1732	1741	1768	1768	1777	1786	1786	1795	1804	1814	1814	1863	1883	1894	1894	1915	1925	1936	1936	1936	1947	2039	2051	2063	2076	2063	2051	2051	2063	2076	2088	2088	2114	2127	2140	2153	2167	2181	2194	2237	2252	2266	2281	2297	2297	2312	2343	2343	2376	2392	2409	2426	2426	2426	2443	2443	0	0	0	8146	8146	8146	8146	8146	7959	7959	7959	7959	7959	7959	7959	7959	8146	7959	7959	7959	7959	7959	7959	7959	7959	7959	8146	8146	8146	8146	7959	8146	8146	7959	7959	7959	7959	7959	7959	7959	8146	8343	8146	8146	8343	8343	8343	8343	8343	8343	8343	7959	7959	4706	4706	4643	4706	4706	4706	4706	4706	4771	4771	4771	4771	4771	4771	4771	4771	4771	4706	4706	4706	4706	4643	4643	4706	4706	4706	4706	4706	4706	4706	4706	4706	4706	4706	4706	4706	4706	4706	4706	4706	4706	4706	4643	4643	4643	4643	3277	3277	3277	3277	3277	3277	3277	3277	3277	3246	3246	3216	3216	3216	3186	3186	3186	3186	3157	3157	3157	3157	3186	3186	3186	3186	3186	3216	3186	3216	3216	3216	3216	3216	3216	3216	3216	3216	3186	3186	3186	3186	3186	3186	3186	3186	3186	3186	3157	3157	3157	3157	3157	3157	3157	3157	3186	3186	3216	3216	3216	3246	3277	3277	3277	3277	4706	4706	4706	4643	4581	4581	4581	4581	4581	4581	4581	4581	4581	4643	4643	4643	4643	4643	4643	4643	4643	4706	4706	4706	4706	4643	4643	4643	4643	4643	4643	4643	4643	4643	4643	4643	4643	4643	4643	4643	4643	4643	4643	4643	4643	4643	4643	4643	4643	4643	4643	4643	4643	4643	4643	4581	4643	4581	4581	4643	4581	4581	4581	4581	4581	4581	4581	4581	4581	4643	4643	4643	4581	4581	4581	4581	4581	0	0	0	0	0	0	0	0	2478	2478	2478	2478	2460	2460	2443	2409	2426	2392	2376	2359	2359	2327	2312	2281	2281	2266	2266	2252	2237	2237	2223	2194	2181	2167	2153	2140	2140	2140	2127	2127	2114	2088	2076	2063	2051	2039	2003	1980	1969	1958	1947	1936	1936	1925	1915	1894	1894	1863	1863	1863	1853	1853	1824	1814	1804	1795	1786	1777	1777	1777	1768	1768	1759	1750	1741	1741	1741	0	0	0	0	0	0	0	1214	1210	1214	1210	1210	1206	1206	1206	1206	1202	1202	1197	1197	1197	1193	1193	1193	1193	1193	1197	1202	1202	1202	1202	1202	0	0	0	0	0	0	0	0	0	0	0	0	0	1574	1574	1581	1581	0	0	0	0	0	1574	1574	1581	1581	1581	0	0	0	0	0	0	0	0	0	0	0	0	1134	1131	1127	1127	0	0	0	0	0	0	0	0	0	0	0	0	0	0	0	0	0	0	0	0	0	0	0	0	0	0	0	0	0	0	0	0	0	0	0	0	0	0	0	0	0	0
0	0	0	0	0	0	0	0	0	0	0	0	1567	1560	1560	1567	1560	1560	1560	1560	1560	1567	1567	1567	1567	1567	1567	1560	1553	1560	1553	1560	1553	1553	1553	1553	1560	1560	1560	1560	1560	1560	1567	1567	1567	1560	1553	1553	1553	1553	1553	1560	1560	1560	1560	1560	1560	1560	1560	1560	1560	1560	1560	1560	1560	1560	1560	1567	1567	1567	1567	1567	1567	1567	1567	1567	1560	1567	1560	1560	1560	1560	1560	1560	1560	1560	1567	1567	1567	1560	1560	1567	1567	1567	1574	1574	1574	1574	1574	1574	1574	1574	1574	1574	1574	1574	1574	1567	1567	1567	1567	1567	1567	1567	1567	1574	1567	1560	1560	1553	1553	1553	1553	1560	1560	1560	1560	1560	1567	1574	1574	1581	1589	1603	1611	1611	1626	1634	1641	1649	1657	1665	1673	1673	1690	1698	1706	1715	1732	1741	1741	1768	1777	1786	1795	1795	1804	1814	1814	1863	1873	1883	1894	1915	1925	1936	1936	1936	1936	2039	2063	2063	2063	2063	2051	2051	2051	2063	2088	2088	2127	2127	2140	2140	2153	2181	2194	2223	2237	2252	2266	2297	2312	2312	2343	2376	2392	2392	2409	2426	2426	2426	2443	2443	0	0	0	7959	8146	8146	8146	8146	7959	7959	7959	7959	7959	7959	7959	7959	8146	7959	7779	7779	7779	7959	7959	7959	7959	7779	7959	7959	8146	7959	7959	7959	8146	7959	7959	7959	7959	8146	7959	7959	8146	8343	8146	8146	8146	8343	8343	8343	8343	8343	8343	7779	4706	4706	4706	4706	4706	4706	4706	4706	4771	4771	4771	4771	4771	4771	4771	4771	4771	4771	4706	4706	4706	4706	4643	4643	4706	4706	4706	4706	4706	4706	4706	4706	4706	4706	4706	4706	4706	4706	4706	4706	4706	4706	4706	4643	4643	4643	3341	3277	3277	3277	3277	3277	3277	3277	3277	3277	3246	3216	3216	3216	3216	3186	3186	3186	3186	3186	3186	3157	3157	3157	3186	3186	3186	3186	3216	3216	3216	3216	3216	3216	3216	3216	3216	3216	3186	3186	3186	3186	3186	3186	3186	3186	3186	3186	3157	3157	3157	3157	3157	3157	3157	3157	3157	3157	3186	3216	3216	3246	3246	3309	3309	3309	4643	4643	4643	4643	4581	4581	4581	4581	4581	4581	4581	4581	4581	4581	4581	4581	4581	4643	4643	4581	4643	4643	4706	4706	4643	4643	4643	4643	4643	4643	4643	4643	4643	4643	4643	4643	4643	4643	4643	4643	4643	4643	4643	4643	4643	4643	4643	4643	4643	4643	4643	4643	4643	4643	4581	4581	4581	4581	4581	4581	4581	4581	4581	4581	4581	4581	4581	4581	4581	4581	4643	4643	4581	4581	4581	4581	4581	4581	0	0	0	0	0	0	0	0	2478	2478	2478	2478	2478	2460	2443	2426	2426	2392	2376	2359	2359	2327	2312	2281	2281	2266	2266	2252	2237	2223	2208	2194	2181	2167	2153	2140	2127	2127	2127	2114	2101	2088	2076	2063	2039	2027	2003	1992	1980	1958	1947	1936	1936	1925	1915	1904	1894	1894	1873	1863	1863	1853	1833	1824	1814	1804	1795	1777	1777	1777	1768	1759	1750	1750	1741	1741	1732	1732	1732	0	0	0	0	0	1214	1210	1214	1214	1210	1210	1206	1206	1206	1202	1202	1197	1197	1197	1197	1193	1193	1197	1193	1197	1197	1202	1197	1197	1197	0	0	0	0	0	0	0	0	0	1581	1589	1581	1589	1567	1567	1574	1567	1567	1567	1567	1567	1567	1581	1581	1581	1581	1581	1581	1581	0	0	0	0	0	0	0	0	0	1138	1134	1131	1127	1127	0	0	0	0	0	0	0	0	0	0	0	0	0	0	0	0	0	0	0	0	0	0	0	0	0	0	0	0	0	0	0	0	0	0	0	0	0	0	0	0	0	0
0	0	0	0	0	0	0	0	0	0	0	0	1560	1560	1560	1560	1560	1560	1560	1560	1560	1567	1560	1560	1560	1560	1560	1553	1546	1553	1553	1553	1553	1546	1553	1560	1567	1560	1560	1560	1560	1560	1567	1567	1560	1560	1560	1560	1560	1560	1560	1560	1560	1560	1560	1553	1560	1560	1560	1560	1560	1560	1560	1560	1560	1560	1560	1567	1560	1560	1560	1567	1567	1567	1560	1560	1560	1567	1567	1560	1560	1567	1567	1560	1560	1560	1567	1567	1567	1560	1560	1567	1567	1567	1567	1574	1574	1574	1574	1574	1574	1574	1574	1574	1567	1574	1567	1567	1567	1567	1567	1567	1567	1567	1567	1567	1567	1560	1560	1553	1553	1553	1560	1560	1560	1560	1560	1560	1567	1574	1574	1581	1589	1603	1611	1611	1618	1626	1641	1649	1665	1665	1673	1673	1681	1690	1698	1715	1732	1741	1759	1768	1777	1786	1795	1795	1804	1814	1814	1853	1873	1883	1904	1925	1936	1936	1936	1936	1947	2027	2051	2063	2063	2063	2051	2051	2051	2051	2076	2101	2127	2127	2140	2140	2140	2194	2194	2223	2237	2252	2266	2281	2297	2312	2327	2376	2392	2409	2426	2426	2426	2426	2426	2426	2426	0	0	7959	8146	8146	8146	8146	7959	7959	7959	7959	7959	7959	7959	7779	7959	7959	7779	7959	7959	7959	8146	8146	7959	7959	7959	7959	7959	7959	7959	7959	7959	7959	7959	7959	8146	8146	8146	7959	8146	8146	8146	8146	8146	8146	8343	8343	8343	8550	8343	7779	4706	4706	4706	4706	4706	4706	4706	4771	4771	4771	4771	4771	4771	4771	4771	4771	4771	4771	4706	4706	4706	4706	4643	4643	4706	4706	4706	4706	4706	4706	4706	4706	4706	4706	4706	4706	4706	4706	4706	4706	4706	4706	4706	4706	4643	4643	3373	3309	3309	3309	3309	3277	3277	3277	3277	3277	3246	3246	3216	3216	3216	3186	3186	3186	3186	3186	3186	3186	3186	3157	3186	3186	3186	3186	3216	3216	3216	3216	3216	3216	3216	3186	3216	3186	3186	3186	3186	3186	3186	3186	3186	3157	3186	3157	3157	3157	3157	3157	3157	3157	3157	3157	3157	3186	3186	3216	3216	3246	3216	3216	3216	4581	4581	4581	4581	4581	4581	4521	4521	4521	4581	4581	4581	4581	4581	4521	4581	4581	4581	4581	4581	4581	4581	4581	4643	4643	4643	4643	4643	4643	4643	4643	4643	4581	4581	4643	4643	4643	4581	4581	4643	4643	4643	4643	4643	4643	4643	4643	4643	4643	4643	4643	4581	4643	4643	4581	4643	4643	4581	4581	4581	4581	4581	4581	4581	4581	4581	4581	4581	4581	4581	4581	4581	4643	4581	4581	4581	4581	4643	4643	0	0	0	0	0	0	0	0	0	2478	2478	2478	2478	2460	2443	2426	2426	2409	2376	2376	2359	2327	2312	2281	2281	2266	2266	2252	2237	2223	2208	2194	2181	2167	2153	2140	2127	2127	2127	2114	2101	2088	2076	2063	2051	2039	2015	1992	1969	1958	1947	1936	1925	1925	1915	1904	1894	1894	1873	1863	1853	1853	1833	1824	1814	1804	1795	1777	1777	1768	1768	1759	1750	1750	1741	1741	1741	1732	1732	0	0	0	0	0	1214	1210	1214	1214	1210	1210	1206	1206	1202	1202	1202	1197	1197	1197	1193	1193	1193	1193	1193	1193	1197	1197	1197	1193	1197	1197	1197	0	0	0	0	0	1581	1581	1581	1581	1581	1574	1567	1567	1574	1574	1567	1567	1567	1567	1589	1581	1581	1581	1581	1581	1581	1567	1567	1567	0	0	0	0	0	1138	1138	1134	1131	1127	1123	1123	0	0	0	0	0	0	0	0	0	0	0	0	0	0	0	0	0	0	0	0	0	0	0	0	0	0	0	0	0	0	0	0	0	0	0	0	0	0	0	0	0	0
0	0	0	0	0	0	0	0	0	0	0	0	1560	1560	1560	1560	1560	1560	1567	1567	1560	1560	1560	1560	1560	1560	1560	1553	1546	1553	1546	1553	1553	1546	1546	1560	1560	1567	1567	1560	1567	1567	1567	1567	1560	1560	1560	1560	1560	1560	1560	1560	1567	1560	1560	1553	1553	1560	1560	1553	1553	1560	1560	1560	1560	1560	1567	1567	1560	1560	1560	1567	1567	1560	1560	1567	1567	1567	1567	1560	1567	1567	1567	1567	1567	1560	1567	1574	1567	1567	1567	1567	1567	1567	1567	1574	1574	1574	1574	1574	1574	1574	1574	1574	1567	1567	1567	1560	1560	1560	1560	1567	1567	1567	1567	1567	1567	1560	1560	1553	1553	1553	1560	1560	1567	1560	1560	1560	1560	1567	1567	1574	1596	1603	1611	1618	1618	1626	1634	1649	1657	1665	1673	1673	1681	1690	1706	1715	1732	1741	1759	1768	1777	1786	1795	1804	1804	1814	1824	1843	1863	1873	1894	1925	1936	1936	1936	1947	1947	2027	2039	2063	2063	2063	2051	2051	2051	2051	2063	2088	2127	2127	2140	2140	2181	2194	2194	2223	2237	2252	2266	2281	2297	2297	2312	2343	2392	2409	2426	2426	2426	2426	2443	2443	2443	0	0	0	8146	8146	8146	8146	7959	7959	7959	7959	7779	7959	7779	7779	7959	7959	7959	7959	7959	8146	8146	8146	8146	7959	8146	7959	7959	7959	7959	7959	7959	7959	7959	7959	7959	7959	7959	8146	8146	8343	8146	8343	8146	8343	8343	8146	8146	8146	8343	7959	4706	4706	4706	4706	4706	4706	4771	4771	4771	4771	4771	4771	4771	4771	4771	4771	4771	4706	4706	4706	4706	4706	4643	4706	4706	4706	4706	4706	4706	4706	4706	4706	4706	4643	4706	4706	4706	4706	4706	4643	4643	4706	4706	4706	4706	4706	3373	3341	3277	3309	3309	3277	3277	3277	3277	3277	3246	3246	3216	3216	3216	3186	3186	3186	3186	3186	3186	3186	3186	3157	3186	3186	3186	3186	3186	3216	3216	3216	3216	3216	3216	3186	3186	3186	3186	3186	3186	3186	3186	3186	3186	3157	3157	3157	3157	3157	3157	3157	3157	3157	3157	3157	3157	3186	3216	3216	3216	3216	3216	3216	4521	4581	4581	4581	4581	4581	4521	4463	4463	4521	4521	4521	4521	4521	4521	4521	4521	4521	4521	4581	4581	4581	4581	4581	4643	4643	4643	4643	4581	4581	4581	4581	4581	4581	4581	4581	4581	4581	4581	4581	4581	4581	4581	4581	4581	4581	4643	4581	4643	4643	4643	4581	4581	4581	4581	4581	4643	4581	4581	4581	4581	4581	4581	4581	4521	4521	4521	4581	4581	4581	4581	4581	4581	4643	4581	4581	4581	4643	4643	4643	0	0	0	0	0	0	0	0	0	2478	2478	2478	2460	2460	2443	2426	2426	2392	2376	2359	2359	2327	2312	2297	2281	2266	2252	2252	2237	2223	2194	2194	2181	2153	2140	2127	2127	2127	2127	2114	2101	2088	2076	2076	2051	2027	2027	1992	1969	1958	1947	1936	1925	1925	1915	1904	1894	1894	1894	1873	1863	1843	1833	1824	1814	1804	1795	1786	1777	1777	1768	1759	1759	1750	1750	1741	1741	1741	1732	1732	0	0	0	1219	1210	1210	1214	1210	1210	1210	1202	1202	1202	1197	1197	1197	1193	1193	1189	1189	1189	1189	1193	1189	1193	1193	1193	1193	1193	1197	1197	0	0	0	0	1581	1581	1581	1581	1581	1574	1567	1567	1567	1567	1567	1567	1574	1574	1574	1589	1581	1581	1581	1581	1581	1581	1567	1553	1546	1546	0	0	0	0	1138	1134	1134	1127	1123	1120	1120	0	0	0	0	0	0	0	0	0	0	0	0	0	0	0	0	0	0	0	0	0	0	0	0	0	0	0	0	0	0	0	0	0	0	0	0	0	0	0	0	0	0
0	0	0	0	0	0	0	0	0	0	0	0	1560	1553	1553	1560	1560	1560	1560	1560	1560	1567	1560	1560	1560	1567	1567	1553	1546	1546	1546	1546	1546	1546	1553	1553	1560	1560	1560	1560	1560	1560	1560	1567	1560	1553	1553	1560	1560	1560	1560	1560	1567	1560	1560	1553	1553	1560	1553	1553	1553	1560	1560	1567	1560	1560	1567	1567	1560	1560	1560	1567	1567	1560	1560	1560	1560	1567	1567	1560	1567	1567	1567	1567	1567	1560	1567	1574	1567	1567	1567	1567	1574	1567	1574	1574	1574	1574	1574	1574	1574	1574	1574	1574	1567	1567	1567	1567	1560	1560	1560	1560	1567	1560	1560	1567	1567	1553	1560	1553	1553	1553	1567	1560	1567	1560	1560	1560	1560	1567	1567	1574	1596	1603	1611	1618	1626	1634	1634	1649	1657	1665	1665	1665	1673	1690	1698	1715	1732	1741	1741	1768	1777	1786	1795	1804	1804	1814	1824	1843	1853	1863	1894	1925	1936	1936	1947	1947	1958	2003	2027	2039	2051	2051	2051	2063	2063	2076	2088	2088	2114	2127	2127	2153	2167	2194	2194	2223	2237	2252	2266	2281	2297	2297	2297	2359	2392	2392	2409	2426	2426	2426	2426	2426	2443	0	0	8146	8146	8146	8146	8146	7959	7959	7959	7779	7779	7779	7779	7779	7959	7959	7959	8146	8146	8146	8343	8343	8343	8146	8146	8146	7959	7959	7959	7959	7959	7959	7959	7959	7959	8146	7959	7959	8146	8343	8146	8146	8146	8343	8343	8146	8146	8343	8343	4706	4771	4706	4706	4771	4771	4771	4771	4771	4771	4771	4771	4771	4771	4771	4771	4771	4771	4706	4706	4706	4706	4706	4706	4706	4706	4706	4706	4706	4706	4706	4643	4643	4643	4581	4581	4581	4581	4581	4643	4643	4643	4643	4706	4706	4643	4706	4706	3341	3277	3309	3309	3277	3277	3277	3277	3277	3277	3216	3216	3216	3216	3186	3186	3186	3186	3186	3186	3157	3157	3157	3157	3186	3186	3186	3186	3186	3216	3186	3216	3216	3216	3186	3186	3186	3186	3186	3186	3186	3186	3186	3186	3157	3157	3157	3157	3157	3129	3129	3157	3157	3157	3157	3186	3186	3216	3216	3216	3216	3246	3246	4521	4581	4581	4581	4521	4521	4521	4463	4521	4463	4521	4463	4463	4463	4521	4463	4521	4521	4521	4521	4521	4521	4581	4521	4581	4643	4581	4581	4581	4521	4521	4521	4581	4521	4581	4581	4581	4581	4581	4581	4581	4581	4581	4581	4581	4581	4581	4581	4581	4581	4581	4581	4581	4581	4581	4581	4581	4581	4581	4521	4521	4521	4521	4521	4521	4521	4521	4521	4521	4581	4581	4581	4581	4581	4581	4581	4581	4643	4643	4643	0	0	0	0	0	0	0	0	0	0	2478	2478	2478	2460	2443	2443	2443	2426	2376	2376	2359	2327	2312	2297	2266	2266	2252	2237	2237	2223	2208	2194	2181	2153	2140	2127	2127	2114	2114	2114	2101	2076	2076	2076	2051	2027	1992	1992	1969	1958	1947	1936	1925	1925	1915	1904	1894	1894	1883	1863	1853	1843	1833	1824	1814	1814	1795	1786	1777	1777	1768	1759	1759	1750	1750	1741	1741	1741	1750	1750	0	0	0	1210	1214	1210	1210	1210	1206	1202	1197	1197	1197	1197	1193	1193	1193	1193	1189	1189	1189	1193	1185	1189	1193	1193	1193	1193	1189	1189	1206	1206	0	0	1589	1581	1581	1574	1574	1574	1574	1567	1567	1567	1567	1567	1567	1574	1574	1574	1574	1574	1574	1574	1574	1574	1567	1567	1560	1560	1546	0	0	0	0	1134	1134	1134	1120	1116	1120	1120	0	0	0	0	0	0	0	0	0	0	0	0	0	0	0	0	0	0	0	0	0	0	0	0	0	0	0	0	0	0	0	0	0	0	0	0	0	0	0	0	0	0
0	0	0	0	0	0	0	0	0	0	0	0	1553	1553	1553	1553	1560	1560	1560	1567	1560	1567	1560	1560	1560	1560	1560	1560	1553	1553	1553	1553	1546	1546	1553	1553	1560	1560	1560	1560	1567	1560	1560	1567	1560	1553	1546	1560	1560	1553	1553	1567	1567	1567	1560	1553	1553	1553	1553	1553	1553	1553	1553	1560	1560	1560	1560	1560	1560	1560	1560	1560	1560	1560	1560	1560	1560	1567	1567	1560	1567	1567	1567	1567	1567	1567	1574	1574	1567	1567	1567	1567	1567	1567	1567	1574	1574	1574	1574	1574	1574	1574	1574	1567	1567	1567	1567	1560	1560	1560	1560	1560	1560	1560	1560	1560	1567	1553	1560	1560	1553	1553	1567	1567	1567	1560	1560	1560	1560	1567	1567	1574	1603	1611	1611	1618	1626	1634	1641	1649	1657	1665	1665	1673	1673	1681	1690	1706	1732	1741	1741	1759	1777	1786	1795	1804	1814	1814	1824	1843	1853	1863	1883	1904	1904	1936	1936	1947	1958	2003	2027	2039	2051	2051	2051	2051	2051	2076	2088	2088	2114	2127	2127	2153	2167	2181	2194	2208	2237	2252	2266	2281	2297	2297	2312	2376	2376	2409	2409	2426	2426	2426	2426	2426	0	0	0	7959	7959	8146	7959	7959	7779	7779	7779	7779	7608	7608	7608	7608	7608	7608	7779	7779	8146	0	8343	8343	8343	8146	8343	8146	7959	7959	7959	7959	7959	7959	7959	7959	7959	8146	7959	8146	8146	8146	8146	8146	8146	8343	8343	8146	8146	8146	4838	4771	4771	4706	4771	4771	4771	4771	4771	4771	4771	4771	4771	4771	4771	4771	4771	4771	4771	4706	4706	4706	4706	4706	4706	4706	4706	4706	4706	4706	4706	4706	4643	4521	4521	4463	4521	4521	4521	4581	4643	4643	4643	4643	4706	4706	4643	4706	4771	3309	3277	3309	3309	3277	3277	3277	3277	3246	3246	3216	3186	3216	3186	3186	3186	3186	3186	3186	3186	3186	3157	3157	3157	3157	3186	3186	3186	3186	3216	3216	3216	3216	3216	3186	3186	3186	3186	3186	3186	3186	3186	3186	3186	3157	3129	3129	3129	3157	3129	3129	3157	3157	3157	3186	3186	3186	3216	3216	3216	3216	3216	3216	4521	4521	4521	4521	4521	4521	4463	4406	4463	4463	4463	4463	4463	4463	4463	4463	4463	4463	4463	4521	4521	4521	4521	4521	4521	4521	4581	4521	4521	4521	4521	4521	4521	4521	4521	4521	4521	4581	4521	4521	4521	4521	4521	4521	4581	4581	4581	4581	4581	4581	4581	4581	4521	4581	4581	4581	4463	4406	4406	4463	4463	4463	4521	4521	4463	4463	4521	4521	4521	4581	4581	4581	4581	4581	4581	4581	4581	4643	4706	4706	0	0	0	0	0	0	0	0	0	2478	2478	2478	2460	2460	2443	2443	2426	2426	2376	2376	2343	2312	2312	2297	2281	2266	2252	2237	2237	2223	2208	2194	2194	2153	2140	2140	2127	2114	2114	2114	2101	2088	2076	2076	2063	2003	1992	1992	1969	1958	1947	1936	1925	1925	1915	1904	1894	1894	1883	1863	1853	1843	1833	1824	1814	1814	1804	1786	1777	1768	1768	1759	1750	1750	1750	1741	1741	1741	1741	1750	1750	0	1219	1214	1214	1210	1210	1210	1206	1206	1197	1197	1197	1197	1197	1193	1193	1193	1189	1189	1189	1189	1185	1189	1189	1193	1189	1189	1185	1185	1202	1202	1202	0	1589	1581	1574	1574	1574	1574	1574	1574	1567	1567	1567	1567	1581	1581	1574	1574	1574	1574	1574	1574	1574	1574	1567	1567	1560	1553	1553	0	0	0	1134	1134	1134	1131	1120	1116	1120	1120	0	0	0	0	0	0	0	0	0	0	0	0	0	0	0	0	0	0	0	0	0	0	0	0	0	0	0	0	0	0	0	0	0	0	0	0	0	0	0	0	0	0
0	0	0	0	0	0	0	0	0	0	0	0	1553	1553	1553	1553	1553	1553	1553	1560	1560	1560	1560	1560	1560	1560	1567	1560	1553	1553	1553	1560	1553	1553	1560	1560	1560	1560	1560	1560	1560	1560	1560	1567	1560	1553	1546	1546	1560	1553	1553	1567	1567	1560	1560	1553	1553	1553	1553	1553	1553	1553	1553	1560	1560	1560	1560	1560	1560	1560	1560	1560	1567	1567	1560	1567	1560	1567	1567	1567	1560	1567	1567	1567	1567	1560	1567	1574	1567	1567	1560	1567	1567	1567	1567	1574	1574	1574	1574	1574	1574	1574	1567	1567	1567	1567	1567	1560	1560	1560	1560	1560	1560	1560	1560	1560	1560	1553	1560	1560	1553	1553	1567	1560	1567	1560	1560	1560	1560	1567	1567	1581	1603	1611	1618	1626	1634	1634	1641	1641	1657	1665	1673	1673	1681	1681	1690	1698	1723	1732	1741	1741	1768	1795	1795	1804	1814	1814	1824	1833	1853	1853	1883	1904	1936	1936	1947	1947	1958	2003	2027	2039	2039	2039	2051	2051	2051	2051	2088	2114	2114	2127	2127	2153	2181	2194	2208	2223	2223	2237	2252	2281	2297	2312	2312	2359	2376	2392	2409	2426	2426	2426	2426	2426	0	0	0	7959	7959	8146	8146	7959	7779	7779	7779	7608	7608	7608	7608	7608	7608	7608	7779	7779	0	0	0	0	0	0	8343	8146	7959	7959	7959	7779	7959	7959	7959	7959	7959	8146	7959	7959	8146	8146	8146	8146	8146	8343	8343	8146	8146	8146	8343	4771	4771	4771	4771	4771	4771	4771	4771	4771	4771	4771	4771	4771	4771	4771	4771	4771	4771	4706	4706	4706	4706	4706	4706	4706	4706	4706	4706	4706	4706	4581	4521	4463	4463	4406	4463	4521	4521	4581	4581	4643	4643	4643	4643	4643	4643	4643	4771	3309	3277	3277	3277	3277	3277	3277	3277	3246	3246	3216	3186	3216	3216	3186	3186	3186	3186	3186	3186	3186	3157	3157	3157	3157	3186	3186	3186	3186	3186	3216	3186	3186	3216	3186	3186	3186	3186	3186	3186	3186	3186	3157	3157	3157	3129	3129	3157	3157	3129	3129	3157	3157	3157	3186	3186	3186	3216	3216	3216	3216	3216	3216	4581	4521	4521	4463	4463	4521	4463	4406	4406	4406	4463	4406	4406	4406	4406	4406	4406	4406	4406	4350	4406	4406	4406	4406	4463	4463	4521	4521	4463	4463	4463	4463	4521	4463	4521	4521	4521	4521	4521	4521	4521	4521	4521	4521	4581	4581	4581	4581	4581	4581	4581	4521	4521	4463	4463	4463	4406	4406	4350	4406	4406	4406	4406	4406	4406	4463	4463	4463	4463	4521	4581	4581	4581	4581	4581	4581	4643	4643	4706	4706	5125	5125	0	0	0	0	0	0	0	2478	2478	2460	2460	2460	2443	2443	2426	2426	2376	2359	2343	2312	2312	2297	2281	2266	2252	2237	2237	2223	2208	2208	2194	2153	2140	2140	2127	2127	2114	2114	2101	2088	2076	2076	2063	2015	2003	1992	1980	1969	1947	1936	1925	1925	1915	1904	1894	1894	1883	1863	1863	1843	1843	1824	1824	1814	1804	1795	1786	1768	1768	1759	1750	1750	1750	1741	1741	1741	1741	1741	1741	1219	1219	1214	1214	1210	1214	1210	1206	1202	1197	1197	1197	1197	1193	1193	1189	1193	1189	1189	1185	1193	1185	1185	1193	1189	1189	1185	1185	1185	1197	1193	1193	0	1589	1581	1581	1574	1574	1581	1574	1581	1567	1574	1567	1574	1574	1574	1581	1567	1574	1574	1574	1574	1574	1567	1567	1567	1553	1553	1553	0	0	0	1127	1131	1131	1120	1116	1113	1113	1113	0	0	0	0	0	0	0	0	0	0	0	0	0	0	0	0	0	0	0	0	0	0	0	0	0	0	0	0	0	0	0	0	0	0	0	0	0	0	0	0	0	0
0	0	0	0	0	0	0	0	0	0	0	0	1553	1553	1553	1560	1560	1560	1553	1560	1560	1560	1560	1560	1560	1560	1560	1553	1553	1546	1553	1553	1553	1553	1560	1560	1560	1560	1560	1560	1560	1560	1560	1560	1553	1553	1546	1546	1546	1546	1553	1553	1560	1553	1553	1546	1553	1553	1553	1553	1553	1560	1560	1560	1560	1560	1560	1560	1560	1560	1560	1560	1567	1567	1560	1560	1560	1567	1567	1567	1560	1567	1567	1567	1567	1560	1567	1567	1567	1560	1560	1560	1567	1567	1567	1567	1567	1574	1567	1574	1567	1574	1567	1567	1567	1560	1567	1560	1560	1560	1560	1560	1560	1560	1560	1560	1567	1560	1567	1567	1574	1567	1574	1574	1567	1567	1567	1560	1567	1560	1560	1581	1603	1611	1618	1626	1634	1634	1634	1641	1657	1665	1673	1673	1681	1690	1698	1698	1715	1732	1732	1759	1759	1777	1795	1795	1814	1814	1824	1833	1853	1883	1894	1915	1925	1936	1947	1947	1958	1992	2027	2039	2051	2039	2051	2051	2051	2051	2088	2088	2101	2127	2127	2140	2167	2181	2208	2223	2223	2237	2237	2252	2312	2312	2327	2343	2376	2392	2409	2426	2409	2426	2426	2426	0	0	0	7959	7959	7959	8146	7959	7779	7779	7779	7608	7608	7444	7444	7444	7779	7779	7779	7779	0	0	0	0	0	0	0	0	7959	7959	7959	7779	7959	7959	7959	8146	7959	8146	8146	8146	8146	8146	8146	8146	8146	8146	8343	8146	8146	8146	8343	4706	4706	4706	4706	4771	4771	4771	4771	4771	4771	4771	4771	4771	4771	4771	4771	4771	4771	4706	4706	4706	4706	4706	4706	4706	4706	4706	4706	4643	4643	4521	4463	4463	4406	4406	4406	4463	4463	4521	4581	4581	4581	4643	4643	4706	4643	4771	4771	3277	3277	3277	3277	3277	3277	3277	3277	3246	3246	3216	3186	3216	3186	3186	3186	3186	3186	3186	3186	3186	3157	3129	3157	3157	3157	3157	3157	3186	3186	3186	3186	3186	3186	3186	3186	3186	3186	3186	3186	3186	3186	3157	3157	3157	3129	3129	3157	3157	3129	3129	3129	3157	3157	3186	3186	3186	3216	3216	3216	3216	3216	3186	3186	3186	4406	4406	4406	4406	4350	4350	4350	4350	4406	4406	4350	4350	4350	4406	4350	4350	4350	4350	4350	4406	4406	4406	4406	4406	4406	4463	4406	4406	4406	4463	4463	4463	4521	4581	4521	4521	4463	4463	4521	4521	4521	4521	4521	4581	4581	4581	4521	4521	4521	4521	4463	4406	4406	4406	4463	4406	4350	4350	4406	4350	4350	4350	4406	4406	4406	4463	4463	4521	4581	4581	4581	4581	4581	4581	4643	4643	4706	5050	5125	5125	5202	5202	5202	0	0	0	0	2478	2478	2460	2460	2460	2443	2426	2426	2426	2409	2376	2327	2312	2312	2297	2281	2266	2266	2252	2237	2223	2223	2208	2194	2153	2153	2140	2127	2127	2114	2114	2101	2088	2076	2076	2063	2051	2003	1992	1980	1969	1947	1936	1925	1915	1915	1904	1894	1894	1883	1863	1863	1843	1843	1824	1814	1814	1804	1795	1777	1768	1768	1759	1750	1750	1741	1741	1741	1732	1732	1732	1732	1219	1214	1214	1214	1210	1214	1210	1206	1202	1197	1197	1193	1189	1189	1189	1189	1193	1193	1193	1193	1193	1189	1189	1189	1189	1189	1189	1193	1193	1197	1197	1193	1581	1589	1581	1581	1574	1574	1574	1567	1567	1574	1574	1574	1574	1581	1581	1581	1567	1567	1574	1574	1574	1574	1567	1574	1574	1560	1560	0	0	0	1131	1127	1123	1123	1120	1116	1113	1113	1113	0	0	0	0	0	0	0	0	0	0	0	0	0	0	0	0	0	0	0	0	0	0	0	0	0	0	0	0	0	0	0	0	0	0	0	0	0	0	0	0	0	0
0	0	0	0	0	0	0	0	0	0	0	0	1560	1560	1560	1560	1560	1560	1560	1560	1560	1560	1560	1560	1560	1553	1553	1553	1546	1546	1546	1546	1553	1553	1553	1560	1560	1560	1560	1560	1560	1560	1560	1560	1553	1553	1546	1546	1553	1546	1553	1560	1560	1553	1553	1553	1553	1553	1553	1553	1560	1560	1560	1560	1560	1560	1560	1560	1560	1560	1567	1567	1567	1567	1567	1567	1560	1560	1560	1560	1560	1560	1567	1560	1560	1560	1567	1567	1560	1560	1560	1560	1567	1560	1567	1567	1567	1567	1567	1567	1567	1567	1567	1567	1567	1567	1567	1560	1560	1553	1560	1560	1553	1560	1560	1560	1567	1553	1567	1567	1567	1567	1574	1567	1567	1567	1560	1567	1567	1560	1567	1589	1603	1611	1618	1618	1626	1634	1634	1634	1649	1665	1673	1673	1681	1690	1698	1715	1723	1732	1732	1741	1777	1777	1795	1804	1814	1824	1833	1843	1853	1883	1883	1904	1925	1936	1936	1947	1969	2003	2027	2039	2051	2039	2051	2051	2063	2063	2088	2088	2101	2114	2127	2140	2167	2181	2208	2223	2237	2252	2252	2266	2281	2297	2312	2343	2359	2376	2392	2426	2443	2443	2443	2426	0	0	7608	7608	7779	7959	8146	8146	7959	7959	7779	7608	7608	7444	7444	7444	5626	5626	7779	0	0	0	0	0	0	0	0	0	0	7959	7959	7959	7959	8146	8146	8146	8146	8146	8146	7959	8146	8146	8146	8146	8146	8146	8146	8146	7959	8146	8146	4771	4706	4706	4706	4771	4771	4706	4706	4771	4706	4771	4771	4771	4771	4771	4771	4771	4706	4706	4706	4706	4706	4706	4706	4706	4706	4706	4643	4643	4581	4521	4463	4406	4406	4406	4406	4463	4463	4521	4521	4521	4581	4581	4581	4706	4706	4706	3309	3309	3309	3277	3277	3277	3277	3277	3277	3246	3216	3216	3186	3216	3216	3186	3186	3186	3186	3186	3186	3157	3157	3129	3129	3157	3157	3157	3157	3186	3186	3186	3186	3186	3186	3186	3186	3186	3186	3186	3186	3186	3157	3157	3157	3157	3129	3129	3129	3129	3129	3129	3129	3157	3157	3186	3186	3186	3216	3216	3216	3216	3246	3216	3216	4463	4406	4350	4350	4350	4350	4350	4350	4350	4350	4350	4350	4350	4350	4350	4350	4350	4406	4350	4406	4406	4350	4350	4406	4406	4406	4406	4406	4406	4406	4521	4521	4521	4521	4581	4521	4463	4463	4463	4463	4406	4463	4463	4521	4521	4521	4521	4521	4463	4463	4406	4406	4350	4350	4350	4406	4350	4350	4350	4350	4350	4350	4350	4350	4406	4581	4581	4581	4581	4581	4581	4581	4581	4581	4581	4643	4643	4706	5050	5050	5125	5125	5202	5202	0	0	0	0	2478	2478	2460	2460	2460	2443	2426	2426	2426	2392	2376	2327	2312	2312	2297	2297	2266	2266	2252	2237	2223	2223	2223	2181	2153	2153	2140	2140	2127	2127	2114	2101	2088	2088	2076	2063	2051	2003	1992	1969	1958	1936	1936	1925	1915	1904	1904	1894	1894	1883	1863	1853	1843	1824	1824	1824	1814	1814	1804	1777	1768	1759	1750	1750	1750	1741	1741	1741	1732	1732	1732	1732	1219	1214	1210	1210	1210	1210	1206	1202	1202	1197	1197	1193	1193	1189	1189	1189	1189	1193	1193	1193	1193	1189	1189	1189	1189	1189	1193	1193	1193	1197	1197	0	1581	1581	1581	1574	1567	1567	1567	1567	1574	1574	1574	1574	1581	1581	1581	1581	1567	1567	1574	1574	1574	1574	1574	1574	1574	1574	1574	0	0	0	1131	1127	1123	1123	1120	1116	1113	1113	1113	0	0	0	0	0	0	0	0	0	0	0	0	0	0	0	0	0	0	0	0	0	0	0	0	0	0	0	0	0	0	0	0	0	0	0	0	0	0	0	0	0	0
0	0	0	0	0	0	0	0	0	0	0	0	1560	1567	1567	1567	1567	1567	1560	1567	1560	1567	1560	1560	1560	1560	1553	1553	1553	1546	1546	1553	1553	1553	1560	1560	1560	1560	1560	1560	1567	1560	1560	1553	1553	1553	1546	1546	1553	1546	1553	1553	1553	1553	1553	1553	1553	1560	1560	1560	1560	1560	1560	1560	1560	1560	1560	1560	1560	1560	1560	1567	1567	1567	1567	1567	1560	1560	1560	1560	1560	1560	1567	1560	1560	1560	1567	1567	1560	1560	1560	1560	1567	1567	1567	1567	1567	1567	1567	1567	1567	1567	1567	1567	1567	1567	1560	1560	1560	1553	1560	1560	1553	1560	1560	1560	1567	1560	1560	1567	1567	1567	1574	1574	1567	1567	1567	1567	1567	1574	1574	1589	1603	1603	1611	1618	1626	1634	1634	1641	1657	1657	1673	1681	1681	1698	1706	1706	1723	1732	1741	1741	1759	1786	1795	1814	1824	1824	1833	1843	1853	1873	1873	1904	1925	1925	1936	1947	1958	2015	2039	2039	2051	2051	2051	2063	2063	2076	2088	2101	2101	2114	2127	2140	2167	2181	2223	2237	2237	2252	2252	2266	2281	2312	2327	2343	2359	2376	2392	2426	2409	2409	2409	0	0	0	7444	7608	7779	7959	7959	8146	7959	7959	0	0	0	0	5626	5626	5626	5535	5535	0	0	0	0	0	0	0	0	0	0	7959	8146	7959	8146	8146	8146	8146	7959	7959	7959	7959	8146	8146	8146	8146	8146	8343	8343	8146	7959	8146	8146	4771	4771	4771	4771	4771	4771	4771	4706	4771	4706	4771	4706	4706	4706	4771	4771	4771	4706	4706	4706	4706	4706	4706	4706	4706	4706	4706	4643	4581	4581	4463	4463	4406	4406	4350	4406	4463	4521	4521	4521	4521	4581	4521	4521	4771	4771	4706	3309	3309	3277	3277	3277	3277	3277	3277	3246	3246	3216	3216	3186	3216	3186	3186	3186	3157	3157	3157	3157	3157	3129	3129	3129	3129	3129	3157	3157	3186	3186	3186	3186	3186	3186	3186	3186	3186	3186	3186	3186	3157	3157	3157	3157	3129	3129	3129	3129	3129	3129	3129	3129	3157	3157	3157	3186	3186	3216	3216	3216	3216	3216	3216	4463	4463	4463	4406	4463	4406	4350	4350	4350	4350	4350	4350	4350	4350	4350	4350	4350	4350	4350	4406	4406	4406	4350	4350	4406	4406	4406	4406	4406	4406	4406	4463	4521	4521	4521	4581	4521	4521	4406	4406	4406	4406	4406	4406	4521	4521	4521	4521	4521	4521	4521	4406	4406	4350	4350	4350	4350	4296	4296	4296	4296	4350	4350	4350	4406	4406	4463	4463	4581	4581	4581	4581	4581	4581	4581	4581	4643	4706	4838	4977	5050	5050	5125	5125	5125	0	0	0	0	2496	2478	2460	2460	2443	2443	2426	2409	2409	2392	2376	2359	2312	2312	2312	2297	2266	2252	2252	2237	2237	2237	2223	2181	2167	2153	2140	2140	2127	2127	2114	2114	2088	2088	2076	2063	2051	2003	1992	1969	1958	1936	1936	1925	1915	1904	1904	1894	1894	1883	1863	1853	1843	1843	1824	1814	1814	1814	1804	1786	1768	1759	1750	1750	1750	1741	1741	1741	1732	1732	1732	0	1219	1214	1210	1210	1206	1210	1210	1206	1202	1197	1197	1193	1193	1189	1189	1189	1189	1189	1193	1193	1193	1189	1189	1189	1189	1189	1193	1193	1193	1193	1197	0	1581	1589	1581	1574	1574	1574	1574	1574	1581	1581	1581	1574	1581	1581	1581	1581	1567	1567	1574	1567	1574	1574	1567	1574	1574	1574	1574	0	0	0	1127	1123	1123	1120	1116	1116	1113	1113	1113	0	0	0	0	0	0	0	0	0	0	0	0	0	0	0	0	0	0	0	0	0	0	0	0	0	0	0	0	0	0	0	0	0	0	0	0	0	0	0	0	0	0
0	0	0	0	0	0	0	0	0	0	0	0	0	1567	1567	1567	1567	1567	1560	1560	1560	1560	1560	1560	1560	1553	1553	1553	1553	1546	1546	1553	1553	1560	1560	1560	1560	1560	1560	1560	1567	1560	1560	1560	1553	1553	1546	1546	1546	1546	1553	1553	1553	1553	1553	1553	1560	1560	1560	1560	1560	1553	1560	1560	1553	1553	1553	1553	1560	1560	1560	1567	1567	1567	1567	1560	1560	1560	1560	1560	1560	1560	1560	1560	1560	1560	1560	1560	1560	1560	1560	1560	1567	1560	1567	1567	1567	1567	1567	1567	1567	1574	1574	1574	1567	1567	1567	1560	1560	1560	1560	1560	1553	1560	1560	1560	1567	1560	1567	1567	1567	1567	1567	1567	1560	1560	1560	1567	1567	1574	1574	1589	1596	1596	1603	1611	1618	1618	1634	1641	1657	1657	1673	1681	1698	1698	1715	1715	1723	1732	1741	1741	1741	1777	1804	1804	1824	1833	1843	1853	1863	1873	1883	1904	1915	1925	1936	1947	1947	2076	2063	2063	2063	2051	2051	2076	2076	2076	2088	2088	2101	2114	2114	2127	2167	2181	2223	2223	2237	2252	2252	2266	2281	2297	2312	2343	2359	2376	2376	2392	2392	2392	2392	0	0	7444	7444	7608	7959	7959	8146	8146	8146	8146	0	0	5626	5626	5626	5626	5719	5626	5626	5626	5535	5535	5448	5364	5364	0	0	0	0	7959	8146	8146	8146	8146	8146	8146	8146	8146	8146	7959	8343	8146	8146	8146	8146	8146	8146	8146	7959	7959	8146	4771	4838	4771	4771	4771	4771	4771	4706	4706	4706	4706	4706	4706	4771	4771	4771	4771	4771	4706	4706	4771	4706	4706	4706	4706	4706	4643	4643	4643	4521	4463	4463	4406	4406	4406	4406	4463	4521	4521	4521	4521	4581	4521	4521	4521	4771	0	0	0	3277	3277	3277	3277	3246	3246	3246	3246	3216	3216	3186	3186	3186	3186	3157	3157	3157	3157	3157	3157	3129	3129	3129	3129	3129	3157	3157	3157	3186	3186	3186	3186	3186	3186	3186	3186	3186	3186	3157	3157	3157	3129	3157	3157	3129	3129	3129	3129	3129	3129	3129	3157	3157	3157	3186	3186	3216	3216	3216	3246	3341	3341	4521	4521	4463	4463	4521	4463	4463	4406	4350	4350	4350	4350	4350	4350	4350	4350	4350	4350	4350	4350	4406	4350	4350	4350	4406	4406	4406	4406	4406	4406	4463	4463	4521	4521	4581	4581	4581	4521	4521	4521	4463	4463	4463	4463	4521	4581	4581	4581	4581	4521	4521	4463	4406	4350	4350	4350	4350	4350	4296	4296	4350	4350	4350	4350	4406	4463	4463	4463	4521	4581	4581	4581	4581	4581	4581	4581	4643	4706	4906	4977	5050	5050	5125	5125	5125	0	0	0	0	2496	2478	2478	2460	2460	2443	2426	2426	2409	2392	2376	2359	2343	2327	2312	2297	2266	2252	2252	2237	2237	2237	2194	2181	2167	2153	2140	2140	2127	2127	2114	2114	2088	2088	2076	2063	2039	2015	1992	1980	1958	1936	1936	1925	1915	1904	1904	1894	1883	1883	1863	1863	1853	1833	1824	1824	1814	1804	1804	1777	1777	1768	1759	1750	1750	1741	1732	1741	1732	1732	1732	0	1219	1210	1210	1210	1206	1210	1210	1206	1202	1197	1197	1193	1193	1189	1189	1189	1189	1189	1193	1193	1189	1189	1189	1185	1189	1189	1193	1193	1197	1197	0	0	1589	1581	1581	1574	1574	1574	1574	1574	1581	1581	1581	1574	1581	1581	1581	1574	1574	1567	1574	1567	1574	1574	1574	1574	1567	1567	1567	0	0	0	1123	1120	1120	1120	1116	1113	1113	1113	1113	0	0	0	0	0	0	0	0	0	0	0	0	0	0	0	0	0	0	0	0	0	0	0	0	0	0	0	0	0	0	0	0	0	0	0	0	0	0	0	0	0	0
0	0	0	0	0	0	0	0	0	0	0	0	0	1567	1567	1567	1567	1567	1560	1560	1560	1560	1560	1560	1560	1553	1553	1553	1553	1553	1546	1553	1553	1553	1553	1553	1560	1560	1560	1560	1560	1560	1560	1553	1560	1553	1560	1553	1553	1546	1553	1553	1553	1553	1553	1553	1560	1560	1560	1560	1560	1553	1553	1553	1553	1546	1546	1546	1560	1560	1560	1560	1567	1567	1567	1560	1560	1560	1560	1560	1553	1553	1560	1553	1553	1553	1560	1560	1553	1560	1560	1560	1560	1560	1560	1567	1567	1567	1567	1567	1574	1574	1574	1574	1567	1567	1567	1567	1560	1560	1560	1560	1560	1567	1560	1567	1567	1567	1567	1567	1567	1567	1574	1574	1567	1567	1567	1567	1567	1567	1574	1574	1589	1596	1603	1611	1618	1626	1634	1641	1657	1665	1673	1698	1698	1706	1706	1715	1732	1732	1732	1741	1741	1777	1804	1804	1824	1833	1843	1853	1863	1873	1883	1904	1915	1925	1925	1936	1947	2076	2051	2063	2063	2051	2051	2076	2076	2076	2088	2101	2101	2114	2127	2140	2167	2194	2208	2223	2237	2252	2252	2266	2281	2297	2312	2327	2359	2359	2392	2392	2409	2426	2426	0	0	7444	7608	7959	7959	8146	8146	8146	8146	8146	0	0	5719	5719	5815	5719	5719	5719	5626	5626	5535	5535	5448	5448	5364	0	0	0	0	8146	8146	8146	8146	8146	8146	8146	8146	8146	8146	8146	8343	8146	8146	8146	8343	8343	8343	8146	7959	7959	8146	4771	4771	4838	4771	4771	4771	4771	4706	4706	4706	4706	4706	4706	4771	4771	4771	4771	4706	4771	4771	4771	4706	4706	4706	4706	4706	4706	4643	4643	4581	4521	4463	4463	4463	4406	4406	4521	4581	4581	4581	4643	4643	4581	4581	4581	0	0	0	0	3277	3277	3277	3277	3277	3246	3246	3246	3216	3216	3186	3186	3186	3186	3157	3157	3157	3157	3157	3157	3129	3129	3129	3129	3157	3157	3157	3157	3186	3186	3186	3186	3186	3186	3186	3186	3157	3157	3157	3157	3157	3129	3157	3157	3129	3129	3129	3129	3129	3157	3129	3157	3157	3157	3157	3186	3186	3216	3216	3246	3246	3341	4521	4521	4521	4521	4521	4521	4521	4463	4350	4350	4350	4350	4350	4350	4350	4350	4350	4406	4406	4350	4406	4406	4350	4406	4406	4406	4406	4406	4406	4406	4463	4463	4521	4521	4521	4581	4581	4581	4521	4521	4521	4463	4521	4521	4581	4581	4581	4581	4581	4581	4581	4521	4581	4581	4350	4350	4350	4350	4296	4296	4296	4350	4350	4350	4350	4406	4463	4463	4521	4581	4581	4581	4581	4581	4581	4643	4643	4706	4906	4977	5050	5125	5125	5202	5202	0	0	0	2496	2496	2478	2478	2460	2460	2443	2426	2426	2392	2376	2376	2359	2343	2327	2312	2297	2266	2252	2252	2237	2237	2237	2208	2181	2181	2153	2140	2140	2127	2127	2114	2114	2088	2088	2076	2063	2063	2039	2015	1980	1958	1936	1936	1925	1915	1904	1904	1894	1883	1883	1863	1853	1853	1833	1824	1814	1814	1804	1795	1777	1768	1768	1759	1750	1741	1732	1732	1732	1723	1723	0	0	0	1210	1210	1206	1206	1210	1210	1206	1202	1197	1197	1197	1193	1193	1193	1189	1193	1193	1193	1189	1189	1189	1185	1185	1185	1189	1189	1193	1193	1197	0	1603	1596	1581	1581	1574	1574	1574	1574	1574	1581	1581	1581	1581	1581	1581	1581	1574	1574	1567	1574	1574	1574	1574	1574	1574	1574	1574	1567	0	0	0	1120	1120	1120	1116	1113	1113	1109	1105	1105	0	0	0	0	0	0	0	0	0	0	0	0	0	0	0	0	0	0	0	0	0	0	0	0	0	0	0	0	0	0	0	0	0	0	0	0	0	0	0	0	0	0
0	0	0	0	0	0	0	0	0	0	0	0	0	1560	1567	1567	1567	1560	1553	1560	1560	1553	1553	1560	1553	1553	1553	1553	1553	1546	1546	1546	1553	1553	1553	1560	1560	1560	1560	1560	1567	1560	1560	1560	1560	1553	1560	1553	1553	1546	1553	1546	1553	1553	1553	1553	1553	1560	1560	1560	1560	1553	1560	1560	1553	1553	1553	1553	1560	1560	1560	1560	1567	1567	1567	1560	1560	1560	1560	1560	1553	1553	1553	1553	1553	1553	1553	1560	1553	1560	1560	1560	1567	1560	1560	1567	1567	1567	1567	1567	1567	1574	1574	1567	1567	1567	1560	1560	1560	1560	1560	1560	1560	1567	1560	1567	1560	1560	1560	1567	1567	1567	1567	1567	1567	1567	1567	1567	1574	1574	1574	1589	1596	1603	1603	1611	1618	1626	1634	1641	1657	1665	1673	1698	1698	1706	1723	1723	1732	1732	1732	1741	1741	1777	1795	1814	1824	1824	1843	1853	1853	1873	1883	1904	1915	1925	1925	1936	1947	2076	2063	2063	2063	2051	2051	2076	2076	2063	2088	2101	2114	2127	2140	2153	2167	2181	2208	2223	2237	2237	2252	2266	2281	2297	2312	2327	2359	2359	2376	2392	2409	2478	2496	2496	0	0	7608	7959	8146	8146	8146	8146	8146	0	0	5626	5719	5719	5719	5719	5719	5719	5719	5626	5535	5535	5535	5448	5448	0	0	0	0	7959	7959	8146	8146	8146	8146	8146	8146	8146	8146	7779	7959	8146	8146	8146	8343	8343	8343	8146	7959	7959	7959	4771	4771	4771	4771	4771	4706	4706	4706	4706	4706	4706	4706	4706	4706	4771	4771	4706	4706	4706	4706	4771	4706	4706	4706	4706	4706	4706	4643	4643	4581	4521	4463	4463	4463	4463	4463	4643	4643	4581	4581	4581	4581	4521	4521	4581	4463	4463	4463	0	3246	3246	3246	3246	3277	3277	3246	3246	3246	3216	3216	3186	3186	3186	3157	3129	3157	3157	3129	3129	3129	3129	3129	3129	3157	3157	3157	3157	3186	3186	3186	3186	3186	3186	3186	3186	3157	3157	3157	3129	3129	3129	3129	3129	3129	3129	3129	3129	3129	3129	3129	3129	3157	3157	3157	3157	3186	3186	3216	3246	3246	3341	4521	4521	4521	4521	4521	4463	4463	4350	4350	4350	4350	4350	4350	4350	4350	4350	4350	4350	4350	4350	4350	4406	4350	4350	4406	4406	4406	4406	4406	4406	4406	4463	4463	4521	4521	4581	4581	4581	4521	4521	4521	4521	4521	4581	4581	4581	4643	4581	4581	4581	4581	4581	4581	4581	4350	4350	4350	4296	4296	4296	4296	4296	4296	4296	4350	4406	4463	4463	4521	4581	4581	4581	4581	4581	4581	4643	4643	4706	4906	5050	5050	5125	5125	5125	5125	0	0	0	2514	2496	2478	2478	2460	2460	2443	2426	2409	2392	2376	2376	2359	2359	2343	2312	2297	2266	2252	2252	2237	2237	2208	2194	2194	2181	2153	2140	2140	2127	2127	2114	2101	2088	2088	2076	2063	2051	2039	2015	1992	1958	1936	1936	1925	1915	1904	1894	1894	1883	1883	1873	1863	1853	1843	1824	1814	1814	1804	1795	1777	1768	1768	1759	1750	1741	1741	1732	1732	1723	1723	0	0	0	1210	1210	1206	1206	1210	1210	1210	1206	1202	1197	1197	1197	1193	1193	1193	1189	1193	1193	1189	1189	1185	1185	1181	1181	1189	1189	1193	1193	0	0	1596	1589	1589	1581	1574	1574	1574	1574	1574	1581	1581	1581	1581	1581	1581	1581	1574	1574	1574	1574	1574	1574	1574	1574	1574	1567	1567	0	0	0	0	1120	1120	1116	1113	1113	1109	1109	1109	1109	0	0	0	0	0	0	0	0	0	0	0	0	0	0	0	0	0	0	0	0	0	0	0	0	0	0	0	0	0	0	0	0	0	0	0	0	0	0	0	0	0	0
0	0	0	0	0	0	0	0	0	0	0	0	0	1560	1560	1567	1567	1560	1553	1560	1560	1560	1560	1560	1553	1553	1553	1553	1553	1546	1546	1546	1546	1553	1553	1553	1560	1560	1560	1560	1560	1560	1560	1560	1560	1560	1560	1553	1546	1546	1546	1546	1546	1553	1560	1560	1567	1567	1567	1567	1567	1560	1560	1560	1553	1553	1553	1553	1546	1553	1546	1553	1560	1560	1567	1560	1560	1553	1560	1560	1553	1546	1553	1546	1553	1553	1553	1553	1553	1553	1560	1560	1560	1560	1560	1567	1567	1567	1567	1567	1567	1574	1574	1574	1567	1567	1567	1567	1567	1567	1560	1567	1567	1567	1560	1567	1560	1560	1560	1567	1560	1567	1567	1574	1567	1567	1567	1567	1567	1567	1574	1589	1589	1603	1603	1611	1618	1618	1634	1641	1665	1665	1673	1698	1706	1715	1723	1723	1732	1732	1732	1741	1741	1777	1795	1814	1824	1833	1843	1853	1863	1873	1883	1904	1915	1915	1925	1936	2027	2076	2063	2063	2063	2063	2063	2076	2076	2063	2076	2088	2114	2127	2127	2140	2153	2167	2167	2223	2237	2252	2266	2266	2281	2297	2312	2327	2359	2376	2426	2409	2426	2460	2478	2478	0	0	0	7959	8146	8146	8146	8146	8146	0	0	5626	5719	5719	5719	5719	5719	5815	5815	5719	5626	5535	5535	5535	5535	0	0	0	0	7959	7959	8146	8146	8146	8146	8146	7959	7959	7959	7779	8146	8146	8146	8343	8343	8343	8343	8343	7959	7959	4771	4771	4771	4771	4771	4771	4706	4706	4706	4706	4706	4706	4706	4706	4706	4706	4706	4706	4706	4706	4706	4771	4706	4706	4706	4706	4706	4706	4643	4643	4581	4521	4521	4463	4521	4521	4521	4643	4643	4581	4581	4521	4521	4463	4463	4463	4463	4463	4463	0	3246	3277	3277	3277	3277	3277	3277	3246	3216	3216	3216	3216	3186	3186	3157	3129	3129	3129	3129	3129	3129	3129	3129	3129	3157	3157	3157	3157	3186	3186	3186	3186	3186	3186	3186	3186	3157	3157	3157	3157	3129	3129	3157	3157	3129	3129	3129	3101	3101	3101	3101	3101	3129	3129	3129	3157	3186	3186	3216	3216	3216	0	4521	4521	4521	4521	4463	4406	4406	4350	4296	4350	4296	4350	4350	4350	4350	4350	4350	4350	4350	4350	4350	4350	4350	4350	4406	4406	4406	4406	4406	4406	4406	4406	4463	4521	4521	4521	4581	4581	4521	4521	4521	4521	4521	4581	4581	4643	4643	4581	4581	4581	4581	4581	4581	4581	0	4350	4350	4296	4296	4296	4296	4296	4296	4296	4350	4406	4406	4463	4521	4581	4581	4581	4581	4581	4581	4643	4706	4838	5050	5050	5050	5125	5125	5125	5125	0	0	0	2514	2496	2478	2478	2460	2443	2443	2426	2392	2392	2376	2376	2359	2359	2343	2343	2297	2252	2252	2252	2237	2237	2208	2194	2181	2181	2140	2140	2140	2127	2127	2114	2101	2088	2076	2076	2063	2051	2039	2027	1992	1958	1947	1936	1925	1915	1904	1894	1894	1894	1883	1873	1863	1853	1843	1824	1814	1814	1804	1795	1777	1777	1768	1759	1750	1741	1741	1741	1732	1732	1723	1723	0	0	0	1206	1206	1206	1210	1210	1210	1206	1202	1202	1197	1197	1193	1193	1193	1193	1189	1193	1189	1189	1185	1185	1181	1181	1189	1185	1193	1193	0	0	1589	1589	1574	1574	1574	1574	1574	1574	1574	1574	1581	1574	1574	1581	1574	1581	1574	1567	1567	1574	1574	1574	1574	1567	1567	1560	1560	0	0	0	0	1120	1116	1113	1113	1109	1109	1109	1105	1105	0	0	0	0	0	0	0	0	0	0	0	0	0	0	0	0	0	0	0	0	0	0	0	0	0	0	0	0	0	0	0	0	0	0	0	0	0	0	0	0	0	0
0	0	0	0	0	0	0	0	0	0	0	0	0	1560	1560	1567	1560	1567	1560	1560	1560	1560	1560	1560	1553	1553	1553	1546	1546	1546	1546	1546	1546	1553	1553	1553	1560	1560	1560	1560	1560	1560	1560	1560	1560	1560	1560	1560	1560	1553	1553	1553	1560	1560	1560	1560	1567	1567	1567	1560	1560	1560	1553	1560	1553	1553	1546	1546	1546	1553	1546	1553	1553	1560	1560	1553	1553	1553	1553	1553	1546	1546	1553	1546	1553	1553	1560	1560	1553	1560	1567	1567	1567	1567	1560	1567	1567	1567	1567	1567	1574	1574	1574	1574	1567	1567	1567	1567	1567	1567	1560	1567	1567	1567	1567	1567	1560	1567	1567	1567	1567	1567	1567	1574	1567	1560	1567	1560	1567	1567	1574	1581	1589	1596	1603	1611	1618	1626	1634	1649	1665	1665	1681	1690	1706	1706	1723	1723	1732	1732	1741	1741	1750	1768	1786	1804	1824	1833	1843	1853	1863	1873	1883	1904	1904	1915	1904	1915	2039	2039	2076	2063	2063	2063	2063	2076	2076	2063	2076	2076	2088	2088	2140	2153	2153	2167	2181	2223	2237	2252	2266	2266	2281	2297	2312	2327	2359	2359	2426	2443	2460	2460	2478	2478	0	0	0	7959	8146	8146	8146	8146	8146	0	5535	5535	5626	5719	5719	5719	5719	5719	5815	5719	5626	5535	5535	5535	5535	0	0	0	7959	7959	7959	8146	8146	7959	8146	8146	7959	7959	7959	7959	8146	8146	8343	8343	8343	8343	8343	8343	8146	8146	4706	4771	4771	4771	4771	4771	4771	4706	4706	4706	4706	4706	4706	4706	4706	4706	4706	4706	4706	4706	4706	4706	4706	4706	4706	4706	4706	4706	4706	4706	4643	4581	4581	4521	4521	4521	4521	4643	4581	4581	4521	4521	4521	4463	4463	4521	4521	4521	4521	0	3246	3277	3246	3277	3277	3277	3277	3246	3246	3216	3216	3216	3186	3186	3157	3129	3129	3129	3129	3129	3129	3129	3129	3129	3129	3157	3157	3186	3186	3186	3186	3186	3186	3186	3157	3157	3157	3157	3157	3129	3157	3129	3129	3129	3129	3101	3101	3129	3129	3101	3101	3101	3129	3129	3129	3157	3186	3186	3216	3216	3216	0	4521	4521	4521	4463	4463	4406	4350	4350	4296	4296	4296	4350	4350	4350	4350	4350	4350	4350	4350	4350	4350	4350	4350	4350	4406	4406	4406	4406	4406	4406	4406	4406	4463	4463	4463	4463	4521	4521	4521	4521	4521	4521	4581	4581	4581	4581	4643	4581	4581	4581	4581	4581	4581	4581	4350	4350	4350	4296	4296	4296	4296	4296	4296	4296	4350	4406	4406	4406	4521	4521	4581	4581	4581	4581	4581	4581	4643	4706	5050	5050	5050	5050	5125	5125	5125	0	0	0	2514	2496	2496	2478	2478	2460	2443	2426	2409	2392	2376	2376	2376	2359	2359	2343	2327	2252	2237	2237	2237	2223	2208	2208	2194	2181	2153	2140	2140	2127	2127	2114	2101	2088	2076	2076	2063	2063	2039	2015	1980	1958	1947	1936	1936	1925	1915	1904	1894	1894	1883	1873	1863	1853	1853	1824	1814	1814	1804	1795	1786	1777	1777	1759	1750	1741	1732	1732	1732	1723	1715	1715	0	0	0	1206	1206	1206	1210	1210	1206	1206	1202	1202	1197	1197	1193	1193	1193	1193	1189	1189	1189	1185	1185	1181	1181	1181	1181	1181	1193	1193	0	0	1574	1581	1581	1581	1574	1574	1574	1574	1574	1574	1581	1581	1581	1581	1574	1581	1574	1567	1567	1567	1567	1574	1574	1574	1567	1567	1560	0	0	0	0	1113	1113	1113	1109	1109	1109	1109	1105	1105	0	0	0	0	0	0	0	0	0	0	0	0	0	0	0	0	0	0	0	0	0	0	0	0	0	0	0	0	0	0	0	0	0	0	0	0	0	0	0	0	0	0
0	0	0	0	0	0	0	0	0	0	0	0	0	1553	1560	1560	1560	1560	1560	1560	1560	1560	1560	1560	1553	1553	1546	1546	1546	1546	1546	1546	1546	1546	1546	1553	1553	1553	1553	1560	1553	1553	1553	1553	1560	1560	1560	1560	1560	1553	1553	1553	1553	1560	1560	1560	1560	1567	1567	1560	1560	1553	1553	1553	1553	1553	1553	1546	1553	1553	1546	1553	1553	1553	1560	1553	1553	1553	1560	1560	1553	1553	1553	1553	1553	1553	1560	1560	1560	1567	1567	1574	1574	1567	1567	1574	1574	1567	1567	1567	1574	1574	1574	1567	1567	1560	1560	1567	1560	1560	1560	1567	1567	1567	1567	1567	1567	1574	1567	1567	1567	1567	1567	1574	1574	1567	1567	1567	1567	1567	1574	1574	1581	1596	1603	1611	1618	1626	1641	1657	1665	1673	1681	1698	1706	1706	1723	1723	1732	1732	1741	1750	1750	1768	1786	1804	1814	1824	1843	1853	1863	1873	1883	1894	1904	1904	1904	1925	2039	2063	2063	2063	2051	2051	2039	2039	2063	2063	2076	2088	2088	2127	2140	2153	2167	2181	2194	2208	2237	2252	2266	2281	2281	2297	2312	2327	2343	2392	2426	2409	2426	2443	2443	2478	0	0	7959	8146	8146	8146	8146	8146	8146	0	5626	5535	5626	5626	5626	5626	5626	5719	5719	5626	5626	5535	5535	5535	5535	5535	0	7779	7959	7959	7959	8146	8146	7959	7959	7959	7959	7959	7959	7959	8146	8343	8343	8343	8343	8343	8343	8343	8146	8146	4706	4771	4771	4771	4771	4771	4706	4706	4706	4706	4706	4706	4706	4706	4706	4706	4706	4706	4706	4706	4706	4706	4706	4706	4706	4706	4706	4706	4706	4706	4706	4581	4581	4521	4521	4581	4581	4581	4581	4521	4521	4521	4521	4463	4463	4463	4463	4463	4463	3186	3246	3246	3246	3246	3246	3246	3246	3246	3246	3216	3186	3216	3157	3157	3157	3129	3129	3129	3129	3129	3129	3129	3129	3129	3157	3157	3157	3186	3186	3186	3186	3186	3186	3186	3157	3157	3157	3157	3157	3129	3129	3129	3129	3129	3129	3129	3101	3101	3101	3101	3101	3101	3129	3129	3129	3129	3157	3186	3186	3216	3216	0	4521	4463	4463	4463	4463	4350	4350	4350	4296	4350	4350	4350	4350	4350	4350	4350	4350	4350	4350	4350	4350	4350	4350	4350	4406	4406	4406	4406	4406	4406	4406	4406	4406	4406	4521	4463	4521	4521	4581	4581	4581	4581	4581	4581	4581	4581	4643	4643	4643	4643	4643	4581	4581	4581	4350	4350	4296	4296	4296	4296	4296	4296	4296	4243	4192	4350	4350	4406	4463	4521	4521	4581	4581	4581	4581	4581	4643	4706	4977	4977	4977	5050	5050	5125	5125	0	0	0	0	2496	2496	2478	2478	2460	2460	2426	2409	2392	2376	2376	2376	2359	2359	2343	2327	2252	2237	2237	2237	2223	2223	2223	2208	2181	2140	2140	2140	2127	2114	2114	2101	2088	2088	2076	2063	2063	2027	2003	1980	1969	1958	1947	1936	1925	1915	1904	1894	1894	1883	1883	1863	1853	1853	1824	1814	1804	1804	1795	1786	1777	1768	1759	1750	1741	1732	1732	1732	1723	1715	1715	0	0	0	1206	1202	1206	1210	1206	1206	1206	1202	1202	1197	1197	1193	1193	1193	1193	1189	1189	1189	1185	1185	1181	1181	1181	1185	1185	1189	1189	0	0	1581	1574	1574	1581	1574	1567	1574	1574	1574	1574	1574	1574	1574	1581	1574	1574	1574	1567	1567	1574	1567	1567	1567	1567	1567	1567	0	0	0	0	1113	1113	1109	1109	1109	1105	1105	1105	1105	1105	0	0	0	0	0	0	0	0	0	0	0	0	0	0	0	0	0	0	0	0	0	0	0	0	0	0	0	0	0	0	0	0	0	0	0	0	0	0	0	0	0	0
0	0	0	0	0	0	0	0	0	0	0	0	0	1560	1560	1560	1560	1560	1560	1560	1560	1560	1553	1553	1553	1546	1546	1546	1546	1546	1546	1546	1546	1546	1546	1546	1546	1553	1560	1560	1553	1553	1553	1553	1560	1553	1560	1560	1560	1553	1553	1546	1546	1560	1560	1560	1560	1567	1567	1560	1560	1560	1553	1553	1553	1553	1553	1546	1553	1553	1553	1553	1553	1553	1560	1560	1560	1560	1560	1560	1553	1560	1553	1553	1553	1553	1560	1560	1560	1567	1567	1574	1574	1567	1567	1574	1574	1574	1567	1567	1567	1567	1567	1567	1560	1560	1567	1560	1560	1560	1560	1560	1567	1567	1567	1567	1567	1567	1567	1567	1567	1567	1567	1574	1567	1567	1567	1560	1567	1574	1574	1574	1581	1596	1603	1611	1618	1634	1641	1649	1657	1673	1681	1698	1706	1706	1723	1723	1732	1732	1741	1750	1759	1768	1786	1804	1814	1824	1833	1853	1863	1873	1883	1904	1904	1904	1915	1936	2039	2039	2051	2051	2051	2051	2039	2051	2051	2039	2063	2076	2101	2127	2140	2153	2181	2194	2208	2223	2223	2252	2252	2281	2281	2297	2327	2343	2343	2392	2426	2409	2426	2443	2443	0	0	0	8146	8146	8146	8146	7959	7959	7959	0	5626	5535	5719	5719	5626	5626	5626	5719	5719	5626	5626	5535	5535	5535	5535	5626	5626	7779	7779	7779	7779	7959	7959	7959	7959	7959	7959	7959	8146	7959	8343	8343	8343	8343	8343	8343	8343	8343	8146	8146	8146	4706	4706	4771	4771	4771	4706	4706	4706	4706	4706	4706	4706	4706	4706	4706	4706	4706	4706	4706	4706	4706	4706	4706	4706	4706	4771	4706	4706	4706	4643	4581	4581	4521	4521	4521	4521	4581	4521	4521	4521	4521	4463	4463	4463	4463	4463	4406	3216	3216	3246	3246	3246	3277	3246	3246	3246	3246	3246	3216	3216	3216	3186	3186	3186	3157	3157	3157	3157	3157	3157	3129	3129	3157	3157	3157	3186	3186	3186	3186	3186	3186	3186	3157	3157	3157	3157	3157	3157	3157	3157	3157	3129	3157	3129	3129	3101	3101	3101	3101	3101	3101	3129	3129	3129	3157	3157	3186	3186	3216	3216	3216	4521	4463	4463	4406	4406	4350	4350	4296	4296	4350	4350	4350	4350	4350	4350	4350	4350	4350	4350	4350	4350	4350	4350	4350	4406	4406	4350	4350	4406	4406	4406	4406	4406	4463	4463	4463	4521	4521	4521	4581	4581	4581	4581	4581	4581	4643	4643	4643	4643	4643	4643	4643	4581	4581	4406	4350	4296	4296	4296	4296	4243	4243	4192	4192	4192	4296	4350	4350	4463	4521	4521	4581	4581	4581	4581	4581	4643	4706	4706	4977	5050	5125	5125	5125	5202	5202	0	0	0	2496	2496	2478	2478	2460	2460	2426	2409	2392	2376	2376	2359	2359	2343	2343	2312	2281	2237	2237	2237	2223	2223	2223	2194	2181	2153	2140	2127	2127	2114	2114	2101	2088	2076	2076	2063	2063	2027	2003	1992	1980	1958	1947	1936	1925	1915	1904	1894	1894	1883	1883	1863	1853	1853	1824	1814	1804	1795	1795	1786	1777	1768	1759	1750	1741	1732	1732	1732	1723	1715	1715	0	0	0	0	1202	1202	1206	1202	1202	1202	1202	1197	1197	1197	1193	1193	1193	1193	1189	1189	1189	1185	1185	1181	1181	1181	1181	1181	1189	1189	0	0	1581	1574	1574	1574	1574	1574	1574	1574	1574	1574	1574	1574	1574	1574	1574	1574	1567	1567	1567	1567	1567	1567	1567	1567	1567	0	0	0	1116	1113	1113	1113	1109	1109	1105	1105	1105	1105	1102	1102	0	0	0	0	0	0	0	0	0	0	0	0	0	0	0	0	0	0	0	0	0	0	0	0	0	0	0	0	0	0	0	0	0	0	0	0	0	0	0	0	0	0
0	0	0	0	0	0	0	0	0	0	0	0	0	1553	1553	1560	1560	1560	1553	1560	1560	1553	1553	1553	1553	1546	1546	1546	1546	1546	1546	1546	1546	1546	1546	1553	1553	1553	1560	1553	1553	1553	1553	1553	1553	1553	1553	1560	1560	1553	1553	1546	1546	1553	1553	1560	1560	1560	1560	1560	1560	1553	1553	1553	1553	1560	1553	1546	1546	1553	1553	1553	1553	1553	1560	1560	1560	1560	1560	1560	1553	1560	1560	1553	1553	1560	1560	1567	1560	1567	1567	1574	1574	1567	1567	1567	1567	1567	1567	1560	1567	1567	1567	1560	1560	1560	1560	1560	1560	1567	1560	1560	1567	1567	1574	1567	1567	1567	1567	1567	1567	1567	1567	1574	1574	1574	1574	1567	1567	1574	1574	1581	1581	1596	1611	1618	1618	1634	1641	1649	1657	1673	1681	1698	1706	1715	1723	1723	1732	1732	1741	1750	1750	1768	1777	1804	1814	1824	1843	1853	1863	1883	1883	1883	1904	1915	1915	1936	2039	2039	2039	2051	2051	2051	2039	2051	2051	2051	2051	2076	2101	2127	2140	2153	2181	2181	2194	2208	2223	2237	2252	2281	2297	2312	2327	2343	2359	2392	2426	2426	2426	2426	2426	2426	0	0	8146	8146	8146	8146	8146	7959	7959	5535	5535	5535	5626	5626	5626	5626	5626	5626	5626	5626	5626	5535	5535	5535	5535	5626	5626	5626	7959	7779	7779	7959	7959	7959	7959	7959	7959	7959	8146	7959	8343	8343	8343	8343	8343	8343	8343	8343	8343	8343	4706	4706	4706	4771	4771	4771	4706	4706	4706	4706	4706	4706	4706	4706	4706	4706	4706	4771	4706	4706	4706	4706	4706	4706	4706	4706	4706	4706	4706	4706	4643	4643	4706	4643	4521	4521	4581	4581	4521	4521	4521	4463	4463	4463	4463	4463	4463	4406	3216	3216	3246	3246	3246	3246	3277	3277	3277	3246	3246	3216	3186	3186	3186	3186	3186	3186	3186	3157	3186	3157	3157	3157	3157	3157	3157	3157	3186	3186	3186	3186	3157	3157	3157	3157	3157	3157	3157	3157	3157	3129	3129	3129	3129	3157	3129	3101	3101	3101	3101	3101	3101	3101	3129	3129	3129	3157	3157	3186	3186	3216	3216	3216	0	4521	4406	4406	4406	4350	4350	4296	4296	4350	4350	4350	4350	4350	4296	4296	4350	4350	4296	4350	4350	4350	4350	4296	4406	4406	4350	4406	4406	4406	4406	4406	4406	4463	4463	4463	4521	4521	4581	4581	4581	4581	4581	4581	4581	4581	4643	4643	4643	4581	4643	4581	4581	4521	4406	4350	4296	4296	4296	4243	4243	4243	4243	4243	4192	4243	4296	4406	4463	4463	4521	4521	4521	4521	4581	4581	4643	4706	4771	5050	5050	5050	5125	5125	5125	5125	0	0	0	2496	2496	2478	2478	2460	2443	2426	2409	2392	2376	2376	2359	2359	2343	2343	2297	2266	2252	2252	2237	2237	2237	2223	2194	2167	2140	2140	2127	2127	2114	2101	2088	2088	2076	2076	2063	2051	2027	2003	1992	1980	1958	1958	1936	1936	1915	1904	1904	1894	1883	1883	1863	1853	1843	1824	1814	1804	1804	1795	1786	1768	1768	1750	1750	1741	1732	1732	1723	1723	1715	1715	0	0	0	0	0	1206	1206	1206	1202	1197	1202	1197	1197	1197	1193	1193	1193	1193	1193	1189	1189	1189	1185	1181	1181	1181	1181	1185	1185	1185	0	0	1567	1567	1567	1574	1574	1567	1567	1567	1567	1574	1574	1567	1574	1574	1567	1574	1567	1567	1567	1567	1560	1560	1560	1567	0	0	0	1120	1120	1116	1116	1113	1109	1109	1105	1105	1105	1105	1102	1102	0	0	0	0	0	0	0	0	0	0	0	0	0	0	0	0	0	0	0	0	0	0	0	0	0	0	0	0	0	0	0	0	0	0	0	0	0	0	0	0	0	0
0	0	0	0	0	0	0	0	0	0	0	0	0	1553	1553	1560	1560	1560	1553	1560	1560	1553	1553	1553	1546	1546	1546	1546	1546	1546	1546	1539	1546	1546	1546	1553	1553	1560	1560	1560	1553	1553	1553	1553	1553	1553	1553	1553	1560	1553	1546	1553	1553	1560	1560	1560	1560	1560	1567	1560	1560	1553	1553	1553	1553	1560	1553	1553	1553	1553	1553	1553	1553	1553	1553	1560	1560	1560	1560	1560	1553	1560	1560	1553	1560	1560	1567	1567	1560	1567	1560	1574	1574	1567	1567	1567	1567	1567	1567	1560	1567	1567	1560	1560	1560	1560	1560	1553	1553	1560	1553	1553	1560	1567	1574	1567	1567	1567	1574	1567	1567	1567	1567	1574	1574	1574	1574	1567	1567	1574	1574	1574	1589	1596	1611	1618	1626	1634	1641	1649	1657	1673	1681	1698	1706	1715	1723	1723	1732	1732	1741	1750	1759	1777	1786	1804	1814	1824	1824	1843	1863	1883	1883	1904	1915	1925	1925	1947	2027	2027	2039	2039	2051	2051	2051	2051	2051	2051	2051	2076	2088	2127	2140	2153	2181	2181	2194	2208	2223	2237	2252	2281	2297	2327	2343	2343	2359	2392	2409	2426	2409	2443	2443	2443	0	0	0	8146	8146	8146	8146	7959	7959	5626	5626	5626	5626	5719	5719	5626	5626	5626	5626	5626	5626	5535	5626	5626	5626	5626	5626	7959	7959	7959	7959	7959	7959	7959	7959	7959	7959	8146	8146	7959	8343	8343	8343	8343	8343	8343	8343	8343	8146	8146	8343	4706	4706	4771	4771	4771	4706	4706	4706	4706	4706	4706	4706	4771	4771	4771	4771	4771	4706	4706	4706	4706	4706	4706	4706	4706	4706	4706	4706	4706	4706	4643	4706	4643	4521	4521	4521	4521	4521	4521	4463	4463	4463	4463	4463	4463	4463	4463	3216	3216	3246	3246	3246	3246	3277	3277	3277	3246	3216	3216	3186	3216	3216	3216	3216	3216	3186	3186	3216	3186	3186	3186	3186	3186	3186	3186	3186	3186	3186	3186	3157	3157	3157	3157	3157	3157	3157	3157	3157	3129	3129	3129	3129	3157	3129	3101	3101	3101	3101	3101	3101	3101	3101	3101	3129	3157	3157	3186	3186	3186	3216	3216	3216	4350	4350	4350	4350	4350	4350	4296	4296	4350	4350	4350	4350	4350	4296	4296	4296	4296	4296	4350	4350	4350	4350	4350	4406	4406	4350	4406	4406	4406	4463	4463	4406	4463	4463	4463	4521	4521	4521	4581	4581	4581	4581	4581	4581	4581	4581	4643	4643	4581	4643	4581	4581	4521	4406	4350	4296	4296	4296	4243	4243	4243	4243	4243	4243	4243	4296	4406	4463	4463	4521	4581	4581	4581	4581	4581	4643	4706	4838	4977	5050	5050	5050	5050	5050	5050	0	0	0	2496	2496	2478	2478	2460	2460	2426	2409	2392	2392	2376	2359	2359	2343	2343	2297	2281	2252	2252	2237	2237	2237	2223	2194	2167	2140	2140	2127	2127	2114	2101	2088	2088	2076	2076	2063	2039	2015	2003	1992	1980	1958	1958	1936	1936	1925	1904	1894	1894	1883	1873	1863	1853	1833	1824	1814	1804	1804	1795	1786	1777	1759	1750	1750	1741	1741	1732	1723	1715	1715	1715	0	0	0	0	0	1206	1206	1206	1202	1197	1197	1197	1197	1193	1193	1193	1193	1193	1189	1189	1189	1189	1185	1185	1181	1181	1181	1185	1189	1189	0	0	1567	1567	1567	1574	1574	1567	1567	1567	1567	1567	1567	1567	1567	1567	1567	1567	1567	1567	1560	1560	1560	1560	1560	0	0	0	0	1120	1120	1109	1109	1105	1105	1105	1105	1105	1102	1102	1102	1102	0	0	0	0	0	0	0	0	0	0	0	0	0	0	0	0	0	0	0	0	0	0	0	0	0	0	0	0	0	0	0	0	0	0	0	0	0	0	0	0	0	0
0	0	0	0	0	0	0	0	0	0	0	0	0	1553	1553	1560	1560	1553	1553	1553	1553	1553	1546	1546	1546	1546	1546	1546	1546	1546	1546	1546	1546	1546	1546	1553	1553	1553	1560	1560	1553	1553	1553	1553	1553	1553	1553	1553	1553	1553	1553	1546	1546	1553	1553	1560	1560	1560	1560	1560	1560	1553	1553	1553	1553	1560	1560	1560	1560	1560	1553	1553	1553	1553	1553	1553	1553	1560	1560	1560	1553	1560	1560	1553	1553	1560	1560	1567	1574	1574	1574	1574	1574	1567	1567	1567	1567	1567	1567	1567	1567	1567	1560	1560	1560	1560	1560	1553	1553	1560	1553	1553	1560	1567	1567	1567	1567	1567	1567	1567	1560	1567	1567	1567	1574	1574	1574	1567	1567	1574	1574	1581	1589	1596	1611	1626	1626	1634	1641	1649	1657	1673	1673	1690	1698	1715	1723	1732	1732	1732	1750	1750	1750	1777	1786	1804	1814	1824	1833	1843	1863	1873	1894	1915	1915	1925	1936	1936	2039	2027	2039	2039	2039	2039	2039	2051	2063	2051	2063	2076	2088	2127	2140	2153	2167	2181	2208	2208	2223	2237	2252	2281	2297	2312	2343	2343	2359	2376	2426	2443	2409	2443	2443	2443	0	0	7959	7959	7959	8146	7959	7959	7959	7959	5626	5626	5626	5626	5626	5626	5626	5626	5626	5626	5535	5535	5535	5626	5626	5626	5626	8146	7959	7959	7959	7959	7959	7959	7959	7959	8146	8146	8146	8146	8343	8343	8343	8343	8343	8343	8343	8146	8146	8146	8146	4771	4771	4771	4771	4771	4771	4706	4706	4706	4706	4771	4771	4771	4771	4771	4771	4771	4771	4706	4706	4706	4706	4706	4706	4706	4706	4706	4706	4643	4581	4521	4521	4521	4463	4521	4521	4521	4521	4463	4463	4463	4463	4463	4463	4406	4406	4406	3246	3246	3246	3246	3246	3246	3246	3246	3246	3246	3216	3216	3186	3216	3216	3216	3216	3216	3216	3216	3216	3216	3186	3186	3186	3186	3186	3216	3186	3186	3186	3186	3186	3157	3157	3157	3157	3157	3157	3157	3157	3157	3129	3157	3157	3157	3157	3157	3129	3129	3129	3101	3129	3101	3129	3129	3129	3157	3157	3186	3186	3186	3216	3216	3216	3216	4406	4350	4350	4350	4350	4350	4296	4350	4350	4350	4350	4350	4296	4350	4296	4296	4296	4350	4350	4350	4350	4350	4406	4406	4406	4406	4406	4463	4463	4406	4406	4406	4463	4463	4463	4521	4521	4521	4581	4581	4581	4581	4581	4581	4581	4643	4581	4581	4581	4581	4581	4521	4406	4350	4296	4296	4296	4296	4296	4243	4243	4243	4243	4243	4296	4406	4521	4521	4581	4581	4581	4581	4581	4581	4643	4706	4771	4977	5050	5050	5125	5125	5050	5050	0	0	0	2496	2496	2496	2478	2460	2443	2426	2409	2409	2392	2376	2359	2359	2343	2327	2297	2281	2252	2252	2237	2223	2223	2208	2194	2167	2153	2140	2127	2114	2114	2088	2088	2076	2076	2076	2063	2039	2015	2003	1992	1980	1958	1958	1936	1936	1915	1904	1904	1894	1883	1873	1863	1853	1833	1824	1814	1804	1804	1795	1786	1777	1759	1750	1750	1741	1732	1732	1723	1715	1715	1715	0	0	0	0	0	1206	1206	1206	1197	1197	1197	1197	1197	1193	1193	1193	1193	1193	1193	1189	1189	1189	1189	1185	1181	1181	1185	1189	1189	1193	1206	1206	1567	1567	1574	1574	1574	1567	1567	1567	1567	1567	1567	1567	1567	1567	1567	1567	1567	1560	1560	1553	1553	0	0	0	0	0	1120	1116	1116	1109	1109	1109	1105	1105	1105	1105	1102	1102	1102	1102	0	0	0	0	0	0	0	0	0	0	0	0	0	0	0	0	0	0	0	0	0	0	0	0	0	0	0	0	0	0	0	0	0	0	0	0	0	0	0	0	0	0
0	0	0	0	0	0	0	0	0	0	0	0	0	1553	1553	1553	1553	1553	1553	1553	1553	1553	1553	1546	1546	1546	1546	1546	1546	1546	1546	1546	1546	1546	1553	1553	1553	1553	1560	1560	1553	1546	1546	1546	1546	1553	1546	1553	1553	1553	1553	1546	1546	1553	1553	1553	1553	1560	1560	1560	1553	1553	1546	1553	1546	1553	1553	1553	1553	1553	1553	1553	1546	1553	1546	1553	1553	1560	1553	1553	1553	1553	1553	1560	1553	1560	1567	1574	1574	1567	1574	1574	1567	1567	1567	1567	1567	1560	1567	1567	1567	1567	1567	1560	1560	1560	1560	1553	1553	1553	1553	1553	1560	1567	1567	1567	1560	1567	1560	1560	1560	1560	1560	1567	1574	1567	1574	1574	1567	1574	1574	1581	1603	1611	1626	1626	1634	1634	1641	1657	1657	1673	1673	1681	1698	1706	1723	1723	1741	1741	1759	1759	1768	1777	1786	1804	1814	1824	1833	1843	1863	1873	1894	1915	1915	1925	1936	1936	2015	2039	2027	2051	2051	2051	2039	2051	2051	2051	2063	2076	2088	2114	2140	2140	2167	2181	2194	2208	2223	2237	2252	2281	2297	2312	2343	2343	2359	2376	2426	2443	2409	2460	2460	0	0	0	7959	7959	8146	8146	7959	7959	7959	7959	5626	5626	5626	5626	5626	5626	5626	5626	5626	5626	5626	5535	5626	5626	5626	5626	8146	7959	7959	7959	7959	7959	7959	7959	7959	7959	8146	8146	8146	8146	8343	8343	8343	8343	8343	8343	8343	8146	8146	8146	7959	4771	4771	4771	4771	4771	4706	4706	4706	4706	4706	4771	4771	4771	4771	4771	4771	4771	4771	4771	4771	4771	4771	4771	4706	4706	4706	4706	4706	4643	4581	4521	4521	4463	4463	4463	4521	4521	4521	4463	4463	4463	4463	4463	4406	4406	4406	4296	3246	3246	3277	3246	3246	3246	3277	3246	3246	3246	3246	3216	3216	3216	3216	3216	3246	3246	3216	3216	3216	3216	3216	3216	3186	3216	3186	3216	3216	3216	3216	3186	3186	3186	3186	3157	3186	3186	3157	3186	3186	3157	3186	3157	3157	3186	3157	3157	3157	3157	3157	3157	3129	3129	3129	3129	3129	3157	3186	3186	3186	3216	3186	3216	3216	3216	4350	4350	4350	4350	4350	4350	4350	4350	4350	4350	4296	4296	4296	4350	4296	4350	4296	4350	4350	4350	4350	4350	4406	4406	4406	4406	4406	4463	4463	4406	4406	4406	4406	4406	4406	4406	4521	4521	4581	4581	4581	4581	4581	4581	4581	4643	4581	4581	4581	4581	4581	4521	4521	4521	4296	4296	4296	4296	4296	4296	4296	4296	4296	4296	4350	4350	4406	4521	4521	4581	4581	4581	4581	4581	4643	4643	4706	4977	5050	5050	5050	5050	5050	5050	0	0	0	0	2496	2496	2478	2478	2460	2426	2426	2426	2392	2376	2359	2359	2343	2327	2297	2281	2252	2252	2237	2223	2208	2194	2194	2181	2167	2140	2127	2114	2114	2101	2088	2088	2076	2076	2063	2051	2027	2003	1992	1980	1958	1958	1947	1936	1925	1904	1904	1883	1873	1873	1863	1853	1833	1814	1814	1804	1795	1786	1777	1777	1759	1750	1750	1741	1732	1723	1706	1706	1715	1715	0	0	0	0	0	0	1210	1206	1202	1197	1197	1197	1197	1193	1193	1193	1193	1193	1193	1189	1189	1189	1189	1185	1185	1185	1185	1189	1193	1193	1206	1210	1206	1206	1574	1574	1574	1567	1567	1567	1567	1567	1567	1567	1567	1567	1567	1567	1567	1560	1560	1553	1553	0	0	0	0	0	1120	1116	1116	1113	1109	1105	1105	1105	1102	1102	1102	1102	1098	1098	0	0	0	0	0	0	0	0	0	0	0	0	0	0	0	0	0	0	0	0	0	0	0	0	0	0	0	0	0	0	0	0	0	0	0	0	0	0	0	0	0	0
0	0	0	0	0	0	0	0	0	0	0	0	0	1553	1553	1553	1553	1553	1553	1553	1553	1553	1546	1546	1546	1546	1546	1546	1539	1546	1546	1546	1546	1546	1553	1553	1553	1553	1560	1560	1553	1546	1546	1546	1546	1553	1546	1546	1553	1553	1553	1546	1546	1553	1553	1553	1553	1553	1553	1553	1553	1553	1546	1546	1546	1553	1553	1560	1560	1560	1553	1553	1539	1546	1553	1553	1553	1553	1560	1560	1560	1553	1553	1553	1553	1560	1567	1567	1567	1567	1560	1567	1567	1560	1560	1560	1567	1560	1567	1567	1567	1567	1567	1567	1560	1560	1560	1553	1553	1553	1553	1553	1553	1560	1567	1560	1560	1560	1560	1560	1553	1560	1560	1567	1567	1567	1574	1574	1574	1581	1581	1611	1611	1618	1634	1634	1634	1641	1649	1657	1665	1665	1673	1681	1698	1706	1723	1732	1741	1750	1750	1759	1759	1786	1795	1814	1824	1824	1833	1843	1853	1873	1894	1915	1925	1936	1947	1947	2015	2027	2027	2039	2051	2039	2039	2051	2051	2051	2063	2076	2101	2101	2127	2140	2167	2181	2208	2208	2223	2237	2252	2252	2312	2327	2343	2359	2359	2376	2376	2392	2426	2426	2478	0	0	0	8146	8146	8146	8146	8146	7959	7959	7959	7959	5719	5719	5719	5626	5626	5626	5626	5626	5626	5626	5626	5626	5626	5626	5626	8146	8146	8146	7959	7959	7959	8146	8146	7959	7959	8146	8146	8146	8146	8343	8343	8146	8146	8343	8343	8343	8146	8146	8146	8146	4838	4771	4771	4771	4706	4771	4706	4706	4706	4706	4771	4771	4771	4706	4771	4771	4771	4771	4771	4771	4771	4771	4771	4771	4706	4706	4706	4706	4643	4581	4521	4521	4463	4463	4521	4521	4521	4521	4463	4463	4463	4463	4463	4463	4406	4406	3277	3277	3277	3277	3277	3277	3277	3277	3277	3277	3246	3246	3246	3216	3246	3246	3246	3277	3246	3246	3216	3216	3216	3216	3216	3216	3216	3216	3216	3216	3216	3216	3216	3186	3186	3186	3186	3186	3186	3186	3186	3186	3186	3186	3186	3186	3186	3186	3186	3186	3186	3186	3157	3157	3129	3157	3186	3157	3186	3186	3186	3186	3216	3216	3216	4350	4406	4406	4350	4350	4350	4350	4350	4350	4350	4350	4350	4296	4350	4296	4296	4296	4296	4296	4350	4350	4350	4350	4350	4406	4406	4406	4406	4406	4463	4463	4406	4406	4406	4406	4406	4406	4521	4581	4581	4581	4581	4581	4581	4581	4581	4581	4581	4581	4581	4581	4581	4581	4521	4521	4521	4296	4296	4296	4296	4296	4296	4296	4296	4350	4350	4350	4463	4463	4521	4521	4581	4581	4581	4581	4581	4643	4706	4771	4906	5050	5050	5050	5050	5050	5050	0	0	0	0	2496	2496	2496	2478	2460	2426	2426	2426	2392	2376	2359	2343	2327	2312	2297	2281	2266	2252	2237	2223	2208	2194	2181	2167	2167	2140	2127	2114	2101	2088	2088	2088	2076	2076	2063	2063	2039	2003	1992	1980	1969	1958	1947	1936	1915	1904	1894	1883	1873	1863	1863	1843	1833	1824	1814	1804	1795	1786	1777	1777	1759	1750	1750	1741	1732	1723	1715	1715	0	0	0	0	0	0	0	0	1210	1206	1202	1197	1197	1197	1197	1193	1193	1193	1193	1193	1193	1189	1189	1189	1189	1185	1185	1185	1189	1189	1197	1202	1206	1210	1210	1206	0	1581	1574	1567	1567	1567	1567	1567	1567	1567	1567	1567	1567	1567	1567	1560	1553	1553	1553	0	0	0	0	0	1116	1116	1116	1113	1113	1113	1109	1105	1105	1102	1102	1102	1098	1098	0	0	0	0	0	0	0	0	0	0	0	0	0	0	0	0	0	0	0	0	0	0	0	0	0	0	0	0	0	0	0	0	0	0	0	0	0	0	0	0	0	0
0	0	0	0	0	0	0	0	0	0	0	0	0	1560	1560	1560	1560	1553	1553	1553	1553	1553	1546	1546	1546	1546	1546	1546	1546	1546	1553	1553	1553	1553	1553	1553	1553	1553	1560	1560	1553	1553	1546	1546	1546	1546	1546	1546	1553	1553	1553	1553	1546	1553	1553	1553	1553	1553	1553	1553	1553	1553	1546	1553	1553	1553	1560	1553	1546	1546	1546	1546	1546	1553	1553	1553	1553	1553	1553	1553	1553	1553	1553	1553	1553	1560	1567	1567	1567	1567	1560	1560	1560	1560	1560	1560	1560	1560	1567	1567	1567	1567	1567	1567	1567	1560	1553	1553	1553	1553	1553	1553	1553	1553	1560	1560	1560	1560	1560	1553	1553	1560	1560	1567	1574	1574	1581	1581	1589	1581	1589	1603	1618	1626	1626	1634	1641	1641	1649	1665	1665	1673	1681	1690	1698	1706	1715	1723	1741	1750	1750	1759	1759	1768	1804	1814	1824	1824	1833	1843	1853	1863	1894	1894	1925	1936	1947	1947	2003	2027	2027	2039	2051	2039	2039	2051	2063	2063	2076	2076	2088	2101	2127	2140	2153	2181	2181	2181	2194	2237	2252	2266	2297	2327	2359	2359	2376	2376	2392	2409	2426	2426	2426	0	0	0	8343	8146	8146	8146	8146	7959	7959	5815	5915	5915	5815	5815	5719	5626	5626	5626	5626	5626	5626	5626	5626	5626	5626	5626	8146	8146	8146	7959	7959	7959	7959	8146	8146	8146	8146	8146	8146	8146	8343	8343	8146	8343	8343	8343	8343	8146	8146	8146	8146	4771	4771	4771	4771	4771	4771	4771	4771	4706	4706	4706	4706	4706	4706	4771	4771	4771	4771	4771	4771	4771	4771	4771	4771	4771	4706	4706	4706	4643	4581	4521	4521	4463	4521	4521	4521	4521	4521	4521	4463	4463	4463	4463	4463	4406	4406	4406	3277	3277	3277	3277	3277	3277	3277	3277	3277	3277	3277	3277	3277	3309	3309	3309	3277	3277	3246	3246	3246	3216	3216	3216	3246	3216	3246	3246	3216	3216	3216	3216	3216	3186	3216	3216	3216	3186	3186	3216	3216	3186	3186	3186	3216	3216	3186	3186	3186	3186	3186	3186	3186	3186	3157	3186	3157	3186	3186	3216	3216	3216	3216	3216	4350	4406	4463	4406	4406	4406	4406	4406	4406	4406	4406	4350	4350	4350	4350	4350	4296	4296	4296	4350	4350	4350	4296	4296	4406	4406	4406	4406	4406	4463	4463	4463	4406	4406	4463	4406	4406	4521	4581	4581	4581	4581	4581	4581	4581	4581	4581	4581	4581	4581	4581	4581	4521	4521	4463	4350	4296	4296	4350	4350	4350	4296	4296	4350	4350	4406	4406	4463	4463	4521	4581	4581	4581	4581	4581	4581	4643	4643	4838	5050	5125	5125	5125	5050	5050	5050	0	0	0	2496	2496	2496	2478	2478	2443	2426	2409	2409	2392	2376	2359	2343	2312	2297	2297	2281	2266	2237	2237	2223	2208	2194	2181	2181	2167	2140	2127	2114	2101	2088	2076	2076	2076	2076	2063	2051	2039	2015	2003	1980	1969	1958	1947	1936	1915	1904	1894	1883	1873	1863	1853	1843	1833	1824	1814	1804	1804	1795	1786	1777	1759	1759	1750	1741	1741	1723	1723	1715	0	0	0	0	0	0	0	0	1210	1206	1202	1197	1197	1197	1197	1197	1197	1193	1197	1193	1193	1193	1189	1189	1189	1189	1185	1189	1189	1189	1189	1202	1206	1589	1567	1567	1567	1574	1574	1567	1567	1567	1567	1567	1567	1567	1567	1567	1567	1567	1567	1560	1567	1546	1539	1539	0	0	0	0	1116	1116	1113	1113	1113	1109	1109	1105	1102	1102	1102	1102	1098	1098	0	0	0	0	0	0	0	0	0	0	0	0	0	0	0	0	0	0	0	0	0	0	0	0	0	0	0	0	0	0	0	0	0	0	0	0	0	0	0	0	0	0
0	0	0	0	0	0	0	0	0	0	0	0	0	1553	1560	1560	1553	1553	1553	1553	1553	1546	1546	1553	1546	1546	1546	1546	1553	1560	1553	1553	1553	1553	1553	1553	1553	1553	1553	1560	1553	1553	1546	1546	1546	1546	1546	1546	1553	1553	1553	1553	1553	1553	1553	1553	1553	1553	1553	1553	1546	1553	1546	1546	1546	1546	1546	1560	1560	1560	1560	1553	1553	1553	1546	1553	1553	1553	1546	1546	1553	1553	1553	1553	1553	1560	1567	1567	1567	1567	1567	1560	1560	1560	1560	1560	1560	1560	1567	1567	1567	1567	1567	1567	1567	1553	1553	1553	1553	1553	1553	1553	1553	1553	1560	1560	1560	1560	1560	1560	1553	1560	1560	1567	1567	1589	1589	1603	1603	1596	1603	1634	1634	1634	1641	1649	1649	1649	1657	1673	1673	1681	1690	1690	1698	1706	1715	1723	1732	1741	1750	1759	1768	1777	1795	1814	1814	1824	1833	1843	1853	1853	1883	1904	1936	1947	1958	1958	1992	2015	2027	2039	2039	2039	2039	2051	2063	2063	2076	2076	2101	2114	2127	2140	2167	2181	2181	2181	2194	2208	2237	2252	2281	2281	2343	2376	2376	2392	2409	2409	2443	2443	2443	2443	0	0	8343	8343	8146	8146	8146	7959	7959	5815	5815	5815	5815	5815	5626	5626	5626	5626	5626	5626	5626	5626	5626	5626	5626	5626	8146	8146	8146	7959	8146	8146	7959	8146	8146	8146	7959	7959	8146	8146	8343	8146	8146	8343	8343	8343	8343	8343	8146	8146	8343	4771	4771	4771	4771	4771	4771	4771	4771	4771	4771	4706	4706	4771	4706	4771	4771	4771	4771	4771	4771	4771	4771	4771	4771	4771	4706	4706	4643	4581	4521	4521	4521	4521	4463	4463	4521	4521	4521	4521	4463	4463	4463	4463	4463	4406	4406	4406	4406	3277	3277	3277	3277	3277	3277	3309	3309	3309	3309	3309	3309	3341	3309	3309	3309	3277	3277	3246	3246	3246	3246	3246	3246	3246	3246	3246	3216	3246	3246	3246	3246	3216	3246	3246	3246	3216	3216	3216	3216	3216	3216	3216	3216	3216	3216	3216	3216	3216	3216	3216	3216	3186	3216	3216	3186	3216	3216	3246	3246	3246	3246	3246	3246	4463	4463	4406	4406	4406	4406	4406	4406	4406	4406	4406	4350	4350	4350	4350	4296	4350	4350	4350	4350	4350	4350	4350	4350	4406	4406	4406	4406	4406	4406	4406	4406	4406	4406	4406	4406	4521	4521	4521	4581	4581	4581	4581	4581	4581	4581	4581	4581	4581	4581	4581	4521	4521	4406	4296	4243	4243	4296	4296	4350	4296	4296	4350	4350	4406	4406	4463	4463	4521	4521	4581	4581	4581	4581	4581	4643	4706	5125	5050	5125	5125	5125	5125	5050	5050	5050	5050	0	2496	2496	2478	2478	2460	2443	2409	2409	2409	2409	2376	2359	2359	2327	2312	2297	2281	2266	2237	2223	2208	2208	2194	2181	2167	2167	2127	2114	2114	2101	2088	2076	2088	2076	2076	2063	2051	2039	2027	2003	1992	1969	1958	1947	1936	1915	1904	1894	1883	1863	1863	1853	1843	1833	1824	1824	1814	1814	1804	1795	1786	1777	1768	1759	1750	1741	1741	1741	0	0	0	0	0	0	0	1219	1219	1210	1206	1202	1197	1197	1197	1202	1197	1197	1197	1197	1193	1193	1193	1189	1189	1189	1189	1185	1189	1189	1189	1193	0	1596	1581	1567	1567	1574	1574	1567	1567	1567	1567	1567	1567	1567	1567	1567	1567	1567	1567	1567	1560	1560	1553	1546	1546	1546	0	0	0	1116	1116	1113	1109	1109	1109	1105	1105	1102	1102	1102	1102	1098	1098	0	0	0	0	0	0	0	0	0	0	0	0	0	0	0	0	0	0	0	0	0	0	0	0	0	0	0	0	0	0	0	0	0	0	0	0	0	0	0	0	0	0
0	0	0	0	0	0	0	0	0	0	0	0	0	1553	1553	1560	1553	1553	1553	1553	1553	1546	1546	1546	1546	1546	1546	1546	1546	1553	1553	1553	1553	1553	1546	1546	1553	1546	1553	1553	1553	1553	1546	1546	1546	1553	1546	1553	1553	1553	1553	1553	1560	1560	1553	1560	1553	1553	1553	1546	1546	1546	1546	1546	1546	1553	1553	1553	1553	1553	1553	1553	1553	1553	1553	1553	1553	1553	1546	1546	1553	1546	1553	1553	1553	1560	1567	1567	1567	1567	1567	1567	1560	1560	1560	1560	1560	1560	1567	1567	1567	1567	1567	1567	1560	1560	1560	1553	1560	1560	1553	1553	1553	1553	1560	1560	1553	1560	1560	1560	1560	1560	1560	1567	1567	1581	1596	1603	1603	1611	1626	1641	1641	1641	1649	1657	1657	1657	1690	1690	1690	1690	1698	1698	1706	1706	1715	1723	1732	1750	1759	1759	1768	1786	1795	1804	1814	1824	1833	1843	1853	1863	1863	1894	1936	1936	1947	1947	1992	1992	2027	2039	2039	2039	2051	2051	2063	2063	2076	2088	2101	2101	2114	2127	2127	2181	2181	2194	2194	2223	2237	2252	2281	2281	2327	2359	2376	2392	2409	2426	2443	2443	2443	2443	0	0	0	8343	8343	8146	8146	8146	5719	5719	5719	5719	5719	5719	5626	5626	5626	5626	5626	5626	5626	5626	5626	5626	5535	5535	8146	8146	8146	8146	8146	8146	7959	8146	8146	8146	8146	8146	7959	8146	8343	8146	8146	8343	8343	8343	8343	8343	8343	8343	8343	0	4771	4771	4771	4771	4771	4771	4771	4771	4771	4706	4706	4706	4706	4771	4771	4771	4771	4771	4771	4771	4771	4771	4771	4706	4706	4706	4581	4581	4521	4463	4521	4521	4463	4521	4521	4521	4521	4521	4463	4463	4463	4463	4463	4350	4350	4406	4350	4296	4296	4296	3309	3309	3309	3309	3309	3309	3309	3341	3309	3341	3309	3341	3309	3277	3277	3246	3246	3246	3246	3246	3246	3246	3246	3246	3246	3246	3246	3277	3246	3246	3277	3277	3277	3246	3246	3246	3246	3216	3216	3216	3216	3216	3216	3216	3246	3246	3216	3216	3216	3216	3277	3277	3277	3309	3309	3309	3277	3277	3277	3277	3277	4463	4463	4406	4406	4406	4406	4406	4406	4406	4406	4406	4406	4406	4406	4350	4350	4350	4350	4350	4350	4350	4350	4350	4350	4406	4406	4406	4406	4406	4406	4406	4406	4406	4406	4406	4406	4463	4521	4521	4521	4521	4581	4581	4581	4581	4581	4581	4581	4581	4581	4581	4521	4521	4521	4521	4296	4296	4296	4350	4350	4350	4350	4350	4350	4406	4350	4406	4406	4463	4521	4581	4581	4581	4581	4643	4706	4838	4977	5050	5125	5125	5125	5125	5125	5125	5050	5050	0	2496	2496	2478	2478	2460	2443	2409	2409	2409	2409	2376	2359	2343	2312	2312	2297	2297	2266	2237	2223	2208	2208	2194	2181	2167	2167	2127	2114	2114	2101	2088	2076	2088	2076	2076	2063	2051	2039	2039	2015	1992	1958	1958	1947	1925	1915	1904	1894	1873	1863	1863	1853	1833	1833	1824	1824	1814	1814	1814	1804	1795	1786	1768	1759	1750	1750	1750	1750	0	0	0	0	0	0	0	1214	1214	1210	1206	1202	1197	1197	1197	1197	1193	1197	1197	1197	1197	1193	1193	1193	1189	1193	1189	1189	1189	1189	1189	1193	1589	1589	1581	1567	1567	1574	1574	1567	1567	1567	1574	1567	1567	1567	1567	1567	1567	1567	1567	1567	1560	1560	1553	1539	1539	1532	1532	0	0	0	1113	1113	1109	1109	1109	1105	1105	1102	1102	1102	1102	1095	1095	0	0	0	0	0	0	0	0	0	0	0	0	0	0	0	0	0	0	0	0	0	0	0	0	0	0	0	0	0	0	0	0	0	0	0	0	0	0	0	0	0	0
0	0	0	0	0	0	0	0	0	0	0	0	0	1553	1553	1553	1553	1553	1553	1553	1553	1546	1546	1553	1546	1546	1546	1546	1546	1553	1553	1553	1553	1553	1553	1546	1553	1553	1553	1553	1546	1546	1546	1546	1546	1553	1546	1553	1553	1553	1553	1553	1553	1553	1546	1546	1553	1553	1546	1546	1546	1546	1546	1546	1546	1546	1553	1553	1553	1546	1553	1553	1553	1553	1553	1553	1553	1553	1546	1546	1553	1553	1553	1553	1553	1553	1560	1560	1560	1560	1560	1560	1560	1560	1560	1560	1560	1560	1560	1567	1560	1567	1567	1560	1553	1560	1560	1553	1553	1553	1553	1553	1553	1553	1553	1553	1553	1560	1560	1560	1560	1560	1567	1567	1574	1581	1589	1603	1611	1611	1626	1641	1641	1649	1657	1665	1665	1681	1690	1698	1698	1698	1698	1698	1706	1706	1715	1732	1732	1750	1759	1768	1777	1786	1795	1814	1824	1824	1833	1843	1853	1853	1853	1894	1925	1936	1947	1947	1992	1992	2027	2039	2039	2039	2039	2063	2063	2076	2076	2076	2076	2101	2101	2114	2167	2194	2194	2194	2208	2237	2237	2266	2281	2281	2327	2359	2376	2392	2409	2409	2426	2443	2443	2443	2443	0	0	8343	8343	8146	5626	5626	5626	5719	5719	5719	5719	5815	5719	5626	5626	5626	5626	5626	5719	5626	5626	5626	5535	5535	8146	8146	7959	8146	8146	8146	8146	8146	8146	8146	7959	8146	7959	7959	7959	8343	8343	8343	8343	8343	8343	8343	8343	8343	8343	0	4771	4771	4771	4771	4771	4771	4771	4706	4706	4706	4706	4706	4706	4706	4771	4771	4771	4771	4771	4771	4771	4771	4771	4706	4706	4706	4643	4581	4521	4521	4521	4521	4463	4521	4521	4521	4521	4521	4521	4463	4463	4463	4463	4350	4350	4406	4406	4406	4463	4463	4463	3341	3341	3309	3341	3341	3341	3341	3341	3341	3341	3341	3309	3246	3246	3246	3246	3246	3246	3246	3246	3246	3246	3246	3246	3246	3246	3277	3277	3246	3277	3277	3277	3277	3246	3277	3246	3246	3216	3246	3246	3246	3246	3246	3246	3246	3277	3246	3277	3309	3309	3309	3341	3341	3341	3309	3309	3309	3309	3309	3309	3309	4463	4406	4406	4406	4406	4406	4406	4406	4406	4406	4406	4406	4406	4350	4350	4350	4350	4350	4350	4350	4350	4350	4350	4406	4406	4406	4406	4406	4406	4406	4406	4406	4406	4406	4406	4406	4463	4521	4521	4581	4581	4581	4581	4643	4581	4581	4581	4581	4581	4581	4581	4581	4581	4581	4142	4296	4296	4350	4350	4296	4296	4350	4350	4350	4350	4406	4406	4463	4521	4521	4581	4581	4581	4581	4643	4706	4977	5050	5125	5125	5125	5125	5125	5125	0	0	0	0	2496	2478	2478	2460	2443	2409	2409	2409	2392	2376	2343	2327	2312	2297	2297	2297	2266	2237	2208	2208	2194	2194	2181	2181	2167	2127	2114	2114	2101	2088	2076	2088	2076	2076	2076	2051	2051	2039	2015	1992	1969	1958	1947	1925	1904	1894	1883	1873	1863	1863	1853	1833	1833	1824	1824	1814	1814	1814	1804	1804	1795	1777	1768	1759	1759	1759	1759	0	0	0	0	0	0	0	1214	1214	1210	1197	1197	1193	1193	1193	1193	1193	1193	1193	1193	1193	1193	1193	1193	1193	1193	1193	1189	1189	1589	1589	1574	1589	1581	1574	1567	1567	1574	1574	1574	1567	1567	1574	1567	1567	1567	1567	1574	1567	1567	1567	1567	1560	1560	1553	1539	1539	1532	1532	1532	0	0	1113	1109	1109	1109	1109	1109	1105	1102	1102	1105	1105	1098	1098	0	0	0	0	0	0	0	0	0	0	0	0	0	0	0	0	0	0	0	0	0	0	0	0	0	0	0	0	0	0	0	0	0	0	0	0	0	0	0	0	0	0
0	0	0	0	0	0	0	0	0	0	0	0	0	1553	1560	1560	1553	1553	1553	1553	1553	1546	1546	1546	1546	1546	1546	1546	1546	1553	1553	1553	1553	1553	1553	1546	1553	1546	1553	1553	1546	1546	1546	1546	1546	1553	1546	1546	1553	1553	1553	1553	1560	1553	1553	1553	1553	1546	1546	1546	1546	1546	1546	1546	1546	1553	1553	1553	1553	1546	1553	1553	1553	1553	1553	1553	1553	1553	1553	1546	1553	1553	1553	1553	1546	1553	1560	1553	1560	1553	1560	1553	1560	1560	1560	1560	1560	1560	1560	1560	1560	1560	1560	1560	1560	1560	1560	1560	1553	1553	1553	1553	1553	1553	1553	1560	1560	1560	1560	1560	1560	1560	1560	1567	1574	1574	1581	1596	1596	1603	1611	1641	1657	1657	1665	1665	1665	1665	1690	1698	1706	1698	1698	1706	1706	1715	1723	1732	1741	1750	1759	1768	1777	1786	1795	1804	1814	1824	1824	1843	1853	1863	1873	1894	1925	1936	1936	1969	1969	1969	2039	2051	2039	2039	2051	2051	2063	2076	2076	2076	2101	2101	2101	2101	2167	2194	2194	2208	2223	2237	2252	2266	2266	2297	2343	2343	2376	2392	2392	2409	2426	2426	2443	2443	2443	2460	2460	0	8343	5626	5626	5626	5626	5626	5719	5719	5719	5719	5719	5719	5626	5626	5626	5719	5719	5719	5626	5626	5626	8146	8146	7959	7959	8146	8146	8146	8146	8146	8146	8146	8146	7959	8146	8146	8343	8343	8343	8343	8343	8343	8343	8343	8343	8343	8343	0	0	4838	4838	4771	4771	4771	4771	4706	4706	4706	4706	4706	4706	4706	4771	4771	4771	4771	4771	4771	4706	4706	4706	4706	4706	4706	4643	4581	4521	4521	4463	4463	4463	4521	4521	4521	4521	4521	4521	4463	4463	4463	4463	4406	4406	4463	4463	4463	4463	4463	4463	4463	3373	3341	3341	3406	3406	3406	3373	3373	3341	3341	3309	3277	3246	3246	3246	3246	3246	3246	3246	3246	3246	3246	3246	3246	3277	3277	3277	3277	3277	3309	3309	3277	3277	3277	3277	3246	3246	3246	3246	3246	3246	3246	3246	3277	3277	3277	3277	3309	3341	3341	3341	3341	3341	3341	3309	3309	3341	3309	3341	3341	4406	4406	4406	4406	4406	4406	4406	4406	4406	4406	4406	4406	4406	4350	4350	4350	4350	4350	4350	4350	4350	4350	4350	4406	4406	4406	4406	4406	4406	4406	4406	4406	4463	4406	4406	4406	4521	4521	4581	4581	4581	4581	4581	4643	4643	4581	4581	4581	4643	4643	4581	4581	4581	4581	4142	4142	4296	4350	4296	4296	4296	4296	4350	4350	4350	4406	4406	4463	4521	4521	4581	4581	4581	4581	4643	4706	4977	5050	5125	5125	5125	5125	5050	5050	0	0	0	0	0	2478	2460	2460	2426	2409	2409	2409	2409	2376	2359	2343	2312	2312	2297	2297	2266	2266	2223	2208	2208	2194	2181	2181	2167	2153	2127	2114	2101	2088	2076	2088	2076	2076	2063	2051	2039	2027	2015	1980	1969	1958	1947	1925	1904	1894	1883	1873	1863	1863	1853	1833	1833	1824	1824	1824	1824	1814	1814	1804	1795	1786	1768	1768	1768	1759	1759	1759	0	0	0	0	0	0	0	0	1210	1197	1197	1589	1589	1589	1589	1581	1567	1193	1567	1567	1193	1193	1193	1193	1193	1193	0	0	1581	1581	1574	1581	1581	1574	1567	1567	1574	1574	1574	1567	1567	1567	1567	1567	1567	1567	1567	1567	1567	1567	1567	1560	1560	1560	1546	1546	1539	1539	1532	0	0	1113	1113	1109	1109	1109	1109	1105	1105	1105	1105	1105	1102	1102	0	0	0	0	0	0	0	0	0	0	0	0	0	0	0	0	0	0	0	0	0	0	0	0	0	0	0	0	0	0	0	0	0	0	0	0	0	0	0	0	0	0
