0	0	0	0	0	0	0	1223	1227	1227	1227	0	0	0	1958	1947	1947	1947	1947	1947	1947	1958	1958	0	0	6018	6018	6018	6018	6018	5915	5915	5915	5915	5915	5815	5815	5815	5815	5815	5815	5815	5815	5815	5915	5915	5915	5915	5915	5915	5815	5815	5815	5815	5815	5815	5815	5815	5815	5815	5815	5815	5815	5815	5815	5915	5915	5719	5719	5915	5815	5915	5815	5815	5815	5815	5815	5815	5815	5815	5815	5915	5815	5815	5815	5815	5815	5815	5815	5815	5815	5815	5815	5815	5815	5815	5815	5815	5815	5815	5815	5815	5815	5815	5815	5815	5815	5719	5719	5719	5719	5719	5719	5719	5719	5719	5719	5719	5719	5719	5719	5815	5815	5815	5815	5815	5815	5815	5815	5815	5815	5815	5815	5815	5815	5815	5815	5815	5815	5815	5815	5815	5719	5815	5815	5815	5815	5815	5815	5815	5815	5815	5815	5815	5815	5915	5915	5815	5815	5815	5815	5815	5719	5719	4643	4643	4771	4643	4771	4771	4771	4706	4706	4706	4771	4706	4706	4706	4706	4771	4706	4643	4706	4706	4706	4706	4706	4706	4706	4706	4706	4706	4706	4706	4706	4706	4706	4706	4706	4706	4706	4706	4706	4706	4771	4706	4706	4706	4706	4643	4643	4643	4643	4643	4706	4706	4706	4706	4706	4706	4643	4643	4643	4643	4643	4643	4643	4643	4643	4643	4643	4643	4643	4643	4581	4581	4643	4643	4643	4643	4643	4706	4643	4643	4643	4643	4706	4706	4643	4643	4643	4643	4643	4643	4643	4643	4643	4706	4706	4643	4643	4643	4643	4643	4643	4581	4643	4581	4581	4581	4581	4581	4581	4581	4643	4643	4643	4643	4643	4643	4643	4643	4581	4581	4581	4581	4581	4581	4581	4643	4643	4643	4643	4643	4643	4643	4581	4581	4581	4643	4643	4643	4643	4643	4581	4581	4581	4581	4581	4581	4581	4521	4521	4521	4521	4521	4521	4521	4521	4521	4521	4521	4521	4581	4581	4581	4581	4581	4521	4521	4521	4521	4521	4521	4521	4521	4521	4521	4521	4521	4521	4521	4521	4521	4581	4581	4521	4521	0	3475	3440	3440	3373	3373	3341	3341	3341	3341	3341	3341	3309	3309	3341	3341	3341	3341	3341	3309	3309	3309	3309	3309	3309	3309	3309	3309	3341	3406	3440	3440	4521	4521	4521	4521	4521	4521	4521	4521	4521	4521	4521	4521	4521	4521	4521	4521	4521	4521	4521	4521	4463	4521	4521	4521	4521	4521	4521	4521	4521	4521	4521	4521	4521	4521	4521	4521	4521	4521	4521	4521	4521	4521	4521	4521	4521	4521	4463	4463	4521	4521	4521	4521	4521	4521	4521	4521	4463	4521	4463	4521	4521	4521	4521	4521	4521	4521	4521	4521	4521	4521	4463	4463	4463	4463	4463	4463	4463	4463	4521	4521	4521	4521	4521	4521	4521	4521	4521	4521	4521	4521	4463	4463	4463	4463	4463	4463	4521	4521	4521	4521	4521	4521	4521	4521	6124	6235	6235	6235	6235	6235	6235	6235	6235	6349	6349	6349	6235	6349	6349	6349	6349	6349	6349	6349	6349	6349	6349	6349	6468	6468	6468	6468	6468	6468	6468	6468	6468	6468	6592	6592	6592	6592	6468	6349	6349	6349	6349	6349	6349	6468	6349	6468	6468	6468	6468	6468	6468	6468	6468	6468	6468	6468	6468	6468	6468	6468	6468	6349	6235	6235	6235	6235	6124	6124	6124	6124	6124	6018	6018	6018	6018	5915	5915	5719	5719	5719	5815	5719	5815	5719	5719	5719	5626	5535	5448	5448	5364	5364	5282	5282	5282	5282	5282	5202	5282	5282	5202	5202	5050	5050	5050	5050	5050	4977	4977	4977	4906	4906	4906	4838	4771	4838	4838	4838	4906	4906	0	0	0	0	0	0	0	0	0	0	0	0	0	0	0	0	0	0	0	0	0	0	0	0	0	0	0	0	0	0	0	0	0	0
0	0	0	0	0	0	0	1223	1227	1227	1227	0	0	1947	1947	1947	1947	1947	1947	1947	1947	1947	0	0	0	6018	6018	6018	6018	6018	5915	6018	5915	5915	5815	5815	5815	5815	5815	5815	5815	5815	5815	5815	5915	5915	5915	5915	5915	5815	5815	5815	5815	5815	5815	5815	5815	5815	5915	5915	5815	5815	5815	5815	5815	5815	5915	5719	5815	5815	5915	5815	5815	5815	5815	5815	5815	5815	5815	5815	5815	5815	5915	5915	5815	5815	5815	5719	5815	5815	5815	5815	5815	5815	5815	5815	5815	5815	5815	5815	5915	5815	5815	5815	5815	5815	5815	5815	5815	5815	5815	5719	5719	5719	5719	5719	5719	5719	5719	5719	5719	5815	5815	5915	5815	5815	5815	5815	5815	5815	5815	5815	5815	5815	5815	5815	5815	5815	5815	5815	5815	5815	5719	5815	5815	5815	5815	5815	5815	5815	5815	5815	5815	5815	5815	5815	5915	5815	5815	5815	5815	5815	5815	5815	4643	4643	4771	4706	4771	4771	4771	4706	4706	4706	4771	4771	4643	4706	4706	4771	4706	4643	4643	4706	4706	4706	4706	4706	4706	4643	4643	4643	4643	4706	4643	4706	4706	4706	4771	4706	4706	4706	4706	4706	4771	4771	4771	4706	4706	4643	4706	4643	4643	4643	4643	4643	4706	4706	4643	4643	4643	4643	4643	4643	4643	4643	4643	4643	4706	4643	4643	4643	4643	4643	4581	4581	4581	4643	4643	4581	4643	4706	4643	4643	4581	4581	4643	4643	4581	4581	4581	4643	4643	4643	4643	4643	4643	4643	4706	4643	4643	4643	4643	4643	4643	4581	4581	4581	4581	4581	4581	4581	4581	4581	4643	4643	4643	4643	4643	4643	4643	4643	4581	4581	4581	4581	4581	4581	4581	4643	4643	4643	4581	4643	4643	4643	4581	4643	4581	4643	4643	4643	4643	4643	4581	4581	4581	4581	4581	4581	4581	4581	4581	4521	4521	4521	4581	4581	4521	4521	4581	4581	4521	4521	4581	4581	4581	4581	4521	4521	4521	4521	4521	4521	4521	4521	4521	4521	4521	4521	4521	4521	4521	4521	4521	4521	4521	4521	3475	3475	3440	3440	3406	3373	3341	3341	3341	3341	3341	3341	3341	3309	3341	3341	3341	3341	3341	3309	3309	3309	3309	3309	3309	3309	3373	3373	3373	3406	3440	3440	4521	4521	4521	4521	4521	4521	4521	4463	4521	4463	4521	4521	4521	4521	4521	4521	4521	4521	4521	4521	4521	4521	4521	4521	4521	4521	4521	4521	4521	4521	4521	4521	4521	4521	4521	4521	4521	4521	4521	4521	4521	4521	4521	4521	4521	4521	4463	4463	4521	4521	4521	4521	4521	4463	4521	4463	4463	4521	4463	4463	4521	4521	4521	4521	4521	4521	4521	4521	4463	4463	4463	4463	4463	4463	4463	4521	4521	4521	4521	4521	4521	4521	4521	4521	4521	4521	4521	4521	4521	4521	4463	4463	4463	4463	4463	4463	4463	4463	4521	4521	4521	4521	4521	4521	6235	6235	6235	6235	6235	6349	6349	6349	6349	6349	6349	6349	6349	6235	6349	6349	6349	6349	6349	6349	6349	6349	6468	6468	6468	6468	6468	6468	6468	6468	6468	6468	6592	6592	6592	6592	6592	6592	6468	6468	6468	6468	6468	6468	6468	6468	6468	6468	6468	6468	6468	6468	6468	6468	6468	6468	6468	6468	6468	6468	6468	6468	6468	6349	6235	6124	6124	6124	6124	6124	6124	6124	6124	6018	6018	6018	6018	5915	5915	5719	5815	5719	5815	5719	5815	5719	5719	5719	5719	5535	5535	5448	5364	5364	5364	5282	5364	5364	5282	5202	5282	5282	5202	5202	5125	5050	5050	5050	5050	5050	4977	4977	4906	4906	4906	4838	4838	4838	4838	4838	4906	4906	0	0	0	0	0	0	0	0	0	0	0	0	0	0	0	0	0	0	0	0	0	0	0	0	0	0	0	0	0	0	0	0	0	0
0	0	0	0	0	0	0	1219	1227	1227	1236	1254	1259	1259	1259	1259	1259	1287	1287	1947	1947	1947	0	0	0	0	6124	6124	6124	6124	6018	6018	5915	5915	5815	5815	5815	5815	5815	5815	5815	5815	5815	5815	5815	5815	5915	5915	5915	5815	5815	5815	5815	5815	5815	5815	5815	5815	5815	5815	5815	5815	5719	5719	5719	5719	5719	5719	5719	5719	5915	5815	5815	5815	5815	5815	5815	5815	5815	5815	5815	5815	5915	5915	5915	5815	5815	5815	5815	5815	5815	5815	5815	5815	5815	5815	5815	5815	5815	5815	5915	5815	5815	5815	5815	5815	5815	5815	5815	5815	5815	5815	5719	5719	5719	5719	5719	5719	5719	5719	5719	5815	5815	5815	5815	5815	5815	5815	5815	5815	5815	5815	5815	5815	5815	5815	5815	5815	5719	5815	5815	5815	5815	5815	5815	5815	5815	5815	5815	5815	5719	5815	5815	5815	5815	5815	5915	5815	5815	5815	5815	5815	5815	5719	4643	4643	4706	4706	4706	4706	4706	4706	4706	4771	4771	4771	4706	4706	4771	4771	4706	4643	4643	4706	4706	4643	4643	4706	4643	4643	4643	4643	4706	4706	4706	4706	4706	4771	4771	4706	4706	4706	4706	4771	4771	4771	4771	4706	4706	4706	4706	4581	4643	4581	4643	4643	4643	4643	4643	4643	4643	4643	4643	4643	4643	4643	4643	4643	4643	4643	4643	4643	4643	4643	4581	4643	4643	4643	4643	4581	4643	4643	4643	4581	4581	4581	4581	4643	4581	4581	4581	4643	4643	4643	4643	4643	4643	4643	4643	4643	4643	4643	4643	4643	4643	4581	4581	4581	4581	4581	4581	4581	4581	4581	4643	4643	4643	4706	4643	4643	4643	4643	4643	4581	4581	4581	4581	4581	4581	4581	4643	4643	4581	4643	4643	4643	4581	4643	4643	4643	4643	4643	4643	4643	4581	4581	4581	4643	4581	4581	4581	4581	4581	4581	4521	4581	4581	4581	4521	4521	4581	4581	4521	4581	4581	4581	4581	4581	4521	4521	4521	4521	4521	4521	4521	4521	4521	4521	4521	4521	4521	4521	4521	4521	4521	4521	4521	4521	3440	3440	3440	3406	3406	3373	3341	3341	3341	3341	3341	3341	3341	3309	3341	3341	3341	3341	3309	3309	3309	3309	3309	3309	3309	3341	3373	3373	3406	3406	3440	3440	4521	4463	4463	4521	4521	4521	4521	4463	4521	4463	4521	4521	4521	4521	4521	4521	4521	4521	4521	4521	4521	4521	4521	4521	4521	4521	4521	4521	4521	4521	4521	4521	4521	4521	4521	4521	4521	4521	4521	4521	4521	4521	4521	4521	4521	4521	4463	4463	4521	4463	4521	4521	4521	4521	4521	4463	4463	4521	4463	4463	4463	4521	4521	4521	4463	4521	4521	4463	4463	4463	4463	4463	4463	4463	4521	4521	4521	4521	4521	4521	4521	4521	4463	4521	4521	4521	4521	4463	4463	4463	4463	4463	4463	4463	4463	4463	4463	4463	4521	4521	4521	4521	4521	4521	6468	6468	6349	6349	6349	6349	6349	6349	6349	6349	6349	6349	6235	6235	6235	6235	6349	6349	6235	6349	6349	6349	6349	6349	6468	6468	6468	6468	6468	6468	6468	6468	6592	6592	6592	6592	6592	6468	6468	6468	6468	6468	6468	6468	6592	6592	6468	6468	6468	6468	6468	6468	6468	6468	6468	6468	6468	6468	6468	6468	6468	6468	6468	6349	6235	6124	6124	6124	6124	6124	6124	6124	6124	6018	6018	6018	5915	5915	5915	5815	5815	5719	5815	5719	5719	5719	5719	5719	5719	5626	5626	5448	5364	5364	5282	5282	5364	5282	5282	5282	5202	5282	5202	5202	5125	5125	5050	5050	5050	4977	4977	4977	4906	4906	4906	4838	4838	4838	4838	4838	4838	4838	0	0	0	0	0	0	0	0	0	0	0	0	0	0	0	0	0	0	0	0	0	0	0	0	0	0	0	0	0	0	0	0	0	0
0	0	0	0	0	0	0	1210	1219	1223	1236	1236	1245	1249	1249	1268	1268	1287	1287	1287	0	0	0	0	0	0	6124	6124	6124	6124	6124	6018	5815	5815	5815	5815	5815	5815	5815	5815	5815	5815	5815	5815	5815	5815	5815	5815	5815	5815	5815	5815	5815	5815	5815	5815	5815	5815	5815	5815	5815	5815	5719	5719	5719	5719	5719	5815	5815	5815	5815	5815	5815	5915	5815	5815	5815	5815	5815	5815	5815	5815	5815	5815	5815	5815	5815	5719	5719	5815	5815	5815	5815	5815	5815	5815	5815	5815	5815	5815	5719	5719	5815	5719	5719	5815	5815	5815	5719	5719	5815	5815	5815	5719	5719	5719	5719	5719	5719	5719	5719	5815	5815	5815	5815	5815	5815	5815	5815	5815	5815	5815	5815	5815	5815	5815	5815	5815	5719	5719	5719	5719	5719	5719	5719	5815	5815	5815	5815	5815	5815	5815	5815	5815	5815	5719	5815	5815	5815	5815	5815	5815	5815	5815	5719	4643	4706	4706	4706	4706	4706	4706	4706	4771	4771	4771	4706	4706	4706	4706	4706	4643	4643	4643	4706	4706	4706	4706	4643	4643	4643	4643	4706	4706	4706	4706	4706	4771	4771	4771	4706	4706	4771	4771	4771	4771	4706	4706	4643	4581	4643	4643	4643	4643	4643	4643	4643	4643	4643	4643	4643	4643	4581	4643	4643	4643	4643	4643	4643	4643	4643	4643	4643	4643	4581	4643	4643	4643	4643	4581	4643	4643	4643	4581	4581	4581	4643	4643	4643	4581	4643	4643	4643	4643	4643	4643	4643	4643	4643	4643	4643	4643	4643	4643	4643	4643	4581	4581	4581	4581	4581	4581	4581	4581	4643	4643	4643	4643	4643	4643	4643	4643	4581	4581	4581	4581	4581	4581	4581	4581	4581	4581	4581	4643	4643	4643	4581	4643	4643	4643	4643	4643	4643	4643	4581	4581	4581	4643	4581	4581	4581	4581	4581	4581	4521	4521	4581	4581	4581	4581	4581	4581	4521	4581	4581	4581	4521	4521	4521	4521	4521	4521	4521	4521	4521	4521	4521	4521	4521	4521	4521	4521	4521	4521	4521	4521	4521	3440	3440	3440	3406	3406	3373	3373	3341	3341	3341	3341	3341	3341	3341	3309	3341	3341	3309	3341	3309	3309	3309	3309	3309	3309	3341	3341	3406	3406	3406	3475	3475	4521	4521	4521	4521	4521	4521	4521	4521	4463	4521	4521	4463	4521	4521	4521	4521	4521	4521	4521	4521	4521	4521	4521	4521	4521	4521	4521	4521	4521	4463	4463	4463	4521	4521	4521	4521	4521	4521	4521	4521	4521	4521	4521	4521	4521	4521	4521	4463	4463	4521	4463	4521	4463	4463	4521	4521	4463	4463	4463	4463	4463	4463	4463	4521	4463	4463	4521	4521	4463	4463	4463	4463	4463	4463	4463	4463	4521	4521	4521	4521	4521	4521	4521	4463	4463	4521	4463	4463	4463	4463	4463	4463	4463	4463	4463	4463	4463	4463	4463	4521	4521	4521	4463	4463	4463	4463	6468	6349	6349	6349	6349	6468	6349	6349	6349	6349	6349	6235	6124	6235	6235	6349	6235	6235	6349	6349	6468	6468	6468	6468	6468	6468	6468	6468	6468	6468	6592	6592	6592	6592	6592	6592	6592	6468	6468	6468	6468	6468	6468	6592	6468	6468	6468	6468	6468	6468	6468	6468	6468	6468	6468	6592	6468	6468	6468	6468	6468	6468	6349	6235	6124	6235	6235	6235	6124	6124	6124	6124	6018	6018	6018	5915	5815	5915	5815	5719	5719	5719	5719	5719	5719	5719	5626	5626	5626	5626	5626	5364	5364	5364	5282	5282	5282	5282	5202	5202	5202	5125	5125	5050	5050	5050	5050	5050	4977	4977	4977	4977	4906	4906	4838	4838	4771	4771	4771	4771	4771	0	0	0	0	0	0	0	0	0	0	0	0	0	0	0	0	0	0	0	0	0	0	0	0	0	0	0	0	0	0	0	0	0	0
0	0	0	0	0	0	0	1206	1214	1219	1232	1232	1245	1245	1240	1268	1272	1277	1277	1287	1287	0	0	0	0	0	0	0	6124	6124	6124	6018	5815	5815	5815	5815	5815	5815	5815	5815	5815	5815	5815	5815	5815	5815	5815	5815	5815	5815	5815	5815	5815	5815	5815	5815	5815	5815	5815	5815	5815	5815	5719	5719	5719	5815	5815	5815	5815	5815	5815	5815	5815	5815	5815	5815	5815	5815	5815	5815	5815	5815	5815	6018	5815	5815	5815	5719	5719	5719	5719	5815	5815	5815	5815	5815	5815	5815	5815	5815	5815	5719	5719	5719	5719	5815	5815	5815	5719	5719	5719	5815	5815	5719	5719	5719	5815	5815	5815	5815	5815	5815	5815	5915	5915	5815	5815	5815	5815	5815	5815	5815	5815	5815	5815	5815	5815	5815	5719	5719	5719	5719	5719	5719	5719	5815	5719	5815	5815	5815	5815	5815	5815	5815	5815	5815	5815	5815	5815	5815	5815	5719	5719	5719	5719	4581	4706	4706	4706	4706	4706	4643	4643	4706	4706	4706	4643	4643	4706	4643	4706	4643	4643	4643	4706	4706	4706	4706	4643	4643	4643	4643	4706	4706	4706	4706	4706	4771	4706	4706	4706	4706	4706	4771	4706	4706	4706	4706	4643	4643	4706	4643	4643	4643	4643	4643	4643	4643	4643	4643	4643	4643	4643	4643	4706	4706	4643	4643	4706	4643	4643	4643	4581	4581	4581	4581	4643	4643	4643	4581	4643	4643	4643	4581	4581	4581	4643	4643	4643	4706	4643	4643	4643	4643	4643	4643	4643	4643	4643	4581	4581	4581	4581	4643	4581	4581	4581	4581	4581	4581	4581	4581	4581	4581	4643	4643	4643	4643	4643	4643	4643	4643	4643	4643	4581	4581	4581	4581	4581	4643	4643	4643	4581	4643	4643	4643	4643	4643	4643	4643	4643	4643	4643	4643	4581	4581	4581	4643	4581	4581	4581	4581	4581	4581	4521	4521	4521	4521	4521	4581	4581	4581	4521	4521	4521	4581	4521	4521	4521	4521	4521	4521	4521	4521	4521	4521	4521	4521	4521	4521	4521	4521	4521	4521	4521	4521	4463	3440	3440	3440	3406	3406	3373	3373	3341	3341	3341	3341	3341	3341	3341	3341	3341	3341	3341	3341	3309	3341	3309	3341	3309	3309	3341	3373	3406	3406	3440	3475	3475	4521	4521	4521	4521	4521	4521	4521	4521	4463	4521	4521	4521	4521	4521	4521	4521	4521	4521	4521	4521	4521	4521	4521	4521	4521	4521	4521	4521	4521	4521	4463	4521	4521	4521	4521	4521	4521	4521	4521	4521	4521	4521	4521	4521	4521	4521	4521	4521	4463	4521	4521	4521	4521	4463	4521	4463	4463	4463	4463	4463	4463	4463	4463	4463	4463	4463	4521	4463	4463	4463	4463	4463	4463	4463	4521	4521	4521	4521	4521	4521	4521	4521	4521	4521	4463	4463	4463	4463	4463	4463	4463	4463	4463	4463	4463	4463	4463	4521	4463	4521	4521	4521	4463	4463	4463	6592	6592	6349	6468	6468	6468	6468	6349	6468	6468	6468	6349	6235	6124	6235	6235	6349	6349	6349	6349	6349	6468	6468	6468	6468	6592	6592	6592	6468	6592	6592	6592	6592	6592	6592	6592	6592	6592	6468	6468	6468	6468	6468	6468	6592	6468	6468	6468	6468	6468	6468	6468	6468	6468	6468	6468	6592	6468	6468	6468	6468	6468	6468	6349	6235	6124	6235	6235	6235	6124	6124	6124	6124	6018	6018	5915	5915	5815	5815	5719	5719	5719	5719	5719	5719	5626	5719	5626	5626	5626	5626	5626	5535	5364	5364	5282	5282	5202	5202	5202	5202	5202	5125	5125	5050	5050	5050	5050	5050	4977	4977	4977	4977	4906	4906	4838	4771	4771	4771	4771	4771	4771	0	0	0	0	0	0	0	0	0	0	0	0	0	0	0	0	0	0	0	0	0	0	0	0	0	0	0	0	0	0	0	0	0	0
0	0	0	0	0	0	0	1206	1206	1210	1219	1219	1236	1236	1236	1254	1272	1272	1277	1287	1287	1296	1296	0	0	0	0	0	6124	6124	6124	6018	5915	5915	5815	5815	5815	5815	5815	5815	5815	5815	5815	5815	5815	5815	5815	5815	5815	5815	5815	5815	5815	5815	5815	5815	5815	5815	5815	5815	5815	5815	5719	5815	5815	5815	5815	5815	5815	5815	5815	5815	5815	5815	5815	5815	5815	5815	5815	5815	5815	5815	5815	5815	5815	5815	5815	5719	5719	5719	5719	5815	5815	5815	5815	5815	5815	5815	5815	5815	5815	5815	5815	5815	5815	5815	5815	5815	5815	5815	5815	5815	5815	5815	5815	5815	5815	5815	5815	5815	5815	5815	5815	5915	5915	5815	5815	5815	5815	5815	5815	5815	5815	5815	5815	5815	5815	5815	5719	5719	5719	5719	5719	5719	5719	5815	5719	5815	5815	5815	5815	5815	5815	5815	5915	5915	5915	5815	5815	5815	5815	5719	5719	5815	5815	4581	4706	4643	4643	4643	4643	4643	4706	4771	4771	4771	4771	4643	4771	4643	4706	4643	4643	4643	4643	4643	4706	4706	4643	4643	4643	4643	4706	4706	4706	4706	4706	4706	4706	4706	4706	4706	4706	4706	4706	4706	4706	4706	4643	4706	4706	4706	4643	4643	4643	4643	4643	4643	4643	4643	4643	4643	4643	4643	4706	4706	4643	4643	4643	4643	4581	4581	4581	4581	4581	4581	4643	4643	4643	4581	4643	4643	4643	4581	4643	4643	4643	4643	4643	4643	4643	4706	4706	4643	4643	4643	4643	4581	4643	4581	4581	4581	4643	4643	4643	4581	4581	4581	4581	4581	4581	4581	4581	4581	4643	4643	4643	4643	4643	4643	4643	4643	4643	4643	4643	4643	4643	4643	4643	4643	4643	4643	4581	4643	4643	4643	4643	4643	4643	4643	4643	4643	4643	4643	4643	4581	4581	4581	4581	4581	4581	4581	4581	4581	4521	4521	4521	4521	4521	4521	4581	4581	4521	4581	4581	4581	4521	4521	4521	4521	4521	4521	4521	4521	4521	4521	4521	4521	4521	4521	4521	4521	4521	4521	4521	4521	4463	3440	3440	3406	3406	3406	3373	3373	3341	3341	3341	3341	3341	3341	3341	3341	3341	3341	3341	3341	3309	3341	3341	3341	3309	3309	3341	3341	3406	3406	3406	3406	4521	4521	4463	4521	4521	4521	4521	4521	4521	4463	4521	4521	4521	4521	4521	4521	4521	4521	4521	4521	4521	4521	4521	4521	4521	4521	4521	4521	4521	4521	4521	4521	4521	4521	4521	4521	4521	4521	4521	4521	4521	4521	4521	4521	4521	4521	4521	4521	4521	4521	4521	4521	4521	4521	4521	4521	4463	4463	4463	4463	4463	4463	4463	4463	4463	4463	4463	4463	4463	4463	4463	4463	4463	4463	4463	4521	4521	4521	4521	4521	4521	4521	4521	4521	4521	4463	4463	4463	4463	4463	4463	4463	4463	4463	4463	4463	4463	4463	4463	4463	4521	4521	4521	4463	4463	4463	6592	6592	6468	6468	6468	6468	6468	6468	6468	6468	6468	0	0	0	6235	6235	6349	6349	6349	6468	6468	6468	6468	6468	6468	6592	6592	6592	6592	6592	6592	6592	6592	6592	6592	6592	6592	6592	6592	6592	6468	6592	6592	6592	6592	6592	6592	6468	6592	6592	6592	6592	6592	6468	6468	6468	6592	6468	6468	6468	6468	6468	6468	6349	6235	6235	6235	6235	6235	6124	6124	6124	6018	6018	6018	5915	5915	5815	5815	5815	5815	5719	5719	5719	5719	5719	5719	5719	5719	5626	5626	5626	5364	5364	5364	5282	5282	5282	5202	5125	5125	5125	5125	5125	5050	5125	5050	5050	5050	4977	4977	4977	4977	4906	4906	4838	4771	4771	4771	4771	4771	4771	0	0	0	0	0	0	0	0	0	0	0	0	0	0	0	0	0	0	0	0	0	0	0	0	0	0	0	0	0	0	0	0	0	0
0	0	0	0	0	0	0	1206	1210	1214	1214	1219	1223	1236	1236	1249	1263	1268	1282	1282	1287	1296	1296	0	0	0	0	0	0	6124	6124	6018	5915	6018	5815	5815	5815	5815	5815	5815	5815	5815	5815	5815	5815	5815	5815	5815	5815	5815	5815	5815	5815	5815	5815	5815	5815	5815	5815	5815	5815	5815	5815	5815	5815	5815	5815	5815	5815	5815	5815	5815	5815	5815	5815	5719	5815	5815	5815	5815	5815	5719	5815	5815	5815	5719	5719	5719	5719	5719	5719	5719	5719	5719	5719	5815	5815	5815	5815	5815	5815	5719	5815	5719	5815	5815	5815	5815	5815	5815	5815	5815	5815	5815	5815	5815	5815	5815	5815	5815	5815	5815	5815	5815	5915	5815	5815	5815	5815	5815	5815	5719	5719	5719	5815	5815	5815	5815	5815	5815	5719	5719	5719	5719	5719	5719	5719	5815	5719	5815	5815	5815	5815	5815	5915	5915	5915	5815	5815	5815	5815	5815	5815	5815	5815	5915	4706	4706	4706	4706	4706	4706	4706	4771	4771	4771	4771	4706	4771	4771	4706	4706	4706	4706	4706	4706	4706	4706	4706	4643	4706	4643	4706	4706	4706	4706	4706	4706	4706	4706	4643	4643	4643	4643	4643	4706	4706	4706	4643	4643	4643	4643	4643	4643	4643	4643	4643	4643	4643	4643	4643	4643	4643	4643	4706	4706	4643	4643	4643	4643	4643	4643	4581	4581	4581	4581	4581	4581	4581	4581	4643	4643	4643	4581	4643	4643	4643	4643	4643	4643	4706	4706	4706	4643	4643	4643	4581	4581	4643	4581	4643	4643	4643	4643	4643	4643	4581	4581	4581	4581	4581	4581	4643	4643	4643	4643	4643	4643	4643	4643	4643	4581	4581	4581	4581	4643	4581	4643	4643	4643	4643	4643	4581	4643	4643	4643	4643	4643	4643	4643	4643	4643	4643	4643	4643	4581	4643	4643	4643	4581	4581	4581	4581	4521	4521	4521	4521	4521	4521	4521	4521	4581	4521	4581	4581	4581	4581	4521	4521	4521	4581	4521	4521	4521	4521	4521	4521	4521	4521	4521	4521	4521	4521	4463	4463	4463	4463	3406	3406	3406	3406	3406	3373	3341	3341	3341	3341	3341	3341	3341	3341	3309	3341	3341	3341	3341	3309	3341	3341	3341	3309	3309	3341	3341	3373	3406	3406	4581	4521	4521	4521	4521	4521	4521	4463	4521	4521	4463	4521	4521	4521	4521	4521	4521	4521	4521	4521	4521	4521	4521	4521	4521	4521	4521	4521	4521	4521	4521	4521	4521	4521	4521	4521	4521	4521	4521	4521	4521	4521	4521	4521	4521	4521	4521	4521	4521	4521	4521	4521	4521	4521	4521	4463	4521	4463	4463	4463	4463	4463	4463	4463	4463	4463	4463	4463	4463	4463	4463	4463	4463	4463	4521	4521	4521	4581	4581	4521	4521	4521	4521	4521	4521	4521	4463	4463	4463	4463	4463	4463	4463	4463	4463	4521	4463	4463	4463	4463	4463	4521	4521	4521	4521	4521	4521	6720	6720	6468	6468	6468	6468	6468	6468	6468	6468	0	0	0	0	0	6235	6468	6468	6468	6468	6468	6468	6468	6592	6468	6592	6592	6592	6592	6592	6592	6720	6592	6592	6592	6592	6592	6592	6592	6468	6468	6468	6468	6468	6592	6592	6592	6592	6592	6592	6592	6592	6592	6592	6592	6468	6468	6468	6468	6468	6468	6349	6349	6349	6235	6235	6235	6235	6235	6124	6124	6124	6018	6018	6018	5915	5915	5915	5915	5815	5815	5719	5719	5719	5719	5719	5719	5626	5719	5626	5626	5626	5626	5364	5364	5282	5282	5202	5202	5125	5125	5125	5125	5125	5050	5125	5050	5050	5050	4977	4977	4977	4977	4906	4906	4838	4771	4771	4771	4771	4771	4771	0	0	0	0	0	0	0	0	0	0	0	0	0	0	0	0	0	0	0	0	0	0	0	0	0	0	0	0	0	0	0	0	0	0
0	0	0	0	0	0	0	1206	1210	1214	1214	1214	1219	1232	1232	1240	1249	1268	1268	1272	1287	1291	1296	1296	1301	1301	0	0	0	0	0	6018	5915	6018	5815	5815	5815	5815	5915	5815	5815	5815	5815	5815	5815	5815	5815	5815	5815	5815	5815	5815	5815	5815	5815	5815	5915	5815	5815	5815	5815	5815	5815	5815	5815	5815	5815	5815	5815	5815	5815	5815	5815	5815	5815	5719	5815	5815	5815	5815	5815	5815	5815	5815	5815	5815	5815	5719	5719	5719	5719	5719	5719	5719	5719	5815	5815	5815	5815	5815	5719	5815	5719	5719	5815	5815	5815	5815	5815	5815	5815	5815	5815	5815	5815	5719	5815	5815	5815	5815	5815	5815	5815	5915	5915	5815	5815	5815	5815	5815	5815	5815	5815	5719	5719	5815	5815	5815	5815	5815	5815	5815	5719	5719	5719	5719	5719	5719	5719	5719	5815	5915	5815	5815	5815	5915	5915	5915	5915	5915	5815	5815	5815	5815	5815	4581	4706	4706	4706	4706	4706	4706	4706	4643	4643	4771	4771	4643	4771	4771	4706	4706	4706	4706	4706	4771	4771	4771	4706	4706	4706	4706	4706	4706	4706	4706	4706	4771	4706	4706	4643	4643	4643	4643	4643	4643	4643	4643	4643	4643	4643	4643	4643	4643	4643	4643	4643	4643	4643	4643	4643	4643	4643	4643	4643	4643	4643	4643	4643	4581	4581	4581	4581	4581	4581	4581	4581	4643	4643	4643	4643	4643	4643	4581	4643	4643	4643	4643	4643	4643	4706	4643	4643	4643	4643	4643	4581	4581	4581	4581	4581	4643	4643	4643	4643	4581	4581	4581	4581	4581	4581	4581	4643	4643	4643	4643	4643	4643	4643	4581	4581	4581	4581	4581	4581	4581	4581	4581	4643	4581	4643	4581	4581	4643	4643	4643	4643	4643	4643	4643	4643	4643	4643	4643	4643	4643	4643	4643	4643	4581	4581	4521	4521	4521	4521	4521	4521	4521	4521	4521	4581	4581	4521	4581	4581	4581	4581	4581	4581	4521	4581	4581	4521	4521	4521	4521	4521	4521	4521	4521	4521	4521	4521	4463	4521	4463	4406	4406	3406	3406	3406	3373	3373	3373	3341	3341	3341	3341	3341	3341	3341	3309	3309	3309	3309	3341	3309	3309	3309	3309	3309	3309	3341	3406	3406	4643	4581	4581	4521	4521	4521	4521	4521	4521	4463	4521	4463	4463	4521	4521	4521	4521	4521	4521	4521	4521	4521	4521	4521	4521	4521	4521	4521	4521	4521	4521	4521	4521	4521	4521	4521	4521	4521	4521	4521	4521	4521	4521	4463	4521	4521	4463	4521	4521	4521	4521	4521	4521	4521	4521	4521	4521	4521	4521	4463	4463	4463	4463	4463	4463	4463	4463	4463	4463	4463	4463	4463	4463	4463	4463	4463	4463	4463	4521	4521	4521	4521	4521	4521	4521	4521	4521	4521	4463	4463	4463	4463	4406	4463	4463	4521	4463	4521	4463	4463	4463	4463	4463	4463	4521	4521	4521	4463	4463	6592	6592	6592	6592	6468	6468	6592	6592	6592	6592	0	0	0	0	0	6468	6468	6468	6468	6592	6592	6592	6592	6592	6592	6720	6720	6720	6720	6720	6720	6720	6720	6592	6592	6592	6592	6592	6592	6592	6592	6468	6468	6468	6592	6592	6592	6592	6592	6592	6592	6592	6592	6592	6592	6592	6592	6468	6468	6468	6468	6349	6349	6349	6235	6235	6235	6235	6235	6124	6124	6124	6018	6018	5915	5915	6018	6018	5915	5915	5815	5815	5719	5719	5719	5626	5626	5626	5626	5626	5626	5626	5364	5364	5282	5202	5282	5202	5125	5125	5125	5125	5050	5050	5050	5125	5050	5050	5050	4977	4977	4977	4977	4906	4906	4838	4771	4771	4771	4771	4771	4771	0	0	0	0	0	0	0	0	0	0	0	0	0	0	0	0	0	0	0	0	0	0	0	0	0	0	0	0	0	0	0	0	0	0
0	0	0	0	0	0	0	1210	1214	1214	1214	1214	1214	1223	1223	1236	1240	1254	1259	1263	1277	1287	1291	1296	1311	1311	0	0	0	0	0	0	0	0	5815	5815	5815	5815	6018	6018	5815	5815	5815	5815	5815	5815	5815	5815	5915	5815	5915	5915	5915	5915	5815	5815	5815	5815	5815	5815	5815	5815	5815	5815	5815	5815	5915	5815	5815	5815	5815	5815	5815	5815	5815	5815	5815	5815	5815	5815	5815	5815	5815	5815	5815	5815	5815	5815	5719	5719	5719	5719	5719	5719	5719	5719	5815	5815	5815	5815	5815	5815	5815	5815	5815	5815	5815	5815	5815	5815	5815	5815	5815	5815	5719	5815	5815	5815	5815	5815	5815	5915	5815	5815	5915	5815	5815	5815	5815	5815	5815	5719	5719	5719	5719	5719	5815	5815	5815	5815	5719	5719	5719	5719	5719	5719	5719	5719	5815	5815	5815	5915	5915	5915	6018	6018	6018	5915	5915	5915	5915	5815	5815	5719	5815	4581	4643	4643	4643	4643	4706	4643	4643	4643	4643	4643	4643	4643	4643	4643	4643	4706	4706	4706	4706	4706	4771	4771	4706	4706	4706	4706	4706	4706	4706	4706	4706	4771	4706	4706	4643	4643	4643	4643	4643	4643	4643	4643	4643	4643	4643	4643	4643	4643	4643	4643	4643	4643	4643	4643	4643	4643	4643	4706	4643	4643	4643	4643	4581	4581	4581	4581	4581	4581	4581	4581	4643	4643	4643	4643	4643	4643	4643	4581	4643	4643	4643	4643	4643	4643	4706	4706	4643	4643	4643	4643	4581	4581	4581	4581	4581	4643	4643	4643	4643	4581	4581	4581	4581	4581	4581	4581	4643	4643	4643	4643	4643	4643	4643	4581	4581	4581	4581	4581	4581	4581	4581	4643	4643	4643	4643	4643	4581	4643	4643	4581	4581	4643	4643	4643	4643	4643	4643	4643	4643	4643	4643	4643	4643	4581	4643	4521	4521	4521	4521	4521	4521	4521	4521	4521	4581	4581	4521	4521	4581	4581	4581	4581	4581	4581	4581	4581	4581	4521	4521	4521	4521	4521	4521	4521	4521	4521	4521	4521	4521	4521	4521	4463	4463	4463	3373	3373	3373	3373	3373	3373	3373	3341	3341	3341	3341	3341	3341	3341	3341	3341	3341	3341	3341	3341	3341	3341	3406	3440	3440	4581	4521	4521	4521	4521	4463	4463	4463	4463	4463	4463	4463	4463	4463	4463	4463	4521	4521	4521	4521	4521	4521	4521	4521	4521	4521	4521	4521	4521	4521	4521	4521	4521	4521	4521	4521	4521	4521	4521	4521	4463	4521	4521	4463	4521	4521	4463	4463	4521	4463	4521	4521	4463	4521	4521	4521	4521	4463	4463	4463	4463	4463	4463	4463	4463	4463	4463	4463	4463	4463	4463	4463	4463	4463	4463	4463	4463	4521	4521	4521	4463	4521	4521	4521	4521	4521	4521	4521	4463	4463	4463	4463	4463	4463	4463	4521	4463	4521	4463	4463	4463	4463	4463	4463	4463	4463	4463	4463	4463	6592	6592	6592	6592	6592	6592	6592	6592	6592	6592	0	0	0	0	0	6468	6592	6592	6592	6592	6592	6592	6592	6592	6592	6720	6720	6720	6720	6720	6720	6720	6720	6592	6592	6592	6592	6592	6592	6592	6592	6468	6468	6468	6592	6592	6592	6592	6592	6720	6720	6720	6720	6720	6592	6592	6592	6592	6468	6468	6468	6468	6349	6349	6235	6235	6235	6235	6235	6124	6124	6124	6018	6018	5915	5915	6018	5815	5815	5815	5719	5719	5719	5719	5719	5626	5626	5626	5626	5535	5626	5626	5364	5364	5282	5282	5202	5202	5125	5125	5125	5125	5050	5050	5050	5050	5050	5050	5050	4977	4977	4977	4977	4977	4906	4906	4771	4771	4838	4838	4838	4838	0	0	0	0	0	0	0	0	0	0	0	0	0	0	0	0	0	0	0	0	0	0	0	0	0	0	0	0	0	0	0	0	0	0
0	0	0	0	0	0	0	1210	1214	1214	1214	1214	1214	1223	1223	1240	1236	1254	1254	1259	1263	1268	1272	1272	1301	1306	1306	1306	0	0	0	0	5719	5719	5815	5815	5719	5815	5915	5915	5815	5815	5815	5815	5815	5915	5915	5915	5915	5915	6018	6018	5915	5915	5815	5815	5915	5815	5815	5815	5815	5815	5815	5815	5815	5815	5915	5915	5915	5815	5815	5815	5815	5815	5815	5719	5815	5815	5815	5815	5815	5719	5815	5815	5815	5815	5815	5815	5815	5815	5719	5719	5719	5719	5719	5719	5815	5815	5815	5815	5815	5815	5815	5815	5815	5815	5915	5915	5815	5815	5815	5815	5815	5815	5719	5719	5815	5815	5815	5815	5815	5915	5815	5815	5815	5815	5815	5815	5815	5719	5815	5719	5719	5719	5719	5719	5719	5719	5719	5719	5719	5719	5719	5719	5719	5815	5719	5815	5815	5815	5815	5915	5915	5815	6018	6018	6018	5915	5915	5915	5915	5815	5815	5815	5815	4581	4643	4643	4706	4643	4706	4706	4706	4643	4643	4643	4643	4643	4643	4643	4706	4706	4706	4706	4771	4771	4771	4771	4771	4771	4771	4771	4706	4706	4706	4706	4706	4706	4706	4643	4643	4643	4643	4643	4643	4643	4643	4643	4643	4706	4706	4643	4643	4643	4643	4581	4581	4581	4643	4643	4643	4643	4643	4643	4643	4643	4643	4643	4581	4581	4581	4581	4581	4581	4581	4581	4581	4643	4643	4643	4643	4643	4643	4581	4643	4643	4643	4643	4643	4643	4706	4706	4643	4643	4643	4643	4643	4643	4643	4643	4643	4643	4643	4643	4643	4581	4581	4581	4581	4581	4581	4581	4643	4643	4643	4643	4643	4643	4643	4581	4581	4643	4643	4643	4643	4643	4643	4643	4643	4643	4643	4643	4581	4581	4643	4581	4581	4643	4643	4643	4643	4643	4643	4643	4643	4643	4581	4643	4581	4581	4581	4521	4521	4521	4521	4521	4521	4521	4521	4521	4581	4581	4521	4521	4521	4521	4521	4521	4521	4521	4581	4521	4521	4521	4521	4521	4521	4521	4521	4521	4521	4521	4521	4521	4463	4521	4521	4521	4521	4463	3406	3406	3373	3373	3373	3373	3373	3341	3341	3341	3341	3309	3309	3309	3309	3341	3341	3341	3341	3341	3341	3406	3406	3440	3440	4581	4521	4521	4521	4521	4521	4521	4463	4463	4463	4463	4463	4463	4463	4463	4463	4463	4521	4521	4521	4521	4521	4521	4521	4521	4521	4521	4521	4463	4463	4521	4521	4521	4521	4521	4521	4521	4521	4521	4463	4463	4521	4521	4463	4521	4521	4521	4521	4521	4463	4521	4521	4463	4521	4521	4521	4521	4463	4463	4463	4463	4463	4463	4463	4463	4463	4463	4463	4463	4463	4463	4463	4463	4463	4463	4463	4463	4521	4521	4521	4521	4521	4521	4521	4521	4521	4521	4521	4463	4463	4463	4463	4463	4463	4521	4521	4521	4521	4521	4463	4521	4463	4463	4463	4463	4463	4463	4406	4406	6720	6720	6592	6592	6592	6592	6592	6592	6592	6592	6592	0	0	0	0	6592	6592	6592	6592	6592	6592	6592	6592	6592	6592	6720	6720	6720	6720	6853	6720	6720	6720	6592	6592	6592	6592	6592	6592	6592	6468	6468	6468	6468	6592	6592	6592	6592	6592	6720	6720	6720	6720	6720	6592	6592	6592	6592	6468	6468	6468	6468	6349	6349	6235	6235	6235	6235	6235	6124	6124	6124	6018	6018	5915	5915	6018	5915	5815	5815	5719	5719	5719	5719	5719	5626	5626	5626	5535	5535	5626	5626	5364	5364	5364	5282	5282	5125	5125	5050	5050	5050	5050	5050	5050	5050	5050	4977	4977	4977	4977	4977	4977	4977	4906	4906	4771	4771	4838	4838	4771	4771	0	0	0	0	0	0	0	0	0	0	0	0	0	0	0	0	0	0	0	0	0	0	0	0	0	0	0	0	0	0	0	0	0	0
0	0	0	0	0	0	0	1210	1214	1214	1214	1214	1214	1219	1232	1236	1240	1249	1249	1254	1259	1263	1268	1272	1291	1301	1301	1301	0	0	0	0	5719	5719	0	0	5719	5815	5815	5915	5815	5815	5815	5815	5815	5815	5815	5815	5815	5915	6018	6018	5915	6018	5915	5915	5815	5815	5815	5815	5815	5815	5815	5815	5815	5815	5915	5915	5915	5915	5915	5915	5815	5815	5815	5719	5815	5815	5815	5815	5815	5719	5815	5815	5815	5815	5815	5719	5719	5719	5719	5719	5719	5719	5719	5719	5815	5815	5815	5815	5815	5815	5815	5815	5815	5915	5915	5915	5815	5815	5815	5815	5815	5719	5719	5719	5719	5815	5815	5815	5815	5815	5815	5815	5815	5815	5815	5815	5815	5815	5815	5815	5719	5719	5719	5719	5815	5815	5815	5815	5815	5815	5815	5815	5719	5815	5719	5815	5815	5815	5915	5915	5915	5815	6018	6018	6018	6018	5915	5915	5915	5815	5815	5815	4581	4581	4643	4643	4643	4643	4706	4643	4643	4643	4643	4643	4643	4643	4643	4643	4643	4706	4643	4706	4706	4706	4706	4771	4771	4771	4771	4771	4771	4771	4771	4706	4643	4706	4643	4643	4643	4643	4643	4643	4643	4643	4643	4643	4643	4706	4706	4643	4706	4643	4643	4643	4643	4581	4643	4643	4643	4643	4643	4643	4643	4643	4643	4643	4643	4581	4581	4581	4581	4581	4581	4581	4581	4581	4643	4643	4643	4643	4643	4643	4643	4643	4706	4706	4706	4706	4706	4643	4643	4643	4643	4643	4643	4643	4643	4643	4643	4643	4643	4643	4643	4643	4643	4581	4581	4643	4581	4581	4643	4643	4581	4581	4581	4581	4643	4581	4581	4581	4643	4643	4643	4643	4643	4643	4643	4643	4643	4581	4581	4581	4581	4581	4581	4643	4643	4643	4643	4643	4643	4581	4643	4581	4581	4581	4581	4581	4581	4521	4521	4521	4521	4521	4521	4521	4521	4581	4581	4581	4521	4521	4521	4581	4581	4581	4521	4521	4581	4581	4521	4521	4521	4521	4521	4521	4521	4521	4521	4463	4521	4463	4521	4521	4521	4521	4521	4463	4463	3406	3406	3373	3373	3373	3373	3341	3341	3309	3341	3309	3309	3309	3309	3309	3341	3341	3341	3373	3373	3373	3406	3406	4521	4521	4521	4521	4521	4521	4521	4521	4521	4463	4463	4463	4463	4463	4463	4463	4463	4463	4463	4463	4521	4521	4521	4521	4521	4521	4521	4521	4521	4463	4463	4463	4521	4521	4521	4463	4521	4521	4521	4521	4463	4463	4521	4521	4463	4521	4521	4463	4521	4521	4521	4521	4521	4521	4521	4521	4521	4521	4463	4463	4463	4463	4463	4463	4463	4463	4463	4463	4463	4463	4463	4463	4463	4463	4463	4463	4463	4463	4521	4521	4521	4521	4521	4521	4521	4521	4521	4521	4521	4463	4463	4463	4463	4463	4463	4463	4463	4521	4521	4521	4521	4521	4463	4521	4463	4463	4463	4463	4406	4406	6592	6592	6592	6592	6592	6592	6592	6592	6592	6592	6592	0	0	6720	6720	6592	6720	6720	6592	6720	6592	6592	6592	6592	6720	6720	6720	6853	6853	6853	6720	6853	6720	6720	6592	6592	6592	6592	6592	6592	6592	6592	6592	6592	6592	6592	6592	6720	6720	6853	6853	6853	6720	6720	6592	6592	6592	6592	6468	6468	6468	6468	6349	6349	6235	6235	6235	6124	6124	6124	6124	6124	6018	6018	5915	5915	5915	5915	5815	5815	5719	5719	5719	5719	5719	5626	5535	5535	5535	5535	5535	5448	5448	5364	5364	5202	5202	5125	5125	5125	5125	5125	5125	5125	5050	5050	4977	4977	5050	4977	4977	4977	4977	4977	4977	4906	4906	4771	4838	4838	4771	4771	0	0	0	0	0	0	0	0	0	0	0	0	0	0	0	0	0	0	0	0	0	0	0	0	0	0	0	0	0	0	0	0	0	0
0	0	0	0	0	0	0	1206	1210	1214	1214	1214	1219	1223	1232	1236	1240	1245	1249	1254	1263	1263	1268	1272	1277	1291	1301	1301	0	0	0	1331	1342	1342	0	5626	5719	5719	5719	5719	5815	5815	5815	5815	5815	5815	5815	5815	5815	5915	6018	6018	5915	6018	5915	5915	5815	5815	5815	5815	5815	5815	5815	5815	5815	5815	5815	6018	5915	5915	5915	5915	5915	5815	5815	5815	5815	5815	5815	5815	5815	5815	5815	5815	5815	5815	5815	5815	5719	5719	5719	5719	5719	5719	5719	5719	5815	5815	5815	5815	5815	5815	5915	5915	5915	5915	5915	5915	5815	5815	5815	5815	5815	5719	5719	5719	5719	5815	5815	5815	5815	5815	5815	5815	5815	5815	5815	5815	5815	5815	5815	5815	5719	5815	5815	5815	5815	5815	5815	5815	5815	5815	5815	5719	5719	5815	5815	5815	5815	5815	5915	5915	5815	5815	5815	5815	5815	6018	5915	5915	5915	5815	5815	5815	5815	4643	4643	4643	4643	4706	4706	4643	4643	4643	4643	4643	4643	4643	4643	4643	4643	4706	4643	4643	4706	4706	4706	4706	4706	4771	4771	4771	4771	4706	4706	4706	4706	4706	4706	4643	4643	4643	4643	4643	4643	4643	4643	4706	4706	4706	4706	4643	4706	4643	4643	4643	4643	4643	4643	4643	4643	4643	4643	4581	4643	4643	4643	4643	4643	4643	4581	4581	4581	4581	4581	4581	4581	4581	4581	4643	4643	4643	4643	4581	4643	4643	4706	4706	4706	4643	4643	4706	4643	4643	4643	4643	4643	4643	4643	4643	4643	4643	4643	4643	4643	4581	4581	4581	4581	4581	4581	4581	4643	4643	4643	4643	4643	4643	4643	4581	4581	4581	4643	4643	4643	4643	4643	4643	4643	4643	4581	4581	4581	4581	4581	4581	4581	4581	4581	4581	4581	4581	4581	4581	4581	4581	4581	4581	4581	4581	4581	4521	4521	4521	4521	4521	4521	4521	4521	4581	4581	4581	4581	4521	4521	4521	4581	4581	4521	4521	4581	4581	4581	4581	4521	4521	4521	4521	4521	4521	4521	4521	4521	4521	4521	4521	4521	4521	4521	4521	4521	4521	3373	3373	3373	3373	3341	3341	3341	3309	3309	3309	3309	3309	3309	3309	3341	3341	3341	3373	3373	3373	3440	3440	4521	4521	4521	4521	4521	4521	4521	4521	4463	4463	4463	4463	4463	4463	4463	4463	4463	4463	4463	4463	4521	4521	4521	4521	4521	4521	4521	4521	4463	4463	4463	4463	4521	4521	4521	4521	4521	4521	4521	4521	4463	4463	4521	4521	4463	4463	4521	4521	4521	4521	4521	4521	4463	4463	4463	4521	4521	4521	4463	4463	4521	4521	4521	4463	4463	4463	4463	4463	4463	4463	4463	4463	4463	4463	4463	4463	4463	4463	4463	4463	4521	4521	4521	4521	4521	4521	4521	4463	4521	4463	4463	4463	4463	4463	4463	4463	4463	4463	4521	4463	4463	4521	4463	4463	4463	4463	4463	4463	4406	4406	6592	6592	6592	6592	6592	6592	6592	6592	6592	6592	6592	6720	6720	6720	6592	6592	6720	6720	6592	6720	6592	6592	6720	6720	6720	6720	6853	6853	6992	6992	6853	6853	6853	6720	6592	6592	6592	6720	6720	6592	6592	6592	6592	6592	6720	6592	6720	6720	6853	6853	6853	6853	6720	6720	6720	6592	6592	6592	6468	6468	6468	6468	6468	6349	6235	6235	6235	6124	6124	6124	6124	6124	6018	6018	6018	6018	5915	5915	5815	5815	5815	5719	5719	5719	5719	5626	5535	5535	5535	5535	5535	5448	5448	5364	5364	5202	5202	5202	5202	5202	5202	5125	5125	5125	5050	5050	5050	5050	5050	4977	4977	4977	4977	4977	4977	4977	4906	4906	4906	4838	4771	4771	0	0	0	0	0	0	0	0	0	0	0	0	0	0	0	0	0	0	0	0	0	0	0	0	0	0	0	0	0	0	0	0	0	0
0	0	0	0	0	0	0	1206	1210	1214	1214	1214	1219	1219	1236	1236	1240	1245	1249	1254	1259	1263	1263	1268	1272	1277	1291	1291	1282	1282	1331	1331	1342	1342	1342	1342	5719	5719	5719	5719	0	5815	5815	5719	5719	5815	5815	5815	5815	5915	6018	5815	5815	5815	5815	5915	5815	5815	5815	5815	5815	5815	5815	5815	5815	5815	5815	6018	6018	6018	5915	5915	5815	5815	5815	5815	5815	5815	5815	5815	5815	5815	5815	5815	5815	5815	5815	5815	5719	5719	5719	5719	5719	5719	5719	5719	5815	5815	5815	5815	5815	5815	5915	5915	5915	5915	5915	5915	5815	5815	5815	5815	5815	5815	5719	5719	5719	5719	5815	5815	5815	5815	5815	5815	5815	5815	5815	5815	5815	5815	5815	5815	5719	5719	5719	5815	5815	5815	5815	5815	5815	5815	5719	5719	5719	5719	5719	5815	5815	5815	5815	5815	5815	5815	5815	5815	5815	5815	5815	5915	5915	5815	5815	5815	5815	4643	4643	4706	4706	4706	4706	4706	4643	4643	4643	4643	4643	4643	4643	4643	4643	4706	4643	4643	4706	4706	4706	4706	4706	4706	4771	4771	4706	4706	4706	4706	4706	4706	4706	4706	4643	4643	4643	4643	4643	4643	4643	4706	4706	4706	4706	4706	4706	4643	4643	4643	4643	4643	4643	4643	4643	4643	4643	4581	4581	4643	4643	4643	4643	4643	4643	4643	4643	4581	4581	4581	4581	4581	4581	4643	4643	4643	4643	4581	4643	4643	4643	4643	4643	4643	4643	4643	4643	4643	4581	4643	4643	4643	4643	4643	4643	4643	4643	4643	4643	4643	4643	4581	4581	4581	4581	4581	4643	4643	4643	4581	4643	4643	4643	4643	4643	4643	4643	4643	4643	4643	4643	4643	4643	4581	4581	4581	4581	4581	4581	4581	4581	4581	4581	4581	4581	4581	4581	4581	4581	4581	4581	4581	4581	4581	4581	4521	4521	4521	4521	4521	4521	4521	4521	4581	4581	4581	4521	4521	4521	4521	4521	4581	4521	4521	4581	4581	4581	4521	4521	4521	4521	4521	4521	4463	4521	4463	4521	4521	4521	4521	4521	4521	4521	4521	4581	4581	3373	3373	3373	3373	3341	3341	3341	3341	3341	3309	3309	3309	3309	3341	3341	3341	3341	3373	3373	3373	3373	4521	4521	4521	4521	4521	4521	4521	4521	4521	4521	4521	4463	4463	4463	4463	4463	4463	4463	4463	4463	4463	4521	4521	4521	4521	4521	4521	4521	4521	4463	4463	4463	4463	4521	4521	4521	4521	4521	4521	4521	4521	4463	4463	4521	4463	4463	4463	4463	4463	4521	4463	4463	4463	4463	4463	4463	4521	4521	4521	4463	4463	4521	4521	4521	4463	4463	4463	4521	4463	4463	4463	4463	4463	4463	4463	4463	4463	4463	4463	4463	4463	4521	4521	4521	4521	4521	4521	4521	4521	4521	4463	4463	4463	4463	4463	4463	4463	4463	4463	4521	4463	4463	4521	4521	4463	4463	4463	4463	4463	4406	4406	6468	6592	6592	6592	6592	6592	6592	6592	6592	6592	6592	6720	6720	6720	6720	6720	6720	6720	6720	6720	6720	6720	6720	6853	6853	6853	6853	6992	6992	6992	6853	6853	6853	6853	6720	6853	6853	6853	6853	6720	6720	6720	6720	6720	6720	6720	6853	6853	6853	6853	6853	6853	6720	6720	6592	6592	6592	6592	6468	6468	6468	6468	6349	6235	6124	6124	6124	6124	6124	6124	6124	6124	6018	6018	6018	6018	5915	5915	5915	5815	5815	5719	5719	5719	5719	5719	5626	5626	5535	5626	5535	5448	5448	5364	5364	5282	5282	5202	5202	5202	5202	5202	5202	5202	5125	5050	5050	5050	5050	4977	4977	4977	4977	4977	4977	4977	4977	4906	4977	4906	4771	4771	0	0	0	0	0	0	0	0	0	0	0	0	0	0	0	0	0	0	0	0	0	0	0	0	0	0	0	0	0	0	0	0	0	0
0	0	0	0	0	0	0	1202	1202	1210	1214	1219	1219	1232	1236	1236	1240	1245	1249	1254	1263	1259	1263	1263	1268	1268	1277	1282	1282	1282	1331	1331	1336	1342	1342	1342	1342	0	0	0	0	0	0	5719	5719	5719	5719	5815	5815	5915	5915	5815	5815	5915	5915	5915	5815	5815	5915	5815	5815	5815	5815	5815	5815	5815	6018	6018	6018	6018	6018	6018	5915	5815	5815	5815	5719	5815	5815	5719	5815	5719	5719	5815	5815	5815	5815	5815	5719	5719	5719	5719	5719	5719	5719	5719	5719	5815	5815	5815	5815	5815	5915	5815	5815	5815	5815	5815	5815	5815	5815	5815	5815	5815	5719	5719	5719	5815	5815	5815	5815	5815	5815	5815	5815	5815	5815	5815	5815	5719	5815	5815	5815	5719	5719	5815	5815	5719	5815	5815	5815	5815	5815	5815	5719	5719	5719	5815	5815	5815	5815	5815	5815	5815	5815	5815	5815	5815	5815	5815	5915	5815	5815	5815	5915	5915	4706	4706	4706	4706	4706	4706	4643	4643	4643	4643	4643	4643	4643	4643	4706	4706	4643	4643	4643	4706	4706	4706	4706	4706	4706	4706	4706	4706	4706	4706	4706	4706	4706	4706	4706	4706	4706	4643	4643	4706	4706	4706	4706	4706	4706	4706	4706	4643	4643	4643	4643	4643	4643	4643	4643	4643	4643	4643	4581	4643	4643	4643	4643	4643	4643	4643	4643	4581	4581	4581	4581	4581	4581	4643	4643	4643	4643	4643	4643	4643	4643	4643	4643	4643	4643	4643	4643	4643	4643	4643	4643	4643	4643	4643	4643	4643	4643	4643	4643	4643	4643	4643	4581	4581	4581	4581	4581	4581	4581	4581	4643	4643	4643	4643	4643	4706	4706	4643	4643	4643	4643	4643	4581	4581	4581	4581	4581	4581	4581	4581	4581	4581	4581	4581	4581	4581	4581	4581	4581	4581	4581	4581	4581	4581	4581	4521	4521	4521	4521	4521	4581	4581	4581	4581	4581	4581	4521	4521	4521	4521	4521	4521	4521	4521	4521	4581	4581	4521	4521	4521	4521	4521	4521	4521	4521	4521	4521	4521	4521	4521	4521	4521	4521	4521	4581	4521	3406	3406	3406	3373	3373	3341	3341	3341	3341	3309	3309	3309	3309	3341	3341	3341	3341	3373	3373	3373	3373	4521	4521	4521	4521	4521	4521	4521	4521	4521	4521	4521	4463	4463	4463	4463	4463	4463	4463	4463	4463	4463	4463	4521	4521	4521	4521	4521	4521	4463	4463	4463	4463	4463	4521	4521	4521	4521	4521	4521	4521	4521	4521	4463	4521	4463	4463	4463	4463	4463	4463	4463	4463	4463	4463	4463	4463	4521	4521	4521	4463	4463	4521	4463	4521	4463	4463	4463	4463	4463	4463	4463	4463	4463	4463	4463	4463	4463	4463	4521	4521	4463	4463	4463	4463	4463	4521	4521	4463	4463	4463	4463	4463	4463	4463	4463	4463	4463	4463	4463	4521	4463	4463	4521	4521	4463	4463	4463	4463	4463	4463	4463	4463	6592	6592	6592	6592	6592	6592	6592	6592	6592	6592	6720	6720	6720	6720	6720	6720	6853	6853	6853	6853	6720	6853	6853	6853	6992	6992	6992	6992	6992	6992	6992	6992	6992	6992	6992	6992	6992	6992	6853	6720	6720	6853	6720	6853	6720	6853	6853	6853	6853	6720	6720	6720	6592	6592	6592	6592	6592	6592	6468	6468	6468	6349	6235	6124	6124	6124	6124	6124	6124	6124	6124	6018	6018	6018	5915	5915	5915	5815	5915	5815	5719	5719	5719	5719	5719	5626	5626	5626	5535	5535	5448	5448	5448	5364	5364	5282	5282	5282	5282	5282	5282	5202	5202	5050	5050	4977	4977	4977	4977	4977	4977	4977	5050	4977	4977	4977	4977	4977	4906	4771	4771	0	0	0	0	0	0	0	0	0	0	0	0	0	0	0	0	0	0	0	0	0	0	0	0	0	0	0	0	0	0	0	0	0	0
0	0	0	0	0	0	0	1202	1206	1210	1214	1219	1219	1232	1232	1236	1236	1240	1245	1249	1259	1254	1259	1263	1268	1268	1272	1272	1268	1268	1326	1331	1336	1342	1342	1342	1342	0	0	0	0	0	0	0	5626	5719	5719	5815	5815	5915	5915	5915	5915	5915	5915	5915	5915	5815	5915	5915	5915	5815	5915	5815	5815	5815	6018	6018	6018	5915	6018	6018	5915	5815	5815	5815	5815	5815	5815	5815	5815	5815	5815	5815	5815	5815	5815	5815	5719	5719	5719	5719	5719	5719	5719	5719	5719	5719	5815	5815	5815	5815	5815	5815	5815	5815	5815	5815	5815	5815	5815	5815	5815	5815	5815	5815	5815	5815	5815	5815	5815	5815	5815	5815	5815	5815	5815	5815	5815	5815	5815	5815	5719	5719	5719	5815	5815	5719	5815	5815	5815	5815	5815	5815	5719	5719	5719	5815	5815	5815	5915	5815	5815	5815	5815	5815	5815	5815	5815	5915	5815	5719	5815	5815	5915	5915	4771	4706	4706	4706	4706	4706	4643	4643	4643	4643	4643	4643	4643	4643	4643	4643	4643	4643	4643	4643	4706	4706	4643	4643	4706	4706	4706	4706	4706	4706	4706	4706	4706	4706	4706	4706	4706	4706	4643	4706	4706	4706	4706	4706	4706	4643	4643	4643	4643	4643	4643	4643	4643	4643	4643	4581	4581	4643	4581	4581	4643	4643	4643	4706	4643	4643	4643	4643	4581	4581	4581	4581	4581	4581	4581	4643	4643	4643	4643	4643	4643	4643	4643	4643	4643	4643	4643	4643	4643	4643	4706	4643	4643	4643	4643	4643	4643	4643	4643	4643	4643	4643	4581	4581	4581	4581	4581	4581	4581	4581	4643	4643	4643	4643	4643	4643	4643	4643	4643	4706	4643	4643	4581	4581	4581	4581	4581	4581	4581	4581	4581	4581	4581	4581	4581	4581	4581	4581	4581	4581	4581	4581	4581	4581	4581	4521	4521	4521	4521	4581	4581	4581	4581	4643	4581	4581	4581	4521	4521	4521	4521	4521	4521	4521	4581	4581	4581	4521	4521	4521	4521	4521	4463	4463	4463	4463	4521	4521	4521	4521	4521	4521	4521	4521	4521	4521	4521	3440	3406	3373	3373	3373	3341	3341	3341	3309	3309	3341	3341	3341	3341	3341	3373	3373	3406	3406	4581	4521	4521	4521	4521	4521	4521	4521	4521	4521	4521	4463	4463	4463	4463	4463	4463	4463	4463	4463	4463	4463	4463	4521	4521	4521	4463	4521	4463	4463	4463	4463	4463	4463	4521	4521	4463	4521	4521	4521	4463	4521	4463	4463	4521	4463	4463	4463	4463	4463	4463	4406	4406	4463	4463	4463	4463	4521	4521	4463	4463	4463	4521	4463	4463	4463	4463	4463	4463	4463	4463	4463	4463	4463	4463	4463	4463	4463	4463	4463	4521	4521	4463	4463	4463	4463	4463	4463	4463	4463	4463	4463	4463	4463	4463	4463	4463	4463	4463	4463	4463	4463	4463	4521	4463	4463	4463	4463	4463	4521	4521	4463	4463	6592	6592	6592	6592	6592	6720	6592	6592	6592	6592	6720	6720	6720	6720	6720	6720	6853	6853	6853	6853	6853	6853	6853	6992	6992	6992	6992	6992	6992	6992	6992	6992	6992	6992	6992	6992	6992	6992	6992	6853	6992	6992	6853	6992	6853	6992	6992	6853	6853	6853	6853	6720	6720	6592	6592	6592	6592	6592	6468	6468	6349	6235	6235	6124	6124	6124	6124	6124	6124	6124	6124	6018	6018	6018	5915	5915	5915	5815	5915	5815	5815	5719	5719	5626	5626	5626	5626	5535	5535	5535	5448	5448	5448	5448	5364	5364	5282	5364	5364	5282	5282	5282	5202	5050	5050	5050	4977	5050	4977	4977	4977	4977	4977	4977	4977	4977	4977	4977	4838	4771	4771	0	0	0	0	0	0	0	0	0	0	0	0	0	0	0	0	0	0	0	0	0	0	0	0	0	0	0	0	0	0	0	0	0	0
0	0	0	0	0	0	0	0	1206	1210	1214	1219	1223	1223	1232	1236	1240	1236	1240	1245	1259	1259	1259	1263	1268	1268	1272	1272	1268	1268	1326	1331	1331	1331	1342	1342	1347	1347	0	0	0	0	0	0	5626	5626	5626	5719	5815	5915	5915	5815	5815	5815	5815	5915	5815	5815	5915	5815	5915	5915	5915	5815	5915	5815	6018	5915	5915	5915	5915	5915	5915	5815	5815	5815	5815	5815	5815	5719	5815	5815	5815	5719	5815	5719	5719	5719	5719	5719	5719	5719	5719	5719	5719	5815	5815	5915	5815	5815	5815	5815	5815	5815	5815	5815	5815	5815	5815	5815	5815	5815	5815	5815	5815	5815	5815	5815	5815	5815	5815	5815	5815	5815	5815	5719	5719	5815	5815	5719	5815	5815	5815	5719	5815	5815	5815	5815	5815	5815	5815	5815	5815	5815	5815	5815	5815	5815	5815	5815	5815	5815	5815	5815	5815	5815	5815	5815	5815	5815	5815	5815	5815	5815	5815	4771	4771	4706	4643	4643	4706	4643	4643	4643	4643	4643	4643	4643	4643	4643	4643	4643	4643	4643	4643	4643	4643	4643	4643	4643	4643	4643	4643	4643	4643	4706	4706	4706	4706	4706	4706	4706	4706	4706	4643	4706	4706	4706	4643	4643	4643	4643	4643	4581	4643	4643	4643	4643	4643	4643	4643	4643	4643	4643	4643	4643	4643	4643	4643	4706	4643	4643	4643	4643	4581	4581	4581	4581	4581	4581	4581	4643	4643	4643	4643	4643	4643	4643	4643	4643	4643	4643	4643	4643	4643	4643	4643	4643	4643	4643	4643	4643	4643	4643	4643	4643	4643	4643	4581	4581	4581	4581	4581	4581	4581	4581	4643	4643	4643	4643	4643	4643	4643	4643	4643	4643	4643	4643	4581	4581	4581	4581	4581	4581	4581	4581	4581	4581	4581	4581	4581	4581	4581	4581	4581	4581	4581	4581	4581	4581	4581	4521	4521	4521	4521	4581	4581	4581	4581	4581	4581	4581	4581	4521	4521	4521	4521	4521	4521	4521	4521	4521	4581	4521	4521	4521	4521	4521	4463	4463	4463	4521	4521	4521	4521	4521	4521	4521	4521	4521	4521	4521	4521	3406	3406	3406	3373	3373	3373	3341	3341	3341	3309	3341	3341	3341	3373	3373	3373	3373	3373	3373	4521	4521	4521	4521	4521	4521	4521	4521	4521	4521	4521	4521	4521	4463	4463	4463	4463	4463	4463	4463	4463	4463	4463	4521	4521	4521	4463	4463	4463	4463	4463	4463	4463	4463	4521	4521	4521	4521	4521	4521	4521	4521	4521	4463	4463	4463	4463	4463	4463	4463	4406	4406	4406	4463	4463	4463	4463	4521	4521	4521	4463	4463	4463	4463	4463	4463	4463	4463	4463	4463	4463	4463	4463	4463	4521	4521	4463	4463	4463	4463	4463	4521	4463	4463	4463	4463	4463	4463	4463	4463	4463	4463	4463	4463	4463	4463	4463	4463	4463	4463	4463	4463	4463	4521	4463	4463	4463	4521	4521	4521	4521	4521	4521	4521	6592	6468	6592	6592	6720	6720	6720	6720	6720	6592	6592	6592	6592	6720	6720	6853	6853	6992	6992	6992	6992	6992	6992	6992	6992	6992	6992	6992	6992	6992	6992	6992	6992	6992	6992	6992	6992	6992	6853	6853	6992	6992	6992	6992	6992	6992	6992	6992	6853	6853	6720	6720	6592	6592	6592	6468	6468	6468	6349	6235	6124	6124	6124	6124	6124	6124	6018	6124	6124	6124	6018	6018	6018	6018	5915	5915	5815	5915	5815	5815	5719	5719	5719	5719	5626	5626	5535	5535	5535	5448	5448	5448	5448	5448	5364	5364	5364	5364	5282	5282	5202	5202	5125	5050	5050	5050	5050	4977	4977	4977	4977	4977	4977	4977	4977	4977	4977	4771	4771	4771	0	0	0	0	0	0	0	0	0	0	0	0	0	0	0	0	0	0	0	0	0	0	0	0	0	0	0	0	0	0	0	0	0	0
0	0	0	0	0	0	0	0	1206	1210	1214	1219	1223	1227	1232	1236	1236	1236	1240	1240	1245	1249	1254	1263	1268	1268	1272	1272	1268	1268	1268	1331	1331	1331	1347	1347	1352	1347	1347	0	0	0	0	0	0	5626	5448	5719	5815	5915	5915	5915	5915	5915	5915	5915	5815	5815	5815	5815	5815	5815	5815	5815	5815	5815	5815	5915	5915	5815	5915	5915	5915	5915	5815	5815	5815	5815	5815	5719	5719	5719	5719	5719	5719	5719	5719	5719	5719	5719	5719	5719	5719	5719	5719	5719	5719	5815	5815	5815	5815	5815	5815	5815	5815	5815	5815	5719	5815	5815	5815	5815	5815	5815	5815	5815	5815	5815	5815	5815	5815	5815	5815	5815	5815	5815	5719	5815	5815	5815	5815	5815	5719	5719	5719	5815	5815	5815	5815	5815	5815	5815	5815	5815	5719	5719	5719	5815	5815	5815	5815	5815	5815	5815	5815	5815	5815	5815	5815	5815	5815	5815	5815	5915	5915	4771	4771	4706	4771	4706	4706	4643	4643	4643	4643	4643	4643	4643	4643	4643	4643	4643	4643	4643	4643	4643	4643	4643	4643	4643	4643	4643	4643	4643	4706	4643	4706	4706	4706	4706	4706	4771	4706	4706	4706	4706	4706	4706	4643	4643	4643	4643	4643	4581	4581	4581	4643	4643	4643	4643	4643	4581	4581	4643	4643	4643	4643	4643	4643	4706	4643	4643	4643	4643	4581	4581	4581	4581	4581	4581	4581	4643	4581	4643	4643	4643	4643	4643	4643	4643	4643	4643	4643	4643	4643	4643	4643	4643	4643	4643	4581	4643	4643	4643	4643	4643	4643	4643	4581	4581	4581	4581	4581	4581	4581	4581	4581	4643	4581	4643	4643	4643	4643	4643	4643	4643	4643	4643	4581	4581	4581	4581	4581	4581	4581	4581	4581	4581	4581	4581	4581	4581	4581	4581	4581	4581	4581	4581	4581	4581	4581	4521	4521	4521	4581	4581	4581	4581	4581	4581	4581	4581	4521	4521	4521	4521	4521	4521	4521	4521	4521	4581	4521	4521	4521	4521	4521	4463	4463	4463	4463	4521	4521	4521	4521	4521	4521	4521	4521	4521	4521	4521	4521	3440	3440	3406	3406	3406	3373	3341	3341	3341	3341	3341	3341	3373	3373	3373	3406	3406	3406	3406	4521	4521	4521	4521	4463	4521	4521	4521	4521	4521	4521	4521	4521	4463	4463	4463	4463	4463	4463	4463	4463	4463	4463	4521	4521	4521	4463	4463	4463	4463	4463	4463	4463	4463	4521	4521	4521	4521	4521	4521	4521	4521	4521	4521	4521	4521	4463	4463	4463	4463	4463	4463	4463	4463	4463	4463	4463	4463	4521	4463	4463	4463	4463	4463	4463	4463	4406	4463	4463	4463	4463	4463	4521	4521	4521	4521	4521	4521	4463	4463	4463	4463	4463	4463	4463	4463	4463	4463	4463	4463	4463	4463	4463	4463	4463	4406	4463	4463	4463	4463	4463	4463	4463	4521	4463	4463	4463	4521	4521	4521	4581	4521	4521	4521	6592	6592	6592	6720	6853	6720	6720	6720	6720	6592	6592	6592	6720	6720	6853	6853	6853	6992	6992	6992	6992	6992	6992	7137	7137	7137	7137	7137	6992	7137	6992	6992	6992	6992	6992	6992	6992	6992	6992	6992	6992	6992	6992	6992	6992	6992	6992	6992	6853	6853	6853	6720	6720	6592	6592	6468	6468	6468	6349	6235	6124	6124	6124	6124	6124	6124	6124	6124	6124	6018	6018	6018	6018	6018	5915	5915	5915	6018	5915	5915	5815	5815	5719	5719	5626	5626	5626	5626	5535	5448	5448	5448	5364	5364	5364	5364	5364	5364	5282	5282	5282	5282	5125	5125	5050	5050	5050	4977	4977	4977	4977	4906	4906	4977	4977	4977	4838	4771	4771	4771	0	0	0	0	0	0	0	0	0	0	0	0	0	0	0	0	0	0	0	0	0	0	0	0	0	0	0	0	0	0	0	0	0	0
0	0	0	0	0	0	0	0	1206	1210	1214	1219	1223	1227	1227	1232	1236	1236	1240	1240	1245	1249	1254	1268	1272	1272	1277	1277	1277	1291	1291	1326	1331	1331	1331	1347	1347	1347	1347	1352	1352	1352	0	0	0	0	5448	5719	5815	6018	6018	5915	5915	5915	5915	5915	5815	5815	5815	5815	5815	5815	5815	5815	5815	5815	5815	5815	5815	5815	5815	5815	5815	5915	5815	5815	5815	5815	5815	5815	5815	5815	5815	5719	5815	5719	5719	5719	5719	5719	5719	5719	5719	5719	5719	5719	5719	5815	5815	5815	5815	5815	5815	5815	5815	5815	5815	5815	5815	5815	5815	5815	5815	5815	5815	5815	5815	5815	5815	5815	5815	5815	5815	5815	5815	5815	5815	5815	5815	5815	5815	5815	5815	5815	5815	5815	5719	5815	5815	5815	5815	5815	5815	5815	5815	5815	5719	5815	5719	5815	5815	5815	5815	5815	5815	5815	5815	5815	5815	5815	5815	5815	5815	5915	5915	5915	4838	4771	4771	4771	4706	4643	4643	4643	4643	4581	4643	4643	4643	4643	4643	4643	4643	4643	4643	4643	4643	4643	4643	4643	4643	4643	4581	4643	4643	4643	4643	4706	4706	4706	4706	4706	4706	4706	4706	4643	4643	4643	4643	4643	4643	4643	4643	4581	4581	4581	4581	4643	4581	4581	4643	4581	4581	4643	4643	4643	4643	4643	4643	4706	4643	4643	4643	4643	4581	4581	4581	4581	4581	4581	4581	4581	4581	4581	4581	4643	4643	4643	4643	4643	4643	4643	4643	4643	4643	4643	4643	4643	4643	4643	4643	4643	4643	4643	4643	4643	4643	4643	4581	4581	4581	4581	4581	4581	4581	4581	4581	4643	4581	4643	4643	4643	4643	4643	4643	4643	4581	4581	4581	4581	4581	4581	4581	4581	4581	4581	4581	4581	4581	4581	4581	4581	4581	4581	4581	4581	4581	4581	4581	4581	4581	4521	4521	4521	4521	4521	4581	4581	4581	4581	4581	4581	4521	4521	4521	4521	4521	4521	4521	4521	4521	4521	4521	4521	4521	4521	4521	4463	4463	4463	4521	4521	4521	4521	4521	4521	4521	4521	4521	4521	4521	4521	4521	3406	3440	3406	3406	3406	3373	3373	3373	3341	3341	3373	3406	3373	3406	3406	3406	3406	3406	3406	4521	4521	4521	4521	4521	4521	4521	4521	4521	4521	4521	4521	4521	4463	4463	4463	4463	4463	4463	4463	4463	4521	4521	4521	4521	4521	4463	4463	4463	4463	4463	4463	4463	4463	4521	4521	4521	4521	4521	4521	4521	4521	4521	4521	4521	4463	4463	4463	4463	4463	4463	4406	4463	4463	4463	4463	4463	4463	4521	4521	4463	4463	4463	4463	4463	4463	4406	4406	4463	4463	4463	4463	4521	4521	4521	4521	4521	4521	4463	4521	4463	4463	4463	4463	4463	4463	4463	4463	4463	4463	4463	4463	4463	4463	4463	4463	4463	4463	4463	4463	4463	4463	4463	4463	4463	4463	4463	4521	4521	4581	4581	4521	4521	4521	6592	6592	6720	6853	6853	6992	6992	6853	6853	6853	6592	6592	6592	6720	6853	6853	6853	6992	6992	6992	7137	6992	7137	7137	7137	7137	7137	7137	7137	7137	7137	7137	7137	7137	6992	7137	7137	6992	6992	6992	6992	7137	7137	7137	7137	6992	6992	6992	6853	6853	6720	6720	6720	6592	6592	6468	6468	6468	6349	6235	6124	6124	6124	6124	6124	6124	6124	6124	6124	6018	6018	6018	6018	6018	5915	5915	5915	6018	5915	5915	5815	5815	5719	5719	5626	5626	5626	5535	5448	5448	5448	5448	5364	5364	5364	5364	5364	5364	5282	5282	5282	5202	5202	5202	5050	5050	5050	4977	4977	4977	4977	4906	4906	4977	4977	4977	4838	4771	4771	4771	0	0	0	0	0	0	0	0	0	0	0	0	0	0	0	0	0	0	0	0	0	0	0	0	0	0	0	0	0	0	0	0	0	0
0	0	0	0	0	0	0	0	1210	1210	1219	1219	1223	1227	1227	1232	1236	1236	1240	1236	1249	1249	1263	1268	1272	1277	1277	1272	1272	1287	1287	1287	1326	1331	1331	1347	1347	1347	1347	1352	1352	1352	1352	0	0	0	0	0	0	6018	5915	5915	5915	5915	5815	5915	5815	5815	5815	5815	5815	5815	5815	5815	5815	5815	5815	5815	5815	5815	5815	5815	5815	5815	5815	5815	5815	5815	5815	5815	5815	5815	5815	5815	5815	5815	5719	5719	5719	5719	5719	5719	5719	5626	5719	5815	5719	5719	5815	5815	5815	5815	5815	5815	5815	5815	5815	5815	5815	5815	5815	5815	5815	5815	5815	5815	5815	5815	5815	5815	5815	5815	5815	5815	5815	5815	5815	5815	5815	5815	5815	5815	5815	5815	5815	5815	5815	5815	5815	5815	5815	5815	5815	5815	5815	5815	5719	5815	5915	5719	5815	5815	5815	5815	5815	5815	5815	5815	5815	5815	5815	5719	5815	5915	5915	4771	4771	4771	4706	4706	4643	4643	4643	4643	4581	4581	4643	4643	4643	4643	4643	4643	4643	4643	4643	4643	4643	4643	4643	4706	4643	4643	4581	4581	4643	4643	4643	4643	4706	4706	4706	4706	4706	4643	4643	4643	4643	4643	4643	4643	4643	4643	4643	4581	4581	4581	4581	4581	4581	4581	4643	4581	4643	4643	4643	4643	4643	4643	4643	4643	4643	4643	4643	4643	4643	4643	4581	4581	4581	4581	4581	4581	4581	4581	4581	4581	4581	4643	4581	4581	4581	4581	4643	4643	4643	4643	4643	4643	4643	4581	4643	4643	4643	4643	4643	4643	4643	4643	4643	4581	4581	4643	4581	4581	4581	4581	4581	4581	4581	4581	4581	4643	4581	4581	4581	4581	4581	4581	4581	4581	4581	4581	4581	4581	4581	4581	4581	4581	4581	4581	4581	4581	4581	4581	4581	4581	4581	4581	4581	4581	4581	4521	4521	4521	4521	4521	4581	4581	4581	4581	4521	4521	4521	4521	4521	4521	4521	4521	4521	4521	4521	4521	4521	4521	4521	4521	4463	4463	4463	4463	4521	4521	4521	4521	4521	4521	4521	4521	4521	4521	4521	4521	4521	3440	3440	3406	3406	3406	3373	3373	3373	3373	3406	3406	3406	3406	3406	3406	3406	3406	3406	3406	4581	4581	4521	4521	4521	4521	4521	4521	4521	4521	4521	4521	4521	4521	4463	4463	4463	4463	4463	4463	4463	4521	4521	4521	4521	4521	4521	4463	4463	4463	4463	4463	4463	4463	4521	4521	4521	4521	4521	4521	4521	4521	4521	4521	4521	4463	4463	4463	4463	4463	4463	4406	4463	4463	4463	4463	4521	4521	4521	4521	4463	4463	4463	4463	4406	4406	4406	4463	4463	4463	4463	4463	4521	4521	4521	4521	4463	4521	4463	4521	4463	4463	4463	4463	4463	4463	4463	4463	4463	4463	4463	4463	4463	4463	4463	4463	4463	4463	4463	4463	4463	4463	4463	4463	4463	4463	4463	4521	4521	4581	4581	4581	4581	4581	4581	6853	6853	6992	6992	6992	6992	6853	6853	6853	6592	6592	6720	6720	6853	6853	6853	6992	6992	7137	7137	6992	7137	7137	7137	7137	7137	7137	7137	7137	7137	7137	7137	7137	7137	7137	7137	7137	7137	7137	7137	7137	7137	7137	6992	6992	6992	6992	6853	6853	6853	6720	6720	6720	6592	6592	6468	6468	6349	6349	6235	6124	6235	6124	6124	6124	6124	6018	6018	6018	5915	5915	5915	5915	5915	5915	5915	6018	5915	5915	5815	5815	5719	5719	5626	5626	5626	5535	5448	5364	5364	5364	5364	5364	5364	5364	5364	5364	5282	5282	5282	5202	5202	5125	5050	5050	5050	4977	4977	4977	4977	4906	4906	4906	4838	4906	4771	4771	4771	4771	0	0	0	0	0	0	0	0	0	0	0	0	0	0	0	0	0	0	0	0	0	0	0	0	0	0	0	0	0	0	0	0	0	0
0	0	0	0	0	0	0	0	1210	1210	1219	1219	1223	1223	1227	1227	1232	1236	1236	1236	1240	1249	1254	1268	1272	1272	1272	1272	1272	1282	1282	1287	1287	1331	1331	1331	1342	1342	1347	1347	1352	1363	1368	1368	1390	1390	1390	0	0	0	5915	5915	5915	5915	6018	6018	5915	5915	5815	5815	5815	5815	5815	5915	5815	5815	5815	5815	5815	5815	5815	5815	5815	5815	5815	5815	5815	5815	5815	5815	5815	5815	5815	5815	5815	5815	5719	5719	5719	5719	5719	5719	5719	5719	5719	5719	5719	5719	5815	5815	5815	5815	5815	5815	5815	5815	5815	5815	5815	5815	5815	5815	5815	5815	5815	5815	5815	5815	5815	5815	5815	5815	5815	5815	5815	5719	5815	5815	5815	5815	5815	5815	5815	5815	5815	5815	5815	5815	5815	5815	5815	5815	5815	5815	5815	5815	5719	5719	5719	5719	5815	5815	5815	5815	5815	5815	5815	5815	5815	5815	5815	5815	5719	5815	5815	4771	4771	4771	4706	4643	4643	4643	4643	4643	4643	4643	4581	4643	4643	4643	4643	4643	4643	4643	4643	4643	4643	4643	4643	4643	4643	4643	4581	4581	4581	4643	4643	4643	4643	4643	4706	4706	4643	4643	4643	4643	4643	4643	4643	4643	4706	4581	4581	4581	4581	4581	4581	4581	4581	4581	4643	4643	4643	4643	4643	4643	4643	4643	4643	4643	4643	4581	4581	4643	4643	4643	4643	4643	4643	4581	4581	4581	4581	4581	4581	4581	4581	4643	4643	4581	4581	4581	4643	4643	4643	4643	4643	4643	4643	4643	4643	4643	4643	4643	4643	4643	4643	4643	4643	4581	4581	4581	4581	4581	4581	4581	4581	4581	4581	4581	4581	4581	4581	4581	4581	4581	4581	4581	4581	4581	4581	4581	4581	4581	4581	4581	4581	4581	4581	4581	4581	4581	4581	4581	4581	4581	4581	4581	4581	4581	4581	4521	4521	4521	4521	4521	4581	4581	4581	4521	4521	4521	4521	4521	4521	4521	4521	4521	4521	4521	4521	4521	4521	4521	4521	4463	4521	4463	4463	4463	4521	4521	4521	4521	4521	4521	4521	4521	4463	4521	4521	4521	3440	3440	3440	3440	3406	3406	3406	3406	3373	3406	3406	3406	3406	3406	3406	3406	3406	3406	3440	3440	3440	4521	4521	4521	4521	4521	4521	4521	4521	4521	4521	4521	4521	4521	4521	4521	4521	4521	4521	4463	4521	4521	4463	4521	4521	4521	4463	4463	4463	4463	4463	4463	4463	4521	4521	4521	4463	4463	4463	4521	4521	4521	4521	4521	4521	4463	4463	4463	4463	4463	4463	4463	4463	4463	4463	4463	4521	4463	4463	4463	4463	4463	4463	4406	4463	4406	4406	4463	4463	4463	4463	4463	4463	4521	4521	4521	4463	4463	4463	4463	4463	4463	4463	4521	4521	4463	4463	4463	4463	4463	4463	4463	4463	4463	4463	4463	4463	4463	4463	4463	4463	4463	4463	4463	4463	4463	4463	4521	4521	4521	4581	4581	4581	4581	6853	6853	6853	6992	6992	6992	6992	6853	6853	6720	6592	6592	6592	6720	6720	6853	6992	7137	7137	7137	7137	7137	7137	7137	7137	7137	7137	7287	7287	7287	7137	7137	7137	7137	7137	7137	7137	7137	7137	7137	7137	7137	7137	6992	6992	6992	6992	6992	6992	6853	6853	6720	6720	6720	6592	6468	6468	6468	6349	6349	6235	6235	6235	6235	6235	6124	6124	6018	6018	6018	5915	5915	5915	5915	5915	5915	5915	6018	5915	5915	5815	5719	5719	5626	5626	5535	5535	5448	5448	5364	5364	5364	5364	5364	5282	5282	5364	5282	5282	5282	5202	5202	5125	5125	5050	5050	5050	5050	4977	4977	4977	4977	4906	4977	4906	4906	4771	4771	4771	4771	0	0	0	0	0	0	0	0	0	0	0	0	0	0	0	0	0	0	0	0	0	0	0	0	0	0	0	0	0	0	0	0	0	0
0	0	0	0	0	0	0	0	1214	1214	1219	1219	1219	1223	1227	1232	1232	1236	1236	1236	1240	1245	1254	1254	1268	1268	1272	1272	1272	1277	1277	1287	1291	1291	1331	1321	1331	1342	1342	1352	1352	1363	1368	1374	1385	1390	1396	1396	0	0	0	0	0	0	6018	6124	5915	5915	5915	5815	5815	5815	5815	5815	5815	5815	5815	5815	5815	5815	5815	5815	5815	5815	5815	5815	5815	5815	5815	5815	5815	5815	5815	5815	5815	5815	5719	5719	5719	5719	5719	5719	5719	5719	5719	5815	5719	5815	5815	5815	5815	5815	5815	5815	5815	5815	5815	5815	5815	5815	5815	5815	5815	5815	5815	5815	5815	5815	5815	5815	5815	5815	5815	5815	5815	5815	5815	5815	5815	5815	5815	5815	5719	5815	5815	5815	5815	5815	5815	5815	5815	5815	5815	5815	5815	5815	5815	5815	5815	5815	5719	5719	5815	5815	5815	5815	5815	5815	5815	5815	5815	5815	5815	5815	5815	4771	4771	4706	4643	4643	4643	4643	4643	4643	4643	4643	4581	4643	4581	4643	4643	4643	4643	4643	4643	4643	4643	4643	4643	4643	4643	4643	4581	4581	4581	4643	4643	4643	4643	4643	4643	4643	4643	4643	4643	4643	4643	4643	4643	4643	4643	4581	4581	4581	4581	4521	4521	4521	4581	4581	4581	4643	4643	4643	4643	4643	4643	4643	4643	4643	4581	4581	4581	4581	4581	4581	4581	4643	4643	4581	4581	4581	4581	4581	4581	4581	4581	4581	4581	4581	4581	4581	4581	4581	4643	4643	4643	4643	4643	4643	4643	4643	4643	4581	4643	4643	4643	4643	4581	4581	4581	4581	4581	4581	4581	4581	4581	4581	4581	4581	4581	4581	4581	4581	4581	4581	4581	4581	4581	4581	4581	4581	4581	4581	4581	4581	4581	4581	4581	4581	4581	4581	4581	4581	4581	4581	4581	4581	4581	4581	4581	4521	4521	4521	4521	4521	4521	4521	4521	4521	4521	4521	4521	4521	4521	4521	4521	4521	4521	4521	4521	4521	4521	4521	4463	4463	4463	4463	4463	4463	4521	4521	4521	4521	4521	4521	4521	4521	4463	4463	4463	4463	3440	3440	3440	3440	3406	3406	3406	3406	3406	3406	3406	3406	3406	3406	3406	3406	3406	3406	3440	3440	3440	4463	4463	4521	4521	4521	4521	4521	4521	4521	4521	4521	4521	4521	4521	4521	4521	4521	4521	4521	4521	4521	4463	4521	4521	4521	4521	4463	4463	4521	4521	4463	4463	4463	4521	4521	4463	4463	4463	4521	4463	4521	4521	4521	4521	4463	4463	4463	4463	4463	4463	4463	4463	4463	4463	4463	4463	4521	4521	4463	4463	4463	4406	4406	4463	4406	4406	4463	4463	4463	4463	4463	4521	4521	4521	4463	4463	4463	4463	4463	4463	4463	4463	4463	4521	4521	4463	4463	4463	4463	4463	4463	4463	4463	4463	4463	4463	4463	4463	4463	4463	4463	4463	4463	4463	4463	4463	4463	4521	4521	4581	4581	4581	6853	6853	6853	6853	6992	6992	6992	6992	6992	6992	6853	6720	6720	6720	6720	6720	6853	6992	7137	7137	7137	7137	7137	7137	7137	7137	7137	7137	7287	7287	7287	7287	7287	7287	7137	7137	7137	7287	7137	7137	7137	7137	7137	7137	6992	6992	6992	6992	6853	6853	6853	6853	6720	6592	6592	6592	6468	6468	6468	6349	6349	6235	6235	6349	6235	6235	6235	6124	6124	6018	6018	6018	6018	5915	5915	5915	5915	5915	5915	5915	5915	5815	5719	5719	5626	5626	5535	5535	5448	5448	5448	5364	5364	5364	5364	5364	5364	5282	5282	5282	5282	5202	5202	5202	5125	5125	5050	5050	5050	4977	4977	4977	4977	4906	4906	4838	4838	4771	4771	4771	4771	0	0	0	0	0	0	0	0	0	0	0	0	0	0	0	0	0	0	0	0	0	0	0	0	0	0	0	0	0	0	0	0	0	0
0	0	0	0	0	0	0	0	1210	1214	1214	1219	1219	1223	1223	1227	1232	1232	1236	1240	1245	1249	1254	1263	1268	1272	1272	1272	1272	1277	1282	1287	1291	1296	1296	1321	1331	1336	1336	1352	1352	1363	1368	1363	1374	1390	1396	1396	1396	0	0	0	0	0	0	6124	6018	5915	5915	5915	5815	5815	5815	5815	5815	5815	5815	5815	5815	5815	5815	5815	5815	5815	5815	5815	5815	5815	5815	5815	5815	5815	5815	5815	5815	5815	5719	5719	5719	5719	5719	5719	5719	5719	5719	5815	5719	5815	5815	5815	5815	5815	5815	5815	5815	5915	5815	5915	5815	5915	5915	5815	5815	5815	5815	5815	5815	5815	5815	5815	5815	5815	5815	5815	5815	5815	5815	5815	5815	5815	5815	5815	5815	5815	5815	5815	5815	5815	5815	5815	5815	5815	5815	5815	5815	5915	5815	5815	5815	5815	5815	5719	5719	5719	5815	5815	5815	5815	5815	5815	5815	5815	5719	5719	5719	4771	4771	4706	4643	4643	4643	4643	4643	4643	4643	4643	4643	4643	4581	4643	4643	4643	4643	4643	4643	4643	4643	4643	4643	4643	4643	4643	4581	4581	4581	4581	4581	4643	4643	4643	4643	4643	4643	4581	4581	4643	4643	4643	4643	4643	4643	4581	4581	4581	4581	4581	4581	4581	4581	4581	4581	4581	4643	4643	4643	4581	4643	4643	4643	4581	4581	4581	4581	4581	4581	4581	4581	4643	4643	4643	4643	4581	4581	4581	4581	4581	4581	4581	4581	4581	4581	4581	4581	4581	4581	4581	4581	4581	4581	4643	4643	4643	4643	4581	4581	4643	4643	4643	4581	4581	4581	4581	4581	4581	4581	4581	4581	4581	4581	4581	4581	4581	4581	4581	4581	4581	4581	4581	4581	4581	4581	4581	4581	4581	4581	4581	4581	4581	4581	4581	4581	4581	4581	4581	4581	4581	4581	4581	4581	4581	4581	4521	4521	4521	4521	4521	4521	4521	4521	4521	4521	4521	4521	4521	4521	4521	4521	4521	4521	4521	4521	4521	4521	4521	4463	4463	4463	4463	4463	4463	4521	4521	4521	4521	4521	4521	4521	4463	4463	4463	3475	3475	3475	3440	3440	3440	3406	3406	3406	3406	3406	3406	3406	3406	3406	3406	3406	3406	3406	3406	3440	3440	3440	3440	4463	4463	4521	4521	4521	4521	4581	4521	4521	4521	4521	4521	4521	4521	4521	4521	4521	4521	4521	4521	4521	4521	4521	4521	4521	4521	4521	4521	4521	4463	4463	4521	4521	4521	4521	4521	4521	4521	4521	4521	4521	4521	4521	4463	4463	4463	4463	4463	4463	4463	4463	4463	4463	4463	4463	4463	4463	4463	4463	4463	4406	4406	4463	4406	4406	4463	4463	4463	4463	4463	4521	4521	4463	4521	4463	4463	4463	4463	4463	4463	4463	4463	4521	4521	4521	4463	4463	4463	4463	4463	4463	4463	4463	4463	4463	4463	4463	4463	4463	4463	4463	4463	4463	4463	4463	4463	4521	4521	4521	4521	4521	6992	6853	6853	6853	6992	6992	6992	6992	6992	6992	6992	6853	6720	6853	6720	6853	6853	6992	7137	7137	7137	7137	7137	7137	7137	7137	7137	7137	7287	7287	7444	7444	7444	7287	7287	7287	7137	7137	7137	7137	7137	7137	6992	6992	6992	6853	6992	6992	6853	6853	6720	6720	6592	6592	6592	6592	6592	6468	6468	6349	6349	6349	6349	6349	6349	6235	6235	6235	6124	6124	6018	6018	6018	5915	6018	5915	6018	5915	5915	5915	5719	5719	5719	5626	5626	5626	5535	5535	5448	5448	5364	5364	5364	5364	5364	5282	5282	5282	5282	5282	5282	5282	5202	5202	5125	5050	5050	5050	5050	4977	5050	4977	4977	4906	4906	4906	4838	4771	4771	4771	4771	0	0	0	0	0	0	0	0	0	0	0	0	0	0	0	0	0	0	0	0	0	0	0	0	0	0	0	0	0	0	0	0	0	0
0	0	0	0	0	0	0	0	1210	1214	1219	1219	1219	1223	1227	1232	1232	1236	1236	1240	1245	1254	1254	1259	1268	1268	1272	1272	1272	1277	1282	1287	1291	1296	1306	1311	1331	1336	1336	1347	1352	1358	1363	1363	1374	1390	1396	1402	1402	0	0	0	0	0	0	0	5915	5915	5915	5815	5815	5815	5815	5815	5815	5815	5815	5815	5815	5815	5815	5815	5815	5815	5815	5815	5815	5815	5815	5815	5815	5815	5815	5815	5815	5719	5719	5719	5719	5719	5719	5719	5719	5719	5719	5815	5719	5815	5815	5815	5815	5815	5815	5815	5815	5915	5815	5915	5915	5915	5915	5815	5815	5815	5815	5815	5815	5815	5815	5815	5815	5815	5815	5815	5815	5815	5815	5815	5815	5815	5815	5815	5719	5815	5815	5815	5815	5815	5815	5815	5815	5815	5815	5815	5815	5815	5815	5815	5815	5815	5815	5719	5719	5815	5815	5815	5815	5815	5815	5815	5815	5815	5719	5719	5719	4706	4706	4706	4643	4643	4643	4643	4643	4643	4643	4706	4643	4643	4643	4643	4643	4643	4643	4706	4706	4643	4643	4643	4643	4643	4643	4643	4643	4643	4581	4643	4643	4643	4643	4643	4643	4643	4643	4581	4643	4643	4643	4643	4643	4643	4643	4643	4581	4581	4581	4581	4581	4521	4581	4581	4581	4643	4643	4643	4706	4643	4643	4643	4581	4581	4581	4581	4581	4581	4581	4581	4643	4643	4643	4643	4643	4581	4581	4581	4581	4581	4581	4581	4581	4581	4581	4581	4581	4581	4581	4581	4581	4581	4643	4643	4643	4581	4581	4581	4581	4581	4581	4581	4581	4581	4581	4581	4581	4581	4581	4581	4581	4581	4581	4581	4581	4521	4521	4521	4521	4521	4581	4581	4581	4581	4581	4581	4581	4581	4581	4581	4581	4581	4581	4581	4581	4581	4581	4581	4581	4581	4581	4581	4581	4581	4581	4581	4521	4521	4521	4521	4521	4521	4521	4521	4521	4521	4521	4521	4521	4521	4521	4521	4521	4521	4521	4521	4521	4463	4463	4463	4463	4463	4463	4521	4521	4521	4521	4521	4521	4521	4463	3440	3440	3475	3440	3440	3475	3440	3440	3440	3406	3406	3406	3406	3373	3406	3373	3373	3406	3406	3406	3406	3406	3406	3440	3440	3440	3440	3440	3440	4463	4521	4521	4521	4581	4581	4521	4521	4521	4521	4521	4521	4521	4521	4521	4521	4521	4521	4521	4521	4521	4521	4521	4521	4521	4521	4521	4521	4521	4463	4521	4521	4521	4521	4521	4521	4521	4521	4463	4463	4463	4463	4463	4463	4463	4463	4463	4463	4463	4521	4521	4521	4521	4521	4463	4463	4463	4463	4463	4463	4463	4463	4463	4463	4463	4463	4463	4463	4463	4463	4463	4463	4463	4463	4463	4463	4463	4463	4463	4463	4521	4521	4521	4521	4463	4463	4463	4463	4463	4463	4463	4463	4463	4463	4463	4463	4463	4406	4463	4463	4463	4463	4463	4463	4463	4521	4521	4521	4521	6992	6853	6853	6853	6853	6992	6992	6992	6992	6992	6992	6992	6853	6853	6853	6853	6992	6992	7137	7137	7137	7137	7137	7137	7137	7137	7137	7137	7137	7444	7608	7444	7444	7444	7287	7287	7137	7287	7137	7137	7137	7137	7137	6992	6992	6853	6853	6853	6853	6720	6720	6592	6592	6592	6592	6592	6592	6592	6468	6468	6468	6349	6349	6349	6349	6235	6235	6235	6124	6124	6018	6018	6018	6018	6018	5915	6018	6018	5915	5815	5719	5719	5719	5719	5626	5626	5535	5448	5448	5364	5364	5364	5364	5364	5364	5282	5282	5282	5282	5282	5282	5282	5282	5202	5202	5202	5125	5050	5050	5050	5050	4977	4977	4906	4906	4838	4838	4771	4771	4771	4771	0	0	0	0	0	0	0	0	0	0	0	0	0	0	0	0	0	0	0	0	0	0	0	0	0	0	0	0	0	0	0	0	0	0
0	0	0	0	0	0	0	0	1206	1210	1214	1214	1219	1219	1223	1227	1232	1236	1236	1240	1245	1249	1259	1263	1268	1268	1272	1272	1277	1282	1287	1287	1291	1291	1296	1301	1311	1342	1342	1347	1352	1352	1358	1368	1379	1390	1402	1407	1413	1413	1419	1419	0	0	0	0	5915	5915	5915	5815	5815	5815	5719	5719	5815	5815	5815	5815	5815	5815	5815	5815	5815	5815	5815	5815	5815	5815	5815	5815	5915	5815	5815	5815	5815	5815	5719	5719	5719	5719	5719	5815	5719	5719	5719	5719	5719	5719	5719	5719	5815	5815	5815	5815	5815	5915	5815	5915	5915	5815	5815	5815	5815	5815	5815	5815	5815	5815	5815	5815	5815	5815	5815	5915	5915	5915	5915	5915	5815	5815	5815	5815	5815	5815	5815	5815	5815	5719	5719	5719	5719	5719	5719	5719	5719	5815	5815	5815	5815	5815	5815	5719	5719	5815	5815	5815	5815	5815	5815	5815	5815	5815	5815	5719	5719	4643	4643	4643	4643	4643	4643	4643	4643	4643	4643	4643	4643	4643	4643	4643	4643	4643	4643	4706	4706	4643	4706	4706	4643	4643	4643	4643	4643	4643	4643	4643	4643	4643	4643	4643	4643	4643	4643	4581	4581	4643	4643	4643	4643	4643	4643	4643	4581	4581	4581	4581	4581	4521	4581	4581	4581	4581	4581	4581	4581	4581	4581	4581	4581	4581	4581	4581	4581	4581	4581	4581	4581	4643	4643	4581	4581	4581	4581	4581	4581	4581	4581	4581	4581	4581	4581	4581	4581	4581	4581	4581	4581	4581	4643	4643	4643	4643	4643	4581	4581	4581	4581	4581	4581	4581	4581	4581	4581	4581	4581	4581	4581	4581	4581	4581	4581	4521	4521	4581	4581	4581	4581	4581	4581	4581	4581	4581	4581	4581	4581	4581	4581	4581	4581	4581	4581	4581	4581	4581	4581	4581	4581	4581	4581	4581	4581	4581	4521	4521	4521	4521	4521	4521	4521	4521	4521	4521	4521	4521	4521	4521	4521	4521	4521	4521	4521	4521	4521	4463	4463	4463	4463	4463	4463	4463	4463	4521	4521	3475	3440	3440	3440	3440	3440	3440	3440	3440	3440	3440	3440	3440	3406	3406	3373	3406	3373	3373	3373	3373	3406	3406	3406	3406	3406	3406	3440	3440	3440	3440	3440	3440	3440	3440	3440	3440	3440	3440	3440	4521	4521	4463	4521	4521	4463	4521	4521	4521	4521	4463	4463	4521	4521	4463	4463	4521	4521	4521	4521	4463	4521	4463	4521	4521	4521	4521	4521	4463	4521	4521	4463	4463	4463	4463	4463	4463	4463	4463	4463	4463	4463	4463	4521	4521	4521	4521	4463	4463	4463	4463	4463	4463	4463	4463	4463	4463	4463	4463	4463	4463	4463	4463	4463	4463	4463	4463	4463	4463	4463	4463	4463	4521	4521	4521	4521	4521	4463	4521	4463	4463	4521	4463	4463	4463	4463	4463	4463	4463	4463	4463	4463	4463	4463	4463	4463	4463	4463	4521	4521	4521	4521	6992	6992	6992	6992	6992	6992	6992	6992	6992	6992	6992	6992	6992	6992	6853	6992	6992	7137	7137	7137	7137	7137	7137	7137	7137	7137	7137	7444	7444	7444	7608	7608	7608	7444	7444	7287	7137	7137	7137	7137	7137	7137	7137	7137	6992	6853	6853	6853	6720	6720	6592	6592	6592	6592	6592	6592	6592	6592	6592	6468	6468	6468	6468	6349	6349	6235	6235	6124	6124	6018	6018	6018	6018	6018	6018	6018	6018	5915	5815	5815	5719	5719	5626	5626	5626	5535	5448	5448	5448	5364	5364	5364	5364	5364	5364	5282	5282	5282	5282	5282	5282	5282	5202	5202	5202	5202	5125	5125	5125	5050	5050	4977	4977	4906	4906	4838	4838	4771	4771	4771	4771	0	0	0	0	0	0	0	0	0	0	0	0	0	0	0	0	0	0	0	0	0	0	0	0	0	0	0	0	0	0	0	0	0	0
0	0	0	0	0	0	0	0	1210	1210	1214	1219	1219	1219	1223	1232	1236	1245	1245	1249	1249	1249	1259	1268	1268	1272	1272	1272	1277	1277	1287	1291	1291	1296	1296	1301	1306	1331	1331	1347	1347	1352	1363	1368	1374	1390	1402	1407	1413	1413	1419	1419	0	0	0	0	0	0	0	5815	5815	5815	5815	5815	5815	5815	5815	5815	5815	5815	5815	5815	5815	5815	5815	5815	5815	5815	5815	5915	5915	5815	5815	5815	5815	5815	5815	5719	5719	5719	5719	5815	5719	5719	5815	5815	5815	5815	5719	5815	5815	5815	5719	5719	5815	5815	5815	5815	5915	5815	5915	5815	5815	5815	5815	5815	5815	5719	5815	5815	5815	5815	5815	5815	5815	5815	5815	5815	5815	5815	5815	5815	5719	5719	5719	5719	5719	5719	5815	5719	5719	5719	5719	5719	5719	5815	5815	5815	5815	5815	5815	5719	5815	5815	5815	5815	5815	5815	5815	5815	5815	5815	5815	5719	5719	4643	4643	4643	4643	4581	4643	4643	4643	4643	4706	4706	4643	4706	4706	4643	4643	4643	4643	4643	4643	4581	4643	4643	4643	4643	4643	4643	4643	4643	4643	4643	4643	4643	4643	4643	4643	4643	4643	4581	4581	4643	4643	4643	4643	4643	4643	4643	4581	4581	4581	4581	4581	4581	4581	4581	4581	4581	4581	4581	4581	4581	4581	4581	4581	4521	4521	4581	4581	4581	4581	4581	4581	4643	4643	4643	4643	4581	4581	4581	4581	4581	4581	4581	4581	4581	4581	4581	4581	4581	4581	4581	4581	4643	4581	4643	4643	4643	4643	4581	4581	4581	4581	4581	4581	4581	4581	4581	4581	4581	4581	4581	4581	4581	4581	4581	4581	4581	4581	4581	4581	4581	4581	4581	4581	4581	4581	4581	4581	4581	4581	4581	4581	4581	4581	4581	4581	4581	4581	4581	4581	4581	4581	4581	4581	4581	4581	4581	4521	4521	4521	4521	4521	4521	4521	4521	4521	4521	4521	4521	4521	4521	4521	4521	4521	4521	4521	4521	4463	4463	4463	4406	4406	4463	4463	4521	4521	4521	3475	3475	3440	3440	3440	3440	3440	3440	3440	3440	3440	3440	3440	3440	3406	3406	3373	3373	3373	3373	3373	3373	3406	3406	3406	3406	3406	3406	3440	3440	3440	3406	3440	3440	3440	3440	3440	3440	3440	3440	3406	3406	3373	3373	3373	3373	3440	3406	3406	3406	4463	4463	4463	4463	4463	4463	4463	4521	4463	4521	4521	4463	4521	4521	4521	4521	4521	4521	4521	4521	4521	4521	4463	4463	4463	4463	4463	4463	4463	4463	4463	4463	4463	4521	4521	4521	4521	4521	4463	4463	4463	4463	4463	4463	4463	4463	4463	4463	4463	4463	4463	4463	4463	4463	4463	4463	4463	4463	4463	4463	4463	4463	4463	4463	4521	4521	4521	4521	4521	4521	4521	4521	4521	4463	4463	4463	4463	4463	4463	4406	4463	4463	4463	4463	4463	4463	4463	4463	4463	4521	4521	4521	4521	6992	6992	6992	6992	6992	6992	6992	7137	7137	7137	7137	7137	6992	7137	7137	7137	7137	7137	7287	7137	7137	7137	7137	7137	7137	7137	7137	7287	7287	7444	7608	7608	7608	7444	7444	7287	7137	7287	7137	7137	7137	7137	7137	7137	6992	6853	6853	6853	6720	6720	6592	6592	6592	6592	6592	6592	6592	6592	6592	6468	6468	6468	6468	6349	6349	6235	6235	6124	6124	6018	6018	6018	6018	6018	6018	6018	6018	5915	5815	5719	5719	5719	5626	5626	5535	5535	5448	5448	5448	5364	5364	5364	5364	5364	5364	5282	5282	5282	5282	5282	5282	5202	5202	5202	5125	5125	5125	5050	5050	5050	4977	4977	4977	4906	4906	4838	4838	4771	4771	4771	4771	0	0	0	0	0	0	0	0	0	0	0	0	0	0	0	0	0	0	0	0	0	0	0	0	0	0	0	0	0	0	0	0	0	0
0	0	0	0	0	0	0	0	1210	1210	1214	1214	1214	1219	1219	1227	1236	1245	1245	1249	1254	1254	1254	1263	1268	1272	1272	1272	1277	1277	1287	1291	1296	1296	1296	1301	1301	1321	1326	1342	1347	1352	1358	1363	1368	1390	1396	1402	1413	1419	1419	1419	1419	1419	0	0	0	0	0	5815	5815	5915	5815	5815	5815	5815	5815	5815	5815	5815	5815	5815	5815	5815	5815	5815	5815	5815	5815	5815	5815	5815	5815	5815	5815	5815	5815	5719	5719	5719	5815	5815	5815	5815	5815	5815	5815	5815	5815	5815	5815	5815	5719	5719	5719	5815	5815	5815	5815	5815	5815	5815	5815	5815	5719	5815	5719	5719	5815	5815	5815	5815	5815	5815	5815	5815	5815	5915	5815	5815	5815	5719	5719	5719	5719	5719	5719	5719	5719	5719	5719	5719	5719	5719	5719	5815	5719	5815	5815	5815	5815	5815	5815	5815	5815	5915	5915	5815	5915	5915	5815	5815	5719	5719	5719	4643	4643	4643	4643	4643	4643	4643	4643	4643	4706	4706	4643	4643	4706	4643	4643	4706	4643	4643	4643	4581	4643	4643	4643	4643	4643	4643	4643	4643	4643	4643	4643	4643	4643	4643	4643	4643	4643	4581	4581	4643	4643	4643	4643	4643	4643	4643	4581	4581	4581	4581	4581	4581	4581	4581	4581	4581	4581	4581	4581	4581	4581	4581	4581	4581	4521	4581	4581	4581	4581	4581	4581	4581	4581	4581	4581	4581	4581	4581	4581	4581	4581	4581	4581	4581	4581	4581	4581	4581	4581	4643	4643	4643	4643	4643	4643	4643	4643	4581	4581	4581	4581	4581	4581	4581	4581	4581	4581	4581	4581	4581	4581	4581	4581	4581	4581	4581	4581	4581	4581	4581	4581	4581	4581	4581	4581	4581	4581	4581	4581	4581	4581	4581	4581	4581	4581	4581	4581	4581	4581	4581	4581	4581	4581	4581	4521	4463	4521	4521	4521	4521	4521	4521	4521	4521	4521	4521	4521	4521	4521	4521	4521	4521	4521	4521	4521	4463	4463	4463	4463	4406	4463	4463	4463	4521	3475	3475	3475	3440	3440	3440	3440	3440	3440	3440	3440	3440	3440	3440	3440	3440	3406	3406	3373	3373	3341	3373	3341	3341	3373	3373	3406	3406	3406	3406	3406	3406	3440	3406	3406	3440	3440	3440	3440	3406	3406	3406	3406	3406	3406	3373	3373	3373	3440	3440	3406	3406	3406	4463	4463	4463	4463	4463	4463	4463	4463	4521	4521	4521	4521	4463	4521	4521	4521	4521	4521	4521	4463	4521	4521	4463	4463	4463	4463	4463	4463	4463	4463	4463	4463	4521	4463	4463	4521	4521	4463	4463	4463	4463	4463	4463	4463	4463	4463	4463	4463	4463	4463	4463	4463	4463	4463	4463	4463	4463	4463	4463	4463	4463	4463	4463	4521	4521	4521	4521	4521	4521	4463	4463	4463	4463	4463	4463	4463	4463	4463	4463	4463	4463	4463	4463	4463	4463	4463	4463	4463	4521	4521	4463	4463	6853	6992	6992	6992	6992	6992	6992	7137	7137	7137	7137	7137	7137	7137	7287	7287	7137	7287	7287	7287	7287	7137	7287	7137	7137	7287	7287	7444	7444	7608	7608	7608	7608	7444	7287	7287	7137	7137	7137	7137	7137	7137	7137	7137	6992	6992	6853	6853	6853	6720	6720	6592	6592	6592	6592	6592	6592	6592	6592	6592	6468	6468	6468	6468	6349	6235	6235	6124	6124	6018	6018	6018	6018	6018	6018	6018	6018	5915	5815	5815	5719	5719	5719	5719	5535	5535	5448	5448	5448	5364	5364	5364	5364	5364	5282	5282	5282	5282	5282	5282	5202	5282	5202	5125	5125	5125	5125	5050	5050	5050	5050	4977	4977	4906	4906	4838	4838	4771	4771	4771	4771	0	0	0	0	0	0	0	0	0	0	0	0	0	0	0	0	0	0	0	0	0	0	0	0	0	0	0	0	0	0	0	0	0	0
0	0	0	0	0	0	0	0	1214	1214	1214	1219	1214	1214	1219	1223	1227	1249	1249	1254	1254	1249	1254	1259	1268	1268	1268	1272	1277	1277	1282	1291	1296	1301	1301	1306	1306	1316	1321	1326	1336	1347	1352	1358	1363	1368	1385	1390	1407	1413	1419	1419	1419	1419	1425	1425	1425	0	0	0	0	5915	5815	5815	5815	5815	5815	5815	5815	5815	5815	5815	5815	5815	5815	5815	5815	5815	5815	5815	5815	5815	5815	5719	5815	5815	5815	5815	5815	5815	5815	5815	5815	5815	5815	5815	5815	5815	5815	5815	5719	5719	5719	5719	5719	5719	5719	5815	5815	5815	5815	5815	5719	5719	5719	5719	5719	5719	5719	5719	5815	5719	5719	5815	5815	5915	5915	5815	5815	5815	5815	5815	5815	5815	5815	5815	5815	5815	5815	5719	5719	5719	5719	5719	5719	5719	5719	5815	5815	5815	5815	5815	5815	5815	5815	5815	5815	5815	5815	5915	5815	5719	5719	5719	5719	5915	4643	4643	4643	4643	4643	4643	4643	4643	4706	4706	4643	4706	4706	4706	4643	4581	4643	4643	4581	4581	4581	4581	4643	4643	4581	4643	4643	4643	4643	4643	4643	4643	4643	4643	4643	4643	4643	4643	4643	4643	4643	4643	4643	4643	4643	4643	4581	4581	4581	4581	4581	4581	4581	4581	4581	4581	4581	4581	4581	4581	4581	4581	4581	4581	4521	4581	4581	4581	4581	4581	4581	4581	4581	4581	4581	4581	4581	4581	4581	4581	4581	4581	4581	4581	4581	4581	4581	4581	4581	4643	4581	4581	4643	4581	4643	4643	4581	4581	4581	4581	4581	4581	4581	4581	4581	4581	4581	4581	4581	4581	4581	4581	4581	4581	4581	4581	4581	4581	4581	4581	4581	4581	4581	4581	4581	4581	4581	4581	4581	4581	4581	4581	4581	4581	4581	4581	4581	4581	4581	4581	4581	4581	4581	4581	4521	4521	4463	4521	4521	4521	4521	4521	4521	4521	4521	4521	4521	4521	4521	4521	4521	4521	4521	4521	4463	4463	4463	4406	4406	4406	4463	3440	3440	3440	3475	3475	3440	3440	3440	3440	3440	3440	3440	3440	3440	3440	3440	3440	3406	3406	3406	3406	3406	3373	3373	3373	3341	3341	3341	3373	3373	3373	3406	3406	3406	3406	3406	3406	3406	3406	3406	3406	3406	3406	3406	3406	3406	3406	3406	3406	3406	3406	3406	3406	3406	3406	3406	3373	4521	4463	4463	4463	4521	4521	4521	4521	4521	4521	4521	4521	4521	4521	4521	4521	4521	4521	4521	4521	4521	4463	4463	4463	4463	4463	4463	4463	4463	4463	4521	4521	4521	4521	4521	4521	4521	4463	4463	4463	4463	4463	4463	4463	4463	4463	4463	4463	4463	4463	4463	4463	4463	4463	4463	4463	4463	4463	4463	4463	4463	4463	4463	4463	4521	4463	4463	4463	4463	4463	4463	4463	4463	4463	4463	4463	4463	4463	4463	4463	4463	4463	4463	4463	4463	4463	4463	4521	4463	4463	4463	4463	6992	6992	6992	6992	6992	7137	7137	7137	7137	7137	7137	7137	7137	7137	7287	7137	7137	7287	7444	7287	7287	7287	7137	7137	7137	7137	7137	7444	7444	7608	7608	7608	7444	7444	7444	7137	7287	7287	7137	7137	7137	7137	7137	6992	6992	6853	6853	6853	6720	6592	6592	6592	6592	6592	6592	6592	6592	6592	6592	6468	6468	6468	6235	6235	6235	6235	6124	6124	6018	6018	6018	6018	6018	6018	6018	6018	5915	5815	5719	5719	5719	5719	5719	5535	5535	5448	5448	5364	5364	5364	5364	5364	5364	5364	5282	5282	5282	5282	5282	5202	5202	5125	5125	5125	5125	5050	5050	5050	5050	5050	4977	4977	4906	4838	4838	4771	4771	4771	4771	4771	0	0	0	0	0	0	0	0	0	0	0	0	0	0	0	0	0	0	0	0	0	0	0	0	0	0	0	0	0	0	0	0	0	0
0	0	0	0	0	0	0	0	1214	1214	1214	1214	1214	1214	1219	1223	1227	1232	1240	1254	1249	1249	1254	1263	1268	1268	1272	1272	1272	1277	1287	1291	1296	1301	1301	1306	1311	1321	1321	1321	1331	1336	1347	1347	1352	1358	1363	1379	1390	1407	1413	1413	1413	1419	1419	1425	1425	1425	0	0	0	0	0	5815	5815	5815	5815	5815	5815	5815	5815	5815	5815	5815	5815	5815	5815	5815	5815	5815	5815	5815	5815	5719	5719	5815	5815	5815	5815	5815	5815	5815	5815	5815	5815	5815	5815	5815	5815	5815	5815	5815	5815	5815	5815	5815	5719	5815	5815	5815	5815	5719	5719	5719	5719	5719	5719	5719	5719	5815	5815	5719	5815	5815	5815	5815	5815	5815	5815	5815	5815	5815	5815	5815	5815	5815	5815	5815	5815	5719	5719	5719	5719	5719	5719	5719	5719	5719	5815	5815	5815	5815	5815	5815	5815	5815	5815	5815	5815	5815	5719	5719	5719	5719	5719	5815	4643	4643	4643	4643	4643	4643	4643	4581	4643	4643	4643	4643	4643	4643	4643	4581	4643	4706	4581	4581	4581	4581	4643	4643	4581	4643	4581	4643	4643	4643	4643	4643	4643	4643	4643	4643	4643	4643	4643	4706	4643	4643	4581	4643	4581	4581	4581	4581	4581	4581	4581	4581	4581	4581	4581	4581	4581	4581	4581	4581	4581	4581	4581	4581	4581	4581	4581	4581	4581	4581	4581	4581	4581	4581	4581	4581	4581	4581	4581	4581	4581	4581	4581	4581	4581	4581	4581	4581	4581	4581	4581	4581	4581	4643	4581	4643	4581	4581	4581	4581	4581	4581	4581	4581	4581	4581	4581	4581	4581	4581	4581	4581	4581	4581	4581	4581	4581	4581	4581	4581	4581	4581	4581	4581	4581	4581	4581	4581	4581	4581	4581	4581	4581	4581	4581	4581	4581	4581	4581	4581	4521	4521	4521	4521	4521	4521	4463	4521	4521	4521	4521	4521	4521	4521	4521	4521	4521	4521	4521	4521	4521	4521	4521	4463	4463	4463	4463	3406	3440	3440	3440	3440	3440	3440	3440	3440	3440	3440	3440	3440	3406	3406	3406	3406	3406	3406	3406	3406	3406	3406	3406	3373	3373	3373	3341	3373	3341	3341	3373	3373	3373	3373	3406	3406	3406	3406	3406	3406	3406	3406	3406	3406	3406	3406	3406	3406	3406	3406	3406	3373	3406	3373	3406	3406	3406	3406	3406	3373	3373	4521	4463	4463	4521	4463	4521	4521	4521	4521	4521	4521	4521	4521	4521	4521	4521	4521	4521	4521	4463	4463	4463	4463	4463	4463	4463	4463	4463	4463	4521	4521	4521	4521	4521	4521	4463	4463	4463	4463	4463	4463	4463	4463	4463	4463	4463	4463	4463	4463	4463	4463	4463	4463	4463	4463	4463	4463	4463	4463	4463	4463	4463	4463	4521	4521	4463	4463	4463	4463	4463	4463	4463	4463	4463	4463	4463	4463	4463	4463	4463	4463	4463	4463	4463	4463	4463	4521	4463	4463	4463	4463	6992	6992	7137	7137	7137	7137	7137	7287	7287	7287	7137	7137	7287	7287	7137	7137	7137	7137	7444	7444	7444	7287	7137	7137	7137	7444	7444	7608	7608	7608	7608	7608	7444	7444	7444	7137	7137	7137	7137	7137	7137	7137	7137	6992	6992	6853	6853	6853	6720	6720	6592	6592	6592	6592	6592	6592	6592	6592	6468	6468	6468	6468	6468	6124	6124	6124	6124	6124	6018	6018	6018	6018	6018	6018	6018	6018	5915	5815	5815	5719	5719	5626	5626	5535	5535	5448	5448	5364	5364	5364	5364	5282	5364	5282	5282	5282	5282	5202	5202	5202	5125	5125	5050	5050	5050	5050	5050	5050	5050	5050	4977	4977	4906	4838	4838	4838	4771	4771	4771	4771	0	0	0	0	0	0	0	0	0	0	0	0	0	0	0	0	0	0	0	0	0	0	0	0	0	0	0	0	0	0	0	0	0	0
0	0	0	0	0	0	0	0	1210	1210	1214	1214	1214	1214	1219	1232	1227	1232	1236	1254	1249	1249	1254	1259	1268	1268	1272	1272	1277	1277	1287	1291	1291	1301	1311	1316	1321	1326	1321	1326	1331	1331	1342	1342	1347	1352	1358	1363	1385	1396	1407	1407	1407	1413	1419	1425	1431	1437	1455	1467	1467	0	0	0	5815	5815	5815	5815	5815	5815	5815	5815	5815	5815	5815	5815	5815	5815	5815	5815	5815	5815	5815	5719	5815	5815	5815	5815	5719	5719	5815	5815	5815	5815	5815	5815	5815	5815	5719	5719	5719	5719	5719	5719	5719	5719	5815	5815	5815	5815	5815	5815	5719	5719	5719	5719	5719	5719	5719	5719	5719	5815	5719	5815	5815	5815	5815	5815	5815	5815	5815	5815	5815	5815	5815	5815	5815	5815	5815	5719	5719	5719	5719	5719	5719	5719	5719	5719	5815	5815	5815	5815	5815	5815	5815	5815	5915	5815	5815	5815	5719	5719	5719	5626	5626	5626	4706	4643	4643	4643	4643	4643	4643	4581	4643	4643	4581	4581	4643	4643	4643	4581	4581	4706	4581	4581	4581	4581	4643	4643	4643	4643	4643	4643	4643	4643	4643	4643	4643	4643	4706	4643	4643	4643	4643	4643	4643	4581	4581	4581	4581	4581	4581	4581	4581	4581	4581	4581	4581	4581	4581	4581	4581	4581	4581	4581	4581	4581	4581	4581	4581	4581	4581	4581	4581	4581	4581	4581	4581	4581	4581	4581	4581	4581	4521	4581	4581	4581	4581	4581	4643	4643	4643	4581	4581	4581	4581	4581	4581	4581	4643	4581	4581	4581	4581	4581	4581	4581	4581	4581	4581	4581	4581	4581	4581	4581	4581	4581	4581	4581	4581	4581	4581	4581	4581	4581	4581	4581	4581	4581	4581	4581	4581	4581	4581	4581	4581	4581	4581	4581	4581	4581	4581	4581	4581	4581	4521	4521	4581	4521	4521	4581	4521	4521	4521	4521	4521	4521	4521	4521	4521	4521	4521	4521	4521	4521	4521	4521	4521	4521	4463	4463	3406	3440	3440	3406	3440	3440	3440	3440	3440	3440	3440	3440	3406	3406	3406	3406	3406	3406	3406	3406	3406	3406	3406	3406	3406	3373	3373	3373	3341	3373	3341	3341	3373	3373	3373	3406	3406	3406	3406	3406	3406	3406	3406	3406	3406	3406	3406	3406	3406	3406	3406	3406	3406	3406	3406	3406	3406	3406	3406	3406	3406	3373	3373	3373	4463	4463	4463	4521	4521	4521	4521	4521	4521	4521	4521	4521	4521	4521	4521	4521	4463	4463	4463	4463	4463	4463	4463	4463	4463	4463	4463	4463	4521	4521	4521	4521	4521	4521	4463	4463	4463	4463	4463	4463	4463	4463	4463	4463	4463	4463	4463	4463	4463	4463	4463	4463	4463	4463	4463	4463	4463	4463	4463	4463	4463	4463	4463	4463	4463	4463	4463	4463	4463	4463	4463	4463	4463	4463	4463	4463	4463	4463	4463	4463	4463	4463	4463	4463	4463	4463	4463	4463	4463	4463	4463	6992	7137	7137	7137	7137	7287	7287	7287	7287	7137	7137	7287	7287	7287	7287	7444	7444	7444	7444	7444	7444	7287	7287	7137	7444	7444	7444	7608	7608	7608	7444	7444	7287	7287	7137	7137	7137	7137	6992	7137	6992	7137	6992	6992	6992	6853	6853	6853	6720	6720	6592	6592	6592	6592	6592	6592	6468	6468	6468	6468	6468	6468	6124	6124	6124	6124	6018	6018	6018	6018	6018	6018	6018	6018	6018	5915	5915	5719	5719	5719	5626	5626	5626	5535	5448	5448	5364	5364	5364	5364	5364	5364	5282	5282	5282	5282	5282	5202	5202	5202	5125	5050	5050	5050	5050	5050	5050	4977	4977	4977	4906	4906	4906	4906	4838	4771	4771	4771	4771	0	0	0	0	0	0	0	0	0	0	0	0	0	0	0	0	0	0	0	0	0	0	0	0	0	0	0	0	0	0	0	0	0	0
0	0	0	0	0	0	0	0	1210	1214	1214	1219	1219	1219	1214	1232	1236	1240	1240	1245	1249	1249	1249	1254	1263	1268	1272	1277	1282	1282	1287	1287	1296	1306	1311	1311	1321	1326	1321	1326	1331	1331	1336	1342	1347	1352	1352	1352	1374	1396	1402	1407	1407	1407	1413	1419	1431	1437	1455	1461	1473	1480	1480	0	0	0	0	5815	5815	5815	5815	5815	5815	5815	5815	5815	5815	5815	5815	5815	5815	5815	5815	5719	5815	5815	5815	5815	5719	5719	5719	5719	5719	5719	5719	5719	5815	5719	5719	5815	5719	5719	5719	5719	5719	5719	5815	5815	5815	5815	5815	5815	5815	5719	5719	5719	5815	5719	5719	5719	5719	5719	5815	5815	5815	5815	5815	5815	5815	5815	5815	5815	5815	5815	5815	5815	5815	5815	5815	5815	5815	5719	5719	5719	5719	5719	5719	5719	5815	5815	5815	5815	5815	5815	5815	5815	5815	5815	5815	5815	5719	5719	5719	5626	5626	4706	4643	4643	4643	4643	4643	4643	4643	4581	4643	4643	4581	4581	4581	4581	4643	4706	4581	4706	4706	4643	4643	4643	4643	4643	4643	4643	4643	4643	4643	4643	4643	4643	4643	4706	4706	4643	4643	4643	4643	4643	4643	4581	4581	4581	4581	4581	4581	4581	4581	4581	4581	4581	4581	4581	4581	4581	4643	4581	4581	4581	4581	4581	4581	4581	4581	4581	4581	4581	4581	4581	4581	4581	4581	4581	4581	4581	4581	4581	4521	4581	4581	4581	4581	4643	4643	4643	4643	4581	4581	4581	4581	4581	4581	4581	4581	4581	4581	4581	4581	4581	4581	4581	4581	4581	4581	4581	4581	4581	4581	4581	4581	4581	4581	4581	4581	4581	4581	4581	4581	4581	4581	4581	4581	4581	4581	4581	4581	4581	4581	4581	4581	4581	4581	4581	4581	4581	4581	4581	4581	4581	4581	4581	4581	4581	4581	4581	4521	4521	4521	4521	4521	4521	4521	4521	4521	4521	4521	4521	4521	4521	4463	4521	4521	3406	3406	3406	3406	3406	3406	3406	3406	3440	3440	3440	3440	3406	3440	3440	3406	3406	3406	3406	3406	3373	3373	3406	3406	3406	3406	3406	3406	3406	3373	3341	3341	3373	3341	3341	3373	3373	3373	3373	3406	3406	3406	3406	3406	3406	3406	3406	3406	3406	3406	3406	3406	3406	3406	3406	3406	3406	3406	3406	3406	3406	3406	3406	3406	3406	3406	3406	4463	4463	4521	4521	4521	4521	4521	4521	4521	4521	4521	4521	4521	4521	4521	4463	4463	4463	4463	4463	4463	4463	4463	4463	4463	4463	4463	4463	4463	4521	4521	4521	4521	4463	4463	4463	4463	4463	4463	4463	4463	4406	4406	4463	4463	4463	4463	4463	4463	4463	4463	4463	4463	4463	4463	4463	4463	4463	4463	4463	4463	4463	4463	4463	4463	4463	4463	4463	4463	4463	4463	4463	4406	4463	4463	4463	4463	4463	4463	4463	4463	4463	4463	4463	4463	4463	4463	4463	4463	4463	4463	7137	7137	7137	7137	7137	7287	7287	7287	7287	7287	7444	7444	7287	7287	7444	7444	7444	7608	7608	7444	7608	7444	7444	7608	7608	7444	7444	7608	7608	7608	7444	7444	7444	7287	7287	7137	7137	7137	7137	7137	6992	6992	6992	6992	6853	6853	6853	6853	6853	6720	6720	6592	6592	6592	6592	6592	6468	6468	6468	6349	6349	6124	6124	6124	6124	6124	6018	6018	6018	6018	6018	6018	6018	6018	6018	6018	5915	5815	5815	5719	5626	5626	5535	5535	5535	5448	5448	5448	5364	5364	5364	5364	5364	5282	5282	5282	5282	5282	5202	5202	5125	5050	5050	4977	5050	5050	4977	4977	4977	4977	4977	4906	4838	4838	4771	4771	4771	4771	4771	0	0	0	0	0	0	0	0	0	0	0	0	0	0	0	0	0	0	0	0	0	0	0	0	0	0	0	0	0	0	0	0	0	0
0	0	0	0	0	0	0	0	1214	1214	1214	1219	1219	1219	1223	1232	1236	1236	1240	1245	1249	1245	1249	1254	1263	1263	1272	1277	1282	1282	1287	1291	1296	1306	1306	1311	1321	1326	1326	1326	1326	1331	1336	1336	1342	1347	1352	1352	1368	1385	1390	1396	1396	1402	1402	1413	1425	1431	1437	1467	1473	1480	1480	0	0	0	0	0	0	5815	5815	5815	5815	5815	5815	5815	5815	5815	5815	5815	5815	5815	5815	5719	5815	5815	5719	5719	5719	5719	5719	5719	5719	5815	5719	5815	5815	5815	5719	5815	5719	5719	5719	5719	5719	5719	5815	5815	5815	5815	5815	5815	5815	5815	5719	5719	5719	5719	5815	5815	5815	5815	5815	5815	5815	5815	5815	5815	5815	5815	5815	5815	5815	5815	5815	5815	5815	5815	5815	5815	5815	5815	5719	5719	5719	5719	5719	5719	5815	5815	5815	5815	5815	5815	5815	5815	5815	5815	5815	5815	5719	5719	5719	5626	5626	4706	4706	4643	4643	4643	4706	4706	4643	4643	4706	4643	4643	4581	4581	4643	4643	4643	4581	4581	4706	4643	4643	4643	4643	4643	4643	4643	4643	4643	4643	4643	4643	4643	4643	4706	4706	4643	4643	4643	4643	4643	4643	4581	4581	4581	4581	4581	4581	4581	4581	4581	4581	4581	4581	4581	4643	4643	4643	4581	4581	4581	4581	4581	4581	4581	4581	4581	4581	4581	4581	4581	4581	4581	4581	4581	4581	4581	4581	4581	4521	4581	4581	4581	4581	4643	4643	4643	4643	4581	4581	4581	4581	4581	4581	4581	4581	4581	4581	4581	4581	4581	4581	4581	4581	4581	4581	4581	4581	4581	4581	4581	4581	4581	4581	4581	4581	4581	4581	4581	4581	4581	4581	4581	4581	4581	4581	4581	4581	4581	4581	4581	4581	4581	4581	4581	4581	4581	4581	4581	4581	4581	4581	4581	4581	4581	4581	4581	4521	4521	4521	4521	4521	4521	4521	4521	4521	4521	4521	4521	4521	4521	4521	4521	3406	3406	3406	3406	3406	3406	3406	3406	3406	3406	3406	3406	3406	3406	3406	3406	3406	3406	3373	3373	3373	3373	3373	3373	3373	3373	3373	3373	3373	3373	3373	3341	3341	3341	3341	3341	3373	3373	3373	3373	3373	3373	3406	3406	3406	3406	3406	3406	3406	3406	3406	3406	3406	3406	3406	3406	3406	3406	3406	3406	3406	3406	3406	3406	3406	3406	3406	3373	3373	4463	4521	4521	4521	4521	4521	4521	4581	4521	4463	4463	4463	4463	4463	4463	4463	4463	4463	4463	4463	4463	4463	4463	4463	4463	4463	4463	4463	4463	4463	4521	4463	4463	4463	4463	4463	4463	4463	4463	4463	4406	4406	4463	4463	4463	4463	4463	4463	4463	4463	4463	4463	4463	4463	4463	4463	4463	4463	4463	4463	4463	4463	4463	4463	4463	4463	4463	4463	4463	4463	4463	4406	4406	4463	4463	4463	4463	4463	4463	4463	4463	4463	4463	4463	4463	4463	4463	4463	4463	4463	7137	7287	7137	7137	7287	7287	7444	7444	7444	7444	7444	7444	7444	7444	7444	7608	7608	7608	7608	7444	7444	7444	7444	7608	7608	7608	7608	7608	7608	7608	7444	7444	7287	7287	7287	7137	7137	7137	6992	6992	6992	6992	6992	6992	6992	6853	6853	6853	6853	6720	6720	6720	6592	6592	6592	6468	6468	6468	6468	6349	6235	6124	6124	6124	6124	6124	6018	6018	6018	6018	6018	6124	6018	6018	6018	6018	5915	5815	5815	5719	5719	5626	5626	5535	5535	5448	5448	5364	5364	5364	5364	5364	5282	5282	5282	5282	5282	5282	5202	5202	5125	5050	5050	4977	4977	4977	4977	4977	4977	4977	4977	4906	4906	4906	4838	4838	4771	4771	4771	0	0	0	0	0	0	0	0	0	0	0	0	0	0	0	0	0	0	0	0	0	0	0	0	0	0	0	0	0	0	0	0	0	0
