0	0	0	882	884	884	882	882	887	887	887	889	889	889	889	889	887	889	891	891	891	891	891	894	894	896	898	903	913	913	913	913	920	927	930	932	935	937	937	937	940	942	942	950	950	953	953	953	953	1085	1081	1081	1081	1085	1085	1085	1085	1085	1085	1085	1085	1081	1081	1078	1081	1081	1081	1081	1081	1085	1085	1085	1085	1085	1085	1085	1085	1085	1085	1085	1085	1085	1185	1185	1177	1177	1177	1177	1177	1177	1181	1181	1185	1193	1193	1189	1193	1193	1197	1193	1193	1202	1202	1206	1206	1206	1214	1214	1219	1223	1223	0	0	0	0	0	0	0	0	0	5815	5915	5915	6018	6018	6018	0	0	0	6018	6018	5915	6018	5915	5915	5915	6018	6018	6018	6018	6018	6018	6018	6018	6018	6018	6018	6018	6124	6124	6124	6018	6018	6018	6018	6018	6124	6124	6124	6235	6124	6124	6018	6018	6018	5915	5915	6018	6018	6018	6018	6018	6018	6124	6124	6124	6124	6124	6124	6124	6124	6018	6018	6018	6018	6018	6018	6018	6018	6018	6018	6018	6018	6018	6018	6018	6018	6018	6018	6018	6018	6018	6018	6018	6018	6124	6018	6018	6124	6124	6235	6235	6235	6124	6124	6124	6124	6124	6124	6124	6124	6349	6235	6235	6235	6235	6124	6124	6124	6124	6124	6124	6124	6124	6124	6124	6124	6124	6124	6124	0	6124	6124	6124	6235	6235	6124	6124	6124	6124	6124	6124	6124	6124	6124	6124	6124	6124	6124	6124	6124	6124	6124	6124	6018	6018	6018	6018	6018	6018	6124	6124	6018	6018	5915	5815	6018	6018	6018	6018	6018	6124	6124	6124	6124	6124	6124	6124	6124	6018	6018	6018	6018	6018	6018	6018	6018	6124	6124	6124	6124	6124	6124	6124	6124	6124	6124	6124	6124	6124	6124	6124	6018	6018	6124	6235	6124	6124	6124	6124	6124	6124	6124	6124	6124	0	6124	6124	6124	0	0	0	0	6235	6235	6235	6235	6235	6124	6124	6235	6235	6235	6235	6124	6235	6235	6235	6235	6235	6235	6235	6235	6124	6124	6124	6124	6124	6124	6124	6124	6018	6124	6124	6124	6124	6124	6124	6124	6124	6124	6124	6124	6124	6124	6124	6124	6018	6018	5915	5915	5915	5915	5915	6018	6124	6124	6124	6124	6124	6124	6124	6124	6124	6124	6018	6018	6018	6018	6018	6018	6018	6124	6124	6124	6124	6124	6124	6124	6235	6235	6124	6124	6124	6124	6235	6235	6235	6235	6124	6124	6124	6235	6124	6235	6235	6235	6235	6235	6235	6235	6235	6124	6124	0	0	0	0	0	0	0	0	0	0	0	0	0	6124	6124	6124	6124	6124	6124	6124	6235	6235	6235	6235	6235	6235	6349	6349	6349	6235	6124	6235	6235	6124	6124	6235	6235	6235	0	0	0	0	0	0	0	0	0	0	0	0	0	0	0	0	0	6349	6349	6349	6349	6349	6349	6235	6235	6235	6235	6235	6235	6235	6235	6349	6349	6349	6349	6349	0	6235	6235	6349	6235	6235	6349	6468	6468	6592	6592	0	0	0	0	0	6349	6349	6349	6349	6349	0	0	0	0	0	0	0	0	0	6235	6235	6235	6124	6124	6124	6235	6235	6235	6235	6235	6124	6124	6018	6018	6018	6018	6018	6018	6018	6018	6018	0	0	0	0	0	5915	5915	5815	5815	5815	0	0	0	0	0	0	0	0	0	0	0	0	0	0	0	0	0	0	0	0	2609	2609	2589	2589	2589	2589	2589	2589	2551	2551	2532	2532	2532	0	0	0	0	0	0	0	0	0	0	0	0	0	0	0	0	0	0	0	0	0	0	0	0	0	0	0	0	0	0	0	0	0	0	0	0	0
0	0	0	0	884	884	884	891	891	891	889	891	891	891	889	889	889	889	891	891	891	891	894	894	896	898	901	901	910	913	910	913	917	925	930	932	935	937	937	937	940	942	945	950	950	953	953	953	953	0	1081	1081	1081	1081	1085	1085	1085	1085	1085	1085	1085	1081	1081	1078	1081	1081	1081	1081	1081	1085	1085	1085	1085	1085	1085	1085	1088	1088	1088	1091	1091	1091	1185	1185	1181	1185	1185	1185	1189	1185	1193	1189	1189	1202	1197	1193	1197	1197	1197	1197	1193	1197	1202	1202	1206	1210	1210	1214	1219	1223	1223	1223	0	0	0	0	0	0	0	0	0	0	0	0	0	0	0	0	0	6018	6018	6018	6018	6018	5915	5915	6018	6018	6018	6018	6018	6018	6018	6018	6018	6124	6124	6124	6124	6124	6124	6124	6124	6124	6124	6124	6124	6235	6235	6235	6124	6235	6124	6235	6018	6018	6018	6018	6018	6124	6018	6124	6018	6124	6124	6124	6124	6124	6124	6124	6124	6124	6124	6124	6018	6018	6124	6124	6018	6018	6018	6124	6018	6018	6018	6124	6018	6018	6018	6018	6124	6018	6124	6124	6124	6124	6235	6124	6235	6235	6235	6235	6235	6235	6124	6124	6124	6124	6124	6124	6124	6235	6235	6235	6235	6124	6124	6124	6124	6124	6124	6124	6235	6235	6124	6124	6124	6124	6124	6124	6018	6124	6124	6124	6124	6124	6124	6124	6124	6124	6124	6124	6124	6124	6124	6124	6124	6124	6124	6124	6235	6124	6124	6124	6124	6124	6124	6124	6018	6018	6124	6018	6018	6018	6018	5915	6018	6018	6018	6018	6018	6124	6124	6124	6124	6124	6124	6124	6124	6124	6018	6018	6124	6124	6124	6124	6124	6124	6235	6235	6124	6124	6124	6124	6124	6124	6124	6124	6124	6124	6124	6124	6018	6018	6018	6124	6124	6124	6124	6124	6124	6235	6235	6235	6235	0	0	0	0	0	0	0	6235	6235	6235	6235	6235	6235	6124	6124	6235	6235	6235	6235	6235	6235	6235	6235	6235	6235	6235	6235	6235	6124	6124	6124	6124	6124	6124	6124	6124	6124	6124	6124	6124	6235	6235	6235	6235	6124	6124	6124	6124	6124	6124	6124	6124	6124	6124	6124	6018	6018	5915	6018	6018	6124	6124	6124	6124	6235	6235	6235	6124	6124	6124	6124	6124	6018	0	0	0	0	6124	6124	6124	6124	6124	6124	6124	6235	6235	6124	6124	6124	6124	6235	6235	6235	6235	6235	6235	6235	6235	6235	6349	6349	6349	6235	6235	6235	6235	6235	6235	0	0	0	0	0	0	0	0	6235	6124	6235	6124	6124	6124	6124	6124	6235	6124	6235	6235	6235	6235	6235	6235	6235	6349	6235	6349	6349	6349	6235	6235	6235	6235	6124	6124	6124	6124	6124	0	0	0	0	0	0	0	6349	6468	6468	6592	6720	6720	0	0	0	0	6349	6349	6349	6349	6349	6349	6235	6235	6235	6235	6235	6235	6235	6235	6349	6349	6349	6349	6235	6235	6235	6235	6349	6235	6235	6468	6468	6468	6592	6592	6468	6468	6468	0	0	0	0	0	0	0	0	0	0	0	0	0	0	0	6235	6235	6235	6235	6235	6124	6235	6349	6349	6235	6124	6235	6235	6124	6124	6018	6018	6124	6018	6018	6018	6018	6018	0	0	0	0	0	6018	6018	5915	5915	5815	5815	0	0	0	0	0	0	0	0	0	0	0	0	0	0	0	0	0	0	0	2609	2589	2589	2589	2589	2570	2589	2570	2551	2532	2532	2532	2532	0	0	0	0	0	0	0	0	0	0	0	0	0	0	0	0	0	0	0	0	0	0	0	0	0	0	0	0	0	0	0	0	0	0	0	0	0
0	0	0	0	0	884	896	896	891	891	887	889	891	891	889	889	891	891	894	891	894	894	894	894	898	901	901	903	908	910	910	913	920	922	927	932	932	937	937	940	942	942	945	948	950	953	953	953	953	972	972	1081	1081	1081	1081	1085	1085	1085	1085	1085	1085	1081	1081	1078	1081	1081	1081	1081	1078	1085	1081	1085	1085	1085	1085	1085	1091	1088	1088	1091	1091	1091	0	0	1181	1185	1185	1185	1206	1202	1206	1189	1206	1206	1202	1197	1202	1202	1202	1202	1197	1197	1202	1202	1206	1210	1214	1219	1219	1223	1223	1223	0	0	0	0	0	0	0	0	0	0	0	0	0	0	0	0	0	6018	6018	6124	6124	6124	6124	6018	6124	6018	6018	6018	6018	6018	6018	0	6018	6124	6124	6124	6124	6124	6235	6235	6235	6235	6235	6235	6349	6349	6349	6349	6349	6349	6235	6235	6124	6124	6124	6124	6124	6235	6124	6124	6124	6235	6235	6235	6235	6124	6124	6235	6235	6124	6124	6124	6018	6018	6124	6124	6018	6124	6018	6124	6124	6124	6018	6018	6018	6124	6018	6018	6124	6124	6124	6124	6124	6235	6235	6235	6235	6235	6349	6235	6235	6235	6124	6124	6124	6124	6124	6124	6124	6349	6235	6235	6235	6235	6124	6124	6124	6124	6124	6235	6235	6235	6235	6235	6235	6124	6124	6124	6124	6018	6018	6018	6124	6124	6124	6124	6124	6235	6235	6124	6124	6124	6124	6124	6124	6124	6235	6235	6235	6235	6235	6235	6349	6124	6124	6124	6018	6018	6018	6018	6018	6018	6018	5915	6018	6018	6018	6124	6124	6235	6235	6124	6124	6124	6124	6124	6124	6124	6124	6124	6124	6124	6124	6124	6124	6124	6235	6235	6124	6124	6235	6235	6124	6124	6124	6124	6124	6124	6124	6124	6018	6018	6018	6235	6124	6124	6124	6124	6124	6235	6235	6235	6235	0	0	0	0	0	0	0	6235	6235	6235	6235	6235	6235	6235	6235	6235	6235	6235	6235	6235	6235	6235	6235	6235	6124	6124	6235	6124	6124	6124	6124	6124	6235	6235	6124	6124	6124	6124	6235	6235	6235	6235	6235	6235	6124	6124	6124	6124	6124	6124	6124	6124	6124	6124	6018	6018	6018	6018	6018	6018	6124	6124	6124	6235	6235	6235	6235	6235	6124	6124	6124	6124	6124	0	0	6124	6124	6124	6124	6124	6124	6124	6124	6124	6235	6235	6235	6124	6124	6124	6235	6235	6235	6235	6235	6235	6235	6235	6235	6349	6349	6349	6349	6349	6349	6235	6235	6235	0	0	0	0	0	6235	6124	6124	6235	6235	6235	6235	6235	6235	6235	6235	6235	6235	6235	6349	6349	6349	6349	6349	6235	6349	6235	6349	6349	6349	6235	6235	6235	6235	6124	6124	6124	6018	5915	5915	0	0	0	0	6592	6592	6468	6592	6592	6720	6720	6720	0	0	0	0	6349	6349	6349	6349	6349	6349	6349	6235	6235	6235	6235	6235	6235	6235	6349	6349	6349	6349	6235	6235	6235	6235	6235	6349	6349	6468	6468	6468	6592	6592	6592	6468	6468	6468	6468	0	0	0	0	0	0	0	0	0	0	0	0	0	6235	6235	6235	6235	6235	6235	6349	6349	6349	6349	6235	6349	6349	6235	6124	6124	6124	6235	6124	6124	6124	6124	6124	0	0	0	0	0	6235	6124	6018	6018	5915	5915	5915	5915	5915	0	0	0	0	0	0	0	0	0	0	0	0	0	0	0	0	0	2589	2589	2589	2570	2570	2551	2551	2532	2532	2532	2532	2532	0	0	0	0	0	0	0	0	0	0	0	0	0	0	0	0	0	0	0	0	0	0	0	0	0	0	0	0	0	0	0	0	0	0	0	0	0
0	0	0	0	0	0	896	852	852	889	889	889	891	891	891	891	891	894	894	894	894	894	896	896	898	901	903	905	910	913	913	917	920	922	927	930	932	935	937	940	942	945	945	948	950	953	953	963	972	972	972	1081	1081	1081	1081	1081	1081	1078	1081	1085	1081	1081	1081	1081	1085	1081	1081	1081	1078	1085	1081	1085	1085	1088	1085	1085	1091	1091	1091	1091	1095	1095	0	0	0	0	0	0	1206	1202	1206	1210	1210	1206	1206	1202	1202	1206	1206	1206	1202	1202	1206	1206	1206	1214	1219	1219	1219	1223	1227	1232	1232	0	0	0	0	0	0	0	0	0	0	0	0	0	0	0	0	0	0	6124	6124	6349	6349	6124	6124	6018	6018	6018	6018	6018	6018	6018	6018	6018	6018	6124	6235	6235	6349	6349	6349	6349	6349	6349	6349	6349	6235	6349	6349	6349	6235	6235	6235	6235	6124	6124	6124	6235	6235	6235	6235	6235	6235	6235	6235	6124	6235	6235	6235	6124	6124	6124	6124	6124	6124	6124	6124	6124	6124	6124	6124	6124	6124	6124	6018	6124	6018	6124	6124	6124	6124	6124	6124	6235	6235	6235	6235	6235	6235	6235	6235	6235	0	0	6124	6124	6124	6124	6124	6349	6235	6235	6235	6235	6124	6124	6235	6124	6235	6235	6349	6235	6235	6235	6235	6235	6124	6124	6124	6124	6018	6124	6124	6124	6124	6124	6124	6235	6235	6235	6124	6124	6124	6124	6124	6124	6235	6235	6235	6235	6349	6349	6468	6349	6235	6124	6124	6018	6124	6018	6018	6018	6018	6018	6124	6124	6018	6124	6235	6235	6235	6124	6124	6124	6124	6235	6235	6124	6124	6124	6124	6124	6124	6124	6124	6235	6235	6235	6235	6235	6349	6349	6235	6235	6235	6124	6124	6124	6124	6124	6124	6124	6124	6235	6235	6235	6124	6124	0	0	0	0	0	0	0	0	0	0	6235	6235	6235	6235	6235	6235	6235	6235	6235	6235	6235	6235	6235	6235	6235	6235	6235	6235	6235	6235	6235	6235	6235	6235	6235	6235	6235	6235	6235	6235	6235	6235	6124	6235	6235	6235	6235	6235	6235	6235	6235	6235	6235	6235	6235	6235	6235	6235	6235	6124	6124	6018	6018	6018	6018	6124	6124	6124	6235	6235	6235	6235	6235	6235	6235	6124	6124	6124	6124	0	6124	6235	6235	6235	6235	6235	6124	6124	6124	6235	6235	6235	6124	6124	6124	6235	6235	6235	6235	6124	6124	6235	6235	6235	6349	6349	6349	6349	6349	6349	6349	6349	6349	0	0	0	0	6235	6235	6235	6235	6235	6235	6235	6235	6235	6235	6235	6235	6349	6235	6349	6349	6349	6349	6349	6349	6349	6349	6349	6349	6349	6349	6349	6235	6235	6235	6235	6235	6235	6235	6018	6018	0	0	0	6592	6720	6592	6468	6592	6468	6468	6468	6349	6468	6468	6468	6349	6349	6349	6349	6349	6349	6349	6349	6235	6235	6235	6235	6235	6235	6235	6349	6349	6349	6349	6235	6235	6349	6349	6349	6349	6349	6468	6468	6468	6592	6592	6468	6468	6592	6468	6468	6468	0	0	0	0	0	0	0	0	0	0	0	0	6349	6349	6349	6235	6235	6349	6349	6349	6349	6349	6349	6349	6349	6349	6235	6235	6235	6235	6235	6235	6235	6235	6235	0	0	0	0	0	6235	6124	6124	6018	6018	6018	6018	6018	6018	0	0	0	0	0	0	0	0	0	0	0	0	0	0	0	0	2609	2589	2570	2570	2570	2551	2551	2551	2532	2532	2532	2532	2532	0	0	0	0	0	0	0	0	0	0	0	0	0	0	0	0	0	0	0	0	0	0	0	0	0	0	0	0	0	0	0	0	0	0	0	0	0
0	0	0	843	843	848	852	852	852	852	925	905	894	894	894	894	905	905	894	896	896	898	898	898	901	903	905	905	913	913	915	920	920	922	925	930	930	935	937	940	942	945	945	948	950	955	963	966	972	972	972	972	1081	1081	1081	1078	1078	1078	1081	1081	1081	1081	1081	1081	1085	1081	1081	1081	1078	1085	1081	1085	1085	1088	1085	1085	1091	1091	1091	1095	1098	1098	0	0	0	0	0	0	0	1214	1206	1214	1219	1210	1210	1206	1206	1206	1210	1210	1214	1210	1214	1214	1214	1214	1219	1219	1223	1223	1227	1232	1240	1240	0	0	0	0	0	0	0	0	0	0	0	0	0	0	0	0	0	0	6349	6349	6349	6349	6349	6349	6018	6349	6235	6124	6124	6124	6124	6124	6124	6235	6235	6235	6349	6349	6349	6468	6468	6468	6349	6349	6235	6235	6349	6349	6235	6235	6235	6235	6235	6235	6235	6235	6235	6235	6235	6235	6235	6235	6235	6235	6235	6235	6349	6235	6235	6349	6124	6124	6124	6124	6124	6124	6124	6235	6124	6124	6124	6124	6124	6235	6124	6124	6235	6235	6235	6235	6235	6235	6235	6235	6235	6235	6235	6235	6235	6235	0	0	6124	6124	6124	6124	6124	6235	6235	6235	6235	6235	6124	6235	6235	6235	6235	6235	6235	6235	6235	6235	6235	6235	6235	6124	6124	6124	6124	6124	6235	6235	6235	6124	6235	6235	6235	6235	6124	6124	6235	6235	6124	6235	6235	6235	6235	6235	6235	6349	6468	6468	6235	6124	6124	6124	6124	6124	6124	6124	6124	6124	6124	6235	6124	6235	6235	6235	6235	6235	6235	6124	6124	6235	6124	6235	6124	6124	6235	6235	6235	6235	6235	6235	6349	6349	6349	6349	6349	6349	6349	6235	6235	6124	6124	6124	6124	6124	6124	6124	6124	6235	6235	6235	0	0	0	0	0	0	0	0	0	6235	6235	6235	6235	6235	6235	6235	6235	6235	6235	6235	6235	6235	6235	6235	0	6235	6235	6235	6235	6235	6235	6235	6235	6235	6235	6235	6235	6235	6235	6235	6235	6235	6235	6235	6349	6235	6235	6235	6235	6235	6235	6235	6235	6235	6349	6349	6349	6349	6235	6235	6235	6124	6124	6124	6124	6124	6124	6124	6124	6235	6235	6235	6235	6235	6235	6235	6235	6235	6235	6235	6235	0	6235	6235	6349	6349	6235	6235	6124	6235	6124	6235	6235	6235	6235	6235	6235	6235	6235	6235	6235	6235	6124	6235	6235	6235	6235	6349	6349	6349	6349	6349	6349	6349	6349	6349	0	0	6349	6349	6349	6235	6349	6349	6235	6235	6235	6235	6235	6235	6124	6235	6235	6235	6349	6349	6349	6349	6349	6349	6349	6349	6349	6349	6349	6349	6235	6349	6349	6349	6468	6349	6468	6349	6592	6592	6720	6592	6720	6720	6592	6592	6592	6468	6592	6468	6468	6468	6468	6468	6349	6349	6349	6349	6349	6349	6349	6349	6349	6235	6349	6235	6349	6235	6235	6349	6349	6349	6349	6349	6349	6349	6349	6349	6349	6349	6468	6468	6468	6592	6592	6592	6720	6720	6720	6468	6468	0	0	0	0	0	0	0	0	0	0	0	6349	6468	6349	6349	6349	6349	6349	6349	6349	6349	6349	6349	6468	6349	6468	6349	6349	6349	6349	6349	6235	6235	6235	6235	0	6349	6349	6349	6349	6235	6235	6235	6124	6124	6124	6124	6124	6124	0	0	0	0	0	0	0	0	0	0	0	0	0	0	0	0	2609	2589	2570	2570	2551	2551	2551	2532	2532	2532	2532	2532	2532	0	0	0	0	0	0	0	0	0	0	0	0	0	0	0	0	0	0	0	0	0	0	0	0	0	0	0	0	0	0	0	0	0	0	0	0	0
0	0	841	843	845	848	852	852	930	925	925	905	905	910	910	908	910	910	910	910	920	920	903	903	903	903	903	905	910	913	915	920	920	922	925	927	930	932	935	940	942	945	948	950	953	955	961	966	972	972	972	980	980	1074	1074	1074	1074	1074	1078	1081	1081	1081	1081	1078	1081	1081	1081	1081	1078	1081	1081	1081	1081	1085	1085	1085	1091	1091	1091	1095	1095	1098	0	0	0	0	0	0	0	1223	1223	1227	1227	1219	1219	1210	1214	1219	1219	1219	1219	1214	1219	1219	1219	1219	1219	1219	1223	1223	1227	1232	1232	1240	0	0	0	0	0	0	0	0	0	0	0	0	0	0	0	0	6349	6349	6349	6349	6349	6349	6349	6349	0	6349	6235	6235	6235	6124	6124	6124	6124	6235	6235	6235	6349	6349	6468	6468	6592	6468	6349	6349	6235	6235	6235	6349	6349	6235	6235	6235	6235	6235	6235	6235	6235	6235	6235	6349	6349	6349	6349	6235	6349	6349	6349	6349	6349	6349	6349	6349	6235	6235	6235	6235	6235	6235	6235	6235	6235	6349	6235	6235	6235	6235	6235	6235	6235	6235	6349	6349	6349	6349	6349	6349	6349	0	0	0	0	0	6124	6124	6018	6018	6018	6235	6235	6235	6235	6235	6235	6235	6235	6235	6235	6349	6349	6349	6235	6349	6349	6235	6235	6235	6124	6124	6124	6124	6235	6235	6235	6235	6235	6235	6235	6235	6124	6235	6235	6349	6235	6349	6349	6349	6349	6349	6349	6349	6592	6468	6468	6235	6235	6124	6124	6124	6124	6124	6124	6124	6235	6235	6235	6235	6349	6235	6349	6235	6235	6124	6235	6235	6235	6235	6124	6235	6235	6235	6235	6349	6349	6468	6468	6468	6468	6468	6468	6468	6468	6349	6235	6235	6235	6235	6124	6124	6124	6124	6124	0	0	0	0	0	0	0	0	0	0	0	0	6235	6235	6235	6235	6349	6235	6235	6235	6235	6235	6235	6235	6235	6235	6235	0	0	0	0	6235	6235	6235	6235	6235	6235	6235	6235	6235	6235	6235	6235	6349	6349	6349	6349	6349	6235	6235	6235	6235	6235	6235	6235	6235	6349	6349	6468	6349	6349	6349	6349	6235	6235	6235	6124	6124	6124	6124	6124	6235	6235	6235	6235	6235	6235	6235	6235	6235	6235	6235	6235	6235	6235	6235	6235	6235	6349	6349	6235	6235	6235	6235	6349	6235	6235	6235	6235	6235	6349	6349	6349	6349	6235	6235	6349	6235	6235	6349	6349	6349	6349	6349	6349	6349	6349	6349	6349	0	6349	6349	6349	6349	6235	6349	6349	6349	6349	6235	6235	6235	6235	6235	6235	6235	6349	6349	6349	6349	6349	6349	6349	6349	6349	6349	6349	6349	6349	6349	6349	6349	6468	6468	6468	6592	6468	6720	6592	6720	6592	6592	6592	6592	6468	6468	6468	6468	6349	6349	6349	6349	6468	6349	6349	6349	6349	6349	6349	6349	6349	6349	6349	6349	6349	6349	6235	6235	6349	6349	6349	6349	6349	6349	6349	6235	6349	6349	6349	6468	6468	6468	6592	6592	6720	6720	6720	6720	0	0	0	0	0	0	0	0	0	0	0	0	6468	6468	6468	6468	6468	6468	6349	6468	6349	6349	6468	6468	6349	6468	6468	6468	6468	6468	6468	6468	6468	6349	6349	6349	6349	6349	6349	6349	6349	6349	6349	6235	6235	6124	6124	6124	6124	6235	6235	0	0	0	0	0	0	0	0	0	0	0	0	0	0	0	0	0	0	2570	2570	2551	2532	2532	2532	2532	2532	2532	2532	2532	0	0	0	0	0	0	0	0	0	0	0	0	0	0	0	0	0	0	0	0	0	0	0	0	0	0	0	0	0	0	0	0	0	0	0	0	0
0	0	841	841	843	848	852	852	852	925	920	910	908	908	908	910	913	913	915	922	920	920	910	910	905	905	908	905	913	915	917	920	920	922	925	925	927	932	935	940	942	948	950	950	953	955	961	963	969	974	980	980	980	1071	1071	1071	1071	1074	1074	1078	1081	1081	1081	1078	1081	1081	1081	1081	1078	1081	1081	1081	1081	1085	1081	1085	1091	1091	1091	1095	1095	0	0	0	0	0	0	0	0	1227	1232	1236	1236	1219	1227	1223	1227	1232	1227	1227	1223	1223	1223	1223	1223	1223	1223	1223	1223	1227	1227	1236	1236	1254	1254	1272	1272	0	0	0	0	0	0	0	0	0	0	0	6235	6349	6349	6349	6349	6349	6349	6349	6349	6235	6235	6235	6235	6235	6235	6124	6124	6124	6124	6235	6235	6235	6349	6349	6468	6468	6468	6468	6468	6468	6349	6349	6349	6349	6349	6349	6349	6235	6235	6349	6235	6235	6235	6235	6235	6349	6349	6349	6349	6349	6349	6349	6349	6349	6349	6349	6349	6349	6349	6349	6235	6349	6235	6349	6235	6349	6349	6349	6235	6235	6235	6235	6235	6235	6235	6235	6235	6235	6349	6349	6349	6349	6349	0	0	0	0	0	6124	6124	6124	6124	6124	6235	6235	6235	6124	6124	6124	6235	6235	6235	6235	6468	6349	6349	6349	6349	6349	6349	6349	6235	6235	6235	6235	6124	6235	6235	6235	6124	6235	6235	6235	6235	6235	6235	6349	6349	6235	6235	6235	6235	6349	6468	6468	6468	6592	6592	6468	6349	6349	6235	6235	6235	6235	6235	6235	6235	6349	6349	6349	6349	6349	6349	6349	6235	6235	6124	6235	6235	6124	6124	6235	6235	6349	6349	6349	6349	6349	6468	6468	6468	6468	6468	6468	6468	6468	6468	6349	6349	6349	6235	6124	6124	6235	6235	0	0	0	0	0	0	6468	6468	6468	6468	6468	6468	6349	6349	6349	6349	6235	6235	6349	6349	6349	6235	6235	6349	6235	6235	6235	0	0	0	0	0	6235	6235	6349	6349	6349	6349	6235	6235	6235	6235	6235	6349	6349	6349	6349	6349	6349	6235	6235	6349	6235	6235	6235	6235	6235	6349	6349	6468	6468	6468	6349	6349	6349	6349	6235	6235	6235	6124	6235	6235	6235	6235	6235	6235	6349	6349	6235	6235	6235	6235	6235	6235	6124	6235	6235	6235	6235	6235	6235	6235	6235	6235	6235	6349	6349	6349	6349	6349	6349	6349	6349	6349	6349	6349	6349	6349	6349	6349	6349	6349	6349	6349	6349	6349	6349	6349	6349	6349	0	6349	6349	6349	6349	6349	6349	6349	6349	6349	6235	6235	6235	6235	6235	6349	6349	6349	6349	6349	6468	6349	6349	6349	6349	6349	6349	6349	6349	6468	6349	6349	6468	6592	6592	6592	6592	6468	6592	6592	6592	6592	6592	6592	6592	6468	6468	6468	6468	6468	6349	6468	6468	6468	6468	6468	6349	6349	6349	6349	6349	6349	6349	6349	6349	6349	6349	6349	6349	6349	6349	6468	6468	6349	6349	6235	6235	6235	6349	6349	6468	6468	6592	6720	6592	6720	6720	6720	6720	6720	6720	6720	6720	0	0	0	0	0	6468	6468	6468	6468	6468	6468	6468	6468	6468	6468	6468	6468	6468	6468	6468	6468	6468	6468	6468	6468	6468	6468	6468	6468	6468	6349	6349	6468	6349	6468	6468	6349	0	6349	6349	6349	6235	6235	6235	0	6235	6235	0	0	0	0	0	0	0	0	0	0	0	0	0	0	0	0	0	0	0	2532	2514	2514	2532	2532	2532	2532	2532	2532	2532	0	0	0	0	0	0	0	0	0	0	0	0	0	0	0	0	0	0	0	0	0	0	0	0	0	0	0	0	0	0	0	0	0	0	0	0	0
0	0	0	845	845	848	852	852	854	858	860	862	862	910	910	913	913	915	922	925	922	925	922	917	915	913	913	910	915	917	920	922	922	925	927	927	927	930	932	937	945	950	953	953	955	958	963	963	972	974	977	974	974	974	1068	1068	1068	1071	1074	1078	1078	1081	1081	1078	1081	1081	1081	1081	1078	1081	1078	1081	1081	1081	1081	1085	1088	1091	1091	1091	1095	1095	0	0	0	0	0	0	1240	1227	1232	1240	1236	1236	1236	1236	1236	1240	1240	1236	1236	1236	1236	1232	1236	1232	1236	1227	1227	1227	1227	1240	1249	1254	1254	1272	1272	1272	0	0	0	0	0	0	0	0	0	0	6349	6349	6349	6349	6349	6349	6349	6349	6349	6349	6349	6349	6235	6235	6124	6124	6124	6018	6124	6235	6349	6349	6349	6349	6468	6468	6468	6468	6468	6349	6468	6349	6349	6349	6349	6468	6349	6349	6349	6349	6235	6235	6235	6235	6235	6235	6349	6349	6349	6349	6349	6349	6349	6349	6349	6468	6349	6349	6349	6349	6349	6349	6349	6349	6349	6349	6349	6349	6349	6349	6235	6349	6349	6349	6349	6235	6349	6235	6235	6235	6349	6349	6349	0	6349	6349	6235	6349	6235	6235	6124	6124	6124	0	0	6235	6235	6235	6235	6349	6468	6468	6468	6592	6468	6468	6468	6349	6349	6349	6349	6349	6349	6235	6235	6235	6235	6235	6235	6235	6235	6235	6235	6235	6235	6235	6349	6235	6235	6235	6235	6235	6235	6468	6468	6468	6592	6592	6468	6349	6349	6349	6349	6349	6235	6349	6349	6349	6349	6468	6349	6349	6349	6349	6124	6124	6124	6124	6018	6018	6124	6235	6235	6235	6349	6349	6349	6349	6349	6468	6349	6468	6468	6468	6468	6468	6468	6468	6349	6349	6349	6349	6235	6349	6349	6349	6349	6349	0	0	0	0	6468	6468	6468	6468	6468	6468	6468	6349	6349	6349	6235	6235	6235	6235	6235	6235	6235	6235	6235	6235	0	0	0	0	0	0	6235	6349	6349	6349	6468	6349	6349	6349	6349	6235	6235	6235	6349	6349	6468	6468	6468	0	0	6349	6235	6235	6235	6235	6349	6349	6349	6468	6468	6349	6349	6349	6349	6349	6235	6235	6235	6235	6235	6235	6235	6235	6235	6235	6235	6349	6349	6235	6235	6235	6235	6235	6235	6235	6235	6235	6235	6235	6235	6235	6235	6235	6235	6349	6349	6349	6349	6349	6349	6349	6349	6349	6349	6349	6349	6349	6349	6349	6349	6349	6349	6349	6349	6349	6349	6349	6349	6349	6349	6349	6349	6349	6349	6349	6349	6349	6349	6349	6349	6349	6349	6349	6235	6349	6349	6468	6468	6468	6468	6468	6468	6468	6468	6468	6468	6468	6468	6468	6468	6468	6468	6592	6592	6592	6592	6468	6468	6468	6592	6468	6592	6468	6468	6468	6468	6349	6349	6349	6349	6349	6349	6468	6468	6468	6349	6349	6349	6349	6349	6349	6349	6349	6349	6349	6349	6349	6349	6349	6349	6349	6349	6349	6235	6235	6235	6235	6349	6468	6468	6592	6720	6720	6720	6720	6720	6720	6720	6720	6720	6720	6720	6720	6720	6720	0	0	6468	6468	6468	6468	6592	6592	6592	6592	6592	6468	6592	6468	6592	6468	6468	6468	6468	6592	6592	6592	6592	6592	6592	6592	6468	6468	6349	6468	6349	6468	6468	0	0	0	6235	6349	6235	6235	6235	0	6235	6235	0	0	0	0	0	0	0	0	0	0	0	0	0	0	0	0	0	0	0	2514	2532	2532	2532	2532	2532	2532	2532	2532	2532	0	0	0	0	0	0	0	0	0	0	0	0	0	0	0	0	0	0	0	0	0	0	0	0	0	0	0	0	0	0	0	0	0	0	0	0	0
0	0	0	845	848	852	854	854	856	858	860	860	860	910	910	910	915	917	917	925	925	925	925	922	925	922	917	917	920	920	922	922	922	925	927	927	930	930	932	937	942	950	953	953	955	958	963	966	974	977	977	980	980	988	988	988	1071	1071	1071	1071	1081	1078	1078	1074	1078	1081	1081	1078	1078	1078	1078	1081	1081	1081	1081	1085	1088	1091	1091	1091	1095	1095	0	0	0	0	0	0	1240	1232	1236	1245	1240	1240	1240	1249	1249	1249	1249	1245	1254	1249	1249	1240	1240	1240	1240	1232	1236	1236	1259	1254	1254	1259	1263	1272	1272	1277	1277	1296	1296	0	0	0	0	0	0	0	6349	6349	6349	6349	6349	6468	6349	6349	6349	6349	6349	6349	6349	6349	6235	6235	6235	6124	6124	6235	6349	6349	6468	6468	6468	6468	6468	6468	6468	6468	6468	6468	6349	6349	6349	6468	6349	6349	6349	6349	6349	6349	6349	6349	6235	6235	6349	6235	6235	6235	6349	6349	6349	6349	6349	6468	6349	6349	6349	6349	6349	6349	6349	6349	6349	6349	6349	6349	6349	6349	6235	6349	6349	6349	6349	6349	6349	6349	6235	6235	6349	6349	6349	0	6349	6349	6349	6349	6349	6235	6235	6235	6235	6235	0	6235	6235	6468	6349	6349	6468	6468	6468	6468	6468	6468	6468	6468	6349	6349	6349	6349	6349	6349	6349	6349	6349	6349	6349	6235	6235	6235	6235	6235	6235	6349	6349	6124	6235	6235	6235	6235	6235	0	6468	6349	6468	6468	6468	6349	6235	6349	6235	6349	6235	6235	6349	6349	6468	6468	6349	6349	6349	6124	6124	6235	6124	6124	6124	6018	6124	6124	6235	6235	6235	6349	6349	6349	6349	6468	6468	6468	6468	6468	6468	6592	6468	6468	6468	6349	6468	6349	6349	6349	6349	6349	6349	6349	0	0	0	6468	6468	6468	6468	6468	6468	6468	6468	6235	6349	6235	6235	6235	6235	6235	6235	6235	6235	6124	6124	6235	0	0	0	0	0	0	0	6349	6349	6349	6349	6349	6349	6349	6349	6349	6349	6349	6349	6468	6468	6592	6592	0	0	6349	6235	6349	6349	6349	6349	6468	6468	6592	6468	6349	6349	6349	6349	6349	6349	6349	6349	6349	6349	6235	6235	6235	6235	6235	6349	6349	6349	6349	6349	6235	6235	6235	6235	6235	6235	6235	6235	6235	6235	6235	6235	6235	6235	6349	6349	6349	6349	6235	6235	6235	6349	6349	6468	6349	6349	6349	6468	6349	6349	6349	6349	6349	6349	6349	6349	6349	6349	6349	6349	6349	6349	6349	6349	6349	6468	6468	6349	6349	6349	6349	6349	6349	6349	6349	6349	6468	6468	6468	6468	6468	6468	6468	6468	6468	6468	6468	6468	6468	6468	6468	6592	6592	6592	6592	6592	6592	6592	6592	6592	6592	6592	6468	6468	6468	6468	6349	6349	6349	6349	6468	6468	6468	6468	6468	6468	6468	6349	6349	6349	6349	6349	6349	6349	6349	6349	6349	6468	6468	6349	6349	6468	6468	6349	6349	6235	6349	6468	6592	6720	6720	6720	6853	6853	6853	6853	6720	6720	6720	6720	6720	6720	6720	6592	6592	6468	6468	6468	6468	6592	6592	6592	6592	6592	6720	6720	6592	6720	6720	6720	6592	6592	6592	6592	6592	6592	6592	6592	6720	6592	6592	6468	6468	6468	6468	6349	6349	6349	0	0	0	6235	6349	6235	6235	0	0	0	0	0	0	0	0	0	0	0	0	0	0	0	0	0	0	0	0	0	0	2551	2551	2551	2551	2551	2551	2551	2532	2532	2532	2532	0	0	0	0	0	0	0	0	0	0	0	0	0	0	0	0	0	0	0	0	0	0	0	0	0	0	0	0	0	0	0	0	0	0	0	0	0
0	0	843	845	848	850	854	854	856	858	858	858	860	860	867	867	920	920	922	927	927	925	925	925	927	922	920	920	922	925	925	925	922	927	927	927	930	930	935	940	942	948	950	950	955	961	966	969	974	977	977	977	983	988	988	988	1071	1071	1071	1071	1078	1078	1078	1078	1078	1081	1081	1078	1078	1078	1081	1081	1081	1081	1085	1091	1091	1095	1095	1091	1095	1095	1095	0	0	0	0	0	0	1232	1254	1254	1249	1249	1254	1254	1254	1254	1254	1254	1259	1254	1254	1249	1245	1249	1245	1240	1240	1240	1254	1259	1259	1259	1272	1272	1272	1277	1287	1296	1296	1296	0	0	0	0	0	0	6349	6349	6349	6349	6349	6349	6349	6349	6349	6349	6349	6468	6349	6349	6235	6235	6235	6235	6235	6349	6349	6349	6468	6468	6468	6468	6468	6468	6468	6468	6468	6349	6349	6468	6468	6468	6349	6349	6349	6349	6349	6349	6349	6349	6235	6235	6349	6235	6235	6235	6349	6349	6349	6349	6349	0	0	0	0	6349	6349	6349	6349	6349	6349	6349	6349	6349	0	0	0	0	0	6349	6349	6349	6349	6235	6349	6349	6349	6349	6349	6468	6349	6349	6349	6349	6349	6349	6235	6235	6235	6235	6468	6468	0	6468	6468	6468	6468	6468	6468	6468	6468	6468	6468	6468	6468	6468	6349	6349	6349	6349	6468	6349	6349	6349	6349	6349	6349	6349	6349	6349	6349	6349	6349	6349	6349	6349	6235	6235	6235	0	6235	6235	6235	6468	6468	6235	6235	6349	6235	6235	6235	6235	6349	6468	6468	6468	6468	6468	6468	6468	6468	6235	6124	6124	6124	6018	6124	6124	6124	6235	6235	6349	6349	6349	6349	6468	6468	6468	6468	6468	6468	6592	6468	6468	6468	6468	6468	6468	6468	6468	0	0	0	0	0	0	6592	6468	6468	6468	6468	6468	6468	6468	6468	6349	6235	6235	6235	6235	6235	6235	6235	6235	6235	6124	6124	0	0	0	0	0	0	0	0	6349	6349	6349	6349	6349	6349	6349	6349	6349	6349	6349	6349	6468	6592	6592	6592	0	0	0	0	6349	6349	6349	6349	6468	6468	6468	6468	6349	6349	6349	6349	6349	6349	6349	6349	6349	6349	6235	6235	6349	6349	6349	6349	6349	6349	6349	6349	6349	6349	6349	6235	6235	6349	6349	6349	6349	6349	6349	6349	6349	6349	6468	6468	6468	6468	6235	6235	6349	6349	6349	6468	6349	6349	6468	6468	6592	6468	6349	6349	6349	6349	6349	6349	6349	6349	6349	6349	6349	6349	6235	6349	6349	6349	6349	6468	6468	6468	6468	6468	6468	6349	6468	6468	6468	6468	6468	6468	6592	6468	6468	6468	0	0	0	6468	6468	6468	6468	6592	6592	6592	6720	6720	6592	6720	6720	6592	6592	6720	6592	6592	6468	6349	6349	6349	6349	6349	6468	6468	6592	6468	6468	6349	6349	6349	6349	6349	6349	6349	6349	6468	6349	6349	6592	6592	6592	6468	6468	6468	6468	6349	6468	6349	6468	6720	6720	6720	6720	6853	6853	6853	6853	6853	6853	6853	6720	6720	6720	6720	6720	6720	6592	6468	6468	6468	6468	6592	6592	6720	6720	6720	6720	6720	6720	6853	6853	6720	6720	6720	6720	6720	6592	6592	6592	6592	6720	6592	6592	6468	6468	6468	6468	6349	6349	6349	0	0	0	0	0	0	0	0	0	0	0	0	0	0	0	0	0	0	0	0	0	0	0	0	0	0	0	0	0	2514	2532	2570	2551	2551	2551	2551	2532	2532	2532	2532	0	0	0	0	0	0	0	0	0	0	0	0	0	0	0	0	0	0	0	0	0	0	0	0	0	0	0	0	0	0	0	0	0	0	0	0	0
0	0	843	845	848	850	852	854	854	856	858	858	860	867	867	869	869	930	930	930	930	930	930	930	932	932	935	925	925	927	927	927	925	927	930	930	930	932	937	940	940	945	950	950	955	963	966	969	974	977	977	980	983	988	985	985	985	1068	1071	1071	1074	1074	1074	1074	1074	1078	1078	1078	1078	1081	1081	1081	1081	1081	1091	1095	1095	1098	1095	1095	1095	1095	1095	0	0	0	0	0	0	0	1259	1254	1254	1254	1254	1259	1259	1259	1259	1259	1259	1259	1259	1254	1254	1254	1254	1245	1249	1249	1259	1263	1263	1263	1277	1277	1277	1282	1291	1296	1306	1306	0	0	0	0	0	0	0	6468	6349	6349	6349	6349	6349	6349	6349	6349	6349	6468	6349	6349	6235	6349	6235	6235	6235	6349	6468	6468	6468	6468	6468	6468	6468	6468	6468	6468	6468	6349	6349	6349	6468	6349	6349	6349	6349	6349	6349	6349	0	0	0	0	0	0	0	0	6349	6349	6349	0	0	0	0	0	0	0	0	0	0	0	6349	6349	6349	6349	0	0	0	0	0	6468	6349	6349	6349	6468	6468	6468	0	0	0	6468	6468	6468	6468	6468	6349	6349	6349	6349	6235	6468	6468	6468	6468	6468	6468	6468	6468	6468	6468	6468	6468	6468	6468	6468	6468	6468	6468	6468	6468	6468	6468	6468	6468	6468	6349	6349	6349	6349	6349	6349	6349	6468	6468	6468	6349	6349	6349	6349	6349	0	6235	6235	6235	6349	6349	6235	6235	6349	6235	6349	6235	6235	6468	6468	6592	6592	6468	6468	6468	6468	6468	0	0	0	0	0	0	0	6124	6235	6235	6349	6468	6349	6468	6468	6468	6468	6468	6468	6468	6592	6468	6468	6468	6468	6468	6468	6468	6468	0	0	0	0	0	0	6592	6468	6468	6468	6468	6468	6468	6592	6468	6468	6468	6235	6235	6235	6235	6235	6235	6235	6235	0	0	0	0	0	0	0	0	0	0	0	0	0	0	6349	6349	6349	6349	6349	6349	6235	6349	6468	6468	6468	0	0	0	0	0	6349	6349	6349	6349	6349	6468	6592	6468	6468	6468	6468	6468	6468	6468	6468	6349	6349	6349	6349	6235	6349	6468	6349	6468	6468	6468	6468	6468	6349	6349	6349	6235	6349	6349	6349	6349	6349	6349	6349	6349	6349	6349	6468	6468	6468	6468	6349	6349	6349	6349	6349	6468	6468	6468	6468	6468	6468	6468	6468	6349	6349	6349	6468	6349	6349	6349	6349	6349	6349	6235	6235	6235	6349	6468	6349	6349	6468	6592	6468	6468	6468	6349	6349	6468	6468	6468	6468	6468	6468	6468	6468	6468	0	0	0	0	6468	6349	6468	6592	6592	6853	6853	6720	6720	6853	6720	6720	6720	6720	6592	6592	6468	6349	6349	6349	6349	6349	6468	6468	6592	6468	6468	6349	6349	6349	6235	6235	6235	6349	6349	6468	6468	6349	6592	6592	6592	6468	6468	0	0	0	6720	6720	6720	6853	6720	6720	6853	6853	6853	6853	6853	6853	6853	6853	6853	6853	6853	6853	6720	6720	6720	6592	6592	6592	6592	6720	6592	6720	6720	6720	6720	6853	6853	6853	6853	6853	6853	6720	6720	6720	6592	6592	6592	6592	6592	6720	6592	6468	6468	6468	0	0	0	0	0	0	0	0	0	0	0	0	0	0	0	0	0	0	0	0	0	0	0	0	0	0	0	0	0	0	0	0	0	2570	2570	2570	2570	2589	2570	2570	2551	2551	2532	2532	0	0	0	0	0	0	0	0	0	0	0	0	0	0	0	0	0	0	0	0	0	0	0	0	0	0	0	0	0	0	0	0	0	0	0	0	0
0	0	835	845	848	850	852	854	854	856	856	862	862	869	869	869	878	878	878	932	932	930	932	932	935	935	935	935	930	932	930	930	927	930	930	930	930	932	932	937	942	945	950	950	958	961	966	969	974	974	977	980	983	983	983	985	985	985	1071	1074	1074	1074	1078	1074	1074	1078	1078	1078	1078	1078	1081	1081	1081	1085	1091	1095	1098	1098	1098	1095	1095	1095	1095	1095	0	0	0	0	0	1277	1259	1263	1259	1259	1259	1259	1263	1263	1263	1263	1263	1259	1259	1259	1259	1259	1263	1259	1259	1263	1263	1268	1272	1272	1277	1277	1282	1282	1291	1296	1306	1306	1316	1316	1316	0	0	0	0	6468	6349	6349	6468	6468	6468	6468	6468	6468	6468	6468	6349	6349	6349	6349	6235	6235	6349	6349	6468	6468	6468	6468	6468	6468	6468	6468	6468	6468	6468	6468	6349	6468	6468	6349	6349	6349	6235	6235	6349	0	0	0	0	0	0	0	0	0	0	0	0	0	0	0	0	0	0	0	0	0	0	0	0	0	0	0	0	0	0	0	0	6468	6349	6349	6349	6468	6468	6468	0	0	0	6468	6468	6349	6349	6349	6349	6349	6349	6349	6349	6468	6468	6468	6468	6468	6468	6468	6468	6468	6468	6468	6468	6468	6468	6468	6468	6468	6468	6468	6468	6468	6468	6468	6468	6468	6468	6468	6468	6468	6468	6468	6468	6468	6468	6468	6468	6468	6349	6349	6349	6235	6235	6235	6349	6349	6349	6235	6235	6349	6349	6349	6349	6349	6468	6468	6592	6592	6592	6468	6468	0	0	0	0	0	0	0	0	0	0	0	0	6349	6349	6349	6349	6468	6468	6468	6468	6468	6468	6468	6468	6468	6468	6468	6468	6468	6468	6468	0	0	0	0	0	0	6592	6592	6468	6468	6468	6592	6468	6468	6468	6468	6468	6592	6592	6592	6592	6592	6592	6235	6235	0	0	0	0	0	0	0	0	0	0	0	0	0	6592	6592	6468	6468	6468	6349	6349	6349	6349	6468	6592	6592	6592	6592	6468	6468	6468	0	6349	6349	6349	6592	6592	6592	6468	6592	6468	6468	6468	6468	6468	6468	6468	6468	6468	6349	6349	6349	6349	6349	6468	6468	6468	6468	6468	6349	6349	6468	6349	6349	6349	6349	6468	6349	6349	6349	6349	6349	6468	6592	6592	6592	6468	6468	6468	6468	6349	6349	6349	6468	6468	6592	6592	6592	6592	6468	6468	6468	6468	6468	6468	6468	6349	6349	6349	6349	6235	6235	6235	6349	6468	6468	6468	6468	6720	6468	6468	6468	6349	6468	6468	6468	6468	6468	6468	6468	6468	6468	0	0	0	0	0	6468	6349	6468	6592	6592	6853	6853	6720	6720	6853	6720	6720	6720	6720	0	0	0	0	0	0	0	0	0	0	0	0	0	0	6349	6349	6235	6235	6235	6349	6349	6468	6468	0	0	0	0	0	0	0	0	0	6720	6720	6853	6853	6853	6720	6853	6853	6853	6853	6853	6853	6853	6853	6853	6853	6853	6853	6720	6720	6720	6720	6720	6720	6720	6720	6720	6720	6720	6853	6853	6853	6853	6992	6853	6853	6853	6853	6720	6592	6592	6592	6592	6592	6592	6720	6592	6468	6468	6468	0	0	0	0	0	0	0	0	0	0	0	0	0	0	0	0	0	0	0	0	0	0	0	0	0	0	0	0	0	0	0	0	0	2589	2570	2570	2570	2589	2570	2570	2551	2551	2551	2551	0	0	0	0	0	0	0	0	0	0	0	0	0	0	0	0	0	0	0	0	0	0	0	0	0	0	0	0	0	0	0	0	0	0	0	0	0
0	0	835	837	848	850	854	854	856	856	858	862	865	867	869	873	873	878	878	891	891	891	935	935	935	937	937	937	940	935	932	930	927	930	932	932	935	935	940	942	945	945	950	958	958	963	966	969	972	974	977	977	980	985	983	988	988	988	1078	1078	1081	1078	1078	1078	1078	1078	1078	1078	1078	1078	1078	1074	1078	1078	1088	1091	1095	1098	1098	1095	1095	1095	1095	1095	0	0	0	0	0	1277	1272	1272	1263	1268	1263	1268	1268	1268	1263	1268	1263	1263	1259	1259	1259	1259	1263	1259	1263	1272	1268	1272	1268	1268	1277	1277	1282	1287	1291	1296	1301	1306	1311	1306	1306	0	0	0	0	0	0	0	6468	6468	6468	6468	6468	6468	6468	6468	6349	6349	6349	6349	6349	6349	6468	6468	6468	6468	6468	6468	6468	6468	6468	6468	6468	6468	6468	6468	6468	6468	6468	6349	6349	6349	6235	6235	0	0	0	0	0	0	0	0	0	0	0	0	0	0	0	0	0	0	0	0	0	0	0	0	0	0	0	0	0	0	0	0	0	0	0	0	0	0	0	0	0	0	0	6468	6468	6349	6349	6349	6349	6349	6349	6349	6349	6468	6468	6468	6592	6592	6468	6468	6468	6592	6468	6468	6468	6468	6468	6468	6468	6468	6468	6468	6468	6468	6468	6592	6592	6592	6592	6468	6468	6468	6468	6468	6468	6468	6468	6468	6468	6468	6349	6349	6349	6349	6349	6235	6349	6349	6349	6349	6349	6349	6349	6349	6349	6349	6468	6592	6592	6592	6592	0	0	0	0	0	0	0	0	0	0	0	0	0	0	0	6349	6349	6349	6468	6468	6349	6349	6349	6468	6468	6468	6468	6468	6468	6468	6468	6468	6468	0	0	0	0	0	0	6592	6468	6468	6468	6468	6468	6592	6592	6592	6592	6592	6592	6592	6592	6592	6592	6592	6592	6592	0	0	0	0	0	0	0	0	0	0	0	0	0	6720	6720	6592	6468	6468	6468	6349	6349	6349	6468	6592	6592	6592	6592	6592	6468	6468	6468	6468	0	6592	6592	6592	6592	6592	6592	6592	6468	6592	6468	6468	6468	6468	6468	6468	6468	6349	6468	6468	6468	6468	6592	6592	6592	6592	6468	6468	6468	6468	6349	6349	6349	6349	6349	6349	6349	6349	6349	6468	6592	6592	6592	6468	6468	6468	6349	6349	6349	6468	6468	6468	6468	6592	6592	6592	6592	6592	6592	6468	6468	6468	6468	6349	6349	6349	6349	6235	6235	6349	6349	6468	6468	6468	6592	6720	6720	6592	6592	6468	6468	6468	6468	6592	6468	6592	6592	6468	6468	0	0	0	0	0	0	0	0	0	0	0	0	0	0	0	0	0	0	0	0	0	0	0	0	0	0	0	0	0	0	0	0	0	0	0	0	0	0	0	0	0	0	0	0	0	0	0	0	0	0	0	0	6853	6853	6853	6853	6853	6853	6853	6853	6853	6853	6853	6853	6853	6720	6720	6853	6853	6853	6853	6853	6720	6853	6720	6720	6853	6853	6720	6720	6853	6853	6853	6853	6992	6992	6992	6853	6853	6720	6592	6592	6592	6592	6592	0	0	0	0	0	0	0	0	0	0	0	0	0	0	0	0	0	0	0	0	0	0	0	0	0	0	0	0	0	0	0	0	0	0	0	0	0	0	2589	2589	2589	2570	2570	2589	2570	2570	2551	2551	2551	2551	0	0	0	0	0	0	0	0	0	0	0	0	0	0	0	0	0	0	0	0	0	0	0	0	0	0	0	0	0	0	0	0	0	0	0	0	0
0	0	0	837	850	852	852	856	856	856	858	862	865	867	867	871	878	880	887	891	891	891	894	894	940	940	940	942	942	942	937	935	935	935	935	935	937	937	942	945	945	945	948	958	958	963	966	969	972	972	974	980	983	983	983	988	991	991	1006	1006	1008	1017	1017	1017	1078	1078	1074	1074	1078	1078	1074	1074	1074	1091	1091	1095	1095	1098	1098	1095	1095	1095	1095	1095	0	0	0	0	0	1277	1277	1277	1272	1277	1277	1272	1277	1277	1272	1272	1268	1263	1263	1263	1263	1263	1268	1263	1272	1272	1272	1272	1272	1272	1277	1272	1277	1287	1291	1296	1301	1301	1306	1311	1311	1311	0	0	0	0	0	0	6468	6468	6468	6468	6468	6468	6468	6468	6349	6349	6349	6349	6349	6349	6468	6468	6468	6468	6468	6468	6592	6468	6468	6468	6468	6468	6468	6468	6468	6592	6592	6468	6349	6349	0	0	0	0	0	0	0	0	0	0	0	0	0	0	0	0	0	0	0	0	0	0	0	0	0	0	0	0	0	0	0	0	0	0	0	0	0	0	0	0	0	0	0	0	0	6468	6468	6468	6468	6468	6468	6349	6468	6468	6349	6468	6468	6592	6592	6592	6592	6592	6592	6592	6592	6592	6468	6468	6468	6468	6468	6468	6468	6468	6468	6468	6592	6592	6592	6592	6592	6592	6592	6592	6592	6592	6468	6592	6468	6468	6468	6468	6349	6349	6349	6468	6349	6349	6468	6468	6468	6349	6349	6468	6468	6349	6349	6349	6349	6592	6592	0	0	0	0	0	0	0	0	0	0	0	0	0	0	0	0	0	6349	6349	6349	6349	6349	6349	6349	6349	6468	6468	6468	6468	6468	6468	6468	6468	6349	6349	0	0	0	0	0	6592	6592	6468	6468	6468	6592	6592	6468	6592	6592	6592	6592	6592	6592	6592	6592	6592	6592	6592	6468	6592	6468	6592	6592	6592	0	0	0	0	0	0	0	0	6720	6720	6592	6592	6468	6468	0	0	0	0	6592	6592	6592	6592	6592	6592	6592	6592	6592	6592	6592	6592	6592	6720	6720	6592	6592	6468	6592	6468	6468	6468	6468	6468	6468	6468	6468	6468	6468	6468	6468	6592	6468	6468	6592	6468	6468	6592	6468	6468	6592	6592	6592	6592	6592	6349	6468	6468	6468	6720	6592	6592	6592	6468	6468	6468	6349	6468	6468	6468	6468	6468	6592	6592	6592	6592	6592	6592	6592	6592	6468	6468	6468	6349	6349	6349	6349	6349	6349	6349	6468	6468	6468	6592	6720	6592	6592	6592	6468	6468	6468	6468	6592	6720	6720	6720	0	0	0	0	0	0	0	0	0	0	0	0	0	0	0	0	0	0	0	0	0	0	0	0	0	0	0	0	0	0	0	0	0	0	0	0	0	0	0	0	0	0	0	0	0	0	0	0	0	0	0	0	0	0	6853	6992	6992	6853	6853	6853	6853	6853	6720	6720	6720	6853	6853	6853	6853	6853	6853	6853	6853	6853	6853	6853	6853	6853	6853	6853	6853	6853	6853	6853	6853	6853	6992	6992	6853	6853	6853	6853	6720	6720	6592	6592	6592	0	0	0	0	0	0	0	0	0	0	0	0	0	0	0	0	0	0	0	0	0	0	0	0	0	0	0	0	0	0	0	0	0	0	0	0	0	0	2589	2589	2589	2589	2570	2589	2570	2551	2551	2551	2551	2551	0	0	0	0	0	0	0	0	0	0	0	0	0	0	0	0	0	0	0	0	0	0	0	0	0	0	0	0	0	0	0	0	0	0	0	0	0
0	0	0	848	850	852	854	856	856	856	858	860	865	867	871	873	880	882	889	891	891	894	894	894	894	945	945	945	948	948	948	945	945	945	940	940	940	940	942	945	945	945	945	953	958	961	966	969	972	972	974	980	983	983	983	988	991	1003	1006	1008	1008	1017	1017	1017	1017	1078	1074	1074	1078	1078	1078	1078	1078	1081	1088	1091	1095	1098	1098	1095	1095	1095	1095	1095	0	0	0	0	0	0	1277	1282	1287	1287	1287	1282	1282	1287	1277	1277	1268	1268	1268	1272	1268	1268	1272	1268	1277	1277	1277	1277	1277	1277	1277	1277	1291	1291	1296	1301	1301	1306	1306	1316	1316	1316	0	0	0	0	0	0	0	6468	6468	6468	6592	6592	6468	6468	6468	6468	6468	6468	6468	6468	6592	6468	6468	6468	6592	6592	6592	6592	6468	6468	6592	6592	6592	6592	6592	6720	6720	6468	6349	6349	0	0	0	0	0	0	0	0	0	0	0	0	0	0	0	0	0	0	0	0	0	0	0	0	0	0	0	0	0	0	0	0	0	0	0	6853	6853	0	6853	6992	6853	6992	6992	0	0	0	6468	6468	6468	6468	6468	6468	6468	6468	6468	6468	6720	6720	6720	6720	6592	6592	6592	6592	6592	6592	6592	6468	6468	6468	6468	6468	6468	6468	6468	6468	6592	6592	6592	6592	6592	6720	6720	6592	6592	6592	6592	6592	6468	6468	6468	6468	6468	6468	6349	6468	6468	6349	6468	6468	6468	6468	6468	6468	6468	6468	6349	6349	6349	0	0	0	0	0	0	0	0	0	0	0	0	0	0	0	0	0	0	0	0	6349	6349	6349	6349	6349	6349	6349	6468	6468	6468	6468	6468	6468	6468	6349	6349	6349	0	0	0	0	0	6592	6720	6592	6592	6720	6720	6592	6592	6592	6592	6720	6720	6592	6720	6592	6592	6720	6720	6720	6592	6592	6592	6592	6592	6592	6592	0	0	0	0	0	0	0	6853	6720	6592	6592	6592	6592	0	0	0	0	6592	6592	6592	6592	6592	6592	6592	6592	6592	6592	6592	6592	0	6592	6592	6592	6592	6592	6592	6592	6592	6468	6468	6468	6468	6468	6349	6349	6468	6468	6468	6468	6468	6468	6468	6468	6468	6592	6592	6592	6592	6592	6592	6592	6592	6720	6720	6592	6592	6592	6592	6592	6592	6592	6468	6468	6468	6468	6468	6468	6468	6592	6592	6592	6592	6592	6592	6592	6592	6592	6592	6592	6468	6349	6468	6468	6349	6349	6349	6468	6468	6468	6468	6592	6720	6592	6592	6592	6468	6468	6468	6468	6468	6720	6720	6720	0	0	0	0	0	0	0	0	0	0	0	0	0	0	0	0	0	0	0	0	0	0	0	0	0	0	0	0	0	0	0	0	0	0	0	0	0	0	0	0	0	0	0	0	0	0	0	0	0	0	0	0	0	6992	6853	6992	6992	6853	6853	6853	6853	6853	6720	6720	6720	6720	6992	6853	6853	6853	6853	6853	6853	6853	6853	6853	6853	6853	6853	6853	6853	6853	6853	6853	6992	6992	6992	6992	6992	6992	6992	6992	6992	6720	0	0	0	0	0	0	0	0	0	0	0	0	0	0	0	0	0	0	0	0	0	0	0	0	0	0	0	0	0	0	0	0	0	0	0	0	0	0	0	0	0	2589	2589	2589	2589	2570	2589	2589	2551	2551	2551	2551	2551	0	0	0	0	0	0	0	0	0	0	0	0	0	0	0	0	0	0	0	0	0	0	0	0	0	0	0	0	0	0	0	0	0	0	0	0	0
0	0	0	848	850	852	854	856	854	856	858	862	865	865	869	875	880	882	889	891	891	894	894	894	894	894	948	948	950	950	953	953	953	953	940	940	940	940	942	945	945	945	948	955	958	963	969	969	972	974	974	980	983	983	983	985	991	1003	1008	1011	1017	1017	1017	1017	1017	0	1081	1081	1081	1078	1078	1078	1078	1078	1085	1088	1091	1095	1095	1095	1095	1095	1095	1095	0	0	0	0	0	0	1282	1291	1291	1291	1291	1291	1291	1287	1282	1277	1272	1272	1277	1277	1272	1272	1277	1277	1282	1282	1277	1277	1282	1282	1282	1277	1291	1296	1296	1301	1306	1306	1311	1316	1316	1316	0	0	0	0	0	0	6592	6468	6468	6468	6592	6592	6468	6468	6468	6468	6468	6468	6468	6468	6592	6592	6468	6468	6592	6592	6592	6468	6468	6468	6468	6592	6468	6592	6592	6592	6720	0	0	0	0	0	0	0	0	0	0	0	0	0	0	0	0	0	0	0	0	0	0	0	0	6720	6592	6592	6592	0	6592	6592	0	0	0	0	0	0	6720	6720	6720	6720	6720	6853	6853	6853	6853	0	0	0	6468	6468	6468	6468	6468	6349	6468	6468	6468	6468	6592	6720	6720	6720	6592	6592	6592	6592	6592	6592	6468	6468	6468	6468	6468	6468	6468	6468	6468	6468	6592	6592	6592	6720	6720	6720	6853	6720	6720	6720	6592	6592	6592	6468	6468	6468	6468	6468	0	6468	6468	6468	6468	6592	6468	6468	6468	6468	6468	6468	6349	6349	0	0	0	0	0	0	0	0	0	0	0	0	0	0	0	0	0	0	0	0	0	6349	6349	6468	6468	6349	6468	6468	6468	6468	6468	6468	6468	6468	6468	6349	6349	6349	0	0	0	0	0	0	6720	6720	6720	6853	6853	6720	6853	6720	6720	6853	6853	6720	6720	6720	6720	6720	6720	6720	6720	6720	6720	6720	6592	6592	6592	0	0	0	0	0	0	0	6853	6720	6720	6720	6720	6592	0	0	0	0	6592	6592	6720	6720	6592	6592	6592	6592	6592	6592	6592	6592	6592	6592	6592	6592	6592	6592	6592	6592	6592	6592	6468	6468	6468	6468	6349	6468	6468	6468	6468	6468	6468	6592	6592	6468	6592	6592	6592	6592	6592	6592	6592	6592	6592	6720	6592	6592	6720	6720	6592	6592	6592	6592	6468	6468	6468	6468	6468	6592	6592	6592	6592	6592	6592	6592	6720	6720	6720	6720	6720	6592	6592	6592	6592	6592	6592	6349	6468	6468	6592	6592	6592	6592	6720	6592	6592	6592	6592	6468	6468	6468	6468	0	0	0	0	0	0	0	0	0	0	0	0	0	0	0	0	0	0	0	0	0	0	0	0	0	0	0	0	0	0	0	0	0	0	0	0	0	0	0	0	0	0	0	0	0	0	0	0	0	0	0	0	0	0	0	6992	6853	6853	6992	6853	6853	6853	6853	6853	6853	6720	6720	6720	6853	6853	6853	6853	6853	6992	6853	6853	6853	6853	6853	6853	6853	6853	6853	6853	6853	6853	6853	6992	6992	6992	6992	6853	6992	6992	6853	6853	0	0	0	0	0	0	0	0	0	0	0	0	0	0	0	0	0	0	0	0	0	0	0	0	0	0	0	0	0	0	0	0	0	0	0	0	0	0	0	0	0	0	2589	2589	2589	2589	2589	2589	2589	2570	2551	2551	2532	2532	0	0	0	0	0	0	0	0	0	0	0	0	0	0	0	0	0	0	0	0	0	0	0	0	0	0	0	0	0	0	0	0	0	0	0	0	0
0	0	0	0	854	852	854	856	856	856	860	862	865	865	867	878	882	884	894	894	894	896	896	898	898	898	948	948	950	950	950	953	953	953	961	961	966	950	950	950	948	948	953	961	961	963	966	969	969	974	977	980	983	983	983	985	994	1006	1011	1014	1017	1017	1020	1020	1020	0	1081	1081	1081	1081	1078	1078	1081	1081	1085	1088	1088	1091	1095	1095	1095	1095	1095	1095	0	0	0	0	0	1311	1311	1301	1301	1296	1296	1296	1296	1296	1282	1282	1277	1277	1277	1287	1287	1287	1291	1287	1291	1287	1282	1282	1287	1287	1291	1291	1296	1296	1296	1301	1301	1301	1311	1316	1316	1316	1316	0	0	0	0	0	6592	6468	6592	6720	6720	6592	6592	6592	6592	6592	6592	6468	6468	6468	6468	6592	6468	6468	6468	6468	6468	6468	6468	6468	6468	6468	6468	6592	6592	6592	0	0	0	0	0	0	0	0	0	0	0	0	0	0	0	0	0	0	0	0	0	0	6592	6720	6720	6720	6592	6592	6720	6592	6592	6592	6592	6592	6720	6720	6720	0	6720	6720	6720	6720	6720	6853	6853	6853	6853	0	0	0	0	0	6468	6468	6468	6468	6468	6468	6468	6468	6592	6853	6853	6720	6720	6720	6592	6720	6592	6592	6592	6592	6592	6468	6468	6468	6468	6468	6468	6592	6592	6592	6720	6720	6720	6720	6853	6853	6853	6853	6720	6592	6592	6468	6468	6468	0	0	0	6592	6592	6592	6592	6592	6592	6592	6592	6592	6592	6592	0	0	0	0	0	0	0	0	0	0	0	0	0	0	0	0	0	0	0	0	0	0	0	0	6349	6468	6349	6349	6349	6468	6468	6468	6468	6468	6468	6468	6468	6349	6349	6349	0	0	0	0	0	0	6853	6853	6853	6992	6853	6853	6853	6853	6853	6853	6853	6992	6853	6853	6853	6992	6853	6853	6720	6720	6720	6720	6592	6592	6592	0	0	0	0	0	0	6720	6720	6720	6720	6720	6720	0	0	0	0	0	0	6592	6720	6720	6592	6592	6592	6592	6592	6592	6592	6592	6592	6592	6720	6720	6592	6592	6592	6592	6592	6592	6592	6592	6592	6592	6468	6468	6592	6592	6468	6592	6592	6592	6592	6468	6592	6592	6592	6592	6592	6592	6720	6592	6592	6592	6592	6720	6720	6720	6720	6720	6592	6592	6592	6468	6592	6592	6592	6592	6592	6592	6592	6592	6592	6592	6592	6592	6720	6720	6720	6720	6720	6592	6720	6720	6592	6592	6592	6720	6592	6592	6592	6592	6720	6720	6592	6592	6592	6468	6468	6592	6592	0	0	0	0	0	0	0	0	0	0	0	0	0	0	0	0	0	0	0	0	0	0	0	0	0	0	0	0	0	0	0	0	0	0	0	0	0	0	0	0	0	0	0	0	0	0	0	0	0	0	0	0	0	0	6853	6992	6992	6992	6992	6992	6853	6853	6853	6853	6720	6720	6720	6720	6853	6853	6992	6853	6992	6992	6853	6853	6853	6853	6853	6853	6853	6853	6853	6853	6853	6853	6992	6992	6992	6992	6992	6992	6992	6992	6992	6992	0	0	0	0	0	0	0	0	0	0	0	0	0	0	0	0	0	0	0	0	0	0	0	0	0	0	0	0	0	0	0	0	0	0	0	0	0	0	0	0	0	0	2589	2589	2589	2570	2551	2570	2551	2551	2551	2532	2532	2532	0	0	0	0	0	0	0	0	0	0	0	0	0	0	0	0	0	0	0	0	0	0	0	0	0	0	0	0	0	0	0	0	0	0	0	0	0
0	0	0	0	854	854	856	858	858	858	862	862	865	865	867	875	880	884	894	894	896	896	898	901	901	901	901	953	953	953	955	955	958	961	961	961	966	969	969	969	953	953	961	961	963	963	963	969	969	972	977	980	983	983	985	988	997	1006	1008	1014	1017	1017	1020	1020	1020	1030	1030	0	1081	1085	1081	1081	1081	1081	1085	1088	1088	1091	1095	1095	1095	1095	1095	1095	0	0	0	0	0	1311	1306	1306	1306	1301	1301	1301	1296	1296	1291	1296	1291	1287	1287	1296	1291	1296	1296	1296	1291	1291	1287	1291	1291	1291	1287	1296	1296	1296	1296	1301	1306	1306	1311	1321	1321	1321	1321	1321	0	0	0	0	0	0	6592	6720	6720	6720	6592	6592	6592	6592	6592	6468	6468	6468	6468	6592	6592	6468	6592	6592	6592	6592	6468	6468	6468	6592	6592	6592	6592	0	0	0	0	0	0	0	0	0	0	0	0	0	6349	6349	0	0	0	0	0	0	0	0	6592	6720	6720	6720	6720	6720	6720	6592	6592	6592	6592	6592	6592	6592	6720	6720	6720	6720	6720	6720	6720	6720	6720	6853	0	0	0	0	0	0	6468	6468	6468	6468	6468	6592	6592	6468	6592	6853	6853	6592	6720	6720	6720	6720	6720	6720	6720	6592	6592	6592	6468	6468	6592	6592	6592	6592	6592	6592	6720	6720	6720	6720	6853	6720	6853	6853	6720	6720	6592	0	0	0	0	0	0	6592	6592	6592	6592	6592	6592	6592	6592	6592	6468	6468	0	0	0	0	0	0	0	0	0	0	0	0	0	0	0	0	0	0	0	0	0	0	0	0	0	6468	6349	6349	6468	6468	6468	6468	6468	6468	6592	6592	6468	6468	6468	6468	0	0	0	0	0	0	6853	6853	6992	6992	6992	6853	6992	6992	6992	6992	6992	6992	6992	6853	6992	6992	6853	6853	6720	6720	6720	6720	6720	6592	6592	6592	6592	6720	6592	6720	6720	6720	6853	6720	6720	6720	6592	6592	0	0	0	0	0	0	6720	6720	6720	6592	6592	6592	6592	6592	6592	6592	6720	6720	6720	6720	6720	6592	6592	6592	6592	6592	6592	6592	6592	6592	6592	6592	6592	6592	6592	6592	6592	6592	6592	6592	6592	6720	6720	6592	6592	6592	6720	6720	6592	6592	6720	6720	6720	6720	6720	6720	6720	6720	6720	6592	6592	6720	6720	6720	6720	6592	6592	6592	6592	6592	6592	6592	6720	6720	6720	6720	6720	6720	6853	6720	6720	6592	6592	6592	6592	6592	6592	6720	6720	6592	6592	6592	6592	6592	6592	6720	6720	0	0	0	0	0	0	0	0	0	0	0	0	0	0	0	0	0	0	0	0	0	0	0	0	0	0	0	0	0	0	0	0	0	0	0	0	0	0	0	0	0	0	0	0	0	0	0	0	0	0	0	0	0	0	6853	6992	6992	6992	6992	6992	6853	6853	6853	6853	6853	6720	6720	6720	6853	6853	6992	6992	6992	6992	6853	6853	6853	6992	6853	6853	6853	6853	6853	6853	6853	6992	6992	6992	6992	6992	6992	6992	6992	6992	6992	6992	0	0	0	0	0	0	0	0	0	0	0	0	0	0	0	0	0	0	0	0	0	0	0	0	0	0	0	0	0	0	0	0	0	0	0	0	0	0	0	0	0	0	2589	2589	2589	2570	2570	2570	2532	2532	2532	2532	2532	2532	0	0	0	0	0	0	0	0	0	0	0	0	0	0	0	0	0	0	0	0	0	0	0	0	0	0	0	0	0	0	0	0	0	0	0	0	0
0	0	0	0	852	852	854	856	858	858	862	862	865	867	875	878	880	882	891	891	894	896	896	898	898	901	901	901	953	953	958	958	961	961	963	963	966	969	969	969	969	969	969	963	963	963	963	966	969	972	977	983	983	983	985	985	991	1006	1008	1017	1017	1020	1023	1026	1030	1030	1030	0	0	1085	1085	1081	1085	1085	1085	1088	1088	1091	1091	1095	1095	1095	1095	1095	0	0	0	0	1321	1316	1311	1311	1306	1301	1301	1301	1301	1301	1301	1296	1301	1311	1296	1301	1301	1301	1306	1306	1301	1301	1301	1296	1301	1296	1296	1291	1296	1301	1296	1306	1306	1311	1316	1321	1321	1321	1321	1321	0	0	0	0	0	0	0	6992	6853	6853	6720	6720	6720	6720	6720	6592	6592	6592	6592	6592	6720	6592	6720	6592	6592	6592	6592	6592	6592	6592	6592	6720	6720	6720	0	0	0	0	0	0	0	0	0	0	0	6468	6468	6349	6349	0	0	0	0	0	0	0	0	6720	6853	6720	6720	6720	6720	6720	6720	6592	6592	6720	6720	6720	6720	6720	6720	6720	6720	6720	6720	6720	6720	0	0	0	0	0	0	0	0	0	6468	6468	6468	6592	6592	6592	6592	6853	6853	6853	6853	6720	6720	6720	6992	6992	6992	6592	6592	6592	6592	6468	6592	6592	6592	6592	6720	6720	6720	6720	6720	6853	6720	6853	6853	6853	6853	6853	6853	0	0	0	0	0	0	6592	6592	6592	6592	6592	6592	6592	6592	6592	6592	6592	0	0	0	0	0	3698	3698	3659	3659	0	0	0	3621	3621	0	3698	3698	3698	0	0	0	0	0	0	0	0	0	6349	6468	6468	6592	6592	6592	6592	6592	6592	6592	6592	6592	6592	0	0	0	0	0	0	7137	6992	6992	6992	6992	6992	6992	6992	6992	6992	7137	7137	7287	7137	7137	6992	6992	6853	6720	6720	6720	6720	6720	6720	6592	6592	6592	6720	6592	6720	6720	6720	6720	6720	6720	6720	6853	6853	0	0	0	0	0	0	6720	6720	6720	6720	6592	6592	6592	6592	6592	6592	6592	6720	6720	6720	6720	6592	6720	6592	6592	6592	6592	6592	6592	6592	6468	6468	6592	6592	6592	6592	6592	6592	6592	6592	6592	6592	6592	6720	6720	6720	6720	6720	6720	6720	6720	6720	6720	6853	6853	6720	6720	6720	6720	6720	6720	6720	6720	6720	6720	6720	6720	6720	6720	6720	6720	6720	6720	6853	6853	6720	6720	6720	6720	6720	6720	6720	6720	6592	6592	6720	6720	6720	6592	6592	6592	6720	6720	6592	6592	6720	6720	0	0	0	0	0	0	0	0	0	0	0	0	0	0	0	0	0	0	0	0	0	0	0	0	0	0	0	0	0	0	0	0	0	0	0	0	0	0	0	0	0	0	0	0	0	0	0	0	0	0	0	6853	6853	6853	6853	6992	6992	6992	6992	6992	6992	6992	6853	6853	6853	6853	6853	6853	6853	6853	6992	6992	6992	6992	6992	6992	6992	6992	6992	6992	6853	6853	6992	6992	6992	6992	6992	6992	6992	6992	6992	6853	6853	6992	6992	6992	0	0	0	0	0	0	0	0	0	0	0	0	0	0	0	0	0	0	0	0	0	0	0	0	0	0	0	0	0	0	0	0	0	0	0	0	0	0	0	0	0	0	2589	2589	2570	2570	2551	2532	2514	2532	2532	2514	2514	2514	0	0	0	0	0	0	0	0	0	0	0	0	0	0	0	0	0	0	0	0	0	0	0	0	0	0	0	0	0	0	0	0	0	0	0	0	0
0	0	0	0	850	852	854	854	856	856	860	862	867	867	878	880	880	884	891	894	894	896	896	898	901	901	901	901	910	910	961	961	961	963	963	966	969	969	972	972	972	972	972	972	963	963	966	969	969	972	977	983	983	985	985	985	994	1008	1011	1017	1020	1023	1026	1026	1033	1033	1042	1042	1042	1042	1085	1085	1085	1085	1085	1085	1088	1088	1091	1095	1091	1095	1095	1095	0	0	0	1331	1321	1316	1316	1311	1311	1306	1311	1311	1316	1316	1311	1306	1326	1321	1311	1311	1311	1311	1316	1311	1311	1311	1311	1306	1306	1301	1306	1306	1301	1306	1306	1311	1316	1321	1321	1321	1321	1342	1342	1342	1342	1342	0	0	0	0	0	6992	6853	6853	6853	6853	6853	6853	6720	6592	6592	6720	6720	6720	6720	6720	6720	6720	6720	6720	6592	6592	6592	6592	6592	6720	6720	6720	0	0	0	0	0	0	0	0	0	0	0	6468	6592	6592	6592	0	0	0	0	0	0	0	0	0	6853	6720	6720	6720	6720	6592	6720	6720	6720	6853	6720	6720	6720	6720	6853	6853	6853	6720	6853	6853	6853	6853	6853	0	0	0	0	0	0	0	6468	6468	6468	6592	6592	6720	6720	6853	6853	6992	6853	6853	6853	6992	6992	6992	6992	6992	6853	6853	6720	6592	6592	6592	6592	6592	6720	6720	6720	6720	6720	6720	6720	6853	6853	6853	6853	6853	6853	0	0	0	0	0	0	6592	6592	6592	6720	6720	6592	6592	6592	6592	6592	6592	0	0	0	0	0	3698	3659	3659	3621	3621	3621	3621	3621	3659	3698	3698	3698	3659	3659	0	0	0	0	0	0	0	0	0	0	6592	6592	6592	6592	6592	6720	6592	6592	6592	6592	6592	0	0	0	0	0	6992	7137	6992	6992	6992	6992	6992	6992	6992	6992	6992	7137	7137	7137	7137	7137	7137	6992	6992	6853	6853	6853	6853	6720	6720	6592	6592	6592	6720	6592	6720	6720	6720	6720	6720	6853	6853	6853	6853	0	0	0	0	0	0	0	6720	6720	6720	6720	6720	6592	6592	6720	6720	6720	6720	6720	6720	6720	6720	6720	6720	6592	6592	6592	6592	6592	6592	6592	6592	6592	6592	6592	6592	6720	6592	6592	6592	6720	6853	6853	6853	6853	6853	6720	6720	6720	6720	6720	6853	6853	6992	6853	6853	6853	6853	6853	6720	6720	6720	6720	6720	6720	6720	6592	6592	6592	6592	6720	6592	6592	6853	6853	6720	6720	6720	6853	6853	6720	6720	6720	6720	6720	6720	6720	6720	6720	6720	6720	6720	6720	6592	6592	6592	6720	0	0	0	0	0	0	0	0	0	0	0	0	0	0	0	0	0	0	0	0	0	0	0	0	0	0	0	0	0	0	0	0	0	0	0	0	0	0	0	0	0	0	0	0	0	0	0	0	0	0	0	6853	6853	6853	6853	6992	6992	6992	6992	6992	6992	6992	6853	6853	6853	6992	6853	6992	6853	6992	6992	6992	6992	6992	6992	6992	6853	6992	6992	6992	6992	6992	6992	6992	6992	6992	6992	6992	6992	6992	6992	6853	6992	6992	6992	6992	0	0	0	0	0	0	0	0	0	0	0	0	0	0	0	0	0	0	0	0	0	0	0	0	0	0	0	0	0	0	0	0	0	0	0	0	0	0	0	0	0	0	0	2589	2570	2570	2532	2514	2514	2532	2514	2514	2478	2478	0	0	0	0	0	0	0	0	0	0	0	0	0	0	0	0	0	0	0	0	0	0	0	0	0	0	0	0	0	0	0	0	0	0	0	0	0
0	0	0	0	850	852	854	856	856	858	860	862	867	871	878	880	882	882	891	891	894	896	896	898	901	903	903	910	910	915	915	917	917	969	969	969	972	972	974	974	977	974	974	974	966	963	966	969	969	972	974	983	985	985	985	988	1003	1008	1011	1017	1017	1026	1026	1030	1033	1042	1042	1042	1042	1042	1045	1085	1085	1085	1085	1088	1088	1088	1091	1095	1095	1098	1098	1098	1098	0	1347	1342	1342	1326	1316	1316	1316	1316	1316	1321	1321	1321	1321	1331	1331	1326	1326	1316	1316	1321	1316	1316	1316	1316	1311	1311	1311	1306	1311	1311	1311	1311	1316	1321	1331	1331	1336	1336	1342	1342	1342	1342	1342	1347	1347	1347	0	0	0	0	0	6992	6992	6853	6853	6853	6853	6720	6720	6853	6720	6720	6853	6720	6720	6720	6720	6720	6592	6592	6592	6720	6720	6720	6720	6720	0	0	0	0	0	0	0	0	0	0	0	6853	6592	6592	6592	0	0	0	0	0	0	0	0	0	6853	6720	6720	6720	6720	6592	6720	6720	6720	6720	6720	6720	6592	6720	6720	6720	6720	6720	6720	6720	6853	6853	6853	6853	0	0	0	0	0	0	6592	6592	6592	6592	6592	6592	6720	6720	6853	6853	6853	6720	6720	6992	6992	6992	6992	6853	6853	6853	6720	6592	6592	6592	6592	6592	6592	6592	6592	6592	6720	6720	6720	6853	6853	6853	6853	6853	6853	6853	0	0	0	0	0	6720	6720	6720	6720	6720	6720	6720	6720	6592	0	0	0	0	0	0	0	3698	3659	3621	3621	3621	3621	3621	3621	3621	3659	3659	3659	3659	3659	3659	3659	0	0	0	0	0	0	0	0	6592	6592	6592	6592	6592	6592	6592	6592	6592	6592	6592	0	0	0	0	7137	7137	7137	6992	6992	6992	6992	6992	6992	6992	6992	6992	6992	6992	7137	7137	7137	7137	7137	7137	6992	6992	6992	6992	6853	6720	6720	6720	6720	6720	6720	6720	6853	6853	6853	6720	6853	6853	6853	6853	0	0	0	0	0	0	0	0	0	6720	6720	6592	6592	6720	6720	6720	6720	6720	6720	6720	6720	6720	6720	6720	6720	6720	6592	6720	6592	6592	6592	6592	6592	6592	6592	6720	6720	6720	6853	6853	6853	6853	6853	6853	6853	6853	6853	6853	6853	6853	6853	6992	6992	6992	6992	6853	6853	6853	6720	6720	6720	6720	6720	6720	6720	6720	6720	6720	6592	6592	6592	6592	6592	6592	0	0	0	6720	6720	6853	6853	6720	6720	6853	6720	6720	6720	6720	6720	6720	6720	6720	6720	6720	6720	6592	0	0	0	0	0	0	0	0	0	0	0	0	0	0	0	0	0	0	0	0	0	0	0	0	0	0	0	0	0	0	0	0	0	0	0	0	0	0	0	0	0	0	0	0	0	0	0	0	0	0	0	0	0	6853	6853	6992	6992	6992	6992	6992	6992	6992	6853	6853	6853	6853	6992	6992	6992	6992	6992	6992	6992	6992	6992	6992	6853	6853	6853	6992	6992	6992	6992	6992	7287	7287	7287	7137	7137	6992	7137	6992	6992	6853	6853	6992	6992	0	0	0	0	0	0	0	0	0	0	0	0	0	0	0	0	0	0	0	0	0	0	0	0	0	0	0	0	0	0	0	0	0	0	0	0	0	0	0	0	0	0	0	2589	2589	2551	2551	2514	2514	2532	2514	2514	2478	2478	0	0	0	0	0	0	0	0	0	0	0	0	0	0	0	0	0	0	0	0	0	0	0	0	0	0	0	0	0	0	0	0	0	0	0	0	0
0	0	0	0	850	854	856	858	858	860	862	865	867	871	878	878	880	882	889	889	891	894	896	898	901	905	905	910	915	915	915	917	930	930	930	974	974	974	974	977	977	977	977	977	966	966	966	969	966	972	974	985	985	988	988	991	1003	1008	1017	1020	1020	1026	1026	1030	1036	1042	1045	1045	1042	1045	1045	1085	1085	1085	1085	1085	1088	1088	1091	1095	1095	1095	1095	1095	1098	1352	1347	1347	1342	1326	1321	1316	1316	1316	1321	1326	1326	1331	1331	1331	1331	1331	1326	1326	1326	1326	1321	1316	1316	1316	1316	1316	1316	1311	1311	1316	1316	1316	1316	1326	1326	1336	1342	1342	1342	1347	1347	1347	1352	1352	1352	1352	0	0	0	0	0	6992	6992	6853	6853	6853	6720	6720	6853	6853	6853	6853	6853	6853	6853	6720	6720	6853	6720	6720	6720	6720	6720	6720	6720	6720	0	0	0	0	0	0	0	0	0	0	0	6992	6720	6720	6720	6853	6720	6720	6720	0	0	0	0	0	6720	6720	6720	6720	6720	6720	6720	6720	6720	6720	6720	6592	6592	6592	6720	6720	6720	6720	6720	6720	6853	6853	6853	6853	0	0	0	0	0	0	6592	6592	6592	6592	6720	6720	6592	6592	6720	6720	6720	6720	6853	6853	6853	6992	6853	6853	6853	6853	6720	6720	6592	6592	6592	6592	6592	6592	6592	6592	6720	6720	6720	6853	6853	6853	6853	6853	6853	6853	6853	0	0	0	6720	6720	6720	6720	6720	6853	6720	6720	6720	0	0	0	0	0	0	0	0	3659	3659	3659	3659	3659	3659	3621	3621	3621	3621	3659	3659	3659	3659	3659	3659	3659	3659	0	0	0	0	0	0	0	6592	6592	6720	6720	6720	6592	6592	6592	6592	6592	0	0	0	6992	7137	7137	7137	6992	6992	6992	6992	6992	7137	6992	6992	6992	6992	6992	7137	7137	7137	7137	7137	7137	7137	7137	6853	6853	6853	6720	6720	6720	6720	6853	6853	6853	6853	6853	6853	6720	6992	6992	6992	6992	0	0	0	0	0	0	0	0	0	0	6720	6720	6592	6720	6720	6720	6720	6720	6720	6720	6720	6720	6720	6720	6720	6592	6592	6720	6592	6592	6592	6592	6592	6592	6720	6720	6720	6853	6853	6853	6853	6853	6853	6853	6853	6853	6720	6853	6853	6853	6853	6992	7137	6992	6992	6853	6853	6853	6853	6853	6853	6720	6720	6720	6720	6720	6720	6720	6720	6592	6720	6720	6720	6720	6720	0	0	0	6720	6853	6853	6853	6853	6853	6720	6720	6720	6720	6720	6720	6720	6720	6720	6720	6720	0	0	0	0	0	0	0	0	0	0	0	0	0	0	0	0	0	0	0	0	0	0	0	0	0	0	0	0	0	0	0	0	0	0	0	0	0	0	0	0	0	0	0	0	0	0	0	0	0	0	0	0	0	0	0	0	6992	6992	6992	6992	6853	6853	6853	6992	6853	6853	6853	7137	7137	7137	6992	6992	6992	6992	6992	6992	6853	6853	6853	6853	6853	6992	6992	6992	6992	7287	7287	7287	7137	7137	7287	6992	6992	6853	6853	6853	0	0	0	0	0	0	0	0	0	0	0	0	0	0	0	0	0	0	0	0	0	0	0	0	0	0	0	0	0	0	0	0	0	0	0	0	0	0	0	0	0	0	0	0	0	2589	2570	2570	2551	2532	2514	2532	2514	2514	2496	2496	0	0	0	0	0	0	0	0	0	0	0	0	0	0	0	0	0	0	0	0	0	0	0	0	0	0	0	0	0	0	0	0	0	0	0	0	0
0	0	0	0	0	854	854	856	858	860	862	865	871	873	878	878	880	882	887	887	891	896	896	898	901	905	908	913	915	915	917	917	930	930	930	930	974	974	974	977	977	977	977	980	972	969	969	974	974	980	985	991	988	988	994	997	1000	1008	1014	1017	1017	1023	1023	1033	1039	1045	1045	1045	1045	1045	1045	1045	1085	1085	1085	1085	1088	1091	1091	1095	1095	1095	1095	1095	1352	1352	1352	1347	1347	1331	1326	1321	1316	1321	1321	1326	1326	1331	1331	1336	1331	1331	1331	1331	1331	1326	1326	1321	1331	1331	1321	1321	1316	1336	1336	1336	1336	1336	1336	1331	1342	1342	1342	1342	1342	1347	1352	1347	1363	1363	1363	1363	0	0	0	0	0	0	0	6992	6992	6853	6853	6853	6853	6853	6853	6853	6853	6853	6853	6853	6853	6853	6853	6853	6720	6853	6853	6853	6853	6853	6853	0	0	0	0	0	0	6992	6992	6992	6992	6992	6853	6853	6853	6853	6853	6853	6853	0	0	0	0	0	6853	6720	6720	6853	6720	6720	6720	6720	6720	6853	6720	6720	6720	6720	6720	6853	6853	6853	6853	6853	6853	6853	6853	6853	0	0	0	0	6992	6992	6853	6853	6720	6720	6853	6720	6592	6592	6592	6720	6720	6720	6853	6992	6853	6992	6853	6853	6853	6992	6853	6853	6720	6720	6720	6720	6592	6592	6592	6720	6720	6720	6720	6853	6853	6853	6992	6992	6992	6853	6853	6853	6853	6853	6853	6720	6853	6853	6720	6720	6720	6720	0	0	0	0	0	0	0	0	0	3659	3659	3659	3659	3659	3621	3621	3621	3621	3659	3621	3621	3659	3621	3659	3659	3659	3659	3659	0	0	0	0	0	0	0	0	6853	6720	6720	6720	6720	6720	6720	6720	0	0	6853	6853	6992	6992	6992	6992	6992	6992	6992	6992	7137	7137	6992	6992	7137	6992	7137	7137	7137	7137	7137	7137	6992	6992	6853	6853	6853	6720	6853	6720	6720	6853	6853	6853	6853	6720	6853	6720	6853	6853	6992	6992	0	0	0	0	0	0	0	0	6720	6720	6720	6720	6720	6720	6720	6720	6720	6720	6720	6720	6720	6720	6720	6720	6720	6720	6720	6720	6592	6592	6592	6720	6720	6720	6720	6853	6853	6853	6853	6992	6992	6992	6853	6853	6853	6853	6853	6853	6720	6720	6720	0	7137	7137	6992	6992	6992	6992	6853	6853	6853	0	0	6720	6720	6720	6720	6720	6720	6720	6720	6720	6720	6720	6720	0	0	0	0	0	6853	6853	6853	6853	6853	6853	6720	6720	6720	6720	6720	6720	6720	6720	6720	0	0	0	0	0	0	0	0	0	0	0	0	0	0	0	0	0	0	0	0	0	0	0	0	0	0	0	0	0	0	0	0	0	0	0	0	0	0	0	0	0	0	0	0	0	0	0	0	0	7287	6853	6853	6853	6853	0	0	0	0	6992	7137	6992	6853	6853	6992	6853	6853	6853	6853	7137	7137	7137	7137	7137	6992	6992	6992	6853	6853	6853	6853	6853	6992	6992	6992	0	7137	7137	7287	7287	7137	7287	7137	7137	7137	6853	6853	0	0	0	0	0	0	0	0	0	0	0	0	0	0	0	0	0	0	0	0	0	0	0	0	0	0	0	0	0	0	0	0	0	0	0	0	0	0	0	0	0	0	0	0	0	2589	2589	2570	2551	2532	2532	2532	2514	2514	2496	2496	0	0	0	0	0	0	0	0	0	0	0	0	0	0	0	0	0	0	0	0	0	0	0	0	0	0	0	0	0	0	0	0	0	0	0	0	0
0	0	0	0	0	852	854	856	858	860	862	867	871	873	875	878	880	880	887	887	891	896	896	901	901	908	908	913	915	917	920	922	927	930	930	930	974	974	974	977	980	980	980	980	983	983	985	985	985	991	991	991	991	991	994	1000	1003	1008	1014	1017	1017	1023	1023	1033	1039	1045	1045	1045	1045	1052	1048	1048	1081	1081	1085	1085	1088	1091	1091	1091	1095	1095	1095	0	1352	1352	1352	1352	1347	1336	1331	1326	1321	1321	1326	1331	1331	1336	1336	1342	1336	1336	1336	1336	1336	1336	1336	1342	1342	1342	1336	1336	1331	1342	1342	1342	1342	1342	1342	1336	1347	1347	1342	1347	1347	1352	1358	1358	1363	1368	1368	1368	1368	0	0	0	0	0	0	6992	6992	6992	6853	6853	6853	6853	6853	6853	6853	6853	6853	6853	6853	6992	6853	6853	6853	6853	6853	6853	6853	6853	6853	0	0	0	0	0	0	6992	6992	6992	6992	6992	6992	6853	6853	6853	6853	6853	6853	6853	6853	0	0	6853	6853	6720	6853	6853	6853	6853	6720	6853	6853	6853	6720	6720	6720	6720	6720	6853	6853	6853	6853	6853	6853	6853	6853	0	0	0	0	0	6992	6853	6853	6720	6720	6720	6720	6720	6853	6853	6853	6853	6853	6853	6992	6992	6992	6992	6853	6992	6992	6992	6853	6853	6720	6853	6720	6720	6720	6720	6720	6720	6720	6720	6853	6853	6853	6853	6853	6992	6992	6853	6853	6853	6853	6853	6853	6720	6853	6720	6720	6720	6720	6720	0	0	0	0	0	0	0	0	0	3659	3659	3621	3621	3659	3621	3621	3621	3659	3659	3659	3659	3659	3621	3659	3621	3621	3621	3621	0	0	0	0	0	0	0	0	6853	6720	6720	6720	6720	6853	6853	6853	6853	0	6992	6992	6992	6992	6992	6992	6992	6992	6992	6992	6992	6992	6992	6992	6992	6992	6992	6992	6992	7137	7137	7137	7137	7137	7137	7137	7137	6720	6720	6720	6720	6853	6853	6853	6720	6720	6720	6720	6853	6853	6992	6992	0	0	0	0	0	0	0	6853	6720	6720	6720	6720	6720	6720	6720	6720	6720	6720	6720	6720	6720	6720	6720	6720	6720	6720	6720	6720	6853	6853	6853	6853	6853	6853	6720	6853	6853	6853	6992	6992	6992	6992	6853	6853	6992	6853	6853	6853	6720	6720	6720	6720	6992	6992	6992	6992	6992	6992	6853	6853	6853	0	0	0	6853	6720	6720	6720	6720	6720	6592	6720	6720	6720	0	0	0	0	0	0	6853	6992	7137	6853	6853	6853	6853	6853	6853	6720	6720	6720	6720	6720	6720	0	0	0	0	0	0	0	0	0	0	0	0	0	0	0	0	0	0	0	0	0	0	0	0	0	0	0	0	0	0	0	0	0	0	0	0	0	0	0	0	0	0	0	0	0	0	0	0	7287	7287	7137	7137	7137	7137	0	0	0	0	0	6992	6992	6992	6992	7137	6992	6992	6992	7444	7137	7137	7137	7137	7137	7137	6992	7137	6992	6992	6853	6853	6992	7137	7137	7137	0	7137	7137	7287	6992	6992	7287	7287	7287	7287	0	0	0	0	0	0	0	0	0	0	0	0	0	0	0	0	0	0	0	0	0	0	0	0	0	0	0	0	0	0	0	0	0	0	0	0	0	0	0	0	0	0	0	0	0	0	0	2589	2570	2551	2551	2551	2532	2532	2532	2514	2514	2514	0	0	0	0	0	0	0	0	0	0	0	0	0	0	0	0	0	0	0	0	0	0	0	0	0	0	0	0	0	0	0	0	0	0	0	0	0
0	0	0	0	0	852	852	854	856	858	860	867	873	875	878	878	878	880	887	887	891	894	896	898	901	908	910	913	915	915	917	920	927	930	932	932	932	974	974	977	983	983	983	983	983	985	985	988	988	994	994	991	991	994	997	1000	1000	1011	1014	1017	1017	1023	1023	1033	1039	1045	1045	1045	1045	1055	1055	1064	1071	1078	1081	1081	1085	1085	1088	1088	1088	1088	1095	1352	1352	1352	1352	1352	1352	1342	1336	1336	1331	1331	1336	1342	1342	1347	1352	1342	1342	1336	1336	1342	1342	1342	1347	1352	1347	1347	1347	1347	1352	1352	1347	1347	1347	1347	1347	1342	1352	1352	1352	1352	1352	1358	1363	1363	1368	1368	1368	1368	1368	1385	1385	0	0	0	0	0	6992	6992	6853	6853	6853	6853	6853	6853	6853	6853	6853	6853	6853	6992	6853	6853	6853	6853	6853	6853	6853	6853	6853	0	0	0	0	0	0	0	0	0	0	6992	6992	6853	6853	6853	6853	6853	6853	6853	6853	6853	6853	6853	6853	6720	6853	6992	6853	6853	6853	6853	6853	6853	6853	6720	6853	6853	6720	6853	6992	6992	6992	6992	6853	0	0	0	0	0	0	0	6853	6853	6853	6720	6720	6720	6853	6720	6853	6853	6853	6992	6992	6992	6992	7137	6992	6992	6992	6992	6992	6992	6992	6853	6853	6853	6720	6853	6720	6720	6853	6720	6720	6853	6853	6853	6853	6853	6853	6992	6992	6853	6853	6853	6992	6992	6992	6853	6992	6853	6720	6720	6720	0	0	0	0	0	0	0	0	0	3698	3698	3659	3621	3621	3621	3621	3659	3621	3659	3659	3659	3621	3621	3621	3621	3621	3621	3621	3621	0	0	0	0	0	0	0	0	6720	6720	6720	6720	6720	6853	6853	6853	6853	0	7137	6992	7137	6992	6992	6992	6992	6992	6992	6992	7137	7137	7137	7137	6992	6992	6992	6992	6992	7137	7137	7137	7137	7137	7137	7287	7287	7137	7137	6720	6720	6853	6720	6720	6720	6720	6720	6720	6853	6853	0	0	0	0	0	0	0	0	6720	6720	6720	6720	6720	6720	6720	6720	6720	6720	6720	6720	6720	6720	6720	6720	6720	6720	6720	6720	6853	6992	6992	6853	6853	6853	6853	6853	6853	6853	6992	6992	6992	6992	6992	6992	6853	6992	6992	6853	6853	6853	6720	6720	6720	6992	6992	6992	6992	6992	7137	7137	0	0	0	0	0	0	6853	6853	6853	6720	6720	6720	6720	6853	6853	6853	0	7137	7137	7137	7137	7137	0	6992	7137	7137	7137	6853	6853	6853	6853	6853	6853	6720	6720	6720	6720	0	0	0	0	0	0	0	0	0	0	0	0	0	0	0	0	0	0	0	0	0	0	0	0	0	0	0	0	0	0	0	0	0	0	0	0	0	0	0	0	0	0	0	0	0	0	0	7287	7287	7287	7287	7137	7137	7287	7287	0	0	0	0	7137	6992	6992	6992	6992	7137	7137	7444	7444	7287	7287	7287	7287	7137	7137	7137	6992	6992	6992	6853	6992	6992	6992	7137	7137	0	0	7137	7287	7287	7287	7444	7444	7444	7444	0	0	0	0	0	0	0	0	0	0	0	0	0	0	0	0	0	0	0	0	0	0	0	0	0	0	0	0	0	0	0	0	0	0	0	0	0	0	0	0	0	0	0	0	0	0	0	2570	2551	2551	2551	2551	2532	2532	2532	2532	2514	2514	0	0	0	0	0	0	0	0	0	0	0	0	0	0	0	0	0	0	0	0	0	0	0	0	0	0	0	0	0	0	0	0	0	0	0	0	0
0	0	0	0	0	850	852	854	856	858	858	865	875	875	878	880	880	882	887	887	891	894	894	896	901	908	910	913	915	915	920	922	930	932	932	935	935	935	980	983	985	985	985	985	988	991	994	994	994	997	997	994	994	994	1000	1000	1000	1011	1014	1017	1017	1023	1023	1026	1033	1042	1042	1045	1048	1055	1055	1064	1071	1071	1074	1074	1081	1081	1085	1085	1095	1095	1358	1352	1352	1363	1368	1363	1363	1358	1352	1342	1342	1342	1347	1347	1347	1352	1352	1352	1342	1336	1336	1342	1347	1347	1352	1358	1358	1358	1358	1358	1363	1358	1358	1358	1352	1358	1352	1352	1358	1358	1358	1358	1358	1358	1363	1368	1368	1368	1368	1368	1385	1385	1385	0	0	0	0	0	0	0	6853	6992	6992	6992	6853	6853	6853	6992	6853	6853	6853	6992	6853	6853	6853	6853	6853	6720	6720	6720	6720	0	0	0	0	0	0	0	0	0	6992	6992	6992	6992	6992	6853	6992	6992	6992	6992	6853	6992	6992	0	6853	6853	6720	6992	6853	6853	6853	6992	6992	6992	6853	6853	6853	6853	6720	6853	6992	7137	7137	7137	0	0	0	0	0	0	0	0	6853	6992	6853	6468	6720	6853	6853	6853	6992	6992	6992	6992	6992	6992	6992	7137	6992	6992	6992	6992	6992	6992	6992	6992	6853	6853	6720	6853	6853	6720	6853	6853	6853	6853	6992	6853	6853	6853	6992	6992	6992	6992	6992	6992	6992	6992	6992	6853	6992	6992	6992	6720	0	0	0	0	0	0	0	0	0	0	3698	3659	3659	3621	3621	3621	3621	3659	3659	3659	3659	3659	3659	3659	3659	3659	3659	3621	3621	3621	0	0	0	0	0	0	0	6853	6853	6853	6853	6853	6853	6853	6853	6853	6853	0	7137	6992	7137	6992	6992	6992	6992	6992	6992	6992	6992	6992	7137	7137	6992	6853	6853	6992	6853	6992	7137	7137	7137	7137	7137	7287	7287	7287	7287	7287	6992	6992	6853	6720	6720	6720	6720	6720	6720	6853	0	0	0	0	0	0	6853	6720	6720	6720	6720	6592	6592	6853	6720	6720	6720	6720	6720	6720	6720	6720	6720	6720	6720	6720	6720	6853	6853	6992	6992	6853	6853	6853	6853	6853	6853	6853	6853	6992	6992	6992	6992	6992	6853	6992	6853	6853	6853	6853	6720	6720	6720	6992	6992	7137	6992	6992	7137	7137	0	0	0	0	0	0	6853	6853	6853	6853	6720	6720	6720	6720	6720	6853	0	7137	7137	7137	7137	7137	6992	6992	7137	7137	7137	6992	6992	6992	6992	6853	6853	6720	6720	6720	0	0	0	0	0	0	0	0	0	0	0	0	0	0	0	0	0	0	0	0	0	0	0	0	0	0	0	0	0	0	0	0	0	0	0	0	0	0	0	0	0	0	0	0	0	0	0	0	7287	7287	7287	7287	7287	7137	7287	7287	0	0	0	0	7137	7137	7137	7137	7137	7137	7444	7444	7444	7287	7287	7287	7287	7287	7137	7137	7287	7287	6992	6992	6992	6992	6992	0	0	0	0	0	7137	7137	7137	7444	7287	7287	7444	7444	0	0	0	0	0	0	0	0	0	0	0	0	0	0	0	0	0	0	0	0	0	0	0	0	0	0	0	0	0	0	0	0	0	0	0	0	0	0	0	0	0	0	0	0	0	0	2532	2551	2551	2551	2570	2551	2532	2532	2532	2514	2514	0	0	0	0	0	0	0	0	0	0	0	0	0	0	0	0	0	0	0	0	0	0	0	0	0	0	0	0	0	0	0	0	0	0	0	0	0
0	0	0	0	0	852	854	856	856	858	858	865	871	875	878	878	880	882	887	887	891	894	896	898	901	905	908	913	915	920	922	925	930	932	932	935	935	935	935	985	985	983	985	985	997	997	997	1003	997	1006	1003	997	997	997	1000	1003	1000	1014	1014	1017	1017	1017	1023	1026	1033	1033	1045	1045	1048	1048	1058	1058	1068	1071	1074	1074	1081	1085	1085	1085	1095	1363	1363	1358	1358	1368	1368	1368	1363	1368	1358	1358	1358	1374	1368	1368	1352	1358	1358	1358	1358	1342	1342	1352	1358	1358	1363	1368	1368	1363	1363	1363	1368	1363	1363	1363	1363	1363	1358	1358	1363	1363	1363	1363	1363	1363	1374	1374	1379	1379	1379	1385	1385	1385	0	0	0	0	0	0	0	0	0	6992	6992	6992	6992	6992	6992	6992	6992	6992	6992	6992	6992	6992	6992	6853	6853	6853	6853	6853	6853	0	0	0	0	0	0	0	0	0	6992	6992	6992	6992	6992	6992	6992	6992	6992	6992	6992	6992	6992	0	6853	6720	6720	6992	6853	6853	6853	6992	6992	6992	6853	6853	6992	6992	6992	7137	7137	7287	7287	7137	0	0	0	0	0	0	0	0	6992	6992	6853	6468	6853	6853	6853	6853	6992	6992	6992	6992	6992	7137	7137	7137	7137	7137	6992	7137	7137	7137	7137	6992	6992	6992	6720	6853	6853	6853	6992	6992	6992	6992	6992	6992	6853	6853	6992	6992	7137	7137	7137	6992	6992	6992	6992	6853	6992	6992	6853	6853	0	0	0	0	0	0	0	0	0	0	3698	3659	3659	3621	3659	3659	3659	3659	3659	3659	3659	3659	3659	3659	3659	3659	3659	3659	3621	3621	0	0	0	0	0	0	0	6853	6853	6853	6853	6720	6853	6853	6853	6853	6853	0	0	6992	7137	6992	6992	6853	6853	6992	6992	6992	7137	7137	0	0	0	6720	6853	6992	6853	6992	7137	7137	7137	7137	7137	7287	7287	7137	7137	7137	6992	6992	6992	6853	6720	6720	6592	6592	6720	0	0	0	0	0	0	0	6853	6720	6720	6720	6720	6720	6720	6853	6853	6853	6720	6720	6720	6720	6720	6720	6720	6720	6720	6720	6853	6853	6992	6992	6992	6992	6992	6853	6992	6853	6853	6853	6853	6992	6992	6992	6992	6992	6853	6992	6992	6992	6992	6853	6853	6853	6853	6992	6992	7137	7137	7137	7137	7137	0	0	0	0	0	6853	6853	6853	6853	6853	6853	6853	6853	6853	6853	0	0	7137	7137	7137	7287	7137	7137	7137	7137	7137	7137	7137	7137	7137	7137	7137	6853	0	0	0	0	0	0	0	0	0	0	0	0	0	0	0	0	0	0	0	0	0	0	0	0	0	0	0	0	0	0	0	0	0	0	0	0	0	0	0	0	0	0	0	0	0	0	0	0	0	0	0	7287	7287	7287	7137	7137	7137	7444	7444	0	0	0	0	7287	7287	7287	7287	7287	7287	7444	7444	7444	7444	7444	7444	7444	7444	7287	7137	7137	7137	7137	7137	7137	6992	6992	0	0	0	0	0	7137	7137	7137	7444	7444	7444	7444	7444	0	0	0	0	0	0	0	0	0	0	0	0	0	0	0	0	0	0	0	0	0	0	0	0	0	0	0	0	0	0	0	0	0	0	0	0	0	0	0	0	0	0	0	0	0	0	2551	2551	2570	2570	2570	2551	2532	2532	2532	2514	2514	0	0	0	0	0	0	0	0	0	0	0	0	0	0	0	0	0	0	0	0	0	0	0	0	0	0	0	0	0	0	0	0	0	0	0	0	0
0	0	0	0	0	852	854	856	856	858	860	865	865	875	878	878	880	882	887	887	894	896	896	898	901	905	908	910	920	920	925	927	930	932	932	935	935	940	940	940	983	983	985	997	1000	997	1006	1006	1006	1006	1003	997	997	1000	1000	1003	1003	1003	1014	1017	1020	1023	1030	1033	1036	1042	1042	1045	1048	1055	1058	1068	1068	1068	1071	1074	1081	1088	1088	1088	0	1363	1363	1363	1363	1363	1368	1363	1368	1368	1363	1363	1374	1374	1374	1374	1374	1374	1374	1368	1358	1379	1368	1368	1368	1363	1368	1374	1374	1368	1368	1368	1368	1368	1368	1368	1368	1368	1363	1363	1368	1368	1368	1368	1368	1374	1379	1379	1379	1379	1385	1385	1385	1385	1473	1473	1467	1467	0	0	0	0	0	6992	6992	6992	6992	6992	6992	6992	6992	6992	7137	7137	7137	7137	7137	7137	6853	6853	6853	6853	6853	0	0	0	0	0	0	0	0	0	0	6992	6992	7137	6992	6992	6992	6992	6992	6992	6992	6992	6992	0	6853	6720	6720	0	0	0	0	6992	6992	6992	6992	6992	6992	6992	7137	7137	7137	7137	7137	7137	0	0	0	0	0	0	0	6992	6992	6992	6853	6853	6853	6853	6853	6853	6992	6992	6992	7137	6992	6992	7137	7137	7137	7137	6992	7137	7137	6992	6992	6992	6853	6992	6720	6853	6853	6853	6992	6992	6992	6992	6992	6992	6853	6853	6992	6992	6992	6992	6992	6992	7137	7137	6992	6992	6992	6992	6992	6853	6853	0	0	0	0	0	0	0	0	3698	3698	3698	3659	3659	3659	3659	3659	3659	3659	3659	3659	3698	3659	3659	3659	3659	3659	3659	3621	3621	3621	0	0	0	0	0	0	6853	6992	6853	6853	6853	6853	6853	6853	6853	0	0	0	0	0	0	0	6853	6853	6992	6992	6992	7137	7137	0	0	0	6720	7287	7287	6992	6992	7137	7137	7137	7137	7137	7137	7137	7137	7287	7287	6992	6992	6992	6992	6720	6853	6720	6720	0	0	0	0	0	0	0	6992	6853	6853	6853	6720	6720	6720	6720	6853	6853	6720	6720	6853	6720	6720	6720	6720	6720	6720	6853	6853	6853	6992	6992	6992	6992	6992	6992	6992	6992	6853	6853	6853	6853	6853	6853	6992	6853	6853	6853	6853	6853	6853	6992	6720	6720	6720	6853	6992	6992	7137	7137	7137	7137	7137	0	6992	6853	6853	6853	6853	6853	6853	6853	6853	6853	6853	6853	6853	6853	6853	0	7287	7287	7287	7287	7287	7137	7137	7287	7287	7287	7287	7137	7137	7137	7137	7137	0	0	0	0	0	0	0	0	0	0	0	0	0	0	0	0	0	0	0	0	0	0	0	0	0	0	0	0	0	0	0	0	0	0	0	0	0	0	0	0	0	0	0	0	0	0	0	0	0	7137	7137	7287	7287	7287	7287	7287	7287	7444	7444	0	0	0	0	7287	7444	7287	7287	7287	7287	7287	7444	7444	7287	7287	7287	7287	7287	7287	7137	7287	7287	7287	7137	7137	0	0	0	0	0	0	7137	7137	7137	7137	7287	7287	7444	7444	7444	0	0	0	0	0	0	0	0	0	0	0	0	0	0	0	0	0	0	0	0	0	0	0	0	0	0	0	0	0	0	0	0	0	0	0	0	0	0	0	0	0	0	0	0	0	0	2551	2551	2551	2570	2570	2551	2532	2532	2532	2514	2514	0	0	0	0	0	0	0	0	0	0	0	0	0	0	0	0	0	0	0	0	0	0	0	0	0	0	0	0	0	0	0	0	0	0	0	0	0
0	0	0	0	0	0	850	854	854	856	858	865	869	875	875	878	880	880	884	884	894	896	896	898	901	905	905	905	905	925	925	925	925	932	932	935	937	940	942	942	942	942	945	1006	1006	1006	1011	1008	1008	1008	1006	1006	1000	1006	1011	1011	1014	1020	1020	1017	1020	1026	1030	1033	1036	1042	1042	1045	1052	1055	1058	1068	1071	1071	1078	1078	1081	1081	1081	1081	0	0	1368	1368	1363	1368	1374	1368	1368	1368	1374	1374	1379	1379	1374	1379	1379	1379	1374	1374	1379	1385	1374	1374	1374	1374	1374	1379	1379	1374	1374	1374	1374	1374	1374	1374	1374	1374	1374	1374	1368	1374	1374	1379	1385	1379	1385	1385	1385	1385	1385	1390	1390	1390	1473	1473	1467	1467	1467	0	0	0	0	0	0	6992	6992	6992	6992	6992	6992	6992	7137	7137	7137	7137	7137	7137	6853	6853	6853	6853	0	0	0	0	0	0	0	0	0	0	7137	6992	6992	7137	6992	6992	6992	6992	6992	6992	6992	6992	0	0	0	0	0	0	0	0	0	0	0	7137	7137	6992	7137	7137	7137	7137	7137	7137	7287	7287	0	0	0	0	0	0	0	6992	6853	6853	6853	6720	6853	6853	6853	6853	6992	6992	6992	6992	6992	6992	7137	7137	7137	7137	6992	7137	7137	7137	7137	6992	6992	6992	6992	6992	6992	6992	6992	6992	6992	6992	6992	6992	6992	6992	6992	7137	7137	7137	7137	6992	6992	6992	6992	6992	6992	6992	6992	6992	6992	6992	0	0	0	0	0	0	0	3738	3659	3698	3659	3659	3659	3659	3659	3659	3659	3698	3698	3698	3659	3659	3659	3659	3659	3659	3621	3583	3583	0	0	0	0	0	0	6992	6992	6992	6853	6853	6992	6992	6992	6992	0	0	0	0	0	0	0	7444	7287	7287	7287	7287	0	0	0	0	0	0	7287	7287	7287	7287	7137	7287	7137	7137	7287	7287	7287	7287	7287	7287	7137	6992	6992	6992	6853	6853	6720	6720	0	0	0	0	0	0	0	6992	6853	6853	6853	6720	6720	6720	6720	6720	6853	6853	6853	6853	6720	6720	6853	6720	6720	6720	6853	6853	6992	6992	7137	7137	7137	6992	6992	6992	6992	6992	6992	6992	6853	6992	6992	6992	6992	6992	6853	6853	6853	6853	6853	6853	6853	6853	6853	6992	6992	7137	7137	7137	7137	7137	0	6992	6992	6992	6853	6853	6853	6853	6853	6853	6853	6853	6853	6853	6853	6853	0	7287	7287	7287	7287	7287	7287	7137	7287	7287	7287	7287	7137	7137	7137	7137	6992	6992	0	0	0	0	0	0	7444	7444	7287	7287	0	0	0	0	0	0	0	0	0	0	0	0	0	0	0	0	0	0	0	0	0	0	0	0	0	0	0	0	0	0	0	0	0	0	0	0	0	0	7137	7287	7137	7287	7287	7287	7287	7287	7444	7444	7444	7608	7608	7608	0	7444	7444	7444	7444	7287	7444	7444	7444	7287	7287	7287	7287	7287	7287	7137	7287	7287	7287	0	0	0	0	0	0	0	0	7287	7137	7137	7137	7137	7444	7444	7608	7608	0	0	0	0	0	0	0	0	0	0	0	0	0	0	0	0	0	0	0	0	0	0	0	0	0	0	0	0	0	0	0	0	0	0	0	0	0	0	0	0	0	0	0	0	0	0	2551	2551	2551	2570	2570	2551	2532	2532	2532	2514	2514	0	0	0	0	0	0	0	0	0	0	0	0	0	0	0	0	0	0	0	0	0	0	0	0	0	0	0	0	0	0	0	0	0	0	0	0	0
0	0	0	0	0	848	850	854	854	856	858	865	867	873	873	878	878	884	887	887	894	894	896	901	903	903	908	910	915	917	917	925	925	932	932	935	940	940	942	942	942	950	950	1006	1017	1017	1014	1011	1011	1011	1011	1011	1008	1011	1014	1014	1017	1020	1020	1020	1023	1030	1033	1033	1039	1042	1042	1045	1048	1055	1058	1064	1068	1068	1071	1074	1081	1085	1085	1095	1095	0	1368	1374	1374	1374	1374	1374	1374	1379	1385	1385	1385	1379	1379	1379	1379	1379	1385	1379	1385	1385	1379	1379	1379	1379	1379	1385	1385	1379	1379	1379	1379	1374	1374	1374	1374	1379	1379	1368	1374	1374	1379	1385	1390	1385	1385	1390	1385	1385	1390	1396	1402	1402	1402	1455	1455	1455	1467	0	0	0	0	0	0	6992	6992	7137	7137	6992	7137	7137	7137	7137	7137	7137	7137	7137	6992	6992	6992	0	0	0	6992	7137	7137	7137	7137	7137	7137	7137	6992	6853	6853	6992	6992	6992	7137	7137	6992	0	0	0	0	0	0	0	0	0	0	0	0	0	0	7137	7137	6992	7137	7137	7137	7287	7287	7137	7287	7287	0	0	0	0	0	0	0	0	6853	6720	6720	6720	6853	6853	6853	6853	6992	6992	6992	6992	6992	6992	7137	7137	7137	7137	6992	7137	7137	7137	7137	7137	7137	7137	7137	6992	7137	7137	7137	7137	7137	6992	6992	6992	6992	6992	6992	7137	7137	7137	7287	7137	7137	7137	7137	6992	7137	7137	6992	6992	6992	6992	0	0	0	0	0	0	0	3659	3659	3698	3659	3659	3659	3659	3659	3659	3659	3698	3698	3698	3659	3659	3659	3659	3659	3659	3621	3621	3583	0	0	0	0	0	0	6992	6992	6853	6853	6853	6992	6992	6992	7137	7137	0	0	0	0	0	0	7444	7444	7287	7287	7444	7444	0	0	0	0	0	7287	7287	7287	7287	7287	7287	7287	7287	7287	7287	7287	7287	7287	7287	7137	6992	6992	6853	6720	6720	6853	6853	6853	6853	0	0	0	0	0	0	6853	6853	6853	6853	6853	6853	6853	6853	6853	6853	6853	6853	6853	6853	6853	6853	6853	6853	6853	6853	6853	7137	7137	7137	7137	7137	7137	7137	7137	6992	6992	6992	6992	7137	6992	6992	6992	6992	6853	6853	6853	6853	6853	6853	6853	6992	6853	6853	6992	7137	7137	7137	7137	7137	0	6992	6992	6992	6992	6853	6992	6992	6992	6992	6992	6853	6853	6853	7137	7137	7137	7137	7287	7287	7287	7137	7287	7137	7287	7287	7287	7287	7287	7287	7287	7137	7137	7137	7137	0	0	0	0	7444	7444	7287	7287	7137	7137	7137	0	0	0	6992	6992	0	0	0	0	0	0	0	0	0	0	0	0	0	0	0	0	0	7287	7287	0	0	0	0	0	0	0	0	0	0	0	0	7287	7287	7287	7287	7287	7287	7287	7287	7444	7608	7608	7608	7608	7779	7779	7608	7608	7444	7444	7444	7444	7444	7444	7444	7287	0	0	0	0	0	0	0	0	0	0	0	0	0	0	0	0	7137	7287	7137	7137	7137	7444	7444	7444	7608	0	0	0	0	0	0	0	0	0	0	0	0	0	0	0	0	0	0	0	0	0	0	0	0	0	0	0	0	0	0	0	0	0	0	0	0	0	0	0	0	0	0	0	0	0	0	2551	2532	2551	2570	2570	2551	2532	2532	2532	2514	2514	0	0	0	0	0	0	0	0	0	0	0	0	0	0	0	0	0	0	0	0	0	0	0	0	0	0	0	0	0	0	0	0	0	0	0	0	0
0	0	0	0	0	848	850	850	856	858	858	862	865	873	873	878	878	882	884	887	894	894	896	898	903	908	908	908	913	920	920	925	927	932	932	935	940	942	942	945	950	950	950	950	1017	1017	1017	1014	1011	1014	1014	1014	1017	1017	1017	1017	1017	1020	1020	1017	1020	1033	1036	1036	1042	1042	1042	1045	1048	1052	1058	1061	1064	1068	1071	1074	1085	1088	1095	1095	1098	1098	0	1374	1379	1379	1379	1379	1379	1390	1390	1390	1390	1385	1385	1385	1385	1385	1390	1396	1385	1390	1390	1390	1385	1385	1385	1390	1385	1385	1385	1385	1385	1379	1379	1379	1379	1379	1379	1379	1385	1379	1385	1390	1390	1385	1385	1396	1396	1385	1390	1402	1402	1396	1402	1402	1449	1449	1455	1455	0	0	0	0	0	6992	6992	7137	7137	7137	7137	7137	7137	7287	7287	7287	7287	7287	6992	6992	6992	6992	6992	0	6992	6992	6992	6992	6992	7137	6992	7137	7137	6853	7137	6992	7287	7137	6992	6992	0	0	0	0	0	0	0	0	0	0	0	0	0	0	0	0	0	6992	7137	7287	7287	7287	7287	7137	7287	7287	7287	7287	0	0	0	0	0	6468	6468	6468	6468	6720	6853	6853	6853	6853	6992	6992	6992	6992	6992	6992	7137	7137	7137	7137	7137	7137	7137	7137	7137	7137	7137	7137	7137	7137	7137	7287	7137	7137	7137	7137	7137	7137	7137	7137	7137	7287	7287	7287	7287	7137	7137	7137	7137	7137	7137	7137	7137	6992	6992	6992	0	0	0	0	0	0	0	3698	3698	3698	3659	3659	3659	3659	3659	3659	3659	3621	3698	3659	3659	3659	3659	3659	3659	3698	3659	3659	0	0	0	0	0	0	6992	6992	6992	6992	6992	6992	6992	6992	6992	7137	7137	7137	0	0	0	0	0	7287	7287	7287	7287	7287	7137	7137	0	0	0	7287	7287	7287	7287	7287	7444	7287	7287	7287	7287	7287	7287	7287	7137	7137	7137	7137	7137	6992	6992	6992	6992	6853	6853	6853	0	0	0	0	0	0	0	6992	7137	6853	6992	6853	6853	6992	7137	6992	6992	6992	6992	7137	6992	6992	6992	6992	6992	6853	6853	6992	7137	7137	7137	7137	7137	6992	6992	6992	6992	6992	6853	6853	6992	6992	6992	6992	6853	6853	0	0	0	6853	6853	6992	6992	6992	6992	7287	7137	7137	7137	0	0	0	6853	6853	6853	6853	6992	6992	6992	6992	6992	6992	6992	7137	7137	7137	7137	7137	7137	7137	7287	7137	7137	7137	7287	7287	7137	7287	7287	7287	7287	7137	7137	7137	6992	6992	0	0	0	7444	7444	7444	7287	7137	7137	7137	0	6992	6992	6992	7137	6720	6720	0	0	0	0	0	0	7444	7444	0	0	7444	7444	7287	7287	7287	6992	6992	6992	0	0	0	0	0	0	0	0	0	0	7287	7287	7287	7287	7444	7444	7444	7444	7287	7608	7608	7608	7608	7779	7959	7779	7779	7608	7608	7608	7444	7444	7444	7444	7444	0	0	0	0	0	0	0	0	0	0	0	0	0	0	0	0	0	7287	7287	7287	7287	7287	7444	7444	7444	0	0	0	0	0	0	0	0	0	0	0	0	0	0	0	0	0	0	0	0	0	0	0	0	0	0	0	0	0	0	0	0	0	0	0	0	0	0	0	0	0	0	0	0	0	0	0	0	2551	2570	2570	2589	2570	2589	2551	2532	2532	2532	0	0	0	0	0	0	0	0	0	0	0	0	0	0	0	0	0	0	0	0	0	0	0	0	0	0	0	0	0	0	0	0	0	0	0	0	0
0	0	0	0	0	848	850	854	858	860	860	862	862	867	867	878	878	882	884	887	887	894	896	898	903	905	908	910	913	913	920	925	927	932	932	932	937	942	945	950	953	950	950	953	953	950	950	1014	1011	1017	1017	1017	1020	1020	1020	1017	1020	1020	1023	1020	1026	1033	1036	1039	1042	1042	1042	1045	1052	1055	1058	1061	1064	1068	1078	1081	1085	1088	1095	1098	1098	1098	0	0	1379	1385	1379	1385	1390	1396	1396	1396	1396	1396	1396	1396	1396	1402	1402	1413	1407	1402	1396	1396	1390	1390	1390	1396	1396	1396	1396	1402	1402	1402	1379	1385	1385	1385	1385	1379	1390	1396	1396	1396	1402	1396	1390	1402	1385	1385	1396	1402	1407	1407	1407	1455	1449	1455	1455	1455	0	0	0	0	0	0	0	7444	7444	7287	7287	7287	7287	7287	7287	7287	7287	7444	7137	7137	7137	6992	6992	6992	6992	6992	6992	6992	7137	7287	7137	7137	6992	7137	7137	7137	7137	7137	6992	6992	0	0	0	0	0	0	0	0	0	0	0	0	0	0	0	0	0	0	0	7287	7287	7287	7287	7287	7287	7287	7287	7287	7287	7287	7444	7287	7287	7137	6992	6992	6992	6853	6992	6992	6992	6992	6992	6992	6992	6992	6992	6992	6992	7137	7137	7137	7137	7137	7137	7137	7137	7137	7287	7137	7444	7137	7137	7137	7137	7137	7137	7137	7137	7137	7137	7137	7137	7287	7287	7137	7137	7137	7137	7137	7137	7137	7137	7137	7137	7137	6992	6992	0	0	0	0	0	0	0	3698	3698	3698	3659	3659	3659	3659	3659	3659	3621	3621	3698	3698	3659	3698	3659	3659	3659	3698	3698	3698	3698	3698	0	0	0	0	6992	6992	6992	6992	6992	6992	7137	7137	7137	7137	7137	7137	7137	7137	7287	7287	7287	7287	7287	7287	7287	7287	7137	7137	7287	7287	7287	7287	7287	7287	7287	7287	7287	7287	7287	7287	7287	7287	7287	7287	7137	7137	7137	7137	7137	7137	7137	7137	6992	6992	6992	6992	7137	6992	6992	0	0	0	0	6992	6992	6992	6992	6992	6992	7137	7137	6992	6992	6992	6992	7137	7137	7137	7137	6992	6992	6992	6992	6992	6992	6992	6992	6992	6992	6992	6992	6853	6853	6853	6853	6853	0	0	0	0	0	0	7287	7287	6992	7137	7137	7137	6992	6992	6992	7287	7137	7137	7137	0	0	0	6992	6992	6992	6853	6992	6853	6992	6992	6992	6992	6992	7137	7137	7287	7287	7287	7287	7287	7287	7137	7137	7137	7287	7287	7137	7287	7287	7287	7287	7287	7137	7137	7137	7137	0	0	0	7287	7444	7444	7287	7287	7137	7137	0	7137	7137	7137	7137	7137	7137	0	0	0	0	0	0	7444	7608	7608	7444	7444	7444	7287	7287	7287	7137	7137	7137	7287	7287	0	0	0	0	0	0	0	0	7444	7287	7444	7444	7444	7608	7444	7608	7444	7608	7608	7779	7779	7779	7959	7959	7959	7779	7608	7608	7444	7444	7444	7444	7444	0	0	0	0	0	0	0	0	0	0	0	0	0	0	0	0	0	7444	7444	7287	7287	7287	7444	7444	7444	7444	0	0	0	0	0	0	0	0	0	0	0	0	0	0	0	0	0	0	0	0	0	0	0	0	0	0	0	0	0	0	0	0	0	0	0	0	0	0	0	0	0	0	0	0	0	0	0	2570	2570	2589	2589	2570	2570	2551	2532	2514	2514	0	0	0	0	0	0	0	0	0	0	0	0	0	0	0	0	0	0	0	0	0	0	0	0	0	0	0	0	0	0	0	0	0	0	0	0	0
0	0	0	0	0	848	850	850	858	858	860	862	865	867	867	875	880	880	882	887	889	889	896	898	905	908	908	908	910	915	917	922	925	930	932	935	940	942	945	945	953	955	961	958	958	958	961	961	1020	1020	1020	1020	1023	1023	1020	1020	1020	1020	1023	1023	1026	1033	1033	1042	1045	1045	1045	1045	1052	1055	1058	1061	1064	1068	1074	1078	1085	1091	1105	1109	1109	1098	0	0	1390	1390	1385	1390	1396	1396	1396	1402	1402	1402	1402	1402	1402	1413	1413	1413	1413	1413	1413	1402	1396	1396	1396	1402	1402	1402	1402	1402	1402	1402	1402	1402	1390	1396	1390	1390	1402	1407	1402	1402	1402	1402	1402	1407	1402	1402	1402	1402	1407	1413	1413	1455	1449	1449	1455	1455	0	0	0	0	0	0	0	7608	7608	7444	7444	7444	7287	7287	7287	7444	7444	7444	7137	7287	7287	7287	7137	7137	7137	6992	6992	6992	6992	7137	7137	6992	6992	7137	7137	7137	7137	6992	6992	6992	0	0	0	0	0	0	0	0	0	0	0	7444	7444	7444	0	0	0	0	7137	7137	7287	7287	7287	7287	7137	7287	7287	7287	7287	7444	7444	7287	7287	7137	7137	6992	6992	6992	6992	6992	6992	6992	6992	6992	6992	6992	6992	6992	6992	7137	7137	7137	7137	7137	7287	7137	7137	7137	7137	7137	7137	7137	7137	7287	7137	7137	7137	7137	7287	7287	7287	7137	7287	7287	7287	7287	7137	7137	7137	7137	7137	7137	7137	7137	7137	7137	7137	7137	0	0	0	0	0	0	3698	3698	3698	3698	3698	3698	3659	3659	3659	3659	3698	3621	3698	3659	3659	3659	3698	3698	3698	3698	3698	3698	3698	3698	0	0	0	7137	6992	7137	7137	7137	7137	7137	7137	7137	7137	7137	7287	7287	7137	7137	7287	7287	7287	7287	7287	7287	7287	7287	7137	7137	7287	7287	7287	7287	7287	7287	7287	7287	7444	7444	7444	7287	7287	7287	7287	7287	7287	7287	7287	7137	7137	7137	7137	7137	7137	7137	6992	7137	7137	7137	7137	0	0	0	0	6992	7287	7287	6992	7137	7287	7137	7287	7287	7137	7137	7137	7287	7137	7137	7137	7137	7137	7137	6992	6992	7137	6992	6992	6992	6992	6992	6992	6853	6853	6853	6853	6853	0	0	0	0	0	0	7287	7137	7137	7137	7137	7137	6992	6992	6992	7137	7137	7137	7137	0	0	0	6992	6992	6992	6992	7137	6992	7137	7137	7137	6992	7137	7137	7137	7287	7287	7287	7287	7287	7287	7137	7137	7137	7287	7137	7137	7287	7287	7287	7287	7287	7137	7137	7137	7137	7137	7137	7287	7287	7444	7444	7444	7287	7287	7287	0	7137	7287	7137	7137	7137	7137	7287	7287	0	0	0	0	7444	7608	7608	7444	7444	7444	7287	7287	7287	7137	7137	7137	7137	7137	0	0	0	0	0	0	0	0	7444	7444	7444	7444	7444	7608	7608	7608	7444	7608	7608	7608	7779	7779	7959	7959	8146	7959	7959	8146	8146	7444	7444	7444	0	0	0	0	0	0	0	0	0	0	0	0	0	0	0	0	0	0	7444	7444	7287	7287	7287	7444	7608	7608	7444	0	0	0	0	0	0	0	0	0	0	0	0	0	0	0	0	0	0	0	0	0	0	0	0	0	0	0	0	0	0	0	0	0	0	0	0	0	0	0	0	0	0	0	0	0	0	0	2570	2570	2589	2589	2589	2532	2532	2551	2532	2532	0	0	0	0	0	0	0	0	0	0	0	0	0	0	0	0	0	0	0	0	0	0	0	0	0	0	0	0	0	0	0	0	0	0	0	0	0
0	0	0	0	843	845	850	850	856	858	860	862	865	867	867	875	875	880	882	884	887	887	894	896	901	903	903	903	913	915	920	920	925	930	932	935	942	942	945	948	950	953	958	958	961	961	961	972	972	1020	1020	1023	1026	1030	1026	1023	1023	1026	1030	1033	1033	1039	1042	1042	1042	1045	1045	1045	1048	1055	1058	1064	1064	1068	1071	1074	1081	1095	1105	1113	1113	0	0	0	1390	1396	1402	1396	1396	1396	1402	1402	1402	1402	1407	1413	1413	1419	1413	1419	1413	1419	1413	1413	1396	1402	1396	1407	1402	1402	1396	1407	1402	1396	1396	1402	1402	1402	1402	1402	1413	1413	1413	1407	1407	1407	1407	1407	1402	1402	1402	1407	1413	1413	1431	1449	1449	1449	1449	1449	1449	1449	0	0	0	0	0	7608	7608	7608	7444	7444	7608	7287	7444	7444	7444	7444	7444	7444	7444	7287	7137	7137	7287	6992	6992	6992	7137	7137	7137	6992	6992	6992	6992	6992	7137	6992	6992	6992	0	0	0	0	0	0	0	0	7287	7287	7444	7287	7287	7287	0	0	0	0	7137	7137	7287	7137	7287	7287	7137	7287	7287	7287	7444	7287	7444	7287	7287	7137	7137	6992	6992	6992	6992	6992	6992	6992	7137	6992	6992	6992	6992	6992	6992	7137	7137	7137	7137	7137	7137	7137	7137	7137	7137	7137	7137	6992	6992	7137	7137	7137	7137	7137	7137	7137	7287	7287	7287	7287	7287	7137	7137	7287	7287	7287	7287	7137	7287	7287	7287	7287	7287	7287	0	0	0	0	0	0	3698	3698	3698	3698	3698	3698	3659	3659	3698	3698	3659	3621	3621	3659	3659	3698	3698	3698	3698	3698	3659	3659	3698	0	0	0	0	7137	6992	6992	6992	6992	7137	7137	7137	7137	7137	7137	7137	7287	7137	7137	7287	7287	7287	7287	7287	7287	7287	7287	7444	7137	7287	7287	7287	7287	7287	7287	7287	7287	7444	7444	7287	7287	7287	7287	7287	7287	7137	7137	7137	7137	7287	7287	7287	7287	7287	7287	7137	7287	7137	7137	7137	0	0	0	0	0	7287	7287	7287	7137	7287	7287	7287	7287	7137	7137	7287	7287	7287	7137	7137	7137	7137	7137	7137	7137	7137	7137	7137	6992	7137	7137	7137	6992	6992	6853	6853	0	0	0	0	0	0	0	7287	7137	7137	7137	7137	7137	6992	6992	6992	7137	7137	7137	0	0	0	0	6992	6992	6992	6992	7137	6992	7137	7137	7137	7137	7137	7287	7287	7287	7287	7287	7287	7287	7287	7137	7137	7287	7287	7287	7287	7287	7287	7287	7287	7287	7287	7137	7137	7137	7137	7137	7287	7287	7444	7444	7444	7287	7287	7287	7444	7287	7287	7137	7137	7137	7287	7287	7287	7444	7444	0	0	7444	7444	7444	7444	7444	7444	7287	7287	7287	7137	7137	7137	7287	7287	7287	0	0	0	0	0	0	0	7444	7444	0	7444	7444	7608	7444	7444	7444	7608	7608	7608	7779	7779	7959	7959	8146	7959	7959	7959	7959	0	0	0	0	0	0	0	0	0	0	0	0	0	0	0	0	0	0	0	0	0	0	7444	7287	7287	7444	7444	7444	7608	0	0	0	0	0	0	0	0	0	0	0	0	0	0	0	0	0	0	0	0	0	0	0	0	0	0	0	0	0	0	0	0	0	0	0	0	0	0	0	0	0	0	0	0	0	0	0	0	2589	2570	2589	2589	2589	2532	2532	2514	2514	2514	0	0	0	0	0	0	0	0	0	0	0	0	0	0	0	0	0	0	0	0	0	0	0	0	0	0	0	0	0	0	0	0	0	0	0	0	0
0	0	0	0	845	845	845	852	856	858	860	862	865	867	867	873	873	878	882	884	887	887	891	891	901	903	908	910	913	915	917	920	925	930	932	935	940	942	945	948	950	953	955	958	969	969	969	972	972	972	1036	1036	1039	1036	1033	1033	1030	1033	1033	1036	1036	1042	1042	1045	1045	1045	1045	1045	1048	1055	1058	1064	1064	1068	1071	1074	1081	1081	1081	1081	1113	0	0	0	0	1396	1402	1396	1402	1402	1413	1413	1413	1407	1413	1419	1419	1419	1419	1419	1419	1419	1419	1419	1413	1413	1413	1413	1407	1407	1402	1413	1402	1402	1407	1407	1419	1407	1407	1407	1419	1419	1419	1413	1413	1413	1407	1407	1407	1402	1402	1402	1425	1431	1443	1443	1449	1449	1455	1455	1455	1455	1455	0	0	0	0	0	0	7608	7608	7608	7608	7287	7444	7444	7444	7444	7444	7444	7444	7444	7137	7137	7444	6992	6992	7137	7137	7137	7137	7137	7137	7137	6992	6992	6992	6992	6992	6992	0	0	0	0	0	0	0	7287	7287	7287	7287	7287	7287	7137	7137	0	0	0	0	0	7287	7287	7287	7287	7287	7287	7287	7444	7444	7444	7444	7444	7287	7287	7287	7137	7137	7137	7137	7137	7137	6992	7137	7137	6992	6992	6853	6992	6992	7137	7137	7287	7287	7287	7287	7287	7287	7137	7137	7137	7137	7137	7137	7137	7137	7137	7137	7137	7287	7287	7287	7287	7287	7444	7444	7287	7287	7137	7137	7137	7137	7137	7287	7287	7287	7287	7287	7287	0	0	0	0	0	0	3698	3698	3698	3698	3698	3698	3659	3659	3698	3698	3659	3659	3659	3698	3659	3659	3698	3698	3698	3698	3698	3698	3698	0	0	0	7137	7137	6992	6992	6992	6992	7137	7137	7287	7287	7287	7287	7287	7287	7137	7137	7287	7287	7287	7287	7287	7287	7287	7287	7444	7444	7287	7137	7137	7287	7287	7287	7287	7287	7444	7444	7444	7287	7287	7287	7287	7287	7287	7287	7287	7287	7287	7287	7287	7287	7287	7287	7287	7444	7287	7287	7287	0	0	7608	7608	0	7287	7287	7287	7287	7287	7287	7287	7287	7287	7287	7287	7287	7287	7287	7287	7287	7137	7137	7137	7137	7137	7137	7137	7137	7137	7137	7137	6992	6992	6992	0	0	0	0	0	0	0	7287	7287	7287	7287	7137	7137	7287	7137	7137	7137	0	0	0	0	0	0	7137	7137	7137	6992	6992	7137	7137	7137	7137	7137	7137	7137	7287	7287	7287	7287	7287	7287	7137	7137	7137	7137	7287	7287	7287	7287	7287	7287	7287	7287	7287	7287	7287	7137	7137	7137	7137	7137	7287	7287	7444	7444	7444	7444	7444	7444	7444	7444	7287	7287	7287	7287	7444	7444	7444	7444	0	0	7444	7444	7444	7444	7444	7444	7444	7444	7287	7287	7287	7287	7287	7444	7444	7444	0	0	0	0	0	0	0	0	0	0	7608	7608	7608	7444	7444	7608	7608	7608	7608	7779	7779	7779	7779	8146	8146	7959	7779	7779	0	0	0	0	0	0	0	0	0	0	0	0	0	0	0	0	0	0	0	0	0	0	7287	7287	7444	7444	7444	0	0	0	0	0	0	0	0	0	0	0	0	0	0	0	0	0	0	0	0	0	0	0	0	0	0	0	0	0	0	0	0	0	0	0	0	0	0	0	0	0	0	0	0	0	0	0	0	2589	2589	2570	2589	2589	2570	2532	2532	2514	2514	2514	0	0	0	0	0	0	0	0	0	0	0	0	0	0	0	0	0	0	0	0	0	0	0	0	0	0	0	0	0	0	0	0	0	0	0	0	0
0	0	835	839	839	848	852	854	858	858	860	860	860	865	867	871	871	875	880	884	884	884	891	894	903	903	910	910	915	917	920	920	925	927	930	932	937	940	945	948	950	953	958	961	972	972	972	974	974	974	1039	1042	1042	1039	1036	1033	1033	1036	1036	1048	1045	1048	1048	1048	1048	1048	1048	1048	1052	1058	1064	1064	1068	1068	1071	1074	1081	1081	1078	1078	0	0	0	0	0	0	0	1407	1396	1402	1407	1413	1419	1413	1419	1419	1419	1425	1419	1425	1425	1425	1419	1419	1419	1425	1419	1419	1419	1413	1413	1413	1413	1413	1413	1413	1425	1431	1431	1431	1437	1425	1425	1425	1425	1419	1419	1425	1413	1431	1437	1437	1437	1443	1443	1449	1449	1449	1455	1455	1461	1461	1461	0	0	0	0	0	0	0	7608	7608	7608	7287	7444	7444	7444	7444	7444	7444	7444	7444	7287	7137	7287	6992	6992	7137	7137	7137	7137	7137	7137	7137	6992	6992	7137	7137	7137	6992	0	0	0	0	0	0	0	7287	7287	7444	7444	7287	7287	7287	7287	0	0	0	0	0	7444	7444	7444	7444	7287	7444	7608	7608	7444	7444	7444	7444	7287	7444	7287	7137	7137	7137	7287	7137	7137	7137	7137	7137	7137	7137	6853	6992	6992	7137	7137	7287	7287	7287	7287	7287	7287	7137	7137	7137	7137	7137	7137	7137	7137	7137	7137	7137	7287	7137	7287	7287	7287	7287	7287	7287	7287	7137	7287	7137	7287	7137	7444	7287	7287	7287	7287	7287	0	0	0	0	0	0	0	3738	3698	3698	3698	3698	3698	3698	3698	3698	3659	3621	3621	3621	3659	3659	3698	3698	3698	3698	3698	3698	0	0	0	0	7137	7137	7137	7137	7137	7137	7287	7287	7287	7287	7287	7287	7287	7287	7287	7137	7287	7287	7287	7287	7287	7287	7287	7287	7444	7444	7444	7444	7287	7287	7287	7287	7287	7287	7444	7444	7444	7287	7287	7287	7287	7287	7287	7287	7287	7444	7444	7444	7444	7444	7444	7287	7287	7444	7287	7287	7287	7608	7608	7444	7137	7137	7287	7287	7287	7137	7287	7287	7287	7287	7287	7287	7287	7287	7287	7287	7287	7287	7287	7137	7137	7137	7137	7137	7137	7137	7137	7137	7137	7137	7137	6992	0	0	0	0	0	0	0	7287	7287	7287	7287	7287	7287	7287	7287	7287	7137	0	0	0	0	0	7287	7287	7137	7137	7137	7137	7287	7137	7287	7287	7287	7137	7287	7287	7287	7287	7137	7137	7137	7137	7137	6992	7137	7137	7287	7287	7444	7444	7444	7444	7444	7444	7287	7137	7287	7137	7287	7137	7137	7287	7287	7444	7444	7444	7444	7444	7444	7444	7444	7287	7287	7287	7444	7444	7444	7444	7444	0	0	7444	7444	0	0	7444	7444	7444	7444	7287	7287	7287	7287	7287	7444	7444	7608	7608	0	0	0	0	0	0	0	0	0	7608	7608	7608	7444	7444	7608	7608	7608	7608	7608	7779	7779	7779	8146	8146	7959	7959	7959	0	0	0	0	0	0	0	0	0	0	0	0	0	0	0	0	0	0	0	0	0	0	0	0	7444	7444	0	0	0	0	0	0	0	0	0	0	0	0	0	0	0	0	0	0	0	0	0	0	0	0	0	0	0	0	0	0	0	0	0	0	0	0	0	0	0	0	0	0	0	0	0	0	0	0	0	2589	2589	2570	2570	2589	2570	2532	2532	2514	2514	2514	0	0	0	0	0	0	0	0	0	0	0	0	0	0	0	0	0	0	0	0	0	0	0	0	0	0	0	0	0	0	0	0	0	0	0	0	0
