0	0	0	0	0	854	852	856	858	860	860	865	865	869	873	882	884	887	887	889	891	891	896	898	903	905	905	910	915	917	920	925	930	930	932	935	937	937	940	948	950	958	963	966	966	969	972	977	985	988	994	994	997	1000	1003	1006	1011	1017	1020	1023	1023	1042	1042	1048	1055	1061	1064	1068	1074	1078	1078	1085	1085	1085	1088	1088	1081	1081	0	0	0	0	0	0	0	0	0	5050	4977	4906	4906	4838	4838	4838	4838	4838	4838	4838	4838	4838	4838	4838	4838	4838	4838	4771	4838	4838	4771	4771	4771	4771	4771	4771	4771	4838	4838	4771	4771	4771	4838	4771	4771	4771	4771	4771	4771	4771	4771	4771	4771	4838	4838	4838	4838	4771	4771	4771	4771	4771	4771	4771	4771	4771	4706	4706	4771	4771	4771	4771	4771	8343	8343	8550	8550	8343	8343	8343	8343	8343	8343	8343	8343	8343	8146	8343	8343	8343	8343	8343	8343	8343	8343	8146	8146	8146	8146	7959	7959	7779	7959	7959	7779	7779	7779	7779	7959	7959	7959	7959	8146	8146	8146	8146	8146	8146	8146	7959	7959	7779	7959	7959	7959	7959	7959	7959	7959	7959	7959	8146	8146	8146	8146	8146	8343	8343	8343	8343	8343	8146	8146	8146	8146	8146	7959	7959	8146	8146	8146	8146	8146	8146	8146	8146	8146	8146	8146	8146	8146	8146	8146	7959	7959	7959	7779	7959	7779	7779	0	0	3738	3738	3738	3738	3698	3698	3698	3698	3698	3698	3698	3698	3698	3698	3698	3698	3698	3698	3659	3659	3698	3698	3698	3698	3698	0	0	0	0	0	0	0	0	0	0	0	0	0	0	0	0	0	0	0	0	0	0	0	0	0	0	0	0	0	0	0	0	3698	3738	3738	3738	3738	3738	3738	3738	3779	3738	3738	3738	4838	4838	4838	4838	4838	4771	4771	4771	4771	4771	4771	4771	4771	4771	4771	4771	4771	4771	4771	4771	4771	4771	4771	4771	4706	4771	4771	4706	4771	4771	4771	4771	4771	4771	4771	4771	4771	4771	4771	4771	4771	4771	4771	4771	4771	4771	4706	4706	4771	4771	4771	4771	4771	4771	4771	4771	4771	4706	4706	4706	4706	4706	4706	4706	4706	4706	4643	4706	4706	4706	4706	4706	4706	4706	4643	4643	4643	4581	4521	4463	4521	4463	4521	4521	4521	4521	4521	4521	4521	4521	4521	4521	4521	4521	4521	4521	4521	4521	4521	4521	4521	4521	4521	4521	4521	4521	4521	4581	4581	4581	4581	4581	4581	4581	4643	4643	4643	4643	4706	4643	4643	4643	4643	4643	4643	4643	4643	4643	4643	4643	4643	4643	4706	4706	4643	4643	4706	4643	4643	4643	4643	4643	4643	4643	4643	4643	4643	4643	4643	4643	4643	4643	4643	4643	4643	4643	4643	4581	4581	4581	4581	4581	4643	4581	4643	4643	4643	4643	4643	4643	4643	4643	4643	4643	4706	4643	4643	4643	4643	4643	4706	4706	4771	4838	4906	4906	4906	4906	4906	4838	4838	4838	4838	4838	4838	4838	4838	4838	4838	4838	4838	4838	4838	4838	4838	4838	4838	4838	4838	4906	4838	4838	4838	4838	4838	4838	7959	7779	7779	7779	7959	7959	7959	7959	7959	7959	7959	7959	7959	7959	7779	7779	7779	7959	7779	7959	7959	7779	7779	7959	7959	7959	7959	8146	8146	8146	8146	8146	8146	7959	7959	7959	7959	7959	7959	7959	7959	7959	7959	7779	7779	7779	7779	0	0	0	0	0	0	0	0	2551	2551	2551	2551	2551	2551	2532	2514	2496	2496	2496	2496	2496	2496	0	0	0	0	0	0	0	0	0	0	0	0	0	0	0	0	0	0	0	0	0	0	0	0	0	0	0	0	0	0	0	0	0	0	0	0
0	0	0	0	0	850	852	854	856	860	862	867	867	871	875	878	882	887	887	889	891	891	896	901	903	905	905	908	913	915	917	925	930	930	932	935	937	937	942	948	953	958	961	963	966	969	969	977	985	991	991	994	997	1000	1003	1003	1011	1017	1023	1026	1042	1048	1048	1052	1055	1061	1064	1068	1071	1078	1078	1081	1085	1085	1088	1088	1081	1081	0	0	0	0	0	0	0	0	0	4977	4906	4838	4838	4838	4838	4838	4838	4838	4838	4906	4838	4838	4838	4838	4838	4906	4838	4838	4838	4838	4771	4771	4771	4771	4771	4838	4771	4838	4838	4771	4771	4838	4838	4771	4771	4771	4771	4771	4771	4771	4771	4771	4771	4838	4838	4838	4838	4771	4771	4771	4771	4771	4771	4771	4771	4771	4706	4771	4771	4771	4706	4706	8146	8146	8343	8343	8343	8343	8550	8343	8343	8343	8343	8343	8343	8343	8146	8146	8343	8343	8343	8343	8343	8343	8343	8146	8146	8146	7959	7959	7959	7959	7959	7959	7959	7959	7959	7959	7959	7959	7959	7959	8146	8146	8343	8146	8146	8146	8146	7959	7959	7779	7959	7779	7959	7959	7959	7959	7959	7959	7959	7959	8146	8146	8146	8146	8343	8343	8343	8343	8343	8343	8146	8146	8146	8146	8146	7959	7959	8146	8146	8146	8146	8146	8146	7959	8146	8146	8146	8146	8146	8146	8146	7959	7959	7779	7779	7779	7779	7779	0	0	0	3738	3738	3698	3698	3698	3698	3698	3698	3698	3698	3698	3698	3698	3698	3698	3698	3698	3659	3698	3698	3698	3698	0	0	0	0	0	0	0	0	0	0	0	0	0	0	0	0	0	0	0	0	0	0	0	0	0	0	0	0	0	0	0	0	0	0	3698	3738	3738	3738	3738	3738	3738	3698	3738	3738	3738	4906	4838	4838	4838	4838	4771	4771	4771	4771	4771	4771	4771	4706	4706	4706	4771	4771	4706	4771	4771	4771	4771	4771	4771	4771	4771	4771	4706	4706	4706	4706	4771	4771	4771	4771	4771	4771	4771	4771	4771	4771	4771	4771	4771	4771	4706	4706	4706	4706	4706	4706	4706	4771	4706	4706	4706	4706	4706	4643	4643	4706	4706	4643	4643	4643	4643	4643	4706	4706	4706	4706	4706	4771	4706	4706	4643	4643	4581	4521	4521	4521	4463	4463	4521	4521	4521	4521	4521	4521	4521	4521	4521	4521	4521	4521	4521	4521	4521	4521	4521	4521	4521	4521	4521	4521	4521	4581	4581	4581	4581	4581	4581	4581	4581	4581	4581	4643	4643	4643	4643	4643	4643	4643	4643	4643	4643	4643	4643	4643	4643	4643	4643	4643	4643	4643	4643	4581	4643	4643	4581	4581	4581	4643	4643	4581	4581	4581	4581	4581	4581	4581	4581	4581	4643	4581	4581	4643	4581	4581	4581	4581	4581	4581	4643	4643	4643	4706	4643	4643	4643	4643	4706	4643	4643	4643	4706	4643	4643	4643	4643	4706	4706	4771	4771	4838	4838	4906	4906	4906	4838	4838	4838	4838	4838	4838	4838	4838	4838	4838	4838	4838	4838	4771	4771	4838	4838	4838	4838	4838	4838	4906	4906	4838	4838	4838	4838	4838	7959	7959	7959	7959	7959	7959	7959	8146	8146	7959	7959	7959	7959	7959	7779	7779	7779	7779	7779	7779	7779	7779	7779	7779	7959	7959	8146	8146	8146	8146	8146	8146	8146	7959	7959	7959	7959	7959	7959	7959	7959	7959	7959	7779	7779	7608	7608	7287	7287	0	0	0	0	0	0	2532	2551	2551	2551	2551	2551	2532	2514	2496	2496	2496	2496	2478	2478	0	0	0	0	0	0	0	0	0	0	0	0	0	0	0	0	0	0	0	0	0	0	0	0	0	0	0	0	0	0	0	0	0	0	0	0
0	0	0	0	0	850	850	852	854	858	862	867	869	871	875	875	878	884	887	889	894	894	896	898	903	903	905	908	913	915	920	927	930	930	932	935	935	937	942	948	953	955	963	963	966	972	977	983	983	991	991	991	997	997	1000	1006	1014	1020	1023	1023	1039	1048	1048	1052	1055	1061	1061	1064	1068	1074	1078	1081	1085	1085	1085	1088	1085	1085	0	0	0	0	0	0	0	0	0	4977	4838	4838	4838	4838	4838	4838	4838	4838	4838	4838	4838	4838	4838	4838	4838	4906	4838	4838	4838	4838	4838	4771	4771	4771	4771	4771	4771	4838	4771	4771	4771	4771	4838	4771	4771	4771	4771	4771	4771	4771	4771	4771	4771	4771	4771	4771	4771	4771	4771	4771	4771	4706	4706	4706	4771	4706	4706	4706	4771	4771	4706	4706	8146	8343	8343	8343	8343	8343	8343	8343	8343	8343	8343	8343	8343	8146	8146	8146	8343	8343	8343	8343	8343	8343	8343	8146	8146	7959	7959	7959	7959	7959	7959	8146	7959	8146	7959	7959	7959	7959	7959	8146	8146	8146	8343	8146	7959	7959	7959	7959	7959	7959	7959	7959	7959	7959	7959	7959	7959	7959	7959	8146	8146	8146	8146	8146	8343	8343	8343	8146	8343	8343	8343	8146	8146	8146	8343	8146	8146	8146	8146	8146	8146	8146	8146	7959	8146	8146	8146	8146	8146	8146	8146	7959	7959	7779	7779	7779	7779	7779	0	0	0	3738	3738	3698	3698	3698	3698	3698	3698	3698	3698	3698	3738	3738	3738	3698	3698	3698	3698	3698	3698	0	0	0	0	0	0	0	0	0	0	0	0	0	0	0	0	0	0	0	0	0	0	0	0	0	0	0	0	0	0	0	0	0	0	0	0	0	3738	3738	3738	3738	3698	3738	3698	3698	3738	3698	3659	4838	4838	4838	4771	4771	4771	4771	4771	4771	4771	4771	4771	4771	4706	4706	4706	4706	4706	4706	4771	4771	4771	4771	4771	4771	4771	4771	4706	4706	4706	4771	4771	4771	4771	4771	4771	4771	4771	4771	4771	4771	4771	4771	4771	4706	4706	4643	4581	4581	4581	4643	4643	4643	4643	4643	4643	4643	4643	4643	4643	4643	4643	4643	4643	4643	4643	4643	4643	4706	4706	4706	4706	4706	4706	4643	4643	4581	4521	4521	4521	4463	4463	4521	4521	4521	4521	4521	4521	4521	4521	4521	4521	4521	4521	4521	4521	4521	4521	4521	4521	4521	4521	4521	4521	4521	4521	4581	4581	4581	4581	4581	4521	4521	4581	4581	4581	4581	4581	4643	4643	4643	4643	4643	4643	4643	4643	4643	4643	4581	4581	4581	4581	4581	4581	4581	4581	4581	4581	4581	4581	4581	4581	4581	4521	4521	4521	4521	4581	4581	4581	4581	4581	4643	4643	4581	4643	4581	4581	4581	4581	4581	4581	4643	4643	4643	4643	4643	4643	4643	4643	4643	4643	4643	4643	4643	4643	4643	4643	4643	4706	4771	4771	4838	4838	4906	4906	4906	4906	4906	4906	4906	4906	4838	4838	4838	4838	4838	4771	4771	4771	4771	4771	4771	4838	4838	4838	4838	4838	4838	4906	4838	4838	4838	4838	4838	4838	7959	7959	7959	7959	7959	7959	7959	7959	8146	7959	7959	7959	7959	7959	7959	7779	7779	7779	7779	7779	7779	7779	7779	8146	7959	7959	8146	8146	8146	8146	8146	8146	8146	7959	7959	7959	7959	7959	7959	7959	7959	7959	7959	7779	7779	7608	7608	7137	7137	0	0	0	0	0	0	2532	2551	2551	2551	2551	2551	2532	2514	2514	2496	2496	2496	2478	2478	0	0	0	0	0	0	0	0	0	0	0	0	0	0	0	0	0	0	0	0	0	0	0	0	0	0	0	0	0	0	0	0	0	0	0	0
0	0	0	0	0	850	848	850	852	858	858	869	869	871	873	875	878	882	887	889	894	894	898	901	903	903	905	905	913	915	920	925	930	930	930	935	937	940	942	945	948	948	963	966	974	977	977	983	985	988	988	991	991	994	1000	1003	1020	1023	1026	1030	1036	1042	1045	1052	1055	1061	1061	1064	1068	1074	1078	1081	1081	1085	1085	1088	1088	1085	1085	0	0	0	0	0	0	0	0	4977	4838	4771	4838	4771	4838	4771	4838	4838	4838	4838	4838	4838	4838	4906	4906	4906	4906	4838	4838	4838	4838	4771	4771	4771	4771	4838	4838	4838	4838	4771	4771	4771	4838	4771	4771	4771	4771	4771	4771	4771	4771	4771	4771	4771	4838	4771	4771	4771	4771	4771	4706	4706	4706	4771	4771	4706	4706	4706	4706	4771	4706	4706	8146	8146	8343	8343	8343	8343	8343	8343	8343	8343	8343	8343	8343	8146	8146	8343	8343	8343	8343	8343	8343	8343	8146	8146	8146	7959	7959	7959	7959	8146	8146	8146	8146	8146	8146	8146	8146	8146	8146	8146	8146	8146	8146	8146	7959	8146	8146	8146	8146	8146	8146	7959	7959	7959	7959	7959	7959	7779	7959	7959	8146	8146	8146	8146	8146	8343	8146	8146	8146	8343	8343	8146	8146	8146	8146	8146	7959	8146	8146	7959	8146	7959	8146	7959	8146	8146	8146	8146	8146	8146	8146	7959	7959	7779	7779	7779	7779	7779	0	0	0	3738	3698	3698	3698	3698	3698	3698	3698	3698	3698	3738	3698	3738	3738	3738	3698	3698	3698	3698	0	0	0	0	0	0	0	0	0	0	0	0	0	0	0	0	0	0	0	0	0	0	0	0	0	0	0	0	0	0	0	0	0	0	0	0	0	3738	3738	3738	3738	3698	3698	3698	3698	3738	3738	3698	3698	4838	4838	4771	4771	4771	4771	4771	4771	4771	4771	4771	4771	4706	4706	4706	4706	4706	4706	4706	4771	4771	4771	4771	4771	4771	4771	4771	4706	4706	4706	4771	4771	4771	4771	4771	4771	4771	4771	4771	4771	4771	4771	4771	4706	4643	4643	4581	4581	4581	4581	4581	4581	4581	4581	4581	4581	4581	4581	4581	4581	4643	4581	4581	4581	4581	4581	4581	4643	4643	4643	4706	4706	4643	4643	4581	4581	4581	4521	4521	4521	4521	4521	4521	4521	4521	4521	4521	4521	4521	4521	4521	4521	4521	4521	4521	4521	4521	4521	4521	4521	4521	4521	4521	4521	4521	4521	4521	4581	4581	4521	4521	4521	4521	4521	4581	4581	4581	4581	4581	4581	4581	4581	4581	4581	4581	4643	4643	4581	4581	4581	4521	4521	4521	4521	4521	4521	4581	4521	4521	4521	4463	4521	4521	4521	4521	4521	4521	4521	4521	4581	4581	4581	4643	4581	4581	4643	4581	4581	4581	4581	4581	4581	4643	4581	4643	4643	4643	4643	4643	4643	4643	4643	4643	4643	4643	4643	4643	4643	4643	4706	4706	4771	4838	4838	4906	4977	4906	4906	4906	4906	4906	4906	4906	4906	4838	4838	4838	4838	4771	4771	4771	4771	4771	4838	4838	4838	4838	4838	4838	4906	4906	4906	4838	4838	4838	4838	7959	7959	7959	7959	7959	7959	7959	7959	8146	7959	7959	7959	7959	7959	7959	7779	7779	7959	7959	7959	7779	7959	7779	8146	7959	8146	8146	8146	8146	8146	8146	8146	8146	7959	7779	7959	7959	7959	7959	7959	7959	7959	7779	7608	7287	7287	7287	6853	6853	0	0	0	0	0	0	0	2551	2551	2551	2551	2551	2551	2514	2496	2496	2496	2478	2478	2478	0	0	0	0	0	0	0	0	0	0	0	0	0	0	0	0	0	0	0	0	0	0	0	0	0	0	0	0	0	0	0	0	0	0	0	0
0	0	0	0	0	848	848	850	852	858	860	867	867	869	873	873	878	882	884	887	894	894	901	903	903	903	905	905	910	915	922	925	927	927	930	937	940	942	942	945	948	958	966	969	974	977	977	983	985	988	988	991	994	994	1003	1008	1020	1023	1026	1030	1033	1039	1039	1048	1055	1061	1064	1068	1071	1074	1078	1078	1081	1085	1085	1091	1091	1091	1085	0	0	0	0	0	0	0	0	4771	4771	4771	4771	4771	4771	4771	4771	4771	4838	4838	4838	4838	4838	4906	4906	4906	4906	4838	4838	4838	4838	4771	4771	4771	4771	4771	4771	4771	4771	4771	4771	4771	4771	4771	4771	4771	4838	4838	4771	4771	4771	4771	4771	4838	4771	4771	4771	4771	4771	4771	4706	4706	4706	4706	4706	4706	4706	4706	4706	4771	4771	7959	8146	8343	8343	8343	8343	8343	8343	8343	8146	8343	8146	8146	8146	8146	8146	8146	8343	8146	8343	8343	8343	8343	8146	8146	8146	8146	7959	7959	8146	8146	8343	8146	8146	8146	8146	8146	8146	8146	7959	7959	7959	7959	8146	8146	8146	8146	8146	8146	8146	8146	8146	8146	7959	7959	7959	7779	7779	7779	7959	7959	8146	8146	7959	7959	8146	8146	8146	8146	8146	8343	8343	8146	8146	8146	8146	8146	8146	8146	8146	8146	8146	7959	8146	7959	7959	7959	8146	8146	8146	8146	7959	7959	7959	7779	7779	7779	7779	7779	0	0	3698	3698	3698	3698	3698	3698	3698	3698	3698	3698	3698	3698	3698	3738	3738	3738	3698	3698	0	0	0	0	0	0	0	0	0	0	0	0	0	0	0	0	0	0	0	0	0	0	0	0	0	0	0	0	0	0	0	0	0	0	0	0	0	0	0	3738	3698	3738	3698	3698	3698	3698	3698	3738	3738	3698	3698	4838	4838	4771	4771	4771	4771	4771	4771	4771	4771	4771	4706	4706	4706	4706	4706	4706	4706	4706	4771	4771	4771	4771	4771	4771	4771	4706	4706	4706	4706	4706	4706	4771	4706	4771	4771	4771	4771	4706	4771	4771	4771	4706	4643	4643	4581	4581	4581	4581	4521	4581	4581	4581	4581	4581	4581	4581	4581	4581	4581	4581	4581	4581	4581	4581	4581	4581	4581	4643	4643	4643	4706	4643	4643	4581	4581	4581	4521	4521	4521	4521	4521	4521	4521	4521	4521	4521	4521	4521	4521	4521	4521	4521	4521	4521	4521	4521	4521	4521	4521	4521	4521	4521	4581	4521	4521	4521	4521	4521	4521	4521	4463	4521	4521	4521	4581	4581	4581	4581	4581	4581	4581	4581	4581	4581	4581	4581	4581	4581	4521	4521	4521	4521	4521	4521	4521	4463	4406	4406	4463	4463	4463	4521	4463	4463	4521	4521	4581	4581	4581	4581	4581	4643	4643	4581	4643	4581	4581	4581	4581	4581	4643	4643	4643	4643	4643	4643	4581	4581	4581	4643	4643	4643	4643	4643	4643	4643	4643	4643	4706	4706	4771	4771	4838	4838	4977	4977	4977	4977	4906	4906	4906	4906	4906	4838	4838	4838	4838	4838	4771	4771	4771	4771	4838	4771	4838	4838	4838	4838	4906	4906	4906	4838	4838	4838	4838	7959	7959	7959	7959	7959	7959	7959	7959	8146	7959	7959	7959	7959	7779	7959	7779	7779	7779	7779	7779	7779	7779	7779	8146	7959	8146	8146	8146	8146	8146	8146	8146	8146	7959	7959	7959	7959	7959	7959	7959	7959	7959	7779	7779	6853	6468	6349	6468	6349	6349	0	0	0	0	0	0	2551	2551	2551	2551	2551	2532	2514	2514	2496	2496	2478	2478	2478	0	0	0	0	0	0	0	0	0	0	0	0	0	0	0	0	0	0	0	0	0	0	0	0	0	0	0	0	0	0	0	0	0	0	0	0
0	0	0	0	0	845	845	848	852	858	862	867	867	869	871	873	880	882	884	887	891	894	901	901	903	903	905	905	908	915	922	925	927	930	930	937	940	940	942	945	945	961	966	969	972	977	977	983	985	985	988	988	994	994	1003	1017	1023	1023	1030	1030	1033	1036	1039	1045	1055	1061	1064	1068	1071	1074	1074	1078	1081	1085	1088	1091	1095	1098	1098	0	0	0	0	0	0	0	0	4771	4771	4771	4771	4771	4771	4771	4771	4838	4838	4838	4838	4838	4838	4838	4906	4906	4906	4838	4838	4838	4838	4771	4771	4771	4771	4771	4771	4771	4771	4771	4771	4771	4771	4838	4838	4838	4838	4838	4838	4771	4838	4771	4771	4771	4771	4771	4771	4771	4771	4771	4706	4706	4706	4706	4706	4706	4706	4706	4706	4706	4706	8146	8343	8343	8343	8343	8343	8343	8343	8343	8343	8343	8146	8146	8146	8146	8146	8146	8146	8146	8146	8343	8343	8343	8146	8146	8146	8146	8146	8146	8146	8146	8343	8343	8146	8146	8146	8146	8146	8146	7959	7959	7959	8146	8146	8146	8146	8146	8146	8146	8146	7959	8146	7959	7959	7959	7959	7779	7779	7779	7959	7959	7959	8146	7959	7959	8146	8146	8146	8146	8146	8146	8343	8146	8146	8146	8146	8146	7959	8146	8146	7959	8146	7959	7959	7959	8146	7959	8146	8146	8146	7959	7959	7959	7959	7779	7779	7779	7779	7779	0	0	3698	3698	3698	3698	3698	3698	3698	3698	3698	3698	3698	3698	3698	3698	3738	3738	3738	3698	0	0	0	0	0	0	0	0	0	0	0	0	0	0	0	0	0	0	0	0	0	0	0	0	0	0	0	0	0	0	0	0	0	0	0	0	0	0	3738	3738	3698	3738	3698	3698	3698	3698	3698	3738	3738	3698	3698	4838	4771	4771	4771	4771	4771	4771	4771	4771	4771	4771	4706	4706	4706	4706	4706	4706	4706	4706	4771	4771	4771	4771	4771	4771	4771	4771	4706	4706	4706	4706	4706	4706	4706	4706	4706	4706	4706	4706	4771	4706	4706	4706	4643	4581	4581	4581	4521	4521	4521	4521	4521	4521	4521	4521	4581	4581	4581	4521	4581	4581	4581	4521	4521	4521	4521	4581	4581	4581	4643	4643	4643	4581	4581	4581	4521	4521	4521	4521	4521	4521	4521	4521	4521	4521	4521	4521	4521	4521	4521	4521	4521	4581	4521	4521	4521	4521	4463	4521	4521	4521	4521	4521	4581	4521	4521	4521	4521	4521	4463	4463	4463	4463	4521	4521	4521	4521	4521	4521	4521	4521	4521	4521	4521	4521	4521	4581	4521	4521	4521	4463	4463	4463	4463	4406	4406	4463	4463	4406	4406	4406	4463	4463	4463	4463	4521	4521	4581	4581	4581	4581	4581	4643	4643	4581	4643	4581	4581	4581	4581	4581	4643	4643	4643	4643	4643	4643	4643	4643	4643	4643	4643	4643	4581	4643	4643	4643	4581	4521	4643	4643	4771	4838	4906	4906	4977	4977	4977	4977	4977	4977	4977	4977	4906	4906	4838	4838	4838	4838	4838	4771	4771	4771	4771	4838	4838	4838	4838	4838	4906	4906	4906	4906	4906	4906	7959	7959	7959	7959	7959	7959	7959	7959	7959	7959	7959	7959	7959	7779	7779	7779	7779	7779	7779	7779	7779	7779	7779	7779	8146	8146	8146	8146	8146	8146	8146	8146	8146	8146	7959	7959	7959	7959	7959	7959	7959	7959	7779	6853	6592	6468	6468	6349	6349	6349	6349	0	0	0	0	0	0	2551	2570	2570	2551	2551	2551	2532	2496	2496	2496	2478	2478	2478	0	0	0	0	0	0	0	0	0	0	0	0	0	0	0	0	0	0	0	0	0	0	0	0	0	0	0	0	0	0	0	0	0	0	0	0
0	0	0	0	0	845	845	845	850	858	860	867	867	869	871	875	878	880	882	884	887	887	903	903	903	905	905	905	908	913	920	925	927	930	932	937	937	940	942	948	945	961	966	969	972	974	977	983	985	985	988	991	994	997	1008	1017	1020	1023	1030	1030	1033	1036	1039	1045	1055	1061	1064	1068	1071	1074	1074	1078	1081	1081	1088	1091	1098	1098	1102	1102	0	0	0	0	0	0	0	0	4771	4771	4771	4771	4771	4771	4771	4838	4838	4838	4838	4838	4838	4838	4838	4906	4906	4838	4771	4771	4771	4771	4771	4771	4771	4771	4771	4771	4771	4771	4771	4771	4771	4838	4838	4838	4838	4838	4838	4771	4771	4771	4771	4838	4771	4771	4771	4771	4771	4771	4706	4706	4706	4706	4706	4706	4706	4706	4706	4706	4706	8146	8343	8343	8343	8343	8343	8343	8343	8343	8343	8343	8146	8146	8343	8146	8146	8146	8146	8146	8146	8343	8146	8146	8146	8146	8146	8146	8146	8146	8146	8343	8343	8343	8343	8343	8146	8146	8146	8146	7959	7959	7959	8146	8146	8146	8146	8146	8146	8146	8146	7959	8146	7959	7959	7959	7959	7779	7779	7779	7959	7959	7959	8146	7959	7959	8146	8146	8146	7959	8146	8343	8343	8146	8146	8146	8146	8146	8146	8146	7959	7959	8146	7959	7959	7959	7959	8146	8146	8146	7959	7959	7959	7959	7959	7959	7779	7779	7779	0	0	0	3698	3698	3698	3698	3698	3698	3698	3698	3698	3698	3698	3698	3698	3738	3738	3698	3698	0	0	0	0	0	0	0	0	0	0	0	0	0	0	0	0	0	0	0	0	0	0	0	0	0	0	0	0	0	0	0	0	0	0	0	0	0	0	3738	3738	3738	3738	3738	3698	3698	3698	3698	3698	3738	3738	3698	3698	4838	4771	4771	4771	4771	4771	4771	4771	4771	4771	4771	4706	4706	4706	4706	4706	4706	4706	4706	4771	4771	4771	4771	4771	4771	4771	4771	4706	4706	4706	4706	4706	4706	4706	4706	4771	4706	4706	4706	4706	4771	4706	4706	4581	4581	4581	4521	4521	4521	4521	4521	4521	4521	4521	4521	4521	4521	4521	4521	4521	4521	4521	4521	4521	4521	4521	4521	4521	4581	4581	4581	4581	4581	4581	4521	4521	4521	4463	4521	4521	4521	4521	4521	4521	4521	4521	4521	4521	4521	4521	4581	4581	4581	4581	4521	4521	4521	4521	4521	4521	4521	4521	4521	4521	4521	4521	4463	4463	4463	4463	4463	4406	4463	4463	4521	4463	4521	4521	4521	4463	4463	4463	4463	4463	4463	4463	4521	4406	4406	4406	4406	4406	4406	4406	4406	4406	4406	4406	4406	4406	4406	4406	4463	4406	4463	4463	4521	4521	4521	4581	4581	4581	4643	4643	4581	4643	4581	4581	4581	4581	4581	4581	4643	4581	4643	4643	4643	4643	4643	4643	4643	4643	4581	4581	4581	4581	4581	4521	4521	4581	4706	4771	4838	4906	4906	4977	4977	4977	4977	4906	4906	4977	4977	4906	4906	4838	4838	4838	4838	4838	4771	4771	4771	4838	4838	4838	4838	4838	4838	4906	4906	4906	4906	4906	7959	7959	7779	7959	7959	7959	7959	7959	7959	7959	7959	7959	7959	7779	7779	7779	7779	7779	7779	7779	7779	7779	7779	7779	7779	8146	8146	8146	8146	8146	8146	8146	8146	8146	8146	7959	7959	7959	7959	7959	7959	7959	7779	7779	6468	6468	6349	6349	6349	6349	6235	6235	0	0	0	0	0	0	0	2570	2570	2551	2551	2551	2551	2514	2496	2478	2478	2478	2478	0	0	0	0	0	0	0	0	0	0	0	0	0	0	0	0	0	0	0	0	0	0	0	0	0	0	0	0	0	0	0	0	0	0	0	0
0	0	0	0	0	843	845	845	845	856	860	865	867	869	869	873	878	880	882	884	887	889	901	903	903	903	905	905	908	913	920	925	927	930	935	940	940	942	945	945	948	958	963	969	969	974	980	985	985	988	988	991	997	1000	1008	1017	1020	1026	1030	1030	1033	1036	1036	1045	1055	1061	1064	1068	1071	1071	1074	1078	1081	1085	1088	1095	1098	1098	1102	1102	0	0	0	0	0	0	0	0	4706	4771	4771	4771	4771	4771	4771	4838	4838	4838	4838	4838	4771	4771	4771	4771	4838	4771	4771	4771	4771	4771	4771	4771	4838	4771	4838	4771	4771	4771	4771	4771	4771	4838	4771	4838	4838	4838	4838	4771	4771	4771	4771	4838	4771	4771	4771	4771	4771	4771	4706	4706	4706	4706	4706	4706	4706	4706	4706	4771	4771	8343	8343	8343	8343	8343	8343	8343	8343	8343	8343	8146	8146	8146	8146	8146	8146	8146	8146	8343	8343	8343	8146	8146	8146	8146	8146	8146	8146	8146	8343	8343	8343	8343	8343	8343	8343	8146	8146	8146	8146	7959	7959	8146	8146	8146	8146	8146	8146	8146	8146	8146	8146	7959	7959	7959	7959	7779	7779	7779	7959	7959	7959	8146	7959	7959	8146	8146	8146	7959	8146	8146	8146	8146	8146	8146	8146	8146	8146	8146	8146	7959	8146	7959	7959	7959	7959	7959	7959	7959	7959	7959	7959	7959	7959	7959	7959	7959	7959	0	0	0	3698	3698	3698	3698	3698	3698	3698	3698	3698	3698	3698	3698	3698	3738	3738	3738	3738	0	0	0	0	0	0	0	0	0	0	0	0	0	0	0	0	0	0	0	0	0	0	0	0	0	0	0	0	0	3698	3698	3698	0	0	0	0	0	0	3738	3738	3738	3738	3738	3698	3698	3698	3698	3698	3738	3738	3698	3698	4838	4771	4771	4706	4771	4771	4771	4771	4771	4771	4771	4706	4771	4706	4706	4706	4706	4706	4706	4771	4771	4771	4771	4771	4706	4706	4771	4706	4706	4771	4771	4706	4706	4706	4706	4771	4771	4771	4771	4771	4706	4706	4706	4581	4581	4521	4521	4521	4521	4521	4521	4521	4521	4521	4521	4521	4521	4521	4521	4521	4521	4521	4521	4463	4521	4463	4521	4521	4521	4521	4521	4521	4521	4521	4521	4463	4463	4463	4463	4521	4521	4521	4521	4521	4521	4521	4521	4521	4521	4521	4581	4581	4581	4581	4521	4521	4521	4521	4521	4521	4521	4521	4521	4521	4521	4521	4463	4463	4463	4406	4406	4406	4406	4463	4463	4463	4463	4463	4463	4463	4463	4463	4463	4463	4463	4406	4406	4406	4406	4406	4350	4406	4406	4406	4350	4350	4350	4350	4350	4350	4350	4350	4406	4406	4406	4463	4521	4521	4521	4581	4581	4643	4643	4643	4581	4643	4581	4581	4581	4581	4581	4581	4581	4581	4581	4581	4581	4581	4581	4581	4581	4581	4581	4581	4581	4581	4521	4521	4521	4581	4706	4771	4906	4906	4977	4977	4977	4977	4906	4906	4906	4977	4977	4977	4906	4838	4838	4838	4838	4838	4771	4771	4771	4838	4838	4838	4838	4838	4838	4906	4838	4906	4838	4838	7959	7959	7959	7959	7959	7959	7959	7959	7959	7959	7959	7959	7959	7959	7959	7779	7779	7779	7779	7779	7779	7779	7779	7779	7779	8146	8146	8146	8146	8146	8146	8146	8146	8146	8146	7959	7959	7959	7959	7959	7959	7959	7779	6592	6349	6349	6349	6349	6349	6235	6235	6235	0	0	0	0	0	0	0	2570	2570	2551	2551	2532	2532	2496	2496	2478	2478	2460	2460	0	0	0	0	0	0	0	0	0	0	0	0	0	0	0	0	0	0	0	0	0	0	0	0	0	0	0	0	0	0	0	0	0	0	0	0
0	0	0	0	0	843	843	845	845	858	860	862	865	869	871	875	880	882	882	887	889	891	901	901	903	905	905	908	908	915	920	925	927	932	940	940	940	942	945	945	945	948	966	969	969	974	980	983	985	988	988	991	997	1003	1011	1017	1023	1026	1030	1033	1033	1036	1039	1045	1055	1061	1064	1071	1071	1071	1074	1078	1081	1081	1088	1095	1091	1091	1102	1102	0	0	0	0	0	0	0	0	4771	4771	4771	4771	4771	4771	4771	4771	4771	4771	4771	4771	4771	4771	4771	4838	4838	4771	4838	4838	4771	4771	4771	4771	4838	4771	4838	4771	4771	4771	4771	4771	4771	4838	4838	4838	4838	4838	4771	4771	4771	4771	4771	4771	4771	4771	4771	4771	4771	4771	4706	4706	4706	4706	4706	4706	4706	4706	4771	4771	4771	8146	8343	8343	8343	8343	8343	8343	8343	8343	8343	8343	8146	8146	8146	8146	8343	8146	8146	8146	8343	8343	8146	8146	7959	8146	8146	8146	8146	8146	8146	8146	8343	8343	8146	8146	8146	8146	8146	8146	7959	7959	7959	8146	8146	8146	8146	8146	8146	8146	8146	8146	8146	8146	7959	7959	7959	7779	7779	7779	7959	7959	7959	7959	7959	7959	8146	8146	8146	7959	8146	8146	8146	8146	8146	8146	8146	8146	8146	8146	7959	7959	7959	7959	7959	7959	8146	8146	8146	7959	7959	7959	8146	8146	8146	8146	8146	8146	8146	0	0	0	3698	3698	3698	3698	3698	3698	3698	3698	3698	3698	3698	3698	3698	3698	3698	3738	3738	0	0	0	0	0	0	0	0	0	0	0	0	0	0	0	0	0	0	0	0	0	0	0	0	0	0	0	0	3738	3698	3698	3698	3698	3698	3738	3738	3738	3738	3738	3738	3738	3738	3738	3698	3698	3698	3698	3698	3738	3738	3698	3621	4771	4771	4771	4771	4771	4771	4771	4771	4771	4771	4771	4771	4771	4706	4706	4706	4706	4706	4706	4706	4706	4706	4706	4706	4706	4771	4771	4771	4706	4771	4771	4771	4771	4771	4771	4771	4771	4771	4771	4771	4706	4706	4643	4581	4581	4521	4521	4521	4521	4463	4463	4463	4463	4521	4463	4521	4521	4521	4521	4521	4521	4521	4463	4463	4463	4463	4463	4521	4521	4521	4463	4463	4463	4463	4406	4406	4406	4406	4463	4521	4521	4521	4521	4521	4521	4521	4521	4521	4521	4521	4581	4581	4581	4521	4521	4521	4521	4521	4521	4521	4521	4521	4521	4521	4521	4521	4463	4406	4406	4406	4406	4406	4406	4406	4463	4463	4463	4463	4463	4406	4406	4406	4463	4406	4406	4406	4406	4406	4406	4406	4406	4406	4406	4406	4406	4350	4350	4350	4350	4350	4350	4350	4350	4406	4406	4406	4463	4521	4521	4521	4581	4581	4643	4643	4581	4581	4581	4581	4581	4581	4521	4581	4581	4581	4581	4581	4581	4581	4581	4581	4581	4581	4581	4581	4581	4581	4521	4521	4463	4521	4581	4771	4838	4906	4977	4977	4977	4977	4977	4906	4906	4906	4906	4906	4906	4838	4838	4838	4838	4838	4771	4771	4771	4838	4838	4838	4838	4838	4838	4906	4906	4906	4906	4906	7959	7779	7959	7779	7779	7959	7959	7959	7959	7959	7959	7959	7959	7779	7779	7779	7779	7779	7779	7779	7779	7779	7779	7779	7779	8146	8146	8146	8146	8146	8146	8146	7959	8146	8146	7959	7959	8146	8146	8146	8146	7959	7959	6349	6349	6235	6235	6349	6235	6235	6235	6235	6235	0	0	0	0	0	0	2570	2570	2551	2551	2532	2496	2496	2496	2478	2478	2460	2460	0	0	0	0	0	0	0	0	0	0	0	0	0	0	0	0	0	0	0	0	0	0	0	0	0	0	0	0	0	0	0	0	0	0	0	0
0	0	0	0	0	845	845	848	852	858	860	862	865	869	871	882	884	884	884	887	889	889	901	901	903	905	908	908	908	915	922	925	927	935	940	942	942	942	945	945	948	966	966	966	969	974	977	983	983	985	988	991	997	1008	1011	1017	1023	1026	1033	1033	1036	1036	1039	1045	1055	1061	1064	1071	1071	1071	1074	1078	1081	1081	1088	1091	1095	1091	1098	1098	0	0	0	0	0	0	0	0	4771	4771	4771	4771	4771	4771	4771	4771	4771	4771	4771	4771	4771	4771	4771	4838	4771	4771	4771	4771	4771	4771	4771	4771	4838	4771	4838	4771	4771	4771	4771	4771	4771	4838	4771	4838	4838	4771	4771	4771	4771	4771	4771	4771	4771	4771	4706	4771	4771	4706	4706	4706	4706	4706	4706	4706	4706	4706	4771	4771	4706	4706	8343	8343	8343	8343	8343	8343	8550	8343	8343	8343	8146	8146	8146	8146	8146	8146	8146	8343	8343	8146	8146	8146	8146	8146	8146	8343	8343	8343	8343	8146	8343	8146	7959	8146	8146	8146	8146	7959	7959	7959	7959	8146	8146	8146	8146	8146	8146	8146	8146	8146	8146	8146	8146	7959	7959	7959	7779	7779	7959	7959	7959	7959	8146	7959	7959	8146	7959	7959	8146	7959	8146	8146	8146	7959	7959	7959	7959	7959	7959	7959	7959	8146	8146	7959	7959	8146	7959	7959	7959	7959	7959	8146	8146	8146	8146	8146	8146	8146	0	0	3659	3698	3698	3698	3698	3698	3698	3698	3698	3698	3738	3698	3698	3738	3738	3738	3738	0	0	0	0	0	0	0	0	0	0	0	0	0	0	0	0	0	0	0	0	0	0	0	0	0	0	0	0	3738	3698	3698	3698	3698	3698	3698	3738	3738	3738	3738	3738	3738	3738	3738	3698	3698	3698	3698	3698	3738	3738	3698	3698	4771	4771	4771	4771	4771	4771	4771	4771	4771	4771	4771	4706	4706	4706	4706	4706	4706	4706	4706	4706	4706	4706	4706	4771	4706	4771	4771	4771	4771	4771	4771	4771	4771	4771	4771	4771	4706	4706	4706	4706	4706	4643	4643	4581	4581	4521	4521	4521	4521	4463	4463	4463	4463	4463	4463	4463	4463	4463	4463	4463	4463	4463	4463	4463	4463	4463	4463	4406	4406	4463	4406	4463	4406	4463	4406	4406	4406	4406	4463	4521	4521	4521	4521	4463	4521	4521	4521	4521	4521	4521	4521	4521	4521	4521	4521	4521	4463	4463	4521	4521	4521	4521	4521	4521	4463	4463	4406	4406	4406	4406	4406	4406	4406	4406	4406	4406	4463	4406	4406	4406	4406	4463	4463	4406	4406	4406	4406	4406	4406	4406	4406	4406	4406	4406	4350	4350	4350	4406	4350	4350	4350	4350	4350	4406	4406	4406	4463	4521	4521	4521	4581	4581	4581	4643	4581	4581	4581	4581	4581	4521	4521	4521	4463	4521	4521	4521	4581	4581	4581	4581	4581	4581	4581	4581	4581	4581	4521	4521	4521	4521	4643	4706	4838	4838	4906	4906	4906	4906	4906	4906	4906	4906	4906	4906	4906	4838	4838	4838	4838	4838	4771	4771	4771	4838	4838	4838	4838	4838	4838	4838	4838	4838	4906	7959	7959	7959	7959	7779	7779	7959	7959	7959	7959	7959	7959	7959	7959	7779	7779	7779	7779	7779	7779	7779	7779	7779	7779	7779	7779	8146	8146	8146	8146	8146	8146	8146	8146	7959	7959	7959	8146	8146	8146	8146	8146	8146	8146	6235	6235	6235	6235	6349	6235	6235	6235	6235	6235	0	0	0	0	0	2589	2570	2570	2551	2551	2532	2514	2496	2496	2478	2478	2460	2460	0	0	0	0	0	0	0	0	0	0	0	0	0	0	0	0	0	0	0	0	0	0	0	0	0	0	0	0	0	0	0	0	0	0	0	0
0	0	0	0	0	845	848	850	854	858	860	862	865	869	871	882	884	887	887	887	889	889	898	901	903	905	908	910	910	915	922	925	927	932	937	940	940	942	945	948	948	961	966	966	969	974	977	983	983	985	988	991	1006	1008	1011	1014	1020	1026	1030	1033	1036	1036	1039	1045	1052	1061	1064	1071	1071	1074	1078	1081	1081	1081	1088	1088	1088	1088	1091	1098	0	0	0	0	0	0	0	0	4771	4771	4771	4771	4771	4771	4771	4771	4771	4771	4771	4771	4771	4771	4771	4771	4771	4771	4771	4771	4771	4771	4771	4771	4771	4771	4838	4771	4771	4771	4771	4771	4771	4838	4838	4838	4838	4771	4771	4771	4771	4771	4771	4771	4771	4771	4706	4771	4771	4771	4771	4771	4706	4706	4706	4706	4706	4706	4771	4771	4706	4706	8343	8343	8343	8550	8550	6349	6349	6235	6235	6235	6124	6124	6124	8146	8146	8146	8146	8146	8146	7959	7959	7959	7959	6349	6349	6349	8343	8343	8343	8146	8146	8146	7959	7779	7779	7959	7959	7959	7779	7959	7959	8146	7959	7959	7959	8146	8146	8343	8146	8146	8146	8146	8146	7959	7959	7959	7779	7779	7959	7959	7959	7959	7959	7959	7959	7959	8146	7959	8146	7959	8146	7959	8146	7959	8146	7959	7959	7959	7959	8146	7959	7959	7959	7959	7959	7959	7959	7959	7959	7959	7959	8146	8146	8146	8146	8343	8343	8343	0	0	3659	3698	3698	3738	3738	3738	3698	3698	3698	3698	3698	3698	3698	3698	3738	0	0	0	0	0	0	0	0	0	0	0	0	0	0	0	0	0	0	0	0	0	0	3821	3821	3821	3779	3779	0	0	0	0	3698	3659	3698	3698	3698	3698	3698	3738	3738	3738	3738	3738	3738	3738	3698	3698	3698	3698	3698	3738	3738	3738	3738	4771	4706	4771	4771	4771	4771	4771	4771	4771	4771	4771	4706	4706	4706	4706	4706	4706	4706	4706	4706	4706	4706	4706	4771	4706	4771	4771	4771	4771	4771	4771	4771	4706	4706	4706	4706	4706	4706	4706	4706	4706	4643	4643	4581	4581	4521	4521	4463	4463	4463	4463	4463	4463	4463	4406	4406	4406	4463	4463	4406	4463	4463	4406	4406	4406	4406	4406	4406	4406	4406	4406	4463	4463	4463	4406	4406	4406	4406	4406	4463	4463	4463	4463	4463	4521	4463	4521	4521	4521	4521	4521	4521	4521	4521	4521	4521	4463	4463	4463	4463	4463	4463	4463	4463	4463	4406	4406	4350	4350	4350	4406	4406	4406	4406	4406	4406	4406	4406	4406	4406	4406	4406	4463	4406	4406	4406	4406	4406	4406	4350	4406	4406	4406	4406	4350	4350	4350	4350	4350	4350	4350	4406	4406	4406	4406	4406	4463	4463	4463	4463	4521	4521	4521	4581	4581	4581	4581	4521	4521	4463	4463	4463	4463	4463	4521	4521	4581	4581	4581	4581	4581	4581	4581	4581	4581	4581	4521	4521	4521	4521	4643	4706	4771	4838	4906	4906	4906	4906	4906	4906	4906	4906	4906	4906	4906	4906	4838	4838	4838	4771	4771	4771	4771	4838	4838	4838	4838	4838	4838	4906	4838	4838	0	7959	7959	7959	7959	7779	7779	7959	7959	7959	7959	7959	7959	7959	7779	7779	7779	7779	7779	7779	7779	7779	7779	7779	7779	7779	7779	8146	8146	8146	8146	8146	8146	8146	8146	8146	8146	7959	7959	8146	8146	8146	8146	8146	8343	6235	6235	6235	6235	6235	6349	6235	6235	6235	6235	0	0	0	0	0	2589	2570	2570	2570	2551	2532	2514	2496	2478	2478	2478	2460	2460	0	0	0	0	0	0	0	0	0	0	0	0	0	0	0	0	0	0	0	0	0	0	0	0	0	0	0	0	0	0	0	0	0	0	0	0
0	0	0	0	0	845	848	850	854	858	860	862	862	869	880	884	887	887	887	887	889	889	896	901	903	905	910	913	913	917	920	925	927	930	937	940	937	942	945	948	948	950	963	966	966	972	980	983	983	988	991	997	1006	1008	1011	1014	1020	1030	1033	1033	1036	1039	1039	1045	1052	1061	1064	1064	1071	1074	1074	1078	1081	1085	1085	1088	1091	1091	1091	0	0	0	0	0	0	0	0	0	4838	4838	4771	4771	4771	4771	4771	4838	4771	4771	4771	4771	4771	4771	4771	4771	4771	4771	4771	4771	4771	4771	4771	4838	4838	4838	4838	4771	4771	4771	4771	4838	4771	4838	4838	4838	4771	4771	4771	4771	4771	4771	4771	4771	4771	4771	4771	4771	4771	4771	4771	4771	4771	4706	4706	4706	4706	4706	4771	4771	4706	4706	4706	6468	6468	6468	6349	6349	6349	6235	6235	6235	6124	6124	6124	6349	6349	6235	6468	6468	6468	6468	6468	6468	6349	6349	6349	6349	6124	6124	6124	6235	6124	6124	6235	6235	6235	7779	7959	7959	7959	7959	7959	7959	7959	7959	7959	8146	8146	8343	8146	8146	8146	8146	8146	7959	7959	7959	7959	7959	7959	7959	7959	7959	7959	7959	7959	7959	7959	8146	8146	8146	8146	7959	8146	7959	7959	7959	7959	7959	7959	7959	7959	8146	8146	8146	8146	8146	8146	7959	7959	7959	8146	8146	8146	8146	8343	8343	8343	8343	0	0	3698	3698	3698	3738	3698	3738	3698	3698	3698	3698	3738	3698	3698	3698	0	0	0	0	0	0	0	0	0	0	0	0	0	0	0	0	0	0	0	0	0	0	0	3779	3821	3821	3779	3779	0	0	0	0	0	3659	3698	3698	3698	3698	3698	3738	3738	3738	3738	3738	3738	3698	3738	3698	3698	3698	3698	3738	3738	3738	3738	4771	4706	4771	4771	4771	4771	4771	4771	4771	4771	4771	4706	4706	4706	4706	4706	4706	4706	4706	4706	4706	4706	4706	4771	4771	4771	4771	4771	4771	4771	4706	4706	4706	4706	4706	4706	4643	4706	4706	4706	4706	4643	4643	4581	4581	4521	4521	4463	4463	4463	4463	4463	4463	4406	4406	4406	4406	4406	4406	4406	4406	4406	4406	4463	4406	4406	4406	4406	4406	4406	4406	4463	4463	4406	4406	4406	4406	4406	4463	4463	4463	4463	4463	4463	4463	4463	4463	4521	4521	4521	4521	4521	4521	4463	4463	4463	4406	4406	4463	4463	4463	4521	4521	4463	4463	4406	4406	4350	4350	4350	4350	4406	4350	4350	4406	4406	4406	4406	4406	4350	4350	4406	4463	4406	4406	4406	4406	4406	4406	4350	4350	4350	4350	4350	4350	4350	4350	4406	4406	4350	4350	4406	4406	4406	4406	4406	4406	4463	4463	4463	4463	4521	4521	4581	4581	4521	4521	4463	4463	4406	4406	4350	4406	4463	4463	4463	4521	4521	4581	4521	4521	4521	4581	4581	4581	4521	4521	4521	4521	4521	4643	4706	4771	4838	4906	4906	4906	4906	4906	4906	4906	4906	4906	4906	4906	4906	4838	4838	4838	4838	4838	4838	4838	4838	4838	4838	4838	4838	4838	4906	4838	4838	0	7959	7959	7959	7959	7779	7779	7959	7959	7959	7959	7959	7779	7959	7779	7779	7779	7779	7779	7779	7779	7779	7779	7779	7779	7779	7779	7959	8146	8146	8146	8146	8146	7959	8146	7959	7959	7959	7959	8146	8146	8146	8146	8146	8146	6235	6235	6235	6235	6349	6349	6235	6235	6235	0	0	0	0	0	0	2570	2570	2570	2551	2551	2532	2532	2496	2478	2478	2478	2460	2460	0	0	0	0	0	0	0	0	0	0	0	0	0	0	0	0	0	0	0	0	0	0	0	0	0	0	0	0	0	0	0	0	0	0	0	0
0	0	0	0	0	848	850	852	854	858	858	865	867	880	882	884	887	887	887	889	891	894	898	901	903	908	910	913	913	917	920	922	927	930	935	937	937	940	945	948	948	950	961	963	963	969	980	983	983	988	991	997	1003	1006	1011	1011	1020	1030	1030	1033	1033	1039	1042	1048	1055	1055	1064	1071	1074	1078	1078	1078	1081	1081	1085	1088	1091	1091	1095	1095	0	0	0	0	0	0	0	0	4838	4838	4771	4771	4771	4771	4838	4838	4771	4771	4771	4771	4771	4771	4771	4771	4771	4771	4771	4771	4771	4771	4771	4838	4838	4838	4771	4771	4771	4771	4771	4771	4771	4771	4771	4771	4771	4771	4771	4771	4771	4771	4771	4771	4771	4771	4771	4771	4771	4771	4838	4771	4771	4771	4771	4771	4771	4771	4771	4771	4771	4771	4771	6592	6468	6468	6468	6468	6349	6235	6235	6235	6124	6124	6349	6349	6349	6235	6468	6468	6468	6468	6468	6468	6349	6468	6349	6235	6235	6235	6235	6349	6235	6235	6235	6235	6235	6235	8146	7959	7959	7959	7959	8146	7959	7959	7959	7959	8146	8146	8146	8146	8146	8146	7959	8146	7959	7959	7959	7959	7959	7959	7959	7959	7959	7959	7959	7959	7959	7959	8146	8146	8146	8146	8146	8146	7959	7959	7959	7959	7959	7959	7959	7959	8146	8146	8146	8146	8146	8146	7959	8146	8146	8146	8146	8146	8343	8343	8343	8343	0	0	3698	3698	3698	3738	3698	3738	3698	3698	3698	3698	3698	3698	3698	0	0	0	0	0	0	0	0	0	0	0	0	0	0	0	0	0	0	0	0	0	0	3738	3738	3779	3821	3821	3779	3779	3779	0	0	0	0	0	3698	3698	0	0	0	0	0	3738	3738	3738	3738	3738	3738	3738	3698	3698	3698	3738	3738	3738	3738	4771	4706	4706	4771	4771	4771	4771	4771	4771	4771	4771	4706	4706	4706	4771	4706	4771	4706	4771	4771	4771	4771	4706	4771	4771	4771	4771	4771	4706	4771	4706	4706	4706	4643	4643	4643	4581	4643	4643	4706	4643	4581	4581	4581	4581	4521	4521	4521	4463	4463	4463	4463	4463	4406	4406	4406	4406	4463	4463	4406	4463	4406	4350	4463	4406	4350	4350	4350	4406	4406	4406	4463	4463	4463	4406	4406	4406	4406	4406	4463	4463	4463	4463	4463	4463	4463	4463	4521	4463	4521	4521	4521	4521	4463	4463	4463	4406	4406	4463	4463	4463	4521	4521	4463	4463	4406	4350	4350	4350	4350	4406	4350	4350	4350	4406	4406	4350	4406	4406	4350	4350	4406	4406	4350	4406	4406	4406	4406	4406	4406	4406	4406	4406	4406	4350	4350	4350	4406	4463	4406	4350	4350	4350	4406	4406	4350	4350	4406	4406	4406	4406	4406	4463	4463	4463	4463	4463	4406	4406	4350	4350	4296	4350	4350	4350	4350	4521	4521	4521	4521	4521	4463	4521	4521	4521	4521	4521	4521	4521	4521	4581	4706	4771	4838	4906	4906	4906	4906	4906	4906	4906	4906	4906	4906	4838	4838	4838	4838	4771	4771	4838	4838	4838	4838	4838	4838	4838	4838	4838	4838	4838	4838	4838	7779	7779	7779	7779	7779	7779	7959	7779	7959	7959	7959	7959	7959	7959	7959	7779	7959	7779	7959	7959	7779	7779	7779	7779	7779	7959	8146	8146	8146	7959	7959	7959	7959	7959	7959	7959	7959	7959	8146	8146	8146	8146	8146	8146	6235	6235	6235	6235	6349	6349	6235	6349	6349	6349	0	0	0	0	0	2589	2570	2570	2570	2551	2551	2532	2496	2478	2478	2478	2460	2460	0	0	0	0	0	0	0	0	0	0	0	0	0	0	0	0	0	0	0	0	0	0	0	0	0	0	0	0	0	0	0	0	0	0	0	0
0	0	0	0	0	850	852	852	854	858	860	862	867	880	882	884	887	887	887	889	891	896	898	901	903	905	910	910	913	917	920	922	927	930	932	935	937	940	942	948	948	950	953	961	961	966	983	985	985	991	991	997	1000	1006	1006	1011	1020	1026	1026	1033	1033	1039	1042	1045	1055	1064	1071	1074	1074	1078	1078	1081	1085	1085	1088	1088	1091	1091	1091	1091	0	0	0	0	0	0	0	0	4838	4838	4771	4771	4771	4771	4771	4838	4771	4771	4771	4771	4771	4771	4771	4771	4771	4771	4771	4771	4771	4771	4771	4838	4838	4838	4838	4771	4771	4771	4771	4771	4771	4771	4771	4771	4771	4771	4771	4771	4771	4771	4771	4771	4771	4771	4771	4771	4771	4771	4771	4771	4771	4771	4771	4771	4771	4771	4771	4706	4706	4771	4771	6592	6468	6468	6468	6468	6349	6349	6349	6349	6235	6349	6349	6349	6349	6235	6349	6468	6468	6468	6468	6468	6349	6468	6349	6349	6349	6349	6235	6349	6235	6235	6235	6235	6124	6124	8146	8146	8146	8146	7959	7959	7959	7779	7779	7959	7959	8146	8146	8146	8146	8146	8146	8146	8146	7959	7959	8146	8146	7959	7959	7959	7959	7959	7959	7959	7959	7959	8146	8146	8146	7959	8146	7959	7959	7959	7959	7959	7959	7959	7959	8146	8146	8146	8146	8146	8146	8146	7959	7959	8146	8146	8146	8146	8343	8343	8343	8343	0	0	3698	3698	3698	3738	3698	3698	3698	3698	3698	3698	3698	3698	3698	0	0	0	0	0	0	0	0	0	0	0	0	0	0	0	0	0	0	0	0	0	0	3738	3738	3738	3779	3779	3738	3738	3738	0	0	0	0	0	0	0	0	0	0	0	0	3738	3738	3738	3738	3738	3738	3738	3698	3698	3698	3698	3738	3738	3738	4706	4706	4771	4771	4771	4771	4771	4771	4771	4771	4771	4771	4706	4706	4771	4771	4771	4771	4771	4771	4771	4771	4706	4771	4771	4771	4771	4771	4706	4706	4706	4643	4643	4581	4581	4581	4521	4521	4581	4643	4581	4581	4581	4581	4581	4521	4521	4463	4463	4463	4463	4406	4463	4406	4463	4406	4406	4463	4463	4463	4463	4463	4406	4463	4406	4406	4406	4406	4406	4406	4406	4406	4406	4463	4406	4406	4406	4406	4406	4463	4463	4463	4463	4463	4463	4463	4463	4463	4463	4463	4463	4463	4463	4463	4406	4463	4406	4406	4406	4406	4406	4463	4406	4406	4406	4406	4406	4350	4350	4350	4406	4406	4406	4406	4406	4406	4406	4350	4406	4406	4406	4463	4463	4406	4406	4463	4406	4406	4406	4406	4406	4406	4406	4406	4406	4350	4350	4406	4463	4406	4350	4350	4350	4406	4406	4350	4350	4350	4350	4350	4406	4406	4463	4463	4463	4406	4406	4350	4350	4296	4296	4296	4296	4350	4350	4350	4521	4521	4406	4406	4463	4463	4521	4521	4521	4521	4463	4521	4521	4521	4581	4706	4771	4838	4838	4838	4838	4906	4906	4906	4906	4838	4838	4838	4838	4771	4838	4838	4838	4838	4771	4838	4838	4838	4838	4838	4838	4838	4838	4838	4838	4838	4838	7779	7959	7959	7779	7779	7779	7959	7959	7959	7959	7959	7959	7959	7959	7959	7959	7959	7959	7959	7959	7959	7959	7959	7779	7959	7959	8146	7959	7959	7959	7959	7959	7959	7959	7959	7959	7959	7959	7959	7959	8146	7959	8146	8146	6235	6235	6235	6235	6349	6349	6235	6235	6235	6235	6235	0	0	0	0	2589	2570	2570	2570	2551	2551	2532	2496	2496	2478	2478	2478	2478	0	0	0	0	0	0	0	0	0	0	0	0	0	0	0	0	0	0	0	0	0	0	0	0	0	0	0	0	0	0	0	0	0	0	0	0
0	0	0	0	0	852	852	854	854	858	860	867	882	882	882	884	887	887	887	887	891	894	896	901	903	905	908	910	913	917	920	925	927	930	932	935	937	940	942	945	945	948	953	963	963	966	983	983	985	991	994	997	997	1003	1008	1011	1020	1023	1030	1030	1036	1042	1045	1048	1055	1064	1071	1074	1074	1078	1078	1081	1085	1085	1088	1088	1088	1088	1091	1091	0	0	0	0	0	0	0	0	4838	4838	4771	4771	4771	4771	4838	4838	4838	4771	4771	4771	4771	4771	4706	4771	4771	4771	4771	4771	4771	4771	4771	4771	4771	4838	4771	4771	4771	4771	4771	4771	4771	4771	4771	4771	4771	4771	4771	4771	4771	4771	4771	4771	4771	4771	4771	4771	4771	4771	4838	4771	4771	4771	4771	4771	4771	4771	4771	4706	4771	4771	4771	6592	6468	6468	6468	6468	6349	6349	6349	6349	6235	6235	6235	6349	6349	6349	6349	6468	6468	6468	6349	6349	6349	6349	6349	6349	6349	6349	6349	6349	6235	6235	6235	6235	6124	6124	6124	7959	8146	7959	7959	7959	7779	7779	7779	7779	7959	7959	7959	7959	8146	8146	8146	8146	8146	8146	8146	8146	8146	7959	7959	7959	7959	7959	7959	7959	7959	7959	8146	8146	8146	8146	8146	8146	7959	7959	7959	7959	7959	8146	8146	8146	8146	8343	8146	8146	8146	8146	8146	8146	8146	8343	8343	8343	8343	8343	8343	8343	0	0	3698	3698	3698	3738	3698	3698	3698	3698	3738	3698	3698	3698	3698	0	0	0	0	0	0	0	0	0	0	0	0	0	0	0	0	0	0	0	0	0	3738	3738	3738	3738	3738	3738	3738	3738	3738	3738	0	0	0	0	0	0	0	0	0	0	0	0	3738	3738	3738	3738	3738	3738	3738	3698	3698	3738	3779	3779	3779	3779	4771	4771	4771	4771	4771	4771	4771	4771	4771	4771	4706	4706	4706	4706	4706	4706	4706	4706	4706	4706	4771	4706	4771	4771	4771	4771	4771	4706	4706	4706	4643	4643	4581	4521	4521	4463	4463	4521	4521	4521	4463	4521	4521	4581	4581	4521	4521	4581	4581	4521	4521	4406	4406	4406	4406	4406	4463	4463	4463	4521	4463	4463	4406	4406	4350	4350	4350	4406	4350	4350	4406	4406	4406	4406	4406	4406	4521	4463	4463	4463	4406	4521	4463	4463	4463	4463	4463	4463	4521	4463	4406	4406	4406	4350	4350	4350	4406	4406	4406	4406	4406	4406	4406	4406	4406	4406	4350	4350	4350	4406	4406	4406	4406	4406	4406	4406	4350	4581	4581	4463	4463	4463	4406	4406	4463	4463	4406	4463	4406	4463	4463	4463	4463	4463	4406	4406	4406	4463	4406	4463	4350	4350	4406	4406	4350	4350	4350	4350	4406	4406	4406	4463	4463	4463	4406	4406	4350	4350	4296	4296	4296	4296	4296	4296	4296	0	4350	4350	4350	4350	4406	4406	4463	4463	4463	4463	4463	4521	4521	4581	4706	4706	4771	4838	4838	4838	4838	4906	4838	4838	4838	4838	4838	4838	4838	4838	4838	4838	4838	4838	4838	4838	4838	4838	4838	4838	4838	4838	4838	4838	4838	4838	0	7959	7959	7779	7779	7779	7779	7779	7959	7959	7959	7959	7959	7959	7959	7959	7959	7959	7959	7959	7959	7959	7959	7779	7779	7779	7959	7959	7959	7959	7959	7959	7959	7959	7959	7959	7959	7959	7959	7959	7959	7959	7959	6235	6235	6235	6235	6235	6349	6349	6235	6235	6235	6235	6235	0	0	0	0	0	2570	2570	2570	2551	2551	2532	2514	2496	2496	2496	2478	2478	0	0	0	0	0	0	0	0	0	0	0	0	0	0	0	0	0	0	0	0	0	0	0	0	0	0	0	0	0	0	0	0	0	0	0	0
0	0	0	0	0	854	856	856	856	858	860	862	862	882	882	884	887	887	887	889	891	894	896	901	905	905	908	910	913	917	920	922	927	930	930	935	935	940	942	948	948	950	953	961	963	963	985	988	988	994	994	997	997	1000	1006	1008	1017	1023	1026	1030	1036	1042	1045	1048	1055	1064	1071	1074	1074	1078	1078	1081	1085	1085	1088	1088	1088	1088	1088	1091	0	0	0	0	0	0	0	4838	4838	4771	4771	4771	4771	4771	4838	4838	4838	4771	4771	4771	4771	4771	4771	4771	4771	4771	4771	4771	4771	4771	4771	4771	4771	4838	4771	4771	4771	4771	4771	4771	4771	4771	4771	4771	4771	4771	4771	4771	4771	4771	4771	4771	4771	4771	4771	4771	4771	4771	4838	4838	4838	4771	4771	4771	4771	4771	4706	4706	4706	4706	6592	6468	6468	6468	6468	6468	6468	6349	6349	6349	6235	6349	6349	6349	6349	6349	6468	6468	6468	6468	6349	6349	6235	6349	6349	6349	6235	6235	6235	6349	6235	6235	6235	6235	6124	6124	6124	7959	8146	7959	7959	7779	7779	7779	7779	7779	7959	7959	8146	8146	8146	8343	8146	8146	8146	8146	8146	8146	8146	7959	7959	7959	7959	7959	7959	7959	7959	7959	8146	8146	8146	8146	8146	8146	8146	7959	7959	7959	8146	8146	8146	8146	8146	8146	8146	8146	8146	8146	8146	8146	8146	8343	8343	8146	8146	8146	8146	8146	0	0	3698	3698	3698	3698	3698	3698	3698	3698	3698	3698	3698	3698	0	0	0	0	0	0	0	0	0	0	0	0	0	0	0	0	0	0	0	0	0	0	3738	3738	3738	3738	3738	3738	3738	3738	3738	3738	0	0	0	0	0	0	0	0	0	0	0	0	3738	3738	3738	3738	3738	3738	3698	3698	3698	3738	3738	3738	3738	3738	4771	4771	4771	4771	4771	4771	4771	4771	4771	4771	4706	4706	4706	4706	4706	4706	4706	4706	4771	4771	4771	4771	4771	4771	4771	4771	4706	4643	4643	4581	4581	4581	4521	4463	4463	4406	4406	4463	4463	4463	4463	4521	4581	4643	4643	4643	4643	4643	4706	4706	4521	4521	4463	4521	4463	4463	4521	4521	4521	4521	4463	4463	4463	4406	4406	4350	4350	4350	4350	4350	4406	4406	4463	4463	4463	4463	4521	4463	4406	4406	4406	4521	4463	4463	4463	4463	4463	4463	4463	4406	4406	4406	4406	4350	4350	4350	4406	4406	4406	4406	4406	4406	4406	4406	4406	4406	4406	4406	4406	4463	4463	4406	4406	4406	4406	4406	0	4581	4581	4581	4521	4521	4463	4406	4463	4463	4463	4463	4406	4463	4463	4463	4463	4463	4581	4581	4521	4521	4521	4521	4581	4521	4521	4521	4463	4463	4463	4463	4463	4463	4463	4521	4521	4521	4463	4463	4463	4350	4350	4350	4350	4350	4521	4521	4350	4350	4350	4350	4296	4350	4350	4350	4406	4406	4463	4463	4463	4463	4521	4581	4643	4706	4771	4838	4838	4838	4838	4838	4838	4838	4838	4838	4838	4838	4838	4838	4838	4838	4838	4838	4838	4838	4838	4838	4838	4838	4838	4838	4838	4838	4771	4771	0	7959	7779	7779	7779	7779	7779	7779	7959	7779	7959	7779	7959	7959	7959	7959	7959	7959	7959	7959	7959	7959	7959	7959	7959	7779	7959	7959	7959	7959	7959	7959	7959	7959	7959	7959	7959	7959	7779	7959	7959	7779	7779	7779	6235	6235	6235	6235	6235	6235	6235	6235	6235	6235	6235	0	0	0	0	0	0	2551	2570	2551	2551	2532	2514	2496	2496	2496	2478	2478	0	0	0	0	0	0	0	0	0	0	0	0	0	0	0	0	0	0	0	0	0	0	0	0	0	0	0	0	0	0	0	0	0	0	0	0
0	0	0	0	0	852	856	856	856	858	860	860	860	882	882	884	887	887	887	887	891	894	896	901	905	905	908	910	913	915	920	925	927	930	930	932	935	937	940	940	948	953	953	961	961	991	991	991	991	994	994	997	1000	1000	1003	1008	1017	1023	1026	1030	1036	1042	1045	1048	1058	1068	1071	1074	1074	1078	1078	1081	1085	1085	1088	1091	1091	1091	1091	0	0	0	0	0	0	0	0	4838	4838	4771	4771	4771	4771	4771	4838	4838	4838	4771	4771	4771	4771	4771	4771	4771	4771	4771	4771	4771	4771	4771	4771	4771	4771	4838	4771	4771	4771	4838	4771	4771	4771	4771	4771	4771	4771	4771	4771	4771	4838	4771	4771	4838	4771	4838	4771	4771	4771	4838	4838	4838	4838	4771	4771	4771	4771	4771	4706	4706	4706	4706	6592	6592	6468	6468	6468	6468	6349	6349	6349	6235	6235	6235	6235	6235	6349	6349	6349	6468	6349	6468	6349	6349	6349	6349	6349	6349	6349	6349	6235	6235	6235	6235	6235	6124	6124	6018	6018	6018	6018	7959	7959	7779	7779	7779	7779	7779	7779	7959	7959	7959	8146	8146	8146	8146	8146	8146	8146	8146	8146	8146	7959	7959	7959	7959	7959	7959	7959	7959	8146	8146	8146	8146	8146	8146	8146	8146	8146	8146	8146	8146	8146	8146	8146	8146	8146	8146	8146	8146	8146	8146	8146	8343	8343	8146	8146	8146	8146	8146	0	0	3698	3698	3698	3698	3698	3698	3659	3698	3698	3698	3698	3698	0	0	0	0	0	0	0	0	0	0	0	0	0	0	0	0	0	0	0	0	0	0	3738	3698	3698	3738	3738	3738	3738	3738	3738	0	0	0	0	0	0	0	0	0	0	0	0	3738	3738	3738	3738	3738	3738	3738	3698	3698	3698	3779	3779	3779	3779	3779	4771	4771	4771	4771	4771	4771	4771	4771	4771	4771	4771	4706	4706	4706	4706	4706	4706	4706	4771	4771	4771	4771	4771	4771	4706	4706	4706	4643	4581	4581	4521	4521	4463	4463	4463	4406	4406	4463	4521	4521	4521	4581	4581	4643	4706	4706	4706	4706	4706	4706	4581	4581	4581	4581	4581	4521	4581	4581	4581	4581	4521	4521	4521	4463	4406	4406	4350	4406	4406	4406	4406	4463	4521	4521	4463	4521	4581	4581	4521	4521	4463	4521	4521	4521	4521	4521	4521	4521	4521	4581	4521	4521	4581	4581	4350	4350	4406	4406	4406	4406	4463	4463	4406	4463	4406	4406	4406	4406	4463	4463	4463	4406	4406	4406	4406	0	0	4643	4581	4581	4581	4581	4521	4463	4463	4463	4463	4463	4463	4463	4463	4463	4463	4581	4581	4581	4581	4581	4643	4581	4581	4581	4581	4521	4521	4463	4463	4463	4463	4463	4521	4521	4521	4521	4521	4463	4463	4463	4406	4406	4581	4521	4521	4521	4350	4350	4296	4350	4296	4296	4350	4350	4406	4406	4406	4463	4463	4463	4521	4581	4643	4706	4706	4838	4838	4838	4838	4838	4838	4838	4838	4838	4838	4838	4838	4838	4838	4838	4838	4838	4838	4838	4838	4838	4838	4838	4838	4838	4838	4771	4771	4771	7779	7779	7779	7608	7608	7779	7779	7779	7959	7959	7959	7959	7959	7959	7959	7959	7959	7959	7959	7959	7959	7959	7959	7959	7959	7959	8146	7959	7959	7959	7959	7959	7959	7959	7959	7959	7959	7959	7959	7959	7779	7779	7779	7779	6349	6235	6235	6349	6349	6349	6235	6235	6235	6235	6235	0	0	0	0	0	0	2551	2570	2551	2551	2532	2514	2496	2496	2496	2478	2478	0	0	0	0	0	0	0	0	0	0	0	0	0	0	0	0	0	0	0	0	0	0	0	0	0	0	0	0	0	0	0	0	0	0	0	0
0	0	0	0	0	852	856	856	856	858	858	862	862	880	880	884	887	884	884	887	891	894	896	903	908	905	908	908	910	915	917	922	922	930	932	935	935	937	940	948	950	953	955	961	963	969	991	991	991	994	994	997	997	1000	1003	1011	1020	1023	1026	1030	1036	1042	1042	1048	1058	1064	1071	1071	1074	1078	1078	1081	1085	1085	1091	1091	1091	1091	1091	0	0	0	0	0	0	0	0	4838	4838	4838	4771	4771	4771	4771	4838	4838	4838	4838	4838	4771	4771	4771	4771	4771	4771	4771	4771	4771	4771	4771	4771	4771	4771	4771	4771	4771	4771	4771	4771	4771	4771	4771	4771	4771	4771	4771	4771	4771	4771	4838	4838	4838	4771	4838	4838	4771	4771	4771	4771	4771	4838	4771	4771	4771	4771	4706	4706	4706	4706	4706	6592	6468	6468	6468	6468	6468	6468	6349	6349	6349	6235	6349	6235	6349	6349	6349	6468	6468	6468	6468	6349	6349	6349	6349	6349	6349	6349	6349	6349	6349	6235	6235	6235	6124	6124	6018	6018	8146	8146	8146	7959	7959	7779	7779	7779	7779	7779	7959	7959	7959	7959	8146	8146	8146	8146	8146	8146	8146	8146	8146	8146	7959	7959	7959	7959	7959	7959	7959	8146	8146	8146	7959	8146	8146	8146	7959	7959	8146	8146	8146	8146	8146	8146	8146	8146	8146	8146	8146	8146	8146	8343	8343	8343	8343	7959	8146	7959	7959	7959	7959	3698	3698	3698	3698	3698	3698	3659	3698	3698	3698	3698	3698	3698	0	0	0	0	0	0	0	0	0	0	0	0	0	0	0	0	0	0	0	0	0	0	3698	3738	3738	3738	3738	3779	3779	3779	3779	3779	3779	3779	3738	3738	3738	0	0	0	0	3738	3738	3738	3738	3738	3738	3738	3738	3738	3738	3738	3779	3779	3779	3779	3779	4838	4771	4771	4771	4771	4771	4771	4771	4771	4771	4771	4706	4706	4706	4771	4706	4706	4706	4771	4771	4771	4771	4771	4706	4706	4706	4643	4581	4581	4521	4521	4463	4463	4463	4463	4463	4521	4581	4581	4581	4581	4581	4581	4643	4706	4706	4706	4771	4771	4706	4706	4643	4581	4643	4581	4581	4581	4643	4643	4581	4581	4581	4581	4581	4521	4463	4406	4463	4463	4463	4521	4521	4521	4581	4521	4706	4643	4581	4521	4521	4581	4581	4581	4581	4581	4581	4581	4581	4581	4581	4581	4581	4581	4581	4581	0	4406	4406	0	4463	4463	4463	4463	4521	4521	4521	4521	4463	4581	4521	4521	4406	4406	4406	4643	4643	4706	4643	4643	4581	4581	4581	4581	4521	4521	4521	4521	4521	4521	4521	4521	4521	4581	4581	4581	4581	4581	4581	4581	4581	4581	4581	4581	4521	4521	4521	4521	4521	4521	4521	4521	4581	4521	4521	4521	4521	4521	4521	4521	4581	4581	4521	4521	4521	4350	4350	4350	4350	4296	4296	4296	4406	4406	4406	4406	4406	4463	4463	4521	4521	4643	4771	4771	4838	4838	4838	4838	4906	4838	4838	4838	4838	4838	4838	4838	4838	4838	4838	4838	4838	4838	4838	4838	4838	4838	4838	4838	4838	4838	4838	4771	4771	7779	7287	7444	7608	7608	7608	7779	7779	7959	7779	7959	7779	7959	7779	7779	7959	7959	8146	7959	7959	7959	7959	7959	7959	7959	7959	7959	7959	7959	7959	7779	7959	7959	7959	7959	7959	7959	7959	7959	7959	7959	7779	0	0	6349	6349	6349	6349	6349	6349	6349	6349	6235	6349	6349	6349	0	0	0	0	0	2551	2570	2551	2551	2532	2514	2514	2496	2496	2478	2478	0	0	0	0	0	0	0	0	0	0	0	0	0	0	0	0	0	0	0	0	0	0	0	0	0	0	0	0	0	0	0	0	0	0	0	0
0	0	0	0	0	0	856	858	858	860	862	862	862	878	884	884	887	884	884	887	891	894	896	896	905	905	905	910	913	915	920	925	930	930	932	935	937	937	942	950	950	955	961	963	963	969	985	988	991	994	994	997	997	1000	1006	1011	1020	1023	1026	1026	1036	1042	1042	1052	1058	1064	1068	1071	1071	1074	1074	1078	1081	1085	1088	1091	1091	1091	1091	0	0	0	0	0	0	0	0	4838	4838	4771	4771	4771	4771	4838	4838	4838	4838	4838	4838	4771	4771	4771	4771	4771	4771	4771	4771	4771	4771	4771	4771	4771	4771	4771	4771	4771	4771	4771	4771	4771	4771	4771	4771	4771	4771	4771	4771	4771	4838	4838	4838	4838	4771	4771	4771	4771	4771	4771	4771	4771	4771	4771	4771	4771	4706	4706	4706	4706	4706	6592	6468	6468	6468	6349	6468	6468	6468	6468	6349	6349	6349	6349	6349	6349	6468	6468	6468	6468	6468	6468	6349	6349	6349	6349	6349	6349	6349	6349	6349	6349	6349	6349	6349	6235	6124	6124	6124	8146	8146	8146	7959	7959	7779	7779	7779	7779	7779	7959	7959	7959	7959	8146	7959	8146	8146	8146	8146	8146	8146	8146	7959	7959	7959	7959	7959	7959	7959	7959	8146	8146	8146	8146	8146	8146	8146	8146	8146	8146	8146	8146	8146	8146	8146	8146	8146	8146	8146	8146	8146	8146	8343	8343	8343	8343	8146	8146	7959	7779	7779	7779	3698	3698	3698	3698	3698	3659	3659	3698	3698	3698	3698	3738	3738	0	0	0	0	0	0	0	0	0	0	0	0	0	0	0	0	0	0	0	0	0	0	0	3738	3738	3738	3738	3738	3738	3738	3738	3738	3738	3779	3738	3738	3738	3738	3738	3738	3738	3738	3738	3738	3738	3738	3738	3738	3738	3738	3738	3738	3779	3821	3821	3821	4838	4838	4771	4771	4771	4771	4771	4771	4706	4771	4771	4771	4706	4771	4771	4771	4706	4706	4706	4706	4706	4706	4706	4706	4706	4706	4643	4643	4521	4521	4463	4463	4463	4463	4463	4463	4463	4521	4643	4643	4643	4643	4581	4643	4643	4643	4643	4643	4706	4706	4643	4643	4643	4643	4643	4643	4643	4643	4643	4643	4581	4581	4581	4581	4581	4521	4521	4521	4521	4581	4581	4581	4581	4581	4643	4581	4706	4643	4581	4581	4581	4581	4581	4581	4581	4581	4643	4643	4581	4581	4581	4581	4581	4581	4581	4581	0	0	0	0	4406	4406	4406	4406	4463	4521	4521	4581	4521	4581	4581	4581	4581	4581	4581	4643	4643	4706	4643	4706	4643	4643	4643	4643	4581	4581	4581	4521	4521	4521	4581	4581	4581	4581	4581	4643	4581	4643	4581	4643	4581	4581	4581	4581	4581	4581	4521	4581	4521	4581	4581	4581	4581	4521	4581	4521	4521	4521	4521	4521	4581	4581	4521	4521	4521	4350	4350	4350	4350	4350	4350	4350	4406	4406	4406	4463	4406	4463	4463	4521	4581	4581	4643	4771	4838	4838	4838	4838	4906	4838	4838	4838	4838	4838	4838	4838	4838	4838	4838	4838	4838	4838	4838	4838	4838	4838	4838	4838	4838	4838	4838	4771	4771	0	7287	7444	7608	7608	7608	7779	7779	7779	7779	7779	7959	7959	7959	7959	7959	7959	7959	7959	7959	7959	7959	7959	7959	7959	7959	7959	7959	7959	7959	7959	7959	7959	7959	7959	7959	7959	7959	7779	7779	7779	7779	0	6349	6349	6349	6349	6349	6349	6349	6235	6235	6235	6235	6235	6349	6592	6592	0	0	0	2551	2551	2551	2551	2532	2532	2514	2496	2496	2496	2496	0	0	0	0	0	0	0	0	0	0	0	0	0	0	0	0	0	0	0	0	0	0	0	0	0	0	0	0	0	0	0	0	0	0	0	0
0	0	0	0	0	0	858	858	858	860	862	862	862	878	875	880	880	884	884	887	887	894	896	903	905	905	905	908	910	915	920	925	930	930	932	935	937	937	942	945	948	958	963	966	966	966	985	988	991	991	994	997	997	1000	1006	1011	1020	1023	1023	1026	1033	1042	1045	1055	1058	1064	1068	1071	1071	1074	1074	1078	1081	1081	1088	1088	1091	1091	1091	0	0	0	0	0	0	0	4838	4838	4771	4771	4771	4771	4771	4771	4771	4838	4838	4771	4771	4771	4771	4771	4771	4771	4771	4771	4771	4771	4771	4771	4771	4771	4771	4771	4771	4771	4771	4771	4771	4771	4771	4771	4771	4771	4771	4771	4771	4771	4838	4838	4838	4771	4771	4771	4771	4771	4771	4771	4771	4771	4771	4771	4771	4706	4706	4706	4706	4706	4706	6468	6349	6468	6468	6468	6468	6468	6468	6468	6468	6468	6349	6349	6349	6349	6349	6349	6468	6468	6349	6349	6349	6349	6349	6349	6349	6349	6349	6349	6349	6349	6349	6349	6349	6235	6235	6124	6124	7959	7959	7959	7959	7779	7779	7779	7779	7779	7779	7779	7959	7959	7959	8146	7959	8146	7959	8146	8146	8146	8146	8146	8146	7959	7959	7959	7959	7959	7959	7959	8146	8146	8146	7959	8146	8146	8146	8146	8146	8146	8146	8146	8343	8343	8343	8146	8146	8146	8146	8146	8146	8146	8343	8343	8343	8343	8146	8146	7959	7779	7779	3698	3698	3698	3698	3698	3698	3659	3659	3698	3698	3698	3698	3698	3738	0	0	0	0	0	0	0	0	0	0	0	0	0	0	0	0	0	0	0	0	0	0	0	0	0	0	0	3738	3738	3738	3738	3738	3738	3738	3738	3738	3738	3738	3738	3738	3779	3779	3779	3779	3738	3738	3738	3738	3738	3738	3738	3738	3821	3821	3821	3821	4838	4838	4771	4771	4771	4771	4771	4771	4706	4771	4771	4706	4706	4706	4771	4771	4706	4706	4706	4771	4771	4706	4706	4706	4706	4643	4581	4581	4521	4521	4463	4463	4463	4463	4521	4521	4521	4643	4643	4706	4643	4643	4643	4643	4643	4706	4643	4643	4643	4643	4643	4643	4643	4643	4643	4643	4643	4643	4643	4643	4643	4581	4581	4581	4521	4521	4581	4521	4581	4521	4706	4643	4643	4643	4643	4643	4643	4643	4643	4643	4643	4643	4643	4581	4643	4643	4643	4581	4643	4643	4643	4643	4643	4643	4643	4643	0	0	0	0	4406	4406	4406	4406	4463	4521	4581	4581	4581	4581	4581	4581	4581	4706	4643	4643	4643	4643	4643	4643	4643	4643	4643	4643	4581	4643	4581	4581	4581	4581	4581	4581	4581	4581	4643	4643	4643	4643	4581	4643	4581	4581	4581	4581	4581	4581	4581	4581	4581	4581	4581	4581	4581	4581	4581	4581	4521	4521	4521	4581	4581	4581	4521	4581	4521	4521	4406	4350	4406	4350	4350	4406	4406	4406	4406	4463	4463	4463	4463	4521	4581	4581	4643	4706	4771	4838	4838	4838	4838	4838	4838	4838	4838	4838	4838	4838	4838	4838	4838	4838	4838	4838	4838	4838	4838	4838	4838	4838	4838	4838	4838	4771	4771	0	0	0	7608	7608	7608	7779	7779	7779	7779	7779	7779	7959	7959	7959	7959	7959	7959	7959	7959	8146	8146	8146	8146	7959	7959	7959	7959	7959	7959	7959	7959	7959	7959	7959	7959	7959	7959	7608	7779	7779	7608	7608	7608	6349	6349	6349	6349	6349	6349	6235	6235	6349	6349	6592	6720	6853	6853	0	0	0	2551	2551	2551	2532	2532	2532	2514	2496	2496	2496	2496	0	0	0	0	0	0	0	0	0	0	0	0	0	0	0	0	0	0	0	0	0	0	0	0	0	0	0	0	0	0	0	0	0	0	0	0
0	0	0	0	0	0	858	858	858	860	860	865	869	869	878	880	882	882	884	887	891	896	898	903	905	905	905	905	908	913	920	925	930	930	932	935	937	940	942	948	955	961	963	966	966	969	983	983	988	991	991	994	997	1003	1008	1014	1020	1023	1023	1023	1030	1042	1045	1052	1058	1064	1068	1068	1068	1071	1074	1078	1081	1081	1088	1091	1091	1091	0	0	0	0	0	0	0	4771	4771	4771	4771	4771	4771	4771	4771	4771	4771	4771	4771	4771	4771	4771	4771	4771	4771	4771	4771	4771	4771	4771	4771	4771	4771	4771	4771	4771	4771	4771	4771	4771	4771	4771	4771	4771	4771	4771	4771	4771	4771	4771	4771	4838	4771	4771	4771	4771	4771	4771	4771	4771	4771	4771	4771	4771	4771	4706	4706	4706	4706	4706	6468	6349	6235	6349	6468	6468	6468	6468	6468	6468	6468	6468	6349	6349	6349	6349	6349	6349	6349	6349	6349	6349	6349	6349	6349	6349	6349	6349	6349	6349	6349	6349	6349	6349	6349	6349	6349	6349	6349	7779	7779	7959	7959	7779	7779	7779	7779	7779	7779	7779	7959	7959	7959	8146	7959	7959	7959	8146	8146	8146	8146	8146	8146	8146	7959	7959	7959	7959	7959	8146	8146	8146	8146	7959	7959	7959	7959	7959	7959	7959	8146	8343	8146	8343	8343	8146	8146	8146	8146	8146	8146	8343	8343	8343	8343	8343	8343	8146	7959	7779	7779	7779	3698	3698	3698	3698	3698	3659	3659	3698	3698	3698	3698	3698	0	0	0	0	0	0	0	0	0	0	0	0	0	0	0	0	0	0	0	0	0	0	0	0	0	0	0	0	3738	3738	3779	3738	3738	3738	3738	3738	3779	3779	3779	3779	3779	3779	3779	3779	3738	3738	3738	3738	3738	3738	3738	3738	3738	3738	3738	3738	3821	4838	4838	4771	4771	4771	4771	4706	4706	4706	4771	4706	4706	4706	4706	4706	4706	4706	4706	4706	4706	4706	4706	4706	4706	4643	4643	4581	4521	4521	4521	4463	4463	4463	4463	4521	4581	4643	4643	4706	4643	4643	4643	4643	4643	4643	4643	4643	4643	4643	4643	4643	4643	4643	4643	4643	4643	4643	4643	4643	4643	4581	4581	4581	4581	4581	4521	4521	4581	4581	4643	4643	4643	4643	4643	4643	4643	4643	4643	4581	4581	4643	4643	4643	4643	4643	4643	4643	4643	4643	4643	4706	4706	4643	4643	4706	4643	4643	0	0	0	4406	4406	4406	4406	4463	4521	4581	4581	4643	4643	4643	4643	4643	4706	4643	4643	4643	4643	4581	4581	4581	4581	4581	4581	4643	4581	4581	4581	4581	4581	4581	4581	4581	4643	4643	4643	4581	4643	4581	4643	4581	4581	4581	4581	4581	4581	4581	4581	4581	4581	4581	4581	4581	4581	4581	4581	4581	4581	4581	4581	4581	4581	4581	4581	4521	4521	4406	4406	4406	4350	4350	4350	4350	4350	4406	4406	4463	4463	4463	4521	4581	4581	4643	4706	4771	4838	4838	4906	4906	4838	4838	4838	4838	4838	4838	4838	4838	4838	4838	4838	4838	4838	4838	4838	4838	4838	4838	4838	4838	4838	4838	4838	4838	4838	0	0	0	0	0	7779	7779	7779	7779	7779	7779	7779	7959	7779	7959	7959	7959	7959	7959	7959	8146	7959	7959	7959	7959	7959	7959	7959	7959	7779	7959	7959	7959	7959	7959	7959	7959	7608	7779	7779	7608	7608	7779	7779	6349	6349	6349	6349	6349	6235	6235	6235	6349	6349	6720	6853	6853	0	0	0	2532	2551	2551	2532	2532	2514	2514	2496	2496	2496	2496	0	0	0	0	0	0	0	0	0	0	0	0	0	0	0	0	0	0	0	0	0	0	0	0	0	0	0	0	0	0	0	0	0	0	0	0
0	0	0	0	0	0	858	858	858	858	865	869	869	875	878	880	880	882	884	887	896	896	898	901	905	905	905	908	910	910	920	925	927	930	932	935	937	940	945	953	955	958	963	966	966	969	977	983	985	988	991	994	1000	1003	1008	1017	1020	1020	1023	1023	1026	1036	1042	1052	1058	1064	1064	1068	1068	1071	1074	1078	1081	1085	1091	1091	1091	0	0	0	0	0	0	0	0	4771	4771	4771	4771	4771	4771	4771	4771	4771	4771	4771	4771	4771	4771	4771	4771	4771	4771	4771	4771	4771	4771	4771	4771	4771	4771	4771	4771	4771	4771	4771	4771	4771	4771	4771	4771	4771	4771	4771	4771	4771	4771	4771	4771	4838	4838	4771	4771	4771	4771	4771	4771	4771	4771	4771	4771	4771	4706	4706	4706	4706	4643	4643	6349	6349	6235	6349	6349	6468	6468	6468	6468	6468	6468	6468	6349	6349	6349	6349	6349	6349	6349	6349	6349	6349	6468	6349	6349	6349	6349	6349	6349	6349	6349	6349	6349	6349	6349	6349	6349	6349	7608	7608	7779	7959	7959	7779	7779	7779	7779	7779	7779	7779	7959	7959	7959	7959	7959	7959	7959	7959	7959	7959	8146	8146	8146	8146	8146	8146	8146	7959	7959	8146	8146	8146	8146	7959	7959	7959	7959	7959	7959	8146	8146	8146	8146	8146	8146	7959	7959	7959	8146	8146	8146	8343	8343	8343	8343	8343	8343	8146	7959	7779	7779	7779	7779	7779	7779	3738	3698	3698	3698	3698	3698	3698	0	0	0	0	0	0	0	0	0	0	0	0	0	0	0	0	0	0	0	0	0	0	0	0	0	0	0	0	0	0	0	3779	3738	3738	3738	3738	3738	3738	3779	3779	3779	3779	3779	3738	3738	3738	3738	3738	3738	3738	3738	3698	3698	3698	3738	5364	5364	5364	4771	4838	4838	4771	4771	4771	4771	4771	4706	4706	4706	4706	4706	4706	4706	4706	4771	4706	4706	4706	4771	4706	4706	4706	4706	4643	4643	4581	4521	4521	4521	4521	4463	4463	4521	4521	4643	4643	4706	4706	4706	4643	4643	4643	4643	4643	4643	4643	4643	4643	4643	4643	4643	4643	4643	4643	4643	4643	4643	4643	4643	4643	4581	4581	4581	4581	4581	4581	4643	4706	4706	4706	4643	4643	4643	4643	4581	4581	4581	4581	4581	4581	4643	4643	4643	4643	4643	4643	4643	4643	4643	4706	4706	4643	4643	4706	4706	4706	0	0	0	4406	4406	4406	4406	4463	4521	4581	4643	4643	4643	4643	4643	4643	4643	4581	4581	4581	4581	4581	4581	4581	4581	4581	4581	4581	4581	4581	4581	4581	4581	4581	4581	4581	4581	4581	4581	4581	4581	4581	4643	4581	4581	4581	4581	4581	4581	4581	4581	4581	4581	4581	4581	4581	4581	4581	4581	4581	4581	4581	4581	4581	4581	4581	4581	4581	4521	4463	4406	4406	4350	4350	4350	4350	4350	4406	4463	4463	4463	4463	4581	4581	4581	4643	4706	4771	4838	4838	4906	4906	4838	4838	4838	4838	4838	4838	4838	4838	4838	4838	4838	4838	4838	4838	4771	4771	4838	4838	4838	4838	4838	4838	4838	4838	4838	0	0	0	0	0	0	0	0	7779	7779	7779	7779	7779	7779	7959	7779	7959	7959	7779	7959	7959	7959	7959	7959	7959	7959	7959	7959	7959	7779	7959	7959	7959	7959	7959	7779	7959	7779	7779	7779	7608	7608	7779	7608	7608	6468	6349	6349	6349	6235	6235	6235	6235	6349	0	0	0	0	0	0	2551	2551	2532	2532	2514	2514	2514	2496	2496	2478	2478	0	0	0	0	0	0	0	0	0	0	0	0	0	0	0	0	0	0	0	0	0	0	0	0	0	0	0	0	0	0	0	0	0	0	0	0
0	0	0	0	0	852	854	858	856	860	867	871	875	875	875	878	878	880	882	884	896	898	901	901	903	905	905	908	908	910	922	925	927	930	932	935	937	942	948	953	955	958	961	963	966	966	969	974	983	988	991	997	1000	1003	1008	1014	1020	1023	1023	1026	1030	1036	1039	1048	1058	1064	1064	1068	1071	1074	1074	1078	1081	1081	1081	1081	1081	0	0	0	0	0	0	0	0	4771	4771	4771	4771	4771	4771	4771	4771	4838	4838	4838	4771	4771	4771	4771	4771	4771	4771	4771	4771	4771	4771	4771	4771	4771	4771	4771	4771	4771	4771	4771	4771	4771	4771	4771	4771	4771	4771	4771	4771	4771	4771	4771	4771	4771	4771	4771	4771	4771	4771	4771	4771	4771	4771	4771	4771	4771	4706	4706	4706	4706	4706	4643	4643	6349	6349	6349	6349	6468	6349	6349	6349	6349	6349	6349	6349	6349	6349	6349	6349	6349	6349	6349	6349	6349	6349	6349	6349	6349	6349	6349	6349	6349	6349	6349	6349	6349	6349	6349	6468	6592	7444	7444	7608	7779	7779	7779	7779	7779	7779	7779	7779	7779	7959	7959	7959	7959	7779	7959	7959	7959	7959	7959	8146	8146	8146	8146	8146	8146	8146	7959	7959	8146	8146	8146	8146	7959	8146	7959	7959	8146	7959	8146	8146	8146	8146	8146	8146	8146	8146	7959	7959	8146	8146	8343	8343	8343	8343	8343	8343	8146	7959	7959	7779	7779	7779	7779	7779	7779	3698	3698	7779	0	0	0	0	0	0	0	0	0	0	0	0	0	0	0	0	0	0	0	0	0	0	0	0	0	0	0	0	0	0	0	0	0	0	3779	3738	3738	3738	3738	3738	3738	3779	3738	3779	3779	3779	3738	3738	3738	3738	3738	3738	3738	3738	3698	3698	3698	5364	5364	5364	5202	4771	4771	4838	4771	4771	4771	4771	4771	4771	4706	4706	4706	4706	4706	4706	4706	4706	4706	4706	4706	4771	4706	4706	4643	4643	4643	4643	4581	4521	4521	4521	4521	4521	4521	4521	4521	4581	4643	4706	4706	4643	4643	4643	4643	4643	4643	4581	4643	4581	4581	4581	4581	4643	4643	4643	4643	4643	4643	4643	4643	4643	4581	4581	4581	4643	4643	4581	4643	4643	4706	4706	4706	4643	4643	4581	4581	4581	4581	4581	4581	4581	4581	4581	4643	4643	4643	4643	4643	4643	4643	4643	4643	4643	4643	4643	4643	4643	4643	0	0	0	0	4350	4406	4406	4463	4521	4581	4643	4706	4643	4643	4643	4643	4643	4643	4581	4581	4581	4581	4581	4581	4581	4581	4581	4581	4581	4581	4581	4581	4581	4581	4581	4581	4581	4581	4581	4581	4581	4581	4581	4581	4581	4521	4581	4581	4581	4581	4581	4581	4581	4581	4581	4581	4581	4581	4581	4581	4581	4581	4581	4581	4581	4521	4581	4521	4521	4463	4406	4406	4350	4350	4350	4350	4350	4350	4406	4406	4463	4463	4521	4581	4581	4581	4706	4771	4838	4838	4906	4906	4838	4906	4906	4838	4838	4838	4838	4838	4838	4771	4838	4771	4771	4771	4771	4771	4771	4771	4838	4838	4838	4838	4838	4838	0	0	0	0	0	0	0	0	0	0	7779	7779	7779	7779	7779	7959	7779	7959	7959	7779	7779	7959	7779	7779	7779	7779	7959	7959	7959	7959	7959	7959	7959	7779	7779	7779	7779	7959	7959	7959	7779	7779	7779	7779	7608	7608	6468	6468	6349	6349	6349	6349	6235	6235	0	0	0	0	0	0	0	2551	2532	2532	2514	2514	2496	2496	2496	2496	2478	2478	0	0	0	0	0	0	0	0	0	0	0	0	0	0	0	0	0	0	0	0	0	0	0	0	0	0	0	0	0	0	0	0	0	0	0	0
0	0	0	0	0	852	854	858	860	878	869	873	875	875	875	875	875	878	880	882	896	901	901	901	903	905	908	908	910	917	922	925	925	927	930	935	940	945	950	953	958	958	961	963	966	966	969	974	983	985	991	994	1000	1003	1008	1017	1020	1023	1026	1026	1030	1033	1036	1045	1055	1061	1064	1068	1071	1071	1074	1078	1078	1081	1081	1081	1081	0	0	0	0	0	0	0	0	4771	4706	4771	4771	4771	4771	4771	4771	4838	4838	4838	4771	4771	4771	4771	4771	4771	4771	4771	4771	4771	4771	4771	4771	4771	4771	4771	4771	4771	4771	4771	4771	4771	4771	4771	4771	4771	4771	4771	4771	4771	4771	4771	4771	4771	4771	4771	4771	4771	4771	4771	4771	4706	4771	4706	4771	4706	4706	4706	4706	4706	4706	4706	4706	6349	6349	6349	6468	6468	6349	6349	6349	6349	6349	6349	6349	6349	6349	6349	6349	6349	6349	6349	6349	6349	6349	6349	6349	6349	6349	6349	6349	6349	6349	6468	6349	6349	6349	6349	6468	6592	6720	6992	6992	7779	7779	7779	7779	7779	7779	7779	7779	7779	7959	7959	7959	7959	7779	7779	7779	7779	7959	7959	7959	7959	7959	8146	8146	8146	8146	8146	8146	8146	8146	8146	8146	8146	7959	7959	7959	8146	7959	8146	8146	7959	8146	8146	7959	7959	7959	7959	7959	8146	8146	8343	8343	8343	8343	8343	8343	8146	7959	7779	7779	7779	7959	7779	7959	7779	7779	7959	7959	7959	0	0	0	0	0	0	0	0	0	0	0	0	0	0	0	0	0	0	0	0	0	3738	3738	0	0	0	0	0	0	0	0	0	0	0	3738	3738	3738	3738	3738	3738	3738	3738	3779	3779	0	3738	3779	3779	3738	3738	3738	3698	3698	5202	5125	5282	5364	5364	5282	5202	4838	4771	4838	4771	4771	4771	4771	4771	4771	4771	4771	4706	4706	4706	4706	4706	4706	4706	4706	4706	4706	4706	4706	4643	4643	4643	4581	4581	4521	4521	4521	4521	4521	4521	4521	4581	4643	4643	4643	4643	4643	4643	4581	4581	4643	4643	4581	4581	4581	4581	4581	4581	4581	4643	4643	4643	4643	4643	4643	4643	4643	4581	4581	4581	4581	4581	4581	4581	4643	4706	4706	4643	4643	4643	4581	4581	4581	4581	4521	4521	4581	4581	4581	4581	4643	4643	4643	4643	4643	4643	4643	4643	4643	4643	4643	4643	4581	4581	4581	0	0	0	4406	4406	4406	4521	4521	4581	4581	4643	4643	4643	4643	4643	4643	4643	4581	4581	4581	4581	4581	4581	4581	4581	4581	4581	4581	4581	4581	4581	4581	4581	4581	4581	4581	4581	4581	4581	4581	4581	4581	4581	4581	4521	4581	4581	4581	4581	4581	4581	4581	4581	4581	4581	4581	4581	4581	4581	4581	4581	4581	4581	4581	4581	4581	4581	4521	4406	4406	4406	4350	4350	4296	4296	4350	4406	4463	4463	4521	4521	4581	4581	4581	4581	4643	4706	4771	4838	4906	4906	4906	4906	4906	4838	4838	4838	4838	4838	4838	4771	4838	4771	4771	4771	4771	4771	4771	4771	4771	4838	4838	4838	4838	4838	0	0	0	0	0	0	0	0	0	0	7779	7779	7779	7779	7779	7779	7779	7779	7779	7779	7779	7779	7779	7779	7779	7779	7959	7959	7959	7959	7959	7959	7959	7779	7779	7779	7779	7959	7959	8146	8146	7959	7959	7959	7959	7608	0	6468	6349	6349	6349	6349	6349	6235	0	0	0	0	0	0	0	2532	2532	2532	2514	2514	2496	2496	2496	2478	2478	2478	0	0	0	0	0	0	0	0	0	0	0	0	0	0	0	0	0	0	0	0	0	0	0	0	0	0	0	0	0	0	0	0	0	0	0	0
0	0	0	0	0	854	856	860	858	875	869	871	873	873	873	875	875	875	880	880	894	898	898	898	901	903	908	908	915	917	922	925	925	927	930	935	942	945	950	953	955	958	963	966	966	969	972	974	980	983	988	991	997	1003	1011	1017	1023	1023	1026	1026	1030	1030	1033	1039	1052	1061	1061	1068	1071	1074	1074	1078	1081	1081	1081	1081	1081	0	0	0	0	0	0	0	0	0	4771	4771	4771	4771	4771	4771	4771	4838	4838	4771	4771	4771	4771	4771	4771	4771	4771	4771	4771	4771	4771	4771	4771	4771	4771	4771	4771	4838	4838	4838	4771	4771	4771	4771	4771	4771	4771	4771	4771	4771	4771	4771	4771	4771	4771	4771	4706	4771	4771	4771	4771	4706	4771	4771	4771	4706	4706	4706	4706	4706	4706	4706	6468	6349	6349	6349	6468	6468	6349	6349	6349	6349	6349	6349	6349	6349	6349	6349	6349	6349	6349	6349	6235	6349	6349	6349	6349	6349	6349	6349	6349	6349	6349	6349	6349	6349	6349	6349	6468	6468	6592	6720	6720	7608	7779	7779	7779	7779	0	0	7779	7779	0	0	7959	7959	7779	7608	7608	7779	7779	7779	7959	7959	8343	8146	8146	8146	8146	8146	8146	8146	8146	8146	8146	8146	8146	8146	7959	8146	7959	7959	7959	7959	8146	8146	7959	7959	7959	7959	7959	7959	7959	8146	8146	8343	8343	8343	8343	8146	7959	7959	7959	7959	7959	7959	7959	7959	7959	7959	7959	7959	0	0	0	0	0	0	0	0	0	0	0	0	0	0	0	0	0	0	0	0	3738	3698	3698	0	0	0	0	0	0	0	0	0	0	0	0	3738	3738	3738	3738	3738	3738	0	0	0	0	0	3779	3779	3738	3738	3698	3698	5282	5202	5202	5282	5364	5364	5448	5364	5364	4771	4838	4771	4771	4771	4771	4771	4771	4771	4771	4706	4706	4706	4706	4706	4706	4706	4706	4706	4706	4706	4643	4643	4643	4643	4643	4581	4581	4521	4521	4521	4521	4521	4521	4581	4581	4643	4643	4643	4643	4581	4581	4581	4643	4643	4581	4581	4581	4581	4581	4581	4581	4581	4643	4643	4643	4643	4643	4643	4581	4581	4581	4581	4581	4581	4581	4643	4643	4706	4706	4643	4643	4581	4581	4581	4521	4521	4521	4521	4521	4521	4581	4581	4581	4643	4643	4643	4643	4643	4643	4643	4643	4643	4581	4643	4581	4521	4463	4463	0	0	4350	4350	4406	4521	4521	4581	4643	4643	4643	4643	4581	4643	4643	4581	4581	4581	4581	4581	4581	4581	4581	4581	4581	4581	4581	4581	4581	4581	4581	4581	4581	4581	4581	4581	4581	4581	4581	4581	4581	4581	4581	4521	4581	4581	4581	4581	4581	4581	4581	4581	4581	4581	4581	4581	4581	4581	4581	4581	4581	4581	4581	4581	4581	4581	4521	4406	4463	4406	4350	4350	4296	4296	4296	4350	4406	4463	4521	4521	4643	4581	4581	4643	4643	4706	4771	4838	4838	4906	4838	4906	4838	4838	4838	4838	4838	4771	4771	4771	4771	4771	4771	4771	4771	4771	4771	4771	4771	4771	4838	4771	4771	4838	4838	0	0	0	0	0	0	0	0	0	0	7779	7779	7779	7779	7779	7779	7779	7779	7779	7779	7779	7779	7779	7779	7779	7959	7959	7959	7959	7959	7608	7608	7779	7779	7779	7779	0	7959	7959	8146	7959	7959	7959	7959	0	0	0	0	6349	6349	6349	6349	0	0	0	0	0	0	0	0	2532	2532	2532	2514	2514	2514	2496	2496	2496	2478	2478	0	0	0	0	0	0	0	0	0	0	0	0	0	0	0	0	0	0	0	0	0	0	0	0	0	0	0	0	0	0	0	0	0	0	0	0
0	0	0	0	0	852	854	858	860	875	867	873	873	875	875	875	875	878	880	882	889	896	896	898	901	903	905	908	917	920	922	925	927	927	930	935	942	945	950	953	955	958	961	963	966	966	972	974	980	985	988	991	997	1000	1006	1008	1008	1023	1026	1030	1030	1033	1036	1042	1052	1061	1064	1068	1071	1074	1078	1078	1081	1081	1081	1081	1081	0	0	0	0	0	0	0	0	0	4771	4771	4771	4771	4838	4838	4838	4838	4838	4838	4771	4771	4771	4771	4771	4771	4771	4771	4771	4771	4771	4771	4771	4771	4771	4771	4771	4838	4838	4838	4838	4771	4771	4771	4771	4771	4771	4771	4771	4771	4771	4771	4771	4771	4771	4771	4706	4771	4771	4771	4771	4706	4706	4706	4706	4706	4706	4706	4706	4706	4706	4706	6592	6468	6468	6468	6468	6468	6468	6349	6349	6349	6235	6235	6235	6349	6235	6349	6349	6235	6235	6235	6235	6235	6235	6235	6349	6349	6349	6349	6349	6349	6349	6349	6349	6349	6349	6349	6468	6468	6468	6468	6720	7608	7779	7779	7779	0	0	0	0	0	0	0	0	0	7779	7608	7608	7779	7779	7779	7959	7959	7959	8146	8146	8146	8146	8146	8146	8146	8146	8146	8146	8146	8146	8146	8146	8146	7959	7959	7959	7959	7959	8146	7959	7959	7959	7959	7959	7959	7959	8146	8146	8343	8343	8343	8343	8146	8146	8146	7959	8146	8146	8146	8146	8146	8146	8146	8146	7959	7959	0	0	0	0	0	0	0	0	0	0	0	0	0	0	0	0	0	0	0	3738	3698	3698	0	0	0	0	0	0	0	0	0	0	0	0	0	3738	3738	3738	3738	0	0	0	0	0	0	0	0	0	3738	3698	5282	5282	5282	5282	5282	5364	5364	5448	5364	5364	4838	4838	4838	4771	4771	4771	4771	4771	4771	4771	4706	4706	4706	4706	4706	4706	4706	4706	4706	4706	4706	4706	4643	4643	4643	4643	4643	4581	4581	4521	4521	4521	4521	4521	4521	4581	4643	4643	4643	4643	4581	4581	4581	4643	4643	4643	4581	4581	4581	4581	4581	4581	4581	4643	4643	4643	4706	4643	4643	4643	4643	4581	4581	4581	4581	4581	4581	4643	4643	4643	4643	4581	4581	4521	4521	4521	4521	4463	4463	4521	4521	4521	4581	4581	4581	4581	4643	4581	4643	4643	4643	4643	4643	4581	4581	4581	4521	4463	4463	4463	0	4350	4350	4406	4521	4521	4581	4581	4643	4643	4643	4581	4581	4581	4581	4581	4581	4581	4581	4581	4581	4581	4581	4581	4581	4581	4581	4581	4581	4581	4581	4581	4581	4581	4643	4581	4581	4643	4643	4581	4581	4581	4581	4581	4581	4581	4581	4581	4581	4581	4581	4581	4581	4581	4581	4581	4581	4581	4581	4521	4521	4581	4581	4581	4581	4521	4521	4521	4406	4350	4296	4350	4296	4350	4350	4406	4463	4521	4521	4643	4581	4581	4581	4643	4706	4771	4838	4906	4906	4838	4838	4838	4838	4838	4771	4771	4771	4771	4771	4771	4771	4771	4771	4771	4771	4771	4771	4771	4771	4771	4771	4771	4838	4838	4838	0	0	0	0	0	0	0	0	0	0	0	7608	7779	7779	7779	7779	7779	7779	7779	7779	7779	7779	7779	7779	7779	7959	7959	7959	7779	7608	7779	7779	7779	7779	0	0	0	7959	8146	7959	7959	0	0	0	0	0	0	0	6349	6349	0	0	0	0	0	0	0	0	0	0	2514	2532	2514	2514	2514	2496	2496	2496	2478	2478	0	0	0	0	0	0	0	0	0	0	0	0	0	0	0	0	0	0	0	0	0	0	0	0	0	0	0	0	0	0	0	0	0	0	0	0
0	0	0	0	0	852	852	858	858	860	869	873	873	875	875	875	875	878	880	880	889	894	896	896	901	903	905	908	915	920	922	925	925	925	927	932	942	945	950	953	955	955	961	963	966	966	972	974	980	985	991	994	997	1000	1000	1011	1023	1026	1030	1030	1033	1033	1036	1042	1048	1058	1061	1064	1071	1074	1078	1078	1081	1081	1081	1085	1085	0	0	0	0	0	0	0	0	0	4771	4771	4771	4771	4838	4838	4838	4838	4838	4838	4771	4771	4771	4771	4771	4771	4771	4771	4771	4771	4771	4771	4771	4771	4771	4771	4771	4838	4838	4838	4838	4838	4771	4771	4771	4771	4771	4771	4771	4771	4771	4771	4706	4706	4706	4771	4706	4771	4771	4771	4706	4706	4706	4706	4706	4706	4706	4706	4706	4706	4706	4706	6592	6468	6468	6468	6468	6468	6349	6349	6349	6235	6235	6235	6235	6235	6349	6349	6349	6349	6235	6235	6235	6235	6235	6235	6235	6235	6235	6349	6235	6235	6349	6349	6349	6349	6349	6349	6468	6468	6468	6468	0	0	7779	7779	7779	0	0	0	0	0	0	0	0	0	0	0	7444	7608	7608	7779	7959	7959	7959	7959	8146	7959	7959	8146	8146	8146	8146	8146	8146	8146	8146	8146	8146	8146	7959	8146	7959	7959	7959	7959	7959	7959	7959	7959	7959	7959	7959	8146	8146	8146	8343	8343	8146	8146	8146	8146	8146	8146	8146	8146	8146	8146	8146	8146	8146	7959	7959	0	0	0	0	0	0	0	0	0	0	0	0	0	0	0	0	0	0	0	3698	3698	3698	3698	3698	3698	0	0	0	0	0	0	0	0	0	0	0	0	0	0	0	0	0	0	0	0	0	0	0	0	5364	5282	5282	5282	5282	5364	5364	5364	5448	5364	5364	4906	4838	4838	4771	4771	4771	4771	4771	4771	4771	4771	4771	4706	4706	4706	4706	4706	4706	4643	4643	4643	4643	4643	4643	4643	4643	4643	4581	4581	4521	4521	4521	4521	4521	4521	4581	4581	4643	4643	4643	4581	4581	4581	4643	4643	4643	4581	4643	4643	4581	4581	4581	4643	4643	4643	4706	4643	4643	4643	4643	4581	4581	4581	4581	4581	4581	4581	4581	4643	4643	4581	4581	4581	4521	4521	4463	4463	4463	4463	4463	4463	4521	4521	4581	4581	4581	4581	4643	4643	4643	4643	4643	4643	4581	4581	4521	4521	4521	4463	4463	0	0	0	0	4521	4521	4581	4581	4643	4581	4581	4581	4581	4581	4581	4581	4581	4581	4581	4581	4581	4581	4581	4581	4581	4581	4581	4581	4581	4581	4581	4581	4581	4643	4643	4643	4643	4643	4643	4643	4581	4581	4581	4581	4581	4581	4581	4581	4581	4581	4581	4581	4581	4581	4581	4581	4581	4581	4581	4521	4581	4643	4581	4581	4581	4521	4463	4463	4406	4350	4296	4296	4350	4350	4350	4406	4463	4521	4521	4581	4581	4581	4581	4643	4706	4771	4838	4838	4838	4838	4838	4838	4838	4838	4771	4771	4771	4771	4771	4771	4771	4771	4771	4771	4771	4771	4838	4838	4838	4838	4771	4771	4771	4771	4771	0	0	0	0	0	0	0	0	0	0	0	7608	7779	7779	7779	7779	7779	7779	7779	7779	7779	7779	7779	7608	7608	7959	7959	7959	7779	7779	7779	7779	0	0	0	0	0	0	0	0	0	0	0	0	0	0	0	0	0	0	0	0	0	0	0	0	0	0	0	0	2532	2532	2514	2514	2496	2496	2496	2496	2478	2478	0	0	0	0	0	0	0	0	0	0	0	0	0	0	0	0	0	0	0	0	0	0	0	0	0	0	0	0	0	0	0	0	0	0	0	0
0	0	0	0	0	850	852	854	854	858	865	871	873	875	875	875	875	878	880	880	889	894	894	896	901	903	905	908	920	920	922	925	925	925	927	937	948	948	953	955	955	955	958	963	963	966	972	974	974	985	994	997	997	1000	1006	1003	1023	1030	1030	1033	1033	1033	1036	1042	1048	1058	1061	1064	1068	1071	1078	1078	1081	1081	1081	1085	1085	1085	0	0	0	0	0	0	0	0	4771	4771	4838	4838	4838	4838	4771	4838	4838	4838	4771	4771	4771	4771	4771	4771	4771	4771	4771	4771	4771	4771	4771	4771	4771	4771	4771	4771	4838	4838	4838	4838	4771	4771	4771	4771	4706	4771	4706	4771	4771	4706	4706	4706	4771	4771	4706	4771	4771	4771	4706	4706	4706	4706	4706	4706	4706	4706	4706	4706	4706	4706	6592	6468	6592	6468	6468	6468	6349	6235	6349	6349	6235	6235	6235	6349	6349	6349	6349	6349	6349	6235	6235	6235	6235	6235	6235	6235	6235	6349	6349	6235	6235	6349	6349	6349	6349	6349	6349	6349	6468	6468	0	0	0	0	0	0	0	0	0	0	0	0	0	0	0	0	7444	7444	7608	7779	7959	7779	7959	8146	8146	7959	7959	8146	8146	8146	8146	8146	8146	8146	8146	8146	8146	8146	7959	8146	7959	7959	7959	7959	7959	7779	7959	7959	7959	7959	7959	8146	8146	8146	8343	8343	8146	8146	8146	8146	8146	8146	8146	8146	8146	8146	8146	8146	8146	8146	8146	8146	0	0	0	0	0	0	0	0	0	0	0	0	0	0	0	0	0	0	3698	3698	3698	3738	3738	3738	3738	0	0	0	0	0	0	0	0	0	0	0	0	0	0	0	0	0	0	0	0	0	0	5364	5364	5282	5282	5282	5282	5282	5364	5364	5448	5364	5282	4906	4838	4838	4771	4771	4771	4771	4771	4771	4771	4706	4706	4706	4706	4643	4643	4643	4643	4643	4643	4643	4643	4581	4643	4643	4643	4643	4581	4581	4521	4521	4521	4463	4463	4521	4521	4521	4581	4643	4643	4581	4643	4643	4643	4643	4643	4643	4643	4581	4581	4581	4581	4581	4643	4643	4643	4643	4643	4643	4581	4581	4581	4581	4581	4581	4581	4581	4581	4581	4581	4581	4581	4521	4521	4463	4406	4406	4406	4406	4463	4406	4463	4521	4581	4581	4581	4581	4581	4643	4643	4643	4643	4643	4581	4581	4521	4521	4521	0	0	0	0	0	0	4521	4521	4581	4581	4581	4581	4581	4581	4581	4581	4581	4581	4581	4581	4581	4581	4581	4581	4581	4581	4581	4581	4581	4581	4581	4581	4581	4581	4581	4581	4581	4581	4581	4581	4581	4643	4581	4581	4581	4581	4581	4581	4581	4581	4581	4581	4581	4581	4581	4581	4581	4581	4581	4581	4581	4521	4643	4643	4643	4643	4521	4521	4463	4463	4350	4296	4296	4296	4350	4350	4350	4350	4406	4521	4521	4581	4643	4581	4643	4643	4706	4771	4771	4838	4838	4838	4838	4838	4838	4771	4771	4771	4771	4771	4771	4771	4771	4771	4771	4838	4838	4838	4838	4838	4838	4771	4771	4771	4771	4771	4771	0	0	0	0	0	0	0	0	0	0	0	7444	7779	7779	7779	7779	7779	7779	7779	7779	7779	7779	7779	7608	7608	7959	7959	8146	8146	7779	7779	0	0	0	0	0	0	0	0	0	0	0	0	0	0	0	0	0	0	0	0	0	0	0	0	0	0	0	0	0	2532	2532	2514	2514	2496	2496	2496	2478	2478	2478	2478	0	0	0	0	0	0	0	0	0	0	0	0	0	0	0	0	0	0	0	0	0	0	0	0	0	0	0	0	0	0	0	0	0	0	0
0	0	0	0	0	850	852	854	854	856	860	867	871	873	873	875	878	878	880	882	889	891	894	894	896	901	908	922	920	922	922	925	925	925	927	927	948	945	950	953	953	955	955	963	966	966	972	974	980	988	994	994	997	1000	1003	1000	1023	1030	1033	1033	1036	1033	1036	1042	1048	1058	1061	1064	1068	1071	1074	1078	1081	1081	1081	1085	1085	1085	0	0	0	0	0	0	0	0	0	4977	4977	4838	4838	4838	4838	4771	4771	4771	4771	4771	4771	4706	4706	4771	4771	4771	4771	4771	4771	4771	4771	4771	4771	4771	4771	4771	4771	4838	4771	4771	4771	4771	4771	4771	4706	4771	4771	4771	4771	4706	4706	4706	4771	4771	4706	4771	4771	4771	4706	4706	4706	4706	4706	4706	4706	4706	4706	4706	4706	4706	6592	6592	6592	6468	6468	6468	6349	6235	6235	6235	6235	6235	6124	6235	6349	6349	6349	6235	6235	6235	6235	6235	6235	6235	6235	6235	6349	6349	6349	6235	6349	6349	6349	6349	6349	6349	6349	6349	6349	6468	0	0	0	0	0	0	0	0	0	0	0	0	0	0	0	0	0	7444	7608	7779	7779	7779	7959	8146	8146	7959	7959	7959	8146	8146	8146	8146	8146	8146	8146	8146	8146	8146	7959	7959	7959	7959	7959	7959	7959	7959	7959	7959	7959	7959	7959	8146	8146	8146	8146	8146	8146	8146	8146	8146	8146	8146	8343	8146	8146	8146	8146	8146	8146	8146	8146	8146	0	0	0	0	0	0	0	0	0	0	0	0	0	0	0	0	0	0	3698	3698	3738	3738	3738	3779	3779	0	0	0	0	0	0	0	0	0	0	0	0	0	0	0	0	0	0	0	0	0	5364	5364	5364	5282	5282	5282	5282	5282	5364	5364	5364	5364	5282	4838	4838	4838	4771	4771	4771	4771	4771	4771	4771	4771	4706	4706	4706	4643	4643	4643	4643	4643	4643	4643	4643	4643	4643	4643	4643	4643	4581	4581	4521	4521	4463	4463	4463	4463	4521	4521	4581	4643	4643	4581	4643	4643	4643	4643	4643	4643	4643	4643	4581	4581	4581	4581	4643	4643	4643	4643	4643	4581	4581	4581	4581	4581	4581	4581	4581	4581	4581	4581	4581	4581	4521	4521	4463	4463	4406	4406	4406	4406	4406	4406	4406	4463	4463	4463	4521	4581	4643	4581	4643	4643	4643	4643	4581	4581	4521	4521	4521	0	0	0	0	0	4521	4521	4521	4521	4581	4581	4581	4581	4581	4581	4581	4581	4581	4581	4581	4581	4581	4581	4581	4581	4581	4581	4581	4581	4581	4581	4581	4521	4521	4521	4581	4581	4581	4581	4581	4643	4643	4643	4581	4581	4643	4581	4581	4581	4581	4581	4581	4581	4581	4581	4581	4581	4581	4581	4581	4581	4581	4643	4643	4643	4581	4581	4521	4463	4463	4406	4350	4350	4350	4350	4350	4350	4350	4406	4521	4581	4643	4643	4581	4581	4643	4706	4771	4838	4838	4838	4838	4838	4838	4771	4771	4771	4771	4771	4771	4771	4771	4771	4771	4771	4838	4838	4838	4838	4838	4771	4771	4771	4706	4706	4771	4771	0	0	0	0	0	0	0	0	0	0	0	7444	7779	7779	7779	7608	7608	7779	7779	7779	7779	7779	0	0	0	8146	8146	8146	8146	7779	7779	0	0	0	0	0	0	0	0	0	0	0	0	0	0	0	0	0	0	0	0	0	0	0	0	0	0	0	0	2551	2532	2514	2514	2514	2496	2496	2478	2478	2478	2478	2478	0	0	0	0	0	0	0	0	0	0	0	0	0	0	0	0	0	0	0	0	0	0	0	0	0	0	0	0	0	0	0	0	0	0	0
0	0	0	0	0	848	852	856	856	858	862	867	869	873	873	875	878	880	882	884	889	891	891	894	896	901	905	920	920	922	922	925	925	925	925	927	942	945	950	953	955	955	961	963	966	966	974	977	983	988	994	997	997	1000	1003	1003	1017	1030	1030	1033	1033	1033	1036	1039	1048	1061	1061	1064	1068	1071	1074	1078	1081	1081	1085	1088	1088	1091	1091	1091	0	0	0	0	0	0	0	4977	4977	4838	4838	4838	4838	4771	4771	4771	4771	4771	4771	4706	4771	4771	4771	4771	4771	4771	4771	4771	4771	4771	4771	4771	4771	4771	4771	4771	4771	4771	4771	4771	4771	4771	4771	4771	4771	4771	4771	4771	4706	4771	4771	4771	4771	4771	4771	4771	4706	4706	4706	4706	4706	4706	4706	4706	4706	4706	4771	4771	6592	6592	6468	6468	6468	6468	6349	6235	6235	6235	6235	6235	6235	6349	6349	6349	6349	6349	6235	6235	6235	6235	6235	6124	6235	6235	6235	6349	6235	6235	6235	6349	6349	6349	6349	6468	6468	6349	6349	0	0	0	0	0	0	0	0	0	0	0	0	0	0	0	0	0	7137	7287	7444	7779	7779	7779	7779	7959	7959	7959	7959	8146	8146	8146	7959	7959	8146	8146	7959	7959	8146	8146	7959	7959	7959	7959	7959	7959	7959	7959	7959	7959	7959	7959	7959	8146	8146	8146	8146	8146	8146	8343	8146	8343	8343	8343	8343	8146	8146	8146	8146	8146	8146	8146	8146	8146	0	0	0	0	0	0	0	0	0	0	0	0	0	0	0	0	0	0	0	3698	3738	3738	3738	3779	3779	3821	3821	0	0	0	0	0	0	0	0	0	0	0	0	0	0	0	0	0	0	5364	5364	5364	5364	5282	5282	5282	5282	5282	5364	5364	5364	5364	5282	4906	4838	4838	4771	4771	4771	4771	4771	4771	4771	4706	4706	4706	4706	4643	4643	4643	4643	4643	4581	4643	4643	4643	4643	4643	4643	4643	4581	4581	4521	4463	4463	4463	4463	4463	4521	4521	4581	4643	4643	4581	4643	4643	4643	4643	4643	4643	4643	4643	4643	4581	4581	4643	4643	4643	4643	4643	4643	4581	4581	4581	4581	4581	4581	4581	4581	4581	4581	4581	4581	4521	4463	4463	4463	4463	4406	4406	4406	4406	4406	4406	4350	4406	4463	4581	4581	4581	4643	4581	4643	4643	4643	4643	4643	4581	4581	4581	4581	0	0	0	0	0	4521	4463	4521	4521	4581	4581	4581	4581	4581	4581	4581	4581	4581	4581	4581	4581	4581	4581	4581	4581	4581	4581	4581	4581	4581	4581	4581	4521	4521	4581	4581	4581	4581	4581	4643	4643	4643	4643	4643	4643	4643	4581	4581	4581	4581	4581	4581	4581	4581	4581	4581	4581	4581	4581	4581	4581	4581	4643	4643	4643	4581	4581	4521	4463	4463	4406	4350	4350	4350	4296	4350	4350	4350	4406	4521	4581	4581	4643	4581	4643	4706	4706	4771	4838	4838	4838	4838	4838	4838	4771	4771	4771	4771	4771	4771	4771	4771	4771	4771	4771	4771	4838	4838	4771	4838	4771	4771	4771	4706	4706	4771	4771	0	0	0	0	0	0	0	0	0	0	0	0	7779	7779	7779	7608	7608	7779	0	0	0	0	0	0	0	8146	8146	8146	0	0	0	0	0	0	0	0	0	0	0	0	0	0	0	0	0	0	0	0	0	0	0	0	0	0	0	0	0	0	2551	2551	2532	2532	2514	2514	2496	2496	2478	2478	2478	2478	2478	0	0	0	0	0	0	0	0	0	0	0	0	0	0	0	0	0	0	0	0	0	0	0	0	0	0	0	0	0	0	0	0	0	0	0
0	0	0	0	0	845	848	856	858	860	862	869	869	873	873	875	878	880	882	884	889	889	891	891	896	901	903	908	917	920	922	925	927	927	930	932	940	942	950	953	958	955	961	963	969	969	977	977	985	991	994	997	1000	1000	1003	1003	1011	1023	1030	1033	1033	1033	1036	1039	1045	1058	1064	1068	1068	1071	1074	1078	1081	1081	1085	1088	1088	1091	1091	1091	0	0	0	0	0	0	0	0	0	4838	4906	4838	4771	4771	4771	4771	4771	4771	4771	4706	4771	4771	4771	4706	4706	4771	4771	4771	4706	4706	4771	4771	4771	4771	4771	4771	4771	4771	4771	4771	4771	4771	4771	4706	4771	4771	4771	4771	4706	4771	4771	4771	4771	4771	4771	4771	4706	4706	4706	4706	4706	4706	4706	4706	4706	4771	4771	4771	6592	6592	6468	6468	6349	6349	6349	6235	6235	6235	6235	6235	6235	6235	6349	6349	6349	6235	6235	6235	6235	6235	6235	6235	6235	6235	6235	6349	6349	6235	6235	6349	6349	6349	6468	6468	6468	0	0	0	0	0	0	0	0	0	0	0	0	0	0	0	0	0	0	0	7137	7137	7444	7608	7779	7779	7779	7959	7959	7959	7959	8146	8146	8146	7959	7959	7959	8146	8146	7959	8146	8146	7959	7959	7959	7959	7959	7959	7959	7959	7959	8146	8146	8146	8146	8146	8146	8343	8343	8343	8343	8343	8146	8343	8343	8343	8146	8146	8146	8146	8146	8146	8146	8146	8146	8146	0	0	0	0	0	0	0	0	0	0	0	0	0	0	0	0	0	0	0	3698	3698	3738	3779	3779	3779	3779	3821	0	0	0	0	0	0	0	0	0	0	0	0	0	0	0	0	0	0	5364	5364	5364	5364	5282	5282	5282	5282	5364	5364	5364	5364	5364	5282	4838	4838	4838	4771	4771	4771	4771	4771	4771	4706	4706	4706	4706	4643	4643	4643	4643	4643	4643	4581	4643	4643	4643	4643	4643	4706	4706	4643	4581	4521	4463	4406	4406	4406	4463	4463	4521	4581	4581	4643	4581	4643	4643	4643	4643	4643	4643	4643	4643	4581	4581	4643	4643	4643	4643	4643	4643	4643	4581	4581	4581	4581	4521	4521	4521	4581	4581	4521	4521	4521	4521	4463	4463	4406	4406	4350	4406	4406	4406	4406	4406	4406	4406	4581	4581	4581	4581	4643	4643	4643	4643	4643	4643	4581	4581	4581	4581	4581	0	0	0	0	0	4521	4463	4521	4521	4581	4581	4581	4581	4581	4581	4521	4521	4521	4521	4581	4581	4581	4581	4581	4581	4581	4581	4581	4581	4581	4581	4581	4521	4521	4581	4581	4581	4581	4581	4581	4643	4643	4643	4643	4643	4643	4643	4581	4581	4581	4581	4581	4581	4581	4581	4581	4581	4581	4581	4581	4581	4581	4581	4643	4581	4581	4581	4581	4521	4463	4406	4350	4350	4350	4350	4350	4350	4350	4406	4463	4521	4581	4581	4581	4643	4643	4706	4771	4838	4838	4838	4838	4838	4838	4771	4771	4771	4771	4771	4771	4771	4771	4771	4771	4771	4771	4771	4838	4838	4838	4838	4771	4771	4771	4771	4838	4838	0	0	0	0	0	0	0	0	0	0	0	0	0	0	0	0	0	0	0	0	0	0	0	0	0	0	0	0	0	0	0	0	0	0	0	0	0	0	0	0	0	0	0	0	0	0	0	0	0	0	0	0	0	0	0	0	0	2570	2570	2551	2551	2532	2532	2514	2496	2496	2496	2496	2478	2478	2478	0	0	0	0	0	0	0	0	0	0	0	0	0	0	0	0	0	0	0	0	0	0	0	0	0	0	0	0	0	0	0	0	0	0	0
0	0	0	0	0	848	852	856	856	858	860	867	869	873	873	878	880	882	882	887	887	889	889	894	894	901	903	908	915	920	922	927	927	927	930	932	935	940	945	953	958	958	961	963	969	969	977	980	991	994	997	997	1000	1003	1006	1006	1014	1023	1026	1030	1033	1033	1036	1039	1045	1055	1061	1068	1068	1071	1074	1078	1078	1081	1085	1088	1088	1088	1091	1095	1095	0	0	0	0	0	0	0	0	4771	4838	4838	4771	4771	4771	4771	4771	4771	4771	4771	4771	4771	4771	4771	4771	4771	4771	4771	4771	4771	4771	4771	4771	4771	4771	4771	4771	4771	4771	4771	4771	4771	4771	4706	4771	4771	4771	4771	4771	4771	4771	4771	4771	4771	4771	4771	4706	4706	4706	4706	4706	4706	4706	4706	4706	4706	4771	4771	4771	6592	6468	6468	6349	6349	6349	6235	6349	6235	6235	6235	6235	6235	6349	6349	6349	6235	6235	6235	6235	6235	6235	6124	6124	6235	6235	6349	6349	6235	6235	6349	6468	6468	6468	6468	0	0	0	0	0	0	0	0	0	0	0	0	0	0	0	0	0	0	0	0	6992	7137	7287	7608	7779	7779	7779	7959	7959	7959	7959	8146	7959	7959	7959	7959	7959	8146	8146	7959	8146	8146	8146	7959	7959	7959	7959	7959	7959	7959	8146	8146	8146	8146	8146	8146	8146	8146	8343	8146	8146	8343	8146	8343	8146	8146	8146	8146	8146	8146	8146	8146	8146	8146	8146	8146	0	0	0	0	0	0	0	0	0	0	0	0	0	0	0	0	0	0	0	3698	3698	3738	3779	3779	3779	3821	3821	0	0	0	0	0	0	0	0	0	0	0	0	0	0	0	0	0	0	5364	5364	5364	5364	5364	5364	5364	5282	5364	5364	5364	5364	5364	5282	4838	4838	4771	4771	4771	4706	4706	4771	4771	4706	4706	4706	4706	4643	4643	4581	4581	4643	4643	4643	4643	4706	4706	4706	4706	4706	4643	4643	4581	4521	4406	4406	4406	4463	4463	4521	4521	4581	4581	4581	4581	4643	4643	4643	4643	4643	4643	4643	4643	4643	4581	4643	4643	4643	4643	4643	4643	4643	4581	4581	4581	4581	4581	4581	4521	4581	4581	4521	4521	4521	4463	4463	4463	4406	4406	4406	4406	4406	4406	4406	4406	4406	4406	4521	4521	4521	4581	4581	4581	4643	4581	4643	4581	4581	4581	4581	4581	4581	0	0	0	0	0	4521	4463	4521	4521	4581	4581	4581	4581	4581	4581	4521	4521	4521	4521	4521	4581	4581	4581	4581	4581	4581	4581	4581	4581	4581	4581	4521	4521	4521	4521	4581	4581	4581	4581	4581	4643	4581	4581	4581	4581	4643	4581	4581	4581	4581	4581	4581	4581	4581	4581	4581	4581	4581	4581	4581	4581	4581	4581	4581	4581	4581	4521	4521	4463	4463	4463	4350	4350	4350	4296	4296	4296	4350	4406	4406	4521	4581	4581	4581	4581	4643	4706	4771	4838	4838	4838	4838	4838	4771	4771	4771	4771	4771	4771	4771	4771	4771	4771	4838	4771	4838	4838	4838	4838	4838	4838	4771	4838	4838	4838	4838	4838	0	0	5202	5202	0	0	0	0	0	0	0	0	0	0	0	0	0	0	0	0	0	0	0	0	0	0	0	0	0	0	0	0	0	0	0	0	0	0	0	0	0	0	0	0	0	0	0	0	0	0	0	0	0	0	0	0	2570	2570	2570	2551	2551	2532	2532	2514	2496	2496	2478	2478	2478	2478	2478	0	0	0	0	0	0	0	0	0	0	0	0	0	0	0	0	0	0	0	0	0	0	0	0	0	0	0	0	0	0	0	0	0	0	0
0	0	0	0	0	848	852	856	856	858	860	867	871	873	873	875	880	880	882	887	891	891	894	896	898	901	903	908	917	922	922	925	927	927	927	930	935	940	945	950	958	958	963	966	969	969	983	980	988	994	994	1000	1000	1003	1008	1008	1014	1020	1023	1030	1033	1036	1039	1039	1045	1058	1064	1068	1071	1074	1074	1078	1078	1081	1085	1088	1088	1095	1091	1105	1105	0	0	0	0	0	0	0	0	4771	4838	4838	4771	4706	4706	4771	4706	4706	4706	4771	4771	4771	4771	4771	4771	4771	4771	4706	4771	4771	4771	4771	4771	4771	4771	4771	4771	4771	4771	4771	4771	4771	4771	4771	4771	4771	4771	4771	4771	4771	4771	4771	4771	4706	4771	4771	4706	4706	4706	4706	4706	4706	4706	4706	4706	4706	4706	4706	6592	6468	6468	6468	6349	6349	6349	6235	6349	6349	6235	6235	6235	6235	6235	6349	6349	6235	6235	6349	6235	6235	6235	6124	6124	0	0	6349	6349	6235	6235	6349	6468	6468	0	0	0	0	0	0	0	0	0	0	0	0	0	0	0	0	0	0	0	0	0	0	6992	6992	6992	7608	7779	7779	7779	7959	7959	7959	7959	8146	7959	7959	7959	7959	7959	7959	7959	7959	7959	7959	7959	7959	7959	7959	7959	7959	7959	7959	8146	8146	8146	8146	8146	8146	8146	8146	8146	8146	8146	8146	8146	8343	8343	8146	8343	8146	8146	8146	8146	8146	8146	8146	8146	8146	8146	0	0	0	0	0	0	0	0	0	0	0	0	0	0	0	0	0	0	0	0	0	0	3779	3821	3821	3821	3821	3821	3821	0	0	0	0	0	0	0	0	0	0	0	0	0	0	0	5364	5364	5364	5364	5364	5364	5364	5364	5364	5364	5364	5364	5364	5364	4838	4838	4771	4771	4771	4706	4771	4771	4771	4706	4706	4706	4643	4643	4643	4643	4643	4643	4706	4643	4706	4706	4706	4581	4706	4706	4643	4581	4521	4463	4406	4406	4406	4463	4463	4521	4581	4581	4581	4581	4581	4643	4643	4643	4643	4643	4643	4643	4581	4581	4581	4581	4643	4643	4643	4643	4643	4643	4581	4581	4581	4521	4521	4521	4521	4521	4521	4521	4521	4521	4463	4463	4463	4406	4406	4406	4406	4406	4406	4406	4406	4406	4406	4521	4581	4581	4581	4581	4581	4643	4643	4643	4643	4581	4581	4581	4581	4581	0	0	0	0	0	4521	4521	4521	4521	4581	4581	4581	4581	4581	4581	4521	4521	4581	4581	4581	4581	4581	4581	4581	4581	4581	4581	4581	4581	4581	4581	4521	4521	4521	4581	4581	4581	4581	4581	4581	4581	4581	4581	4581	4581	4643	4581	4581	4581	4581	4581	4581	4581	4581	4581	4581	4581	4581	4581	4581	4581	4581	4581	4581	4581	4581	4521	4521	4463	4463	4463	4350	4350	4296	4350	4296	4296	4296	4406	4463	4521	4581	4643	4643	4643	4643	4706	4771	4771	4838	4838	4838	4838	4838	4771	4771	4771	4771	4838	4838	4771	4771	4771	4771	4771	4771	4838	4838	4771	4771	4771	4771	4838	4838	4838	4906	4906	5202	5202	5202	5125	5125	0	0	0	0	0	0	0	0	0	0	0	0	0	0	0	0	0	0	0	0	0	0	0	0	0	0	0	0	0	0	0	0	0	0	0	0	0	0	0	0	0	0	0	0	0	0	0	0	0	0	0	2570	2570	2570	2551	2532	2532	2514	2514	2496	2496	2478	2478	2478	2478	2478	0	0	0	0	0	0	0	0	0	0	0	0	0	0	0	0	0	0	0	0	0	0	0	0	0	0	0	0	0	0	0	0	0	0	0
