0	0	0	0	0	0	858	862	865	867	869	871	871	875	878	882	884	884	884	889	894	896	896	901	905	908	913	915	920	925	927	930	932	935	940	942	945	948	950	953	961	966	969	972	974	977	980	980	983	988	988	1003	1006	1011	1011	1017	1020	1026	1030	1036	1042	1045	1048	1052	1055	1061	1064	1071	1074	1081	1085	1085	1085	1088	1091	1091	1091	1091	1091	1095	1095	0	0	0	0	0	0	0	0	0	6124	6018	6018	6018	6018	6018	6018	5915	6018	6018	6124	6124	6235	6235	6349	6468	6468	6592	6592	6720	6592	6592	6592	6592	6592	6720	6720	6853	6853	6992	6992	6992	6992	6992	6992	6992	7137	7137	7287	7287	7444	7608	7444	7608	7608	7608	7779	7959	7959	7959	7959	7959	8146	8146	8146	8146	8146	8146	8146	8146	8146	8146	8146	8343	8343	8343	8343	8343	8343	8343	8343	8343	8343	8343	8343	8343	8343	8343	8343	8343	8343	8343	8343	8343	8343	8146	8146	8146	8146	8146	8146	8343	8146	8146	8343	8343	8343	8343	8343	8343	8343	8343	8146	8146	8146	7959	7959	7959	8146	8146	8146	8146	8146	8343	8343	8343	8146	8343	8343	8343	8343	8146	8343	8343	8146	8146	8146	8146	8146	8146	8146	8146	8146	8146	8146	8146	7959	7959	8146	8146	8146	7959	7959	7959	7959	7779	7959	7959	7959	7959	7959	7959	7959	7959	7779	7779	7779	7959	0	0	3779	3779	3779	3779	3779	3779	3779	3779	3779	3779	3779	3779	3779	3738	3738	3738	3738	3698	3698	3698	3698	3698	3698	3698	3698	3698	3698	3698	3698	3698	3659	3659	3659	3659	3659	3659	3659	3659	3659	3659	3659	3698	3698	3659	3698	3698	3698	3698	3698	3698	3698	3698	3698	3738	3738	3738	3738	3738	3738	3738	3738	3738	3738	3738	3738	3779	3779	3779	3779	3821	3821	8550	8550	8550	8550	8550	8343	8146	8146	8146	8146	7959	7959	8146	8146	8343	8343	8550	8767	8767	8550	8550	8550	8550	8550	8550	4771	4771	4771	8343	8146	4838	4838	8343	8343	8343	8343	8146	8146	8146	8146	8146	8146	8146	8343	8343	8343	8343	8550	8343	8343	8343	8146	8146	8146	8146	8146	7959	8146	7959	7959	7959	7959	7959	7959	8146	8146	8146	8146	8343	8343	8343	8343	4706	4771	4771	4771	4771	8146	8146	8146	7959	7959	7959	7779	7779	7779	7779	7959	7959	7959	8146	8146	8146	8146	8146	8146	4581	4581	4581	4581	7959	7959	7959	7959	7959	7959	4771	4771	4706	4706	4643	4643	4643	7779	7779	7608	7608	7779	7779	7959	7959	8146	8146	8146	8146	8146	7959	7959	7959	7959	4706	4706	4706	4643	4643	4643	4643	4643	4706	4706	4643	4643	4643	4643	7779	7779	4581	4581	7779	7959	4581	4521	4521	4581	4581	4581	4581	4581	4643	4643	4581	4581	4581	4643	4581	4581	4581	4581	4581	4581	4643	4643	7959	7959	4643	4643	4643	5364	5364	5364	5364	5364	5202	5202	5125	5125	5125	5050	5050	4977	4977	4977	4977	4906	4838	4838	4838	4838	4838	4838	4838	4838	4906	4906	4906	4906	4906	4906	4906	4906	4906	4906	4906	7959	7959	7959	7959	7959	8146	7959	7959	7959	7959	7959	7959	7959	7959	7959	7959	7959	7959	7959	7959	7959	7959	7959	7959	7959	7959	7959	7959	7959	7959	7959	8146	7959	8146	7959	7959	7959	7959	7959	8146	7959	8146	8146	8146	8146	8146	8146	8146	8146	0	0	0	0	0	2589	2570	2570	2551	2551	2551	2551	2532	2532	2532	2514	2496	2478	2478	2478	2478	0	0	0	0	0	0	0	0	0	0	0	0	0	0	0	0	0	0	0	0	0	0	0	0	0	0	0	0	0	0	0	0	0	0	0	0
0	0	0	0	0	860	860	862	865	867	869	871	871	873	880	882	884	884	887	889	891	894	896	901	905	910	913	915	917	925	930	932	932	937	940	940	942	945	948	948	953	969	969	972	977	980	980	980	980	988	994	1003	1006	1011	1011	1014	1020	1026	1030	1036	1039	1045	1048	1052	1052	1061	1064	1071	1074	1078	1085	1085	1085	1088	1091	1091	1091	1091	1095	1095	1095	0	0	0	0	0	0	0	0	0	6124	6018	6018	6018	6018	6018	6018	6018	6018	6018	6124	6124	6235	6349	6349	6468	6592	6592	6592	6720	6720	6720	6592	6592	6592	6592	6592	6853	6992	6992	7137	6992	6992	6992	7137	7137	7137	7137	7287	7444	7608	7608	7608	7608	7608	7779	7779	7959	7959	7959	7959	7959	7959	8146	8343	8343	8146	8146	8146	8146	8146	7959	7959	8146	8146	8343	8343	8343	8343	8343	8343	8343	8343	8343	8343	8343	8343	8343	8343	8343	8343	8343	8343	8343	8343	8146	8146	8146	8146	8146	8146	8343	8146	8343	8343	8343	8343	8343	8343	8343	8343	8146	8146	7959	8146	7959	7959	7959	8146	8146	8343	8343	8343	8343	8343	8343	8146	8343	8146	8343	8146	8146	8146	8146	8146	8343	8146	8343	8343	8343	8146	8146	8146	8146	8146	7959	7959	7959	7959	7959	7959	7959	7959	7959	7959	7959	7959	7959	7959	7959	7959	7959	7959	7959	7779	7779	7608	7608	0	0	3779	3821	3779	3779	3779	3779	3779	3779	3779	3779	3779	3779	3738	3738	3738	3738	3698	3698	3698	3698	3698	3698	3698	3698	3698	3698	3698	3698	3698	3698	3659	3659	3659	3659	3659	3659	3659	3659	3659	3659	3659	3698	3698	3659	3698	3698	3698	3698	3698	3698	3698	3698	3698	3738	3738	3738	3738	3738	3738	3738	3738	3738	3738	3738	3738	3779	3779	3779	3821	3821	3821	0	8550	8550	8550	8550	8550	4838	4838	8146	4771	4771	4706	4706	4706	8343	8146	8343	8767	8767	8550	8550	8550	8767	8550	4706	4706	4771	4771	4771	4838	4838	4838	4838	4838	4838	4771	4771	4771	4838	4838	8146	8146	8146	8343	8343	4771	4771	4771	4771	8343	8146	8146	8146	8146	7959	7959	7959	4706	4706	7959	8146	8146	7959	7959	7959	8146	4771	4771	4771	4771	4706	4771	4771	4771	4771	4771	4706	4771	4771	4771	4771	4771	4771	4838	4771	4771	4771	4771	7959	7959	8146	4838	4838	4838	4706	4643	4581	4643	4643	4643	4643	4643	4706	4706	4706	4706	4706	4706	4706	4643	4643	4643	4581	4643	4643	4706	4643	4643	4643	4643	4581	4581	4581	4581	8146	8146	7959	7959	4706	4706	4643	4706	4706	4643	4643	4643	4706	4706	4706	4706	4643	4643	4643	4643	4643	4643	4581	4581	4643	4581	4643	4581	4581	4581	4643	4581	4643	4643	4643	4643	4581	4581	4581	4581	4581	4581	4581	4581	4643	4643	4643	4643	4706	4706	4643	4643	4581	4581	4581	5448	5448	5364	5282	5202	5125	5125	5050	5050	4977	4977	4977	4977	4906	4838	4838	4838	4838	4838	4838	4838	4838	4838	4838	4838	4906	4906	4906	4906	4906	4906	4906	4906	4906	8146	7959	8146	8146	8146	8146	7959	7959	7959	7959	7959	7959	7959	7959	7959	7959	8146	7959	7959	7959	7959	8146	8146	7959	7959	7959	7959	7959	7959	7959	7959	8146	8146	8146	8146	7959	7959	7959	7959	8146	7959	8146	8146	8146	8146	8146	8146	8146	0	0	0	0	0	0	0	2570	2570	2551	2551	2551	2551	2551	2551	2532	2514	2496	2496	2478	2478	2478	0	0	0	0	0	0	0	0	0	0	0	0	0	0	0	0	0	0	0	0	0	0	0	0	0	0	0	0	0	0	0	0	0	0	0	0
0	0	0	0	0	860	862	865	867	869	873	873	873	878	882	882	884	887	887	891	894	896	898	903	905	910	913	915	917	922	930	930	932	935	937	942	942	945	945	948	948	974	974	974	977	980	980	980	983	985	1003	1006	1008	1011	1011	1017	1023	1026	1030	1033	1039	1042	1045	1048	1055	1061	1064	1071	1071	1078	1085	1085	1085	1088	1091	1091	1091	1091	1091	1091	1091	0	0	0	0	0	0	0	0	0	6235	6235	6018	6018	6018	6018	6018	6018	6018	6018	6124	6124	6235	6349	6468	6592	6592	6592	6592	6720	6720	6720	6592	6592	6592	6592	6592	6720	6720	7137	7137	7137	7137	7137	7137	7137	7137	0	0	7608	7608	7608	7608	7608	7779	7779	7779	7959	7959	7959	8146	7959	8146	8343	8343	8343	8343	8146	8343	8146	7959	7959	7959	8146	8146	8343	8343	8343	8343	8343	8343	8343	8343	8343	8343	8343	8343	8343	8343	8343	8343	8343	8343	8343	8146	8146	8146	8146	8343	8343	8146	8343	8343	8343	8343	8343	8343	8343	8343	8343	8343	8343	8146	8146	8146	8146	8146	8146	8146	8146	8146	8146	8343	8343	8343	8343	8146	8146	8146	8343	8146	8146	8146	8343	8343	8343	8146	8343	8343	8343	8146	8146	8146	8146	8146	8146	7959	7959	8146	8146	7959	7959	7959	7959	7779	7959	7959	7959	7959	7959	7959	7959	7959	7959	7779	7779	7779	7779	0	0	3779	3779	3779	3779	3779	3738	3738	3738	3738	3738	3738	3738	3738	3738	3698	3698	3698	3698	3698	3698	3698	3698	3698	3698	3698	3698	3698	3698	3698	3698	3698	3698	3659	3659	3659	3659	3659	3659	3659	3659	3659	3698	3698	3698	3698	3698	3698	3698	3698	3698	3698	3698	3698	3738	3738	3738	3738	3738	3738	3738	3738	3738	3738	3738	3738	3779	3779	3779	3779	3821	3821	3821	3821	8767	4838	4838	4838	4838	4838	4771	4771	4771	4706	4706	4706	4706	4706	4706	8767	8343	4706	4643	4706	4706	4706	4771	4706	4771	4771	4771	4771	4771	4771	4838	4771	4771	4771	4771	4771	4838	4771	4771	4771	4771	4771	4771	4771	4771	4771	4771	4771	4771	4771	4771	4771	4771	4771	4771	4771	4771	4771	4706	4771	4771	4771	4771	4771	4771	4771	4771	4771	4771	4771	4771	4771	4771	4771	4771	4771	4771	4706	4771	4771	4771	4771	4771	4771	4771	4771	4771	4771	4771	4771	4771	4771	4706	4643	4643	4643	4643	4643	4643	4643	4706	4706	4706	4706	4706	4706	4706	4643	4643	4643	4581	4581	4643	4643	4643	4643	4643	4643	4643	4643	4581	4643	4643	4643	4643	4706	4706	4706	4643	4643	4643	4643	4643	4643	4706	4706	4706	4706	4643	4706	4643	4643	4643	4643	4643	4643	4643	4643	4643	4643	4643	4581	4643	4643	4643	4643	4643	4643	4581	4581	4643	4643	4643	4643	4581	4643	4643	4706	4706	4643	4643	4643	4643	4643	4581	4581	4581	4643	5364	5364	5202	5125	5125	5125	5050	5050	4977	4977	4977	4977	4906	4838	4838	4838	4838	4838	4838	4838	4838	4838	4838	4838	4838	4906	4906	4906	4906	4906	4906	4906	4906	8146	7959	8146	8146	8146	8146	7959	7959	7959	7959	7959	7959	7779	7959	7959	7959	7959	7959	7959	8146	8146	8146	8146	7959	8146	7959	7959	7959	7959	7959	7959	8146	8146	8146	8146	7959	7959	7959	7959	7959	8146	8146	8146	8146	8146	8146	8146	8146	0	0	0	0	0	0	0	0	0	2551	2551	2551	2532	2532	2532	2514	2496	2496	2478	2460	2460	2460	0	0	0	0	0	0	0	0	0	0	0	0	0	0	0	0	0	0	0	0	0	0	0	0	0	0	0	0	0	0	0	0	0	0	0	0
0	0	0	0	0	0	862	865	867	869	871	873	878	878	882	884	884	887	889	891	894	896	901	903	905	905	915	915	915	920	925	930	932	937	940	942	942	945	945	948	948	969	974	974	977	980	980	980	983	985	991	1003	1006	1008	1014	1020	1023	1026	1030	1033	1039	1042	1045	1048	1052	1058	1064	1071	1074	1078	1081	1085	1085	1088	1091	1091	1091	1095	1095	1095	1098	1098	1098	0	0	0	0	0	0	0	6235	6235	6018	6018	6124	6018	6018	5915	6018	6018	6124	6124	6235	6349	6468	6592	6592	6592	6592	6720	6720	6720	6592	6592	6592	6592	4643	4643	4643	4906	4906	7137	7137	7137	7137	7137	7137	0	0	7608	7608	7608	4771	4771	4838	4838	4906	4906	4977	4977	7959	7959	8343	8343	8343	8343	8343	8343	8343	7959	7959	7959	7959	8146	8146	8343	8343	8343	8343	8343	8343	8343	8343	8343	8343	8343	8343	8343	8343	8343	8343	8343	8343	8343	8343	8343	8146	8343	8343	8343	8343	8343	8343	8343	8343	8343	8343	8343	8343	8343	8343	8343	8146	8146	8146	8146	8146	8146	8146	8146	8146	8146	8146	8146	8343	8343	8146	8343	8343	8343	8146	8146	8146	8146	8146	8146	8146	8146	8146	8343	8146	8146	7959	8146	8146	7959	8146	7959	8146	8146	7959	7959	7959	7959	7779	7959	7959	7959	7959	7959	7959	7959	7959	7959	7779	7779	7779	7779	0	0	3738	3779	3738	3738	3779	3738	3738	3738	3738	3738	3738	3738	3738	3738	3698	3698	3698	3698	3698	3698	3698	3698	3698	3698	3659	3659	3659	3698	3659	3698	3698	3698	3659	3698	3659	3659	3659	3659	3659	3659	3659	3659	3698	3659	3698	3698	3698	3698	3698	3698	3698	3698	3698	3738	3738	3738	3738	3738	3738	3738	3738	3738	3738	3738	3738	3779	3779	3779	3779	3779	3779	3779	4838	4838	4838	4838	4838	4838	4771	4771	4771	4771	4706	4706	4706	4706	4706	4706	4771	4771	4771	4771	4771	4771	4771	4771	4771	4771	4771	4771	4771	4771	4771	4771	4771	4771	4771	4771	4771	4771	4771	4771	4771	4771	4771	4771	4771	4771	4771	4771	4771	4771	4771	4771	4771	4771	4771	4771	4771	4771	4771	4771	4771	4771	4771	4771	4771	4771	4771	4771	4771	4771	4771	4771	4771	4771	4771	4771	4771	4706	4706	4706	4706	4706	4771	4706	4706	4706	4706	4706	4706	4706	4706	4706	4706	4706	4643	4643	4643	4643	4706	4706	4643	4706	4706	4706	4706	4706	4643	4643	4643	4643	4643	4643	4643	4643	4706	4643	4643	4706	4643	4643	4643	4643	4643	4643	4643	4706	4706	4706	4643	4643	4643	4643	4643	4643	4643	4706	4706	4706	4706	4706	4643	4643	4643	4643	4643	4643	4706	4706	4643	4643	4643	4643	4643	4643	4643	4643	4643	4643	4643	4643	4581	4643	4643	4643	4643	4581	4643	4643	4706	4706	4643	4643	4643	4643	4643	4581	4581	4643	4643	5364	5364	5202	5125	5125	5125	5050	5050	4977	4977	4977	4906	4906	4838	4838	4838	4838	4838	4838	4838	4838	4838	4838	4838	4906	4906	4906	4838	4838	4906	4838	4838	7959	7959	7959	7959	8146	8146	8146	7959	7959	7959	7959	7959	7959	7959	7959	7959	7959	7959	7959	7959	7959	7959	8146	8146	7959	8146	7959	7959	7959	7959	7959	7959	8146	8146	8146	8146	7959	7959	7959	7959	8146	8146	8146	8146	8146	8146	8146	8146	8146	0	0	0	0	0	0	0	0	0	2551	2551	2532	2532	2514	2514	2514	2496	2496	2478	2460	2460	2460	0	0	0	0	0	0	0	0	0	0	0	0	0	0	0	0	0	0	0	0	0	0	0	0	0	0	0	0	0	0	0	0	0	0	0	0
0	0	0	0	0	0	862	862	867	867	871	873	873	878	880	882	884	884	891	894	896	898	898	903	905	908	915	917	917	920	925	927	932	937	940	940	942	945	945	948	955	966	972	972	974	977	980	980	983	985	991	1006	1008	1014	1017	1020	1023	1026	1030	1033	1039	1042	1045	1048	1052	1058	1064	1071	1074	1078	1081	1085	1085	1088	1091	1095	1095	1095	1095	1095	1098	1098	1098	1098	0	0	0	0	0	0	0	0	6018	6124	6124	6018	6018	5915	6018	6018	6124	6124	6235	6235	6468	6468	6592	6592	6592	6720	6720	6720	6720	6720	4706	4706	4643	4643	4838	4838	4906	4838	4838	0	0	0	0	0	0	0	0	4771	4771	4771	4838	4838	4906	4906	4977	4906	5050	4906	4906	4906	8343	8343	8343	8343	8343	7959	7959	8146	8146	8146	8343	8343	8343	8343	8343	8343	8343	8343	8343	8146	8343	8343	8343	8343	8343	8343	8343	8343	8343	8343	8343	8343	8146	8343	8343	8343	8343	8343	8343	8343	8343	8343	8343	8343	8343	8343	8343	8146	8146	7959	7959	7959	8146	7959	8146	8146	8146	8146	8146	8343	8343	8343	8343	8343	8343	8343	8343	8343	8146	8146	8146	8343	8146	8146	8146	8343	8146	8146	7959	7959	7959	7959	7959	7959	7959	8146	7959	7959	7959	7959	7779	7959	7959	7959	7959	7959	7959	7959	7959	7779	7779	7608	7608	7608	0	0	3738	3779	3738	3738	3738	3738	3738	3738	3738	3738	3738	3738	3738	3738	3698	3698	3698	3698	3698	3698	3698	3698	3698	3698	3659	3659	3659	3659	3659	3698	3698	3698	3698	3698	3659	3659	3659	3659	3659	3659	3659	3659	3698	3659	3698	3698	3698	3698	3698	3698	3698	3698	3698	3698	3738	3738	3738	3738	3738	3738	3738	3738	3738	3738	3738	3779	3779	3779	3738	3738	3738	4838	4838	4838	4838	4838	4838	4838	4838	4771	4771	4771	4771	4771	4771	4771	4706	4706	4771	4771	4706	4771	4771	4771	4771	4771	4771	4771	4771	4771	4771	4771	4771	4771	4771	4771	4771	4771	4771	4771	4771	4771	4771	4771	4771	4771	4771	4771	4771	4771	4771	4771	4771	4771	4771	4771	4771	4771	4771	4771	4771	4771	4771	4771	4771	4771	4771	4771	4771	4771	4771	4771	4771	4771	4771	4771	4771	4706	4706	4706	4706	4706	4706	4706	4706	4643	4643	4643	4643	4643	4643	4581	4581	4643	4643	4643	4643	4643	4643	4706	4706	4706	4643	4643	4643	4706	4643	4643	4643	4643	4643	4643	4643	4643	4643	4643	4643	4643	4643	4643	4643	4643	4643	4643	4706	4706	4706	4706	4706	4706	4643	4643	4643	4643	4643	4643	4643	4706	4706	4706	4706	4643	4643	4643	4643	4643	4643	4643	4643	4643	4643	4643	4643	4643	4643	4643	4643	4643	4643	4643	4643	4643	4581	4643	4643	4643	4643	4643	4643	4643	4643	4643	4643	4643	4643	4581	4581	4581	4581	4581	4643	4643	4643	5050	5050	5125	5050	5050	5050	4977	4977	4977	4906	4906	4838	4838	4838	4771	4838	4838	4838	4838	4838	4838	4838	4906	4906	4906	4906	4838	4906	4906	4906	7959	7959	7959	7959	7959	8146	8146	7959	7959	7959	7959	7959	7959	7779	7959	7779	7959	7959	7959	7959	8146	8146	8146	8146	7959	8146	7959	7959	7959	7959	7779	7959	8146	8146	8146	8146	7959	7959	7959	8146	8146	8146	8146	8146	8146	8146	8146	8146	8146	0	0	0	0	0	0	0	0	0	2532	2532	2532	2514	2514	2514	2496	2496	2496	2478	2460	2460	2460	0	0	0	0	0	0	0	0	0	0	0	0	0	0	0	0	0	0	0	0	0	0	0	0	0	0	0	0	0	0	0	0	0	0	0	0
0	0	0	0	0	0	862	865	865	862	869	871	875	875	880	882	887	889	894	894	896	898	901	903	905	910	915	915	917	920	925	930	935	937	940	940	942	942	945	948	955	972	972	972	974	977	977	977	980	985	991	1006	1008	1011	1011	1020	1023	1026	1033	1036	1039	1045	1048	1048	1052	1058	1061	1068	1074	1078	1078	1085	1085	1088	1091	1095	1095	1091	1095	1095	1095	1098	1098	1098	0	0	0	0	0	0	0	0	4906	4906	4906	6018	6018	5915	6018	6018	4771	4838	4906	4838	4838	6592	6592	6592	6592	4771	4771	4771	4771	4771	4706	4706	4771	4771	4771	4838	4838	4838	4838	4838	4838	4771	4771	4771	4771	4706	4706	4706	4771	4771	4838	4838	4838	4906	4906	4906	4977	4906	4838	4838	4838	4838	8550	8343	5050	5050	5050	8146	8146	8146	8343	8343	8343	8343	8343	8343	8343	8343	8343	8146	8146	8146	8343	8343	8343	8343	8343	8343	8343	8343	8343	8343	8146	8343	8343	8343	8343	8343	8343	8343	8343	8343	8343	8343	8343	8343	8343	8146	8146	8146	8146	8146	8146	8146	8146	8146	8146	8343	8146	8343	8343	8343	8146	8343	8146	8146	8146	8146	8146	8146	8343	8343	8146	8146	8146	8146	8146	8146	7959	7959	7959	7959	7959	7959	7959	7959	7959	7959	7959	7959	7779	7779	7779	7959	7779	7959	7959	7959	7959	7779	7779	7608	7608	7608	0	0	3738	3738	3738	3738	3738	3738	3738	3738	3738	3738	3738	3738	3738	3698	3698	3698	3698	3698	3698	3698	3698	3698	3698	3698	3698	3659	3659	3659	3659	3659	3659	3659	3659	3698	3659	3698	3698	3698	3698	3659	3659	3698	3698	3698	3698	3698	3698	3698	3698	3698	3698	3698	3698	3698	3738	3738	3738	3738	3738	3738	3738	3738	3738	3738	3738	3779	3779	3779	3738	3738	3738	4838	4838	4838	4771	4771	4771	4771	4771	4771	4771	4771	4771	4771	4771	4771	4771	4706	4771	4771	4771	4771	4771	4771	4771	4771	4771	4771	4771	4771	4771	4771	4771	4771	4771	4771	4771	4771	4771	4771	4771	4771	4771	4771	4771	4771	4771	4771	4771	4771	4771	4771	4771	4771	4771	4771	4771	4771	4771	4771	4771	4771	4771	4771	4771	4706	4771	4771	4771	4771	4771	4771	4771	4771	4771	4771	4771	4706	4706	4706	4643	4643	4643	4643	4643	4643	4643	4581	4581	4581	4581	4581	4581	4581	4581	4581	4581	4581	4643	4643	4643	4643	4643	4643	4643	4643	4643	4643	4643	4643	4643	4643	4643	4643	4643	4643	4643	4643	4643	4643	4643	4643	4643	4643	4706	4706	4706	4706	4706	4706	4706	4706	4643	4706	4706	4643	4706	4706	4706	4706	4706	4706	4643	4706	4643	4643	4643	4643	4643	4643	4643	4643	4643	4643	4581	4643	4643	4581	4643	4643	4643	4643	4643	4643	4643	4643	4643	4581	4643	4643	4643	4643	4643	4643	4643	4581	4581	4581	4581	4581	4643	4643	4838	4977	5050	5050	5050	5050	5050	4977	4977	4906	4906	4906	4838	4838	4838	4771	4771	4771	4838	4838	4838	4838	4838	4838	4906	4906	4906	4906	4906	4906	4906	7959	7959	7959	7959	7959	8146	8146	7959	7959	7959	7959	7959	7959	7959	7959	7959	7959	7959	7959	7959	7959	8146	8146	8146	7959	8146	7959	7959	7959	7959	7959	7959	8146	8146	8146	8146	8146	8146	8146	8146	8146	8146	8146	8146	8146	8146	8146	7959	7959	7959	0	0	0	0	0	0	0	0	2532	2532	2514	2514	2514	2514	2496	2496	2496	2478	2460	2460	2460	0	0	0	0	0	0	0	0	0	0	0	0	0	0	0	0	0	0	0	0	0	0	0	0	0	0	0	0	0	0	0	0	0	0	0	0
0	0	0	0	0	860	862	865	865	862	867	869	873	875	880	884	884	891	894	896	896	898	898	903	905	910	915	915	917	920	927	932	937	940	940	942	942	942	945	948	955	966	972	972	974	974	977	977	980	985	994	1006	1008	1011	1014	1020	1023	1026	1033	1039	1042	1045	1048	1052	1055	1058	1061	1068	1071	1078	1078	1085	1085	1088	1091	1091	1095	1091	1095	1091	1091	1091	1091	1098	0	0	0	0	0	0	0	4906	4906	4838	4838	4838	4838	4838	4771	4771	4771	4838	4906	4906	4838	4771	4906	4906	4838	4838	4838	4771	4771	4838	4838	4771	4771	4771	4771	4838	4838	4838	4838	4838	4838	4771	4771	4771	4771	4771	4706	4706	4771	4771	4838	4838	4838	4838	4838	4838	4906	4838	4838	4838	4838	4838	4906	4906	5050	5050	4977	4977	8146	8146	8343	8343	8343	8343	8343	8343	8343	8343	8343	8146	8146	8146	8343	8146	8146	8146	8146	8146	8343	8146	8146	8146	8146	8146	8343	8343	8146	8146	8146	8343	8343	8343	8343	8343	8146	8146	8146	8146	8146	8146	8146	8146	8343	8343	8146	8146	8146	8146	8146	8146	8146	8146	8146	8146	8146	8146	8146	8146	8146	8343	8343	8343	8146	8146	8146	8146	8146	8146	7959	7959	7959	7959	7959	7959	7959	7959	7959	7959	7779	7959	7779	7779	7779	7959	7779	7959	7959	7959	7959	7779	7779	7779	7779	7779	0	0	3738	3738	3738	3738	3738	3738	3738	3738	3738	3738	3738	3698	3738	3698	3698	3698	3698	3698	3698	3698	3698	3698	3698	3698	3698	3659	3659	3659	3659	3659	3698	3659	3659	3698	3698	3698	3698	3698	3698	3659	3659	3698	3698	3698	3698	3698	3698	3698	3698	3698	3698	3698	3698	3698	3698	3738	3738	3738	3738	3738	3738	3738	3738	3738	3738	3779	3779	3779	3738	3738	4838	4771	4838	4771	4771	4771	4771	4771	4771	4771	4771	4771	4771	4771	4771	4771	4771	4771	4771	4771	4771	4771	4771	4771	4771	4771	4771	4771	4771	4771	4771	4771	4771	4771	4771	4771	4771	4771	4771	4771	4771	4771	4771	4838	4771	4838	4838	4771	4771	4771	4771	4771	4771	4771	4771	4771	4771	4771	4771	4771	4771	4771	4771	4771	4771	4771	4771	4771	4771	4771	4771	4771	4771	4771	4771	4771	4706	4706	4706	4643	4581	4581	4581	4581	4581	4581	4581	4581	4581	4581	4581	4581	4581	4581	4581	4581	4581	4581	4581	4581	4643	4643	4643	4643	4581	4643	4643	4643	4643	4643	4643	4643	4643	4643	4643	4643	4643	4581	4643	4643	4643	4643	4643	4706	4706	4706	4706	4706	4706	4706	4643	4643	4643	4643	4706	4643	4706	4706	4643	4643	4643	4643	4643	4643	4643	4643	4643	4643	4706	4643	4643	4643	4643	4643	4643	4643	4581	4581	4643	4643	4643	4643	4581	4581	4643	4581	4643	4581	4643	4643	4643	4706	4706	4643	4643	4643	4581	4581	4581	4581	4643	4706	4838	4977	5050	5050	5050	5050	5050	5050	4977	4906	4906	4906	4838	4838	4838	4771	4771	4771	4838	4838	4838	4838	4838	4838	4906	4906	4906	4906	4977	4977	4977	4977	7959	7779	7959	7959	7959	7959	7959	7959	7959	7959	7959	7959	7959	7959	7959	7959	7959	7779	7959	7959	7959	7959	7959	7959	7959	7959	7959	7959	7959	7959	7959	8146	8146	8146	8146	8146	8146	8146	8146	8343	8146	8146	8146	8146	8146	8146	7959	8146	8146	0	0	0	0	0	0	0	0	0	2514	2514	2514	2514	2514	2514	2496	2496	2478	2460	2443	2443	0	0	0	0	0	0	0	0	0	0	0	0	0	0	0	0	0	0	0	0	0	0	0	0	0	0	0	0	0	0	0	0	0	0	0	0
0	0	0	0	0	860	860	860	865	862	869	873	875	875	878	884	884	891	891	896	898	901	901	903	908	910	915	915	917	920	930	932	937	937	940	942	942	945	945	948	958	963	969	969	972	974	974	974	983	985	991	1008	1011	1011	1011	1020	1020	1023	1026	1033	1039	1045	1048	1052	1055	1061	1064	1068	1071	1074	1078	1081	1088	1088	1091	1091	1091	1091	1091	1091	1091	1091	1091	0	0	0	0	0	0	0	0	4906	4906	4838	4838	4838	4838	4838	4838	4771	4771	4838	4838	4906	4906	4838	4906	4906	4838	4838	4838	4771	4771	4838	4838	4771	4838	4771	4771	4838	4838	4771	4771	4771	4771	4771	4771	4771	4771	4771	4771	4771	4771	4771	4838	4838	4771	4838	4838	4838	4838	4838	4771	4771	4771	4838	4906	4838	4977	4977	4977	4977	8146	8343	8343	8343	8343	8343	8343	8343	8343	8343	8343	8343	8146	8343	8343	8146	8146	8146	8146	8146	8146	8146	8146	8146	8146	8146	8146	8146	8146	8146	8343	8343	8343	8343	8343	8343	8343	8146	8146	8146	8146	8146	8146	8343	8343	8343	8146	8146	8146	8146	8146	8146	8146	8146	8146	8146	8146	8146	8343	8146	8146	8343	8343	8343	8146	8146	8146	8343	8146	8146	8146	8146	8146	7959	7959	7959	7959	7959	7959	7959	7779	7959	7779	7779	7779	7959	7959	7959	7959	7959	7959	7959	7959	7959	7959	7779	0	0	3738	3738	3738	3779	3738	3738	3738	3738	3738	3738	3738	3738	3698	3698	3698	3698	3698	3698	3698	3698	3698	3698	3698	3698	3698	3659	3659	3659	3659	3659	3659	3698	3698	3698	3698	3698	3698	3698	3698	3659	3659	3659	3698	3698	3698	3698	3698	3698	3698	3698	3698	3698	3698	3698	3738	3738	3738	3738	3738	3738	3738	3738	3738	3738	3738	3779	3779	3779	3738	3738	4771	4771	4771	4771	4771	4771	4771	4771	4771	4771	4771	4771	4771	4771	4771	4771	4771	4771	4771	4771	4771	4771	4771	4771	4771	4771	4771	4771	4771	4771	4771	4771	4771	4771	4771	4771	4771	4771	4771	4771	4771	4771	4771	4771	4771	4771	4771	4771	4771	4771	4771	4771	4771	4771	4771	4771	4771	4771	4771	4771	4771	4771	4771	4771	4771	4771	4771	4771	4771	4771	4771	4771	4771	4771	4771	4771	4706	4643	4643	4581	4521	4521	4521	4521	4521	4581	4521	4581	4521	4581	4521	4521	4521	4521	4521	4521	4581	4581	4581	4581	4581	4643	4581	4581	4581	4581	4581	4581	4643	4643	4643	4643	4643	4643	4643	4581	4581	4581	4643	4643	4643	4643	4643	4643	4643	4643	4643	4706	4706	4706	4706	4706	4643	4643	4643	4643	4643	4643	4643	4643	4643	4643	4643	4706	4706	4706	4643	4706	4643	4643	4643	4643	4643	4643	4643	4643	4643	4643	4643	4643	4643	4643	4581	4581	4581	4581	4581	4581	4581	4643	4643	4643	4706	4643	4643	4581	4581	4581	4581	4581	4581	4706	4838	4977	5050	5050	5050	5050	5050	4977	4977	4906	4906	4906	4838	4838	4838	4771	4771	4771	4771	4771	4838	4771	4771	4838	4838	4838	4906	4906	4977	5050	5050	5050	5050	7779	7959	8146	7959	7959	7959	7959	7959	7959	7959	7959	7959	7959	7779	7779	7779	7779	7959	7779	7959	7959	7959	7959	7959	7959	7959	7959	7959	7959	7959	8146	8146	8146	8343	8146	8146	8146	8146	8343	8146	8146	8146	8146	8146	8146	7959	7959	7959	0	0	0	0	0	0	0	0	2496	2496	2514	2514	2514	2514	2514	2496	2496	2478	2460	2460	2460	0	0	0	0	0	0	0	0	0	0	0	0	0	0	0	0	0	0	0	0	0	0	0	0	0	0	0	0	0	0	0	0	0	0	0	0
0	0	0	0	0	0	860	867	867	865	871	873	875	873	875	880	880	891	894	896	898	898	901	903	905	908	915	915	917	922	930	932	937	937	940	942	942	945	945	948	955	963	966	969	974	974	974	977	983	985	988	1008	1011	1011	1014	1017	1020	1023	1026	1033	1039	1045	1048	1052	1058	1061	1061	1064	1071	1074	1078	1085	1088	1088	1091	1091	1091	1091	1091	1091	1091	1091	0	0	0	0	0	0	0	0	4906	4906	4906	4838	4838	4838	4838	4838	4838	4771	4838	4906	4906	4906	4906	4838	4906	4838	4838	4838	4838	4771	4838	4838	4838	4838	4838	4838	4838	4838	4838	4771	4771	4771	4771	4771	4771	4771	4771	4771	4771	4771	4771	4771	4838	4771	4771	4771	4771	4771	4771	4771	4771	4771	4771	4771	4838	4838	4977	4977	4977	8146	8343	8343	8343	8343	8343	8343	8343	8343	8343	8343	8343	8146	8146	8343	8146	8146	8146	8146	8146	8146	8146	8146	8146	8146	8146	8146	8146	8146	8146	8146	8343	8343	8343	8343	8343	8343	8343	8146	8146	8146	8343	8343	8343	8343	8343	8343	8146	8146	8146	8146	7959	8146	8146	8146	8146	8146	8146	8146	8343	8146	8146	8343	8343	8146	8146	8146	8146	8146	8146	8146	7959	7959	7959	7959	7959	7959	7959	7959	7959	7959	7779	7959	7779	7779	7779	7959	7959	8146	8146	8146	8146	8146	7959	7959	7959	7959	0	0	3738	3779	3779	3779	3738	3738	3738	3738	3738	3738	3738	3738	3738	3698	3698	3698	3698	3698	3698	3698	3698	3698	3698	3698	3698	3659	3659	3659	3659	3659	3659	3698	3698	3698	3698	3698	3698	3698	3698	3698	3698	3698	3698	3698	3698	3698	3698	3698	3698	3698	3698	3698	3698	3698	3738	3738	3738	3738	3738	3738	3738	3738	3738	3738	3738	3779	3779	3779	3738	3738	4771	4771	4771	4771	4771	4771	4771	4771	4771	4771	4771	4771	4771	4771	4771	4771	4771	4771	4771	4771	4771	4771	4771	4771	4771	4771	4771	4771	4771	4771	4771	4771	4771	4771	4771	4771	4771	4771	4771	4771	4771	4771	4771	4771	4771	4771	4771	4771	4771	4771	4771	4771	4771	4771	4771	4771	4771	4771	4771	4771	4771	4771	4771	4771	4771	4771	4771	4771	4771	4771	4771	4771	4771	4771	4771	4706	4706	4643	4581	4581	4521	4521	4521	4521	4521	4521	4521	4521	4521	4521	4521	4521	4521	4521	4521	4521	4521	4581	4581	4581	4581	4581	4581	4581	4581	4581	4581	4581	4581	4643	4643	4643	4643	4581	4581	4581	4581	4581	4643	4643	4643	4643	4643	4643	4706	4706	4771	4706	4706	4706	4706	4706	4706	4643	4706	4643	4643	4643	4643	4643	4706	4643	4643	4706	4706	4706	4706	4706	4706	4706	4643	4643	4643	4643	4643	4643	4643	4643	4643	4643	4643	4643	4581	4581	4581	4581	4581	4581	4581	4581	4643	4643	4643	4643	4643	4581	4581	4581	4581	4581	4643	4771	4838	4977	5050	5050	5050	4977	4977	4977	4906	4906	4906	4838	4838	4838	4838	4771	4771	4771	4771	4771	4838	4771	4771	4838	4838	4838	4906	4906	4977	5050	5050	7959	7959	7959	7959	7959	7959	7959	7959	8146	8146	7959	7959	7959	7959	7779	7779	7779	7779	7779	7779	7779	7779	7959	7959	7959	7959	7959	7959	7959	7959	7959	7959	8146	8146	8146	8343	8146	8146	8146	8146	8343	8146	8146	8146	8146	8146	8146	7959	8146	8146	0	0	0	0	0	0	0	0	2478	2496	2496	2514	2514	2514	2514	2496	2496	2478	2478	2460	2460	0	0	0	0	0	0	0	0	0	0	0	0	0	0	0	0	0	0	0	0	0	0	0	0	0	0	0	0	0	0	0	0	0	0	0	0
0	0	0	0	848	854	854	860	865	865	869	873	875	873	875	875	875	891	894	896	896	898	901	901	905	908	913	915	917	922	927	932	932	940	940	942	942	945	945	948	955	963	966	969	972	974	977	980	985	988	991	1008	1011	1011	1011	1017	1020	1023	1026	1030	1036	1045	1048	1052	1058	1061	1061	1064	1071	1074	1078	1085	1088	1088	1088	1088	1091	1091	1091	1091	1091	0	0	0	0	0	0	0	0	0	4838	4838	4906	4838	4838	4838	4838	4838	4838	4771	4771	4838	4906	4906	4906	4838	4838	4838	4838	4838	4838	4771	4838	4838	4838	4838	4838	4771	4838	4838	4771	4771	4771	4771	4771	4771	4771	4771	4771	4771	4771	4771	4771	4771	4771	4771	4771	4771	4771	4771	4771	4771	4771	4771	4771	4771	4838	4838	4906	4906	4977	8146	8343	8343	8343	8343	8343	8343	8343	8343	8343	8343	8343	8343	8146	8343	8146	8146	8343	8343	8343	8343	8343	8146	8146	8146	8146	8146	8146	8146	8146	8146	8146	8343	8343	8343	8343	8343	8343	8343	8146	8146	8146	8146	8343	8343	8343	8343	8146	8146	8146	8146	8146	8146	8146	8146	8146	8146	8146	8146	8146	8146	8146	8146	8146	8146	8146	7959	8146	8146	7959	8146	7959	7959	8146	7959	7959	7959	7959	7959	7959	7959	7959	7959	7959	7959	7959	7959	8146	8146	8146	8146	8146	8146	7959	7959	7779	7779	0	0	0	3779	3779	3779	3738	3738	3738	3738	3738	3738	3738	3738	3738	3698	3698	3698	3698	3698	3698	3698	3698	3698	3698	3698	3698	3659	3659	3659	3659	3659	3698	3698	3698	3698	3698	3698	3698	3698	3698	3698	3698	3698	3698	3698	3698	3698	3698	3698	3698	3698	3698	3698	3698	3698	3698	3738	3738	3738	3738	3738	3738	3738	3738	3738	3738	3779	3779	3738	3738	3738	4771	4771	4771	4771	4771	4771	4771	4771	4771	4771	4771	4771	4771	4771	4771	4771	4771	4771	4771	4771	4771	4771	4771	4771	4771	4771	4771	4771	4771	4771	4771	4771	4771	4706	4771	4771	4771	4771	4771	4771	4771	4771	4771	4771	4771	4771	4771	4771	4771	4771	4771	4771	4771	4771	4771	4771	4771	4771	4771	4771	4771	4771	4771	4771	4771	4771	4771	4771	4771	4771	4771	4771	4771	4771	4706	4706	4643	4581	4521	4521	4521	4521	4521	4521	4521	4521	4521	4521	4521	4521	4521	4521	4521	4521	4521	4521	4521	4521	4581	4581	4581	4581	4581	4581	4581	4581	4581	4581	4581	4643	4643	4643	4643	4581	4581	4581	4581	4581	4643	4643	4643	4643	4706	4706	4706	4643	4643	4643	4706	4706	4706	4706	4706	4706	4706	4643	4643	4643	4643	4643	4643	4643	4643	4706	4706	4706	4706	4706	4706	4643	4706	4643	4643	4643	4643	4643	4643	4643	4643	4643	4643	4581	4581	4581	4581	4581	4643	4581	4581	4581	4643	4643	4643	4581	4581	4581	4581	4581	4643	4643	4643	4771	4838	4977	4977	4977	4977	4977	4977	4977	4906	4906	4906	4838	4838	4838	4838	4838	4838	4771	4771	4771	4838	4771	4771	4771	4838	4838	4977	4977	5050	5050	5050	7959	7959	7959	7959	7959	7959	7959	8146	8146	8146	7959	7959	7959	7959	7779	7779	7779	7779	7779	7779	7779	7779	7959	7959	7959	7959	7959	7959	7959	7959	7959	7959	8146	8146	8146	8146	8146	8146	8146	8343	8343	8343	8146	8146	8146	8146	8146	7959	8146	8146	8146	0	0	0	0	0	0	0	2478	2496	2514	2514	2514	2514	2496	2496	2496	2478	2460	2460	2460	0	0	0	0	0	0	0	0	0	0	0	0	0	0	0	0	0	0	0	0	0	0	0	0	0	0	0	0	0	0	0	0	0	0	0	0
0	0	0	0	850	852	856	856	865	865	869	873	873	873	873	873	873	873	894	896	896	898	898	901	903	905	913	915	920	925	925	930	932	937	940	942	942	945	945	950	955	963	963	966	969	974	974	977	985	988	991	1008	1008	1011	1011	1017	1020	1023	1026	1033	1039	1045	1048	1052	1058	1061	1061	1064	1071	1074	1081	1081	1088	1088	1088	1091	1091	1095	1091	1091	1091	0	0	0	0	0	0	0	0	0	4906	4838	4838	4838	4838	4838	4838	4838	4838	4771	4771	4838	4838	4906	4906	4838	4838	4838	4838	4838	4838	4771	4838	4838	4838	4771	4838	4838	4838	4838	4771	4771	4771	4771	4771	4771	4771	4771	4771	4771	4771	4771	4771	4771	4838	4771	4771	4771	4771	4771	4771	4771	4771	4771	4771	4771	4771	4771	4771	4771	0	8146	8343	8343	8343	8343	8343	8343	8550	8550	8343	8343	8343	8343	8343	8343	8146	8146	8343	8343	8146	8146	8146	8146	8146	8146	7959	7959	8146	8146	8146	8146	8146	8343	8343	8343	8343	8343	8343	8343	8146	8146	8146	8146	8146	8343	8343	8343	8146	8146	8146	8146	8146	8146	8146	8146	8146	8146	8146	8146	8146	8146	8146	8146	8146	8146	8146	7959	7959	8146	8146	8146	7959	7959	8146	7959	7959	7959	7959	7959	7959	7959	7959	7959	7959	7959	7959	7959	8146	8146	8146	8146	8146	8146	8146	7959	7959	7959	0	0	0	3779	3779	3779	3738	3738	3738	3738	3738	3738	3738	3738	3738	3698	3698	3698	3698	3698	3698	3698	3698	3698	3698	3698	3659	3659	3659	3659	3659	3659	3659	3698	3698	3698	3698	3698	3698	3698	3698	3698	3698	3698	3698	3698	3698	3698	3698	3698	3698	3698	3698	3698	3698	3698	3698	3698	3738	3738	3738	3738	3738	3738	3738	3738	3738	3779	3779	3738	3738	4771	4771	4771	4771	4771	4771	4771	4771	4771	4771	4771	4771	4771	4771	4771	4771	4771	4771	4771	4771	4771	4771	4771	4771	4771	4771	4771	4771	4771	4771	4771	4771	4771	4771	4771	4771	4771	4771	4771	4771	4771	4771	4771	4771	4771	4771	4771	4771	4771	4771	4771	4771	4771	4771	4771	4771	4771	4771	4771	4771	4771	4771	4771	4771	4771	4771	4771	4771	4771	4771	4771	4771	4771	4771	4771	4771	4706	4643	4581	4521	4521	4521	4521	4521	4521	4521	4521	4521	4521	4521	4521	4521	4521	4521	4521	4521	4521	4521	4521	4521	4521	4521	4521	4521	4521	4521	4521	4521	4581	4581	4581	4643	4643	4643	4643	4581	4581	4643	4581	4643	4643	4643	4706	4706	4643	4643	4643	4643	4643	4643	4643	4643	4706	4643	4643	4643	4643	4643	4643	4643	4643	4643	4643	4643	4706	4706	4706	4706	4706	4706	4706	4706	4643	4643	4643	4643	4643	4643	4643	4643	4643	4643	4643	4581	4581	4581	4581	4643	4581	4581	4581	4643	4581	4643	4581	4581	4581	4581	4581	4643	4706	4706	4771	4838	4906	4977	4977	4977	4977	4977	4977	4906	4906	4906	4838	4838	4838	4838	4838	4838	4771	4771	4771	4838	4771	4771	4838	4838	4906	4977	4977	4977	4977	4977	7959	7959	7959	7959	7959	7959	7959	8146	8146	8146	7959	7959	7959	7779	7779	7779	7779	7779	7779	7779	7779	7779	7779	7959	7779	7959	7959	7959	7959	7959	7959	7959	7959	8146	8146	8343	8343	8146	8343	8343	8343	8343	8146	8146	8146	7959	7959	7959	7959	8146	8146	0	0	0	0	0	0	0	2478	2478	2514	2514	2514	2514	2514	2496	2496	2478	2478	2460	2460	0	0	0	0	0	0	0	0	0	0	0	0	0	0	0	0	0	0	0	0	0	0	0	0	0	0	0	0	0	0	0	0	0	0	0	0
0	0	0	0	848	850	854	854	865	865	867	871	873	873	873	878	878	891	894	896	896	898	898	898	903	908	913	915	915	922	925	930	932	935	937	942	942	945	945	950	955	963	966	969	972	974	974	977	985	991	994	1006	1008	1008	1011	1014	1017	1023	1026	1036	1042	1042	1048	1052	1055	1058	1061	1064	1071	1078	1085	1085	1088	1088	1088	1091	1091	1091	1088	1088	1091	0	0	0	0	0	0	0	0	4977	4906	4906	4906	4838	4838	4838	4838	4838	4838	4771	4771	4838	4838	4906	4906	4838	4838	4838	4838	4838	4838	4838	4838	4838	4838	4838	4838	4771	4771	4771	4771	4771	4771	4771	4771	4771	4771	4771	4771	4771	4771	4771	4771	4771	4771	4771	4771	4771	4771	4771	4771	4771	4771	4771	4771	4771	4771	4771	4771	4771	0	8146	8146	8343	8343	8343	8550	8550	8550	8550	8550	8550	8343	8343	8343	8343	8343	8343	8343	8343	8343	8343	8146	8146	8146	8146	7959	7959	7959	8146	8146	8146	8146	8146	8146	8343	8343	8146	8343	8146	8146	8146	8146	8146	8146	8343	8343	8343	8146	8146	8146	8146	8146	8146	8146	7959	7959	8146	7959	7959	8146	7959	8146	8146	8146	8146	8146	8146	8146	8146	8146	8146	7959	7959	8146	7959	7959	7959	7959	7959	7959	7959	7959	7959	7959	7959	7959	7959	8146	8146	8146	8146	8146	8146	8146	8146	7959	7959	7959	0	0	3779	3779	3779	3738	3779	3738	3738	3738	3738	3738	3738	3738	3698	3698	3698	3698	3698	3698	3698	3698	3698	3698	3698	3698	3659	3659	3659	3659	3698	3698	3698	3698	3698	3698	3698	3698	3698	3698	3698	3698	3698	3698	3698	3698	3698	3698	3698	3698	3698	3698	3698	3698	3698	3698	3698	3738	3738	3738	3738	3738	3738	3738	3738	3738	3779	3738	3738	3738	4838	4771	4838	4771	4771	4771	4771	4771	4771	4771	4771	4771	4771	4771	4771	4771	4771	4771	4771	4771	4771	4771	4771	4771	4771	4771	4771	4771	4771	4771	4771	4771	4771	4771	4771	4771	4771	4771	4771	4771	4771	4771	4771	4771	4771	4771	4771	4771	4771	4771	4771	4771	4771	4771	4771	4771	4771	4771	4771	4771	4706	4771	4771	4771	4771	4771	4771	4771	4771	4771	4771	4771	4771	4771	4771	4771	4706	4581	4581	4521	4521	4521	4521	4581	4521	4521	4521	4521	4521	4521	4521	4521	4521	4521	4521	4521	4521	4521	4521	4521	4521	4521	4521	4521	4521	4521	4521	4521	4581	4581	4643	4643	4643	4643	4643	4643	4643	4643	4643	4643	4643	4643	4706	4706	4643	4643	4643	4581	4581	4643	4643	4643	4643	4643	4643	4643	4643	4643	4643	4643	4643	4643	4643	4643	4706	4706	4706	4706	4706	4706	4706	4643	4643	4643	4643	4643	4643	4643	4643	4643	4643	4643	4643	4643	4643	4581	4643	4643	4581	4643	4643	4643	4643	4643	4643	4643	4581	4581	4581	4643	4706	4771	4771	4906	4977	4977	4977	4977	4977	4977	4977	4906	4906	4906	4906	4838	4838	4838	4838	4838	4838	4771	4771	4838	4838	4838	4838	4838	4838	4906	4906	4906	4906	4906	8146	8146	8146	7959	8146	8146	8146	8146	8146	8146	7959	7959	7959	7779	7779	7779	7779	7779	7779	7779	7779	7779	7959	7959	7959	7959	7959	7959	7959	7959	7959	7959	8146	8146	8343	8343	8343	8343	8343	8343	8550	8343	8146	7959	7959	7959	7959	7959	7959	8146	8146	8146	0	0	0	0	0	0	0	2478	2532	2532	2532	2514	2514	2496	2496	2478	2460	2460	2460	0	0	0	0	0	0	0	0	0	0	0	0	0	0	0	0	0	0	0	0	0	0	0	0	0	0	0	0	0	0	0	0	0	0	0	0
0	0	0	0	848	850	852	852	858	858	867	867	873	873	873	875	875	891	891	894	896	898	898	898	903	908	910	913	917	922	925	930	932	935	935	940	942	945	945	950	958	958	966	969	972	974	974	977	985	991	994	1000	1006	1006	1008	1014	1017	1017	1026	1033	1033	1042	1048	1052	1055	1058	1061	1064	1071	1078	1081	1085	1088	1088	1088	1091	1091	1091	1088	1088	0	0	0	0	0	0	0	0	0	4906	4906	4906	4906	4838	4838	4838	4838	4771	4771	4771	4771	4771	4838	4906	4906	4906	4838	4838	4771	4838	4838	4771	4838	4838	4838	4838	4838	4838	4771	4838	4771	4771	4771	4771	4771	4771	4771	4771	4771	4771	4771	4771	4771	4771	4771	4771	4771	4771	4771	4771	4771	4771	4771	4771	4771	4771	4771	4771	4771	4771	8146	8343	8343	8343	8343	8343	8343	8550	8550	8550	8550	8550	8343	8343	8343	8343	8343	8343	8343	8343	8343	8343	8343	8146	8146	8146	7959	7959	8146	8146	8146	8146	8146	8146	8146	8343	8343	8146	8146	8146	8146	8343	8146	8146	8146	8343	8343	8343	8343	8146	8146	8146	8146	8146	8146	7959	7959	7959	7959	7959	7959	7959	8146	8146	8146	8146	8146	8146	8146	8146	8146	8146	8146	7959	8146	8146	7959	7959	8146	8146	8146	8146	7959	7959	8146	7959	7959	7959	8146	8343	8343	8343	8343	8343	8343	8146	8146	8146	8146	0	0	0	3779	3779	3738	3779	3738	3738	3738	3738	3738	3738	3738	3698	3698	3698	3698	3698	3698	3698	3698	3698	3698	3698	3698	3698	3698	3698	3698	3698	3698	3698	3698	3698	3698	3659	3659	3659	3698	3698	3698	3698	3698	3698	3698	3698	3698	3698	3698	3698	3698	3698	3698	3698	3698	3698	3738	3738	3738	3738	3738	3738	3738	3738	3738	3779	3738	3738	4838	4838	4771	4838	4771	4771	4771	4771	4771	4771	4771	4771	4771	4771	4771	4771	4771	4771	4771	4771	4771	4771	4771	4706	4771	4771	4771	4771	4771	4771	4771	4771	4771	4771	4771	4771	4771	4771	4771	4771	4771	4771	4771	4771	4771	4771	4706	4706	4771	4771	4771	4771	4771	4771	4771	4771	4771	4771	4771	4771	4771	4706	4706	4771	4771	4771	4838	4838	4771	4771	4771	4771	4771	4771	4771	4771	4643	4643	4581	4581	4581	4581	4581	4581	4581	4581	4581	4581	4521	4521	4521	4521	4521	4521	4521	4521	4521	4521	4521	4521	4521	4521	4521	4521	4521	4521	4521	4521	4581	4581	4581	4581	4706	4706	4706	4643	4643	4643	4643	4643	4643	4643	4706	4706	4706	4706	4643	4643	4643	4581	4643	4643	4643	4643	4643	4643	4643	4581	4581	4581	4581	4643	4643	4643	4706	4706	4706	4706	4706	4706	4706	4706	4643	4643	4643	4643	4643	4643	4643	4643	4643	4643	4643	4643	4643	4643	4643	4643	4643	4643	4643	4643	4643	4643	4643	4581	4643	4581	4643	4643	4643	4706	4771	4771	4906	4977	5050	5050	4977	4977	4977	4977	4977	4906	4906	4906	4906	4838	4838	4838	4838	4838	4838	4771	4838	4838	4838	4838	4838	4838	4977	4906	4906	4906	8146	8146	8146	8146	8146	8146	8146	8146	8146	7959	7959	7959	7959	7779	7779	7779	7779	7779	7779	7779	7779	7779	7779	7959	7959	7959	7959	7959	7959	7959	7959	7959	7959	8146	8146	8146	8343	8343	8343	8343	8343	8343	8146	7959	7959	7959	7959	7959	7959	7959	7959	8146	8146	0	0	0	0	0	0	0	0	2532	2532	2532	2514	2496	2496	2496	2478	2460	2460	2460	0	0	0	0	0	0	0	0	0	0	0	0	0	0	0	0	0	0	0	0	0	0	0	0	0	0	0	0	0	0	0	0	0	0	0	0
0	0	0	0	845	850	852	852	854	854	854	871	873	875	875	878	878	884	884	894	896	896	898	898	903	908	910	915	917	922	922	927	927	932	935	940	942	945	948	955	955	961	961	969	972	972	977	980	983	983	994	1003	1006	1008	1008	1014	1017	1020	1023	1026	1026	1042	1048	1052	1055	1061	1061	1064	1074	1078	1081	1081	1085	1088	1088	1088	1088	1091	1091	1088	0	0	0	0	0	0	0	0	4977	4906	4906	4906	4906	4838	4838	4838	4838	4838	4838	4771	4771	4771	4838	4838	4838	4838	4838	4838	4771	4838	4771	4771	4771	4838	4838	4771	4838	4771	4771	4771	4771	4771	4771	4771	4771	4771	4771	4771	4771	4771	4771	4771	4771	4771	4771	4771	4771	4771	4771	4771	4771	4771	4771	4771	4771	4771	4771	4706	4706	4706	8146	8343	8343	8343	8550	8343	8343	8550	8550	8550	8550	8550	8343	8343	8343	8343	8343	8343	8343	8343	8343	8343	8343	8343	8343	8343	8146	7959	8146	8146	8146	8146	8146	8146	8146	8343	8343	8146	8146	8146	8146	8146	8146	8146	8146	8343	8343	8343	8343	8146	8146	8146	8146	8146	8146	7959	7959	7959	7959	7959	8146	7959	7959	8146	8146	8146	8146	8146	8146	8146	8146	8146	8146	7959	7959	7959	7959	7959	8146	8146	8146	8146	8146	7959	8146	7959	7959	8146	8146	8343	8343	8343	8343	8343	8146	8146	7959	7959	7959	0	0	0	3779	3779	3779	3779	3738	3738	3738	3738	3738	3738	3738	3698	3698	3698	3698	3698	3698	3698	3698	3698	3698	3698	3659	3659	3659	3659	3659	3698	3698	3698	3698	3698	3698	3698	3698	3659	3698	3698	3698	3698	3698	3698	3698	3698	3698	3698	3698	3698	3698	3698	3698	3698	3698	3698	3738	3738	3738	3738	3738	3738	3738	3738	3738	3779	3738	3738	4906	4838	4771	4771	4771	4771	4771	4771	4771	4771	4771	4771	4771	4771	4771	4771	4771	4771	4771	4771	4771	4771	4771	4706	4771	4771	4771	4771	4771	4771	4771	4771	4771	4771	4771	4771	4771	4771	4771	4771	4771	4771	4771	4771	4771	4706	4706	4706	4771	4771	4771	4771	4771	4771	4771	4771	4771	4706	4706	4706	4706	4706	4771	4771	4771	4771	4771	4838	4771	4771	4771	4771	4771	4771	4706	4706	4643	4643	4581	4581	4581	4581	4581	4581	4581	4581	4581	4521	4521	4521	4521	4521	4521	4521	4521	4521	4521	4521	4521	4521	4521	4521	4521	4521	4521	4521	4521	4521	4521	4521	4581	4643	4706	4706	4706	4706	4643	4643	4643	4643	4643	4643	4706	4706	4706	4706	4643	4643	4643	4643	4643	4643	4643	4643	4643	4643	4581	4581	4581	4581	4581	4643	4643	4643	4706	4706	4706	4706	4706	4706	4706	4706	4643	4643	4643	4643	4643	4643	4643	4643	4643	4643	4643	4643	4643	4643	4643	4706	4706	4706	4643	4643	4643	4643	4643	4643	4643	4643	4643	4643	4643	4771	4771	4838	4906	4977	4977	4977	4977	4977	4977	4977	4906	4906	4906	4906	4838	4838	4838	4838	4838	4838	4838	4771	4838	4838	4771	4838	4838	4838	4906	4906	4906	4906	8146	8343	8146	8146	8146	8146	8146	8146	8146	7959	7959	7959	7779	7779	7779	7779	7779	7779	7779	7779	7779	7779	7779	7959	7959	7959	7959	7959	7959	7959	7959	7959	7959	8146	8146	8146	8146	8343	8146	8146	8146	8146	8146	7959	7959	7959	7959	7959	7959	7959	7959	8146	8146	0	0	0	0	0	0	0	0	0	2532	2532	2514	2496	2496	2496	2478	2460	2460	2460	0	0	0	0	0	0	0	0	0	0	0	0	0	0	0	0	0	0	0	0	0	0	0	0	0	0	0	0	0	0	0	0	0	0	0	0
0	0	0	0	848	850	852	854	854	854	854	871	873	875	875	878	880	880	884	891	894	896	898	898	903	903	910	913	917	917	922	927	930	932	935	937	937	945	950	953	958	958	961	966	969	974	977	980	983	988	994	994	1000	1006	1011	1014	1017	1020	1026	1030	1030	1045	1048	1052	1055	1061	1061	1064	1071	1074	1081	1081	1085	1088	1088	1091	1091	1091	1091	0	0	0	0	0	0	0	0	0	4977	4906	4906	4906	4838	4838	4838	4771	4771	4771	4771	4771	4771	4771	4838	4838	4838	4838	4838	4838	4771	4771	4771	4771	4771	4771	4838	4771	4771	4771	4771	4771	4771	4771	4771	4771	4771	4771	4771	4771	4771	4771	4771	4771	4771	4771	4771	4771	4771	4771	4771	4771	4771	4771	4771	4771	4771	4771	4771	4706	4706	4706	8343	8343	8343	8343	8550	8343	8343	8550	8550	8550	8550	8343	8343	8343	8343	8343	8343	8343	8343	8343	8343	8343	8343	8343	8343	8343	8146	8146	8343	8343	8343	8146	8146	8146	8343	8343	8343	8343	8343	8343	8146	8343	8146	8146	8146	8146	8146	8343	8343	8146	8146	8146	8146	8146	8146	7959	7959	8146	7959	8146	7959	7959	7959	8146	8146	8146	8146	8146	8146	8146	8146	8146	8146	7959	7959	7959	7959	8146	8146	8146	8146	8146	8146	8146	8146	7959	8146	8146	8146	8343	8343	8343	8343	8343	8146	8146	7959	7959	7959	0	0	0	3779	3779	3779	3779	3779	3779	3738	3738	3738	3738	3698	3698	3698	3698	3698	3698	3698	3698	3698	3698	3698	3698	3659	3659	3698	3659	3659	3698	3698	3698	3659	3659	3659	3659	3659	3659	3698	3698	3698	3698	3698	3698	3698	3698	3698	3698	3698	3698	3698	3698	3698	3698	3698	3698	3738	3738	3738	3738	3738	3738	3738	3738	3738	3779	3698	3698	4906	4838	4838	4838	4771	4771	4771	4771	4771	4771	4771	4771	4771	4771	4771	4771	4771	4771	4771	4771	4771	4771	4706	4706	4771	4771	4771	4771	4771	4771	4771	4771	4771	4771	4771	4771	4771	4771	4771	4771	4771	4771	4771	4771	4706	4706	4706	4706	4706	4771	4771	4771	4771	4771	4771	4771	4771	4706	4706	4706	4706	4706	4706	4706	4771	4771	4771	4771	4771	4771	4771	4771	4771	4771	4706	4706	4706	4643	4643	4581	4643	4581	4581	4581	4581	4581	4581	4521	4521	4521	4521	4521	4521	4521	4521	4521	4521	4521	4521	4521	4521	4521	4521	4521	4521	4521	4521	4521	4521	4581	4581	4643	4706	4706	4706	4706	4643	4643	4643	4643	4643	4706	4706	4771	4771	4706	4706	4706	4643	4643	4643	4643	4643	4643	4643	4643	4643	4643	4643	4643	4643	4643	4706	4706	4706	4706	4706	4706	4706	4706	4706	4706	4643	4643	4643	4643	4643	4643	4643	4643	4643	4581	4581	4643	4643	4643	4706	4706	4706	4706	4706	4706	4706	4706	4643	4643	4643	4643	4643	4643	4706	4771	4771	4838	4906	4906	4977	4977	4977	4906	4906	4906	4838	4838	4906	4906	4906	4838	4838	4838	4838	4838	4771	4771	4771	4838	4838	4838	4838	4906	4977	4977	4977	5050	5050	8343	8343	8146	8146	8146	8146	7959	7959	7959	7959	7959	7779	7779	7779	7779	7779	7779	7779	7779	7779	7779	7959	7959	7959	7959	7959	7959	7779	7779	7779	7779	7779	8146	8146	8146	8146	8343	8343	8146	8146	8146	8146	7959	7959	7959	7959	7959	7959	7959	7959	8146	8146	0	0	0	0	0	0	0	0	2570	2532	2514	2514	2496	2496	2496	2478	2478	2460	2460	0	0	0	0	0	0	0	0	0	0	0	0	0	0	0	0	0	0	0	0	0	0	0	0	0	0	0	0	0	0	0	0	0	0	0	0
0	0	0	0	848	850	852	854	856	856	865	869	871	875	875	880	880	880	884	891	894	894	896	898	901	908	910	910	915	920	922	927	927	930	932	937	937	945	950	953	955	958	963	966	969	977	977	980	983	983	991	991	1000	1006	1008	1014	1014	1017	1026	1030	1030	1048	1048	1052	1052	1058	1061	1064	1074	1078	1081	1081	1085	1088	1088	1088	1088	1088	1091	0	0	0	0	0	0	0	0	5050	5050	4838	4838	4838	4838	4838	4771	4771	4771	4771	4771	4771	4771	4771	4838	4838	4838	4838	4771	4771	4771	4771	4771	4771	4771	4771	4838	4771	4771	4771	4771	4771	4771	4771	4771	4771	4771	4771	4771	4771	4838	4838	4771	4771	4771	4771	4771	4771	4771	4771	4771	4771	4771	4771	4771	4771	4771	4771	4771	4771	4706	4706	8343	8343	8343	8343	8343	8343	8343	8550	8550	8550	8343	8343	8343	8343	8343	8343	8343	8343	8343	8343	8343	8343	8343	8343	8343	8343	8343	8343	8343	8343	8343	8343	8146	8146	8146	8343	8343	8343	8343	8343	8343	8343	8343	8146	8146	8146	8146	8343	8343	8146	8146	8146	8146	8146	8146	7959	8146	7959	7959	7959	7959	7959	7959	8146	8146	8146	8146	8146	8146	8146	8146	7959	8146	7959	8146	8146	8146	8146	8146	8146	8146	8343	8146	8146	8146	8146	8146	8146	8146	8343	8343	8343	8343	8343	8146	8146	8146	8146	8146	0	0	0	3779	3779	3779	3779	3779	3738	3738	3738	3738	3738	3698	3698	3698	3698	3698	3698	3698	3698	3698	3698	3698	3698	3659	3659	3659	3659	3659	3659	3698	3659	3659	3659	3659	3659	3659	3659	3698	3698	3698	3698	3698	3698	3698	3698	3698	3698	3698	3698	3698	3698	3698	3698	3698	3698	3738	3738	3738	3738	3738	3738	3738	3738	3698	3738	3698	4906	4906	4838	4838	4838	4771	4771	4771	4771	4771	4771	4771	4771	4771	4771	4771	4771	4771	4771	4771	4771	4771	4771	4706	4706	4771	4771	4771	4771	4771	4771	4771	4771	4771	4771	4771	4771	4771	4771	4771	4771	4771	4771	4771	4771	4706	4706	4706	4706	4706	4771	4771	4771	4771	4771	4771	4771	4771	4706	4706	4706	4706	4643	4706	4706	4706	4771	4771	4771	4771	4771	4771	4771	4771	4771	4706	4706	4706	4643	4643	4643	4643	4581	4581	4581	4581	4581	4581	4581	4521	4521	4521	4521	4521	4521	4521	4521	4521	4521	4521	4521	4521	4521	4521	4521	4521	4521	4521	4521	4581	4581	4581	4643	4706	4706	4706	4706	4706	4706	4706	4643	4643	4706	4706	4706	4706	4706	4643	4643	4643	4643	4643	4581	4643	4643	4643	4643	4643	4643	4643	4643	4643	4643	4643	4643	4643	4643	4643	4643	4643	4643	4706	4643	4643	4643	4643	4643	4643	4643	4581	4581	4643	4581	4581	4643	4643	4706	4706	4706	4706	4706	4706	4706	4706	4706	4643	4643	4643	4643	4643	4706	4771	4838	4838	4838	4906	4977	4977	4977	4977	4906	4977	4906	4906	4838	4906	4906	4906	4838	4838	4838	4838	4838	4771	4771	4771	4838	4838	4838	4838	4906	4977	4977	4977	4771	4771	8343	8146	8146	7959	7959	7959	7959	7959	7959	7959	7779	7779	7779	7779	7779	7779	7779	7608	7779	7779	7959	7959	7959	7959	7959	7959	7959	7959	7959	7959	7959	7959	8146	8146	8146	8146	8146	8146	8146	8146	7959	8146	7959	7959	7959	7959	7959	7959	7959	7959	8146	8146	0	0	0	0	0	0	0	0	2570	2532	2514	2496	2478	2478	2478	2478	2460	2460	2460	0	0	0	0	0	0	0	0	0	0	0	0	0	0	0	0	0	0	0	0	0	0	0	0	0	0	0	0	0	0	0	0	0	0	0	0
0	0	0	0	0	850	852	854	858	862	862	867	867	873	875	878	880	882	884	891	894	894	896	898	898	903	908	910	910	917	917	922	927	930	935	937	937	945	953	953	955	961	963	966	969	969	974	977	980	988	991	997	997	1006	1008	1014	1017	1017	1026	1026	1048	1048	1048	1052	1052	1055	1061	1064	1071	1078	1081	1081	1081	1085	1088	1088	1088	1088	1088	0	0	0	0	0	0	0	0	5050	4906	4838	4838	4838	4838	4838	4771	4771	4771	4771	4771	4771	4771	4771	4771	4771	4838	4838	4771	4838	4771	4771	4771	4771	4771	4771	4838	4771	4771	4771	4771	4771	4771	4771	4771	4771	4771	4771	4771	4771	4838	4771	4771	4771	4771	4771	4771	4771	4771	4771	4771	4771	4771	4771	4771	4771	4771	4771	4771	4706	4706	4706	8343	8343	8343	8343	8550	8343	8550	8550	8550	8550	8343	8343	8343	8343	8343	8343	8343	8343	8343	8343	8343	8343	8343	8343	8343	8343	8343	8343	8343	8343	8343	8343	8146	8146	8146	8343	8343	8343	8343	8343	8146	8146	8146	8146	8146	8146	8146	8146	8146	8146	8146	8146	8146	8146	8146	8146	8146	7959	7959	7959	7959	7959	7959	8146	8146	8146	8146	8146	8146	8146	8146	8146	8146	8146	8146	8146	8146	8146	8146	8146	8146	8343	8146	8146	8146	8146	8146	8146	8146	8146	8343	8343	8343	8146	8146	8146	8146	7959	7959	7959	0	0	3738	3738	3738	3738	3738	3738	3738	3738	3698	3698	3698	3698	3698	3698	3698	3698	3698	3698	3698	3698	3698	3698	3659	3659	3659	3659	3659	3659	3659	3659	3659	3659	3659	3621	3659	3621	3659	3698	3698	3698	3698	3698	3698	3698	3698	3698	3698	3698	3698	3698	3698	3698	3698	3698	3738	3738	3738	3738	3738	3738	3738	3738	3738	3779	3738	4906	4838	4838	4838	4838	4771	4771	4771	4771	4771	4771	4771	4771	4771	4771	4771	4771	4771	4771	4771	4771	4771	4771	4771	4771	4771	4771	4771	4771	4771	4771	4771	4771	4771	4771	4771	4771	4771	4771	4771	4771	4771	4771	4771	4771	4706	4706	4706	4706	4771	4771	4771	4771	4771	4771	4771	4771	4771	4706	4706	4706	4643	4643	4706	4706	4706	4706	4771	4771	4771	4771	4771	4771	4771	4706	4706	4706	4643	4643	4643	4581	4643	4581	4581	4581	4581	4581	4581	4521	4521	4521	4521	4521	4521	4521	4521	4521	4521	4521	4521	4521	4521	4521	4521	4521	4521	4521	4521	4521	4581	4581	4581	4643	4706	4706	4706	4706	4706	4706	4643	4643	4643	4643	4706	4706	4706	4706	4643	4643	4643	4581	4581	4581	4643	4643	4643	4643	4643	4643	4643	4643	4643	4643	4643	4643	4643	4643	4643	4643	4643	4643	4643	4643	4643	4643	4643	4643	4643	4581	4581	4581	4581	4581	4581	4581	4643	4643	4643	4643	4706	4706	4706	4706	4706	4706	4706	4706	4643	4643	4643	4706	4706	4771	4771	4838	4838	4838	4977	4977	4977	4906	4977	4906	4906	4838	4838	4838	4838	4838	4838	4838	4838	4838	4771	4771	4838	4838	4838	4838	4838	4906	4977	4977	4977	4977	7959	7959	8146	8146	7959	7959	7959	7959	7959	7959	7779	7779	7779	7779	7779	7779	7779	7779	7779	7959	7959	7959	7959	7959	7959	7959	7959	7959	7959	7959	7959	7959	7959	8146	8146	8146	8146	8146	8146	8146	8146	7959	7959	7959	7959	7959	7959	7959	7959	7959	7959	7959	8146	0	0	0	0	0	0	0	0	2570	2514	2496	2496	2478	2478	2478	2478	2460	2460	2460	0	0	0	0	0	0	0	0	0	0	0	0	0	0	0	0	0	0	0	0	0	0	0	0	0	0	0	0	0	0	0	0	0	0	0	0
0	0	0	0	0	850	852	856	856	860	865	867	869	875	875	878	878	882	887	891	891	894	896	896	898	903	908	910	915	917	917	922	925	930	930	935	935	940	953	955	958	961	963	969	969	972	977	980	983	988	991	991	1000	1006	1008	1008	1014	1014	1023	1023	1045	1045	1048	1048	1052	1055	1061	1061	1068	1074	1078	1081	1081	1085	1088	1088	1085	1085	1088	0	0	0	0	0	0	0	0	4977	4906	4838	4838	4838	4838	4838	4771	4771	4771	4771	4771	4771	4771	4771	4771	4771	4771	4771	4771	4771	4771	4771	4771	4771	4771	4771	4771	4771	4771	4771	4771	4771	4771	4771	4771	4771	4771	4771	4771	4771	4838	4771	4771	4771	4771	4771	4771	4771	4771	4771	4771	4771	4771	4771	4771	4771	4771	4771	4771	4771	4706	4706	8343	8343	8343	8343	8343	8343	8343	8343	8343	8343	8343	8343	8343	8343	8343	8343	8343	8343	8343	8343	8343	8343	8343	8343	8343	8146	8146	8146	8343	8343	8343	8343	8146	8146	8146	8146	8146	8146	8146	8146	8146	8146	8146	8146	8146	8146	8146	8146	8146	7959	8146	8146	8146	8146	8146	8146	8146	7959	8146	8146	7959	7959	7959	7959	8146	8146	8146	8146	8146	8146	8146	8146	8146	8146	8146	8146	8146	8146	8146	8146	8146	8343	8146	8146	8146	8146	8146	8146	8343	8343	8343	8343	8343	8146	8146	8146	8146	8146	7959	7959	0	0	3738	3738	3738	3738	3738	3738	3738	3738	3698	3698	3698	3698	3698	3698	3698	3698	3698	3738	3698	3698	3698	3698	3698	3698	3698	3659	3659	3659	3659	3659	3659	3659	3659	3621	3659	3659	3698	3698	3698	3698	3698	3698	3698	3698	3698	3698	3698	3698	3698	3698	3698	3698	3698	3698	3698	3738	3738	3738	3738	3738	3738	3738	3698	3738	4838	4838	4838	4838	4771	4771	4771	4771	4771	4771	4771	4771	4771	4771	4771	4771	4771	4771	4771	4771	4771	4771	4771	4771	4771	4771	4771	4771	4771	4771	4771	4771	4771	4771	4771	4771	4771	4771	4771	4771	4771	4771	4771	4771	4771	4771	4771	4771	4706	4706	4771	4771	4771	4771	4771	4771	4771	4771	4771	4706	4706	4706	4706	4643	4706	4643	4706	4706	4706	4771	4771	4771	4771	4771	4706	4706	4643	4643	4643	4643	4643	4643	4643	4581	4581	4581	4581	4581	4521	4521	4521	4521	4521	4521	4521	4521	4521	4521	4521	4521	4521	4521	4521	4521	4521	4521	4521	4521	4521	4521	4581	4581	4581	4643	4706	4706	4706	4706	4706	4706	4643	4643	4643	4643	4706	4706	4706	4706	4643	4643	4643	4643	4643	4643	4643	4643	4643	4643	4581	4581	4643	4643	4643	4643	4643	4643	4643	4643	4643	4643	4643	4643	4643	4643	4643	4643	4643	4643	4643	4581	4581	4581	4581	4581	4581	4581	4643	4643	4643	4643	4643	4706	4706	4706	4706	4706	4643	4643	4643	4643	4706	4706	4706	4706	4771	4838	4838	4906	4977	4977	4977	4906	4977	4906	4906	4838	4838	4838	4838	4838	4838	4838	4838	4838	4838	4771	4838	4838	4838	4838	4838	4906	4977	4977	4977	4977	5050	5050	8146	8146	7959	7959	7959	7959	7959	7779	7779	7779	7779	7779	7779	7779	7779	7779	7779	7959	7959	7959	7959	7959	7959	7959	7959	7959	7959	7959	7959	7959	7959	8146	8146	8146	8146	8146	8146	8146	7959	7959	7779	7959	7779	7959	7959	7959	7959	8146	8146	8146	0	0	0	0	0	0	0	2551	2551	2551	2532	2496	2496	2478	2478	2478	2478	2460	2460	2460	0	0	0	0	0	0	0	0	0	0	0	0	0	0	0	0	0	0	0	0	0	0	0	0	0	0	0	0	0	0	0	0	0	0	0	0
0	0	0	0	0	850	852	852	856	860	860	865	865	865	875	878	882	884	887	889	891	894	894	896	898	903	908	910	915	917	917	922	925	927	930	935	935	940	950	953	958	961	963	966	969	969	974	980	983	983	988	994	1000	1006	1008	1008	1014	1014	1023	1026	1026	1042	1045	1048	1048	1052	1052	1068	1071	1074	1078	1081	1081	1085	1085	1085	1085	1078	1078	0	0	0	0	0	0	0	0	4977	4906	4838	4838	4838	4838	4838	4771	4771	4771	4771	4771	4771	4771	4771	4771	4771	4771	4771	4771	4771	4771	4771	4771	4771	4838	4771	4771	4771	4771	4771	4771	4771	4771	4771	4771	4771	4771	4771	4771	4771	4838	4771	4771	4771	4771	4771	4771	4771	4771	4771	4771	4771	4771	4771	4771	4771	4771	4771	4771	4706	4771	4771	8343	8343	8343	8343	8343	8343	8343	8343	8343	8343	8343	8343	8343	8343	8343	8343	8343	8550	8343	8343	8343	8343	8343	8343	8343	8343	8343	8146	8146	8343	8343	8343	8146	8146	8146	8343	8146	8146	8146	8146	8146	8343	8343	8146	8146	8146	8146	8146	7959	7959	8146	7959	7959	8146	8146	8146	8146	7959	8146	8146	7959	7959	7959	8146	8146	8146	8146	8146	8146	8146	8146	8146	8146	8146	8146	8146	8146	7959	8146	8146	8146	8146	8343	8146	8343	8343	8343	8343	8343	8343	8343	8343	8343	8146	8146	8146	7959	8146	8146	8146	0	0	3738	3738	3738	3738	3738	3738	3698	3698	3698	3659	3659	3698	3698	3738	3738	3698	3698	3698	3698	3698	3698	3698	3698	3698	3698	3698	3659	3659	3659	3659	3659	3621	3621	3621	3621	3621	3659	3698	3698	3698	3698	3698	3698	3698	3698	3659	3659	3698	3698	3698	3698	3698	3698	3738	3738	3738	3738	3738	3738	3738	3738	3738	3698	3738	3738	4838	4838	4838	4771	4771	4771	4771	4771	4771	4771	4771	4771	4771	4771	4771	4771	4771	4771	4771	4771	4771	4771	4771	4771	4771	4771	4771	4771	4771	4771	4771	4771	4771	4771	4771	4771	4771	4771	4771	4771	4771	4771	4771	4771	4771	4771	4771	4771	4771	4771	4771	4771	4771	4771	4771	4771	4771	4771	4771	4771	4706	4706	4706	4706	4706	4706	4706	4706	4771	4771	4771	4706	4706	4706	4706	4643	4643	4643	4581	4581	4581	4581	4581	4521	4521	4521	4581	4521	4521	4521	4521	4521	4521	4521	4521	4521	4521	4521	4521	4521	4521	4521	4521	4521	4521	4521	4521	4521	4581	4581	4581	4581	4643	4706	4706	4706	4706	4706	4643	4643	4643	4643	4643	4706	4706	4706	4643	4643	4643	4643	4643	4643	4643	4643	4643	4706	4643	4643	4643	4643	4643	4643	4643	4643	4643	4643	4643	4643	4643	4643	4643	4643	4643	4643	4643	4643	4581	4581	4581	4581	4581	4581	4581	4581	4581	4581	4581	4643	4643	4643	4643	4706	4706	4706	4706	4643	4643	4643	4643	4643	4706	4706	4771	4771	4838	4838	4906	4906	4906	4906	4906	4906	4838	4906	4838	4838	4838	4838	4838	4838	4838	4838	4838	4838	4838	4838	4838	4838	4838	4838	4906	4977	4977	4977	4977	4977	4977	4977	7959	7959	7959	7959	7959	7959	7779	7779	7779	7779	7779	7779	7779	7959	7959	7959	7959	7959	7959	7959	7959	7959	7959	7959	7959	7959	7959	7959	7959	7959	8146	8146	8146	8146	8146	8146	7959	7959	7959	7779	7959	7959	7959	7959	7959	7959	7959	8146	8146	0	0	0	0	0	0	0	2532	2532	2532	2514	2496	2496	2496	2496	2478	2478	2478	2478	2478	0	0	0	0	0	0	0	0	0	0	0	0	0	0	0	0	0	0	0	0	0	0	0	0	0	0	0	0	0	0	0	0	0	0	0	0
0	0	0	0	0	852	852	852	860	860	860	865	867	875	878	878	882	884	887	889	891	891	894	896	898	903	908	910	915	917	917	922	927	930	932	935	937	940	945	953	955	961	963	966	966	969	969	974	980	983	988	991	1003	1006	1008	1011	1014	1014	1023	1026	1030	1036	1036	1048	1052	1058	1061	1071	1071	1074	1081	1081	1081	1085	1088	1085	1085	1081	1081	0	0	0	0	0	0	0	0	0	4906	4838	4838	4838	4838	4771	4771	4771	4771	4771	4771	4771	4771	4771	4771	4771	4771	4771	4771	4771	4771	4771	4771	4838	4838	4771	4771	4771	4771	4771	4771	4771	4771	4771	4771	4771	4771	4771	4771	4771	4771	4771	4771	4771	4771	4771	4771	4771	4771	4771	4771	4771	4771	4771	4771	4771	4771	4771	4706	4706	4706	4706	8550	8550	8550	8550	8343	8343	8343	8343	8343	8343	8343	8343	8343	8343	8343	8343	8343	8343	8343	8343	8343	8343	8343	8343	8343	8343	8343	8343	8343	8343	8343	8343	8343	8146	8146	8146	8146	8146	8146	8146	8146	8146	8146	8146	8146	8146	8146	7959	7959	7959	7959	7959	7959	7959	8146	8146	8146	8146	8146	8146	7959	7959	8146	8146	8146	8146	8146	8146	8146	8146	8146	8146	8146	8146	8146	8146	8146	8146	8146	8146	8146	8146	8146	8146	8146	8146	8146	8146	8146	8146	8146	8146	8146	7959	7959	8146	8146	8146	8146	8146	0	0	3738	3738	3738	3738	3738	3738	3698	3698	3698	3659	3659	3698	3698	3738	3738	3738	3698	3698	3738	3698	3698	3698	3698	3698	3698	3698	3659	3659	3659	3659	3621	3621	3621	3583	3583	3583	3621	3659	3659	3659	3659	3659	3659	3659	3659	3659	3659	3698	3698	3698	3698	3698	3738	3738	3738	3738	3738	3738	3738	3738	3738	3738	3738	3779	3738	4838	4838	4838	4838	4771	4771	4771	4771	4771	4771	4771	4771	4771	4771	4771	4771	4771	4771	4771	4771	4771	4771	4771	4771	4771	4771	4706	4706	4706	4771	4771	4771	4771	4771	4771	4771	4771	4771	4771	4771	4771	4771	4771	4771	4771	4771	4771	4771	4771	4771	4771	4771	4771	4771	4771	4771	4771	4771	4771	4771	4771	4706	4706	4706	4706	4706	4706	4706	4771	4706	4706	4706	4706	4706	4706	4643	4643	4643	4581	4581	4581	4581	4521	4521	4521	4581	4581	4521	4521	4521	4521	4521	4521	4521	4521	4521	4521	4521	4521	4521	4521	4521	4521	4521	4521	4521	4521	4521	4581	4581	4581	4581	4643	4706	4643	4643	4643	4643	4643	4643	4643	4643	4643	4643	4643	4643	4643	4706	4643	4643	4643	4643	4643	4643	4706	4643	4643	4643	4643	4643	4643	4643	4643	4643	4643	4643	4643	4643	4643	4643	4643	4643	4643	4643	4643	4643	4581	4581	4581	4581	4581	4581	4581	4581	4581	4581	4581	4643	4643	4643	4706	4643	4706	4643	4643	4643	4643	4643	4643	4643	4706	4706	4771	4771	4838	4838	4906	4906	4906	4906	4906	4906	4838	4838	4838	4838	4838	4838	4838	4838	4838	4838	4838	4838	4838	4838	4838	4838	4838	4838	4906	4977	4977	4977	4977	4977	4977	7959	7959	7779	7779	7959	7959	7959	7959	7779	7779	7779	7779	7779	7779	7959	7959	7959	7959	7959	7959	7959	7959	7959	7959	7959	7959	7959	7959	7959	7959	7959	8146	8146	8146	8146	8146	7959	7959	7779	7779	7779	7779	7959	7959	7959	7959	7959	8146	8146	0	0	0	0	0	0	0	0	2551	2551	2551	2532	2514	2496	2496	2496	2496	2478	2478	2478	2478	0	0	0	0	0	0	0	0	0	0	0	0	0	0	0	0	0	0	0	0	0	0	0	0	0	0	0	0	0	0	0	0	0	0	0	0
0	0	0	0	0	852	852	852	860	862	862	865	869	875	878	878	882	884	887	889	889	891	894	896	898	903	905	910	915	915	915	922	930	930	932	937	937	940	945	950	955	958	961	963	966	966	969	969	980	985	991	994	1000	1006	1008	1008	1014	1017	1023	1023	1030	1036	1036	1048	1055	1061	1064	1071	1071	1074	1081	1081	1085	1088	1088	1088	1085	1085	1081	0	0	0	0	0	0	0	0	4977	4906	4838	4838	4838	4838	4771	4771	4771	4771	4771	4771	4771	4771	4771	4771	4771	4771	4771	4771	4771	4771	4771	4771	4838	4838	4771	4771	4771	4838	4771	4771	4838	4771	4771	4771	4771	4771	4771	4771	4771	4771	4771	4771	4771	4771	4771	4771	4771	4771	4771	4771	4771	4771	4771	4771	4771	4771	4771	4706	4706	4706	4706	8550	8550	8550	8550	8550	8343	8343	8343	8343	8343	8343	8343	8343	8343	8343	8343	8343	8343	8343	8343	8343	8343	8343	8343	8343	8343	8343	8343	8146	8343	8343	8343	8343	8146	8146	8146	8146	7959	8146	7959	7959	8146	8146	8146	8146	7959	8146	7959	7959	7779	7779	7959	7959	7959	8146	8146	8146	7959	8146	8146	7959	7959	7959	7959	8146	8146	8146	8146	8146	8146	8146	8146	8146	8146	8146	8146	8146	8146	8146	8146	8146	8146	8146	8146	8146	8146	8146	8146	8146	8146	8146	8146	8146	7959	8146	8146	8146	8146	8146	8146	8146	0	3779	3779	3738	3738	3738	3738	3698	3659	3659	3659	3659	0	0	0	3738	3738	3698	3698	3738	3738	3698	3698	3698	3698	3698	3698	3659	3659	3659	3659	3659	3621	3621	3621	3583	3583	3621	3659	3659	3659	3659	3659	3621	3621	3659	3659	3659	3698	3698	3738	3698	3738	3738	3738	3738	3738	3779	3738	3738	3738	3738	3738	3738	3779	3738	4838	4838	4838	4771	4771	4771	4771	4771	4771	4771	4771	4771	4771	4771	4771	4771	4771	4771	4771	4771	4771	4771	4771	4771	4771	4771	4706	4706	4706	4706	4771	4771	4771	4771	4771	4771	4771	4771	4771	4771	4771	4771	4771	4771	4771	4771	4771	4771	4706	4771	4771	4771	4771	4771	4771	4771	4771	4771	4771	4771	4771	4706	4706	4706	4706	4706	4706	4706	4706	4706	4706	4706	4706	4706	4706	4643	4643	4643	4581	4581	4581	4521	4521	4521	4521	4521	4521	4521	4521	4521	4521	4521	4521	4521	4521	4521	4521	4521	4521	4521	4521	4521	4521	4521	4521	4521	4521	4581	4581	4581	4581	4581	4643	4643	4706	4643	4643	4643	4643	4643	4643	4643	4643	4643	4643	4643	4643	4643	4643	4643	4643	4643	4643	4706	4706	4706	4643	4706	4643	4643	4643	4643	4643	4643	4643	4643	4643	4643	4643	4643	4643	4643	4643	4643	4643	4643	4643	4643	4581	4581	4581	4581	4581	4581	4581	4581	4581	4643	4643	4643	4643	4643	4643	4643	4643	4643	4643	4643	4643	4643	4706	4706	4706	4706	4838	4838	4906	4906	4906	4906	4906	4906	4906	4906	4838	4838	4838	4838	4838	4838	4838	4906	4838	4838	4838	4906	4906	4906	4838	4838	4906	4977	4977	4977	4906	4906	7779	7959	7779	7779	7779	7779	7959	7959	7959	7779	7779	7779	7779	7779	7779	7779	7779	7959	7959	7959	7959	7959	7959	7959	7959	7959	7959	7959	7959	7959	7959	7959	8146	8146	8146	8146	8146	7959	7959	7779	7779	7779	7779	7959	7959	7959	7959	7959	8146	8146	0	0	0	0	0	0	0	2551	2551	2551	2551	2532	2514	2496	2496	2496	2496	2496	2496	2478	2478	0	0	0	0	0	0	0	0	0	0	0	0	0	0	0	0	0	0	0	0	0	0	0	0	0	0	0	0	0	0	0	0	0	0	0	0
0	0	0	0	0	0	0	0	860	860	860	865	865	875	878	878	882	884	887	889	891	894	894	896	901	905	905	910	913	915	915	922	927	930	932	935	937	940	942	948	953	961	963	966	966	966	969	969	983	988	994	994	1000	1003	1006	1008	1014	1017	1023	1023	1039	1042	1045	1048	1052	1058	1061	1071	1071	1074	1074	1085	1085	1088	1088	1088	1078	1078	0	0	0	0	0	0	0	0	0	4977	4906	4906	4838	4838	4838	4771	4771	4771	4771	4771	4771	4771	4771	4771	4771	4771	4771	4771	4771	4771	4771	4771	4771	4838	4838	4838	4771	4771	4838	4771	4771	4771	4771	4771	4771	4771	4771	4771	4771	4771	4771	4771	4771	4771	4838	4838	4771	4771	4771	4771	4771	4771	4771	4771	4771	4771	4771	4771	4706	4706	4706	8550	8550	8550	8550	8550	8550	8343	8343	8343	8343	8343	8343	8343	8343	8343	8343	8343	8343	8343	8343	8343	8343	8343	8343	8343	8146	8146	8146	8146	8146	8343	8343	8343	8146	8146	8146	8146	7959	7959	7959	7959	7959	8146	8146	8146	8146	7959	8146	7959	7779	7779	7779	7779	7959	7959	7959	8146	7959	7959	7959	7959	7959	7959	8146	7959	8146	8146	8146	8146	8146	8146	8146	8146	8146	8146	8146	8146	8146	8146	8146	8146	8146	8146	8146	8146	8146	8146	8146	8146	8146	8146	8146	8146	7959	8146	8146	8146	8146	8343	8146	8146	8146	0	3738	3738	3738	3738	3738	3698	3698	3698	3659	3659	0	0	0	0	0	0	3698	3738	3738	3738	3738	3738	3738	3698	3698	3698	3659	3659	3659	3659	3659	3659	3659	3621	0	0	0	0	0	0	3659	3583	3583	3583	3659	3659	3659	3698	3698	3738	3698	3738	3738	3738	3738	3738	3738	3738	3738	3698	3738	3738	3698	3738	3738	4838	4838	4838	4771	4771	4771	4771	4771	4771	4771	4771	4771	4706	4771	4771	4771	4771	4771	4771	4771	4771	4771	4771	4771	4771	4771	4706	4706	4706	4771	4771	4771	4771	4771	4771	4771	4771	4771	4771	4771	4771	4771	4771	4771	4771	4771	4771	4771	4771	4771	4771	4771	4771	4771	4771	4771	4771	4771	4771	4771	4771	4706	4706	4706	4706	4706	4706	4706	4706	4706	4706	4706	4643	4643	4643	4643	4643	4581	4581	4581	4521	4521	4521	4521	4521	4521	4521	4521	4521	4521	4521	4521	4521	4521	4521	4521	4521	4521	4521	4521	4521	4521	4521	4521	4521	4521	4521	4581	4581	4581	4581	4643	4643	4643	4643	4643	4643	4643	4643	4643	4643	4643	4643	4643	4643	4643	4643	4643	4643	4643	4643	4643	4643	4706	4706	4706	4706	4706	4706	4643	4643	4643	4643	4643	4643	4643	4643	4643	4643	4643	4643	4643	4643	4643	4643	4643	4643	4643	4581	4581	4581	4581	4581	4581	4581	4581	4581	4643	4643	4643	4706	4643	4643	4643	4643	4643	4643	4643	4643	4643	4706	4706	4706	4706	4838	4838	4906	4906	4906	4906	4906	4906	4906	4906	4838	4838	4906	4906	4838	4838	4838	4906	4838	4906	4906	4906	4906	4977	4906	4906	4906	4906	4977	4977	4906	4906	4906	7959	7779	7608	7779	7779	7779	7959	7959	7959	7779	7779	7779	7779	7779	7779	7779	7779	7959	7959	7959	7959	7959	7959	7959	7959	7959	7959	7959	7959	7959	7959	8146	8146	8146	8146	7959	7959	7959	7779	7959	7959	7959	7959	7959	7959	7959	7959	8146	8146	0	0	0	0	0	0	0	2532	2532	2532	2551	2532	2514	2514	2496	2496	2496	2496	2496	2478	2478	0	0	0	0	0	0	0	0	0	0	0	0	0	0	0	0	0	0	0	0	0	0	0	0	0	0	0	0	0	0	0	0	0	0	0	0
0	0	0	0	0	0	0	0	862	862	862	865	867	875	878	880	884	887	887	889	891	891	894	896	901	905	905	910	915	915	915	920	927	930	932	935	937	940	942	948	953	961	963	963	966	966	969	969	985	991	994	994	997	1000	1003	1008	1014	1017	1020	1023	1045	1045	1045	1048	1052	1055	1061	1071	1074	1078	1078	1078	1085	1085	1085	1085	1078	1078	0	0	0	0	0	0	0	0	0	5050	4906	4906	4906	4838	4838	4838	4771	4771	4771	4771	4771	4771	4771	4771	4771	4771	4771	4771	4771	4838	4771	4771	4771	4838	4838	4838	4771	4771	4838	4771	4771	4771	4771	4771	4771	4771	4771	4771	4771	4771	4771	4771	4771	4771	4838	4838	4771	4771	4771	4771	4771	4771	4771	4771	4771	4771	4771	4771	4771	4771	4771	4771	8550	8550	8550	8550	8550	8343	8343	8343	8343	8343	8343	8343	8343	8343	8343	8343	8343	8343	8343	8343	8343	8343	8343	8343	8146	8146	8146	8146	8146	8343	8343	8343	8146	8146	8146	7959	7959	7959	7959	7959	7959	7959	8146	8146	8146	7959	7959	7959	7779	7779	7779	7779	7779	7779	7959	7959	7959	7959	7959	7959	7959	8146	8146	8146	8146	8146	8146	8146	8146	8146	8146	8146	8146	8146	8146	8146	8146	8146	8146	8146	8343	8146	8146	8146	8146	8146	8146	8146	8146	8146	8146	8146	7959	7959	7959	8146	7959	8146	8146	8146	8146	0	3738	3738	3738	3738	3698	3698	3698	3698	3659	3659	0	0	0	0	0	0	3738	3738	3738	3738	3738	3738	3738	3738	3738	3698	3659	3659	3659	3659	3698	3698	3659	0	0	0	0	0	0	0	0	3583	3583	3583	3659	3698	3698	3698	3698	3738	3738	3738	3738	3738	3738	3738	3738	3738	3698	3698	3698	3738	3698	3738	3738	3698	4838	4838	4771	4771	4771	4771	4771	4771	4771	4771	4706	4706	4771	4771	4771	4771	4771	4771	4771	4771	4771	4771	4771	4771	4771	4771	4771	4771	4771	4771	4771	4771	4771	4771	4771	4771	4771	4771	4771	4771	4771	4771	4771	4771	4771	4771	4771	4771	4771	4771	4771	4706	4706	4771	4771	4771	4771	4771	4771	4771	4706	4706	4706	4706	4706	4706	4706	4706	4706	4706	4643	4643	4643	4643	4643	4643	4643	4581	4581	4521	4521	4521	4521	4521	4521	4521	4521	4521	4521	4521	4521	4521	4521	4521	4521	4521	4521	4521	4521	4521	4521	4521	4521	4521	4581	4521	4581	4581	4581	4581	4643	4643	4643	4643	4643	4643	4643	4643	4706	4643	4706	4706	4706	4643	4706	4706	4643	4706	4643	4643	4643	4643	4706	4706	4706	4643	4643	4706	4706	4643	4643	4643	4643	4643	4643	4643	4643	4643	4643	4643	4643	4643	4643	4643	4643	4643	4643	4643	4643	4581	4581	4581	4581	4581	4581	4581	4643	4643	4643	4643	4643	4643	4643	4643	4643	4643	4643	4643	4643	4706	4706	4706	4706	4771	4838	4906	4906	4906	4906	4906	4906	4906	4906	4838	4838	4838	4838	4838	4838	4838	4906	4838	4906	4906	4906	4906	4906	4906	4906	4906	4977	4977	4977	4906	4906	4906	7608	7608	7779	7779	7779	7779	7959	7959	7959	7959	7959	7959	7959	7959	7959	7779	7959	7959	7959	7959	7959	7959	7959	7959	8146	8146	7959	7959	7959	7959	7959	8146	7959	7959	7959	7959	7959	7959	7959	7959	7959	7959	7959	7959	7959	7959	7959	7959	7959	0	0	0	0	0	0	0	2532	2532	2514	2551	2532	2514	2514	2496	2514	2496	2496	2496	2478	2478	0	0	0	0	0	0	0	0	0	0	0	0	0	0	0	0	0	0	0	0	0	0	0	0	0	0	0	0	0	0	0	0	0	0	0	0
0	0	0	0	0	0	856	858	860	862	862	865	867	867	878	880	884	887	887	887	889	891	894	898	901	903	905	910	915	917	917	922	927	930	932	935	937	940	940	948	950	958	963	963	966	966	966	983	988	991	994	994	997	1000	1003	1006	1011	1017	1023	1026	1045	1042	1045	1048	1052	1055	1061	1071	1074	1074	1078	1081	1085	1085	1085	1088	1081	1081	0	0	0	0	0	0	0	0	0	5050	4906	4906	4906	4838	4838	4838	4838	4771	4771	4838	4771	4771	4771	4771	4771	4838	4771	4771	4771	4838	4771	4771	4771	4838	4838	4771	4771	4838	4838	4771	4838	4838	4771	4771	4771	4771	4771	4771	4771	4771	4771	4771	4771	4771	4838	4838	4771	4771	4771	4771	4771	4771	4771	4771	4771	4771	4771	4771	4706	4771	4771	8550	8343	8343	8343	8343	8343	8343	8343	8343	8343	8343	8343	8343	8343	8343	8343	8343	8343	8343	8550	8343	8343	8343	8343	8146	8146	8146	8146	8146	8146	8146	8343	8146	8146	8146	7959	7959	7959	7779	7959	7959	7959	7959	8146	7959	7959	7959	7959	7959	7779	7779	7779	7779	7779	7779	7959	7959	7959	7959	7959	7959	7959	7959	8146	7959	8146	8146	8146	8146	8146	8146	8146	7959	8146	8146	8146	8146	8146	8146	8146	8146	8146	8146	8146	7959	8146	8146	8146	8146	8146	8146	8146	8146	7959	7959	7959	8146	8146	8146	8146	8146	8146	8146	3779	3738	3738	3738	3698	3698	3698	3698	3659	3659	0	0	0	0	0	3738	3738	3779	3738	3738	3738	3738	3738	3738	3738	0	0	0	0	0	3698	3698	0	0	0	0	0	0	0	0	0	0	0	0	0	3698	3698	3698	3738	3738	3738	3738	3738	3738	3738	3738	3738	3738	3698	3698	3698	3738	3698	3738	3738	3698	4838	4838	4771	4771	4771	4771	4771	4771	4771	4771	4771	4706	4771	4771	4771	4771	4771	4771	4771	4771	4771	4771	4771	4771	4771	4771	4771	4771	4771	4706	4771	4771	4771	4771	4771	4771	4771	4771	4771	4771	4771	4771	4771	4771	4771	4771	4706	4706	4706	4771	4706	4706	4706	4771	4771	4771	4771	4771	4771	4771	4771	4706	4706	4706	4706	4706	4706	4706	4706	4706	4706	4643	4706	4706	4643	4643	4643	4581	4581	4521	4521	4521	4521	4521	4521	4521	4521	4521	4521	4521	4521	4521	4521	4521	4521	4521	4521	4521	4521	4521	4521	4521	4521	4521	4521	4521	4521	4581	4581	4581	4581	4581	4643	4643	4643	4643	4643	4643	4643	4643	4643	4706	4706	4643	4706	4706	4643	4706	4706	4643	4706	4643	4706	4706	4706	4643	4643	4706	4643	4643	4643	4643	4643	4643	4643	4643	4643	4643	4706	4643	4706	4706	4706	4706	4643	4643	4643	4643	4643	4581	4581	4581	4581	4581	4581	4643	4643	4643	4643	4643	4643	4643	4643	4643	4643	4643	4643	4643	4643	4643	4706	4706	4706	4771	4838	4906	4906	4906	4906	4906	4906	4906	4906	4838	4906	4906	4906	4906	4906	4906	4906	4838	4838	4838	4838	4838	4838	4838	4838	4906	4906	4906	4906	4838	4838	4838	7779	7779	7779	7779	7779	7779	7959	7959	7959	7959	7959	7959	7959	7959	7959	7959	7959	7959	7959	7959	7959	7959	7959	7959	8146	8146	7959	7959	7959	7959	7959	7959	8146	8146	7959	7959	7959	7959	7959	7959	7959	7959	7959	7959	7959	7959	7959	7959	7959	0	0	0	0	0	0	0	2551	2551	2532	2551	2532	2532	2514	2514	2514	2514	2496	2496	2496	2496	0	0	0	0	0	0	0	0	0	0	0	0	0	0	0	0	0	0	0	0	0	0	0	0	0	0	0	0	0	0	0	0	0	0	0	0
0	0	0	0	0	0	854	858	860	862	862	867	867	867	878	882	884	887	887	887	889	891	894	898	901	905	905	910	915	917	917	922	930	930	932	935	937	937	940	945	950	961	963	966	966	969	969	983	985	991	994	994	997	1000	1003	1006	1014	1020	1023	1026	1026	1045	1045	1052	1055	1058	1061	1068	1071	1078	1078	1081	1085	1085	1088	1088	1085	1085	0	0	0	0	0	0	0	0	0	5050	4977	4906	4906	4838	4838	4838	4838	4838	4838	4838	4838	4771	4771	4771	4771	4838	4771	4771	4771	4771	4771	4771	4771	4771	4771	4771	4771	4771	4771	4771	4771	4771	4838	4771	4771	4771	4771	4771	4771	4771	4771	4771	4771	4771	4838	4838	4838	4771	4771	4771	4771	4771	4771	4771	4771	4771	4771	4771	4771	4771	8550	8550	8550	8550	8550	8550	8550	8343	8343	8343	8343	8343	8343	8343	8343	8343	8343	8343	8343	8343	8343	8343	8343	8343	8343	8146	8146	8146	8146	8146	8146	8146	8343	8146	8146	8146	7959	7959	7959	7959	7959	7959	8146	8146	8146	7959	7959	7959	7959	7959	7779	7779	7779	7779	7779	7779	7959	7959	7959	7959	7959	7959	7959	7959	7959	8146	8146	8343	8343	8343	8146	8146	8146	7959	8146	8146	8146	8146	8146	8146	8146	8146	8146	8146	8146	7959	8146	8146	8146	8146	7959	8146	8146	7959	7959	7959	7959	8146	8146	8146	8146	8146	3779	3779	3779	3738	3738	3738	3698	3698	3698	3698	3698	3698	0	0	0	0	0	3738	3698	3698	3738	3738	3738	3738	3738	3738	3738	0	0	0	0	0	0	0	0	0	0	0	0	0	0	0	0	0	0	0	3738	3738	3698	3738	3738	3738	3738	3738	3738	3738	0	0	3738	3738	3698	3698	3698	3698	3698	3738	3738	3698	4906	4838	4838	4838	4838	4771	4838	4771	4771	4771	4771	4706	4706	4706	4706	4706	4771	4706	4771	4771	4771	4771	4771	4771	4771	4771	4771	4771	4706	4706	4706	4771	4771	4771	4771	4771	4771	4771	4771	4771	4771	4771	4771	4771	4771	4706	4771	4706	4706	4706	4706	4706	4706	4706	4706	4771	4771	4771	4706	4706	4771	4706	4706	4706	4706	4706	4706	4706	4706	4706	4706	4706	4706	4706	4706	4643	4643	4581	4581	4521	4521	4521	4521	4521	4521	4521	4521	4521	4521	4521	4521	4521	4521	4521	4521	4521	4521	4521	4521	4521	4521	4521	4521	4521	4521	4521	4521	4521	4581	4581	4581	4581	4581	4643	4643	4643	4643	4643	4643	4643	4643	4706	4706	4643	4643	4706	4706	4706	4643	4643	4643	4643	4706	4706	4706	4643	4643	4706	4706	4643	4643	4643	4643	4643	4643	4643	4643	4643	4643	4643	4643	4643	4706	4706	4643	4643	4643	4643	4643	4581	4581	4581	4581	4581	4581	4643	4643	4643	4643	4643	4643	4643	4643	4643	4643	4706	4643	4706	4706	4706	4706	4771	4771	4771	4838	4838	4906	4906	4906	4906	4906	4906	4906	4906	4906	4906	4906	4906	4906	4838	4838	4838	4838	4838	4838	4838	4838	4838	4838	4906	4906	4838	4906	4838	4838	4838	7779	7779	7779	7779	7779	7779	7959	7959	7959	7959	7959	7959	7959	7779	7959	7779	7959	7959	7959	7959	7959	7959	7959	7959	8146	8146	7959	7959	7959	7959	7959	8146	8146	8146	7959	7959	7959	7959	7959	7959	8146	8146	8146	8146	8146	7959	7959	7959	7959	0	0	0	0	0	0	0	2570	2570	2551	2570	2551	2532	2514	2514	2514	2514	2496	2496	2496	2496	0	0	0	0	0	0	0	0	0	0	0	0	0	0	0	0	0	0	0	0	0	0	0	0	0	0	0	0	0	0	0	0	0	0	0	0
0	0	0	0	0	852	854	856	858	860	865	867	869	873	878	882	884	887	887	887	889	891	894	898	903	903	905	908	913	915	915	922	930	930	932	935	937	937	942	948	950	958	961	966	966	966	969	977	985	991	991	994	997	997	1003	1003	1014	1020	1026	1030	1045	1048	1048	1052	1055	1061	1061	1068	1071	1074	1078	1081	1085	1085	1088	1088	1088	1088	0	0	0	0	0	0	0	0	0	5050	4906	4838	4906	4838	4838	4838	4838	4838	4838	4838	4838	4838	4838	4838	4838	4838	4771	4771	4771	4838	4771	4771	4771	4771	4771	4771	4771	4771	4771	4771	4771	4771	4838	4771	4771	4771	4771	4771	4771	4771	4771	4771	4771	4771	4838	4838	4838	4771	4771	4771	4771	4706	4706	4706	4771	4771	4771	4771	4771	4771	8343	8343	8343	8550	8550	8550	8550	8343	8343	8343	8343	8343	8343	8343	8343	8343	8343	8343	8343	8343	8343	8343	8343	8343	8343	8146	8146	8146	8146	8146	8146	8146	8343	8146	8146	8146	7959	7959	7959	7959	7959	8146	8146	8146	8146	7959	7959	7779	7779	7779	7779	7779	7779	7779	7779	7779	7959	7959	7959	7959	7959	7959	7959	8146	8146	8146	8343	8343	8343	8343	8146	8146	8146	8146	8146	8146	8146	8146	8146	8146	8146	8146	8146	8146	8146	7959	8146	8146	8146	8146	7959	8146	7959	7959	7959	7959	7959	8146	8146	8146	8146	3738	3779	3779	3738	3738	3738	3738	3698	3698	3698	3698	3698	3738	3738	0	0	0	0	3698	3698	3738	3738	3738	3738	3738	3738	3738	0	0	0	0	0	0	0	0	0	0	0	0	0	0	0	0	0	0	0	0	3698	3698	3738	3738	3738	3738	3698	3698	3698	0	0	0	3738	3698	3698	3698	3698	3738	3698	3738	3738	3738	4906	4906	4838	4838	4771	4771	4771	4771	4771	4771	4771	4706	4706	4706	4706	4706	4706	4706	4771	4771	4771	4771	4771	4771	4771	4771	4771	4771	4706	4706	4706	4771	4771	4771	4706	4771	4771	4771	4771	4771	4771	4771	4771	4771	4706	4706	4706	4706	4643	4643	4643	4706	4643	4706	4643	4643	4706	4706	4706	4706	4706	4706	4706	4706	4706	4706	4706	4706	4706	4706	4706	4706	4771	4706	4706	4643	4581	4581	4521	4521	4463	4463	4463	4521	4521	4521	4521	4521	4521	4521	4521	4521	4521	4521	4521	4521	4521	4521	4521	4521	4521	4521	4521	4521	4521	4521	4521	4521	4581	4581	4581	4581	4581	4581	4581	4643	4643	4643	4643	4643	4643	4706	4643	4643	4643	4706	4643	4706	4643	4643	4643	4643	4643	4706	4643	4643	4643	4643	4643	4581	4581	4581	4643	4643	4581	4581	4581	4643	4643	4581	4581	4643	4643	4706	4643	4643	4643	4643	4643	4581	4581	4581	4581	4581	4643	4643	4643	4643	4643	4643	4643	4643	4643	4643	4643	4643	4643	4643	4643	4643	4706	4706	4771	4771	4838	4838	4906	4906	4906	4906	4906	4906	4906	4906	4906	4906	4838	4906	4838	4838	4838	4838	4838	4838	4838	4838	4838	4838	4838	4906	4906	4906	4838	4838	4838	7779	7779	7779	7779	7779	7779	7959	7959	7959	7959	7959	7959	7959	7959	7959	7959	7779	7959	7959	7959	7959	7959	7959	7959	7959	7959	7779	7779	7959	7779	7779	7779	7959	7959	8146	7959	7959	7959	7959	7959	7959	7959	7959	7959	8146	7959	7959	7959	7959	7959	0	0	0	0	0	0	0	2570	2570	2570	2570	2551	2551	2532	2532	2514	2514	2514	2496	2496	2496	0	0	0	0	0	0	0	0	0	0	0	0	0	0	0	0	0	0	0	0	0	0	0	0	0	0	0	0	0	0	0	0	0	0	0	0
0	0	0	0	0	850	850	852	854	860	865	867	869	871	875	878	882	887	887	889	891	894	896	901	903	903	905	908	913	915	917	922	927	930	930	935	935	937	942	948	950	955	963	963	966	969	977	985	985	991	994	991	994	997	1000	1003	1017	1023	1026	1026	1045	1048	1048	1052	1055	1058	1061	1064	1068	1074	1078	1081	1085	1085	1085	1088	1088	1088	0	0	0	0	0	0	0	0	0	5050	4906	4906	4906	4838	4838	4838	4838	4838	4838	4838	4838	4771	4838	4838	4838	4838	4838	4771	4838	4838	4771	4771	4771	4771	4771	4771	4771	4771	4771	4771	4771	4838	4838	4771	4771	4771	4771	4771	4771	4771	4771	4771	4771	4771	4838	4838	4771	4771	4771	4771	4706	4706	4706	4706	4771	4771	4771	4771	4838	4838	8343	8343	8343	8343	8343	8550	8550	8343	8343	8343	8343	8343	8343	8343	8343	8343	8343	8343	8343	8343	8343	8343	8343	8343	8343	8146	8146	8146	8146	8146	8146	8146	8146	8146	8146	8146	7959	7959	7959	7959	7959	8146	8146	8146	7959	7959	7779	7779	7779	7779	7779	7779	7779	7779	7779	7779	7779	7959	7959	7959	7959	7959	7959	8146	8146	8146	8343	8343	8343	8146	8146	8146	8146	8146	8146	8146	8146	8146	8146	8146	8146	8146	8146	8146	7959	7959	7959	8146	8146	8343	8146	8146	8146	7959	7959	7959	7959	7959	7959	8146	8146	3738	3738	3738	3738	3738	3738	3698	3698	3698	3698	3698	3698	3738	3738	0	0	3738	3698	3698	3698	3738	3738	3738	3738	3738	3738	3738	0	0	0	0	0	0	0	0	0	0	0	0	0	0	0	0	0	0	0	0	3698	3738	3738	3738	3738	3738	3698	3698	3698	0	0	0	0	3698	3698	3698	3698	3698	3698	3698	3738	3698	3698	4838	4771	4771	4771	4771	4771	4771	4771	4771	4771	4771	4771	4706	4706	4706	4706	4706	4706	4706	4771	4771	4771	4771	4771	4771	4771	4771	4706	4706	4706	4706	4706	4706	4706	4706	4771	4771	4771	4771	4771	4771	4771	4771	4771	4706	4706	4643	4581	4581	4581	4581	4643	4643	4581	4643	4643	4643	4643	4643	4706	4706	4643	4643	4643	4643	4643	4643	4643	4706	4706	4706	4706	4706	4706	4643	4581	4581	4521	4521	4463	4463	4463	4521	4521	4521	4521	4521	4521	4521	4521	4521	4521	4521	4521	4521	4521	4521	4521	4521	4521	4521	4521	4521	4521	4521	4521	4521	4581	4581	4581	4581	4581	4581	4581	4581	4581	4643	4643	4643	4643	4643	4643	4643	4643	4643	4643	4643	4643	4643	4643	4581	4581	4643	4643	4581	4581	4643	4581	4581	4581	4581	4581	4581	4521	4521	4521	4581	4581	4581	4581	4643	4643	4643	4643	4643	4643	4643	4581	4581	4581	4581	4581	4581	4643	4643	4643	4643	4643	4643	4643	4643	4643	4643	4643	4643	4643	4643	4643	4643	4706	4706	4771	4771	4838	4838	4838	4906	4906	4906	4838	4838	4838	4838	4838	4838	4838	4838	4838	4838	4838	4838	4838	4838	4838	4838	4838	4838	4838	4838	4906	4906	4906	4906	7779	7779	7779	7779	7959	7779	7779	7959	7959	7959	7959	7959	7959	7959	7959	7779	7779	7779	7779	7779	7779	7959	7959	7959	7959	7959	7959	7959	7779	7959	7779	7779	7779	7959	7959	7959	7959	7959	7959	7959	7959	8146	8146	8146	8146	8146	7959	7959	7959	7959	0	0	0	0	0	0	0	0	0	2570	2570	2570	2551	2551	2532	2532	2532	2532	2514	2514	2496	2496	0	0	0	0	0	0	0	0	0	0	0	0	0	0	0	0	0	0	0	0	0	0	0	0	0	0	0	0	0	0	0	0	0	0	0	0
0	0	0	0	0	848	848	850	852	858	858	869	869	873	875	875	880	884	887	889	894	894	898	901	903	903	905	908	913	915	920	925	927	927	930	932	935	940	942	945	948	948	963	966	974	977	977	983	985	988	991	991	994	994	1000	1003	1023	1026	1030	1033	1042	1045	1048	1052	1055	1058	1061	1068	1071	1074	1078	1081	1085	1085	1085	1088	1088	1088	1088	0	0	0	0	0	0	0	0	5050	4838	4838	4838	4838	4838	4771	4838	4838	4838	4838	4838	4838	4838	4838	4838	4838	4838	4838	4838	4838	4771	4771	4706	4771	4771	4771	4771	4771	4771	4771	4771	4838	4838	4838	4838	4771	4771	4771	4771	4771	4771	4838	4838	4838	4838	4771	4771	4771	4771	4706	4706	4706	4706	4771	4771	4771	4771	4771	4838	4838	8146	8146	8343	8343	8343	8343	8343	8343	8343	8343	8146	8343	8343	8343	8343	8343	8343	8343	8343	8343	8343	8343	8343	8343	8343	8146	8146	8146	8146	8146	8146	8146	8343	8146	8146	8146	7959	7959	7959	7959	8146	8146	8146	8146	7959	7959	7779	7779	7779	7779	7959	7959	7959	7959	7959	7779	7779	7779	7959	7959	7959	7959	8146	8146	8146	8146	8343	8343	8146	8146	8146	8146	8146	8146	8146	8146	8146	8146	8146	8146	8146	7959	8146	7959	7959	7959	7959	8146	8146	8146	8146	8146	8146	7959	7959	7959	7959	7959	7959	7959	7959	3738	3738	3738	3738	3738	3738	3698	3698	3698	3698	3698	3738	3738	3738	0	0	3738	3698	3698	3698	3698	3698	3698	3738	3738	3738	0	0	0	0	0	0	0	0	0	0	0	0	0	0	0	0	0	0	0	0	0	3698	3738	3738	3738	3738	3738	0	0	0	0	0	0	3698	3698	3698	3698	3698	3698	3698	3738	3738	3698	3659	4838	4771	4771	4771	4771	4771	4771	4771	4771	4771	4771	4771	4706	4706	4706	4706	4706	4706	4706	4771	4771	4771	4771	4771	4771	4771	4771	4771	4706	4706	4706	4706	4706	4706	4706	4771	4771	4771	4771	4771	4771	4771	4706	4643	4581	4581	4581	4581	4581	4581	4581	4581	4581	4581	4581	4581	4643	4643	4643	4643	4643	4643	4643	4643	4643	4581	4643	4643	4643	4643	4706	4706	4706	4643	4581	4581	4581	4521	4521	4463	4463	4463	4463	4521	4521	4521	4521	4521	4521	4521	4521	4521	4521	4521	4521	4521	4521	4463	4521	4521	4521	4521	4521	4521	4521	4521	4521	4521	4581	4521	4581	4521	4581	4581	4581	4581	4581	4581	4581	4581	4581	4581	4581	4643	4643	4643	4643	4581	4581	4581	4581	4581	4581	4581	4521	4581	4581	4581	4521	4521	4463	4521	4521	4521	4521	4521	4581	4581	4581	4581	4643	4643	4643	4643	4581	4643	4643	4581	4581	4581	4581	4581	4581	4581	4581	4581	4581	4581	4643	4643	4643	4643	4643	4643	4643	4643	4643	4643	4643	4706	4706	4771	4771	4838	4838	4838	4838	4838	4838	4838	4838	4838	4838	4838	4838	4838	4838	4838	4838	4838	4838	4838	4838	4838	4838	4838	4838	4838	4838	4906	4906	4906	7779	7779	7779	7779	7779	7959	7779	7779	7959	7959	7959	7959	7959	7959	7959	7959	7779	7779	7779	7779	7779	7779	7959	7959	7959	7959	7959	7959	7959	7959	7959	7779	7779	7779	7959	7959	7959	7959	7779	7959	7959	7959	7959	7959	7959	7959	7959	7959	7959	7959	7959	0	0	0	0	0	0	0	0	0	2570	2570	2570	2551	2551	2551	2532	2532	2532	2514	2514	2514	2514	0	0	0	0	0	0	0	0	0	0	0	0	0	0	0	0	0	0	0	0	0	0	0	0	0	0	0	0	0	0	0	0	0	0	0	0
0	0	0	0	0	848	848	850	852	858	865	867	869	871	873	875	880	884	884	887	894	894	901	903	905	905	905	905	910	915	920	925	925	927	930	935	937	940	942	945	945	955	963	966	972	977	977	983	985	988	988	988	994	994	1003	1017	1026	1026	1030	1030	1036	1042	1045	1048	1055	1058	1064	1071	1071	1074	1078	1081	1081	1085	1085	1088	1091	1091	1091	0	0	0	0	0	0	0	0	0	4771	4771	4838	4838	4838	4771	4771	4838	4838	4838	4838	4838	4838	4838	4838	4838	4838	4838	4838	4838	4838	4771	4706	4771	4771	4771	4771	4771	4771	4771	4771	4771	4838	4771	4771	4838	4838	4838	4771	4771	4771	4771	4771	4771	4771	4771	4771	4771	4706	4706	4706	4706	4706	4771	4771	4771	4771	4838	4906	4906	8146	8146	8343	8343	8343	8343	8343	8343	8343	8343	8146	8146	8146	8343	8343	8343	8343	8343	8343	8343	8343	8343	8343	8343	8343	8146	8146	8146	8146	8146	8146	8146	8343	8146	8146	8146	8146	8146	8146	8146	8146	8146	8146	8146	8146	7959	7959	7959	7959	7959	7959	7959	7959	7959	7959	7959	7959	7959	7959	7959	7959	7959	8146	8146	8146	8146	8343	8343	8146	8146	8146	8146	8146	8146	8146	8146	8146	7959	8146	8146	8146	7959	7959	7959	7959	7959	7959	7959	8146	8146	8146	8146	7959	7959	7959	7959	7959	7959	7959	7959	7959	3738	3738	3738	3738	3738	3738	3698	3698	3698	3698	3698	3738	3738	3698	3698	3738	3738	3698	3698	3659	3698	3698	3698	0	0	0	0	0	0	0	0	0	0	0	0	0	0	0	0	0	0	0	0	0	0	0	0	3698	3738	3738	0	0	0	0	0	0	0	0	3698	3698	3698	3698	3698	3698	3698	3698	3738	3738	3698	3659	4838	4771	4771	4771	4771	4771	4771	4771	4771	4771	4771	4771	4706	4706	4706	4706	4706	4706	4771	4771	4771	4771	4771	4771	4771	4771	4771	4706	4706	4706	4706	4706	4706	4706	4706	4771	4771	4706	4706	4706	4771	4771	4706	4643	4581	4581	4581	4581	4581	4521	4581	4581	4581	4581	4581	4581	4581	4581	4581	4581	4643	4581	4581	4581	4581	4581	4581	4581	4643	4643	4643	4643	4643	4581	4581	4521	4521	4521	4463	4463	4463	4463	4463	4521	4521	4521	4521	4521	4521	4521	4521	4521	4521	4521	4521	4521	4463	4463	4521	4521	4521	4521	4521	4521	4521	4521	4521	4521	4521	4521	4521	4521	4521	4581	4581	4581	4581	4581	4581	4581	4521	4581	4521	4581	4581	4581	4643	4581	4581	4581	4521	4521	4521	4521	4521	4521	4521	4463	4463	4463	4463	4521	4521	4521	4521	4521	4581	4581	4581	4581	4581	4581	4643	4643	4581	4643	4643	4581	4581	4581	4581	4643	4581	4581	4581	4643	4643	4581	4581	4643	4643	4643	4643	4643	4706	4643	4706	4643	4643	4706	4771	4771	4771	4771	4838	4838	4906	4838	4838	4838	4838	4838	4838	4838	4838	4838	4838	4838	4838	4838	4838	4771	4771	4838	4771	4771	4771	4838	4838	4838	4838	4838	7779	7959	7779	7779	7959	7959	7959	7779	7959	7959	7959	7959	7959	7959	7959	7779	7779	7779	7779	7779	7779	7779	7959	7959	7959	7959	7959	7959	7959	7959	7959	7959	7959	7959	7959	7959	7959	7959	7959	7959	7959	7959	7959	7959	7959	7959	7959	7959	7959	7959	0	0	0	0	0	0	0	0	0	0	0	2570	2570	2551	2551	2532	2514	2514	2514	2514	2496	2496	2496	0	0	0	0	0	0	0	0	0	0	0	0	0	0	0	0	0	0	0	0	0	0	0	0	0	0	0	0	0	0	0	0	0	0	0	0
0	0	0	0	0	848	848	850	854	860	865	867	869	869	871	875	880	884	884	887	891	891	901	903	903	905	905	905	908	915	920	925	927	927	932	937	937	940	942	945	945	955	966	972	972	974	977	980	985	985	988	988	994	994	1008	1017	1026	1030	1033	1033	1036	1039	1042	1045	1055	1061	1064	1071	1071	1074	1074	1078	1081	1085	1088	1091	1095	1098	1098	0	0	0	0	0	0	0	0	0	4771	4838	4838	4771	4838	4771	4771	4838	4838	4838	4838	4838	4838	4906	4838	4906	4906	4838	4838	4838	4771	4771	4706	4706	4771	4771	4771	4771	4771	4771	4771	4771	4838	4838	4838	4838	4906	4838	4838	4771	4838	4838	4838	4771	4771	4771	4771	4771	4706	4706	4706	4706	4706	4771	4771	4771	4771	4838	4906	4906	8343	8146	8343	8343	8343	8343	8343	8343	8343	8343	8343	8343	8343	8343	8343	8343	8343	8343	8343	8343	8343	8343	8343	8343	8146	8146	8146	8146	8146	8146	8146	8146	8343	8146	8146	8146	8146	7959	8146	8146	8146	8146	8146	8146	8146	8146	7959	7959	7959	7959	7959	7959	7959	7959	7959	7959	7959	7959	7959	7959	8146	8146	8146	8146	8146	7959	8146	8343	8146	8146	8146	8146	8146	7959	8146	8146	7959	7959	7959	7959	8146	7959	7959	7959	7959	7959	7959	8146	7959	8146	7959	7959	7959	7959	7959	7959	7779	7959	7959	7959	7959	3698	3738	3738	3738	3738	3738	3698	3698	3698	3698	3698	3738	3738	3698	3698	3698	3698	3659	3659	3659	3698	3698	3698	0	0	0	0	0	0	0	0	0	0	0	0	0	0	0	0	0	0	0	0	0	0	0	0	0	0	0	0	0	0	0	0	0	0	3738	3738	3738	3698	3698	3698	3698	3698	3698	3738	3738	3698	3698	4838	4771	4771	4771	4771	4771	4771	4771	4771	4771	4771	4706	4706	4706	4706	4706	4706	4706	4771	4771	4771	4771	4771	4771	4771	4771	4771	4771	4706	4706	4706	4706	4643	4643	4643	4706	4706	4706	4706	4706	4771	4706	4706	4581	4581	4581	4581	4521	4521	4521	4521	4521	4521	4521	4521	4581	4581	4581	4581	4581	4581	4581	4521	4521	4581	4521	4581	4581	4581	4581	4643	4643	4581	4581	4521	4521	4463	4463	4463	4463	4463	4521	4521	4521	4521	4521	4521	4521	4521	4521	4521	4521	4521	4521	4521	4521	4463	4463	4521	4521	4521	4521	4521	4521	4521	4521	4521	4463	4521	4463	4463	4463	4521	4521	4521	4521	4521	4521	4521	4463	4463	4521	4521	4521	4463	4521	4581	4581	4521	4521	4521	4521	4463	4463	4463	4406	4463	4463	4463	4463	4463	4463	4463	4521	4521	4521	4521	4581	4581	4581	4581	4581	4643	4581	4581	4581	4581	4581	4581	4581	4581	4643	4643	4643	4581	4581	4581	4581	4581	4643	4643	4643	4581	4581	4643	4581	4643	4581	4581	4643	4643	4771	4771	4771	4838	4838	4838	4838	4838	4838	4838	4838	4838	4838	4838	4838	4838	4838	4838	4838	4838	4838	4838	4838	4838	4838	4838	4838	4838	4838	4838	4838	7779	7959	7959	7779	7959	7959	7959	7959	7959	7959	7959	7959	7959	7779	7779	7779	7779	7779	7779	7779	7779	7959	7959	7959	7959	7959	7959	7959	7959	7959	7959	7959	7959	7959	8146	7959	7959	7959	7779	7959	7959	7779	7959	7959	7444	7444	7959	6349	6349	6468	6468	6349	6349	0	0	0	0	0	0	0	0	2570	2570	2570	2551	2551	2532	2514	2514	2514	2514	2496	2496	0	0	0	0	0	0	0	0	0	0	0	0	0	0	0	0	0	0	0	0	0	0	0	0	0	0	0	0	0	0	0	0	0	0	0	0
0	0	0	0	0	843	845	845	854	860	860	867	867	869	871	871	880	880	882	887	889	889	903	903	905	905	905	905	908	913	922	925	927	930	932	937	935	940	942	945	948	961	966	969	972	974	977	983	985	985	988	991	994	997	1011	1017	1026	1030	1033	1033	1036	1039	1042	1045	1058	1061	1064	1071	1071	1074	1074	1078	1081	1081	1088	1095	1095	1098	1102	1102	0	0	0	0	0	0	0	0	4771	4771	4838	4771	4771	4771	4771	4838	4838	4838	4838	4838	4838	4906	4906	4906	4906	4838	4838	4838	4771	4771	4706	4706	4771	4771	4771	4771	4771	4771	4771	4771	4838	4838	4838	4838	4906	4838	4838	4771	4838	4838	4771	4838	4771	4771	4771	4771	4706	4706	4706	4706	4706	4706	4771	4771	4771	4771	4838	4838	8146	8146	8343	8343	8343	8343	8343	8343	8343	8343	8343	8343	8343	8343	8343	8343	8343	8343	8343	8343	8343	8343	8343	8146	8146	8146	8146	8146	8146	8146	8146	8146	8146	8146	8146	8146	8146	8146	8146	8146	8146	8146	8146	8146	8146	8146	7959	7959	7959	8146	7959	7959	7959	7959	7959	7959	7959	7959	7959	7959	7959	8146	8146	8146	8146	8146	8343	8343	8146	8146	8146	8146	8146	7959	8146	8146	7959	7959	7959	7959	7959	7959	7959	7959	7959	7959	7959	8146	8146	7959	7959	7959	7959	7959	7959	7959	7959	7959	7959	7959	7959	3698	3698	3698	3698	3698	3738	3698	3698	3698	3698	3698	3738	3698	3698	3698	3698	3698	3659	3659	3621	3621	3698	3698	0	0	0	0	0	0	0	0	0	0	0	0	0	0	0	0	0	0	0	0	0	0	0	0	0	0	0	0	0	0	0	0	0	3779	3738	3738	3738	3738	3698	3698	3698	3698	3698	3738	3738	3698	3698	4838	4771	4771	4771	4771	4771	4771	4771	4771	4771	4706	4706	4706	4706	4706	4706	4706	4706	4771	4771	4771	4771	4771	4771	4771	4771	4771	4771	4706	4706	4706	4706	4643	4706	4643	4706	4706	4706	4706	4706	4706	4706	4706	4581	4581	4581	4521	4521	4521	4521	4521	4521	4521	4521	4521	4521	4521	4581	4521	4581	4581	4521	4521	4521	4521	4521	4521	4581	4581	4581	4581	4581	4521	4521	4463	4463	4463	4463	4463	4463	4463	4463	4463	4463	4521	4521	4521	4521	4521	4521	4521	4521	4521	4521	4521	4521	4521	4521	4521	4521	4521	4521	4521	4521	4521	4521	4463	4463	4463	4463	4463	4463	4463	4463	4463	4463	4463	4463	4463	4463	4406	4463	4463	4463	4406	4463	4521	4521	4406	4406	4406	4406	4406	4406	4406	4406	4406	4406	4406	4406	4406	4406	4463	4463	4463	4521	4521	4521	4521	4581	4581	4581	4643	4581	4581	4581	4643	4643	4643	4581	4581	4643	4643	4643	4581	4581	4581	4581	4581	4581	4643	4643	4581	4581	4581	4581	4581	4581	4581	4643	4706	4771	4838	4838	4838	4838	4838	4838	4838	4838	4838	4838	4838	4838	4838	4838	4838	4838	4838	4838	4838	4838	4838	4838	4838	4838	4838	4838	4838	4838	4838	7779	7779	7959	7959	7779	7959	7959	7959	7959	7959	7959	7959	7959	7959	7959	7959	7779	7779	7779	7779	7779	7779	7959	7779	7959	7959	7959	7959	7959	7959	7959	7959	7959	7959	7959	8146	7959	7959	7959	7779	7959	7959	7959	7959	7779	7779	7444	6720	6349	6349	6349	6349	6235	6235	6235	0	0	0	0	0	0	2589	2570	2570	2570	2551	2551	2532	2496	2496	2514	2514	2496	2496	0	0	0	0	0	0	0	0	0	0	0	0	0	0	0	0	0	0	0	0	0	0	0	0	0	0	0	0	0	0	0	0	0	0	0	0
0	0	0	0	0	843	843	845	856	856	865	865	867	869	869	871	878	882	884	887	889	894	903	903	903	903	905	905	908	913	922	925	927	930	935	940	937	942	942	945	945	955	966	969	972	974	980	983	985	988	988	991	997	1000	1011	1017	1026	1030	1033	1033	1036	1039	1039	1045	1058	1064	1064	1071	1071	1074	1074	1078	1081	1081	1091	1095	1098	1098	1102	1102	0	0	0	0	0	0	0	0	4771	4771	4771	4771	4771	4771	4771	4771	4771	4838	4838	4838	4838	4838	4838	4838	4906	4838	4838	4838	4838	4771	4771	4771	4771	4771	4771	4771	4771	4771	4771	4771	4838	4838	4838	4838	4838	4838	4771	4771	4771	4771	4771	4771	4771	4771	4706	4706	4706	4706	4706	4706	4706	4706	4706	4771	4771	4771	4838	4838	8146	8146	8343	8343	8343	8343	8343	8343	8343	8343	8343	8146	8146	8146	8343	8343	8343	8343	8343	8343	8343	8343	8343	8146	8146	8146	8146	8146	8146	8146	8146	8146	8146	8146	8146	8146	8146	8146	8146	8146	8146	8146	8146	8146	8146	8146	8146	8146	8146	8146	8146	7959	7959	7959	7959	7959	7959	7959	7959	7959	7959	7959	8146	8146	8146	8146	8146	8343	8146	8146	8146	7959	8146	7959	8146	7959	7959	7959	7959	7959	7959	7779	7959	7959	7959	7959	7959	7959	8146	7959	7959	7959	7959	7959	7959	7959	7959	7959	7959	7959	0	3698	3698	3698	3698	3698	3698	3698	3698	3698	3698	3698	3698	3698	3698	3698	3698	3698	3659	3659	3659	3621	0	0	0	0	0	0	0	0	0	0	0	0	0	0	0	0	0	0	0	0	0	3779	3779	3779	3779	3779	3779	3779	0	0	0	0	0	0	3738	3738	3738	3738	3698	3698	3698	3698	3698	3698	3698	3698	3698	3698	4771	4771	4771	4771	4771	4771	4771	4771	4771	4771	4771	4771	4771	4706	4706	4706	4706	4706	4706	4706	4771	4771	4771	4771	4771	4771	4771	4771	4771	4706	4706	4706	4706	4706	4706	4706	4706	4706	4706	4706	4706	4706	4706	4643	4581	4581	4521	4521	4521	4521	4521	4521	4521	4521	4521	4521	4521	4521	4521	4521	4521	4521	4521	4521	4521	4521	4521	4521	4521	4521	4521	4521	4521	4521	4463	4463	4406	4406	4406	4406	4463	4463	4521	4521	4521	4521	4521	4521	4521	4521	4521	4521	4581	4521	4521	4521	4521	4521	4521	4521	4521	4521	4521	4521	4521	4521	4463	4463	4463	4463	4463	4406	4406	4463	4463	4463	4463	4463	4463	4463	4406	4406	4406	4406	4406	4406	4406	4463	4406	4406	4350	4406	4406	4350	4406	4350	4350	4350	4406	4406	4406	4406	4406	4406	4463	4463	4463	4521	4521	4521	4521	4581	4581	4581	4581	4581	4581	4643	4643	4643	4581	4581	4643	4581	4581	4581	4581	4581	4581	4581	4581	4581	4581	4581	4581	4581	4581	4581	4521	4521	4581	4643	4771	4838	4838	4838	4906	4906	4838	4838	4838	4838	4838	4838	4838	4838	4838	4838	4838	4838	4838	4838	4838	4838	4838	4838	4838	4838	4838	4906	4838	4838	7779	7779	7959	7959	7779	7959	7959	7959	7959	7959	7959	7959	7959	7959	7959	7959	7779	7779	7779	7779	7779	7779	7779	7779	7959	7959	7959	7959	7959	7959	7959	7959	7959	7959	7959	7959	7959	7959	7779	7779	7959	7959	7959	7779	7779	7608	6853	6720	6468	6468	6349	6235	6235	6124	6235	6235	0	0	0	0	0	2589	2570	2551	2551	2551	2532	2532	2514	2496	2496	2478	2496	2496	0	0	0	0	0	0	0	0	0	0	0	0	0	0	0	0	0	0	0	0	0	0	0	0	0	0	0	0	0	0	0	0	0	0	0	0
