0	0	0	0	0	0	0	0	0	0	1282	1287	1291	1291	1296	1296	1301	1296	1296	1296	1296	1291	1287	1287	0	0	0	0	0	0	0	0	0	0	0	0	0	0	0	0	0	0	0	0	0	0	0	0	0	0	0	0	0	0	0	0	0	0	0	0	0	0	0	0	1390	1390	1385	1385	1385	1385	0	0	0	0	0	0	0	0	0	0	0	0	0	0	0	0	0	0	0	0	0	0	0	0	0	0	1437	1431	1431	1437	1431	1431	1437	1437	1437	1443	1455	1455	1455	1461	1461	1461	1467	1467	1473	1480	1486	1492	1492	1506	1512	1519	1525	1525	1525	1532	1539	1546	1546	1553	1560	1567	1596	1611	1618	1618	1618	1626	1626	1634	1649	1657	1665	1665	1681	1690	1698	1698	0	0	0	0	0	0	0	0	0	0	0	0	0	2754	2754	2754	2754	2733	2733	2711	2711	2711	2711	2711	2690	2690	2711	2690	2690	2711	2711	2711	2711	2845	2845	2845	2799	2799	2799	2799	2799	2799	2799	2822	2822	2845	2845	2845	2869	2869	2869	2869	2893	2893	2917	2917	2917	2967	3019	3046	3046	3073	3101	3101	3073	0	0	0	0	0	0	0	0	0	0	0	0	0	0	6349	6468	6468	6468	6349	6468	6468	6468	6468	6468	6468	6349	6468	6468	6468	6349	6468	6349	6349	6468	6468	6468	6468	6592	6468	6592	6592	6592	6592	6592	6468	6468	6468	6468	6468	6468	6349	6468	6468	6468	6468	6592	6468	6592	6468	6468	6468	6468	6468	6592	6592	6592	6592	6592	6592	6592	6592	6592	6592	6592	6592	6592	6592	4045	4045	3998	3952	3952	3952	3952	3952	3952	3952	3952	3907	3907	3907	3907	3907	3907	3907	3907	3907	3907	3907	3907	3864	3907	3907	3907	3907	3907	3907	3907	3907	3907	3907	3907	3907	3907	3907	3907	3952	3907	3907	3907	3907	3907	3907	3907	3907	3907	3907	3907	3907	3907	3907	3907	3907	3907	3907	3907	3952	3952	3952	3952	3952	3952	3952	3952	3952	3952	3952	8550	8550	8550	8550	8550	8550	8550	8550	8550	8550	8343	8343	8343	8146	7959	7608	7444	7287	6853	6720	6720	6720	6592	6592	6592	6720	6592	6720	6592	6592	6592	6592	6592	6592	6592	6592	6592	6592	6592	6468	6468	6468	6349	6349	6235	6235	8550	8550	8550	8550	8343	8343	8343	8146	8343	8343	8343	8146	8146	8343	8146	8146	8146	8146	8343	8343	8343	8343	8343	8146	8146	8146	8146	5050	5202	5364	5364	5364	5364	5364	5364	5364	5364	5364	5364	5364	5282	5282	0	0	0	0	0	0	0	0	0	0	0	0	0	0	0	0	0	0	0	0	0	0	0	0	0	0	0	0	0	0	0	0	0	0	0	0	0	0	0	0	0	0	0	0	0	0	0	0	0	0	0	0	0	0	0	0	0	0	0	0	0	0	0	2392	2392	2359	2343	2343	2343	2327	2327	2327	2327	2312	2312	0	0	0	0	0	0	0	2297	2281	2281	2266	2266	2252	2252	2252	2237	2252	2252	2237	2237	2237	2237	2208	3277	3246	3277	3246	3246	3246	3246	3309	3309	3277	3277	3277	3246	3246	3246	3246	3246	3246	3277	3246	3246	3246	3277	3246	3246	3216	3216	3216	3216	3216	3216	3216	3246	0	0	0	0	0	0	0	0	0	2076	2076	2076	2076	2076	2063	2063	2076	2063	2063	2051	2051	2063	2063	3216	3216	0	0	0	0	0	0	0	0	0	0	0	0	0	0	0	0	0	0	0	0	0	0	0	0	0	0	0	0	0	0	0	0	0	0	0	0
0	0	0	0	0	0	0	0	0	0	1282	1287	1287	1291	1296	1296	1301	1296	1296	1296	1296	1291	1291	1287	0	0	0	0	0	0	0	0	0	0	0	0	0	0	0	0	0	0	0	0	0	0	0	0	0	0	0	0	0	0	0	0	0	0	0	0	0	0	0	0	1402	1407	1407	1407	0	0	0	0	0	0	0	0	0	0	0	0	0	0	0	0	0	0	0	0	0	0	0	0	0	0	0	1425	1425	1425	1425	1437	1431	1431	1431	1437	1437	1443	1449	1455	1455	1461	1455	1461	1467	1467	1480	1480	1486	1492	1492	1506	1512	1525	1525	1525	1525	1532	1539	1546	1546	1553	1560	1567	1574	1611	1611	1618	1618	1618	1626	1626	1649	1657	1673	1673	1681	1690	1698	1698	1698	0	0	0	0	0	0	0	0	0	0	0	0	2777	2754	2754	2754	2733	2711	2711	2711	2711	2711	2711	2690	2690	2711	2711	2711	2711	2733	2733	2777	2845	2845	2822	2799	2799	2799	2799	2799	2799	2799	2822	2822	2845	2845	2845	2869	2869	2869	2869	2893	2917	2942	2942	2967	2993	3046	3046	3073	3073	3101	3101	0	0	0	0	0	0	0	0	0	0	0	0	0	0	0	6349	6349	6349	6349	6349	6349	6349	6468	6468	6468	6468	6468	6468	6468	6468	6468	6468	6468	6468	6468	6468	6468	6468	6468	6468	6468	6468	6592	6592	6592	6468	6592	6468	6468	6468	6468	6468	6468	6592	6592	6468	6468	6468	6592	6468	6468	6468	6468	6468	6468	6592	6592	6592	6592	6592	6592	6592	6592	6592	6592	6468	6468	6592	4045	3998	3998	3952	3952	3952	3952	3952	3952	3952	3952	3907	3907	3907	3907	3907	3907	3907	3907	3907	3907	3907	3864	3864	3907	3907	3907	3907	3907	3907	3907	3907	3907	3907	3907	3907	3907	3907	3907	3952	3907	3907	3907	3907	3907	3907	3907	3907	3907	3907	3907	3907	3907	3907	3907	3907	3907	3907	3907	3907	3952	3952	3952	3952	3952	3952	3952	3952	3907	3907	8550	8550	8550	8550	8550	8550	8550	8767	8550	8550	8343	8343	8146	8146	7959	7608	7444	7287	6853	6720	6720	6720	6592	6592	6592	6720	6592	6720	6592	6592	6592	6592	6592	6592	6592	6592	6592	6592	6592	6592	6468	6468	6349	6349	6235	6235	8550	8550	8550	8343	8343	8343	8343	8146	8343	8343	8343	8146	8146	8343	8343	8146	8343	8343	8343	8343	8343	8343	8146	8146	8146	8146	8146	8146	5125	5364	5364	5364	5448	5364	5364	5364	5364	5364	5364	5364	5282	5282	5282	0	0	0	0	0	0	0	0	0	0	0	0	0	0	0	0	0	0	0	0	0	0	0	0	0	0	0	0	0	0	0	0	0	0	0	0	0	0	0	0	0	0	0	0	0	0	0	0	0	0	0	0	0	0	0	0	0	0	0	0	0	0	2409	2409	2376	2343	2343	2343	2327	2327	2327	2312	2312	2312	0	0	0	0	0	2281	2281	2281	2281	2266	2266	2266	2252	2252	2252	2252	2252	2252	2252	2266	2266	2237	3309	3277	3277	3277	3277	3277	3246	3277	3246	3277	3277	3277	3277	3277	3246	3246	3246	3277	3277	3277	3246	3246	3246	3246	3246	3246	3216	3216	3216	3246	3246	3216	3216	3216	0	0	0	0	0	0	0	0	0	0	2076	2076	2076	2076	2063	2063	2076	2051	2051	2051	2039	2051	2063	2063	0	0	0	0	0	0	0	0	0	0	0	0	0	0	0	0	0	0	0	0	0	0	0	0	0	0	0	0	0	0	0	0	0	0	0	0	0
0	0	0	0	0	0	0	0	0	0	1282	1287	1287	1291	1291	1296	1296	1296	1296	1296	1296	1296	1291	0	0	0	0	0	0	0	0	0	0	0	0	0	0	0	0	0	0	0	0	0	0	0	0	0	0	0	0	0	0	0	0	0	0	0	0	0	0	0	0	1407	1407	1407	1413	1407	1407	0	0	0	0	0	0	0	0	0	0	0	0	0	0	0	0	0	0	0	0	0	0	0	1425	1425	1425	1425	1431	1425	1431	1431	1431	1431	1431	1437	1437	1443	1449	1449	1455	1455	1455	1461	1467	1467	1480	1480	1486	1486	1492	1506	1519	1525	1525	1525	1525	1532	1539	1546	1546	1553	1560	1560	1574	1603	1611	1618	1618	1626	1626	1626	1634	1649	1665	1665	1681	1690	1698	1698	1698	0	0	0	0	0	0	0	0	0	0	0	2777	2754	2754	2754	2754	2733	2711	2711	2711	2711	2711	2711	2690	2690	2711	2711	2711	2711	2733	2733	2777	2777	2822	2822	2799	2777	2777	2777	2777	2777	2799	2822	2845	2845	2845	2845	2869	2869	2869	2869	2869	2893	2942	2942	2967	3019	3046	3046	3073	3073	3073	3073	0	0	0	0	0	0	0	0	0	0	0	0	0	0	0	6349	6349	6349	6349	6349	6349	6468	6468	6468	6468	6468	6468	6468	6468	6468	6468	6468	6468	6468	6468	6468	6468	6468	6468	6468	6468	6468	6592	6592	6592	6592	6592	6468	6592	6468	6468	6468	6468	6468	6468	6468	6468	6592	6592	6468	6468	6468	6468	6468	6592	6592	6592	6592	6592	6592	6592	6592	6592	6592	6592	6468	6592	6592	6592	3998	3952	3952	3952	3952	3952	3952	3952	3952	3952	3952	3907	3907	3907	3907	3907	3907	3907	3907	3907	3907	3864	3864	3907	3907	3907	3907	3907	3907	3907	3907	3907	3907	3907	3907	3907	3952	3952	3952	3952	3952	3907	3907	3907	3907	3907	3907	3952	3952	3952	3952	3952	3907	3907	3907	3907	3907	3907	3907	3907	3952	3952	3952	3952	3952	3952	3952	3907	3907	0	8550	8550	8550	8550	8550	8550	8550	8550	8550	8343	8343	8343	8146	7959	7608	7444	7287	6853	6592	6720	6592	6592	6592	6592	6720	6592	6720	6592	6592	6592	6592	6592	6720	6592	6592	6592	6592	6592	6592	6468	6468	6349	6235	6235	6235	8550	8550	8550	8343	8343	8343	8343	8343	8343	8343	8343	8146	8146	8343	8343	8146	8146	8146	8343	8343	8343	8343	8146	8146	8146	7959	7959	8146	5364	5364	5364	5364	5364	5364	5364	5364	5364	5364	5282	5282	5282	5282	5282	0	0	0	0	0	0	0	0	0	0	0	0	0	0	0	0	0	0	0	0	0	0	0	0	0	0	0	0	0	0	0	0	0	0	0	0	0	0	0	0	0	0	0	0	0	0	0	0	0	0	0	0	0	0	0	0	0	0	0	0	0	0	2409	2409	2392	2359	2343	2327	2327	2327	2327	2312	2312	2312	0	0	0	2266	2281	2281	2281	2297	2281	2281	2266	2266	2252	2252	2252	2266	2252	2266	2281	2281	2281	0	3277	3277	3246	3246	3246	3246	3277	3277	3309	3309	3277	3277	3277	3277	3246	3246	3277	3277	3277	3277	3277	3246	3246	3277	3277	3246	3216	3216	3246	3246	3246	3216	3216	3246	0	0	0	0	0	0	0	0	0	0	0	0	2076	2063	2063	2063	2063	2051	2051	2051	2039	2063	2063	2063	0	0	0	0	0	0	0	0	0	0	0	0	0	0	0	0	0	0	0	0	0	0	0	0	0	0	0	0	0	0	0	0	0	0	0	0	0
0	0	0	0	0	0	0	0	0	0	1282	1282	1287	1291	1296	1296	1296	1296	1296	1301	1301	1301	0	0	0	0	0	0	0	0	0	0	0	0	0	0	0	0	0	0	0	0	0	0	0	0	0	0	0	0	0	0	0	0	0	0	0	0	0	0	0	0	0	1407	1407	1407	1407	1407	1407	0	0	0	0	0	0	0	0	0	0	0	0	0	0	0	0	0	0	0	0	0	0	0	1419	1425	1419	1425	1425	1425	1425	1431	1425	1431	1431	1431	1437	1437	1443	1449	1449	1455	1455	1461	1461	1461	1473	1480	1480	1486	1492	1492	1519	1525	1525	1525	1532	1532	1539	1546	1546	1553	1560	1567	1574	1596	1611	1618	1626	1618	1626	1626	1649	1657	1665	1665	1681	1690	1698	1698	1698	0	0	0	0	0	0	0	0	0	0	2845	2799	2777	2754	2754	2754	2733	2711	2711	2690	2711	2711	2711	2711	2690	2711	2711	2711	2711	2711	2733	2777	2777	2845	2822	2799	2799	2799	2777	2777	2777	2799	2822	2845	2845	2845	2869	2869	2869	2869	2869	2893	2917	2942	2942	2967	3019	3046	3073	3073	3073	3101	3101	0	0	0	0	0	0	0	0	0	0	0	0	0	0	0	6349	6349	6349	6349	6349	6349	6349	6468	6468	6468	6468	6468	6468	6468	6468	6468	6468	6468	6468	6468	6468	6468	6468	6468	6468	6468	6468	6468	6468	6592	6592	6592	6592	6592	6592	6592	6468	6468	6468	6468	6468	6468	6468	6468	6468	6468	6468	6468	6468	6592	6592	6592	6592	6592	6592	6592	6592	6592	6592	6592	6592	6592	6592	6468	3998	3998	3998	3952	3952	3952	3952	3952	3952	3952	3952	3907	3907	3907	3907	3907	3907	3907	3907	3907	3907	3864	3864	3907	3907	3907	3907	3907	3907	3907	3907	3907	3907	3907	3907	3907	3952	3907	3952	3952	3952	3952	3907	3952	3952	3907	3952	3952	3952	3952	3952	3952	3907	3907	3907	3907	3907	3907	3907	3907	3952	3907	3952	3952	3952	3952	3907	3907	3907	8550	8550	8550	8550	8550	8550	8550	8550	8550	8343	8343	8550	8343	8146	7959	7608	7287	6592	6592	6592	6720	6592	6592	6592	6592	6592	6592	6592	6592	6592	6592	6592	6592	6720	6592	6720	6720	6592	6592	6592	6468	6468	6349	6592	6235	6235	8550	8550	8550	8343	8343	8343	8343	8343	8343	8343	8343	8343	8343	8343	8343	8146	8146	8146	8550	8550	8343	8343	8146	8146	8146	7959	7959	7959	5282	5364	5364	5364	5364	5364	5364	5364	5364	5364	5282	5282	5364	5364	5364	0	0	0	0	0	0	0	0	0	0	0	0	0	0	0	0	0	0	0	0	0	0	0	0	0	0	0	0	0	0	0	0	0	0	0	0	0	0	0	0	0	0	0	0	0	0	0	0	0	0	0	0	0	0	0	0	0	0	0	0	0	2409	2409	2409	2392	2359	2343	2343	2327	2327	2327	2312	2312	2312	0	0	0	2281	2281	2281	2297	2297	2297	2281	2266	2266	2252	2252	2252	2237	2252	2266	2266	3309	3277	3277	3277	3277	3246	3246	3246	3246	3277	3277	3277	3246	3277	3277	3277	3277	3277	3246	3246	3277	3277	3277	3277	3246	3246	3246	3246	3246	3246	3216	3246	3246	3246	3216	3216	3246	0	0	0	0	0	0	0	0	0	0	0	0	2076	2076	2063	2063	2063	2051	2051	2051	2039	2063	2076	2076	0	0	0	0	0	0	0	0	0	0	0	0	0	0	0	0	0	0	0	0	0	0	0	0	0	0	0	0	0	0	0	0	0	0	0	0	0
0	0	0	0	0	0	0	0	0	0	1282	1282	1287	1291	1296	1301	1301	1301	1301	1301	1301	1301	0	0	0	0	0	0	0	0	0	0	0	0	0	0	0	0	0	0	0	0	0	0	0	0	0	0	0	0	0	0	0	0	0	0	0	0	0	0	0	1419	1419	1413	1413	1413	1419	1419	0	0	0	0	0	0	0	0	0	0	0	0	0	0	0	0	0	0	0	0	0	1419	1425	1425	1419	1425	1425	1419	1419	1419	1425	1425	1425	1431	1431	1437	1437	1437	1443	1443	1449	1449	1455	1461	1467	1467	1473	1480	1480	1486	1486	1506	1512	1525	1525	1525	1525	1532	1539	1546	1546	1553	1560	1567	1581	1596	1611	1618	1618	1618	1618	1626	1634	1657	1665	1665	1681	1690	1690	1690	1698	1698	0	0	0	0	0	0	0	0	0	2845	2845	2777	2754	2754	2733	2711	2711	2711	2711	2711	2690	2711	2711	2690	2690	2690	2711	2733	2733	2754	2777	2822	2822	2822	2799	2799	2799	2799	2777	2777	2799	2799	2845	2845	2845	2869	2869	2869	2869	2893	2917	2942	2942	2967	2993	3019	3046	3046	3073	3073	3101	3101	0	0	0	0	0	0	0	0	0	0	0	0	0	0	0	6349	6468	6349	6349	6468	6349	6349	6468	6468	6468	6468	6468	6468	6592	6468	6468	6468	6592	6468	6468	6468	6468	6468	6468	6468	6468	6468	6468	6468	6592	6468	6468	6592	6592	6592	6592	6468	6468	6468	6468	6468	6468	6468	6468	6468	6468	6468	6468	6592	6592	6592	6592	6592	6592	6592	6592	6592	6592	6592	6592	6592	6592	6592	6468	6592	3998	3998	3952	3952	3952	3998	3998	3952	3952	3952	3952	3952	3907	3907	3907	3907	3907	3907	3907	3907	3864	3864	3907	3907	3907	3907	3907	3907	3907	3952	3952	3907	3907	3907	3907	3952	3952	3952	3952	3952	3952	3952	3952	3952	3952	3952	3952	3952	3952	3952	3952	3907	3907	3907	3907	3907	3907	3907	3907	3907	3907	3952	3952	3952	3952	3907	3907	3907	8550	8550	8550	8550	8550	8550	8550	8550	8550	8550	8550	8550	8343	8343	7959	7779	7444	6720	6592	6592	6592	6592	6592	6592	6592	6592	6592	6592	6592	6592	6592	6592	6592	6720	6720	6592	6592	6592	6592	6592	6592	6468	6349	6592	6235	6235	8550	8550	8550	8550	8343	8343	8343	8343	8550	8343	8550	8343	8343	8343	8343	8146	8146	8343	8550	8550	8550	8343	8146	8343	8146	7959	7959	8146	5364	5364	5448	5448	5448	5364	5364	5364	5364	5364	5364	5282	5364	5364	5364	0	0	0	0	0	0	0	0	0	0	0	0	0	0	0	0	0	0	0	0	0	0	0	0	0	0	0	0	0	0	0	0	0	0	0	0	0	0	0	0	0	0	0	0	0	0	0	0	0	0	0	0	0	0	0	0	0	0	0	0	0	2409	2409	2392	2392	2359	2343	2327	2327	2327	2312	2312	2297	2297	2297	0	0	2281	2281	2297	2297	2297	2297	2281	2252	2237	2252	2252	2237	2237	2237	3277	3277	3277	3246	3246	3246	3246	3246	3246	3246	3246	3277	3277	3277	3277	3309	3277	3277	3277	3277	3277	3277	3277	3277	3277	3277	3246	3246	3246	3246	3246	3246	3216	3246	3216	3216	3216	3216	0	0	0	0	0	0	0	0	0	0	0	0	0	0	2076	2063	2063	2076	2063	2063	2063	2063	2076	2076	2076	0	0	0	0	0	0	0	0	0	0	0	0	0	0	0	0	0	0	0	0	0	0	0	0	0	0	0	0	0	0	0	0	0	0	0	0	0
0	0	0	0	0	0	0	0	0	0	0	1291	1291	1291	1296	1301	1301	1301	1301	1301	1301	0	0	0	0	0	0	0	0	0	0	0	0	0	0	0	0	0	0	0	0	0	0	0	0	0	0	0	0	0	0	0	0	0	0	0	0	0	0	0	0	1419	1419	1413	1413	1413	1419	1413	1413	0	0	0	0	0	0	0	0	0	0	0	0	0	0	0	0	0	0	0	0	1419	1419	1425	1425	1425	1425	1419	1425	1419	1419	1425	1425	1425	1431	1437	1437	1437	1443	1443	1443	1449	1449	1455	1461	1467	1473	1480	1480	1480	1486	1506	1512	1519	1525	1525	1525	1532	1539	1546	1546	1553	1560	1567	1581	1589	1603	1618	1618	1618	1626	1626	1634	1649	1657	1665	1665	1690	1690	1698	1698	1698	0	0	0	0	0	0	0	0	0	2845	2845	2777	2754	2754	2711	2711	2711	2711	2690	2711	2690	2711	2711	2711	2690	2690	2711	2690	2733	2754	2777	2777	2822	2845	2799	2799	2777	2799	2777	2777	2799	2799	2822	2845	2845	2869	2869	2869	2869	2893	2893	2942	2942	2967	2967	3019	3046	3046	3046	3073	3073	3101	3101	0	0	0	0	0	0	0	0	0	0	0	0	0	0	6349	6468	6349	6349	6349	6349	6468	6468	6468	6468	6468	6468	6468	6592	6468	6468	6468	6592	6468	6468	6468	6468	6468	6468	6468	6468	6468	6468	6468	6592	6468	6592	6592	6592	6592	6592	6468	6468	6468	6468	6468	6468	6468	6468	6592	6592	6592	6592	6592	6592	6592	6592	6592	6592	6592	6592	6592	6592	6592	6592	6592	6592	6468	6468	6468	3952	3952	3952	3952	3952	3952	3998	3952	3952	3952	3952	3952	3907	3907	3907	3907	3907	3907	3907	3864	3864	3864	3907	3907	3907	3907	3907	3907	3907	3907	3907	3907	3952	3952	3952	3952	3952	3952	3952	3952	3952	3952	3952	3952	3952	3952	3952	3952	3952	3952	3952	3907	3907	3907	3907	3907	3907	3907	3907	3952	3907	3952	3952	3952	3952	3907	3907	3907	8550	8550	8550	8550	8550	8550	8550	8550	8550	8550	8767	8767	8343	8343	8146	7779	7287	6592	6592	6592	6592	6592	6592	6592	6592	6592	6592	6592	6592	6592	6592	6592	6592	6592	6592	6592	6592	6592	6592	6592	6592	6468	6349	6468	6235	6235	8343	8550	8343	8343	8343	8343	8343	8343	8550	8343	8550	8343	8343	8343	8343	8146	8146	8146	8343	8343	8343	8343	8343	8343	8146	7959	7959	7959	5364	5448	5448	5448	5448	5448	5364	5364	5364	5364	5282	5282	5282	5282	5282	0	0	0	0	0	0	0	0	0	0	0	0	0	0	0	0	0	0	0	0	0	0	0	0	0	0	0	0	0	0	0	0	0	0	0	0	0	0	0	0	0	0	0	0	0	0	0	0	0	0	0	0	0	0	0	0	0	0	0	0	0	0	2409	2392	2376	2343	2327	2312	2312	2312	2312	2312	2312	2312	2297	0	0	2281	2281	2297	2297	2297	2297	2281	2252	2252	2252	3341	3341	3277	3277	3277	3277	3277	3246	3277	3277	3277	3246	3277	3246	3246	3277	3277	3246	3277	3277	3277	3277	3277	3277	3277	3277	3277	3277	3277	3277	3246	3246	3246	3277	3246	3246	3246	3246	3246	3216	3216	3216	0	0	0	0	0	0	0	0	0	0	0	0	0	0	0	0	2063	2063	2063	2063	2063	2076	2076	2076	2076	0	0	0	0	0	0	0	0	0	0	0	0	0	0	0	0	0	0	0	0	0	0	0	0	0	0	0	0	0	0	0	0	0	0	0	0	0
0	0	0	0	0	0	0	0	0	0	0	1291	1291	1296	1296	1301	1301	1301	1306	1301	1301	1301	0	0	0	0	0	0	0	0	0	0	0	0	0	0	0	0	0	0	0	0	0	0	0	0	0	0	0	0	0	0	0	0	0	0	0	0	0	0	0	0	0	1413	1413	1413	1419	1413	1413	0	0	0	0	0	0	0	0	0	0	0	0	0	0	0	0	0	0	0	0	1425	1425	1425	1419	1425	1425	1425	1425	1419	1425	1425	1425	1431	1431	1437	1437	1437	1437	1443	1443	1443	1443	1455	1461	1467	1467	1473	1480	1486	1499	1506	1512	1512	1519	1519	1525	1525	1532	1539	1546	1560	1560	1574	1581	1589	1589	1603	1611	1618	1618	1626	1634	1649	1657	1665	1681	1690	1690	1698	1698	1706	1706	0	0	0	0	0	0	0	0	0	0	2777	2754	2754	2711	2711	2711	2690	2690	2711	2690	2711	2711	2711	2711	2711	2733	2733	2733	2733	2733	2845	2845	2822	2799	2799	2799	2799	2777	2777	2777	2799	2822	2845	2845	2869	2869	2869	2893	2893	2893	2942	2942	2967	2967	3019	3046	3046	3073	3046	3046	3101	3101	0	0	0	0	0	0	0	0	0	0	0	0	0	0	6349	6349	6349	6349	6349	6349	6468	6349	6468	6468	6468	6468	6468	6468	6468	6468	6468	6592	6468	6468	6468	6468	6468	6468	6468	6468	6468	6468	6468	6592	6592	6592	6592	6592	6592	6592	6468	6468	6468	6468	6468	6468	6592	6592	6592	6592	6592	6592	6592	6592	6592	6592	6592	6592	6592	6592	6592	6592	6592	6592	6592	6468	6468	6468	3907	3907	3907	3907	3907	3952	3952	3998	3952	3952	3952	3952	3952	3952	3907	3907	3907	3907	3907	3907	3864	3864	3864	3864	3907	3907	3907	3907	3907	3907	3952	3907	3952	3952	3952	3952	3952	3952	3952	3952	3952	3952	3952	3952	3952	3952	3952	3952	3907	3952	3907	3907	3907	3907	3907	3907	3907	3907	3907	3907	3952	3907	3952	3952	3952	3952	3907	3907	3907	8550	8550	8550	8343	8550	8550	8550	8550	8550	8550	8550	8550	8343	8343	7959	7779	7287	6592	6592	6592	6592	6592	6468	6592	6592	6592	6592	6592	6592	6468	6592	6592	6468	6592	6592	6592	6592	6592	6592	6592	6592	6592	6468	6468	6349	6349	8343	8550	8343	8343	8343	8343	8343	8343	8550	8550	8550	8343	8343	8343	8343	8146	8146	8146	8343	8550	8550	8343	8343	8343	8146	8146	7959	5448	5448	5448	5448	5448	5448	5448	5448	5364	5364	5364	5364	5282	5282	5364	5364	5364	0	0	0	0	0	0	0	0	0	0	0	0	0	0	0	0	0	0	0	0	0	0	0	0	0	0	0	0	0	0	0	0	0	0	0	0	0	0	0	0	0	0	0	0	0	0	0	0	0	0	0	0	0	0	0	0	0	0	0	0	0	2392	2392	2376	2327	2327	2312	2297	2312	2312	2327	2312	2312	0	0	0	0	0	0	0	2297	2297	2297	2297	2252	0	3341	3309	3277	3277	3277	3277	3277	3246	3277	3277	3277	3277	3277	3277	3277	3277	3277	3277	3277	3277	3277	3277	3277	3277	3277	3277	3277	3277	3277	3277	3277	3277	3277	3277	3277	3277	3246	3246	3246	3246	3216	0	0	0	0	0	0	0	0	0	0	0	0	0	0	0	0	0	0	2063	2063	2051	2063	2063	2063	2076	2076	0	0	0	0	0	0	0	0	0	0	0	0	0	0	0	0	0	0	0	0	0	0	0	0	0	0	0	0	0	0	0	0	0	0	0	0	0
0	0	0	0	0	0	0	0	0	0	0	1287	1291	1291	1296	1301	1301	1301	1301	1301	1301	1301	0	0	0	0	0	0	0	0	0	0	0	0	0	0	0	0	0	0	0	0	0	0	0	0	0	0	0	0	0	0	0	0	0	0	0	0	0	0	0	0	0	0	0	0	0	0	0	0	0	0	0	0	0	0	0	0	0	0	0	0	0	0	0	0	0	0	0	1431	1425	1425	1425	1425	1425	1425	1425	1419	1425	1425	1425	1431	1431	1437	1437	1437	1437	1443	1443	1443	1449	1455	1467	1467	1473	1480	1480	1486	1499	1506	1512	1512	1519	1519	1519	1525	1532	1539	1553	1560	1567	1574	1574	1589	1589	1596	1603	1618	1626	1626	1634	1649	1657	1665	1681	1690	1690	1698	1706	1715	1715	1715	0	0	0	0	0	0	0	0	0	0	2754	2754	2690	2690	2690	2690	2690	2690	2690	2711	2711	2711	2711	2711	2711	2711	2733	2733	2822	2845	2845	2845	2845	2822	2822	2799	2777	2799	2799	2799	2822	2822	2845	2845	2869	2869	2869	2893	2967	2967	2993	2967	2993	3019	3046	3046	3046	3046	3101	3073	3073	3073	0	0	0	0	0	0	0	0	0	0	0	0	0	6349	6468	6349	6235	6349	6349	6468	6468	6468	6468	6468	6468	6468	6468	6468	6468	6468	6592	6468	6468	6468	6468	6468	6468	6468	6468	6468	6468	6468	6468	6592	6592	6592	6592	6592	6592	6592	6468	6468	6468	6592	6468	6592	6592	6592	6592	6592	6592	6592	6592	6592	6592	6592	6592	6592	6592	6592	6468	6468	6592	6592	6468	6468	6468	3864	3864	3907	3907	3907	3952	3952	3952	3952	3952	3952	3952	3952	3907	3907	3907	3907	3907	3907	3907	3864	3864	3864	3864	3907	3907	3907	3907	3907	3907	3907	3907	3952	3952	3952	3952	3952	3952	3952	3952	3952	3952	3952	3952	3952	3952	3952	3907	3907	3952	3907	3907	3907	3907	3907	3907	3907	3907	3907	3952	3952	3907	3952	3952	3952	3952	3907	3907	3907	8550	8550	8550	8343	8550	8550	8550	8550	8550	8343	8343	8343	8343	8146	7959	7779	7287	6592	6592	6592	6468	6468	6468	6468	6468	6592	6592	6468	6468	6468	6468	6592	6592	6592	6592	6592	6592	6592	6592	6592	6592	6592	6592	6468	6349	6349	8343	8550	8550	8550	8550	8550	8343	8343	8550	8343	8343	8343	8146	8343	8146	8146	8146	8146	8343	8343	8343	8343	8343	8343	8146	8146	7959	7959	5448	5448	5448	5448	5448	5448	5448	5364	5364	5364	5364	5364	5282	5364	5364	5364	0	0	0	0	0	0	0	0	0	0	0	0	0	0	0	0	0	0	0	0	0	0	0	0	0	0	0	0	0	0	0	0	0	0	0	0	0	0	0	0	0	0	0	0	0	0	0	0	0	0	0	0	0	0	0	0	0	0	0	0	0	2392	2376	2359	2343	2327	2327	2312	2312	2327	2327	2327	2327	0	0	0	0	0	0	0	0	2297	2297	2297	0	0	3341	3277	3277	3277	3277	3277	3277	3277	3277	3277	3277	3277	3277	3277	3277	3277	3277	3277	3277	3277	3277	3277	3277	3277	3309	3309	3277	3277	3277	3277	3246	3277	3277	3277	3277	3277	3246	3246	3246	3246	0	0	0	0	0	0	0	0	0	0	0	0	0	0	0	0	0	0	0	0	2063	2063	2063	2063	2063	2076	2076	0	0	0	0	0	0	0	0	0	0	0	0	0	0	0	0	0	0	0	0	0	0	0	0	0	0	0	0	0	0	0	0	0	0	0	0	0
0	0	0	0	0	0	0	0	0	0	0	1287	1291	1291	1296	1301	1301	1301	1301	1301	1296	1296	0	0	0	0	0	0	0	0	0	0	0	0	0	0	0	0	0	0	0	0	0	0	0	0	0	0	0	0	0	0	0	0	0	0	0	0	0	0	0	0	0	0	0	0	0	0	0	0	0	0	0	0	0	0	0	0	0	0	0	0	0	0	0	0	0	0	1431	1431	1425	1431	1425	1431	1425	1425	1425	1419	1425	1425	1425	1431	1431	1431	1437	1437	1437	1437	1437	1443	1449	1455	1467	1473	1473	1480	1480	1492	1499	1506	1512	1512	1512	1519	1519	1525	1525	1553	1560	1567	1567	1581	1589	1589	1589	1596	1603	1611	1618	1626	1634	1649	1649	1657	1681	1690	1698	1706	1715	1715	1715	1715	0	0	0	0	0	0	0	0	0	0	2754	2711	2690	2690	2690	2711	2690	2690	2690	2690	2711	2711	2711	2711	2711	2711	2711	2711	2822	2822	2845	2845	2845	2822	2822	2799	2799	2799	2799	2799	2799	2822	2845	2869	2869	2869	2893	2893	2917	2942	2942	2967	2967	2993	3046	3046	3046	3046	3073	3046	3046	3046	0	0	0	0	0	0	0	0	0	0	0	0	0	0	6468	6349	6349	6349	6349	6468	6468	6468	6468	6468	6468	6468	6468	6468	6468	6468	6468	6468	6468	6468	6468	6468	6468	6468	6468	6468	6468	6468	6592	6468	6468	6468	6592	6592	6468	6468	6468	6592	6592	6592	6592	6592	6592	6592	6592	6592	6592	6592	6592	6592	6592	6592	6592	6592	6592	6592	6592	6468	6592	6592	6468	6592	6468	3864	3864	3907	3907	3907	3907	3952	3952	3952	3952	3952	3952	3952	3907	3907	3907	3907	3907	3907	3907	3907	3907	3864	3864	3907	3907	3907	3907	3907	3952	3907	3952	3952	3952	3952	3952	3952	3952	3952	3952	3952	3952	3952	3952	3952	3952	3952	3907	3907	3907	3907	3907	3907	3907	3907	3907	3907	3907	3952	3952	3952	3952	3952	3952	3952	3952	3907	3907	3907	0	8550	8550	8343	8343	8343	8550	8550	8550	8343	8343	8343	8146	7959	7779	7779	7137	7137	6592	6592	6592	6592	6468	6468	6468	6468	6468	6468	6468	6468	6468	6468	6468	6592	6592	6592	6592	6592	6592	6592	6592	6592	6592	6592	6349	6349	8343	8550	8550	8550	8343	8343	8343	8343	8343	8343	8343	8343	8146	8343	8146	8146	8146	8146	8343	8343	8343	8343	8343	8343	8146	7959	7959	7959	5448	5448	5448	5448	5448	5448	5448	5364	5364	5364	5364	5364	5364	5364	5364	5364	0	0	0	0	0	0	0	0	0	0	0	0	0	0	0	0	0	0	0	0	0	0	0	0	0	0	0	0	0	0	0	0	0	0	0	0	0	0	0	0	0	0	0	0	0	0	0	0	0	0	0	0	0	0	0	0	0	0	0	0	0	0	2343	2327	2327	2327	2312	2281	2312	2327	2327	2327	2327	0	0	0	0	0	0	0	0	0	0	0	0	0	0	3309	3277	3277	3309	3309	3309	3277	3277	3277	3277	3277	3277	3277	3277	3277	3277	3277	3277	3277	3277	3277	3277	3277	3277	3309	3277	3277	3246	3246	3277	3277	3277	3277	3277	3246	3246	3246	3246	3246	0	0	0	0	0	0	0	0	0	0	0	0	0	0	0	0	0	0	0	0	2063	2063	2063	2076	2076	2063	2063	0	0	0	0	0	0	0	0	0	0	0	0	0	0	0	0	0	0	0	0	0	0	0	0	0	0	0	0	0	0	0	0	0	0	0	0	0
0	0	0	0	0	0	0	0	0	0	0	1287	1291	1291	1296	1301	1301	1301	1301	1301	1296	1296	0	0	0	0	0	0	0	0	0	0	0	0	0	0	0	0	0	0	0	0	0	0	0	0	0	0	0	0	0	0	0	0	0	0	0	0	0	0	0	0	0	0	0	0	0	0	0	0	0	0	0	0	0	0	0	0	0	0	0	0	0	0	0	0	0	0	1431	1431	1431	1431	1425	1431	1431	1425	1431	1425	1425	1425	1431	1431	1431	1437	1437	1437	1437	1443	1443	1449	1455	1461	1467	1473	1473	1480	1486	1486	1499	1499	1506	1506	1512	1519	1519	1519	1539	1546	1560	1567	1574	1581	1589	1589	1596	1596	1603	1603	1618	1626	1634	1649	1649	1657	1673	1690	1690	1706	1715	1715	1715	1715	0	0	0	0	0	0	0	0	0	0	2690	2711	2690	2690	2711	2711	2711	2711	2711	2711	2711	2711	2711	2711	2711	2711	2711	2733	2822	2822	2822	2845	2822	2822	2799	2799	2799	2799	2799	2799	2845	2845	2845	2869	2869	2869	2893	2917	2942	2942	2942	2967	2967	2993	3019	3046	3046	3019	3019	3046	3046	3046	0	0	0	0	0	0	0	0	0	0	0	0	0	0	6468	6468	6468	6468	6468	6468	6468	6468	6468	6468	6468	6468	6468	6468	6468	6468	6468	6468	6468	6468	6468	6468	6468	6468	6468	6468	6468	6468	6592	6468	6468	6468	6592	6592	6468	6468	6468	6592	6592	6592	6592	6592	6592	6592	6592	6592	6592	6592	6592	6592	6592	6592	6592	6592	6592	6592	6592	6592	6592	6592	6592	6592	6592	6592	3864	3864	3907	3864	3907	3907	3907	3907	3907	3907	3907	3907	3907	3907	3907	3907	3907	3907	3907	3907	3907	3864	3864	3907	3907	3907	3907	3907	3952	3952	3952	3952	3952	3952	3952	3952	3952	3952	3952	3952	3952	3952	3907	3952	3952	3907	3907	3907	3907	3907	3907	3907	3907	3907	3907	3907	3907	3952	3952	3952	3952	3952	3952	3952	3907	3907	3907	3907	8550	8550	8343	8343	8343	8343	8343	8550	8343	8146	8343	8146	7959	7959	7779	7608	7287	7287	6592	6592	6592	6592	6592	6468	6468	6468	6468	6468	6468	6349	6468	6468	6468	6592	6592	6592	6592	6592	6592	6592	6592	6592	6592	6592	6592	8343	8343	8343	8343	8343	8343	8343	8343	8343	8343	8146	8343	8146	8146	8146	8146	8146	8146	8146	8343	8343	8343	8343	8343	8343	8146	7959	7959	7779	5448	5448	5448	5448	5448	5535	5535	5448	5364	5448	5364	5364	5364	5364	5364	5364	5364	0	0	0	0	0	0	0	0	0	0	0	0	0	0	0	0	0	0	0	0	0	0	0	0	0	0	0	0	0	0	0	0	0	0	0	0	0	0	0	0	0	0	0	0	0	0	0	0	0	0	0	0	0	0	0	0	0	0	0	0	0	2327	2327	2327	2327	2312	2297	2312	2327	2327	2327	0	0	0	0	0	0	0	0	0	0	0	0	0	0	3341	3309	3277	3309	3341	3341	3309	3309	3277	3277	3277	3277	3277	3246	3246	3246	3277	3277	3246	3277	3277	3277	3277	3277	3246	3246	3277	3277	3246	3246	3277	3277	3246	3277	3277	3277	3246	3246	3246	3246	0	0	0	0	0	0	0	0	0	0	0	0	0	0	0	0	0	0	0	0	0	0	0	2076	2101	2088	2088	0	0	0	0	0	0	0	0	0	0	0	0	0	0	0	0	0	0	0	0	0	0	0	0	0	0	0	0	0	0	0	0	0	0	0	0	0
0	0	0	0	0	0	0	0	0	0	0	1282	1287	1291	1291	1301	1301	1306	1306	1301	1296	1291	1291	0	0	0	0	0	0	0	0	0	0	0	0	0	0	0	0	0	0	0	0	0	0	0	0	0	0	0	0	0	0	0	0	0	0	0	0	0	0	0	0	0	0	0	0	0	0	0	0	0	0	0	0	0	0	0	0	0	0	0	0	0	0	0	0	0	1431	1431	1425	1431	1425	1431	1431	1425	1431	1431	1431	1431	1431	1431	1431	1437	1437	1437	1443	1443	1449	1455	1461	1461	1467	1473	1480	1480	1486	1486	1492	1506	1506	1506	1512	1519	1519	1532	1539	1546	1560	1567	1567	1581	1589	1589	1589	1596	1596	1618	1618	1626	1634	1641	1641	1649	1673	1681	1690	1706	1715	1723	1723	1732	1732	0	0	0	0	0	0	0	0	2754	2711	2711	2711	2690	2733	2711	2711	2711	2711	2711	2711	2711	2711	2711	2711	2711	2711	2711	2777	2777	2845	2822	2822	2822	2799	2799	2799	2799	2799	2799	2822	2845	2845	2845	2869	2869	2893	2917	2942	2942	2942	2942	2967	2993	2993	3019	3046	3019	3019	3019	0	0	0	0	0	0	0	0	0	0	0	0	0	0	0	0	0	6349	6468	6468	6349	6349	6468	6468	6349	6468	6468	6468	6468	6468	6468	6468	6468	6468	6468	6468	6468	6468	6468	6592	6468	6468	6468	6468	6592	6468	6468	6468	6468	6592	6468	6468	6468	6592	6592	6592	6592	6592	6592	6592	6592	6592	6468	6592	6592	6592	6592	6592	6592	6592	6592	6592	6592	6592	6592	6592	6468	6468	6592	6592	3907	3907	3952	3952	3907	3907	3907	3907	3907	3952	3952	3907	3907	3907	3907	3907	3907	3907	3907	3907	3907	3907	3864	3907	3907	3907	3907	3907	3952	3952	3952	3952	3952	3952	3952	3952	3952	3952	3952	3952	3952	3952	3907	3907	3952	3907	3907	3907	3907	3907	3907	3907	3907	3907	3907	3907	3907	3907	3952	3952	3998	3998	3952	3952	3952	3952	3907	8550	8550	8550	8343	8343	8343	8343	8343	8343	8343	8343	8146	8146	7959	7959	7779	7608	7137	7137	6592	6592	6592	6592	6592	6468	6468	6468	6468	6468	6468	6349	6468	6468	6468	6592	6592	6592	6592	6592	6592	6592	6592	6592	6592	6720	6720	8343	8343	8343	8550	8550	8550	8343	8343	8343	8343	8146	8343	8343	8146	8343	8146	8146	8146	8146	8146	8343	8343	8343	8343	8343	8146	7959	7959	7959	7959	5448	5448	5448	5448	5535	5535	5448	5448	5448	5364	5364	5364	5364	5364	5364	5448	5448	0	0	0	0	0	0	0	0	0	0	0	0	0	0	0	0	0	0	0	0	0	0	0	0	0	0	0	0	0	0	0	0	0	0	0	0	0	0	0	0	0	0	0	0	0	0	0	0	0	0	0	0	0	0	0	0	0	0	0	2327	2327	2312	2327	2312	2312	2297	2297	2312	2327	2312	2312	2312	0	0	0	0	0	0	0	0	0	0	0	0	3341	3341	3309	3341	3341	3341	3341	3309	3277	3277	3246	3246	3277	3246	3246	3277	3277	3246	3246	3277	3277	3277	3277	3246	3246	3246	3246	3246	3246	3246	3277	3277	3277	3277	3277	3277	3246	3277	3277	3246	0	0	0	0	0	0	0	0	0	0	0	0	0	0	0	0	0	0	0	0	0	0	0	0	2101	2088	2088	0	0	0	0	0	0	0	0	0	0	0	0	0	0	0	0	0	0	0	0	0	0	0	0	0	0	0	0	0	0	0	0	0	0	0	0	0
0	0	0	0	0	0	0	0	0	0	0	1282	1287	1287	1291	1296	1301	1301	1301	1301	1301	1291	1291	0	0	0	0	0	0	0	0	0	0	0	0	0	0	0	0	0	0	0	0	0	0	0	0	0	0	0	0	0	0	0	0	0	0	0	0	0	0	0	0	0	0	0	0	0	0	0	0	0	0	0	0	0	0	0	0	0	0	0	0	0	0	0	0	0	0	1431	1425	1431	1431	1431	1431	1425	1431	1431	1431	1425	1431	1431	1431	1437	1437	1437	1443	1449	1449	1455	1461	1467	1473	1480	1480	1486	1492	1492	1492	1499	1499	1512	1512	1519	1525	1532	1539	1546	1560	1567	1567	1581	1589	1589	1596	1596	1603	1618	1618	1626	1634	1641	1641	1657	1673	1681	1690	1706	1723	1723	1723	1732	1732	0	0	0	0	0	0	0	0	2754	2711	2711	2690	2690	2711	2711	2711	2711	2711	2711	2711	2711	2711	2690	2690	2690	2733	2777	2799	2822	2845	2822	2822	2822	2799	2799	2822	2822	2799	2799	2845	2845	2845	2845	2845	2869	2869	2917	2942	2942	2942	2942	2967	2993	2993	2993	3046	3019	3019	3019	0	0	0	0	0	0	0	0	0	0	0	0	0	0	0	0	0	6349	6468	6468	6349	6468	6468	6468	6468	6468	6468	6468	6349	6468	6468	6468	6468	6468	6468	6468	6468	6468	6468	6468	6468	6468	6468	6468	6592	6468	6468	6468	6592	6592	6468	6468	6468	6592	6592	6592	6592	6592	6592	6592	6592	6468	6468	6592	6468	6592	6592	6592	6592	6592	6592	6592	6592	6592	6592	6592	6592	6592	6592	6468	6468	5364	3952	5448	5448	5448	3952	3952	3952	3952	3952	3907	3907	3907	3907	3907	3907	3907	3864	3907	3864	3864	3864	3907	3907	3907	3907	3952	3952	3952	3952	3952	3952	3952	3952	3952	3952	3952	3952	3952	3952	3907	3907	3907	3907	3907	3907	3907	3907	3907	3907	3907	3907	3907	3907	3907	3952	3952	3952	3952	3998	3998	3998	3998	3998	3998	0	8767	8550	8550	8343	8343	8343	8343	8343	8343	8343	8343	8146	7959	7959	7779	7608	7608	7608	6592	6468	6592	6592	6592	6592	6592	6592	6592	6468	6468	6468	6349	6468	6468	6468	6592	6592	6592	6592	6592	6592	6592	6592	6720	6720	6720	6720	7959	8343	8343	8550	8550	8343	8343	8343	8343	8343	8146	8343	8343	8146	8146	8146	8146	8146	7959	8146	8146	8146	8146	8146	8146	7959	7959	7959	7779	7779	5535	5535	5535	5535	5535	5535	5448	5448	5448	5364	5364	5364	5364	5364	5364	5448	5448	0	0	0	0	0	0	0	0	0	0	0	0	0	0	0	0	0	0	0	0	0	0	0	0	0	0	0	0	0	0	0	0	0	0	0	0	0	0	0	0	0	0	0	0	0	0	0	0	0	0	0	0	0	0	0	0	0	0	0	2327	2327	2312	2327	2312	2312	2297	2312	2312	2327	2327	2327	2327	0	0	0	0	0	0	0	0	0	0	0	0	3341	3341	3341	3341	3341	3341	3341	3309	3277	3277	3277	3246	3277	3246	3277	3277	3277	3246	3246	3246	3277	3277	3246	3246	3246	3246	3246	3246	3246	3246	3246	3277	3277	3277	3277	3277	3246	3277	3277	0	0	0	0	0	0	0	0	0	0	0	0	0	0	0	0	0	0	0	0	0	0	0	0	2127	2101	2088	2088	0	0	0	0	0	0	0	0	0	0	0	0	0	0	0	0	0	0	0	0	0	0	0	0	0	0	0	0	0	0	0	0	0	0	0	0	0
0	0	0	0	0	0	0	0	0	0	0	1282	1282	1287	1287	1296	1296	1301	1301	1301	1301	0	0	0	0	0	0	0	0	0	0	0	0	0	0	0	0	0	0	0	0	0	0	0	0	0	0	0	0	0	0	0	0	0	0	0	0	0	0	0	0	0	0	0	0	0	0	0	0	0	0	0	0	0	0	0	0	0	0	0	0	0	0	0	0	0	0	0	0	1425	1413	1431	1425	1431	1431	1431	1437	1431	1431	1431	1431	1431	1431	1431	1437	1443	1443	1449	1455	1461	1467	1467	1473	1480	1480	1486	1492	1499	1492	1499	1499	1512	1512	1525	1532	1539	1539	1546	1560	1560	1567	1581	1589	1589	1596	1603	1618	1618	1626	1626	1634	1641	1649	1657	1665	1673	1698	1706	1723	1723	1723	1741	1741	1741	0	0	0	0	0	0	0	2690	2711	2711	2690	2690	2690	2690	2690	2690	2690	2690	2711	2711	2711	2690	2690	2690	2690	2690	2777	2822	2822	2822	2822	2822	2822	2822	2822	2799	2799	2799	2845	2845	2845	2845	2845	2869	2917	2917	2942	2942	2942	2967	2967	2967	2967	2967	0	0	0	0	0	0	0	0	0	0	0	0	0	0	0	0	0	0	0	0	0	6349	6349	6468	6349	6468	6468	6468	6349	6468	6349	6349	6349	6468	6468	6468	6468	6468	6468	6468	6468	6468	6468	6468	6468	6468	6468	6468	6468	6468	6468	6468	6592	6468	6468	6468	6468	6592	6592	6592	6592	6592	6592	6592	6592	6468	6468	6468	6468	6592	6592	6592	6592	6592	6592	6592	6592	6592	6468	6468	6468	6468	6468	6468	5448	5364	5448	5364	5364	5364	3952	3907	3952	3907	3952	3952	3907	3907	3907	3907	3907	3907	3907	3907	3907	3864	3864	3907	3907	3907	3907	3952	3952	3952	3952	3952	3952	3952	3952	3952	3952	3952	3952	3952	3952	3952	3907	3907	3907	3907	3907	3907	3907	3907	3907	3952	3907	3907	3952	3952	3952	3952	3952	3952	3998	4045	4045	4045	4045	3998	8550	8767	8550	8550	8343	8343	8343	8343	8343	8343	8343	8146	8146	8146	7959	7779	7779	7779	7779	6592	6592	6592	6592	6592	6592	6592	6468	6468	6468	6468	6468	6349	6468	6592	6592	6592	6592	6592	6592	6592	6592	6592	6592	6720	6720	6720	6720	7959	8146	8343	8550	8343	8343	8343	8343	8343	8343	8146	8343	8343	8146	8146	8146	8146	8146	8146	8146	8146	8146	8146	8146	8146	8146	7959	7959	7779	7779	5535	5535	5448	5448	5448	5535	5448	5448	5364	5364	5364	5364	5364	5364	5448	5448	5448	5448	0	0	0	0	0	0	0	0	0	0	0	0	0	0	0	0	0	0	0	0	0	0	0	0	0	0	0	0	0	0	0	0	0	0	0	0	0	0	0	0	0	0	0	0	0	0	0	0	0	0	0	0	0	0	0	0	0	0	0	2312	2312	2312	2312	2312	2312	2312	2312	2327	2327	2327	2327	0	0	0	0	0	0	0	0	0	0	0	0	3341	3341	3309	3309	3341	3341	3341	3309	3277	3277	3277	3246	3277	3246	3277	3277	3277	3246	3246	3277	3277	3277	3246	3246	3246	3246	3277	3277	3246	3246	3277	3277	3277	3277	3277	0	0	0	0	0	0	0	0	0	0	0	0	0	0	0	0	0	0	0	0	0	0	0	0	0	0	0	0	2127	2114	2114	2101	2101	0	0	0	0	0	0	0	0	0	0	0	0	0	0	0	0	0	0	0	0	0	0	0	0	0	0	0	0	0	0	0	0	0	0	0	0
0	0	0	0	0	0	0	0	0	0	0	1282	1282	1287	1287	1296	1296	1301	1301	1301	1301	0	0	0	0	0	0	0	0	0	0	0	0	0	0	0	0	0	0	0	0	0	0	0	0	0	0	0	0	0	0	0	0	0	0	0	0	0	0	0	0	0	0	0	0	0	0	0	0	0	0	0	0	0	0	0	0	0	0	0	0	0	0	0	0	0	0	0	0	1413	1407	1425	1425	1431	1425	1425	1425	1431	1425	1425	1425	1425	1431	1431	1437	1443	1443	1455	1461	1461	1467	1467	1473	1486	1486	1492	1499	1499	1499	1499	1506	1506	1512	1532	1532	1539	1539	1553	1560	1567	1567	1581	1589	1596	1596	1603	1618	1618	1626	1626	1634	1641	1649	1657	1673	1681	1698	1706	1723	1723	1732	1732	1741	1741	1741	0	0	0	0	0	0	2711	2711	2711	2690	2690	2690	2711	2690	2690	2690	2690	2690	2690	2690	2690	2690	2690	2669	2669	2822	2822	2845	2822	2822	2822	2822	2822	2799	2799	2799	2799	2845	2845	2845	2845	2845	2869	2869	2893	2942	2942	2967	2967	2967	2993	2993	2993	0	0	0	0	0	0	0	0	0	0	0	0	0	0	0	0	0	0	0	0	0	0	6349	6592	6468	6468	6468	6468	6349	6468	6349	6468	6468	6468	6468	6468	6468	6468	6468	6468	6468	6468	6468	6468	6468	6468	6468	6468	6468	6468	6468	6468	6468	6468	6468	6468	6468	6468	6592	6592	6592	6592	6592	6592	6592	6468	6468	6468	6468	6592	6592	6592	6592	6592	6592	6592	6592	6468	6468	6592	6468	6468	6468	6468	5535	5448	5364	5364	5364	5448	5448	3952	3952	3952	3952	3952	3907	3907	3907	3907	3907	3907	3907	3907	3907	3864	3864	3907	3907	3907	3952	3952	3952	3952	3952	3952	3952	3952	3952	3952	3952	3952	3952	3952	3952	3952	3907	3907	3907	3907	3907	3907	3907	3952	3952	3952	3952	3952	3952	3952	3952	3952	3952	3998	3998	4045	4093	4093	4045	8550	8550	8550	8550	8343	8343	8343	8343	8343	8343	8343	8343	8146	8146	8146	7959	7779	7779	7779	7779	6592	6592	6468	6468	6468	6592	6468	6468	6468	6468	6468	6468	6349	6349	6592	6592	6592	6592	6592	6592	6592	6592	6592	6592	6720	6720	6720	6720	7959	7959	8146	8343	8343	8343	8343	8343	8343	8343	8146	8146	8146	8146	8146	8146	8146	8146	7959	8146	8146	8146	8146	8146	8146	8146	7959	7959	7959	7959	0	5448	5448	5448	5448	5535	5448	5448	5448	5364	5364	5364	5364	5448	5448	5448	5448	5364	5364	0	0	0	0	0	0	0	0	0	0	0	0	0	0	0	0	0	0	0	0	0	0	0	0	0	0	0	0	0	0	0	0	0	0	0	0	0	0	0	0	0	0	0	0	0	0	0	0	0	0	0	0	0	0	0	0	0	0	2297	2312	2312	2312	2312	2312	2312	2312	2312	2312	2266	2266	2266	2266	2266	2252	2252	0	0	0	0	0	0	0	3309	3309	3309	3309	0	0	0	0	0	3277	3277	3309	3277	3277	3277	3277	3277	3246	3246	3246	3246	3277	3246	3246	3246	3246	3277	3277	3246	3277	3277	3309	3309	3309	0	0	0	0	0	0	0	0	0	0	0	2127	2114	2114	0	0	0	0	0	0	0	0	0	2127	2127	0	2127	2127	2127	2127	2127	2127	2114	2114	0	0	0	0	0	0	0	0	0	0	0	0	0	0	0	0	0	0	0	0	0	0	0	0	0	0	0	0	0	0	0	0	0	0	0	0
0	0	0	0	0	0	0	0	0	0	0	1282	1282	1287	1287	1296	1296	1301	1301	1301	1301	0	0	0	0	0	0	0	0	0	0	0	0	0	0	0	0	0	0	0	0	0	0	0	0	0	0	0	0	0	0	0	0	0	0	0	0	0	0	0	0	0	0	0	0	0	0	0	0	0	0	0	0	0	0	0	0	0	0	0	0	0	0	0	0	0	0	0	0	1413	1402	1402	1425	1431	1425	1431	1431	1431	1431	1425	1431	1431	1431	1431	1437	1443	1443	1467	1467	1461	1473	1473	1480	1486	1486	1499	1499	1499	1492	1499	1499	1506	1512	1512	1539	1539	1539	1546	1560	1567	1574	1589	1589	1596	1603	1611	1618	1618	1626	1634	1641	1641	1649	1665	1673	1681	1690	1706	1715	1723	1732	1741	1741	1750	1750	1759	0	0	0	0	0	2733	2733	2711	2690	2690	2711	2711	2690	2711	2690	2690	2690	2690	2690	2690	2690	2690	2690	2690	2690	2822	2822	2822	2799	2799	2822	2799	2822	2799	2799	2822	2845	2845	2845	2845	2845	2845	2869	2893	2917	2942	2967	2967	2993	3019	2993	2993	0	0	0	0	0	0	0	0	0	0	0	0	0	0	0	0	0	0	0	0	0	0	0	6592	6468	6468	6468	6468	6468	6468	6349	6468	6468	6468	6468	6349	6349	6468	6349	6349	6349	6468	6468	6468	6468	6468	6468	6468	6468	6468	6468	6468	6468	6468	6468	6468	6468	6468	6592	6592	6592	6592	6592	6592	6592	6468	6468	6468	6349	6468	6468	6468	6592	6592	6592	6592	6592	6468	6468	6592	6468	6468	6235	6235	5626	5535	5364	5364	5364	5364	5364	3952	3952	3952	3952	3952	3907	3907	3907	3907	3907	3907	3907	3907	3907	3864	3864	3952	3952	3952	3952	3952	3952	3952	3952	3952	3952	3952	3952	3952	3952	3952	3952	3952	3952	3952	3907	3907	3907	3907	3907	3907	3907	3907	3907	3952	3907	3952	3952	3952	3952	3952	3952	3998	4045	4045	4142	4142	0	8550	8550	8550	8550	8343	8343	8343	8343	8343	8343	8343	8343	8343	8343	8343	7959	7959	7779	7779	7779	6592	6592	6592	6592	6592	6592	6592	6468	6468	6468	6468	6468	6349	6349	6592	6592	6592	6592	6592	6592	6592	6592	6592	6592	6720	6720	6720	7137	7779	7959	7959	8146	8146	8343	8146	8343	8343	8343	8146	8146	8146	8146	8146	8146	8146	8146	8146	8146	8146	8146	8146	8146	8146	8146	8146	7959	7959	8146	8146	5448	5448	5448	5448	5448	5448	5448	5448	5448	5364	5364	5364	5364	5364	5448	5364	5364	5282	5282	0	0	0	0	0	0	0	0	0	0	0	0	0	0	0	0	0	0	0	0	0	0	0	0	0	0	0	0	0	0	0	0	0	0	0	0	0	0	0	0	0	0	0	0	0	0	0	0	0	0	0	0	0	0	0	0	0	2312	2297	2312	2312	2312	2312	2312	2312	2312	2281	2266	2266	2266	2266	2266	2252	2252	0	0	0	0	0	0	0	3309	3309	3309	0	0	0	0	0	0	0	0	3309	3277	3277	3277	3309	3277	3246	3246	3246	3277	3277	3277	3277	3277	3277	3277	3277	3246	3246	3246	3246	3246	3309	0	0	0	0	0	0	0	0	0	0	2127	2127	2127	2127	0	0	0	0	0	0	0	2114	2127	2127	2127	0	2140	2127	2140	2140	2127	2127	2127	2127	0	0	0	0	0	0	0	0	0	0	0	0	0	0	0	0	0	0	0	0	0	0	0	0	0	0	0	0	0	0	0	0	0	0	0	0
0	0	0	0	0	0	0	0	0	0	0	1282	1282	1282	1287	1287	1296	1301	1301	1306	0	0	0	0	0	0	0	0	0	0	0	0	0	0	0	0	0	0	0	0	0	0	0	0	0	0	0	0	0	0	0	0	0	0	0	0	0	0	0	0	0	0	0	0	0	0	0	0	0	0	0	0	0	0	0	0	0	0	0	0	0	0	0	0	0	0	0	0	0	0	1402	1402	0	0	0	1431	1425	1425	1425	1425	1425	1425	1431	1431	1437	1443	1449	1461	1467	1461	1473	1473	1480	1486	1486	1499	1492	1492	1492	1492	1492	1499	1512	1512	1532	1539	1539	1546	1560	1567	1574	1589	1596	1611	1618	1618	1626	1626	1626	1634	1641	1649	1649	1657	1665	1673	1698	1698	1723	1723	1741	1741	1750	1759	1768	1777	1795	1795	0	0	0	2754	2733	2733	2711	2690	2711	2711	2690	2690	2690	2690	2690	2690	2690	2690	2690	2690	2690	2711	2754	2777	2799	2799	2799	2799	2799	2799	2799	2799	2799	2822	2822	2822	2822	2822	2845	2845	2869	2893	2917	2942	2967	2967	2993	3019	3019	3019	0	0	0	0	0	0	0	0	0	0	0	0	0	0	0	0	0	0	0	0	0	0	0	0	0	6468	6468	6468	6468	6349	6349	6468	6468	6468	6468	6468	6349	6468	6349	6349	6349	6349	6349	6468	6468	6468	6468	6468	6468	6468	6468	6468	6468	6468	6468	6468	6468	6468	6592	6592	6592	6592	6592	6592	6592	6468	6468	6468	6468	6468	6468	6468	6592	6592	6720	6592	6592	6592	6468	6468	6468	6349	6349	5626	5626	5535	5364	5364	5364	5364	5364	4045	3998	3998	3952	3952	3907	3907	3907	3907	3907	3907	3907	3907	3907	3907	3864	3952	3952	3952	3952	3952	3952	3952	3952	3952	3952	3907	3952	3952	3952	3952	3952	3952	3952	3952	3907	3952	3907	3907	3907	3952	3952	3952	3952	3952	3952	3952	3952	3952	3952	3952	3952	4045	4045	4093	4142	4142	0	8343	8343	8343	8343	8343	8343	8343	8343	8343	8343	8343	8343	8343	8343	8343	7959	7959	7959	7959	7779	6592	6592	6468	6468	6592	6592	6592	6592	6592	6468	6468	6468	6468	6592	6592	6592	6592	6592	6592	6592	6592	6592	6592	6592	6592	6592	6720	6720	7779	7959	7959	8146	8146	8146	8146	8146	8146	8343	8146	8146	8146	8146	8343	8146	8146	8146	8146	8146	8146	8146	8146	8343	8146	8146	8146	8146	8146	8146	8146	0	0	0	0	5448	5448	5364	5364	5364	5364	5364	5364	5364	5364	5448	5364	5364	5282	5282	0	0	0	0	0	0	0	0	0	0	0	0	0	0	0	0	0	0	0	0	0	0	0	0	0	0	0	0	0	0	0	0	0	0	0	0	0	0	0	0	0	0	0	0	0	0	0	0	0	0	0	0	0	0	0	0	0	2297	2297	2312	2297	2297	2297	2297	2297	2297	2281	2266	2266	2266	2252	2266	2266	2252	0	0	0	0	0	0	0	0	0	0	0	0	0	0	0	0	0	0	0	0	0	3277	3309	3277	3246	3246	3246	3277	3246	3246	3277	3277	3277	3277	3277	3246	3246	3277	3246	3246	0	0	0	0	0	0	0	0	0	0	0	2140	2140	2140	2167	2167	2167	0	0	0	0	2101	2114	2127	2127	2127	2127	2140	2140	2153	2140	2127	2127	2127	2127	0	0	0	0	0	0	0	0	0	0	0	0	0	0	0	0	0	0	0	0	0	0	0	0	0	0	0	0	0	0	0	0	0	0	0	0
0	0	0	0	0	0	0	0	0	0	0	1282	1282	1282	1287	1296	1296	1301	1306	1306	0	0	0	0	0	0	0	0	0	0	0	0	0	0	0	0	0	0	0	0	0	0	0	0	0	0	0	0	0	0	0	0	0	0	0	0	0	0	0	0	0	0	0	0	0	0	0	0	0	0	0	0	0	0	0	0	0	0	0	0	0	0	0	0	0	0	0	0	0	0	0	0	0	0	0	1402	1413	1413	1419	1419	1419	1425	1431	1431	1455	1455	1461	1467	1467	1467	1473	1473	1473	1473	1486	1499	1492	1492	1492	1492	1492	1499	1525	1525	1532	1539	1539	1539	1546	1574	1589	1596	1596	1611	1611	1618	1626	1626	1626	1641	1641	1649	1657	1657	1665	1673	1681	1681	1723	1732	1741	1750	1750	1759	1759	1795	1804	1804	0	2777	2777	2754	2754	2733	2711	2690	2711	2690	2690	2690	2690	2690	2711	2690	2690	2690	2690	2690	2711	2690	2690	2845	2845	2799	2799	2799	2799	2799	2822	2799	2822	2822	2822	2822	2845	2845	2845	2869	2893	2917	2942	2967	2967	2967	2993	3019	3019	3019	0	0	0	0	0	0	0	0	0	0	0	0	0	0	0	0	0	0	0	0	0	0	0	0	0	0	6468	6349	6349	6468	6468	6468	6468	6468	6468	6468	6349	6349	6349	6349	6349	6349	6349	6468	6468	6468	6468	6468	6468	6468	6468	6468	6468	6468	6468	6468	6592	6468	6468	6468	6468	6468	6592	6592	6468	6468	6468	6468	6468	6468	6468	6468	6592	6592	6592	6592	6592	6468	6468	6468	6468	6468	6468	5535	5535	5448	5448	5364	5364	5364	5364	4045	4045	4045	3998	3998	3952	3952	3907	3907	3907	3907	3907	3907	3907	3907	3907	3952	3952	3952	3952	3952	3952	3952	3952	3952	3952	3952	3952	3952	3952	3952	3952	3952	3952	3952	3952	3907	3907	3907	3952	3952	3952	3952	3952	3952	3952	3952	3952	3952	3952	3952	3952	3998	4093	4093	4142	4142	0	8343	8343	8343	8343	8343	8343	8343	8343	8343	8343	8343	8343	8343	8343	8343	7959	7779	7779	7779	0	6592	6592	6468	6592	6592	6592	6592	6592	6592	6468	6468	6592	6468	6468	6468	6468	6592	6592	6592	6592	6592	6592	6592	6592	6592	6592	6720	6720	7608	7779	7959	8146	8146	8146	8146	8146	8146	8146	8343	8343	8550	8550	8146	8146	8146	8146	8146	8146	8146	8146	8146	8343	8343	8343	8343	8343	8343	8343	8343	0	0	0	0	5448	5448	5448	5364	5364	5364	5364	5364	5364	5364	5364	5364	5282	5282	5282	5202	5202	0	0	0	0	0	0	0	0	0	0	0	0	0	0	0	0	0	0	0	0	0	0	0	0	0	0	0	0	0	0	0	0	0	0	0	0	0	0	0	0	0	0	0	0	0	0	0	0	0	0	0	0	0	0	0	2297	2297	2312	2297	2297	2312	2297	2312	2297	2281	2281	2281	2281	2252	2266	2266	0	0	0	0	0	0	0	0	0	0	0	0	0	0	0	0	0	0	0	0	0	0	0	0	0	3246	3246	3246	3277	3277	3277	3277	3277	3277	3277	3246	3246	3246	3246	3246	3246	0	0	0	0	0	0	0	2127	2127	2127	2127	2140	2140	2153	2167	2167	2140	2167	2127	2127	2114	2114	2114	2127	2127	2127	2127	2127	2127	2140	2140	2127	2127	2127	2127	0	0	0	0	0	0	0	0	0	0	0	0	0	0	0	0	0	0	0	0	0	0	0	0	0	0	0	0	0	0	0	0	0	0	0	0
0	0	0	0	0	0	0	0	0	0	0	1282	1282	1287	1291	1296	1296	1296	1301	1301	0	0	0	0	0	0	0	0	0	0	0	0	0	0	0	0	0	0	0	0	0	0	0	0	0	0	0	0	0	0	0	0	0	0	0	0	0	0	0	0	0	0	0	0	0	0	0	0	0	0	0	0	0	0	0	0	0	0	0	0	0	0	0	0	0	0	0	0	0	0	0	0	0	0	1396	1402	1407	1407	1413	1413	1419	1419	1419	1431	1455	1455	1461	1467	1467	1461	1473	1473	1473	1473	0	0	1492	1492	1492	1492	1492	1499	1525	1525	1539	1539	1539	1546	1567	1581	1596	1596	1603	1611	1611	1618	1626	1626	1634	1641	1649	1649	1657	1665	1665	1673	1681	1715	1723	1732	1741	1750	1741	1759	1759	1795	1804	1804	1804	2777	2777	2754	2733	2690	2690	2690	2690	2690	2690	2690	2690	2690	2690	2690	2690	2690	2690	2690	2711	2711	2754	2777	2799	2799	2799	2799	2799	2799	2799	2799	2822	2799	2822	2822	2822	2845	2845	2845	2869	2893	2917	2917	2967	2967	2993	2993	3019	3019	0	0	0	0	0	0	0	0	0	0	0	0	0	0	0	0	0	0	0	0	0	0	0	0	0	0	0	6349	6468	6468	6468	6468	6468	6468	6468	6468	6349	6468	6349	6349	6349	6349	6349	6468	6468	6468	6468	6468	6468	6468	6468	6468	6468	6468	6468	6592	6592	6468	6468	6468	6468	6468	6468	6468	6468	6468	6468	6468	6468	6468	6468	6468	6592	6592	6592	6592	6592	6468	6468	6468	6349	6468	6468	5535	5535	5535	5364	5364	5364	5364	5282	4045	4045	4045	3998	3998	3998	3952	3952	3952	3952	3907	3907	3907	3907	3907	3864	3864	3952	3952	3952	3952	3952	3952	3952	3952	3952	3952	3952	3952	3952	3952	3998	3998	3952	3952	3952	3952	3952	3952	3952	3952	3952	3952	3952	3952	3952	3952	3952	3952	3952	3952	3952	3998	4045	4093	4093	4142	8146	8146	8343	8146	8343	8343	8343	8343	8343	8343	8343	8343	8343	8343	8343	8343	7959	8146	8146	8146	6592	6592	6592	6592	6592	6592	6592	6592	6592	6592	6468	6468	6592	6468	6592	6592	6468	6592	6592	6592	6592	6592	6592	6592	6592	6592	6592	6720	6720	7608	7959	7959	8146	8146	8146	8146	8146	8146	8146	8146	8343	8343	8343	8343	8146	8146	8146	8146	8146	8343	8343	8343	8343	8343	8343	8343	8343	8343	8343	8343	0	0	0	0	5448	5448	5364	5364	5364	5364	5364	5364	5364	5364	5364	5364	5202	5202	5202	5125	5202	5202	0	0	0	0	0	0	0	0	0	0	0	0	0	0	0	0	0	0	0	0	0	0	0	0	0	0	0	0	0	0	0	0	0	0	0	0	0	0	0	0	0	0	0	0	0	0	0	0	0	0	0	0	0	0	2297	2297	2312	2297	2312	2312	2312	2312	2281	2281	2281	2281	2281	0	0	0	0	0	0	0	0	0	0	0	0	0	0	0	0	0	0	0	0	0	0	0	0	0	0	0	0	0	0	3246	3277	3309	3309	3309	3277	3277	3277	2223	2223	2223	2223	2223	2223	2223	2223	0	0	0	0	0	2140	2140	2140	2140	2153	2153	2153	2153	2153	2140	2140	2127	2127	2127	2114	2114	2127	2127	2127	2127	2127	2127	2127	2127	2127	2127	2114	2114	0	0	0	0	0	0	0	0	0	0	0	0	0	0	0	0	0	0	0	0	0	0	0	0	0	0	0	0	0	0	0	0	0	0	0	0
0	0	0	0	0	0	0	0	0	0	0	1282	1287	1287	1291	1296	1296	1301	1306	1311	1311	1311	0	0	0	0	0	0	0	0	0	0	0	0	0	0	0	0	0	0	0	0	0	0	0	0	0	0	0	0	0	0	0	0	0	0	0	0	0	0	0	0	0	0	0	0	0	0	0	0	0	0	0	0	0	0	0	0	0	0	0	0	0	0	0	0	0	0	0	0	0	0	0	0	1396	1396	1407	1407	1413	1413	1413	1413	1413	0	1455	1455	1461	1467	1473	1467	1467	1473	1473	0	0	0	0	0	0	0	0	0	0	0	1539	1539	1546	1546	1567	1589	1596	1603	1603	1611	1618	1618	1626	1634	1641	1649	1649	1657	1657	1665	1665	1673	1706	1715	1723	1741	1750	1750	1750	1759	1750	1777	1795	1795	1795	0	2777	2754	2754	2733	2733	2690	2690	2690	2690	2690	2690	2690	2690	2690	2690	2690	2690	2690	2711	2711	2754	2777	2777	2777	2777	2777	2799	2799	2799	2799	2822	2799	2822	2822	2822	2845	2845	2845	2869	2869	2917	2942	2967	2993	2993	2993	3019	0	0	0	0	0	0	0	0	0	0	0	0	0	0	0	0	0	0	0	0	0	0	0	0	0	0	0	0	0	6468	6468	6468	6468	6468	6468	6468	6468	6349	6468	6349	6349	6349	6349	6468	6468	6468	6468	6468	6468	6468	6468	6468	6468	6592	6468	6468	6592	6468	6468	6468	6468	6468	6468	6468	6468	6468	6468	6468	6468	6468	6468	6592	6592	6592	6592	6592	6592	6592	6468	6468	6468	6349	6468	6468	5535	5535	5448	5364	5364	5364	5364	5364	5282	4045	4045	4045	3998	3998	3952	3952	3952	3952	3952	3907	3907	3864	3864	3907	3952	3952	3952	3952	3952	3952	3952	3952	3952	3952	3952	3952	3952	3998	3998	3998	3998	3998	3952	3952	3952	3952	3952	3952	3952	3952	3952	3952	3952	3952	3952	3952	3952	3952	3952	3952	3952	3998	4045	4045	0	8146	8146	8146	8146	8146	8343	8343	8343	8343	8343	8343	8343	8343	8343	8550	8343	8343	8146	8146	8146	6592	6720	6720	6592	6592	6592	6592	6592	6592	6468	6468	6468	6592	6592	6592	6592	6592	6592	6592	6592	6592	6592	6592	6592	6592	6592	6592	6720	6853	7608	7779	7959	7959	8146	7959	8146	8146	8146	8146	8146	8146	8146	8343	8343	8343	8343	8343	8343	8343	8343	8343	8343	8343	8343	8343	8343	8343	8343	8343	0	0	0	0	0	5448	5448	5448	5364	5364	5364	5364	5364	5364	5282	5364	5202	5202	5202	5202	5125	5125	5125	0	0	0	0	0	0	0	0	0	0	0	0	0	0	0	0	0	0	0	0	0	0	0	0	0	0	0	0	0	0	0	0	0	0	0	0	0	0	0	0	0	0	0	0	0	0	0	0	0	0	0	0	0	2312	2297	2297	2312	2297	2297	2297	2297	2297	2281	2281	0	0	0	0	0	0	0	0	0	0	0	0	0	0	0	0	0	0	0	0	0	0	0	0	0	0	0	0	0	0	0	0	0	0	3277	3309	3309	3309	2223	2223	2223	2223	2237	2208	2194	2208	2181	2208	2194	2181	2181	2181	2167	2153	2153	2153	2153	2140	2153	2153	2153	2153	2153	2140	2140	2127	2127	2127	2127	2127	2127	2127	2127	2127	2127	2127	2127	2127	2127	2114	2114	2114	0	0	0	0	0	0	0	0	0	0	0	0	0	0	0	0	0	0	0	0	0	0	0	0	0	0	0	0	0	0	0	0	0	0	0	0
0	0	0	0	0	0	0	0	0	0	0	1282	1287	1287	1291	1296	1296	1301	1306	1311	1316	1316	0	0	0	0	0	0	0	0	0	0	0	0	0	0	0	0	0	0	0	0	0	0	0	0	0	0	0	0	0	0	0	0	0	0	0	0	0	0	0	0	0	0	0	0	0	0	0	0	0	0	0	0	0	0	0	0	0	0	0	0	0	0	0	0	0	0	0	0	0	0	0	1396	1396	1396	1407	1407	1413	1413	1413	1413	1413	0	0	0	0	1467	1473	1467	1467	0	0	0	0	0	0	0	0	0	0	0	0	0	1539	1539	1546	1567	1567	1603	1603	1611	1611	1618	1626	1634	1634	1641	1649	1649	1657	1657	1657	1681	1681	1690	1715	1723	1741	1750	1750	1750	1750	1759	1759	1759	1814	1814	1795	2777	2777	2754	2754	2733	2733	2733	2690	2690	2690	2690	2690	2690	2690	2690	2690	2690	2690	2690	2711	2711	2754	2777	2777	2777	2777	2777	2777	2777	2799	2777	2799	2799	2822	2822	2822	2845	2869	2869	2869	2869	2893	2917	2942	2967	2967	2993	0	0	0	0	0	0	0	0	0	0	0	0	0	0	0	0	0	0	0	0	0	0	0	0	0	0	0	0	0	0	0	6468	6468	6468	6468	6468	6468	6468	6349	6349	6349	6349	6349	6468	6468	6468	6468	6468	6468	6468	6468	6468	6468	6468	6468	6468	6468	6468	6468	6468	6468	6468	6468	6468	6468	6468	6468	6468	6468	6468	6468	6468	6592	6468	6592	6592	6592	6468	6468	6468	6349	6468	6349	6349	5626	5626	5535	5448	5448	5364	5364	5282	5364	5364	4093	4093	4045	3998	3998	3952	3952	3907	3907	3907	3907	3907	3864	3907	3907	3952	3952	3952	3952	3952	3952	3952	3952	3952	3952	3952	3952	3998	3998	3998	3998	3998	3952	3952	3952	3952	3952	3952	3952	3952	3952	3952	3952	3952	3952	3952	3952	3952	3952	3952	3952	3952	3998	3998	4045	8146	8146	8146	8146	8146	8146	8343	8343	8343	8343	8343	8343	8343	8343	8343	8550	8343	8343	8146	8146	8146	6720	6720	6720	6592	6592	6592	6592	6592	6592	6592	6592	6592	6592	6592	6592	6592	6592	6592	6592	6592	6592	6592	6592	6592	6592	6592	6592	6592	6853	7608	7779	7959	7959	8146	8146	8146	8146	8146	8146	8146	8146	8343	8343	8343	8343	8343	8343	8343	8343	8343	8343	8343	8343	8343	8343	8343	8146	8146	8146	0	0	0	0	0	5535	5535	5448	5448	5364	5364	5364	5364	5364	5282	5364	5282	5202	5202	5202	5125	5125	5125	0	0	0	0	0	0	0	0	0	0	0	0	0	0	0	0	0	0	0	0	0	0	0	0	0	0	0	0	0	0	0	0	0	0	0	0	0	0	0	0	0	0	0	0	0	0	0	0	0	0	0	0	2327	2312	2312	2312	2312	2312	2297	2297	2297	2281	2281	2281	0	0	0	0	0	0	0	0	0	0	0	0	0	0	0	0	0	0	0	0	0	0	0	0	0	0	0	0	0	0	0	0	0	0	0	3309	2223	2223	2223	2223	2223	2223	2194	2181	2181	2194	2181	2194	2181	2181	2181	2167	2167	2153	2153	2153	2153	2153	2153	2153	2153	2153	2153	2140	2140	2127	2127	2127	2127	2127	2127	2127	2127	2127	2114	2114	2127	2127	2127	2114	2114	2114	0	0	0	0	0	0	0	0	0	0	0	0	0	0	0	0	0	0	0	0	0	0	0	0	0	0	0	0	0	0	0	0	0	0	0	0
0	0	0	0	0	0	0	0	0	0	0	1282	1287	1287	1291	1296	1296	1296	1301	1306	1306	1316	0	0	0	0	0	0	0	0	0	0	0	0	0	0	0	0	0	0	0	0	0	0	0	0	0	0	0	0	0	0	0	0	0	0	0	0	0	0	0	0	0	0	0	0	0	0	0	0	0	0	0	0	0	0	0	0	0	0	0	0	0	0	0	0	0	0	0	0	0	0	0	1396	1396	1396	1402	1407	1413	1413	1413	1413	1413	0	0	0	0	0	0	0	0	0	0	0	0	0	0	0	0	0	0	0	0	0	0	1539	1546	1611	1611	1618	1618	1618	1618	1618	1634	1641	1641	1641	1649	1657	1657	1657	1657	1681	1690	1698	1723	1723	1741	1750	1750	1759	1759	1768	1768	1795	1814	1814	1814	2777	2777	2754	2754	2733	2733	2733	2690	2690	2690	2690	2690	2690	2690	2690	2690	2690	2690	2690	2711	2733	2754	2777	2777	2777	2777	2777	2777	2777	2777	2777	2799	2799	2822	2822	2845	2869	2869	2869	2869	2893	2917	2917	2917	2967	2967	0	0	0	0	0	0	0	0	0	0	0	0	0	0	0	0	0	0	0	0	0	0	0	0	0	0	0	0	0	0	0	0	0	0	6468	6468	6468	6468	6468	6468	6468	6349	6349	6468	6468	6468	6468	6468	6468	6468	6468	6468	6468	6468	6468	6468	6468	6349	6349	6349	6235	6468	6349	6349	6349	6468	6468	6468	6349	6349	6349	6349	6468	6468	6468	6468	6592	6468	6592	6592	6468	6468	6468	6468	6468	5719	5626	5535	5448	5448	5364	5364	5282	5282	5282	4093	4093	4045	3998	3998	3952	3952	3952	3907	3907	3907	3907	3907	3907	3907	3952	3952	3952	3952	3952	3952	3952	3952	3952	3952	3952	3952	3998	3998	3998	3998	3998	3952	3952	3952	3952	3952	3952	3952	3952	3952	3952	3952	3952	3952	3952	3952	3952	3952	3952	3952	3952	3952	3952	0	8146	7959	8146	8146	8343	8343	8343	8343	8343	8343	8550	8550	8550	8343	8343	8550	8550	8343	8146	8146	8146	6720	6720	6720	6720	6592	6592	6592	6592	6592	6592	6592	6592	6592	6592	6592	6592	6592	6592	6592	6592	6592	6592	6592	6592	6592	6592	6592	6592	6720	7779	7959	7959	7959	8146	8146	8146	8146	8146	8146	8146	8146	8343	8343	8343	8343	8343	8343	8343	8343	8343	8343	8343	8343	8343	8343	8146	8146	8146	8146	0	0	0	0	5815	5535	5535	5448	5448	5448	5364	5364	5364	5364	5364	5364	5282	5202	5282	5202	5125	5125	5125	0	0	0	0	0	0	0	0	0	0	0	0	0	0	0	0	0	0	0	0	0	0	0	0	0	0	0	0	0	0	0	0	0	0	0	0	0	0	0	0	0	0	0	0	0	0	0	0	0	0	0	2343	2327	2327	2327	2312	2312	2312	2312	2312	2297	2297	2281	0	0	0	0	0	0	0	0	0	0	0	0	0	0	0	0	0	0	0	0	0	0	0	0	0	0	0	0	0	0	0	0	0	0	0	0	0	2223	2223	2223	2223	2223	2181	2181	2181	2181	2181	2181	2194	2181	2181	2167	2167	2167	2167	2167	2153	2153	2153	2153	2153	2153	2153	2153	2140	2140	2127	2127	2127	2127	2127	2127	2127	2127	2127	2114	2114	2127	2114	2114	2114	2114	2114	0	0	0	0	0	0	0	0	0	0	0	0	0	0	0	0	0	0	0	0	0	0	0	0	0	0	0	0	0	0	0	0	0	0	0	0
0	0	0	0	0	0	0	0	0	0	0	1282	1287	1287	1287	1291	1291	1296	1296	1301	1301	0	0	0	0	0	0	0	0	0	0	0	0	0	0	0	0	0	0	0	0	0	0	0	0	0	0	0	0	0	0	0	0	0	0	0	0	0	0	0	0	0	0	0	0	0	0	0	0	0	0	0	0	0	0	0	0	0	0	0	0	0	0	0	0	0	0	0	0	0	0	1396	1396	1396	1396	1396	1402	1407	1413	1413	1413	1413	1413	0	0	0	0	0	0	0	0	0	0	0	0	0	0	0	0	0	0	0	0	0	0	1618	1603	1611	1611	1618	1618	1618	1618	1618	1641	1641	1649	1649	1649	1657	1657	1657	1657	1665	1673	1681	1723	1732	1741	1750	1759	1759	1759	1777	1777	1814	1824	1824	1824	1824	2777	2754	2754	2733	2733	2733	2690	2690	2690	2690	2690	2690	2690	2690	2690	2690	2690	2690	2711	2690	2690	2754	2754	2777	2777	2777	2777	2777	2777	2777	2799	2799	2799	2822	2845	2869	2869	2869	2869	2893	2893	2917	2917	0	0	0	0	0	0	0	0	0	0	0	0	0	0	0	0	0	0	0	0	0	0	0	0	0	0	0	0	0	0	0	0	0	0	0	0	0	6468	6468	6468	6468	6468	6468	6468	6468	6468	6468	6468	6468	6468	6468	6468	6349	6349	6468	6468	6349	6349	6349	6235	6349	6235	6018	6349	6349	6349	6124	6349	6349	6349	6349	6349	6349	6349	6468	6349	6349	6468	6468	6468	6468	6592	6468	6468	6468	6468	6468	5626	5535	5535	5448	5448	5364	5364	5282	5282	5448	4045	4045	4045	3998	3998	3952	3907	3907	3907	3952	3952	3907	3907	3907	3907	3952	3952	3952	3952	3952	3952	3952	3952	3952	3952	3952	3998	3998	3998	3998	3998	3998	3952	3952	3952	3952	3952	3952	3952	3952	3952	3952	3952	3952	3952	3952	3952	3952	3952	3952	3952	3952	3952	3952	0	8146	8146	8146	8343	8343	8343	8550	8550	8550	8550	8550	8550	8550	8550	8550	8550	8550	8343	7959	7959	7959	6720	6720	6720	6720	6592	6592	6592	6592	6592	6592	6592	6592	6592	6592	6592	6592	6592	6592	6592	6592	6592	6592	6592	6592	6592	6592	6592	6592	6592	6592	8343	8146	8343	8146	8146	8146	8146	8146	8146	8146	8146	8146	8343	8146	8146	8343	8343	8343	8343	8343	8343	8343	8343	8343	8146	8146	8146	8146	8146	0	0	0	5719	5719	5535	5448	5448	5448	5448	5364	5364	5364	5364	5364	5364	5364	5202	5202	5202	5125	5282	5448	5448	5448	5448	0	0	0	0	0	0	0	0	0	0	0	0	0	0	0	0	0	0	0	0	0	0	0	0	0	0	0	0	0	0	0	0	0	0	0	0	0	0	0	0	0	0	0	0	0	0	2327	2327	2327	2327	2327	2312	2327	2327	2327	2312	2312	2312	2297	0	0	0	0	0	0	0	0	0	0	0	0	0	0	0	0	0	0	0	0	0	0	0	0	0	0	0	0	0	0	0	0	0	0	0	0	0	0	2223	2223	2223	2223	2223	2223	2223	2181	2181	2181	2181	2181	2181	2167	2167	2167	2167	2167	2167	2153	2167	2153	2153	2153	2153	2153	2153	2140	2140	2140	2127	2127	2127	2127	2127	2127	2127	2127	2114	2114	2127	2114	2114	2114	2114	2114	0	0	0	0	0	0	0	0	0	0	0	0	0	0	0	0	0	0	0	0	0	0	0	0	0	0	0	0	0	0	0	0	0	0	0	0
0	0	0	0	0	0	0	0	0	0	0	1282	1287	1287	1291	1291	1296	1296	1296	1296	1296	0	0	0	0	0	0	0	0	0	0	0	0	0	0	0	0	0	0	0	0	0	0	0	0	0	0	0	0	0	0	0	0	0	0	0	0	0	0	0	0	0	0	0	0	0	0	0	0	0	0	0	0	0	0	0	0	0	0	0	0	0	0	0	0	0	0	0	0	0	1402	1396	1396	1396	1396	1396	1402	1402	1407	1413	1407	1407	0	0	0	0	0	0	0	0	0	0	0	0	0	0	0	0	0	0	0	0	0	0	0	1618	1611	1611	1611	1618	1618	1618	1618	1618	1626	1641	1641	1649	1649	1657	1665	1665	1665	1673	1681	1690	1723	1741	1741	1750	1759	1759	1759	1786	1786	1814	1824	1824	1824	1824	0	2754	2754	2733	2711	2690	2690	2690	2690	2690	2690	2690	2690	2690	2690	2690	2690	2690	2690	2690	2690	2777	2777	2777	2777	2777	2777	2777	2777	2777	2799	2799	2799	2822	2845	2845	2845	2869	2869	2869	2869	0	0	0	0	0	0	0	0	0	0	0	0	0	0	0	0	0	0	0	0	0	0	0	0	0	0	0	0	0	0	0	0	0	0	0	0	0	0	0	0	0	6468	6468	6468	6468	6468	6468	6468	6468	6468	6468	6468	6468	6468	6349	6349	6468	6468	6349	6349	6124	6124	6349	6235	6018	5626	5719	5719	5719	5719	6235	6235	6235	6235	6349	6349	6124	6124	6124	6349	6468	6468	6468	6592	6468	6468	6468	6468	6468	5626	5535	5448	5448	5364	5364	5364	5364	5364	5282	5282	4045	4045	3998	3952	3952	3907	3907	3907	3952	3952	3907	3907	3907	3907	3952	3998	3952	3952	3952	3952	3952	3952	3952	3952	3998	4045	4045	4045	3998	3998	3998	3998	3952	3952	3952	3952	3952	3952	3952	3952	3952	3952	3952	3952	3952	3952	3952	3952	3952	3952	3952	3952	3952	0	8146	8146	8146	8343	8343	8343	8550	8343	8550	8550	8550	8550	8550	8550	8550	8550	8343	8550	8550	8343	8343	6720	6720	6720	6592	6592	6592	6592	6592	6592	6592	6592	6592	6592	6592	6592	6592	6592	6592	6592	6592	6592	6592	6720	6592	6592	6592	6592	6592	6592	6592	8343	8343	8343	8343	8343	8343	8146	8146	8146	8146	8146	8146	8146	8146	8146	8146	8146	8146	8146	8146	8146	8343	8343	8343	8146	8146	8146	7959	7959	0	0	0	5719	5626	5535	5448	5448	5448	5448	5364	5364	5364	5364	5364	5364	5364	5282	5282	5282	5202	5448	5448	5448	5448	5448	0	0	0	0	0	0	0	0	0	0	0	0	0	0	0	0	0	0	0	0	0	0	0	0	0	0	0	0	0	0	0	0	0	0	0	0	0	0	0	0	0	0	0	0	0	0	2343	2327	2327	2327	2327	2327	2327	2327	2327	2327	2327	2327	2327	0	0	0	0	0	0	0	0	0	0	0	0	0	0	0	0	0	0	0	0	0	0	0	0	0	0	0	0	0	0	0	0	0	0	0	0	0	0	2208	2208	2223	2208	2181	2181	2194	2181	2181	2181	2181	2181	2167	2167	2167	2167	2167	2167	2167	2167	2167	2153	2153	2153	2153	2153	2140	2140	2140	2127	2127	2127	2127	2127	2127	2127	2127	2127	2127	2127	2127	2114	2114	2114	2114	2114	0	0	0	0	0	0	0	0	0	0	0	0	0	0	0	0	0	0	0	0	0	0	0	0	0	0	0	0	0	0	0	0	0	0	0	0
0	0	0	0	0	0	0	0	0	0	0	1287	1291	1287	1291	1291	1296	1296	1301	1301	1296	0	0	0	0	0	0	0	0	0	0	0	0	0	0	0	0	0	0	0	0	0	0	0	0	0	0	0	0	0	0	0	0	0	0	0	0	0	0	0	0	0	0	0	0	0	0	0	0	0	0	0	0	0	0	0	0	0	0	0	0	0	0	0	0	0	0	0	0	0	1396	1396	1396	1396	1396	1390	1396	1402	1407	1413	1413	1407	0	0	0	0	0	0	0	0	0	0	0	0	0	0	0	0	0	0	0	0	0	0	0	1618	1611	1611	1611	1618	1618	1618	1618	1626	1634	1641	1641	1649	1649	1657	1665	1665	1665	1673	1690	1706	1723	1741	1741	1750	1759	1768	1768	1804	1814	1824	1833	1833	1833	1833	0	2711	2711	2690	2690	2690	2690	2690	2690	2690	2690	2690	2690	2690	2690	2690	2690	2690	2690	2690	2690	2777	2777	2777	2822	2799	2777	2777	2777	2777	2777	2799	2799	2822	2845	2845	2845	2845	2845	2845	2869	0	0	0	0	0	0	0	0	0	0	0	0	0	0	0	0	0	0	0	0	0	0	0	0	0	0	0	0	0	0	0	0	0	0	0	0	0	0	0	0	0	0	6468	6592	6592	6592	6468	6468	6468	6468	6468	6468	6349	6349	6235	6235	6235	6235	6235	6349	6124	6124	0	0	0	5626	5626	5626	5626	5626	5626	6018	5815	5815	5815	6124	6018	6018	5915	5915	6468	6468	6468	6592	6468	6468	6468	6468	0	0	0	5448	5364	5364	5282	5282	5282	5282	5202	5202	0	4045	3998	3952	3952	3907	3952	3907	3952	3952	3907	3907	3907	3907	3952	3998	3952	3952	3952	3952	3952	3952	3952	3998	3998	3998	4045	4045	3998	3998	3998	3998	3952	3952	3952	3952	3952	3952	3952	3952	3952	3952	3952	3952	3952	3952	3952	3952	3952	3952	3952	3952	3952	8146	7959	7959	7959	8343	8343	8343	8550	8343	8550	8550	8550	8550	8550	8343	8343	8550	8550	8550	8550	8343	8343	6720	6720	6720	6592	6592	6592	6592	6592	6592	6592	6592	6592	6592	6592	6592	6592	6592	6592	6592	6592	6720	6720	6720	6720	6592	6592	6592	6592	6592	8550	8343	8343	8343	8343	8343	8343	8343	8146	8146	8146	8146	8146	8146	8146	8146	8146	8146	8146	8146	8146	8146	8146	8146	8146	8146	8146	8146	8146	8146	0	0	0	5626	5535	5448	5448	5448	5448	5364	5364	5364	5364	5364	5364	5282	5282	5282	5282	5282	5202	5448	5448	0	0	0	0	0	0	0	0	0	0	0	0	0	0	0	0	0	0	0	0	0	0	0	0	0	0	0	0	0	0	0	0	0	0	0	0	0	0	0	0	0	0	0	0	0	0	0	0	0	2343	2343	2327	2327	2327	2327	2327	2327	2327	2327	2327	2327	2327	0	0	0	0	0	0	0	0	0	0	0	0	0	0	0	0	0	0	0	0	0	2669	2669	0	0	0	0	0	0	0	0	0	0	0	0	2237	2223	2223	2223	2208	2208	2208	2194	2181	2181	2181	2181	2181	2167	2167	2167	2167	2167	2153	2153	2153	2153	2153	2153	2153	2153	2153	2153	2140	2140	2127	2127	2127	2127	2127	2127	2127	2127	2127	2127	2127	2127	2127	2127	2114	2114	2114	2114	2114	0	0	0	0	0	0	0	0	0	0	0	0	0	0	0	0	0	0	0	0	0	0	0	0	0	0	0	0	0	0	0	0	0	0	0	0
0	0	0	0	0	0	0	0	0	0	0	1291	1291	1291	1291	1291	1296	1296	1296	1296	0	0	0	0	0	0	0	0	0	0	0	0	0	0	0	0	0	0	0	0	0	0	0	0	0	0	0	0	0	0	0	0	0	0	0	0	0	0	0	0	0	0	0	0	0	0	0	0	0	0	0	0	0	0	0	0	0	0	0	0	0	0	0	0	0	0	0	0	0	0	1396	1396	1396	1390	1390	1390	1402	1407	1407	1413	1413	0	0	0	0	0	0	0	0	0	0	0	0	0	0	0	0	0	0	0	0	0	0	0	0	1618	1611	1611	1618	1618	1618	1618	1626	1634	1649	1649	1649	1649	1649	1657	1665	1657	1657	1673	1690	1715	1723	1741	1741	1750	1759	1768	1768	1824	1824	1824	1833	1824	1824	1833	0	2711	2711	2711	2690	2690	2690	2690	2690	2690	2690	2690	2690	2711	2690	2690	2690	2690	2690	2690	2690	2690	2845	2822	2822	2822	2777	2777	2777	2777	2777	2799	2822	2845	2845	2869	2869	2845	2845	2845	2845	0	0	0	0	0	0	0	0	0	0	0	0	0	0	0	0	0	0	0	0	0	0	0	0	0	0	0	0	0	0	0	0	0	0	0	0	0	0	0	0	0	0	0	6592	6592	6592	6468	6468	6468	6468	6468	6349	6235	6124	6124	6235	6235	6235	6235	0	0	0	0	5626	5626	5626	5626	5626	5719	5719	5719	5626	5719	5719	5815	5815	5915	5915	5915	5915	6468	6468	6592	6592	6592	6592	6468	0	0	0	0	0	5364	5364	5282	5282	5202	5202	5202	5202	0	0	3998	3952	3952	3907	3907	3907	3952	3952	3907	3907	3907	3907	3998	3998	3952	3907	3952	3952	3952	3952	3952	3952	3952	3998	3998	3998	3998	3998	3998	3952	3952	3952	3952	3952	3952	3952	3952	3952	3952	3952	3952	3952	3952	3952	3952	3952	3952	3952	3952	3952	3952	8146	7959	7959	8146	8343	8550	8550	8550	8550	8550	8550	8550	8550	8343	8343	8343	8550	8550	8550	8343	8343	8343	6720	6720	6592	6592	6592	6592	6592	6592	6592	6468	6592	6592	6592	6592	6592	6592	6592	6720	6720	6720	6720	6720	6720	6592	6592	6592	6592	6592	6592	8550	8343	8343	8343	8343	8343	8343	8343	8146	8146	8146	8146	8146	8146	8146	8146	8146	8146	8146	8146	8146	8146	8146	8146	8146	8146	8146	8146	8343	8550	8550	0	0	5535	5535	5448	5448	5448	5448	5448	5364	5364	5364	5364	5364	5282	5282	5202	5202	5202	0	0	0	0	0	0	0	0	0	0	0	0	0	0	0	0	0	0	0	0	0	0	0	0	0	0	0	0	0	0	0	0	0	0	0	0	0	0	0	0	0	0	0	0	0	0	0	0	0	0	0	0	2359	2343	2343	2327	2327	2327	2327	2327	2327	2327	2312	2312	2327	0	0	0	0	0	0	0	0	0	0	0	0	0	0	0	0	0	0	2690	2690	2690	2669	2669	0	0	0	0	0	0	0	0	0	0	2237	2237	2237	2223	2223	2223	2208	2208	2181	2194	2181	2181	2181	2181	2181	2167	2167	2167	2167	2153	2153	2167	2153	2167	2153	2153	2153	2153	2153	2153	2140	2127	2127	2127	2127	2127	2127	2127	2127	2127	2127	2127	2127	2127	2127	2127	2114	2114	2101	2114	2114	0	0	0	0	0	0	0	0	0	0	0	0	0	0	0	0	0	0	0	0	0	0	0	0	0	0	0	0	0	0	0	0	0	0	0	0
0	0	0	0	0	0	0	0	0	0	0	1291	1291	1291	1291	1291	1296	1296	1296	1296	0	0	0	0	0	0	0	0	0	0	0	0	0	0	0	0	0	0	0	0	0	0	0	0	0	0	0	0	0	0	0	0	0	0	0	0	0	0	0	0	0	0	0	0	0	0	0	0	0	0	0	0	0	0	0	0	0	0	0	0	0	0	0	0	0	0	0	0	0	0	0	1396	1396	1390	1390	1390	1396	1402	1407	1407	0	0	0	0	0	0	0	0	0	0	0	0	0	0	0	0	0	0	0	0	0	0	0	0	0	1618	1611	1611	1618	1626	1626	1626	1634	1649	1649	1649	1641	1649	1649	1649	1657	1657	1657	0	0	1715	1723	1741	1750	1750	1759	1768	1768	1824	1824	1824	1833	1824	1824	0	0	0	2711	2711	2690	2690	2690	2690	2690	2690	2690	2690	2690	2711	2690	2690	2690	2690	2711	2711	2711	2711	2845	2845	2822	2822	2822	2777	2777	2777	2777	2799	2845	2845	2869	2869	2869	2869	2845	2845	2845	0	0	0	0	0	0	0	0	0	0	0	0	0	0	0	0	0	0	0	0	0	0	0	0	0	0	0	0	0	0	0	0	0	0	0	0	0	0	0	0	0	0	0	6592	6592	6592	6468	6468	6468	6468	6349	6349	6124	6124	6124	0	0	0	0	0	0	0	0	5626	5626	5626	5626	5626	5626	5719	5719	5719	5719	5719	5719	5719	5815	5815	5815	5815	6468	6468	6592	6592	6592	6592	0	0	0	0	0	0	0	5364	5282	5282	5202	5202	5125	5125	0	0	0	3952	3952	3907	3907	3907	3952	3952	3952	3907	3907	3907	3998	3998	3952	3952	3952	3952	3952	3952	3952	3952	3952	3998	3998	3998	3998	3952	3952	3952	3952	3952	3952	3952	3952	3952	3952	3952	3952	3952	3952	3952	3952	3952	3952	3952	3952	3952	3952	3952	3952	8146	7959	7959	8146	8343	8550	8343	8550	8550	8550	8550	8550	8343	8343	8343	8343	8550	8550	8343	8343	8343	8343	6720	6720	6592	6592	6592	6592	6592	6592	6592	6468	6468	6468	6592	6592	6468	6592	6592	6592	6720	6720	6720	6720	6592	6592	6592	6592	6592	6468	6592	8550	8550	8343	8550	8343	8343	8343	8343	8146	8146	8146	8146	8146	8146	8146	8146	8146	8146	8146	8146	8146	8146	8146	8146	8146	8146	8146	8146	8343	8550	8550	0	0	5535	5535	5448	5448	5448	5448	5448	5364	5364	5364	5364	5282	5282	5282	5282	5202	5202	0	0	0	0	0	0	0	0	0	0	0	0	0	0	0	0	0	0	0	0	0	0	0	0	0	0	0	0	0	0	0	0	0	0	0	0	0	0	0	0	0	0	0	0	0	0	0	0	0	0	0	0	2359	2343	2343	2327	2327	2327	2327	2312	2312	2312	2312	2312	0	0	0	0	0	0	0	0	0	0	0	0	0	2733	2733	2733	2733	2733	2733	2711	2711	2711	2711	2669	0	0	0	0	2266	2281	2266	2252	2252	2237	2237	2237	2223	2223	2223	2223	2208	2208	2194	2194	2194	2181	2181	2167	2167	2167	2167	2167	2167	2153	2153	2167	2153	2153	2153	2153	2153	2140	2140	2153	2153	2140	2140	2127	2127	2127	2127	2127	2127	2127	2127	2127	2127	2140	2127	2127	2127	2114	2114	2114	2114	0	0	0	0	0	0	0	0	0	0	0	0	0	0	0	0	0	0	0	0	0	0	0	0	0	0	0	0	0	0	0	0	0	0	0	0
0	0	0	0	0	0	0	0	0	0	0	1296	1291	1287	1287	1287	1301	1301	0	0	0	0	0	0	0	0	0	0	0	0	0	0	0	0	0	0	0	0	0	0	0	0	0	0	0	0	0	0	0	0	0	0	0	0	0	0	0	0	0	0	0	0	0	0	0	0	0	0	0	0	0	0	0	0	0	0	0	0	0	0	0	0	0	0	0	0	0	0	0	0	1402	1402	1402	1396	1396	1390	1396	1402	1402	1407	0	0	0	0	0	0	0	0	0	0	0	0	0	0	0	0	0	0	0	0	0	0	0	0	0	0	0	1618	1618	1626	1626	1626	1626	1649	1649	1657	1649	1649	1649	1649	1649	1657	0	0	0	0	0	1732	1750	1750	1759	1759	1768	0	0	0	0	0	0	0	0	0	0	2711	2690	2690	2690	2690	2711	2690	2690	2690	2690	2711	2690	2690	2690	2690	2690	2690	2690	2690	2845	2845	2822	2822	2822	2777	2777	2799	2777	2822	2845	2845	2845	2845	2845	2845	2845	2845	2845	0	0	0	0	0	0	0	0	0	0	0	0	0	0	0	0	0	0	0	0	0	0	0	0	0	0	0	0	0	0	0	0	0	0	0	0	0	0	0	0	0	0	0	6592	6592	6592	6468	6468	6468	6468	6468	6349	6349	6124	0	0	0	0	0	0	0	0	0	5626	5626	5626	5626	5626	5719	5719	5719	5719	5719	5719	5719	5815	5815	5815	5915	5915	0	6468	6592	6592	0	0	0	0	0	0	0	0	0	5364	5282	5202	5202	5125	5050	5050	4977	4977	0	3998	3952	3907	3907	3907	3952	3952	3907	3907	3907	3907	3952	3952	3952	3952	3952	3952	3952	3952	3952	3952	3952	3952	3998	3998	3998	3952	3952	3952	3952	3952	3952	3952	3952	3952	3952	3952	3952	3952	3907	3952	3952	3907	3952	3952	3952	3952	3952	3952	3952	8146	8146	8146	8146	8343	8343	8343	8343	8343	8550	8550	8550	8343	8343	8343	8343	8550	8550	8343	8343	8343	8343	6592	6592	6592	6592	6468	6468	6468	6468	6468	6349	6349	6468	6468	6468	6468	6468	6592	6592	6592	6720	6592	6592	6592	6592	6592	6592	6592	6468	6468	6468	8343	8343	8550	8343	8343	8343	8146	8146	8146	8146	8146	8146	8146	8146	8146	8146	8146	8146	8146	8146	8146	8146	8146	8146	8146	8146	8146	8343	8343	8767	0	0	5535	5535	5448	5448	5448	5448	5448	5364	5364	5364	5364	5282	5282	5202	5202	0	0	0	0	0	0	0	0	0	0	0	0	0	0	0	0	0	0	0	0	0	0	0	0	0	0	0	0	0	0	0	0	0	0	0	0	0	0	0	0	0	0	0	0	0	0	0	0	0	0	0	0	0	0	2359	2343	2343	2327	2327	2327	2327	2312	2312	2327	2312	2312	2312	0	0	0	0	0	0	0	0	2711	2711	2711	2733	2733	2733	2733	2733	2733	2733	2733	2733	2733	2711	0	0	0	0	2281	2281	2281	2266	2252	2252	2252	2237	2237	2223	2223	2223	2223	2208	2208	2181	2181	2181	2181	2181	2167	2167	2167	2167	2167	2167	2153	2153	2153	2153	2153	2153	2153	2153	2153	2153	2153	2140	2140	2140	2127	2127	2127	2127	2127	2127	2127	2127	2127	2127	2127	2127	2127	2114	2114	2114	2114	2114	0	0	0	0	0	0	0	0	0	0	0	0	0	0	0	0	0	0	0	0	0	0	0	0	0	0	0	0	0	0	0	0	0	0	0	0
0	0	0	0	0	0	0	0	0	0	0	1296	1291	1291	1287	1291	1287	1287	0	0	0	0	0	0	0	0	0	0	0	0	0	0	0	0	0	0	0	0	0	0	0	0	0	0	0	0	0	0	0	0	0	0	0	0	0	0	0	0	0	0	0	0	0	0	0	0	0	0	0	0	0	0	0	0	0	0	0	0	0	0	0	0	0	0	0	0	0	0	0	0	1402	1402	1396	1390	1390	1390	1396	1396	1396	0	0	0	0	0	0	0	0	0	0	0	0	0	0	0	0	0	0	0	0	0	0	0	0	0	0	0	0	1618	1618	0	1626	1626	1626	1649	1649	1657	1649	1649	1649	1649	1649	0	0	0	0	0	0	1732	1750	1750	1759	1759	0	0	0	0	0	0	0	0	0	0	0	2690	2690	2690	2690	2711	2711	2690	2690	2690	2711	2711	2690	2690	2690	2690	2690	2690	2690	2690	2690	2822	2822	2822	2799	2799	2777	2799	2777	2822	2845	2845	2845	2845	2845	2845	2822	2822	0	0	0	0	0	0	0	0	0	0	0	0	0	0	0	0	0	0	0	0	0	0	0	0	0	0	0	0	0	0	0	0	0	0	0	0	0	0	0	0	0	0	0	0	6592	6592	6592	6468	6468	6468	6468	6349	6349	6349	0	0	0	0	0	0	0	0	0	0	5626	5626	5626	5626	5626	5719	5815	5815	5815	5815	5719	5815	5815	5915	5915	5915	5915	0	0	0	0	0	0	0	0	0	0	0	0	0	5364	5282	5202	5125	5125	5050	4977	4977	4977	0	3998	3998	3998	3952	3952	3952	3952	3907	3907	3907	3907	3952	3952	3952	3952	3952	3952	3952	3952	3952	3998	3998	3998	3998	3998	3998	3952	3952	3952	3952	3952	3952	3952	3952	3952	3952	3952	3952	3952	3952	3952	3952	3952	3952	3952	3952	3952	3998	3998	3998	8146	8146	8146	8146	8343	8343	8343	8343	8343	8343	8343	8343	8343	8343	8343	8343	8550	8550	8343	8343	8343	8146	6592	6592	6592	6468	6468	6349	6468	6468	6349	6349	6349	6468	6468	6468	6468	6468	6592	6592	6592	6592	6592	6592	6592	6592	6592	6592	6468	6468	6468	8343	8343	8343	8550	8343	8550	8146	8343	8146	8146	8146	8146	8146	8146	8343	8146	8343	8146	8146	8146	8146	8146	8146	8146	8146	8146	8146	8343	8550	8767	8767	0	0	5535	5535	5448	5448	5448	5448	5448	5364	5364	5364	5364	5282	5282	5282	5202	0	0	0	0	0	0	0	0	0	0	0	0	0	0	0	0	0	0	0	0	0	0	0	0	0	0	0	0	0	0	0	0	0	0	0	0	0	0	0	0	0	0	0	0	0	0	0	0	0	0	0	0	0	0	2376	2359	2343	2327	2327	2327	2327	2312	2312	2312	2312	2312	2312	0	0	0	2690	2690	2690	2711	2711	2711	2711	2733	2733	2733	2733	2733	2733	2733	2733	2733	2733	2733	0	0	2312	2297	2297	2281	2281	2281	2266	2252	2252	2237	2237	2223	2223	2223	2223	2223	2223	2208	2194	2181	2181	2181	2181	2167	2167	2167	2167	2167	2153	2153	2153	2153	2153	2153	2153	2153	2153	2140	2140	2140	2140	2140	2127	2140	2127	2127	2127	2127	2127	2127	2127	2127	2127	2140	2127	2127	2127	2114	2114	2114	2114	0	0	0	0	0	0	0	0	0	0	0	0	0	0	0	0	0	0	0	0	0	0	0	0	0	0	0	0	0	0	0	0	0	0	0	0
0	0	0	0	0	0	0	0	0	0	0	1296	1291	1287	1287	1287	1282	1282	0	0	0	0	0	0	0	0	0	0	0	0	0	0	0	0	0	0	0	0	0	0	0	0	0	0	0	0	0	0	0	0	0	0	0	0	0	0	0	0	0	0	0	0	0	0	0	0	0	0	0	0	0	0	0	0	0	0	0	0	0	0	0	0	0	0	0	0	0	0	0	0	0	1402	1396	1390	1390	1390	1396	1396	1396	0	0	0	0	0	0	0	0	0	0	0	0	0	0	0	0	0	0	0	0	0	0	0	0	0	0	0	0	0	0	0	0	0	0	0	0	0	0	0	0	0	0	0	0	0	0	0	0	0	0	0	0	0	0	0	0	0	0	0	0	0	0	0	0	2711	2690	2690	2690	2690	2690	2690	2690	2690	2690	2690	2690	2690	2690	2690	2711	2711	2690	2690	2777	2777	2822	2822	2799	2799	2799	2799	2777	2845	2845	2845	2845	2845	2845	2822	2822	2822	0	0	0	0	0	0	0	0	0	0	0	0	0	0	0	0	0	0	0	0	0	0	0	0	0	0	0	0	0	0	0	0	0	0	0	0	0	0	0	0	0	0	0	0	6592	6592	6592	6468	6468	6468	6349	6235	6235	0	0	0	0	0	0	0	0	0	0	0	0	5626	5626	5626	5626	5815	5815	5815	5815	5915	5719	5815	5815	5815	5815	5915	5915	0	0	0	0	0	0	0	0	0	0	0	5364	5364	5364	5282	5202	5125	5050	5050	4977	4977	4977	4977	3998	3998	3998	3952	3952	3952	3952	3952	3907	3907	3907	3907	3952	3952	3952	3952	3952	3952	3952	3952	3952	3998	3952	3998	3998	3998	3952	3952	3952	3952	3952	3952	3952	3952	3952	3952	3952	3952	3952	3907	3907	3952	3952	3952	3952	3952	3952	3998	4045	4045	8343	8343	8343	8343	8343	8343	8343	8343	8343	8343	8343	8343	8343	8343	8343	8343	8343	8550	8343	8146	8146	8146	6592	6592	6468	6349	6349	6349	6468	6349	6349	6468	6349	6468	6468	6592	6468	6468	6592	6592	6592	6592	6592	6592	6592	6592	6592	6592	6468	6592	6592	8343	8343	8343	8343	8343	8343	8343	8146	8146	8146	8146	8146	8146	8146	8146	8146	8146	8146	8146	8146	8146	8146	8146	8146	8146	8343	8343	8343	8550	8767	8767	0	0	5535	5448	5448	5448	5448	5448	5448	5364	5364	5364	5364	5282	5282	5282	0	0	0	0	0	0	0	3998	3952	3952	0	0	0	0	0	0	0	0	0	0	0	0	0	0	0	0	0	0	0	0	0	0	0	0	0	0	0	0	0	0	0	0	0	0	0	0	0	0	0	0	0	0	0	0	0	2376	2359	2343	2327	2327	2327	2312	2312	2281	2312	2297	2297	2669	2711	2711	2669	2690	2690	2690	2711	2733	2733	2711	2733	2733	2733	2733	2733	2733	2733	2359	2359	2359	2359	2359	2343	2312	2297	2297	2281	2281	2266	2266	2252	2252	2237	2237	2223	2223	2223	2223	2223	2223	2194	2194	2194	2181	2181	2181	2167	2167	2167	2167	2167	2153	2153	2153	2153	2153	2153	2153	2140	2153	2140	2140	2140	2127	2127	2127	2127	2114	2127	2127	2127	2127	2127	2127	2127	2127	2127	2127	2127	2127	2127	2114	2114	2114	0	0	0	0	0	0	0	0	0	0	0	0	0	0	0	0	0	0	0	0	0	0	0	0	0	0	0	0	0	0	0	0	0	0	0	0
0	0	0	0	0	0	0	0	0	0	0	1291	1291	1291	1291	1291	1287	1287	0	0	0	0	0	0	0	0	0	0	0	0	0	0	0	0	0	0	0	0	0	0	0	0	0	0	0	0	0	0	0	0	0	0	0	0	0	0	0	0	0	0	0	0	0	0	0	0	0	0	0	0	0	0	0	0	0	0	0	0	0	0	0	0	0	0	0	0	0	0	0	0	1390	1396	1390	1390	1390	1390	1396	1396	1396	0	0	0	0	0	0	0	0	0	0	0	0	0	0	0	0	0	0	0	0	0	0	0	0	0	0	0	0	0	0	0	0	0	0	0	0	0	0	0	0	0	0	0	0	0	0	0	0	0	0	0	0	0	0	0	0	0	0	0	0	0	0	0	2690	2690	2690	2690	2711	2711	2690	2690	2690	2690	2690	2690	2669	2690	2690	2690	2711	2711	2711	2754	2777	2777	2799	2822	2799	2799	2799	2799	2799	2822	2845	2845	2822	2845	2822	2822	2822	2822	2845	2869	2893	2893	0	0	0	0	0	0	0	0	0	0	0	0	0	0	0	0	0	0	0	0	0	0	0	0	0	0	0	0	0	0	0	0	0	0	0	0	0	0	0	6592	6592	6468	6468	6468	6349	6349	6235	6124	6124	0	0	0	0	0	0	0	0	0	0	0	0	0	0	0	0	5815	5815	5815	5815	5915	5719	5815	5815	5815	5815	5915	5915	0	0	0	0	0	0	0	0	0	0	0	5364	5364	5364	5282	5202	5125	5050	5050	4977	4977	3998	3998	3998	3998	3998	3952	3907	3952	3952	3907	3907	3907	3907	3952	3952	3952	3952	3952	3952	3952	3952	3952	3952	3952	3952	3952	3998	3998	3952	3952	3952	3952	3952	3952	3952	3952	3952	3952	3952	3952	3952	3907	3907	3907	3952	3952	3952	3952	3952	3998	3998	3998	8343	8343	8343	8343	8343	8343	8343	8343	8343	8343	8343	8343	8343	8343	8343	8343	8550	8343	8343	8146	8146	7959	7959	6720	6592	6468	6468	6349	6468	6349	6349	6349	6349	6468	6468	6468	6468	6468	6468	6592	6592	6592	6592	6592	6592	6468	6468	6468	6349	6349	6349	8343	8343	8343	8343	8343	8343	8146	8146	8146	8146	8146	8146	8146	8146	8343	8343	8343	8343	8343	8343	8146	8146	8146	8146	8146	8343	8343	8343	8550	8550	8767	0	0	0	5448	5448	5448	5448	5448	5448	5364	5364	5448	5364	5282	5202	5202	0	0	0	0	0	0	0	4045	4045	3952	0	0	0	0	0	0	0	0	0	0	0	0	0	0	0	0	0	0	0	0	0	0	0	0	0	0	0	0	0	0	0	0	0	0	0	0	0	0	0	0	0	0	0	0	0	0	0	0	0	0	2327	2297	2297	2281	2297	2297	2297	2669	2669	2690	2690	2690	2711	2711	2711	2733	2733	2733	2733	2733	2733	2733	2733	2733	2376	2359	2359	2359	2343	2343	2343	2312	2297	2297	2281	2266	2266	2266	2252	2252	2237	2237	2223	2223	2223	2223	2223	2194	2194	2194	2194	2181	2181	2181	2167	2167	2167	2167	2153	2167	2153	2153	2153	2153	2153	2140	2140	2140	2127	2127	2127	2127	2127	2127	2127	2114	2127	2127	2127	2127	2127	2127	2127	2127	2140	2127	2127	2127	2127	0	0	0	0	0	0	0	0	0	0	0	0	0	0	0	0	0	0	0	0	0	0	0	0	0	0	0	0	0	0	0	0	0	0	0	0	0	0	0
0	0	0	0	0	0	0	0	0	0	0	1287	1287	1287	1287	1291	1287	1287	0	0	0	0	0	0	0	0	0	0	0	0	0	0	0	0	0	0	0	0	0	0	0	0	0	0	0	0	0	0	0	0	0	0	0	0	0	0	0	0	0	0	0	0	0	0	0	0	0	0	0	0	0	0	0	0	0	0	0	0	0	0	0	0	0	0	0	0	0	0	0	0	1390	1396	1390	1385	1385	1385	1390	1390	0	0	0	0	0	0	0	0	0	0	0	0	0	0	0	0	0	0	0	0	0	0	0	0	0	0	0	0	0	0	0	0	0	0	0	0	0	0	0	0	0	0	0	0	0	0	0	0	0	0	0	0	0	0	0	0	0	0	0	0	0	0	0	0	2690	2733	2711	2711	2733	2711	2711	2690	2690	2690	2690	2669	2669	2669	2669	2690	2711	2711	2711	2754	2777	2799	2777	2822	2799	2799	2799	2799	2799	2799	2822	2822	2822	2822	2822	2822	2845	2845	2845	2869	2869	2869	2869	0	0	0	0	0	0	0	0	0	0	0	0	0	0	0	0	0	0	0	0	0	0	0	0	0	0	0	0	0	0	0	0	0	0	0	0	0	6592	6592	6592	6468	6468	6349	6349	6349	6235	6235	6124	0	0	0	0	0	0	0	0	0	0	0	0	0	0	0	0	5915	5815	5815	5815	0	0	0	5815	5815	5815	0	0	0	0	0	0	0	0	0	0	0	0	0	5364	5364	5364	5282	5202	5125	5050	5050	4977	4977	3998	3998	3998	3998	3998	3907	3907	3907	3907	3907	3907	3907	3907	3952	3952	3952	3952	3952	3952	3952	3952	3998	3998	3998	3952	3952	3998	3998	3998	3952	3952	3952	3952	3952	3952	3952	3952	3952	3952	3952	3907	3907	3907	3907	3952	3952	3952	3952	3952	3998	3998	3998	8343	8343	8343	8343	8343	8343	8343	8343	8343	8343	8343	8343	8343	8343	8343	8343	8343	8343	8343	8146	8146	7959	7779	6592	6592	6468	6592	6349	6349	6468	6468	6468	6468	6468	6468	6468	6468	6468	6468	6468	6592	6592	6592	6468	6468	6468	6468	6468	6349	6349	6349	8343	8343	8343	8550	8343	8343	8146	8146	8146	8146	8146	8146	8343	8343	8343	8343	8343	8343	8343	8343	8146	8146	8146	8146	8146	8343	8343	8343	8550	8550	0	0	0	0	0	0	5448	5448	5448	5448	5364	5364	5364	5364	5282	5202	5202	0	0	0	0	0	0	4093	4045	4045	4045	4045	0	0	0	0	0	0	0	0	0	0	0	0	0	0	0	0	0	0	0	0	0	0	0	0	0	0	0	0	0	0	0	0	0	0	0	0	0	0	0	0	0	0	0	0	0	0	0	0	0	0	2297	2297	2297	2297	2297	2297	2690	2690	2690	2690	2690	2711	2711	2690	2733	2733	2733	2733	2733	2733	2733	2733	2733	2376	2376	2376	2359	2359	2343	2343	2312	2297	2297	2281	2281	2266	2266	2252	2252	2237	2237	2223	2223	2223	2223	2223	2223	2208	2194	2194	2194	2181	2181	2167	2153	2167	2167	2153	2153	2153	2153	2153	2153	2153	2140	2140	2140	2140	2127	2140	2127	2127	2127	2127	2114	2127	2127	2127	2140	2140	2140	2140	2140	2140	2140	2127	2127	0	0	0	0	0	0	0	0	0	0	0	0	0	0	0	0	0	0	0	0	0	0	0	0	0	0	0	0	0	0	0	0	0	0	0	0	0	0	0	0
0	0	0	0	0	0	0	0	0	0	0	1287	1287	1291	1287	1287	1287	1287	0	0	0	0	0	0	0	0	0	0	0	0	0	0	0	0	0	0	0	0	0	0	0	0	0	0	0	0	0	0	0	0	0	0	0	0	0	0	0	0	0	0	0	0	0	0	0	0	0	0	0	0	0	0	0	0	0	0	0	0	0	0	0	0	0	0	0	0	0	0	0	0	0	0	0	1385	1385	1385	1390	1390	1390	0	0	0	0	0	0	0	0	0	0	0	0	0	0	0	0	0	0	0	0	0	0	0	0	0	0	0	0	0	0	0	0	0	0	0	0	0	0	0	0	0	0	0	0	0	0	0	0	0	0	0	0	0	0	0	0	0	0	0	0	0	0	0	2690	2711	2711	2711	2711	2711	2690	2690	2690	2690	2690	2669	2669	2669	2669	2690	2690	2711	2733	2754	2754	2777	2777	2822	2777	2777	2777	2777	2777	2799	2799	2799	2822	2822	2799	2822	2845	2845	2845	2869	2869	2869	2869	0	0	0	0	0	0	0	0	0	0	0	0	0	0	0	0	0	0	0	0	0	0	0	0	0	0	0	0	0	0	0	0	0	0	0	0	0	6720	6592	6592	6468	6349	6235	6235	6235	6235	6235	0	0	0	0	0	0	0	0	0	0	0	0	0	0	0	0	0	5915	5815	5815	5815	0	0	0	0	0	0	0	0	0	0	0	0	0	0	0	0	0	0	0	5364	5364	5364	5364	5282	5125	5125	5050	5050	4977	3998	4045	4045	4045	3998	3952	3907	3907	3907	3907	3907	3907	3907	3952	3952	3952	3952	3952	3952	3952	3952	3952	3952	3998	3998	3998	3998	3998	3998	3952	3952	3952	3952	3952	3952	3952	3952	3952	3952	3907	3907	3907	3907	3907	3907	3952	3952	3952	3952	3952	3952	3952	8343	8343	8343	8343	8343	8343	8343	8343	8343	8343	8343	8343	8146	8343	8343	8343	8343	8343	8343	8343	8146	7779	7779	6853	6720	6468	6592	6349	6349	6349	6468	6468	6468	6468	6468	6468	6468	6468	6468	6468	6468	6468	6468	6468	6468	6468	6468	6468	6349	6349	6349	6349	8343	8343	8343	8343	8343	8146	8146	8146	8146	8146	8146	8343	8343	8343	8343	8343	8343	8343	8343	8146	8146	8146	8146	8146	8146	8146	8146	8343	8767	8767	0	0	0	0	0	0	5448	5448	5448	5364	5364	5364	5364	5282	5202	5202	0	0	0	4243	4192	4093	4045	4045	3998	3998	3998	0	0	0	0	0	0	0	0	0	0	0	0	0	0	0	0	0	0	0	0	0	0	0	0	0	0	0	0	0	0	0	0	0	0	0	0	0	0	0	0	0	0	0	0	0	0	0	0	0	0	2297	2281	2281	2297	2297	2297	2690	2690	2711	2711	2711	2711	2690	2690	2711	2711	2711	2711	2711	2711	2711	2711	2376	2376	2376	2376	2359	2359	2343	2343	2312	2297	2297	2281	2266	2252	2252	2252	2237	2237	2237	2223	2237	2223	2223	2223	2223	2223	2208	2194	2194	2181	2181	2167	2167	2167	2167	2153	2153	2153	2140	2153	2153	2140	2140	2140	2140	2140	2140	2140	2140	2127	2127	2127	2114	2127	2127	2140	2140	2140	2140	2140	2140	2140	2127	2127	2127	0	0	0	0	0	0	0	0	0	0	0	0	0	0	0	0	0	0	0	0	0	0	0	0	0	0	0	0	0	0	0	0	0	0	0	0	0	0	0	0
0	0	0	0	0	0	0	0	0	0	0	1287	1287	1287	1287	1287	1287	1287	0	0	0	0	0	0	0	0	0	0	0	0	0	0	0	0	0	0	0	0	0	0	0	0	0	0	0	0	0	0	0	0	0	0	0	0	0	0	0	0	0	0	0	0	0	0	0	0	0	0	0	0	0	0	0	0	0	0	0	0	0	0	0	0	0	0	0	0	0	0	0	0	0	0	0	1385	1385	1379	1390	1390	1390	0	0	0	0	0	0	0	0	0	0	0	0	0	0	0	0	0	0	0	0	0	0	0	0	0	0	0	0	0	0	0	0	0	0	0	0	0	0	0	0	0	0	0	0	0	0	0	0	0	0	0	0	0	0	0	0	0	0	0	0	0	0	0	2711	2733	2733	2711	2711	2711	2711	2690	2690	2690	2690	2690	2669	2669	2669	2690	2690	2711	2733	2733	2754	2754	2754	2754	2754	2754	2754	2799	2799	2799	2822	2799	2822	2822	2799	2799	2845	2845	2845	2845	2869	0	0	0	0	0	0	0	0	0	0	0	0	0	0	0	0	0	0	0	0	0	0	0	0	0	0	0	0	0	0	0	0	0	0	0	0	0	0	0	6720	6349	6349	6235	6235	6124	6124	6235	6124	6124	0	0	0	0	0	0	0	0	0	0	0	0	0	0	0	0	0	0	0	0	0	0	0	0	0	0	0	0	0	0	0	0	0	0	0	0	0	0	0	0	5364	5364	5364	5364	5282	5202	5125	5050	5050	4977	4906	4045	3998	3998	3998	3952	3907	3907	3907	3907	3907	3907	3907	3952	3952	3952	3952	3952	3952	3952	3952	3952	3998	3998	3998	3998	3998	3998	3998	3952	3952	3952	3952	3952	3952	3952	3952	3952	3952	3907	3907	3907	3907	3907	3952	3952	3952	3952	3952	3998	3998	3998	8550	8550	8550	8550	8343	8343	8343	8343	8343	8343	8343	8343	8343	8343	8343	8343	8343	8343	8343	8146	8146	7608	7287	6853	6720	6592	6592	6468	6468	6468	6468	6468	6468	6592	6468	6468	6468	6349	6349	6349	6468	6468	6468	6468	6468	6468	6468	6349	6349	6349	6349	6349	8343	8343	8343	8343	8343	8146	8146	8146	8146	8146	8146	8146	8343	8343	8343	8343	8343	8146	8343	8343	8146	8146	8146	8146	8146	8146	8146	8343	8343	8767	0	0	0	0	0	0	5448	5448	5448	5364	5364	5364	5364	5282	5202	5202	0	0	0	4243	4142	4142	4142	4045	3998	3998	3998	0	0	0	0	0	0	0	0	0	0	0	0	0	0	0	0	0	0	0	0	0	0	0	0	0	0	0	0	0	0	0	0	0	0	0	0	0	0	0	0	0	0	0	0	0	0	0	0	0	2312	2297	2281	2297	2297	2312	2297	2711	2711	2711	2711	2711	2711	2711	2711	2711	2711	2711	2711	2711	2711	2711	2376	2376	2376	2376	2359	2359	2343	2343	2343	2327	2297	2297	2281	2266	2252	2252	2252	2237	2237	2237	2223	2223	2223	2223	2223	2223	2223	2208	2194	2194	2194	2194	2181	2167	2167	2167	2167	2167	2153	2153	2153	2140	2140	2140	2140	2140	2140	2127	2140	2140	2140	2127	2127	2127	2127	2127	2140	2140	2140	2140	2140	2140	2127	2127	2127	0	0	0	0	0	0	0	0	0	0	0	0	0	0	0	0	0	0	0	0	0	0	0	0	0	0	0	0	0	0	0	0	0	0	0	0	0	0	0	0	0
0	0	0	0	0	0	0	0	0	0	0	1287	1287	1287	1287	1287	1287	1287	0	0	0	0	0	0	0	0	0	0	0	0	0	0	0	0	0	0	0	0	0	0	0	0	0	0	0	0	0	0	0	0	0	0	0	0	0	0	0	0	0	0	0	0	0	0	0	0	0	0	0	0	0	0	0	0	0	0	0	0	0	0	0	0	0	0	0	0	0	0	0	0	0	0	0	0	0	1379	1390	1390	0	0	0	0	0	0	0	0	0	0	0	0	0	0	0	0	0	0	0	0	0	0	0	0	0	0	0	0	0	0	0	0	0	0	0	0	0	0	0	0	0	0	0	0	0	0	0	0	0	0	0	0	0	0	0	0	0	0	0	0	0	0	0	0	2711	2733	2733	2711	2711	2711	2711	2690	2690	2669	2690	2690	2669	2669	2669	2669	2690	2690	2733	2754	2754	2754	2754	2754	2754	2754	2777	2777	2777	2799	2799	2799	2799	2799	2799	2799	2822	2822	2822	2822	0	0	0	0	0	0	0	0	0	0	0	0	0	0	0	0	0	0	0	0	0	0	0	0	0	0	0	0	0	0	0	0	0	0	0	0	0	0	0	0	0	6468	6349	6235	6235	6124	6124	6124	6124	6124	0	0	0	0	0	0	0	0	0	0	0	0	0	0	0	0	0	0	0	0	0	0	0	0	0	0	0	0	0	0	0	0	0	0	0	0	0	0	0	0	0	5364	5448	5364	5364	5202	5125	5050	5050	4977	4977	3998	3952	3998	3998	3952	3907	3907	3907	3907	3907	3907	3907	3952	3952	3952	3952	3952	3952	3952	3952	3998	3998	4045	3998	3998	3998	3998	3998	3952	3952	3952	3952	3952	3952	3952	3952	3952	3952	3952	3907	3907	3907	3907	3907	3952	3952	3952	3998	3998	3998	3998	8343	8550	8550	8550	8550	8550	8343	8343	8343	8343	8343	8343	8343	8550	8343	8343	8343	8343	8343	8343	8146	7959	6720	6720	6720	6592	6592	6468	6468	6468	6468	6468	6468	6592	6468	6468	6468	6468	6468	6468	6468	6468	6468	6468	6468	6468	6468	6468	6349	6349	6349	6349	8343	8343	8343	8343	8343	8146	7959	7959	8146	8146	8146	8146	8146	8343	8343	8343	8343	8146	8146	8146	8146	8146	8146	8146	8146	8146	8146	8146	8146	0	0	0	0	0	0	0	5448	5535	5448	5364	5448	5364	5282	5282	5125	5125	0	0	0	0	4045	4045	3998	3998	3998	4093	4142	4142	0	0	0	0	0	0	0	0	0	0	0	0	0	0	0	0	0	0	0	0	0	0	0	0	0	0	0	0	0	0	0	0	0	0	0	0	0	0	0	0	0	0	0	0	0	0	0	0	2312	2297	2281	2281	2297	2297	2297	2690	2711	2690	2711	2690	2690	2690	2690	2711	2711	2711	2711	2711	2690	2690	2376	2376	2376	2376	2359	2359	2343	2343	2343	2327	2297	2281	2281	2266	2252	2252	2237	2237	2223	2223	2223	2223	2223	2223	2223	2223	2223	2223	2223	2208	2194	2194	2181	2181	2181	2167	2167	2167	2153	2153	2153	2153	2140	2140	2140	2140	2140	2127	2127	2127	2140	2140	2127	2127	0	0	2140	2140	2140	2140	2140	2127	2127	2114	2114	0	0	0	0	0	0	0	0	0	0	0	0	0	0	0	0	0	0	0	0	0	0	0	0	0	0	0	0	0	0	0	0	0	0	0	0	0	0	0	0	0
0	0	0	0	0	0	0	0	0	0	0	1287	1287	1287	1287	1287	1287	1287	0	0	0	0	0	0	0	0	0	0	0	0	0	0	0	0	0	0	0	0	0	0	0	0	0	0	0	0	0	0	0	0	0	0	0	0	0	0	0	0	0	0	0	0	0	0	0	0	0	0	0	0	0	0	0	0	0	0	0	0	0	0	0	0	0	0	0	0	0	0	0	0	0	0	0	0	0	0	0	0	0	0	0	0	0	0	0	0	0	0	0	0	0	0	0	0	0	0	0	0	0	0	0	0	0	0	0	0	0	0	0	0	0	0	0	0	0	0	0	0	0	0	0	0	0	0	0	0	0	0	0	0	0	0	0	0	0	0	0	0	0	0	2690	2711	2711	2733	2733	2711	2711	2711	2690	2690	2690	2669	2669	2669	2669	2669	2669	2690	2690	2711	2733	2754	2754	2754	2754	2754	2754	2754	2754	2777	2777	2799	2799	2799	2799	2799	2799	2777	2799	2799	2822	2822	2822	0	0	0	0	0	0	0	0	0	0	0	0	0	0	0	0	0	0	0	0	0	0	0	0	0	0	0	0	0	0	0	0	0	0	0	0	0	0	0	0	6468	6235	6235	6124	6124	6124	6124	6124	6124	0	0	0	0	0	0	0	0	0	0	0	0	0	0	0	0	0	0	0	0	0	0	0	0	0	0	0	0	0	0	0	0	0	0	0	0	5364	5448	5448	5448	5364	5364	5364	5364	5364	5282	5202	5125	5050	4977	4977	4906	3952	3998	3952	3952	3907	3907	3907	3907	3907	3907	3907	3952	3952	3952	3952	3952	3952	3998	3952	3998	3998	4045	4045	4045	4045	4045	4045	3952	3952	3952	3952	3952	3952	3952	3952	3952	3952	3952	3907	3907	3907	3907	3907	3907	3952	3952	3952	3952	3998	3998	8343	8550	8550	8550	8550	8550	8550	8343	8550	8343	8343	8550	8343	8550	8343	8343	8343	8343	8343	8343	8146	7959	6720	6720	6720	6592	6592	6592	6468	6468	6592	6592	6592	6592	6592	6592	6468	6468	6468	6468	6468	6468	6468	6468	6468	6468	6468	6468	6349	6349	6349	6349	8343	8343	8343	8343	8343	8146	7959	8146	8146	8146	8146	8146	8146	8343	8343	8343	8146	8146	8146	8146	8146	8146	8146	8146	8146	8146	7959	7959	7959	0	0	0	0	0	0	0	0	5535	5448	5364	5448	5364	5364	5364	5364	5125	0	0	0	4093	4045	4142	4093	4093	4093	4093	4142	4142	4093	4093	4093	0	0	0	0	0	0	0	0	0	0	0	0	0	0	0	0	0	0	0	0	0	0	0	0	0	0	0	0	0	0	0	0	0	0	0	0	0	0	0	0	0	0	0	0	2312	2312	2297	2281	2297	2297	2297	2297	2281	2711	2690	2711	2690	2690	2690	2690	2711	2711	2711	2711	2690	2690	2690	2392	2392	2359	2359	2359	2343	2343	2343	2327	2312	2297	2281	2281	2266	2252	2252	2237	2237	2223	2223	2223	2223	2223	2223	2223	2223	2223	2223	2223	2208	2194	2194	2194	2181	2181	2167	2181	2167	2153	2140	2153	2140	2140	2127	2127	2127	2127	2127	2127	2127	2140	2140	0	0	0	0	0	2140	2140	2140	2140	2140	2127	2127	2114	0	0	0	0	0	0	0	0	0	0	0	0	0	0	0	0	0	0	0	0	0	0	0	0	0	0	0	0	0	0	0	0	0	0	0	0	0	0	0	0	0
0	0	0	0	0	0	0	0	0	0	0	1287	1287	1287	1287	1291	1291	1291	0	0	0	0	0	0	0	0	0	0	0	0	0	0	0	0	0	0	0	0	0	0	0	0	0	0	0	0	0	0	0	0	0	0	0	0	0	0	0	0	0	0	0	0	0	0	0	0	0	0	0	0	0	0	0	0	0	0	0	0	0	0	0	0	0	0	0	0	0	0	0	0	0	0	0	0	0	0	0	0	0	0	0	0	0	0	0	0	0	0	0	0	0	0	0	0	0	0	0	0	0	0	0	0	0	0	0	0	0	0	0	0	0	0	0	0	0	0	0	0	0	0	0	0	0	0	0	0	0	0	0	0	0	0	0	0	0	0	0	0	0	0	2690	2711	2711	2733	2733	2711	2711	2711	2690	2690	2690	2669	2669	2669	2690	2669	2669	2690	2690	2711	2754	2754	2754	2754	2754	2754	2754	2754	2754	2799	2777	2799	2799	2777	2777	2777	2777	2777	2777	2799	2822	2822	2845	2845	2845	0	0	0	0	0	0	0	0	0	0	0	0	0	0	0	0	0	0	0	0	0	0	0	0	0	0	0	0	0	0	0	0	0	4463	4463	0	0	0	0	6235	6124	6124	6124	6124	6124	6124	0	0	0	0	0	0	0	0	0	0	0	0	0	0	0	0	0	0	0	0	0	0	0	0	0	0	0	0	0	0	0	0	0	0	0	0	0	5364	5364	5364	5448	5364	5364	5364	5364	5364	5202	5125	5125	5050	4977	4977	4977	3907	3998	3952	3952	3907	3907	3907	3907	3907	3907	3907	3952	3952	3998	3952	3952	3952	3998	3952	3998	3998	3998	4045	4045	4045	4045	4045	3998	3952	3952	3952	3952	3952	3952	3952	3952	3952	3952	3952	3907	3907	3907	3907	3907	3952	3952	3952	3952	3952	3952	0	8550	8550	8550	8550	8550	8550	8343	8343	8343	8343	8343	8343	8343	8550	8343	8343	8343	8343	8343	8343	7959	6720	6720	6720	6592	6592	6592	6592	6592	6592	6592	6592	6592	6592	6592	6468	6468	6468	6468	6468	6468	6468	6468	6468	6468	6468	6349	6349	6235	6235	6235	8343	8343	8343	8343	8343	8146	8146	8146	8146	8146	8343	8343	8343	8343	8343	8343	8343	8146	8343	8343	8343	8343	8146	8146	8146	8146	8146	7959	8146	8146	0	0	0	0	0	0	0	0	0	0	0	5364	5364	5364	5364	0	0	0	0	4093	4045	4045	4142	4093	4142	4142	4192	4142	4093	4093	4093	4093	0	0	0	0	0	0	0	0	0	0	0	0	0	0	0	0	0	0	0	0	0	0	0	0	0	0	0	0	0	0	0	0	0	0	0	0	0	0	0	0	0	2343	2327	2327	2312	2312	2312	2297	2312	2312	2297	2281	2281	2690	2690	2690	2690	2690	2690	2711	2690	2690	2690	2669	2669	2669	2409	2409	2392	2376	2343	2343	2327	2327	2327	2312	2297	2281	2266	2266	2252	2266	2252	2237	2237	2223	2223	2223	2223	2223	2223	2223	2237	2237	2223	2223	2194	2208	2208	0	0	0	2181	2167	2153	2140	2153	2140	2140	2140	2140	2140	2127	2114	2114	2127	0	0	0	0	0	0	0	2140	2140	2140	2140	2140	2127	2127	0	0	0	0	0	0	0	0	0	0	0	0	0	0	0	0	0	0	0	0	0	0	0	0	0	0	0	0	0	0	0	0	0	0	0	0	0	0	0	0	0	0
0	0	0	0	0	0	0	0	0	0	0	1291	1291	1291	1291	1296	1291	1291	0	0	0	0	0	0	0	0	0	0	0	0	0	0	0	0	0	0	0	0	0	0	0	0	0	0	0	0	0	0	0	0	0	0	0	0	0	0	0	0	0	0	0	0	0	0	0	0	0	0	0	0	0	0	0	0	0	0	0	0	0	0	0	0	0	0	0	0	0	0	0	0	0	0	0	0	0	0	0	0	0	0	0	0	0	0	0	0	0	0	0	0	0	0	0	0	0	0	0	0	0	0	0	0	0	0	0	0	0	0	0	0	0	0	0	0	0	0	0	0	0	0	0	0	0	0	0	0	0	0	0	0	0	0	0	0	0	0	0	0	0	0	2711	2711	2711	2711	2711	2711	2690	2690	2690	2690	2690	2690	2690	2690	2690	2690	2690	2690	2690	2711	2754	2754	2733	2733	2733	2733	2733	2733	2733	2777	2777	2777	2799	2799	2777	2777	2777	2777	2777	2799	2822	2822	2845	2845	2845	0	0	0	0	0	0	0	0	0	0	0	0	0	0	0	0	0	0	0	0	0	0	0	0	0	0	0	0	0	0	0	0	4463	4463	4463	4463	0	0	0	6235	6124	6124	6124	6124	6124	6124	0	0	0	0	0	0	0	0	0	0	0	0	0	0	0	0	0	0	0	0	0	0	0	0	0	0	0	0	0	0	0	0	0	0	0	0	0	0	5364	5364	5364	5364	5282	5282	5282	5282	5202	5125	5050	5050	4977	4977	4977	3998	3998	3998	3998	3952	3907	3907	3907	3907	3952	3907	3998	3998	3998	3952	3952	3952	3998	3952	3998	3998	3998	3998	4045	3998	4045	4045	3998	3952	3952	3952	3952	3952	3952	3952	3952	3952	3952	3907	3907	3907	3907	3907	3907	3907	3952	3952	3952	3952	3952	8343	8343	8550	8343	8343	8343	8343	8343	8343	8343	8343	8343	8343	8343	8146	8343	8343	8343	8343	8343	8343	8343	6592	6592	6592	6592	6592	6592	6592	6592	6592	6592	6592	6592	6592	6592	6468	6468	6468	6468	6468	6468	6468	6468	6468	6468	6468	6349	6349	6235	6235	6235	8550	8343	8550	8343	8343	8146	8146	8146	8146	8146	8343	8343	8343	8343	8343	8343	8343	8146	8146	8146	8343	8146	8146	8146	8146	8146	7959	7959	7959	7959	7959	7959	0	0	0	0	0	0	0	0	0	5364	5364	5364	5364	0	0	0	0	4093	4045	4045	4142	4142	4142	4192	4192	4192	4142	4142	4142	4093	0	0	0	0	0	0	0	0	0	0	0	0	0	0	0	0	0	0	0	0	0	0	0	0	0	0	0	0	0	0	0	0	0	0	0	0	0	0	0	0	0	2343	2327	2312	2312	2312	2312	2312	2312	2312	2297	2281	2281	2266	2266	2690	2690	2690	2690	2711	2690	2690	2690	2669	2669	2669	2409	2409	2392	2359	2343	2343	2327	2327	2327	2312	2297	2297	2281	2281	2266	2281	2266	2237	2223	2223	2223	2223	2223	2223	2223	2223	2237	2237	2223	2223	0	2208	2208	0	0	0	0	0	0	0	2127	2127	2140	2140	2140	2140	2140	2140	2114	0	0	0	0	0	0	0	0	0	0	0	0	0	0	0	0	0	0	0	0	0	0	0	0	0	0	0	0	0	0	0	0	0	0	0	0	0	0	0	0	0	0	0	0	0	0	0	0	0	0	0	0	0	0	0	0	0
0	0	0	0	0	0	0	0	0	0	0	1291	1291	1291	1291	1291	1291	1291	0	0	0	0	0	0	0	0	0	0	0	0	0	0	0	0	0	0	0	0	0	0	0	0	0	0	0	0	0	0	0	0	0	0	0	0	0	0	0	0	0	0	0	0	0	0	0	0	0	0	0	0	0	0	0	0	0	0	0	0	0	0	0	0	0	0	0	0	0	0	0	0	0	0	0	0	0	0	0	0	0	0	0	0	0	0	0	0	0	0	0	0	0	0	0	0	0	0	0	0	0	0	0	0	0	0	0	0	0	0	0	0	0	0	0	0	0	0	0	0	0	0	0	0	0	0	0	0	0	0	0	0	0	0	0	0	0	0	0	0	0	2733	2711	2711	2690	2711	2711	2711	2690	2690	2690	2690	2690	2690	2690	2690	2690	2690	2690	2690	2711	2733	2754	2754	2733	2733	2733	2733	2733	2733	2754	2777	2777	2777	2777	2777	2777	2777	2777	2777	2777	2777	2777	2822	2845	2845	2845	2845	0	0	0	0	0	0	0	0	0	0	0	0	0	0	0	0	0	0	0	0	0	0	0	0	0	0	0	4045	4045	0	0	4406	4406	4406	4406	0	0	0	0	6124	6124	6124	6124	6124	0	0	0	0	0	0	0	0	0	0	0	0	0	0	0	0	0	0	0	0	0	0	0	0	0	0	0	0	0	0	0	0	0	0	0	0	0	0	5364	5202	5202	5202	5202	5282	5282	5282	5282	5125	5125	5125	5050	5050	4977	5050	4045	4045	3998	3998	3952	3907	3907	3907	3907	3952	3952	3998	3998	3998	3998	3998	3998	3952	3998	3998	3998	3998	3998	4045	4045	3998	4045	3998	3998	3952	3952	3952	3952	3952	3952	3952	3952	3952	3907	3907	3907	3907	3907	3907	3907	3952	3952	3952	3952	3952	8343	8550	8550	8550	8343	8343	8343	8146	8343	8146	8146	8146	8146	8343	8146	8343	8343	8343	8343	8343	8343	8343	6720	6468	6468	6592	6592	6592	6592	6592	6592	6592	6592	6592	6468	6468	6468	6468	6468	6468	6468	6468	6468	6468	6468	6592	6592	6468	6349	6235	6235	6235	8550	8343	8343	8343	8343	8343	8146	8146	8146	8343	8343	8343	8343	8343	8343	8343	8343	8146	8146	8146	8343	8343	8146	8146	8146	8146	7959	7959	7959	7959	7959	7959	0	0	0	0	0	0	0	0	0	5364	5364	5364	5364	5364	0	0	0	0	4045	4045	4142	4192	4192	4192	4243	4243	4243	4192	4243	4243	0	0	0	0	0	0	0	0	0	0	0	0	0	0	0	0	0	0	0	0	0	0	0	0	0	0	0	0	0	0	0	0	0	0	0	0	0	0	0	0	0	2343	2312	2312	2297	2297	2297	2312	2312	2312	2312	2281	2281	2266	2266	2669	2690	2690	2669	2711	2690	2690	2690	2669	2669	0	0	2392	2359	2359	2343	2327	2327	2327	2327	2312	2297	2297	2281	2266	2266	2266	2281	2237	2237	2223	2223	2223	2223	2223	2223	0	0	0	0	0	0	0	0	0	0	0	0	0	0	0	2127	2127	2140	2140	2140	2140	2140	2140	0	0	0	0	0	0	0	0	0	0	0	0	0	0	0	0	0	0	0	0	0	0	0	0	0	0	0	0	0	0	0	0	0	0	0	0	0	0	0	0	0	0	0	0	0	0	0	0	0	0	0	0	0	0	0	0	0	0
0	0	0	0	0	0	0	0	0	0	0	1291	1291	1291	1291	1291	1291	1282	1282	0	0	0	0	0	0	0	0	0	0	0	0	0	0	0	0	0	0	0	0	0	0	0	0	0	0	0	0	0	0	0	0	0	0	0	0	0	0	0	0	0	0	0	0	0	0	0	0	0	0	0	0	0	0	0	0	0	0	0	0	0	0	0	0	0	0	0	0	0	0	0	0	0	0	0	0	0	0	0	0	0	0	0	0	0	0	0	0	0	0	0	0	0	0	0	0	0	0	0	0	0	0	0	0	0	0	0	0	0	0	0	0	0	0	0	0	0	0	0	0	0	0	0	0	0	0	0	0	0	0	0	0	0	0	0	0	0	0	0	0	2733	2711	2711	2690	2690	2690	2690	2690	2690	2690	2690	2690	2690	2690	2690	2690	2690	2711	2690	2711	2733	2733	2733	2733	2733	2733	2733	2754	2754	2754	2777	2777	2777	2777	2777	2777	2777	2777	2777	2777	2799	2822	2822	2822	2845	2822	2822	2845	2845	0	0	0	0	0	0	0	0	0	0	0	0	0	0	0	0	0	0	0	0	0	0	0	0	4045	4045	4045	4296	4296	4406	4406	4406	4406	0	0	0	0	6235	6235	6235	6235	6124	0	0	0	0	0	0	0	0	0	0	0	0	0	0	0	0	0	0	0	0	0	0	0	0	0	0	0	0	0	0	0	0	0	0	0	0	0	0	5364	5364	5282	5282	5282	5202	5202	5282	5282	5202	5125	5125	5050	5050	5050	4045	4045	4045	4045	3998	3952	3952	3952	3952	3952	3952	3952	3998	3998	3998	3952	3952	3952	3952	3952	3998	3998	3998	3998	3998	3998	3998	3998	3998	3998	3952	3952	3952	3952	3952	3952	3952	3952	3952	3952	3952	3952	3907	3907	3907	3907	3907	3952	3952	3952	3952	8550	8550	8550	8550	8343	8343	8343	8343	8343	8146	8146	8146	8146	8343	8146	8343	8343	8343	8343	8343	8343	8343	6468	6592	6592	6592	6592	6592	6592	6592	6592	6592	6592	6592	6468	6468	6468	6468	6468	6468	6468	6468	6468	6468	6468	6592	6592	6592	6592	6592	6235	6235	8550	8343	8343	8343	8343	8343	8343	8146	8146	8343	8343	8343	8343	8343	8343	8343	8343	8343	8343	8343	8343	8343	8343	8146	8343	8146	7959	7959	7959	7959	7959	7779	7779	7779	0	0	0	0	0	0	0	5364	5364	5448	5364	5364	0	0	0	0	0	0	4142	4243	4192	4243	4296	4296	4296	4243	4406	4406	4406	0	0	0	0	0	0	0	0	0	0	0	0	0	0	0	0	0	0	0	0	0	0	0	0	0	0	0	0	0	0	0	0	0	0	0	0	0	0	0	0	2343	2312	2312	2297	2297	2297	2297	2312	2297	2297	2281	2281	2281	2281	2281	2690	2669	2669	2690	2223	2223	2711	2711	2669	0	0	2376	2359	2343	2343	2327	2327	2327	2327	2327	2312	2297	2281	2281	2266	2266	2281	2281	2237	2223	2223	2223	2223	0	0	0	0	0	0	0	0	0	0	0	0	0	0	0	0	0	0	0	0	0	0	0	0	0	0	0	0	0	0	0	0	0	0	0	0	0	0	0	0	0	0	0	0	0	0	0	0	0	0	0	0	0	0	0	0	0	0	0	0	0	0	0	0	0	0	0	0	0	0	0	0	0	0	0	0	0	0	0	0	0	0	0
0	0	0	0	0	0	0	0	0	0	0	1291	1291	1291	1291	1296	1282	1282	1282	0	0	0	0	0	0	0	0	0	0	0	0	0	0	0	0	0	0	0	0	0	0	0	0	0	0	0	0	0	0	0	0	0	0	0	0	0	0	0	0	0	0	0	0	0	0	0	0	0	0	0	0	0	0	0	0	0	0	0	0	0	0	0	0	0	0	0	0	0	0	0	0	0	0	0	0	0	0	0	0	0	0	0	0	0	0	0	0	0	0	0	0	0	0	0	0	0	0	0	0	0	0	0	0	0	0	0	0	0	0	0	0	0	0	0	0	0	0	0	0	0	0	0	0	0	0	0	0	0	0	0	0	0	0	0	0	0	0	0	0	0	2711	2690	2690	2690	2690	2690	2690	2690	2690	2690	2690	2690	2690	2690	2690	2690	2711	2711	2711	2711	2733	2733	2733	2733	2733	2733	2754	2754	2754	2777	2777	2777	2777	2777	2777	2777	2777	2777	2777	2799	2799	2822	2822	2845	2845	2845	2845	2845	0	0	0	0	0	0	0	0	0	0	0	0	0	0	0	0	0	0	0	0	0	0	0	0	4093	4093	4296	4350	4406	4406	4406	4463	4463	0	0	0	0	6235	6349	6349	6235	0	0	0	0	0	0	0	0	0	0	0	0	0	0	0	0	0	0	0	0	0	0	0	0	0	0	0	0	0	0	0	0	0	0	0	0	0	0	0	5364	5364	5282	5282	5282	5202	5202	5282	5282	5202	5125	5125	5050	5050	5050	5050	3998	4045	4045	3998	3952	3952	3952	3952	3952	3952	3952	3952	3998	3998	3952	3952	3952	3952	3952	3952	3952	3952	3998	3998	3998	3998	3998	3998	3998	3952	3952	3952	3952	3952	3952	3952	3952	3952	3952	3952	3952	3907	3907	3907	3907	3907	3907	3952	3952	0	8550	8550	8550	8343	8343	8343	8343	8343	8343	8146	8146	8146	8146	8146	8146	8146	8146	8146	8146	8343	8343	8343	8343	6349	6592	6592	6592	6592	6592	6468	6468	6592	6468	6468	6468	6468	6468	6468	6468	6468	6468	6468	6592	6592	6592	6592	6592	6592	6592	6592	6592	6592	8550	8343	8343	8343	8343	8343	8343	8343	8343	8343	8343	8343	8343	8343	8343	8343	8343	8343	8343	8343	8343	8343	8343	8343	8146	8146	7959	7959	7959	7779	7959	7779	7779	7779	7779	0	0	0	0	0	0	0	5364	5364	5364	5364	0	0	0	0	0	0	0	4243	4243	4296	4350	4296	4296	4296	4463	4463	4350	4350	4350	4350	0	0	0	0	0	0	0	0	0	0	0	0	0	0	0	0	0	0	0	0	0	0	0	0	0	0	0	0	0	0	0	0	0	0	0	0	0	0	2327	2312	2312	2312	2312	2312	2327	2312	2312	2297	2297	2297	2281	2266	2237	2669	2669	2711	2208	2208	2711	2711	0	0	0	2359	2343	2343	2327	2327	2327	2327	2327	2327	2312	2297	2281	2281	2266	2266	2281	2281	0	0	0	0	0	0	0	0	0	0	0	0	0	0	0	0	0	0	0	0	0	0	0	0	0	0	0	0	0	0	0	0	0	0	0	0	0	0	0	0	0	0	0	0	0	0	0	0	0	0	0	0	0	0	0	0	0	0	0	0	0	0	0	0	0	0	0	0	0	0	0	0	0	0	0	0	0	0	0	0	0	0	0	0	0	0	0	0
