0	0	0	0	806	806	808	810	814	814	819	819	839	839	839	839	839	839	841	843	843	843	850	852	854	856	856	858	860	865	867	871	873	873	882	882	884	894	896	896	901	901	908	908	917	922	925	927	930	932	935	935	942	945	950	953	955	955	961	972	972	972	980	983	985	991	997	1003	1003	1006	1008	1014	1014	1020	1023	1030	1033	1033	1042	1048	1052	1055	1061	1061	1088	1088	1095	1095	1095	1095	1095	1095	1095	1095	1095	1098	1098	0	0	0	0	0	0	0	0	0	4977	4906	4906	4977	4906	4906	4906	4838	4838	4838	4838	4838	4838	4838	4838	4838	4838	4838	4838	4838	4838	4838	4838	4838	4838	4771	4771	4771	4771	4771	4771	4771	4706	4706	4706	4706	4643	4706	4643	4643	4643	4643	4643	4706	4706	4706	4706	4706	4706	4706	4771	4771	4706	4706	4771	4771	4771	4771	4771	4771	6235	6235	6235	6349	6349	6468	6468	6349	6468	6349	6349	6349	6349	6349	4977	5050	5125	5125	5125	5125	5202	5125	5202	5202	5202	5125	5125	5125	5125	5125	5125	5202	5202	5202	5282	5282	5282	5282	5282	5282	5282	5282	5364	5364	5364	5364	5364	0	0	0	0	0	0	0	8146	8146	7959	7959	7959	8146	8146	8146	8146	8146	8146	8146	8146	8146	8146	8146	8146	8146	8146	8146	8146	8146	7959	7959	7959	8343	8146	8146	8146	8146	8343	8343	8343	8343	8343	8343	8343	8343	8343	8343	8343	8343	8343	8343	8343	8343	8343	8343	8146	8146	8343	8343	8343	0	0	0	0	0	0	0	0	0	0	0	0	0	3341	3373	3373	3373	3373	3373	3373	3406	3373	3373	3373	3373	3373	3406	3406	3406	3406	3406	3406	3406	3406	3406	3406	3406	3406	3406	3406	3406	3406	3406	3406	3406	3406	3406	3373	3373	3373	3373	3373	3373	3373	3373	3373	3373	3373	3341	3341	3341	3341	3341	3341	3341	3373	3341	3341	3341	3341	4706	4643	4643	4643	4581	4643	4643	4643	4643	4643	4581	4643	4581	4581	4581	4521	4521	4581	4581	4581	4521	4521	4521	4521	4581	4521	4521	4521	4581	4581	4581	4581	4581	4581	4581	4581	4581	4581	4581	4581	4581	4581	4581	4581	4581	4581	4581	4706	4706	4706	4706	4706	4706	4706	4643	4706	4706	4706	4706	4706	4706	4706	4706	4643	4643	4643	4643	4643	4581	4581	4581	4521	4581	4521	4521	4521	4521	4463	4463	4463	4463	4521	4521	4521	4581	4581	4581	4581	4581	4521	4463	4463	4463	4406	4406	4463	4521	4521	4521	4581	4581	4581	4581	4581	4581	4581	4581	4581	4581	4581	4581	4581	4581	4581	4581	4581	4581	4581	4581	4521	4521	4581	4643	4643	4643	4643	4643	4643	4643	4643	4643	4581	4581	4581	4521	4521	4521	4581	4581	4581	4581	4581	4581	4643	4581	4643	4643	4643	4643	4643	4643	4643	4581	4521	4521	4463	4463	4463	4406	4406	4350	4406	4406	4406	4350	4350	4350	4350	4350	4406	4406	4463	4521	4581	4643	4643	4643	4643	4643	4706	7608	7608	7608	7779	7779	7779	7779	7779	7779	7779	7779	7779	7779	7779	7779	7959	7959	7959	7779	7779	7779	7608	7779	7608	7608	7287	7287	0	0	0	0	0	0	0	0	0	0	0	0	0	0	0	5125	5125	5125	5050	5050	5050	5050	5050	5125	5125	5125	5125	5050	5050	5050	5050	5050	5050	5050	4977	4977	4977	4977	4977	4977	4977	4977	4977	4977	4977	4977	4977	5050	5125	5202	5202	5202	5535	5448	5448	5364	5364	5364	0	0	0	0	0	0	0	0	0	0	0	0	0	0	0	0	0	0	0	0	0	0	0	0	0	0	0	0	0	0	0	0
0	0	0	0	806	808	808	812	815	815	819	821	821	823	823	839	839	839	841	841	843	848	852	852	856	858	858	860	862	865	867	869	873	878	882	880	882	896	896	898	901	901	910	915	917	920	925	927	930	932	935	935	940	945	948	953	955	958	961	972	972	972	977	983	988	991	994	1000	1003	1003	1008	1014	1017	1017	1023	1030	1033	1033	1042	1048	1052	1055	1061	1061	1068	1091	1095	1095	1095	1095	1095	1095	1095	1095	1095	1098	1095	1095	0	0	0	0	0	0	0	0	4977	4977	4977	5050	4977	4906	4906	4906	4838	4838	4838	4838	4838	4838	4838	4838	4838	4838	4838	4838	4838	4838	4838	4838	4838	4771	4771	4771	4771	4771	4771	4771	4706	4706	4706	4706	4706	4643	4643	4643	4706	4643	4643	4643	4706	4706	4706	4706	4706	4706	4771	4771	4771	4771	4771	4771	4771	4771	4771	4838	4838	6235	6349	6349	6349	6468	6468	6468	6468	6468	6349	6349	4977	4977	4977	5050	5202	5202	5125	5125	5202	5202	5125	5202	5125	5125	5125	5125	5125	5125	5125	5125	5202	5202	5202	5282	5282	5282	5364	5282	5282	5364	5364	5448	5448	5364	5282	5282	0	0	0	0	0	0	7959	7959	7959	7959	7959	8146	8146	8146	8146	8146	8146	8146	8146	8146	8146	8146	8146	8146	8146	8146	8146	8146	7959	7959	7959	8343	8146	8146	8146	8343	8343	8343	8343	8343	8343	8343	8343	8343	8343	8343	8343	8343	8343	8343	8343	8343	8343	8343	8343	8146	0	0	0	0	0	0	0	0	0	0	0	0	0	0	0	0	3373	3373	3373	3373	3373	3373	3373	3406	3406	3406	3406	3406	3406	3406	3406	3406	3406	3406	3406	3406	3406	3406	3406	3406	3406	3406	3406	3406	3406	3406	3440	3406	3406	3406	3406	3373	3373	3373	3373	3373	3373	3373	3373	3373	3373	3341	3341	3341	3341	3341	3341	3341	3373	3373	3373	3341	3341	4706	4643	4643	4581	4581	4581	4643	4643	4643	4643	4581	4581	4581	4581	4581	4581	4521	4581	4581	4581	4350	4350	4350	4350	4521	4521	4521	4581	4581	4581	4581	4581	4581	4581	4581	4581	4581	4581	4581	4581	4581	4581	4581	4581	4581	4643	4643	4706	4706	4706	4706	4706	4706	4706	4643	4706	4706	4706	4706	4706	4706	4706	4706	4706	4643	4643	4643	4581	4581	4581	4521	4463	4463	4463	4463	4463	4463	4463	4463	4463	4463	4463	4463	4521	4521	4581	4581	4581	4581	4581	4521	4463	4463	4406	4406	4463	4463	4521	4521	4581	4581	4581	4581	4581	4581	4581	4581	4581	4581	4581	4581	4581	4581	4581	4581	4581	4581	4581	4581	4521	4521	4581	4643	4643	4643	4643	4643	4643	4643	4643	4581	4581	4581	4581	4581	4521	4521	4581	4581	4581	4581	4581	4581	4581	4581	4581	4643	4581	4643	4643	4643	4581	4581	4521	4521	4463	4463	4463	4406	4406	4406	4406	4406	4406	4406	4350	4350	4350	4406	4463	4463	4521	4581	4581	4643	4643	4643	4706	4706	4706	4706	7608	7608	7779	7779	7779	7779	7779	7779	7959	7779	7779	7779	7779	7779	7959	7959	7959	7959	7779	7779	7779	7779	7779	7608	7608	7287	0	0	0	0	0	0	0	0	0	0	0	0	0	0	0	5125	5125	5125	5125	5050	5050	5050	5050	5050	5050	5050	5125	5050	5050	5050	5050	5050	5050	4977	4977	4977	4977	4977	4977	4977	4977	4977	4906	4906	4906	4977	4977	4977	5050	5050	5125	5050	5050	5364	5448	5364	5364	5364	0	0	0	0	0	0	0	0	0	0	0	0	0	0	0	0	0	0	0	0	0	0	0	0	0	0	0	0	0	0	0	0
0	0	0	0	806	808	810	810	814	817	819	821	821	823	823	823	839	839	841	841	843	848	848	852	856	858	860	860	862	865	867	869	873	875	882	882	887	894	896	898	901	901	908	915	915	920	920	925	930	930	932	935	940	942	948	955	958	961	961	963	963	972	980	985	988	991	994	1000	1003	1003	1006	1011	1017	1017	1023	1030	1036	1036	1042	1048	1055	1058	1061	1064	1068	1078	1085	1091	1095	1095	1095	1095	1095	1095	1095	1098	1098	1098	1095	1095	1095	0	0	0	0	0	0	4977	4977	4906	4906	4906	4906	4838	4906	4838	4838	4838	4838	4838	4838	4838	4838	4838	4838	4838	4838	4838	4838	4838	4838	4771	4706	4706	4771	4771	4838	4771	4771	4771	4771	4706	4706	4643	4643	4643	4706	4643	4643	4643	4706	4643	4706	4706	4706	4706	4771	4771	4771	4771	4771	4771	4838	4838	4838	4838	4906	4977	4906	4906	6468	6468	6468	6349	6468	6349	5125	5125	5125	5050	5050	5202	5202	5125	5125	5125	5125	5125	5125	5125	5125	5125	5125	5125	5125	5125	5202	5202	5202	5282	5282	5282	5282	5282	5282	5282	5282	5282	5282	5364	5364	5364	5364	5282	0	0	0	0	0	0	7959	7959	7959	7959	7959	8146	8146	8146	8146	8146	8146	8146	8146	8146	8146	8146	8146	8146	8146	8146	8146	7959	7959	7959	7959	8343	8146	8146	8146	8146	8343	8343	8343	8343	8343	8343	8343	8343	8343	8343	8550	8343	8343	8343	8343	8343	8343	8343	8343	0	0	0	0	0	0	0	0	0	0	0	0	0	0	0	0	0	3406	3373	3373	3406	3406	3373	3373	3406	3406	3406	3406	3406	3406	3406	3406	3406	3406	3406	3406	3406	3406	3406	3406	3406	3406	3406	3440	3406	3406	3406	3440	3406	3406	3406	3406	3373	3373	3373	3373	3373	3373	3373	3373	3373	3373	3341	3341	3341	3341	3341	3341	3341	3373	3373	3373	3341	3341	4706	4771	4643	4581	4581	4643	4643	4643	4643	4643	4581	4581	4581	4581	4581	4581	4581	4581	4581	4581	4521	4350	4350	4463	4463	4521	4521	4581	4581	4581	4581	4581	4581	4581	4581	4581	4581	4581	4581	4581	4581	4581	4581	4581	4581	4643	4643	4706	4706	4706	4706	4706	4643	4706	4643	4706	4706	4706	4706	4706	4706	4706	4643	4643	4643	4643	4581	4581	4581	4521	4521	4463	4463	4463	4463	4463	4463	4463	4463	4463	4406	4463	4463	4463	4521	4521	4581	4581	4643	4521	4463	4463	4463	4406	4406	4406	4463	4463	4521	4581	4581	4581	4581	4581	4581	4581	4581	4581	4581	4581	4581	4581	4581	4581	4581	4521	4581	4581	4581	4521	4581	4581	4643	4643	4643	4643	4643	4643	4643	4643	4581	4521	4521	4521	4521	4521	4581	4581	4581	4581	4581	4581	4581	4581	4581	4581	4581	4581	4643	4643	4581	4581	4581	4521	4521	4463	4463	4406	4406	4406	4406	4406	4406	4463	4406	4406	4406	4406	4406	4406	4406	4521	4581	4581	4581	4643	4643	4643	4706	4706	4706	7608	7608	7959	7779	7779	7959	7779	7779	7959	7779	7779	7959	7959	7959	7959	7959	7959	7959	7959	7959	7959	7959	7959	7959	7608	0	0	0	0	0	0	0	0	0	0	0	0	0	0	0	0	5125	5125	5125	5050	5050	5050	5050	5050	5050	5050	5125	5125	5050	5050	5050	5050	5050	5050	4977	4977	4977	4977	4977	4977	4977	4977	4906	4906	4906	4906	4906	4977	4977	4977	5050	5050	5050	5125	5202	5364	5282	5282	5282	0	0	0	0	0	0	0	0	0	0	0	0	0	0	0	0	0	0	0	0	0	0	0	0	0	0	0	0	0	0	0	0
0	0	0	0	0	0	814	814	815	817	817	819	819	821	823	823	837	837	839	841	843	845	845	852	854	858	860	862	862	865	867	871	873	882	882	882	887	894	894	898	901	901	910	913	915	917	922	925	927	930	930	930	935	945	945	955	958	958	961	963	966	972	983	988	988	991	994	997	1000	1003	1006	1011	1017	1020	1026	1033	1036	1036	1042	1048	1055	1058	1061	1068	1068	1074	1081	1085	1095	1095	1095	1095	1095	1098	1098	1098	1098	1098	1095	1095	1095	0	0	0	0	0	0	0	0	4906	4906	4906	4838	4838	4838	4838	4838	4838	4838	4838	4838	4838	4838	4838	4838	4838	4838	4771	4771	4771	4771	4771	4706	4838	4838	4838	4838	4771	4771	4771	4771	4771	4706	4706	4706	4706	4706	4643	4643	4643	4643	4643	4643	4643	4643	4771	4771	4771	4771	4771	4771	4771	4838	4838	4906	4906	4977	4977	4977	4906	4906	6592	6468	6349	4977	5050	5125	5125	5125	5125	5125	5125	5125	5125	5125	5125	5125	5125	5125	5125	5125	5125	5125	5125	5202	5202	5202	5202	5202	5282	5202	5282	5282	5282	5282	5282	5282	5282	5282	5282	5364	5364	5282	5282	0	0	0	0	0	0	0	7779	7779	7779	7959	8146	8146	8146	8146	8146	8146	8146	8146	8146	8146	8146	8146	8146	8146	8146	8146	7959	7959	7959	7959	8146	8146	8146	8146	8146	8343	8343	8343	8343	8343	8343	8343	8146	8343	8343	8343	8550	8550	8550	8550	8343	8343	8343	8343	0	0	0	0	0	0	0	0	0	0	0	0	0	0	0	0	0	3406	3406	3406	3406	3406	3406	3373	3373	3373	3406	3406	3406	3406	3406	3406	3406	3406	3406	3406	3406	3406	3406	3406	3406	3406	3406	3440	3406	3406	3406	3440	3406	3406	3406	3406	3406	3406	3406	3406	3406	3373	3373	3373	3373	3373	3341	3341	3341	3341	3341	3341	3341	3341	3341	3341	3341	4771	4706	4771	4643	4643	4581	4643	4643	4643	4643	4643	4643	4643	4643	4581	4581	4581	4581	4581	4521	4463	4463	4350	4350	4406	4463	4521	4521	4581	4581	4581	4581	4581	4581	4581	4581	4581	4581	4581	4581	4643	4643	4581	4581	4581	4581	4643	4643	4706	4706	4706	4706	4706	4643	4706	4643	4706	4706	4706	4706	4706	4706	4643	4643	4643	4643	4581	4581	4581	4581	4581	4521	4521	4521	4463	4463	4463	4463	4463	4463	4406	4406	4406	4406	4463	4463	4521	4521	4521	4581	4521	4463	4463	4406	4406	4406	4406	4463	4463	4521	4521	4581	4581	4581	4581	4581	4581	4581	4581	4581	4581	4581	4581	4581	4581	4581	4581	4581	4581	4581	4581	4581	4643	4643	4643	4706	4643	4643	4643	4643	4581	4581	4581	4581	4581	4581	4581	4581	4581	4581	4581	4581	4581	4581	4581	4581	4581	4581	4581	4581	4581	4581	4581	4581	4521	4463	4463	4463	4406	4406	4406	4406	4406	4463	4463	4463	4406	4406	4406	4406	4406	4463	4463	4521	4581	4581	4581	4643	4643	4706	4706	7608	7608	7608	7959	7959	7959	7959	7959	7959	7959	7959	7959	7959	7959	7959	7779	7959	7959	7959	7959	7959	8146	7959	7959	7779	7779	0	0	0	0	0	0	0	0	0	0	0	0	0	0	0	0	5050	5125	5050	5050	5050	5050	5050	5050	5050	5050	5050	5050	5050	5050	5050	5050	5050	5050	4977	4977	4977	4977	4977	4906	4906	4906	4906	4906	4906	4906	4906	4906	4977	4977	5050	5050	5050	5125	5125	5202	5202	5202	5202	0	0	0	0	0	0	0	0	0	0	0	0	0	0	0	0	0	0	0	0	0	0	0	0	0	0	0	0	0	0	0	0
0	0	0	0	0	0	814	814	815	815	817	819	821	821	823	823	833	833	837	837	841	845	848	852	854	856	856	860	862	867	869	871	873	875	882	882	887	894	896	898	901	903	903	915	915	917	920	922	925	925	930	932	937	945	950	950	958	958	961	963	966	972	972	983	988	991	994	997	1000	1003	1003	1017	1023	1023	1030	1033	1036	1036	1042	1048	1055	1055	1061	1064	1064	1068	1074	1085	1088	1095	1095	1098	1095	1098	1098	1098	1095	1095	1095	1095	1095	1095	0	0	0	0	0	0	0	4906	4771	4771	4771	4771	4771	4838	4838	4838	4838	4838	4838	4838	4838	4838	4838	4771	4771	4771	4771	4771	4771	4771	4706	4838	4838	4838	4838	4838	4771	4838	4771	4771	4771	4771	4771	4771	4771	4706	4706	4706	4706	4643	4643	4643	4706	4838	4838	4838	4838	4838	4771	4771	4838	4906	4906	4906	4977	5050	4977	4906	4977	4977	4977	4977	4977	5050	5202	5202	5202	5125	5125	5125	5125	5125	5125	5050	5050	5050	5050	5125	5125	5125	5202	5202	5202	5202	5202	5202	5202	5202	5202	5202	5282	5282	5282	5282	5282	5282	5282	5364	5364	5282	5282	5282	0	0	0	0	0	0	0	7608	7608	7779	7959	8146	8146	8146	8146	8146	8146	8146	8146	8146	8146	8146	8146	8146	8146	8146	7779	7779	7779	7779	7959	8146	8343	8146	8146	8146	8343	8343	8343	8343	8343	8343	8146	8146	8146	8343	8343	8343	8343	8343	8550	8343	8343	8343	8343	0	0	0	0	0	0	0	0	0	0	0	0	0	0	0	0	0	3440	3440	3406	3406	3406	3373	3373	3373	3373	3373	3373	3373	3373	3373	3406	3373	3406	3373	3406	3373	3406	3406	3406	3406	3406	3440	3440	3406	3406	3406	3406	3406	3406	3406	3406	3406	3406	3406	3373	3406	3373	3373	3373	3373	3341	3341	3341	3341	3341	3341	3341	3341	3373	3373	3373	4771	4771	4706	4706	4706	4643	4643	4706	4706	4706	4706	4643	4643	4643	4643	4581	4581	4581	4581	4521	4521	4463	4463	4406	4350	4463	4463	4521	4521	4581	4581	4581	4581	4581	4581	4581	4581	4581	4581	4581	4581	4581	4581	4581	4581	4643	4643	4643	4643	4706	4706	4706	4706	4706	4643	4643	4643	4706	4706	4706	4706	4706	4706	4643	4643	4643	4643	4643	4581	4581	4581	4581	4521	4463	4463	4463	4463	4463	4463	4406	4406	4406	4406	4406	4406	4463	4463	4463	4463	4463	4463	4463	4463	4406	4406	4406	4406	4406	4406	4463	4521	4581	4581	4581	4581	4581	4581	4581	4521	4581	4521	4463	4521	4521	4581	4581	4581	4581	4581	4581	4581	4581	4581	4643	4643	4643	4643	4643	4643	4643	4643	4581	4581	4581	4581	4581	4581	4581	4581	4643	4643	4643	4581	4581	4581	4581	4581	4581	4581	4581	4581	4581	4581	4581	4521	4463	4463	4463	4406	4406	4406	4406	4406	4406	4463	4463	4463	4463	4463	4406	4463	4463	4463	4521	4521	4581	4581	4581	4581	4581	4581	4706	7608	7779	7779	7779	7779	7779	7779	7779	7959	7959	7959	7959	7959	7959	7959	7959	7959	7959	7959	7959	7959	8146	8146	8146	7959	7959	0	0	0	0	0	0	0	0	0	0	0	0	0	0	0	5050	5050	5050	5050	5050	5050	5050	5050	4977	4977	5050	5050	5050	5050	5050	5050	5050	5050	5050	4977	4977	4977	4977	4906	4906	4906	4906	4838	4838	4838	4838	4838	4906	4906	4906	4906	4977	4977	4977	5050	5125	5125	5125	5125	0	0	0	0	0	0	0	0	0	0	0	0	0	0	0	0	0	0	0	0	0	0	0	0	0	0	0	0	0	0	0	0
0	0	0	0	0	0	814	815	815	817	817	819	821	821	823	823	833	835	837	839	841	845	845	850	850	854	854	860	862	867	869	871	873	880	882	882	887	891	894	896	898	901	901	910	910	917	917	922	925	927	927	930	937	937	948	948	958	958	961	961	966	966	980	983	988	991	994	997	1000	1003	1006	1017	1023	1026	1030	1033	1036	1039	1045	1048	1055	1055	1058	1064	1064	1068	1074	1081	1085	1088	1095	1098	1095	1098	1098	1102	1102	1098	1098	1098	1098	1095	0	0	0	0	0	0	0	0	4771	4771	4771	4771	4706	4706	4706	4706	4706	4906	4906	4838	4838	4838	4838	4771	4771	4771	4771	4838	4838	4771	4706	4838	4838	4838	4838	4771	4771	4771	4771	4838	4771	4771	4771	4771	4771	4706	4706	4706	4706	4706	4706	4706	4771	4838	4771	4771	4771	4771	4771	4771	4771	4838	4906	4906	4977	5050	5050	5050	4977	5050	5050	5050	5050	5050	5125	5125	5125	5125	5125	5125	5125	5125	5050	5050	5050	5050	5050	5125	5125	5125	5125	5202	5202	5202	5202	5202	5202	5202	5202	5202	5282	5282	5282	5282	5282	5282	5282	5364	5282	5282	5282	5282	0	0	0	0	0	0	0	7608	7608	7608	7779	7959	8146	7959	7959	7959	8146	8146	8146	7959	8146	8146	8146	7959	7779	7779	7779	7779	7779	7779	7959	8146	8343	8146	8146	8146	8343	8343	8343	8343	8343	8343	8343	8146	8146	8343	8343	8343	8343	8343	8343	8343	8343	8343	8343	0	0	0	0	0	0	0	0	0	0	0	0	0	0	0	0	0	3440	3440	3406	3406	3406	3406	3373	3406	3406	3406	3406	3406	3406	3406	3406	3406	3406	3373	3406	3373	3406	3406	3406	3406	3406	3440	3440	3440	3406	3406	3440	3406	3406	3406	3406	3406	3406	3406	3406	3373	3373	3373	3373	3373	3341	3341	3341	3341	3341	3341	3341	3341	3373	3373	3373	4771	4706	4706	4706	4706	4643	4643	4706	4706	4643	4643	4643	4581	4643	4643	4581	4581	4581	4581	4581	4521	4521	4521	4350	4350	4463	4521	4521	4521	4581	4581	4581	4581	4581	4581	4581	4581	4581	4581	4581	4581	4581	4581	4581	4581	4643	4643	4643	4706	4706	4706	4771	4706	4706	4643	4643	4643	4643	4643	4706	4643	4706	4706	4643	4643	4643	4643	4643	4643	4581	4581	4581	4521	4521	4463	4463	4463	4463	4406	4406	4406	4406	4406	4406	4406	4463	4406	4463	4463	4463	4463	4463	4463	4463	4406	4406	4406	4406	4463	4463	4521	4581	4581	4581	4581	4581	4521	4521	4463	4463	4463	4406	4463	4521	4521	4521	4521	4581	4581	4581	4581	4581	4581	4643	4643	4643	4643	4643	4643	4643	4643	4581	4581	4581	4581	4581	4581	4581	4581	4643	4643	4581	4581	4581	4581	4581	4581	4581	4581	4581	4581	4581	4581	4581	4521	4463	4463	4463	4406	4406	4406	4406	4406	4406	4463	4463	4463	4463	4406	4406	4463	4463	4463	4521	4521	4581	4581	4581	4581	4581	4581	0	7608	7608	7779	7779	7779	7779	7779	7779	7959	7959	7959	7959	7959	7959	7959	7959	8146	8146	7959	7959	7959	8146	8146	7959	7779	7779	0	0	0	0	0	0	0	0	0	0	0	0	0	0	5050	5050	5050	5050	5050	5050	5050	5050	5050	4977	4977	5050	5050	5050	5050	5050	5050	5050	5050	5050	5050	5050	4977	4977	4906	4906	4838	4838	4838	4838	4838	4838	4771	4771	4838	4838	4838	4906	4977	4977	5050	5050	5125	5125	5125	0	0	0	0	0	0	0	0	0	0	0	0	0	0	0	0	0	0	0	0	0	0	0	0	0	0	0	0	0	0	0	0
0	0	0	0	0	0	815	815	815	815	815	819	819	823	827	827	833	835	837	839	843	845	848	850	852	854	854	860	862	862	867	871	873	880	880	882	882	884	891	896	901	901	905	908	908	917	917	922	922	925	927	930	937	937	948	950	958	961	961	963	969	969	980	985	988	991	994	994	997	1003	1006	1017	1017	1023	1030	1033	1036	1039	1045	1052	1055	1055	1058	1061	1064	1068	1074	1081	1085	1088	1091	1095	1095	1098	1098	1105	1102	1102	1098	1098	1098	0	0	0	0	0	0	0	0	4771	4771	4771	4771	4706	4706	4706	4706	4706	4838	4838	4838	4838	4838	4838	4838	4771	4771	4771	4771	4838	4838	4838	4771	4838	4771	4838	4838	4838	4838	4838	4838	4838	4771	4771	4771	4771	4771	4706	4706	4706	4706	4771	4706	4771	4771	4771	4771	4771	4771	4771	4706	4643	4706	4838	4838	4906	5050	5050	5050	5050	4977	5050	5050	5050	5050	5050	5125	5125	5202	5125	5125	5125	5125	5050	5050	5050	5050	5050	5050	5125	5125	5125	5202	5202	5202	5202	5202	5202	5202	5202	5202	5202	5282	5282	5282	5282	5282	5282	5282	5364	5364	5282	5282	5282	0	0	0	0	0	0	7444	7608	7608	7608	7608	7779	7959	7959	7959	7959	7779	7779	7779	7779	7959	8146	7959	7779	7779	7779	7779	7779	7779	7779	7779	8146	8146	8146	8146	8146	8343	8343	8343	8343	8343	8343	8343	8146	8146	8343	8343	8343	8343	8343	8343	8550	8550	8550	0	0	0	0	0	0	0	0	0	0	0	0	0	0	0	0	0	0	3440	3440	3406	3406	3406	3373	3373	3373	3406	3406	3406	3406	3406	3406	3406	3373	3373	3373	3406	3373	3406	3406	3406	3406	3440	3440	3440	3440	3406	3406	3440	3406	3406	3406	3373	3373	3406	3373	3373	3373	3373	3373	3373	3341	3341	3341	3341	3341	3341	3341	3341	3341	3341	3373	3373	4771	4643	4706	4706	4706	4706	4643	4706	4706	4706	4706	4643	4643	4643	4643	4581	4581	4581	4581	4581	4581	4521	4521	4521	4350	4463	4521	4521	4521	4581	4581	4581	4581	4581	4581	4581	4581	4581	4581	4581	4581	4581	4581	4581	4581	4581	4643	4643	4643	4706	4706	4706	4706	4643	4581	4581	4581	4643	4643	4643	4643	4643	4706	4706	4643	4643	4706	4643	4643	4581	4581	4581	4521	4521	4463	4463	4463	4406	4406	4406	4406	4406	4406	4406	4406	4406	4406	4463	4463	4463	4463	4406	4406	4463	4406	4406	4406	4406	4406	4463	4463	4521	4521	4521	4521	4521	4521	4463	4463	4463	4406	4406	4463	4463	4521	4521	4521	4581	4581	4581	4581	4581	4581	4643	4643	4643	4643	4643	4643	4643	4643	4581	4581	4581	4581	4581	4581	4581	4581	4581	4643	4581	4581	4581	4521	4521	4521	4521	4521	4521	4521	4463	4463	4463	4463	4406	4406	4406	4406	4406	4406	4406	4406	4406	4406	4463	4463	4406	4406	4406	4463	4463	4521	4521	4581	4581	4581	4581	4581	4521	4521	0	7779	7779	7779	7779	7779	7779	7779	7779	7959	7779	7959	7959	7959	7959	7959	7959	8146	8146	8146	8146	8146	8146	8146	7959	7959	7779	7779	0	0	0	0	0	0	0	0	0	0	0	0	0	5050	5050	5050	5050	5050	5050	5050	5050	5050	4977	4977	5050	5050	5050	5050	5050	5050	5050	5050	5050	5050	5050	4977	4977	4977	4977	4906	4906	4838	4838	4838	4838	4838	4771	4771	4838	4838	4838	4977	4977	5050	5050	5050	5050	5050	0	0	0	0	0	0	0	0	0	0	0	0	0	0	0	0	0	0	0	0	0	0	0	0	0	0	0	0	0	0	0	0
0	0	0	0	0	0	815	814	817	815	815	817	821	823	825	829	833	835	837	839	843	845	848	850	852	854	858	858	862	862	869	871	871	875	880	882	884	889	894	896	896	901	905	908	908	917	917	920	922	925	930	930	932	932	945	950	958	961	961	963	963	974	980	983	988	991	994	994	1000	1003	1006	1017	1017	1023	1030	1033	1036	1039	1045	1052	1052	1055	1058	1061	1064	1071	1078	1081	1085	1088	1091	1095	1095	1102	1102	1105	1105	1102	1098	1098	1098	0	0	0	0	0	0	4838	4838	4771	4771	4838	4771	4706	4706	4706	4706	4838	4838	4838	4838	4838	4838	4838	4771	4771	4771	4771	4771	4838	4838	4838	4838	4838	4838	4838	4838	4771	4838	4838	4838	4838	4838	4706	4771	4706	4706	4706	4706	4643	4706	4706	4706	4706	4771	4838	4771	4771	4706	4706	4706	4643	4643	4706	4771	4838	4906	4977	4977	5050	5050	5125	5125	5125	5125	5125	5125	5202	5202	5202	5125	5125	5125	5125	5050	5050	5050	5050	5050	5125	5125	5125	5202	5202	5202	5202	5202	5202	5202	5202	5202	5202	5202	5282	5282	5282	5282	5282	5282	5282	5364	5282	5282	5202	5202	0	0	0	0	7287	7287	7444	7444	7444	7608	7608	7608	7608	7608	7444	7608	7608	7608	7608	7779	7959	7779	7608	7608	7779	7779	7779	7779	7779	7779	8146	8146	8146	8146	8146	8343	8343	8343	8343	8343	8146	8146	8146	8146	8146	8343	8343	8343	8343	8343	8343	8343	8343	0	0	0	0	0	0	0	0	0	0	0	0	0	0	0	0	0	0	3475	3440	3440	3406	3406	3373	3373	3373	3373	3406	3406	3373	3406	3373	3373	3373	3373	3373	3373	3373	3373	3406	3406	3440	3440	3440	3440	3440	3440	3406	3440	3406	3406	3406	3406	3406	3373	3373	3373	3373	3373	3373	3341	3341	3341	3341	3341	3341	3341	3341	3341	3341	3373	3373	4706	4643	4643	4643	4706	4643	4643	4643	4706	4706	4706	4706	4643	4643	4643	4643	4643	4643	4581	4643	4581	4581	4521	4521	4521	4406	4463	4521	4521	4521	4581	4581	4581	4581	4581	4581	4581	4581	4581	4581	4581	4581	4581	4581	4581	4581	4581	4581	4581	4643	4643	4643	4643	4643	4643	4581	4581	4581	4581	4643	4643	4643	4643	4706	4643	4643	4643	4706	4643	4643	4581	4581	4581	4521	4463	4463	4463	4463	4406	4406	4406	4406	4406	4406	4406	4406	4406	4406	4406	4406	4406	0	4406	4406	0	4406	4350	4350	4406	4406	4406	4406	4521	4521	4521	4521	4463	4463	4463	4463	4406	4406	4406	4406	4406	4463	4463	4521	4521	4581	4581	4581	4581	4581	4643	4643	4643	4643	4643	4643	4643	4643	4581	4581	4581	4581	4581	4581	4581	4581	4581	4581	4581	4521	4521	4521	4521	4521	4463	4463	4463	4463	4463	4463	4463	4406	4406	4406	4406	4350	4406	4406	4406	4406	4406	4406	4463	4406	4406	4406	4406	4406	4463	4463	4463	4521	4581	4581	4581	4581	4521	4521	0	7779	7779	7779	7779	7779	7779	7779	7779	7959	7779	7959	7959	7959	7959	7959	7959	8343	8343	8343	8343	8343	8343	8343	8146	8146	7779	7779	0	0	0	0	0	0	0	0	0	0	0	0	0	5050	5050	5050	5050	5050	5050	5050	5050	5050	5050	4977	5050	5050	5050	5050	5050	5050	5050	5050	5050	4977	5050	4977	4977	4977	4906	4906	4906	4906	4906	4906	4838	4838	4838	4771	4771	4771	4838	4906	4977	5050	5050	5050	5050	5050	0	0	0	0	0	0	0	0	0	0	0	0	0	0	0	0	0	0	0	0	0	0	0	0	0	0	0	0	0	0	0	0
0	0	0	0	0	0	815	812	814	814	815	819	821	825	827	829	831	833	835	839	843	845	848	850	850	850	854	854	860	860	871	873	875	878	882	882	884	884	891	894	896	898	905	908	908	917	917	917	922	927	930	930	932	932	932	950	958	958	961	963	963	972	977	983	983	991	994	997	1000	1006	1008	1017	1020	1023	1030	1033	1036	1039	1042	1048	1052	1055	1058	1061	1064	1071	1078	1085	1085	1088	1091	1091	1102	1102	1105	1109	1109	1109	1109	1098	1098	0	0	0	0	0	0	4838	4838	4771	4838	4838	4771	4771	4771	4706	4838	4838	4838	4838	4838	4838	4771	4771	4771	4706	4706	4706	4643	4771	4838	4838	4771	4771	4771	4838	4771	4771	4771	4771	4838	4771	4706	4706	4706	4706	4706	4706	4643	4643	4643	4643	4706	4706	4771	4771	4771	4771	4706	4706	4643	4581	4581	4643	4643	4643	5050	5050	5050	5050	5050	5125	5202	5202	5202	5202	5202	5202	5202	5202	5125	5125	5125	5125	5050	5050	5050	5050	5050	5125	5125	5202	5202	5202	5202	5202	5202	5202	5202	5202	5202	5202	5202	5282	5202	5282	5282	5282	5282	5282	5364	5282	5282	5282	5202	0	0	0	0	7287	7287	7444	7444	7444	7444	7444	7444	7444	7444	7444	7608	7608	7608	7608	7608	7779	7779	7608	7608	7779	7779	7779	7779	7779	7779	8146	8146	8146	8146	8146	8343	8343	8343	8343	8343	8146	8146	7959	7959	8146	8146	8146	8146	8343	8343	8343	8343	8343	0	0	0	0	0	0	0	0	0	0	0	0	0	0	0	0	0	0	3475	3440	3440	3406	3406	3406	3373	3373	3373	3373	3373	3373	3373	3373	3373	3373	3373	3373	3373	3373	3406	3406	3406	3440	3440	3440	3440	3440	3406	3406	3440	3406	3406	3406	3406	3406	3406	3373	3373	3373	3373	3341	3341	3341	3341	3341	3341	3341	3341	3373	3373	3341	3341	4706	4706	4643	4581	4643	4643	4643	4643	4643	4706	4706	4706	4706	4706	4643	4643	4643	4643	4643	4581	4643	4581	4581	4521	4521	4521	4406	4406	4463	4521	4521	4521	4521	4581	4581	4581	4581	4581	4581	4581	4581	4581	4581	4581	4581	4581	4521	4581	4581	4581	4581	4643	4643	4581	4643	4643	4581	4581	4581	4581	4643	4643	4643	4643	4706	4643	4643	4643	4706	4706	4643	4643	4581	4581	4521	4521	4463	4463	4463	4406	4406	4406	4406	4406	4406	4406	4406	4406	4406	4406	4406	4406	0	0	0	4406	4406	4350	4350	4350	4406	4406	4463	4463	4521	4521	4463	4463	4406	4406	4406	4350	4350	4406	4406	4406	4406	4406	4463	4521	4521	4521	4581	4581	4581	4643	4643	4643	4643	4643	4643	4643	4643	4581	4581	4581	4581	4581	4581	4581	4581	4581	4581	4581	4521	4521	4463	4463	4463	4463	4463	4463	4463	4406	4463	4406	4406	4406	4406	4350	4350	4350	4406	4406	4350	4406	4406	4406	4406	4406	4406	4406	4406	4406	4463	4463	4521	4521	4581	4581	4581	4521	4521	0	7608	7779	7779	7779	7779	7779	7779	7779	7779	7779	7779	7959	7779	7779	7779	7959	8146	8343	8343	8343	8343	8343	8343	8343	8146	0	0	0	6720	6720	6720	0	0	0	0	0	0	0	0	5050	5050	5050	5050	5050	5050	5050	5050	5050	5050	5050	5050	5050	5050	5050	5050	5050	5050	5050	5050	5050	4977	5050	4977	4977	4906	4906	4906	4906	4906	4906	4906	4838	4771	4771	4771	4771	4771	4771	4906	4977	5050	5050	5125	5125	5125	0	0	0	0	0	0	0	0	0	0	0	0	0	0	0	0	0	0	0	0	0	0	0	0	0	0	0	0	0	0	0	0
0	0	0	0	0	0	815	815	814	814	815	819	825	827	829	831	831	833	833	835	837	837	848	848	850	850	854	858	862	862	873	873	878	880	882	882	882	887	887	891	891	901	903	903	910	917	917	920	922	927	930	932	932	932	945	953	955	958	961	961	966	972	974	980	983	991	991	997	1003	1008	1008	1017	1020	1023	1026	1030	1036	1039	1045	1052	1052	1055	1058	1064	1064	1071	1078	1081	1081	1088	1091	1102	1102	1109	1113	1113	1113	1113	1109	0	0	0	0	0	0	0	0	4771	4771	4706	4771	4838	4838	4771	4771	4771	4838	4838	4838	4838	4838	4771	4771	4706	4706	4643	4706	4706	4643	4771	4838	4838	4771	4771	4771	4771	4706	4706	4706	4706	4706	4706	4706	4706	4706	4706	4706	4706	4706	4706	4706	4706	4706	4706	4706	4706	4706	4706	4643	4643	4643	4581	4521	4581	4581	4581	5050	5050	5050	5125	5125	5202	5202	5202	5202	5282	5282	5202	5282	5202	5125	5125	5202	5050	5050	5050	5050	5050	5050	5050	5125	5125	5125	5202	5202	5202	5202	5202	5202	5202	5202	5202	5202	5202	5202	5282	5282	5282	5282	5282	5282	5282	5282	5282	0	0	0	0	0	0	0	0	0	7444	7444	7444	7444	7444	7444	7444	7608	7608	7608	7608	7608	7608	7779	7608	7608	7608	7608	7779	7779	7779	7779	8146	8146	8146	8146	8343	8343	8343	8343	8146	8146	7959	7959	7959	7779	7959	8146	8146	8146	8343	8343	8343	8343	8343	8343	0	0	0	0	0	0	0	0	0	0	0	0	0	0	0	0	0	3475	3440	3440	3406	3406	3406	3373	3373	3373	3373	3373	3373	3406	3373	3373	3373	3373	3373	3373	3373	3406	3406	3406	3440	3440	3440	3440	3440	3406	3406	3440	3406	3406	3406	3406	3406	3406	3373	3373	3373	3373	3341	3341	3341	3341	3341	3341	3341	3373	3373	3406	3406	3406	4771	4706	4643	4643	4643	4643	4643	4643	4643	4706	4706	4706	4706	4706	4643	4643	4643	4643	4643	4581	4581	4581	4581	4521	4521	4521	4350	4463	4463	4463	4521	4521	4521	4521	4521	4521	4581	4581	4521	4521	4521	4521	4521	4521	4521	4521	4521	4521	4521	4521	4581	4643	4643	4643	4581	4643	4581	4581	4581	4581	4643	4643	4643	4643	4706	4643	4643	4643	4643	4643	4643	4643	4581	4521	4521	4463	4463	4463	4406	4406	4406	4406	4406	4406	4406	4406	4406	4406	4406	4350	4350	4350	4350	4350	0	4406	4350	4350	4350	4350	4350	4406	4406	4463	4521	4521	4463	4406	4406	4406	4406	4350	4350	4350	4406	4406	4406	4406	4406	4463	4521	4521	4581	4581	4521	4581	4581	4581	4643	4643	4643	4643	4643	4643	4643	4581	4581	4581	4581	4581	4521	4463	4463	4463	4406	4463	4406	4406	4406	4406	4463	4463	4406	4406	4406	4406	4406	4350	4350	4350	4350	4350	4350	4350	4350	4406	4406	4406	4406	4406	4350	4406	4406	4406	4463	4463	4521	4581	4581	4581	4581	4581	4581	0	7608	7608	7608	7779	7608	7779	7779	7779	7779	7779	7779	7779	7779	7779	7779	7959	8146	8146	8146	8146	8146	8146	8146	8343	0	0	0	0	6720	6720	6720	0	0	0	0	0	0	0	0	5050	5050	5050	5050	5050	5050	5050	5050	5050	5050	5050	5050	5050	5050	5050	5050	5050	5050	5050	5050	4977	4977	4977	4977	4906	4906	4906	4906	4906	4906	4906	4838	4838	4771	4771	4706	4771	4706	4706	4771	4906	4977	5050	5050	5050	5050	0	0	0	0	0	0	0	0	0	0	0	0	0	0	0	0	0	0	0	0	0	0	0	0	0	0	0	0	0	0	0	0
0	0	0	0	0	0	0	814	817	819	819	823	825	827	829	829	829	833	833	835	839	839	850	848	848	854	856	856	860	865	873	873	878	880	882	882	882	887	889	894	894	898	898	905	910	920	917	920	925	927	930	932	935	935	945	953	955	958	958	961	961	969	977	977	985	988	991	997	1003	1003	1011	1017	1017	1020	1023	1030	1033	1036	1042	1042	1052	1055	1058	1058	1064	1074	1081	1081	1085	1088	1088	1098	1102	1105	1105	1105	1113	1113	0	0	0	0	0	0	0	4838	4838	4771	4771	4706	4771	4838	4838	4771	4771	4838	4838	4838	4838	4838	4838	4771	4706	4706	4706	4643	4706	4706	4643	4771	4838	4838	4771	4771	4771	4771	4706	4706	4706	4771	4771	4706	4706	4706	4706	4706	4706	4706	4706	4643	4643	4643	4643	4706	4706	4706	4706	4706	4643	4643	4581	4521	4581	4521	4521	4521	0	4977	5125	5125	5125	5202	5202	5282	5282	5364	5364	5282	5282	5282	5202	5282	5282	5125	5125	5125	5050	5050	5125	5125	5202	5202	5202	5282	5202	5202	5202	5202	5202	5202	5202	5202	5202	5282	5202	5282	5202	5282	5282	5282	5282	5202	5202	5282	0	0	0	0	0	0	0	0	0	0	7444	7444	7444	7444	7444	7608	7608	7608	7608	7608	7608	7608	7779	7608	7608	7608	7608	7608	7779	7779	7779	8146	8146	8146	8343	8343	8343	8343	8146	8146	7959	7959	7959	7959	7779	7959	7959	8146	8146	8146	8343	8343	8343	8343	8550	0	0	0	0	0	0	0	0	0	0	0	0	0	0	0	0	0	0	3440	3440	3406	3406	3406	3373	3373	3373	3373	3373	3373	3406	3373	3373	3373	3373	3373	3373	3373	3406	3406	3406	3440	3440	3440	3440	3440	3406	3406	3440	3440	3406	3406	3406	3406	3373	3373	3373	3373	3341	3341	3341	3341	3341	3341	3341	3341	3341	3406	3406	3440	3440	4771	4706	4706	4643	4643	4643	4643	4643	4643	4706	4706	4706	4706	4706	4643	4643	4643	4643	4643	4581	4581	4581	4581	4521	4521	4521	4350	4463	4521	4463	4463	4463	4406	4463	4463	4463	4463	4463	4521	4521	4521	4463	4463	4521	4463	4463	4463	4463	4463	4463	4521	4581	4581	4581	4581	4643	4581	4581	4643	4643	4643	4643	4643	4643	4643	4643	4643	4643	4643	4643	4643	4581	4581	4521	4521	4463	4463	4463	4406	4406	4406	4406	4406	4406	4406	4406	4406	4406	4350	4350	4350	4350	4350	4296	4296	4296	4350	4350	4350	4350	4406	4406	4406	4463	4463	4463	4463	4406	4406	4406	4350	4350	4350	4350	4350	4350	4350	4350	4350	4350	4406	4406	4463	4463	4406	4463	4521	4521	4581	4581	4581	4581	4643	4643	4643	4581	4521	4521	4521	4463	4463	4463	4406	4406	4406	4406	4406	4406	4406	4406	4406	4406	4406	4406	4406	4406	4406	4350	4350	4350	4350	4350	4350	4350	4350	4406	4406	4406	4406	4350	4350	4406	4406	4463	4463	4521	4581	4581	4581	4581	4581	4581	4581	0	7608	7608	7608	7779	7608	7608	7779	7779	7779	7779	7959	7779	7959	7779	7779	7959	8146	8146	7959	7959	8146	7959	7959	0	0	0	0	0	6853	6853	6720	6720	0	0	0	0	0	0	0	0	0	5050	5125	5050	5050	5125	5125	5125	5050	5050	5050	5050	4977	4977	5050	5050	5050	4977	5050	5050	4977	4977	4977	4906	4906	4906	4906	4906	4906	4906	4906	4838	4771	4771	4706	4706	4706	4706	4706	4771	4906	5050	5125	5125	5125	0	0	0	0	0	0	0	0	0	0	0	0	0	0	0	0	0	0	0	0	0	0	0	0	0	0	0	0	0	0	0	0
0	0	0	0	0	0	810	812	814	819	821	821	823	827	829	831	831	833	835	835	835	848	850	850	852	854	856	856	862	865	873	873	878	880	882	882	884	884	889	894	894	896	901	905	913	917	917	922	925	927	927	930	932	937	937	953	953	958	958	963	963	969	977	977	983	983	988	994	997	1006	1011	1011	1014	1020	1026	1030	1033	1033	1042	1042	1052	1058	1061	1064	1068	1074	1081	1081	1085	1088	1088	1105	1105	1109	1109	1105	0	0	0	0	0	0	0	0	4771	4838	4838	4771	4771	4706	4771	4838	4838	4771	4771	4771	4838	4906	4838	4838	4838	4838	4706	4706	4706	4643	4706	4643	4706	4706	4771	4771	4771	4771	4771	4771	4706	4706	4706	4706	4706	4706	4706	4706	4706	4643	4643	4643	4643	4706	4643	4706	4706	4706	4643	4706	4706	4643	4643	4643	4643	4581	4581	4581	4581	4581	4977	4977	4977	5125	5125	5202	5202	5282	5282	5364	5364	5282	5282	5364	5202	5202	5282	5282	5202	5202	5125	5125	5202	5125	5125	5202	5202	5202	5202	5202	5202	5202	5202	5202	5202	5202	5202	5282	5282	5282	5282	5282	5282	5282	5202	5202	5202	5282	0	0	0	0	0	0	0	0	0	0	7287	7444	7444	7444	7444	7608	7608	7608	7608	7608	7608	7608	7779	7608	7608	7608	7608	7608	7779	7608	7779	7959	8146	8146	8343	8343	8343	8343	8343	8146	7959	7959	7959	7959	7779	7959	7959	7959	7959	8146	8146	8146	8146	8343	8550	0	0	0	0	0	0	0	0	0	0	0	0	0	0	0	0	0	0	3440	3440	3406	3406	3406	3406	3373	3373	3373	3406	3406	3406	3373	3373	3373	3373	3373	3373	3373	3406	3406	3406	3440	3475	3440	3440	3440	3440	3406	3440	3440	3440	3406	3406	3406	3373	3373	3373	3373	3341	3341	3341	3341	3341	3341	3341	3341	3373	3406	3406	3440	3440	4706	4706	4706	4643	4643	4643	4643	4643	4643	4643	4706	4706	4706	4706	4706	4643	4643	4643	4643	4581	4581	4581	4581	4581	4521	4521	4350	4463	4406	4350	4406	4406	4350	4350	4406	4463	4406	4463	4463	4521	4521	4463	4406	4463	4406	4406	4406	4406	4406	4406	4406	4463	4521	4406	4463	4581	4581	4581	4581	4643	4643	4643	4643	4581	4581	4581	4521	4521	4581	4581	4581	4521	4521	4521	4521	4463	4406	4463	4406	4406	4406	4406	4406	4406	4406	4406	4406	4406	4350	4350	4350	4350	4350	4296	4296	4350	4350	4350	4350	4406	4406	4406	4406	4463	4463	4406	4406	4350	4350	4350	4350	4296	4296	4296	4350	4296	4296	4296	4296	4296	4350	4296	4296	4350	4350	4406	4406	4463	4521	4521	4521	4521	4521	4521	4521	4463	4463	4463	4463	4463	4463	4406	4406	4406	4350	4406	4406	4350	4350	4350	4406	4406	4406	4350	4350	4350	4350	4296	4350	4350	4350	4350	4350	4296	4296	4350	4350	4350	4350	4350	4350	4350	4350	4406	4463	4463	4581	4581	4581	4581	4581	4581	4581	7444	7608	7608	7608	7779	7779	7779	7959	7959	7959	7959	7959	7779	7779	7779	7779	7779	7959	8146	7959	7959	7959	7959	7959	0	0	0	0	0	6853	6853	6853	6720	0	0	0	0	0	0	0	0	0	5050	5125	5050	5050	5125	5125	5125	5050	5050	5050	5050	5050	5050	5050	5050	5050	4977	4977	4977	4977	4977	4977	4906	4977	4977	4906	4906	4906	4906	4906	4838	4771	4771	4706	4706	4706	4706	4706	4838	4838	5050	5202	5202	5202	0	0	0	0	0	0	0	0	0	0	0	0	0	0	0	0	0	0	0	0	0	0	0	0	0	0	0	0	0	0	0	0
0	0	0	0	0	0	810	812	814	815	819	823	827	829	831	831	831	833	835	835	835	839	850	850	852	854	856	856	865	867	873	873	880	880	882	882	884	884	889	889	894	898	901	903	910	915	917	922	925	927	927	932	935	937	940	950	953	958	961	963	963	969	972	974	980	983	988	994	1000	1006	1006	1011	1011	1020	1023	1030	1036	1039	1042	1042	1052	1058	1061	1064	1068	1074	1078	1081	1088	1091	1091	1102	1105	1105	1109	0	0	0	0	0	0	0	0	4838	4838	4838	4771	4838	4771	4706	4706	4771	4838	4838	4771	4771	4838	4838	4838	4838	4771	4771	4706	4706	4643	4643	4706	4643	4706	4706	4771	4771	4706	4706	4706	4771	4706	4706	4706	4706	4706	4706	4706	4706	4706	4643	4706	4643	4643	4706	4643	4706	4706	4706	4706	4706	4706	4706	4643	4706	4706	4643	4643	4643	4706	4706	4977	4977	4977	5125	5125	5282	5202	5282	5364	5364	5364	5282	5282	5364	5282	5364	5364	5282	5282	5202	5125	5202	5202	5202	5202	5202	5202	5202	5202	5202	5202	5202	5202	5202	5202	5202	5202	5282	5282	5282	5282	5282	5282	5202	5202	5202	5202	0	0	0	0	0	0	0	0	0	0	0	7137	7287	7287	7444	7444	7608	7608	7608	7608	7608	7608	7608	7779	7779	7779	7779	7608	7779	7779	7779	7779	7959	7959	8146	8146	8343	8146	8343	8343	8146	7959	7959	7779	7779	7779	7779	7779	7959	7959	8146	8146	8146	8146	0	0	0	0	0	0	0	0	0	0	0	0	0	0	0	0	0	0	0	0	3440	3440	3406	3406	3406	3373	3373	3373	3373	3406	3406	3406	3406	3373	3373	3373	3373	3373	3373	3406	3406	3406	3440	3440	3440	3440	3440	3440	3440	3440	3440	3440	3406	3406	3406	3373	3373	3373	3341	3341	3341	3341	3341	3341	3341	3341	3341	3373	3406	3406	3406	3406	4706	4706	4643	4643	4643	4643	4643	4643	4643	4643	4706	4706	4706	4706	4706	4706	4643	4643	4643	4643	4643	4643	4581	4581	4521	4521	4463	4350	4350	4350	4350	4350	4350	4350	4350	4350	4350	4350	4406	4406	4406	4350	4350	4406	4350	4350	4350	4350	4350	4350	4350	4406	4463	4406	4406	4521	4581	4581	4581	4643	4643	4643	4581	4581	4581	4581	4463	4463	4521	4521	4521	4463	4463	4463	4463	4463	4406	4406	4406	4406	4406	4406	4406	4406	4406	4406	4406	4406	4406	4350	4350	4350	4350	4296	4243	4296	4296	4350	4350	4350	4406	4406	4406	4406	4406	4406	4350	4350	4296	4296	4296	4296	4243	4296	4296	4296	4296	4296	4296	4296	4296	4296	4243	4296	4296	4350	4350	4350	4406	4406	4406	4406	4463	4463	4463	4406	4406	4406	4406	4406	4406	4406	4406	4350	4350	4350	4350	4350	4350	4350	4350	4350	4350	4350	4350	4350	4350	4296	4296	4296	4350	4350	4350	4296	4296	4350	4350	4296	4296	4296	4350	4350	4350	4350	4406	4463	4521	4581	4581	4581	4581	4581	4581	7444	7608	7608	7779	7779	7779	7779	7959	7779	7779	7959	7959	7779	7779	7779	7779	7779	7959	7959	7959	7959	7959	7779	7779	0	0	0	0	0	6853	6853	6853	6853	0	0	0	0	0	0	0	0	0	0	5050	5050	5050	5125	5125	5125	5050	5050	5050	5050	4977	5050	5050	5050	4977	4977	4977	4977	4977	4977	4906	4906	4977	4977	4977	4977	4977	4977	4906	4838	4838	4771	4771	4771	4706	4706	4706	4706	4838	0	5202	5202	5202	0	0	0	0	0	0	0	0	0	0	0	0	0	0	0	0	0	0	0	0	0	0	0	0	0	0	0	0	0	0	0	0
0	0	0	0	0	0	810	812	814	819	821	823	825	829	831	831	831	833	835	835	837	845	850	850	852	854	856	856	867	867	873	873	875	878	880	882	884	884	887	889	896	898	901	905	910	913	917	922	925	927	927	930	935	937	940	945	950	958	961	963	966	969	969	974	980	983	983	994	1003	1008	1008	1011	1014	1017	1017	1023	1030	1036	1039	1042	1052	1055	1061	1064	1068	1068	1078	1081	1088	1091	1095	1105	1105	1105	0	0	0	0	0	0	0	0	0	4771	4771	4838	4838	4838	4771	4771	4706	4771	4838	4838	4838	4838	4838	4838	4838	4838	4771	4771	4706	4706	4643	4706	4706	4706	4706	4706	4706	4706	4706	4706	4643	4643	4643	4706	4706	4771	4706	4706	4706	4706	4706	4643	4706	4643	4643	4706	4706	4706	4706	4706	4706	4706	4706	4706	4706	4706	4706	4643	4643	4643	4706	4706	4906	4906	4977	5125	5202	5282	5202	5282	5364	5448	5448	5282	5282	5364	5364	5364	5364	5364	5282	5282	5202	5202	5202	5202	5202	5202	5202	5202	5202	5202	5202	5202	5202	5202	5202	5202	5202	5282	5282	5282	5282	5282	5202	5202	5202	5202	0	0	0	0	0	0	0	0	0	0	0	6992	6992	7137	7137	7287	7444	7444	7608	7608	7608	7608	7608	7608	7779	7779	7959	7779	7779	7779	7779	7779	7779	7959	7959	7959	8146	8146	8146	8146	8146	8146	7959	7959	7779	7779	7779	7779	7779	7779	7959	7959	7959	7959	7959	7959	0	0	0	0	0	0	0	0	0	0	0	0	0	0	0	0	0	0	0	3406	3406	3406	3406	3406	3373	3373	3373	3373	3373	3373	3406	3406	3373	3373	3373	3373	3373	3373	3373	3373	3406	3440	3440	3440	3440	3440	3440	3440	3440	3440	3440	3440	3406	3406	3373	3373	3373	3341	3341	3341	3341	3341	3341	3341	3341	3341	3341	3373	3406	3440	3440	4706	4643	4643	4643	4643	4643	4643	4643	4643	4706	4706	4706	4706	4706	4706	4706	4643	4643	4643	4643	4643	4643	4581	4521	4521	4463	4406	4350	4350	4350	4350	4296	4296	4296	4350	4350	4350	4350	4350	4406	4350	4296	4350	4350	4350	4350	4350	4350	4350	4350	4350	4406	4406	4406	4406	4463	4581	4581	4581	4581	4643	4643	4581	4581	4521	4521	4463	4463	4463	4463	4463	4463	4463	4406	4406	4406	4406	4463	4463	4406	4406	4406	4406	4406	4406	4406	4406	4406	4406	4350	4350	4350	4296	4243	4243	4243	4243	4350	4350	4350	4406	4406	4406	4406	4406	4350	4350	4296	4296	4243	4243	4243	4243	4296	4296	4296	4296	4296	4296	4296	4296	4296	4243	4243	4243	4243	4296	4350	4463	4406	4350	4350	4350	4350	4406	4350	4350	4350	4350	4406	4406	4406	4350	4350	4350	4350	4350	4296	4296	4296	4350	4350	4350	4296	4296	4296	4296	4296	4296	4296	4296	4296	4296	4243	4243	4296	4296	4296	4296	4296	4296	4350	4350	4350	4406	4463	4521	4521	4581	4581	4581	4643	4643	7444	7608	7608	7608	7608	7779	7779	7959	7779	7779	7959	7959	7779	7779	7779	7779	7959	7959	7959	7959	8146	7779	7779	7779	0	0	0	6853	6992	6992	6853	6853	6853	6853	0	0	0	0	0	0	0	0	0	5050	5125	5050	5125	5050	5050	5050	5050	5050	4977	4977	4977	4977	4977	4977	4906	4906	4977	4977	4906	4906	4906	4906	4977	4977	4977	4977	4977	4977	4977	4977	4977	4771	4771	4706	4706	4706	4706	0	0	0	0	0	0	0	0	0	0	0	0	0	0	0	0	0	0	0	0	0	0	0	0	0	0	0	0	0	0	0	0	0	0	0	0	0
0	0	0	0	0	0	808	812	814	819	821	823	825	829	831	831	831	833	835	835	837	845	848	850	852	852	856	858	869	867	873	873	875	878	882	882	884	884	889	889	894	898	901	905	910	913	917	925	925	927	927	930	935	937	940	945	948	950	961	963	966	966	969	974	980	983	983	997	1003	1008	1008	1008	1011	1014	1020	1020	1033	1036	1048	1052	1055	1058	1064	1064	1068	1068	1078	1081	1085	1088	1095	1098	1105	1105	0	0	0	0	0	0	0	0	0	4771	4771	4906	4838	4838	4771	4771	4706	4838	4838	4771	4771	4838	4838	4838	4771	4838	4771	4771	4771	4706	4706	4706	4706	4706	4706	4706	4706	4706	4706	4706	4706	4706	4706	4706	4643	4706	4706	4706	4643	4643	4706	4643	4706	4706	4706	4706	4706	4706	4643	4706	4643	4706	4706	4706	4706	4706	4706	4643	4643	4643	4643	4838	4906	4906	4977	5125	5202	5282	5364	5448	5448	5448	5535	5282	5282	5364	5448	5364	5364	5364	5364	5282	5282	5202	5282	5202	5202	5202	5282	5202	5202	5202	5202	5202	5202	5202	5202	5202	5202	5282	5282	5282	5282	5202	5202	5202	5202	0	0	0	0	0	0	0	0	0	0	0	0	6992	6992	6992	7137	7287	7287	7444	7608	7608	7608	7779	7608	7608	7779	7779	7959	7779	7608	7959	7959	7779	7779	7779	7779	7959	8146	8146	8146	8146	8146	8146	7779	7959	7779	7779	7779	7779	7779	7779	7959	8146	8146	8146	8146	8146	0	0	0	0	0	0	0	0	0	0	0	0	0	0	0	0	0	0	0	3406	3406	3406	3406	3406	3373	3373	3373	3373	3373	3373	3406	3406	3406	3406	3406	3406	3406	3373	3406	3406	3406	3440	3440	3440	3440	3440	3440	3440	3475	3440	3440	3406	3406	3406	3373	3373	3341	3341	3341	3341	3341	3341	3341	3341	3341	3341	3341	3373	3406	3440	3440	4643	4643	4643	4643	4643	4643	4581	4643	4643	4643	4643	4643	4643	4643	4643	4643	4643	4643	4643	4643	4643	4581	4581	4521	4521	4463	4463	4350	4296	4296	4350	4296	4296	4296	4296	4296	4296	4296	4296	4350	4350	4350	4350	4350	4350	4350	4350	4350	4350	4350	4350	4406	4406	4406	4406	4463	4521	4581	4581	4643	4643	4643	4581	4581	4521	4521	4463	4406	4406	4406	4406	4406	4406	4406	4463	4521	4463	4463	4463	4463	4463	4463	4406	4406	4406	4406	4406	4406	4406	4350	4406	4350	4350	4296	4243	4296	4296	4350	4350	4350	4406	4406	4406	4406	4350	4350	4350	4296	4243	4243	4243	4243	4243	4243	4296	4296	4296	4296	4296	4243	4243	4243	4243	4243	4243	4296	4296	4296	4296	4296	4296	4296	4296	4296	4296	4296	4296	4296	4296	4350	4406	4350	4350	4350	4296	4296	4296	4296	4296	4296	4296	4296	4296	4296	4296	4296	4296	4243	4296	4296	4296	4296	4296	4243	4243	4296	4296	4296	4296	4296	4296	4350	4350	4406	4463	4463	4521	4581	4581	4581	4581	4581	4581	4581	7608	7608	7608	7779	7779	7779	7779	7779	7779	7959	7779	7779	7779	7959	7779	7959	8146	8146	7959	7959	7779	7779	0	0	0	0	6853	6992	6992	6853	6853	6853	6853	0	0	0	0	0	0	0	0	0	0	5125	5050	5125	5050	5050	5050	5050	5050	4977	4977	4977	4906	4977	4906	4838	4906	4906	4906	4906	4906	4906	4906	4977	4977	4977	4977	4977	4977	4977	4977	4977	0	0	0	0	0	0	0	0	0	0	0	0	0	0	0	0	0	0	0	0	0	0	0	0	0	0	0	0	0	0	0	0	0	0	0	0	0	0	0	0	0	0	0
0	0	0	0	0	802	806	812	814	817	823	823	821	829	831	831	833	833	835	835	835	845	848	850	852	852	856	858	865	862	869	871	878	880	882	882	884	884	889	889	894	898	901	905	910	913	917	927	927	927	930	932	935	935	937	942	942	950	958	963	969	972	972	974	977	980	983	1000	1003	1003	1006	1008	1011	1014	1020	1020	1036	1039	1042	1045	1055	1058	1064	1064	1068	1074	1081	1081	1085	1088	1095	1098	1102	1102	1102	1102	0	0	0	0	0	0	0	4771	4771	4906	4838	4771	4771	4706	4706	4706	4771	4771	4771	4838	4838	4838	4838	4838	4771	4771	4771	4771	4706	4706	4706	4706	4706	4706	4706	4706	4706	4706	4643	4643	4706	4706	4706	4706	4706	4706	4706	4706	4643	4643	4706	4706	4706	4706	4706	4706	4706	4643	4643	4706	4706	4706	4706	4706	4706	4643	4643	4643	4643	4643	4906	4906	4977	5202	5202	5364	5448	5448	5535	5535	5535	5535	5448	5448	5448	5448	5364	5364	5282	5282	5282	5202	5282	5202	5202	5202	5202	5202	5202	5202	5202	5202	5202	5202	5202	5202	5202	5282	5282	5282	5282	5202	5202	0	0	0	0	0	0	0	0	0	0	0	0	0	6992	6853	6853	6853	6853	6992	7137	7444	7608	7608	7779	7779	7779	7779	7779	7779	7779	7779	7608	7608	7779	7779	7608	7779	7959	8146	8146	8146	8146	8146	8146	7959	7779	7779	7779	7779	7779	7779	7779	7779	7959	8146	7959	7959	8146	8146	0	0	0	0	0	0	0	0	0	0	0	0	0	0	0	0	0	0	0	3373	3373	3373	3406	3406	3373	3373	3373	3373	3373	3373	3406	3406	3406	3406	3406	3406	3406	3406	3406	3406	3406	3406	3440	3440	3440	3440	3440	3440	3440	3440	3440	3406	3406	3406	3373	3373	3341	3341	3341	3341	3341	3341	3341	3341	3341	3341	3341	3341	3406	3406	4643	4643	4643	4643	4643	4643	4643	4643	4643	4643	4643	4643	4643	4643	4643	4643	4643	4643	4581	4643	4643	4643	4581	4581	4521	4521	4463	4463	4350	4296	4296	4350	4296	4296	4296	4296	4296	4296	4296	4243	4296	4296	4296	4350	4406	4350	4350	4406	4406	4350	4406	4350	4406	4406	4406	4406	4463	4521	4581	4581	4581	4581	4581	4581	4521	4521	4521	4463	4406	4406	4406	4463	4463	4463	4463	4463	4521	4521	4521	4463	4463	4521	4463	4463	4463	4463	4463	4463	4463	4463	4463	4463	4406	4406	4406	4350	4350	4350	4350	4350	4406	4406	4406	4406	4350	4350	4350	4296	4296	4243	4243	4243	4243	4243	4243	4243	4243	4243	4243	4243	4243	4243	4243	4243	4243	4243	4243	4296	4296	4296	4296	4296	4296	4296	4296	4296	4296	4296	4296	4296	4350	4350	4350	4296	4296	4296	4296	4296	4296	4243	4243	4243	4243	4243	4243	4243	4296	4243	4243	4296	4243	4296	4296	4296	4243	4296	4243	4243	4243	4243	4296	4350	4350	4350	4406	4463	4463	4521	4581	4581	4581	4581	4581	4581	4581	7608	7779	7779	7779	7779	7779	7959	7959	7779	7959	7959	7779	7779	7959	7779	7779	7959	7959	7959	7959	7779	7779	0	0	0	0	7137	7137	7137	7137	6853	6853	6853	0	0	0	0	0	0	0	0	0	0	0	5050	5050	5050	5050	5050	5050	4977	4977	4906	4906	4906	4906	4906	4838	4906	4906	4977	4906	4906	4977	4977	4977	4977	4977	4977	4977	4977	4977	4977	4977	0	0	0	0	0	0	0	0	0	0	0	0	0	0	0	0	0	0	0	0	0	0	0	0	0	0	0	0	0	0	0	0	0	0	0	0	0	0	0	0	0	0	0
0	0	0	0	0	806	806	810	814	817	819	819	821	829	831	831	831	833	835	837	837	843	845	848	850	850	854	858	862	862	869	871	873	880	882	882	884	884	889	891	896	901	901	905	917	920	920	925	925	925	927	927	932	935	940	945	948	950	958	966	966	969	972	972	974	980	985	1000	1003	1003	1003	1008	1011	1017	1017	1030	1039	1039	1042	1042	1055	1058	1064	1068	1071	1074	1081	1081	1085	1088	1095	1098	1098	1102	1102	1102	0	0	0	0	0	0	0	0	0	4838	4838	4838	4771	4706	4706	4706	4771	4771	4771	4771	4771	4771	4771	4838	4771	4771	4771	4706	4706	4771	4771	4706	4706	4706	4706	4771	4706	4706	4643	4643	4706	4706	4706	4706	4706	4706	4706	4643	4643	4643	4706	4706	4706	4706	4706	4706	4643	4643	4643	4706	4706	4706	4706	4706	4706	4643	4643	4706	4706	4771	4906	4906	5050	5202	5202	5364	5364	5448	5535	5535	5535	5448	5448	5448	5448	5448	5282	5282	5282	5282	5282	5202	5202	5202	5202	5202	5202	5202	5202	5202	5202	5202	5202	5202	5202	5202	5202	5282	5282	5282	5282	5282	5282	0	0	0	0	0	0	0	0	0	0	0	0	0	6853	6853	6853	6853	6853	6992	7137	7137	7444	7608	7779	7779	7779	7779	7779	7779	7779	7608	7608	7779	7779	7779	7608	7779	7779	8146	8146	8146	7779	7959	7959	7959	7779	7779	7779	7779	7779	7779	7959	7779	7959	7959	7959	7779	7959	7959	7959	0	0	0	0	0	0	0	0	0	0	0	0	0	0	0	0	0	0	3373	3373	3373	3373	3373	3373	3373	3373	3373	3373	3406	3406	3406	3406	3406	3406	3406	3406	3406	3406	3406	3406	3406	3440	3406	3440	3406	3406	3440	3440	3440	3440	3406	3406	3406	3373	3373	3373	3341	3341	3341	3341	3341	3341	3341	3341	3341	3341	3373	3373	4643	4643	4643	4643	4643	4643	4643	4643	4643	4643	4643	4643	4643	4581	4643	4581	4581	4581	4581	4581	4581	4643	4643	4581	4581	4521	4521	4463	4406	4350	4296	4296	4350	4350	4296	4296	4296	4296	4296	4296	4243	4192	4296	4350	4406	4406	4406	4406	4463	4463	4406	4406	4406	4463	4463	4463	4463	4521	4581	4581	4581	4581	4581	4581	4581	4581	4521	4521	4521	4463	4463	4406	4463	4463	4463	4463	4521	4581	4581	4581	4521	4521	4521	4521	4521	4463	4521	4521	4521	4521	4521	4463	4463	4463	4463	4463	4406	4350	4350	4350	4350	4350	4350	4350	4406	4350	4350	4350	4350	4296	4243	4243	4243	4243	4243	4243	4243	4243	4243	4243	4243	4243	4192	4243	4243	4243	4243	4243	4296	4296	4296	4296	4296	4296	4296	4296	4296	4296	4296	4296	4296	4296	4350	4296	4296	4296	4243	4243	4243	4243	4243	4243	4243	4243	4243	4243	4243	4243	4243	4243	4243	4243	4243	4243	4243	4243	4243	4243	4243	4243	4243	4296	4296	4350	4350	4406	4406	4463	4521	4581	4581	4521	4521	4581	4521	4521	7608	7608	7608	7779	7779	7779	7959	7959	7779	7959	7959	7959	7959	7959	7779	7779	7959	7959	7779	7959	7779	7779	0	0	7444	7444	7287	7287	7287	7287	7137	7137	6853	0	0	0	0	0	0	0	0	0	0	0	4977	5050	5050	5050	5050	4977	4977	4977	4906	4906	4906	4906	4906	4838	4906	4977	4977	4906	4906	4977	4977	4977	4977	4977	4977	4977	4977	4977	0	0	0	0	0	0	0	0	0	0	0	0	0	0	0	0	0	0	0	0	0	0	0	0	0	0	0	0	0	0	0	0	0	0	0	0	0	0	0	0	0	0	0	0	0
0	0	0	0	0	806	806	808	814	815	817	817	819	819	831	831	833	833	837	841	843	845	848	848	850	850	854	856	862	862	869	871	873	880	882	882	884	887	891	894	898	901	903	908	908	913	920	925	925	925	927	930	932	935	945	948	948	950	958	966	966	969	972	974	977	991	997	1000	1003	1003	1003	1006	1011	1014	1020	1020	1039	1039	1042	1042	1052	1058	1064	1064	1068	1078	1078	1085	1085	1088	1088	1095	1098	1098	1102	1102	0	0	0	0	0	0	0	0	0	4838	4838	4838	4771	4771	4706	4706	4706	4771	4771	4771	4771	4771	4771	4771	4771	4771	4771	4706	4706	4771	4771	4706	4771	4706	4706	4771	4706	4706	4706	4706	4706	4706	4706	4706	4706	4706	4643	4643	4643	4643	4706	4706	4706	4706	4706	4706	4706	4706	4643	4706	4706	4643	4643	4706	4706	4643	4643	4706	4771	4838	4906	5050	5050	5202	5202	5282	5364	5364	5364	5364	5364	5364	5364	5364	5364	5364	5282	5282	5282	5282	5202	5282	5202	5202	5282	5202	5282	5202	5202	5202	5202	5202	5202	5202	5202	5202	5202	5282	5282	5282	5282	5202	5202	0	0	0	0	0	0	0	0	0	0	0	0	0	6992	6853	6853	6853	6853	6992	6992	6992	6992	6992	6992	7959	7779	7959	7959	7959	7959	7779	7608	7779	7779	7608	7608	7779	7779	0	0	0	7779	7779	7959	7779	7779	7779	7779	7779	7779	7959	7959	7779	7959	7779	7779	7779	7959	7779	7779	0	0	0	0	0	0	0	0	0	0	0	0	0	0	0	0	0	0	3373	3373	3373	3373	3406	3406	3373	3373	3373	3406	3406	3406	3406	3406	3406	3406	3406	3406	3406	3406	3406	3406	3406	3440	3406	3440	3406	3406	3440	3440	3440	3440	3440	3406	3406	3373	3373	3341	3341	3341	3341	3341	3341	3341	3341	3341	3341	3341	3341	3341	4643	4643	4643	4643	4581	4581	4643	4643	4643	4643	4643	4643	4581	4581	4643	4581	4581	4581	4581	4581	4581	4643	4643	4581	4581	4521	4521	4406	4406	4350	4350	4350	4350	4350	4350	4350	4350	4296	4296	4243	4192	4192	4350	4463	4463	4463	4463	4463	4463	4463	4463	4463	4406	4463	4463	4463	4463	4521	4581	4581	4581	4581	4581	4581	4581	4581	4581	4581	4581	4521	4521	4521	4521	4521	4521	4521	4521	4581	4581	4581	4521	4521	4581	4581	4581	4521	4581	4581	4581	4521	4581	4521	4521	4463	4463	4463	4406	4350	4350	4350	4350	4350	4350	4350	4350	4350	4350	4296	4296	4296	4296	4243	4296	4296	4296	4243	4243	4243	4243	4243	4243	4243	4243	4243	4243	4243	4243	4296	4296	4296	4296	4296	4296	4296	4296	4296	4296	4296	4296	4296	4296	4296	4296	4243	4243	4243	4243	4243	4243	4243	4243	4243	4243	4243	4243	4243	4243	4243	4243	4243	4243	4243	4243	4243	4243	4243	4243	4243	4243	4243	4243	4296	4296	4296	4296	4350	4406	4406	4463	4521	4521	4521	4521	4581	4521	4521	7608	7608	7608	7779	7779	7779	7959	7959	7779	7779	7959	7779	7779	7779	7779	7779	7959	7959	7959	7959	7779	7779	0	0	7444	7444	7287	7287	7137	7287	7287	7137	0	0	0	0	0	0	0	0	0	0	0	0	4977	4977	4977	5050	4977	4977	4977	4977	4906	4906	4906	4906	4906	4838	4906	4906	4977	4906	4977	4977	4977	4977	4977	4977	5050	5050	5050	5050	5050	0	0	0	0	0	0	0	0	0	0	0	0	0	0	0	0	0	0	0	0	0	0	0	0	0	0	0	0	0	0	0	0	0	0	0	0	0	0	0	0	0	0	0	0
0	0	0	0	0	804	804	806	810	812	814	815	819	819	831	833	833	835	837	841	843	845	848	848	850	850	852	856	862	865	869	871	873	880	882	880	882	889	894	898	898	903	903	905	905	910	925	927	925	927	927	930	932	935	945	948	948	950	961	966	966	969	972	972	988	991	994	1000	1000	1003	1003	1006	1008	1011	1017	1017	1036	1039	1042	1045	1052	1055	1061	1064	1068	1071	1078	1085	1085	1088	1088	1095	1095	1098	1098	1098	0	0	0	0	0	0	0	0	0	4838	4838	4838	4838	4771	4771	4706	4706	4771	4771	4771	4771	4771	4771	4771	4771	4771	4771	4706	4771	4771	4771	4706	4771	4706	4706	4706	4706	4706	4706	4706	4706	4706	4643	4643	4643	4643	4643	4643	4643	4643	4706	4706	4706	4706	4706	4771	4706	4706	4706	4706	4706	4706	4643	4643	4706	4643	4706	4706	4771	4838	4977	4977	5050	5050	5202	5202	5364	5364	5364	5364	5364	5364	5364	5364	5364	5282	5282	5282	5282	5282	5282	5282	5202	5202	5202	5202	5202	5202	5202	5202	5202	5202	5202	5202	5202	5202	5202	5202	5202	5282	5202	5202	5202	0	0	0	0	0	0	0	0	0	0	0	6992	6853	6992	6992	6853	6853	6853	6853	6853	6992	6992	6992	7959	7959	7959	7959	7959	7959	7779	7779	7608	7779	7608	7608	7444	7444	7779	0	0	0	7779	7779	7779	7779	7779	7959	7779	7779	7779	7779	7779	8343	7959	7959	7959	7959	7959	7959	7959	0	0	0	0	0	0	0	0	0	0	0	0	0	0	0	0	0	0	3373	3373	3373	3373	3406	3373	3373	3373	3373	3373	3406	3406	3406	3406	3406	3406	3406	3406	3406	3406	3406	3406	3406	3440	3406	3440	3406	3440	3440	3475	3440	3440	3406	3406	3406	3373	3373	3341	3341	3341	3373	3341	3341	3341	3341	3341	3341	3341	3341	3341	4581	4643	4643	4581	4581	4581	4643	4643	4643	4643	4643	4643	4581	4581	4581	4581	4581	4581	4581	4581	4581	4643	4643	4581	4581	4581	4521	4463	4406	4350	4350	4350	4406	4406	4463	4521	4463	4521	4463	4463	4463	4521	4463	4521	4521	4521	4521	4521	4521	4521	4521	4521	4521	4521	4643	4643	4643	4643	4643	4643	4643	4643	4643	4643	4581	4581	4581	4581	4581	4581	4581	4581	4581	4581	4581	4521	4581	4581	4643	4581	4581	4581	4581	4581	4581	4581	4581	4581	4581	4581	4581	4581	4521	4521	4521	4521	4463	4406	4350	4350	4350	4296	4296	4296	4296	4243	4243	4243	4296	4296	4243	4243	4243	4296	4296	4243	4243	4243	4243	4243	4243	4243	4243	4243	4243	4243	4243	4243	4296	4296	4296	4296	4296	4296	4296	4296	4296	4296	4296	4296	4296	4296	4296	4296	4243	4243	4243	4243	4243	4243	4243	4243	4243	4243	4243	4243	4243	4243	4243	4243	4243	4243	4243	4243	4243	4243	4243	4243	4243	4296	4243	4296	4296	4296	4350	4350	4406	4406	4463	4521	4521	4521	4521	4521	4521	4521	4521	7608	7608	7608	7608	7779	7959	7959	7779	7779	7959	7779	7779	7779	7608	7608	7779	7959	7779	7779	7779	7779	7608	7608	7444	7444	7444	7287	7287	7444	7444	0	0	0	0	0	0	0	0	0	0	0	0	0	4977	4977	4977	4977	4977	4977	4977	4977	4977	4906	4906	4906	4906	4906	4906	4906	4977	4977	4977	4977	4977	4977	4977	5050	5050	5050	5050	5050	5050	5050	0	0	0	0	0	0	0	0	0	0	0	0	0	0	0	0	0	0	0	0	0	0	0	0	0	0	0	0	0	0	0	0	0	0	0	0	0	0	0	0	0	0	0
0	0	0	0	0	804	806	806	810	812	812	815	815	827	831	833	833	833	837	843	843	848	850	850	852	852	854	856	858	858	869	871	871	878	878	880	882	889	891	894	898	901	903	905	908	908	927	927	927	927	927	930	932	932	937	945	948	955	963	969	969	969	972	972	977	991	994	997	1000	1003	1003	1006	1008	1014	1014	1014	1030	1036	1042	1045	1055	1055	1061	1064	1068	1078	1078	1081	1085	1088	1088	1091	1091	1091	1091	1098	0	0	0	0	0	0	0	0	4906	4838	4838	4771	4771	4771	4706	4643	4706	4706	4706	4771	4771	4706	4706	4771	4771	4771	4771	4706	4771	4771	4706	4706	4771	4771	4706	4771	4771	4771	4771	4771	4706	4706	4643	4643	4643	4643	4643	4643	4643	4643	4706	4706	4706	4706	4706	4706	4706	4706	4643	4706	4706	4643	4643	4643	4643	4643	4643	4706	4706	4838	4906	4977	5050	5125	5202	5282	5282	5282	5364	5364	5364	5364	5282	5282	5282	5282	5202	5202	5202	5202	5202	5202	5202	5202	5202	5202	5202	5202	5202	5202	5202	5202	5202	5202	5202	5202	5202	5202	5202	5202	5202	5125	5125	0	0	0	0	0	0	0	0	0	0	0	6992	6853	6853	6992	6853	6992	6853	6992	6992	6992	6992	7137	8146	8146	8146	8146	8146	8146	7779	7608	7444	7608	7444	7444	7287	7287	0	0	0	7779	7779	7779	7779	7959	7959	7959	7959	7959	7959	7959	8343	8343	8146	7959	7959	7959	7959	7959	7959	0	0	0	0	0	0	0	0	0	0	0	0	0	0	0	0	0	0	3406	3406	3406	3406	3406	3406	3373	3373	3373	3373	3406	3406	3406	3406	3406	3406	3406	3406	3406	3406	3406	3406	3406	3406	3406	3406	3406	3406	3440	3475	3440	3440	3406	3406	3406	3373	3373	3341	3341	3341	3373	3373	3341	3341	3341	3373	3373	3373	3406	3406	4581	4581	4643	4581	4643	4643	4643	4643	4643	4643	4643	4643	4581	4581	4581	4581	4581	4581	4581	4581	4581	4581	4581	4581	4581	4581	4521	4463	4406	4350	4350	4350	4463	4463	4521	4581	4581	4581	4521	4521	4521	4521	4521	4521	4521	4521	4521	4521	4581	4581	4581	4581	4581	4643	4643	4643	4643	4643	4643	4643	4643	4581	4643	4643	4643	4643	4581	4643	4643	4643	4581	4581	4581	4581	4581	4581	4581	4581	4643	4643	4581	4643	4643	4643	4581	4581	4581	4581	4581	4581	4581	4581	4581	4521	4521	4521	4521	4406	4350	4350	4350	4296	4296	4296	4243	4243	4243	4243	4296	4296	4296	4296	4296	4296	4296	4296	4243	4243	4243	4243	4243	4192	4192	4243	4243	4243	4243	4243	4243	4296	4296	4296	4296	4296	4296	4296	4350	4296	4296	4296	4296	4296	4296	4243	4243	4243	4243	4243	4243	4243	4243	4243	4243	4243	4243	4243	4243	4243	4243	4243	4243	4243	4243	4243	4243	4243	4243	4243	4243	4243	4243	4243	4243	4296	4296	4350	4406	4406	4463	4521	4581	4521	4521	4521	4521	4521	7287	7444	7444	7608	7608	7608	7779	7959	7608	7779	7779	7608	7779	7608	7608	7608	7779	7779	7779	7779	7779	7779	7608	7608	7608	7444	7444	7444	7287	7444	7444	0	0	0	0	0	0	0	0	0	0	0	0	0	0	4977	4977	5050	4977	4977	4977	4977	4977	4977	4906	4906	4906	4906	4906	4906	4977	4906	4977	4977	4977	4977	4977	4977	4977	4977	5050	5050	5050	5050	0	0	0	0	0	0	0	0	0	0	0	0	0	0	0	0	0	0	0	0	0	0	0	0	0	0	0	0	0	0	0	0	0	0	0	0	0	0	0	0	0	0	0
0	0	0	0	0	804	804	808	810	812	814	815	817	823	831	833	833	835	837	843	843	848	850	850	852	852	854	856	856	860	860	871	878	880	882	880	882	889	891	894	898	898	901	903	910	925	927	927	927	927	927	930	932	932	940	945	950	950	963	966	966	972	974	974	983	988	994	994	1000	1003	1003	1006	1008	1011	1017	1017	1026	1036	1042	1045	1052	1055	1061	1068	1078	1078	1078	1085	1085	1088	1088	1088	1088	1088	1088	0	0	0	0	0	0	0	0	0	4906	4838	4838	4771	4771	4706	4706	4643	4706	4706	4771	4771	4771	4706	4706	4771	4771	4771	4771	4706	4706	4706	4706	4706	4706	4771	4706	4771	4771	4771	4838	4771	4771	4706	4706	4643	4643	4643	4643	4643	4643	4643	4706	4706	4706	4706	4706	4706	4706	4706	4643	4643	4643	4643	4643	4643	4643	4706	4706	4706	4838	4906	4977	4977	5050	5125	5125	5282	5282	5282	5364	5364	5364	5364	5282	5282	5282	5282	5202	5202	5202	5202	5202	5202	5202	5202	5202	5202	5202	5202	5202	5202	5202	5202	5202	5202	5202	5202	5125	5202	5125	5202	5125	5125	5125	0	0	0	0	0	0	0	0	0	0	6992	6992	6992	6992	6992	6992	6992	6992	6992	6992	6992	7137	7137	8146	8146	8146	8146	8146	7959	7608	7444	7287	7287	7287	7137	7137	7137	0	0	0	7779	7779	7779	7779	7959	7959	8146	8146	8146	8146	8343	8343	8343	8146	8146	7959	7959	7959	7959	7959	0	0	0	8343	8343	0	0	0	0	0	0	0	0	0	0	0	0	0	3406	3406	3406	3406	3406	3406	3373	3373	3373	3373	3406	3406	3406	3406	3406	3406	3406	3406	3406	3406	3406	3406	3406	3406	3406	3406	3406	3406	3440	3475	3440	3440	3440	3406	3406	3373	3373	3373	3373	3373	3373	3373	3341	3341	3373	3373	3373	3373	3406	3406	4581	4643	4643	4643	4643	4643	4643	4643	4643	4643	4643	4643	4581	4581	4581	4581	4581	4581	4581	4581	4581	4581	4581	4581	4581	4521	4521	4463	4406	4406	4350	4406	4463	4521	4581	4643	4581	4581	4581	4581	4581	4581	4581	4581	4581	4581	4581	4581	4581	4581	4581	4581	4581	4643	4643	4643	4643	4643	4643	4643	4643	4643	4643	4643	4643	4643	4581	4581	4643	4643	4581	4581	4643	4643	4581	4581	4581	4643	4643	4643	4581	4581	4581	4581	4581	4581	4581	4581	4581	4581	4581	4581	4581	4581	4581	4521	4463	4406	4406	4350	4350	4350	4296	4296	4243	4243	4243	4243	4296	4296	4296	4296	4296	4296	4296	4296	4243	4243	4192	4243	4192	4192	4192	4243	4243	4243	4243	4243	4296	4296	4296	4296	4296	4350	4350	4296	4350	4296	4296	4296	4296	4243	4296	4243	4243	4243	4243	4243	4243	4243	4243	4243	4243	4243	4243	4243	4243	4243	4243	4243	4243	4243	4243	4243	4243	4243	4296	4296	4243	4296	4243	4243	4243	4243	4243	4350	4406	4406	4521	4521	4581	4521	4463	4521	4521	4521	7137	7287	7444	7287	7444	7444	7608	7779	7608	7608	7779	7608	7608	7444	7444	7444	7779	7779	7779	7779	7779	7779	7779	7608	7608	0	7444	7444	0	0	0	0	0	0	0	0	0	0	0	0	0	0	0	0	0	0	4977	5050	5050	5050	4977	4977	4977	4977	4977	4977	4906	4906	4906	4906	4906	4906	4906	4977	4977	4977	4906	4977	4977	5050	5050	4977	4977	0	0	0	0	0	0	0	0	0	0	0	0	0	0	0	0	0	0	0	0	0	0	0	0	0	0	0	0	0	0	0	0	0	0	0	0	0	0	0	0	0	0	0	0
0	0	0	0	0	804	804	808	810	812	812	815	815	823	829	831	831	833	835	839	843	848	848	850	850	850	854	856	860	862	869	871	878	878	880	880	882	891	894	894	898	898	901	903	910	920	925	927	927	930	927	930	932	935	940	948	950	953	961	963	963	969	972	974	985	988	991	994	997	1000	1000	1006	1008	1011	1014	1014	1026	1036	1045	1048	1052	1055	1058	1064	1068	1068	1078	1081	1081	1085	1088	1088	1088	1095	1095	0	0	0	0	0	0	0	0	0	4906	4838	4838	4771	4706	4706	4706	4643	4706	4771	4771	4838	4771	4771	4771	4771	4771	4771	4771	4706	4706	4706	4706	4706	4706	4771	4706	4771	4771	4771	4838	4771	4771	4706	4706	4643	4643	4643	4643	4643	4643	4643	4643	4643	4643	4643	4706	4706	4706	4706	4643	4643	4643	4643	4643	4643	4643	4643	4706	4706	4838	4906	4906	4977	4977	5050	5125	5282	5282	5282	5364	5364	5364	5364	5364	5282	5282	5282	5202	5202	5202	5202	5202	5202	5202	5202	5202	5202	5202	5202	5202	5202	5202	5202	5202	5202	5202	5202	5125	5125	5125	5202	5125	5125	0	0	0	0	0	0	0	0	0	0	6992	6992	6992	6853	6992	6992	6992	6992	6992	6992	6992	6992	7137	7137	8146	8343	8146	8146	7959	7959	7608	7444	7287	7287	7137	7137	7137	7137	0	0	0	0	7779	7779	7779	7959	8146	8343	8343	8343	8343	8343	8343	8343	8343	8146	8146	7959	7959	7959	7959	7959	7959	0	8343	8343	0	0	0	0	0	0	0	0	0	0	0	0	0	3440	3406	3406	3406	3406	3406	3406	3373	3373	3406	3406	3406	3406	3406	3406	3406	3406	3406	3440	3440	3406	3406	3406	3440	3440	3440	3406	3406	3440	3475	3440	3440	3440	3406	3406	3373	3373	3373	3373	3373	3373	3341	3341	3341	3373	3373	3373	3373	3406	3406	4581	4581	4643	4643	4643	4643	4643	4643	4643	4643	4643	4643	4581	4581	4581	4581	4581	4581	4581	4581	4581	4581	4581	4581	4581	4581	4521	4463	4406	4406	4406	4406	4463	4521	4521	4581	4581	4581	4581	4581	4581	4581	4581	4581	4581	4581	4581	4581	4581	4581	4581	4581	4581	4643	4643	4643	4643	4643	4643	4643	4643	4643	4643	4643	4643	4643	4581	4581	4643	4643	4581	4581	4643	4643	4581	4581	4581	4643	4643	4643	4581	4581	4581	4581	4581	4581	4581	4581	4581	4581	4581	4581	4581	4581	4581	4521	4463	4406	4406	4350	4350	4296	4296	4296	4243	4243	4243	4243	4296	4296	4296	4296	4296	4350	4296	4296	4243	4243	4192	4243	4192	4192	4243	4192	4243	4243	4243	4296	4296	4296	4296	4243	4296	4296	4296	4296	4350	4296	4296	4296	4296	4296	4243	4243	4243	4243	4243	4243	4243	4243	4243	4243	4243	4243	4243	4243	4243	4243	4243	4243	4243	4243	4243	4243	4243	4296	4296	4296	4296	4296	4243	4243	4243	4243	4243	4296	4406	4350	4521	4521	4521	4521	4463	4521	4521	4521	7137	7287	7287	7137	7287	7287	7444	7444	7444	7444	7608	7608	7608	7444	7444	7444	7608	7779	7779	7779	7779	7779	7779	0	0	0	0	0	0	0	0	0	0	0	0	0	0	0	0	0	0	0	0	0	0	0	4977	5050	5050	5050	5050	5050	4977	4977	4977	4977	4977	4977	4977	4906	4977	4906	4906	4977	4977	4977	4906	4977	5050	5050	5050	4977	4977	0	0	0	0	0	0	0	0	0	0	0	0	0	0	0	0	0	0	0	0	0	0	0	0	0	0	0	0	0	0	0	0	0	0	0	0	0	0	0	0	0	0	0	0
0	0	0	0	0	804	806	806	810	810	810	815	821	825	829	831	833	835	839	839	843	848	848	850	850	854	854	858	860	865	871	871	878	878	880	880	882	889	894	896	901	901	903	903	910	915	922	925	925	930	930	930	935	940	945	950	950	953	961	963	963	966	977	980	985	988	988	991	997	1000	1003	1006	1011	1014	1014	1017	1023	1036	1045	1048	1052	1052	1055	1058	1074	1078	1078	1081	1085	1085	1088	1088	1091	1091	1095	0	0	0	0	0	0	0	0	4906	4838	4771	4771	4706	4706	4706	4706	4643	4706	4771	4838	4838	4771	4771	4771	4771	4771	4771	4771	4706	4706	4706	4706	4643	4706	4771	4771	4771	4771	4838	4838	4771	4771	4706	4706	4706	4643	4643	4643	4643	4643	4643	4643	4643	4643	4643	4643	4706	4643	4706	4643	4643	4643	4643	4643	4643	4643	4643	4706	4706	4838	4906	4906	4977	4977	5050	5125	5202	5202	5282	5282	5282	5282	5364	5364	5364	5282	5282	5202	5202	5202	5202	5202	5202	5202	5202	5202	5202	5202	5202	5202	5202	5202	5202	5202	5202	5202	5202	5125	5202	5125	5125	5125	5125	0	0	0	0	0	0	0	0	0	6853	6853	6853	6853	6853	6992	6992	6992	6992	6992	6992	6992	6992	7137	7137	8146	8146	8146	8146	8146	7959	7444	7137	7137	6992	6992	6992	6992	6992	0	0	7137	7137	0	7608	7959	7959	8146	8343	8146	8146	8343	8343	8343	8343	8146	8146	8146	7959	7959	7959	8146	8343	8343	8343	8343	8343	0	0	0	0	0	0	0	0	0	0	0	0	0	3440	3440	3440	3406	3406	3406	3406	3406	3406	3406	3406	3406	3406	3406	3406	3406	3406	3406	3440	3440	3406	3406	3406	3440	3440	3440	3406	3406	3406	3440	3440	3440	3406	3373	3406	3373	3373	3341	3341	3341	3341	3341	3341	3341	3341	3373	3373	3373	3373	3373	4643	4643	4643	4643	4643	4643	4643	4643	4643	4643	4643	4643	4581	4581	4581	4581	4581	4581	4581	4581	4581	4581	4581	4581	4581	4521	4521	4463	4406	4406	4406	4463	4521	4521	4521	4581	4581	4581	4581	4581	4581	4581	4581	4581	4581	4581	4581	4581	4581	4581	4581	4581	4581	4643	4643	4643	4643	4643	4643	4643	4643	4643	4643	4643	4643	4643	4581	4643	4643	4643	4581	4643	4643	4643	4581	4643	4643	4643	4643	4643	4581	4581	4581	4581	4581	4581	4581	4581	4581	4581	4581	4581	4581	4581	4521	4463	4463	4406	4406	4350	4350	4296	4296	4296	4243	4243	4243	4243	4296	4296	4350	4350	4350	4350	4350	4296	4296	4243	4243	4243	4192	4192	4192	4243	4243	4243	4243	4296	4296	4296	4296	4296	4350	4350	4350	4296	4296	4350	4296	4296	4296	4296	4296	4243	4243	4296	4243	4243	4243	4296	4296	4296	4296	4243	4296	4296	4296	4296	4296	4243	4243	4243	4243	4296	4243	4296	4296	4296	4296	4296	4243	4243	4243	4243	4243	4296	4406	4350	4463	4521	4521	4521	4463	4463	4463	4463	4463	7287	7137	6992	6992	6992	6992	7444	7444	7444	7444	7608	7444	7444	7444	7444	7608	7779	7779	7779	7779	7779	0	0	0	0	0	0	0	0	0	0	0	0	0	0	0	0	0	0	0	0	0	0	0	0	0	5125	5050	5050	5050	5050	5050	4977	4977	4977	4977	4977	4977	4977	4977	4906	4906	4906	4977	4906	4906	4906	4906	5050	0	0	0	0	0	0	0	0	0	0	0	0	0	0	0	0	0	0	0	0	0	0	0	0	0	0	0	0	0	0	0	0	0	0	0	0	0	0	0	0	0	0	0	0	0	0	0
0	0	0	0	0	806	804	806	810	810	812	812	815	819	825	835	835	837	839	841	841	845	845	850	852	854	854	856	858	862	871	871	875	878	880	880	882	889	894	894	901	901	903	905	910	913	920	927	927	930	930	930	937	940	942	948	950	955	961	963	963	969	977	980	985	985	988	991	994	1000	1003	1006	1011	1014	1014	1014	1020	1033	1033	1048	1052	1052	1055	1058	1074	1078	1078	1081	1085	1085	1088	1088	1091	1091	0	0	0	0	0	0	0	0	0	4838	4838	4771	4771	4706	4706	4706	4706	4706	4906	4906	4906	4838	4838	4838	4771	4771	4771	4771	4771	4706	4706	4706	4706	4706	4706	4706	4706	4706	4771	4771	4838	4838	4771	4706	4706	4706	4706	4643	4643	4643	4643	4643	4643	4643	4643	4643	4643	4706	4706	4706	4706	4643	4643	4643	4643	4643	4643	4643	4706	4706	4771	4838	4906	4977	5050	5050	5125	5282	5282	5282	5364	5364	5282	5364	5364	5364	5364	5282	5202	5202	5202	5202	5202	5202	5202	5202	5202	5202	5202	5202	5202	5202	5202	5202	5202	5202	5202	5202	5125	5202	5125	5125	5125	0	0	0	0	0	0	0	0	0	0	6992	6992	6853	6853	6853	6992	6992	6992	6992	6992	6992	6992	7137	7137	7137	7444	7444	8343	8343	8343	6992	6992	6992	6853	6853	6853	6853	6853	6992	6992	6992	7137	7287	7608	7608	7959	8146	8343	8343	8343	8343	8343	8343	8343	8343	8146	8146	8146	8146	8146	8146	8146	8343	8343	8343	8343	8343	0	0	0	0	0	0	0	0	0	0	0	0	0	3440	3440	3440	3406	3406	3406	3406	3406	3406	3406	3406	3406	3406	3406	3406	3406	3406	3406	3406	3406	3406	3406	3406	3406	3406	3440	3440	3406	3440	3475	3440	3440	3406	3373	3406	3373	3373	3341	3341	3341	3341	3341	3341	3341	3341	3373	3373	3373	3373	3373	4581	4643	4643	4643	4643	4643	4643	4643	4643	4643	4643	4643	4581	4581	4581	4581	4581	4581	4581	4581	4581	4581	4581	4581	4581	4521	4521	4463	4406	4463	4463	4463	4463	4521	4521	4581	4581	4581	4581	4581	4581	4581	4581	4581	4581	4581	4581	4581	4581	4581	4581	4581	4581	4643	4643	4643	4643	4643	4643	4643	4643	4643	4643	4643	4643	4643	4643	4643	4643	4643	4643	4643	4643	4643	4643	4643	4643	4643	4643	4643	4643	4643	4581	4581	4581	4581	4581	4581	4581	4581	4581	4581	4581	4581	4521	4463	4463	4406	4406	4350	4350	4350	4296	4296	4243	4243	4243	4243	4296	4296	4296	4350	4350	4350	4350	4350	4296	4296	4243	4243	4243	4192	4243	4243	4243	4243	4243	4350	4350	4350	4350	4350	4350	4350	4296	4296	4350	4350	4350	4350	4350	4296	4350	4296	4296	4350	4296	4296	4296	4296	4296	4296	4296	4243	4296	4296	4296	4296	4296	4243	4243	4243	4243	4296	4243	4296	4296	4296	4296	4296	4296	4296	4243	4243	4296	4296	4406	4406	4463	4521	4521	4521	4463	4463	4463	4463	6992	6992	7137	6992	6992	6992	6992	7137	7137	7287	7287	7444	7444	7287	7444	7444	7608	7779	7779	7779	7608	7608	0	0	0	0	0	0	0	0	0	0	0	0	0	0	0	0	0	0	0	0	0	0	0	0	0	5202	5125	5125	5125	5050	5050	5050	4977	4977	4977	4977	4977	4977	4977	4906	4906	4906	4906	4838	4838	4906	4906	0	0	0	5050	5125	5125	5125	0	0	0	0	0	0	0	0	0	0	0	0	0	0	0	0	0	0	0	0	0	0	0	0	0	0	0	0	0	0	0	0	0	0	0	0	0	0	0	0	0
0	0	0	0	0	806	806	808	808	812	812	815	815	819	827	833	833	837	839	841	841	845	845	850	852	854	856	858	860	862	871	871	875	878	880	880	882	884	891	891	901	901	903	903	910	913	927	927	930	930	932	932	937	940	942	945	948	955	961	963	966	969	972	980	985	988	988	991	997	1000	1003	1006	1006	1014	1014	1014	1014	1033	1048	1052	1052	1055	1055	1058	1071	1074	1078	1081	1085	1085	1088	1088	1091	1091	0	0	0	0	0	0	0	0	0	4838	4838	4771	4771	4706	4706	4706	4706	4706	4838	4906	4906	4838	4838	4838	4838	4838	4771	4771	4771	4771	4706	4706	4706	4706	4706	4706	4706	4706	4771	4771	4771	4771	4771	4706	4706	4706	4643	4706	4706	4643	4643	4643	4643	4643	4643	4643	4643	4643	4643	4643	4643	4643	4643	4643	4643	4643	4643	4643	4706	4706	4771	4838	4906	4906	4977	4977	5050	5202	5202	5202	5202	5202	5202	0	5364	5282	5364	5282	5282	5282	5202	5202	5202	5202	5202	5202	5202	5202	5202	5202	5202	5202	5202	5202	5202	5202	5202	5202	5125	5202	5125	5125	0	0	0	0	0	0	0	0	0	0	0	6992	6992	6992	6992	6992	6992	6992	6992	6992	6992	6992	7137	7137	7287	7608	7444	8146	8146	8343	8343	6992	6992	6992	6853	6853	6853	6853	6992	6992	6992	6992	7137	7287	7608	7779	7779	8146	8146	8343	8343	8343	8343	8343	8343	8343	8146	8146	8146	8146	7959	7959	8146	8146	8146	8343	8343	8343	0	0	0	0	0	0	0	0	0	0	0	0	0	0	3440	3440	3440	3440	3406	3406	3406	3406	3406	3406	3406	3406	3406	3406	3406	3406	3406	3406	3406	3406	3406	3406	3440	3440	3440	3406	3406	3440	3475	3440	3440	3406	3406	3373	3373	3373	3341	3341	3341	3341	3341	3341	3341	3373	3373	3373	3373	3373	3373	4581	4643	4643	4643	4643	4643	4643	4643	4643	4643	4643	4643	4581	4581	4581	4581	4581	4581	4581	4581	4581	4581	4581	4581	4581	4521	4521	4406	4406	4463	4463	4463	4463	4521	4521	4581	4581	4581	4581	4581	4581	4581	4581	4581	4581	4581	4581	4581	4581	4581	4581	4581	4581	4643	4643	4643	4643	4643	4643	4643	4643	4643	4643	4643	4643	4643	4643	4643	4643	4643	4643	4643	4581	4643	4581	4581	4581	4581	4581	4643	4581	4581	4581	4581	4581	4581	4581	4581	4581	4581	4581	4581	4581	4581	4581	4521	4521	4406	4406	4350	4350	4350	4350	4296	4296	4243	4296	4296	4296	4296	4296	4296	4350	4350	4350	4350	4296	4296	4296	4243	4243	4243	4243	4296	4296	4296	4296	4350	4406	4350	4406	4406	4463	4406	4350	4350	4350	4350	4350	4406	4350	4406	4406	4406	4406	4406	4350	4350	4350	4350	4296	4296	4296	4296	4296	4296	4296	4296	4296	4243	4296	4243	4296	4296	4296	4350	4350	4350	4350	4350	4296	4296	4296	4296	4296	4350	4406	4406	4463	4521	4521	4521	4463	4521	4521	4521	6992	7137	7137	6992	6992	6992	6992	7137	7137	7137	7137	7287	7287	7287	7287	7287	7444	7608	7608	7444	7444	7444	0	0	0	0	0	0	0	0	0	0	0	0	0	0	0	0	0	0	0	0	0	0	0	0	0	5282	5202	5202	5125	5125	5050	5050	5050	4977	5050	4977	4977	4977	4977	4977	4906	4977	4977	4906	4838	4838	4838	0	0	0	5050	5202	5125	5125	0	0	0	0	0	0	0	0	0	0	0	0	0	0	0	0	0	0	0	0	0	0	0	0	0	0	0	0	0	0	0	0	0	0	0	0	0	0	0	0	0
0	0	0	0	0	0	806	808	812	812	814	817	815	823	827	831	831	835	837	841	841	845	845	850	852	854	856	860	862	865	869	871	873	878	880	880	882	884	894	894	901	901	903	905	913	917	925	925	930	930	932	932	935	937	940	942	948	953	958	966	969	972	974	977	983	985	988	991	994	1000	1003	1008	1014	1017	1017	1014	1023	1036	1048	1052	1055	1055	1055	1058	1071	1074	1078	1081	1085	1085	1088	1088	1095	1095	0	0	0	0	0	0	0	0	0	4771	4838	4771	4771	4771	4771	4706	4706	4706	4838	4838	4838	4838	4838	4838	4838	4771	4771	4771	4771	4771	4771	4706	4706	4643	4706	4706	4706	4706	4706	4706	4706	4771	4771	4771	4771	4771	4706	4706	4706	4706	4643	4643	4643	4643	4643	4643	4643	4643	4643	4643	4643	4643	4643	4643	4643	4643	4643	4643	4643	4706	4706	4838	4838	4906	4906	4906	4906	5202	5202	5202	5202	5202	5202	5364	5282	5282	5282	5282	5282	5282	5282	5202	5202	5202	5202	5202	5202	5202	5202	5202	5202	5202	5202	5202	5202	5202	5202	5202	5202	5202	5202	5125	0	0	0	0	0	0	0	0	0	0	0	6992	6992	6992	6992	6992	6992	6992	6992	6992	6992	6992	7137	7137	7287	7608	7779	8146	8146	8146	7959	6992	6992	6853	6853	6853	6853	6853	6853	6853	0	0	7137	7287	7959	8146	8146	8146	8343	8343	8146	8343	8343	8343	8343	8343	8146	8146	8146	8146	8146	7959	7959	8146	8146	0	0	0	0	0	0	0	0	0	0	0	0	0	0	0	0	0	3440	3440	3440	3440	3406	3406	3406	3406	3406	3406	3406	3406	3406	3406	3406	3406	3406	3406	3440	3406	3406	3406	3440	3440	3440	3440	3406	3440	3440	3440	3440	3406	3406	3406	3373	3373	3341	3341	3341	3341	3341	3341	3341	3373	3373	3373	3373	3373	3373	4581	4643	4643	4643	4643	4643	4643	4643	4643	4643	4581	4643	4643	4581	4581	4581	4581	4581	4581	4581	4581	4581	4581	4581	4581	4521	4463	4406	4406	4463	4463	4463	4463	4521	4521	4581	4581	4581	4581	4581	4581	4581	4581	4581	4581	4581	4581	4581	4581	4581	4581	4581	4581	4643	4643	4643	4643	4643	4643	4643	4643	4643	4581	4643	4643	4643	4643	4643	4643	4643	4643	4581	4581	4581	4581	4581	4581	4581	4581	4581	4581	4581	4581	4581	4581	4581	4581	4581	4581	4581	4581	4581	4581	4581	4581	4521	4463	4406	4406	4350	4350	4350	4296	4296	4296	4296	4296	4296	4243	4296	4296	4296	4350	4350	4350	4350	4350	4350	4296	4296	4296	4296	4296	4296	4296	4296	4350	4463	4463	4463	4463	4463	4463	4463	4350	4296	4350	4350	4350	4406	4406	4406	4463	4463	4406	4463	4406	4406	4350	4350	4350	4350	4350	4296	4350	4350	4350	4350	4296	4296	4296	4296	4296	4350	4296	4350	4350	4350	4350	4350	4350	4296	4296	4296	4350	4350	4406	4406	4521	4521	4581	4581	4521	4581	4581	4581	4581	7287	7287	7287	7137	7287	6992	6992	7137	6992	7137	7137	7137	7137	7137	7137	7444	7444	7608	7287	7287	7137	7137	0	0	0	0	0	0	0	0	0	0	0	0	0	0	0	0	0	0	0	0	0	0	0	0	5282	5202	5282	5202	5202	5125	5050	5050	5050	5050	5050	5050	5050	4977	4977	4977	4977	4906	4838	4838	4838	4838	0	0	0	0	5125	5125	5125	0	0	0	0	0	0	0	0	0	0	0	0	0	0	0	0	0	0	0	0	0	0	0	0	0	0	0	0	0	0	0	0	0	0	0	0	0	0	0	0	0
0	0	0	0	0	806	806	808	810	812	815	819	819	825	827	831	831	835	839	841	841	843	843	845	850	854	856	860	862	865	869	871	875	878	880	880	882	882	891	894	898	901	901	908	915	917	920	922	927	930	930	932	935	937	940	945	948	953	955	963	969	972	972	980	983	985	988	991	994	1000	1006	1008	1011	1014	1014	1014	1020	1042	1048	1052	1052	1055	1055	1055	1068	1078	1078	1085	1088	1088	1091	1091	1095	1095	0	0	0	0	0	0	0	0	0	4838	4838	4771	4771	4771	4771	4771	4771	4771	4838	4838	4838	4838	4838	4838	4838	4771	4771	4771	4838	4771	4771	4706	4706	4706	4706	4706	4643	4643	4643	4706	4706	4706	4706	4771	4771	4771	4771	4706	4706	4706	4706	4643	4643	4643	4643	4643	4643	4643	4643	4643	4643	4643	4643	4643	4643	4643	4643	4643	4643	4706	4771	4838	4838	4906	4906	4906	4906	4906	5202	5202	5202	5202	0	5364	5364	5282	5282	5282	5282	5282	5282	5202	5202	5202	5202	5202	5202	5202	5202	5202	5202	5202	5202	5202	5202	5202	5202	5202	5202	5202	5202	0	0	0	0	0	0	0	0	0	0	0	6853	6853	6853	6853	6853	6853	6992	6992	6992	6992	6992	6992	7137	7137	7137	7444	7608	7959	7959	7959	7959	7779	6992	6992	6992	6853	6853	6853	6853	6853	0	0	0	0	8146	8146	8146	8146	8146	8146	8146	8146	8343	8343	8343	8343	8146	8146	8146	8146	8146	7959	7959	8146	8146	0	0	0	0	0	0	0	0	0	0	0	0	0	0	0	0	3440	3440	3440	3440	3440	3406	3406	3406	3406	3406	3406	3406	3406	3406	3406	3406	3406	3406	3406	3440	3406	3406	3406	3440	3440	3475	3440	3440	3440	3475	3440	3440	3440	3406	3406	3373	3373	3341	3341	3341	3341	3341	3341	3373	3373	3373	3406	3406	3406	4581	4643	4643	4643	4643	4643	4643	4643	4643	4643	4643	4581	4581	4581	4581	4581	4581	4581	4581	4581	4581	4581	4581	4581	4581	4581	4521	4463	4406	4406	4463	4463	4463	4463	4521	4521	4581	4581	4581	4581	4581	4581	4581	4581	4581	4581	4581	4581	4581	4581	4581	4581	4581	4581	4643	4643	4643	4643	4643	4643	4643	4643	4581	4581	4581	4581	4643	4643	4643	4643	4643	4643	4581	4581	4581	4581	4581	4581	4581	4581	4581	4581	4581	4581	4581	4581	4581	4581	4581	4581	4581	4581	4581	4581	4581	4581	4521	4463	4406	4406	4350	4350	4350	4350	4296	4296	4350	4350	4350	4296	4296	4350	4350	4350	4350	4406	4406	4350	4350	4350	4350	4350	4350	4406	4406	4406	4406	4406	4521	4521	4521	4521	4521	4521	4463	4406	4350	4406	4406	4406	4406	4406	4463	4463	4521	4463	4463	4463	4463	4406	4406	4406	4406	4406	4350	4406	4406	4406	4350	4350	4350	4350	4350	4350	4350	4350	4406	4406	4350	4350	4350	4350	4350	4296	4296	4350	4406	4406	4463	4521	4581	4521	4521	4521	4581	4643	4643	4643	7444	7444	7287	7287	7287	6992	6992	6992	6992	6992	7137	7137	6992	6992	7137	7287	7287	7287	7137	7137	6992	6992	0	0	0	0	0	0	0	0	0	0	0	0	0	0	0	0	0	0	0	0	0	0	0	0	5282	5202	5202	5125	5125	5050	5050	5050	5050	5050	5050	5050	5050	5050	4977	4977	4977	4977	4906	4838	4838	4906	4977	4977	4977	5050	5125	5050	5125	5050	5050	0	0	0	0	0	0	0	0	0	0	0	0	0	0	0	0	0	0	0	0	0	0	0	0	0	0	0	0	0	0	0	0	0	0	0	0	0	0	0
0	0	0	0	0	806	806	806	810	810	812	815	821	827	827	831	833	837	837	841	841	843	843	845	850	854	856	862	865	867	869	871	873	878	880	880	882	884	896	898	901	903	908	910	915	917	920	922	927	930	932	932	937	937	940	945	948	948	961	966	969	972	977	980	983	985	988	991	994	1000	1003	1008	1014	1017	1017	1017	1023	1030	1048	1052	1052	1055	1055	1055	1064	1071	1078	1085	1088	1088	1091	1091	1095	1095	0	0	0	0	0	0	0	0	0	4838	4838	4771	4771	4771	4771	4771	4771	4771	4838	4838	4838	4838	4838	4838	4838	4771	4771	4771	4838	4838	4838	4771	4771	4771	4706	4706	4643	4706	4643	4706	4706	4706	4706	4706	4771	4706	4706	4706	4706	4706	4706	4643	4643	4643	4643	4643	4643	4643	4643	4643	4643	4643	4643	4643	4643	4643	4643	4643	4643	4706	4771	4771	4838	4906	4906	4906	4906	4906	5202	5202	5202	0	5448	5448	5364	5282	5282	5282	5282	5282	5282	5282	5282	5202	5202	5202	5202	5202	5202	5202	5202	5202	5202	5202	5202	5202	5202	5202	5202	5282	5282	0	0	0	0	0	0	0	0	0	0	0	6853	6992	6992	6853	6992	6992	6992	6992	6992	6992	6992	6992	6992	6992	6992	7137	7444	7608	7779	7779	7779	7608	6992	6992	6853	6853	6853	6853	6853	6853	0	0	0	0	8146	8146	8146	8146	8146	8146	8146	8146	8146	8146	8343	8343	8343	8343	8343	8146	8146	7959	8146	8146	8146	0	0	0	0	0	0	0	0	0	0	0	0	0	0	0	0	3475	3475	3440	3440	3440	3440	3406	3406	3406	3406	3406	3406	3406	3406	3406	3406	3406	3406	3440	3440	3406	3440	3440	3440	3440	3475	3440	3440	3440	3475	3440	3440	3406	3406	3373	3373	3341	3341	3341	3341	3341	3341	3373	3373	3406	3406	3406	3406	3373	3373	4643	4643	4643	4643	4643	4581	4581	4643	4581	4581	4581	4581	4581	4581	4581	4581	4581	4581	4581	4581	4643	4581	4581	4581	4581	4521	4521	4463	4463	4521	4463	4463	4521	4521	4521	4581	4581	4581	4581	4581	4581	4581	4581	4581	4581	4581	4581	4581	4581	4581	4521	4581	4581	4643	4643	4643	4643	4643	4643	4643	4643	4581	4581	4643	4643	4643	4643	4643	4643	4643	4643	4581	4581	4581	4581	4581	4581	4581	4581	4581	4581	4581	4581	4581	4581	4581	4581	4581	4581	4581	4581	4581	4581	4581	4581	4521	4463	4406	4350	4350	4350	4350	4350	4350	4350	4406	4406	4406	4350	4463	4406	4406	4406	4406	4463	4463	4406	4463	4521	4463	4463	4463	4463	4463	4463	4463	4463	4581	4581	4581	4581	4581	4581	4521	4463	4406	4463	4463	4463	4463	4463	4521	4581	4521	4521	4463	4463	4521	4463	4463	4463	4463	4463	4463	4521	4463	4463	4463	4463	4463	4463	4463	4406	4463	4463	4463	4406	4406	4406	4406	4406	4350	4350	4350	4350	4406	4406	4463	4521	4581	4581	4581	4581	4643	4643	4643	4643	4643	7444	7287	7287	7287	6992	6992	6992	6992	6992	7137	7137	7137	7137	7137	7287	7137	7137	6992	6992	6992	6992	6992	0	0	0	0	0	0	0	0	0	0	0	0	0	0	0	0	0	0	0	0	0	0	0	5282	5202	5202	5125	5125	5050	5050	5050	5050	5050	5050	5050	5050	5050	4977	4977	5050	4977	4977	4906	4906	4977	5050	5050	5050	5050	5125	5050	5050	5050	5125	5050	5050	5050	0	0	0	0	0	0	0	0	0	0	0	0	0	0	0	0	0	0	0	0	0	0	0	0	0	0	0	0	0	0	0	0	0	0	0	0
0	0	0	0	0	806	806	806	810	812	815	819	823	825	825	829	831	835	835	841	843	843	843	845	848	852	856	862	865	867	869	871	875	880	880	880	882	887	896	898	901	908	908	910	915	917	920	925	927	930	932	935	935	940	940	945	948	961	966	966	969	972	974	980	983	988	991	994	1000	1003	1003	1011	1014	1017	1017	1020	1026	1030	1039	1048	1052	1055	1055	1058	1068	1074	1078	1081	1085	1088	1088	1091	1095	1095	0	0	0	0	0	0	0	0	0	4838	4838	4838	4838	4838	4838	4771	4838	4838	4838	4906	4838	4838	4838	4838	4838	4771	4771	4771	4838	4838	4771	4771	4771	4706	4706	4643	4643	4643	4643	4706	4706	4706	4706	4771	4771	4706	4706	4706	4706	4706	4706	4643	4643	4643	4643	4643	4643	4643	4643	4643	4643	4643	4643	4643	4643	4643	4643	4643	4643	4706	4706	4771	4838	4906	4906	4906	4906	4906	5202	5202	5202	5364	5364	5364	5364	5282	5282	5282	5282	5282	5282	5282	5282	5282	5202	5202	5202	5202	5202	5202	5202	5202	5202	5202	5202	5202	5202	5202	5282	5282	5282	0	0	0	0	0	0	0	0	0	0	0	6992	6992	6992	6853	6992	6992	6992	6992	6992	6992	6992	6992	6992	6992	6992	7137	7287	7444	7444	7608	7608	7444	6992	6853	6853	6853	6853	6853	0	0	0	0	0	0	8343	8146	8146	8146	8146	8146	8146	8146	8146	8146	8343	8343	8343	8343	8343	8343	8146	8146	8146	8146	8146	0	0	0	0	0	0	0	0	0	0	0	0	0	0	0	0	3510	3510	3475	3440	3440	3440	3406	3406	3406	3406	3406	3406	3406	3406	3406	3406	3406	3406	3440	3440	3406	3406	3406	3440	3440	3440	3440	3440	3440	3475	3440	3440	3440	3406	3406	3373	3341	3341	3341	3341	3341	3373	3373	3373	3406	3406	3406	3406	3406	3406	4581	4581	4643	4643	4581	4581	4643	4643	4643	4643	4581	4643	4581	4581	4581	4581	4581	4581	4581	4581	4581	4581	4581	4581	4581	4521	4521	4463	4463	4463	4521	4521	4521	4521	4581	4581	4581	4581	4581	4581	4581	4581	4581	4581	4581	4581	4581	4581	4581	4581	4521	4521	4581	4643	4643	4643	4643	4643	4643	4643	4643	4581	4581	4581	4643	4643	4643	4643	4643	4643	4643	4581	4581	4581	4581	4581	4581	4581	4581	4581	4581	4581	4581	4581	4581	4581	4581	4581	4581	4581	4581	4581	4581	4581	4581	4521	4463	4406	4350	4350	4350	4350	4350	4350	4406	4463	4463	4463	4406	4521	4406	4463	4463	4521	4581	4581	4521	4521	4521	4521	4521	4463	4521	4521	4521	4521	4521	4581	4581	4643	4581	4643	4581	4581	4521	4463	4521	4521	4521	4521	4463	4521	4581	4581	4521	4521	4521	4521	4521	4521	4463	4463	4521	4521	4521	4521	4521	4463	4463	4521	4581	4521	4521	4463	4463	4463	4463	4406	4406	4406	4406	4350	4350	4350	4406	4406	4463	4463	4521	4581	4581	4581	4643	4643	4643	4643	4643	7779	7608	7444	7287	7287	6992	6992	6992	6992	7137	7287	7287	7287	7137	7137	7287	7287	7137	6992	6992	6992	6853	6992	6992	0	0	0	0	0	0	0	0	0	0	0	0	0	0	0	0	0	0	0	0	0	0	5202	5202	5202	5125	5125	5050	5050	5050	5050	5050	5050	5050	5050	5050	4977	4977	4977	4977	4977	4906	4906	4977	5050	5050	5050	5125	5125	5125	5125	5125	5050	5050	5050	5050	0	0	0	0	0	0	0	0	0	0	0	0	0	0	0	0	0	0	0	0	0	0	0	0	0	0	0	0	0	0	0	0	0	0	0	0
0	0	0	0	0	806	806	808	810	814	815	821	823	823	825	827	829	833	839	841	841	845	845	848	848	852	854	860	862	865	869	871	875	880	880	880	882	884	891	898	905	908	905	908	913	915	915	920	927	930	932	935	937	940	940	948	950	963	966	966	969	972	974	977	983	988	994	997	1000	1006	1006	1011	1014	1017	1017	1020	1026	1030	1036	1045	1052	1055	1058	1064	1071	1074	1078	1081	1085	1088	1088	1091	1095	1095	0	0	0	0	0	0	0	0	0	4838	4838	4771	4838	4838	4838	4838	4838	4838	4838	4906	4838	4838	4838	4838	4838	4771	4771	4771	4838	4838	4771	4771	4771	4771	4706	4643	4643	4643	4643	4706	4706	4706	4706	4771	4771	4706	4706	4706	4706	4706	4706	4643	4643	4643	4643	4643	4643	4643	4643	4643	4643	4643	4643	4643	4643	4643	4643	4643	4706	4706	4771	4771	4838	4838	4906	4906	4906	4977	4977	5282	5282	5282	5282	5282	5282	5282	5282	5282	5282	5282	5282	5282	5282	5282	5282	5202	5202	5202	5202	5202	5202	5202	5202	5202	5202	5202	5202	5202	5282	5282	0	0	0	0	0	0	0	0	0	0	0	0	6992	6992	6992	6992	6992	6992	6992	6992	6992	6992	6992	6992	6992	7137	7137	7137	7444	7444	7444	7444	7444	7444	6992	6853	6853	6853	6853	0	0	0	0	0	0	0	8343	8343	8343	8146	8146	8146	7959	8146	8146	8146	8343	8343	8343	8343	8343	8343	8343	8146	8146	8343	8343	0	0	0	0	0	0	0	0	0	0	0	0	0	0	0	0	3510	3510	3475	3440	3440	3440	3406	3406	3406	3406	3406	3406	3406	3406	3406	3406	3406	3406	3440	3440	3406	3406	3406	3440	3440	3440	3440	3440	3440	3475	3440	3440	3440	3440	3406	3373	3373	3341	3341	3341	3341	3373	3373	3373	3406	3406	3406	3406	3373	3373	4581	4643	4643	4643	4581	4643	4643	4643	4643	4643	4643	4643	4643	4581	4581	4581	4581	4581	4581	4581	4581	4643	4581	4581	4581	4521	4521	4463	4463	4463	4463	4521	4521	4521	4581	4581	4581	4581	4581	4581	4581	4581	4581	4581	4581	4581	4581	4581	4581	4581	4581	4581	4581	4643	4643	4643	4643	4643	4643	4643	4581	4581	4581	4581	4643	4643	4581	4581	4643	4643	4643	4581	4581	4581	4581	4581	4581	4581	4581	4581	4581	4581	4581	4581	4581	4581	4581	4581	4581	4581	4581	4581	4581	4581	4581	4581	4463	4406	4406	4350	4350	4406	4350	4406	4463	4463	4521	4581	4581	4581	4581	4521	4521	4581	4581	4581	4581	4581	4581	4581	4521	4521	4521	4521	4521	4521	4521	4581	4581	4643	4581	4643	4581	4581	4521	4521	4521	4581	4521	4521	4521	4521	4581	4581	4521	4521	4521	4581	4521	4521	4521	4521	4521	4521	4581	4521	4463	4463	4463	4521	4521	4581	4581	4581	4521	4463	4463	4463	4406	4406	4406	4406	4350	4350	4350	4406	4406	4463	4521	4581	4581	4581	4643	4643	4706	4706	4706	7779	7608	7444	7287	7287	7287	7137	7137	7137	7137	7287	7287	7287	7137	7137	7287	7137	7137	6992	6992	6992	6853	6992	6720	6720	0	0	0	0	0	0	0	0	0	0	0	0	0	0	0	0	0	0	0	0	0	5202	5202	5125	5050	5050	5050	5050	5050	4977	5050	5050	5050	5050	5050	4977	4977	4977	4977	4977	4977	4977	4977	5050	5050	5050	5125	5125	5125	5125	5125	5050	5050	5125	0	0	0	0	0	0	0	0	0	0	0	0	0	0	0	0	0	0	0	0	0	0	0	0	0	0	0	0	0	0	0	0	0	0	0	0	0
0	0	0	0	0	806	808	808	815	815	817	821	823	825	825	827	831	833	837	839	841	845	845	848	850	854	854	860	865	865	869	871	873	880	880	880	884	884	884	898	903	903	905	910	915	917	920	925	927	930	932	932	935	940	942	948	953	963	966	969	969	972	974	980	983	988	994	997	1003	1006	1008	1011	1014	1017	1017	1020	1023	1026	1036	1048	1052	1055	1058	1064	1071	1074	1074	1081	1085	1085	1088	1088	1091	1091	0	0	0	0	0	0	0	0	0	4771	4771	4838	4838	4838	4838	4838	4838	4838	4838	4838	4838	4838	4838	4838	4838	4771	4771	4771	4838	4771	4771	4771	4706	4706	4706	4643	4643	4643	4643	4706	4706	4706	4706	4771	4771	4706	4706	4706	4706	4706	4706	4643	4643	4643	4643	4643	4643	4643	4643	4706	4643	4643	4643	4643	4643	4643	4643	4643	4706	4771	4771	4771	4838	4838	4906	4906	4977	4977	5202	5202	5282	5282	5282	5282	5282	5282	5282	5282	5282	5282	5282	5282	5282	5282	5282	5282	5282	5202	5202	5202	5202	5202	5125	5202	5202	5125	5202	5202	5202	5202	0	0	0	0	0	0	0	0	0	0	0	0	0	6992	6992	6992	6992	6992	6992	6992	6992	6992	6992	6992	6992	6992	7137	7137	7287	7444	7444	7287	7287	7287	6992	6992	6992	6992	0	0	0	0	0	0	0	0	0	8343	8343	8146	8146	8146	8146	8146	8146	8146	8343	8343	8343	8343	8343	8343	8343	8146	8146	8343	8343	0	0	0	0	0	0	0	0	0	0	0	0	0	0	0	0	3546	3510	3475	3440	3440	3440	3406	3406	3406	3406	3406	3406	3406	3440	3406	3440	3440	3440	3440	3440	3406	3440	3440	3440	3440	3440	3440	3440	3440	3440	3475	3475	3440	3440	3440	3406	3373	3373	3341	3341	3341	3341	3373	3373	3373	3406	3406	3406	3406	4581	4581	4581	4643	4643	4581	4581	4643	4643	4643	4643	4643	4643	4643	4643	4581	4581	4581	4581	4581	4581	4581	4643	4581	4581	4581	4581	4521	4463	4463	4463	4521	4521	4521	4521	4581	4581	4581	4581	4581	4581	4581	4581	4581	4581	4581	4581	4581	4521	4521	4581	4521	4521	4581	4643	4643	4581	4643	4643	4581	4643	4581	4581	4581	4581	4643	4643	4581	4581	4643	4643	4581	4581	4581	4581	4581	4581	4581	4581	4581	4581	4581	4581	4581	4581	4581	4581	4581	4581	4581	4581	4581	4581	4581	4581	4581	4581	4463	4406	4350	4350	4350	4350	4350	4406	4463	4521	4581	4581	4581	4581	4581	4521	4521	4581	4581	4581	4581	4581	4581	4581	4581	4521	4521	4521	4521	4521	4521	4643	4643	4643	4581	4581	4581	4581	4521	4521	4521	4581	4521	4521	4521	4521	4521	4581	4521	4521	4521	4581	4521	4581	4521	4521	4521	4521	4521	4463	4463	4463	4521	4521	4521	4581	4581	4581	4521	4463	4463	4463	4463	4406	4406	4406	4350	4296	4296	4350	4406	4463	4521	4581	4581	4581	4581	4643	4643	4643	4643	7608	7608	7444	7287	7137	7137	7137	7137	7137	7137	7287	7287	7287	7137	7137	7287	7137	7137	6992	6992	6992	6853	6720	6720	6720	0	0	0	0	0	0	0	0	0	0	0	0	0	0	0	0	0	0	0	0	0	0	0	5050	5050	5050	0	5050	5050	4977	5050	5050	5050	0	0	0	4977	4977	4977	4977	4977	4977	5050	5050	5125	5125	5125	5125	5050	5050	5050	5050	4977	4977	4977	0	0	5050	5050	0	0	0	0	0	0	0	0	0	0	0	0	0	0	0	0	0	0	0	0	0	0	0	0	0	0	0	0	0	0	0	0
0	0	0	0	0	804	806	808	819	819	819	821	825	827	827	829	831	833	835	837	839	845	845	848	850	854	854	862	867	867	869	871	873	880	878	880	882	882	884	896	903	905	908	910	915	917	920	925	927	930	932	932	935	937	945	950	953	966	966	969	969	972	974	980	985	991	994	997	1000	1006	1006	1011	1014	1017	1017	1020	1026	1026	1036	1042	1048	1055	1058	1068	1071	1074	1074	1081	1085	1085	1088	1088	1088	1091	1091	0	0	0	0	0	0	0	0	4771	4771	4771	4838	4838	4838	4838	4838	4838	4838	4838	4838	4838	4838	4838	4771	4771	4771	4771	4771	4771	4771	4771	4771	4771	4706	4706	4706	4706	4643	4706	4706	4706	4706	4706	4706	4706	4706	4706	4706	4706	4706	4643	4706	4643	4643	4643	4643	4643	4643	4643	4643	4643	4643	4643	4643	4643	4643	4643	4706	4706	4838	4838	4838	4906	4906	4977	5050	5202	5202	5202	5282	5282	5282	5282	5282	5282	5282	5282	5282	5282	5282	5282	5282	5282	5282	5282	5282	5202	5202	5202	5202	5202	5202	5202	5202	5202	5202	5202	5202	5202	0	0	0	0	0	0	0	0	0	0	0	0	0	7137	6992	6992	6992	6992	6992	6992	6992	6992	6992	6992	6992	6992	6992	7137	7137	7287	7287	7137	7137	7137	7137	6853	6853	6992	0	0	0	0	0	0	0	0	0	8343	8343	8146	8146	8146	8146	8146	8146	8146	8343	8343	8146	8146	8146	8146	8146	7959	7959	8146	8146	0	0	0	0	0	0	0	0	0	0	0	0	0	0	0	0	3546	3510	3475	3440	3440	3440	3406	3406	3406	3406	3440	3440	3440	3440	3440	3440	3440	3440	3440	3440	3406	3406	3440	3440	3440	3440	3440	3440	3440	3440	3475	3475	3440	3440	3440	3406	3406	3373	3341	3373	3373	3373	3373	3406	3373	3406	3406	3406	3406	4581	4581	4581	4643	4581	4581	4581	4581	4643	4643	4643	4643	4643	4643	4643	4581	4581	4581	4581	4581	4581	4581	4581	4581	4581	4581	4521	4521	4463	4463	4463	4521	4521	4521	4521	4581	4581	4581	4581	4581	4581	4581	4581	4581	4581	4581	4581	4521	4521	4521	4521	4521	4521	4521	4581	4581	4581	4581	4581	4581	4581	4581	4581	4581	4581	4643	4643	4643	4643	4643	4643	4643	4581	4581	4581	4581	4581	4581	4581	4581	4581	4581	4581	4581	4581	4581	4581	4581	4581	4581	4581	4581	4581	4581	4581	4521	4521	4406	4406	4350	4350	4350	4350	4350	4350	4463	4521	4581	4581	4581	4581	4581	4581	4581	4581	4581	4581	4581	4581	4581	4581	4581	4521	4521	4521	4581	4521	4521	4643	4643	4643	4643	4581	4581	4581	4521	4521	4521	4581	4581	4581	4521	4581	4521	4581	4521	4521	4521	4521	4521	4521	4521	4521	4521	4521	4521	4521	4521	4463	4521	4521	4521	4581	4581	4581	4521	4463	4463	4463	4463	4406	4406	4350	4296	4296	4296	4296	4350	4406	4463	4581	4581	4581	4581	4643	4643	4643	4643	7444	7444	7287	7287	7287	7287	7137	7137	7137	7287	7287	7287	7137	7137	6992	6992	7137	6992	6992	6992	6853	6853	6720	6720	6720	0	0	0	0	0	0	0	0	0	0	0	0	0	0	0	0	0	0	0	0	0	0	0	5050	5050	0	0	0	0	0	0	0	0	0	0	0	0	4977	4977	4977	4977	4977	5050	5050	5050	5050	5050	5050	5050	5050	5050	5050	4977	4977	4977	4977	0	5050	5050	0	0	0	0	0	0	0	0	0	0	0	0	0	0	0	0	0	0	0	0	0	0	0	0	0	0	0	0	0	0	0	0
0	0	0	0	0	802	806	806	815	817	817	823	825	827	827	829	831	833	837	837	839	845	845	848	850	854	850	860	865	867	869	871	871	878	878	880	882	884	882	896	901	903	908	908	913	917	920	925	930	930	932	935	937	940	948	950	961	963	966	969	969	972	974	980	983	988	994	997	1000	1003	1006	1011	1014	1017	1020	1023	1026	1026	1039	1042	1045	1052	1061	1068	1071	1074	1074	1078	1085	1085	1085	1088	1088	1091	1091	0	0	0	0	0	0	0	0	0	4643	4838	4838	4838	4838	4838	4838	4838	4838	4838	4838	4838	4838	4838	4771	4771	4771	4771	4771	4771	4771	4771	4771	4771	4771	4706	4706	4706	4706	4706	4706	4706	4706	4706	4706	4706	4706	4706	4706	4706	4706	4643	4643	4643	4643	4643	4643	4643	4643	4706	4643	4643	4643	4643	4643	4643	4643	4643	4706	4771	4838	4838	4838	4906	4977	5050	5125	5202	5202	5202	5282	5282	5282	5282	5282	5282	5282	5282	5282	5282	5282	5282	5282	5282	5282	5202	5202	5202	5202	5202	5202	5202	5202	5202	5202	5202	5202	5202	5282	5282	5282	0	0	0	0	0	0	0	0	0	0	0	7137	7137	6992	6992	6992	6992	6992	6992	6992	6992	6992	6992	6992	6992	6992	6992	7137	7137	7137	7137	7137	7137	7137	6992	6992	0	0	0	0	0	0	0	0	0	8550	8550	8343	8343	8146	8146	8146	8146	8146	8146	8343	8343	8343	8146	8343	8343	8146	7959	7959	8146	8146	0	0	0	0	0	0	0	0	0	0	0	0	0	0	0	0	3546	3510	3475	3440	3440	3440	3406	3406	3406	3406	3440	3440	3440	3440	3440	3440	3440	3440	3440	3440	3406	3406	3440	3440	3440	3440	3440	3440	3440	3440	3475	3475	3440	3440	3440	3440	3406	3406	3373	3373	3373	3373	3373	3406	3406	3406	3406	3406	3406	4521	4581	4581	4643	4643	4581	4581	4643	4643	4643	4643	4643	4643	4643	4643	4581	4581	4581	4581	4581	4581	4581	4643	4581	4581	4581	4581	4521	4463	4463	4521	4521	4521	4521	4521	4581	4581	4581	4581	4581	4581	4581	4581	4581	4581	4581	4521	4521	4521	4521	4521	4521	4521	4521	4581	4581	4581	4581	4581	4581	4581	4581	4581	4581	4581	4643	4643	4581	4643	4643	4643	4581	4581	4581	4581	4581	4581	4581	4581	4581	4581	4581	4581	4581	4581	4581	4581	4581	4581	4581	4581	4581	4581	4581	4581	4521	4406	4406	4406	4350	4350	4350	4350	4350	4406	4463	4521	4521	4581	4581	4581	4581	4581	4581	4581	4581	4581	4581	4581	4581	4581	4581	4521	4581	4581	4581	4581	4581	4643	4643	4643	4643	4581	4581	4581	4521	4521	4521	4581	4521	4581	4521	4521	4521	4521	4521	4521	4521	4521	4581	4581	4521	4521	4521	4521	4521	4521	4521	4463	4521	4521	4521	4581	4581	4521	4521	4463	4463	4463	4406	4406	4350	4296	4243	4243	4296	4296	4350	4406	4463	4521	4581	4581	4521	4581	4581	4581	4581	7444	7444	7444	7444	7287	7287	7287	7287	7287	7287	7287	7287	7137	7137	6992	7137	6992	6992	6853	6853	6853	6853	6720	6592	6592	6592	0	0	0	0	0	0	0	0	0	0	0	0	0	0	0	0	0	0	0	0	0	0	5050	5050	0	0	0	0	0	0	0	0	0	0	0	0	0	0	0	0	0	5050	5050	5050	5050	5050	5050	5050	5050	5050	5050	5050	4977	4977	4977	5050	5050	5050	0	0	0	0	0	0	0	0	0	0	0	0	0	0	0	0	0	0	0	0	0	0	0	0	0	0	0	0	0	0	0	0
