0	0	0	0	0	0	0	932	932	935	937	940	940	942	945	948	961	963	966	966	969	972	974	977	980	983	980	988	991	991	997	1000	1000	1003	1006	1011	1017	1033	1033	1036	1036	1036	1039	1039	1039	1039	1045	1055	1061	1061	1068	1071	1071	1071	1074	1078	1088	1095	1095	1095	1098	1102	1098	1098	1098	1098	1098	1098	0	0	0	0	0	0	0	0	0	0	0	0	0	0	0	0	0	0	0	0	0	0	0	0	0	0	1786	1786	1786	1804	1804	1804	1795	1795	1795	1795	1786	1786	1786	1786	1786	1777	1786	1786	1777	1768	1768	0	0	0	0	0	0	0	0	0	0	0	0	0	0	0	0	0	0	1795	1795	1804	1804	1804	1786	1795	1795	1824	1824	1824	1824	1824	1824	1824	1833	1833	1843	1843	1843	1843	1843	7779	0	0	0	0	0	0	0	8550	8550	8550	8550	8550	8550	8550	8550	8767	8767	8550	8550	8550	8550	8550	8550	8550	8550	8550	8550	8550	8550	8550	8550	8550	8550	8550	8550	8343	8343	8550	8343	8343	8343	8343	8550	8550	8550	8550	8550	8550	8550	8550	8550	8550	8767	8550	8767	8550	8550	8550	8550	8343	8550	8550	8767	8767	8767	8995	8995	8550	8550	8550	8550	8767	8767	8767	8767	8343	8550	8550	8550	8550	8550	8550	8550	8550	8550	8343	8343	8550	8550	8550	8550	8550	8550	8550	8550	8550	8550	8550	8550	8550	8550	8550	8550	8550	8550	8550	8343	8343	8343	8343	8343	8550	8550	8550	8550	8550	8550	8550	0	0	0	0	3621	3621	3621	3621	3621	3621	3621	3621	3621	3621	3659	3621	3621	3621	3583	3583	3583	3583	3583	3583	3583	3583	3583	3583	3546	3583	3546	3546	3583	3546	3546	3546	3546	3546	3546	3546	3510	3510	3510	3510	3510	3510	3510	3510	3510	3546	3546	3546	3546	3546	3546	3546	3546	3546	3546	3546	3546	3546	3583	3546	3546	3583	3583	3546	3583	3583	3621	3621	3621	3659	3659	3659	3659	3659	3659	3659	3659	3698	3698	0	0	8550	8550	8550	8550	8550	8550	8550	8550	8550	8550	8550	8343	8343	8343	8343	8550	8343	8343	8343	8343	8343	8550	8343	8343	8550	8550	8550	8550	8550	8550	8550	8550	8550	8550	8550	8550	8550	8550	8550	8550	8550	8550	8550	8550	8146	8343	8146	8146	8146	8146	8146	8146	8146	8146	8146	8146	8146	8146	8146	8343	8343	8343	8343	8343	8343	8343	8146	8146	8146	8146	8146	8146	8146	8146	8146	8146	8146	8146	8146	8146	8146	8146	7959	7959	7959	7959	8146	7959	7959	7959	8146	8146	8343	8343	8343	8146	8146	8146	8146	8146	8146	8146	8146	8146	8146	8146	8146	8343	8343	8343	8343	8343	8146	8146	8146	8343	8343	8343	8343	8343	8343	8343	8343	8146	8146	8146	8146	8146	8343	8343	8146	8146	8146	8146	8146	8146	8146	8146	8146	8146	8146	8146	8146	8146	8343	8146	8146	8146	8146	8343	8343	8343	8343	8343	8550	8550	8550	8550	8550	8550	8550	8343	8343	8343	8343	8343	8343	8343	8550	8550	8550	8343	8343	8343	8343	8550	8550	8343	8343	8550	8550	8550	8550	8343	8343	8343	8343	8343	8343	8343	8343	8550	8550	8550	8767	8550	8550	8550	8550	8550	8550	8550	8343	8550	8550	8343	8343	8343	8550	8343	8343	8343	8343	8343	8343	8146	8146	8146	7779	7959	7959	7779	7779	7779	7959	7959	7959	7959	7959	7959	7959	7959	7959	0	0	0	0	0	0	0	0	0	0	0	0	0	0	0	0	0	0	0	0	0	0	0	0	0	0	0	0	0	0	0	0	0	0	0	0	0	0	0	0	0	0	0	0	0	0	0	0
0	0	0	0	0	0	927	927	932	935	937	937	940	940	948	958	963	963	966	969	969	972	974	977	980	983	985	988	991	991	997	1000	1000	1003	1008	1014	1017	1020	1023	1033	1036	1039	1039	1042	1042	1039	1042	1048	1061	1061	1068	1071	1071	1071	1071	1078	1091	1095	1095	1095	1095	1102	1102	1098	1098	1098	1098	0	0	0	0	0	0	0	0	0	0	0	0	0	0	0	0	0	0	0	0	0	0	0	0	0	0	0	0	0	0	1804	1804	1804	1795	1795	1795	1795	1786	1786	1786	1786	1786	1786	1786	1786	1777	1777	1777	0	0	0	0	0	0	0	0	0	0	0	0	0	0	0	0	0	0	1804	1804	1814	1804	1804	1795	1795	1795	1795	1795	1824	1824	0	0	0	7608	7608	7608	7608	7779	7779	7779	7779	0	0	0	0	0	0	0	8550	8550	0	8550	8550	8550	8550	8550	8550	8550	8550	8550	8550	8550	8550	8550	8550	8550	8550	8550	8767	8550	8550	8550	8550	8550	8550	8550	8550	8343	8550	8343	8343	8343	8343	8343	8550	8550	8550	8550	8550	8550	8550	8550	8767	8767	8550	8767	8550	8767	8550	8550	8343	8767	8767	8767	8767	8767	8767	8995	8550	8550	8550	8550	8767	8767	8767	8767	8343	8550	8550	8343	8550	8550	8550	8550	8550	8550	8550	8343	8550	8550	8550	8550	8550	8550	8550	8550	8343	8343	8343	8343	8550	8550	8550	8550	8550	8343	8550	8550	8550	8343	8343	8343	8343	8550	8550	8550	8550	8550	8550	0	0	0	0	3659	3659	3621	3621	3621	3621	3621	3621	3621	3659	3659	3659	3621	3621	3583	3583	3583	3583	3583	3583	3583	3583	3583	3546	3546	3546	3546	3583	3583	3546	3546	3546	3546	3546	3546	3546	3510	3510	3510	3510	3510	3510	3510	3510	3546	3546	3546	3546	3546	3546	3546	3546	3546	3546	3583	3546	3583	3583	3583	3546	3546	3583	3546	3546	3583	3583	3621	3621	3621	3659	3659	3659	3659	3659	3659	3659	3659	3698	3698	0	0	8550	8550	8550	8550	8550	8550	8550	8550	8550	8550	8343	8343	8343	8343	8343	8550	8343	8343	8343	8343	8343	8343	8343	8343	8550	8550	8550	8550	8550	8550	8550	8550	8550	8550	8550	8550	8550	8550	8550	8550	8550	8550	8550	8550	8146	8343	8146	8146	8146	8146	8146	8146	8146	8146	8146	8146	8146	8146	8146	8146	8343	8343	8343	8343	8343	8146	8146	8146	8146	8146	8146	8146	8146	8146	8146	8146	8146	8146	7959	7959	8146	8146	7959	7959	7959	8146	8146	7959	7959	8146	8146	8146	8343	8343	8343	8146	8343	8146	8146	8146	8146	8146	8146	8146	8343	8343	8343	8343	8343	8343	8343	8343	8343	8146	8146	8343	8343	8343	8343	8343	8343	8343	8343	8146	8146	8146	8146	8146	8146	8146	8146	8146	8146	8146	8146	8146	8146	8146	8146	8146	8146	8146	8146	8146	8343	8146	8146	8146	8343	8343	8343	8343	8343	8343	8550	8550	8767	8767	8550	8550	8767	8550	8343	8343	8343	8343	8550	8343	8550	8550	8550	8550	8343	8550	8343	8550	8550	8550	8550	8767	8767	8550	8550	8550	8343	8343	8343	8343	8343	8343	8343	8343	8550	8550	8767	8550	8550	8550	8550	8550	8343	8550	8343	8343	8550	8343	8343	8343	8550	8343	8343	8343	8343	8343	8343	8343	8343	8146	7959	7959	8146	7779	7779	7779	7959	7959	7959	7959	7959	7959	7959	7959	0	0	0	0	0	0	0	0	0	0	0	0	0	0	0	0	0	0	0	0	0	0	0	0	0	0	0	0	0	0	0	0	0	0	0	0	0	0	0	0	0	0	0	0	0	0	0	0	0
0	0	0	0	0	925	927	930	932	935	937	937	940	945	953	958	961	961	963	963	969	972	974	977	980	983	985	988	991	991	997	1000	1000	1006	1011	1014	1017	1017	1020	1033	1036	1039	1039	1042	1042	1042	1045	1048	1058	1061	1061	1068	1071	1071	1074	1085	1088	1091	1095	1091	1095	1098	1102	1098	1098	1102	1102	0	0	0	0	0	0	0	0	0	0	0	0	0	0	0	0	0	0	0	0	0	0	0	0	0	0	0	0	0	0	0	0	1804	1795	1777	1777	1777	1777	1786	1786	1786	1786	1786	1795	1786	1786	1786	1777	0	0	0	0	0	0	0	0	0	0	0	0	0	0	0	0	0	0	1804	1804	1804	1804	1804	1804	1804	1804	1804	1795	0	0	0	0	0	7444	7608	7608	7608	7608	7779	7779	7779	7779	0	0	0	0	0	0	0	0	0	8550	8550	8550	8550	8550	8550	8550	8550	8550	8550	8550	8550	8550	8550	8550	8550	8550	8767	8767	8767	8550	8550	8550	8550	8343	8343	8343	8343	8343	8343	8343	8343	8550	8550	8550	8550	8550	8550	8550	8550	8767	8767	8767	8767	8767	8550	8550	8550	8550	8343	8767	8767	8767	8767	8767	8767	8767	8343	8550	8550	8550	8767	8767	8767	8767	8550	8550	8550	8343	8343	8343	8550	8550	8550	8550	8550	8550	8550	8550	8550	8550	8550	8343	8550	8343	8343	8550	8343	8343	8550	8550	8550	8550	8550	8550	8343	8343	8343	8343	8343	8343	8550	8550	8550	8550	8550	8550	8550	0	0	0	0	3659	3659	3659	3621	3621	3621	3621	3621	3621	3621	3621	3621	3583	3583	3583	3583	3583	3583	3583	3583	3583	3546	3546	3546	3546	3546	3546	3546	3583	3546	3546	3583	3546	3546	3546	3546	3510	3510	3510	3510	3510	3510	3510	3510	3546	3546	3546	3546	3546	3546	3546	3546	3546	3546	3546	3546	3546	3546	3583	3583	3583	3583	3583	3546	3583	3583	3583	3621	3621	3659	3659	3659	3659	3659	3659	3659	3659	3659	3698	3698	0	8550	8550	8550	8550	8550	8550	8550	8550	8343	8343	8343	8343	8550	8550	8550	8550	8550	8343	8343	8343	8343	8343	8343	8550	8550	8550	8550	8550	8343	8550	8550	8550	8550	8550	8550	8550	8550	8550	8550	8550	8550	8550	8550	8550	8343	8343	8146	8146	8343	8343	8343	8343	8343	8146	8146	8146	8146	8146	8146	8343	8343	8343	8343	8343	8343	8343	8343	8343	8146	8146	8146	8146	8146	8146	7959	7959	8146	8146	7959	7959	8146	8146	8146	7959	7959	7959	7959	7959	8146	8146	8146	8146	8343	8343	8343	8146	8343	8146	8146	8146	8146	8146	8146	8343	8343	8146	8343	8343	8343	8343	8343	8343	8343	8146	8343	8343	8343	8343	8343	8343	8343	8343	8343	8146	8146	8343	8343	8343	8343	8343	8146	8146	8146	8146	8146	8146	8146	8146	8146	8146	8146	8146	8146	8146	8146	8146	8146	8146	8146	8146	8343	8343	8343	8343	8550	8550	8550	8767	8550	8550	8767	8343	8343	8146	8343	8343	8550	8343	8550	8550	8550	8550	8343	8550	8343	8550	8343	8343	8343	8550	8550	8550	8550	8767	8550	8343	8343	8343	8343	8343	8343	8343	8550	8550	8550	8550	8550	8550	8550	8550	8550	8550	8550	8550	8550	8343	8343	8343	8550	8550	8343	8550	8550	8550	8550	8343	8343	8343	8146	7959	8146	7779	7779	7779	7959	7959	7959	7959	7959	7959	7959	7779	7779	0	0	0	0	0	0	0	0	0	0	0	0	0	0	0	0	0	0	0	0	0	0	0	0	0	0	0	0	0	0	0	0	0	0	0	0	0	0	0	0	0	0	0	0	0	0	0	0
0	0	0	0	0	925	925	927	932	935	935	937	940	945	953	955	961	961	963	963	966	972	974	977	980	985	988	988	991	991	994	997	1000	1008	1011	1014	1014	1017	1020	1030	1033	1039	1042	1042	1045	1042	1045	1048	1058	1061	1061	1068	1071	1074	1074	1085	1088	1091	1095	1091	1095	1098	1098	1102	1102	1102	1102	0	0	0	0	0	0	0	0	0	0	0	0	0	0	0	0	0	0	0	0	0	0	0	0	0	0	0	0	0	0	0	0	0	1795	1777	1777	1777	1777	1786	1795	1786	1786	1795	1795	1786	1786	1786	0	0	0	0	0	0	0	0	0	0	0	0	0	0	0	0	0	0	0	0	0	1804	1814	1814	1804	1804	1804	1804	0	0	0	0	0	7444	7444	7444	7608	7608	7779	7779	7779	7779	7779	0	0	0	0	0	0	0	0	0	8767	8767	8767	8550	8550	8550	8550	8550	8550	8550	8550	8550	8550	8550	8550	8767	8767	8767	8767	8767	8550	8550	8550	8550	8343	8343	8343	8343	8343	8343	8343	8343	8550	8550	8550	8550	8550	8550	8550	8550	8767	8767	8767	8767	8767	8550	8767	8550	8550	8550	8767	8767	8767	8767	8767	8767	8343	8343	8343	8343	8550	8767	8767	8767	8550	8343	8343	8343	8343	8343	8343	8550	8550	8550	8550	8550	8550	8550	8550	8550	8550	8550	8343	8343	8343	8343	8343	8343	8343	8343	8343	8550	8550	8550	8550	8550	8343	8343	8343	8550	8550	8550	8550	8550	8550	8550	8550	8550	0	0	0	0	3698	3659	3659	3621	3621	3621	3621	3621	3621	3621	3621	3621	3583	3583	3583	3583	3583	3583	3583	3583	3583	3583	3583	3546	3546	3546	3546	3546	3546	3546	3546	3546	3546	3546	3546	3546	3475	3510	3510	3510	3510	3475	3510	3510	3510	3510	3510	3510	3546	3546	3546	3546	3546	3546	3546	3546	3546	3583	3583	3583	3583	3583	3546	3583	3546	3583	3621	3621	3621	3659	3659	3659	3698	3659	3659	3698	3698	3698	3698	3698	0	8550	8550	8550	8550	8550	8550	8550	8343	8343	8550	8550	8550	8550	8550	8550	8550	8550	8550	8343	8343	8343	8343	8343	8343	8550	8550	8550	8550	8550	8550	8550	8550	8550	8550	8550	8550	8550	8550	8550	8550	8550	8550	8550	8550	8343	8343	8146	8146	8146	8343	8343	8343	8343	8146	8343	8343	8343	8343	8343	8343	8343	8343	8343	8343	8343	8343	8343	8343	8343	8343	8146	8146	8146	8146	8146	8146	8146	8146	7959	7959	8146	8146	7959	7959	7959	7959	8146	8146	8146	8146	8146	8146	8343	8343	8343	8343	8343	8343	8146	8146	8146	8146	8146	8146	8146	8146	8343	8343	8343	8146	8343	8343	8343	8146	8343	8343	8343	8343	8343	8343	8343	8343	8343	8343	8343	8343	8343	8343	8343	8343	8146	8146	8146	8146	8146	8146	8146	8146	8146	8146	8146	8146	8146	8146	8146	8146	8146	8146	8146	8146	8343	8343	8343	8343	8550	8550	8550	0	0	0	0	8343	8343	8343	8343	8550	8550	8550	8550	8767	8550	8550	8550	8550	8343	8550	8343	8343	8550	8550	8550	8550	8550	8550	8550	8343	8343	8343	8550	8550	8550	8550	8550	8550	8550	8550	8343	8343	8343	8343	8550	8550	8550	8550	8550	8550	8343	8550	8550	8550	8343	8343	8550	8550	8343	8343	8343	8343	8343	7959	8146	7779	7779	7779	7959	7959	7959	7959	7959	7959	7959	7959	7779	0	0	0	0	0	0	0	0	0	0	0	0	0	0	0	0	0	0	0	0	0	0	0	0	0	0	0	0	0	0	0	0	0	0	0	0	0	0	0	0	0	0	0	0	0	0	0	0
0	0	0	0	0	925	927	930	935	937	937	940	940	948	953	955	961	961	963	963	966	972	974	977	980	983	988	988	991	991	994	997	1000	1006	1011	1014	1014	1017	1020	1030	1033	1036	1039	1045	1045	1042	1045	1048	1058	1061	1061	1064	1071	1074	1074	1085	1088	1091	1091	1091	1091	1098	1098	1102	1102	1102	1102	0	0	0	0	0	0	0	0	0	0	0	0	0	0	0	0	0	0	0	0	0	0	0	0	0	0	0	0	0	0	0	0	0	0	0	0	0	0	0	1795	1795	1795	1795	1795	1786	1786	1786	0	0	0	0	0	0	0	0	0	0	0	0	0	0	0	0	0	0	0	0	0	0	1804	1814	1814	1814	1804	0	0	0	0	0	7444	7444	7444	7608	7608	7608	7779	7779	7779	7779	7779	0	0	0	0	0	8550	8550	8550	8550	8767	8767	8767	8767	8550	8767	8767	8550	8550	8550	8550	8767	8767	8767	8767	8767	8550	8550	8550	8550	8550	8550	8550	8550	8343	8343	8343	8146	8146	8343	8343	8343	8550	8550	8550	8550	8550	8550	8767	8550	8550	8767	8767	8767	8767	8550	8767	8550	8550	8550	8767	8767	8767	8767	8767	8343	8343	8343	8343	8343	8550	8550	8550	8767	8550	8343	8343	8343	8343	8550	8550	8550	8550	8550	8550	8550	8550	8550	8550	8550	8550	8550	8343	8343	8343	8343	8343	8343	8343	8343	8550	8343	8343	8343	8343	8343	8343	8343	8343	8343	8343	8343	8550	8550	8550	8550	8550	8550	0	0	0	0	3698	3698	3659	3659	3621	3621	3621	3621	3621	3621	3621	3621	3583	3583	3583	3583	3583	3583	3583	3583	3583	3583	3583	3583	3583	3583	3583	3583	3583	3546	3546	3546	3546	3546	3546	3546	3475	3510	3510	3510	3546	3475	3510	3510	3510	3510	3510	3510	3510	3546	3510	3546	3546	3546	3546	3546	3546	3546	3583	3583	3583	3583	3583	3583	3583	3583	3621	3621	3621	3659	3659	3659	3698	3698	3698	3698	3698	3698	3698	3698	3698	8550	8550	8550	8550	8343	8550	8550	8343	8343	8550	8343	8343	8550	8550	8550	8550	8550	8550	8550	8550	8343	8343	8343	8343	8550	8550	8343	8550	8550	8550	8550	8550	8550	8550	8550	8550	8550	8550	8550	8550	8550	8550	8550	8550	8343	8343	8146	8343	8343	8343	8343	8550	8550	8343	8343	8343	8343	8343	8343	8343	8343	8343	8343	8343	8343	8343	8343	8343	8343	8343	8343	8343	8146	8146	8146	8146	8146	8146	7959	7959	8146	8146	7959	8146	7959	8146	8146	8146	8146	8146	8146	8146	8146	8343	8343	8343	8343	8343	8343	8146	8146	8146	8146	8146	8146	8146	8146	8343	8343	8146	8343	8343	8343	8343	8343	8343	8343	8343	8343	8343	8343	8343	8343	8343	8343	8343	8343	8343	8343	8343	8146	8146	8146	8146	8146	8146	8146	8146	8146	8146	8146	8146	8146	8146	8146	8146	8146	8146	8146	8146	8146	8146	8343	8343	8343	8550	0	0	0	0	0	0	8343	8343	8343	8550	8767	8550	8550	8550	8550	8550	8343	8343	8343	8550	8343	8550	8550	8767	8550	8550	8343	8550	8550	8343	8550	8550	8550	8767	8767	8767	8767	8767	8767	8767	8767	8767	8767	8550	8550	8550	8550	8550	8550	8550	8343	8550	8550	8550	8550	8343	8550	8550	8550	8550	8550	8550	8343	8146	8146	7779	7959	7779	7959	7959	7959	7959	7959	7959	7959	7959	0	0	0	0	0	0	0	0	0	0	0	0	0	0	0	0	0	0	0	0	0	0	0	0	0	0	0	0	0	0	0	0	0	0	0	0	0	0	0	0	0	0	0	0	0	0	0	0	0
0	0	0	0	0	0	927	932	935	940	940	940	942	948	948	955	958	961	963	963	969	972	977	977	980	983	988	991	991	991	994	1000	1003	1006	1011	1017	1017	1020	1023	1030	1033	1039	1045	1045	1045	1042	1045	1048	1052	1061	1064	1068	1071	1078	1078	1085	1088	1091	1091	1091	1091	1098	1098	1098	1102	1102	1102	0	0	0	0	0	0	0	0	0	0	0	0	0	0	0	0	0	0	0	0	0	0	0	0	0	0	0	0	0	0	0	0	0	0	0	0	0	0	0	1795	1795	1795	1795	1795	1795	1786	1786	0	0	0	0	0	0	0	0	0	0	0	0	0	0	0	0	0	0	0	0	0	0	1804	1814	1824	1824	0	0	0	0	0	0	7444	7444	7444	7608	7608	7779	7779	7959	7959	7959	7779	0	0	0	0	8550	8550	8550	8767	8767	8767	8767	8767	8550	8550	8550	8550	8550	8550	8550	8550	8550	8767	8767	8767	8767	8767	8767	8550	8550	8550	8550	8550	8550	8343	8343	8343	8343	8343	8343	8343	8343	8550	8550	8550	8550	8550	8550	8550	8550	8550	8767	8767	8767	8767	8550	8767	8550	8550	8550	8767	8767	8550	8767	8767	8343	8343	8343	8343	8343	8343	8550	8550	8767	8550	8343	8343	8343	8343	8550	8550	8550	8550	8550	8550	8550	8550	8550	8550	8550	8550	8550	8343	8343	8343	8343	8343	8343	8343	8343	8550	8343	8550	8343	8550	8550	8343	8343	8343	8550	8343	8550	8550	8550	8550	8550	8550	8550	0	0	0	0	3698	3698	3621	3621	3621	3621	3621	3621	3621	3621	3621	3621	3583	3583	3583	3583	3583	3583	3583	3583	3583	3583	3583	3583	3583	3546	3546	3546	3546	3546	3546	3546	3546	3546	3546	3546	3510	3510	3510	3510	3510	3475	3510	3510	3510	3510	3510	3510	3510	3510	3510	3510	3510	3546	3546	3546	3546	3583	3583	3583	3583	3583	3583	3583	3583	3583	3621	3621	3621	3659	3659	3659	3698	3698	3659	3659	3659	3659	3659	3698	3698	0	8550	8550	8550	8343	8343	8550	8343	8343	8343	8343	8343	8550	8550	8343	8343	8343	8343	8343	8550	8343	8343	8343	8343	8550	8550	8550	8550	8550	8550	8550	8550	8550	8550	8550	8550	8550	8550	8550	8550	8550	8550	8550	8550	8343	8343	8343	8343	8343	8550	8550	8550	8550	8343	8343	8343	8343	8343	8343	8343	8343	8343	8343	8343	8343	8343	8343	8343	8146	8343	8343	8146	8146	8146	8146	8146	8146	8146	7959	8146	8146	7959	7959	7959	8146	8146	8146	8146	8146	8146	8146	8146	8146	8146	8343	8343	8343	8343	8146	8146	8146	8146	8146	8146	8146	8146	8146	8343	8343	8343	8343	8343	8343	8343	8343	8343	8343	8343	8343	8343	8343	8343	8343	8343	8343	8343	8343	8343	8343	8343	7959	7959	8146	8146	8146	8146	8146	8146	8146	8146	8146	8146	8146	8146	8146	8146	8146	8146	8146	8146	8146	8146	8343	8343	8343	8343	0	0	0	0	0	0	8343	8343	8343	8550	8550	8550	8550	8550	8550	8343	8550	8550	8550	8550	8550	8550	8767	8767	8767	8767	8343	8550	8550	8550	8550	8550	8550	8767	8767	8550	8550	8550	8550	8550	8550	8550	8550	8550	8550	8550	8550	8550	8550	8550	8550	8343	8343	8550	8550	8550	8767	8767	8767	8550	8550	8550	8343	8343	8343	7959	7959	7959	7959	7959	7959	7959	7959	7959	7959	7959	0	0	0	0	0	0	0	0	0	0	0	0	0	0	0	0	0	0	0	0	0	0	0	0	0	0	0	0	0	0	0	0	0	0	0	0	0	0	0	0	0	0	0	0	0	0	0	0	0
0	0	0	0	0	0	927	932	935	937	937	942	942	948	950	953	958	961	963	966	969	972	977	977	980	983	985	988	991	991	994	1000	1006	1008	1014	1017	1014	1017	1020	1026	1033	1036	1039	1048	1045	1045	1045	1048	1052	1061	1068	1071	1074	1078	1081	1085	1088	1088	1091	1091	1095	1098	1098	1102	1102	1102	1102	0	0	0	0	0	0	0	0	0	0	0	0	0	0	0	0	0	0	0	0	0	0	0	0	0	0	0	0	0	0	0	0	0	0	0	0	0	0	0	1795	1795	1795	1795	1795	1795	1795	1786	1786	0	0	0	0	0	0	0	0	0	0	0	0	0	0	0	0	0	0	0	0	0	0	0	1824	1824	0	0	0	0	0	0	7444	7444	7444	7444	7608	7608	7608	7779	7779	7959	7959	8146	8146	8146	8343	8550	8550	8550	8550	8550	8767	8767	8767	8550	8550	8550	8767	8550	8550	8550	8550	8767	8767	8767	8767	8767	8767	8767	8767	8767	8767	8550	8550	8550	8550	8343	8343	8343	8343	8343	8343	8343	8550	8550	8550	8550	8550	8767	8767	8767	8767	8767	8767	8767	8767	8550	8550	8550	8767	8550	8550	8550	8550	8767	8550	8343	8343	8343	8343	8343	8343	8767	8550	8550	8550	8343	8343	8343	8343	8343	8343	8343	8343	8343	8343	8343	8550	8550	8550	8550	8550	8550	8550	8343	8343	8343	8343	8343	8343	8343	8343	8343	8343	8343	8550	8343	8343	8343	8343	8550	8550	8550	8550	8550	8550	8550	8550	8550	0	0	0	0	3698	3698	3659	3621	3621	3621	3621	3621	3621	3621	3621	3621	3583	3583	3583	3583	3583	3583	3583	3583	3583	3546	3583	3583	3583	3546	3546	3546	3546	3546	3546	3546	3546	3546	3546	3546	3510	3510	3510	3510	3510	3475	3510	3475	3510	3510	3475	3510	3510	3546	3546	3546	3546	3546	3546	3546	3546	3546	3583	3583	3583	3583	3583	3583	3583	3583	3621	3621	3621	3659	3659	3659	3659	3659	3659	3659	3659	3659	3659	3659	3659	0	8550	8550	8550	8343	8343	8343	8343	8343	8343	8343	8343	8343	8550	8343	8343	8550	8343	8343	8343	8343	8343	8343	8343	8550	8550	8550	8550	8550	8550	8550	8550	8550	8550	8550	8550	8550	8550	8550	8550	8550	8550	8550	8550	8343	8343	8343	8343	8343	8550	8550	8343	8550	8343	8343	8343	8343	8343	8343	8343	8343	8343	8343	8343	8343	8343	8343	8343	8146	8343	8343	8343	8146	8146	8146	8146	8146	8146	8146	8146	8146	8146	8146	7959	7959	8146	8146	8146	8146	8146	8146	8146	8146	8146	8146	8146	8146	8146	8146	8146	8146	8146	8146	8146	8146	8146	8146	8343	8343	8146	8343	8343	8343	8343	8343	8343	8343	8343	8343	8343	8343	8343	8343	8343	8343	8343	8343	8343	8343	8343	7959	8146	8146	8146	8146	8146	8146	8146	8146	8146	8146	8146	8146	8146	8146	8146	8146	8146	8146	8146	8146	8146	8146	8146	8146	8146	0	0	0	0	0	0	8343	8146	8146	8550	8550	8550	8550	8550	8550	8343	8550	8343	8550	8550	8550	8550	8767	8767	8550	8767	8550	8767	8767	8767	8767	8767	8767	8767	8767	8550	8550	8550	8550	8550	8343	8550	8550	8343	8550	8550	8550	8550	8550	8343	8343	8550	8550	8550	8550	8550	8767	8767	8767	8767	8550	8550	8343	8343	8343	8146	7959	7959	8146	7959	7959	7959	7959	7959	7959	7779	7779	0	0	0	0	0	0	0	0	0	0	0	0	0	0	0	0	0	0	0	0	0	0	0	0	0	0	0	0	0	0	0	0	0	0	0	0	0	0	0	0	0	0	0	0	0	0	0	0
0	0	0	0	0	925	927	935	937	940	937	942	942	945	948	950	955	961	961	963	966	972	974	977	980	983	985	988	991	991	997	1003	1008	1011	1014	1017	1017	1017	1020	1026	1030	1033	1039	1048	1048	1045	1048	1048	1052	1061	1064	1071	1071	1078	1085	1088	1091	1091	1095	1095	1095	1095	1098	1098	1098	1102	1102	0	0	0	0	0	0	0	0	0	0	0	0	0	0	0	0	0	0	0	0	0	0	0	0	0	0	0	0	0	0	0	0	0	0	0	0	0	0	0	0	1795	1795	1795	1795	1795	1795	1795	1795	0	0	0	0	0	0	0	0	0	0	0	0	0	0	0	0	0	0	0	0	0	0	0	0	0	0	0	0	0	0	7444	7444	7444	7444	7444	7608	7608	7608	7779	7779	7959	7959	8146	8146	8146	8146	8146	8343	8343	8343	8343	8550	8550	8550	8550	8343	8550	8550	8550	8550	8550	8550	8767	8767	8767	8767	8767	8767	8767	8767	8767	8767	8767	8550	8550	8550	8343	8343	8343	8343	8343	8343	8343	8550	8550	8550	8550	8550	8767	8767	8767	8767	8767	8767	8767	8767	8767	8767	8767	8767	8767	8767	8550	8550	8550	8550	8343	8343	8343	8343	8343	8343	8767	8550	8767	8550	8343	8343	8343	8343	8146	8343	8343	8343	8343	8343	8343	8550	8550	8550	8550	8550	8550	8550	8550	8550	8550	8343	8343	8343	8343	8343	8343	8550	8550	8550	8550	8550	8550	8550	8550	8550	8550	8550	8550	8550	8550	8550	0	0	0	0	3698	3698	3698	3659	3621	3621	3621	3621	3621	3621	3621	3621	3583	3583	3583	3583	3583	3583	3583	3583	3583	3583	3546	3546	3546	3546	3546	3546	3546	3546	3546	3546	3546	3546	3546	3546	3546	3546	3546	3546	3546	3546	3510	3510	3475	3510	3510	3510	3510	3510	3546	3546	3546	3546	3546	3546	3546	3546	3546	3583	3583	3583	3583	3583	3583	3583	3583	3621	3621	3659	3659	3659	3698	3698	3698	3659	3659	3659	3659	3659	3659	3659	0	8550	8550	8343	8343	8343	8343	8343	8343	8343	8343	8343	8343	8343	8343	8343	8550	8343	8343	8550	8343	8343	8343	8343	8550	8550	8550	8550	8550	8550	8550	8550	8550	8550	8550	8550	8550	8550	8550	8550	8550	8550	8550	8550	8343	8343	8343	8343	8343	8343	8343	8343	8343	8343	8343	8343	8343	8343	8343	8343	8343	8343	8343	8343	8146	8146	8146	8343	8146	8343	8343	8343	8343	8146	8146	8146	8146	8146	8146	8146	8146	8146	8146	7959	8146	8146	8146	8146	8146	8146	8146	8146	8146	8146	8146	8146	8146	8146	8146	8146	8146	8146	8146	8146	8146	8146	8146	8343	8343	8343	8343	8343	8343	8343	8343	8343	8343	8343	8343	8343	8343	8343	8343	8343	8343	8343	8550	8550	8343	8343	8146	8146	8146	8146	8146	8146	8146	8146	8146	8146	8146	8146	8146	8146	8146	8146	8146	8146	8146	8146	8146	8146	8146	8146	8146	8146	0	0	0	0	0	0	0	8146	8146	8146	8550	8550	8550	8343	8550	8343	8343	8343	8343	8343	8146	8550	8550	8550	8550	8550	8550	8550	8767	8767	8767	8767	8767	8767	8767	8767	8550	8343	8343	8343	8343	8343	8343	8343	8550	8550	8767	8550	8343	8343	8343	8343	8343	8550	8550	8550	8767	8767	8767	8767	8550	8550	8343	8343	8343	8146	8146	8146	8146	7959	7959	7959	7959	7959	7959	7779	7779	7779	0	0	0	0	0	0	0	0	0	0	0	0	0	0	0	0	0	0	0	0	0	0	0	0	0	0	0	0	0	0	0	0	0	0	0	0	0	0	0	0	0	0	0	0	0	0	0
0	0	0	0	0	925	927	932	935	937	937	940	940	945	945	948	953	958	958	961	961	969	974	977	980	983	985	988	991	991	1000	1006	1008	1011	1014	1017	1017	1017	1020	1026	1030	1030	1036	1048	1048	1045	1048	1052	1055	1061	1064	1064	1071	1085	1085	1088	1091	1091	1098	1098	1098	1098	1098	1098	1098	1102	1102	0	0	0	0	0	0	0	2754	2754	0	0	0	0	2589	2589	0	0	0	0	0	0	0	2690	2690	0	0	0	0	0	0	0	2754	2754	2754	2754	2754	2754	2754	0	0	0	0	0	1795	1795	1795	1795	1795	0	0	0	0	0	0	0	3019	3019	0	0	0	0	0	0	0	0	0	0	0	0	0	0	0	0	0	0	0	0	0	7444	7444	7444	7444	7444	7608	7608	7608	7779	7779	7959	7959	7959	7959	8146	8146	8146	8343	8343	8343	8550	8550	8550	8550	8550	8550	8767	8767	8550	8550	8550	8550	8767	8767	8767	8767	8767	8767	8767	8767	8767	8767	8767	8550	8550	8550	8343	8343	8343	8343	8343	8343	8343	8343	8550	8550	8550	8343	8767	8767	8767	8767	8767	8767	8767	8767	8767	8767	8550	8767	8550	8550	8550	8550	8550	8550	8343	8343	8343	8343	8343	8550	8550	8550	8550	8550	8343	8343	8343	8343	8343	8343	8343	8343	8343	8343	8343	8343	8343	8343	8550	8550	8550	8550	8550	8550	8550	8343	8343	8343	8343	8343	8343	8343	8550	8550	8550	8550	8550	8550	8550	8550	8550	8550	8550	8550	8550	8550	0	0	0	0	3698	3698	3698	3659	3621	3621	3621	3621	3621	3583	3583	3583	3583	3583	3583	3583	3583	3583	3583	3583	3583	3583	3583	3583	3583	3583	3546	3546	3546	3546	3583	3546	3546	3546	3546	3546	3546	3546	3546	3546	3546	3546	3510	3510	3475	3510	3510	3510	3510	3546	3546	3546	3546	3546	3546	3546	3546	3546	3583	3583	3583	3583	3583	3583	3583	3583	3621	3621	3659	3659	3659	3659	3659	3659	3659	3659	3659	3659	3659	3659	3659	3659	0	8550	8343	8343	8343	8343	8343	8343	8343	8343	8343	8343	8343	8343	8343	8343	8550	8550	8343	8550	8343	8343	8550	8343	8550	8550	8550	8550	8550	8343	8550	8343	8550	8550	8550	8550	8550	8550	8550	8550	8550	8550	8550	8550	8343	8343	8343	8343	8343	8343	8343	8343	8343	8343	8343	8343	8343	8343	8343	8146	8146	8146	8146	8146	8146	8146	8146	8146	8146	8343	8343	8343	8146	8146	8146	8146	8146	8146	8146	8146	8146	8146	8146	8146	8146	8146	8146	8146	8146	8146	8146	8146	8146	8146	8146	8146	8146	8146	8146	8146	8146	8146	8146	8146	8146	8146	8146	8343	8343	8343	8343	8343	8343	8343	8343	8343	8343	8343	8343	8343	8146	8343	8343	8343	8343	8343	8550	8550	8550	8343	8146	8146	8146	8343	7959	8146	8146	8146	8146	8146	8146	8146	8146	8146	8146	8146	8146	8146	8146	8146	8146	8146	8146	8146	8146	8146	8146	8146	0	0	0	0	8146	8146	8146	8146	8550	8550	8550	8343	8343	8343	8343	8146	8343	8343	8146	8146	8550	8550	8550	8550	8550	8343	8343	8767	8767	8767	8146	8146	8767	8550	8550	8343	8343	8343	8343	8550	8343	8343	8343	8550	8550	8343	8343	8343	8343	8343	8343	8343	8550	8550	8550	8550	8550	8767	8550	8343	8343	8146	8146	8146	7959	7959	7959	7959	7959	7959	7959	7959	7959	7959	7779	7779	7779	0	0	0	0	0	0	0	0	0	0	0	0	0	0	0	0	0	0	0	0	0	0	0	0	0	0	0	0	0	0	0	0	0	0	0	0	0	0	0	0	0	0	0	0	0	0
0	0	0	0	0	925	925	930	935	937	937	940	940	945	945	945	950	955	955	958	963	969	972	977	980	983	985	988	991	994	1000	1006	1008	1011	1014	1017	1017	1020	1023	1026	1030	1030	1033	1036	1039	1042	1048	1052	1052	1061	1068	1068	1071	1078	1085	1088	1095	1095	1098	1098	1098	1098	1098	1095	1098	1098	1102	0	0	0	0	0	0	2669	2690	2669	2649	2589	2589	2570	2589	2589	2589	0	2669	2669	2690	2690	2690	2669	2669	2669	2669	0	0	0	2754	2754	2754	2754	2754	2754	2754	2754	2799	2822	2822	2822	0	0	0	0	0	0	0	0	0	0	3019	2967	2967	2967	2993	2993	2993	0	0	0	0	0	0	0	0	0	0	0	0	0	0	0	0	0	0	0	0	7444	7444	7444	7608	7608	7608	7779	7779	7779	7959	7959	7959	7959	7959	8146	8146	8146	8146	8343	8343	8550	8767	8550	8767	8550	8767	8767	8550	8550	8550	8550	8550	8550	8550	8550	8550	8767	8767	8767	8767	8550	8767	8767	8550	8550	8550	8343	8343	8343	8343	8343	8343	8343	8343	8550	8550	8550	8343	8550	8767	8767	8767	8550	8767	8767	8767	8767	8767	8767	8767	8767	8767	8550	8550	8550	8550	8343	8550	8343	8343	8343	8550	8550	8550	8550	8550	8343	8343	8550	8343	8343	8343	8343	8343	8146	8146	8343	8343	8343	8343	8343	8550	8550	8550	8550	8550	8550	8550	8550	8550	8343	8343	8343	8343	8550	8550	8550	8550	8550	8550	8550	8550	8550	8550	8550	8550	8550	8550	0	0	0	0	3698	3659	3659	3621	3621	3621	3583	3583	3583	3583	3583	3583	3583	3583	3583	3583	3583	3583	3583	3583	3583	3583	3583	3583	3583	3583	3546	3546	3546	3546	3546	3546	3546	3546	3546	3546	3546	3510	3510	3510	3510	3546	3510	3510	3510	3546	3546	3546	3546	3546	3546	3546	3546	3546	3546	3546	3546	3546	3546	3583	3583	3583	3583	3583	3621	3621	3621	3621	3659	3659	3659	3659	3659	3621	3659	3659	3659	3659	3659	3659	3659	0	0	8550	8343	8343	8343	8343	8343	8343	8343	8343	8550	8343	8343	8343	8343	8550	8550	8550	8343	8550	8550	8550	8550	8550	8550	8550	8550	8343	8343	8343	8343	8550	8550	8550	8550	8550	8550	8550	8550	8550	8550	8343	8343	8550	8343	8343	8343	8146	8343	8343	8343	8343	8343	8343	8343	8343	8343	8146	8146	8146	8146	8146	8146	8146	8146	8146	8146	8146	8146	8343	8343	8146	8146	8343	8146	8146	8146	8146	8146	8146	8146	8146	8146	8146	8146	8146	8146	8146	8146	8146	8146	8146	8146	8146	8146	8146	8146	8146	8146	8146	8146	8146	8146	8146	8146	8146	8146	8146	8146	8343	8343	8343	8343	8343	8146	8146	8343	8343	8343	8343	8343	8343	8343	8343	8343	8343	8550	8550	8343	8343	8146	8146	8146	8146	8146	8146	8146	8146	8146	8146	8146	8146	8146	8146	8146	8146	8146	8146	8146	8146	8146	8146	8146	8146	8146	8146	8146	8146	7959	8146	8146	8146	8343	8146	8146	8146	8343	8343	8343	8343	8343	8343	8343	8146	8146	8343	8146	8146	8550	8550	8550	8550	8343	8343	8343	8767	8343	8343	8343	8146	8343	8146	8550	8343	8146	8343	8343	8146	8343	8343	8343	8343	8343	8343	8343	8343	8343	8343	8343	8343	8343	8550	8343	8343	8343	8550	8343	8343	8146	8146	8146	7959	7959	7959	7959	7959	7959	7959	7959	7959	7959	7959	7959	7779	7779	0	0	0	0	0	0	0	0	0	0	0	0	0	0	0	0	0	0	0	0	0	0	0	0	0	0	0	0	0	0	0	0	0	0	0	0	0	0	0	0	0	0	0	0	0	0
0	0	0	0	0	925	927	927	937	937	935	940	940	945	945	945	948	953	955	958	963	969	972	974	980	983	985	988	991	994	1000	1006	1008	1008	1011	1014	1014	1020	1023	1026	1026	1030	1033	1036	1039	1039	1048	1055	1058	1061	1068	1068	1071	1074	1081	1085	1088	1095	1098	1098	1098	1098	1098	1098	1098	1098	0	0	0	0	0	0	2649	2669	2669	2669	2649	2649	2649	2629	2629	2629	2669	2669	2669	2669	2690	2690	2690	2669	2669	2669	2690	2711	2733	2754	2754	2754	2754	2754	2754	2754	2754	2754	2777	2799	2822	2799	2822	2845	2845	2869	2869	0	0	0	2917	2942	2942	2967	2967	2942	2942	2942	2942	2942	0	0	0	0	0	0	0	0	0	0	0	0	0	0	7444	7444	7444	7608	7608	7444	7608	7608	7608	7779	7779	7779	7779	7959	7959	7959	7959	7959	7959	7959	8146	8146	8146	8146	8343	8550	8767	8767	8550	8550	8767	8767	8767	8767	8550	8550	8550	8550	8550	8343	8550	8550	8550	8550	8767	8550	8767	8767	8550	8550	8550	8550	8343	8343	8343	8343	8343	8343	8343	8550	8550	8550	8343	8550	8550	8550	8550	8550	8550	8550	8767	8767	8767	8767	8767	8550	8550	8550	8550	8550	8550	8550	8550	8343	8343	8343	8550	8550	8550	8550	8550	8343	8343	8343	8343	8343	8343	8343	8146	8146	8146	8146	8343	8550	8343	8343	8550	8550	8550	8550	8550	8550	8550	8550	8343	8343	8343	8343	8343	8343	8550	8550	8550	8550	8550	8550	8550	8550	8550	8550	8550	8550	8550	0	0	0	0	3659	3621	3621	3621	3621	3621	3583	3583	3583	3621	3583	3583	3583	3583	3583	3583	3583	3583	3546	3546	3583	3583	3583	3583	3583	3583	3546	3546	3546	3546	3583	3583	3546	3546	3546	3546	3546	3510	3510	3546	3546	3546	3546	3546	3546	3546	3546	3546	3546	3546	3546	3546	3546	3546	3546	3546	3546	3546	3583	3583	3583	3583	3583	3583	3621	3621	3621	3621	3659	3659	3659	3659	3621	3621	3659	3659	3659	3659	3659	3659	3659	0	8550	8343	8343	8343	8343	8343	8343	8343	8550	8550	8550	8550	8550	8550	8343	8550	8550	8550	8550	8550	8550	8550	8550	8550	8343	8550	8550	8343	8343	8343	8550	8550	8550	8550	8550	8550	8550	8550	8550	8550	8550	8343	8343	8550	8343	8343	8146	8146	8146	8343	8343	8343	8343	8343	8343	8146	8146	8146	8146	8146	8146	8146	8146	8146	8146	8146	8146	8146	8146	8343	8343	8343	8343	8343	8146	8146	8146	8146	8146	8146	8146	8146	8146	8343	8146	8146	8146	8146	8146	8146	8146	8146	8146	8146	8146	8146	8146	8146	8146	8146	8146	8146	8146	8146	8146	8146	8146	8146	8343	8343	8343	8343	8343	8343	8343	8146	8343	8343	8343	8343	8146	8146	8146	8343	8343	8343	8550	8550	8343	8343	8146	8146	8146	8146	8146	8146	8146	8146	8146	8146	8146	8146	8146	8146	8146	8146	8146	8343	8146	8146	8146	8146	8146	8146	8146	8146	8146	8146	8146	8146	8146	8146	8343	8146	8146	8146	8146	8146	8146	8146	8343	8343	8343	8146	8146	8343	8146	8550	8550	8550	8550	8550	8343	8343	8343	0	8146	8146	8146	8146	8146	8146	8146	8146	8146	8146	8343	8343	8343	8146	8343	8343	8343	8146	8146	8343	8343	8343	8343	8343	8343	8343	8343	8343	8343	8343	8343	8343	8146	8146	8146	7959	7959	7959	7959	7959	7959	7959	7959	7959	7959	7959	7959	7959	7779	0	0	0	0	0	0	0	0	0	0	0	0	0	0	0	0	0	0	0	0	0	0	0	0	0	0	0	0	0	0	0	0	0	0	0	0	0	0	0	0	0	0	0	0	0	0
0	0	0	0	0	920	925	930	937	937	935	937	940	945	945	945	948	950	953	953	961	966	972	974	977	980	983	985	991	997	997	1003	1008	1011	1011	1014	1017	1020	1023	1026	1030	1030	1033	1036	1039	1042	1045	1055	1061	1061	1068	1068	1071	1074	1078	1088	1088	1088	1095	1098	1098	1098	1098	1098	1098	0	0	0	0	0	0	2669	2669	2669	2669	2649	2649	2649	2649	2649	2649	2649	2669	2669	2669	2669	2669	2669	2690	2669	2669	2669	2690	2690	2733	2733	2754	2754	2754	2754	2754	2777	2777	2777	2777	2799	2799	2822	2822	2822	2845	2869	2869	2869	2917	2917	2917	2917	2942	2942	2942	2942	2942	2942	2942	2942	2942	0	0	0	0	0	0	7137	7137	7287	7287	7287	7287	7287	7444	7287	7287	7444	7444	7137	7444	7444	7608	7608	7608	7779	7779	7959	7959	7959	7959	7959	7959	7959	8146	8146	8146	8146	8146	8343	8767	8767	8343	8550	8550	8767	8550	8550	8550	8550	8550	8550	8550	8343	8550	8550	8550	8550	8767	8550	8767	8767	8767	8767	8550	8550	8550	8550	8343	8343	8343	8343	8343	8550	8550	8343	8343	8550	8550	8550	8550	8550	8550	8550	8550	8767	8550	8550	8550	8550	8550	8767	8550	8550	8550	8343	8550	8343	8146	8146	8343	8343	8343	8550	8550	8343	8146	8343	8343	8343	8343	8343	8146	8146	8146	8146	8343	8343	8343	8343	8550	8550	8550	8550	8550	8550	8550	8550	8550	8550	8343	8343	8343	8343	8343	8343	8550	8550	8550	8550	8550	8550	8550	8550	8550	8767	8767	0	0	0	0	3659	3621	3621	3621	3621	3621	3583	3583	3583	3621	3583	3583	3583	3583	3583	3583	3583	3583	3546	3583	3546	3583	3546	3546	3546	3583	3546	3546	3546	3546	3583	3583	3546	3546	3546	3546	3546	3546	3510	3510	3510	3546	3510	3546	3546	3546	3546	3546	3546	3546	3546	3546	3546	3546	3583	3546	3546	3546	3546	3546	3583	3583	3583	3583	3621	3621	3621	3621	3659	3659	3659	3659	3621	3621	3659	3659	3659	3621	3659	3621	3621	0	8550	8343	8343	8343	8343	8550	8550	8343	8550	8550	8550	8550	8550	8550	8343	8550	8550	8550	8550	8550	8550	8550	8550	8550	8550	8550	8550	8343	8343	8343	8343	8343	8343	8343	8550	8550	8550	8550	8550	8550	8550	8343	8343	8343	8146	7959	7959	8146	8146	8146	8146	8343	8343	8343	8343	8146	8146	8146	8146	8146	8146	8146	8146	8146	8146	8146	8146	8146	8146	8146	8146	8146	8146	8146	8146	8146	8146	8146	8146	8146	8146	8146	8343	8343	8146	8146	8146	8146	8146	8146	8146	8146	8146	8146	8146	8146	8146	8146	8146	8146	8146	8146	8146	8146	8146	8146	8146	8343	8343	8343	8343	8343	8343	8343	8343	8146	8146	8146	8146	8146	8146	8146	8146	8343	8343	8343	8343	8343	8343	8343	8146	8343	8343	8343	8146	8146	8146	8146	8146	8146	8146	8146	8146	8146	8146	8146	8343	8343	8343	8343	8146	8146	8146	8146	8146	7959	8146	8146	8146	8146	8146	8146	8146	8146	8146	8146	8146	8146	8146	8146	8146	8146	8146	8146	8146	8343	8146	8550	8550	8550	8550	8550	8550	8343	8343	0	8146	8146	8146	8146	8343	8146	8146	8146	8146	8343	8343	8343	8343	8343	8146	8146	8343	8146	8343	8343	8343	8343	8343	8343	8343	8343	8343	8343	8343	8343	8550	8343	8146	8146	8146	7959	7959	7959	7959	7959	7959	7959	7959	7959	7959	7959	7959	7959	0	0	0	0	0	0	0	0	0	0	0	0	0	0	0	0	0	0	0	0	0	0	0	0	0	0	0	0	0	0	0	0	0	0	0	0	0	0	0	0	0	0	0	0	0	0	0
0	0	0	0	0	922	925	927	932	937	935	937	940	945	945	945	950	950	953	955	958	969	972	974	980	980	983	985	988	991	997	1008	1011	1011	1014	1017	1020	1020	1023	1026	1030	1030	1033	1036	1039	1045	1048	1055	1061	1061	1068	1068	1071	1071	1081	1085	1088	1091	1095	1095	1095	1098	1098	1098	1098	0	0	0	0	0	0	2649	2669	2649	2649	2649	2649	2649	2649	2649	2649	2649	2669	2669	2669	2669	2669	2669	2690	2669	2669	2669	2669	2690	2711	2733	2733	2733	2754	2754	2754	2754	2754	2777	2777	2799	2822	2822	2822	2822	2845	2869	2869	2869	2917	2917	2917	2917	2917	2942	2942	2942	2942	2942	2942	2942	2942	0	0	0	0	0	6992	7137	7137	7137	7287	7287	7287	7287	7287	7287	7287	7287	7137	7137	7287	7444	7444	7608	7608	7779	7779	7779	7959	7959	7959	7959	7959	7959	7959	8146	8146	8146	8146	8343	8767	8767	8343	8343	8550	8550	8550	8550	8550	8550	8550	8550	8550	8550	8550	8550	8550	8550	8767	8550	8767	8767	8767	8767	8550	8550	8550	8550	8550	8550	8343	8343	8550	8550	8550	8550	8550	8550	8550	8550	8550	8550	8550	8550	8550	8767	8550	8550	8550	8550	8550	8550	8550	8550	8767	8550	8343	8343	8343	8146	8343	8343	8343	8550	8550	8343	8343	8343	8343	8343	8343	8343	8146	8343	8343	8146	8343	8343	8343	8343	8343	8343	8343	8550	8550	8550	8550	8550	8550	8550	8550	8343	8343	8550	8550	8550	8550	8550	8550	8767	8767	8550	8550	8550	8550	8550	8550	0	0	0	0	3621	3659	3659	3621	3621	3621	3583	3621	3621	3583	3583	3583	3583	3583	3583	3583	3583	3583	3583	3583	3583	3583	3583	3583	3546	3583	3546	3546	3546	3546	3583	3583	3546	3546	3583	3546	3583	3546	3510	3510	3510	3546	3510	3546	3546	3546	3546	3546	3546	3546	3546	3546	3546	3546	3583	3583	3546	3546	3583	3546	3583	3583	3583	3583	3621	3621	3621	3621	3659	3659	3659	3659	3621	3621	3659	3621	3659	3621	3659	3621	3621	0	8550	8343	8343	8343	8343	8343	8343	8343	8550	8550	8550	8550	8550	8550	8550	8343	8550	8550	8343	8550	8550	8550	8550	8550	8550	8550	8550	8343	8343	8343	8343	8343	8343	8343	8343	8550	8343	8343	8550	8343	8550	8343	8343	8343	8146	8343	7959	8146	8146	8146	8343	8343	8343	8146	8146	8146	8146	8146	8146	8146	8146	8146	8146	8146	8146	8146	8146	8146	8146	8146	8146	8146	8146	8146	8146	8146	8146	8146	8146	8146	8146	8146	8146	8343	8146	8146	8146	8146	8146	8146	8146	8146	8146	8146	8146	7959	7959	7959	8146	7959	8146	8146	8146	8146	8146	8146	8146	8146	8146	8146	8146	8343	8146	8343	8343	8146	8146	8146	8146	8146	8146	8146	8146	8146	8343	8343	8343	8343	8343	8343	8146	8343	8146	8146	8146	8146	8146	8146	8146	8146	8146	8146	8146	8146	8146	8343	8343	8550	8343	8343	8343	8146	8146	8146	7959	7959	8146	7959	8146	8146	8146	8146	8343	8146	8146	8146	8146	8146	8146	8146	8146	8146	8146	8146	8146	8343	8146	8146	8550	8550	8550	8550	8343	8343	8146	8146	8146	8146	7959	7959	8146	8146	8146	8146	8146	8343	8146	8343	8343	8146	8343	8343	8146	8146	8146	8343	8343	8343	8343	8343	8343	8343	8343	8343	8343	8343	8550	8343	8146	8146	8146	7959	7959	7959	7959	7959	7959	7959	7959	7959	8146	8146	7959	0	0	0	0	0	0	0	0	0	0	0	0	0	0	0	0	0	0	0	0	0	0	0	0	0	0	0	0	0	0	0	0	0	0	0	0	0	0	0	0	0	0	0	0	0	0	0	0
0	0	0	0	0	925	925	927	927	927	935	937	940	940	945	945	948	953	953	953	958	966	969	977	980	983	985	985	988	991	991	997	1008	1011	1014	1014	1017	1020	1023	1026	1030	1030	1033	1036	1045	1045	1048	1055	1061	1061	1064	1064	1068	1071	1081	1085	1088	1091	1095	1095	1098	1098	1098	1095	1095	0	0	0	0	0	0	2649	2649	2649	2649	2649	2649	2649	2649	2649	2669	2669	2669	2669	2669	2669	2669	2669	2669	2669	2669	2690	2690	2711	2711	2733	2754	2754	2754	2754	2754	2754	2754	2777	2777	2822	2822	2822	2822	2845	2845	2845	2845	2845	2845	2869	2893	2893	2893	2917	2917	2942	2942	2942	2942	2942	2942	2942	0	0	6992	6992	6992	6992	6992	6992	7137	7137	7137	7137	7137	7137	7287	7287	6992	7137	7287	7444	7608	7779	7779	7779	7959	7959	7959	7959	7959	7959	7959	7959	7959	8146	8146	8146	8146	8343	8767	8767	8343	8343	8550	8550	8550	8550	8550	8550	8550	8550	8550	8550	8550	8550	8550	8767	8767	8550	8550	8767	8550	8550	8550	8550	8550	8550	8550	8343	8343	8343	8343	8343	8550	8550	8550	8550	8550	8767	8550	8550	8550	8550	8550	8550	8550	8550	8550	8550	8550	8550	8550	8550	8550	8550	8343	8343	8146	8146	8343	8343	8343	8550	8550	8343	8343	8343	8343	8343	8343	8343	8146	8343	8343	8343	8343	8343	8343	8343	8343	8343	8343	8343	8550	8550	8550	8550	8550	8550	8550	8343	8550	8550	8550	8550	8550	8550	8550	8550	8550	8767	8550	8550	8767	8767	8767	0	0	0	3621	3621	3621	3621	3621	3621	3583	3583	3621	3621	3583	3583	3583	3583	3583	3583	3583	3583	3621	3583	3583	3583	3583	3583	3583	3583	3583	3583	3546	3546	3546	3583	3583	3546	3546	3583	3583	3583	3546	3546	3546	3546	3546	3546	3546	3546	3546	3546	3583	3546	3546	3583	3583	3583	3546	3583	3583	3583	3546	3583	3546	3583	3583	3583	3583	3583	3621	3583	3621	3621	3659	3621	3621	3621	3621	3659	3659	3659	3659	3659	3659	3659	0	8550	8343	8343	8343	8550	8550	8550	8550	8550	8550	8550	8550	8550	8550	8550	8550	8550	8550	8550	8550	8550	8550	8550	8550	8343	8343	8343	8343	8343	8343	8343	8343	8343	8343	8343	8550	8343	8343	8343	8343	8343	8343	8343	8343	8146	8146	7959	8146	8146	8146	8146	8146	8146	8146	8146	8146	8146	8146	8146	8146	8146	8146	8146	8146	8146	8146	8146	8146	8146	8146	8146	8146	8146	8146	8146	8146	8146	8146	8146	8146	8146	8146	8146	8343	8146	8146	8146	8146	8146	8146	8146	8146	8146	8146	8146	8146	8146	8146	8146	7959	7959	7959	8146	7959	7959	7959	8146	8146	8146	8146	8146	8146	8146	8146	8343	8146	8146	8146	8146	8146	8146	8146	8146	8146	8343	8343	8343	8343	8343	8343	8146	8343	8146	8146	8146	8146	8146	8146	8146	8146	8146	8146	8146	8146	8343	8343	8343	8550	8550	8550	8343	8146	8146	8146	7959	7959	8146	8146	8146	8146	8146	8146	8343	8146	8146	8146	8146	8343	8146	8146	8146	8146	8146	8146	8146	8146	8343	8146	8550	8550	8550	8550	8550	8146	8146	8146	8146	8146	7959	8146	8146	8146	8146	8146	8146	8343	8146	8146	8146	8146	8146	8146	8146	8146	8146	8343	8343	8343	8343	8343	8343	8343	8146	8343	8343	8146	8343	8343	7959	7959	7959	7959	7959	7959	7959	7959	7959	7959	7959	7959	7959	8146	0	0	0	0	0	0	0	0	0	0	0	0	0	0	0	0	0	0	0	0	0	0	0	0	0	0	0	0	0	0	0	0	0	0	0	0	0	0	0	0	0	0	0	0	0	0	0	0	0
0	0	0	0	0	925	927	930	930	937	937	940	942	945	945	945	948	950	953	955	961	966	977	977	980	980	983	985	988	991	991	994	997	1008	1014	1014	1020	1023	1023	1026	1030	1030	1033	1036	1045	1045	1048	1055	1058	1061	1064	1064	1068	1071	1074	1078	1088	1091	1095	1095	1098	1098	1098	1098	1098	1098	0	0	0	0	0	2649	2669	2649	2649	2649	2649	2649	2649	2649	2649	2669	2669	2669	2669	2669	2669	2669	2669	2669	2669	2690	2690	2711	2711	2733	2733	2733	2754	2754	2754	2754	2754	2777	2799	2822	2822	2822	2822	2845	2845	2845	2845	2845	2845	2845	2869	2869	2893	2917	2942	2942	2942	2942	2942	2942	2942	2942	2942	0	6992	6992	6992	6992	6992	6992	7137	7137	7137	7137	7137	7137	7137	7137	6992	6992	7137	7444	7444	7779	7779	7779	7779	7959	7959	7779	7779	7959	7959	7959	8146	8146	8146	8146	8343	8343	8767	8343	8343	8343	8550	8550	8550	8550	8550	8550	8550	8550	8550	8550	8550	8550	8550	8767	8767	8550	8550	8767	8550	8550	8550	8550	8550	8550	8550	8343	8343	8343	8343	8550	8550	8550	8550	8550	8550	8550	8550	8550	8550	8550	8550	8550	8550	8550	8550	8550	8550	8550	8767	8343	8343	8767	8343	8146	8146	8146	8343	8343	8343	8550	8550	8343	8343	8343	8146	8343	8343	8343	8146	8343	8343	8343	8343	8146	8146	8146	8146	8343	8343	8550	8550	8550	8550	8550	8550	8550	8550	8343	8343	8343	8343	8343	8343	8343	8550	8550	8767	8767	8550	8550	8550	8550	8550	8550	0	0	3621	3621	3621	3621	3621	3621	3583	3583	3583	3583	3583	3583	3583	3621	3583	3621	3621	3621	3621	3621	3583	3583	3583	3583	3583	3583	3583	3583	3546	3546	3546	3546	3583	3546	3546	3583	3583	3583	3546	3546	3546	3546	3546	3546	3546	3546	3546	3546	3546	3583	3546	3583	3583	3583	3546	3583	3583	3583	3583	3583	3621	3621	3583	3583	3583	3621	3621	3621	3621	3621	3621	3621	3621	3621	3621	3621	3583	3659	3659	3659	3659	3659	3659	8550	8343	8343	8343	8550	8550	8550	8550	8550	8550	8550	8550	8550	8550	8550	8550	8550	8550	8550	8550	8550	8550	8550	8550	8550	8343	8343	8343	8343	8343	8343	8343	8343	8343	8343	8343	8343	8343	8343	8343	8343	8343	8343	8343	8146	8146	8146	7959	8146	8146	8146	8146	8146	8146	8146	8146	7959	7959	8146	8146	8146	8146	8146	8146	8146	8146	8146	8146	8146	8146	8146	8146	8146	8146	8146	8146	8146	8146	8146	8146	8146	8146	8146	8343	8343	8146	8146	8146	8146	8146	8146	8146	8146	8146	8146	8146	8146	8146	8146	8146	7959	7959	8146	8146	8146	8146	8146	8146	8146	8146	8146	8146	8146	8146	8343	8146	8146	8146	8146	8146	8146	8146	8146	8146	8146	8343	8343	8343	8343	8343	8146	8146	8146	8146	8146	8146	8146	8146	8146	8146	8146	8146	8146	8146	8343	8550	8550	8550	8550	8550	8146	8146	8146	8146	7959	7959	7959	7959	7959	8146	8146	8343	8343	8343	8146	8146	8146	8146	8146	8146	8146	8146	8146	8146	8146	8146	8146	8146	8550	8550	8550	8550	8550	8767	8343	8146	8146	8146	8146	8146	8146	8146	8146	8146	8146	8146	8146	8146	8146	8146	8146	8146	8146	8146	8146	8343	8343	8343	8343	8343	8343	8343	8343	8343	8146	8146	8343	8343	7959	7959	7959	7959	7959	7959	7959	7959	7959	7959	7959	7959	7959	0	0	0	0	0	0	0	0	0	0	0	0	0	0	0	0	0	0	0	0	0	0	0	0	0	0	0	0	0	0	0	0	0	0	0	0	0	0	0	0	0	0	0	0	0	0	0	0	0	0
0	0	0	0	0	927	927	930	932	937	937	940	942	945	945	948	948	955	955	958	961	966	977	977	980	980	983	983	985	988	991	994	997	1008	1011	1014	1020	1023	1023	1026	1033	1033	1036	1039	1042	1045	1048	1055	1058	1061	1064	1064	1071	1071	1085	1085	1091	1091	1095	1095	1095	1098	1098	1098	1102	1102	0	0	0	0	0	0	2669	2649	2649	2649	2649	2649	2649	2649	2669	2669	2669	2669	2669	2669	2669	2669	2669	2669	2690	2711	2711	2711	2711	2733	2754	2733	2754	2754	2754	2754	2754	2777	2777	2799	2799	2822	2822	2822	2845	2845	2845	2845	2845	2845	2869	2869	2869	2917	2917	2942	2942	2917	2942	2942	2942	2942	2942	6992	6992	6992	6992	6992	6992	6992	7137	7137	7137	7137	7137	7137	7137	7137	6992	6992	7137	7287	7444	7779	7779	7779	7779	7779	7779	7779	7779	7779	7779	7959	8146	8146	8146	8343	8343	8343	8343	8343	8343	8343	8343	8343	8343	8550	8550	8343	8550	8550	8550	8550	8550	8550	8550	8550	8767	8550	8550	8550	8550	8550	8550	8550	8550	8550	8343	8550	8550	8550	8343	8550	8550	8550	8550	8550	8550	8550	8550	8343	8550	8550	8550	8550	8550	8550	8550	8550	8550	8767	8343	8343	8343	8343	8343	8343	8343	8146	8343	8343	8343	8343	8343	8146	8146	8146	8146	8343	8343	8343	8146	8146	8343	8343	8343	8146	8146	8146	8146	8343	8343	8343	8550	8550	8550	8550	8550	8550	8550	8343	8343	8343	8343	8343	8343	8146	8550	8550	8767	8767	8767	8767	8550	8550	8550	8550	0	0	3621	3621	3621	3621	3621	3621	3583	3583	3583	3583	3583	3583	3621	3621	3621	3621	3621	3621	3621	3621	3621	3621	3583	3583	3583	3583	3583	3583	3583	3546	3546	3546	3546	3546	3546	3583	3583	3583	3546	3546	3546	3546	3546	3546	3546	3546	3546	3546	3546	3546	3546	3546	3583	3583	3546	3583	3583	3583	3583	3583	3583	3621	3583	3621	3621	3621	3621	3621	3621	3621	3621	3621	3621	3621	3621	3621	3583	3659	3659	3659	3621	3659	3659	0	8343	8343	8343	8343	8550	8550	8550	8550	8550	8550	8550	8550	8550	8550	8550	8550	8550	8550	8550	8550	8550	8550	8550	8343	8343	8343	8343	8343	8343	8343	8343	8343	8343	8343	8343	8343	8343	8343	8343	8343	8343	8343	8343	8146	8146	8146	8146	8146	8146	8146	8146	8146	8146	8146	8146	8146	8146	8146	8146	8146	8146	8146	8146	8146	8146	8146	8146	8146	8146	8146	8146	8146	8146	8146	8146	8146	8146	8146	8146	8146	8146	8146	8343	8146	8146	8146	8146	8146	8146	8146	8146	8146	8146	8146	8146	8146	7959	7959	8146	8146	7959	8146	8146	8146	8146	8146	8146	8146	8146	8146	8146	8146	8343	8343	8343	8146	8146	8146	8146	8146	8146	8146	8146	8146	8146	8343	8343	8343	8343	8146	8146	8146	8146	8146	8146	8146	8146	8146	8146	8146	8146	8146	8343	8343	8343	8343	8550	8343	8343	8146	8146	7959	7959	7959	7959	7959	7959	7959	0	8146	8343	8343	8343	8146	8343	8146	8343	8146	8146	8146	8146	8146	8146	8146	8146	8146	8146	8550	8550	8550	8550	8550	8550	8343	8343	8343	8146	8146	8343	8146	8146	8146	8146	8146	8146	8146	8146	8146	8146	8146	8146	8146	8146	8146	8343	8343	8343	8343	8343	8343	8146	8146	8146	8146	8146	8343	8343	7959	8146	8146	7959	7959	8146	8146	7959	8146	7959	7959	7959	0	0	0	0	0	0	0	0	0	0	0	0	0	0	0	0	0	0	0	0	0	0	0	0	0	0	0	0	0	0	0	0	0	0	0	0	0	0	0	0	0	0	0	0	0	0	0	0	0	0	0
0	0	0	0	0	930	930	930	932	937	940	940	942	945	948	948	955	955	955	955	961	966	977	980	980	980	983	983	985	988	991	991	994	1006	1011	1014	1020	1023	1023	1026	1033	1036	1036	1039	1042	1045	1048	1055	1058	1061	1064	1064	1071	1081	1085	1085	1088	1091	1091	1095	1095	1098	1098	1102	1102	1102	0	0	0	0	0	0	2669	2649	2649	2649	2669	2669	2649	2649	2669	2669	2669	2669	2669	2669	2669	2669	2669	2690	2690	2711	2711	2711	2711	2733	2733	2733	2733	2754	2754	2754	2754	2777	2777	2799	2822	2822	2822	2822	2845	2845	2845	2845	2845	2845	2845	2869	2893	2917	2917	2942	2917	2917	2942	2942	2942	2942	0	6992	6992	6992	7137	7137	6992	6992	7137	7137	7137	7137	7137	7137	7137	7137	6992	7137	7137	7287	7444	7444	7779	7779	7779	7779	7779	7779	7779	7779	7779	7959	8146	8146	8146	8343	8550	8550	8550	8343	8343	8343	8343	8343	8343	8343	8343	8343	8550	8550	8550	8550	8550	8550	8550	8550	8550	8550	8550	8550	8550	8550	8550	8550	8550	8550	8550	8550	8550	8550	8343	8550	8550	8550	8550	8550	8550	8550	8550	8550	8550	8550	8550	8550	8550	8550	8550	8550	8550	8550	8343	8343	8343	8343	8343	8343	8343	8343	8550	8343	8343	8343	8343	8146	8146	8146	8146	8343	8343	8343	8146	8343	8343	8343	8343	8146	8146	8146	8146	8146	8146	8343	8343	8550	8550	8550	8550	8550	8550	8343	8343	8343	8550	8343	8343	8343	8550	8550	8550	8767	8550	8767	8550	8550	8767	8767	0	0	3621	3621	3621	3621	3621	3621	3583	3583	3546	3583	3583	3583	3621	3621	3621	3621	3621	3621	3621	3621	3621	3621	3621	3583	3583	3583	3583	3583	3583	3546	3546	3546	3546	3546	3546	3583	3583	3583	3546	3546	3546	3546	3546	3546	3546	3510	3546	3546	3546	3583	3546	3546	3583	3583	3546	3583	3583	3583	3583	3583	3583	3583	3583	3583	3583	3621	3621	3621	3621	3621	3621	3621	3621	3621	3659	3621	3583	3659	3583	3621	3621	3621	3621	8343	8343	8343	8343	8550	8550	8550	8550	8550	8550	8550	8550	8550	8550	8550	8550	8550	8550	8550	8550	8550	8550	8550	8550	8550	8343	8343	8343	8343	8343	8343	8343	8343	8343	8343	8343	8343	8343	8343	8343	8343	8343	8343	8343	8146	8146	8146	8146	7959	8146	8146	8146	8146	8146	7959	7959	8146	8146	8146	8146	8146	8146	8146	8146	8146	8146	8146	8146	8146	8146	8146	8343	8146	8146	8146	8146	8146	8146	8146	8146	8146	8146	8343	8343	8146	8146	8146	8146	8146	8146	8146	8146	8146	8146	8146	7959	8146	7959	8146	8146	8146	8146	8146	8146	8146	8146	8146	8146	8146	8146	8146	8146	8146	8146	8343	8146	8146	8146	8146	8146	8146	8146	8146	8146	8146	8146	8146	8146	8146	8146	8146	8146	8146	8146	7959	7959	7959	8146	8146	8146	8146	8146	8343	8767	8550	8550	8343	8343	8343	8146	8146	8146	7959	7959	7959	7959	0	0	0	0	0	8343	8343	8343	8146	8146	8146	8146	8146	8146	8146	8146	8343	8146	8146	8343	8343	8146	8550	8550	8550	8550	8550	8550	8343	8343	8343	8146	8146	8343	8343	8146	8146	8146	8146	8146	8146	8146	8343	8343	8343	8343	8343	8343	8343	8550	8343	8550	8343	8343	8343	8146	8146	8146	8146	8146	8343	8343	8146	8146	8146	8146	8146	7959	7959	7959	7959	8146	8146	8146	0	0	0	0	0	0	0	0	0	0	0	0	0	0	0	0	0	0	0	0	0	0	0	0	0	0	0	0	0	0	0	0	0	0	0	0	0	0	0	0	0	0	0	0	0	0	0	0	0	0	0
0	0	0	0	0	930	930	930	932	937	942	942	942	945	948	948	953	955	955	955	961	966	980	980	983	983	983	983	985	988	991	991	994	1003	1008	1014	1020	1023	1026	1030	1030	1036	1036	1039	1042	1048	1048	1055	1058	1061	1061	1068	1078	1085	1085	1088	1088	1091	1091	1095	1095	1098	1098	1102	1102	1102	0	0	0	0	0	0	2690	2669	2669	2669	2669	2669	2649	2669	2669	2669	2669	2669	2669	2669	2669	2669	2669	2690	2690	2690	2690	2690	2711	2711	2733	2733	2733	2754	2754	2754	2754	2777	2777	2799	2799	2822	2822	2822	2822	2822	2822	2845	2845	2845	2869	2869	2893	2917	2917	2942	2917	2942	2942	2942	2942	2942	0	6992	6992	6992	6992	6992	6992	6992	6992	6992	7137	6992	6992	6992	7137	7137	6992	7137	7287	7287	7444	7608	7608	7608	7779	7779	7779	7779	7779	7779	7779	7959	8146	8146	8343	8343	8550	8767	8550	8550	8550	8343	8343	8343	8343	8343	8343	8343	8550	8550	8550	8767	8767	8767	8550	8550	8550	8550	8343	8343	8343	8550	8550	8550	8550	8550	8550	8550	8343	8343	8343	8343	8550	8550	8550	8550	8550	8550	8550	8550	8550	8550	8550	8550	8550	8550	8550	8343	8550	8550	8550	8343	8343	8146	8343	8343	8343	8343	8550	8343	8343	8343	8343	8146	8146	8146	8146	8146	8343	8343	8343	8343	8343	8146	8146	8146	8146	8146	8146	8146	8146	8146	8343	8343	8343	8550	8550	8550	8550	8550	8343	8343	8343	8343	8343	8343	8343	8550	8550	8550	8550	8550	8550	8550	8767	8767	0	0	3621	3621	3621	3583	3583	3583	3546	3583	3583	3583	3583	3583	3621	3621	3621	3621	3621	3621	3621	3621	3621	3621	3621	3583	3583	3583	3583	3583	3583	3546	3546	3546	3546	3546	3546	3583	3583	3583	3546	3546	3546	3546	3546	3546	3546	3510	3546	3546	3546	3546	3546	3546	3583	3583	3546	3583	3583	3583	3583	3583	3583	3583	3583	3583	3583	3583	3583	3583	3583	3583	3621	3659	3659	3659	3659	3659	3621	3621	3621	3621	3621	3621	3621	8343	8550	8343	8343	8343	8343	8343	8550	8550	8550	8343	8343	8550	8550	8550	8550	8550	8550	8550	8550	8550	8550	8550	8550	8343	8343	8550	8550	8343	8343	8343	8343	8343	8343	8343	8343	8343	8343	8343	8343	8343	8343	8343	8343	8146	8146	8146	8146	7959	7959	7959	8146	7959	7959	7959	7959	8146	8146	8146	8343	8343	8343	8343	8343	8146	8146	8146	8146	8146	8146	8146	8146	8146	8146	8146	8146	8146	8146	8146	8146	8146	8146	8343	8343	8146	8146	8146	8146	7959	7779	7779	7959	7959	8146	8146	7959	8146	8146	8146	8146	8146	8146	8146	8146	8146	4706	4706	7959	8146	8146	8146	8146	8343	8343	8343	8343	4643	4581	4581	4643	4643	8146	8146	8146	8146	8146	8146	7959	8146	8146	4643	4581	4581	8146	8146	8146	8146	8146	4643	4581	4581	4521	4581	4643	4643	4581	4581	4581	4581	4643	4643	4643	4643	7959	7959	0	0	0	0	0	0	0	8146	8146	8146	8146	8146	8146	8146	8146	8146	8343	8343	8343	8146	8343	8343	8146	8343	8343	8343	8343	8343	8343	8343	8343	8343	8343	8146	8343	8146	8146	8146	8146	8146	8146	8343	8146	8343	8343	8343	8343	8343	8343	8343	8550	8343	8550	8343	8343	8343	8146	8146	8146	8146	8146	8343	8343	8146	8146	8146	8146	8146	8343	8146	8146	8146	8146	8146	8146	0	0	0	0	0	0	0	0	0	0	0	0	0	0	0	0	0	0	0	0	0	0	0	0	0	0	0	0	0	0	0	0	0	0	0	0	0	0	0	0	0	0	0	0	0	0	0	0	0	0	0
0	0	0	0	0	930	930	930	932	937	940	942	942	945	945	948	953	955	955	955	958	963	977	980	983	983	983	985	988	988	988	991	991	1011	1011	1014	1023	1026	1026	1030	1030	1033	1039	1039	1042	1045	1048	1055	1058	1061	1061	1064	1081	1085	1085	1088	1091	1091	1091	1095	1095	1098	1098	1102	1102	1102	1102	0	0	0	0	0	2690	2669	2669	2649	2669	2669	2649	2669	2669	2669	2669	2669	2669	2669	2669	2669	2669	2669	2690	2669	2690	2711	2711	2733	2733	2733	2733	2754	2754	2754	2754	2777	2777	2777	2799	2799	2822	2822	2822	2822	2822	2845	2845	2869	2869	2869	2893	2917	2917	2917	2917	2917	2917	2917	2942	0	7137	6992	6992	6992	6992	6992	6992	6992	6992	6992	6992	6992	6992	7137	7137	7137	7137	7137	7287	7444	7444	7444	7608	7608	7608	7608	7779	7608	7608	7779	7779	7959	8146	8146	8343	8550	8550	8550	8550	8550	8550	8550	8343	8343	8343	8343	8550	8550	8550	8767	8767	8767	8767	8767	8767	8767	8767	8550	8343	8343	8550	8550	8550	8550	8550	8550	8343	8343	8343	8550	8343	8550	8550	8767	8550	8767	8550	8550	8550	8550	8767	8767	8767	8550	8550	8767	8767	8550	8767	8550	8550	8343	8343	8146	8343	8550	8550	8343	8550	8550	8550	8343	8343	8146	8146	8146	8146	8146	8146	7959	8146	8146	8146	8146	8146	8146	8146	8146	8146	8146	8343	8146	8550	8343	8343	8550	8550	8550	8550	8343	8343	8550	8550	8343	8343	8343	8550	8550	8550	8550	8550	8550	8550	8550	8550	8767	0	0	0	3621	3621	3583	3583	3583	3583	3583	3583	3583	3583	3621	3621	3621	3621	3621	3621	3621	3621	3621	3621	3583	3583	3583	3583	3583	3583	3583	3583	3546	3583	3546	3546	3546	3546	3583	3583	3583	3546	3546	3546	3546	3546	3546	3546	3546	3510	3546	3546	3546	3546	3546	3546	3583	3546	3583	3583	3583	3583	3583	3583	3583	3583	3583	3583	3583	3583	3621	3583	3621	3621	3621	3621	3621	3621	3621	3621	3621	3621	3621	3621	3621	3621	0	8550	8343	8343	8343	8343	8343	8343	8343	8343	8343	8343	8550	8550	8550	8550	8550	8550	8550	8550	8550	8343	8343	8343	8343	8343	8550	8550	8550	8550	8550	8343	8550	8550	8550	8550	8343	8343	4771	4771	4706	4706	4771	4771	4838	4838	8146	8146	7959	8146	7959	8146	7959	7959	7959	7959	8146	8146	8343	8343	8343	8343	8343	8343	8343	8146	8146	7959	8146	8146	8146	8146	8146	8146	8146	8146	8146	8146	8146	8146	8146	8343	8343	8343	8146	8146	8146	4771	4771	4706	4706	7779	7779	7959	7959	7959	4643	4581	4581	4581	4581	8146	8146	8146	8146	4771	4771	4771	4706	4643	4643	8343	8343	8343	4643	4643	4643	4581	4581	4643	4643	8343	8146	8146	8146	4906	4906	4771	4771	4706	4643	4643	4643	4643	8146	4643	4643	4643	4643	4581	4581	4521	4581	4581	4581	4581	4643	4643	4643	4643	4643	4643	4643	4643	0	0	0	0	0	0	0	0	8343	8146	8146	8146	8146	8146	8146	8146	8146	8343	8343	8343	8343	8343	8343	8146	8343	8343	8343	8343	8550	8550	8343	8343	8550	8343	8343	8343	8343	8343	8343	8343	8343	8343	8343	8146	8343	8343	8146	8343	8343	8343	8343	8550	8343	8550	8550	8343	8146	8146	8146	8146	8146	8146	8343	8343	8146	8146	8146	8146	8343	8343	8146	8146	8146	8146	8146	8343	8343	8146	8146	8146	0	0	0	0	0	0	0	0	0	0	0	0	0	0	0	0	0	0	0	0	0	0	0	0	0	0	0	0	0	0	0	0	0	0	0	0	0	0	0	0	0	0	0	0	0	0	0
0	0	0	0	0	0	930	932	932	937	942	942	942	945	945	945	948	955	955	955	958	963	977	980	983	983	983	985	988	988	991	991	994	1003	1011	1017	1023	1026	1026	1030	1030	1036	1039	1039	1042	1042	1045	1048	1055	1058	1061	1068	1078	1085	1085	1088	1088	1091	1091	1095	1095	1098	1098	1102	1102	1105	1105	0	0	0	0	0	0	2669	2669	2669	2669	2669	2669	2669	2669	2669	2669	2669	2669	2669	2669	2669	2669	2669	2669	2690	2690	2711	2733	2733	2733	2733	2733	2754	2754	2754	2754	2777	2777	2777	2799	2799	2822	2822	2822	2822	2822	2845	2845	2869	2869	2869	2917	2893	2917	2917	2917	2917	2917	2917	6853	6992	6992	6992	6992	6992	6992	6992	6992	6992	6992	6992	6992	6992	7137	7137	7287	7287	7287	7287	7444	7444	7444	7444	7608	7608	7608	7608	7779	7779	7779	7779	7779	7959	8146	8146	8146	8550	8550	8550	8550	8550	8767	8550	8550	8550	8343	8343	8343	8550	8550	8550	8767	8767	8767	8767	8767	8767	8767	8550	8343	8343	8343	8550	8550	8550	8550	8550	8550	8550	8343	8343	8343	8343	8550	8550	8550	8550	8550	8550	8550	8550	8767	8767	8767	8767	8767	8767	8767	8550	8767	8550	8550	8343	8343	8146	8343	8343	8550	8343	8550	8550	8550	8343	8550	8146	7959	8146	8146	8146	8146	8146	8146	8146	8146	8146	8146	8343	8343	8343	8146	8343	8343	8343	8550	8550	8343	8550	8550	8550	8343	8343	8343	8343	8343	8343	8343	8343	8343	8343	8550	8550	8550	8550	8550	8550	8767	8767	0	0	0	3583	3621	3583	3583	3583	3583	3583	3583	3583	3621	3621	3659	3659	3659	3621	3621	3621	3621	3621	3583	3583	3583	3583	3583	3583	3583	3583	3583	3546	3546	3546	3546	3546	3546	3546	3583	3583	3546	3546	3546	3546	3546	3546	3546	3546	3510	3546	3546	3546	3546	3546	3546	3546	3546	3546	3546	3583	3583	3583	3583	3583	3583	3583	3583	3583	3583	3583	3583	3621	3621	3621	3621	3621	3659	3621	3621	3659	3583	3583	3621	3583	3583	0	8550	8343	8343	8343	8343	4771	4771	8343	8550	8550	8550	8550	8550	8550	8550	8550	8343	8343	8343	8343	8343	8343	8343	8343	8343	8343	8343	8550	8550	8550	8550	8550	8550	4838	4838	4771	4838	4771	4771	4771	4771	4771	4906	4838	4838	4906	4906	4906	4906	7959	8146	7779	7959	7959	7959	8146	8146	4771	4771	4771	4771	4706	4706	4706	4706	4706	4771	4771	4771	4706	4771	4771	8343	8343	8146	8146	8146	8146	8146	8343	8343	8343	8343	4771	4706	4771	4771	4771	4706	4706	4706	4706	4706	4643	4643	4643	4643	4643	4643	4706	4771	4838	4771	4771	4771	4771	4771	4706	4706	4706	4706	4643	4643	4706	4643	4706	4643	4643	4643	4643	4771	4771	4771	4771	4771	4771	4706	4706	4706	4643	4706	4706	4706	4706	4706	4643	4643	4643	4643	4581	4581	4581	4643	4643	4643	4643	4643	4643	4643	4643	4643	4643	4643	0	0	0	0	0	0	0	0	8343	8343	8146	8343	8146	8146	8146	8343	8146	8343	8343	8146	8343	8343	8343	8146	8343	8343	8343	8343	8343	8343	8343	8343	8550	8343	8343	8343	8343	8343	8343	8343	8343	8343	8343	8343	8343	8343	8343	8343	8343	8343	8343	8343	8343	8343	8343	8343	8146	8146	8146	8146	8146	8146	8343	8343	8146	8146	8146	8146	8343	8343	8343	8343	8146	8343	8343	8343	8343	8146	8146	7959	7959	7959	7959	0	0	0	0	0	0	0	0	0	0	0	0	0	0	0	0	0	0	0	0	0	0	0	0	0	0	0	0	0	0	0	0	0	0	0	0	0	0	0	0	0	0	0	0
0	0	0	0	0	0	935	935	935	937	937	942	945	945	945	945	948	948	955	958	961	966	977	977	980	983	985	985	988	991	991	994	997	1006	1011	1014	1020	1023	1026	1026	1030	1036	1039	1039	1042	1042	1045	1048	1055	1061	1064	1068	1078	1081	1081	1085	1088	1091	1095	1095	1095	1098	1098	1098	1102	1105	1105	1109	0	0	0	0	0	2649	2649	2669	2669	2649	2649	2649	2669	2669	2669	2669	2669	2669	2669	2669	2669	2690	2690	2690	2690	2711	2711	2711	2733	2733	2733	2754	2754	2754	2754	2777	2777	2777	2799	2822	2822	2822	2822	2822	2845	2845	2869	2893	2893	2893	2893	2893	2893	2917	2917	0	0	0	6853	6992	6992	6992	6992	6992	6992	6992	6853	6853	6992	6992	6992	6992	7137	7137	7287	7287	7287	7287	7444	7444	7444	7444	7608	7608	7608	7608	7779	7608	7608	7779	7779	7959	8146	8146	8550	8550	8767	8767	8767	8767	8767	8767	8550	8550	8550	8343	8343	8550	8550	8550	8550	8767	8767	8767	8767	8550	8767	8550	8550	8550	8550	8550	8550	8550	8550	8550	8343	8550	8146	8343	8343	8343	8343	8550	8343	8550	8550	8550	8550	8550	8767	8550	8767	8550	8767	8767	8767	8767	8767	8550	8550	8343	8343	8146	8343	8343	8550	8343	8343	8343	8343	8343	8343	8146	8343	8343	8343	8146	8146	8146	8146	8146	8146	8146	8146	8343	8343	8343	8343	8343	8550	8550	8550	8550	8550	8343	8343	8343	8343	8343	8550	8343	8343	8343	8343	8343	8343	8550	8550	8550	8550	8550	8550	8550	8550	8550	0	0	0	3583	3583	3583	3583	3583	3583	3583	3583	3583	3583	3621	3621	3621	3621	3621	3621	3621	3621	3583	3583	3583	3583	3583	3583	3583	3583	3583	3583	3546	3583	3546	3546	3583	3546	3546	3583	3583	3546	3546	3546	3546	3546	3546	3546	3546	3546	3546	3546	3546	3546	3546	3546	3546	3546	3546	3546	3546	3583	3583	3583	3583	3583	3583	3583	3583	3583	3621	3621	3621	3621	3621	3621	3621	3621	3621	3621	3621	3621	3621	3621	3583	3583	3583	0	8343	4838	4771	4771	4771	4706	4771	4771	4771	4771	4771	4771	4771	4771	4771	8343	8343	8550	8550	8343	4771	4771	4838	4838	4771	4771	4771	4771	4771	4838	4838	4838	4838	4838	4838	4906	4838	4838	4838	4838	4906	4906	4838	4838	4906	4906	4838	4838	4838	4771	4771	4771	4771	4771	4771	4771	4771	4706	4706	4771	4706	4706	4706	4706	4771	4771	4771	4771	4706	4706	4706	4706	8343	4706	4706	4706	4706	4771	4706	4771	4771	4838	4771	4706	4838	4838	4706	4771	4706	4706	4706	4706	4706	4706	4706	4706	4706	4706	4706	4771	4771	4771	4771	4771	4771	4771	4706	4706	4706	4706	4706	4643	4706	4706	4706	4643	4643	4643	4771	4771	4771	4771	4771	4771	4771	4706	4706	4643	4643	4643	4706	4706	4706	4706	4706	4706	4706	4643	4643	4581	4643	4643	4643	4643	4643	4643	4643	4643	4643	4643	4706	4706	4838	4906	4906	0	0	0	0	8343	8146	8146	8146	8146	8146	8146	8146	8146	8146	8146	8146	8146	8343	8343	8146	8146	8343	8343	8343	8343	8343	8343	8343	8343	8550	8343	8343	8343	8343	8343	8343	8343	8146	8343	8343	8146	8343	8343	8146	8146	8146	8343	8343	8550	8550	8550	8550	8343	8146	8146	8146	8146	8146	8343	8343	8550	8146	8146	8146	8146	8343	8343	8146	8343	8146	8343	8343	8343	8343	8146	8146	7959	7779	7779	7959	0	0	0	0	0	0	0	0	0	0	0	0	0	0	0	0	0	0	0	0	0	0	0	0	0	0	0	0	0	0	0	0	0	0	0	0	0	0	0	0	0	0	0	0
0	0	0	0	0	0	935	935	935	935	937	942	945	945	945	945	948	950	955	958	961	966	974	977	980	980	983	985	988	991	991	994	997	1006	1011	1017	1020	1023	1023	1026	1030	1033	1039	1039	1042	1042	1045	1048	1055	1061	1064	1068	1074	1078	1078	1085	1088	1088	1088	1095	1098	1098	1098	1102	1102	1105	1105	1109	0	0	0	0	0	2649	2649	2649	2649	2649	2649	2649	2649	2669	2669	2669	2669	2669	2669	2669	2669	2669	2690	2690	2690	2711	2711	2711	2733	2733	2733	2754	2754	2754	2754	2777	2777	2777	2799	2799	2822	2822	2822	2822	2845	2845	2869	2869	2869	2869	2869	2893	2893	0	0	0	0	0	6853	6992	6992	6992	6992	6992	6992	6992	6992	6992	6992	6992	6992	7137	7137	7287	7444	7287	7287	7287	7444	7444	7444	7444	7444	7444	7444	4906	4906	7608	7608	7779	7779	7959	8146	8146	8550	8767	8767	8767	8767	8767	8767	8767	8550	8550	8343	8343	8343	8550	8343	8550	8550	8767	8767	8767	8550	8550	8550	8550	8550	8550	8550	8550	8550	8550	8550	8550	8343	8550	8343	8550	8550	8343	8343	8550	8343	8550	8550	8550	8343	8550	8550	8550	8550	8550	8550	8767	8767	8343	8146	8146	8767	8146	8343	8146	8343	8343	8550	8343	8550	8550	8550	8343	8343	8146	8343	8343	8343	8146	8343	8146	8146	8146	8146	8146	8146	8343	8343	8343	8343	8343	8550	8343	8550	8343	8343	8343	8343	8343	8146	8146	8343	8550	8550	8343	8343	8343	8550	8550	8550	8550	8550	8550	8550	8550	8343	8343	0	0	0	3583	3583	3583	3583	3583	3583	3583	3621	3621	3621	3621	3621	3621	3621	3621	3621	3621	3621	3583	3583	3583	3583	3583	3583	3583	3583	3583	3583	3583	3546	3583	3583	3583	3583	3546	3546	3546	3510	3510	3546	3546	3546	3546	3546	3546	3546	3546	3546	3546	3546	3546	3546	3546	3546	3546	3546	3546	3546	3546	3546	3583	3583	3583	3583	3621	3583	3621	3659	3659	3659	3659	3659	3621	3659	3621	3621	3621	3621	3621	3621	3546	3546	3546	4771	4838	4771	4771	4771	4771	4771	4771	4771	4771	4771	4771	4771	4771	4838	4771	4838	4838	4906	4838	4906	4771	4771	4838	4771	4771	4771	4771	4838	4771	4838	4838	4838	4838	4838	4838	4906	4838	4838	4838	4838	4906	4906	4771	4771	4771	4838	4838	4771	4771	4771	4771	4706	4706	4706	4706	4706	4706	4706	4771	4771	4706	4706	4706	4706	4771	4771	4771	4771	4706	4706	4706	4706	4706	4706	4706	4771	4771	4771	4771	4771	4771	4838	4771	4706	4771	4771	4771	4771	4706	4706	4706	4706	4706	4706	4706	4706	4706	4706	4706	4771	4771	4771	4771	4771	4771	4771	4706	4706	4706	4706	4706	4706	4706	4706	4706	4706	4706	4706	4771	4771	4771	4771	4771	4771	4771	4706	4706	4643	4643	4643	4643	4706	4706	4706	4706	4706	4706	4643	4643	4643	4643	4643	4643	4643	4643	4643	4643	4643	4643	4643	4706	4706	4771	4838	4838	0	0	0	8146	8146	8146	8146	8146	8343	8146	8146	8146	8343	8146	8146	8146	8146	8343	8343	8146	8146	8343	8343	8343	8343	8343	8343	8343	8343	8550	8343	8343	8343	8343	8146	8146	8343	8146	8146	8146	8146	8343	8343	8146	8343	8343	8343	8343	8550	8550	8550	8343	8343	8343	8146	8146	8343	8343	8343	8343	8550	8343	8146	8146	7959	7959	8343	8146	8146	8343	8343	8343	8343	8343	8146	7959	7959	7779	7779	0	0	0	0	0	0	0	0	0	0	0	0	0	0	0	0	0	0	0	0	0	0	0	0	0	0	0	0	0	0	0	0	0	0	0	0	0	0	0	0	0	0	0	0	0
0	0	0	0	0	0	935	935	937	937	940	942	942	945	948	948	948	950	958	963	963	966	972	974	977	980	985	988	988	991	991	994	994	1003	1008	1014	1023	1023	1023	1026	1030	1036	1039	1042	1045	1045	1045	1048	1052	1058	1064	1064	1074	1074	1078	1085	1088	1088	1091	1095	1098	1098	1098	1098	1102	1102	1102	0	0	0	0	0	0	2629	2649	2649	2649	2649	2649	2649	2649	2649	2649	2669	2669	2669	2669	2669	2669	2690	2690	2690	2690	2711	2711	2711	2733	2733	2733	2733	2754	2754	2754	2777	2777	2777	2799	2799	2822	2822	2822	2822	2845	2845	2869	2869	2869	2869	2869	0	0	0	0	0	0	0	0	0	6992	6992	6992	7137	7137	7137	7137	7137	7137	7137	7137	7137	7287	7444	7444	7444	7444	7287	7287	7287	7287	7287	7287	7287	7287	4906	4906	7608	0	0	0	0	0	0	8550	8767	8767	8767	8767	8767	8767	8767	8550	8550	8550	8343	8343	8550	8343	8550	8550	8550	8550	8767	8550	8550	8550	8550	8550	8343	8343	8343	8550	8550	8550	8550	8343	8343	8146	8343	8146	8343	8343	8550	8343	8550	8343	8343	8343	8343	8550	8550	8343	8343	8550	8767	8767	8343	8146	8343	8343	8343	8343	8343	8343	8343	8343	8343	8550	8343	8550	8343	8343	8146	8146	8343	8146	8146	8146	8146	8146	8146	8146	8146	8146	8343	8343	8343	8343	8343	8550	8343	8343	8343	8343	8343	8343	8343	8146	8146	8343	8343	8343	8343	8343	8550	8550	8550	8550	8550	8550	8550	8550	8550	8550	8550	0	0	0	3583	3583	3583	3583	3583	3583	3583	3621	3621	3621	3621	3621	3621	3621	3621	3621	3583	3583	3583	3583	3583	3583	3583	3546	3583	3546	3546	3583	3583	3583	3583	3583	3546	3546	3546	3546	3546	3510	3546	3510	3546	3546	3546	3546	3546	3546	3546	3546	3546	3546	3546	3546	3546	3546	3546	3546	3546	3546	3583	3583	3583	3583	3583	3583	3621	3621	3621	3659	3659	3659	3659	3659	3659	3621	3583	3621	3583	3583	3583	3621	3546	3546	3546	4771	4771	4771	4771	4771	4771	4771	4771	4771	4771	4771	4838	4838	4838	4838	4838	4838	4838	4838	4838	4838	4838	4771	4771	4771	4771	4771	4771	4771	4771	4838	4838	4838	4838	4838	4838	4838	4838	4838	4838	4838	4906	4771	4771	4771	4771	4771	4771	4706	4771	4706	4771	4706	4771	4771	4706	4706	4706	4706	4771	4771	4706	4771	4771	4771	4771	4771	4706	4706	4706	4706	4706	4706	4706	4771	4706	4771	4771	4771	4771	4771	4771	4771	4771	4706	4771	4771	4771	4771	4706	4706	4706	4706	4706	4706	4706	4706	4706	4706	4771	4771	4771	4771	4771	4771	4771	4771	4706	4706	4706	4706	4706	4706	4706	4643	4706	4706	4706	4706	4706	4706	4706	4706	4706	4706	4706	4706	4706	4643	4643	4643	4643	4643	4706	4706	4706	4706	4706	4643	4643	4643	4643	4643	4643	4643	4643	4643	4643	4643	4643	4643	4643	4706	4706	4706	4771	4771	8343	8146	8146	8146	8146	8146	8146	8146	8146	8146	8146	8146	8146	8146	8146	8343	8343	8343	8146	8343	8343	8343	8343	8343	8343	8343	8343	8343	8550	8343	8343	8343	8343	8146	8146	8343	8343	8343	8343	8343	8343	8550	8343	8343	8343	8343	8343	8343	8343	8343	8343	8343	8146	8146	8343	8343	8343	8343	8550	8550	8343	8146	8146	7959	7959	8146	8146	8146	8146	8343	8343	8343	8343	8146	8146	7959	7779	7779	0	0	0	0	0	0	0	0	0	0	0	0	0	0	0	0	0	0	0	0	0	0	0	0	0	0	0	0	0	0	0	0	0	0	0	0	0	0	0	0	0	0	0	0	0
0	0	0	0	0	0	935	935	937	935	937	942	942	945	948	948	948	953	958	963	963	966	972	974	977	983	985	988	988	991	991	994	994	1003	1008	1014	1020	1020	1020	1023	1026	1033	1036	1036	1045	1045	1048	1048	1052	1061	1064	1064	1071	1074	1078	1085	1088	1088	1088	1095	1095	1098	1098	1102	1102	1105	1105	0	0	0	0	0	0	2570	2629	2629	2629	2629	2629	2629	2629	2649	2649	2669	2669	2669	2669	2669	2690	2690	2690	2690	2690	2690	2711	2733	2733	2733	2733	2754	2754	2754	2754	2777	2777	2777	2799	2799	2822	2822	2845	2822	2845	2845	2869	2869	2869	2869	0	0	0	0	0	0	0	0	0	0	6992	6992	6992	6992	6992	6992	7137	4906	4906	4906	4906	4906	7287	7287	4906	4906	4838	4906	4906	4906	4906	4906	7287	7287	4906	4906	4906	0	0	0	0	0	0	0	0	0	0	0	8767	8767	8767	8767	8767	8550	8550	8550	8550	8343	8343	8550	8343	8550	8550	8767	8550	8550	8550	8343	8343	8343	8343	8550	8550	8550	8550	8550	8343	8343	8343	8146	8146	8343	8343	8343	8343	8343	8343	8343	8343	8343	8343	8550	8550	8343	8550	8550	8550	8550	8550	8550	8550	8550	8343	8343	8343	8343	8343	8343	8550	8343	8550	8343	8550	8146	8343	8146	8146	8146	8146	8146	8146	8146	8146	8146	8343	8343	8343	8343	8343	8343	8550	8343	8343	8343	8550	8343	8343	8343	8343	8343	8343	8343	8343	8343	8343	8343	8550	8550	8550	8550	8550	8550	8550	8550	8550	8550	0	0	0	3583	3621	3621	3621	3621	3621	3621	3621	3621	3621	3621	3621	3621	3621	3621	3621	3583	3583	3583	3583	3583	3583	3583	3546	3583	3583	3583	3583	3583	3583	3583	3583	3546	3546	3546	3546	3583	3546	3546	3546	3546	3546	3546	3546	3546	3546	3546	3546	3546	3546	3546	3546	3546	3546	3546	3546	3546	3546	3583	3583	3583	3583	3583	3583	3583	3621	3621	3621	3621	3659	3659	3659	3659	3659	3621	3659	3621	3659	3659	3621	3621	3583	4838	4771	4771	4771	4771	4771	4771	4771	4771	4771	4771	4771	4771	4771	4771	4838	4838	4771	4771	4771	4771	4838	4771	4771	4771	4771	4771	4771	4771	4771	4771	4838	4838	4838	4838	4838	4838	4838	4838	4838	4838	4838	4906	4838	4771	4771	4771	4771	4771	4706	4706	4706	4706	4706	4771	4771	4706	4706	4706	4706	4706	4706	4706	4706	4771	4771	4771	4771	4771	4771	4771	4771	4706	4771	4771	4706	4706	4706	4771	4771	4706	4706	4706	4771	4771	4706	4706	4771	4771	4706	4706	4706	4706	4706	4706	4706	4706	4706	4706	4706	4706	4771	4771	4771	4771	4706	4771	4771	4706	4706	4706	4706	4706	4706	4706	4706	4706	4706	4706	4706	4706	4706	4771	4771	4771	4771	4706	4706	4706	4643	4643	4643	4643	4643	4706	4706	4706	4706	4706	4706	4706	4643	4643	4643	4643	4643	4706	4643	4643	4643	4643	4643	4643	4643	4706	4771	4771	8343	8343	8146	8146	8146	8146	8146	8146	8343	8146	8146	8146	8146	8146	8146	8146	8146	8343	8343	8146	8343	8343	8343	8146	8343	8343	8146	8146	8343	8343	8343	8343	8343	8343	8343	8343	8343	8343	8343	8343	8343	8343	8550	8343	8767	8343	8343	8343	8343	8343	8343	8343	8343	8343	8343	8343	8550	8550	8550	8550	8767	8343	8146	7959	7959	7959	7959	8146	8146	8146	8343	8146	8343	8343	8343	8146	8146	8146	8146	0	0	0	0	0	0	0	0	0	0	0	0	0	0	0	0	0	0	0	0	0	0	0	0	0	0	0	0	0	0	0	0	0	0	0	0	0	0	0	0	0	0	0	0	0
0	0	0	0	0	0	927	932	932	935	937	942	942	945	945	945	948	950	958	963	963	966	969	972	974	983	985	988	988	988	991	994	1000	1008	1011	1011	1017	1017	1020	1023	1026	1033	1036	1039	1045	1045	1045	1042	1052	1061	1064	1068	1071	1071	1074	1081	1085	1088	1091	1095	1098	1098	1098	1102	1102	1105	1105	0	0	0	0	0	0	2570	2589	2589	2629	2629	2629	2649	2649	2649	2649	2669	2669	2669	2669	2690	2690	2690	2690	2690	2711	2711	2733	2733	2733	2733	2754	2754	2754	2754	2754	2777	2777	2777	2799	2799	2822	2822	2845	2845	2845	2869	2869	2893	2869	2869	2869	0	0	0	0	0	0	0	0	0	0	6992	6992	6992	4838	4838	4838	4906	4906	4906	4906	4906	4906	4906	4906	4906	4838	4906	4906	4906	4906	4906	4906	4906	4906	4906	4838	4838	4838	0	0	0	0	0	0	0	0	0	8767	8767	8767	8767	8550	8550	8550	8550	8343	8343	8343	8550	8343	8343	8550	8550	8550	8550	8550	8343	8343	8343	8550	8550	8550	8550	8550	8550	8550	8343	8343	8343	8146	8343	8343	8343	8343	8550	8343	8343	8343	8343	8343	8343	8343	8343	8343	8550	8343	8343	8146	8550	8550	8550	8343	8343	8343	8343	8343	8343	8343	8343	8343	8343	8343	8146	8146	8146	8146	8146	8146	8146	8343	8343	8343	8343	8343	8343	8343	8343	8343	8343	8343	8343	8343	8146	8343	8343	8343	8343	8343	8343	8550	8550	8550	8550	8343	8550	8550	8550	8550	8550	8550	8550	8550	8550	8550	8550	0	0	0	0	3621	3621	3621	3621	3621	3621	3621	3621	3621	3621	3621	3621	3621	3621	3621	3583	3583	3583	3583	3583	3583	3583	3546	3583	3583	3583	3583	3583	3583	3583	3583	3583	3583	3546	3546	3583	3546	3546	3546	3546	3510	3546	3546	3546	3546	3546	3546	3546	3546	3546	3546	3546	3546	3546	3546	3546	3546	3583	3583	3583	3583	3583	3583	3583	3583	3621	3621	3621	3621	3621	3621	3621	3621	3621	3659	3659	3659	3659	3621	3621	3621	4838	4838	4771	4771	4771	4771	4771	4771	4771	4771	4771	4771	4771	4771	4771	4771	4771	4771	4771	4771	4771	4771	4771	4771	4771	4771	4771	4771	4771	4771	4771	4838	4838	4771	4838	4838	4838	4906	4838	4838	4838	4838	4906	4771	4771	4771	4771	4771	4771	4706	4706	4706	4706	4706	4771	4771	4706	4706	4706	4706	4771	4771	4706	4771	4771	4771	4771	4771	4706	4771	4771	4706	4706	4771	4771	4771	4706	4706	4706	4706	4706	4706	4706	4771	4706	4706	4706	4771	4771	4706	4706	4706	4706	4706	4706	4706	4706	4706	4706	4706	4706	4771	4771	4706	4706	4706	4706	4706	4706	4706	4706	4706	4706	4706	4706	4706	4706	4706	4706	4706	4706	4706	4771	4771	4771	4706	4706	4706	4706	4643	4643	4643	4643	4643	4643	4706	4643	4643	4706	4706	4706	4643	4643	4643	4706	4706	4706	4643	4643	4643	4643	4643	4643	4643	4706	4771	4771	4771	8343	8146	8146	8343	8146	8343	8146	8343	8343	8146	8146	8146	8146	8146	8146	8146	8343	8343	8146	8343	8343	8343	8146	8343	8146	8146	8146	8146	8343	8343	8343	8343	8343	8343	8343	8343	8343	8343	8343	8343	8146	8343	8146	8343	8343	8343	8343	8343	8343	8343	8343	8343	8343	8343	8343	8550	8550	8767	8550	8767	8550	8343	8146	7959	7959	7959	7959	8146	8146	8146	8146	8146	8146	8146	8146	8146	8146	8146	0	0	0	0	0	0	0	0	0	0	0	0	0	0	0	0	0	0	0	0	0	0	0	0	0	0	0	0	0	0	0	0	0	0	0	0	0	0	0	0	0	0	0	0	0
0	0	0	0	0	0	927	930	935	935	937	940	942	945	945	945	948	950	958	963	963	966	969	972	974	980	983	985	988	991	994	997	1003	1006	1008	1011	1014	1017	1020	1023	1026	1033	1036	1039	1045	1042	1045	1042	1055	1061	1061	1068	1071	1074	1078	1081	1085	1085	1088	1091	1095	1095	1098	1102	1105	1105	1105	0	0	0	0	0	2570	2570	2589	2629	2629	2629	2629	2649	2649	2649	2649	2669	2669	2690	2669	2690	2690	2711	2711	2690	2711	2711	2711	2733	2733	2733	2754	2754	2754	2777	2754	2799	2799	2799	2822	2822	2845	2845	2845	2845	2869	2869	2869	2869	2869	2869	2869	0	0	0	0	0	0	4906	4906	0	0	4838	4838	4838	4838	4906	4906	4906	4906	4906	4906	4906	4906	4906	4906	4906	4838	4906	4906	4906	4906	4906	4906	4906	4838	4906	4838	4838	4838	4838	4838	0	0	0	0	0	0	0	8550	8550	8550	8146	8146	8550	8550	8550	8343	8343	8343	8550	8343	8343	8343	8550	8550	8550	8550	8343	8550	8343	8550	8343	8550	8343	8550	8343	8343	8343	8343	8146	8146	8343	8343	8343	8343	8343	8343	8343	8343	8343	8343	8343	8343	8343	8343	8343	8343	8343	8146	8343	8343	8343	8343	8343	8343	8343	8343	8550	8343	8343	8343	8343	8343	8146	8146	8146	8146	8146	8146	8146	8343	8343	8146	8146	8146	8343	8343	8343	8343	8343	8343	8343	8343	8343	8343	8343	8343	8343	8343	8343	8343	8343	8343	8343	8343	8343	8550	8550	8550	8550	8550	8550	8550	8550	8550	8343	8343	0	0	0	0	3621	3621	3621	3621	3621	3621	3621	3621	3621	3583	3621	3621	3621	3621	3583	3583	3583	3583	3583	3583	3583	3583	3583	3583	3583	3583	3583	3583	3583	3583	3583	3546	3546	3546	3546	3510	3510	3510	3510	3546	3510	3546	3546	3546	3546	3546	3546	3546	3546	3546	3546	3546	3546	3546	3546	3546	3546	3583	3546	3583	3583	3583	3583	3583	3583	3621	3621	3621	3621	3621	3621	3621	3621	3621	3621	3621	3621	3583	3583	3583	4838	4838	4771	4771	4771	4771	4771	4771	4771	4771	4771	4771	4771	4771	4771	4771	4771	4771	4771	4771	4771	4771	4771	4771	4771	4771	4771	4771	4771	4771	4771	4838	4838	4838	4838	4838	4838	4838	4838	4838	4838	4838	4838	4771	4771	4771	4706	4771	4706	4706	4706	4706	4706	4706	4706	4706	4771	4706	4706	4771	4771	4838	4771	4771	4706	4771	4771	4771	4706	4771	4771	4706	4706	4771	4771	4706	4706	4706	4706	4706	4706	4706	4706	4706	4706	4706	4706	4771	4771	4771	4706	4706	4706	4706	4706	4706	4706	4706	4706	4706	4706	4706	4706	4706	4706	4706	4706	4706	4706	4706	4706	4706	4706	4706	4706	4706	4706	4706	4706	4706	4706	4706	4771	4771	4706	4706	4706	4706	4706	4643	4643	4643	4643	4643	4643	4706	4643	4643	4706	4706	4706	4643	4643	4643	4706	4706	4706	4643	4643	4643	4643	4643	4643	4643	4706	4706	4771	4771	8146	8146	8146	8146	8146	8343	8146	8343	8343	8343	8343	8343	8146	8146	8343	8343	8550	8550	8343	8343	8550	8343	8146	8146	8146	8146	7959	7959	8146	8146	8343	8343	8146	8343	8343	8343	8343	8343	8343	8343	8343	8550	8343	8343	8343	8343	8343	8343	8343	8343	8343	8343	8343	8343	8343	8550	8550	8767	8550	8767	8343	8146	8146	8146	7959	8146	7959	7959	8146	8146	8146	8146	8146	8146	8146	8146	8146	8146	0	0	0	0	0	0	0	0	0	0	0	0	0	0	0	0	0	0	0	0	0	0	0	0	0	0	0	0	0	0	0	0	0	0	0	0	0	0	0	0	0	0	0	0	0
0	0	0	0	0	0	927	932	935	935	940	942	942	945	945	948	948	948	953	961	963	966	969	972	974	980	983	983	988	991	994	997	1003	1006	1008	1011	1014	1014	1020	1023	1026	1036	1039	1042	1045	1042	1042	1045	1052	1058	1061	1064	1071	1074	1078	1085	1085	1085	1088	1088	1091	1091	1095	1098	1102	1102	0	0	0	0	0	0	2589	2609	2609	2609	2609	2629	2629	2649	2649	2649	2649	2669	2669	2669	2669	2690	2690	2711	2711	2711	2711	2711	2711	2733	2733	2754	2754	2754	2754	2777	2777	2777	2799	2799	2822	2822	2845	2845	2845	2845	2845	2869	2869	2845	2845	2845	2869	4977	4906	4906	4906	4906	4906	4906	4906	4906	4906	4838	4838	4838	4838	4906	4906	4906	4906	4906	4906	4906	4906	4906	4906	4906	4838	4906	4838	4838	4838	4838	4838	4838	4838	4838	4838	4838	4838	4838	4771	4771	0	0	0	0	0	8146	8146	8550	8550	8146	8343	8550	8550	8550	8343	8550	8343	8343	8343	8343	8146	8343	8343	8343	8343	8343	8343	8343	8343	8343	8343	8343	8343	8343	8146	8146	8146	8146	8343	8343	8343	8343	8343	8550	8146	8550	8343	8343	8343	8343	8146	8146	8343	8343	8343	8343	8146	8343	8343	8343	8343	8343	8550	8550	8550	8550	8550	8550	8550	8550	8550	8343	8146	8146	8146	8146	8146	8146	8343	8343	8146	8146	8146	8146	8343	8343	8146	8343	8343	8343	8343	8343	8343	8343	8343	8343	8343	8343	8343	8343	8550	8343	8343	8550	8550	8550	8550	8550	8550	8550	8550	8550	8550	8550	8550	0	0	0	0	3621	3621	3621	3621	3621	3621	3583	3583	3583	3621	3621	3621	3621	3621	3583	3583	3583	3583	3583	3583	3583	3546	3583	3546	3546	3583	3583	3583	3583	3583	3546	3546	3546	3546	3546	3510	3510	3510	3546	3546	3546	3546	3546	3546	3546	3546	3546	3546	3546	3546	3546	3546	3546	3546	3546	3546	3546	3583	3546	3546	3583	3583	3583	3583	3583	3621	3621	3621	3621	3621	3621	3621	3621	3621	3621	3621	3621	3583	3583	4771	4771	4771	4771	4771	4771	4771	4771	4771	4771	4771	4771	4771	4771	4771	4771	4771	4771	4771	4771	4771	4771	4838	4771	4771	4771	4771	4771	4771	4771	4771	4838	4838	4838	4838	4838	4838	4838	4838	4771	4771	4838	4838	4838	4771	4771	4771	4771	4771	4771	4706	4706	4706	4706	4706	4706	4706	4706	4771	4771	4771	4838	4838	4838	4771	4771	4771	4771	4771	4706	4771	4771	4706	4706	4706	4771	4706	4706	4706	4706	4706	4706	4706	4706	4706	4706	4771	4771	4771	4771	4771	4771	4706	4706	4706	4706	4706	4706	4706	4706	4706	4706	4706	4706	4706	4706	4706	4706	4706	4706	4706	4706	4706	4706	4706	4706	4706	4706	4706	4706	4706	4706	4706	4771	4706	4706	4706	4706	4706	4706	4643	4643	4643	4643	4643	4643	4706	4706	4706	4706	4706	4706	4706	4706	4706	4706	4706	4706	4643	4643	4706	4706	4643	4643	4643	4706	4706	4706	4706	8146	8146	8146	8146	8146	8343	8146	8343	8343	8343	8343	8343	8343	8343	8343	8343	8343	8343	8343	8550	8343	8343	8146	8146	8146	8146	7959	7959	8146	8146	8146	8343	8343	8343	8343	8343	8343	8343	8343	8343	8343	8343	8343	8343	8343	8343	8343	8343	8343	8343	8343	8343	8343	8343	8343	8550	8550	8550	8550	8767	8343	8343	8146	8146	7959	8146	8146	7959	7959	8146	7959	8146	8146	8146	8146	8146	8146	0	0	0	0	0	0	0	0	0	0	0	0	0	0	0	0	0	0	0	0	0	0	0	0	0	0	0	0	0	0	0	0	0	0	0	0	0	0	0	0	0	0	0	0	0	0
0	0	0	0	0	0	0	932	932	937	937	942	945	945	948	948	948	948	958	961	961	966	969	972	977	980	983	983	988	991	991	997	1003	1006	1011	1014	1014	1017	1020	1023	1026	1036	1036	1042	1042	1042	1042	1045	1058	1061	1064	1064	1071	1074	1081	1085	1085	1085	1085	1088	1088	1091	1091	1098	1098	1102	0	0	0	0	0	2570	2589	2609	2609	2609	2609	2609	2609	2649	2629	2629	2649	2669	2669	2669	2669	2690	2690	2711	2711	2711	2711	2711	2733	2733	2733	2754	2754	2754	2754	2777	2777	2777	2777	2799	2822	2822	2822	2845	2845	2845	2845	2845	2869	2845	2845	2845	5050	4977	4906	4906	4906	4906	4906	4906	4906	4906	4906	4838	4838	4838	4838	4906	4906	4906	4906	4906	4906	4906	4906	4906	4906	4906	4838	4838	4838	4838	4838	4838	4838	4838	4771	4838	4838	4838	4838	4838	4771	4771	0	0	0	0	8550	8550	8550	8550	8550	8343	8343	8343	8550	8550	8343	8550	8343	8343	8343	8343	8146	8343	8343	8343	8343	8343	8343	8343	8343	8343	8343	8343	8343	8343	8146	8146	8146	8343	8343	8343	8343	8343	8343	8343	8343	8343	8343	8343	8146	8343	8146	8146	8146	8146	8146	8146	8146	8146	8343	8343	8146	8146	8550	8550	8550	8550	8550	8550	8550	8550	8550	8343	8343	8146	8146	8146	8146	8146	8146	8343	8146	8146	8146	8146	8146	8146	8146	8146	8343	8343	8343	8343	8343	8343	8343	8343	8343	8343	8343	8550	8343	8343	8343	8550	8550	8550	8550	8550	8550	8550	8550	8550	8550	8550	8550	0	0	0	0	0	3621	3621	3621	3621	3621	3583	3583	3583	3621	3621	3621	3621	3621	3583	3583	3583	3583	3583	3583	3583	3583	3583	3546	3546	3583	3546	3546	3546	3546	3546	3546	3546	3546	3546	3510	3510	3510	3546	3546	3546	3546	3546	3546	3546	3546	3546	3546	3546	3546	3546	3546	3546	3546	3546	3546	3546	3583	3583	3583	3583	3583	3583	3583	3583	3583	3583	3621	3621	3621	3621	3621	3621	3621	3621	3621	3621	3621	3621	4771	4771	4771	4771	4771	4771	4771	4771	4771	4771	4771	4771	4771	4771	4771	4771	4771	4771	4771	4771	4771	4771	4838	4771	4771	4771	4771	4771	4771	4838	4838	4838	4838	4838	4838	4838	4838	4838	4838	4771	4838	4771	4838	4838	4771	4771	4771	4771	4771	4771	4706	4706	4706	4706	4706	4706	4706	4771	4771	4771	4838	4838	4838	4838	4838	4771	4771	4771	4706	4706	4771	4771	4706	4706	4706	4706	4706	4706	4706	4706	4706	4706	4706	4706	4706	4706	4706	4706	4771	4771	4771	4771	4706	4706	4706	4706	4706	4706	4706	4706	4706	4706	4706	4706	4706	4706	4706	4706	4706	4706	4771	4706	4706	4706	4706	4706	4706	4706	4706	4706	4706	4706	4706	4771	4771	4771	4706	4706	4706	4706	4643	4643	4643	4643	4643	4643	4643	4643	4643	4643	4706	4706	4706	4706	4706	4706	4706	4706	4706	4706	4706	4706	4643	4643	4643	4643	4706	4706	4706	8343	8146	8343	8343	8343	8343	8146	8343	8343	8343	8343	8343	8343	8343	8343	8550	8550	8550	8550	8550	8550	8343	8146	8146	7959	7959	7959	7959	8146	8146	8146	8146	8343	8343	8146	8343	8343	8343	8343	8550	8343	8550	8550	8343	8146	8343	8343	8343	8343	8343	8343	8343	8343	8343	8343	8550	8550	8343	8550	8550	8343	8146	8146	7959	7959	8146	7959	7959	7959	7959	7959	7959	7959	8146	8146	8146	8146	0	0	0	0	0	0	0	0	0	0	0	0	0	0	0	0	0	0	0	0	0	0	0	0	0	0	0	0	0	0	0	0	0	0	0	0	0	0	0	0	0	0	0	0	0	0
0	0	0	0	0	0	0	927	927	932	940	942	942	945	948	948	948	950	958	961	961	961	969	969	977	980	980	983	985	991	994	1003	1006	1008	1011	1014	1014	1017	1023	1026	1033	1036	1036	1042	1042	1042	1045	1048	1052	1061	1061	1068	1071	1074	1081	1085	1085	1085	1085	1088	1088	1091	1091	1098	1098	0	0	0	0	0	0	2551	2570	2589	2609	2609	2609	2609	2629	2649	2629	2649	2649	2669	2669	2669	2669	2690	2690	2690	2690	2711	2711	2711	2733	2733	2754	2754	2754	2754	2777	2777	2777	2777	2777	2799	2799	2822	2822	2845	2845	2845	2845	2845	2845	2845	2845	0	4977	4977	4906	4906	4906	4906	4906	4906	4906	4906	4906	4906	4906	4906	4906	4906	4906	4906	4906	4906	4906	4906	4906	4906	4906	4906	4838	4838	4838	4838	4838	4838	4838	4838	4771	4838	4838	4838	4838	4838	4771	4771	0	0	0	0	8550	8550	8343	8343	8343	8343	8343	8343	8343	8343	8343	8343	8343	8343	8343	8343	8146	8343	8343	8343	8343	8343	8343	8343	8343	8343	8343	8343	8343	8343	8343	8343	8146	8146	8343	8343	8343	8343	8343	8343	8343	8343	8343	8343	8146	8146	8146	8146	8146	8146	8146	8343	8146	8343	8343	8343	8343	8343	8550	8550	8550	8550	8550	8550	8550	8550	8343	8146	8146	8146	8146	8146	8146	8146	8146	8146	8146	8146	8146	8146	8146	8146	8146	8146	8146	8343	8343	8343	8343	8343	8343	8343	8343	8343	8343	8343	8343	8343	8343	8343	8550	8343	8343	8550	8550	8550	8550	8550	8550	8343	8343	0	0	0	0	0	3659	3621	3621	3621	3621	3583	3583	3583	3583	3621	3621	3621	3621	3583	3583	3583	3583	3583	3583	3583	3583	3583	3583	3546	3546	3583	3546	3546	3546	3546	3546	3546	3546	3546	3510	3510	3546	3546	3546	3546	3546	3546	3546	3546	3510	3546	3546	3546	3546	3546	3546	3546	3546	3546	3546	3546	3583	3546	3546	3546	3546	3583	3583	3583	3583	3583	3583	3621	3583	3621	3621	3621	3621	3621	3621	3621	4771	4771	4771	4771	4771	4771	4771	4771	4771	4771	4771	4771	4771	4771	4771	4771	4771	4771	4771	4771	4771	4771	4771	4771	4771	4771	4771	4771	4771	4771	4771	4838	4838	4838	4838	4838	4838	4838	4771	4771	4771	4771	4771	4771	4771	4838	4771	4771	4771	4771	4706	4771	4706	4771	4706	4706	4706	4706	4706	4771	4771	4771	4771	4838	4838	4771	4771	4771	4706	4771	4706	4706	4771	4771	4706	4771	4706	4706	4706	4706	4706	4706	4706	4706	4706	4706	4706	4706	4706	4706	4706	4771	4771	4706	4706	4706	4706	4706	4706	4706	4706	4706	4706	4706	4706	4706	4643	4706	4706	4706	4706	4706	4706	4706	4706	4706	4706	4706	4706	4706	4706	4706	4706	4706	4706	4706	4771	4771	4706	4706	4706	4706	4643	4643	4643	4643	4643	4643	4643	4643	4706	4706	4706	4706	4706	4706	4706	4706	4706	4706	4643	4706	4706	4706	4643	4643	4643	4643	4706	4706	4706	8343	8343	8343	8343	8343	8343	8343	8550	8343	8343	8343	8343	8343	8550	8550	8550	8550	8343	8343	8343	8343	8146	8146	8146	7959	7959	7959	7959	8146	8146	8146	8146	8146	8146	8343	8343	8343	8550	8550	8767	8550	8550	8550	8550	8343	8343	8343	8343	8146	8146	8343	8343	8343	8343	8343	8550	8550	8343	8343	8550	8343	8146	8146	8146	8146	8146	7959	7959	7959	7959	7959	7959	7959	8146	8146	8146	8146	0	0	0	0	0	0	0	0	0	0	0	0	0	0	0	0	0	0	0	0	0	0	0	0	0	0	0	0	0	0	0	0	0	0	0	0	0	0	0	0	0	0	0	0	0	0
0	0	0	0	0	0	927	927	925	930	940	942	945	945	948	948	948	950	955	958	958	963	969	969	974	977	980	980	985	994	994	1000	1006	1008	1011	1011	1014	1017	1023	1030	1036	1036	1036	1039	1042	1039	1042	1048	1055	1058	1068	1071	1071	1074	1081	1085	1081	1085	1085	1088	1088	1091	1095	1095	1095	0	0	0	0	0	0	2570	2570	2589	2589	2589	2589	2609	2609	2649	2629	2629	2649	2669	2669	2669	2669	2690	2690	2690	2711	2711	2711	2733	2733	2733	2733	2733	2754	2754	2754	2777	2777	2799	2822	2822	2822	2822	2822	2845	2822	2845	2845	2845	2845	2845	2845	0	4977	4906	4906	4906	4906	4906	4906	4906	4906	4906	4906	4906	4906	4906	4906	4906	4906	4906	4906	4906	4906	4906	4906	4906	4906	4906	4838	4838	4838	4838	4838	4838	4838	4838	4838	4838	4838	4838	4838	4838	4838	4838	4838	4838	0	0	8550	8343	8343	8343	8146	8343	8343	8343	8343	8343	8343	8343	8343	8343	8343	8343	8343	8343	8343	8343	8343	8343	8343	8343	8343	8343	8343	8343	8343	8343	8343	8343	8343	8343	8343	8343	8550	8550	8343	8343	8343	8343	8343	8343	8146	8146	8146	8146	8146	8146	8146	8146	8146	8343	8343	8343	8343	8343	8550	8550	8550	8550	8550	8550	8550	8343	8343	8343	8146	8146	8146	8146	8146	8146	8146	8146	8146	8146	8146	8146	8146	8343	8343	8343	8343	8343	8343	8343	8343	8343	8343	8343	8343	8343	8343	8343	8343	8343	8343	8343	8343	8343	8343	8343	8550	8550	8550	8343	8343	8343	8343	8343	0	0	0	0	3659	3621	3621	3583	3583	3583	3583	3583	3583	3621	3621	3621	3621	3583	3583	3583	3583	3583	3583	3583	3583	3583	3583	3583	3583	3546	3546	3546	3546	3546	3546	3546	3546	3546	3546	3546	3546	3546	3546	3546	3546	3546	3546	3546	3510	3546	3546	3546	3546	3546	3546	3546	3546	3546	3546	3546	3546	3546	3546	3546	3546	3583	3546	3583	3583	3583	3583	3583	3583	3583	3583	3583	3583	3583	3583	4771	4771	4771	4771	4771	4771	4771	4771	4771	4771	4771	4771	4771	4771	4771	4771	4771	4771	4771	4771	4771	4771	4771	4771	4771	4771	4771	4838	4838	4771	4771	4771	4838	4838	4838	4838	4838	4838	4838	4838	4838	4771	4771	4771	4771	4771	4771	4706	4771	4706	4706	4771	4771	4706	4771	4706	4706	4706	4706	4771	4771	4771	4771	4771	4838	4838	4771	4771	4706	4706	4706	4706	4706	4706	4771	4706	4771	4706	4706	4706	4706	4706	4706	4706	4706	4706	4706	4706	4706	4706	4706	4706	4706	4706	4706	4706	4771	4706	4706	4706	4706	4706	4706	4706	4706	4706	4643	4643	4643	4643	4706	4706	4706	4706	4706	4706	4706	4706	4706	4706	4706	4706	4706	4706	4706	4706	4706	4706	4771	4706	4706	4706	4706	4643	4643	4643	4643	4643	4643	4643	4643	4706	4706	4706	4706	4706	4706	4706	4706	4706	4706	4643	4643	4706	4706	4643	4643	4643	4706	4706	4706	4706	4706	8146	8343	8343	8343	8343	8343	8343	8343	8343	8343	8343	8343	8550	8343	8343	8343	8343	8343	8343	8343	8146	8146	8146	7959	7959	7959	7959	8146	8146	8146	8146	8343	8550	8146	8146	8550	8550	8550	8550	8550	8343	8550	8343	8343	8343	8343	8343	8343	8343	8343	8343	8343	8550	8343	8550	8343	8343	8343	8343	8343	8146	8146	8146	8146	8146	7959	7959	7959	7959	7959	7959	7959	7959	7959	7959	7959	0	0	0	0	0	0	0	0	0	0	0	0	0	0	0	0	0	0	0	0	0	0	0	0	0	0	0	0	0	0	0	0	0	0	0	0	0	0	0	0	0	0	0	0	0	0
0	0	0	0	0	0	927	927	925	925	945	945	945	945	948	948	948	950	955	958	958	961	966	969	969	977	977	980	985	985	997	1003	1006	1006	1011	1011	1014	1014	1023	1023	1033	1036	1039	1039	1039	1039	1039	1048	1055	1061	1071	1074	1074	1078	1081	1081	1081	1085	1085	1085	1088	1091	1091	1091	1091	0	0	0	0	0	0	2609	2589	2589	2589	2589	2589	2609	2609	2649	2629	2629	2649	2669	2669	2669	2649	2649	2669	2669	2669	2690	2690	2711	2733	2733	2733	2733	2733	2754	2754	2754	2777	2777	2799	2799	2799	2822	2822	2845	2822	2845	2845	2845	2845	2845	2845	0	4977	4906	4906	4906	4906	4906	4906	4906	4906	4906	4906	4906	4906	4906	4906	4906	4906	4906	4906	4906	4906	4906	4906	4906	4906	4906	4838	4838	4838	4838	4838	4838	4838	4838	4838	4838	4838	4838	4838	4838	4838	4771	4838	4771	4771	0	8146	8146	8146	8146	8146	8146	8146	8146	8343	8146	8343	8343	8343	8343	8343	8550	8550	8343	8343	8343	8550	8550	8550	8343	8343	8343	8343	8343	8343	8343	8146	8146	8146	8146	8343	8550	8343	8550	8550	8343	8550	8550	8343	8343	8343	8343	8146	8343	8343	8343	8146	8146	8146	8343	8343	8343	8146	8343	8550	8550	8550	8343	8343	8550	8550	8343	8343	8343	8146	8146	8146	8146	8146	8146	8146	8146	8343	8146	8146	8146	8343	8343	8343	8343	8343	8550	8550	8343	8343	8343	8343	8343	8343	8343	8343	8343	8343	8343	8343	8343	8550	8550	8550	8343	8343	8550	8550	8343	8343	8343	8343	8343	8343	0	0	0	0	3621	3621	3621	3583	3583	3583	3583	3583	3583	3583	3583	3583	3583	3583	3583	3583	3583	3583	3583	3583	3546	3546	3546	3546	3546	3546	3546	3546	3583	3546	3546	3546	3546	3546	3510	3510	3546	3546	3546	3546	3510	3510	3510	3510	3510	3546	3546	3546	3546	3546	3546	3546	3546	3546	3546	3546	3546	3546	3546	3546	3546	3546	3546	3546	3583	3583	3583	3583	3583	3583	3583	3583	3583	3583	4771	4771	4771	4771	4771	4771	4771	4771	4771	4771	4771	4771	4771	4771	4771	4771	4771	4771	4771	4771	4771	4771	4771	4771	4771	4771	4771	4838	4838	4838	4771	4838	4838	4838	4838	4838	4838	4771	4838	4771	4771	4771	4771	4771	4771	4771	4771	4706	4706	4706	4706	4706	4771	4706	4771	4706	4706	4706	4706	4706	4771	4771	4771	4771	4771	4906	4771	4706	4706	4706	4771	4771	4706	4706	4706	4706	4706	4706	4706	4706	4706	4706	4643	4706	4706	4706	4706	4706	4706	4706	4771	4706	4771	4771	4706	4706	4771	4706	4706	4706	4706	4706	4706	4706	4706	4706	4643	4643	4643	4643	4706	4706	4706	4706	4706	4706	4706	4706	4706	4706	4706	4706	4771	4771	4771	4771	4706	4771	4771	4706	4706	4706	4706	4643	4643	4643	4643	4643	4643	4643	4643	4706	4706	4706	4706	4706	4643	4706	4706	4706	4706	4643	4643	4706	4706	4643	4643	4643	4706	4706	4706	4706	4706	8146	8343	8343	8343	8343	8343	8550	8550	8550	8343	8343	8343	8343	8343	8146	8343	8343	8343	8343	8343	8146	8146	8146	8146	8146	8146	8146	8146	8146	8343	8343	8343	8550	8343	8343	8343	8550	8550	8550	8550	8343	8550	8343	8343	8343	8343	8343	8343	8343	8343	8343	8343	8550	8343	8343	8343	8343	8343	8550	8343	8146	8146	8146	8146	8146	7959	7959	7959	7959	7959	7959	7959	7959	7959	7959	7959	0	0	0	0	0	0	0	0	0	0	0	0	0	0	0	0	0	0	0	0	0	0	0	0	0	0	0	0	0	0	0	0	0	0	0	0	0	0	0	0	0	0	0	0	0	0
0	0	0	0	0	0	927	927	927	948	948	948	948	948	948	950	950	953	958	961	961	963	966	966	969	974	977	980	985	985	1000	1000	1006	1008	1008	1011	1014	1014	1026	1026	1033	1036	1039	1039	1039	1039	1042	1048	1055	1061	1071	1074	1078	1078	1081	1081	1081	1085	1085	1085	1088	1091	1091	1091	1091	0	0	0	0	0	0	2629	2609	2589	2589	2589	2589	2609	2609	2629	2629	2629	2629	2649	2649	2649	2649	2669	2669	2669	2690	2690	2711	2711	2711	2711	2733	2733	2733	2733	2754	2754	2777	2777	2777	2799	2799	2822	2822	2822	2822	2845	2845	2822	2845	2822	2822	0	5050	4977	4977	4906	4906	4906	4906	4906	4906	4906	4906	4906	4906	4906	4906	4906	4906	4906	4906	4906	4906	4906	4906	4906	4906	4906	4838	4838	4838	4838	4838	4838	4838	4838	4838	4838	4771	4771	4838	4838	4771	4771	4771	4771	4771	0	8146	8146	8146	8343	8343	8343	8146	8146	8146	8146	8146	8343	8343	8343	8343	8550	8146	8343	8343	8343	8343	8550	8550	8343	8550	8343	8146	8146	8343	8146	8146	8343	8146	8343	8343	8343	8343	8343	8343	8146	8550	8550	8550	8550	8343	8343	8343	8343	8343	8343	8146	8146	8146	8343	8146	8343	8146	8146	8550	8550	8550	8343	8343	8343	8343	8146	8146	8146	8146	8146	8146	8146	8343	8343	8146	8146	8146	8146	8146	8146	8343	8343	8343	8343	8550	8550	8550	8550	8343	8550	8550	8343	8343	8343	8343	8343	8343	8343	8343	8343	8550	8550	8550	8550	8550	8550	8550	8550	8343	8550	8343	8550	8550	0	0	0	0	3659	3621	3621	3583	3583	3583	3583	3583	3583	3583	3583	3583	3583	3583	3583	3583	3583	3583	3546	3583	3546	3546	3546	3546	3546	3546	3546	3546	3546	3546	3546	3546	3546	3510	3546	3546	3546	3546	3546	3546	3510	3510	3510	3510	3510	3546	3546	3546	3546	3546	3546	3546	3546	3546	3546	3546	3546	3546	3546	3546	3546	3546	3546	3546	3583	3583	3583	3583	3583	3583	3583	3583	3583	3583	4838	4771	4771	4771	4771	4771	4771	4771	4838	4771	4771	4771	4771	4771	4771	4771	4771	4771	4771	4771	4771	4771	4771	4771	4771	4771	4771	4771	4838	4838	4838	4838	4838	4838	4771	4838	4838	4771	4771	4771	4771	4771	4771	4771	4771	4771	4771	4706	4706	4706	4706	4706	4771	4706	4771	4706	4771	4706	4706	4706	4771	4771	4771	4771	4771	4771	4771	4771	4771	4706	4706	4771	4706	4706	4706	4706	4706	4706	4706	4706	4706	4706	4706	4706	4706	4706	4706	4706	4706	4706	4706	4706	4771	4771	4771	4706	4706	4706	4706	4771	4706	4771	4706	4706	4706	4706	4706	4643	4643	4643	4706	4706	4706	4706	4706	4706	4706	4706	4771	4706	4771	4706	4771	4771	4771	4771	4706	4706	4771	4706	4706	4706	4706	4643	4643	4643	4643	4643	4643	4643	4643	4706	4706	4706	4643	4706	4643	4643	4643	4643	4643	4643	4643	4643	4706	4643	4643	4643	4706	4706	4706	4706	7959	8146	8343	8343	8343	8343	8343	8343	8343	8343	8343	8343	8343	8343	8343	8146	8146	8146	8146	8146	8146	8146	8146	8146	8146	8146	8146	8146	8146	8343	8343	8343	8550	8550	8550	8146	8550	8550	8550	8767	8550	8343	8767	8343	8343	8343	8146	8343	8343	8343	8146	8343	8343	8343	8343	8550	8343	8343	8343	8343	8146	8146	7959	7959	7959	7959	7959	7959	7959	7959	7959	7959	7959	7959	7959	7959	7959	0	0	0	0	0	0	0	0	0	0	0	0	0	0	0	0	0	0	0	0	0	0	0	0	0	0	0	0	0	0	0	0	0	0	0	0	0	0	0	0	0	0	0	0	0	0
