0	0	0	0	0	1116	1116	1131	1131	1127	1127	1127	1116	1116	1116	1116	1116	1116	1116	1116	1127	1127	1127	1131	1131	1127	1127	1127	1123	1123	1123	1123	1123	1123	1123	1120	1120	1120	1120	0	0	0	0	0	0	0	0	0	0	0	0	0	0	0	0	0	0	0	0	0	0	0	1109	1127	1131	1131	1138	1142	1142	1146	1146	1150	1146	1146	1146	1146	1146	1146	1146	1142	1142	1142	1142	1142	1138	0	0	0	0	0	2754	2754	2777	2777	2799	2822	2799	2822	2822	2799	2799	2799	5626	5626	5915	5915	5915	5915	5719	5719	5626	5626	5626	5626	5626	5626	5626	5626	5719	5719	5719	5626	5626	5626	5626	5626	5626	5626	5626	5626	5626	5719	5719	5719	5719	5626	5815	5815	5815	5815	5815	5719	5815	5815	5815	0	0	0	0	0	0	0	0	0	0	0	0	0	0	0	0	0	0	0	0	0	0	0	0	0	0	0	0	0	0	0	0	0	0	0	0	0	0	0	0	0	0	0	0	0	0	0	0	0	0	0	0	0	0	0	0	0	0	5719	5626	5626	5626	5719	5535	5535	5626	5626	5626	5626	5626	5535	5535	5535	5535	5535	5535	5535	5535	5535	5535	5535	5626	5626	5448	5535	5448	5535	5535	5535	5535	5535	5535	5535	5535	5448	5448	5535	5626	5626	5535	5535	5626	5626	5626	5535	5535	5535	5535	5535	5535	5535	5535	5535	5535	5626	5626	5626	5626	5626	5626	5626	5626	5626	5535	5626	5626	5626	5626	5626	5626	5626	5626	5626	5626	5535	5626	5626	5626	5626	5626	5626	5626	5626	5626	5535	5535	5535	5535	5626	5626	5626	5626	5626	5626	5626	5626	5626	5626	5626	5626	5626	5626	0	0	0	0	0	0	0	0	0	0	0	0	0	0	0	0	0	0	0	0	0	0	0	0	0	0	0	0	0	5719	5719	5626	5626	5626	5535	0	0	0	0	0	0	0	0	0	0	0	0	0	0	0	0	0	0	0	0	0	0	0	0	0	0	0	0	0	0	0	0	0	0	0	0	0	5626	5626	5719	5719	5626	5626	5626	5626	5626	5626	5626	5626	5719	5626	5626	5626	5626	5626	5626	5626	5626	5626	5535	5535	5535	5535	5535	5535	5535	5626	5626	5626	5535	5535	5535	5535	5626	5626	5626	5626	5626	5626	5626	5626	5535	5535	5535	5535	5535	5535	5535	5626	5626	5626	5626	5626	5626	5626	5626	5626	5626	5626	5626	5626	5626	5535	5535	5535	5535	5626	5626	5626	5626	5626	5626	5626	5626	5626	5626	5626	5626	5626	5626	5626	5626	5626	5626	5626	5626	5626	5626	5626	5626	5626	5626	5626	5626	5626	5626	5626	5719	5719	5719	5719	5719	5719	5719	5719	5626	5626	5626	5626	5626	5535	5535	5535	5535	5535	5535	5448	5448	5448	0	0	0	0	0	0	0	0	0	0	0	0	0	0	0	0	0	0	0	0	0	0	0	0	0	0	0	0	0	0	0	0	0	0	0	0	0	0	0	0	0	0	0	0	0	0	0	0	0	0	0	0	0	0	0	5626	5626	5535	5535	5535	5535	5535	5535	5535	5535	5535	5535	5448	5448	5448	5448	5448	5448	5448	5364	5364	5364	5364	5364	0	0	0	0	0	5364	5448	5448	5364	5364	5364	0	0	0	0	0	0	0	0	0	0	0	0	0	0	0	0	0	0	0	0	0	0	0	0	0	0	0	0	0	0	0	0	0	0	0	0	0	0	0	0	0	0	0	0	0	0	0	0	0
0	0	0	0	0	1116	1127	1131	1120	1120	1127	1127	1127	1120	1116	1120	1116	1120	1116	1120	1120	1131	1131	1131	1131	1131	1131	1131	1131	1127	1127	1127	1127	1120	1120	1120	1120	1120	1120	0	0	0	0	0	0	0	0	0	0	0	0	0	0	0	0	0	0	0	0	0	0	0	1109	1127	1131	1138	1138	1142	1146	1146	1146	1146	1146	1146	1146	1146	1146	1146	1146	1142	1142	1138	1138	1138	0	0	0	0	0	0	2754	2754	2754	2754	2822	2822	2799	2822	2822	2822	2822	2822	5626	0	5915	5915	5915	5915	5815	5815	5719	5719	5719	5626	5626	5626	5626	5626	5626	5719	5719	5719	5626	5626	5626	5719	5626	5719	5626	5719	5719	5719	5719	5719	5719	5626	5719	5815	5815	5815	5719	5626	5719	5815	5815	5815	0	0	0	0	0	0	0	0	0	0	0	0	0	0	0	0	0	0	0	0	0	0	0	0	0	0	0	0	0	0	0	0	0	0	0	0	0	0	0	0	0	0	0	0	0	0	0	0	0	0	0	0	0	0	0	0	0	0	5719	5626	5626	5719	5626	5626	5626	5626	5626	5626	5626	5626	5626	5535	5535	5535	5535	5535	5535	5626	5535	5626	5626	5626	5535	5535	5535	5535	5626	5535	5535	5535	5535	5535	5535	5448	5448	5535	5626	5626	5626	5626	5626	5626	5626	5535	5535	5535	5535	5535	5535	5535	5535	5626	5626	5719	5626	5626	5626	5626	5626	5626	5626	5626	5535	5719	5719	5719	5626	5626	5719	5626	5626	5626	5626	5626	5626	5626	5626	5626	5626	5626	5626	5626	5626	5626	5626	5626	5626	5626	5626	5626	5626	5626	5626	5626	5535	5626	5626	5535	5535	5535	0	0	0	0	0	0	0	0	0	0	0	3583	3583	3546	3546	0	0	0	0	0	0	0	0	0	0	0	0	0	0	0	0	0	0	5626	5626	0	0	0	0	0	0	0	0	0	0	0	0	0	0	0	0	0	0	0	0	0	0	0	0	0	0	0	0	0	0	0	0	0	0	0	0	0	0	5719	5626	5719	5719	5626	5626	5626	5626	5626	5719	5626	5719	5719	5719	5719	5719	5719	5719	5719	5626	5626	5626	5535	5535	5535	5535	5535	5626	5626	5626	5626	5626	5626	5626	5626	5626	5626	5626	5626	5626	5626	5626	5626	5626	5626	5535	5535	5626	5535	5626	5626	5626	5626	5626	5626	5626	5626	5626	5626	5626	5626	5626	5626	5626	5626	5626	5535	5535	5626	5626	5626	5626	5626	5626	5626	5626	5626	5626	5626	5626	5626	5626	5626	5626	5626	5626	5626	5626	5626	5719	5626	5626	5626	5626	5626	5626	5626	5626	5719	5719	5719	5719	5719	5719	5719	5719	5719	5719	5626	5626	5626	5626	5626	5626	5626	5626	5626	5535	5535	5448	5448	0	0	0	0	0	0	0	0	0	0	0	0	0	0	0	0	0	0	0	0	0	0	0	0	0	0	0	0	0	0	0	0	0	0	0	0	0	0	0	0	0	0	0	0	0	0	0	0	0	0	0	0	0	0	0	5815	5815	5719	5535	5535	5535	5535	5535	5535	5535	5535	5535	5535	5535	5535	5448	5535	5535	5535	5535	5448	5448	5448	5364	5364	5364	0	0	0	0	0	0	0	0	0	0	0	0	0	0	0	0	0	0	0	0	0	0	0	0	0	0	0	0	0	0	0	0	0	0	0	0	0	0	0	0	0	0	0	0	0	0	0	0	0	0	0	0	0	0	0	0	0	0	0
0	0	0	0	0	1116	1116	1120	1116	1116	1120	1116	1116	1116	1116	1116	1116	1116	1120	1120	1123	1127	1127	1127	1131	1127	1131	1131	1127	1127	1123	1123	1123	1123	1120	1116	1116	1120	0	0	0	0	0	0	0	0	0	0	0	0	0	0	0	0	0	0	0	0	0	0	0	0	0	0	0	1138	1142	1142	1146	1146	1146	1146	1146	1146	1146	1146	1146	1146	1142	1142	1142	1138	1138	1138	0	0	0	0	0	2754	2754	2754	2754	2754	2777	2799	2822	2822	2822	2845	2845	2845	2845	0	5915	5915	5915	5915	5815	5915	5815	5815	5815	5815	5815	5719	5719	5626	5626	5815	5815	5719	0	5626	5626	5719	5626	5719	5719	5719	5719	5815	5719	5719	5815	5719	5719	5815	5815	5815	5719	5626	5719	5815	5815	5719	5719	0	0	0	0	0	0	0	0	0	0	0	0	0	0	0	0	0	0	0	0	0	0	0	0	0	0	0	0	0	0	0	0	0	0	0	0	0	0	0	0	0	0	0	0	0	0	0	0	0	0	0	0	0	0	0	0	0	5719	5626	5626	5719	5626	5626	5719	5719	5719	5719	5626	5719	5719	5719	5626	5535	5535	5535	5626	5626	5626	5626	5626	5719	5626	5626	5626	5626	5626	5448	5448	5448	5448	5448	5448	5448	5448	5535	5626	5719	5626	5626	5626	5626	5626	5626	5626	5535	5535	5535	5626	5626	5535	5626	5626	5719	5719	5626	5626	5626	5626	5626	5626	5626	5626	5626	5719	5719	5719	5719	5719	5719	5719	5719	5719	5626	5626	5626	5626	5626	5719	5719	5719	5719	5719	5719	5719	5626	5626	5626	5626	5626	5626	5626	5626	5626	5626	5626	5626	5535	5448	5448	0	0	0	0	0	3621	3621	3583	3583	3583	3583	3546	3546	3510	3510	3510	0	0	0	0	0	0	0	0	0	0	0	0	0	0	0	0	0	0	0	0	0	0	0	0	0	0	0	0	0	0	0	0	0	0	0	0	0	0	0	0	0	0	0	0	0	0	0	0	0	0	0	0	0	0	0	0	5719	5626	5626	5719	5719	5719	5719	5626	5719	5719	5719	5626	5719	5719	5719	5719	5719	5719	5719	5719	5626	5626	5626	5535	5535	5535	5535	5626	5626	5626	5626	5626	5626	5626	5626	5626	5626	5626	5626	5626	5626	5626	5626	5626	5626	5626	5626	5626	5626	5626	5626	5626	5626	5626	5626	5626	5626	5626	5626	5626	5626	5626	5535	5626	5626	5626	5626	5535	5535	5626	5626	5626	5626	5626	5626	5626	5719	5626	5719	5719	5626	5626	5626	5626	5626	5626	5626	5719	5626	5626	5719	5626	5626	5626	5626	5626	5626	5626	5626	5719	5719	5719	5719	5719	5719	5719	5719	5719	5719	5626	5626	5626	5626	5626	5626	5626	5626	5626	5535	5535	0	0	0	0	0	0	0	0	0	0	0	0	0	0	0	0	0	0	0	0	0	0	0	0	0	0	0	0	0	0	0	0	0	0	0	0	0	0	0	0	0	0	0	0	0	0	0	0	0	0	0	0	0	0	0	0	0	5815	5719	5626	5535	5535	5535	5535	5535	5535	5535	5535	5535	5535	5535	5535	5535	5535	5535	5535	5535	5448	5448	5448	5448	5364	5364	0	0	0	0	0	0	0	0	0	0	0	0	0	0	0	0	0	0	0	0	0	0	0	0	0	0	0	0	0	0	0	0	0	0	0	0	0	0	0	0	0	0	0	0	0	0	0	0	0	0	0	0	0	0	0	0	0	0	0
0	0	0	0	0	1116	1116	1120	1116	1116	1127	1127	1127	1116	1116	1116	1120	1116	1120	1120	1123	1127	1127	1127	1127	1127	1127	1127	1127	1123	1123	1123	1120	1120	1120	1113	1113	1113	0	0	0	0	1109	1109	0	0	0	0	0	0	0	0	0	0	0	0	0	0	0	0	0	0	0	0	0	0	1142	1142	1142	1146	1146	1146	1146	1146	1146	1146	1146	1142	1142	1142	1142	1138	1138	0	0	0	0	0	0	2799	2777	2754	2754	2777	2799	2799	2822	2822	2822	2845	2845	2845	2845	0	5915	5915	5915	5915	5915	5915	5915	5815	5815	5815	5915	5719	5719	5719	0	5815	5815	0	0	5626	5626	5719	5626	5719	5719	5719	5815	5815	5719	5719	5719	5719	5719	5915	5815	5815	5719	5719	5719	5719	5719	5626	5626	5626	0	0	0	0	0	0	0	0	0	0	0	0	0	0	0	0	0	0	0	0	0	0	0	0	0	0	0	0	0	0	0	0	0	0	0	0	0	0	0	0	0	0	0	0	0	0	0	0	0	0	0	0	0	0	0	0	0	5719	5719	5719	5626	5719	5719	5719	5815	5719	5815	5815	5815	5815	5815	5626	5626	5719	5719	5719	5626	5626	5719	5719	5626	5626	5626	5626	5626	5626	5535	5626	5535	5535	5535	5535	5535	5626	5719	5719	5719	5719	5719	5719	5719	5719	5626	5626	5626	5719	5719	5626	5626	5626	5626	5719	5719	5626	5626	5626	5626	5719	5719	5626	5626	5719	5719	5719	5626	5719	5719	5719	5719	5626	5719	5719	5719	5626	5719	5719	5719	5719	5719	5719	5719	5719	5719	5719	5719	5719	5626	5719	5719	5719	5626	5626	5626	5535	5626	5535	5535	5535	0	0	0	0	0	3621	3621	3583	3583	3583	3583	3583	3546	3510	3510	3546	3546	3546	0	0	0	0	0	0	0	0	0	0	0	0	0	0	0	0	0	0	0	0	0	0	0	0	0	0	0	0	0	0	0	0	0	0	0	0	0	0	0	0	0	0	0	0	0	0	0	0	0	0	0	0	0	0	5626	5626	5626	5719	5719	5719	5719	5626	5719	5719	5719	5719	5719	5719	5719	5719	5719	5719	5719	5719	5719	5626	5626	5535	5535	5626	5626	5626	5626	5626	5626	5626	5626	5626	5626	5626	5626	5626	5626	5626	5626	5626	5626	5626	5626	5626	5626	5626	5626	5626	5626	5626	5626	5626	5626	5626	5626	5626	5626	5626	5626	5626	5626	5626	5626	5626	5626	5626	5626	5626	5626	5626	5626	5626	5626	5719	5719	5719	5719	5719	5719	5719	5719	5719	5719	5719	5719	5719	5719	5719	5626	5626	5626	5626	5626	5626	5719	5719	5719	5719	5626	5626	5815	5815	5719	5719	5719	5719	5719	5626	5626	5626	5626	5626	5626	5719	5719	5719	5915	5915	0	0	0	0	0	0	0	0	0	0	0	0	0	0	0	0	0	0	0	0	0	0	0	0	0	0	0	0	0	0	0	0	0	0	0	0	0	0	0	0	0	0	0	0	0	0	0	0	0	0	0	0	0	5815	5815	5815	5815	5815	5719	5719	5626	5626	5626	5535	5535	5535	5535	5535	5535	5535	5535	5535	5535	5535	5535	5535	5535	5448	5448	5448	5448	5448	5448	0	0	0	0	0	0	0	0	0	0	0	0	0	0	0	0	0	0	0	0	0	0	0	0	0	0	0	0	0	0	0	0	0	0	0	0	0	0	0	0	0	0	0	0	0	0	0	0	0	0	0	0	0	0	0	0	0	0	0
0	0	0	0	0	1116	1116	1120	1116	1116	1120	1116	1127	1116	1116	1116	1120	1123	1120	1120	1123	1127	1127	1127	1127	1123	1127	1127	1123	1123	1120	1123	1120	1120	1116	1113	1113	1113	0	0	0	0	1105	1105	1098	1098	0	0	0	0	0	0	0	0	0	0	0	0	0	0	0	0	0	0	0	1138	1138	1142	1146	1146	1146	1146	1146	1146	1146	1146	1146	1142	1142	1142	1142	1142	1142	0	0	0	0	0	0	2799	2777	2754	2777	2777	2799	2799	2822	2822	2822	2845	2845	2845	2845	2845	0	5915	5915	5915	5915	5915	5915	5915	5815	5915	5915	5815	5815	5815	0	0	0	0	5626	5626	5626	5719	5719	5719	5719	5719	5815	5815	5815	5719	5719	5719	5815	5915	5915	5815	5719	5719	5719	5719	5719	5626	5626	5535	5448	5448	0	0	0	0	0	0	0	0	0	0	0	0	0	0	0	0	0	0	0	0	0	0	0	0	0	0	0	0	0	0	0	0	0	0	0	0	0	0	0	0	0	0	0	0	0	0	0	0	0	0	0	0	0	0	0	5719	5815	5719	5719	5815	5815	5815	5815	5719	5815	5815	5815	5815	5815	5815	5719	5815	5815	5815	5719	5719	5719	5719	5626	5626	5626	5626	5626	5626	5535	5626	5535	5535	5626	5535	5535	5626	5719	5719	5719	5626	5719	5719	5626	5626	5626	5626	5626	5719	5719	5719	5719	5719	5719	5719	5719	5626	5626	5626	5719	5719	5719	5719	5719	5719	5719	5719	5719	5719	5719	5719	5719	5719	5719	5719	5719	5719	5719	5719	5719	5719	5719	5719	5719	5719	5719	5719	5719	5719	5719	5719	5719	5719	5626	5626	5719	5626	5719	5535	5535	5535	0	0	0	0	3659	3621	3621	3583	3583	3583	3583	3583	3546	3546	3510	3546	3546	3546	0	0	0	0	0	0	0	0	0	0	0	0	0	0	0	0	0	0	0	0	0	0	0	0	0	0	0	0	0	0	0	0	0	0	0	0	0	0	0	0	0	0	0	0	0	0	0	0	0	0	0	0	0	0	5626	5626	5719	5719	5719	5719	5719	5719	5719	5719	5719	5719	5719	5815	5719	5719	5815	5815	5719	5719	5719	5626	5626	5626	5626	5626	5626	5626	5626	5626	5626	5719	5626	5626	5626	5626	5719	5626	5626	5626	5626	5626	5626	5626	5719	5719	5719	5719	5719	5719	5719	5719	5719	5719	5719	5719	5719	5719	5719	5626	5626	5626	5626	5626	5626	5626	5626	5626	5626	5626	5626	5626	5626	5719	5719	5719	5815	5719	5719	5719	5719	5719	5719	5719	5719	5719	5719	5815	5815	5815	5815	5626	5626	5626	5626	5719	5719	5719	5719	5719	5719	5815	5815	5815	5915	5719	5719	5719	5719	5535	5626	5626	5626	5719	5719	5719	5815	5815	5915	5915	0	0	0	0	0	0	0	0	0	0	0	0	0	0	0	0	0	0	0	0	0	0	0	0	0	0	0	0	0	0	0	0	0	0	0	0	0	0	0	0	0	0	0	0	0	0	0	0	0	0	0	0	0	5719	5719	5815	5815	5815	5719	5815	5626	5626	5626	5535	5535	5535	5535	5535	5535	5535	5535	5535	5448	5535	5535	5535	5535	5448	5448	5448	5448	5448	5448	5535	5535	5535	0	0	0	0	0	0	0	0	0	0	0	0	0	0	0	0	0	0	0	0	0	0	0	0	0	0	0	0	0	0	0	0	0	0	0	0	0	0	0	0	0	0	0	0	0	0	0	0	0	0	0	0	0	0	0	0
0	0	0	0	0	1120	1116	1116	1116	1116	1116	1116	1116	1116	1120	1120	1123	1123	1123	1123	1123	1127	1127	1123	1123	1123	1123	1123	1123	1123	1120	1120	1120	1120	1116	1116	1113	1113	0	0	0	0	1105	1102	1102	1113	1113	1113	0	1116	1113	1109	1109	0	0	0	0	0	0	0	0	0	0	1134	1131	1131	1131	1142	1146	1146	1142	1142	1146	1142	1146	1146	1146	1146	1142	1142	1142	1142	1142	0	0	0	0	0	0	0	0	2777	2777	2777	2799	2799	2822	2822	2822	2822	2845	2845	2845	2893	2893	5915	5915	5915	5915	5915	5915	5915	5915	5915	5915	5815	5915	5915	0	0	0	0	5626	5815	5815	5815	5719	5815	5719	5719	5915	5815	5719	5719	5719	5719	5815	5815	5719	5719	5815	5719	5815	5719	5719	5719	5719	5626	5535	5535	0	0	0	0	0	0	0	0	0	0	0	0	0	0	0	0	0	0	0	0	0	0	0	0	0	0	0	0	0	0	0	0	0	0	0	0	0	0	0	0	0	0	0	0	0	0	0	0	0	0	0	0	0	0	0	0	5719	5719	5719	5815	5815	5815	5815	5719	5815	5815	5815	5815	5815	5815	5815	5815	5815	5719	5719	5719	5719	5815	5626	5626	5626	5626	5626	5626	5626	5626	5626	5626	5626	5626	5626	5626	5719	5719	5719	5626	5626	5626	5626	5626	5626	5626	5626	5719	5719	5719	5719	5719	5719	5719	5719	5626	5626	5626	5719	5719	5719	5719	5719	5719	5719	5719	5719	5719	5719	5719	5719	5719	5719	5719	5719	5719	5719	5719	5815	5719	5719	5719	5719	5719	5719	5719	5719	5719	5719	5719	5719	5719	5626	5719	5719	5626	5719	5719	5535	0	0	0	0	3659	3621	3621	3621	3583	3583	3583	3546	3583	3546	3546	3510	3546	3546	3583	3583	0	0	0	0	0	0	0	0	0	0	0	0	0	0	0	0	0	0	0	0	0	0	0	0	0	0	0	0	0	0	0	0	0	0	0	0	0	0	0	0	0	0	0	0	0	0	0	0	0	0	0	0	5626	5719	5719	5719	5719	5719	5719	5815	5815	5719	5719	5719	5719	5719	5815	5815	5815	5815	5815	5815	5815	5719	5719	5719	5626	5626	5626	5626	5626	5626	5626	5626	5626	5626	5626	5626	5626	5719	5626	5626	5626	5626	5626	5719	5719	5719	5719	5719	5719	5719	5719	5626	5719	5719	5719	5719	5719	5719	5719	5719	5626	5719	5719	5626	5626	5626	5626	5626	5626	5626	5626	5626	5719	5719	5719	5815	5815	5815	5815	5815	5719	5719	5719	5719	5719	5719	5719	5815	5915	5915	5915	5915	5626	5626	5626	5626	5719	5719	5719	5719	5815	5815	5815	5915	5815	5915	5815	5719	5719	5719	5626	5626	5626	5626	5719	5719	5719	5815	5815	5915	5915	0	0	0	0	0	0	0	0	0	0	0	0	0	0	0	0	0	0	0	0	0	0	0	0	0	0	0	0	0	0	0	0	0	0	0	0	0	0	0	0	0	0	0	0	0	0	0	0	0	0	0	5815	5719	5719	5815	5815	5815	5815	5815	5815	5719	5719	5626	5626	5535	5535	5535	5535	5535	5535	5535	5535	5448	5535	5535	5535	5535	5448	5448	5448	5448	5448	5448	5535	5535	5448	5448	0	0	0	0	0	0	0	0	0	0	0	0	0	0	0	0	0	0	0	0	0	0	0	0	0	0	0	0	0	0	0	0	0	0	0	0	0	0	0	0	0	0	0	0	0	0	0	0	0	0	0	0	0	0	0
0	0	0	0	0	1123	1120	1120	1120	1120	1120	1120	1116	1116	1120	1116	1123	1123	1123	1123	1123	1127	1123	1123	1123	1120	1123	1123	1123	1123	1120	1120	1120	1120	1116	1116	1113	1113	0	1113	1113	1113	1113	1116	1113	1113	1113	1116	1116	1116	1116	1113	1109	1109	1109	0	0	0	0	0	0	0	0	1134	1134	1134	1131	1146	1142	1142	1142	1146	1146	1146	1146	1146	1146	1146	1146	1146	1142	1142	0	0	0	0	0	0	0	0	0	2754	2754	2777	2799	2799	2822	2822	2822	2845	2845	2845	2869	2893	2845	2845	0	5915	5815	5815	5815	5915	5815	5815	5815	5815	5815	5815	0	0	0	0	0	5815	5915	5915	5915	5915	5915	5915	5915	5815	5719	5815	5719	5719	5915	5915	5815	5915	5815	5815	5815	5719	5719	5719	5719	5626	5535	5535	0	0	0	0	0	0	0	0	0	0	0	0	0	0	0	0	0	0	0	0	0	0	0	0	0	0	0	0	0	0	0	0	0	0	0	0	0	0	0	0	0	0	0	0	0	0	0	0	0	0	0	0	0	0	0	0	5815	5719	5719	5815	5815	5815	5815	5719	5815	5815	5815	5815	5815	5815	5815	5815	5815	5815	5815	5719	5815	5815	5719	5626	5626	5626	5626	5626	5626	5626	5626	5719	5719	5626	5626	5719	5719	5719	5719	5719	5719	5719	5719	5719	5719	5719	5719	5719	5719	5719	5719	5719	5719	5719	5719	5626	5626	5626	5719	5719	5719	5719	5719	5719	5719	5719	5815	5815	5815	5719	5719	5719	5719	5719	5719	5719	5719	5815	5815	5815	5719	5719	5719	5719	5719	5719	5719	5719	5719	5719	5719	5719	5626	5626	5719	5719	5719	5719	0	0	0	0	3659	3621	3621	3621	3621	3583	3583	3583	3583	3546	3546	3546	3546	3546	3546	3583	3583	3583	0	0	0	0	0	0	0	0	0	0	0	0	0	0	0	0	0	0	0	0	0	0	0	0	0	0	0	0	0	0	0	0	0	0	0	0	0	0	0	0	0	0	0	0	0	0	6018	6018	6018	5915	5719	5719	5719	5719	5719	5719	5719	5815	5815	5815	5719	5719	5719	5719	5719	5815	5815	5815	5815	5815	5815	5815	5719	5719	5719	5535	5626	5626	5626	5626	5626	5626	5626	5626	5626	5626	5626	5626	5626	5626	5626	5719	5719	5719	5719	5719	5719	5815	5815	5719	5719	5719	5719	5719	5719	5719	5719	5719	5719	5719	5719	5719	5719	5719	5719	5719	5626	5626	5626	5626	5626	5626	5719	5719	5719	5815	5815	5915	5915	5915	5915	5815	5815	5719	5815	5719	5719	5815	5815	5815	5915	5915	5626	5626	5719	5719	5719	5719	5719	5719	5719	5815	5815	5815	5915	5915	5915	5815	5815	5815	5815	5535	5535	5626	5626	5719	5719	5719	0	5815	5915	5915	0	0	0	0	0	0	0	0	0	0	0	0	0	0	0	0	0	0	0	0	0	0	0	0	0	0	0	0	0	0	0	0	0	0	0	0	0	0	0	0	0	0	0	0	0	0	0	0	0	0	0	5815	5719	5719	5719	5719	5815	5815	5719	5719	5719	5626	5535	5535	5535	5535	5535	5535	5535	5535	5535	5535	5535	5535	5535	5535	5535	5448	5448	5448	5448	5448	5535	5626	5535	5535	5535	0	0	0	0	0	0	0	0	0	0	0	0	0	0	0	0	0	0	0	0	0	0	0	0	0	0	0	0	0	0	0	0	0	0	0	0	0	0	0	0	0	0	0	0	0	0	0	0	0	0	0	0	0	0	0
0	0	0	0	0	1123	1120	1120	1120	1120	1120	1120	1120	1120	1120	1123	1123	1123	1120	1120	1123	1123	1123	1120	1120	1120	1123	1123	1123	1123	1120	1120	1120	1120	1116	1116	1116	1113	1113	1116	1116	1116	1116	1116	1113	1113	1113	1116	1116	1116	1116	1113	1113	1113	1113	1113	0	0	0	0	0	0	0	1134	1134	1138	1134	1146	1142	1142	1146	1146	1146	1146	1146	1146	1146	1146	1146	1146	1146	1146	0	0	0	0	0	0	0	0	2754	2754	2754	2777	2799	2799	2822	2822	2822	2822	2845	2845	2822	2845	2845	2822	2822	0	5815	5815	5815	5915	5815	5815	5815	5815	5915	5915	0	5915	5915	0	5815	5815	5915	5915	5915	5915	5915	5915	5915	5915	5719	5719	5719	5719	5915	5915	5915	5915	6018	6018	5719	5719	5719	5719	5719	5719	5626	5626	0	0	0	0	0	0	0	0	0	0	0	0	0	0	0	0	0	0	0	0	0	0	0	0	0	0	0	0	0	0	0	0	0	0	0	0	0	0	0	0	0	0	0	0	0	0	0	0	0	0	0	0	0	0	0	5915	5815	5815	5815	5815	5815	5815	5815	5815	5815	5815	5815	5815	5815	5815	5815	5915	5815	5815	5815	5815	5815	5815	5719	5719	5626	5626	5626	5719	5719	5626	5626	5719	5719	5719	5719	5719	5719	5719	5719	5719	5719	5719	5719	5719	5719	5719	5719	5719	5719	5719	5719	5719	5719	5719	5719	5626	5626	5626	5626	5626	5719	5719	5815	5815	5815	5815	5815	5815	5815	5719	5719	5719	5719	5815	5719	5719	5815	5815	5815	5719	5719	5719	5719	5719	5719	5719	5719	5719	5719	5719	5719	5719	5626	5626	5719	5719	5719	5719	0	0	0	3621	3621	3621	3621	3621	3621	3583	3583	3583	3546	3546	3546	3546	3510	3546	3546	3546	3583	3546	3546	0	0	0	0	0	0	5719	5719	5815	5719	5815	5815	5719	5719	6018	6018	6018	0	0	0	0	0	0	0	0	0	0	0	0	0	0	0	0	0	0	0	0	0	0	0	0	0	0	0	0	6018	6018	5915	5915	5719	5719	5626	5719	5719	5815	5815	5815	5815	5815	5815	5815	5815	5815	5815	5719	5719	5815	5815	5815	5815	5815	5719	5815	5719	5626	5626	5626	5626	5626	5626	5719	5719	5719	5719	5626	5719	5626	5719	5626	5626	5815	5815	5719	5815	5719	5815	5815	5815	5815	5815	5815	5719	5719	5719	5719	5719	5719	5719	5719	5815	5815	5815	5815	5719	5719	5719	5626	5626	5626	5626	5719	5815	5815	5815	5915	5915	5915	5915	5915	5915	5815	5815	5719	5815	5719	5815	5815	5815	5915	5915	5915	5915	5719	5719	5719	5719	5719	5719	5719	5719	5719	5815	5815	5915	5915	5915	5915	5815	5815	5815	5719	5626	5626	5626	0	0	0	0	0	0	0	0	0	0	0	0	0	0	0	0	0	0	0	0	0	0	0	0	0	0	0	0	0	0	0	0	0	0	0	0	0	0	0	0	0	0	0	0	0	0	0	0	0	0	0	0	0	0	0	0	0	5719	5719	5719	5719	5719	5719	5719	5815	5719	5719	5719	5626	5626	5535	5535	5535	5535	5535	5535	5535	5535	5535	5535	5535	5626	5535	5535	5535	5535	5535	5535	5535	5535	5535	5535	5535	5535	5626	5626	5626	5626	5626	0	0	0	0	0	0	0	0	0	0	0	0	0	0	0	0	0	0	0	0	0	0	0	0	0	0	0	0	0	0	0	0	0	0	0	0	0	0	0	0	0	0	0	0	0	0	0	0	0	0
0	0	0	0	0	0	1120	1116	1120	1116	1116	1116	1120	1120	1120	1120	1120	1120	1120	1120	1120	1123	1120	1120	1120	1120	1120	1120	1120	1120	1120	1120	1120	1120	1120	1120	1116	1116	1116	1116	1116	1116	1116	1116	1113	1113	1113	1116	1113	1116	1116	1113	1113	1113	1113	1113	1113	0	0	0	0	0	0	1134	1134	1134	1134	1150	1142	1142	1142	1142	1146	1146	1146	1146	1146	1146	1146	1146	1146	1146	0	0	0	0	0	0	0	2754	2754	2754	2754	2777	2777	2799	2822	2822	2822	2822	2845	2845	2845	2845	2822	2822	2822	0	0	5915	5915	5915	5815	5815	5815	5915	5915	5915	0	5815	5815	5915	5915	5815	5915	5915	5915	5915	5915	5915	5915	5915	5719	5815	5719	5719	5915	5915	5915	5915	6018	6018	5719	5719	5719	5719	5719	5719	5719	5815	5815	0	0	0	0	0	0	0	0	0	0	0	0	0	0	0	0	0	0	0	0	0	0	0	0	0	0	0	0	0	0	0	0	0	0	0	0	0	0	0	0	0	0	0	0	0	0	0	0	0	0	0	0	0	0	5915	5815	5815	5815	5915	5915	5815	5815	5815	5815	5815	5815	5815	5815	5815	5915	5915	5915	5915	5815	5815	5815	5815	5719	5719	5719	5719	5719	5719	5719	5719	5719	5719	5719	5719	5719	5719	5719	5719	5719	5719	5719	5719	5719	5719	5719	5719	5719	5719	5719	5719	5719	5719	5626	5719	5719	5626	5626	5626	5719	5719	5719	5815	5815	5815	5815	5815	5815	5815	5815	5815	5815	5815	5815	5815	5719	5719	5719	5815	5815	5815	5719	5719	5719	5815	5719	5719	5719	5719	5719	5626	5719	5719	5626	5626	5719	5719	5719	0	0	0	0	3621	3621	3621	3621	3621	3621	3583	3583	3583	3546	3546	3546	3546	3510	3546	3546	3546	3546	3546	3546	0	0	0	0	0	0	5719	5815	5815	5815	5915	5719	5719	5915	6018	6018	6018	0	0	0	0	0	0	0	0	0	0	0	0	0	0	0	0	0	0	0	0	0	0	0	0	0	0	6018	6018	6018	6018	5915	5915	5815	5719	5719	5719	5719	5815	5815	5815	5815	5815	5815	5815	5815	5815	5815	5815	5815	5815	5815	5815	5815	5815	5815	5815	5815	5719	5719	5719	5719	5719	5719	5719	5719	5815	5815	5719	5815	5815	5815	5815	5815	5815	5815	5719	5815	5815	5915	5915	5915	5815	5815	5815	5815	5815	5815	5815	5815	5815	5815	5815	5815	5815	5815	5815	5719	5719	5719	5626	5719	5719	5719	5719	5815	5815	5815	5915	5915	5915	5915	5915	5915	5815	5815	5719	5815	5815	5815	5815	5815	5915	5915	6018	5915	5815	5815	5815	5815	5815	5719	5815	5815	5815	5915	5815	5915	5915	5915	5915	5815	5915	5915	5815	5815	5815	5626	0	0	0	0	0	0	0	0	0	0	0	0	0	0	0	0	0	0	0	0	0	0	0	0	0	0	0	0	0	0	0	0	0	0	0	0	0	0	0	0	0	0	0	0	0	0	0	0	0	0	0	0	0	0	0	0	5626	5719	5719	5626	5626	5719	5719	5719	5719	5719	5719	5719	5626	5626	5535	5535	5535	5535	5535	5535	5535	5535	5535	5626	5626	5626	5626	5626	5626	5535	5535	5626	5535	5626	5626	5626	5626	5626	5626	5719	5626	5626	5626	5626	0	0	0	0	0	0	0	0	0	0	0	0	0	0	0	0	0	0	0	0	0	0	0	0	0	0	0	0	0	0	0	0	0	0	0	0	0	0	0	0	0	0	0	0	0	0	0	0	0
0	0	0	0	0	0	0	1116	1120	1120	1116	1116	1116	1116	1120	1120	1120	1120	1120	1120	1120	1120	1120	1120	1120	1120	1120	1120	1120	1120	1120	1120	1120	1120	1120	1116	1116	1116	1116	1116	1116	1116	1116	1116	1113	1113	1113	1113	1113	1116	1116	1113	1113	1113	1116	1113	1113	0	0	0	0	0	0	1131	1134	1134	1134	1138	1142	1142	1142	1142	1142	1142	1146	1146	1146	1146	1142	1142	1142	1142	1142	1142	0	0	0	0	0	2754	2754	2754	2754	2777	2799	2799	2822	2822	2822	2822	2822	2822	2822	2822	2822	2822	2822	2822	2799	2799	2799	5915	5815	5815	5815	5915	5915	0	5915	5915	5915	5915	5915	5915	5915	5915	5915	6018	6018	5915	5915	5915	5915	5915	5815	5915	5915	6018	5915	6018	6018	6018	5719	5719	5719	5719	5719	5719	5719	5815	5815	0	0	0	0	0	0	0	0	0	0	0	0	0	0	0	0	0	0	0	0	0	0	0	0	0	0	0	0	0	0	0	0	0	0	0	0	0	0	0	0	0	0	0	0	0	0	0	0	0	0	0	0	5915	5915	5915	5815	5815	5815	5915	5915	5915	5915	5815	5815	5815	5815	5815	5815	5915	5915	5915	5915	5915	5815	5815	5815	5815	5719	5719	5719	5719	5815	5719	5719	5719	5719	5719	5719	5719	5719	5719	5719	5719	5719	5719	5719	5719	5719	5719	5719	5719	5719	5719	5815	5719	5719	5719	5626	5719	5719	5719	5719	5626	5719	5719	5719	5815	5915	5915	5915	5915	5915	5815	5815	5815	5815	5815	5815	5815	5815	5719	5719	5719	5815	5719	5719	5719	5719	5815	5815	5719	5719	5719	5719	5719	5719	5719	5719	5719	5719	5719	0	0	0	0	3621	3621	3583	3621	3583	3621	3621	3583	3583	3583	3546	3546	3546	3546	3546	3546	3546	3546	3583	3583	3546	0	0	0	0	0	0	5719	5719	5815	5815	5815	5815	5719	5719	5719	6018	6018	0	0	0	0	0	0	0	0	0	0	0	0	0	0	0	0	0	0	0	0	0	0	0	0	0	0	6018	6018	6018	6018	6018	5915	5815	5719	5719	5719	5719	5719	5719	5815	5815	5815	5815	5815	5915	5915	5915	5915	5915	5915	5915	5815	5815	5815	5815	5915	5915	5719	5719	5815	5719	5719	5719	5815	5815	5815	5815	5815	5915	5815	5815	5815	5815	5815	5815	5719	5719	5719	5815	5915	5915	5815	5815	5815	5815	5815	5815	5815	5915	5815	5815	5815	5915	5915	5915	5815	5815	5815	5719	5719	5626	5719	5719	5719	5815	5915	5915	5915	5915	6018	5915	5915	5915	5815	5815	5815	5815	5815	5915	5915	5915	5915	5915	6018	5915	5915	5815	5815	5815	5915	5815	5915	5915	5915	5915	5915	5915	5915	5915	5915	5915	5915	5915	5815	5815	5815	0	0	0	0	0	0	0	0	0	0	0	0	0	0	0	0	0	0	0	0	0	0	0	0	0	0	0	0	0	0	0	0	0	0	0	0	0	0	0	0	0	0	0	0	0	0	0	0	0	0	0	0	0	0	0	5815	5626	5626	5719	5815	5626	5719	5719	5815	5815	5815	5719	5815	5815	5626	5626	5626	5535	5535	5535	5535	5535	5535	5535	5626	5626	5626	5626	5626	5626	5626	5626	5626	5626	5626	5626	5719	5626	5626	5626	5719	5719	5719	5626	5626	5626	0	0	0	0	0	0	0	0	0	0	0	0	0	0	0	0	0	0	0	0	0	0	0	0	0	0	0	0	0	0	0	0	0	0	0	0	0	0	0	0	0	0	0	0	0	0	0	0	0
0	0	0	0	0	0	0	0	0	1120	1116	1116	1116	1116	1120	1120	1120	1120	1120	1120	1120	1120	1120	1120	1120	1120	1120	1120	1120	1120	1120	1120	1120	1120	1120	1120	1116	1116	1116	1116	1116	1116	1120	1120	1113	1113	1113	1116	1116	1116	1116	1116	1120	1116	1120	1120	1109	1109	0	0	0	0	0	1127	1131	1134	1134	1138	1142	1142	1142	1142	1142	1142	1142	1146	1142	1142	1142	1142	1142	1142	1142	1142	0	0	0	0	0	0	2733	2754	2754	2777	2777	2799	2822	2822	2822	2822	2822	2822	2822	2822	2822	2822	2822	2822	2799	2799	2799	0	0	0	0	0	0	0	5915	5915	5915	5915	5915	5915	6018	5915	6018	6018	6018	6018	5915	5915	5915	5915	5915	5915	5915	6018	6018	6018	6018	6124	5915	5915	5915	5815	5815	5815	5815	5815	6018	6018	0	0	0	0	0	0	0	0	0	0	0	0	0	0	0	0	0	0	0	0	0	0	0	0	0	0	0	0	0	0	0	0	0	0	0	0	0	0	0	0	0	0	0	0	0	0	0	0	0	0	0	5915	5915	5915	6235	6235	5915	5915	5915	5915	6018	5815	5915	5915	5915	5915	5915	5915	5915	5915	5915	5915	5815	5815	5815	5815	5719	5719	5719	5719	5815	5719	5719	5719	5719	5719	5815	5719	5719	5815	5719	5719	5719	5719	5719	5719	5815	5815	5815	5815	5815	5815	5815	5719	5719	5719	5719	5719	5719	5719	5719	5719	5719	5719	5815	5915	5915	5915	5915	6018	5915	5915	5815	5815	5815	5815	5815	5815	5815	5815	5815	5815	5815	5815	5719	5719	5719	5815	5815	5815	5719	5815	5815	5719	5815	5815	5719	5815	5815	0	0	0	0	0	3621	3621	3583	3583	3583	3621	3621	3546	3546	3583	3546	3546	3546	3546	3546	3546	3546	3546	3583	3583	0	0	0	0	0	0	0	5719	5719	5719	5719	5815	5815	5719	5719	5719	0	0	0	0	0	0	0	0	0	0	0	0	0	0	0	0	0	0	5815	5815	0	5815	5815	0	0	0	0	0	0	6018	6124	6018	6018	5915	5815	5815	5815	5815	5719	5719	5719	5815	5815	5815	5815	5915	6018	5915	5915	5915	5815	5815	5815	5815	5815	5915	5815	5915	5915	5815	5815	5815	5719	5815	5815	5815	5815	5815	5815	5815	5915	5815	5815	5815	5815	5815	5719	5719	5719	5719	5719	5719	5915	5719	5719	5815	5815	5815	5815	5815	5915	5815	5815	5915	5915	5915	5915	5915	5815	5815	5815	5719	5719	5719	5815	5815	5815	5915	5915	5915	5915	5915	5915	5915	5915	5815	5815	5815	5815	5815	5915	5915	5915	5915	5915	6018	5915	5915	5915	5915	5915	5915	5815	5915	5915	5915	5915	5915	5915	5915	5915	5915	5915	6018	6018	5915	5815	5815	0	0	0	0	0	0	0	0	0	0	0	0	0	0	0	0	0	0	0	0	0	0	0	0	0	0	0	0	0	0	0	0	0	0	0	0	0	0	0	0	0	0	0	0	0	0	0	0	0	0	0	0	0	0	0	5815	5815	5815	5915	5815	5719	5719	5815	5815	5719	5815	5719	5815	5719	5626	5626	5626	5535	5535	5535	5535	5535	5535	5535	5626	5626	5626	5626	5626	5626	5626	5626	5626	5626	5719	5719	5719	5626	5626	5719	5719	5719	5719	5719	5719	5626	0	0	0	0	0	0	0	0	0	0	0	0	0	0	0	0	0	0	0	0	0	0	0	0	0	0	0	0	0	0	0	0	0	0	0	0	0	0	0	0	0	0	0	0	0	0	0	0	0
0	0	0	0	0	0	0	0	0	1120	1116	1116	1116	1116	1120	1120	1120	1120	1120	1120	1120	1120	1120	1120	1120	1120	1120	1120	1120	1120	1120	1120	1120	1120	1120	1120	1116	1120	1120	1120	1120	1120	1120	1120	1116	1113	1113	1116	1116	1116	1116	1116	1120	1120	1120	1120	1113	1113	1109	1113	1116	1116	1120	1123	1131	1134	1134	1138	1142	1142	1142	1142	1142	1146	1146	1146	1146	1146	1142	1142	1142	1142	1142	1142	1142	0	0	0	0	0	2733	2733	2754	2754	2754	2799	2822	2822	2822	2845	2845	2845	2845	2822	2845	2845	2822	2845	2822	2822	2822	2822	0	0	0	0	0	0	5915	5915	5915	5915	5915	5915	6018	6018	6018	6018	6018	5915	6018	5915	5915	5915	5915	5915	6018	6018	6018	6018	6018	6124	5915	5915	5915	5915	5815	5815	5815	5915	5915	5815	5915	5915	0	0	0	0	0	0	0	0	0	0	0	0	0	0	0	0	0	0	0	0	0	0	0	0	0	0	0	0	0	0	0	0	0	0	0	0	0	0	0	0	0	0	0	0	0	0	0	0	0	0	0	0	6235	6235	5915	5915	5915	5915	5915	5915	5915	5915	5915	5915	5915	5915	5915	5915	5915	5915	5915	5915	5915	5915	5815	5815	5815	5815	5815	5815	5815	5815	5719	5719	5815	5719	5815	5815	5719	5719	5719	5719	5719	5719	5719	5815	5815	5815	5815	5815	5815	5815	5815	5719	5719	5719	5815	5719	5719	5719	5719	5815	5815	5915	5915	5915	5915	5915	5915	5915	5815	5815	5815	5815	5815	5815	5815	5815	5815	5815	5815	5815	5815	5719	5719	5815	5719	5719	5815	5815	5815	5719	5719	5815	5626	5815	5815	0	0	0	0	0	3621	3621	3583	3583	3583	3583	3583	3546	3583	3583	3546	3546	3546	3546	3546	3546	3546	3546	3583	3583	0	0	0	0	0	0	0	0	0	5719	5719	5815	5815	5815	5815	0	0	0	0	0	0	0	0	0	0	0	0	0	0	0	0	0	0	5815	5719	5719	5815	5815	5815	5815	0	0	0	0	0	6018	6018	6018	6018	5915	5815	5815	5815	5915	5719	5719	5815	5815	5815	5815	5815	5815	5815	6018	6018	5915	5915	5915	5915	5815	5815	5915	5915	5915	5915	5815	5815	5915	5719	5815	5815	5815	5815	5815	5815	5815	5915	5815	5815	5815	5719	5719	5719	5719	5719	5719	5719	5719	5915	5719	5719	5719	5815	5815	5815	5915	5915	5915	5915	5915	5915	5915	5915	5915	5815	5815	5815	5719	5815	5815	5815	5815	5815	5915	5915	5915	5915	5915	5915	5915	5915	5915	5915	5915	5915	5915	5915	6018	5915	5915	5915	6018	5915	5915	5915	5915	5915	5915	5915	5915	5915	5915	5915	5915	5915	6018	5915	5915	5915	6018	6018	5815	5815	5815	0	0	0	0	0	0	0	0	0	0	0	0	0	0	5815	5719	5815	5815	0	0	0	0	0	0	0	0	0	0	0	0	0	0	0	0	0	0	0	0	0	0	0	0	6018	6018	5915	5915	5915	0	0	0	0	0	0	0	5815	5815	5815	5815	5915	5815	5815	5815	5815	5815	5815	5815	5719	5815	5815	5626	5719	5626	5535	5535	5535	5535	5535	5626	5535	5626	5626	5719	5719	5719	5626	5626	5626	5626	5719	5719	5719	5719	5719	5719	5719	5719	5719	5719	5719	5719	0	0	0	0	0	0	0	0	0	0	0	0	0	0	0	0	0	0	0	0	0	0	0	0	0	0	0	0	0	0	0	0	0	0	0	0	0	0	0	0	0	0	0	0	0	0	0	0	0	0
0	0	0	0	0	0	0	0	0	0	0	1116	1116	1116	1116	1120	1120	1120	1120	1120	1120	1120	1120	1120	1120	1120	1120	1120	1120	1120	1120	1120	1120	1120	1120	1120	1116	1116	1120	1120	1120	1120	1120	1120	1116	1116	1116	1116	1116	1116	1116	1116	1120	1120	1120	1120	1116	1113	1113	1113	1116	1116	1120	1127	1134	1134	1138	1142	1142	1142	1142	1142	1146	1146	1146	1146	1146	1146	1146	1142	1142	1142	1142	1142	1142	0	0	0	0	0	0	2733	2733	2754	2754	2799	2822	2822	2822	2822	2822	2822	2822	2822	2845	2822	2822	2845	2845	2822	2822	2822	0	0	0	0	0	0	5915	6018	6018	6018	6018	6018	6018	5915	6018	6018	6018	6018	6018	6018	6018	6018	5915	5915	6018	6018	6018	6018	6018	6018	5915	5915	5915	5915	5915	5815	5915	5915	5915	5915	5915	5626	5719	5719	5719	0	0	0	0	0	0	0	0	0	0	0	0	0	0	0	0	0	0	0	0	0	0	0	0	0	0	0	0	0	0	0	0	0	0	0	0	0	0	0	0	0	0	0	0	0	0	0	0	0	6235	6235	6124	6124	5915	5915	5915	5915	5915	5915	5915	5915	5915	5915	5915	5915	5915	5915	5915	5915	5915	5915	5815	5815	5815	5815	5815	5815	5815	5815	5815	5815	5815	5815	5815	5815	5815	5719	5719	5719	5719	5719	5815	5915	5815	5915	5815	5815	5815	5815	5815	5815	5719	5719	5815	5815	5815	5815	5815	5815	5815	5915	5915	5915	5915	5915	5915	5915	5815	5815	5815	5815	5815	5815	5815	5815	5815	5815	5815	5815	5815	5719	5815	5815	5719	5719	5815	5815	5815	5719	5719	5719	5719	5719	5815	0	0	0	0	0	3621	3583	3583	3583	3621	3583	3583	3546	3546	3546	3546	3546	3546	3546	3546	3546	3546	3546	3546	3583	3583	0	0	0	0	0	0	0	0	0	0	5915	5915	5815	5815	0	0	0	0	0	0	0	0	0	0	0	0	0	0	0	0	0	5815	5719	5719	5719	5815	5815	5815	5815	0	0	0	0	6124	6124	6124	6018	6018	5915	5915	5815	5915	5915	5815	5815	5815	5915	5815	5815	5815	6018	6018	6018	6018	6018	5915	5915	5915	5815	5815	5915	5915	5915	5915	5815	5815	5915	5915	5915	5915	5915	5915	5915	5915	5915	5915	5915	5815	5815	5815	5815	5815	5719	5815	5815	5815	5915	5915	5719	5815	5815	5815	5815	5815	5915	5915	5915	5915	5915	5915	5915	5915	5915	5815	5815	5815	5815	5815	5815	5815	5915	5915	5915	5915	5915	5915	5915	5915	5915	5915	5915	5915	5915	5915	5915	5915	6018	5915	6018	6018	6018	6018	5915	5915	6018	6018	5915	5915	5915	5915	5915	5915	5915	5915	6018	6018	5915	5915	5915	5915	5815	5815	5815	5815	0	0	0	0	0	0	0	0	0	0	5815	5815	5815	5815	5815	5815	5815	5815	0	0	0	0	0	0	0	0	0	0	0	0	0	0	0	0	0	0	6018	6018	6018	0	6018	6018	6018	5915	5915	5915	5915	5915	0	0	0	0	5815	5815	5815	5719	5719	5815	5719	5719	5815	5815	5815	5815	5815	5719	5815	5815	5719	5719	5626	5626	5626	5626	5626	5626	5719	5626	5719	5719	5719	5719	5719	5719	5719	5719	5719	5719	5719	5719	5719	5719	5719	5719	5719	5719	5719	5719	5719	0	0	0	0	0	0	0	0	0	0	0	0	0	0	0	0	0	0	0	0	0	0	0	0	0	0	0	0	0	0	0	0	0	0	0	0	0	0	0	0	0	0	0	0	0	0	0	0	0	0
0	0	910	910	0	0	0	0	0	0	0	1116	1116	1116	1116	1120	1120	1120	1120	1116	1120	1120	1120	1120	1120	1120	1120	1120	1120	1120	1120	1120	1120	1120	1120	1120	1116	1120	1120	1120	1120	1120	1123	1123	1116	1113	1116	1116	1116	1116	1116	1116	1120	1120	1120	1120	1120	1113	1113	1109	1109	1116	1116	1120	1131	1138	1138	1142	1142	1142	1142	1142	1142	1146	1146	1146	1146	1146	1146	1142	1142	1142	1142	1142	1142	0	0	0	0	0	0	2754	2754	2754	2777	2799	2822	2822	2822	2822	2822	2822	2822	2845	2845	2822	2845	2845	2845	2845	2845	2822	2822	0	0	0	0	0	0	6018	6018	6018	6018	6018	6018	6018	6124	6124	6124	6124	6018	6018	6018	6018	5915	6018	6018	6018	6018	6018	6018	6018	5915	5915	5915	6018	6018	5915	6018	6018	6018	5915	6018	5915	5915	5915	5915	0	0	0	0	0	0	0	0	0	0	0	0	0	0	0	5915	6018	6018	6018	0	0	0	0	0	0	0	0	0	0	0	0	0	0	0	0	0	0	0	0	0	0	0	0	0	0	0	0	0	6349	6235	6235	6124	6124	6124	5915	5915	6018	6018	6018	6018	6018	6018	6018	6018	6018	5915	5915	5915	5915	5915	5915	5915	5915	5915	5915	5915	5815	5815	5815	5815	5815	5815	5815	5815	5915	5815	5815	5815	5815	5815	5815	5915	5915	5915	5915	5915	5915	5815	5815	5815	5815	5815	5815	5815	5815	5815	5815	5815	5815	5915	5915	6018	6018	5915	6018	6018	5915	5915	5915	5915	5815	5815	5815	5815	5815	5815	5815	5815	5815	5815	5815	5815	5815	5915	5915	5915	5915	5915	5815	5815	5815	5915	6018	6018	0	0	0	0	0	3621	3583	3583	3583	3583	3583	3583	3546	3546	3546	3546	3546	3546	3546	3546	3546	3546	3546	3546	3546	3583	0	0	0	0	0	0	0	0	0	0	5815	5915	5815	5815	0	0	0	0	0	0	0	0	0	0	0	0	0	0	0	0	5915	5719	5719	5719	5719	5915	5815	5915	5915	0	6018	6018	6124	6124	6124	6124	6124	6018	6018	5915	5915	6018	6018	5815	5915	5915	6018	5815	5815	5915	6018	6018	6018	6018	6018	6018	6018	5915	5915	5915	6018	5915	5915	5915	5915	5915	5915	5915	5915	5915	5915	5915	5915	5915	5915	5915	5915	5915	5915	5915	5815	5815	5815	5815	5815	5815	5915	5915	5915	5915	5915	5915	5915	5915	5915	5915	5915	5915	5915	5915	5915	5915	5915	5915	5915	5915	5815	5815	5815	5915	5915	5815	5815	5915	5915	5915	5915	5915	5915	5915	5915	5915	6018	5915	6018	6018	6018	5915	6018	6018	6018	5915	5915	5915	6018	6018	5915	5915	5915	5915	5915	5915	5915	5915	5915	5915	5915	5915	5915	5915	5815	5815	5815	5815	0	0	0	0	0	0	0	0	0	0	5915	5815	5815	5815	5815	5815	5815	5815	0	0	0	0	0	0	0	0	0	0	0	0	0	0	6018	6018	5915	5915	6018	6018	6018	6018	6018	6018	6018	5915	5915	5915	5915	5915	5915	0	0	0	5815	5815	5815	5815	5719	5815	5719	5815	5815	5815	5815	5815	5815	5815	5815	5815	5815	5719	5719	5626	5719	5719	5719	5719	5719	5626	5719	5815	5815	5719	5719	5719	5626	5626	5626	5719	5719	5719	5719	5719	5719	5719	5719	5719	5719	5719	5719	0	0	0	0	0	0	0	0	0	0	0	0	0	0	0	0	0	0	0	0	0	0	0	0	0	0	0	0	0	0	0	0	0	0	0	0	0	0	0	0	0	0	0	0	0	0	0	0	0	0
0	0	908	908	0	0	0	0	0	0	0	1116	1116	1116	1116	1116	1116	1120	1120	1116	1116	1116	1120	1120	1120	1120	1120	1120	1120	1120	1120	1120	1120	1120	1120	1120	1116	1120	1120	1120	1120	1120	1120	1120	1116	1113	1113	1116	1113	1116	1116	1116	1116	1116	1120	1120	1116	1116	1113	1109	1109	1113	1113	1113	1131	1138	1138	1142	1142	1142	1142	1142	1142	1142	1146	1146	1146	1146	1146	1146	1142	1142	1142	1142	0	0	0	0	0	2754	2754	2754	2754	2777	2799	2822	2822	2822	2822	2822	2822	2822	2845	2845	2845	2822	2822	2822	2845	2845	2869	2845	2845	2845	2845	0	0	0	0	6124	6018	6018	6018	6018	6124	6018	6018	6124	6124	6124	6018	6018	6018	6018	6018	5915	5915	5915	5915	5915	5915	6018	6124	6124	6124	6124	6235	6018	6018	6018	6018	5915	5915	5915	5915	5915	5915	0	0	6235	6235	6235	0	0	0	0	0	0	0	0	0	5915	5915	6018	6018	6018	6018	6018	0	0	0	0	0	0	0	0	0	0	0	0	0	0	0	0	0	0	0	0	0	0	0	0	0	0	0	6349	6235	6124	6124	6018	6124	6018	6018	6124	6124	6235	6124	6124	6124	6124	6018	6018	6018	5915	5915	5915	5915	5915	5815	5815	5815	5915	5915	5815	5915	5815	5815	5815	5815	5815	5915	5915	5915	5915	5915	5815	5815	5915	5915	5915	5915	6018	6018	5915	5915	5815	5815	5815	5815	5815	5815	5815	5815	5815	5815	5915	5915	6018	6018	6018	6018	6018	6018	6018	5915	5915	5915	5815	5815	5815	5815	5815	5915	5815	5815	5915	5915	5915	5915	5915	5915	5915	5915	5915	5915	5815	5915	6018	6018	6018	6018	0	0	0	0	0	3621	3621	3583	3583	3583	3621	3583	3546	3546	3546	3546	3546	3546	3546	3546	3546	3546	3546	3546	3546	3546	0	0	0	0	0	0	0	0	0	0	5815	5815	5815	5815	5815	0	0	0	0	0	0	0	0	0	0	0	0	0	0	0	5915	5719	5719	5719	5915	5915	5915	5915	5915	6018	6018	6018	6124	6124	6124	6124	6124	6018	6018	5915	6018	6018	6018	6018	6018	6018	6018	6018	5915	5915	5915	5915	6018	6018	6018	6018	5915	5915	5915	5915	5915	6018	5915	5915	5815	5915	5915	5815	5915	5915	5915	6018	5915	5915	5915	5915	5915	5815	5915	5815	5815	5815	5815	5815	5915	5915	5915	5915	5915	5915	5915	5915	5915	5915	5915	5915	5915	5915	5915	5915	5915	5915	5915	5915	5915	5915	5915	5915	5915	5915	5915	5915	5915	5915	5915	5915	5915	5915	5915	5915	5915	6018	6018	6018	6018	6018	6018	6018	6018	6018	6018	6018	5915	5915	6018	5915	5915	6018	6018	6018	5915	6018	6018	5915	6018	5915	5915	5915	5915	5915	5915	5815	5815	5815	0	0	0	0	0	0	0	0	0	0	5915	5915	5815	5815	5815	5815	5915	6124	6018	6018	6018	6124	6124	0	0	0	0	6235	6124	6235	6124	6124	6018	6018	5915	5915	5915	6018	5915	5915	5915	5915	5915	5915	5915	5915	5915	6018	6018	0	0	0	0	5815	5815	5815	5815	5815	5719	5815	5915	5915	5915	5915	5915	5815	5915	5815	5815	5815	5719	5719	5719	5719	5719	5719	5815	5719	5815	5815	5815	5815	5815	5815	5815	5719	5719	5719	5719	5719	5719	5719	5719	5719	5719	5719	5719	5719	0	0	0	0	0	0	0	0	0	0	0	0	0	0	0	0	0	0	0	0	0	0	0	0	0	0	0	0	0	0	0	0	0	0	0	0	0	0	0	0	0	0	0	0	0	0	0	0	0	0	0
0	0	908	908	910	910	0	0	0	0	0	0	1113	1113	1116	1116	1116	1120	1120	1116	1120	1120	1120	1120	1120	1120	1120	1120	1120	1120	1120	1123	1120	1120	1120	1120	1120	1120	1120	1120	1120	1120	1120	1120	1113	1113	1113	1116	1113	1116	1116	1116	1116	1116	1120	1120	1116	1116	1113	1113	1113	1116	1116	1113	1127	1134	1138	1142	1142	1142	1142	1142	1146	1146	1146	1146	1146	1146	1146	1142	1142	1142	1142	0	0	0	0	0	0	2754	2754	2754	2754	2777	2777	2799	2822	2822	2822	2822	2822	2845	2845	2845	2845	2822	2845	2822	2845	2845	2845	2845	2845	2845	2845	2845	0	0	6235	6235	6124	6124	6349	6124	6124	6124	6124	6124	6235	6124	6124	6124	6018	6124	6018	6018	6018	6018	5915	5915	6018	6018	6124	6124	6124	6124	6018	6018	6018	6018	5915	5915	5915	5915	5915	6235	6124	6124	6124	6235	6235	6235	6235	6235	0	0	0	0	0	0	0	5915	5915	6018	6018	6018	6018	6018	0	0	0	0	0	0	0	0	0	0	0	0	0	0	0	0	0	0	0	0	0	0	0	0	0	0	0	0	6235	6235	6124	6124	6124	6018	6018	6124	6124	6235	6124	6124	6124	6018	6018	6018	5915	5915	5915	5915	5915	5915	5915	5815	5915	5915	5915	5815	5815	5915	5815	5915	6018	5915	6018	6018	6018	6018	6018	5915	5915	6018	6018	5915	6018	6018	6018	5915	5915	5915	5915	5915	5815	5815	5815	5815	5915	5915	5915	5915	6018	6018	6018	6124	6018	6124	6124	6018	6018	6018	5915	5915	5815	5815	5815	5815	5915	5915	5915	5915	6018	5915	6018	5915	5915	5915	5915	5915	5915	5815	5815	5915	5915	6018	6018	6018	0	0	0	0	0	3621	3621	3621	3621	3621	3621	3583	3583	3546	3546	3546	3546	3546	3546	3546	3546	3546	3546	3546	3546	0	0	0	0	0	0	0	0	0	0	5815	5915	5815	5915	6018	5915	5915	5915	5915	0	0	6018	6124	6124	6124	0	0	6018	6018	0	5719	5719	5719	5719	5719	5915	5915	5915	5915	6018	6018	6124	6124	6124	6124	6124	6124	6124	6018	6018	6018	6018	6018	6018	6018	6018	6018	6018	6018	6018	6018	6018	6018	6018	6018	6018	6018	5915	5915	6018	6018	6018	6018	6018	5815	5915	5915	5915	5915	6018	5915	5915	5915	5915	6018	6018	5915	5915	5915	5915	5915	5815	5815	5815	5915	5915	5915	5915	5915	5915	5915	5915	5915	5915	5915	5915	5915	5915	5915	5915	5915	5915	5915	5915	6018	5915	5915	5915	5915	5915	5915	5915	5915	5915	5915	5915	5915	5915	6018	5915	5915	5915	6018	6018	6124	6124	6124	6018	6018	6018	6018	6018	6018	5915	6018	6018	6018	6018	6124	6018	6018	6018	6018	6018	6018	6018	6018	5915	5915	5915	5915	5915	5815	5815	0	0	0	0	0	0	0	0	0	0	5915	5915	5915	5915	5915	6018	6018	6124	6124	6124	6124	6124	6124	6018	6124	6235	6124	6235	6235	6235	6124	6124	6018	5915	5915	5915	5915	5915	5915	5915	5915	6018	6018	6018	6018	6018	6124	6018	6018	6018	6018	6018	5915	5915	5815	5915	5915	5915	5915	5915	5915	5915	5915	5915	5915	5915	5915	5815	5815	5719	5719	5719	5815	5815	5815	5815	5815	5815	5815	5915	5915	5815	5815	5815	5815	5719	5719	5719	5719	5719	5719	5719	5719	5719	5719	5719	5719	0	0	0	0	0	0	0	0	0	0	0	0	0	0	0	0	0	0	0	0	0	0	0	0	0	0	0	0	0	0	0	0	0	0	0	0	0	0	0	0	0	0	0	0	0	0	0	0	0	0	0	0
0	0	908	910	910	913	913	0	0	0	0	0	1113	1113	1116	1116	1120	1120	1120	1116	1120	1120	1120	1120	1120	1120	1120	1123	1123	1120	1120	1123	1120	1120	1120	1120	1116	1120	1120	1116	1116	1120	1120	1120	1116	1113	1113	1113	1113	1116	1113	1113	1113	1116	1120	1120	1120	1116	1116	1116	1113	1116	1116	1113	1120	1131	1138	1142	1146	1146	1146	1146	1150	1150	1150	1150	1146	1150	1146	1146	1142	1138	1138	0	0	0	0	0	0	2754	2799	2777	2799	2799	2799	2822	2822	2822	2822	2822	2822	2845	2845	2845	2845	2845	2845	2845	2845	2845	2869	2845	2845	2845	2845	2845	2845	0	6235	6349	6349	6349	6349	6349	6349	6349	6349	6349	6349	6235	6124	6124	6124	6124	6018	6018	6018	5915	5915	5915	6018	6235	6124	6124	6124	6124	6018	6018	5915	5915	5915	5915	5915	5915	5915	6235	6235	6235	6235	6235	6235	6235	6235	6235	0	0	0	0	0	0	0	0	6018	6018	6018	6018	6018	6124	6124	6235	6235	0	0	0	0	0	0	0	0	0	0	0	0	0	0	0	0	0	0	0	0	0	0	0	0	6124	6235	6235	6124	6124	6124	6124	6018	6124	6124	6124	6124	6124	6124	6124	6018	6018	6018	5915	5915	6018	6018	6018	5915	5915	5915	5915	5915	5815	5915	5915	5915	5915	6018	6018	6018	6018	6124	6124	6018	6018	5915	6018	6018	5915	5915	6018	6018	6018	5915	5915	5915	5915	5915	5815	5815	5915	5915	5915	5915	5915	5915	6018	6018	6124	6018	6124	6124	6124	6018	6124	6018	6018	5915	5815	5915	5915	6018	6018	6018	6018	6018	6018	6018	6018	6018	6018	6018	6018	5915	5915	5915	5915	6018	6018	6018	6018	0	0	0	0	0	3621	3583	3621	3583	3621	3621	3583	3583	3546	3546	3546	3583	3546	3583	3546	3583	3546	3546	3546	3546	0	0	0	0	0	0	0	0	0	0	5915	5915	5815	5815	6018	5915	5915	5915	5915	5915	6018	6018	6124	6124	6124	6124	6124	6018	6018	6018	5815	5815	5719	5719	5815	5915	5915	5915	6018	6018	6018	6124	6124	6018	6018	6124	6124	6018	6018	6018	6018	6018	6018	6018	6018	6124	6124	6124	6124	6124	6018	6018	6018	6018	6018	6018	6018	6018	6018	6018	6018	6018	6018	6018	5815	5815	5915	5915	5915	5915	5915	6018	6018	6018	6018	6018	5915	5915	5915	5915	5915	5815	5815	5815	5915	5815	5915	5915	5915	5915	5915	5915	5915	5915	5915	5915	5915	5915	5915	6018	6018	5915	5915	5915	6018	6018	6018	5915	5915	5915	5915	5915	5915	5915	5915	5915	5915	5915	5915	5915	5915	6018	6018	6018	6124	6124	6124	6018	6018	6018	6018	6018	6018	6018	6018	6018	6124	6124	6124	6124	6018	6124	6018	6018	6018	6018	6018	6018	6018	6018	6018	6018	6018	5815	0	0	0	0	0	0	0	0	0	0	5915	5915	5915	5915	6018	6018	6124	6124	6124	6124	6124	6124	6124	6124	6124	6235	6235	6235	6235	6235	6124	6124	6124	6018	6018	5915	5915	5915	5915	5915	6018	6018	6018	6018	6124	6124	6124	6124	6124	6124	6124	6124	6124	5915	5915	6018	5915	6018	6018	6018	6018	5915	6018	5915	6018	5915	5915	5915	5915	5915	5719	5719	5815	5815	5815	5815	5815	5815	5915	5915	5915	5915	5915	5915	5815	5719	5719	5719	5719	5719	5719	5719	5719	5719	5719	5719	5719	0	0	0	0	0	0	0	0	0	0	0	0	0	0	0	0	0	0	0	0	0	0	0	0	0	0	0	0	0	0	0	0	0	0	0	0	0	0	0	0	0	0	0	0	0	0	0	0	0	0	0	0
0	0	905	905	910	910	913	0	0	0	0	0	0	0	1116	1116	1120	1120	1120	1116	1120	1120	1120	1120	1120	1120	1120	1120	1120	1120	1120	1123	1120	1120	1120	1120	1116	1116	1116	1116	1116	1116	1116	1120	1113	1116	1113	1116	1116	1116	1116	1116	1116	1120	1120	1120	1120	1116	1116	1113	1113	1113	1113	1113	1113	1113	1113	1113	1146	1146	1146	1146	1153	1150	1153	1150	1150	1150	1146	1146	1142	1142	1142	0	0	0	0	0	0	2754	2799	2777	2799	2777	2799	2799	2799	2822	2822	2822	2822	2822	2822	2822	2822	2822	2845	2845	2845	2845	2869	2869	2845	2845	2845	2845	2845	0	0	6349	6349	6349	6235	6349	6235	6235	6235	6235	6235	6235	6235	6235	6124	6124	6018	6018	6018	6018	6018	6018	6235	6235	6124	6124	6124	6124	6124	6018	5915	5915	5915	5915	5915	6018	6124	6124	6124	6124	6124	6235	6235	6124	6124	6235	6235	0	0	0	0	0	0	6124	6018	6124	6018	6018	6018	6124	6124	6124	6124	0	0	0	0	0	0	0	0	0	0	0	0	0	0	0	0	0	0	0	0	0	0	0	0	6235	6235	6124	6124	6124	6124	6018	6018	6018	6124	6235	6235	6235	6124	6124	6124	6018	6018	6018	6018	6018	6124	6124	6018	5915	5915	6018	5915	5915	5915	5915	6018	5915	6018	6018	6018	6124	6124	6124	6124	6124	6018	6018	6018	5915	6018	6018	6018	6018	6018	5915	5915	5915	5915	5915	5915	5915	5915	5915	5915	5915	5915	6018	6018	6018	6018	6124	6124	6124	6124	6124	6124	6124	6124	6018	6018	6124	6018	6124	6124	6124	6018	6018	6124	6018	6018	6018	6018	6124	6124	6124	6124	6018	6018	6018	6124	6124	0	0	0	0	3621	3621	3583	3621	3621	3621	3621	3546	3546	3546	3546	3546	3546	3546	3546	3546	3583	3546	3546	3546	3546	0	0	0	0	0	0	0	0	0	5915	5915	5915	5815	5915	6018	6018	6018	6018	6018	6018	6124	6018	6018	6124	6124	6124	6018	6018	5915	5915	5815	5915	5815	5915	5915	6018	6018	6018	6018	6018	6124	6124	6124	6018	6018	6018	6018	6018	6018	6018	6018	6018	6018	6018	6124	6124	6124	6018	6018	6018	6018	6018	6018	6018	6018	6018	6018	6018	6018	6018	6018	6018	6018	6018	5815	5815	5915	5915	5915	6018	6018	6018	6018	6018	6018	6018	5915	6018	6018	6018	5915	5915	5915	5915	5915	5915	5915	5915	5915	6018	6018	5915	5915	5915	5915	5915	5915	5915	5915	6018	6018	5915	5915	5915	5915	6018	5915	5915	5915	5915	5915	5915	5915	5915	5915	5915	5915	5915	5915	6018	6018	6018	6124	6018	6124	6124	6124	6018	6124	6124	6018	6124	6124	6124	6124	6124	6124	6235	6124	6124	6124	6124	6124	6124	6124	6018	6124	6018	6018	6124	6124	6124	6018	0	0	0	0	0	0	0	0	0	0	0	5915	6018	6018	6018	6018	6235	6235	6235	6235	6235	6235	6124	6235	6124	6124	6235	6235	6349	6349	6349	6235	6349	6124	6124	6018	5915	6124	5915	5915	5915	6018	6018	6124	6124	6124	6124	6124	6124	6124	6124	6124	6124	6124	6124	5915	6018	6018	6018	6018	6018	6018	6018	6018	6018	6018	6124	6018	6018	6018	5915	0	5815	5815	5915	5915	5915	5915	5915	5915	5915	5915	5915	5915	5915	5915	5815	5719	5719	5719	5719	5719	5719	5719	5719	5719	5719	5719	0	0	0	0	0	0	0	0	0	0	0	0	0	0	0	0	0	0	0	0	0	0	0	0	0	0	0	0	0	0	0	0	0	0	0	0	0	0	0	0	0	0	0	0	0	0	0	0	0	0	0	0
0	0	905	905	905	913	922	922	0	0	0	0	0	0	0	0	0	1120	1120	1120	1120	1120	1120	1116	1116	1120	1120	1120	1120	1120	1120	1123	1120	1120	1120	1116	1116	1116	1116	1116	1116	1116	1116	1116	1113	1113	1113	1116	1116	1116	1116	1116	1116	1116	1120	1116	1116	1116	1116	1116	1113	1116	1113	1113	1113	1113	1113	1113	1146	1146	1146	1150	1153	1150	1153	1153	1150	1150	1146	1142	1142	1142	1142	0	0	0	0	0	2754	2754	2754	2777	2754	2754	2754	2754	2799	2799	2799	2822	2822	2822	2822	2822	2822	2822	2845	2845	2845	2845	2869	2869	2869	2845	2845	2869	2845	2845	0	6349	6349	6235	6235	6235	6349	6235	6235	6235	6349	6235	6235	6235	6124	6124	6018	6018	6018	6018	6018	6018	6349	6235	6124	6124	6124	6124	6124	6018	5915	5915	6018	5915	6018	6018	6124	6124	6124	6124	6124	6124	6124	6124	6124	6235	6235	6235	0	0	0	0	0	6124	6018	6018	6018	6018	6124	6124	6124	6124	6124	0	0	0	0	0	6124	6124	6124	6349	6235	6235	0	0	0	5915	5915	5915	5915	5915	5915	6124	6124	6235	6235	6235	6235	6235	6124	6124	6124	6124	6124	6124	6235	6235	6235	6235	6235	6235	6235	6235	6235	6124	6124	6124	6124	6235	6124	6124	6018	6124	6018	6018	6018	6018	6018	6018	6018	6018	6018	6124	6124	6124	6124	6124	6018	6018	6018	6018	5915	6018	6124	6124	6018	6018	6018	6018	6018	6018	6018	5915	6018	6018	5915	5915	5915	5915	6018	6018	6124	6235	6235	6235	6235	6235	6235	6124	6124	6124	6124	6124	6124	6124	6124	6124	6018	6018	6124	6124	6124	6124	6018	6235	6235	6124	6124	6124	6124	6124	6124	6124	0	0	0	3659	3621	3621	3621	3621	3621	3621	3621	3546	3546	3546	3546	3546	3546	3546	3546	3546	3583	3583	3583	3546	3546	0	0	0	0	0	0	0	6018	6018	5915	5915	5915	5915	5915	5915	6018	6018	6018	6018	6018	6124	6018	6018	6018	6018	6018	6018	6018	5915	5915	5915	5915	5915	5915	5915	6018	6018	6124	6124	6018	6124	6018	6018	6018	6018	6018	6018	6018	6018	6018	6018	6018	6018	6124	6124	6124	6124	6124	6018	6018	6018	6124	6018	6018	6018	6018	6018	6018	6018	6018	6018	6018	6018	6018	5915	5915	5915	5915	5915	6018	6018	6018	6124	6018	6018	6124	6018	6124	6018	6124	6018	6018	6018	5915	5915	5915	5915	5915	5915	6018	6018	6018	6018	5915	5915	5915	5915	5915	6018	6018	6018	6018	6018	6018	6018	6018	6018	5915	5915	5915	5915	5915	5915	5915	6018	5915	6018	6018	6018	6018	6018	6018	6124	6124	6124	6124	6124	6124	6124	6124	6124	6124	6124	6124	6124	6349	6349	6349	6349	6124	6124	6124	6018	6124	6018	6018	6124	6018	6018	6124	6018	6018	6018	0	0	0	0	0	0	0	0	0	0	6018	6018	6124	6124	6124	6235	6235	6235	6235	6235	6235	6235	6235	6235	6235	6235	6235	6235	6349	6349	6349	6349	6349	6235	6124	6018	5915	6124	5915	6018	6018	6124	6124	6235	6235	6235	6124	6235	6235	6235	6235	6124	6124	6124	6124	6124	6124	6124	6018	6124	6124	6124	6018	6018	6018	6124	6124	6124	6124	6018	0	0	5815	5815	5915	5915	5915	5915	5915	5915	5915	6018	6018	5915	6018	5915	5915	5815	5719	5719	5626	5626	5626	5626	5719	5719	5815	5719	5719	0	0	0	0	0	0	0	0	0	0	0	0	0	0	0	0	0	0	0	0	0	0	0	0	0	0	0	0	0	0	0	0	0	0	0	0	0	0	0	0	0	0	0	0	0	0	0	0	0	0	0
0	0	903	905	905	915	922	922	0	0	0	0	0	0	0	0	0	0	1120	1120	1120	1120	1120	1116	1116	1120	1120	1120	1120	1120	1120	1123	1120	1120	1120	1116	1116	1116	1116	1116	1116	1120	1120	1116	1116	1113	1113	1116	1116	1116	1116	1116	1116	1116	1116	1116	1116	1116	1116	1116	1113	1116	1116	1113	1113	1113	1113	1113	1113	0	0	1150	1153	1150	1150	2669	2669	2669	2669	1142	2690	2690	2711	2711	2711	2733	2733	2733	2754	2754	2777	2777	2754	2777	2799	2799	2777	2799	2799	2822	2799	2822	2822	2822	2822	2822	2845	2845	2845	2845	2869	2869	2845	2869	2869	2869	2845	2845	2845	0	6349	6349	6349	6349	6235	6235	6349	6349	6349	6235	6235	6235	6235	6235	6124	6018	6018	6018	6018	6018	6349	6349	6235	6235	6124	6124	6124	6018	6018	5915	6018	5915	6018	6018	6018	6124	6124	6124	6124	6124	6124	6124	6235	6235	6235	6235	6235	0	6235	6124	6124	6124	6018	6018	6018	6018	6018	6124	6124	6124	6124	6018	6018	0	6124	6124	6124	6124	6235	6235	6235	6235	0	0	0	5915	5915	5915	5915	5915	6124	6124	6235	6124	6235	6235	6235	6235	6124	6124	6124	6124	6124	6124	6235	6235	6235	6349	6235	6235	6235	6124	6124	6124	6124	6124	6124	6124	6124	6124	6124	6124	6124	6124	6124	6124	6124	6018	6018	6018	6124	6124	6124	6124	6124	6018	6018	6018	6018	6018	6018	6018	6124	6124	6124	6018	6018	6018	6018	6018	6018	6018	6018	6018	6018	6018	6018	6018	6018	6124	6235	6235	6349	6235	6235	6349	6235	6235	6235	6235	6235	6235	6235	6235	6235	6018	6124	6124	6124	6124	6124	6124	6124	6235	6235	6235	6124	6124	6124	6124	6235	6235	0	0	0	3659	3621	3621	3621	3621	3621	3621	3621	3621	3546	3546	3546	3546	3546	3546	3546	3546	3546	3546	3546	3510	3510	0	0	0	0	0	0	6018	6018	6018	5915	5915	5915	5915	5915	6018	6018	6018	6018	6018	6018	6124	6018	6018	6018	6018	6018	6018	6018	5915	5915	5915	6018	5915	6018	6018	6018	6018	6124	6124	6124	6124	6018	6018	6018	6018	6018	6018	5915	6018	6018	6018	6018	6018	6124	6124	6124	6018	6018	6018	6018	6124	6124	6124	6124	6018	6018	6018	6124	6124	6124	6018	6018	6018	6018	5915	5915	5915	5915	5915	6018	6018	6018	6124	6124	6018	6124	6124	6124	6124	6018	6018	6018	6018	6018	5915	5915	6018	5915	5915	6018	6018	6018	6018	6018	5915	6018	6018	6018	6018	6018	6018	6018	6018	6018	6018	6018	6018	5915	5915	5915	5915	5915	5915	6018	6018	6018	6018	6018	6018	6018	6124	6124	6124	6124	6124	6124	6124	6124	6124	6124	6124	6124	6124	6124	6124	6349	6349	6235	6235	6235	6124	6124	6124	6124	6124	6124	6235	6124	6124	6124	6018	6018	6018	0	0	0	0	0	0	0	0	0	0	6018	6124	6235	6235	6235	6235	6235	6235	6235	6235	6235	6235	6235	6235	6235	6235	6235	6235	6349	6349	6349	6349	6349	6235	6124	6124	5915	5915	5915	6018	6018	6124	6124	6235	6235	6235	6235	6235	6235	6235	6235	6124	6124	6124	6235	6235	6235	6124	6124	6124	6124	6124	6018	6018	6018	6124	6124	6124	6124	0	0	0	0	0	6018	6018	6018	6018	5915	5915	6018	6018	6018	5915	6018	6018	6018	5915	5915	5719	5719	5719	5719	5719	5719	5719	5815	5719	5719	0	0	0	0	0	0	0	0	0	0	0	0	0	0	0	0	0	0	0	0	0	0	0	0	0	0	0	0	0	0	0	0	0	0	0	0	0	0	0	0	0	0	0	0	0	0	0	0	0	0	0
0	0	903	908	910	915	922	922	0	0	0	0	0	0	0	0	0	0	1123	1120	1120	1120	1120	1116	1116	1116	1116	1120	1120	1120	1120	1120	1120	1116	1116	1116	1116	1116	1116	1116	1116	1116	1116	1120	1113	1113	1113	1113	1113	1113	1113	1113	1116	1116	1113	1113	1113	1116	1113	1113	1113	1116	1116	1116	1116	1113	1113	1113	1113	0	0	0	0	1150	1150	2669	2669	2669	2690	2690	2690	2711	2711	2711	2711	2711	2711	2733	2733	2754	2754	2754	2733	2733	2754	2754	2754	2777	2777	2799	2777	2822	2822	2845	2845	2822	2845	2845	2869	2869	2845	2869	2845	2893	2893	2869	2869	2869	2869	0	0	6349	6349	6349	6349	6349	6349	6349	6349	6235	6235	6235	6349	6235	6235	6124	6124	6124	6018	6018	6349	6349	6235	6235	6124	6124	6124	6018	6018	6018	6018	6018	6018	6018	6124	6124	6124	6235	6235	6235	6124	6124	6124	6235	6235	6235	6235	6235	6124	6124	6124	6124	6018	6018	6018	6018	6018	6124	6124	6124	6124	6124	6124	6124	6124	6124	6124	6124	6018	6124	6124	6018	6018	5915	5915	5915	6018	5915	5915	6018	6124	6124	6124	6124	6235	6124	6235	6235	6018	6124	6235	6124	6235	6235	6235	6235	6235	6235	6235	6235	6235	6124	6124	6235	6235	6235	6235	6235	6124	6124	6124	6124	6124	6124	6124	6124	6124	6124	6124	6124	6124	6124	6124	6124	6124	6018	6018	6018	6124	6018	6018	6124	6124	6124	6124	6124	6018	6124	6124	6018	6018	6018	6018	6124	6124	6018	6124	6124	6235	6235	6235	6235	6349	6235	6349	6349	6349	6349	6235	6235	6235	6235	6235	6235	6124	6124	6124	6124	6124	6124	6124	6235	6235	6235	6235	6124	6124	6124	6124	6124	6124	6235	0	0	0	3698	3659	3621	3621	3621	3621	3621	3621	3621	3583	3546	3546	3546	3510	3546	3546	3546	3546	3546	3546	3546	3546	0	0	0	0	0	6124	6124	6018	6018	6018	6018	6018	6018	6018	6018	6018	6018	6124	6124	6124	6124	6018	6018	6018	6018	6018	6018	6018	5915	5915	5915	6018	6018	6018	6018	6018	6124	6124	6124	6124	6124	6018	6018	6018	6018	6018	6018	6018	6018	6018	6018	6018	6018	6018	6018	6018	6124	6124	6124	6124	6124	6124	6124	6124	6018	6018	6018	6124	6124	6124	6124	6018	6124	6018	5915	5915	5915	5915	6018	6018	6018	6124	6124	6124	6018	6124	6124	6124	6124	6018	6018	6018	6018	6018	6018	6018	6018	6018	6018	6018	6018	6018	6018	6018	6018	6018	6018	6018	6018	6018	6018	6124	6018	6124	6124	6018	6018	6018	6018	6018	5915	5915	6018	5915	6018	6018	6018	6018	6018	6018	6124	6124	6124	6124	6235	6235	6124	6124	6124	6124	6124	6124	6124	6124	6124	6235	6124	6235	6235	6124	6349	6349	6124	6124	6124	6124	6235	6235	6235	6235	6018	6018	6018	0	0	0	0	0	0	0	0	0	0	0	6235	6235	6235	6235	6235	6235	6235	6235	6349	6349	6349	6349	6235	6235	6235	6235	6235	6235	6349	6349	6349	6349	6349	6235	6235	6018	6018	6018	6235	6235	6235	6235	6235	6349	6349	6235	6235	6235	6235	6235	6124	6124	6124	6235	6235	6235	6235	6124	6124	6124	6124	6018	6018	6018	6018	6124	6124	6124	0	0	0	0	0	6124	6124	6124	6124	6018	6018	6018	6018	6018	6018	6018	6018	6018	6018	6124	6124	5915	5915	5815	5815	5815	5815	5815	5815	5815	0	0	0	0	0	0	0	0	0	0	0	0	0	0	0	0	0	0	0	0	0	0	0	0	0	0	0	0	0	0	0	0	0	0	0	0	0	0	0	0	0	0	0	0	0	0	0	0	0	0	0
0	0	0	908	913	915	915	922	917	922	920	920	0	0	0	0	0	0	1123	1120	1120	1120	1120	1120	1116	1116	1116	1116	1120	1120	1120	1120	1120	1116	1116	1116	1113	1113	1113	1116	1116	1120	1120	1120	1113	1113	1113	1113	1113	1116	1116	1116	1116	1116	1116	1116	1116	1116	1113	1113	1116	1116	1116	1120	1116	1116	1113	1109	1109	0	1223	1223	0	0	0	2669	2669	2669	2690	2690	2690	2711	2711	2711	2711	2733	2711	2733	2733	2754	2754	2733	2733	2733	2754	2754	2754	2777	2777	2799	2777	2822	2822	2822	2822	2822	2845	2845	2845	2845	2845	2845	2845	2845	2869	2845	2845	2845	2845	0	0	6349	6235	6349	6235	6349	6349	6349	6349	6235	6235	6349	6349	6349	6349	6235	6235	6235	0	0	0	0	0	0	6235	6235	6124	6124	5915	5915	6018	6018	6018	6018	6124	6124	6235	6235	6235	6235	6124	6124	6235	6235	6235	6235	6235	6349	6235	6124	6124	6124	6124	6124	6124	6018	6018	6124	6124	6124	6124	6124	6124	6124	6235	6124	6124	6124	6018	6124	6124	6018	6018	5915	5915	6018	6018	6018	6124	6124	6124	6124	6124	6124	6235	6235	6235	6235	6124	6235	6235	6235	6235	6235	6235	6235	6235	6235	6235	6235	6235	6124	6235	6235	6235	6235	6235	6235	6124	6124	6124	6124	6124	6124	6124	6124	6124	6124	6124	6124	6124	6124	6235	6235	6124	6124	6018	6018	6018	6018	6018	6018	6124	6124	6124	6124	6124	6124	6124	6124	6124	6124	6124	6124	6124	6124	6124	6124	6235	6235	6235	6349	6349	6349	6349	6349	6349	6468	6468	6349	6349	6349	6349	6235	6124	6124	6124	6124	6235	6124	6124	6235	6235	6235	6235	6235	6235	6235	6235	6124	6124	6124	0	0	0	3698	3621	3621	3621	3621	3621	3621	3621	3546	3546	3546	3546	3510	3510	3510	3546	3546	3546	3546	3546	3546	3583	3583	0	6468	6468	6124	6124	6124	6018	6018	6018	6124	6018	6018	6018	6124	6124	6124	6124	6124	6124	6124	6124	6124	6018	6018	6018	6018	6018	5915	5915	6018	6018	6018	6018	6018	6018	6124	6124	6124	6235	6124	6124	6124	6018	6018	6018	6018	6018	6018	6018	6018	6018	6018	6124	6124	6235	6124	6124	6124	6124	6124	6124	6124	6124	6124	6124	6124	6124	6124	6124	6124	6124	6124	6124	5915	5915	6018	6018	6018	6018	6018	6124	6235	6124	6124	6124	6124	6124	6018	6018	6018	6018	6018	6018	6018	6018	6018	6018	6018	6018	6018	6018	6018	6018	6018	6018	6018	6124	6124	6124	6124	6124	6124	6124	6124	6124	6018	6124	6018	6018	5915	6018	6018	6018	6018	6018	6018	6018	6018	6124	6124	6124	6124	6235	6235	6235	6124	6124	6235	6124	6124	6124	6124	6124	6124	6235	6235	6235	6235	6235	6235	6349	6124	6235	6235	6235	6349	6349	6349	6349	6124	6124	6124	0	0	0	0	0	0	0	0	0	0	6235	6235	6235	6349	6349	6349	6349	6349	6349	6349	6349	6349	6349	6349	6349	6235	6349	6349	6349	6349	6349	6349	6349	6349	6349	6349	6235	6349	6349	6235	6235	6235	6235	6349	6349	6349	6235	6235	6235	6235	6124	6124	6124	6124	6124	6235	6235	6235	6235	6124	6235	6235	6124	6124	6018	6124	6124	6124	0	0	0	0	0	0	6124	6235	6235	6235	6124	6124	6124	6124	6124	6018	6018	6124	6018	6124	6124	6124	6018	5915	5915	5915	5815	5815	5915	6018	6018	0	0	0	0	0	0	0	0	0	0	0	0	0	0	0	0	0	0	0	0	0	0	0	0	0	0	0	0	0	0	0	0	0	0	0	0	0	0	0	0	0	0	0	0	0	0	0	0	0	0	0
0	0	0	908	913	917	922	922	920	925	920	917	917	0	0	0	0	0	0	0	1120	1120	1120	1116	1116	1116	1120	1120	1120	1120	1120	1120	1116	1116	1113	1113	1116	1113	1113	1116	1116	1116	1116	1116	1113	1113	1113	1113	1113	1113	1113	1113	1113	1113	1113	1113	1113	1113	1113	1113	1116	1116	1120	1120	1116	1116	1116	1116	1223	1223	1223	1227	1236	1236	0	2669	2669	2669	2690	2711	2711	2711	2733	2733	2733	2711	2711	2733	2733	2754	2754	2733	2733	2733	2733	2754	2754	2754	2777	2799	2777	2799	2822	2822	2822	2822	2845	2845	2869	2869	2845	2845	2869	2845	2869	2869	2869	2869	2869	2869	0	6349	6349	6349	6349	6349	6468	6468	6349	6235	6235	6235	6468	6349	6349	6235	6235	6235	6349	6349	0	0	0	0	6235	6235	6124	6124	6124	6018	6018	6018	6124	6124	6124	6124	6124	6235	6235	6124	6124	6124	6235	6235	6349	6235	6349	6235	6235	6124	6124	6124	6235	6235	6124	6235	6124	6235	6235	6124	6235	6235	6235	6235	6235	6235	6235	6235	6235	6124	6124	6124	6124	6018	6018	6018	6235	6124	6124	6124	6124	6124	6235	6235	6235	6235	6235	6235	6235	6235	6235	6235	6235	6235	6235	6235	6235	6235	6349	6349	6349	6349	6349	6349	6235	6235	6235	6235	6124	6124	6124	6124	6124	6124	6124	6124	6124	6124	6124	6124	6124	6235	6235	6235	6124	6124	6018	6018	6018	6018	6018	6018	6124	6124	6124	6124	6124	6124	6124	6124	6124	6124	6124	6124	6124	6124	6124	6124	6235	6235	6235	6235	6235	6349	6349	6349	6349	6349	6468	6349	6349	6349	6349	6235	6235	6124	6235	6235	6235	6235	6235	6235	6235	6235	6235	6235	6235	6235	6235	6235	6235	6235	0	0	0	3659	3659	3621	3621	3621	3621	3621	3621	3583	3546	3546	3546	3546	3510	3546	3546	3546	3546	3546	3546	3546	3546	3546	6468	6235	6124	6124	6124	6124	6124	6018	6018	6124	6018	6124	6018	6124	6018	6124	6124	6124	6124	6124	6124	6124	6018	5915	6018	6018	6018	6018	5915	5915	5915	6018	6018	6018	6018	6124	6124	6235	6235	6235	6235	6124	6235	6018	6124	6124	6124	6124	6124	6124	6124	6235	6124	6124	6124	6124	6124	6124	6124	6124	6124	6124	6124	6124	6124	6124	6124	6124	6124	6124	6124	6124	6124	6018	6018	6018	6018	6018	6124	6124	6235	6235	6235	6235	6235	6235	6124	6124	6124	6018	6018	6018	6018	6018	6018	6018	6018	6018	6018	6018	6018	6124	6124	6124	6018	6018	6018	6124	6124	6235	6235	6235	6235	6124	6124	6124	6124	6018	6018	6018	6018	6018	6124	6124	6124	6124	6124	6124	6124	6235	6124	6235	6235	6235	6124	6124	6124	6235	6124	6124	6124	6124	6124	6235	6235	6235	6235	6235	6235	6235	6349	6349	6235	6235	6235	6349	6349	6349	6349	6124	6349	6349	6235	6235	6235	6349	6349	0	0	0	0	0	6349	6349	6349	6349	6349	6349	6349	6349	6349	6349	6349	6349	6349	6349	6349	6349	6349	6349	6235	6349	6349	6349	6349	6349	6349	6349	6235	6349	6349	6349	6235	6235	6235	6235	6235	6235	6124	6124	6124	6124	6124	6124	6235	6124	6235	6235	6235	6235	6235	6235	6235	6235	6235	6235	6124	6235	6235	6124	0	0	0	6235	6235	6235	6235	6235	6235	6235	6124	6124	6124	6124	6124	6018	6018	6124	6018	6018	6018	6124	6018	6018	6018	6018	5915	5915	6018	6018	6018	0	0	0	0	0	0	0	0	0	0	0	0	0	0	0	0	0	0	0	0	0	0	0	0	0	0	0	0	0	0	0	0	0	0	0	0	0	0	0	0	0	0	0	0	0	0	0	0	0	0	0
0	0	0	913	913	917	920	920	917	925	925	927	927	927	0	0	0	0	0	0	1116	1116	1116	1116	1116	1116	1120	1116	1116	1116	1116	1116	1116	1116	1113	1113	1113	1113	1109	1113	1116	1116	1116	1116	1116	1113	1113	1113	1113	1116	1116	1113	1113	1113	1113	1113	1113	1113	1113	1113	1113	1116	1120	1120	1120	1120	1116	1245	1227	1227	1223	1223	1236	1236	1236	1236	0	0	0	2711	2711	2711	2733	2711	2733	2733	2711	2733	2733	2733	2754	2754	2733	2733	2733	2754	2733	2754	2777	2799	2777	2822	2822	2822	2822	2822	2845	2845	2869	2869	2845	2845	2869	2845	2869	2869	2869	2869	2893	2893	0	0	6349	6349	6349	6349	6468	6468	6349	6235	6235	6349	6468	6349	6349	6349	6349	6349	6349	6349	6349	0	0	0	6235	6235	6235	6124	6235	6124	6124	6124	6124	6124	6124	6124	6235	6235	6235	6124	6124	6235	6235	6235	6349	6349	6349	6235	6235	6235	6235	6235	6235	6235	6235	6235	6235	6235	6235	6235	6235	6235	6235	6235	6235	6235	6235	6235	6235	6124	6124	6235	6235	6235	6235	6235	6235	6235	6235	6235	6235	6235	6235	6235	6235	6235	6235	6235	6235	6235	6235	6235	6235	6349	6349	6349	6349	6349	6349	6349	6349	6349	6349	6349	6349	6235	6235	6235	6235	6235	6124	6124	6124	6124	6124	6124	6124	6124	6124	6124	6235	6235	6235	6235	6124	6124	6124	6124	6124	6124	6124	6124	6124	6124	6124	6124	6124	6124	6124	6124	6124	6124	6124	6124	6124	6124	6124	6124	6235	6235	6349	6349	6349	6349	6349	0	6349	6349	0	6349	6349	6468	6349	6349	6235	6235	6235	6235	6235	6235	6235	6235	6235	6235	6235	6235	6235	6235	6349	6235	6235	6235	0	0	0	3659	3659	3621	3621	3621	3621	3583	3583	3583	3546	3546	3546	3546	3510	3546	3546	3546	3546	3546	3546	3546	3546	3546	3546	6235	6124	6124	6124	6124	6018	6018	6018	6124	6018	6124	6124	6124	6124	6124	6124	6124	6124	6124	6124	6124	6124	6124	6124	6124	6124	6124	6018	6018	6018	6018	6018	6018	6018	6124	6124	6124	6235	6124	6235	6124	6235	6124	6124	6124	6124	6235	6235	6235	6235	6235	6235	6235	6235	6235	6235	6235	6235	6235	6235	6124	6124	6124	6124	6235	6235	6124	6124	6235	6235	6235	6124	6018	6018	6018	6018	6018	6124	6124	6235	6235	6235	6349	6235	6235	6235	6124	6124	6124	6018	6018	6124	6124	6124	6124	6124	6124	6235	6124	6235	6124	6124	6018	6018	6018	6124	6124	6124	6235	6235	6235	6235	6235	6124	6235	6235	6124	6124	6124	6124	6235	6124	6124	6124	6235	6235	6235	6235	6235	6235	6235	6235	6235	6235	6235	6235	6235	6235	6124	6235	6124	6235	6235	6235	6235	6235	6235	6235	6235	6235	6235	6235	6235	6235	6349	6349	6992	6468	6124	6124	6468	6235	6235	6235	6349	6349	0	0	0	6349	6349	6349	6349	6349	6349	6349	6349	6349	6349	6349	6349	6468	6349	6349	6349	6349	6349	6349	6349	6349	6349	6349	6349	6349	6349	6349	6349	6349	6349	6349	6349	6235	6235	6124	6124	6124	6124	6124	6124	6124	6124	6124	6124	6124	6124	6124	6235	6235	6235	6235	6235	6235	6235	6235	6235	6235	6235	6235	0	0	0	0	6235	6235	6235	6124	6124	6124	6124	6124	6018	6018	6124	6124	0	0	0	6018	6018	6018	0	0	6018	6018	6018	6018	6018	6018	6124	6124	0	0	0	0	0	0	0	0	0	0	0	0	0	0	0	0	0	0	0	0	0	0	0	0	0	0	0	0	0	0	0	0	0	0	0	0	0	0	0	0	0	0	0	0	0	0	0	0	0	0	0
0	0	0	910	910	915	917	920	917	925	920	927	948	955	955	0	0	0	0	0	1116	1116	1120	1120	1120	1120	1120	1120	1116	1116	1116	1116	1116	1116	1113	1113	1113	1113	1113	1116	1116	1116	1116	1116	1116	1113	1113	1113	1113	1113	1113	1113	1113	1113	1113	1113	1113	1113	1113	1113	1116	1120	1123	1127	1123	1123	1123	1236	1223	1223	1223	1223	1236	1236	1236	1236	0	0	0	0	0	2733	2733	2733	2733	2733	2733	2733	2690	2690	2711	2733	2733	2733	2754	2754	2754	2754	2777	2799	2777	2822	2822	2822	2822	2822	2822	2845	2869	2869	2845	2869	2869	2869	2869	2869	2869	2893	2893	2942	2942	0	6349	6349	6468	6468	6468	6468	6349	6349	6349	6349	6349	6349	6349	6349	6349	6349	6349	6349	6349	0	0	0	6235	6235	6235	6235	6235	6235	6124	6124	6235	6235	6124	6124	6124	6124	6124	6124	6124	6235	6235	6235	6235	6349	6349	6235	6235	6235	6235	6235	6235	6235	6235	6235	6235	6235	6235	6235	6235	6235	6235	6235	6235	6235	6235	6235	6235	6235	6235	6235	6235	6235	6235	6235	6235	6235	6235	6235	6235	6235	6235	6235	6235	6235	6235	6235	6235	6235	6349	6349	6235	6349	6349	6349	6349	6235	6349	6349	6349	6349	6349	6349	6349	6349	6349	6349	6235	6235	6235	6235	6124	6124	6124	6235	6235	6124	6235	6235	6235	6235	6235	6235	6235	6124	6124	6124	6124	6124	6124	6124	6124	6124	6124	6124	6124	6124	6124	6124	6124	6124	6124	6124	6124	6235	6235	6235	6235	6349	6349	6349	6349	6349	6349	0	0	0	0	6349	6349	6468	6468	6349	6349	6349	6349	6349	6235	6235	6235	6235	6235	6235	6235	6235	6235	6349	6349	6468	6468	6468	0	0	0	3659	3659	3621	3621	3621	3621	3583	3583	3583	3546	3546	3546	3546	3546	3546	3546	3546	3546	3546	3546	3546	3546	3510	3510	3510	6124	6124	6124	6124	6018	6018	6124	6124	6124	6124	6124	6124	6124	6124	6124	6124	6124	6124	6124	6124	6124	6018	6124	6124	6124	6124	6018	6018	6018	6018	6018	6018	6018	6124	6124	6124	6124	6124	6235	6124	6124	6124	6349	6349	6349	6349	6349	6349	6349	6235	6235	6235	6349	6235	6235	6235	6235	6235	6235	6124	6235	6124	6124	6124	6235	6124	6124	6235	6349	6235	6235	6018	6018	6124	6124	6124	6235	6235	6349	6349	6349	6349	6349	6235	6124	6124	6124	6124	6018	6018	6124	6124	6235	6124	6235	6235	6235	6235	6235	6124	6124	6018	6018	6018	6124	6124	6124	6235	6235	6235	6235	6235	6235	6349	6235	6235	6124	6124	6124	6235	6124	6124	6235	6349	6349	6349	6349	6235	6235	6235	6235	6235	6235	6235	6235	6235	6235	6124	6124	6124	6124	6235	6235	6235	6349	6235	6235	6235	6235	6235	6235	6124	6124	0	0	6992	6468	6124	6124	6468	6349	6349	6235	6349	6349	6349	6349	6349	6349	6349	6349	6349	6349	6349	6349	6349	6349	6349	6349	6468	6468	6468	6349	6349	6349	6468	6468	6349	6349	6349	6349	6349	6349	6349	6349	6349	6349	6349	6349	6349	6235	6235	6124	6124	6124	6124	6124	6124	0	0	6124	6124	6124	6124	6124	6235	6235	6235	6235	6235	6235	6349	6235	6235	6235	6235	0	0	0	0	0	6235	6235	6235	6124	6124	6124	6124	6018	6018	6018	0	0	0	0	0	0	0	0	0	0	6018	6018	6018	6018	6018	6018	6124	6124	0	0	0	0	0	0	0	0	0	0	0	0	0	0	0	0	0	0	0	0	0	0	0	0	0	0	0	0	0	0	0	0	0	0	0	0	0	0	0	0	0	0	0	0	0	0	0	0	0	0	0
0	0	0	910	913	915	917	920	917	922	922	932	950	950	955	955	958	958	0	0	966	966	966	1120	1120	1120	1120	1120	1120	1120	1116	1116	1116	1116	1113	1113	1113	1113	1109	1113	1116	1116	1116	1116	1116	1113	1113	1113	1113	1113	1113	1113	1113	1113	1113	1113	1113	1113	1113	1116	1116	1123	1123	1127	1127	1123	1123	1245	1227	1223	1223	1227	1227	1232	1232	1236	1236	0	0	0	0	2733	2733	2733	2733	2733	2733	2733	2733	2733	2754	2733	2733	2733	2754	2754	2754	2754	2754	2799	2799	2822	2822	2822	2822	2822	2822	2845	2869	2869	2845	2845	2869	2893	2869	2869	2893	2917	2942	2942	2942	0	0	6349	6468	6468	6468	6468	6349	6349	6349	6349	6349	6349	6349	6349	6349	6349	6349	6349	0	0	0	6349	6235	6235	6235	6235	6235	6235	6235	6235	6235	6235	6235	6235	6235	6235	6235	6235	6124	6235	6235	6349	6349	6349	6349	6349	6235	6235	6235	6235	6235	6235	6235	6235	6235	6235	6235	6235	6235	6235	6349	6349	6349	6349	6235	6235	6235	6235	6235	6235	6235	6349	6349	6349	6349	6235	6349	6349	6349	6349	6235	6235	6349	6235	6235	6235	6235	6349	6349	6349	6349	6349	6349	6235	6235	6235	6468	6468	6468	6468	6349	6349	6349	6349	6349	6349	6235	6235	6235	6235	6124	6124	6124	6124	6124	6124	6235	6235	6235	6235	6235	6235	6235	6235	6124	6124	6124	6124	6124	6124	6124	6124	6124	6124	6124	6124	6124	6124	6124	6124	6235	6235	6235	6235	6235	6235	6235	6235	6349	6349	6349	6349	6349	6349	0	0	0	6349	6349	6349	6349	6349	6349	6349	6349	6349	6235	6235	6235	6235	6349	6235	6235	6349	6349	6349	6349	6349	6349	6349	0	0	0	3659	3621	3621	3621	3621	3621	3621	3583	3583	3546	3546	3546	3546	3546	3546	3546	3546	3546	3546	3546	3546	3510	3510	3510	3510	6235	6124	6124	6124	6124	6124	6124	6124	6124	6124	6124	6124	6124	6124	6124	6124	6124	6124	6124	6235	6124	6124	6124	6124	6124	6124	6018	6018	6018	6018	6018	6018	6018	6124	6124	6124	6235	6235	6124	6235	6235	6349	6468	6349	6349	6349	6468	6468	6349	6349	6235	6235	6349	6235	6235	6235	6235	6235	6349	6235	6235	6235	6124	6124	6235	6124	6124	6235	6349	6349	6235	6124	6124	6235	6235	6235	6235	6349	6349	6349	6349	6349	6349	6349	6124	6124	6124	6124	6124	6124	6235	6124	6235	6235	6235	6235	6349	6349	6349	6349	6235	6235	6235	6124	6124	6124	6124	6235	6235	6235	6235	6349	6349	6349	6349	6235	6235	6235	6235	6235	6235	6349	6349	6349	6349	6349	6349	6349	6349	6235	6349	6349	6235	6235	6235	6349	6235	6235	6235	6124	6235	6235	6235	6235	6349	6235	6349	6235	6235	6235	6124	6124	6235	6235	0	0	0	0	0	6349	6349	6349	6235	6349	6349	6349	6349	6349	6349	6349	6468	6468	6349	6349	6468	6468	6349	6349	6349	6468	6468	6468	6349	6468	6468	6468	6468	6349	6349	6349	6349	6468	6468	6468	6468	6349	6349	6349	6349	6349	6235	6124	6124	6124	6018	6235	6235	6124	0	0	0	6124	6124	6124	6124	6235	6235	6235	6235	6235	6235	6349	6349	6349	6349	0	0	0	0	0	0	6124	6124	6124	6018	6124	6124	6124	6124	6124	6124	6124	0	0	0	0	0	0	0	0	0	6018	6018	6018	6124	6124	6124	6124	0	0	0	0	0	0	0	0	0	0	0	0	0	0	0	0	0	0	0	0	0	0	0	0	0	0	0	0	0	0	0	0	0	0	0	0	0	0	0	0	0	0	0	0	0	0	0	0	0	0	0	0
0	0	0	913	915	917	917	920	920	927	930	930	948	948	950	953	955	955	955	963	966	966	966	966	966	1120	1120	1120	1120	1120	1116	1116	1116	1116	1113	1113	1109	1109	1109	1113	1113	1113	1116	1116	1116	1113	1113	1113	1113	1113	1109	1109	1109	1109	1109	1109	1109	1113	1113	1113	1116	1116	1120	1123	1120	1120	1120	1223	1223	1223	1227	1227	1232	1236	1240	1240	1245	1245	1245	1245	0	0	2733	2733	2733	2733	2733	2733	2711	2711	2733	2733	2733	2754	2754	2754	2754	2754	2777	2799	2799	2799	2822	2822	2799	2822	2822	2822	2845	2845	2845	2869	2893	2917	2917	2869	2893	2917	2967	2967	2967	0	0	6349	6468	6468	6468	6468	6349	6349	6349	6349	6468	6349	6349	6349	6349	6349	6349	6235	6349	6349	6349	6349	6349	6349	6235	6235	6235	6235	6235	6124	6235	6235	6235	6235	6235	6235	6235	6235	6235	6349	6349	6349	6349	6349	6349	6349	6235	6235	6235	6235	6235	6235	6235	6235	6349	6349	6235	6235	6349	6349	6349	6349	6349	6349	6349	6235	6235	6235	6235	6349	6349	6235	6349	6349	6349	6235	6349	6349	6349	6349	6349	6235	6349	6349	6349	6349	6349	6349	6468	6349	6349	6349	6349	6349	6349	6349	6468	6468	6468	6468	6468	6349	6349	6468	6349	6349	6235	6235	6235	6235	6124	6124	6124	6124	6124	6124	6235	6235	6235	6235	6235	6235	6235	6235	6235	6124	6235	6235	6124	6124	6235	6235	6124	6124	6124	6124	6124	6124	6124	6124	6235	6235	6235	6235	6235	6235	6235	6235	6235	6349	6349	6235	6235	6235	0	0	0	6349	6349	6468	6468	6349	6349	6349	6349	6349	6235	6235	6235	6235	6349	6349	6235	6349	6349	6349	6468	6468	6468	6468	0	0	0	0	3621	3621	3621	3621	3621	3621	3583	3583	3546	3546	3546	3546	3546	3546	3546	3546	3546	3546	3546	3546	3510	3510	3510	0	6235	6235	6235	6124	6124	6124	6124	6124	6124	6124	6124	6235	6124	6235	6235	6235	6235	6124	6124	6235	6235	6124	6124	6124	6124	6124	6124	6124	6018	6124	6124	6018	6018	6124	6124	6124	6235	6235	6235	6235	6349	6235	6468	6349	6349	6349	6468	6468	6468	6349	6349	6235	6349	6235	6235	6235	6235	6235	6349	6349	6349	6349	6124	6124	6349	6235	6235	6349	6349	6349	6349	6124	6124	6235	6235	6235	6235	6235	6349	6349	6349	6349	6349	6349	6124	6124	6124	6124	6124	6124	6235	6235	6235	6235	6349	6349	6349	6468	6468	6468	6349	6349	6349	6235	6124	6124	6235	6235	6235	6235	6235	6349	6349	6349	6349	6349	6235	6349	6349	6349	6349	6349	6349	6349	6349	6349	6349	6349	6349	6235	6349	6349	6235	6235	6235	6349	6349	6235	6235	6235	6235	6235	6349	6235	6349	6235	6349	6235	6235	6235	6124	6235	6124	6124	0	0	0	0	0	6592	6349	6349	6235	6349	6349	6349	6349	6349	6349	6349	6349	6468	6349	6349	6468	6468	6349	6468	6349	6468	6592	6468	6468	6468	6468	6468	6468	6468	6468	6468	6468	6468	6468	6468	6468	6349	6468	6349	6349	6349	6235	6235	6235	6018	6235	6235	6235	0	0	0	0	0	0	0	0	0	0	0	0	0	0	6349	6349	6349	6349	6349	6235	6235	6235	0	6124	6124	6124	6124	6124	6124	6124	6124	6124	6235	6235	6235	0	0	0	0	0	0	0	0	0	6018	6018	6018	6124	6124	6235	6235	6235	0	0	0	0	0	0	0	0	0	0	0	0	0	0	0	0	0	0	0	0	0	0	0	0	0	0	0	0	0	0	0	0	0	0	0	0	0	0	0	0	0	0	0	0	0	0	0	0	0	0	0
0	0	0	915	915	917	917	920	922	930	932	937	945	948	948	953	955	955	958	963	966	966	966	966	966	966	966	1120	1120	1120	1116	1116	1116	1116	1113	1113	1109	1109	1109	1113	1113	1113	1113	1116	1116	1113	1109	1109	1109	1109	1109	1105	1105	1109	1109	1109	1109	1105	1113	1113	1116	1116	1116	1116	1120	1120	1120	1223	1223	1223	1227	1232	1236	1236	1240	1240	1245	1249	1245	1245	0	0	0	0	0	2711	2711	2711	2711	2733	2733	2733	2733	2754	2754	2754	2754	2754	2777	2777	2799	2799	2822	2822	2822	2822	2822	2822	2845	2845	2869	2845	2893	2893	2869	2893	2893	2917	2967	2942	2942	2942	0	6349	6349	6468	6468	6468	6349	6349	6349	6349	6468	6468	6349	6349	6349	6349	6349	6349	6349	6349	6349	6349	6349	6349	6349	6235	6235	6235	6235	6235	6235	6235	6235	6349	6349	6349	6349	6235	6235	6349	6349	6349	6349	6349	6349	6349	6349	6349	6349	6349	6235	6235	6235	6349	6349	6349	6349	6349	6349	6349	6349	6349	6349	6349	6349	6349	6235	6235	6349	6349	6349	6349	6349	6349	6349	6349	6349	6349	6349	6349	6349	6349	6349	6349	6349	6349	6349	6349	6349	6349	6349	6349	6349	6349	6349	6349	6468	6468	6468	6468	6468	6468	6468	6468	6349	6468	6468	6235	6235	6235	6235	6235	6235	6235	6124	6124	6235	6235	6235	6235	6235	6235	6235	6235	6235	6235	6235	6235	6235	6235	6235	6235	6235	6235	6235	6235	6235	6235	6235	6235	6235	6235	6235	6235	6235	6235	6235	6349	6349	6349	6349	6349	6235	6235	0	0	0	6235	6235	6349	6349	6349	6235	6349	6349	6468	6349	6349	6349	6349	6349	6349	6349	6349	6349	6468	6468	6592	6592	6592	6720	6720	0	3621	3621	3621	3621	3621	3621	3583	3583	3583	3546	3546	3546	3546	3546	3546	3546	3546	3546	3546	3546	3546	3475	3475	3475	0	6349	6235	6235	6124	6124	6235	6235	6235	6235	6235	6235	6235	6235	6235	6349	6235	6349	6235	6235	6349	6349	6235	6235	6235	6235	6124	6124	6124	6124	6124	6124	6124	6124	6124	6235	6235	6235	6235	6349	6349	6349	6349	6468	6349	6468	6349	6468	6468	6468	6349	6349	6349	6349	6349	6235	6349	6235	6468	6468	6468	6468	6468	6468	6468	6468	6235	6235	6349	6468	6468	6349	6235	6235	6235	6235	6235	6235	6349	6349	6349	6349	6349	6349	6349	6349	6124	6124	6124	6124	6124	6235	6235	6349	6349	6349	6349	6468	6468	6468	6468	6349	6349	6349	6349	6235	6235	6349	6349	6349	6349	6349	6349	6349	6349	6349	6349	6349	6349	6349	6235	6349	6349	6349	6349	6349	6349	6349	6349	6349	6349	6349	6349	6349	6349	6349	6349	6349	6349	6349	6235	6349	6349	6349	6349	6349	6349	6349	6349	6235	6235	6235	6124	6124	6124	6124	0	0	0	0	6592	6468	6468	6349	6349	6349	6349	6349	6349	6349	6349	6349	6349	6349	6349	6349	6349	6349	6468	6468	6592	6592	6468	6468	6468	6592	6592	6592	6592	6592	6468	6468	6349	6349	6468	6468	6349	6349	6349	6349	6349	6349	6235	6235	6018	6235	6235	0	0	0	0	0	0	0	0	0	0	0	0	0	0	0	6349	6349	6349	6349	6349	6349	6235	6235	6235	6235	6235	6124	6124	6124	6124	6124	6124	6124	6235	6235	6235	6235	0	0	0	0	0	0	0	0	6018	6018	6018	6124	6124	6235	6235	6235	0	0	0	0	0	0	0	0	0	0	0	0	0	0	0	0	0	0	0	0	0	0	0	0	0	0	0	0	0	0	0	0	0	0	0	0	0	0	0	0	0	0	0	0	0	0	0	0	0	0	0
0	0	0	915	917	917	917	920	925	930	932	940	945	945	948	950	953	955	955	961	963	966	966	966	966	969	969	969	1120	1120	1116	1116	1116	1116	1113	1113	1109	1113	1109	1113	1113	1109	1113	1113	1116	1113	1109	1109	1109	1109	1105	1105	1102	1105	1105	1109	1105	1113	1113	1113	1113	1113	1116	1116	1116	1116	1116	1223	1223	1227	1227	1236	1236	1240	1240	1245	1245	1249	1249	1249	0	0	0	0	0	2711	2711	2711	2711	2733	2733	2733	2733	2754	2754	2754	2754	2799	2799	2799	2799	2822	2822	2822	2822	2822	2822	2822	2845	2845	2869	2869	2893	2893	2869	2869	2893	2917	2942	2942	2942	2942	0	6349	6349	6468	6468	6468	6349	6349	6349	6349	6468	6468	6349	6349	6349	6349	6349	6349	6349	6468	6349	6349	6349	6349	6349	6349	6349	6349	6349	6235	6235	6235	6235	6349	6349	6349	6235	6235	6235	6235	6349	6349	6349	6349	6349	6349	6349	6349	6349	6349	6235	6349	6235	6349	6349	6468	6349	6349	6349	6349	6349	6349	6349	6349	6349	6349	6235	6349	6349	6349	6349	6349	6349	6349	6349	6349	6349	6349	6349	6468	6349	6349	6349	6349	6349	6349	6349	6349	6468	6349	6349	6349	6468	6468	6468	6468	6468	6468	6468	6349	6349	6349	6468	6349	6349	6349	6468	6349	6349	6235	6349	6349	6349	6349	6235	6235	6235	6235	6235	6235	6235	6235	6235	6235	6235	6235	6235	6235	6235	6235	6235	6235	6235	6235	6235	6235	6235	6235	6235	6235	6235	6235	6235	6235	6235	6235	6349	6349	6349	6349	6349	6349	0	0	0	0	0	6235	6235	6349	6349	6235	6235	6235	6349	6468	6468	6349	6349	6349	6349	6349	6349	6468	6468	6468	6468	6592	6592	6592	6592	6592	3621	3621	3621	3621	3621	3583	3583	3583	3583	3583	3546	3546	3546	3546	3546	3546	3546	3546	3546	3546	3546	3510	3440	3440	3440	0	6592	6349	6235	6235	6235	6235	6235	6235	6235	6349	6349	6235	6235	6235	6235	6235	6349	6235	6235	6349	6468	6349	6349	6349	6349	6235	6235	6235	6124	6124	6124	6124	6124	6235	6235	6235	6349	6349	6349	6349	6349	6468	6468	6349	6349	6349	6468	6468	6468	6349	6349	6349	6349	6349	6349	6349	6349	6468	6468	6468	6468	6468	6468	6468	6468	6349	6349	6349	6468	6468	6349	6235	6235	6235	6235	6124	6235	6235	6349	6349	6349	6349	6349	6349	6349	6235	6235	6124	6124	6124	6235	6235	6349	6349	6468	6468	6468	6592	6468	6468	6468	6468	6349	6349	6235	6235	6349	6349	6349	6349	6349	6349	6349	6349	6468	6349	6349	6349	6349	6235	6349	6349	6349	6349	6349	6349	6349	6349	6349	6349	6349	6349	6349	6349	6349	6349	6349	6349	6349	6349	6349	6349	6349	6349	6349	6349	6349	6349	6349	6235	6349	6349	6235	6124	6124	6349	6349	0	0	6468	6468	6468	6349	6349	6349	6349	6349	6349	6349	6349	6349	6349	6349	6468	6468	6468	6349	6468	6468	6592	6592	6592	6468	6468	6592	6592	6592	6592	6592	6592	6720	6468	6349	6349	6468	6349	6349	6349	6349	6349	6349	6349	6349	0	0	0	0	0	0	0	0	0	0	6349	6349	6349	6349	6349	0	0	0	6349	6349	6235	6235	6349	6235	6235	6235	6235	6235	6235	6235	6235	6124	6124	6124	6018	6018	6124	6124	6124	6124	0	0	0	0	0	0	0	0	6018	6018	6018	6124	6124	6235	6235	6235	0	0	0	0	0	0	0	0	0	0	0	0	0	0	0	0	0	0	0	0	0	0	0	0	0	0	0	0	0	0	0	0	0	0	0	0	0	0	0	0	0	0	0	0	0	0	0	0	0	0	0
0	0	0	915	915	917	917	922	925	930	932	937	945	945	948	950	953	955	958	963	966	966	966	966	969	972	972	972	0	1120	1120	1116	1116	1116	1113	1109	1109	1109	1109	1113	1113	1109	1113	1113	1116	1109	1109	1113	1113	1113	1109	1109	1102	1109	1109	1105	1105	1105	1102	1105	1116	1113	1116	1120	1120	1120	1120	1223	1223	1227	1227	1232	1236	1236	1240	1240	1245	1249	1249	1249	0	0	0	0	0	2711	2711	2711	2711	2733	2733	2733	2733	2733	2754	2754	2754	2777	2777	2777	2799	2799	2822	2822	2799	2799	2822	2822	2845	2845	2869	2869	2893	2893	2893	2893	2917	2917	2942	2917	2917	2917	0	6349	6349	6468	6468	6468	6468	6468	6468	6349	6468	6349	6349	6349	6349	6349	6349	6349	6468	6468	6349	6468	6349	6349	6349	6349	6349	6349	6349	6235	6235	6235	6235	6349	6349	6349	6349	6349	6349	6349	6349	6349	6349	6349	6349	6349	6349	6349	6349	6349	6235	6349	6349	6349	6349	6235	6235	6349	6349	6468	6468	6349	6349	6349	6349	6349	6349	6349	6349	6349	6349	6349	6349	6468	6349	6349	6349	6349	6468	6468	6349	6349	6349	6349	6349	6349	6349	6349	6349	6349	6349	6349	6468	6468	6468	6468	6468	6592	6468	6468	6468	6468	6468	6468	6468	6468	6468	6349	6349	6349	6349	6235	6349	6235	6235	6235	6235	6235	6349	6235	6235	6235	6235	6349	6349	6349	6349	6349	6349	6349	6235	6235	6235	6235	6235	6235	6235	6235	6235	6349	6349	6349	6349	6235	6349	6349	6349	6349	6349	6349	6349	6349	0	0	0	0	0	6235	6235	6349	6349	6349	6235	6349	6349	6468	6468	6349	6349	6468	6468	6468	6468	6468	6468	6468	6592	6592	6592	6592	6592	6592	3583	3621	3621	3621	3621	3621	3621	3583	3583	3583	3546	3583	3546	3546	3583	3546	3546	3546	3546	3546	3546	3510	3440	3406	3406	3406	6592	6349	6235	6124	6235	6349	6349	6349	6349	6349	6349	6349	6349	6349	6349	6349	6235	6235	6235	6349	6468	6468	6468	6468	6349	6349	6349	6349	6235	6235	6124	6124	6124	6124	6235	6235	6349	6349	6349	6349	6349	6468	6468	6235	6468	6468	6468	6468	6468	6468	6349	6349	6349	6349	6349	6349	6468	6468	6468	6468	6468	6468	6468	6468	6349	6349	6349	6468	6468	6468	6349	6235	6235	6235	6235	6235	6235	6235	6349	6349	6349	6349	6349	6349	6349	6349	6235	6235	6235	6235	6235	6349	6349	6349	6468	6468	6468	6592	6468	6468	6468	6349	6349	6349	6235	6235	6349	6468	6349	6349	6349	6468	6349	6349	6468	6349	6349	6349	6349	6235	6235	6235	6349	6349	6349	6349	6468	6349	6349	6349	6349	6349	6349	6349	6349	6349	6468	6349	6349	6349	6349	6349	6349	6349	6468	6468	6468	6468	6468	6349	6349	6349	6235	6235	6235	6349	6468	6468	0	6592	6468	6592	6468	6468	6349	6349	6349	6349	6349	6468	6468	6349	6349	6468	6468	6468	6468	6592	6592	6592	6592	6592	6592	6592	6592	6592	6720	6720	6720	6720	6720	6592	6592	6468	6349	6349	6349	6349	6349	6349	6349	6349	6349	0	0	0	0	0	0	0	0	0	6468	6349	6349	6349	6349	6349	0	0	0	6349	6349	6349	6235	6349	6235	6235	6235	6235	6235	6235	6235	6235	6124	6124	6124	6018	6018	6124	6124	6235	6235	0	0	0	0	0	0	0	0	5915	6018	5915	6018	6018	6235	6235	6235	0	0	0	0	0	0	0	0	0	0	0	0	0	0	0	0	0	0	0	0	0	0	0	0	0	0	0	0	0	0	0	0	0	0	0	0	0	0	0	0	0	0	0	0	0	0	0	0	0	0	0
0	0	0	915	915	917	917	922	925	927	930	937	945	948	948	955	955	955	958	963	966	966	966	966	969	969	969	969	0	1123	1123	1116	1116	1116	1113	1113	1113	1113	1113	1113	1113	1109	1113	1113	1116	1109	1109	1109	1113	1109	1109	1109	1109	1109	1109	1109	1105	1105	1105	1105	1116	1113	1113	1120	1120	1120	1120	1223	1227	1236	1232	1232	1236	1236	1240	1240	1245	1249	1249	1249	0	0	0	0	0	2711	2711	2733	2733	2733	2733	2733	2733	2754	2754	2754	2754	2777	2777	2777	2799	2799	2822	2822	2822	2799	2822	2822	2845	2845	2869	2869	2893	2893	2893	2893	2917	2917	2917	2893	2893	2917	0	6124	6349	6349	6468	6468	6468	6468	6468	6468	6468	6468	6468	6349	6349	6349	6349	6349	6468	6468	6349	6349	6349	6349	6349	6349	6349	6349	6349	6349	6349	6349	6468	6468	6468	6349	6349	6349	6349	6349	6349	6349	6349	6468	6349	6349	6349	6349	6349	6349	6235	6349	6349	6349	6349	6235	6349	6349	6349	6349	6235	6349	6349	6349	6349	6349	6349	6349	6349	6349	6468	6349	6349	6349	6349	6349	6349	6349	6349	6468	6349	6349	6349	6349	6349	6349	6349	6349	6468	6349	6349	6349	6349	6349	6468	6468	6468	6468	6468	6468	6468	6468	6468	6468	6468	6468	6468	6349	6349	6349	6349	6235	6235	6235	6235	6235	6349	6235	6349	6349	6235	6349	6235	6349	6235	6349	6349	6349	6349	6349	6349	6349	6235	6349	6349	6349	6349	6349	6349	6468	6468	6349	6349	6349	6349	6349	6349	6349	6349	6349	6468	6468	6235	6235	6349	6349	6235	6235	6235	6349	6349	6349	6349	6349	6349	6468	6468	6349	6468	6468	6468	6468	6468	6468	6468	6468	6468	6592	6592	6592	6592	6592	6720	3659	3621	3621	3621	3621	3583	3583	3583	3583	3546	3546	3546	3546	3546	3546	3546	3546	3546	3546	3546	3546	3440	3406	3406	3406	6349	6349	6349	6235	6235	6349	6349	6349	6349	6468	6349	6349	6349	6349	6349	6349	6349	6349	6349	6349	6468	6468	6468	6349	6468	6349	6468	6349	6349	6235	6124	6124	6124	6124	6124	6235	6349	6349	6349	6349	6468	6468	6468	6235	6468	6468	6468	6468	6468	6468	6349	6349	6349	6349	6349	6349	6468	6468	6468	6468	6468	6468	6468	6468	6349	6349	6349	6349	6349	6468	6349	6349	6235	6235	6349	6235	6349	6349	6349	6349	6349	6349	6349	6349	6349	6349	6349	6349	6349	6349	6349	6349	6349	6349	6468	6468	6468	6468	6468	6468	6468	6349	6349	6349	6349	6349	6349	6468	6468	6468	6468	6468	6468	6468	6468	6468	6468	6349	6349	6349	6349	6349	6235	6349	6468	6468	6468	6349	6349	6349	6349	6349	6349	6349	6349	6468	6468	6349	6349	6349	6468	6468	6349	6349	6349	6349	6468	6468	6468	6468	6468	6468	6349	6349	6349	6349	6468	6468	6349	6349	6468	6468	6468	6468	6349	6349	6349	6349	6349	6468	6468	6468	6349	6349	6349	6349	6349	6592	6592	6592	6592	6592	6592	6592	6592	6592	6720	6720	6720	6720	6720	6468	6592	6468	6468	6349	6468	6349	6349	6468	6349	6349	6349	0	0	0	0	0	0	6349	6349	6349	6468	6592	6468	6468	6349	0	0	0	0	0	6349	6349	6235	6349	6235	6235	6235	6235	6235	6349	6235	6235	6235	6235	6235	6235	6235	6235	6235	6235	6235	0	0	0	0	0	0	0	0	5915	5915	5915	6018	6018	0	0	0	0	0	0	0	0	0	0	0	0	0	0	0	0	0	0	0	0	0	0	0	0	0	0	0	0	0	0	0	0	0	0	0	0	0	0	0	0	0	0	0	0	0	0	0	0	0	0	0	0	0	0
0	0	0	915	917	917	920	925	927	932	932	937	940	945	948	955	955	958	961	963	966	966	966	966	969	969	972	972	0	1120	1120	1116	1116	1113	1113	1113	1109	1113	1113	1113	1113	1109	1113	1113	1116	1109	1109	1109	1109	1109	1109	1109	1102	1113	1113	1113	1109	1109	1105	1105	1113	1109	1105	1113	1116	1116	0	0	1227	1236	1236	1236	1240	1240	1240	1240	1245	1249	1249	1249	1249	0	0	0	0	2711	2711	2733	2733	2733	2733	2754	2754	2754	2754	2754	2754	2754	2777	2777	2777	2777	2822	2799	2822	2822	2822	2822	2845	2845	2869	2893	2893	2893	2893	2893	2917	2917	2917	2893	2893	2893	0	6124	6349	6468	6468	6468	6468	6468	6468	6468	6468	6468	6468	6468	6468	6349	6349	6349	6468	6468	6349	6349	6468	6468	6468	6349	6468	6349	6468	6468	6349	6468	6468	6592	6468	6468	6468	6468	6468	6468	6468	6468	6468	6468	6468	6349	6349	6468	6468	6468	6349	6468	6349	6468	6349	6349	6349	6349	6349	6235	6235	6349	6349	6349	6235	6235	6349	6349	6349	6349	6468	6468	6468	6468	6468	6468	6468	6592	6468	6468	6468	6349	6349	6349	6468	6349	6468	6468	6349	6349	6468	6349	6349	6349	6468	6468	6468	6468	6349	6468	6468	6349	6468	6468	6468	6468	6468	6349	6349	6349	6349	6349	6468	6349	6349	6349	6349	6349	6349	6349	6235	6235	6235	6235	6235	6349	6349	6349	6468	6468	6468	6349	6349	6349	6349	6349	6349	6349	6468	6468	6468	6468	6349	6349	6349	6349	6349	6349	6468	6349	6468	6468	6349	6235	6349	6349	6235	6235	6349	6349	6468	6349	6349	6349	6468	6468	6468	6468	6592	6468	6468	6468	6468	6468	6468	6468	6468	6592	6592	6592	6592	6592	6720	3659	3659	3621	3621	3621	3621	3621	3621	3583	3546	3546	3546	3546	3546	3546	3546	3546	3546	3546	3546	3546	3546	3510	3510	0	6468	6349	6349	6235	6349	6349	6349	6349	6349	6468	6349	6468	6349	6349	6349	6349	6349	6349	6349	6349	6349	6468	6349	6468	6468	6468	6468	6468	6349	6349	6349	6235	6235	6235	6235	6235	6349	6349	6349	6468	6468	6468	6468	6468	6468	6468	6468	6468	6468	6468	6468	6349	6349	6349	6349	6349	6468	6468	6468	6468	6468	6468	6468	6468	6468	6468	6468	6349	6349	6468	6349	6349	6235	6235	6235	6235	6349	6349	6349	6349	6349	6349	6349	6349	6349	6349	6349	6349	6349	6349	6349	6349	6349	6349	6349	6468	6468	6468	6468	6468	6468	6468	6349	6349	6349	6349	6468	6468	6468	6468	6468	6468	6468	6468	6468	6468	6468	6468	6468	6349	6349	6349	6349	6349	6349	6468	6468	6468	6349	6349	6468	6468	6468	6468	6468	6468	6468	6468	6468	6468	6468	6468	6468	6349	6349	6468	6468	6592	6468	6468	6468	6468	6468	6468	6349	6468	6468	6592	6468	6468	6468	6468	6468	6468	6468	6468	6349	6349	6349	6468	6468	6468	6349	6349	6349	6720	6349	6468	6592	6592	6592	6592	6592	6592	6720	6720	6720	6720	6720	6720	6720	6468	6468	6468	6468	6468	6468	6468	6349	6468	6468	6468	6468	0	0	0	0	0	0	6349	6468	6468	6592	6592	6468	6592	6592	6592	0	6468	6468	0	6349	6349	6349	6349	6349	6349	6349	6349	6349	6349	6235	6235	6349	6349	6349	6349	6349	6349	6349	6349	6235	0	0	0	0	0	0	0	0	5915	5915	0	0	0	0	0	0	0	0	0	0	0	0	0	0	0	0	0	0	0	0	0	0	0	0	0	0	0	0	0	0	0	0	0	0	0	0	0	0	0	0	0	0	0	0	0	0	0	0	0	0	0	0	0	0	0	0	0
0	0	0	917	917	920	925	930	927	932	935	937	940	945	948	953	955	958	961	963	966	966	966	969	969	972	972	972	974	974	1120	1116	1116	1113	1109	1109	1109	1109	1113	1113	1109	1109	1113	1109	1109	1109	1105	1105	1105	1105	1102	1109	1102	1113	1113	1109	1105	1105	1102	1102	1105	1105	1102	1105	1113	1113	1113	0	1240	1240	1240	1240	1240	1240	1240	1245	1249	1254	1254	1259	1263	1263	0	0	0	0	2711	2711	2733	2733	2733	2754	2733	2754	2754	2754	2754	2754	2754	2777	2777	2777	2799	2822	2822	2822	2845	2822	2845	2845	2869	2893	2869	2893	2893	2893	2917	2917	2917	2893	2893	2893	0	0	6349	6349	6468	6468	6468	6468	6468	6468	6592	6592	6592	6592	6468	6468	6468	6468	6468	6468	6349	6468	6468	6468	6468	6468	6468	6468	6468	6468	6468	6468	6468	6592	6592	6468	6468	6592	6592	6592	6592	6468	6468	6468	6468	6349	6349	6468	6468	6468	6349	6349	6468	6468	6349	6349	6349	6349	6349	6349	6235	6235	6349	6349	6349	6235	6349	6349	6349	6468	6468	6592	6468	6592	6592	6592	6592	6592	6592	6592	6468	6468	6468	6349	6468	6468	6468	6468	6468	6468	6468	6349	6349	6468	6468	6468	6468	6468	6349	6468	6468	6349	6349	6349	6349	6349	6468	6349	6468	6592	6592	6592	6592	6468	6468	6468	6349	6349	6349	6349	6235	6235	6235	6235	6235	6349	6349	6349	6468	6468	6349	6349	6349	6349	6468	6468	6468	6468	6468	6468	6468	6468	6349	6468	6349	6468	6349	6468	6468	6468	6468	6592	6468	6349	6349	6349	6349	6349	6349	6468	6468	6468	6468	6468	6468	6468	6468	6592	6592	6468	6468	6468	6468	6468	6468	6468	6592	6592	6592	6592	6592	6592	6720	3659	3659	3621	3621	3621	3621	3583	3583	3583	3546	3546	3546	3546	3546	3546	3546	3546	3583	3546	3583	3583	3583	3583	3583	6468	6468	6468	6349	6349	6349	6349	6349	6468	6468	6468	6468	6468	6468	6349	6468	6349	6349	6349	6349	6349	6468	6468	6468	6468	6468	6468	6468	6468	6349	6349	6349	6349	6349	6235	6235	6349	6349	6349	6349	6349	6468	6468	6468	6468	6468	6468	6468	6468	6468	6468	6468	6349	6349	6349	6349	6349	6468	6468	6468	6592	6592	6468	6468	6468	6468	6468	6468	6468	6468	6468	6468	6349	6349	6235	6235	6349	6349	6349	6349	6349	6349	6349	6349	6349	6349	6349	6349	6349	6349	6349	6349	6349	6349	6349	6349	6349	6468	6468	6468	6468	6468	6468	6468	6349	6468	6468	6468	6468	6468	6468	6468	6468	6468	6468	6468	6468	6468	6468	6468	6349	6349	6349	6349	6349	6349	6349	6468	6468	6349	6349	6468	6468	6468	6468	6468	6468	6468	6468	6468	6349	6349	6468	6349	6349	6349	6468	6468	6592	6468	6468	6468	6468	6468	6468	6468	6468	6592	6592	6468	6592	6468	6468	6468	6468	6468	6468	6468	6349	6468	6592	6468	6468	6349	6349	6349	6349	6349	6592	6592	6592	6592	6592	6592	6592	6720	6720	6720	6720	6720	6720	6592	6468	6468	6468	6468	6468	6468	6468	6468	6592	6592	6592	6720	6720	6720	0	0	0	0	6468	6468	6468	6468	6468	6468	6468	6468	6468	6468	6468	6468	6468	6468	6468	6468	6468	6468	6349	6349	6468	6349	6349	6349	6349	6349	6349	6349	6349	6349	6349	6468	6349	0	0	0	0	0	0	0	0	0	0	0	0	0	0	0	0	0	0	0	0	0	0	0	0	0	0	0	0	0	0	0	0	0	0	0	0	0	0	0	0	0	0	0	0	0	0	0	0	0	0	0	0	0	0	0	0	0	0	0	0	0	0	0	0	0	0	0	0
0	0	0	917	917	920	925	927	927	932	935	937	940	945	948	955	955	958	961	963	966	966	966	969	972	974	974	974	974	974	0	0	0	0	1109	1109	1109	1113	1113	1113	1113	1105	1113	1109	1109	1109	1105	1109	1109	1109	1105	1109	1109	1109	1109	1105	1105	1105	1102	1102	1105	1105	1102	1105	1109	1109	1109	0	1240	1240	1240	1240	1240	1240	1245	1245	1249	1249	1254	1259	1259	1263	1263	0	0	0	2669	2669	2733	2733	2733	2754	2733	2754	2754	2754	2754	2754	2754	2754	2777	2799	2822	2822	2822	2822	2845	2845	2845	2869	2869	2893	2893	2893	2893	2893	2917	2917	2917	2917	2893	2893	0	0	6720	6720	6720	6592	6592	6592	6592	6592	6592	6592	6592	6592	6592	6592	6468	6592	6592	6468	6468	6468	6592	6592	6592	6592	6592	6592	6592	6592	6468	6468	6468	6592	6592	6592	6592	6592	6592	6592	6592	6468	6468	6468	6468	6468	6468	6592	6592	6592	6468	6720	6592	6592	6468	6349	6349	6349	6349	6349	6349	6349	6349	6349	6349	6349	6349	6349	6592	6592	6592	6592	6592	6592	6592	6720	6592	6592	6592	6592	6592	6468	6468	6468	6468	6468	6468	6468	6468	6468	6468	6468	6349	6468	6468	6468	6468	6592	6592	6468	6468	6468	6349	6468	6468	6468	6468	6349	6349	6592	6592	6592	6468	6468	6468	6468	6349	6349	6349	6235	6235	6235	6235	6235	6468	6468	6468	6468	6468	6468	6468	6349	6349	6468	6468	6592	6468	6468	6468	6468	6468	6468	6349	6468	6349	6468	6468	6592	6592	6592	6592	6592	6592	6592	6468	6468	6468	6349	6468	6468	6468	6468	6468	6468	6468	6592	6592	6468	6468	6468	6468	6592	6592	6468	6468	6468	6468	6592	6592	6592	6468	6468	6592	3698	3659	3659	3621	3621	3621	3621	3583	3583	3546	3546	3546	3546	3546	3546	3546	3583	3583	3583	3583	3583	3583	3583	3621	3621	6468	6468	6468	6349	6349	6468	6468	6468	6349	6468	6468	6468	6349	6349	6349	6349	6468	6468	6468	6468	6468	6468	6468	6468	6468	6468	6468	6468	6468	6349	6349	6349	6349	6235	6349	6349	6349	6349	6349	6349	6468	6468	6468	6468	6468	6468	6468	6468	6592	6592	6592	6468	6468	6468	6468	6468	6468	6468	6468	6592	6592	6592	6592	6592	6468	6468	6468	6468	6468	6468	6468	6349	6349	6349	6349	6349	6349	6349	6349	6349	6468	6349	6349	6349	6349	6349	6349	6349	6349	6349	6349	6349	6349	6349	6349	6349	6349	6468	6468	6468	6468	6468	6468	6468	6468	6468	6468	6468	6468	6468	6468	6468	6468	6468	6468	6468	6468	6468	6468	6349	6349	6349	6349	6349	6349	6349	6468	6468	6468	6468	6468	6468	6468	6468	6468	6468	6592	6592	6468	6349	6468	6468	6349	6349	6349	0	6592	6592	6468	6592	6468	6592	6468	6468	6592	6592	6592	6720	6592	6592	6592	6592	6592	6592	6592	6468	6468	6349	6468	6592	6592	6592	6468	6592	6592	6349	6349	6349	6592	6720	6592	6720	6592	6720	6720	6720	6720	6720	6720	6720	6592	6349	6468	6468	6468	6468	6468	6468	6468	6592	6592	6592	6592	6720	6720	6720	6720	6720	0	6468	6468	6468	6468	6468	6468	6468	6592	6592	6468	6592	6592	6720	6592	6592	6592	6592	6592	6592	6592	6592	6592	6592	6468	6468	6468	6468	6468	6468	6349	6349	6468	0	0	0	0	0	0	0	0	0	0	0	0	0	0	0	0	0	0	0	0	0	0	0	0	0	0	0	0	0	0	0	0	0	0	0	0	0	0	0	0	0	0	0	0	0	0	0	0	0	0	0	0	0	0	0	0	0	0	0	0	0	0	0	0	0	0	0	0	0
