0	0	0	0	0	0	0	0	0	0	0	1185	1181	1185	1185	1193	1189	1185	1185	1181	1181	1181	1181	1181	1181	0	0	0	1177	1177	1181	1181	1177	1177	1173	1173	1173	1173	0	0	0	0	0	0	0	1177	1173	1173	1177	1177	1185	1185	1189	1189	1189	1193	1193	1193	1189	1189	1185	1181	1181	1177	1177	1177	1181	1181	1185	1189	1193	1197	1202	1206	1206	1210	1214	1214	1214	1219	1219	0	1681	1681	1681	1681	1681	1681	1681	1690	1690	1690	1690	1690	1690	1690	1690	1698	1698	0	0	0	0	5815	5815	6018	6018	6018	6018	6018	6018	6124	6124	6124	6124	6124	6124	6124	6124	6124	6235	6124	6124	6124	6124	6018	5915	5915	5815	5915	5815	5815	5719	5815	5815	5915	5915	5915	5915	6018	6018	6018	6018	6018	6018	6018	6124	6018	6124	6124	6124	6124	6124	6124	6124	6124	6124	6124	6124	6018	6018	6018	6018	5915	5915	6018	6018	6018	6018	5915	5915	5915	5915	5915	5915	5915	6018	6018	6018	6018	6018	6018	6018	6018	6018	6124	6124	6124	6018	5915	5915	6018	6018	6018	6018	6018	6018	6018	6018	6124	6124	6124	6124	6235	6235	6124	6124	6124	6124	6018	6018	6018	6018	6018	0	0	0	0	0	3698	3698	3738	3738	3738	3779	3779	3698	3698	0	0	0	5815	5915	5915	5915	5915	5915	5915	6018	6018	5915	5915	5915	5915	5915	5915	5915	5915	5915	5915	5915	5915	6018	6018	5915	5915	5915	5915	5915	5915	5915	6018	6124	6124	6124	6124	6124	6124	6124	6124	6124	6124	6124	6124	6018	6018	6018	6018	0	0	0	0	0	0	6124	6124	6124	6124	6124	6018	6018	6018	6018	6018	5915	5915	5915	5915	6018	5915	5915	6018	6018	6018	6018	6018	6018	5915	5915	5915	5915	5915	5815	5815	6018	6018	6018	6018	6018	6018	6018	6018	6018	6018	6018	6018	5915	5915	5915	5915	5915	5915	5915	5915	5915	5815	5915	5915	5915	5915	5915	6018	6018	6018	6018	6018	6018	6018	6018	6018	5915	6018	6018	6018	6018	6018	6018	6124	6124	6018	6018	6018	5915	5915	5915	5915	5915	6018	6018	6018	6018	6018	6018	6018	6018	6018	6018	6018	6018	6018	6018	6018	6018	6018	6018	5915	6018	6018	5915	5915	5915	5915	5915	5915	5915	5915	5915	5915	5915	5915	5915	5915	5915	5915	5915	5915	5915	5915	5915	5915	5915	5915	5915	5915	5915	5915	6018	6018	6018	6018	6018	6018	6018	6018	6124	6124	6124	6124	6124	6124	6018	6018	6018	6018	6018	6018	6018	6018	6018	6018	6018	6018	6018	6018	6018	6018	6018	6018	5915	5915	5915	5915	5915	5915	5626	0	0	0	0	0	6124	6124	0	6018	6349	6124	6124	6124	0	0	0	0	0	0	6124	6124	6124	6124	6124	6124	6124	6124	6235	6235	6124	6124	6235	6124	6124	6124	6124	6124	6124	6124	6124	6018	6018	6018	6018	6018	6124	6124	6124	6124	6235	6235	6235	6235	6124	6124	6124	6018	6018	6018	6018	6018	6018	6018	6018	6018	6018	6018	6124	6124	5626	5626	0	0	0	0	0	0	2570	2551	2551	2532	2532	2514	2496	2496	2478	2478	2460	2460	2443	2443	2426	2409	2392	2392	2376	2359	2359	2343	2343	2327	2327	2312	2297	2281	2281	2266	2237	2223	2223	2208	2194	2194	2194	2181	2167	2167	2153	2153	2127	2114	2101	2114	2114	2114	0	0	0	0	0	0	0	0	0	0	0	0	0	0	0	0	0	0	0	0	0	0	0	0	0	0	0	0	0	0	0	0	0	0	0	0	0	0	0	0	0	0	0	0	0	0	0	0	0	0	0	0	0	0	0	0	0	0	0	0
0	0	0	0	0	0	0	0	0	0	0	1189	1185	1185	1185	1193	1189	1185	1181	1181	1181	1181	1181	1181	1181	0	0	0	1177	1177	1181	1181	1177	1173	1173	1173	1173	1173	0	0	0	0	0	0	0	1177	1181	1181	1181	1181	1181	1185	1189	1189	1189	1193	1193	1193	1193	1189	1189	1189	1181	1181	1181	1181	1185	1185	1189	1193	1197	1202	1202	1206	1206	1210	1214	1214	1214	1219	1219	0	0	1681	1681	1681	1681	1681	1681	1690	1690	1690	1681	1690	1690	1690	1690	1690	1690	0	0	0	0	5815	5815	6018	6018	6018	6018	6018	6018	6124	6124	6124	6124	6124	6124	6124	6124	6124	6235	6124	6124	6124	6124	6018	6018	5915	5915	5915	5915	5915	5915	5915	5815	5915	5915	5915	5815	5915	5915	6018	6018	5915	5915	6018	6018	6018	6124	6124	6124	6124	6124	6124	6124	6124	6124	6124	6124	6018	6018	6018	6018	5915	6018	6018	6018	6018	6018	6018	5915	5915	6124	5915	5915	6018	6018	6018	6018	6018	6018	6124	6124	6124	6124	6235	6235	6235	6124	6018	6018	6018	6018	6018	6018	6018	6018	6018	6018	6018	6124	6124	6124	6235	6235	6235	6235	6235	6235	0	0	0	0	0	0	0	0	0	3698	3698	3698	3698	3698	3698	3698	3698	3698	3698	3698	0	0	0	0	5915	5915	5915	5915	5915	6018	6018	5815	5815	5915	5915	6018	5915	5915	5915	6018	6124	6124	6124	6124	6018	5915	5915	5915	5915	5915	6018	6018	6018	6124	6124	6124	6124	6124	6235	6124	6124	6124	6124	6124	6124	6018	6018	5915	5915	0	0	0	0	0	0	6124	6124	6124	6124	6124	6018	6018	6018	6018	6018	5915	6018	5915	6018	6018	5915	5915	6018	6018	6018	6018	6018	5915	5915	5915	5915	5915	5915	5915	5815	6018	6018	6018	6018	6018	6124	6124	6124	6018	6018	6018	6018	6018	6018	6018	6018	6018	6018	6018	6018	5915	5915	5915	5915	5915	5915	5915	5915	6018	6018	6018	6018	6124	6124	6018	6018	6018	6018	6018	6018	6018	6018	6018	6124	6124	6018	6018	6018	6018	6018	6018	6018	6018	6018	6124	6124	6124	6124	6124	6018	6018	6018	6124	6124	6124	6124	6124	6124	6124	6124	6018	6018	6018	6018	5915	5915	5915	5915	5915	5915	5915	5915	5915	5915	5915	5915	5915	5915	5915	5915	6018	6018	6018	6018	6018	6018	6018	5915	5915	5915	5915	5915	6018	6018	6018	6018	6018	6018	6018	6018	6124	6124	6124	6124	6124	6124	6124	6018	6018	6018	6018	6018	6018	6018	6018	6018	6018	6018	6018	6018	6018	6018	6018	6018	6018	5915	5915	5915	5915	5915	0	0	0	0	0	6018	6018	6124	6468	6235	6349	6349	6349	6349	0	0	6235	6235	6349	6349	6235	6235	6124	6124	6124	6124	6235	6235	6235	6235	6235	6124	6124	6124	6124	6124	6124	6124	6124	6124	6124	6124	6124	6124	6124	6124	6124	6124	6235	6235	6235	6235	6235	6235	6124	6124	6124	6124	6124	6018	6018	6018	6018	6018	6018	6018	6018	6124	6124	5719	5719	0	0	0	0	0	0	2570	2570	2570	2551	2532	2532	2514	2496	2496	2478	2478	2460	2460	2443	2443	2409	2409	2409	2392	2392	2392	2359	2343	2343	2343	2327	2327	2297	2266	2266	2252	2223	2223	2208	2208	2194	2194	2181	2167	2167	2167	2153	2153	2140	2114	2114	2114	2114	2114	0	0	0	0	0	0	0	0	0	0	0	0	0	0	0	0	0	0	0	0	0	0	0	0	0	0	0	0	0	0	0	0	0	0	0	0	0	0	0	0	0	0	0	0	0	0	0	0	0	0	0	0	0	0	0	0	0	0	0	0
0	0	0	0	0	0	0	0	0	0	0	1193	1193	1193	0	0	1189	1185	1185	1181	1181	1185	1181	1181	0	0	0	0	0	0	1181	1185	1181	1177	1173	1177	1173	1173	0	0	0	0	0	0	0	1181	1181	1181	1181	1181	1185	1185	1185	1189	1193	1193	1193	1193	1189	1189	1185	1185	1181	1181	1181	1181	1189	1189	1193	1197	1202	1202	1202	1206	1210	1210	1210	1214	1214	1214	1214	1214	0	1681	1681	1681	1681	1681	1681	1690	1690	1690	1690	1690	1690	1690	0	1690	1690	0	0	0	0	0	0	0	6018	6018	6018	6018	6124	6124	6124	6124	6124	6124	6124	6124	6235	6124	6235	6124	6124	6124	6124	6124	6124	6124	6124	6124	5915	5915	5915	6018	6018	6018	6018	5915	5915	6018	6018	6018	5915	5915	6018	6018	6124	6124	6124	6124	6124	6124	6124	6124	6124	6124	6124	6124	6124	6018	5915	5915	6018	5915	6018	6018	6018	6018	6018	6124	6124	6124	6124	6124	6124	6124	6124	6124	6018	6018	6018	6124	6124	6124	6124	6235	6235	6235	6124	6018	6018	6018	6018	6018	6018	6124	6124	6124	6124	6235	6235	6124	6235	6235	6235	6235	6235	6235	6235	0	0	0	0	0	0	0	0	0	3698	3698	3698	3698	3698	3698	3698	3698	3698	3698	3698	3698	0	0	0	0	0	0	0	0	6018	6018	5915	5915	5915	5915	5915	5915	6018	6124	6235	6124	6124	6124	6124	6018	5915	6018	6018	6018	6018	6018	6018	6124	6235	6235	6235	6124	6124	6235	6124	6124	6124	6124	6124	6124	6124	6018	6018	6018	0	0	0	0	0	0	6124	6124	6124	6124	6124	6124	6018	6018	6018	6018	6018	6018	5915	5915	6018	5915	5915	6018	6018	6018	6018	6018	6018	6018	6018	6018	6018	6018	6018	5915	6018	6124	6018	6124	6124	6124	6124	6124	6124	6124	6124	6018	6018	6018	6018	6018	6018	6018	6018	6018	6018	6018	6018	6018	6018	6018	5915	6018	6018	6018	6018	6124	6124	6124	6018	6018	6018	6018	5915	6018	6018	6018	6018	6124	6124	6124	6124	6124	6124	6124	6018	6018	6124	6018	6124	6124	6124	6124	6124	6124	6124	6124	6124	6124	6124	6018	6124	6235	6124	6124	6018	6018	6018	6018	5915	5915	5915	6018	6018	5915	6018	5915	5915	5915	5915	5915	5915	5915	5915	6018	6018	6018	6018	6018	6018	6018	6018	6018	5915	5915	5915	6018	6018	6018	6018	6018	6018	6018	6018	6124	6124	6124	6124	6124	6124	6124	6124	6124	6124	6018	6018	6018	6018	6018	6018	6018	6018	6018	6124	6124	6018	6018	6018	6018	6018	6018	5915	5915	5915	0	0	0	0	0	0	6018	6018	6349	6468	6349	6349	6349	6235	6235	6349	6349	6235	6349	6235	6235	6349	6235	6235	6235	6235	6235	6124	6235	6235	6124	6124	6124	6124	6124	6124	6124	6235	6235	6235	6235	6124	6124	6124	6124	6124	6124	6124	6235	6235	6235	6235	6349	6235	6124	6235	6124	6124	6124	6124	6018	6018	6018	6018	6018	6018	6124	6124	6124	6124	6124	5719	5719	0	0	0	0	0	2570	2570	2551	2551	2532	2532	2514	2514	2496	2478	2478	2460	2460	2443	2443	2409	2409	2409	2392	2392	2392	2359	2343	2343	2343	2343	2327	2312	2281	2266	2252	2223	2223	2223	2208	2208	2194	2194	2181	2167	2167	2153	2153	2140	2127	2127	2114	2114	2114	0	0	0	0	0	0	0	0	0	0	0	0	0	0	0	0	0	0	0	0	0	0	0	0	0	0	0	0	0	0	0	0	0	0	0	0	0	0	0	0	0	0	0	0	0	0	0	0	0	0	0	0	0	0	0	0	0	0	0	0
0	0	0	0	0	0	0	0	0	0	0	1193	1193	1193	0	0	1189	1185	1185	1181	1181	1185	1181	1181	0	0	0	0	0	0	0	1185	1181	1177	1177	1177	1173	1173	0	0	0	0	0	1181	1185	1181	1181	1181	1181	1181	1181	1185	1185	1193	1193	1197	1193	1193	1189	1189	1181	1181	1181	1181	1181	1185	1193	1193	1197	1202	1202	1202	1206	1206	1210	1210	1214	1214	1214	1219	1223	1223	1223	0	1681	1681	1681	1681	1681	1690	1690	1690	1690	1690	1690	1690	0	0	0	0	0	0	0	0	0	0	6018	6124	6124	6124	6235	6235	6124	6124	6124	6124	6124	6235	6235	6235	6235	6235	6124	6124	6124	6124	6124	6124	6124	6124	6124	6124	6018	6018	6018	6124	6018	6018	6018	6018	6018	6018	6018	6018	6018	6018	6124	6124	6124	6124	6124	6124	6124	6124	6124	6124	6124	6124	6124	6018	5915	5915	5915	6018	5915	6018	6018	6124	6124	6124	6124	6235	6124	6235	6124	6235	6124	6124	6124	6124	6124	6124	6124	6235	6235	6235	6235	6235	6124	6018	6018	6018	6124	6124	6124	6124	6124	6124	6124	6235	6235	6235	6235	6235	6235	6235	6235	6235	6235	6235	0	0	0	0	0	0	0	3698	3698	3698	3698	3698	3698	3698	3698	3698	3698	3698	3698	3698	0	0	0	0	0	0	0	0	6018	6018	5915	5915	5915	6018	5915	5915	6018	6124	6235	6124	6124	6124	6124	6018	6018	6018	6018	6018	6018	6018	6124	6124	6235	6235	6235	6124	6124	6235	6235	6124	6124	6124	6124	6124	6124	6124	6018	6018	0	0	0	0	0	6124	6124	6124	6124	6124	6124	6124	6018	6018	6018	6018	6018	6018	6018	6018	6018	6018	5915	6018	6018	6018	6018	6018	6018	6018	6018	6018	6018	6018	6018	6018	6124	6124	6124	6124	6124	6124	6235	6235	6124	6124	6124	6124	6018	6018	6018	6018	6018	6018	6018	6018	6018	6018	6018	6018	6018	6018	6018	6018	6018	6124	6124	6124	6124	6124	6018	6018	6018	6018	5915	6018	6018	6018	6124	6124	6124	6124	6124	6124	6124	6124	6124	6124	6124	6124	6235	6235	6235	6235	6235	6235	6124	6124	6124	6124	6124	6124	6124	6235	6124	6124	6124	6018	6018	6018	6018	6018	6018	6018	6018	6018	6018	5915	5915	5915	5915	6018	6018	6018	6018	6018	6018	6124	6124	6124	6018	6018	6018	6018	6018	6018	5915	6018	6018	6018	6018	6018	6018	6124	6124	6124	6124	6124	6124	6235	6235	6235	6124	6124	6124	6124	6124	6124	6124	6018	6124	6124	6124	6124	6124	6018	6018	6018	6018	6018	6018	6018	6018	6018	6018	0	0	0	0	0	0	0	0	6349	6468	6349	6349	6349	6349	6235	6235	6235	6235	6235	6235	6235	6349	6235	6349	6235	6235	6235	6124	6235	6235	6124	6235	6124	6124	6235	6235	6235	6235	6235	6235	6235	6124	6124	6124	6124	6235	6124	6235	6235	6349	6349	6349	6349	6349	6124	6124	6124	6124	6124	6124	6018	6018	6018	6018	6018	6124	6124	6235	6235	6235	5815	5815	5719	0	0	0	0	0	2570	2570	2551	2551	2532	2532	2514	2514	2496	2478	2478	2460	2460	2443	2443	2409	2409	2409	2392	2392	2376	2359	2343	2343	2343	2327	2312	2297	2266	2266	2252	2223	2223	2223	2208	2208	2208	2194	2181	2181	2167	2153	2153	2140	2140	2127	2127	2127	0	0	0	0	0	0	0	0	0	0	0	0	0	0	0	0	0	0	0	0	0	0	0	0	0	0	0	0	0	0	0	0	0	0	0	0	0	0	0	0	0	0	0	0	0	0	0	0	0	0	0	0	0	0	0	0	0	0	0	0	0
0	0	0	0	0	0	0	0	0	0	0	0	0	0	0	0	0	0	0	1181	1181	0	0	0	0	0	0	0	0	0	0	0	0	1177	1173	1173	1173	1169	1169	1173	1177	1177	1189	1181	1185	1181	1181	1181	1181	1177	1181	1181	1181	1193	1193	1197	1197	1197	1197	1197	1197	1185	1181	1185	1185	1197	1197	1197	1202	1206	1206	1206	1206	1210	1210	1214	1214	1219	1219	1223	1227	1236	1240	1240	1240	1681	1681	1690	1690	1690	1690	1690	1690	1690	0	0	0	0	0	0	0	0	0	0	0	6124	6124	6124	6124	6124	6235	6235	6235	6235	6124	6235	6235	6235	6235	6235	6235	6235	6235	6235	6124	6124	6124	0	6235	6124	6124	6124	6124	6124	6124	6124	6124	6124	6018	6124	6124	6124	6124	6124	6124	6124	6124	6124	6124	6124	6124	6124	6124	6124	6124	6235	6124	6124	6124	6018	5915	5915	6018	6018	5915	6018	6018	6124	6124	6124	6124	6124	6124	6235	6235	6235	6235	6124	6124	6124	6124	6235	6235	6235	6235	6235	6235	6235	6124	6018	6018	6124	6124	6124	6124	6235	6124	6235	6235	6235	6235	6235	6235	6235	6235	6235	6235	6235	6235	6235	0	0	0	0	0	0	3738	3698	3698	3698	3698	3698	3698	3698	3698	3698	3698	3698	3698	3698	0	0	0	0	0	0	0	0	6018	6124	5915	5915	5915	6018	6018	5915	6018	6018	6124	6124	6124	6018	6124	6018	6018	6018	6124	6124	6124	6124	6124	6124	6235	6235	6124	6124	6124	6235	6235	6124	6124	6124	6124	6124	6124	6124	6124	6018	0	0	0	0	0	6124	6124	6124	6124	6124	6124	6124	6018	6018	6124	6124	6018	6018	6018	6018	6018	6018	6018	6018	6018	6018	6018	6018	6018	6018	6018	6018	6018	6018	6018	6018	6124	6235	6235	6235	6235	6235	6235	6235	6235	6124	6235	6124	6124	6124	6124	6124	6124	6124	6124	6124	6124	6124	6124	6124	6018	6018	6018	6124	6124	6124	6124	6124	6124	6124	6124	6018	6018	6124	6018	6018	6018	6018	6018	6124	6124	6124	6124	6124	6124	6124	6124	6124	6124	6124	6235	6235	6235	6235	6235	6235	6235	6235	6235	6235	6235	6235	6235	6235	6235	6235	6124	6124	6018	6018	6018	6018	6018	6018	6018	5915	5915	5915	5915	5915	6018	6018	6124	6018	6018	6124	6124	6124	6124	6124	6018	6124	6124	6018	6018	6018	6018	6018	6018	6018	6018	6018	6018	6124	6124	6124	6124	6124	6124	6124	6235	6124	6124	6124	6124	6124	6124	6124	6124	6124	6124	6124	6124	6124	6018	6018	6018	6018	5915	5915	5915	5915	5915	6018	6018	0	0	0	0	0	0	0	6124	6018	6349	6235	6235	6349	6349	6349	6235	6235	6235	6235	6235	6349	6468	6349	6349	6349	6235	6235	6124	6124	6124	6124	6124	6124	6124	6235	6235	6235	6235	6235	6235	6235	6235	6235	6235	6235	6235	6235	6235	6349	6349	6349	6468	6468	6349	6235	6349	6235	6124	6124	6124	6018	6018	6018	6018	6124	6124	6235	6349	6235	6349	6349	5815	0	0	0	0	0	0	2570	2551	2551	2532	2532	2514	2514	2514	2496	2478	2478	2460	2460	2443	2443	2409	2392	2392	2392	2392	2376	2359	2343	2343	2343	2327	2327	2312	2281	2266	2266	2237	2223	2223	2223	2208	2208	2194	2194	2181	2167	2167	2153	2140	2127	2127	2127	2127	0	0	0	0	0	0	0	0	0	0	0	0	0	0	0	0	0	0	0	0	0	0	0	0	0	0	0	0	0	0	0	0	0	0	0	0	0	0	0	0	0	0	0	0	0	0	0	0	0	0	0	0	0	0	0	0	0	0	0	0	0
0	0	0	0	0	0	0	0	0	0	0	0	0	0	0	0	0	0	0	0	0	0	0	0	0	0	0	0	0	0	0	0	0	0	1177	1177	1173	1173	1169	1173	1177	1181	1189	1185	1185	1185	1181	1181	1177	1177	1181	1181	1181	1185	1193	1197	1202	1202	1202	1202	1202	1197	1197	1219	1219	1214	1206	1202	1210	1210	1210	1210	1210	1210	1210	1214	1214	1219	1219	1223	1232	1236	1245	1249	1249	1249	1249	1690	1690	1690	1690	1690	1690	0	0	0	0	0	0	0	0	0	0	0	0	6124	6124	6235	6124	6235	6124	6235	6235	6235	6235	6235	6235	6349	6235	6349	6349	6349	6349	6235	6235	6235	6235	6235	6235	6235	6235	6124	6235	6235	6235	6235	6235	6124	6124	6124	6124	6124	6124	6124	6124	6124	6124	6124	6124	6124	6124	6124	6124	6124	6124	6235	6235	6124	6124	6018	5915	6018	6018	6018	6018	6018	6124	6124	6124	6124	6124	6124	6235	6235	6235	6235	6235	6235	6235	6235	6235	6349	6235	6349	6349	6349	6349	6235	6124	6124	6124	6124	6124	6235	6235	6235	6124	6235	6124	6124	6124	6124	6124	6235	6235	6235	6235	0	0	0	0	0	0	0	0	0	3738	3698	3698	3698	3659	3659	3659	3659	3659	3659	3659	3698	3698	3698	0	0	0	0	0	0	0	0	0	6124	5915	5815	5915	6018	5915	5915	5915	5915	6124	6124	6124	6018	6124	6018	6018	6018	6124	6124	6018	6018	6124	6124	6235	6235	6124	6124	6124	6124	6124	6124	6124	6124	6124	6124	6124	6124	6124	0	0	0	0	0	0	6235	6235	6235	6235	6124	6124	6124	6124	6124	6124	6124	6124	6124	6124	6124	6124	6018	6018	6018	6018	6018	6018	6018	6018	6018	6018	6018	6018	6018	6124	6018	6124	6235	6235	6235	6235	6235	6235	6235	6235	6235	6235	6124	6124	6124	6124	6124	6124	6124	6124	6124	6124	6124	6124	6124	6124	6124	6018	6124	6124	6124	6124	6124	6124	6124	6018	6018	6018	6018	6018	6018	6018	6018	6018	6124	6124	6124	6124	6124	6124	6124	6124	6124	6124	6124	6235	6235	6235	6235	6235	6235	6235	6235	6349	6349	6235	6235	6235	6235	6235	6235	6235	6124	6018	6018	6018	6018	6018	6018	5915	6018	6018	6018	6018	6018	6018	6124	6124	6124	6124	6124	6124	6124	6124	6124	6124	6124	6124	6124	6018	6018	6018	6018	6018	6018	6018	6018	6018	6124	6124	6124	6124	6124	6124	6124	6235	6235	6235	6124	6124	6235	6235	6124	6124	6124	6124	6124	6124	6124	6124	6018	6018	6018	6018	6018	6018	6018	6018	6018	6235	6235	6235	0	0	0	0	0	6124	6018	6235	6235	6235	6235	6349	6349	6349	6349	6235	6235	6349	6349	6468	6349	6349	6349	6349	6349	6235	6235	6124	6124	6124	6235	6235	6235	6235	6235	6349	6349	6349	6235	6235	6235	6235	6235	6235	6235	6349	6349	6468	6349	6468	6468	6468	6468	6468	6349	6235	6124	6124	6124	6018	6018	6124	6124	6235	6349	6468	6468	6468	6468	0	0	0	0	0	0	0	2570	2551	2551	2551	2532	2532	2514	2514	2496	2478	2478	2460	2460	2443	2426	2409	2392	2392	2392	2376	2359	2343	2343	2343	2327	2327	2312	2297	2281	2266	2252	2252	2237	2223	2223	2208	2208	2194	2194	2194	2181	2167	2153	2153	2127	2127	2127	2127	2114	2114	0	0	0	0	0	0	0	0	0	0	0	0	0	0	0	0	0	0	0	0	0	0	0	0	0	0	0	0	0	0	0	0	0	0	0	0	0	0	0	0	0	0	0	0	0	0	0	0	0	0	0	0	0	0	0	0	0	0	0
0	0	0	0	0	0	0	0	0	0	0	0	0	0	0	0	0	0	0	0	0	0	0	0	0	0	0	0	0	0	0	0	0	1177	1177	1177	1173	1173	1169	1173	1173	1177	1177	1181	1181	1181	1181	1177	1177	1177	1177	1177	1177	1185	1193	1197	1202	1206	1210	1214	1210	1210	1223	1223	1223	1219	1210	1210	1214	1214	1214	1210	1210	1210	1210	1214	1214	1219	1223	1223	1227	1236	1236	1245	1245	1259	1259	0	0	0	0	0	0	0	0	0	0	0	0	0	0	0	0	0	0	6124	6124	6235	6235	6235	6124	6235	6235	6235	6235	6235	6235	6235	6349	6349	6349	6349	6349	6235	6349	6235	6235	6235	6235	6235	6235	6235	6349	6349	6349	6349	6235	6235	6235	6124	6235	6235	6124	6124	6124	6124	6124	6124	6124	6124	6124	6124	6235	6124	6124	6235	6235	6235	6235	6124	6018	6018	6349	6235	6124	6124	6124	6124	6124	6124	6124	6235	6235	6235	6235	6235	6235	6235	6235	6235	6235	6235	6235	6235	6349	6349	6349	6235	6235	6124	6124	6235	6235	6235	6235	6235	6235	6235	6124	6124	6124	6124	6124	6235	6235	6235	6235	0	0	0	0	0	0	0	0	0	3738	3738	3698	3698	3659	3659	3659	3659	3659	3659	3698	3698	3698	3698	3779	3779	3779	0	0	0	0	0	0	0	6018	5915	5915	5915	5915	5915	5915	5915	6018	6018	6018	6018	6018	6018	6018	6018	6124	6124	6124	6124	6124	6124	6235	6235	6235	6235	6235	6235	6235	6124	6124	6235	6124	6235	6235	6124	6124	0	0	0	0	0	0	6235	6349	6349	6349	6235	6235	6235	6124	6235	6124	6124	6124	6124	6124	6124	6124	6124	6018	6018	6018	6018	6124	6124	6124	6124	6124	6124	6124	6124	6124	6124	6124	6235	6235	6235	6235	6235	6235	6235	6235	6235	6235	6235	6124	6124	6235	6235	6235	6124	6235	6235	6235	6124	6124	6124	6124	6124	6124	6124	6124	6124	6124	6124	6124	6124	6124	6124	6124	6124	6018	6124	6018	6018	6124	6124	6124	6124	6124	6124	6235	6235	6235	6124	6235	6124	6235	6235	6235	6235	6349	6349	6349	6349	6349	6349	6235	6235	6235	6235	6235	6235	6235	6124	6018	6018	6018	6018	6124	6124	6018	6018	6124	6124	6018	6018	6018	6124	6124	6124	6124	6235	6235	6235	6124	6235	6124	6235	6235	6124	6124	6124	6018	6124	6124	6124	6018	6018	6018	6124	6018	6018	6018	6124	6124	6124	6124	6235	6235	6235	6235	6235	6235	6124	6124	6124	6124	6124	6124	6124	6124	6124	6124	6018	6018	6018	6018	6018	6124	6124	6235	6349	6349	6349	0	0	6235	6235	6124	6124	6235	6235	6235	6235	6235	6235	6235	6235	6235	6235	6349	6349	6468	6468	6349	6349	6349	6349	6235	6235	6235	6124	6235	6235	6235	6349	6349	6349	6349	6349	6235	6235	6124	6235	6235	6235	6235	6235	6349	6468	6468	6468	6468	6468	6592	6468	6468	6349	6349	6235	6235	6124	6124	6124	6124	6124	6235	6468	6468	6468	6468	6468	0	0	0	0	0	0	0	2570	2551	2551	2532	2532	2532	2514	2514	2496	2478	2478	2460	2460	2443	2443	2409	2392	2392	2392	2376	2359	2359	2343	2343	2327	2327	2312	2312	2281	2281	2266	2252	2237	2223	2223	2208	2208	2194	2194	2194	2181	2167	2153	2153	2127	2114	2127	2127	2114	2101	2101	0	0	0	0	0	0	0	0	0	0	0	0	0	0	0	0	0	0	0	0	0	0	0	0	0	0	0	0	0	0	0	0	0	0	0	0	0	0	0	0	0	0	0	0	0	0	0	0	0	0	0	0	0	0	0	0	0	0
0	0	0	0	0	0	0	0	0	0	0	0	0	0	0	0	0	0	0	0	0	0	0	0	0	0	0	0	0	0	0	0	0	1177	1177	1177	1173	1173	1173	1177	1177	1177	1177	1177	1181	1181	1177	1177	1177	1177	1177	1177	1177	1181	1185	1202	1206	1214	1223	1223	1223	1223	1227	1227	1227	1223	1223	1223	1223	1219	1214	1214	1214	1214	1214	1214	1219	1219	1223	1227	1227	1236	1240	1249	1259	1259	1259	1259	0	0	0	0	0	0	0	0	0	0	0	0	0	0	0	0	0	6124	6124	6235	6235	6235	6235	6235	6235	6235	6235	6235	6235	6468	6468	6468	6468	6468	6468	6349	6349	6235	6235	6235	6235	6235	6235	6235	6235	6349	6349	6349	6349	6235	6235	6235	6235	6235	6124	6124	6124	6124	6124	6124	6124	6124	6124	6124	6235	6235	6124	6235	6235	6235	6235	6124	6124	6349	6349	6349	6124	6124	6124	6124	6235	6235	6235	6235	6235	6235	6235	6235	6235	6235	6235	6235	6235	6235	6235	6235	6349	6349	6349	6235	6235	6124	6124	6235	6235	6235	6235	6235	6235	6235	6124	6235	6124	6124	6235	6235	6235	6235	6235	0	0	0	0	0	0	0	0	3779	3738	3738	3738	3698	3659	3659	3659	3659	3659	3659	3659	3659	3698	3698	3738	3738	3779	3779	0	0	0	0	0	0	5915	5915	5915	5915	5915	5915	5915	5915	5915	6018	6018	6018	6018	6018	6018	6124	6124	6235	6235	6235	6235	6235	6235	6235	6235	6235	6235	6235	6235	6235	6235	6235	6235	6235	6349	6235	6235	0	0	0	0	0	0	0	6468	6468	6468	6235	6349	6349	6235	6235	6235	6235	6235	6124	6124	6124	6124	6124	6124	6124	6124	6124	6124	6124	6124	6124	6124	6124	6124	6124	6124	6124	6124	6235	6235	6235	6235	6235	6235	6235	6235	6235	6235	6235	6124	6235	6235	6235	6235	6235	6235	6235	6235	6235	6124	6124	6124	6124	6124	6124	6124	6124	6124	6124	6124	6124	6124	6124	6124	6124	6124	6124	6018	6018	6124	6124	6124	6124	6124	6124	6235	6235	6235	6235	6235	6124	6235	6235	6235	6235	6349	6349	6349	6349	6349	6349	6349	6349	6235	6235	6235	6235	6235	6124	6018	6018	6124	6124	6124	6124	6124	6124	6235	6235	6124	6124	6124	6235	6235	6235	6235	6235	6235	6235	6235	6235	6235	6235	6235	6124	6124	6124	6124	6124	6124	6124	6018	6018	6018	6124	6124	6124	6124	6124	6124	6124	6349	6349	6349	6349	6235	6349	6235	6124	6124	6124	6235	6124	6124	6124	6124	6124	6124	6018	6018	6018	6124	6124	6235	6235	6349	6349	6349	6349	6349	6235	6235	6235	6235	6235	6349	6235	6235	6235	6235	6349	6349	6349	6235	6235	6235	6349	6468	6468	6349	6468	6349	6349	6235	6235	6235	6235	6235	6235	6349	6349	6349	6349	6349	6349	6349	6235	6235	6235	6235	6349	6349	6235	6349	6468	6468	6468	6468	6468	6468	6468	6468	6468	6468	6349	6235	6124	6235	6235	6235	6349	6349	6468	6468	6468	6468	6468	0	0	0	0	0	0	0	2570	2570	2551	2532	2532	2532	2514	2496	2478	2478	2478	2460	2460	2443	2443	2409	2409	2392	2392	2376	2359	2359	2343	2343	2327	2327	2327	2312	2297	2281	2266	2252	2252	2237	2223	2223	2208	2208	2194	2194	2181	2167	2167	2153	2127	2114	2127	2127	2114	2114	2114	2114	0	0	0	0	0	0	0	0	0	0	0	0	0	0	0	0	0	0	0	0	0	0	0	0	0	0	0	0	0	0	0	0	0	0	0	0	0	0	0	0	0	0	0	0	0	0	0	0	0	0	0	0	0	0	0	0	0
0	0	0	0	0	0	0	0	0	0	0	0	0	0	0	0	0	0	0	0	0	0	0	0	0	0	0	0	0	0	0	0	0	0	1177	1177	1177	1173	1173	1177	1177	1177	1177	1177	1177	1177	1177	1177	1173	1173	1173	1173	1173	1177	1177	1202	1227	1227	1227	1232	1227	1227	1227	1227	1227	1227	1227	1223	1227	1223	1223	1219	1219	1219	1214	1219	1219	1223	1227	1227	1232	1236	1240	1249	1249	1249	1254	1254	0	0	0	0	0	0	0	0	0	0	0	0	0	0	0	0	0	6235	6235	6349	6349	6349	6235	6235	6349	6349	6235	6235	6235	6592	6468	6468	6349	6468	6468	6349	6349	6235	6235	6235	6235	6235	6235	6235	6349	6349	6349	6349	6349	0	0	6235	6235	6235	6235	6124	6124	6124	6124	6124	6124	6124	6124	6124	6235	6124	6124	6235	6235	6235	6235	6124	6124	6349	6349	6349	6235	6235	6235	6235	6235	6235	6235	6235	6235	6349	6235	6349	6235	6235	6235	6235	6235	6235	6235	6235	6349	6349	6349	6235	6235	6235	6124	6235	6235	6235	6235	6235	6235	6235	6235	6235	6124	6124	6235	6235	6235	6349	6349	0	0	0	0	0	0	0	3779	3779	3738	3738	3738	3698	3659	3659	3621	3621	3621	3659	3659	3659	3659	3659	3698	3738	3779	3779	0	0	0	0	0	0	6018	5915	5915	5915	5915	5915	5815	5815	5815	6018	6018	6018	6124	6124	6018	6124	6235	6235	6235	6235	6235	6235	6349	6349	6235	6235	6235	6235	6235	6235	6235	6235	6235	6235	6349	6235	6349	6349	6349	0	6468	6468	6468	6468	6468	6468	6592	6468	6468	6468	6349	6235	6235	6235	6235	6235	6124	6235	6235	6235	6235	6235	6124	6124	6124	6124	6124	6124	6124	6124	6124	6124	6124	6124	6124	6235	6235	6235	6235	6235	6235	6235	6235	6235	6235	6235	6235	6235	6235	6235	6235	6235	6235	6235	6235	6235	6235	6124	6124	6235	6235	6235	6124	6124	6124	6124	6124	6124	6124	6124	6124	6124	6124	6124	6124	6018	6124	6124	6124	6124	6124	6124	6235	6235	6235	6235	6235	6235	6349	6349	6235	6235	6349	6349	6349	6349	6349	6349	6349	6349	6235	6235	6235	6235	6235	6235	6124	6124	6124	6235	6235	6235	6235	6235	6235	6235	6235	6235	6235	6235	6235	6235	6235	6235	6235	6235	6235	6235	6235	6235	6235	6124	6124	6124	6124	6124	6124	6018	6018	6018	6018	6124	6124	6124	6124	6124	6349	6349	6349	6349	6349	6349	6349	6349	6349	6235	6235	6235	6235	6235	6235	6235	6235	6235	6235	6124	6124	6124	6124	6235	6235	6349	6349	6349	6349	6349	6349	6349	6235	6235	6235	6235	6349	6235	6349	6349	6349	6349	6349	6349	6349	6235	6349	6349	6468	6468	6468	6468	6468	6349	6235	6235	6235	6235	6235	6349	6349	6468	6468	6468	6468	6468	6349	6349	6349	6349	6349	6349	6349	6349	6468	6468	6468	6468	6468	6592	6592	6468	6468	6468	6468	6349	6349	6235	6349	6349	6349	6468	6468	6468	6468	6468	6349	6349	0	0	0	0	0	0	0	2570	2570	2551	2532	2532	2532	2514	2496	2496	2478	2478	2460	2460	2460	2443	2426	2409	2409	2392	2392	2376	2359	2343	2343	2327	2327	2312	2312	2297	2297	2281	2266	2266	2237	2237	2223	2223	2208	2208	2208	2194	2181	2167	2153	2127	2114	2127	2127	2114	2114	2114	2114	2114	0	0	0	0	0	0	0	0	0	0	0	0	0	0	0	0	0	0	0	0	0	0	0	0	0	0	0	0	0	0	0	0	0	0	0	0	0	0	0	0	0	0	0	0	0	0	0	0	0	0	0	0	0	0	0	0
0	0	0	0	0	0	0	0	0	0	0	0	0	0	0	0	0	0	0	0	0	0	0	0	0	0	0	0	0	0	0	0	0	0	0	0	1177	1173	1173	1177	1177	1177	1177	1177	1177	1177	1177	1173	1173	1173	1173	1173	1173	1173	1173	1173	1245	1232	1232	1232	1227	1232	1232	1232	1232	1227	1227	1227	1232	1227	1227	1227	1223	1219	1219	1219	1223	1223	1227	1227	1232	1236	1245	1245	1254	1254	1259	1263	1263	0	0	0	0	0	0	0	0	0	0	0	0	0	0	0	0	6235	6235	6349	6349	6349	6349	6235	6349	6349	6235	6235	6235	6592	6592	6468	6349	6468	6468	6349	6349	6235	6235	6235	6349	6235	6235	6235	6349	6349	0	0	0	0	0	6235	6235	6235	6235	6235	6235	6235	6124	6124	6124	6235	6235	6235	6235	6235	6124	6235	6235	6235	6235	6235	6235	6349	6349	6349	6235	6235	6235	6235	6235	6235	6235	6235	6235	6235	6235	6235	6235	6235	6235	6235	6235	6235	6235	6235	6349	6235	6235	6235	6235	6235	6235	6235	6235	6235	6235	6235	6235	6235	6235	6235	6235	6235	6235	6235	6235	6235	6349	6349	0	0	0	0	0	0	3738	3738	3738	3738	3738	3698	3698	3659	3659	3659	3659	3659	3659	3659	3659	3659	3659	3738	3779	3779	0	0	0	0	0	0	6018	6018	6018	6018	6018	5915	5915	5915	6018	6124	6124	6124	6235	6235	6235	6235	6235	6349	6349	6349	6349	6235	6349	6349	6235	6235	6235	6235	6235	6235	6235	6349	6349	6349	6349	6349	6349	6349	6468	6349	6468	6468	6592	6468	6468	6468	6592	6468	6468	6468	6349	6349	6235	6235	6235	6235	6235	6235	6235	6235	6235	6235	6235	6235	6235	6235	6124	6235	6235	6235	6235	6235	6235	6235	6235	6235	6235	6235	6349	6349	6235	6235	6235	6235	6235	6235	6235	6235	6349	6349	6235	6235	6235	6235	6235	6235	6235	6235	6235	6235	6235	6235	6235	6235	6235	6235	6235	6235	6124	6124	6124	6124	6124	6124	6124	6124	6124	6124	6124	6124	6124	6124	6235	6235	6235	6235	6235	6235	6349	6349	6235	6235	6349	6349	6349	6349	6349	6349	6349	6349	6235	6235	6235	6235	6235	6235	6124	6124	6235	6235	6235	6235	6235	6235	6235	6349	6235	6235	6235	6235	6235	6235	6235	6235	6235	6235	6235	6235	6235	6235	6124	6124	6124	6124	6124	6124	6124	6018	6018	6018	6018	6124	6124	6235	6349	6349	6349	6349	6349	6349	6349	6349	6349	6349	6349	6235	6235	6235	6235	6235	6124	6235	6235	6235	6235	6235	6235	6235	6235	6349	6349	6349	6349	6349	6349	6349	6349	6349	6349	6349	6349	6235	6235	6235	6235	6349	6349	6349	6349	6349	6349	6349	6349	6349	6468	6468	6468	6468	6468	6349	6235	6235	6235	6235	6235	6349	6468	6468	6468	6468	6468	6468	6468	6468	6468	6468	6468	6468	6468	6468	6468	6592	6592	6468	6468	6592	6592	6592	6468	6468	6468	6468	6349	6349	6349	6349	6349	6468	6468	6468	6468	6468	6468	6468	0	0	0	0	0	0	0	2570	2570	2570	2551	2532	2532	2514	2496	2478	2478	2478	2460	2460	2460	2443	2426	2409	2409	2392	2392	2376	2359	2343	2343	2327	2327	2327	2312	2297	2297	2281	2266	2266	2252	2237	2223	2223	2208	2208	2208	2194	2194	2167	2153	2127	2114	2127	2127	2127	2114	2114	2114	2114	2114	0	0	0	0	0	0	0	0	0	0	0	0	0	0	0	0	0	0	0	0	0	0	0	0	0	0	0	0	0	0	0	0	0	0	0	0	0	0	0	0	0	0	0	0	0	0	0	0	0	0	0	0	0	0	0
0	0	0	0	0	0	0	0	0	0	0	0	0	0	0	0	0	0	0	0	0	0	0	0	0	0	0	0	0	0	0	0	0	0	0	0	0	1173	1173	1177	1177	1177	1177	1177	1173	1173	1173	1169	1169	1169	1173	1173	1173	1173	1268	1268	1245	1236	1236	1236	1232	1236	1236	1236	1232	1232	1232	1232	1232	1232	1232	1236	1232	1232	1232	1236	1236	1232	1232	1232	1236	1245	1249	1254	1259	1259	1259	1263	1263	0	0	0	0	0	0	0	0	0	0	0	0	0	0	0	0	6235	6349	6349	6349	6349	6349	6468	6349	6468	6349	6349	6349	6468	6468	6349	6349	6349	6468	6349	6349	6235	6235	6349	6349	6349	6349	6349	6349	6349	0	0	0	0	6235	6235	6235	6235	6235	6235	6235	6235	6235	6124	6124	6235	6235	6235	6235	6235	6235	6235	6235	6235	6235	6235	6235	6349	6349	6349	6349	6235	6235	6235	6235	6235	6235	6235	6235	6235	6235	6235	6235	6235	6235	6235	6235	6235	6349	6235	6349	6235	6235	6349	6349	6235	6235	6235	6235	6349	6349	6235	6235	6235	6235	6235	6235	6235	6235	6235	6349	6349	6349	6349	0	0	0	0	0	3698	3738	3698	3738	3738	3698	3738	3698	3698	3659	3659	3659	3621	3659	3659	3659	3659	3659	0	0	0	0	0	0	0	0	0	6018	6018	6018	6018	6018	6018	5915	6018	6018	6018	6235	6235	6235	6349	6349	6349	6349	6349	6349	6349	6349	6349	6349	6349	6349	6235	6235	6235	6349	6349	6235	6349	6349	6349	6349	6349	6468	6468	6468	6468	6468	6592	6592	6592	6592	6592	6592	6592	6592	6468	6468	6468	6349	6349	6349	6349	6235	6235	6235	6235	6349	6235	6235	6235	6235	6235	6235	6235	6235	6349	6349	6349	6349	6349	6349	6349	6349	6349	6349	6349	6349	6235	6235	6349	6235	6349	6235	6349	6349	6349	6235	6349	6235	6235	6235	6235	6235	6235	6235	6235	6349	6235	6235	6235	6235	6235	6235	6235	6124	6124	6124	6235	6124	6124	6124	6124	6124	6124	6124	6124	6235	6235	6235	6235	6235	6235	6235	6235	6349	6349	6235	6235	6235	6235	6235	6349	6349	6349	6349	6349	6349	6349	6349	6235	6235	6235	6235	6235	6235	6235	6235	6235	6235	6349	6349	6349	6349	6349	6349	6349	6349	6235	6235	6235	6235	6235	6124	6235	6124	6124	6235	6235	6235	6235	6235	6124	6124	6018	6018	6124	6124	6235	6349	6349	6349	6349	6349	6349	6349	6349	6349	6349	6349	6349	6349	6349	6235	6235	6235	6235	6235	6235	6235	6349	6349	6349	6349	6349	6349	6349	6468	6468	6349	6349	6349	6349	6349	6349	6349	6349	6349	6349	6349	6235	6235	6349	6349	6349	6349	6349	6349	6349	6349	6349	6468	6468	6468	6468	6468	6349	6235	6235	6235	6235	6349	6468	6468	6468	6592	6592	6468	6468	6468	6468	6468	6468	6468	6468	6468	6468	6468	6468	6468	6468	6468	6592	6592	6592	6592	6592	6592	6468	6468	6468	6468	6468	6468	6468	6468	6468	6468	6468	6468	6468	0	0	0	0	0	0	0	2570	2570	2570	2551	2532	2514	2514	2496	2478	2478	2478	2460	2460	2443	2443	2426	2409	2409	2392	2392	2392	2359	2359	2343	2327	2327	2312	2312	2297	2281	2281	2266	2266	2252	2252	2237	2223	2223	2223	2208	2194	2194	2167	2114	2114	2114	2127	2127	2127	2114	2114	2114	2114	2127	2127	0	0	0	0	0	0	0	0	0	0	0	0	0	0	0	0	0	0	0	0	0	0	0	0	0	0	0	0	0	0	0	0	0	0	0	0	0	0	0	0	0	0	0	0	0	0	0	0	0	0	0	0	0	0
0	0	0	0	0	0	0	0	0	0	0	0	0	0	0	0	0	0	0	0	0	0	0	0	0	0	0	0	0	0	0	0	0	0	0	0	0	0	0	0	0	0	0	0	1173	1173	1173	1173	1173	1173	1173	1173	1173	1173	1268	1268	1249	1259	1254	1249	1249	1254	1249	1245	1245	1245	1245	1245	1245	1240	1245	1245	1245	1240	1245	1245	1245	1240	1245	1245	1249	1254	1254	1259	1259	1259	1263	1263	1263	0	0	0	0	0	0	0	0	0	0	0	0	0	0	0	0	0	6349	6349	6349	6349	6349	6468	6468	6468	6468	6468	6592	6592	6592	6468	6468	6468	6468	6468	6349	6349	6349	6349	6349	6349	6349	6349	6349	0	0	0	0	0	6235	6235	6235	6235	6235	6235	6235	6235	6235	6235	6235	6235	6235	6235	6235	6235	6235	6235	6235	6235	6235	6235	6349	6349	6349	6349	6349	6349	6235	6235	6235	6235	6349	6349	6235	6235	6235	6349	6349	6235	6235	6235	6235	6235	6349	6349	6349	6349	6349	6349	6349	6349	6349	6235	6235	6235	6349	6349	6235	6235	6349	6349	6235	6235	6349	6349	6468	6592	6592	0	0	0	0	0	0	3738	3738	3738	3779	3779	3738	3698	3698	3698	3698	3659	3659	3659	3659	3659	3659	3659	0	0	0	0	0	0	0	0	0	0	0	6235	6124	6124	6124	6018	6018	6018	6124	6124	6349	6349	6349	6349	6349	6349	6349	6349	6349	6349	6349	6349	6468	6349	6349	6349	6349	6349	6349	6349	6349	6468	6349	6349	6349	6349	6468	6468	6349	6349	6468	6468	6468	6468	6468	6592	6592	6592	6592	6468	6468	6468	6468	6468	6349	6349	6349	6349	6235	6235	6349	6235	6235	6235	6235	6235	6235	6235	6349	6349	6349	6349	6349	6349	6349	6468	6349	6349	6349	6349	6349	6349	6349	6349	6349	6349	6349	6349	6468	6468	6349	6349	6349	6349	6349	6235	6235	6235	6235	6349	6349	6235	6235	6235	6235	6235	6235	6235	6235	6235	6235	6235	6235	6124	6124	6124	6124	6124	6124	6235	6235	6235	6235	6235	6235	6235	6235	6124	6235	6235	6235	6235	6235	6235	6235	6349	6349	6349	6349	6349	6349	6349	6349	6235	6235	6235	6235	6235	6235	6235	6349	6349	6349	6349	6349	6349	6349	6349	6349	6349	6349	6349	6235	6235	6235	6235	6235	6235	6235	6235	6235	6235	6235	6235	6235	6124	6124	6018	6124	6235	6235	6468	6468	6468	6468	6468	6468	6349	6349	6349	6349	6349	6349	6349	6349	6349	6349	6349	6349	6349	6349	6349	6349	6349	6349	6468	6468	6468	6468	6468	6468	6468	6468	6349	6349	6349	6349	6349	6349	6349	6349	6349	6235	6235	6235	6349	6349	6349	6349	6349	6349	6349	6349	6349	6468	6468	6468	6468	6468	6349	6235	6235	6235	6235	6235	6349	6349	6468	6592	6592	6468	6468	6468	6468	6468	6468	6468	6468	6468	6468	6468	6468	6468	6468	6468	6592	6592	6592	6592	6592	6592	6592	6468	6468	6468	6468	6468	6468	6468	6468	6349	6468	6468	6468	0	0	0	0	0	0	0	2570	2570	2570	2551	2532	2532	2514	2496	2478	2478	2478	2460	2460	2443	2443	2426	2426	2409	2409	2392	2392	2376	2359	2359	2327	2327	2312	2312	2297	2281	2281	2266	2266	2252	2237	2237	2223	2223	2208	2208	2194	2194	2167	2114	2114	2114	2127	2127	2127	2114	2114	2114	2114	2127	2127	2127	2140	2140	0	0	0	0	0	0	0	0	0	0	0	0	0	0	0	0	0	0	0	0	0	0	0	0	0	0	0	0	0	0	0	0	0	0	0	0	0	0	0	0	0	0	0	0	0	0	0	0	0	0	0
0	0	0	0	0	0	0	0	0	0	0	0	0	0	0	0	0	0	0	0	0	0	0	0	0	0	0	0	0	0	0	0	0	0	0	0	0	0	0	0	0	0	0	0	0	0	1173	1173	1173	1177	1173	1173	1173	0	1282	1277	1277	1268	1259	1254	1254	1254	1254	1249	1249	1249	1249	1249	1254	1254	1259	1254	1254	1259	1259	1259	1254	1254	1254	1254	1254	1254	1254	1259	1259	1259	1263	1263	1263	0	0	0	0	0	0	0	0	0	0	0	0	0	0	0	0	0	6349	6349	6349	6349	6349	6468	6468	6592	6468	6468	6592	6592	6468	6468	6468	6468	6468	6468	6349	6235	6235	6235	6349	6235	6235	6235	6235	0	0	0	0	0	6235	6235	6235	6235	6235	6235	6235	6235	6235	6235	6124	6235	6235	6235	6235	6235	6235	6124	6235	6235	6349	6349	6349	6349	6349	6349	6349	6349	6349	6349	6349	6349	6349	6349	6349	6349	6349	6349	6349	6349	6349	6349	6349	6349	6349	6349	6349	6349	6235	6235	6349	6235	6235	6235	6349	6349	6468	6349	6349	6349	6349	6349	6349	6349	6349	6349	6592	6592	6592	0	0	0	0	0	0	3698	3698	3738	3779	3779	3738	3738	3738	3698	3698	3659	3659	3659	3659	3659	3621	3659	3659	0	0	0	0	0	0	0	0	6349	6349	6349	6235	6124	6124	6018	6018	6124	6124	6235	6235	6349	6349	6349	6349	6349	6349	6349	6349	6349	6349	6349	6468	6468	6349	6349	6349	6468	6468	6468	6468	6468	6468	6468	6468	6468	6468	6468	6468	6468	6468	6468	6468	6468	6468	6592	6592	6592	6592	6592	6468	6592	6468	6468	6468	6468	6349	6349	6349	6349	6349	6349	6349	6235	6235	6235	6235	6235	6349	6349	6349	6349	6349	6349	6468	6592	6468	6468	6468	6349	6349	6349	6349	6468	6349	6468	6349	6349	6349	6349	6349	6349	6349	6349	6349	6235	6235	6235	6235	6349	6349	6349	6349	6349	6349	6349	6349	6235	6235	6235	6235	6235	6235	6124	6124	6124	6235	6235	6235	6235	6235	6349	6349	6349	6235	6235	6235	6235	6235	6235	6235	6235	6235	6235	6235	6349	6349	6349	6349	6349	6349	6349	6349	6235	6235	6235	6235	6235	6349	6349	6349	6349	6349	6349	6349	6349	6349	6349	6349	6349	6349	6349	6349	6349	6235	6235	6235	6235	6235	6235	6235	6235	6235	6235	6235	6124	6235	6235	6235	6349	6349	6468	6468	6468	6468	6468	6468	6349	6349	6349	6349	6349	6349	6349	6349	6349	6349	6349	6349	6349	6349	6468	6349	6349	6468	6468	6468	6468	6468	6468	6468	6468	6468	6349	6349	6468	6349	6349	6349	6349	6349	6349	6349	6349	6349	6349	6349	6349	6349	6349	6349	6349	6468	6468	6592	6592	6592	6468	6468	6468	6349	6235	6235	6235	6235	6468	6468	0	0	0	6468	6468	6468	6468	6592	6592	6468	6468	6468	6468	6468	6468	6468	6468	6468	6592	6592	6592	6592	6592	6592	6592	6468	6468	6468	6468	6468	6468	6468	6468	6349	6468	6468	6468	6468	0	0	0	0	0	2589	2589	2589	2589	2551	2551	2532	2514	2496	2478	2496	2478	2460	2460	2460	2443	2443	2426	2409	2409	2409	2392	2359	2343	2343	2327	2312	2312	2312	2297	2281	2281	2266	2266	2237	2237	2223	2223	2223	2208	2208	2194	2181	2167	2153	2127	2114	2114	2127	2127	2114	2114	2114	2114	2127	2127	2127	2140	2140	2140	0	0	0	0	0	0	0	0	0	0	0	0	0	0	0	0	0	0	0	0	0	0	0	0	0	0	0	0	0	0	0	0	0	0	0	0	0	0	0	0	0	0	0	0	0	0	0	0	0	0
0	0	0	0	0	0	0	0	0	0	0	0	0	0	0	0	0	0	0	0	0	0	0	0	0	0	0	0	0	0	0	0	0	0	0	0	0	0	0	0	0	0	0	0	0	0	1173	1177	1177	1177	1177	1177	1173	0	1282	1282	1277	1272	1268	1263	1263	1259	1259	1254	1254	1254	1254	1254	1254	1259	1263	1263	1263	1263	1263	1263	1259	1259	1259	1259	1259	1259	1259	1259	1263	1263	1263	1263	1272	1272	0	0	0	0	0	0	0	0	0	0	0	0	0	0	0	0	6349	6349	6349	6349	6349	6468	6592	6592	6468	6592	6592	6592	6468	6468	6349	6468	6468	6468	6349	6349	6349	6349	6349	6349	6235	6235	6235	0	0	6349	6349	0	6235	6235	6235	6235	6235	6235	6235	6235	6235	6235	6124	6235	6235	6235	6349	6235	6235	6235	6235	6235	6235	6235	6349	6349	6349	6349	6349	6349	6349	6235	6349	6349	6235	6235	6349	6349	6349	6349	6349	6235	6349	6349	6349	6349	6349	6349	6235	6235	6235	6235	6235	6235	6349	6349	6349	6468	6468	6349	6349	6349	6468	6349	6349	6349	6468	6468	6592	6592	6592	6592	0	0	0	0	3698	3698	3698	3698	3738	3779	3738	3738	3698	3698	3698	3698	3698	3659	3659	3659	3698	3698	3698	0	0	0	0	0	0	0	0	6468	6349	6349	6349	6235	6124	6124	6124	6235	6235	6235	6349	6349	6349	6349	6349	6349	6349	6349	6349	6349	6349	6349	6468	6468	6468	6468	6468	6468	6468	6468	6468	6468	6468	6349	6349	6468	6468	6468	6349	6349	6468	6468	6468	6468	6468	6468	6592	6592	6592	6468	6468	6592	6592	6468	6468	6349	6468	6349	6349	6349	6349	6349	6349	6235	6349	6235	6235	6124	6235	6235	6349	6468	6468	6468	6468	6592	6592	6468	6468	6468	6468	6468	6468	6468	6468	6468	6468	6349	6468	6468	6349	6349	6349	6349	6349	6349	6235	6235	6349	6349	6349	6349	6349	6468	6349	6349	6349	6349	6349	6349	6235	6235	6235	6235	6124	6124	6235	6235	6235	6349	6349	6349	6349	6349	6349	6349	6235	6235	6235	6349	6349	6235	6235	6235	6235	6349	6349	6349	6349	6349	6349	6349	6349	6349	6349	6349	6349	6349	6349	6349	6349	6349	6349	6349	6349	6349	6349	6349	6349	6349	6349	6349	6349	6349	6349	6235	6235	6349	6349	6235	6235	6235	6235	6235	6235	6235	6235	6235	6349	6349	6349	6468	6468	6468	6468	6468	6468	6349	6349	6349	6349	6349	6349	6349	6349	6349	6349	6349	6468	6468	6349	6468	6468	6468	6468	6468	6592	6468	6468	6468	6468	6468	6468	6468	6468	6468	6468	6349	6349	6349	6349	6468	6349	6349	6349	6468	6349	6349	6349	6349	6349	6349	6468	6468	6592	6592	6592	6592	6468	6468	6468	6235	6235	0	0	6468	6468	0	0	0	0	0	0	0	6592	6592	6592	6592	6468	6468	6468	6468	6468	6468	6468	6468	6592	6592	6592	6468	6468	6468	6468	6468	6468	6468	6468	6468	6468	6468	6468	6468	6468	6592	6592	0	0	0	0	0	2589	2589	2589	2589	2570	2551	2532	2532	2514	2478	2478	2460	2460	2460	2443	2443	2426	2409	2409	2409	2392	2376	2359	2343	2327	2312	2312	2297	2297	2297	2281	2281	2266	2266	2237	2237	2223	2208	2208	2208	2208	2194	2181	2181	2153	2127	2114	2114	2127	2127	2114	2114	2114	2114	2127	2127	2127	2127	2127	2127	2127	2127	2114	2114	2114	0	0	0	0	0	0	0	0	0	0	0	0	0	0	0	0	0	0	0	0	0	0	0	0	0	0	0	0	0	0	0	0	0	0	0	0	0	0	0	0	0	0	0	0	0
0	0	0	0	0	0	0	0	0	0	0	0	0	0	0	0	0	0	0	0	0	0	0	0	0	0	0	0	0	0	0	0	0	0	0	0	0	0	0	0	0	0	0	0	0	0	1173	1177	1177	1177	1173	1173	1173	1287	1282	1282	1282	1277	1272	1272	1268	1263	1263	1259	1259	1254	1259	1259	1263	1268	1268	1268	1268	1268	1268	1263	1263	1263	1263	1263	1263	1263	1263	1263	1263	1263	1263	1268	1277	1282	1287	1287	1296	1296	1296	1296	0	0	0	0	0	0	0	0	0	0	6235	6235	6468	6468	6468	6592	6592	6592	6468	6468	6592	6592	6468	6349	6349	6468	6468	6468	6349	6349	6349	6349	6349	6349	6235	6349	6349	6349	6349	6349	6235	6235	6235	6235	6235	6235	6235	6235	6349	6349	0	0	0	0	6235	6235	6349	6235	6235	6235	6235	6235	6235	6235	6349	6349	6349	6349	6349	6349	6349	6235	6349	6349	6349	6235	6349	6349	6349	6349	6349	6349	6349	6468	6468	6349	6349	6349	6235	6235	6235	6235	6235	6235	6349	6349	6349	6468	6592	6468	6349	6349	6468	6349	6349	6349	6349	6468	6592	6592	6592	6592	0	0	0	0	3698	3698	3698	3698	3738	3738	3738	3738	3698	3698	3698	3698	3698	3659	3659	3659	3698	3659	3659	0	0	0	0	0	0	0	6468	6468	6468	6349	6349	6235	6235	6124	6124	6235	6235	6349	6349	6349	6349	6349	6349	6349	6349	6349	6349	6468	6349	6349	6468	6468	6468	6468	6468	6468	6468	6468	6468	6468	6468	6468	6349	6349	6468	6468	6349	6349	6468	6468	6468	6349	6468	6468	6468	6592	6592	6592	6592	6592	6592	6468	6468	6468	6468	6468	6349	6468	6468	6349	6349	6349	6349	6349	6349	6124	6349	6235	6349	6349	6349	6349	6468	6468	6592	6468	6592	6468	6468	6468	6468	6592	6468	6468	6468	6468	6468	6468	6468	6468	6468	6468	6468	6349	6349	6349	6349	6349	6349	6349	6349	6349	6349	6349	6468	6468	6349	6349	6349	6349	6349	6235	6235	6235	6235	6349	6349	6349	6349	6349	6349	6349	6349	6349	6235	6349	6349	6349	6349	6349	6349	6349	6235	6349	6349	6349	6468	6468	6468	6468	6468	6468	6468	6349	6349	6349	6349	6349	6349	6349	6349	6349	6349	6349	6349	6349	6468	6349	6349	6349	6349	6349	6235	6235	6235	6349	6349	6349	6235	6349	6349	6235	6235	6235	6235	6349	6349	6349	6349	6468	6468	6468	6468	6468	6349	6349	6349	6349	6349	6349	6349	6349	6349	6349	6468	6349	6349	6349	6349	6468	6349	6468	6468	6592	6720	6592	6592	6592	6592	6468	6468	6349	6468	6468	6468	6349	6349	6349	6349	6468	6349	6349	6349	6468	6349	6349	6349	6468	6468	6468	6468	6468	6592	6592	6592	6468	6468	6468	6468	0	0	0	0	0	0	0	0	0	0	0	0	0	6592	6592	6592	6592	6592	6592	6592	6592	6592	6592	6592	6592	6592	6592	6592	6468	6468	6468	6468	6468	6468	6468	6468	6468	6468	6468	6468	6468	6468	6592	6592	6592	0	0	0	0	2589	2589	2589	2589	2570	2551	2532	2532	2514	2496	2478	2460	2460	2443	2443	2426	2426	2409	2409	2409	2392	2392	2376	2343	2327	2312	2312	2297	2297	2297	2281	2281	2266	2266	2223	2223	2223	2208	2208	2208	2208	2194	2167	2167	2153	2127	2114	2114	2127	2127	2127	2114	2114	2114	2127	2114	2114	2114	2127	2127	2114	2127	2114	2114	2114	2114	0	0	0	0	2076	2076	0	0	0	0	0	0	0	0	0	0	0	0	0	0	0	0	0	0	0	0	0	0	0	0	0	0	0	0	0	0	0	0	0	0	0	0	0	0
0	0	0	0	0	0	0	0	0	0	0	0	0	0	0	0	0	0	0	0	0	0	0	0	0	0	0	0	0	0	0	0	0	0	0	0	0	0	0	0	0	0	0	0	0	0	0	1177	1177	1177	1177	1177	1177	1287	1287	1287	1287	1282	1277	1277	1272	1268	1268	1263	1263	1259	1263	1263	1268	1272	1272	1272	1272	1272	1272	1268	1268	1268	1268	1268	1263	1268	1268	1268	1268	1263	1268	1268	1277	1282	1287	1287	1291	1291	1296	1296	1296	1296	0	0	0	0	0	0	0	6349	6349	6349	6468	6468	6592	6592	6592	6592	6592	6592	6592	6592	6468	6468	6468	6592	6592	6592	6468	6349	6349	6349	6349	6349	6349	6349	6468	6349	6468	6468	6349	6349	6235	6235	6349	6349	6349	6349	6349	6349	0	0	0	0	0	0	0	0	0	0	0	0	6235	6235	0	0	6349	6349	6349	6349	6349	6235	6235	6349	6235	6235	6235	6235	6349	6349	6349	6349	6349	6468	6468	0	0	0	0	0	0	6235	6235	6235	6349	6349	6349	6592	6592	6592	6468	6468	6468	6468	6349	6349	6349	6468	6468	6592	6592	6592	0	3698	3698	3698	3698	3698	3738	3698	3738	3738	3738	3738	3698	3698	3698	3698	3698	3659	3659	3698	3698	3698	3659	3659	3659	0	0	0	0	0	6468	6468	6468	6468	6349	6349	6349	6235	6235	6349	6349	6349	6349	6349	6349	6349	6468	6468	6468	6349	6349	6468	6349	6349	6468	6468	6468	6468	6468	6468	6468	6592	6592	6468	6468	6468	6468	6468	6468	6468	6349	6349	6349	6468	6468	6349	6349	6468	6468	6468	6592	6592	6592	6592	6592	6592	6592	6468	6468	6468	6468	6468	6468	6468	6468	6349	6349	6349	6349	6124	6349	6349	6349	6349	6349	6349	6468	6592	6592	6592	6592	6592	6592	6592	6592	6592	6468	6468	6592	6592	6592	6592	6468	6468	6468	6468	6468	6468	6468	6468	6468	6468	6468	6468	6468	6468	6468	6468	6468	6468	6468	6468	6468	6349	6349	6349	6349	6235	6235	6349	6349	6349	6349	6349	6349	6349	6349	6349	6349	6468	6349	6349	6349	6349	6349	6349	6349	6349	6349	6468	6468	6468	6592	6592	6592	6592	6592	6468	6468	6468	6349	6349	6349	6349	6349	6468	6349	6468	6349	6349	6349	6349	6349	6349	6349	6349	6349	6235	6349	6349	6468	6349	6349	6349	6349	6235	6349	6349	6235	6349	6349	6349	6349	6468	6468	6468	6468	6349	6349	6349	6349	6349	6349	6349	6349	6349	6349	6468	6468	6349	6349	6349	6349	6468	6468	6468	6592	6592	6720	6592	6592	6468	6468	6468	6468	6349	6349	6468	0	0	0	0	0	0	0	0	0	0	0	6349	6349	6468	6468	6468	6468	6468	6592	6592	6592	6592	6592	6592	0	0	0	0	0	0	0	0	0	0	0	0	0	6720	6720	6592	6592	6592	6592	6592	6592	6592	6592	6592	6592	6592	6592	6592	6592	6592	6468	6468	6468	6468	6468	6468	6468	6468	6468	6468	6468	6468	6592	6592	6592	6592	0	0	0	0	2570	2570	2589	2570	2570	2551	2532	2532	2514	2496	2478	2460	2443	2443	2443	2426	2426	2409	2409	2392	2392	2392	2359	2343	2327	2312	2312	2297	2297	2281	2281	2266	2252	2237	2223	2208	2208	2208	2194	2194	2194	2181	2181	2167	2153	2140	2127	2127	2140	2127	2127	2114	2114	2114	2127	2114	2114	2114	2127	2114	2114	2114	2114	2114	2114	2114	2114	2114	2114	2114	2101	2101	0	0	0	0	0	0	0	0	0	0	0	0	0	0	0	0	0	0	0	0	0	0	0	0	0	0	0	0	0	0	0	0	0	0	0	0	0	0
0	0	0	0	0	0	0	0	0	0	0	0	0	0	0	0	0	0	0	0	0	0	0	0	0	0	0	0	0	0	0	0	0	0	0	0	0	0	0	0	0	0	0	0	0	0	0	1177	1177	1177	1177	1177	1306	1306	1287	1287	1287	1282	1282	1282	1277	1272	1272	1272	1272	1272	1272	1277	1277	1277	1277	1277	1277	1277	1272	1272	1272	1272	1272	1272	1268	1272	1272	1272	1272	1268	1268	1272	1277	1282	1287	1287	1291	1296	1296	1301	1301	1301	1301	1301	0	0	0	0	0	6349	6349	6468	6468	6592	6592	6592	6592	6592	6592	6592	6592	6592	6468	6468	6468	6468	6592	6592	6592	6468	6468	6468	6468	6349	6349	6349	6468	6468	6468	6468	6468	6468	6349	6349	6349	6349	6349	6349	6349	6349	0	0	0	0	0	0	0	0	0	0	0	0	0	0	0	0	0	0	0	0	6349	6235	6235	6468	6349	6235	6349	6349	6349	6349	6349	0	0	0	0	0	0	0	0	0	0	0	0	6235	6349	6349	6349	6592	6592	6592	6468	6468	6468	6468	6468	6349	6468	6468	6592	6592	6592	6592	0	3698	3698	3698	3698	3698	3738	3779	3779	3821	3738	3738	3698	3698	3698	3698	3698	3659	3698	3698	3698	3698	3698	3659	3659	3659	0	0	6468	6468	6468	6468	6468	6468	6349	6349	6349	6349	6349	6349	6349	6349	6468	6468	6468	6468	6468	6468	6468	6468	6468	6468	6349	6349	6468	6468	6592	6592	6468	6592	6592	6592	6592	6592	6592	6468	6468	6468	6468	6349	6349	6349	6349	6468	6468	6349	6468	6468	6468	6468	6468	6468	6592	6592	6592	6592	6592	6592	6468	6468	6468	6468	6349	6349	6349	6349	6349	6349	6349	6349	6349	6592	6592	6349	6349	6349	6468	6720	6720	6592	6592	6592	6592	6592	6592	6592	6592	6592	6592	6720	6592	6592	6592	6592	6592	6592	6592	6592	6592	6592	6592	6592	6592	6592	6592	6592	6592	6592	6592	6468	6468	6468	6468	6468	6349	6349	6349	6349	6349	6349	6349	6349	6349	6468	6349	6468	6349	6349	6349	6468	6349	6349	6349	6468	6468	6468	6349	6349	6468	6592	6592	6592	6592	6592	6592	6592	6592	6592	6468	6468	6468	6349	6349	6349	6349	6468	6468	6468	6468	6468	6468	6349	6349	6349	6349	6349	6349	6349	6468	6592	6468	6468	6349	6349	6349	6349	6349	6349	6349	6349	6349	6349	6349	6468	6468	6468	6468	6349	6349	6349	6349	6349	6349	6468	6468	6468	6468	6468	6468	6468	6468	6468	6468	6468	6468	6468	6468	6592	0	6592	6592	6468	6468	6468	6468	6349	6349	0	0	0	0	0	0	0	0	0	0	0	0	0	0	6468	6468	6468	6468	6468	6592	6592	6592	6592	6592	6592	0	0	0	0	0	0	0	0	0	0	0	0	0	6720	6720	6592	6592	6592	6592	6592	6592	6592	6592	6592	6592	6720	6720	6720	6592	6592	6468	6468	6468	6468	6468	6468	6468	6468	6468	6468	6592	6592	6592	6592	6592	6592	0	0	0	0	2570	2570	2570	2551	2551	2551	2532	2532	2514	2496	2478	2460	2460	2443	2426	2426	2426	2409	2409	2392	2392	2392	2376	2343	2327	2327	2312	2297	2297	2281	2266	2266	2252	2237	2223	2208	2208	2194	2194	2181	2181	2181	2167	2167	2167	2153	2127	2140	2140	2127	2127	2114	2114	2114	2114	2114	2114	2114	2114	2114	2114	2114	2114	2114	2114	2114	2127	2114	2114	2114	2114	2114	0	0	0	0	0	0	0	0	0	0	0	0	0	0	0	0	0	0	0	0	0	0	0	0	0	0	0	0	0	0	0	0	0	0	0	0	0	0
0	0	0	0	0	0	0	0	0	0	0	0	0	0	0	0	0	0	0	0	0	0	0	0	0	0	0	0	0	0	0	0	0	0	0	0	0	0	0	0	0	0	0	0	0	0	0	1177	1177	1177	1173	1173	1301	1296	1296	1287	1287	1287	1282	1282	1282	1277	1282	1282	1282	1282	1282	1282	1287	1282	1282	1282	1282	1282	1282	1277	1277	1277	1282	1282	1282	1272	1277	1282	1277	1272	1272	1277	1282	1282	1287	1287	1291	1291	1301	1301	1306	1306	1306	1306	0	0	0	0	0	0	0	6468	6468	6592	6592	6592	6592	6592	6592	6592	6592	6592	6468	6468	6468	6468	6468	6468	6468	6468	6468	6468	6468	6468	6349	6468	6592	6592	6592	6592	6592	6592	6468	6349	6349	6468	6468	6468	6349	6468	6468	0	0	0	0	0	0	0	0	0	0	0	0	0	0	0	0	0	0	0	0	0	0	6468	6468	6235	6349	6349	6349	6349	6349	0	0	0	0	0	0	0	0	0	0	0	0	0	0	0	0	6720	6592	6592	6592	6468	6468	6468	6468	6468	6468	6468	6592	6592	6592	6592	0	0	0	3698	3698	3698	3738	3738	3738	3779	3738	3738	3698	3698	3698	3698	3698	3698	3698	3698	3698	3659	3698	3659	3659	3659	3659	0	6349	6468	6468	6468	6468	6468	6468	6468	6468	6468	6468	6468	6468	6468	6468	6468	6468	6468	6592	6468	6468	6468	6468	6468	6349	6349	6592	6468	6468	6592	6468	6592	6592	6592	6592	6592	6592	6592	6468	6592	6468	6349	6349	6349	6349	6349	6349	6349	6349	6349	6468	6468	6468	6468	6592	6592	6592	6592	6592	6592	6468	6468	6468	6468	6468	6349	6468	6468	6349	6468	6468	6592	6592	6592	6592	6592	6592	0	0	6720	6720	6592	6720	6720	6592	6592	6592	6592	6592	6720	6720	6720	6720	6720	6720	6720	6720	6720	6592	6720	6720	6720	6720	6720	6592	6592	6592	6592	6592	6592	6592	6592	6468	6468	6468	6468	6468	6349	6468	6349	6349	6349	6349	6349	6349	6468	6468	6468	6468	6468	6468	6592	6468	6468	6468	6468	6592	6592	6592	6468	6592	6592	6720	6592	6592	6592	6592	6592	6592	6592	6592	6592	6468	6468	6468	6468	6468	6468	6468	6592	6592	6468	6468	6468	6349	6468	6468	6468	6468	6468	6468	6468	6468	6468	6468	6468	6349	6349	6349	6349	6349	6349	6349	6349	6349	6468	6468	6468	6468	6349	6349	6468	6468	6468	6468	6468	6468	6468	6468	6468	6468	6468	6468	6468	6468	6468	6349	6349	6468	0	0	0	0	0	0	0	0	0	0	0	0	0	0	0	0	0	0	0	0	0	0	0	0	0	6468	6468	6349	6468	6592	6592	6592	6592	6592	6592	0	0	0	0	0	0	0	0	0	0	0	0	0	0	6720	6720	6720	6592	6592	6592	6592	6592	6592	6592	6592	6720	6720	6720	6720	6592	6592	6592	6468	6468	6468	6592	6468	6468	6592	6592	6592	6592	6592	6592	6592	0	0	0	0	0	2570	2570	2551	2551	2551	2551	2551	2532	2514	2514	2496	2478	2460	2460	2443	2426	2426	2409	2409	2409	2392	2392	2376	2343	2327	2312	2312	2297	2297	2281	2266	2266	2252	2237	2223	2208	2208	2194	2181	2167	2167	2167	2167	2167	2167	2167	2140	2153	2140	2127	2114	2114	2114	2114	2114	2114	2114	2114	2114	2114	2114	2114	2114	2114	2114	2114	2127	2114	2114	2114	2101	2101	0	0	0	0	0	0	0	0	0	0	0	0	0	0	0	0	0	0	0	0	0	0	0	0	0	0	0	0	0	0	0	0	0	0	0	0	0	0
0	0	0	0	0	0	0	0	0	0	0	0	0	0	0	0	0	0	0	0	0	0	0	0	0	0	0	0	0	0	0	0	0	0	0	0	0	0	0	0	0	0	0	0	0	0	0	1177	1177	1177	1177	1173	1301	1301	1301	1301	1291	1291	1291	1291	1291	1291	1296	1291	1296	1291	1291	1287	1287	1287	1287	1282	1287	1287	1282	1282	1282	1282	1287	1287	1287	1282	1287	1287	1287	1277	1282	1282	1282	1282	1287	1287	1291	1291	1301	1306	1311	1311	1311	1311	1311	0	0	0	0	0	0	6468	6592	6592	6592	6592	6592	6592	6592	6720	6720	6592	6592	6592	6468	6592	6592	6592	6592	6468	6468	6468	6468	6468	6468	6468	6592	6592	6592	6592	6592	6592	6468	6468	6468	6468	6468	6468	6468	6468	6468	0	0	0	0	0	0	0	0	0	0	0	0	0	0	0	0	0	0	0	0	0	0	0	6468	6235	6349	6349	6349	0	0	0	0	0	0	0	0	0	0	0	0	0	0	0	0	0	0	6720	6592	6592	6592	6592	6468	6592	6468	6592	6592	6592	6592	6720	6720	6720	0	0	0	0	3698	3698	3698	3738	3738	3738	3698	3698	3698	3698	3698	3698	3698	3659	3698	3698	3698	3698	3698	3698	3698	3698	3659	3659	6349	6349	6349	6468	6468	6468	6468	6468	6468	6468	6468	6468	6468	6468	6468	6468	6592	6592	6592	6592	6468	6468	6468	6468	6468	6468	6592	6592	6592	6592	6592	6592	6592	6592	6592	6592	6592	6592	6468	6592	6468	6468	6349	6349	6349	6349	6349	6235	6349	6349	6468	6468	6468	6468	6592	6592	6592	6592	6592	0	0	0	0	6468	6468	6468	6592	6592	6592	6592	6592	6592	6720	6720	6592	6592	6592	6592	6592	0	0	6720	6720	6720	6853	6720	6592	6592	6720	6720	6720	6720	6720	6720	6720	6720	6720	6720	6720	6720	6720	6720	6720	6720	6720	6720	6720	6720	6592	6592	6592	6592	6592	6592	6468	6468	6468	6468	6468	6468	6468	6468	6468	6349	6468	6468	6468	6468	6468	6468	6468	6592	6592	6592	6592	6592	6592	6720	6592	6592	6592	6720	6720	6592	6720	6720	6592	6720	6720	6592	6592	6592	6592	6468	6468	6468	6468	6468	6468	6468	6592	6468	6468	6592	6468	6468	6468	6468	6468	6468	6468	6592	6592	6468	6468	6468	6468	6349	6349	6349	6349	6349	6349	6349	6349	6468	6468	6468	6468	6349	6349	6468	6468	6468	6468	6468	6468	6468	6468	6468	6468	6468	6468	6468	6349	6349	6349	6349	0	0	0	0	0	0	0	0	0	0	0	0	0	0	0	0	0	0	0	0	0	0	0	0	0	0	0	0	6349	6349	6468	6592	6468	6468	6468	6592	0	0	0	0	0	0	0	0	0	0	0	0	6592	6720	6720	6720	6720	6720	6720	6720	6720	6720	6720	6720	6592	6720	6592	6720	6720	6592	6592	6592	6592	6592	6592	6592	6592	6592	6592	6592	6592	6592	6592	6592	6592	0	0	0	0	0	0	2551	2551	2551	2551	2551	2532	2532	2514	2496	2496	2478	2460	2443	2443	2426	2409	2409	2392	2392	2392	2392	2376	2343	2327	2327	2312	2297	2297	2281	2281	2266	2252	2252	2223	2208	2194	2194	2181	2167	2181	2167	2167	2167	2167	2167	2153	2153	2140	2127	2114	2114	2101	2101	2114	2114	2114	2114	2114	2114	2114	2114	2114	2114	2114	2114	2114	2114	2114	2114	2114	2114	0	0	0	0	0	0	0	0	0	0	0	0	0	0	0	0	0	0	0	0	0	0	0	0	0	0	0	0	0	0	0	0	0	0	0	0	0	0
0	0	0	0	0	0	0	0	0	0	0	0	0	0	0	0	0	0	0	0	0	0	0	0	0	0	0	0	0	0	0	0	0	0	0	0	0	0	0	0	0	0	0	0	0	0	0	0	1177	1177	1177	1177	1296	1301	1301	1301	1301	1296	1296	1301	1301	1301	1301	1301	1301	1301	1296	1296	1291	1291	1291	1287	1291	1291	1287	1282	1287	1291	1296	1291	1291	1291	1291	1291	1291	1287	1287	1282	1287	1287	1291	1291	1291	1296	1306	1311	1316	1316	1321	1326	1326	1326	0	0	0	0	0	0	6592	6468	6592	6592	6592	6592	6592	6720	6720	6592	6592	6592	6592	6592	6592	6592	6592	6592	6592	6592	6592	6468	6468	6468	6592	6592	6592	6592	6592	6592	6468	6468	6468	6468	6468	6468	6468	6468	6468	0	0	0	0	0	0	0	0	0	0	0	0	0	0	0	0	0	0	0	0	0	0	0	0	0	0	0	0	0	0	0	0	0	0	0	0	0	0	0	0	0	0	0	0	0	0	0	0	6720	6592	6592	6468	6592	6592	6592	6592	6592	6592	6720	6720	6720	0	0	0	0	3738	3738	3738	3738	3738	3698	3698	3698	3698	3659	3698	3659	3659	3659	3659	3659	3659	3659	3659	3659	3659	3698	3698	3659	3659	3659	6468	6468	6468	6468	6468	6468	6468	6468	6468	6468	6468	6468	6592	6592	6592	6592	6592	6592	6592	6468	6468	6468	6468	6468	6592	6592	6592	6592	6592	6592	6592	6592	6592	6592	6592	6592	6592	6592	6592	6468	6468	6349	6349	6349	6468	6349	6468	6468	6468	6468	6468	6592	6592	6592	6592	6592	6592	0	0	0	0	6468	6468	6720	6592	6592	6592	6592	6592	6720	6720	6592	6592	6592	6592	6592	6592	0	6720	6720	6720	6720	6853	6720	6720	6720	6853	6720	6853	6853	6720	6720	6720	6720	6720	6720	6720	6720	6720	6720	6720	6720	6720	6720	6720	6720	6592	6592	6592	6592	6592	6592	6468	6592	6592	6468	6468	6468	6468	6468	6468	6468	6468	6468	6468	6468	6468	6468	6468	6592	6592	6592	6592	6592	6592	6592	6592	6592	6592	6720	6720	6720	6720	6720	6720	6720	6720	6720	6592	6592	6592	6592	6592	6468	6468	6468	6468	6468	6592	6592	6592	6592	6592	6592	6592	6592	6592	6592	6468	6592	6592	6592	6468	6468	6468	6468	6468	6468	6468	6468	6468	6468	6468	6592	6468	6468	6468	6468	6468	6468	6468	6468	6468	6468	6468	6592	6468	6468	6592	6468	6468	6468	6468	6349	0	0	0	0	0	0	0	0	0	0	0	0	0	0	0	0	0	0	0	0	0	0	0	0	0	0	0	0	0	0	0	6349	6468	6468	6349	6349	6468	0	0	0	0	0	0	0	0	0	0	0	0	6592	6592	6720	6720	6720	6720	6720	6853	6853	6853	6853	6853	6853	6853	6853	6720	6720	6720	6720	6720	6720	6592	6592	6592	6720	6592	6592	6592	6592	6720	6592	6592	6592	6592	0	0	0	0	0	0	2551	2570	2551	2551	2551	2532	2532	2514	2496	2478	2478	2460	2443	2443	2426	2409	2409	2392	2392	2392	2392	2376	2327	2327	2327	2312	2312	2297	2297	2281	2281	2266	2252	2223	2208	2194	2194	2181	2167	2181	2167	2167	2167	2167	2153	2140	2153	2140	2127	2114	2114	2114	2114	2114	2114	2114	2114	2114	2114	2114	2114	2114	2114	2114	2114	2114	2114	2114	2114	2114	2114	0	0	0	0	0	0	0	0	0	0	0	0	0	0	0	0	0	0	0	0	0	0	0	0	0	0	0	0	0	0	0	0	0	0	0	0	0	0
0	0	0	0	0	0	0	0	0	0	0	0	0	0	0	0	0	0	0	0	0	0	0	0	0	0	0	0	0	0	0	0	0	0	0	0	0	0	0	0	0	0	0	0	0	0	0	0	0	1177	1177	1177	1296	1296	1301	1306	1306	1306	1306	1306	1306	1306	1306	1301	1306	1301	1301	1301	1301	1296	1296	1296	1296	1296	1296	1291	1301	1301	1301	1301	1301	1296	1296	1296	1296	1291	1291	1287	1287	1291	1291	1296	1296	1296	1311	1316	1321	1326	1326	1331	1331	1336	1336	0	0	0	0	0	0	6468	6592	6720	6592	6592	6592	6720	6720	6720	6720	6592	6592	6592	6592	6592	6592	6592	6592	6592	6592	6592	6468	6468	6592	6592	6592	6592	6592	6720	6720	6592	6592	6592	6592	6592	6468	6349	6349	0	0	0	0	0	0	0	0	0	0	0	0	0	0	0	0	0	0	0	0	0	0	0	0	0	0	0	0	0	0	0	0	0	0	0	0	0	0	0	0	0	0	0	0	0	0	0	0	6720	6720	6592	6592	6592	6592	6592	6592	6592	6592	6720	6720	6720	0	0	0	3698	3738	3738	3698	3738	3698	3698	3698	3698	3698	3659	3698	3659	3659	3659	3659	3659	3659	3659	3659	3659	3659	3659	3659	3659	3659	3659	6349	6349	6468	6468	6468	6468	6468	6468	6592	6592	6592	6592	6592	6592	6592	6592	6592	6592	6592	6468	6468	6468	6468	6468	6592	6592	6592	6592	6592	6592	6592	6592	6592	6592	6592	6592	6592	6592	6592	6468	6468	6468	6468	6468	6468	6468	6468	6468	6468	6468	6468	6592	6592	6592	6592	6592	6592	0	0	0	0	0	0	6720	6720	6720	6720	6592	6592	6592	6720	6592	6592	6592	6592	6592	6592	6720	6720	6720	6720	6720	6853	6853	6853	6853	6853	6853	6853	6853	6720	6720	6720	6720	6720	6720	6720	6720	6720	6720	6720	6720	6720	6720	6720	6720	6592	6592	6592	6592	6592	6592	6592	6592	6592	6592	6592	6468	6468	6468	6468	6468	6468	6468	6468	6468	6468	6468	6468	6468	6468	6468	6468	6592	6592	6592	6720	6592	6720	6720	6720	6720	6720	6720	6720	6720	6720	6720	6592	6592	6592	6592	6592	6592	6468	6592	6468	6468	6592	6592	6592	6720	6720	6720	6720	6592	6592	6592	6592	6592	6592	6592	6592	6592	6468	6468	6468	6468	6468	6468	6468	6592	6592	6720	6592	6592	6468	6468	6468	6592	6592	6468	6592	6592	6592	6592	6592	6592	6592	6592	6592	6592	6468	0	0	0	0	0	0	0	0	0	0	0	0	0	0	0	0	0	0	0	0	0	0	0	0	0	0	0	0	0	0	0	0	0	6468	6468	6349	6349	0	0	0	0	0	0	0	0	0	0	0	0	6720	6720	6720	6720	6853	6853	6853	6853	6853	6853	6992	6853	6853	6853	6853	6853	6720	6853	6853	6853	6720	6720	6720	6592	6720	6720	6720	6592	6720	6720	6720	6720	6720	6592	6592	0	0	0	0	0	0	0	2551	2551	2551	2551	2532	2514	2514	2496	2478	2478	2460	2443	2443	2426	2409	2409	2409	2392	2392	2392	2376	2343	2343	2327	2312	2297	2281	2281	2281	2281	2266	2266	2223	2208	2194	2181	2181	2167	2167	2167	2167	2153	2153	2153	2140	2153	2140	2127	2114	2114	2114	2114	2114	2114	2114	2114	2114	2114	2114	2114	2114	2114	2101	2101	2114	2114	2114	2114	2114	2114	0	0	0	0	0	0	0	0	0	0	0	0	0	0	0	0	0	0	0	0	0	0	0	0	0	0	0	0	0	0	0	0	0	0	0	0	0	0
0	0	0	0	0	0	0	0	0	0	0	0	0	0	0	0	0	0	0	0	0	0	0	0	0	0	0	0	0	0	0	0	0	0	0	0	0	0	0	0	0	0	0	0	0	0	0	0	0	0	0	0	1306	1301	1301	1326	1316	1311	1311	1316	1311	1311	1306	1306	1311	1306	1306	1306	1301	1301	1301	1306	1306	1306	1306	1306	1306	1306	1306	1306	1301	1301	1301	1301	1301	1291	1291	1287	1287	1291	1296	1296	1296	1296	1311	1321	1326	1326	1331	1342	1336	1336	1336	0	0	0	0	0	0	0	6720	6720	6720	6720	6720	6592	6720	6720	6720	6720	6720	6720	6720	6720	6720	6592	6720	6720	6592	6592	6592	6592	6592	6720	6720	6720	6720	6720	6720	6720	6720	6592	6592	6592	6592	6468	6468	0	0	0	0	0	0	0	0	0	0	0	0	0	0	0	0	0	0	0	0	0	0	0	0	0	0	0	0	0	0	0	0	0	0	0	0	0	0	0	0	0	0	0	0	0	0	0	0	6853	6853	6720	6592	6720	6592	6592	6592	6468	6592	6592	6592	6720	0	3738	3738	3738	3738	3738	3738	3738	3698	3698	3698	3698	3698	3659	3659	3659	3659	3659	3659	3659	3659	3659	3659	3659	3659	3698	3698	3698	3659	3659	6468	6349	6468	6468	6468	6468	6592	6468	6592	6592	6592	6592	6720	6720	6720	6592	6720	6720	6720	6720	6720	6592	6592	6592	6720	6720	6720	6720	6720	6720	6720	6720	6720	6720	6592	6592	6592	6592	6592	6592	6468	6468	6468	6592	6592	6468	6468	6592	6592	6592	6592	6592	6592	6592	6592	6592	6592	0	0	0	0	0	0	0	6720	6720	6720	6592	6720	6720	6720	6720	6720	6720	6720	6720	6592	6720	6720	6853	6720	6720	6853	6853	6720	6853	6853	6853	6853	6853	6720	6720	6720	6720	6720	6720	6720	6720	6720	6720	6720	6720	6720	6720	6592	6720	6720	6592	6592	6592	6592	6592	6592	6592	6592	6592	6592	6592	6468	6468	6468	6592	6592	6592	6592	6592	6592	6468	6468	6592	6592	6468	6592	6592	6592	6720	6592	6592	6720	6720	6720	6720	6720	6720	6720	6720	6720	6592	6592	6592	6592	6592	6592	6592	6468	6468	6468	6592	6592	6592	6720	6720	6720	6720	6720	6720	6720	6720	6720	6592	6720	6592	6592	6592	6468	6468	6468	6468	6468	6468	6468	6592	6592	6720	6592	6592	6592	6592	6592	6720	6592	6592	6592	6592	6720	6720	6592	6720	6720	6720	6720	6592	0	0	0	0	0	0	0	0	0	0	0	0	0	0	0	0	0	0	0	0	0	0	0	0	0	0	0	0	0	0	0	0	0	0	0	0	0	0	0	0	0	0	0	0	0	0	0	0	0	0	6720	6720	6853	6720	6853	6992	6992	6992	6992	6992	6992	6853	6853	6853	6853	6853	0	6853	6853	6853	6853	6853	6720	6720	6853	6853	6853	6720	6720	6720	6720	6720	6720	0	0	0	0	0	0	0	0	0	2551	2551	2532	2532	2532	2514	2514	2496	2496	2478	2460	2460	2460	2443	2426	2409	2409	2409	2392	2392	2392	2343	2343	2327	2312	2297	2281	2281	2281	2266	2266	2252	2223	2223	2208	2194	2181	2167	2167	2167	2153	2153	2153	2153	2140	2140	2140	2127	2114	2114	2114	2114	2114	2114	2114	2114	2114	2114	2114	2114	2101	2101	2101	2101	2114	2114	2114	2114	2114	2114	0	0	0	0	0	0	0	0	0	0	0	0	0	0	0	0	0	0	0	0	0	0	0	0	0	0	0	0	0	0	0	0	0	0	0	0	0	0
0	0	0	0	0	0	0	0	0	0	0	0	0	0	0	0	0	0	0	0	0	0	0	0	0	0	0	0	0	0	0	0	0	0	0	0	0	0	0	0	0	0	0	0	0	0	0	0	0	0	0	0	1306	1301	1331	1331	1321	1321	1321	1321	1316	1311	1311	1311	1311	1311	1311	1306	1306	1306	1306	1311	1311	1311	1316	1311	1316	1311	1311	1311	1306	1306	1301	1301	1301	1306	1296	1291	1291	1296	1301	1296	1296	1296	1316	1326	1331	1331	1336	1342	1336	1336	1336	0	0	0	0	0	0	0	6592	6592	6720	6720	6592	6592	6592	6720	6720	6592	6592	6720	6720	6720	6720	6720	6720	6720	6720	6720	6720	6720	6720	6720	6720	6720	6853	6720	6853	6853	6720	6720	6720	6720	6592	6468	6468	0	0	0	0	0	0	0	0	0	0	0	0	0	0	0	0	0	0	0	0	0	0	0	0	0	0	0	0	0	0	0	0	0	0	0	0	0	0	0	0	0	0	0	0	0	0	0	0	6853	6853	6720	6592	6720	6720	6720	6720	6720	6720	6720	6592	0	0	3698	3698	3738	3698	3698	3698	3698	3698	3698	3698	3698	3698	3698	3698	3659	3659	3659	3659	3659	3659	3659	3659	3659	3698	3698	3698	3698	3698	6720	6720	6468	6468	6468	6592	6468	6468	6468	6592	6592	6592	6592	6720	6720	6592	6592	6720	6720	6720	6592	6720	6720	6720	6592	6720	6720	6720	6720	6720	6720	6720	6720	6720	6720	6720	6720	6720	6720	6592	6592	6468	6468	6592	6592	6592	6592	6592	6720	6720	6720	6720	6720	6592	6592	6592	6592	6592	0	0	0	0	0	0	0	0	6720	6720	6592	6720	6720	6720	6720	6720	6720	6853	6720	6720	6853	6853	6853	6720	6720	6853	6720	6592	6592	6592	6853	6853	6853	6720	6720	6853	6720	6720	6720	6720	6720	6720	6720	6720	6720	6853	6853	6853	6720	6720	6720	6720	6720	6720	6720	6720	6720	6720	6720	6592	6592	6468	6592	6592	6592	6592	6592	6592	6592	6592	6468	6468	6468	6468	6468	6592	6592	6592	6592	6468	6592	6720	6720	6720	6720	6720	6720	6720	6720	6720	6592	6592	6592	6592	6592	6592	6592	6592	6592	6592	6592	6720	6720	6720	6720	6720	6720	6720	6720	6720	6720	6720	6720	6720	6592	6592	6592	6468	6468	6468	6468	6592	6592	6592	6592	6592	6720	6720	6720	6720	6720	6720	6720	6720	6720	6720	6720	6720	6720	6592	6720	6720	6720	6720	0	0	0	0	0	0	0	0	0	0	0	0	0	0	0	0	0	0	0	0	0	0	0	0	0	0	0	0	0	0	0	0	0	0	0	0	0	0	0	0	0	0	0	0	0	0	0	0	0	6853	6720	6853	6720	6720	6720	6853	6992	6992	6992	6992	6992	6992	6992	6992	6992	6992	6992	0	0	0	6853	6853	6853	6853	6853	6853	6853	6853	6853	6853	6853	6853	6720	0	0	0	0	0	0	0	0	0	0	2532	2551	2532	2532	2532	2514	2514	2496	2496	2478	2460	2460	2460	2443	2426	2426	2409	2409	2409	2392	2392	2359	2343	2327	2297	2281	2281	2281	2281	2266	2266	2266	2237	2223	2208	2194	2181	2167	2167	2153	2153	2153	2153	2153	2127	2140	2127	2127	2114	2114	2101	2101	2114	2114	2114	2114	2114	2114	2114	2114	2114	2114	2114	2114	2114	2114	2114	2114	2114	2114	0	0	0	0	0	0	0	0	0	0	0	0	0	0	0	0	0	0	0	0	0	0	0	0	0	0	0	0	0	0	0	0	0	0	0	0	0	0
0	0	0	0	0	0	0	0	0	0	0	0	0	0	0	0	0	0	0	0	1358	1358	0	0	0	0	0	0	0	0	0	0	0	0	0	0	0	0	0	0	0	0	0	0	0	0	0	0	0	0	0	0	0	0	1336	1336	1331	1331	1326	1326	1321	1316	1316	1316	1316	1311	1316	1311	1311	1316	1316	1321	1321	1321	1321	1321	1321	1321	1316	1316	1311	1311	1306	1306	1306	1306	1306	1296	1296	1301	1306	1306	1306	1306	1326	1331	1331	1331	1336	1342	1342	1336	1336	1363	1363	1363	0	0	0	0	6592	6720	6720	6720	6592	6592	6720	6720	6720	6720	6592	6720	6720	6720	6720	6720	6720	6720	6720	6720	6720	6720	6720	6720	6720	6720	6853	6720	6853	6853	6720	6720	6720	6720	6592	6468	6468	0	0	0	0	0	0	0	0	0	0	0	0	0	0	0	0	0	0	0	0	0	0	0	0	0	0	0	0	0	0	0	0	0	0	0	0	0	0	0	0	0	0	0	0	0	0	0	0	0	0	0	0	6720	6720	6853	6720	6720	6720	6720	0	0	0	3698	3698	3698	3738	3698	3698	3698	3698	3698	3698	3698	3698	3698	3698	3659	3659	3659	3659	3659	3659	3659	3659	3659	3698	3698	3698	3698	3698	3698	6720	6720	6592	6592	6592	6592	6592	6592	6592	6592	6592	6592	6592	6592	6592	6592	6720	6720	6720	6592	6720	6720	6720	6592	6720	6720	6720	6720	6720	6720	6720	6720	6720	6720	6592	6720	6592	6720	6592	6592	6468	6592	6592	6592	6720	6720	6720	6853	6720	6720	6853	6853	6720	6720	6853	6853	6853	0	0	0	0	0	0	0	0	6720	6720	6592	6592	6720	6720	6720	6720	6720	6853	6720	6720	6853	6853	6853	6720	6720	6720	6853	6853	6853	6853	6853	6720	6720	6720	6720	6720	6720	6853	6853	6853	6853	6853	6853	6853	6853	6853	6853	6853	6853	6720	6720	6720	6720	6720	6720	6720	6720	6720	6720	6592	6592	6592	6592	6592	6592	6592	6592	6592	6592	6592	6592	6468	6468	6592	6592	6592	6592	6592	6592	6592	6592	6720	6720	6720	6720	6720	6720	6720	6720	6720	6592	6592	6592	6592	6592	6592	6592	6592	6592	6592	6720	6720	6720	6720	6720	6853	6853	6853	6720	6720	6720	6720	6720	6720	6592	6592	6592	6592	6592	6592	6592	6592	6720	6592	6592	6720	6853	6720	6720	6720	6720	6720	6853	6853	6720	6720	6720	6720	6853	6720	6853	6853	6853	0	0	0	0	0	0	0	0	0	0	0	0	0	0	0	0	0	0	0	0	0	0	0	0	0	0	0	0	0	0	0	0	0	0	0	0	0	0	0	0	0	0	0	0	0	0	0	0	0	6853	6853	6853	6853	6720	6720	6720	6992	6992	6992	6992	6992	6992	7137	6992	6992	6992	6992	6992	0	0	0	0	0	6853	6853	6853	6853	6992	6992	6853	6853	6853	6853	0	0	0	0	0	0	0	0	0	0	0	2532	2570	2551	2551	2532	2514	2514	2496	2478	2478	2460	2443	2460	2443	2426	2426	2409	2409	2409	2392	2392	2343	2343	2312	2297	2297	2281	2281	2281	2281	2266	2266	2252	2223	2223	2194	2181	2167	2167	2153	2153	2153	2140	2140	2127	2127	2127	2114	2114	2101	2101	2114	2114	2114	2114	2114	2114	2114	2114	2114	2114	2114	2101	2114	2114	2114	2114	2114	2114	2114	0	0	0	0	0	0	0	0	0	0	0	0	0	0	0	0	0	0	0	0	0	0	0	0	0	0	0	0	0	0	0	0	0	0	0	0	0	0
0	0	0	0	0	0	0	0	1342	1342	1347	1347	0	1342	1342	1347	1347	0	0	0	1358	1347	1347	0	0	0	0	0	0	0	0	0	0	0	0	0	0	0	0	0	0	0	0	0	0	0	0	0	0	0	0	0	1331	1336	1331	1331	1331	1331	1331	1326	1326	1321	1321	1326	1321	1321	1321	1316	1321	1321	1321	1321	1321	1326	1326	1326	1326	1326	1321	1326	1321	1316	1316	1316	1316	1316	1316	1311	1311	1311	1316	1311	1311	1321	1331	1336	1342	1342	1347	1347	1347	1347	1363	1368	1368	1368	1368	0	0	0	0	6720	6720	6720	6720	6592	6720	6720	6853	6853	6853	0	6853	6720	6853	6720	6853	6720	6720	6720	6720	6720	6720	6720	6720	6720	0	0	0	0	0	0	0	0	0	0	0	0	0	0	0	0	0	0	0	0	0	0	0	0	0	0	0	0	0	0	0	0	0	0	0	0	0	0	0	0	0	0	0	0	0	0	0	0	0	0	0	0	0	0	0	0	0	0	0	0	0	0	0	6720	6720	6853	6720	6720	6720	6720	0	0	0	3698	3698	3698	3738	3738	3738	3698	3738	3698	3698	3698	3698	3698	3659	3659	3659	3659	3659	3659	3659	3659	3659	3698	3698	3698	3698	3738	3738	3738	6592	6592	6592	6592	6720	6592	6592	6592	6720	6592	6592	6592	6592	6592	6468	6592	6592	6592	6720	6720	6720	6720	6720	6720	6853	6853	6853	6853	6853	6853	6720	6720	6720	6720	6720	6720	6720	6720	6720	6720	6720	6853	6853	6720	6720	6720	6853	6853	6853	6853	6853	6853	6853	6853	6853	6853	6720	6720	0	0	0	0	0	0	0	6720	6592	6592	6592	6592	6720	6720	6720	6853	6853	6853	6720	6853	6853	6853	6720	6720	6720	6853	6853	6853	6853	6853	6720	6720	6720	6720	6720	6720	6720	6853	6853	6720	6720	6720	6720	6853	6720	6720	6853	6853	6853	6853	6720	6720	6720	6720	6720	6720	6720	6720	6592	6592	6592	6592	6592	6592	6592	6592	6592	6592	6592	6592	6592	6592	6592	6592	6592	6592	6592	6592	6592	6592	6720	6720	6720	6720	6720	6720	6720	6720	6720	6592	6592	6592	6592	6592	6592	6592	6592	6592	6592	6720	6720	6720	6720	6720	6853	6853	6853	6720	6720	6720	6720	6720	6720	6720	6720	6720	6720	6592	6592	6720	6720	6720	6592	6720	6720	6853	6720	6720	6853	6720	6720	6853	6853	6720	6853	6720	6853	6853	6853	6853	6853	6853	0	0	0	0	0	0	0	0	0	0	0	0	0	0	0	0	0	0	0	0	0	0	0	0	0	0	0	0	0	0	0	0	0	0	0	0	0	0	0	0	0	0	0	0	0	0	0	0	6992	6992	6992	6992	6853	6853	6853	6853	6992	6992	7137	6992	6992	7137	7137	6992	6992	6992	6992	6992	6992	0	0	0	0	0	0	6853	6992	6992	6992	6992	0	0	0	0	0	0	0	0	0	0	0	0	0	0	0	2589	2570	2570	2551	2514	2514	2496	2496	2460	2460	2443	2443	2426	2426	2426	2409	2409	2409	2392	2392	2343	2343	2312	2297	2297	2281	2281	2281	2281	2266	2266	2252	2223	2223	2208	2181	2167	2167	2153	2153	2153	2140	2140	2127	2127	2127	2127	2114	2114	2114	2114	2114	2114	2114	2114	2114	2114	2114	2114	2114	2114	2114	2114	2114	2114	2114	2114	2114	2114	0	0	0	0	0	0	0	0	0	0	0	0	0	0	0	0	0	0	0	0	0	0	0	0	0	0	0	0	0	0	0	0	0	0	0	0	0	0
0	0	0	0	0	0	0	0	1347	1347	1352	1347	1347	1347	1347	1347	1374	1374	1363	1363	1363	1358	1358	1352	1352	1352	1352	1352	0	0	0	0	0	0	0	0	0	0	0	0	0	0	0	0	0	0	0	0	0	0	0	1336	1331	1331	1331	1331	1331	1331	1331	1336	1331	1331	1331	1331	1331	1331	1326	1326	1326	1331	1326	1326	1326	1326	1326	1326	1331	1326	1326	1326	1326	1326	1321	1326	1321	1336	1336	1336	1336	1336	1331	1331	1336	1342	1342	1342	1342	1347	1347	1352	1347	1352	1363	1368	1368	1374	1379	1379	0	0	0	0	0	0	6720	6592	6592	6720	6720	6853	6853	0	6853	6720	6853	6720	6853	6853	6720	6720	6720	6720	6853	6853	6853	6853	0	0	0	0	0	0	0	0	0	0	0	0	0	0	6720	6853	6853	0	0	0	0	0	0	0	0	0	0	0	0	0	0	0	0	0	0	0	0	0	0	0	0	0	0	0	0	0	0	0	0	0	0	0	0	0	0	0	0	0	0	0	0	0	0	0	0	0	0	0	0	0	0	0	0	0	0	3698	3698	3698	3698	3698	3698	3698	3698	3698	3698	3698	3698	3659	3659	3659	3659	3659	3659	3659	3659	3659	3698	3698	3698	3698	3698	6853	6720	6720	6720	6720	6720	6720	6720	6720	6720	6720	6592	6592	6592	6592	6468	6468	6592	6592	6592	6853	6853	6853	6853	6853	6992	6992	6992	6992	6992	6853	0	0	0	0	6592	6853	6853	6853	6720	6720	6853	6992	6853	6853	6853	6853	6853	6853	6853	6992	6992	6992	6853	6853	6853	6853	6720	6720	0	0	0	0	0	0	0	6720	6720	6592	6592	6592	6720	6853	6853	6992	6992	6992	6853	6992	6853	6853	6720	6720	6720	6992	6853	6853	6853	6853	6853	6853	6720	6853	6853	6853	6853	6853	6853	6853	6853	6853	6853	6853	6853	6853	6853	6853	6720	6720	6720	6720	6853	6853	6853	6720	6720	6853	6720	6720	6592	6592	6592	6720	6592	6592	6592	6592	6592	6592	6592	6592	6720	6592	6592	6592	6592	6592	6592	6720	6720	6720	6720	6853	6720	6853	6720	6720	6720	6720	6720	6720	6720	6720	6592	6592	6720	6720	6592	6720	6720	6720	6720	6853	6853	6853	6853	6720	6720	6720	6720	6720	6720	6720	6720	6720	6720	6720	6720	6720	6720	6720	6720	6720	6720	6853	6853	6853	6853	6720	6720	6853	6853	6853	6853	6853	6853	6853	6853	6853	6853	0	0	0	0	0	0	0	0	0	0	0	0	0	0	0	0	0	0	0	0	0	0	0	0	0	0	0	0	0	0	0	0	0	0	0	0	0	0	0	0	0	0	0	0	0	0	0	0	0	6992	6992	6992	6992	6992	6853	6853	6853	6992	6992	6992	6992	6992	7137	7137	6992	6992	6992	6992	6992	6992	0	0	0	0	0	0	6992	6992	6992	6992	6992	0	0	0	0	0	0	0	0	0	0	0	0	0	0	0	2589	2570	2570	2551	2532	2514	2514	2496	2478	2460	2460	2460	2443	2426	2426	2426	2409	2409	2392	2392	2359	2343	2312	2297	2297	2281	2281	2281	2281	2266	2266	2252	2223	2223	2208	2181	2167	2167	2153	2153	2153	2140	2127	2114	2127	2127	2114	2114	2114	2114	2114	2114	2114	2114	2114	2114	2114	2114	2114	2114	2114	2114	2114	2114	2114	2114	2114	2114	2114	0	0	0	0	0	0	0	0	0	0	0	0	0	0	0	0	0	0	0	0	0	0	0	0	0	0	0	0	0	0	0	0	0	0	0	0	0	0
0	0	0	0	0	0	0	0	1347	1347	1352	1352	1347	1347	1347	1358	1363	1368	1363	1363	1363	1358	1358	1358	1358	1352	1358	1352	1352	0	1363	1363	0	0	0	0	0	0	0	0	0	0	0	0	0	0	0	0	0	0	0	1331	1331	1331	1331	1331	1336	1336	1336	1342	1336	1336	1342	1336	1342	1336	1331	1336	1336	1336	1331	1331	1331	1331	1331	1342	1342	1347	1336	1336	1336	1336	1336	1336	1336	1342	1342	1342	1342	1342	1342	1342	1347	1347	1347	1347	1347	1347	1352	1352	1352	1363	1374	1374	1374	1379	1390	1390	1390	1390	0	0	0	0	0	6592	6592	6720	6720	0	0	0	6853	6853	6853	6720	6853	6720	6853	6720	6853	6853	6853	6853	6853	6992	6992	0	0	0	0	0	0	0	0	0	0	0	0	0	6853	6592	6592	6592	6468	6468	0	0	0	0	0	0	0	0	0	0	0	0	0	0	0	0	0	0	0	0	0	0	0	0	0	0	0	0	0	0	0	0	0	0	0	0	0	0	0	0	0	0	0	0	0	0	0	0	0	0	0	0	0	0	0	3698	3698	3698	3698	3698	3698	3698	3698	3698	3698	3698	3698	3659	3659	3659	3659	3659	3659	3659	3659	3659	3698	3698	3698	3698	3698	6853	6853	6720	6720	6720	6720	6720	6720	6720	6720	6720	6720	6720	6720	6592	6592	6592	6592	6592	6592	6853	6853	6853	6853	6853	6992	6992	6992	6992	6992	0	0	0	0	0	6592	6853	6853	6853	6853	6853	6853	6992	6853	6853	6853	6853	6992	6992	6992	6992	6992	6992	6992	6992	6853	6853	6853	6853	0	0	0	0	0	0	0	6720	6592	6592	6720	6592	6720	6853	6992	6992	6992	6992	6853	6992	6992	6853	6720	6720	6720	6853	6992	6992	6992	6992	6992	6992	6853	6853	6853	6853	6853	6853	6853	6853	6853	6853	6853	6853	6853	6853	6853	6853	6853	6853	6853	6853	6853	6853	6853	6853	6853	6853	6853	6720	6720	6592	6592	6720	6592	6592	6592	6720	6720	6720	6720	6720	6720	6720	6720	6720	6720	6720	6720	6720	6720	6720	6853	6853	6853	6853	6720	6853	6853	6720	6720	6720	6720	6720	6592	6720	6720	6720	6720	6720	6720	6720	6853	6853	6853	6853	6853	6720	6720	6720	6720	6720	6720	6720	6720	6720	6720	6720	6720	6720	6720	6720	6720	6720	6720	6853	6853	6853	6853	6720	6720	6853	6720	6853	6853	6720	6853	6853	6853	6853	6853	0	0	0	0	0	0	0	0	0	0	0	0	0	0	0	0	0	0	0	0	0	0	0	0	0	0	0	0	0	0	0	0	0	0	0	0	0	0	0	0	0	0	0	0	0	0	0	0	6992	6992	6992	6992	6992	6992	6992	6992	6992	6992	6992	6992	6992	6992	7137	6992	6992	6992	6992	6992	6992	6992	0	0	0	0	0	0	6992	6992	6992	6992	0	0	0	0	0	0	0	0	0	0	0	0	0	0	0	0	2570	2570	2570	2551	2532	2514	2514	2496	2478	2460	2460	2460	2443	2443	2426	2426	2409	2409	2392	2392	2343	2327	2312	2297	2281	2281	2281	2281	2266	2266	2252	2237	2223	2223	2208	2194	2167	2167	2153	2153	2153	2140	2140	2127	2127	2127	2114	2114	2114	2114	2114	2114	2114	2114	2127	2127	2114	2114	2114	2114	2114	2114	2114	2114	2114	2114	2114	2114	2114	0	0	0	0	0	0	0	0	0	0	0	0	0	0	0	0	0	0	0	0	0	0	0	0	0	0	0	0	0	0	0	0	0	0	0	0	0	0
0	0	0	0	0	0	0	0	1352	1352	1358	1358	1358	1358	1363	1363	1363	1368	1363	1363	1363	1358	1358	1358	1358	1352	1358	1352	1352	1347	1368	1374	1374	0	0	0	0	0	0	0	0	0	0	0	0	0	0	0	0	0	0	1336	1336	1336	1331	1336	1336	1336	1342	1347	1342	1342	1342	1352	1352	1347	1347	1347	1347	1347	1342	1342	1342	1347	1347	1347	1347	1352	1347	1347	1342	1342	1342	1342	1342	1342	1342	1342	1342	1342	1347	1347	1347	1347	1347	1352	1352	1352	1352	1358	1358	1368	1374	1374	1379	1379	1390	1396	1390	1402	1402	0	0	0	0	0	0	0	0	0	0	0	6853	6853	6853	6720	6720	6720	6853	6720	6853	6853	6853	6853	6992	6992	6992	0	0	0	0	0	0	0	0	0	0	0	0	6853	6853	6853	6720	6592	6592	6592	0	0	0	0	0	0	0	0	0	0	0	0	0	0	0	0	0	0	0	0	0	0	0	0	0	0	0	0	0	0	0	0	0	0	0	0	0	0	0	0	0	0	0	0	0	0	0	0	0	0	0	0	0	0	0	0	3698	3698	3698	3698	3698	3698	3698	3698	3698	3698	3698	3698	3698	3659	3659	3659	3659	3659	3659	3698	3698	3698	3698	3698	3698	6853	6853	6853	6853	6720	6720	6720	6720	6720	6720	6720	6720	6720	6720	6592	6592	6592	6592	6592	0	6853	6853	6853	6853	6853	6853	6853	6992	6992	6992	0	0	0	0	0	0	6853	6853	6853	6853	6853	6992	6992	6992	6992	6992	6992	6992	6992	6992	6992	6992	6992	6992	6992	6853	6853	6853	6853	0	0	0	0	0	0	0	6720	6592	6592	6853	6720	6720	6992	6992	6992	6992	6992	6853	6992	6992	6853	6853	6720	6720	6992	6853	6992	6992	6992	6992	6992	6853	6853	6720	6853	6853	6992	6853	6853	6853	6853	6853	6992	6992	6992	6992	6992	6992	6992	6992	6992	6992	6992	6853	6853	6992	6992	6992	6853	6720	6720	6720	6720	6592	6592	6720	6720	6720	6720	6720	6720	6853	6853	6720	6853	6720	6720	6720	6720	6720	6720	6853	6853	6853	6853	6853	6853	6853	6853	6853	6853	6853	6853	0	6720	6720	6720	6720	6720	6853	6853	6853	6853	6853	6853	6853	6720	6720	6720	6853	6720	6720	6720	6720	6720	6720	6720	6720	6720	6720	6720	6720	6720	6720	6853	6853	6720	6720	6720	6720	6853	6853	6853	6853	6853	6853	6853	6853	6853	6853	0	0	0	0	0	0	0	0	0	0	0	0	0	0	0	0	0	0	0	0	0	0	0	0	0	0	0	0	0	0	0	0	0	0	0	0	0	0	0	0	0	0	0	0	0	0	0	7137	7137	7137	7137	7137	7137	6992	6992	6992	6992	6992	6992	6992	6992	6992	7137	6992	6992	6992	6992	6992	6992	6992	6992	6992	6992	6992	7137	7137	7137	7137	7137	7137	0	0	0	0	0	0	0	0	0	0	0	0	0	0	0	0	2589	2570	2570	2551	2532	2532	2532	2514	2514	2460	2443	2443	2443	2443	2426	2426	2409	2409	2392	2376	2343	2327	2312	2297	2297	2281	2281	2266	2266	2237	2237	2223	2223	2223	2208	2194	2181	2167	2153	2153	2153	2140	2140	2140	2127	2127	2114	2114	2114	2114	2127	2114	2114	2114	2114	2114	2114	2114	2114	2114	2114	2114	2114	2114	2114	2114	2114	2114	2114	0	0	0	0	0	0	0	0	0	0	0	0	0	0	0	0	0	0	0	0	0	0	0	0	0	0	0	0	0	0	0	0	0	0	0	0	0	0
0	0	0	0	0	0	0	0	1352	1358	1358	1363	1358	1363	1363	1363	1363	1368	1368	1368	1363	1363	1363	1363	1358	1358	1358	1358	1358	1358	1358	1374	1374	1379	1379	1368	1368	0	0	0	0	0	0	0	0	0	0	0	0	0	0	1336	1336	1336	1342	1342	1347	1347	1358	1358	1363	1363	1363	1363	1363	1358	1358	1358	1352	1352	1347	1347	1352	1352	1352	1352	1352	1358	1358	1352	1347	1347	1347	1347	1342	1347	1347	1347	1347	1347	1347	1352	1352	1352	1347	1352	1352	1358	1358	1358	1363	1368	1374	1374	1379	1379	1390	1396	1396	1402	1402	0	0	0	0	0	0	0	0	0	0	0	6853	6853	6720	6720	6720	6720	6853	6853	6853	6992	6992	6992	6992	6992	6992	6992	0	0	0	0	0	0	0	0	0	0	0	6853	6853	6853	6592	6592	6592	6592	0	0	0	0	0	0	0	0	0	0	0	0	0	0	0	0	0	0	0	0	0	0	0	0	0	0	0	0	0	0	0	0	0	0	0	0	0	0	0	0	0	0	0	0	0	0	0	0	0	0	0	0	0	0	0	0	0	0	3698	3698	3738	3738	3738	3698	3698	3698	3698	3698	3698	3659	3659	3659	3659	3698	3698	3698	3698	3698	3698	3698	3698	6992	6853	6853	6853	6853	6853	6853	6853	6853	6853	6853	6720	6853	6720	6720	6592	6592	6592	6592	0	6853	6853	6853	6853	6853	6853	6992	6992	6992	6992	0	0	0	0	0	0	0	6853	6992	6992	6992	6992	6992	6992	6992	6992	6992	6992	6992	6853	6853	6853	6992	6853	6853	6853	6853	6853	6853	0	0	0	0	0	0	0	0	0	0	6853	6853	6853	6992	6992	6992	6992	6992	6853	6853	6992	6853	6853	6720	6720	6853	6992	6992	6992	6992	7137	7137	6992	6992	7137	7137	6853	6992	6853	6853	6992	6853	6992	7137	6992	6992	6992	6992	6992	6853	6992	6992	6992	6992	6992	6992	6992	6992	6992	6992	6720	6720	6720	6720	6592	6592	6720	6720	6853	6853	6853	6853	6853	6992	6853	6853	6853	6853	6853	6853	6853	6853	6853	6992	6853	6853	6853	6992	6992	6853	6853	6853	6853	6853	6853	6853	6853	6853	6853	6853	6853	6853	6853	6853	6853	6853	6720	6720	6720	6720	6720	6720	6720	6720	6720	6720	6853	6720	6720	6720	6720	6720	6720	6720	6720	6853	6853	6720	6720	6720	6720	6853	6853	6853	6853	6853	6992	6992	6853	6992	6992	0	0	0	0	0	0	0	0	0	0	0	0	0	0	0	0	0	0	0	0	0	0	0	0	0	0	0	0	0	0	0	0	0	0	0	0	0	0	0	0	0	0	0	0	0	0	0	7137	7137	7137	7137	7137	7137	7137	7137	7137	7137	6992	6992	6992	6992	6992	7137	7137	6992	6992	6992	6992	6992	6992	6992	7137	6992	7137	7137	7137	7137	7137	7137	7137	7137	7137	6992	6992	6853	6853	6992	6992	6992	0	0	0	0	2570	2570	2589	2589	2570	2570	2551	2532	2532	2514	2514	2514	2460	2443	2443	2443	2426	2426	2409	2409	2409	2392	2376	2343	2343	2327	2312	2297	2281	2281	2266	2252	2237	2237	2223	2223	2208	2208	2194	2181	2167	2153	2153	2153	2140	2127	2140	2127	2127	2114	2114	2114	2114	2114	2114	2114	2114	2114	2114	2114	2114	2114	2114	2114	2114	2114	2114	2114	2114	2114	2114	2114	0	0	0	0	0	0	0	0	0	0	0	0	0	0	0	0	0	0	0	0	0	0	0	0	0	0	0	0	0	0	0	0	0	0	0	0	0	0
0	0	0	0	0	0	0	0	0	1363	1363	1363	1363	1368	1368	1368	1368	1368	1374	1374	1368	1368	1368	1368	1368	1363	1363	1363	1363	1363	1363	1363	1363	1368	1368	1363	1368	1368	0	0	0	0	0	0	0	0	0	0	0	0	0	0	0	0	1342	1342	1347	1358	1363	1368	1368	1368	1368	1368	1368	1368	1363	1363	1358	1358	1352	1352	1358	1358	1358	1358	1358	1358	1358	1358	1352	1352	1347	1347	1347	1352	1352	1347	1352	1352	1352	1358	1358	1352	1352	1358	1358	1358	1363	1363	1368	1374	1374	1379	1379	1385	1390	1396	1396	1402	1402	1402	0	0	0	0	0	0	0	0	0	0	6853	6853	6853	6853	6853	6853	6853	6853	6992	6992	6992	6992	6992	7137	6992	7137	7137	0	0	0	0	0	0	0	0	0	0	0	6992	6992	6720	6720	6592	6592	6592	0	0	0	0	0	0	0	0	0	0	0	0	0	0	0	0	0	0	0	0	0	0	0	0	0	0	0	0	0	0	0	0	0	0	0	0	0	0	0	0	0	0	0	0	0	0	0	0	0	0	0	0	0	0	0	0	0	0	3698	3738	3738	3698	3698	3698	3698	3698	3698	3698	3659	3659	3659	3659	3698	3698	3698	3698	3698	3698	3698	6992	6992	6853	6853	6853	6853	6853	6853	6853	6853	6853	6853	6853	6853	6853	6853	6992	6992	7137	7137	0	6853	6853	6853	6853	6853	6853	6992	6992	6992	6992	0	0	0	0	0	0	0	6853	6992	6992	6992	6992	6992	6992	6992	6992	6992	6992	6992	6853	6853	6853	6853	6992	6992	6992	6992	6992	6992	0	0	0	0	0	0	0	0	0	0	6853	6853	6853	0	6992	6992	6992	6992	6992	7137	6992	6853	6853	6720	6720	6853	6992	6992	7137	7137	7287	7287	7137	7137	7137	7137	0	0	0	0	6992	6853	6992	7137	6992	6853	6853	6992	6853	6853	6992	6992	6992	6992	6992	6992	6992	6992	6992	6992	6720	6720	6720	6720	6592	6720	6720	6720	6853	6853	6853	6853	6992	6992	6992	6853	6853	6853	6992	6853	6853	6853	6853	6853	6853	6853	6853	6853	6992	6853	6853	6853	6992	6853	6853	6992	6992	6853	6853	6853	6853	6853	6853	6853	6853	6853	6720	6720	6720	6720	6720	6720	6720	6853	6853	6853	6853	6853	6853	6853	6853	6720	6720	6720	6720	6853	6853	6720	6720	6720	6720	6853	6853	6992	6992	6992	6992	6992	6992	6992	6992	0	0	0	0	0	0	0	0	0	0	6992	6992	0	0	0	0	0	0	0	0	0	0	0	0	0	0	0	0	0	0	0	0	0	0	0	0	0	0	0	0	0	0	0	0	0	0	7137	7137	7137	7137	7287	7287	7287	7137	7137	7137	7137	7137	6992	6992	6992	7137	7137	7137	6992	6992	6992	6992	6992	6992	6992	7137	7137	7137	7137	7137	7137	7137	7137	7287	7287	7137	7137	7137	6992	6992	7137	7137	7137	0	0	0	0	2570	2570	2589	2589	2570	2551	2532	2532	2514	2514	2514	2496	2460	2443	2443	2426	2426	2426	2409	2409	2392	2392	2376	2343	2343	2327	2312	2297	2281	2266	2266	2252	2237	2237	2223	2223	2208	2208	2194	2181	2167	2153	2153	2153	2140	2140	2140	2140	2127	2114	2114	2114	2114	2114	2114	2114	2114	2114	2114	2114	2114	2114	2114	2114	2114	2114	2114	2114	2114	2114	2114	2114	0	0	0	0	0	0	0	0	0	0	0	0	0	0	0	0	0	0	0	0	0	0	0	0	0	0	0	0	0	0	0	0	0	0	0	0	0	0
0	0	0	0	0	0	0	0	0	1368	1368	1363	1368	1368	1374	1374	1374	1379	1379	1379	1379	1379	1385	1385	1385	1374	1379	1379	1379	1379	1379	1379	1379	1374	1374	1368	1368	1368	1368	0	0	0	0	0	0	0	0	0	0	0	0	0	0	0	0	0	1347	1368	1374	1374	1374	1374	1374	1374	1374	1374	1374	1368	1368	1368	1368	1368	1368	1363	1368	1363	1363	1363	1363	1363	1363	1363	1358	1358	1352	1358	1358	1352	1358	1358	1363	1363	1363	1358	1358	1363	1363	1363	1368	1368	1374	1379	1379	1379	1379	1390	1396	1402	1396	1402	1407	1407	0	0	0	0	0	0	0	0	0	0	0	6853	6853	6853	6992	6992	6992	6992	6992	7137	7137	7137	7137	7137	7137	7137	6992	6992	7137	6992	6992	0	0	0	0	0	0	6992	6992	6992	6992	6853	6720	6720	6592	0	0	0	0	0	0	0	0	0	0	0	0	0	0	0	0	0	0	0	0	0	0	0	0	0	0	0	0	0	0	0	0	0	0	0	0	0	0	0	0	0	0	0	0	0	0	0	0	0	0	0	0	0	0	0	0	0	0	3698	3738	3738	3738	3698	3698	3698	3698	3698	3698	3698	3698	3698	3698	3698	3698	3698	3698	3698	3698	3698	6992	6853	6853	6853	6853	6853	6853	6853	6992	6992	6992	6992	6992	6992	6992	6992	7137	7137	7137	6992	6992	6853	6853	6853	6853	6853	6853	7137	6992	6992	6992	6992	0	0	0	0	0	6992	6992	6992	6992	6992	6992	6992	6992	6992	6992	6992	6992	6992	6853	6853	6853	6992	6992	6992	6992	7137	7287	7287	0	0	0	0	0	0	0	0	0	0	0	0	0	0	0	0	0	0	6992	7137	7137	6853	6853	6853	6853	6992	7137	7137	7137	7137	7287	7287	7287	7137	0	0	0	0	0	0	0	0	0	0	0	6853	6720	6853	6853	6853	6992	6992	6992	6992	6992	6992	6992	6992	6992	6992	6853	6853	6853	6720	6720	6720	6853	6853	6992	6992	6992	6992	6992	6992	6992	6992	6992	6992	6992	6992	6992	6992	6992	6992	6853	6853	6853	6992	6992	6992	6992	6992	6992	6992	6992	6992	6992	6853	6853	6853	6853	6853	6853	6853	6853	6853	6853	6720	6720	6853	6853	6853	6853	6853	6853	6853	6853	6853	6992	6853	6853	6853	6853	6853	6853	6853	6853	6853	6853	6853	6853	6992	6992	6992	6992	6992	6992	6992	6992	7137	7137	0	0	0	0	0	0	0	0	0	6992	6992	7137	7137	7137	7137	0	0	0	0	6992	6853	6853	6853	6853	6853	0	6992	6992	0	0	0	0	0	0	0	0	0	0	0	0	0	0	0	0	0	7137	7137	7137	7137	7137	7287	7287	7287	7137	7137	7137	7137	7137	6992	6992	6992	6992	7137	6992	6992	6992	6992	6992	6992	6992	7137	7137	7137	7137	7137	7137	7137	7287	7287	7287	7137	7137	7137	7137	7137	7137	7137	7137	7137	0	0	0	0	2570	2570	2570	2570	2551	2551	2532	2514	2514	2496	2514	2496	2460	2443	2443	2426	2426	2426	2409	2392	2392	2376	2376	2343	2343	2327	2297	2297	2281	2266	2266	2266	2237	2237	2223	2223	2223	2208	2208	2181	2167	2167	2153	2153	2140	2140	2140	2127	2127	2127	2127	2127	2127	2127	2114	2114	2114	2114	2114	2114	2114	2114	2114	2114	2114	2114	2114	2114	2114	2114	2114	2114	0	0	0	0	0	0	0	0	0	0	0	0	0	0	0	0	0	0	0	0	0	0	0	0	0	0	0	0	0	0	0	0	0	0	0	0	0	0
0	0	0	0	0	0	0	0	0	1379	1390	1385	1385	1385	1385	1385	1385	1385	1385	1385	1385	1385	1385	1385	1385	1385	1390	1385	1385	1390	1390	1390	1390	1385	1385	1379	1379	1379	1379	1385	1385	0	0	0	0	0	0	0	0	0	0	0	0	0	0	0	0	1368	1374	1379	1379	1379	1379	1379	1379	1379	1379	1379	1374	1374	1374	1374	1368	1368	1374	1368	1368	1368	1368	1374	1374	1374	1374	1368	1363	1368	1363	1363	1363	1368	1368	1368	1368	1363	1363	1368	1374	1374	1379	1379	1379	1385	1385	1385	1385	1390	1396	1402	1402	1407	1407	1413	1413	0	0	0	0	0	0	0	0	0	0	6853	6853	6853	6853	6853	6992	6992	6992	6992	7137	7137	7137	7137	7137	7137	6992	6992	6992	6992	6992	0	0	0	0	0	0	7137	7137	7137	7137	6992	6992	6720	0	0	0	0	0	0	0	0	0	0	0	0	0	0	0	0	0	0	0	0	0	0	0	0	0	0	0	0	0	0	0	0	0	0	0	0	0	0	0	0	0	0	0	0	0	0	0	0	0	0	0	0	0	0	0	0	0	0	0	3698	3698	3738	3698	3698	3698	3698	3698	3698	3698	3698	3698	3698	3698	3698	3698	3738	3738	3738	3738	3738	0	6853	6992	6853	6853	6853	6853	6853	6992	6992	6992	7137	6992	7137	7137	7137	7137	7137	7137	6992	6992	6992	6992	6992	6992	6992	6992	7137	7137	6992	6992	6992	0	0	0	0	0	6992	6992	6992	6992	6992	6992	6992	6992	6992	6992	6992	6992	6992	6992	6992	6992	6992	6992	6992	6992	7137	7287	7287	0	0	0	0	0	0	0	0	0	0	0	0	0	0	0	0	0	0	0	7137	7137	6853	6853	6853	6853	6992	6992	7137	7137	7137	7287	7287	7287	7287	0	0	0	0	0	0	0	0	0	0	0	0	6720	6720	6720	6720	6853	6992	6992	6992	6992	6992	7137	7137	7137	6992	6853	6992	6992	6853	6853	6853	6853	6853	6992	6992	6992	6992	6992	7137	7137	6992	7137	7137	7137	6992	6992	6992	6992	7137	6853	6853	6992	6992	6992	6992	6992	6992	6992	6992	7137	7137	6992	6853	6853	6853	6853	6853	6853	6853	6853	6853	6853	6992	6853	6853	6853	6853	6853	6853	6853	6853	6853	6853	6992	6853	6853	6853	6853	6853	6853	6992	6992	6992	6992	6992	6992	6992	6992	7137	7137	7137	6992	7137	7137	7137	7137	0	0	0	0	0	0	0	6992	6992	6992	6992	7137	7137	6992	6992	6992	6992	0	0	6992	6992	6992	6853	6992	6992	0	6992	6992	0	0	0	0	0	0	0	0	0	0	0	0	0	0	0	7137	7137	7137	7137	7137	7137	7137	7287	7287	7287	7137	7137	7137	7137	7137	7137	6992	6992	6992	7137	6992	6992	7137	6992	7137	6992	6992	6992	6992	7137	7137	7137	7137	7137	7137	7137	7137	7137	6992	6992	6992	6992	7137	7137	0	0	0	0	0	0	0	2551	2551	2551	2551	2532	2532	2514	2514	2514	2514	2496	2460	2443	2443	2426	2426	2409	2409	2392	2392	2376	2359	2343	2327	2327	2312	2297	2281	2266	2266	2266	2252	2237	2237	2223	2208	2208	2194	2194	2181	2167	2167	2153	2140	2127	2127	2127	2127	2127	2127	2114	2114	2114	2114	2114	2114	2114	2114	2114	2114	2114	2114	2114	2114	2114	2114	2114	2114	2114	2114	2114	0	0	0	0	0	0	0	0	0	0	0	0	0	0	0	0	0	0	0	0	0	0	0	0	0	0	0	0	0	0	0	0	0	0	0	0	0	0
0	0	0	0	0	0	0	0	0	1390	1396	1396	1396	1396	1390	1390	1390	1390	1390	1390	1390	1390	1390	1390	1390	1407	1396	1396	1390	1396	1396	1396	1390	1390	1390	1390	1390	1390	1385	1390	1390	0	0	0	0	0	0	0	0	0	0	0	0	0	0	0	0	1374	1379	1385	1385	1385	1385	1385	1385	1385	1385	1385	1379	1379	1379	1379	1379	1379	1379	1379	1379	1374	1374	1379	1379	1385	1379	1379	1374	1379	1368	1368	1368	1374	1374	1374	1368	1368	1368	1379	1374	1379	1385	1385	1385	1385	1385	1385	1385	1390	1396	1402	1402	1407	1413	1419	1419	1419	0	0	0	0	0	0	0	0	0	0	0	6853	6853	6853	6992	6992	6992	6992	7137	7137	7137	7137	6992	7137	6992	6992	7137	6992	6992	6992	7137	6992	6992	7137	7137	7137	7137	7137	7137	6992	6992	0	0	0	0	0	0	0	0	0	0	0	0	0	0	0	0	0	0	0	0	0	0	0	0	0	0	0	0	0	0	0	0	0	0	0	0	0	0	0	0	0	0	0	0	0	0	0	0	0	0	0	0	0	0	0	0	0	0	0	0	3698	3698	3698	3698	3698	3698	3698	3698	3698	3698	3698	3698	3698	3698	3698	3698	3738	3779	3779	3738	3698	3698	6992	6992	6853	6853	6853	6853	6853	6992	6992	7137	7137	7137	7137	7137	7137	7137	7137	7137	6992	6992	6992	6992	6853	6853	6853	6853	7137	6992	6992	6992	6992	0	0	0	0	0	7137	6992	6992	6992	6992	6992	6992	6992	7137	7137	6992	6992	6992	6992	6992	6992	6992	6992	7137	7137	7287	7287	7444	7444	0	0	0	0	0	0	0	0	0	0	0	0	0	0	0	0	0	0	7137	7137	7137	7137	6992	6992	7137	7137	7137	7137	7287	7287	7287	7287	7287	0	0	0	0	0	0	0	0	0	0	0	0	0	6853	6720	6853	6853	6992	6992	7137	7137	7137	7137	7137	7137	7137	7137	6992	6992	6853	6853	6853	6853	6853	6992	6992	6992	6992	6992	7137	7137	7137	7137	7137	7137	7137	7137	7137	7137	7137	6992	6992	6992	6992	6992	6992	6992	6992	7137	7137	7137	7137	7137	6992	6992	6992	6853	6992	6992	6853	6992	6992	6992	6992	6992	6992	6853	6853	6853	6853	6853	6853	6853	6853	7137	6992	6853	6992	6853	6853	6853	6992	6992	6992	6992	6992	6992	7137	7137	7137	7137	7137	7137	7137	7137	7137	7137	0	0	0	0	0	0	7137	6992	7137	7137	7137	7137	7287	7137	7137	7137	7287	7287	7287	7137	6992	6992	6992	6992	7137	7137	6992	6992	0	0	0	0	0	0	0	0	0	0	0	0	6992	6992	7137	7137	7137	7137	7137	7137	7137	7137	7287	7287	7287	7137	7137	7137	7137	7137	7137	7137	7137	7137	7137	6992	7137	7137	7137	7137	7137	7137	6992	7137	7137	7137	7137	7137	7137	7137	7137	7137	7137	7137	7137	7137	6992	0	0	0	0	0	0	0	0	0	2551	2551	2551	2551	2532	2532	2514	2514	2496	2514	2496	2460	2443	2443	2426	2409	2409	2409	2392	2392	2376	2359	2343	2327	2327	2312	2281	2281	2266	2266	2266	2252	2237	2237	2223	2208	2208	2194	2194	2181	2167	2167	2153	2140	2140	2127	2127	2127	2127	2127	2114	2114	2114	2101	2101	2101	2114	2114	2114	2101	2114	2114	2114	2114	2114	2114	2114	2114	2114	2114	2114	0	0	0	0	0	0	0	0	0	0	0	0	0	0	0	0	0	0	0	0	0	0	0	0	0	0	0	0	0	0	0	0	0	0	0	0	0	0
0	0	0	0	0	0	0	0	0	1402	1402	1402	1402	1402	1402	1396	1402	1402	1402	1402	1407	1402	1407	1402	1407	1407	1402	1396	1396	1396	1396	1396	1396	1390	1396	1396	1396	1396	1396	1396	1396	1402	1402	1407	1407	0	0	0	0	0	0	0	0	0	0	0	0	1374	1379	1385	1390	1390	1390	1390	1390	1390	1390	1390	1385	1385	1385	1390	1390	1390	1390	1390	1390	1390	1385	1385	1385	1385	1385	1385	1390	1385	1379	1379	1379	1379	1379	1379	1374	1374	1379	1385	1385	1385	1385	1385	1385	1385	1385	1390	1390	1396	1396	1402	1402	1407	1413	1419	1419	1431	1431	0	0	0	0	0	0	0	0	0	0	0	0	0	0	6992	6992	6992	7137	7137	7137	7137	7137	7137	7137	7137	7137	7137	7137	7137	7137	6992	6992	7137	7137	7137	7137	7137	7137	7137	7137	7137	0	0	0	0	0	0	0	0	0	0	0	0	0	0	0	0	0	0	0	0	0	0	0	0	0	0	0	0	0	0	0	0	0	0	0	0	0	0	0	0	0	0	0	0	0	0	0	0	0	0	0	0	0	0	0	0	0	0	3738	3698	3698	3698	3698	3698	3698	3698	3698	3698	3698	3698	3698	3698	3698	3738	3738	3738	3738	3738	3738	3698	3698	3698	3698	6853	6853	6853	6853	6992	6992	6992	7137	7137	7137	7137	7137	7137	7137	7137	7137	7137	7137	7137	6992	6992	6992	6992	6992	6992	6992	6992	0	0	0	0	0	0	7137	7137	7137	6992	7137	6992	6992	7137	7137	7137	7137	7137	6992	6992	6992	6992	6992	6992	6992	6992	6992	7444	7444	7287	7287	0	0	0	0	0	0	0	0	0	0	0	0	0	0	0	0	0	0	7287	7287	7137	7137	6992	6992	6992	7137	7137	7137	7287	7287	7287	7287	0	0	0	0	0	0	0	0	0	0	0	0	0	0	6992	6853	6992	6992	6992	6992	7137	7137	7137	7137	7137	7137	7137	7137	7137	7137	6992	6992	6992	6992	6992	6992	6992	6992	6992	6992	7137	7137	7137	7137	7137	7137	7137	7137	7137	7137	7287	7137	6992	6992	6992	6992	6992	6992	6992	7137	7137	7137	7137	7137	7137	6992	6992	6853	6853	6992	6992	7137	6992	7137	7137	7137	7137	6992	6992	6992	6992	6992	6992	6992	6992	7137	6992	6853	6992	6992	6853	6853	6992	7137	7137	7137	7137	6992	7137	7137	7137	7137	7137	7137	7137	7137	6992	6992	6992	6992	6992	0	6992	6853	6992	7137	7137	7137	7137	7287	7287	7287	7287	7287	7287	7287	6992	6992	6992	6992	6992	6992	6992	7137	6992	6992	0	0	0	0	0	0	0	0	0	0	0	6992	7137	7137	7137	7137	7137	7287	7137	7287	7287	7287	7287	7287	7287	7287	7137	7137	7137	7137	7137	7137	7137	7137	7137	7137	7137	7137	7137	7137	7137	7137	6992	7137	7137	7137	0	0	0	0	0	0	7287	7287	7287	7287	7287	0	0	0	0	0	0	0	0	0	2551	2551	2551	2551	2532	2532	2532	2514	2496	2514	2496	2460	2443	2426	2426	2409	2409	2409	2392	2392	2376	2376	2376	2343	2327	2312	2297	2281	2266	2266	2266	2252	2237	2237	2223	2208	2208	2208	2194	2181	2167	2167	2153	2140	2127	2127	2114	2127	2127	2114	2114	2114	2114	2101	2101	2101	2101	2101	2101	2101	2114	2114	2114	2114	2114	2101	2101	2101	2101	2101	2101	0	0	0	0	0	0	0	0	0	0	0	0	0	0	0	0	0	0	0	0	0	0	0	0	0	0	0	0	0	0	0	0	0	0	0	0	0	0
0	0	0	0	0	0	0	0	0	1402	1407	1402	1402	1402	1407	1407	1407	1407	1407	1419	1413	1419	1419	1413	1407	1407	1407	1407	1407	1407	1407	1402	1407	1402	1407	1402	1402	1402	1402	1402	1402	1407	1407	1407	1407	1407	0	0	0	0	0	0	0	0	0	0	0	0	1379	1385	1390	1390	1396	1396	1396	1396	1390	1390	1390	1390	1390	1390	1396	1402	1402	1402	1402	1396	1390	1390	1390	1390	1390	1390	1396	1396	1396	1385	1385	1385	1385	1379	1379	1379	1385	1390	1390	1390	1390	1396	1396	1396	1390	1390	1390	1396	1402	1407	1407	1413	1413	1419	1425	1431	1431	0	0	0	0	0	0	0	0	0	0	0	0	0	0	0	0	0	0	7137	7137	7137	7137	7137	7137	7137	7137	7137	7137	7137	7137	6992	6992	7137	7137	7137	7137	7137	7137	7287	7287	7287	7287	0	0	0	0	0	0	0	0	0	0	0	0	0	0	0	0	0	0	0	0	0	0	0	0	0	0	0	0	0	0	0	0	0	0	0	0	0	0	0	0	0	0	0	0	0	0	0	0	0	0	0	0	0	0	0	0	3779	3738	3698	3738	3738	3738	3698	3698	3698	3698	3698	3698	3698	3698	3698	3698	3738	3738	3738	3738	3738	3738	3698	3698	3698	3698	3698	3698	6853	6853	6992	6992	7137	7137	7137	7137	7137	7137	7137	7137	7137	7137	7137	7137	7137	7137	6992	6992	6992	6992	6992	6992	6992	0	0	0	0	7137	7137	7137	7137	7137	7137	7137	7137	7137	7137	7137	7137	7137	7137	7137	7137	7137	6992	6992	6992	7137	7137	7137	7444	7608	7444	7444	7137	7137	7137	7137	0	0	0	0	0	0	0	0	0	0	0	0	0	0	7137	7137	7137	7137	6992	6992	6992	6992	6992	0	0	0	0	0	0	0	0	0	0	0	0	0	0	0	0	0	0	0	6992	6992	6992	6992	7137	7137	7137	7137	7137	7137	7137	7137	7137	7137	6992	6992	6992	6992	6992	6992	6992	6992	6992	6992	6992	6992	7444	7287	7137	7287	7287	7287	7287	7287	7287	7287	7287	7287	7137	7137	7137	7137	7137	7137	7137	7137	7287	7287	7137	7137	6992	6992	6992	6992	6853	6992	6992	7137	7137	7137	7287	7287	7287	7137	7137	7137	7137	7137	6992	6992	6992	7137	7137	6853	6853	6992	6992	6853	6992	7137	7287	7137	7137	7137	7137	7287	7287	7137	7137	7137	7137	6992	6992	6992	6853	6853	6992	6992	6992	6992	7137	7137	7137	7137	7137	7137	7287	7137	7137	7137	7137	7137	6992	6992	6992	6992	7137	7137	7287	7137	7137	7137	0	0	0	0	0	0	0	0	0	0	0	7137	7137	7137	7137	7137	7287	7287	7137	7137	7287	7287	7287	7287	7137	7287	7137	7137	7137	7137	7137	7137	7137	7137	7137	7137	7137	7137	7137	7137	7137	7137	7137	7137	7137	7137	0	0	0	0	0	0	7287	7287	7444	7287	7287	7287	7287	0	0	0	0	0	0	0	2551	2551	2551	2551	2532	2532	2532	2514	2514	2496	2496	2478	2460	2426	2426	2409	2409	2409	2392	2392	2376	2376	2376	2343	2327	2297	2281	2281	2266	2266	2266	2252	2237	2223	2223	2208	2208	2208	2194	2181	2167	2167	2153	2140	2127	2127	2114	2127	2114	2114	2114	2114	2114	2101	2101	2101	2101	2101	2101	2114	2114	2114	2127	2114	2114	2101	2101	2101	2101	2114	2114	0	0	0	0	0	0	0	0	0	0	0	0	0	0	0	0	0	0	0	0	0	0	0	0	0	0	0	0	0	0	0	0	0	0	0	0	0	0
