0	0	0	0	0	0	0	0	0	0	0	0	0	0	0	0	0	0	4706	4771	4838	4838	4838	4906	4906	4906	4906	4906	4977	4977	4977	4906	4906	4906	4977	4977	0	0	0	0	0	0	0	0	0	0	0	0	0	0	0	0	0	0	0	0	0	0	0	0	5535	5626	5626	5626	5626	5626	5719	5719	5719	5626	5626	5626	0	0	0	6018	6018	6018	6018	6124	6124	6124	6124	6124	4771	4771	6124	0	0	0	0	0	6235	6124	6124	6124	6124	6124	6235	6235	6468	6468	6468	0	0	0	4706	4706	6992	6992	7137	7137	7137	0	0	0	0	0	0	0	0	0	0	0	0	0	0	0	0	0	0	0	0	0	7959	7959	8146	8146	8343	8343	8343	8343	8343	0	0	8550	8550	8550	8550	8343	8343	8146	8146	7959	7959	7779	7959	7959	8146	8146	8343	8146	8146	8146	8343	8343	8343	8343	8343	8343	8343	8146	8146	8146	8146	8146	0	3659	3659	3659	3659	3621	3621	3621	3621	3621	3621	3621	3621	3621	3621	3621	3659	3659	3659	3659	3659	3659	3659	3659	3621	3621	3621	3583	3621	3583	3546	3546	3546	3583	3583	3546	3546	3546	3546	3546	3546	3546	3546	3546	3546	3546	3546	3546	3546	3546	3546	3546	3546	3546	3546	3546	3546	3583	3546	3546	3546	3546	3546	3583	3583	3583	3583	3583	3621	3621	3621	3659	3659	3659	3659	3659	3659	3659	3698	3698	3659	3659	3698	3659	3659	3659	3698	3698	3659	3698	3659	3698	3698	3698	3698	3698	7959	7959	8146	8343	8343	8343	8343	8343	8343	8343	8343	8146	8146	8343	8146	8146	8146	8146	8343	8146	4771	4771	4838	4838	4838	4838	4838	4838	4838	4838	4771	4771	4771	4771	4706	4706	4706	4643	4643	4643	4706	4706	4706	4838	4771	4771	4771	4771	4771	4771	4706	4706	4838	4838	4838	4838	4838	4838	4838	4771	4771	4771	4706	4706	4643	4706	4706	4706	4706	4706	4706	4706	4706	4706	4706	4706	4706	4706	4706	4706	4643	4706	4706	4706	4706	4706	4706	4771	4771	4771	4706	4706	4706	4706	4643	4643	4643	4706	4706	4771	4771	4771	4771	4771	4771	4838	4771	4771	4771	4706	4771	4771	4771	4771	4771	4771	4838	4771	4771	4706	4706	4706	4643	4643	4643	4643	4643	4643	4706	4706	4706	4706	4706	4706	4706	4643	4706	4643	4643	4643	4643	4643	4643	4643	4643	4643	4643	4643	4643	4706	4706	4643	4643	4643	4706	4643	4643	4706	4706	4706	4706	4706	4643	4643	4643	4643	4643	4643	4643	4643	4643	4643	4643	4643	4643	4643	4643	4706	4643	4706	4706	4706	4706	4706	4706	4643	4643	4643	4643	4643	4643	4643	4643	4643	4643	4643	4643	4643	4706	4706	4706	4706	4706	4771	4771	4838	4838	4771	4771	7959	7959	7959	7959	7959	7959	7959	7959	7959	7959	8146	8146	7959	7959	7959	7959	7959	7959	7779	7779	7779	7779	7779	7779	7779	7959	7959	8146	7959	7959	7959	7779	7959	7959	7779	7959	7779	7779	7959	7779	7959	7959	7959	7959	7779	0	0	0	0	0	0	0	0	0	2532	2532	2514	2514	2514	2478	2478	2460	2443	2426	2426	2426	2409	2392	2392	2359	2343	2343	2343	2343	2343	2327	2312	2297	2297	2281	2281	2266	2252	2237	2237	2223	2208	2208	2208	2208	2194	2194	2181	2167	2153	2153	2140	2140	2127	2127	2114	2114	2101	2088	1980	1980	1980	1980	1969	1969	1958	1958	1947	1936	1936	1936	1936	1925	1925	1925	1925	0	0	0	0	0	0	0	0	0	0	0	0	0	0	0	0	0	0	0	0	0	0	0	0	0	0	0	0	0	0	0	0	0	0	0	0	0	0
0	0	0	0	0	0	0	0	0	0	0	0	0	0	0	0	0	0	4706	4771	4771	4771	4838	4838	4838	4906	4906	4906	4906	4977	4977	4906	4906	4906	4977	4977	0	0	0	0	0	0	0	0	0	0	0	0	0	0	0	0	0	0	0	0	0	0	0	0	0	5626	5626	5626	5626	5626	5719	5719	5719	5719	5626	5626	0	0	0	6018	6018	6018	6018	4771	4771	4706	4706	4706	4771	4771	0	0	0	0	0	0	0	6124	6124	6124	6124	6124	4706	4706	6468	6468	6468	0	0	0	4706	4706	0	0	7137	7137	7137	0	0	0	0	0	0	0	0	0	0	0	0	0	0	0	0	0	0	0	0	0	0	7959	8146	8146	8343	8343	8343	8343	8343	0	0	8550	8550	8550	8550	8343	8343	8146	8146	7959	7959	7959	7959	7959	8146	8146	8343	8146	8146	8146	8343	8343	8146	8343	8343	8146	8146	8146	8146	8146	8146	8146	0	0	3621	3621	3621	3621	3621	3621	3583	3583	3621	3621	3621	3621	3659	3659	3659	3698	3698	3698	3698	3659	3659	3659	3621	3621	3621	3621	3621	3621	3546	3546	3510	3546	3583	3546	3546	3546	3546	3546	3546	3546	3546	3510	3510	3546	3546	3546	3546	3546	3546	3546	3546	3546	3546	3546	3546	3546	3546	3546	3546	3546	3546	3583	3583	3583	3583	3583	3583	3621	3659	3659	3659	3659	3659	3659	3659	3698	3698	3698	3698	3698	3698	3659	3659	3659	3698	3698	3698	3698	3698	3698	3698	3698	3698	0	7959	7959	8146	8146	8343	8343	8343	8343	8343	8343	8343	8343	8343	8343	8343	8343	8343	8343	4771	4771	4771	4771	4838	4838	4771	4771	4771	4771	4771	4771	4771	4771	4771	4771	4771	4706	4706	4706	4706	4706	4706	4706	4771	4838	4771	4771	4771	4771	4771	4771	4706	4706	4706	4706	4771	4771	4838	4838	4771	4771	4771	4771	4706	4706	4643	4706	4706	4706	4706	4706	4706	4706	4706	4706	4706	4706	4706	4643	4643	4706	4643	4643	4643	4706	4706	4706	4706	4771	4771	4771	4706	4706	4706	4706	4706	4706	4643	4706	4706	4771	4771	4771	4771	4771	4771	4771	4771	4771	4771	4706	4771	4771	4771	4706	4706	4706	4771	4706	4706	4706	4706	4771	4643	4643	4643	4643	4643	4643	4706	4706	4706	4706	4643	4643	4643	4643	4643	4643	4643	4643	4643	4643	4643	4643	4643	4643	4643	4643	4643	4706	4643	4643	4643	4643	4643	4643	4643	4643	4706	4706	4706	4706	4706	4706	4706	4643	4643	4643	4643	4643	4643	4643	4643	4643	4643	4643	4643	4643	4643	4643	4706	4643	4643	4643	4643	4643	4643	4643	4643	4643	4643	4643	4643	4643	4643	4643	4643	4643	4643	4643	4643	4643	4706	4706	4706	4771	4771	4771	4771	7959	7959	7779	7779	7779	7779	7779	7779	7779	7959	7959	7959	7959	7959	7959	7959	7959	7959	7779	7779	7959	7959	7779	7779	7779	7779	7959	7959	7779	7779	7779	7779	7779	7779	7779	7959	7959	7959	7779	7959	7959	7959	7959	7959	0	0	0	0	0	0	0	0	0	0	2551	2532	2532	2514	2496	2478	2478	2460	2443	2443	2426	2443	2426	2409	2392	2376	2359	2343	2359	2343	2343	2327	2312	2297	2297	2281	2281	2266	2252	2237	2223	2208	2208	2208	2208	2208	2194	2181	2181	2167	2153	2153	2153	2140	2127	2127	2114	2114	2101	2088	1980	1980	1980	1980	1969	1980	1958	1969	1958	1947	1936	1936	1936	1925	1925	1925	1925	0	0	0	0	0	0	0	0	0	0	0	0	0	0	0	0	0	0	0	0	0	0	0	0	0	0	0	0	0	0	0	0	0	0	0	0	0	0
0	0	0	0	0	0	0	0	0	0	0	0	0	0	0	0	0	0	4771	4771	4838	4838	4838	4838	4838	4838	4838	4838	4838	4906	4906	4838	4838	4838	4838	4977	0	0	0	0	0	0	0	0	0	0	0	0	0	0	0	0	0	0	0	0	0	0	0	0	0	0	0	5626	5626	5719	5719	5719	4771	4771	4771	4771	0	0	0	0	0	4771	4771	4771	4771	4706	4706	4771	4771	4771	0	0	0	0	0	0	0	0	6124	6124	6124	6124	4706	4706	0	0	4706	4706	4706	4706	4706	4771	4771	4771	4771	4706	4706	0	4771	4771	4771	4771	0	4771	4771	0	0	0	0	0	0	0	0	0	0	0	0	0	0	7959	8146	8146	0	8343	8343	8343	0	0	8767	8767	8550	8550	8550	8343	8146	8146	8146	7959	7959	7959	7959	7959	8343	8343	8343	8343	8343	8146	8343	8146	8146	8146	8343	8146	8343	8146	8146	8146	8146	8146	8146	0	3621	3621	3621	3621	3621	3621	3583	3621	3621	3621	3621	3621	3659	3659	3659	3698	3698	3698	3698	3659	3659	3659	3621	3621	3621	3621	3621	3621	3583	3546	3510	3546	3546	3546	3546	3546	3546	3546	3546	3546	3510	3510	3510	3546	3546	3510	3510	3546	3546	3546	3546	3546	3546	3546	3546	3583	3583	3583	3546	3546	3546	3583	3583	3583	3583	3583	3583	3621	3659	3659	3698	3698	3698	3698	3698	3698	3698	3698	3698	3698	3698	3659	3659	3659	3698	3698	3698	3698	3698	3698	3698	3698	3698	7959	7959	7959	7959	8146	8146	8343	8146	8146	8343	8343	8343	8146	8343	8343	8343	8343	8343	8343	4771	4771	4771	4771	4771	4771	4771	4706	4706	4706	4771	4771	4771	4706	4706	4771	4771	4706	4706	4706	4706	4706	4706	4706	4771	4838	4771	4771	4771	4771	4706	4771	4706	4706	4706	4706	4771	4771	4771	4771	4771	4771	4771	4771	4706	4706	4643	4706	4706	4706	4706	4706	4706	4706	4706	4706	4706	4706	4706	4706	4706	4706	4643	4706	4643	4643	4706	4706	4771	4771	4771	4706	4706	4706	4706	4643	4706	4706	4643	4706	4706	4771	4771	4771	4771	4771	4771	4771	4771	4771	4706	4706	4706	4771	4706	4706	4706	4706	4771	4706	4706	4706	4706	4706	4706	4643	4643	4643	4643	4643	4643	4643	4706	4643	4643	4643	4643	4643	4643	4643	4643	4643	4643	4643	4643	4643	4643	4643	4643	4643	4643	4706	4643	4643	4643	4643	4643	4643	4643	4643	4706	4706	4706	4706	4706	4706	4706	4643	4643	4643	4643	4643	4706	4706	4643	4706	4643	4643	4643	4643	4643	4643	4643	4643	4643	4643	4643	4643	4643	4643	4643	4643	4643	4643	4643	4643	4643	4643	4643	4643	4643	4643	4643	4643	4706	4706	4706	4706	4771	4771	4771	7959	7959	7779	7779	7779	7779	7779	7779	7779	7959	7959	7959	7959	7959	7959	7959	7959	7959	7959	7959	7959	7959	7959	7779	7779	7779	7959	7779	7779	7779	7779	7779	7779	7779	7779	7779	7959	7959	7959	7959	7959	7959	8146	8146	0	0	0	0	0	0	0	0	0	0	2532	2532	2514	2514	2496	2478	2478	2460	2443	2426	2426	2426	2409	2409	2392	2392	2359	2343	2359	2343	2327	2327	2312	2297	2297	2281	2281	2266	2252	2237	2223	2208	2208	2208	2208	2208	2194	2181	2167	2153	2140	2153	2127	2140	2127	2127	2114	2114	2114	2101	2101	1980	1980	1980	1969	1980	1958	1969	1958	1947	1936	1925	1925	1925	1925	1925	1925	0	0	0	0	0	0	0	0	0	0	0	0	0	0	0	0	0	0	0	0	0	0	0	0	0	0	0	0	0	0	0	0	0	0	0	0	0	0
0	0	0	0	0	0	0	0	0	0	0	0	0	0	0	0	0	0	4706	4771	4771	4771	4771	4771	4706	4771	4771	4838	4771	4838	4838	4771	4771	4771	4771	0	0	0	0	0	0	0	0	0	0	0	0	0	0	0	0	0	0	0	0	0	0	0	0	0	0	0	0	4771	4838	4838	4838	4838	4771	4771	4771	4771	0	0	0	0	0	4771	4771	4771	4771	4706	4706	4706	4706	4706	4706	0	0	0	0	0	0	0	0	0	4706	4706	4706	4706	4643	4643	4643	4706	4771	4771	4771	4771	4771	4771	4771	4706	4706	4706	4771	4771	4838	4771	4771	4838	4838	4838	0	0	0	0	0	0	0	0	0	0	0	0	0	0	0	0	0	0	0	0	0	8767	8767	8767	8550	8550	8550	8343	8146	8146	8146	7959	7959	7959	7959	7959	8343	8343	8343	8343	8146	8146	8146	8146	8146	8146	8343	8146	8343	8146	8146	8146	8146	8146	8146	0	0	3621	3621	3621	3621	3621	3621	3621	3621	3621	3659	3621	3659	3698	3698	3779	3738	3738	3738	3659	3659	3659	3621	3621	3621	3621	3621	3621	3583	3546	3510	3546	3583	3546	3546	3546	3546	3546	3546	3546	3510	3510	3510	3546	3546	3546	3510	3510	3546	3546	3546	3546	3546	3546	3546	3546	3546	3546	3546	3546	3546	3546	3546	3583	3583	3583	3621	3659	3659	3659	3659	3698	3698	3698	3698	3698	3698	3698	3698	3698	3698	3659	3659	3659	3698	3698	3698	3698	3698	3698	3659	3698	3698	7959	7959	7959	7959	8146	8146	8146	8146	8146	8343	8343	8343	8146	8343	8343	8343	8343	8343	8343	8343	4838	4771	4771	4771	4771	4771	4706	4706	4706	4706	4706	4706	4706	4706	4706	4706	4706	4706	4706	4706	4706	4706	4706	4706	4771	4771	4706	4706	4706	4706	4706	4706	4706	4706	4706	4771	4771	4771	4771	4771	4771	4771	4771	4706	4771	4706	4706	4706	4706	4706	4706	4706	4706	4706	4706	4706	4706	4706	4706	4643	4643	4706	4706	4643	4643	4706	4771	4706	4706	4706	4706	4706	4706	4643	4643	4643	4643	4643	4706	4706	4706	4771	4771	4771	4771	4771	4771	4771	4706	4706	4706	4771	4771	4706	4706	4706	4706	4706	4706	4706	4706	4706	4706	4706	4643	4706	4643	4706	4706	4706	4706	4706	4706	4643	4643	4643	4643	4643	4643	4643	4643	4643	4643	4643	4643	4643	4643	4643	4643	4581	4706	4643	4643	4643	4643	4706	4643	4643	4643	4706	4706	4706	4706	4706	4706	4706	4643	4643	4643	4643	4643	4706	4643	4643	4706	4643	4643	4643	4643	4643	4643	4643	4643	4643	4643	4643	4643	4643	4643	4643	4643	4643	4643	4643	4643	4643	4643	4643	4643	4643	4643	4643	4643	4706	4643	4706	4706	4706	4706	4706	7959	7959	7959	7779	7779	7779	7959	7779	7779	7779	7779	7779	7779	7959	7779	7959	7959	7779	7779	7779	7779	7779	7779	7779	7779	7779	7779	7779	7779	7779	7608	7779	7779	7779	7779	7779	7779	7959	7779	7959	7959	7959	8146	8146	0	0	0	0	0	0	0	0	0	0	2532	2532	2514	2514	2496	2478	2478	2460	2443	2426	2426	2426	2409	2409	2392	2392	2359	2343	2359	2359	2343	2327	2312	2297	2297	2281	2281	2266	2252	2237	2223	2208	2208	2208	2208	2194	2194	2181	2167	2153	2153	2127	2127	2127	2127	2127	2114	2114	2114	2101	2101	1992	1992	1992	1980	1969	1969	1969	1969	1958	1947	1925	1925	1936	1925	1925	1925	0	0	0	0	0	0	0	0	0	0	0	0	0	0	0	0	0	0	0	0	0	0	0	0	0	0	0	0	0	0	0	0	0	0	0	0	0	0
0	0	0	0	0	0	0	0	0	0	0	0	0	0	0	0	0	0	4706	4706	4706	4706	4771	4706	4706	4706	4706	4771	4771	4771	4771	4771	4771	4771	4771	4771	0	0	0	0	0	0	0	0	0	0	0	0	0	0	0	0	0	0	0	0	0	0	0	0	0	0	0	4771	4838	4838	4838	4838	4771	4771	4706	4706	4706	4706	4771	4771	4771	4771	4771	4771	4771	4706	4706	4771	4706	4706	4706	4771	4771	4706	4706	4771	4771	4706	4706	4706	4771	4706	4706	4706	4706	4706	4706	4771	4771	4771	4771	4771	4771	4771	4771	4771	4706	4771	4838	4838	4838	4771	4771	4838	4838	4838	4838	0	0	0	0	0	0	0	0	0	0	0	0	0	0	0	0	0	0	0	0	8767	8767	8767	8550	8550	8550	8343	8146	8146	8146	8146	7959	7959	7959	7959	8343	8343	8343	8343	8146	8343	8343	8146	8146	8146	8343	8146	8146	8146	8146	8146	8146	8146	7959	7959	0	0	3621	3583	3621	3621	3621	3621	3621	3621	3659	3621	3659	3659	3659	3738	3738	3738	3659	3659	3659	3659	3659	3621	3621	3621	3621	3621	3583	3546	3510	3546	3546	3583	3546	3546	3546	3546	3546	3546	3510	3510	3510	3546	3546	3510	3510	3510	3546	3546	3546	3546	3546	3546	3546	3546	3546	3546	3546	3546	3546	3583	3583	3583	3583	3621	3621	3659	3659	3659	3698	3698	3698	3698	3698	3698	3698	3698	0	3698	3698	3659	3659	3659	3698	3698	3698	3659	3659	3698	3659	3659	3698	7959	7959	7959	7959	8146	8550	8550	8550	8550	8550	8343	8343	8343	8343	8343	8343	8343	8343	8343	8343	4771	4771	4771	4706	4706	4706	4706	4706	4706	4706	4706	4706	4706	4706	4706	4706	4706	4706	4706	4706	4706	4706	4706	4706	4771	4771	4771	4771	4706	4706	4706	4706	4771	4771	4706	4706	4771	4771	4771	4771	4771	4771	4771	4706	4706	4706	4706	4706	4706	4706	4643	4706	4706	4706	4706	4706	4706	4706	4643	4706	4706	4706	4706	4706	4706	4706	4706	4706	4706	4706	4771	4706	4706	4643	4643	4643	4643	4643	4706	4706	4706	4771	4771	4771	4771	4771	4771	4771	4706	4706	4706	4706	4771	4706	4706	4706	4706	4706	4706	4706	4706	4643	4706	4706	4643	4643	4643	4706	4706	4706	4706	4706	4643	4643	4643	4643	4643	4643	4643	4643	4643	4643	4643	4643	4643	4643	4643	4643	4643	4581	4706	4643	4643	4643	4643	4706	4643	4643	4643	4706	4706	4706	4706	4706	4706	4706	4643	4643	4643	4643	4643	4643	4643	4706	4706	4643	4643	4643	4643	4643	4643	4643	4643	4643	4643	4643	4643	4643	4643	4643	4643	4643	4643	4643	4643	4581	4643	4643	4643	4643	4643	4643	4643	4643	4643	4706	4643	4643	4643	7779	7779	7959	7959	7779	7779	7779	7779	7779	7779	7779	7779	7779	7779	7779	7779	7779	7779	7779	7779	7779	7779	7779	7779	7779	7779	7779	7779	7779	7608	7608	7779	7779	7779	7779	7779	7779	7959	7959	7959	7959	7959	7959	8146	8146	0	0	0	0	0	0	0	0	0	0	2551	2532	2532	2514	2514	2496	2460	2460	2443	2426	2426	2426	2426	2409	2409	2392	2359	2359	2359	2359	2327	2312	2312	2297	2281	2281	2266	2266	2252	2223	2223	2208	2208	2208	2208	2194	2181	2167	2167	2167	2153	2140	2127	2140	2127	2127	2114	2114	2114	2101	2088	2088	2015	2003	1992	2003	1992	1992	1980	1958	1947	1936	1936	1925	1925	1925	1925	0	0	0	0	0	0	0	0	0	0	0	0	0	0	0	0	0	0	0	0	0	0	0	0	0	0	0	0	0	0	0	0	0	0	0	0	0	0
0	0	0	0	0	0	0	0	0	0	0	0	0	0	0	0	0	0	4706	4706	4706	4706	4771	4771	4706	4771	4706	4771	4771	4771	4771	4771	4771	4771	4771	4771	0	0	0	0	0	0	0	0	0	4977	4906	4977	4771	4771	0	0	0	0	0	0	0	0	0	4771	4771	4771	4771	4771	4838	4838	4838	4838	4771	4771	4706	4771	4706	4771	4771	4771	4771	4771	4771	4771	4771	4706	4706	4706	4706	4706	4706	4771	4771	4706	4771	4771	4771	4771	4706	4706	4771	4706	4706	4706	4706	4771	4706	4771	4838	4771	4771	4771	4771	4838	4771	4771	4706	4906	4838	4771	4838	4771	4771	4771	4771	4771	4838	0	0	0	0	0	0	0	0	0	0	0	0	0	0	0	0	0	0	0	0	0	0	8767	8550	8550	8550	8343	8343	7959	7959	7959	7959	7959	7959	7959	8343	8343	8343	8343	8343	8343	8343	8146	8146	8146	8343	8343	8550	8343	8343	8146	8146	8146	8146	8146	0	0	0	3583	3621	3621	3621	3621	3621	3621	3621	3621	3621	3621	3659	3621	3621	3738	3659	3659	3659	3659	3659	3621	3621	3621	3621	3621	3583	3583	3510	3546	3546	3583	3546	3546	3546	3546	3546	3546	3510	3510	3510	3510	3510	3510	3510	3546	3546	3546	3546	3546	3546	3546	3546	3546	3546	3546	3546	3546	3546	3546	3583	3583	3583	3621	3621	3659	3659	3659	3698	3698	3698	3698	3698	3698	3698	3698	0	0	0	3659	3659	3659	3698	3698	3698	3659	3698	3698	3659	3659	3659	0	7959	8146	8146	8146	8550	8550	8343	8343	8550	8343	8343	8343	8343	8343	8343	8343	8343	8343	8343	4771	4771	4771	4771	4771	4706	4706	4706	4706	4706	4706	4706	4706	4706	4706	4706	4706	4706	4706	4706	4706	4706	4706	4706	4771	4771	4771	4706	4706	4706	4771	4706	4771	4771	4706	4771	4771	4771	4771	4771	4771	4771	4771	4706	4706	4706	4706	4706	4706	4706	4643	4643	4706	4706	4706	4706	4706	4706	4706	4706	4706	4706	4706	4706	4706	4706	4706	4706	4706	4706	4771	4706	4706	4643	4643	4643	4643	4643	4706	4706	4706	4771	4771	4706	4706	4771	4771	4771	4706	4706	4706	4771	4706	4706	4706	4706	4706	4706	4706	4643	4643	4643	4643	4706	4706	4706	4706	4706	4706	4706	4706	4706	4643	4643	4643	4643	4643	4643	4643	4706	4706	4706	4643	4643	4643	4643	4643	4643	4643	4643	4706	4643	4643	4643	4643	4643	4643	4643	4643	4643	4706	4706	4706	4706	4706	4706	4706	4706	4706	4706	4706	4706	4706	4706	4706	4643	4706	4706	4706	4643	4643	4643	4643	4643	4643	4643	4643	4643	4643	4643	4643	4643	4643	4643	4643	4581	4643	4643	4643	4643	4581	4643	4581	4643	4643	4643	4581	4581	7779	7779	7779	7779	7959	7779	7779	7779	7779	7779	7779	7779	7779	7779	7779	7779	7779	7779	7779	7779	7779	7779	7779	7779	7779	7779	7779	7779	7779	7779	7779	7608	7779	7779	7779	7779	7779	7959	7959	7959	7959	8146	8146	8146	8146	8146	8146	0	0	0	0	0	0	0	0	0	2532	2532	2532	2532	2514	2496	2478	2460	2460	2426	2426	2426	2426	2409	2409	2392	2359	2343	2359	2343	2343	2312	2312	2297	2281	2281	2281	2266	2266	2237	2237	2223	2208	2208	2208	2194	2181	2167	2167	2153	2140	2140	2140	2140	2127	2127	2127	2114	2114	2101	2101	2088	2027	2015	2003	2015	2003	2003	1980	1969	1958	1947	1936	1925	1925	1925	1925	0	0	0	0	0	0	0	0	0	0	0	0	0	0	0	0	0	0	0	0	0	0	0	0	0	0	0	0	0	0	0	0	0	0	0	0	0	0
0	0	0	0	0	0	0	0	0	0	0	0	0	0	0	0	0	0	4706	4706	4706	4706	4771	4771	4771	4771	4838	4838	4771	4838	4771	4771	4771	4771	4706	4706	0	0	0	0	0	0	0	0	0	4977	4706	4771	4771	4706	4706	0	0	0	0	0	0	0	0	4771	4771	4771	4771	4706	4771	4771	4771	4771	4771	4706	4706	4706	4771	4771	4771	4771	4771	4771	4771	4771	4706	4706	4706	4706	4706	4706	4771	4771	4771	4706	4771	4771	4771	4771	4706	4706	4771	4706	4771	4706	4771	4771	4706	4771	4838	4771	4771	4771	4771	4771	4771	4771	4838	4906	4838	4771	4838	4771	4706	4771	4706	4706	0	0	0	0	0	0	0	0	0	0	0	0	0	0	0	0	0	0	0	0	0	0	0	0	0	0	8550	8343	8343	7959	8146	8146	8146	7959	8146	8146	8146	8343	8343	8343	8146	8343	8146	8146	8146	8146	8343	8343	8343	8146	8146	8146	8146	8146	8146	8146	0	0	0	3583	3621	3621	3583	3621	3621	3621	3621	3621	3621	3621	0	3621	3621	0	0	3659	3659	3659	3659	3621	3621	3621	3621	3583	3583	3583	3510	3583	3583	3583	3546	3546	3546	3510	3510	3510	3510	3510	3510	3510	3510	3510	3510	3510	3510	3546	3546	3546	3546	3546	3546	3546	3546	3546	3546	3546	3546	3546	3583	3583	3583	3583	3621	3621	3659	3659	3698	3698	3698	3698	3698	3738	3738	0	0	0	0	3659	3659	3659	3698	3698	3698	3659	3659	3698	3698	3698	3659	8550	8343	8343	8343	8343	8146	8146	8146	8343	8343	8343	8343	8343	8343	8343	8343	8146	8343	8343	8343	0	4838	4771	4771	4771	4706	4706	4706	4706	4706	4706	4706	4706	4706	4706	4706	4706	4706	4706	4706	4706	4706	4706	4706	4771	4771	4771	4771	4706	4706	4771	4771	4771	4771	4706	4706	4771	4771	4771	4771	4771	4771	4771	4706	4706	4706	4706	4706	4706	4706	4643	4771	4771	4706	4706	4706	4771	4706	4706	4706	4706	4706	4706	4643	4706	4706	4706	4706	4706	4706	4771	4706	4706	4643	4643	4643	4643	4643	4706	4706	4706	4771	4771	4771	4706	4771	4771	4771	4706	4706	4706	4771	4706	4706	4706	4706	4706	4706	4706	4643	4643	4643	4706	4706	4706	4706	4706	4706	4706	4706	4706	4706	4643	4643	4706	4643	4643	4706	4706	4706	4706	4706	4643	4643	4643	4643	4643	4643	4643	4643	4706	4643	4643	4643	4643	4643	4643	4643	4643	4643	4643	4706	4643	4706	4706	4706	4706	4706	4706	4706	4706	4706	4706	4706	4706	4643	4706	4706	4706	4643	4643	4643	4643	4581	4643	4643	4643	4643	4643	4643	4643	4643	4643	4643	4643	4581	4643	4643	4643	4643	4581	4643	4643	4643	4643	4643	4581	4581	7779	7779	7779	7779	7779	7779	7779	7779	7959	7959	7959	7779	7779	7779	7959	7779	7779	7779	7779	7779	7779	7779	7779	7779	7779	7779	7779	7779	7779	7779	7608	7608	7608	7779	7779	7779	7779	7959	8146	8146	8146	8343	8343	8343	8343	8343	8343	0	0	0	0	0	0	0	0	0	2532	2532	2532	2532	2514	2496	2478	2460	2460	2443	2426	2426	2426	2409	2409	2392	2359	2343	2343	2343	2327	2327	2312	2297	2297	2281	2281	2281	2281	2252	2237	2223	2223	2208	2208	2194	2181	2167	2167	2167	2153	2140	2140	2140	2127	2127	2127	2114	2114	2101	2101	2088	2088	2027	2003	2015	1992	1980	1980	1969	1958	1958	1936	1936	1936	1925	1925	0	0	0	0	0	0	0	0	0	0	0	0	0	0	0	0	0	0	0	0	0	0	0	0	0	0	0	0	0	0	0	0	0	0	0	0	0	0
0	0	0	0	0	0	0	0	0	0	0	0	0	0	0	0	0	0	4706	4706	4706	4706	4771	4771	4838	4771	4771	4771	4706	4706	4706	4706	4706	4706	4706	4706	4706	0	0	0	0	0	0	0	0	0	4706	4771	4706	4706	4706	0	0	0	0	0	0	0	4771	4771	4771	4771	4771	4706	4771	4771	4771	4771	4771	4706	4706	4706	4706	4706	4771	4771	4771	4771	4706	4771	4706	4706	4706	4706	4706	4706	4771	4771	4771	4706	4706	4771	4771	4706	4706	4706	4706	4706	4706	4706	4706	4706	4706	4771	4838	4771	4771	4771	4771	4771	4771	4771	4771	4771	4771	4771	4838	4771	4771	4771	4771	4771	0	0	0	0	0	0	0	0	0	0	0	0	0	0	0	0	0	0	0	0	0	0	0	0	0	0	0	0	0	7959	7959	7959	7959	7959	8146	8146	8550	8550	8343	8343	8343	8343	8146	8146	8146	8146	8343	8343	8343	8146	8146	8146	8146	8146	8146	8146	0	0	0	3583	3621	3583	3583	3621	3621	3621	3621	3621	3621	0	0	0	0	0	3698	3698	3659	3659	3659	3621	3621	3621	3583	3583	3546	3546	3546	3546	3583	3583	3546	3546	3546	3546	3546	3546	3546	3510	3510	3510	3510	3510	3510	3510	3510	3546	3546	3546	3546	3546	3546	3546	3546	3546	3546	3546	3546	3546	3546	3583	3583	3583	3621	3621	3659	3659	3698	3698	3698	3698	3698	3698	3698	0	0	0	0	0	3698	3698	3738	3698	3698	3698	3698	3698	3698	3698	0	8550	8343	8146	8146	8146	8146	8146	8146	8343	8343	8343	8343	8343	8343	8343	8343	8343	8146	8146	0	0	4771	4771	4771	4771	4771	4706	4706	4706	4706	4706	4706	4706	4706	4706	4706	4706	4706	4706	4706	4706	4706	4706	4706	4771	4771	4771	4771	4706	4706	4771	4771	4771	4771	4706	4706	4706	4706	4771	4771	4706	4706	4706	4706	4706	4706	4706	4706	4706	4706	4706	4706	4771	4771	4771	4771	4771	4771	4706	4706	4706	4706	4706	4706	4706	4706	4706	4706	4706	4706	4706	4706	4706	4643	4643	4643	4643	4643	4706	4706	4706	4771	4771	4771	4771	4771	4771	4771	4706	4706	4706	4771	4706	4706	4706	4771	4706	4706	4643	4643	4643	4706	4771	4706	4706	4706	4706	4706	4706	4706	4643	4706	4643	4643	4643	4643	4643	4643	4706	4706	4706	4706	4643	4643	4643	4643	4643	4643	4643	4643	4706	4643	4643	4643	4643	4643	4643	4643	4643	4643	4643	4706	4706	4706	4706	4706	4706	4706	4706	4706	4706	4706	4706	4706	4706	4706	4706	4706	4643	4643	4643	4643	4643	4643	4643	4643	4643	4643	4643	4643	4643	4643	4643	4643	4643	4643	4581	4581	4643	4643	4643	4643	4643	4706	4706	4643	4643	4643	7608	7779	7779	7779	7959	7779	7779	7779	7959	7959	7779	7779	7779	7779	7779	7779	7779	7779	7779	7779	7779	7779	7779	7779	7779	7779	7779	7779	7779	7779	7608	7608	7779	7779	7779	7779	7779	7959	7959	8146	8146	8146	8146	8146	8343	8343	8343	0	0	0	0	0	0	0	0	2551	2551	2532	2532	2532	2514	2496	2478	2460	2460	2443	2443	2443	2426	2426	2409	2392	2376	2359	2359	2343	2327	2327	2312	2312	2297	2281	2281	2281	2281	2266	2237	2223	2223	2208	2208	2194	2181	2167	2167	2153	2153	2140	2140	2153	2140	2127	2114	2114	2114	2101	2101	2088	2088	2039	2015	2027	1992	1980	1969	1958	1947	1947	1958	1936	1925	1925	1925	0	0	0	0	0	0	0	0	0	0	0	0	0	0	0	0	0	0	0	0	0	0	0	0	0	0	0	0	0	0	0	0	0	0	0	0	0	0
0	0	0	0	0	0	0	0	0	0	0	0	0	0	0	0	0	0	4706	4771	4771	4771	4838	4838	4838	4838	4838	4838	4771	4706	4706	4706	4706	4706	4706	4706	4706	0	0	0	0	0	0	0	0	0	4706	4771	4706	4706	4771	4771	0	0	0	0	0	0	4771	4771	4771	4771	4771	4706	4706	4706	4771	4771	4706	4706	4706	4706	4771	4771	4771	4771	4771	4771	4706	4771	4706	4706	4771	4771	4706	4706	4771	4771	4771	4706	4771	4771	4771	4771	4706	4706	4706	4706	4706	4706	4706	4771	4771	4771	4838	4771	4771	4771	4771	4771	4771	4771	4771	4771	4771	4838	4838	4771	4771	4771	4771	4771	4771	0	0	0	0	0	0	0	0	0	0	0	0	0	0	0	0	0	0	0	0	0	8146	8146	8146	8146	0	0	0	7959	7959	7959	7959	7959	8146	8146	8550	8550	8550	8343	8343	8146	8146	8146	8146	7959	8343	8343	8146	8146	8146	8146	8146	8146	8146	8146	0	0	0	0	3621	3621	3583	3621	3621	3621	3621	3583	3583	0	0	0	0	0	3659	3659	3659	3659	3659	3659	3621	3621	3583	3583	3546	3546	3546	3546	3583	3583	3546	3546	3546	3546	3546	3546	3546	3546	3546	3546	3546	3510	3510	3510	3510	3546	3510	3546	3546	3546	3546	3546	3546	3546	3546	3546	3546	3546	3546	3546	3583	3583	3621	3621	3621	3659	3659	3698	3698	3698	3698	3738	3738	0	0	0	0	0	3698	3659	3698	3698	3698	3698	3698	3698	3698	3698	0	8550	8550	8343	8343	8343	8343	8343	8343	8343	8343	8343	8343	8343	8343	8343	8343	8343	8343	8343	8343	0	4838	4771	4771	4771	4771	4706	4706	4706	4706	4706	4706	4706	4706	4706	4706	4706	4706	4706	4706	4706	4706	4706	4706	4706	4771	4771	4771	4771	4706	4771	4771	4771	4771	4706	4706	4706	4706	4706	4706	4706	4706	4771	4706	4706	4706	4706	4706	4706	4706	4706	4706	4771	4771	4771	4771	4771	4771	4771	4706	4706	4706	4706	4706	4706	4706	4706	4771	4771	4706	4706	4706	4771	4706	4643	4643	4643	4643	4706	4706	4706	4706	4771	4771	4706	4771	4771	4706	4706	4706	4706	4771	4771	4771	4706	4771	4706	4706	4643	4643	4706	4706	4706	4771	4706	4771	4706	4706	4706	4706	4706	4706	4643	4643	4706	4643	4643	4643	4643	4706	4706	4706	4643	4643	4643	4643	4643	4643	4581	4581	4706	4643	4643	4643	4643	4643	4643	4643	4643	4706	4706	4643	4706	4706	4706	4706	4706	4706	4706	4706	4706	4706	4706	4706	4706	4706	4643	4706	4643	4643	4643	4643	4643	4643	4581	4643	4643	4643	4643	4643	4643	4643	4643	4643	4643	4643	4581	4581	4581	4581	4581	4581	4581	4643	4643	4643	4706	4706	4706	7779	7779	7779	7959	7959	7779	7959	7959	7779	7959	7779	7779	7779	7779	7779	7779	7779	7779	7779	7779	7779	7779	7779	7779	7779	7779	7779	7779	7779	7608	7608	7608	7779	7779	7779	7779	7779	7959	7959	7959	7959	8146	8146	8146	8146	8146	0	0	0	0	0	0	0	0	2551	2551	2532	2532	2532	2514	2496	2478	2460	2460	2443	2443	2443	2426	2409	2409	2392	2376	2359	2359	2343	2327	2327	2312	2312	2297	2297	2281	2281	2281	2266	2252	2237	2223	2223	2208	2194	2194	2181	2167	2167	2140	2140	2140	2140	2127	2127	2114	2114	2114	2114	2101	2101	2088	2051	2039	2039	2015	1980	1969	1958	1947	1947	1947	1936	1936	1925	1925	0	0	0	0	0	0	0	0	0	0	0	0	0	0	0	0	0	0	0	0	0	0	0	0	0	0	0	0	0	0	0	0	0	0	0	0	0	0
0	0	0	0	0	0	0	0	0	0	0	0	0	0	0	0	0	0	4771	4771	4771	4771	4838	4838	4838	4838	4838	4838	4771	4706	4706	4706	4706	4706	4706	4706	4706	0	0	0	0	0	0	0	0	0	0	4771	4706	4706	4771	4771	0	0	0	0	0	0	4771	4771	4771	4771	4771	4771	4771	4771	4838	4771	4771	4706	4706	4706	4771	4771	4771	4771	4771	4771	4706	4771	4706	4771	4771	4771	4771	4706	4771	4771	4771	4706	4771	4771	4771	4771	4706	4706	4706	4706	4706	4706	4706	4706	4771	4771	4838	4838	4838	4838	4771	4838	4838	4771	4771	4838	4838	4838	4838	4771	4771	4771	4771	4771	4771	0	0	0	0	0	0	0	0	0	0	0	0	0	0	0	0	0	0	7959	7959	7959	7959	7959	7959	7959	0	0	0	0	7959	7959	7959	7959	8146	8146	8343	8343	8343	8343	8146	8343	8146	8146	7959	7959	8146	8146	8146	8146	8146	8146	8146	8146	8146	8146	0	0	0	0	3621	3621	3583	3583	3583	3621	3583	3583	3583	0	0	0	0	0	3659	3659	3659	3659	3659	3621	3621	3583	3583	3546	3546	3546	3546	3546	3546	3583	3546	3546	3546	3546	3546	3546	3546	3546	3546	3546	3546	3546	3510	3510	3510	3510	3510	3510	3546	3546	3546	3546	3546	3546	3546	3546	3546	3546	3546	3583	3583	3583	3583	3621	3621	3659	3659	3698	3698	3698	3698	3698	3698	0	0	0	0	0	3659	3659	3698	3698	3698	3698	3698	3698	3698	3738	3738	8550	8343	8343	8343	8343	8343	8343	8343	8343	8343	8343	8343	8146	8343	8343	8343	8343	8343	8343	8343	8343	4771	4838	4771	4771	4771	4771	4706	4706	4706	4706	4706	4706	4706	4706	4706	4706	4706	4706	4706	4706	4706	4706	4643	4706	4706	4706	4771	4706	4771	4771	4706	4771	4771	4706	4706	4706	4706	4706	4706	4706	4706	4771	4771	4771	4771	4706	4771	4771	4706	4706	4706	4706	4706	4706	4771	4771	4771	4771	4771	4771	4771	4771	4706	4706	4706	4706	4771	4771	4706	4706	4706	4706	4706	4643	4643	4643	4643	4706	4706	4706	4706	4771	4771	4706	4706	4706	4706	4643	4706	4706	4771	4771	4771	4771	4771	4706	4706	4643	4643	4643	4706	4706	4706	4706	4706	4706	4706	4706	4706	4643	4706	4643	4643	4706	4643	4643	4643	4643	4706	4706	4706	4643	4643	4643	4643	4643	4581	4581	4581	4643	4643	4643	4643	4643	4706	4643	4643	4706	4706	4706	4643	4706	4706	4706	4706	4706	4706	4706	4706	4706	4706	4706	4706	4706	4643	4706	4706	4643	4643	4643	4643	4643	4643	4643	4643	4643	4643	4643	4643	4643	4643	4643	4643	4643	4581	4581	4581	4581	4581	4581	4643	4643	4706	4706	4706	4771	4771	4771	7779	7779	7959	7959	7959	7779	7779	7959	7959	7959	7779	7779	7779	7779	7779	7779	7779	7779	7779	7779	7779	7779	7779	7779	7779	7779	7779	7779	7779	7608	7779	7779	7779	7608	7608	7779	7959	7959	8146	8146	7959	8146	7959	7959	7959	7959	0	0	0	0	0	0	0	2589	2570	2551	2551	2532	2532	2514	2496	2478	2460	2460	2443	2443	2426	2426	2409	2409	2392	2376	2359	2359	2343	2327	2327	2312	2312	2297	2297	2297	2281	2281	2252	2237	2223	2223	2208	2208	2194	2194	2181	2167	2167	2140	2140	2140	2127	2127	2127	2114	2114	2114	2114	2101	2101	2088	2039	2015	2015	1992	1980	1969	1958	1947	1958	1947	1936	1925	1925	1925	0	0	0	0	0	0	0	0	0	0	0	0	0	0	0	0	0	0	0	0	0	0	0	0	0	0	0	0	0	0	0	0	0	0	0	0	0	0
0	0	0	0	0	0	0	0	0	0	0	0	0	0	0	0	0	0	4706	4771	4771	4771	4771	4838	4838	4906	4838	4838	4771	4706	4706	4706	4706	4706	4706	4706	4706	4706	0	0	0	0	0	0	0	0	0	4771	4706	4706	4706	4771	4706	4706	0	0	0	0	0	4771	4838	4838	4838	4838	4771	4838	4838	4771	4706	4706	4706	4706	4838	4771	4771	4771	4771	4771	4706	4771	4771	4771	4771	4771	4771	4706	4771	4771	4771	4706	4771	4771	4771	4771	4706	4706	4706	4706	4706	4706	4706	4771	4771	4771	4838	4838	4838	4838	4771	4838	4838	4771	4771	4838	4838	4838	4771	4771	4771	4771	4771	4706	4706	4706	0	0	0	0	0	0	0	0	0	0	0	0	0	0	0	0	0	7779	7779	7779	7959	7959	7959	7959	0	0	7959	7959	7959	7959	7959	7959	8146	8343	8550	8343	8343	8343	8146	8146	8146	8146	7959	8146	8146	8146	8146	8146	8146	8146	8146	8146	8146	0	0	0	0	0	0	3621	3583	3583	3621	3621	3621	3583	3583	0	0	0	0	0	0	3659	3659	3659	3659	3621	3583	3583	3546	3546	3546	3546	3546	3546	3583	3583	3546	3546	3546	3546	3546	3546	3546	3546	3546	3546	3546	3510	3546	3510	3510	3510	3510	3510	3546	3546	3546	3546	3546	3546	3546	3546	3546	3546	3546	3546	3583	3583	3621	3621	3621	3659	3659	3698	3698	3698	3738	3698	3698	0	0	0	0	3659	3659	3659	3659	3698	3698	3698	3698	3698	3738	3738	3738	8550	8343	8550	8343	8343	8343	8343	8343	8343	8343	8343	8146	8146	8146	8146	8343	8343	8343	8343	8343	8343	4771	4771	4771	4771	4771	4771	4771	4706	4706	4706	4706	4643	4706	4706	4706	4706	4706	4706	4706	4706	4706	4706	4706	4706	4706	4706	4771	4706	4771	4771	4771	4771	4771	4706	4706	4706	4706	4706	4706	4706	4706	4771	4771	4771	4771	4706	4706	4706	4706	4643	4643	4706	4706	4706	4706	4771	4771	4771	4706	4706	4706	4706	4706	4706	4706	4706	4706	4706	4706	4706	4706	4706	4643	4643	4643	4643	4643	4706	4706	4706	4706	4771	4706	4706	4706	4706	4706	4643	4643	4706	4771	4771	4771	4771	4771	4771	4706	4706	4643	4706	4706	4706	4706	4706	4706	4706	4706	4706	4706	4643	4706	4643	4643	4706	4706	4643	4643	4643	4771	4706	4643	4643	4643	4643	4643	4643	4643	4643	4581	4581	4706	4706	4706	4706	4706	4643	4643	4706	4706	4706	4643	4706	4706	4706	4706	4706	4706	4706	4706	4706	4706	4706	4706	4643	4643	4643	4706	4643	4643	4643	4643	4643	4643	4643	4643	4643	4643	4643	4643	4643	4643	4643	4643	4643	4581	4581	4581	4581	4643	4581	4643	4643	4706	4706	4706	4771	4771	4771	7779	7779	7779	7959	7779	7779	7779	7959	7959	7959	7779	7779	7779	7779	7779	7779	7779	7779	7779	7779	7779	7779	7779	7779	7779	7779	7959	7959	7779	7779	7779	7779	7779	7608	7779	7779	7959	8146	8146	7959	7959	7959	7959	7959	7959	7959	7959	0	0	0	0	0	0	2589	2570	2551	2532	2532	2532	2514	2496	2478	2460	2460	2443	2443	2426	2426	2409	2392	2392	2376	2376	2359	2343	2327	2327	2312	2312	2297	2297	2297	2281	2281	2252	2237	2223	2223	2208	2208	2194	2194	2181	2167	2167	2140	2140	2127	2127	2114	2114	2114	2114	2114	2114	2101	2101	2088	2039	2027	2027	2003	1980	1969	1958	1947	1958	1947	1947	1925	1925	1925	0	0	0	0	0	0	0	0	0	0	0	0	0	0	0	0	0	0	0	0	0	0	0	0	0	0	0	0	0	0	0	0	0	0	0	0	0	0
0	0	0	0	0	0	0	0	0	0	0	0	0	0	0	0	0	0	4706	4771	4771	4771	4838	4838	4838	4906	4906	4906	4838	4706	4771	4771	4771	4771	4706	4706	4706	4706	4706	0	0	0	0	0	0	0	4771	4771	4771	4771	4771	4771	4706	4706	0	0	0	0	0	0	4838	4838	4838	4838	4771	4838	4771	4771	4706	4706	4706	4771	4838	4771	4771	4771	4771	4771	4706	4771	4771	4771	4771	4771	4771	4706	4771	4771	4771	4706	4771	4771	4771	4771	4771	4706	4706	4706	4706	4706	4771	4771	4771	4771	4838	4838	4838	4771	4771	4838	4838	4771	4771	4838	4838	4838	4771	4771	4771	4771	4771	4771	4771	4706	0	0	0	0	0	0	0	0	0	0	0	0	0	0	0	0	0	7779	7779	7779	7779	7779	7959	7959	7959	7959	7959	7959	7959	7959	7959	7959	8343	8343	8343	8343	8343	8343	8146	8146	7959	7959	8146	8146	8146	8146	8146	8146	8146	8146	8146	8146	8146	0	0	0	0	0	0	3583	3621	3546	3546	3621	3621	3621	3621	0	0	0	0	0	0	3659	3659	3659	3621	3621	3583	3583	3583	3583	3546	3546	3546	3546	3583	3583	3546	3546	3546	3546	3546	3546	3546	3546	3546	3546	3546	3546	3546	3546	3510	3510	3510	3510	3510	3546	3546	3546	3546	3546	3546	3546	3546	3546	3546	3546	3583	3583	3621	3621	3659	3659	3659	3698	3698	3698	3738	3698	3698	0	0	0	0	3659	3659	3659	3698	3698	3698	3698	3698	3698	3738	3738	3738	0	8343	8550	8343	8343	8343	8343	8343	8343	8343	8146	8146	8146	7959	8146	7959	8146	8550	8343	8343	0	0	4838	4771	4771	4771	4771	4771	4706	4706	4706	4706	4643	4706	4706	4706	4706	4706	4706	4706	4706	4706	4706	4706	4706	4706	4771	4771	4771	4771	4771	4771	4771	4771	4771	4706	4706	4706	4706	4706	4706	4706	4771	4771	4771	4771	4771	4706	4706	4643	4643	4643	4706	4706	4706	4706	4706	4771	4771	4706	4706	4706	4706	4706	4706	4706	4771	4706	4706	4706	4706	4706	4706	4643	4643	4643	4643	4643	4643	4706	4706	4706	4706	4706	4706	4706	4706	4706	4643	4643	4706	4706	4771	4771	4771	4771	4771	4706	4706	4643	4643	4706	4706	4706	4643	4706	4706	4706	4706	4643	4643	4706	4643	4643	4706	4706	4643	4643	4706	4706	4706	4643	4643	4643	4643	4643	4643	4581	4643	4581	4643	4643	4706	4706	4706	4643	4643	4643	4706	4706	4706	4643	4706	4706	4706	4706	4706	4706	4706	4706	4706	4706	4643	4643	4643	4643	4643	4643	4643	4643	4643	4643	4643	4643	4643	4643	4643	4643	4643	4643	4643	4643	4643	4643	4643	4581	4581	4643	4643	4643	4643	4643	4643	4706	4706	4643	4771	4706	4706	7779	7779	7779	7959	7779	7779	7959	7959	7959	7959	7779	7779	7779	7779	7959	7779	7779	7779	7779	7779	7779	7779	7779	7779	7779	7959	7959	7959	7959	7959	7779	7779	7779	7779	7779	7779	7779	7959	8146	8146	8146	8146	7959	7959	7959	7959	7959	0	0	0	0	0	0	0	2570	2551	2532	2532	2514	2514	2496	2460	2460	2460	2443	2443	2426	2409	2409	2392	2392	2376	2376	2359	2343	2343	2327	2327	2312	2312	2297	2281	2281	2281	2266	2237	2237	2223	2208	2208	2194	2181	2181	2167	2167	2140	2140	2127	2127	2114	2114	2114	2114	2101	2114	2101	2088	2076	2051	2027	2015	2003	1980	1969	1958	1958	1958	1947	1947	1936	1925	1925	0	0	0	0	0	0	0	0	0	0	0	0	0	0	0	0	0	0	0	0	0	0	0	0	0	0	0	0	0	0	0	0	0	0	0	0	0	0
0	0	0	0	0	0	0	0	0	0	0	0	0	0	0	0	0	0	4706	4771	4771	4771	4771	4838	4838	4838	4906	4838	4838	4771	4771	4706	4771	4706	4706	4706	4706	4706	4706	0	0	0	0	0	0	4706	4706	4706	4706	4706	4706	4706	4643	4643	0	0	0	0	0	0	0	4838	4838	4838	4771	4838	4771	4771	4706	4706	4706	4706	4838	4771	4771	4771	4706	4706	4771	4771	4706	4771	4771	4771	4771	4771	4771	4771	4771	4771	4771	4771	4771	4771	4771	4771	4706	4706	4706	4706	4706	4771	4771	4771	4838	4838	4838	4838	4838	4838	4838	4838	4771	4838	4838	4838	4771	4771	4771	4771	4771	4771	4706	4771	4771	0	0	0	0	0	0	0	0	0	0	0	0	0	0	0	0	7779	7779	7779	7779	7779	7779	7959	7959	7959	7959	8146	8146	7959	8146	8146	8343	8343	8550	8343	8343	8343	8146	8146	8146	7959	8146	8146	8146	8146	8146	8146	8146	8146	8146	8146	8146	0	0	0	0	0	0	3583	3621	3546	3546	3583	3583	3583	3583	0	0	0	0	0	0	0	3659	3659	3621	3621	3621	3583	3583	3583	3546	3546	3510	3510	3546	3546	3546	3546	3546	3546	3546	3546	3546	3510	3546	3546	3510	3546	3546	3546	3546	3510	3510	3510	3510	3546	3546	3546	3546	3546	3546	3546	3546	3546	3546	3546	3583	3583	3583	3621	3659	3621	3659	3698	3659	3698	3698	3698	3698	0	0	0	0	3659	3659	3659	3698	3698	3698	3698	3698	3698	3698	3738	3738	0	8343	8343	8343	8343	8343	8343	8343	8343	8146	8146	8146	8146	7959	8146	7959	8343	8550	8550	8550	0	0	4771	4771	4771	4771	4771	4771	4771	4706	4706	4706	4706	4706	4706	4706	4706	4706	4706	4706	4706	4706	4706	4706	4706	4706	4771	4771	4771	4771	4771	4771	4771	4771	4706	4706	4706	4706	4706	4706	4706	4706	4771	4771	4771	4771	4771	4706	4706	4706	4643	4643	4706	4706	4706	4706	4706	4706	4771	4706	4706	4706	4706	4706	4706	4706	4706	4706	4706	4706	4706	4706	4706	4706	4706	4706	4706	4643	4706	4706	4706	4706	4706	4706	4706	4706	4706	4643	4643	4643	4643	4706	4706	4706	4771	4771	4706	4706	4643	4643	4643	4643	4706	4706	4643	4706	4706	4706	4706	4643	4643	4643	4643	4643	4706	4643	4643	4643	4643	4643	4643	4643	4643	4643	4643	4643	4581	4581	4643	4581	4643	4706	4706	4706	4706	4706	4643	4706	4706	4706	4706	4706	4706	4706	4706	4706	4706	4706	4706	4706	4706	4643	4643	4643	4643	4643	4643	4643	4643	4643	4643	4643	4643	4643	4643	4643	4643	4643	4643	4643	4643	4643	4581	4581	4643	4581	4581	4643	4643	4643	4643	4643	4643	4706	4706	4706	4771	4521	4521	7959	7959	7779	7779	7779	7779	7779	7959	7959	7779	7779	7779	7779	7779	7959	7779	7779	7779	7779	7779	7779	7779	7779	7779	7779	7959	7959	7959	7959	8146	7959	7779	7779	7608	7608	7608	7959	8146	8146	8146	8146	8146	7959	7959	7959	7959	7959	0	0	0	0	0	0	0	2551	2551	2532	2532	2532	2514	2496	2478	2460	2460	2443	2443	2426	2409	2409	2392	2392	2376	2376	2359	2343	2343	2327	2327	2312	2312	2297	2297	2281	2281	2266	2237	2223	2223	2208	2208	2194	2194	2181	2167	2167	2140	2140	2127	2127	2114	2101	2101	2101	2101	2101	2088	2088	2076	2051	2039	2027	2003	1980	1969	1958	1958	1958	1958	1947	1936	1925	1925	0	0	0	0	0	0	0	0	0	0	0	0	0	0	0	0	0	0	0	0	0	0	0	0	0	0	0	0	0	0	0	0	0	0	0	0	0	0
0	0	0	0	0	0	0	0	0	0	0	0	0	0	0	0	0	0	4771	4771	4771	4771	4771	4838	4838	4838	4838	4838	4771	4706	4706	4706	4706	4706	4706	4706	4706	4706	4706	0	0	0	0	0	0	4706	4771	4706	4706	4706	4706	4706	4643	4643	0	0	0	0	0	4771	4838	4838	4771	4771	4771	4771	4771	4771	4706	4706	4771	4771	4771	4771	4771	4771	4706	4706	4771	4771	4771	4771	4771	4771	4771	4771	4771	4771	4771	4771	4771	4706	4771	4771	4771	4771	4706	4706	4706	4706	4706	4771	4771	4771	4838	4838	4838	4838	4838	4838	4838	4838	4838	4838	4838	4838	4838	4838	4838	4838	4838	4838	4771	4771	4771	0	0	0	0	0	0	0	0	0	0	0	0	0	0	0	0	7779	7779	7779	7779	7779	7959	7959	7959	7959	7959	8146	8146	7959	7959	7959	8146	8146	8343	8146	8146	8146	8146	8146	7959	7959	8146	8146	8146	8146	8146	8146	8146	8146	8146	8146	8146	0	0	0	0	0	0	3583	3583	3546	3546	3583	3546	3546	3546	0	0	0	0	0	0	0	3659	3659	3621	3621	3621	3583	3583	3546	3546	3546	3510	3510	3546	3546	3546	3546	3546	3546	3546	3546	3546	3510	3546	3546	3510	3546	3546	3546	3546	3510	3510	3510	3546	3546	3546	3546	3546	3546	3546	3546	3546	3546	3546	3546	3583	3583	3583	3583	3621	3621	3659	3659	3659	3698	3698	3698	3698	0	0	3698	3698	3659	3659	3659	3698	3698	3698	3698	3698	3698	3738	3738	3738	0	8146	8343	8343	8343	8343	8343	8343	8343	8146	8146	8146	8146	7959	8343	8343	8550	8550	8550	8550	8550	0	4771	4771	4771	4771	4771	4771	4771	4706	4706	4706	4706	4706	4706	4706	4706	4706	4706	4706	4706	4706	4706	4706	4706	4771	4771	4771	4771	4771	4771	4771	4771	4771	4771	4771	4706	4706	4706	4706	4706	4771	4771	4771	4771	4771	4771	4771	4771	4706	4706	4643	4706	4706	4706	4706	4706	4706	4706	4706	4706	4706	4706	4706	4706	4706	4706	4706	4706	4643	4706	4706	4706	4706	4706	4706	4706	4706	4706	4706	4706	4771	4706	4706	4706	4643	4643	4643	4643	4643	4643	4706	4706	4706	4771	4706	4706	4706	4643	4643	4643	4643	4643	4643	4643	4706	4706	4706	4643	4643	4643	4643	4643	4643	4643	4643	4643	4643	4643	4643	4643	4643	4643	4643	4643	4581	4643	4581	4643	4643	4643	4706	4706	4706	4706	4706	4643	4706	4706	4706	4706	4706	4706	4706	4706	4706	4706	4706	4706	4643	4643	4643	4643	4643	4643	4643	4643	4643	4643	4643	4643	4643	4643	4643	4643	4643	4706	4643	4706	4643	4643	4643	4581	4581	4581	4581	4581	4643	4643	4643	4643	4643	4643	4706	4706	4643	4643	4643	8146	7959	7959	7959	7779	7779	7779	7779	7959	7959	7959	7779	7779	7779	7779	7779	7779	7779	7959	7779	7779	7779	7779	7779	7779	7779	7959	7959	7959	7959	8146	7959	7959	7959	7608	7608	7779	7959	7959	7959	7959	7959	7959	7959	7779	7959	7959	7959	0	0	0	0	0	0	0	2551	2551	2532	2532	2514	2514	2496	2478	2460	2460	2443	2443	2426	2409	2409	2392	2392	2376	2376	2359	2343	2343	2327	2327	2312	2297	2297	2281	2281	2281	2266	2237	2223	2223	2208	2208	2194	2181	2181	2167	2153	2140	2127	2114	2114	2114	2114	2114	2114	2101	2101	2088	2088	2076	2063	2051	2051	2015	1992	1980	1969	1958	1958	1947	1947	1936	1925	1925	0	0	0	0	0	0	0	0	0	0	0	0	0	0	0	0	0	0	0	0	0	0	0	0	0	0	0	0	0	0	0	0	0	0	0	0	0	0
0	0	0	0	0	0	0	0	0	0	0	0	0	0	0	0	0	0	4706	4771	4771	4771	4771	4771	4771	4838	4838	4838	4771	4706	4706	4706	4706	4706	4771	4771	4771	4771	4706	0	0	0	0	0	0	4706	4706	4706	4706	4706	4706	4706	4706	4706	0	0	0	0	0	4771	4838	4838	4838	4771	4771	4771	4771	4771	4771	4771	4771	4771	4771	4771	4771	4706	4706	4706	4771	4771	4771	4771	4771	4771	4771	4771	4771	4771	4771	4771	4771	4706	4771	4771	4771	4771	4771	4771	4771	4706	4706	4706	4706	4706	4771	4771	4771	4771	4771	4771	4838	4838	4838	4838	4838	4838	4838	4838	4838	4838	4838	4838	4771	4771	4771	0	0	0	0	0	0	0	0	0	0	0	0	0	0	0	0	7779	7779	7779	7779	7779	7779	7959	7959	7959	7959	7959	7959	7959	7959	7959	7959	8146	8343	8146	8146	8146	8146	8146	8146	7959	8146	8146	8146	8343	8146	8343	8146	8146	8146	8146	8146	0	0	0	0	0	0	3583	3583	3583	3546	3546	3546	3546	3546	0	0	0	0	0	0	0	3659	3698	3621	3621	3621	3583	3583	3583	3546	3546	3510	3510	3546	3546	3546	3546	3546	3546	3546	3546	3546	3510	3510	3546	3510	3546	3510	3546	3546	3546	3546	3546	3546	3546	3546	3546	3546	3546	3546	3546	3546	3546	3546	3546	3546	3583	3583	3583	3659	3659	3659	3659	3659	3698	3698	3698	3698	3698	3659	3698	3698	3659	3659	3659	3698	3698	3698	3698	3698	3698	3621	3621	3738	8146	8146	8343	8343	8343	8343	8343	8343	8343	8343	8146	8146	8146	8146	8146	8146	8343	8550	8550	8550	8550	4771	4771	4771	4771	4771	4771	4771	4771	4706	4771	4706	4706	4706	4706	4706	4706	4706	4706	4706	4706	4706	4706	4706	4706	4771	4771	4771	4771	4771	4771	4771	4771	4771	4771	4771	4706	4706	4706	4706	4706	4771	4771	4771	4771	4771	4771	4771	4771	4706	4706	4643	4706	4706	4706	4706	4706	4706	4706	4706	4706	4706	4706	4706	4706	4706	4706	4706	4643	4643	4706	4706	4706	4706	4706	4706	4706	4706	4771	4706	4706	4771	4706	4706	4706	4706	4706	4643	4643	4706	4643	4706	4706	4706	4706	4706	4706	4706	4643	4643	4643	4643	4643	4643	4643	4706	4643	4643	4643	4643	4643	4643	4643	4643	4643	4643	4643	4643	4643	4643	4643	4643	4643	4643	4643	4581	4643	4581	4643	4643	4706	4706	4706	4706	4706	4706	4643	4706	4706	4706	4706	4706	4706	4706	4706	4706	4706	4706	4706	4643	4643	4643	4643	4643	4643	4643	4643	4643	4643	4643	4643	4643	4643	4643	4643	4643	4706	4643	4643	4643	4643	4643	4581	4581	4581	4643	4643	4643	4643	4643	4643	4643	4643	4706	4706	4643	4643	8146	8146	7959	7959	7959	7779	7959	7779	7779	7959	7959	7779	7779	7779	7779	7779	7779	7779	7779	7959	7959	7959	7959	7779	7779	7779	7779	7959	7959	7959	7959	7959	7959	7959	7959	7779	7779	7779	7779	7779	7779	7959	7959	7959	7959	7779	7779	7779	7779	7779	0	0	0	0	0	0	2551	2532	2532	2532	2514	2514	2514	2478	2460	2443	2443	2426	2409	2409	2409	2392	2392	2392	2376	2359	2343	2327	2327	2312	2297	2297	2281	2281	2281	2266	2266	2237	2223	2208	2208	2194	2194	2181	2181	2167	2153	2153	2127	2114	2127	2114	2114	2114	2114	2101	2101	2088	2088	2076	2063	2051	2051	2027	2003	1980	1969	1969	1958	1947	1936	1925	1925	1925	0	0	0	0	0	0	0	0	0	0	0	0	0	0	0	0	0	0	0	0	0	0	0	0	0	0	0	0	0	0	0	0	0	0	0	0	0	0
0	0	0	0	0	0	0	0	0	0	0	0	0	0	0	0	0	0	4706	4706	4706	4771	4771	4771	4771	4771	4771	4771	4706	4706	4706	4706	4706	4706	4706	4771	4771	4771	0	0	0	0	0	0	4706	4706	4706	4706	4706	4706	4771	4771	4706	4706	0	0	0	0	0	4771	4771	4771	4838	4838	4771	4838	4838	4838	4771	4771	4771	4771	4771	4771	4771	4771	4706	4771	4838	4771	4771	4771	4771	4771	4771	4706	4706	4706	4771	4771	4771	4706	4771	4771	4771	4771	4771	4771	4771	4771	4771	4771	4706	4706	4706	4771	4771	4838	4771	4838	4838	4838	4771	4771	4771	4838	4838	4771	4771	4838	4838	4838	4771	4838	4838	0	0	0	0	0	0	0	0	0	0	0	0	0	0	0	0	0	7779	7779	7779	7779	7779	7779	7959	7959	7959	7959	7959	8146	8146	7959	7959	8146	8343	8146	8146	8146	8146	8343	8146	7959	7959	8146	8146	8343	8146	8343	8146	8146	8146	8146	8146	8146	0	0	0	0	0	0	3583	3546	3546	3583	3583	3546	3546	0	0	0	0	0	0	0	0	3659	3621	3621	3583	3583	3583	3583	3546	3546	3510	3510	3546	3546	3546	3546	3546	3546	3546	3546	3546	3510	3546	3546	3510	3510	3510	3510	3510	3510	3510	3510	3546	3546	3546	3546	3546	3546	3546	3546	3546	3546	3546	3583	3583	3621	3583	3621	3659	3659	3659	3659	3659	3698	3698	3698	3698	3698	3659	3659	3698	3659	3659	3659	3698	3698	3698	3698	3659	3659	3659	3659	0	7959	8146	8343	8343	8343	8343	8343	8343	8343	8146	8146	8343	8146	7959	8146	8146	8343	8550	8550	8550	8550	4771	4771	4771	4771	4771	4771	4771	4771	4771	4771	4771	4771	4706	4706	4706	4706	4706	4706	4706	4706	4706	4706	4706	4706	4771	4771	4771	4771	4771	4771	4771	4771	4771	4771	4771	4706	4706	4706	4771	4771	4771	4771	4838	4771	4838	4771	4771	4771	4706	4643	4643	4643	4643	4643	4706	4643	4643	4706	4706	4706	4706	4706	4706	4706	4706	4706	4643	4643	4643	4643	4706	4706	4706	4643	4706	4706	4706	4706	4706	4706	4706	4706	4706	4706	4706	4706	4706	4643	4643	4643	4643	4706	4706	4706	4706	4706	4706	4643	4643	4643	4643	4643	4643	4643	4643	4643	4643	4643	4643	4643	4643	4643	4643	4643	4643	4643	4643	4643	4643	4643	4643	4643	4581	4643	4581	4643	4581	4643	4581	4643	4706	4706	4706	4643	4706	4643	4643	4706	4643	4643	4643	4643	4706	4706	4706	4706	4706	4706	4706	4643	4643	4643	4643	4643	4643	4643	4643	4643	4643	4643	4643	4643	4643	4643	4643	4706	4706	4706	4643	4643	4643	4643	4643	4643	4643	4643	4643	4643	4643	4706	4643	4643	4706	4706	4706	4706	8146	8146	7959	7959	7959	7959	7959	7959	7779	7959	7959	7779	7779	7779	7779	7779	7779	7779	7959	7959	7959	7959	7959	7779	7779	7779	7779	7779	7959	7959	7959	7959	7959	7959	7959	7779	7779	7959	7959	7779	7959	7959	7959	7959	7959	7779	7959	7779	7779	7779	0	0	0	0	0	0	2551	2532	2532	2514	2514	2514	2496	2478	2460	2443	2443	2426	2409	2409	2409	2409	2392	2392	2376	2376	2343	2327	2312	2312	2297	2297	2281	2281	2281	2266	2266	2237	2223	2208	2208	2194	2181	2181	2167	2167	2153	2153	2140	2127	2127	2114	2114	2114	2114	2101	2101	2088	2076	2076	2076	2063	2051	2039	2003	1980	1980	1969	1958	1958	1947	1925	1925	1925	0	0	0	0	0	0	0	0	0	0	0	0	0	0	0	0	0	0	0	0	0	0	0	0	0	0	0	0	0	0	0	0	0	0	0	0	0	0
0	0	0	0	0	0	0	0	0	0	0	0	0	0	0	0	0	0	4706	4706	4706	4706	4706	4771	4771	4771	4771	4771	4706	4706	4706	4706	4706	4706	4771	4771	4771	0	0	0	0	0	0	0	4706	4706	4706	4706	4706	4706	4706	4706	4706	4706	0	0	0	0	0	4771	4771	4771	4838	4771	4771	4838	4838	4838	4838	4771	4838	4771	4771	4771	4771	4771	4706	4706	4838	4771	4771	4771	4771	4771	4771	4771	4706	4706	4706	4706	4706	4706	4771	4706	4706	4771	4771	4771	4771	4771	4771	4771	4771	4706	4771	4771	4771	4838	4771	4838	4838	4838	4771	4771	4838	4838	4838	4838	4838	4838	4838	4838	4771	4771	4771	0	0	0	0	0	0	0	0	0	0	0	0	0	0	0	0	0	0	7779	7959	7779	7959	7959	7959	7959	7959	7959	7959	7959	7959	7959	7959	7959	8146	8146	8146	8146	8146	8343	8146	8146	8146	8146	8146	8146	8146	8343	8146	8146	8146	8343	8146	8146	8146	0	0	0	0	3621	3621	3583	3546	3583	3583	3546	3546	3546	0	0	0	0	0	0	3621	3659	3621	3621	3621	3583	3583	3583	3546	3546	3510	3510	3583	3546	3546	3546	3546	3546	3546	3546	3510	3510	3510	3510	3510	3510	3510	3510	3510	3510	3510	3510	3510	3510	3510	3546	3546	3546	3546	3546	3546	3546	3546	3583	3583	3621	3621	3621	3659	3659	3659	3659	3659	3698	3698	3698	3698	3698	3659	3659	3659	3659	3659	3659	3698	3698	3659	3659	3659	3659	3621	3621	3621	7959	8343	8343	8343	8343	8343	8343	8343	8343	8146	8146	8343	8343	8343	8146	8343	8343	8550	8550	8550	8550	4771	4771	4771	4771	4771	4771	4771	4771	4771	4771	4771	4771	4706	4706	4771	4706	4706	4706	4706	4706	4706	4706	4706	4706	4771	4771	4771	4771	4771	4771	4771	4771	4771	4771	4706	4706	4706	4706	4706	4771	4771	4771	4771	4771	4771	4771	4771	4771	4706	4643	4643	4643	4643	4643	4643	4706	4706	4706	4706	4706	4706	4706	4706	4706	4706	4706	4643	4643	4643	4643	4706	4706	4706	4706	4706	4706	4706	4706	4771	4771	4771	4706	4706	4706	4643	4643	4643	4643	4643	4643	4643	4706	4706	4706	4706	4706	4706	4643	4643	4643	4643	4643	4643	4643	4643	4643	4643	4643	4643	4643	4643	4643	4643	4643	4643	4643	4643	4643	4643	4643	4581	4581	4581	4581	4581	4581	4581	4581	4581	4643	4706	4706	4643	4643	4643	4643	4643	4643	4643	4643	4643	4643	4643	4706	4643	4706	4706	4643	4643	4643	4643	4643	4643	4706	4643	4643	4643	4643	4643	4643	4643	4643	4643	4643	4643	4706	4706	4706	4643	4643	4643	4643	4643	4643	4643	4643	4643	4643	4643	4706	4643	4643	4706	4706	4643	4643	7959	7959	7779	7779	7779	7779	7779	7779	7779	7779	7959	7779	7959	7779	7959	7959	7959	7959	7959	8146	8146	8146	8146	7959	7779	7779	7779	7779	7779	7779	7779	7959	7959	7959	7959	7779	7779	7959	7959	7959	7959	7959	7959	7959	7959	7779	7779	7779	7779	7779	0	0	0	0	0	0	0	0	2532	2514	2514	2514	2496	2496	2460	2443	2443	2426	2409	2409	2409	2409	2392	2392	2376	2376	2343	2327	2312	2297	2297	2297	2281	2281	2281	2266	2266	2237	2208	2208	2194	2181	2181	2167	2167	2167	2153	2153	2140	2127	2127	2127	2114	2114	2101	2088	2088	2088	2076	2076	2063	2063	2051	2027	2003	1980	1980	1969	1969	1958	1947	1925	1925	1925	0	0	0	0	0	0	0	0	0	0	0	0	0	0	0	0	0	0	0	0	0	0	0	0	0	0	0	0	0	0	0	0	0	0	0	0	0	0
0	0	0	0	0	0	0	0	0	0	0	0	0	0	0	0	0	0	4706	4706	4706	4771	4771	4771	4771	4771	4771	4706	4771	4706	4706	4706	4706	4706	4706	4771	4771	0	0	0	0	0	0	0	4643	4706	4706	4706	4706	4706	4706	4706	4706	0	0	0	0	0	0	4771	4771	4771	4771	4771	4771	4771	4838	4771	4838	4838	4838	4771	4771	4771	4771	4771	4771	4771	4706	4771	4771	4771	4771	4771	4771	4771	4771	4706	4706	4706	4706	4706	4706	4706	4771	4771	4771	4771	4771	4771	4771	4771	4706	4706	4771	4771	4771	4771	4771	4838	4838	4838	4838	4838	4838	4838	4838	4838	4838	4838	4771	4771	4771	4838	4906	4906	0	0	0	0	0	0	0	0	0	0	0	0	0	0	0	0	0	7959	7959	7959	8146	7959	8146	7959	7959	7959	8146	8146	8146	7959	7959	7959	8146	8146	8146	8146	8146	8146	8146	7959	7959	8146	8146	8343	8343	8343	8146	8146	8146	8146	8146	8146	8146	0	0	0	0	3621	3583	3583	3546	3546	3546	3546	3546	3546	3546	0	0	0	0	3621	3621	3659	3659	3621	3621	3583	3583	3583	3546	3546	3510	3546	3583	3546	3546	3546	3546	3546	3546	3546	3510	3510	3510	3510	3510	3510	3546	3510	3510	3546	3510	3546	3546	3546	3546	3546	3546	3546	3546	3546	3546	3546	3583	3583	3621	3621	3621	3621	3659	3659	3659	3659	3659	3698	3698	3698	3698	3659	3659	3659	3659	3659	3659	3659	3698	3698	3659	3659	3659	3659	3621	3621	3621	0	8343	8343	8343	8343	8343	8343	8343	8343	8146	8146	8343	8343	8343	8146	8343	8343	8343	8343	8550	0	4771	4771	4771	4771	4771	4771	4771	4771	4771	4771	4706	4706	4706	4706	4771	4706	4706	4706	4706	4706	4706	4706	4706	4706	4771	4771	4771	4771	4771	4771	4771	4771	4771	4771	4771	4706	4706	4706	4643	4643	4643	4771	4771	4771	4771	4771	4771	4706	4706	4706	4643	4643	4643	4706	4706	4706	4706	4706	4706	4706	4706	4706	4706	4706	4643	4643	4643	4643	4643	4706	4706	4706	4706	4706	4706	4706	4706	4706	4706	4706	4706	4706	4706	4706	4643	4706	4643	4643	4643	4706	4706	4706	4706	4706	4706	4706	4706	4643	4643	4643	4643	4643	4643	4643	4643	4643	4643	4643	4643	4643	4643	4643	4643	4706	4643	4643	4643	4643	4643	4643	4581	4581	4581	4581	4581	4581	4581	4581	4581	4643	4706	4706	4643	4643	4643	4643	4643	4643	4643	4643	4581	4581	4643	4643	4643	4643	4643	4643	4643	4643	4643	4643	4643	4706	4643	4643	4643	4643	4643	4643	4643	4643	4643	4643	4643	4706	4706	4706	4643	4643	4643	4643	4643	4643	4643	4643	4643	4643	4643	4706	4643	4643	4706	4643	4643	7779	7779	7959	7779	7779	7779	7779	7779	7959	7779	7959	7959	7959	7959	7959	7959	7959	7959	8146	8146	8146	8146	8146	8146	7959	7959	7779	7779	7779	7779	7779	7779	7959	7959	7959	7959	7779	7779	7959	7959	7779	7959	7779	7959	7959	7959	7959	7779	7779	7608	7608	0	0	0	0	0	0	0	0	2532	2532	2514	2514	2496	2496	2460	2443	2443	2443	2409	2409	2409	2409	2392	2392	2376	2376	2343	2327	2312	2297	2297	2297	2281	2281	2281	2266	2266	2223	2223	2208	2208	2181	2181	2167	2167	2167	2153	2153	2140	2127	2127	2127	2114	2101	2088	2076	2076	2076	2076	2076	2063	2063	2051	2039	2015	1992	1980	1980	1969	1958	1947	1936	1925	1925	0	0	0	0	0	0	0	0	0	0	0	0	0	0	0	0	0	0	0	0	0	0	0	0	0	0	0	0	0	0	0	0	0	0	0	0	0	0
0	0	0	0	0	0	0	0	0	0	0	0	0	0	0	0	0	0	4706	4706	4706	4771	4771	4771	4771	4771	4706	4706	4706	4706	4706	4706	4706	4706	4706	4706	4771	0	0	0	0	0	0	0	4643	4706	4706	4706	4706	4706	4706	4706	4706	0	0	0	0	0	4838	4771	4771	4771	4771	4771	4771	4771	4771	4771	4838	4838	4838	4771	4838	4771	4771	4771	4771	4771	4771	4771	4771	4771	4771	4771	4771	4771	4771	4771	4771	4706	4706	4706	4771	4771	4771	4771	4771	4771	4771	4771	4771	4771	4706	4706	4771	4771	4771	4838	4838	4838	4838	4838	4838	4838	4838	4838	4838	4838	4838	4838	4771	4771	4771	4838	4838	4838	4838	0	0	0	0	0	0	0	0	0	0	0	0	0	0	0	8146	7959	7959	8146	8146	7959	7959	7959	7959	7959	7959	8146	8146	7959	7959	7959	7959	8146	8146	8146	7959	8146	7959	7959	8146	8146	8146	8343	8146	8146	8146	8146	8146	8146	8146	8146	8146	0	0	0	0	0	3621	3583	3583	3546	3546	3546	3510	3510	3510	3510	0	0	3621	3621	3659	3659	3659	3659	3621	3583	3583	3583	3583	3546	3510	3546	3583	3546	3546	3546	3546	3546	3546	3546	3546	3546	3510	3510	3510	3510	3546	3510	3510	3510	3510	3510	3546	3546	3546	3546	3546	3546	3546	3583	3583	3583	3583	3583	3621	3621	3621	3621	3659	3659	3659	3659	3659	3698	3698	3698	3698	3659	3659	3659	3659	3659	3659	3659	3698	3698	3698	3698	3698	3698	3698	3659	3659	0	8343	8343	8343	8343	8343	8343	8343	8343	8343	8343	8343	8343	8343	8343	8343	8343	8343	8343	8343	0	4771	4706	4706	4771	4771	4771	4771	4706	4771	4706	4706	4706	4706	4706	4706	4706	4706	4706	4706	4706	4706	4706	4706	4706	4771	4771	4771	4771	4771	4771	4771	4771	4771	4771	4771	4706	4706	4706	4706	4706	4643	4706	4706	4771	4771	4771	4706	4706	4706	4706	4706	4643	4643	4706	4706	4706	4706	4706	4706	4706	4706	4706	4706	4706	4643	4643	4643	4643	4643	4643	4706	4643	4706	4706	4706	4706	4706	4706	4706	4771	4706	4706	4706	4706	4706	4706	4706	4643	4706	4706	4706	4706	4771	4706	4706	4706	4706	4706	4643	4643	4643	4643	4643	4643	4643	4643	4643	4643	4643	4643	4643	4643	4643	4643	4643	4643	4643	4643	4643	4643	4643	4581	4581	4581	4581	4581	4581	4581	4581	4581	4643	4643	4643	4643	4643	4643	4643	4643	4643	4643	4581	4581	4643	4643	4643	4643	4643	4643	4706	4643	4643	4643	4643	4643	4643	4643	4643	4643	4643	4643	4643	4643	4643	4643	4643	4706	4643	4643	4643	4643	4643	4643	4643	4643	4643	4643	4643	4643	4643	4706	4643	4643	4706	4643	4643	4643	7959	8146	7959	7959	7959	7959	7779	7779	7959	7779	7959	7959	7779	7779	7779	7959	7959	7959	7959	8146	8146	8146	8146	7959	7779	7779	7779	7779	7779	7779	7779	7779	7779	7779	7779	7779	7779	7779	7959	7959	7959	7779	7959	7959	7959	7959	7959	7608	7608	7608	0	0	0	0	0	0	0	2532	2532	2532	2532	2514	2496	2496	2478	2460	2443	2426	2409	2409	2409	2409	2392	2392	2376	2359	2343	2327	2312	2312	2297	2297	2281	2281	2281	2281	2266	2223	2223	2223	2208	2208	2181	2181	2167	2167	2153	2153	2153	2140	2140	2127	2114	2101	2088	2076	2076	2076	2076	2076	2063	2063	2051	2027	2015	1992	1980	1980	1969	1958	1947	1936	1925	1925	0	0	0	0	0	0	0	0	0	0	0	0	0	0	0	0	0	0	0	0	0	0	0	0	0	0	0	0	0	0	0	0	0	0	0	0	0	0
0	0	0	0	0	0	0	0	0	0	0	0	0	0	0	0	0	0	4706	4706	4706	4771	4771	4838	4838	4771	4771	4706	4706	4771	4706	4706	4706	4706	4706	4706	0	0	0	0	0	0	0	0	0	4771	4706	4706	4706	4706	4706	4706	4706	0	0	0	0	0	4706	4706	4771	4771	4771	4771	4771	4771	4771	4771	4838	4838	4838	4771	4838	4838	4771	4771	4771	4771	4771	4771	4771	4771	4771	4771	4771	4771	4771	4771	4771	4706	4771	4771	4771	4771	4771	4771	4771	4771	4771	4771	4771	4771	4706	4706	4771	4771	4771	4838	4771	4771	4838	4838	4838	4838	4838	4838	4838	4838	4771	4771	4771	4771	4838	4838	4838	4838	4838	0	0	0	0	0	0	0	0	0	0	0	0	0	0	0	8146	8146	8146	8343	8146	8146	8146	7959	7959	7779	7959	7959	7959	7959	7959	7959	8146	8146	8146	8146	8146	8146	7959	7959	8146	7959	8146	8146	8146	8146	8146	7959	8146	8146	7959	7959	7959	0	0	0	0	0	3621	3583	3583	3546	3510	3510	3510	3510	3510	3546	3583	3621	3621	3621	3659	3659	3659	3659	3621	3583	3583	3583	3546	3546	3510	3546	3583	3546	3546	3546	3546	3546	3546	3546	3546	3546	3546	3546	3546	3546	3546	3546	3546	3510	3510	3510	3510	3546	3546	3546	3546	3546	3546	3583	3583	3583	3621	3621	3621	3659	3621	3621	3659	3659	3659	3659	3659	3698	3698	3698	3698	3659	3659	3659	3659	3659	3659	3659	3698	3698	3698	3698	3698	3698	3698	3659	3659	0	8550	8343	8343	8343	8343	8343	8343	8343	8343	8343	8343	8343	8343	8343	8343	8343	8343	8343	8343	0	4771	4706	4771	4771	4771	4771	4771	4706	4771	4706	4706	4706	4706	4706	4706	4706	4706	4706	4706	4706	4706	4706	4706	4706	4771	4771	4771	4771	4771	4771	4771	4771	4771	4771	4771	4706	4706	4706	4706	4706	4643	4706	4706	4706	4771	4771	4771	4706	4706	4706	4706	4643	4643	4643	4643	4643	4706	4706	4706	4706	4706	4643	4643	4643	4643	4643	4643	4581	4643	4643	4643	4643	4706	4643	4706	4706	4706	4706	4706	4771	4706	4706	4706	4706	4706	4706	4706	4706	4706	4706	4706	4771	4771	4771	4771	4771	4706	4706	4643	4643	4643	4643	4643	4643	4643	4643	4643	4643	4643	4643	4643	4643	4643	4706	4643	4643	4643	4643	4643	4643	4643	4581	4581	4643	4581	4581	4581	4581	4581	4643	4643	4643	4643	4706	4706	4643	4643	4643	4643	4643	4581	4581	4643	4643	4643	4706	4643	4706	4706	4643	4643	4643	4643	4643	4643	4643	4643	4643	4643	4643	4643	4643	4643	4643	4643	4643	4643	4643	4643	4643	4643	4643	4581	4581	4643	4643	4643	4643	4643	4643	4643	4643	4706	4643	4643	4706	4706	7959	7959	7959	7959	7959	7779	7959	7959	7959	7959	7959	7959	7959	7959	7959	7959	7959	7959	8146	8146	8146	8146	7959	7959	7779	7779	7779	7779	7779	7779	7779	7779	7779	7959	7779	7779	7779	7959	7959	7959	7779	7959	7779	7779	7779	7779	7779	7608	0	0	0	0	0	0	0	0	2532	2532	2514	2532	2514	2496	2478	2478	2443	2443	2426	2409	2409	2409	2409	2392	2392	2376	2359	2343	2327	2312	2312	2297	2297	2281	2281	2281	2281	2266	2223	2208	2208	2208	2194	2194	2181	2167	2167	2167	2167	2153	2127	2127	2127	2114	2101	2088	2076	2076	2076	2076	2076	2063	2063	2051	2039	2015	1992	1980	1980	1969	1958	1947	1936	1925	1925	0	0	0	0	0	0	0	0	0	0	0	0	0	0	0	0	0	0	0	0	0	0	0	0	0	0	0	0	0	0	0	0	0	0	0	0	0	0
0	0	0	0	0	0	0	0	0	0	0	0	0	0	0	0	0	0	4643	4706	4706	4706	4706	4771	4838	4771	4771	4706	4706	4706	4706	4706	4706	4706	4706	4706	0	0	0	0	0	0	0	0	0	4771	4771	4706	4706	4706	4706	4706	0	0	0	0	0	0	4706	4771	4771	4771	4771	4771	4771	4771	4771	4771	4771	4771	4771	4771	4771	4771	4771	4771	4771	4771	4771	4771	4771	4771	4771	4771	4771	4771	4771	4771	4771	4771	4771	4771	4771	4771	4771	4771	4771	4771	4706	4706	4706	4706	4706	4706	4771	4771	4771	4838	4771	4771	4838	4838	4838	4838	4838	4838	4838	4771	4771	4771	4771	4771	4838	4838	4838	4906	4906	0	0	0	0	0	0	0	0	0	0	0	0	0	0	0	8343	8550	8343	8343	8343	8146	8146	7959	7779	7779	7779	7959	7959	7959	7959	8146	8146	8146	8146	8146	8146	8146	8146	7959	8146	7959	8146	8146	8146	8146	8146	7959	8146	8146	7959	7959	7959	0	0	0	0	0	3621	3583	3546	3546	3510	3510	3510	3510	3510	3546	3583	3621	3621	3659	3659	3659	3659	3621	3583	3621	3583	3583	3546	3546	3546	3546	3546	3583	3546	3546	3546	3546	3546	3546	3546	3546	3546	3546	3546	3546	3546	3546	3546	3510	3510	3510	3510	3546	3546	3546	3546	3546	3583	3583	3583	3621	3621	3621	3621	3659	3659	3659	3659	3659	3659	3659	3659	3698	3698	3698	3698	3659	3659	3659	3659	3659	3659	3659	3698	3698	3659	3659	3698	3698	3698	3698	3698	0	8550	8343	8343	8343	8343	8343	8343	8343	8343	8343	8343	8550	8343	8550	8343	8343	8343	8343	8343	0	4838	4771	4771	4771	4771	4771	4771	4771	4771	4706	4706	4706	4706	4706	4706	4706	4706	4706	4706	4706	4706	4706	4706	4706	4771	4771	4771	4771	4771	4771	4771	4771	4771	4771	4771	4706	4706	4706	4706	4706	4643	4643	4706	4706	4706	4706	4706	4706	4706	4706	4643	4643	4643	4643	4706	4643	4706	4706	4706	4706	4706	4643	4643	4643	4643	4643	4643	4643	4643	4643	4643	4643	4706	4643	4706	4706	4706	4706	4771	4771	4771	4706	4706	4706	4706	4706	4706	4706	4706	4771	4706	4771	4771	4771	4771	4771	4771	4706	4706	4706	4643	4643	4643	4643	4643	4643	4643	4706	4706	4706	4706	4706	4643	4643	4643	4643	4643	4643	4643	4643	4643	4643	4581	4643	4643	4581	4581	4581	4581	4643	4643	0	4643	4706	4706	4643	4643	4643	4643	4643	4581	4643	4643	4643	4643	4643	4643	4706	4706	4643	4643	4643	4643	4643	4706	4643	4643	4643	4643	4643	4643	4643	4643	4643	4643	4643	4643	4643	4643	4643	4643	4643	4643	4643	4643	4643	4643	4643	4643	4643	4643	4643	4643	4643	4643	4706	4706	7779	7959	7959	8146	8146	8146	8146	8146	8146	7959	7959	7959	7959	7959	8146	7959	7959	7959	8146	8146	8146	8146	7959	7959	7779	7779	7779	7779	7779	7779	7779	7779	7779	7779	7779	7779	7779	7959	7779	7779	7779	7959	7959	7959	7959	7779	7779	0	0	0	0	0	0	0	0	0	2532	2514	2514	2532	2514	2496	2478	2478	2443	2426	2426	2409	2409	2409	2392	2392	2376	2359	2359	2343	2327	2312	2297	2297	2297	2297	2281	2281	2266	2266	2223	2208	2208	2208	2194	2194	2181	2167	2167	2167	2167	2153	2127	2127	2127	2114	2101	2076	2076	2076	2063	2063	2076	2063	2063	2076	2039	2027	2003	1992	1980	1969	1958	1947	1936	1936	1925	1925	0	0	0	0	0	0	0	0	0	0	0	0	0	0	0	0	0	0	0	0	0	0	0	0	0	0	0	0	0	0	0	0	0	0	0	0	0
0	0	0	0	0	0	0	0	0	0	0	0	0	0	0	0	0	0	4643	4706	4706	4706	4706	4771	4838	4771	4771	4706	4706	4771	4706	4771	4706	4706	4706	4706	0	0	0	0	0	0	0	0	0	4771	4771	4706	4706	4706	4706	4706	0	0	0	0	0	0	0	4771	4771	4771	4771	4771	4771	4771	4771	4771	4771	4771	4771	4771	4771	4771	4771	4771	4771	4771	4771	4771	4771	4771	4771	4771	4771	4706	4771	4771	4771	4706	4771	4771	4771	4771	4771	4771	4771	4771	4706	4706	4706	4706	4706	4706	4771	4771	4771	4771	4838	4838	4838	4838	4838	4838	4838	4838	4838	4771	4771	4771	4771	4838	4838	4838	4906	4977	4977	0	0	0	0	0	0	0	0	0	0	0	0	0	0	0	8550	8550	8343	8343	8343	8146	8146	7959	7959	7779	7959	7959	7959	7959	8146	8146	8343	8146	8146	8146	8146	8146	8146	7959	8146	7959	8146	8146	8146	8146	8146	7959	8146	7959	7959	7959	7959	0	0	0	0	3659	3621	3621	3583	3546	3510	3510	3510	3546	3546	3583	3583	3621	3621	3659	3659	3659	3659	3621	3583	3583	3583	3583	3583	3546	3546	3546	3583	3583	3546	3546	3510	3510	3546	3546	3546	3546	3546	3546	3546	3546	3546	3546	3546	3510	3510	3510	3510	3546	3546	3546	3546	3546	3546	3546	3583	3621	3621	3621	3621	3659	3621	3621	3659	3659	3659	3659	3659	3659	3659	3659	3659	3659	3659	3659	3659	3659	3659	3621	3698	3659	3659	3659	3659	3659	3698	3698	3698	8550	8550	8550	8343	8343	8343	8343	8343	8343	8343	8343	8343	8550	8343	8343	8343	8343	8343	8343	8343	0	4838	4771	4771	4771	4771	4771	4771	4771	4771	4706	4706	4706	4706	4706	4706	4706	4706	4706	4706	4706	4706	4706	4706	4706	4771	4771	4771	4771	4771	4771	4771	4771	4771	4771	4771	4771	4706	4706	4706	4706	4643	4706	4706	4706	4706	4706	4706	4706	4706	4706	4706	4643	4643	4643	4643	4643	4706	4706	4706	4706	4706	4643	4643	4643	4643	4643	4643	4643	4643	4643	4643	4643	4643	4643	4643	4706	4706	4706	4771	4771	4706	4706	4706	4706	4706	4706	4706	4706	4706	4771	4771	4771	4771	4771	4771	4771	4771	4771	4706	4706	4706	4643	4643	4643	4643	4643	4643	4643	4643	4643	4706	4706	4643	4643	4643	4643	4643	4643	4643	4643	4643	4643	4581	4643	4643	4581	4581	4581	4581	4581	4643	0	0	0	0	4643	4643	4706	4643	4643	4643	4643	4643	4643	4643	4643	4643	4706	4706	4643	4706	4706	4706	4706	4706	4706	4706	4706	4643	4706	4643	4643	4643	4643	4643	4643	4643	4643	4643	4643	4643	4643	4643	4643	4643	4643	4643	4643	4643	4643	4643	4643	4643	4643	4643	4643	4643	7779	7959	8146	8146	8146	8146	8146	8146	8146	8146	7959	7959	7959	8146	8146	7959	8146	7959	8146	8146	8146	8146	8146	7959	7959	7779	7959	7959	7779	7779	7779	7779	7779	7779	7779	7779	7608	7779	7779	7779	7779	7779	7779	7779	7779	7779	7779	0	0	0	0	0	0	0	0	0	2532	2514	2514	2532	2514	2496	2478	2478	2443	2426	2426	2409	2409	2392	2392	2392	2376	2359	2343	2343	2327	2327	2312	2297	2297	2297	2281	2281	2266	2266	2223	2223	2208	2208	2194	2194	2181	2167	2167	2167	2167	2153	2127	2127	2114	2101	2088	2076	2076	2063	2063	2063	2063	2063	2063	2076	2039	2027	2003	1992	1980	1969	1969	1958	1947	1936	1925	1925	0	0	0	0	0	0	0	0	0	0	0	0	0	0	0	0	0	0	0	0	0	0	0	0	0	0	0	0	0	0	0	0	0	0	0	0	0
0	0	0	0	0	0	0	0	0	0	0	0	0	0	0	0	0	0	4706	4706	4706	4706	4706	4706	4771	4771	4706	4771	4706	4771	4771	4771	4771	4771	4771	4771	0	0	0	0	0	0	0	0	0	4706	4771	4771	4706	4706	4706	4706	0	0	0	0	0	0	0	4771	4771	4771	4771	4771	4771	4771	4771	4771	4771	4771	4771	4771	4771	4771	4771	4771	4771	4771	4771	4771	4771	4771	4771	4771	4771	4706	4771	4771	4771	4706	4771	4771	4771	4771	4771	4771	4771	4771	4706	4706	4706	4706	4706	4706	4771	4771	4771	4771	4771	4771	4838	4838	4838	4838	4838	4838	4771	4771	4771	4771	4838	4838	4838	4906	4906	4977	4977	0	0	0	0	0	0	0	0	0	0	0	0	0	0	0	8550	8343	8343	8343	8343	8146	8146	7959	7959	7779	7959	7959	8146	7959	8146	8343	8343	8343	8146	8146	8146	8146	7959	7959	7959	7959	7959	7959	8146	8146	8146	8146	8146	8146	7959	7959	7959	0	0	0	3621	3621	3621	3583	3583	3546	3546	3546	3546	3546	3583	3583	3621	3659	3659	3659	3659	3659	3659	3621	3621	3621	3583	3583	3583	3583	3546	3546	3583	3546	3546	3546	3546	3510	3510	3546	3546	3546	3546	3546	3546	3546	3546	3546	3546	3510	3510	3510	3546	3546	3546	3546	3546	3546	3546	3583	3583	3621	3621	3621	3621	3659	3659	3659	3659	3659	3659	3659	3659	3659	3659	3659	3659	3659	3659	3659	3659	3659	3659	3659	3698	3659	3659	3659	3659	3698	3738	3738	0	8550	8550	8550	8343	8343	8343	8343	8343	8343	8343	8343	8343	8343	8343	8343	8343	8146	8146	8146	8146	0	4771	4771	4771	4771	4771	4771	4771	4771	4771	4706	4706	4706	4706	4706	4706	4706	4706	4706	4706	4706	4706	4706	4706	4706	4706	4771	4771	4771	4771	4771	4771	4771	4771	4771	4771	4706	4706	4706	4706	4706	4643	4643	4643	4643	4706	4706	4706	4706	4706	4706	4706	4643	4643	4643	4643	4643	4643	4643	4706	4706	4706	4643	4643	4643	4643	4643	4643	4643	4643	4643	4643	4643	4643	4643	4706	4706	4643	4643	4706	4706	4706	4643	4643	4643	4706	4706	4706	4706	4706	4771	4771	4771	4706	4771	4706	4771	4706	4771	4706	4706	4706	4706	4643	4643	4643	4643	4643	4706	4706	4706	4706	4643	4643	4643	4643	4643	4643	4643	4643	4643	4643	4643	4643	4643	4643	4581	4581	4581	4581	4581	0	0	0	0	0	0	0	4706	4706	4643	4643	4643	4643	4643	4643	4706	4706	4706	4706	4706	4706	4706	4706	4706	4706	4706	4706	4706	4706	4706	4643	4643	4643	4643	4643	4643	4643	4643	4643	4643	4643	4643	4643	4643	4643	4643	4643	4643	4643	4643	4643	4581	4643	4643	4643	4643	4643	4643	8146	8146	8146	7959	8146	8146	8146	8146	8146	8146	7959	8146	8146	8146	8146	8146	8146	8146	8146	8146	8146	8146	7959	7959	7779	7959	7779	7779	7779	7779	7779	7779	7779	7779	7779	7608	7959	7779	7779	7779	7779	7779	7779	7779	0	0	0	0	0	0	0	0	0	0	2551	2532	2514	2514	2514	2496	2496	2478	2478	2443	2426	2426	2409	2409	2392	2392	2392	2359	2359	2343	2343	2327	2327	2312	2312	2312	2297	2281	2281	2266	2266	2223	2223	2208	2208	2194	2181	2181	2167	2167	2167	2153	2153	2140	2127	2114	2101	2088	2076	2076	2076	2076	2076	2076	2076	2076	2076	2051	2027	2003	1992	1980	1969	1969	1958	1947	1947	1936	1936	0	0	0	0	0	0	0	0	0	0	0	0	0	0	0	0	0	0	0	0	0	0	0	0	0	0	0	0	0	0	0	0	0	0	0	0	0
0	0	0	0	0	0	0	0	0	0	0	0	0	0	0	0	0	0	4706	4706	4706	4771	4771	4771	4771	4706	4706	4771	4706	4771	4771	4771	4706	4706	4706	4706	0	0	0	0	0	0	0	0	0	4706	4706	4706	4706	4706	4706	4706	0	0	0	0	0	0	0	4771	4771	4771	4771	4771	4771	4771	4771	4771	4771	4771	4771	4771	4771	4771	4771	4771	4771	4771	4771	4771	4706	4771	4771	4771	4706	4706	4771	4771	4771	4706	4771	4771	4771	4771	4771	4771	4771	4771	4771	4706	4706	4771	4706	4706	4771	4771	4771	4771	4771	4838	4838	4838	4838	4838	4838	4838	4838	4838	4838	4838	4838	4838	4838	4838	4906	4906	4977	0	0	0	0	0	0	0	0	0	0	0	0	0	0	0	0	8550	8550	8343	8343	8343	8343	7959	7959	7959	7959	8146	8146	7959	8146	8146	8343	8146	8146	8146	8146	8146	7959	7959	7959	7959	7959	7959	7959	7959	8146	7959	7959	7959	7959	7959	0	0	0	3621	3583	3621	3621	3621	3583	3583	3546	3546	3546	3546	3546	3583	3621	3621	3659	3659	3659	3659	3621	3621	3621	3621	3583	3583	3546	3583	3583	3583	3546	3546	3546	3546	3546	3546	3510	3546	3546	3546	3546	3546	3546	3546	3546	3546	3546	3510	3510	3510	3546	3546	3546	3546	3546	3546	3546	3583	3583	3621	3621	3621	3621	3621	3659	3659	3659	3659	3659	3659	3659	3659	3659	3659	3659	3659	3659	3659	3659	3659	3659	3659	3698	3698	3659	3698	3698	3698	3698	3738	8550	8550	8550	8550	8343	8343	8343	8343	8343	8343	8343	8343	8343	8343	8343	8343	8343	8146	8146	8146	8146	0	4771	4771	4771	4771	4771	4771	4771	4771	4771	4706	4706	4706	4706	4706	4706	4706	4706	4706	4706	4706	4706	4706	4706	4706	4771	4771	4771	4771	4771	4771	4771	4771	4771	4771	4706	4771	4706	4643	4643	4643	4643	4643	4643	4643	4643	4643	4706	4643	4706	4706	4643	4643	4643	4581	4643	4581	4643	4643	4643	4643	4643	4581	4581	4581	4581	4581	4581	4581	4581	4643	4581	4581	4581	4581	4643	4643	4643	4643	4643	4643	4643	4581	4581	4643	4643	4643	4643	4643	4643	4706	4706	4706	4706	4706	4706	4706	4706	4706	4706	4706	4706	4706	4643	4643	4643	4643	4643	4643	4706	4706	4643	4706	4643	4643	4643	4643	4643	4643	4643	4643	4643	4643	4643	4643	4581	4581	4581	4581	4581	4581	0	0	0	0	0	0	0	4706	4706	4706	4706	4643	4643	4643	4706	4706	4706	4706	4706	4706	4771	4771	4706	4706	4706	4706	4706	4706	4706	4706	4643	4643	4643	4643	4643	4643	4643	4643	4643	4643	4643	4643	4643	4643	4643	4643	4643	4643	4643	4643	4581	4581	4643	4643	4643	4643	4643	4643	8146	8146	8146	7959	8146	8146	8146	8146	7959	7959	7959	8146	8146	8146	8146	8146	8146	8146	8146	8146	8146	8146	8146	7959	7779	7779	7779	7779	7959	7959	7779	7779	7779	7779	7779	7779	7779	7959	7779	7779	7779	7779	7779	7779	0	0	0	0	0	0	0	0	0	0	2551	2514	2514	2496	2514	2496	2478	2478	2460	2443	2426	2409	2409	2392	2392	2392	2392	2376	2359	2343	2343	2327	2327	2312	2312	2312	2297	2281	2281	2281	2252	2223	2223	2208	2208	2194	2181	2181	2167	2167	2153	2153	2140	2140	2127	2114	2114	2088	2076	2076	2076	2076	2076	2076	2076	2076	2076	2051	2027	2015	1992	1980	1969	1969	1958	1947	1947	1936	1936	0	0	0	0	0	0	0	0	0	0	0	0	0	0	0	0	0	0	0	0	0	0	0	0	0	0	0	0	0	0	0	0	0	0	0	0	0
0	0	0	0	0	0	0	0	0	0	0	0	0	0	0	0	0	0	4706	4771	4838	4838	4838	4838	4771	4771	4706	4771	4706	4706	4706	4771	4706	4706	4706	4706	4706	0	0	0	0	0	0	0	0	4706	4706	4771	4771	4771	4906	4906	0	0	0	0	0	0	0	0	4771	4771	4771	4771	4706	4706	4706	4706	4771	4771	4771	4771	4771	4771	4771	4771	4771	4771	4771	4706	4706	4771	4771	4771	4706	4706	4706	4771	4771	4771	4771	4771	4771	4771	4771	4771	4771	4771	4771	4706	4706	4771	4771	4771	4838	4771	4771	4771	4771	4771	4771	4838	4838	4838	4838	4838	4838	4771	4771	4838	4838	4838	4838	4838	4838	4906	0	0	0	0	0	0	0	0	0	0	0	0	0	0	0	0	0	8550	8550	8550	8343	8343	8146	7959	7959	7959	7959	8146	7959	7959	8146	8343	8343	8146	8146	8146	8146	8146	7959	7959	7959	7959	7959	7959	7959	8146	8146	7959	7959	7959	7959	7959	0	0	0	3583	3583	3621	3621	3621	3583	3546	3546	3546	3546	3546	3546	3583	3621	3621	3659	3659	3621	3659	3621	3621	3621	3583	3583	3583	3546	3546	3546	3546	3546	3546	3546	3546	3546	3546	3546	3546	3546	3546	3546	3546	3546	3546	3510	3510	3510	3510	3510	3510	3510	3546	3546	3546	3546	3546	3546	3583	3583	3621	3621	3621	3621	3621	3621	3621	3659	3621	3621	3659	3659	3659	3659	3659	3621	3621	3621	3659	3659	3621	3659	3659	3698	3698	3698	3698	3698	3698	3698	0	8550	8550	8550	8343	8343	8343	8343	8343	8343	8343	8343	8343	8550	8343	8343	8343	8343	8146	8146	8146	8146	0	4838	4838	4838	4771	4771	4771	4771	4771	4771	4706	4706	4706	4706	4706	4706	4706	4706	4643	4706	4706	4706	4706	4706	4706	4771	4771	4771	4771	4771	4771	4771	4771	4771	4771	4771	4771	4643	4643	4581	4643	4643	4643	4581	4581	4581	4643	4643	4643	4643	4643	4643	4581	4581	4581	4581	4581	4581	4581	4581	4581	4581	4581	4521	4521	4521	4521	4521	4521	4521	4521	4521	4581	4581	4581	4581	4581	4581	4643	4643	4643	4581	4521	4581	4581	4581	4581	4581	4581	4643	4643	4643	4643	4643	4643	4643	4643	4643	4706	4706	4643	4643	4643	4643	4581	4581	4581	4643	4643	4643	4643	4643	4643	4643	4643	4643	4643	4643	4643	4643	4643	4643	4643	4643	4643	4643	4643	4581	4581	4581	4581	0	0	0	0	0	0	0	4706	4706	4706	4706	4706	4706	4706	4706	4706	4706	4706	4706	4706	4706	4771	4771	4706	4706	4706	4706	4706	4706	4706	4706	4643	4643	4643	4643	4643	4643	4643	4643	4643	4643	4643	4643	4643	4643	4643	4643	4643	4643	4643	4581	4581	4643	4643	4643	4643	4643	4643	7959	8146	7959	7959	7959	7959	7959	8146	7959	7959	0	0	0	8146	8146	8146	7959	8146	8146	8146	8146	8146	8146	8146	7959	7959	7959	8146	8146	7959	7959	7959	7959	7779	7779	7779	7779	7779	7779	7779	7779	7779	7779	7779	0	0	0	0	0	0	0	0	0	0	2551	2532	2514	2496	2514	2496	2478	2478	2460	2443	2426	2426	2409	2409	2392	2392	2392	2359	2359	2343	2343	2327	2327	2312	2312	2312	2297	2281	2281	2266	2252	2223	2223	2223	2208	2194	2181	2167	2167	2167	2153	2153	2140	2127	2127	2127	2114	2101	2088	2088	2076	2076	2076	2076	2076	2076	2076	2051	2027	2003	1992	1980	1969	1969	1958	1958	1947	1936	1936	0	0	0	0	0	0	0	0	0	0	0	0	0	0	0	0	0	0	0	0	0	0	0	0	0	0	0	0	0	0	0	0	0	0	0	0	0
0	0	0	0	0	0	0	0	0	0	0	0	0	0	0	0	0	0	4706	4771	4771	4838	4771	4771	4771	4771	4771	4771	4706	4706	4706	4706	4706	4706	4706	4581	4581	4581	0	0	0	0	0	0	0	4771	4771	4771	4771	4706	4838	4838	4838	0	0	0	0	0	0	0	4771	4771	4771	4771	4706	4706	4771	4771	4771	4706	4771	4771	4771	4771	4771	4771	4771	4771	4771	4771	4706	4771	4771	4771	4771	4706	4771	4771	4771	4771	4706	4771	4771	4771	4771	4771	4771	4771	4771	4771	4771	4771	4771	4771	4838	4771	4771	4771	4771	4771	4838	4838	4838	4771	4771	4771	4771	4771	4771	4838	4838	4838	4838	4838	4838	0	0	0	0	0	0	0	0	0	0	0	0	0	0	0	0	0	0	8550	8550	8550	8343	8343	8343	7959	7959	7959	7959	8146	8146	7959	8146	8343	8343	8343	8146	8146	8146	8146	7959	7959	7959	7959	7959	7959	7959	8146	7959	7959	7959	7959	7959	0	0	0	0	3583	3583	3621	3621	3621	3583	3583	3546	3546	3546	3583	3583	3583	3583	3621	3659	3659	3659	3659	3621	3621	3621	3583	3583	3546	3546	3546	3546	3546	3546	3546	3546	3546	3546	3546	3546	3546	3546	3546	3546	3546	3546	3546	3546	3510	3510	3510	3510	3510	3510	3510	3546	3546	3546	3546	3546	3583	3583	3621	3621	3621	3621	3621	3621	3621	3621	3621	3621	3659	3659	3659	3659	3659	3659	3621	3621	3621	3621	3621	3621	3621	3659	3659	3659	3659	3659	3698	3698	3698	8550	8550	8343	8343	8343	8343	8343	8343	8343	8343	8343	8343	8550	8550	8343	8343	8343	8343	8343	8146	8146	0	4838	4838	4838	4771	4771	4771	4771	4771	4771	4706	4706	4706	4706	4706	4706	4706	4706	4706	4706	4706	4706	4706	4706	4706	4771	4771	4771	4771	4771	4771	4771	4771	4771	4771	4643	4643	4581	4581	4581	4581	4581	4581	4581	4581	4581	4581	4643	4581	4581	4581	4581	4581	4581	4521	4521	4521	4581	4521	4581	4581	4521	4463	4463	4463	4463	4463	4521	4463	4463	4463	4521	4521	4521	4521	4581	4581	4581	4643	4643	4643	4581	4521	4521	4581	4521	4521	4521	4581	4643	4581	4581	4581	4581	4581	4643	4643	4643	4643	4643	4643	4581	4581	4581	4581	4581	4581	4581	4581	4581	4643	4581	4581	4581	4581	4581	4643	4643	4643	4643	4643	4643	4643	4643	4643	4643	4643	4643	4643	4581	4581	0	0	0	0	0	0	0	0	4706	4643	4643	4643	4643	4643	4463	4463	4706	4706	4706	4706	4706	4771	4771	4706	4706	4706	4706	4706	4706	4643	4643	4643	4643	4643	4643	4643	4643	4643	4643	4643	4643	4643	4643	4643	4643	4643	4643	4643	4643	4643	4643	4581	4643	4643	4643	4643	4643	4643	7959	8146	7959	7959	7959	7959	7959	7959	7959	7959	0	0	0	0	0	0	7959	8146	8146	8146	8146	8146	8146	8146	7959	8146	8146	8146	8146	7959	7959	7959	7959	7779	7779	7779	7779	7779	7779	7779	7779	7779	7779	7779	7779	7779	7779	0	0	0	0	0	0	0	2551	2532	2496	2496	2496	2496	2478	2478	2460	2460	2443	2426	2409	2409	2392	2392	2376	2376	2343	2343	2343	2327	2327	2312	2297	2312	2297	2281	2266	2252	2237	2237	2223	2208	2208	2194	2181	2167	2167	2153	2153	2153	2140	2127	2127	2127	2114	2114	2101	2101	2088	2076	2076	2076	2076	2076	2076	2076	2027	1992	1980	1980	1969	1969	1958	1958	1947	1936	1936	0	0	0	0	0	0	0	0	0	0	0	0	0	0	0	0	0	0	0	0	0	0	0	0	0	0	0	0	0	0	0	0	0	0	0	0	0
0	0	0	0	0	0	0	0	0	0	0	0	0	0	0	0	0	0	4771	4838	4838	4838	4838	4838	4771	4771	4706	4706	4706	4706	4706	4706	4643	4643	4706	4643	4643	4643	0	0	0	0	0	0	0	4771	4771	4771	4771	4771	4838	4838	4838	0	0	0	0	0	0	0	4771	4771	4771	4771	4771	4706	4706	4706	4771	4771	4771	4771	4771	4771	4771	4771	4771	4771	4771	4771	4706	4706	4771	4771	4771	4706	4771	4771	4771	4706	4771	4771	4771	4771	4771	4771	4771	4771	4771	4771	4771	4771	4771	4838	4838	4771	4771	4771	4771	4771	4838	4838	4838	4771	4771	4771	4771	4771	4706	4771	4771	4771	4771	4771	4838	0	0	0	0	0	0	0	0	0	0	0	0	0	0	0	0	0	0	0	8550	8343	8343	8343	8146	7959	7959	7959	7959	7959	7959	7959	8146	8343	8343	8343	8146	8146	8146	8146	7959	7959	7959	7959	7959	7959	7959	7959	7959	7959	7959	7959	7959	0	0	0	0	3583	3621	3621	3621	3583	3583	3583	3583	3546	3546	3583	3583	3583	3583	3621	3621	3659	3659	3659	3621	3621	3621	3583	3583	3546	3546	3546	3546	3546	3546	3546	3546	3546	3546	3546	3546	3546	3546	3546	3546	3546	3546	3546	3546	3510	3510	3510	3510	3510	3510	3510	3546	3546	3546	3546	3546	3546	3583	3583	3583	3583	3583	3583	3583	3621	3621	3621	3621	3659	3659	3659	3659	3621	3659	3621	3621	3621	3621	3621	3621	3621	3659	3659	3659	3698	3698	3698	3698	3698	0	8550	8343	8343	8343	8343	8343	8343	8343	8343	8343	8343	8550	8550	8343	8343	8343	8343	8343	8343	8343	8343	0	0	4838	4771	4771	4771	4771	4771	4706	4706	4706	4706	4706	4706	4706	4706	4643	4706	4706	4706	4706	4706	4706	4706	4771	4771	4771	4771	4771	4771	4771	4771	4706	4706	4643	4581	4521	4521	4521	4581	4581	4581	4581	4521	4581	4581	4581	4581	4581	4581	4581	4521	4521	4521	4521	4521	4521	4463	4463	4463	4463	4463	4463	4463	4463	4463	4463	4463	4463	4406	4463	4463	4521	4521	4581	4581	4521	4581	4581	4581	4581	4463	4463	4521	4521	4521	4521	4521	4581	4521	4521	4521	4521	4581	4581	4581	4521	4521	4581	4581	4521	4521	4521	4521	4581	4581	4521	4521	4521	4581	4521	4581	4581	4581	4581	4643	4643	4643	4643	4643	4643	4643	4581	4581	4581	4581	4581	4581	4581	4581	0	0	0	0	0	0	0	0	4706	4350	4350	4643	4463	4463	4463	4463	0	0	0	0	0	0	0	4706	4706	4706	4706	4706	4643	4643	4643	4643	4643	4706	4643	4643	4643	4643	4643	4643	4643	4643	4643	4643	4643	4643	4643	4643	4643	4643	4643	4581	4643	4706	4706	4706	4706	4706	7959	7959	7959	7959	7959	7779	7779	7779	8146	8146	8146	8146	0	0	0	8146	8146	8146	8146	8146	8146	8146	8146	8146	7959	8146	8146	8146	8146	8146	7959	7959	7959	7779	7779	7779	7779	7779	7779	7779	7779	7779	7779	7779	7779	7779	7779	0	0	0	0	0	0	0	0	2514	2478	2478	2496	2496	2478	2478	2460	2460	2443	2426	2409	2409	2392	2392	2392	2376	2359	2343	2343	2327	2327	2312	2297	2297	2281	2266	2252	2252	2237	2237	2223	2208	2208	2194	2181	2167	2167	2167	2153	2153	2140	2127	2127	2127	2127	2114	2101	2101	2088	2076	2076	2076	2076	2076	2076	2063	2015	1992	1980	1980	1969	1969	1958	1958	1947	1936	1936	0	0	0	0	0	0	0	0	0	0	0	0	0	0	0	0	0	0	0	0	0	0	0	0	0	0	0	0	0	0	0	0	0	0	0	0	0
0	0	0	0	0	0	0	0	0	0	0	0	0	0	0	0	0	0	4771	4771	4771	4771	4771	4771	4706	4706	4706	4771	4706	4706	4706	4706	4706	4706	4706	4643	4643	4643	0	0	0	0	0	0	0	4771	4771	4771	4706	4838	4906	4838	4838	0	0	0	0	0	0	0	0	4706	4771	4771	4706	4706	4706	4706	4706	4771	4771	4771	4771	4771	4771	4771	4771	4771	4771	4706	4706	4706	4771	4771	4771	4771	4771	4771	4771	4706	4706	4706	4771	4771	4771	4771	4771	4771	4771	4771	4771	4771	4771	4771	4771	4838	4771	4771	4771	4838	4838	4838	4838	4771	4771	4771	4771	4771	4771	4771	4771	4838	4838	4771	0	0	0	0	0	0	0	0	0	0	0	0	0	0	0	0	0	0	0	0	8550	8343	8343	8343	8146	8146	8146	7959	8146	8146	8146	8146	8146	8343	8343	8343	8146	8146	8146	8146	8146	7959	8146	7959	8146	7959	7959	7959	7959	7959	7959	7959	7959	0	0	0	0	0	3621	3621	3621	3621	3583	3583	3583	3546	3546	3583	3546	3546	3546	3583	3621	3621	3621	3621	3621	3621	3583	3583	3583	3546	3546	3546	3546	3546	3546	3546	3546	3546	3546	3546	3546	3546	3546	3546	3546	3546	3546	3546	3546	3510	3510	3510	3510	3510	3510	3546	3546	3546	3546	3546	3546	3583	3583	3583	3583	3583	3583	3583	3583	3583	3621	3621	3621	3659	3659	3659	3659	3621	3659	3621	3583	3583	3583	3621	3621	3621	3621	3659	3659	3698	3698	3698	3698	3698	8550	8550	8343	8343	8343	8343	8343	8343	8343	8343	8343	8343	8550	8550	8343	8343	8343	8343	8343	8146	8146	8343	0	0	4771	4771	4771	4771	4771	4771	4706	4706	4706	4706	4706	4706	4706	4706	4706	4706	4706	4706	4706	4706	4706	4706	4771	4771	4771	4771	4771	4771	4771	4771	4706	4706	4581	4581	4521	4521	4521	4521	4521	4521	4521	4521	4521	4521	4521	4521	4521	4521	4521	4463	4463	4463	4463	4463	4463	4463	4463	4463	4463	4463	4463	4463	4463	4406	4463	4406	4406	4406	4406	4521	4521	4521	4521	4521	4521	4643	4581	4581	4581	4463	4463	4463	4521	4463	4406	4463	4463	4463	4463	4463	4463	4521	4521	4463	4463	4463	4463	4463	4463	4463	4406	4406	4463	4463	4463	4463	4463	4463	4521	4521	4521	4581	4581	4581	4643	4643	4643	4643	4643	4581	4581	4581	4581	4581	4581	4581	4581	0	0	0	0	0	0	0	0	0	0	4350	4350	4463	4463	4463	4463	4463	4463	0	0	0	0	0	0	0	0	0	4643	4643	4643	4643	4643	4643	4643	4706	4643	4643	4643	4643	4643	4643	4643	4643	4643	4643	4643	4643	4643	4643	4643	4643	4643	4581	4643	4706	4706	4706	4706	4706	7959	7959	7959	7959	7959	8146	8146	8146	8146	8146	8146	8146	0	0	0	8146	8146	8146	8146	8146	8146	7959	7959	7959	7959	7959	7959	8146	8146	8146	7959	7959	7959	7959	7779	7779	7779	7779	7779	7779	7779	7779	7779	7779	7779	7779	7779	7779	0	0	0	0	0	0	0	2514	2496	2496	2496	2496	2478	2478	2460	2460	2443	2426	2409	2409	2392	2392	2376	2376	2359	2343	2343	2327	2312	2312	2297	2297	2281	2266	2252	2252	2237	2223	2223	2208	2208	2194	2181	2167	2167	2167	2153	2153	2140	2127	2127	2127	2127	2114	2114	2101	2101	2088	2088	2076	2076	2076	2063	2039	2003	1992	1980	1969	1969	1969	1958	1958	1947	1936	1936	0	0	0	0	0	0	0	0	0	0	0	0	0	0	0	0	0	0	0	0	0	0	0	0	0	0	0	0	0	0	0	0	0	0	0	0	0
0	0	0	0	0	0	0	0	0	0	0	0	0	0	0	0	0	0	0	4771	4771	4771	4706	4706	4643	4706	4706	4706	4706	4706	4706	4706	4706	4706	4706	4643	4643	4643	4643	0	0	0	0	0	0	4706	4706	4706	4706	4771	4838	4838	4838	0	0	0	0	0	0	0	4771	4706	4706	4706	4706	4706	4706	4771	4771	4771	4771	4771	4771	4771	4771	4771	4771	4771	4771	4706	4706	4706	4771	4706	4706	4771	4771	4771	4771	4771	4706	4771	4771	4771	4771	4771	4771	4771	4771	4706	4771	4771	4771	4771	4838	4838	4771	4838	4771	4838	4838	4771	4771	4771	4771	4771	4771	4771	4771	4771	4771	4838	4838	0	0	0	0	0	0	0	0	0	0	0	0	0	0	0	0	0	0	0	0	0	0	0	8343	8146	8146	8146	7959	7959	7959	7959	7959	7959	8146	8146	8343	8343	8146	8146	8146	8146	8146	8146	8146	8146	8146	7959	7959	7959	7959	7959	7959	7959	7959	0	0	0	0	0	3621	3621	3621	3621	3583	3583	3583	3546	3546	3546	3546	3546	3546	3546	3583	3621	3583	3621	3621	3621	3621	3583	3583	3546	3546	3546	3546	3546	3546	3546	3546	3546	3546	3546	3546	3546	3546	3546	3546	3546	3546	3546	3546	3546	3546	3546	3546	3546	3546	3546	3546	3546	3546	3546	3583	3583	3583	3621	3583	3583	3583	3583	3583	3583	3621	3621	3621	3659	3659	3659	3659	3621	3621	3583	3583	3546	3583	3583	3621	3621	3621	3659	3698	3698	3698	3698	3698	0	8550	8550	8343	8343	8343	8343	8343	8343	8343	8343	8343	8343	8550	8343	8343	8343	8343	8343	8343	8146	8146	0	0	4771	4771	4771	4771	4771	4706	4706	4706	4706	4706	4706	4706	4706	4706	4706	4706	4706	4643	4706	4706	4706	4706	4706	4771	4771	4771	4771	4771	4771	4706	4706	4643	4643	4581	4581	4521	4521	4463	4521	4521	4521	4521	4521	4521	4521	4521	4406	4350	4350	4350	4350	4406	4406	4463	4406	4463	4406	4463	4463	4463	4463	4463	4406	4406	4406	4406	4350	4350	4350	4406	4406	4463	4463	4521	4521	4521	4581	4581	4581	4521	4463	4463	4463	4463	4463	4406	4463	4463	4463	4463	4463	4463	4463	4463	4406	4406	4350	4350	4406	4406	4406	4406	4406	4406	4406	4406	4406	4406	4406	4463	4463	4521	4521	4581	4581	4581	4581	4581	4581	4581	4581	4581	4521	4521	4581	4521	4521	4521	0	0	0	0	0	0	0	0	0	0	4350	4406	4406	4406	4406	4406	4463	4463	4521	4521	4581	4581	4581	0	0	4463	4463	4463	4643	4643	4643	4643	4643	4643	4643	4643	4643	4643	4643	4643	4643	4643	4643	4643	4643	4643	4643	4643	4643	4643	4643	4643	4643	4706	4706	4706	4706	4706	8146	8146	7959	7959	7959	7959	7959	7959	7959	7959	8146	8146	8146	0	0	7959	7959	7959	8146	8146	8146	8146	7959	7959	7959	7779	7959	7959	7959	7959	7959	7959	7959	7959	7779	7779	7779	7779	7779	7959	7779	7779	7779	7779	7779	7779	7779	7779	7779	0	0	0	0	0	0	0	2514	2496	2496	2496	2496	2478	2478	2478	2460	2460	2443	2409	2409	2392	2392	2376	2376	2359	2343	2343	2327	2312	2297	2297	2281	2281	2266	2252	2252	2237	2223	2223	2208	2208	2194	2181	2167	2167	2167	2153	2153	2140	2127	2127	2127	2127	2114	2114	2101	2088	2088	2088	2076	2076	2076	2063	2027	1992	1980	1980	1969	1969	1958	1958	1947	1947	1936	1936	0	0	0	0	0	0	0	0	0	0	0	0	0	0	0	0	0	0	0	0	0	0	0	0	0	0	0	0	0	0	0	0	0	0	0	0	0
0	0	0	0	0	0	0	0	0	0	0	0	0	0	0	0	0	0	4706	4771	4771	4771	4771	4706	4706	4706	4706	4706	4706	4706	4706	4706	4706	4706	4706	4643	4643	4643	4643	0	0	0	0	0	0	4706	4706	4706	4706	4771	4838	4838	4838	0	0	0	0	0	0	0	4771	4706	4771	4771	4771	4771	4771	4771	4771	4771	4771	4771	4771	4771	4771	4771	4771	4771	4706	4706	4706	4706	4706	4706	4706	4706	4771	4771	4706	4706	4706	4706	4706	4771	4838	4838	4838	4771	4771	4771	4771	4771	4771	4771	4838	4838	4771	4771	4771	4771	4771	4771	4771	4771	4771	4771	4771	4771	4771	4771	4771	4771	4771	0	0	0	0	0	0	0	0	0	0	0	0	0	0	0	0	0	0	0	0	0	0	0	8343	8146	8146	8146	7959	7959	7959	7959	7959	7959	7959	8343	8343	8343	8146	8146	7959	7959	7959	7959	8146	7959	7959	7959	7959	7959	7959	7959	7959	7959	7959	7959	0	0	0	0	3659	3659	3621	3621	3583	3583	3583	3546	3546	3546	3546	3546	3546	3546	3583	3621	3621	3621	3621	3621	3583	3583	3583	3546	3546	3546	3546	3510	3546	3546	3546	3546	3546	3546	3546	3546	3546	3546	3546	3546	3546	3546	3546	3546	3546	3546	3546	3546	3546	3546	3546	3546	3583	3546	3621	3621	3621	3621	3621	3583	3583	3583	3583	3583	3621	3621	3621	3659	3659	3659	3659	3659	3659	3621	3583	3546	3546	3583	3583	3621	3621	3659	3659	3698	3698	3698	3698	0	8550	8550	8343	8343	8343	8343	8343	8343	8343	8343	8343	8343	8343	8343	8343	8343	8343	8343	8343	8343	8343	0	0	4771	4771	4771	4771	4771	4706	4706	4706	4706	4706	4706	4706	4706	4706	4706	4706	4706	4706	4706	4706	4706	4706	4706	4771	4771	4771	4771	4771	4771	4706	4706	4643	4581	4581	4581	4521	4521	4463	4463	4463	4463	4463	4463	4463	4463	4350	4350	4350	4350	4406	4406	4406	4406	4406	4406	4463	4406	4463	4463	4463	4463	4463	4406	4406	4406	4406	4350	4350	4350	4350	4406	4463	4463	4463	4463	4463	4581	4581	4521	4521	4463	4463	4463	4463	4463	4406	4406	4463	4463	4463	4463	4463	4406	4406	4406	4406	4350	4350	4406	4406	4406	4406	4406	4406	4406	4406	4406	4406	4406	4463	4463	4463	4521	4521	4521	4581	4581	4581	4581	4581	4521	4521	4521	4521	4521	4521	4521	4521	0	0	0	0	0	0	0	0	0	0	4350	4350	4406	4406	4406	4406	4406	4406	4463	4521	4521	4521	4521	0	0	4463	4463	4406	4463	4581	4581	4581	4581	4581	4643	4643	4643	4643	4643	4643	4643	4581	4581	4581	4643	4643	4643	4643	4643	4643	4643	4643	4643	4706	4706	4706	4771	4706	4706	8146	8146	7959	7959	7959	7959	7959	7959	8146	8146	8146	7959	7959	7959	7959	7959	7959	8146	7959	7959	8146	7959	7959	7959	7779	7779	7959	7959	7959	7959	7959	7959	7959	7779	7779	7779	7779	7959	7959	7779	7959	7779	7779	7779	7779	7779	7779	7779	0	0	0	0	0	0	0	2514	2496	2514	2496	2496	2478	2478	2478	2460	2460	2443	2426	2409	2392	2392	2392	2376	2376	2359	2343	2327	2312	2297	2297	2281	2281	2266	2252	2252	2237	2223	2223	2208	2208	2194	2181	2167	2167	2167	2153	2153	2127	2127	2114	2127	2127	2114	2114	2101	2088	2088	2088	2076	2076	2076	2063	2027	2003	1992	1980	1969	1969	1958	1958	1947	1936	1936	1936	0	0	0	0	0	0	0	0	0	0	0	0	0	0	0	0	0	0	0	0	0	0	0	0	0	0	0	0	0	0	0	0	0	0	0	0	0
0	0	0	0	0	0	0	0	0	0	0	0	0	0	0	0	0	0	4706	4771	4771	4706	4706	4706	4706	4706	4706	4706	4706	4706	4706	4706	4706	4706	4706	4643	4643	4643	0	0	0	0	0	0	0	4706	4706	4706	4706	4706	4838	4771	4771	0	0	0	0	0	0	0	0	4706	4771	4771	4771	4771	4706	4771	4771	4771	4771	4771	4771	4771	4771	4771	4771	4771	4706	4706	4706	4706	4706	4706	4706	4706	4706	4706	4706	4706	4706	4771	4771	4771	4838	4838	4838	4771	4771	4771	4771	4771	4771	4771	4838	4838	4771	4771	4771	4838	4838	4771	4771	4771	4771	4771	4771	4771	4771	4771	4771	4771	4581	4521	4521	0	0	0	0	0	0	0	0	0	0	0	0	0	0	0	0	0	0	0	0	0	0	7959	8146	7959	7959	7959	7779	6349	6349	6349	7779	8146	8146	8146	8146	7959	7959	7959	7959	7959	8146	8146	8146	8146	8146	8146	7959	7959	7959	7959	7959	7959	0	0	0	0	3659	3659	3621	3621	3583	3583	3583	3546	3546	3546	3546	3546	3546	3583	3621	3621	3621	3621	3621	3621	3621	3583	3583	3546	3546	3546	3546	3510	3546	3546	3546	3546	3546	3546	3546	3546	3546	3546	3546	3583	3546	3583	3583	3583	3546	3546	3546	3546	3546	3546	3546	3546	3583	3583	3621	3621	3621	3621	3621	3583	3621	3583	3583	3621	3621	3621	3621	3659	3659	3659	3659	3659	3659	3621	3583	3583	3583	3583	3583	3621	3621	3659	3698	3698	3698	3738	3738	0	8550	8550	8343	8343	8343	8343	8343	8343	8343	8343	8343	8343	8343	8343	8343	8343	8343	8343	8343	8343	8343	0	0	0	4771	4771	4771	4706	4706	4706	4706	4706	4706	4706	4706	4706	4706	4706	4706	4706	4706	4706	4706	4706	4706	4706	4771	4771	4771	4771	4771	4771	4706	4706	4643	4643	4581	4581	4521	4463	4463	4463	4463	4463	4463	4463	4463	4463	4463	4350	4350	4406	4406	4406	4406	4406	4406	4406	4463	4463	4463	4463	4463	4463	4463	4406	4406	4406	4406	4350	4350	4350	4350	4406	4406	4406	4463	4463	4463	4521	4521	4521	4521	4521	4463	4463	4463	4463	4463	4463	4463	4463	4463	4406	4406	4406	4406	4350	4350	4350	4350	4406	4406	4406	4406	4406	4406	4406	4406	4406	4406	4406	4463	4463	4463	4521	4521	4521	4581	4521	4463	4521	4463	4463	4463	4463	4463	4463	4463	4406	4406	0	0	0	0	0	0	4406	4406	4406	4406	4350	4350	4350	4350	4406	4406	4406	4406	4463	4463	4521	4463	4521	4521	4521	4463	4406	4406	4463	4463	4521	4521	4521	4581	4643	4643	4643	4581	4643	4643	4581	4581	4581	4581	4643	4643	4643	4643	4643	4643	4643	4643	4643	4706	4706	4706	4771	4706	4706	7779	7779	7959	7959	7959	7959	7959	7959	7959	8146	8146	7959	7959	7959	7959	7959	7959	7959	7959	7959	7959	7959	7959	7779	7779	7779	7959	7959	7779	7779	7779	7779	7959	7779	7779	7779	7959	7779	7959	7959	7959	7959	7779	7779	7779	7779	7608	7608	0	0	0	0	0	0	0	2514	2496	2514	2514	2514	2496	2496	2478	2478	2460	2460	2426	2426	2409	2392	2392	2376	2376	2359	2343	2327	2312	2297	2281	2281	2266	2266	2252	2252	2223	2223	2223	2208	2208	2194	2181	2167	2167	2167	2153	2153	2127	2127	2114	2127	2127	2114	2101	2101	2088	2088	2076	2076	2076	2076	2063	2051	2003	1992	1980	1969	1969	1958	1947	1947	1936	1925	1925	0	0	0	0	0	0	0	0	0	0	0	0	0	0	0	0	0	0	0	0	0	0	0	0	0	0	0	0	0	0	0	0	0	0	0	0	0
0	0	0	0	0	0	0	0	0	0	0	0	0	0	0	0	0	0	4706	4771	4771	4706	4706	4706	4706	4706	4706	4643	4706	4706	4706	4706	4706	4706	4706	4706	4706	4706	0	0	0	0	0	0	0	4706	4706	4706	4706	4706	4771	4771	4771	0	0	0	0	0	0	0	4706	4706	4706	4771	4771	4771	4771	4771	4771	4771	4771	4771	4771	4706	4706	4706	4771	4706	4706	4706	4706	4706	4706	4706	4706	4706	4771	4706	4706	4706	4706	4771	4771	4771	4771	4771	4771	4771	4771	4771	4771	4771	4771	4771	4838	4838	4838	4838	4838	4838	4838	4838	4771	4771	4771	4771	4771	4771	4771	4771	4771	4706	4581	4581	4521	0	0	0	0	0	0	0	0	0	0	0	0	0	0	0	0	0	0	0	0	0	0	7959	7779	7779	6468	6349	6349	6349	6349	6235	6235	6235	8146	8146	8146	6349	6349	6468	6468	6468	8343	8343	8343	8343	7959	8146	7959	7959	7959	7959	7959	7779	7779	0	0	0	3659	3659	3621	3621	3583	3583	3583	3546	3546	3546	3546	3546	3546	3546	3583	3621	3621	3621	3621	3621	3621	3583	3583	3583	3546	3546	3546	3510	3546	3546	3546	3546	3546	3546	3546	3546	3583	3583	3583	3583	3583	3583	3583	3583	3583	3546	3546	3546	3546	3546	3546	3546	3583	3583	3621	3621	3621	3621	3621	3621	3621	3621	3583	3621	3621	3583	3621	3659	3659	3659	3659	3659	3698	3659	3621	3583	3583	3583	3583	3583	3583	3621	3659	3698	3698	3698	3738	8550	8550	8550	8343	8343	8343	8343	8343	8343	8343	8343	8343	8343	8343	8343	8343	8343	8343	8343	8343	8343	8343	0	0	4706	4706	4771	4706	4706	4771	4771	4706	4706	4706	4706	4706	4706	4706	4706	4706	4706	4706	4706	4706	4706	4706	4706	4771	4771	4771	4771	4771	4706	4706	4706	4643	4643	4581	4581	4463	4463	4463	4463	4463	4463	4463	4463	4463	4463	4463	4406	4406	4406	4406	4406	4406	4406	4406	4406	4463	4406	4406	4463	4463	4463	4406	4406	4406	4406	4406	4350	4350	4350	4350	4406	4406	4406	4406	4406	4406	4521	4521	4521	4521	4463	4521	4463	4463	4463	4463	4463	4463	4463	4406	4406	4406	4406	4350	4350	4350	4350	4350	4406	4406	4406	4406	4406	4406	4406	4406	4406	4406	4406	4463	4463	4463	4463	4521	4463	4521	4463	4463	4463	4463	4463	4463	4406	4406	4406	4406	4406	4406	4406	0	0	4463	4463	4406	4406	4406	4406	4350	4350	4350	4350	4350	4350	4350	4350	4406	4406	4463	4463	4463	4463	4463	4463	4406	4406	4350	4350	4406	4406	4463	4463	4521	4581	4643	4643	4581	4581	4581	4581	4521	4581	4581	4643	4643	4643	4643	4643	4643	4643	4643	4643	4643	4706	4706	4706	4706	4706	8146	7959	7959	7959	7959	7959	7959	7959	7959	8146	7959	7959	7959	7959	7959	7959	7959	7959	7959	7959	7959	7959	7959	7779	7779	7779	7779	7779	7779	7779	7779	7779	7779	7779	7779	7779	7959	7779	7959	7959	7959	7959	7959	7779	7779	7779	7779	7779	0	0	0	0	0	0	0	2514	2496	2514	2514	2514	2496	2496	2478	2478	2460	2443	2426	2409	2409	2392	2392	2376	2376	2359	2343	2343	2312	2297	2281	2281	2266	2266	2252	2252	2237	2223	2223	2208	2208	2194	2181	2181	2167	2167	2153	2153	2127	2127	2114	2127	2114	2114	2101	2088	2088	2076	2076	2076	2076	2076	2063	2063	2015	1992	1980	1969	1958	1958	1958	1947	1936	1925	1925	0	0	0	0	0	0	0	0	0	0	0	0	0	0	0	0	0	0	0	0	0	0	0	0	0	0	0	0	0	0	0	0	0	0	0	0	0
0	0	0	0	0	0	0	0	0	0	0	0	0	0	0	0	0	0	4706	4771	4771	4838	4771	4706	4706	4706	4706	4643	4706	4706	4706	4706	4706	4706	4706	4706	4706	4706	0	0	0	0	0	0	0	4706	4706	4706	4706	4706	4706	4771	4771	0	0	0	0	0	0	0	4706	4706	4706	4771	4771	4771	4771	4771	4771	4771	4771	4771	4771	4771	4771	4706	4706	4706	4706	4706	4706	4706	4706	4706	4706	4706	4771	4706	4706	4706	4706	4706	4771	4706	4771	4771	4771	4771	4771	4771	4771	4771	4771	4771	4838	4838	4838	4838	4838	4838	4838	4838	4771	4771	4771	4771	4771	4771	4771	4771	4771	4706	4643	4643	0	0	0	0	0	0	0	0	0	0	0	0	0	0	0	0	0	6468	6468	6468	6468	6592	6592	0	7779	6592	6468	6349	6349	6349	6349	6235	6235	6349	6468	6349	6349	6349	6349	6468	6468	6349	6349	6349	8343	8343	8146	8146	8146	8146	8146	7959	7959	7959	7959	7959	0	0	0	3659	3659	3621	3621	3583	3583	3546	3546	3546	3546	3546	3510	3546	3621	3621	3621	3621	3621	3621	3621	3583	3583	3583	3546	3546	3546	3546	3583	3546	3546	3546	3546	3546	3546	3546	3583	3546	3546	3583	3583	3583	3583	3583	3583	3583	3546	3546	3546	3546	3546	3583	3583	3583	3621	3621	3621	3621	3621	3621	3621	3583	3583	3583	3583	3583	3583	3621	3621	3659	3659	3659	3659	3659	3621	3621	3583	3583	3583	3583	3583	3621	3621	3659	3659	3659	0	8550	8550	8550	8343	8343	8343	8343	8343	8343	8343	8343	8343	8343	8343	8343	8343	8343	8343	8343	8343	8146	8146	0	0	4706	4706	4706	4706	4771	4771	4771	4771	4706	4706	4771	4706	4706	4706	4706	4706	4706	4706	4706	4706	4706	4706	4706	4771	4771	4771	4706	4706	4706	4706	4643	4643	4581	4581	4521	4463	4463	4463	4463	4463	4463	4463	4406	4463	4406	4406	4350	4350	4350	4350	4350	4350	4406	4406	4406	4406	4406	4406	4406	4406	4406	4406	4406	4350	4350	4350	4350	4350	4350	4350	4350	4350	4350	4350	4406	4406	4463	4521	4463	4463	4463	4463	4463	4463	4463	4463	4463	4463	4406	4406	4406	4406	4350	4350	4350	4350	4350	4350	4350	4406	4406	4406	4350	4350	4350	4350	4350	4406	4406	4406	4463	4463	4463	4463	4463	4463	4406	4406	4406	4406	4406	4406	4406	4406	4406	4406	4350	4350	4406	4406	4406	4406	4406	4406	4406	4406	4406	4350	4350	4350	4350	4350	4350	4350	4350	4350	4350	4406	4406	4350	4406	4406	4350	4406	4350	4296	4350	4350	4406	4463	4463	4463	4581	4581	4581	4521	4521	4581	4521	4521	4521	4521	4581	4643	4643	4643	4643	4643	4643	4643	4643	4706	4706	4706	4706	4706	4706	8146	7959	7959	7959	7779	7959	7779	7959	7959	7959	7959	7959	7959	7959	7959	7959	7959	7959	7959	7959	7959	7959	7959	7779	7779	7779	7779	7779	7779	7779	7779	7779	7779	7779	7779	7779	7959	7959	7959	7959	8146	7959	7959	7779	7779	7779	7779	7779	0	0	0	0	0	0	0	2514	2496	2514	2514	2496	2478	2478	2478	2460	2460	2443	2426	2409	2409	2392	2392	2376	2376	2359	2359	2343	2327	2297	2297	2281	2281	2266	2266	2252	2237	2237	2223	2223	2208	2194	2194	2181	2167	2167	2153	2140	2127	2127	2114	2127	2114	2101	2088	2088	2076	2076	2076	2076	2076	2076	2063	2051	2015	1992	1980	1969	1969	1958	1958	1947	1936	1925	1925	0	0	0	0	0	0	0	0	0	0	0	0	0	0	0	0	0	0	0	0	0	0	0	0	0	0	0	0	0	0	0	0	0	0	0	0	0
