0	0	0	0	0	0	0	0	0	0	1512	1519	1519	1519	1519	1519	1519	1519	1512	1519	1519	1519	1519	1519	1519	1519	1519	1519	1519	1519	1519	1519	1519	1519	1525	1519	1519	1519	1519	1519	1519	1519	1519	1525	1532	1539	1539	1539	1546	1546	1546	1546	1546	1883	1883	1883	1894	1894	1894	1894	1894	1894	1894	1894	1883	1883	1883	1883	1894	1894	1894	1904	1894	1894	1904	1904	1894	1894	1894	1894	1894	1894	1894	1894	1894	1894	1894	1894	1894	1904	1904	1915	1915	1925	1925	1925	1936	1936	1947	1947	2609	2609	2629	2629	2609	2609	2609	2609	2609	2609	2589	2609	2609	2609	2609	2589	2589	2589	2589	2589	2570	2570	2570	2570	2570	2589	2589	2589	2609	2609	2609	2609	2589	2589	2589	2589	2589	2570	2570	2570	2570	2570	2570	2570	2609	2609	2609	2609	2589	2589	2589	2589	2589	2589	2589	2589	2609	2609	2589	2609	2629	2629	2609	2629	2629	2629	0	3738	3698	3659	3659	3698	3698	3659	3659	3659	3698	3698	3698	3698	3698	3698	3659	3698	3698	3738	3698	3738	3738	3698	3698	3698	3698	3659	3659	3659	3659	3659	3659	3659	3659	3659	3698	3698	3698	3698	3698	3698	3698	3698	3698	3738	3738	3738	3738	3738	3738	3738	3698	3698	3738	3738	3738	3738	3738	3738	3738	3738	3698	3698	3738	3779	3779	3738	3738	3738	3779	3779	3738	3738	3738	3738	3738	3738	3738	3738	3779	3779	3779	3779	3779	3779	3779	3738	3738	3738	3738	3738	3738	3738	3738	3738	3738	3738	3738	3779	3738	3738	3738	3738	3738	3738	3738	3738	3738	3738	3738	3738	3738	3738	3698	3738	3738	3738	3738	3738	3738	3738	3738	3738	3738	3738	3738	3738	3738	3738	3698	3698	3698	3698	3698	3738	3738	3738	3698	3738	3738	3698	3698	3659	3659	3698	3341	3341	3309	3309	3277	3277	3277	3277	3246	3246	3246	3246	3246	3246	3246	3246	3246	3246	3246	0	0	0	0	0	3698	3698	3659	3659	3698	3698	3738	3698	3698	3698	3698	3698	3738	3698	3698	3738	3738	3738	3738	3698	3698	3698	3698	3698	3659	3659	3659	3659	3698	3698	3698	3698	3698	3698	3738	3698	3698	3698	3698	3698	3698	3698	3698	3698	3698	3698	3698	3698	3698	3659	3659	3659	3621	3621	3621	3659	3659	3621	3659	3659	3659	3659	3698	3698	3698	3698	3698	3659	3659	3659	3659	3659	3698	3659	3659	3698	3698	3659	3659	3659	3659	3659	3659	3659	3659	3659	3659	3659	3659	3659	3659	3659	3659	3659	3659	3659	3659	3659	3659	3659	3659	3659	3659	3659	3659	3659	3659	3659	3659	3659	3659	3659	3659	3659	3659	3659	3659	3659	3659	3659	3659	3659	3659	3659	3659	3659	3659	3659	3659	3659	3659	3659	3659	3659	3659	3659	3659	3659	3659	3659	3659	3659	3659	3659	3659	3659	3659	3698	3698	3698	3698	3698	3698	3698	3698	3698	3698	3698	3659	3659	3659	3659	3659	3659	3659	3659	3659	3659	3659	3659	3659	3659	3659	3659	3659	3659	3659	3659	3659	3659	3659	3659	3659	3659	3659	3659	3659	3659	3659	3659	3659	3659	3659	3659	3659	3659	3659	3659	3659	3621	3621	3659	3621	3621	3621	3621	3621	3621	3621	3659	3659	3659	3621	3659	3659	3659	3659	3659	3659	3621	3621	3621	3621	3621	3621	3621	3583	3583	3583	3546	3546	3546	3583	3583	3583	3583	3583	3583	3583	3583	3621	3583	3583	3583	3583	3583	3583	3583	3583	3583	3583	3583	3621	3583	3583	3583	3583	3546	3583	3583	3583	3583	3583	3583	3583	3583	3546	3546	3546	0	0	0	0	0	0	0	0	0	0	0	0	0	0	0	0	0	0	0	0	0	0	0	0	0	0	0	0	0	0	0	0	0	0	0
0	0	0	0	0	0	0	0	0	0	1512	1519	1519	1519	1519	1519	1519	1519	1512	1519	1519	1519	1519	1519	1525	1519	1519	1519	1519	1519	1519	1519	1519	1519	1519	1519	1519	1519	1519	1519	1519	1519	1519	1525	1532	1539	1539	1539	1539	1539	1539	1539	1539	1915	1904	1894	1904	1904	1904	1894	1894	1894	1894	1894	1894	1894	1894	1894	1894	1894	1904	1915	1915	1915	1915	1915	1904	1904	1904	1904	1904	1904	1894	1894	1894	1894	1894	1894	1904	1904	1915	1915	1915	1925	1925	1925	1925	1936	1947	1947	1958	1958	2629	2629	2629	2609	2609	2609	2609	2609	2609	2609	2609	2609	2609	2589	2589	2589	2589	2589	2589	2589	2589	2589	2589	2609	2609	2609	2609	2609	2609	2609	2589	2589	2589	2589	2589	2589	2589	2570	2589	2589	2589	2589	2609	2609	2609	2589	2589	2589	2589	2589	2589	2589	2589	2589	2609	2609	2609	2609	2609	2609	2609	2609	2609	2609	2609	3698	3659	3659	3659	3659	3659	3659	3659	3659	3659	3659	3659	3659	3659	3659	3659	3659	3698	3738	3738	3738	3738	3738	3698	3698	3659	3659	3659	3659	3659	3659	3659	3659	3659	3659	3698	3698	3698	3698	3698	3698	3698	3698	3698	3738	3698	3698	3698	3698	3698	3698	3698	3738	3738	3738	3738	3738	3738	3738	3738	3738	3698	3698	3738	3738	3738	3738	3738	3738	3738	3738	3738	3738	3738	3738	3738	3738	3738	3738	3738	3738	3779	3738	3738	3738	3738	3738	3738	3738	3738	3738	3738	3738	3738	3738	3738	3738	3779	3779	3738	3738	3738	3738	3738	3738	3738	3738	3738	3738	3738	3738	3738	3738	3698	3698	3738	3738	3738	3738	3738	3738	3738	3738	3738	3738	3738	3738	3698	3698	3698	3698	3698	3698	3698	3698	3698	3738	3698	3698	3698	3698	3698	3698	3277	3277	3309	3309	3309	3309	3277	3277	3277	3277	3246	3246	3246	3246	3246	3246	3246	3246	3246	3246	3246	0	0	0	0	0	0	3698	3659	3659	3659	3698	3698	3698	3698	3698	3698	3698	3698	3698	3698	3738	3698	3738	3738	3698	3698	3698	3659	3659	3659	3659	3659	3659	3698	3698	3698	3698	3698	3698	3698	3698	3698	3698	3698	3698	3698	3698	3698	3698	3698	3698	3659	3659	3659	3659	3659	3621	3621	3621	3621	3659	3659	3621	3659	3659	3659	3659	3698	3698	3738	3698	3698	3698	3659	3659	3659	3659	3659	3659	3659	3659	3659	3659	3659	3659	3659	3659	3659	3659	3659	3659	3659	3659	3659	3659	3659	3659	3659	3659	3659	3659	3659	3659	3659	3659	3659	3659	3659	3621	3659	3659	3659	3659	3659	3659	3659	3659	3659	3659	3659	3659	3659	3659	3659	3659	3659	3659	3659	3659	3659	3659	3659	3659	3659	3659	3659	3659	3659	3659	3659	3659	3659	3659	3659	3659	3659	3659	3659	3659	3659	3659	3659	3698	3698	3698	3698	3698	3698	3698	3698	3659	3698	3698	3659	3659	3659	3659	3659	3659	3659	3659	3659	3659	3659	3659	3659	3659	3659	3659	3659	3659	3659	3659	3659	3659	3659	3659	3659	3659	3659	3659	3659	3659	3659	3659	3659	3659	3659	3659	3659	3659	3659	3659	3659	3621	3659	3659	3621	3659	3621	3659	3621	3621	3621	3659	3659	3659	3659	3659	3659	3659	3659	3659	3621	3621	3621	3621	3621	3621	3621	3621	3583	3583	3583	3546	3546	3546	3583	3583	3583	3583	3583	3621	3621	3583	3621	3583	3583	3583	3583	3583	3583	3583	3583	3583	3583	3583	3621	3583	3583	3583	3546	3546	3583	3546	3546	3546	3546	3546	3583	3583	3546	3546	3546	0	0	0	0	0	0	0	0	0	0	0	0	0	0	0	0	0	0	0	0	0	0	0	0	0	0	0	0	0	0	0	0	0	0	0
0	0	0	0	0	0	0	0	0	0	1512	1519	1519	1519	1519	1512	1512	1512	1512	1512	1519	1519	1519	1519	1519	1519	1519	1519	1519	1519	1519	1519	1512	1519	1519	1519	1519	1519	1512	1519	1519	1519	1519	1525	1525	1532	1539	1539	1539	1539	1539	1539	1539	1915	1936	1915	1915	1915	1915	1904	1904	1904	1894	1894	1894	1894	1894	1904	1904	1904	1915	1925	1915	1915	1915	1925	1925	1925	1925	1915	1925	1915	1915	1915	1904	1904	1904	1904	1904	1915	1915	1915	1925	1925	1925	1925	1925	1936	1947	1947	1958	1958	1958	2609	2609	2609	2609	2609	2609	2609	2609	2609	2589	2589	2589	2589	2589	2589	2589	2589	2589	2609	2609	2609	2609	2609	2609	2609	2629	2609	2609	2609	2589	2589	2609	2589	2589	2589	2589	2570	2589	2589	2570	2589	2609	2609	2609	2589	2589	2589	2589	2589	2589	2589	2589	2589	2589	2609	2609	2609	2629	2629	2609	2629	2609	2609	2609	3659	3659	3659	3621	3659	3659	3621	3621	3659	3659	3621	3621	3621	3659	3659	3659	3659	3698	3698	3698	3698	3698	3698	3698	3698	3659	3659	3659	3659	3659	3659	3659	3659	3659	3698	3698	3698	3698	3698	3698	3698	3698	3698	3698	3698	3698	3698	3698	3698	3698	3698	3698	3738	3738	3738	3738	3738	3738	3738	3738	3738	3738	3738	3779	3779	3779	3738	3738	3738	3738	3738	3738	3738	3738	3738	3738	3738	3738	3738	3738	3738	3738	3738	3738	3738	3738	3738	3738	3738	3738	3738	3738	3738	3738	3738	3738	3738	3738	3779	3738	3738	3738	3738	3738	3738	3738	3738	3738	3738	3738	3738	3738	3738	3698	3698	3738	3738	3738	3738	3738	3738	3738	3738	3738	3738	3738	3698	3698	3698	3698	3698	3698	3698	3698	3698	3698	3698	3698	3698	3698	3698	3698	3698	3277	3277	3277	3309	3309	3309	3309	3277	3277	3277	3246	3277	3246	3246	3246	3246	3246	3246	3246	3246	3246	3246	3246	0	0	0	0	0	3659	3659	3659	3659	3698	3698	3698	3698	3698	3698	3698	3698	3698	3738	3698	3738	3738	3698	3698	3698	3659	3659	3659	3659	3659	3698	3698	3698	3698	3698	3698	3698	3698	3698	3698	3698	3698	3698	3698	3698	3698	3659	3698	3698	3659	3659	3659	3659	3659	3621	3621	3621	3621	3621	3621	3621	3621	3659	3659	3659	3698	3698	3738	3698	3698	3698	3659	3659	3659	3659	3659	3659	3659	3659	3659	3659	3659	3659	3698	3698	3698	3698	3698	3659	3659	3659	3659	3659	3659	3659	3659	3659	3659	3659	3659	3659	3659	3659	3621	3621	3659	3621	3659	3659	3659	3659	3659	3659	3659	3659	3659	3659	3659	3659	3659	3659	3659	3659	3659	3659	3659	3621	3659	3621	3621	3621	3621	3621	3659	3659	3659	3659	3659	3621	3659	3659	3659	3659	3659	3659	3659	3659	3659	3659	3659	3698	3698	3698	3698	3698	3659	3659	3659	3659	3698	3659	3659	3659	3659	3659	3659	3659	3659	3659	3659	3659	3659	3659	3659	3659	3659	3659	3659	3659	3659	3659	3659	3659	3659	3659	3659	3659	3659	3659	3659	3659	3659	3659	3659	3659	3659	3659	3659	3659	3659	3659	3659	3659	3659	3659	3659	3659	3659	3659	3659	3621	3621	3659	3621	3659	3621	3621	3621	3659	3621	3621	3621	3621	3621	3621	3621	3621	3621	3621	3583	3583	3583	3546	3583	3546	3583	3583	3583	3621	3621	3621	3583	3583	3621	3583	3583	3583	3583	3583	3583	3583	3583	3583	3583	3583	3583	3583	3583	3583	3546	3546	3583	3546	3546	3546	3546	3546	3583	3546	3546	3546	3546	0	0	0	0	0	0	0	0	0	0	0	0	0	0	0	0	0	0	0	0	0	0	0	0	0	0	0	0	0	0	0	0	0	0	0
0	0	0	0	0	0	0	0	0	0	1512	1512	1512	1512	1512	1512	1512	1512	1512	1512	1512	1512	1512	1512	1519	1519	1519	1519	1519	1519	1519	1519	1519	1519	1519	1519	1519	1519	1519	1519	1519	1519	1519	1525	1532	1532	1539	1539	1539	1539	1539	1546	1546	0	1936	1925	1925	1915	1915	1904	1904	1904	1894	1894	1894	1894	1904	1915	1915	1915	1925	1925	1925	1925	1925	1925	1925	1925	1925	1925	1925	1925	1925	1915	1915	1915	1904	1904	1915	1915	1925	1925	1925	1936	1936	1936	1936	1947	1958	1958	1958	1958	1969	1969	1969	2609	2609	2609	2609	2609	2609	2609	2589	2589	2589	2589	2589	2589	2589	2589	2589	2609	2609	2609	2609	2609	2609	2609	2609	2609	2609	2609	2589	2589	2589	2589	2570	2570	2570	2589	2589	2589	2570	2589	2609	2609	2609	2609	2589	2589	2589	2589	2589	2589	2589	2609	2609	2609	2609	2609	2609	2609	2609	2609	2609	2609	2609	3621	3621	3621	3621	3621	3583	3583	3583	3583	3583	3583	3583	3583	3621	3621	3621	3621	3659	3698	3698	3698	3698	3698	3698	3698	3659	3659	3659	3659	3659	3659	3659	3659	3698	3698	3698	3698	3659	3659	3659	3698	3698	3698	3698	3698	3698	3698	3698	3698	3698	3698	3698	3738	3698	3738	3738	3738	3738	3738	3738	3738	3738	3738	3779	3779	3779	3738	3738	3738	3738	3738	3738	3738	3738	3738	3738	3738	3738	3738	3738	3738	3738	3738	3738	3738	3738	3738	3738	3738	3738	3738	3738	3738	3738	3738	3738	3738	3738	3738	3738	3738	3738	3738	3738	3738	3738	3738	3738	3738	3738	3738	3738	3738	3698	3738	3738	3738	3738	3738	3738	3738	3738	3738	3738	3698	3698	3698	3698	3698	3698	3698	3698	3698	3698	3698	3698	3698	3698	3698	3698	3698	3659	3659	3309	3309	3309	3309	3309	3309	3309	3277	3277	3277	3246	3246	3246	3246	3246	3246	3216	3216	3216	3216	3246	3246	3246	0	0	0	0	0	0	3659	3659	3698	3698	3698	3698	3698	3698	3698	3698	3698	3698	3738	3738	3738	3698	3698	3698	3659	3659	3659	3659	3659	3659	3698	3698	3698	3698	3698	3698	3698	3698	3698	3698	3698	3698	3698	3698	3698	3698	3698	3698	3698	3659	3659	3659	3659	3659	3659	3621	3621	3621	3621	3659	3621	3621	3659	3659	3659	3698	3698	3698	3698	3698	3698	3659	3659	3659	3659	3659	3659	3659	3659	3659	3659	3659	3659	3659	3659	3659	3659	3659	3659	3659	3659	3659	3659	3659	3659	3659	3698	3698	3659	3659	3659	3659	3659	3659	3621	3659	3621	3621	3659	3659	3659	3659	3659	3659	3659	3659	3659	3659	3659	3659	3659	3659	3659	3659	3659	3659	3621	3621	3621	3621	3621	3659	3621	3621	3659	3621	3659	3621	3621	3621	3621	3621	3659	3659	3659	3659	3659	3659	3659	3659	3659	3659	3659	3659	3659	3659	3659	3659	3659	3698	3698	3659	3659	3659	3659	3659	3659	3659	3659	3659	3659	3659	3659	3659	3659	3659	3659	3659	3659	3659	3659	3659	3659	3659	3659	3659	3698	3698	3698	3659	3659	3659	3659	3659	3659	3659	3659	3659	3659	3659	3659	3659	3659	3659	3659	3659	3659	3659	3659	3659	3621	3621	3621	3621	3621	3583	3583	3621	3621	3621	3621	3621	3621	3621	3621	3621	3621	3621	3621	3621	3583	3583	3583	3583	3546	3621	3583	3621	3621	3621	3621	3583	3583	3621	3583	3583	3583	3583	3583	3583	3583	3583	3583	3583	3583	3583	3583	3583	3583	3583	3546	3583	3546	3546	3546	3546	3546	3546	3546	3546	3546	3546	0	0	0	0	0	0	0	0	0	0	0	0	0	0	0	0	0	0	0	0	0	0	0	0	0	0	0	0	0	0	0	0	0	0	0
0	0	0	0	0	0	0	0	0	0	1512	1512	1512	1512	1512	1512	1512	1512	1512	1512	1512	1512	1512	1512	1512	1512	1519	1512	1512	1512	1512	1512	1512	1512	1512	1512	1512	1519	1519	1519	1519	1519	1519	1519	1525	1532	1539	1539	1539	1539	1539	1546	1546	0	1947	1947	1936	1936	1925	1925	1915	1915	1904	1904	1904	1904	1915	1925	1936	1936	1936	1936	1936	1936	1936	1936	1936	1936	1936	1936	1936	1925	1925	1925	1925	1915	1915	1915	1915	1925	1925	1925	1936	1936	1936	1936	1947	1947	1958	1958	1958	1958	1958	1969	1969	2629	2629	2629	2609	2609	2609	2609	2589	2589	2589	2589	2589	2589	2589	2589	2589	2609	2609	2609	2609	2609	2609	2629	2629	2609	2609	2609	2589	2589	2589	2589	2570	2570	2589	2589	2589	2589	2570	2589	2609	2609	2609	2609	2609	2589	2589	2589	2589	2589	2589	2609	2609	2609	2609	2609	2629	2629	2629	2629	2629	2629	2629	3583	3583	3583	3583	3583	3583	3546	3546	3546	3546	3546	3546	3583	3583	3583	3621	3621	3659	3659	3698	3698	3698	3698	3698	3698	3659	3659	3659	3659	3659	3659	3659	3659	3659	3698	3659	3659	3659	3659	3659	3698	3698	3698	3698	3698	3698	3698	3698	3698	3698	3698	3698	3698	3698	3738	3738	3738	3738	3738	3738	3738	3738	3738	3779	3779	3779	3779	3738	3738	3738	3738	3738	3738	3738	3738	3738	3738	3738	3738	3738	3738	3738	3738	3738	3738	3738	3738	3738	3738	3738	3738	3738	3738	3738	3738	3738	3738	3738	3738	3738	3738	3738	3738	3738	3738	3738	3738	3738	3738	3738	3738	3738	3698	3738	3738	3738	3738	3738	3738	3738	3738	3738	3738	3698	3698	3698	3698	3698	3698	3698	3698	3698	3698	3698	3698	3698	3698	3698	3698	3698	3698	3698	3698	3309	3309	3277	3309	3309	3309	3309	3309	3277	3277	3246	3246	3246	3246	3246	3246	3216	3216	3216	3216	3246	3246	3246	3246	0	0	0	0	0	3659	3698	3698	3698	3698	3698	3698	3698	3738	3698	3698	3698	3738	3698	3738	3698	3698	3698	3698	3659	3659	3659	3659	3659	3698	3698	3698	3698	3698	3698	3698	3659	3659	3698	3659	3659	3698	3698	3698	3698	3698	3698	3698	3659	3659	3659	3659	3659	3659	3621	3621	3621	3621	3659	3621	3659	3621	3659	3659	3738	3698	3698	3698	3698	3659	3659	3659	3659	3659	3659	3659	3659	3659	3659	3659	3659	3659	3659	3659	3659	3659	3659	3659	3659	3659	3659	3659	3659	3659	3659	3659	3659	3659	3659	3659	3659	3659	3659	3659	3659	3659	3659	3659	3659	3659	3659	3659	3659	3659	3659	3659	3659	3659	3659	3659	3659	3659	3659	3659	3659	3621	3659	3621	3621	3621	3621	3621	3621	3659	3621	3621	3659	3621	3621	3621	3621	3659	3659	3621	3621	3659	3659	3659	3621	3659	3659	3659	3659	3659	3659	3659	3659	3659	3698	3659	3659	3659	3659	3659	3659	3659	3659	3659	3659	3659	3659	3659	3659	3659	3659	3659	3659	3659	3659	3659	3659	3659	3659	3659	3659	3698	3698	3698	3659	3659	3659	3659	3659	3659	3659	3659	3659	3659	3659	3659	3659	3659	3659	3659	3659	3659	3659	3659	3659	3621	3621	3621	3621	3621	3583	3583	3621	3621	3621	3621	3621	3583	3621	3621	3583	3621	3621	3621	3583	3583	3583	3583	3583	3583	3621	3583	3621	3621	3621	3621	3621	3583	3621	3583	3583	3583	3583	3583	3583	3583	3583	3583	3583	3583	3583	3583	3583	3583	3583	3546	3583	3546	3546	3546	3546	3546	3546	3546	3546	3546	3546	0	0	0	0	0	0	0	0	0	0	0	0	0	0	0	0	0	0	0	0	0	0	0	0	0	0	0	0	0	0	0	0	0	0	0
0	0	0	0	0	0	0	0	0	0	1512	1512	1512	1512	1519	1512	1519	1519	1512	1512	1512	1512	1512	1512	1512	1512	1512	1512	1512	1512	1512	1512	1512	1512	1512	1512	1512	1519	1519	1519	1519	1519	1519	1519	1525	1532	1539	1539	1539	1539	1546	1546	1546	0	1969	1958	1947	1936	1936	1936	1925	1925	1925	1915	1915	1925	1925	1936	1947	1947	1947	1947	1947	1947	1947	1947	1947	1947	1936	1947	1936	1936	1936	1936	1925	1925	1925	1925	1925	1936	1936	1936	1947	1936	1936	1947	1947	1958	1969	1969	1969	1969	1969	1969	1969	1980	1980	2629	2609	2609	2609	2609	2589	2609	2609	2589	2609	2609	2609	2609	2609	2609	2609	2609	2609	2609	2609	2609	2609	2609	2609	2609	2609	2589	2589	2589	2589	2589	2589	2589	2589	2589	2589	2589	2609	2609	2609	2609	2589	2589	2589	2589	2589	2589	2589	2609	2609	2609	2609	2609	2629	2629	2609	2609	2609	2609	2609	3583	3583	3583	3583	3583	3546	3546	3546	3546	3546	3546	3546	3546	3583	3583	3583	3621	3621	3659	3698	3698	3698	3698	3698	3698	3698	3659	3659	3659	3659	3659	3659	3698	3698	3698	3659	3659	3659	3659	3659	3659	3698	3698	3698	3698	3698	3698	3698	3698	3698	3698	3698	3698	3698	3738	3738	3738	3738	3738	3738	3738	3738	3738	3779	3779	3738	3738	3738	3738	3738	3738	3738	3738	3738	3698	3738	3738	3698	3738	3738	3738	3738	3738	3738	3738	3738	3738	3738	3738	3738	3738	3738	3738	3738	3738	3738	3738	3738	3738	3738	3738	3738	3738	3738	3738	3738	3738	3738	3738	3738	3738	3738	3738	3738	3738	3738	3738	3738	3738	3738	3738	3738	3698	3698	3698	3698	3698	3698	3698	3698	3698	3698	3698	3698	3698	3698	3698	3698	3698	3698	3659	3659	3698	3309	3309	3309	3309	3309	3309	3309	3277	3277	3277	3246	3277	3246	3246	3246	3246	3216	3216	3216	3216	3246	3246	3246	3246	3246	0	0	0	0	3621	3698	3698	3698	3698	3698	3698	3698	3738	3698	3698	3698	3738	3698	3698	3698	3698	3698	3698	3659	3659	3659	3659	3659	3698	3698	3698	3659	3659	3659	3659	3659	3659	3659	3659	3659	3698	3698	3698	3698	3698	3698	3659	3659	3659	3659	3659	3659	3621	3621	3621	3621	3621	3659	3621	3659	3621	3659	3698	3738	3698	3738	3698	3698	3698	3698	3659	3659	3659	3659	3659	3659	3659	3659	3659	3659	3659	3659	3659	3659	3659	3659	3659	3659	3659	3659	3659	3659	3659	3659	3659	3659	3659	3659	3659	3659	3659	3659	3659	3659	3659	3659	3659	3659	3659	3659	3659	3659	3659	3659	3659	3659	3659	3659	3659	3659	3659	3659	3659	3659	3621	3659	3659	3659	3659	3659	3621	3659	3659	3621	3659	3659	3621	3621	3621	3621	3621	3621	3621	3621	3621	3621	3621	3621	3659	3659	3659	3659	3659	3659	3659	3659	3698	3698	3659	3698	3698	3698	3698	3659	3659	3659	3659	3659	3659	3659	3659	3659	3659	3659	3698	3698	3659	3659	3659	3659	3659	3659	3659	3659	3698	3698	3698	3659	3659	3659	3659	3659	3659	3659	3659	3659	3659	3659	3659	3659	3659	3659	3659	3659	3659	3659	3659	3621	3621	3621	3621	3621	3621	3583	3583	3583	3621	3621	3583	3583	3583	3583	3621	3583	3621	3621	3621	3621	3583	3583	3583	3583	3583	3621	3621	3621	3621	3621	3621	3621	3583	3621	3583	3583	3583	3583	3583	3583	3583	3583	3583	3583	3583	3583	3583	3583	3583	3583	3546	3546	3546	3546	3546	3546	3546	3546	3546	3546	3546	3546	0	0	0	0	0	0	0	0	0	0	0	0	0	0	0	0	0	0	0	0	0	0	0	0	0	0	0	0	0	0	0	0	0	0	0
0	0	0	0	0	0	0	0	0	0	1512	1512	1512	1512	1519	1512	1519	1519	1519	1512	1512	1512	1512	1506	1512	1512	1512	1512	1512	1512	1512	1512	1512	1512	1506	1512	1512	1512	1512	1519	1519	1519	1519	1519	1525	1525	1532	1532	1539	1539	1546	1546	1546	1980	1969	1958	1958	1958	1947	1947	1936	1936	1936	1925	1936	1936	1936	1947	1947	1958	1958	1958	1947	1958	1958	1958	1947	1947	1947	1947	1958	1958	1947	1947	1947	1947	1947	1947	1947	1947	1947	1947	1947	1947	1947	1947	1958	1969	1969	1969	1969	1969	1980	1980	1969	1980	1980	2629	2609	2609	2609	2609	2609	2609	2609	2609	2609	2609	2609	2609	2609	2629	2609	2609	2609	2609	2609	2609	2609	2609	2609	2609	2589	2589	2589	2589	2570	2570	2589	2589	2589	2589	2589	2589	2609	2609	2609	2609	2589	2589	2589	2589	2589	2589	2589	2609	2609	2609	2609	2609	2629	2609	2609	2609	2629	2629	2609	3583	3583	3546	3546	3546	3546	3546	3546	3546	3546	3546	3546	3546	3546	3583	3546	3546	3583	3583	3621	3621	3659	3698	3698	3698	3698	3659	3659	3659	3659	3659	3698	3698	3698	3698	3659	3659	3659	3659	3659	3659	3698	3698	3698	3698	3698	3698	3698	3698	3698	3698	3698	3698	3698	3738	3738	3738	3738	3698	3738	3738	3738	3738	3779	3738	3738	3738	3738	3738	3738	3738	3738	3738	3738	3698	3738	3738	3698	3738	3738	3738	3738	3738	3738	3738	3738	3738	3738	3738	3738	3738	3738	3738	3738	3738	3738	3738	3738	3738	3738	3738	3738	3738	3738	3738	3738	3738	3738	3738	3738	3738	3738	3738	3738	3738	3738	3698	3698	3698	3698	3698	3738	3698	3698	3698	3698	3698	3698	3698	3698	3698	3698	3698	3698	3698	3698	3698	3698	3698	3698	3659	3659	3309	3309	3309	3277	3309	3309	3309	3277	3277	3277	3246	3246	3246	3246	3246	3246	3246	3216	3216	3216	3216	3216	3246	3246	3277	3277	0	0	0	0	3621	3659	3698	3698	3698	3698	3698	3698	3738	3698	3698	3698	3698	3698	3698	3698	3698	3659	3659	3659	3659	3659	3659	3659	3698	3698	3698	3659	3659	3659	3659	3659	3659	3659	3659	3659	3698	3698	3698	3698	3659	3698	3698	3659	3659	3659	3659	3659	3659	3621	3659	3621	3621	3621	3621	3659	3621	3659	3698	3738	3698	3738	3698	3738	3698	3698	3659	3659	3659	3659	3659	3659	3659	3659	3659	3698	3698	3698	3659	3659	3659	3659	3659	3659	3659	3659	3659	3659	3659	3659	3659	3659	3659	3659	3659	3659	3659	3659	3659	3659	3659	3659	3659	3659	3659	3659	3659	3659	3659	3659	3659	3659	3659	3659	3659	3659	3659	3659	3659	3659	3659	3659	3659	3659	3621	3659	3621	3659	3659	3621	3621	3621	3621	3621	3621	3621	3621	3621	3621	3621	3621	3621	3621	3621	3659	3659	3659	3659	3659	3659	3659	3659	3659	3698	3698	3698	3698	3698	3698	3659	3659	3659	3659	3659	3659	3659	3659	3659	3659	3659	3698	3659	3659	3659	3659	3659	3659	3659	3659	3659	3659	3698	3659	3659	3659	3659	3659	3659	3621	3659	3659	3659	3659	3659	3659	3659	3659	3659	3659	3659	3659	3659	3659	3659	3621	3621	3621	3621	3583	3583	3583	3583	3621	3621	3621	3583	3583	3583	3621	3583	3583	3583	3621	3621	3583	3583	3583	3583	3583	3621	3621	3621	3621	3621	3621	3621	3583	3583	3583	3583	3583	3583	3583	3583	3583	3583	3583	3583	3583	3583	3583	3583	3583	3583	3546	3546	3546	3546	3546	3546	3510	3546	3546	3546	3546	3546	0	0	0	0	0	0	0	0	0	0	0	0	0	0	0	0	0	0	0	0	0	0	0	0	0	0	0	0	0	0	0	0	0	0	0
0	0	0	0	0	0	0	0	0	0	1512	1512	1512	1512	1519	1512	1519	1519	1512	1512	1512	1512	1512	1512	1512	1512	1512	1506	1506	1506	1512	1512	1512	1512	1512	1512	1512	1512	1512	1519	1519	1519	1519	1519	1525	1525	1525	1532	1539	1539	1539	1546	1969	1969	1969	1958	1958	1958	1958	1947	1936	1936	1936	1936	1947	1947	1947	1958	1958	1969	1969	1969	1969	1969	1969	1969	1969	1958	1969	1969	1969	1969	1958	1958	1958	1958	1958	1958	1958	1958	1958	1958	1958	1958	1958	1958	1969	1969	1969	1969	1969	1980	1980	1980	1980	1980	1980	1980	2609	2609	2609	2609	2589	2609	2609	2609	2609	2609	2609	2609	2609	2609	2609	2609	2589	2609	2609	2609	2609	2589	2589	2589	2589	2589	2589	2570	2570	2570	2589	2589	2589	2589	2589	2589	2609	2609	2609	2609	2609	2589	2589	2589	2589	2589	2589	2609	2609	2609	2609	2609	2609	2609	2609	2609	2609	2609	3546	3546	3546	3546	3546	3546	3546	3546	3546	3546	3546	3546	3546	3546	3546	3546	3546	3546	3546	3583	3583	3659	3659	3698	3698	3698	3698	3659	3659	3698	3698	3698	3659	3698	3698	3659	3659	3659	3659	3659	3659	3659	3698	3698	3698	3698	3698	3698	3698	3698	3698	3698	3698	3698	3698	3738	3738	3738	3738	3698	3738	3738	3738	3738	3779	3738	3738	3738	3738	3738	3738	3738	3738	3738	3738	3738	3738	3738	3698	3738	3698	3738	3738	3738	3738	3738	3738	3738	3738	3738	3738	3738	3738	3698	3698	3738	3738	3738	3738	3738	3738	3738	3738	3738	3738	3738	3738	3738	3738	3738	3738	3738	3738	3698	3698	3738	3738	3698	3698	3698	3698	3698	3698	3698	3698	3698	3698	3698	3698	3698	3698	3698	3698	3698	3698	3698	3698	3698	3698	3698	3698	3659	3659	3309	3309	3277	3246	3246	3277	3277	3277	3277	3277	3277	3246	3277	3277	3246	3277	3246	3246	3246	3216	3216	3216	3246	3246	3277	3277	0	0	0	0	3659	3659	3698	3698	3659	3659	3698	3698	3698	3698	3698	3698	3698	3698	3698	3698	3698	3698	3698	3659	3659	3659	3698	3698	3698	3698	3698	3659	3698	3659	3659	3659	3659	3659	3659	3659	3659	3659	3659	3659	3659	3659	3659	3659	3659	3659	3659	3659	3659	3659	3659	3659	3659	3659	3659	3659	3621	3659	3698	3738	3698	3738	3738	3738	3698	3659	3659	3659	3659	3659	3659	3659	3659	3659	3659	3698	3698	3698	3659	3659	3659	3659	3659	3659	3659	3659	3659	3659	3659	3659	3659	3659	3659	3659	3659	3659	3659	3659	3659	3659	3659	3659	3659	3659	3659	3659	3659	3659	3659	3659	3659	3659	3659	3659	3659	3659	3659	3659	3659	3659	3659	3659	3659	3621	3621	3659	3621	3621	3659	3621	3621	3659	3621	3659	3621	3621	3621	3621	3621	3621	3621	3621	3621	3621	3659	3659	3659	3659	3659	3659	3659	3659	3659	3659	3659	3659	3659	3659	3659	3659	3659	3659	3659	3659	3659	3659	3659	3659	3659	3659	3698	3659	3659	3659	3659	3659	3659	3659	3659	3659	3659	3698	3659	3659	3659	3659	3659	3659	3659	3659	3659	3659	3659	3659	3659	3659	3659	3659	3659	3659	3659	3659	3659	3659	3621	3621	3621	3621	3583	3583	3583	3583	3621	3621	3583	3583	3583	3583	3583	3583	3583	3583	3583	3583	3583	3583	3583	3583	3583	3621	3621	3621	3621	3621	3621	3583	3583	3583	3583	3583	3583	3583	3583	3583	3583	3583	3583	3583	3583	3583	3583	3583	3583	3583	3583	3583	3583	3546	3546	3546	3546	3546	3546	3546	3546	3546	0	0	0	0	0	0	0	0	0	0	0	0	0	0	0	0	0	0	0	0	0	0	0	0	0	0	0	0	0	0	0	0	0	0	0
0	0	0	0	0	0	0	0	0	0	1512	1512	1512	1512	1512	1512	1519	1519	1512	1512	1512	1512	1512	1512	1512	1512	1512	1512	1512	1512	1512	1512	1512	1512	1506	1506	1506	1512	1512	1512	1519	1519	1519	1525	1525	1525	1525	1532	1532	1539	1539	1546	1969	1969	1969	1958	1958	1958	1958	1958	1958	1958	1969	1969	1969	1969	1969	1980	1980	1980	1980	1969	1969	1969	1969	1969	1969	1969	1969	1969	1969	1969	1969	1969	1969	1969	1969	1969	1969	1969	1969	1969	1969	1969	1969	1969	1980	1980	1980	1980	1980	1980	1980	1980	1980	1992	1992	1992	2589	2609	2609	2609	2589	2609	2609	2609	2609	2609	2589	2609	2609	2609	2609	2589	2589	2589	2609	2589	2609	2589	2589	2589	2589	2589	2589	2570	2570	2570	2570	2589	2589	2570	2570	2570	2609	2609	2589	2589	2589	2589	2589	2589	2589	2589	2589	2589	2609	2589	2589	2609	2609	2609	2609	2609	2609	2609	3546	3546	3546	3546	3546	3546	3546	3546	3546	3546	3546	3546	3546	3546	3546	3546	3546	3546	3546	3583	3583	3621	3659	3698	3698	3698	3698	3659	3659	3698	3698	3698	3659	3698	3698	3659	3659	3659	3659	3659	3659	3659	3698	3698	3698	3698	3698	3738	3738	3698	3698	3698	3698	3698	3698	3698	3738	3738	3698	3698	3738	3738	3738	3738	3779	3779	3738	3738	3738	3738	3738	3738	3738	3738	3738	3738	3738	3738	3698	3738	3738	3738	3738	3738	3738	3738	3738	3738	3738	3738	3738	3738	3738	3698	3698	3698	3738	3738	3698	3738	3738	3738	3738	3738	3738	3738	3738	3738	3738	3738	3738	3738	3738	3698	3698	3738	3738	3738	3698	3698	3698	3698	3738	3698	3698	3698	3698	3698	3698	3698	3698	3698	3698	3698	3698	3698	3698	3698	3698	3659	3659	3659	3659	3309	3246	3246	3246	3277	3277	3277	3277	3246	3246	3246	3246	3246	3246	3246	3246	3246	3246	3246	3216	3216	3216	3246	3246	3277	3309	3309	0	0	0	3698	3659	3698	3698	3659	3659	3698	3698	3698	3698	3698	3698	3698	3698	3698	3659	3659	3659	3659	3659	3659	3659	3698	3698	3698	3659	3698	3659	3698	3659	3659	3659	3659	3659	3659	3659	3659	3659	3698	3698	3659	3659	3659	3659	3659	3659	3659	3659	3659	3659	3659	3659	3659	3659	3659	3659	3659	3659	3698	3738	3698	3698	3698	3698	3698	3698	3659	3659	3659	3659	3659	3659	3659	3659	3659	3659	3698	3659	3659	3659	3659	3659	3659	3659	3659	3659	3659	3659	3659	3659	3659	3659	3659	3659	3659	3659	3659	3659	3659	3659	3659	3659	3659	3659	3659	3659	3659	3659	3659	3659	3659	3659	3659	3659	3659	3659	3659	3659	3659	3659	3659	3659	3659	3621	3621	3621	3621	3621	3621	3621	3621	3621	3621	3659	3621	3621	3621	3621	3621	3621	3621	3583	3621	3621	3659	3659	3659	3659	3659	3659	3659	3659	3659	3659	3659	3659	3659	3659	3659	3659	3659	3659	3659	3659	3659	3659	3659	3659	3659	3659	3659	3659	3659	3659	3659	3659	3659	3659	3659	3659	3659	3659	3659	3659	3659	3659	3659	3659	3659	3659	3659	3659	3659	3659	3659	3659	3659	3659	3659	3659	3659	3659	3659	3659	3621	3621	3621	3621	3621	3583	3583	3583	3621	3621	3621	3583	3583	3583	3583	3583	3583	3583	3583	3621	3583	3583	3583	3583	3583	3621	3621	3621	3621	3621	3621	3583	3583	3583	3583	3583	3583	3583	3583	3583	3621	3621	3583	3583	3583	3583	3583	3583	3583	3583	3583	3583	3583	3546	3546	3546	3546	3546	3546	3546	3546	3546	0	0	0	0	0	0	0	0	0	0	0	0	0	0	0	0	0	0	0	0	0	0	0	0	0	0	0	0	0	0	0	0	0	0	0
0	0	0	0	0	0	0	0	0	0	1519	1512	1512	1512	1512	1512	1512	1512	1512	1512	1512	1512	1512	1512	1512	1512	1512	1512	1512	1512	1512	1512	1512	1512	1512	1512	1512	1512	1512	1512	1512	1519	1519	1519	1525	1525	1532	1539	1539	1546	1546	1546	2003	1992	1980	1980	1969	1969	1969	1969	1969	1969	1969	1969	1980	1980	1980	1980	1980	1980	1980	1980	1980	1980	1980	1980	1980	1980	1980	1980	1980	1980	1980	1969	1969	1969	1969	1969	1969	1969	1980	1980	1969	1969	1969	1980	1980	1980	1980	1980	1980	1992	1992	1992	1992	1992	1992	2003	1992	1992	2609	2589	2589	2589	2589	2609	2609	2589	2589	2609	2609	2609	2589	2589	2589	2589	2609	2589	2609	2589	2589	2589	2589	2589	2589	2589	2589	2570	2589	2589	2589	2570	2570	2570	2609	2609	2589	2589	2589	2589	2609	2589	2589	2589	2589	2589	2609	2589	2589	2589	2609	2609	2609	2609	2609	2609	0	3546	3546	3546	3546	3546	3546	3546	3546	3546	3546	3546	3546	3546	3546	3546	3546	3546	3546	3546	3583	3621	3659	3698	3698	3698	3698	3659	3659	3659	3659	3698	3659	3659	3659	3659	3659	3659	3659	3659	3659	3659	3698	3698	3698	3698	3698	3698	3738	3698	3698	3698	3698	3698	3698	3698	3698	3698	3698	3698	3698	3698	3738	3738	3779	3779	3738	3738	3738	3738	3738	3738	3738	3738	3738	3738	3738	3738	3738	3738	3738	3738	3738	3738	3738	3738	3738	3738	3738	3738	3738	3738	3738	3698	3698	3698	3698	3738	3698	3698	3738	3738	3738	3738	3738	3738	3738	3738	3738	3738	3738	3738	3698	3698	3698	3738	3738	3698	3698	3698	3698	3738	3738	3738	3698	3738	3738	3698	3738	3698	3698	3698	3698	3698	3698	3698	3698	3698	3698	3659	3659	3659	3659	0	3277	3277	3246	3277	3277	3277	3246	3246	3246	3246	3246	3246	3246	3246	3246	3246	3246	3246	3246	3246	3216	3246	3246	3277	3309	3309	3309	0	0	3698	3698	3698	3698	3698	3698	3698	3698	3698	3698	3698	3698	3698	3698	3698	3659	3659	3659	3659	3698	3659	3659	3698	3698	3659	3659	3659	3659	3698	3659	3659	3659	3659	3659	3659	3659	3659	3659	3659	3659	3659	3659	3659	3659	3659	3659	3659	3659	3659	3659	3659	3659	3659	3659	3659	3659	3621	3659	3659	3698	3698	3698	3698	3698	3698	3659	3659	3659	3659	3659	3659	3659	3698	3659	3659	3659	3659	3659	3659	3659	3659	3659	3659	3659	3659	3659	3659	3659	3659	3659	3659	3659	3659	3659	3659	3659	3659	3659	3659	3659	3659	3659	3659	3659	3659	3659	3659	3659	3659	3659	3659	3659	3659	3659	3659	3659	3659	3659	3659	3659	3659	3659	3659	3621	3621	3621	3621	3621	3621	3621	3621	3621	3621	3659	3621	3621	3621	3621	3621	3621	3583	3583	3621	3621	3621	3659	3659	3659	3659	3659	3659	3659	3659	3659	3659	3659	3659	3659	3659	3659	3659	3659	3659	3659	3659	3659	3659	3659	3659	3659	3659	3659	3659	3659	3659	3659	3659	3659	3659	3659	3659	3659	3659	3659	3659	3659	3659	3659	3659	3659	3659	3659	3659	3659	3659	3659	3659	3659	3659	3621	3621	3659	3659	3659	3621	3621	3621	3621	3583	3583	3583	3583	3621	3621	3621	3583	3583	3583	3583	3583	3583	3583	3583	3583	3583	3583	3583	3583	3583	3621	3621	3621	3621	3621	3621	3621	3583	3583	3583	3583	3583	3583	3583	3621	3583	3621	3583	3583	3583	3583	3583	3583	3583	3583	3583	3583	3583	3546	3546	3546	3546	3546	3510	3546	3546	3546	0	0	0	0	0	0	0	0	0	0	0	0	0	0	0	0	0	0	0	0	0	0	0	0	0	0	0	0	0	0	0	0	0	0	0
0	0	0	0	0	0	0	0	0	0	1519	1519	1512	1512	1512	1512	1512	1512	1512	1512	1512	1512	1512	1512	1512	1512	1512	1512	1512	1512	1512	1512	1512	1512	1512	1512	1506	1512	1512	1512	1512	1519	1519	1519	1525	1525	1532	1532	1539	1539	1546	2039	2039	2015	1992	1980	1969	1969	1980	1980	1969	1969	1980	1980	1980	1980	1980	1980	1992	1980	1980	1980	1980	1980	1980	1980	1980	1980	1980	1980	1980	1980	1980	1980	1980	1980	1980	1980	1980	1980	1980	1980	1980	1980	1980	1992	2003	1992	2003	2003	1992	2003	2003	2003	1992	1992	1992	2003	2003	2003	2609	2589	2589	2589	2589	2609	2609	2609	2589	2609	2609	2609	2609	2589	2589	2589	2609	2589	2609	2589	2589	2589	2589	2589	2589	2570	2570	2570	2589	2589	2589	2570	2570	2570	2609	2609	2609	2609	2609	2609	2609	2589	2589	2589	2589	2589	2609	2589	2589	2589	2589	2609	2609	2609	2629	2629	0	3546	3546	3546	3510	3510	3510	3546	3510	3546	3546	3546	3546	3546	3546	3546	3546	3546	3546	3583	3583	3621	3659	3698	3698	3698	3698	3698	3659	3659	3659	3659	3659	3659	3659	3659	3659	3659	3659	3659	3659	3659	3659	3698	3698	3698	3698	3698	3698	3698	3698	3698	3698	3698	3698	3698	3698	3698	3698	3698	3698	3698	3698	3738	3779	3738	3738	3738	3738	3738	3738	3738	3738	3738	3738	3738	3738	3738	3738	3738	3738	3738	3738	3738	3738	3738	3738	3738	3738	3738	3698	3698	3698	3698	3698	3698	3698	3738	3698	3738	3738	3738	3738	3738	3738	3738	3738	3738	3698	3738	3738	3738	3738	3698	3698	3738	3738	3698	3698	3698	3698	3698	3698	3698	3698	3698	3738	3698	3698	3698	3698	3698	3698	3698	3698	3698	3698	3698	3698	3698	3659	3659	3659	3309	3309	3277	3246	3277	3277	3277	3246	3246	3246	3246	3246	3246	3246	3246	3246	3246	3246	3246	3246	3246	3246	3246	3246	3246	3309	3309	3309	0	3698	3698	3698	3698	3698	3698	3698	3698	3698	3698	3698	3698	3698	3698	3698	3698	3659	3659	3698	3698	3698	3659	3659	3659	3659	3659	3659	3659	3659	3659	3621	3659	3659	3659	3621	3659	3659	3659	3659	3659	3659	3659	3659	3659	3659	3659	3659	3659	3659	3659	3659	3659	3659	3659	3659	3659	3659	3659	3621	3659	3659	3698	3698	3698	3698	3698	3659	3659	3659	3659	3659	3659	3659	3659	3659	3659	3659	3659	3659	3659	3659	3659	3659	3659	3659	3659	3659	3659	3659	3659	3659	3659	3659	3659	3659	3659	3659	3659	3659	3659	3659	3659	3659	3659	3659	3659	3659	3659	3659	3659	3659	3659	3659	3659	3659	3659	3659	3659	3659	3659	3659	3659	3659	3659	3659	3621	3659	3621	3621	3621	3621	3621	3621	3621	3659	3621	3621	3621	3621	3621	3621	3621	3583	3621	3621	3659	3659	3659	3659	3659	3659	3659	3659	3659	3659	3659	3659	3659	3659	3659	3659	3659	3659	3659	3659	3659	3659	3659	3659	3659	3659	3659	3659	3659	3659	3659	3659	3659	3659	3659	3659	3659	3659	3659	3659	3659	3659	3659	3659	3659	3659	3659	3659	3659	3659	3659	3659	3659	3659	3659	3621	3621	3621	3659	3659	3621	3621	3621	3621	3583	3583	3583	3583	3583	3621	3621	3621	3583	3583	3583	3583	3583	3583	3583	3583	3583	3583	3583	3583	3583	3621	3621	3621	3621	3621	3621	3621	3583	3583	3583	3583	3583	3583	3583	3583	3583	3583	3583	3583	3583	3583	3583	3583	3583	3583	3583	3546	3583	3546	3546	3546	3546	3546	3510	3546	3546	3546	0	0	0	0	0	0	0	0	0	0	0	0	0	0	0	0	0	0	0	0	0	0	0	0	0	0	0	0	0	0	0	0	0	0	0
0	0	0	0	0	0	0	0	0	0	1519	1519	1512	1512	1512	1519	1519	1512	1512	1512	1512	1512	1512	1512	1512	1512	1512	1512	1512	1512	1512	1512	1512	1506	1512	1506	1506	1512	1512	1512	1512	1519	1519	1525	1525	1532	1539	1539	1539	1539	0	2027	2039	2015	2003	1992	1980	1980	1980	1992	1980	1980	1992	1992	1992	1992	1992	1992	2003	1992	1992	1992	1992	1992	1992	1980	1992	1992	1992	1992	1992	1992	1992	1980	1992	1980	1980	1980	1980	1980	1992	1992	1980	1992	1992	1992	2015	2003	2015	2015	2015	2015	2015	2015	2003	2003	2003	2015	2027	2027	2027	2027	2589	2589	2589	2609	2609	2609	2589	2609	2609	2609	2609	2589	2589	2589	2609	2589	2609	2589	2589	2589	2589	2589	2589	2589	2589	2589	2589	2589	2589	2589	2589	2589	2609	2609	2609	2609	2609	2609	2609	2609	2609	2589	2589	2589	2609	2589	2589	2589	2609	2609	2589	2609	2629	2629	0	3546	3546	3546	3510	3510	3510	3546	3510	3510	3546	3546	3546	3546	3546	3546	3546	3546	3546	3583	3583	3621	3659	3659	3698	3698	3698	3659	3698	3659	3659	3659	3659	3659	3659	3659	3659	3659	3659	3659	3659	3659	3698	3698	3698	3698	3698	3698	3698	3698	3698	3698	3698	3698	3698	3698	3698	3698	3698	3698	3698	3698	3698	3698	3738	3738	3738	3738	3738	3738	3738	3738	3738	3738	3738	3738	3738	3738	3738	3738	3738	3738	3738	3738	3738	3738	3738	3738	3738	3738	3698	3698	3698	3698	3698	3698	3698	3738	3738	3738	3738	3738	3738	3738	3738	3738	3738	3738	3698	3698	3698	3698	3698	3698	3698	3698	3698	3698	3698	3698	3698	3698	3698	3698	3698	3698	3738	3698	3698	3698	3698	3698	3698	3698	3698	3698	3698	3698	3698	3698	3659	3659	3659	3309	3309	3246	3246	3277	3277	3246	3246	3246	3216	3246	3246	3246	3246	3246	3246	3246	3246	3246	3246	3246	3246	3246	3246	3246	3246	3246	3246	0	3738	3738	3698	3698	3698	3698	3698	3698	3698	3698	3698	3698	3698	3698	3698	3698	3659	3659	3659	3659	3698	3659	3659	3659	3659	3659	3659	3659	3659	3659	3659	3659	3659	3659	3659	3659	3659	3659	3659	3659	3659	3659	3659	3659	3659	3659	3659	3659	3698	3659	3659	3659	3659	3659	3659	3621	3621	3621	3621	3659	3698	3698	3698	3698	3698	3698	3659	3659	3659	3659	3659	3659	3659	3698	3659	3659	3659	3659	3659	3659	3659	3659	3659	3659	3659	3659	3659	3659	3659	3659	3659	3659	3659	3659	3659	3659	3659	3659	3659	3659	3659	3659	3659	3659	3659	3659	3659	3659	3659	3659	3659	3659	3659	3659	3659	3659	3659	3659	3659	3659	3659	3659	3659	3659	3621	3621	3621	3621	3621	3621	3621	3621	3621	3621	3659	3621	3621	3621	3621	3621	3621	3621	3621	3621	3621	3659	3659	3659	3698	3659	3659	3659	3659	3659	3659	3659	3659	3659	3621	3659	3621	3659	3659	3621	3621	3659	3659	3659	3659	3659	3659	3659	3659	3659	3659	3659	3659	3659	3659	3659	3659	3659	3659	3659	3659	3659	3659	3659	3659	3659	3659	3659	3659	3659	3659	3659	3659	3659	3621	3659	3621	3621	3621	3621	3621	3621	3621	3621	3621	3621	3583	3583	3583	3621	3621	3621	3621	3583	3583	3583	3583	3583	3583	3583	3583	3583	3583	3583	3583	3583	3621	3621	3621	3621	3621	3621	3621	3583	3583	3583	3583	3583	3583	3583	3583	3583	3583	3583	3583	3583	3583	3583	3546	3546	3546	3546	3546	3546	3546	3546	3546	3546	3546	3510	3510	3510	3510	0	0	0	0	0	0	0	0	0	0	0	0	0	0	0	0	0	0	0	0	0	0	0	0	0	0	0	0	0	0	0	0	0	0	0
0	0	0	0	0	0	0	0	0	0	1525	1519	1519	1512	1519	1512	1512	1512	1512	1512	1512	1512	1512	1512	1512	1512	1512	1512	1512	1512	1512	1512	1506	1506	1506	1506	1506	1506	1506	1512	1512	1519	1519	1525	1532	1532	1539	1539	1539	1539	0	2027	2027	2015	2015	2003	1992	1992	1992	1992	1992	1992	1992	1992	2003	2003	2003	2003	2015	2003	1992	1992	1992	1992	1992	1992	1992	1992	1992	2003	1992	1992	1992	1992	1992	1992	1992	1992	1992	2003	2003	2003	2003	2003	2003	2015	2015	2015	2027	2015	2015	2015	2015	2015	2015	2015	2015	2015	2027	2039	2027	2027	2589	2589	2609	2609	2609	2609	2609	2609	2609	2589	2589	2589	2589	2589	2589	2589	2589	2589	2589	2589	2589	2589	2589	2589	2589	2589	2589	2589	2589	2589	2589	2589	2589	2609	2609	2609	2609	2609	2609	2609	2609	2609	2589	2589	2589	2589	2589	2589	2609	2609	2589	2609	2629	2629	0	3546	3546	3510	3510	3510	3510	3510	3510	3510	3510	3546	3546	3546	3546	3546	3546	3546	3546	3546	3583	3621	3659	3659	3698	3698	3659	3659	3698	3659	3659	3659	3659	3659	3659	3659	3659	3659	3659	3659	3659	3659	3698	3698	3698	3698	3698	3698	3698	3698	3698	3698	3698	3698	3698	3698	3698	3698	3698	3698	3698	3698	3698	3738	3738	3738	3738	3738	3738	3738	3698	3738	3738	3738	3738	3738	3738	3738	3738	3738	3738	3738	3738	3738	3738	3738	3738	3738	3738	3738	3698	3698	3698	3698	3698	3698	3698	3698	3698	3738	3738	3738	3738	3738	3738	3738	3738	3738	3698	3698	3698	3698	3698	3738	3698	3738	3738	3698	3698	3698	3698	3698	3698	3698	3698	3698	3698	3698	3698	3698	3698	3698	3698	3698	3698	3698	3698	3698	3698	3659	3659	3659	3659	3309	3309	3246	3246	3246	3246	3246	3246	3216	3216	3246	3246	3246	3246	3246	3246	3246	3246	3246	3246	3246	3246	3246	3246	3246	3277	3277	3277	3246	3738	3738	3698	3698	3698	3698	3698	3698	3698	3698	3698	3698	3698	3698	3698	3698	3659	3659	3659	3698	3659	3659	3659	3659	3659	3659	3659	3659	3659	3659	3659	3659	3659	3659	3659	3659	3659	3659	3659	3659	3659	3659	3659	3659	3659	3659	3659	3698	3698	3698	3659	3698	3659	3659	3659	3659	3659	3659	3659	3659	3659	3698	3698	3698	3698	3698	3659	3659	3659	3659	3659	3659	3659	3659	3659	3659	3659	3659	3659	3659	3659	3659	3659	3659	3659	3659	3659	3659	3659	3659	3659	3659	3659	3659	3659	3659	3659	3621	3659	3659	3659	3659	3659	3659	3659	3659	3659	3659	3659	3659	3659	3659	3659	3659	3659	3659	3659	3659	3659	3659	3659	3659	3621	3621	3621	3621	3621	3621	3621	3621	3621	3621	3621	3621	3659	3621	3621	3621	3621	3621	3621	3621	3621	3621	3621	3659	3659	3659	3698	3659	3659	3659	3659	3659	3659	3659	3659	3659	3659	3659	3621	3659	3621	3621	3621	3621	3659	3659	3659	3659	3659	3659	3659	3659	3659	3659	3659	3659	3659	3659	3659	3659	3659	3659	3621	3659	3659	3659	3659	3659	3659	3659	3659	3659	3659	3621	3621	3621	3621	3621	3621	3583	3621	3621	3621	3621	3621	3621	3621	3621	3583	3583	3621	3621	3621	3621	3621	3583	3583	3583	3583	3583	3583	3546	3583	3583	3583	3583	3583	3583	3621	3621	3621	3621	3621	3621	3621	3583	3583	3583	3583	3583	3583	3583	3583	3583	3583	3583	3583	3583	3546	3546	3546	3546	3546	3546	3546	3546	3546	3546	3510	3546	3546	3510	3510	3510	3510	0	0	0	0	0	0	0	0	0	0	0	0	0	0	0	0	0	0	0	0	0	0	0	0	0	0	0	0	0	0	0	0	0	0	0
0	0	0	0	0	0	0	0	0	0	1525	1525	1519	1519	1519	1519	1512	1519	1512	1512	1519	1512	1519	1519	1512	1512	1512	1512	1512	1512	1512	1512	1512	1506	1506	1506	1506	1512	1512	1512	1512	1512	1519	1525	1525	1532	1539	1539	1539	1539	0	2039	2039	2027	2027	2015	2003	2003	2003	2003	2003	1992	2003	2003	2003	2015	2015	2015	2015	2015	2003	2003	2003	2003	2003	2003	2003	2003	2003	2015	2015	2003	2003	2003	2003	2003	2003	2003	2003	2015	2015	2015	2015	2015	2015	2015	2015	2027	2027	2027	2027	2027	2027	2027	2015	2015	2015	2027	2039	2039	2039	2051	2051	2589	2609	2609	2609	2589	2589	2609	2589	2589	2589	2589	2589	2589	2589	2589	2609	2589	2589	2589	2589	2589	2589	2589	2589	2589	2589	2570	2570	2589	2589	2570	2589	2589	2609	2609	2609	2609	2609	2609	2609	2589	2589	2589	2589	2589	2589	2589	2609	2609	2589	2609	2629	2629	0	3546	3546	3510	3510	3510	3510	3510	3510	3510	3510	3510	3510	3510	3510	3510	3510	3546	3546	3546	3583	3583	3659	3659	3698	3698	3659	3659	3659	3659	3659	3659	3659	3659	3659	3659	3659	3659	3659	3659	3659	3659	3698	3698	3698	3698	3698	3698	3698	3698	3698	3698	3698	3698	3698	3698	3698	3698	3698	3738	3738	3738	3738	3738	3779	3738	3738	3738	3738	3698	3698	3738	3738	3738	3738	3738	3738	3738	3738	3738	3738	3738	3738	3738	3738	3738	3738	3738	3738	3738	3698	3698	3698	3698	3698	3698	3698	3698	3698	3738	3738	3738	3738	3738	3738	3738	3738	3698	3698	3698	3698	3698	3698	3698	3698	3698	3698	3698	3698	3698	3698	3698	3698	3698	3698	3698	3698	3698	3698	3698	3698	3698	3698	3698	3698	3698	3698	3698	3698	3698	3659	3659	3659	3309	3309	3277	3246	3277	3246	3246	3246	3246	3216	3246	3246	3246	3246	3246	3246	3246	3246	3246	3246	3246	3246	3246	3246	3246	3277	3277	3246	3246	3246	3779	3698	3698	3738	3738	3698	3698	3698	3698	3698	3698	3698	3698	3698	3698	3659	3659	3698	3698	3698	3659	3659	3659	3659	3621	3621	3659	3659	3659	3659	3698	3698	3698	3659	3659	3659	3659	3621	3659	3659	3621	3659	3659	3659	3659	3698	3698	3698	3698	3698	3698	3698	3698	3698	3659	3659	3659	3659	3659	3659	3698	3698	3659	3698	3698	3659	3659	3659	3659	3659	3659	3659	3659	3659	3659	3659	3659	3659	3659	3659	3659	3659	3659	3659	3659	3659	3659	3659	3659	3659	3659	3659	3659	3659	3659	3659	3659	3659	3659	3659	3659	3659	3659	3659	3659	3659	3659	3659	3659	3659	3659	3659	3659	3659	3659	3659	3659	3621	3659	3659	3621	3621	3621	3621	3621	3621	3621	3621	3621	3621	3621	3621	3621	3621	3621	3621	3621	3621	3621	3621	3621	3621	3621	3621	3659	3659	3659	3698	3698	3659	3659	3659	3659	3659	3659	3659	3659	3621	3621	3621	3659	3621	3621	3621	3621	3621	3659	3659	3659	3659	3659	3659	3659	3659	3659	3659	3659	3659	3659	3659	3659	3659	3659	3659	3659	3659	3659	3659	3659	3659	3659	3659	3659	3659	3621	3621	3621	3621	3621	3621	3583	3621	3621	3621	3621	3621	3621	3621	3621	3583	3583	3621	3583	3621	3583	3583	3583	3621	3583	3583	3546	3546	3546	3583	3583	3583	3583	3583	3583	3621	3621	3621	3621	3621	3621	3621	3583	3583	3583	3546	3546	3583	3583	3583	3583	3583	3583	3583	3583	3546	3546	3546	3546	3546	3546	3546	3546	3510	3546	3510	3546	3510	3510	3510	3510	3510	0	0	0	0	0	0	0	0	0	0	0	0	0	0	0	0	0	0	0	0	0	0	0	0	0	0	0	0	0	0	0	0	0	0	0
0	0	0	0	0	0	0	0	0	0	1532	1525	1519	1519	1519	1519	1512	1519	1512	1512	1512	1512	1512	1512	1512	1512	1512	1512	1512	1512	1506	1512	1506	1506	1506	1506	1506	1506	1512	1512	1512	1512	1519	1519	1525	1532	1539	1539	1539	1539	0	2039	2051	2039	2039	2027	2015	2015	2015	2015	2015	2003	2003	2015	2015	2015	2027	2027	2027	2027	2027	2027	2015	2015	2015	2015	2015	2015	2015	2027	2015	2015	2015	2015	2027	2015	2015	2015	2015	2015	2015	2015	2015	2015	2027	2027	2027	2039	2027	2039	2027	2027	2039	2027	2027	2027	2027	2027	2039	2039	2039	2051	2051	2589	2589	2609	2609	2589	2589	2609	2589	2589	2589	2589	2609	2609	2589	2589	2589	2589	2589	2589	2589	2589	2589	2589	2589	2589	2570	2570	2570	2589	2589	2570	2589	2589	2609	2609	2609	2609	2609	2609	2609	2609	2589	2609	2589	2589	2589	2589	2609	2609	2589	2609	2629	2629	0	3546	3546	3510	3546	3546	3546	3546	3510	3510	3510	3510	3510	3510	3510	3510	3510	3546	3546	3546	3583	3583	3659	3659	3698	3659	3659	3659	3659	3659	3659	3659	3659	3659	3659	3659	3659	3659	3659	3659	3659	3659	3698	3698	3698	3698	3698	3698	3698	3698	3698	3698	3698	3698	3698	3698	3698	3738	3738	3738	3738	3738	3738	3738	3779	3738	3738	3738	3698	3698	3698	3698	3738	3738	3738	3738	3738	3738	3738	3738	3738	3738	3738	3738	3738	3738	3738	3738	3738	3738	3698	3698	3698	3698	3698	3698	3698	3698	3698	3738	3738	3738	3738	3738	3738	3698	3698	3698	3698	3698	3698	3698	3698	3698	3698	3698	3698	3698	3698	3698	3698	3698	3698	3698	3698	3698	3698	3698	3698	3698	3698	3698	3698	3698	3698	3698	3698	3698	3698	3659	3659	3621	3546	3440	3309	3277	3277	3277	3277	3246	3246	3246	3246	3277	3246	3246	3246	3246	3246	3246	3246	3246	3246	3246	3246	3246	3246	3246	3246	3246	3216	3216	3216	3779	3738	3738	3738	3738	3698	3698	3698	3698	3698	3698	3659	3698	3698	3698	3659	3659	3659	3698	3698	3659	3659	3659	3659	3659	3659	3659	3659	3659	3698	3698	3698	3698	3659	3659	3659	3659	3621	3621	3621	3621	3621	3659	3659	3659	3659	3659	3698	3698	3698	3698	3698	3698	3659	3659	3659	3659	3659	3659	3659	3698	3698	3698	3698	3698	3698	3698	3698	3659	3659	3659	3659	3659	3659	3659	3659	3659	3659	3659	3659	3659	3659	3659	3659	3659	3659	3659	3659	3659	3659	3659	3659	3659	3659	3659	3659	3621	3659	3621	3621	3659	3659	3659	3659	3659	3659	3659	3659	3659	3659	3659	3659	3659	3659	3659	3659	3659	3621	3621	3621	3621	3621	3621	3621	3621	3621	3621	3621	3621	3621	3621	3621	3621	3621	3621	3621	3621	3621	3621	3621	3621	3621	3621	3621	3659	3659	3659	3698	3698	3659	3659	3659	3659	3659	3659	3659	3659	3659	3659	3621	3659	3621	3621	3621	3583	3621	3621	3621	3621	3621	3659	3659	3659	3659	3659	3659	3659	3659	3659	3659	3659	3659	3659	3659	3659	3659	3659	3659	3659	3659	3659	3659	3659	3621	3621	3621	3621	3621	3621	3621	3583	3621	3621	3621	3621	3621	3621	3621	3621	3583	3583	3583	3583	3621	3621	3621	3621	3621	3583	3583	3583	3583	3546	3583	3583	3583	3583	3583	3583	3621	3621	3621	3621	3621	3621	3621	3621	3583	3583	3546	3546	3583	3583	3583	3583	3583	3583	3583	3583	3546	3546	3546	3546	3546	3546	3546	3546	3546	3546	3546	3546	3510	3510	3510	3510	3510	0	0	0	0	0	0	0	0	0	0	0	0	0	0	0	0	0	0	0	0	0	0	0	0	0	0	0	0	0	0	0	0	0	0	0
0	0	0	0	0	0	0	0	0	0	1532	1525	1519	1519	1519	1519	1512	1519	1512	1512	1512	1512	1512	1512	1512	1512	1512	1512	1512	1512	1506	1512	1506	1506	1512	1512	1506	1512	1506	1512	1512	1512	1512	1519	1519	1532	1532	1539	1539	1539	0	2039	2051	2039	2039	2027	2027	2027	2027	2027	2027	2015	2015	2015	2027	2027	2027	2039	2039	2039	2039	2051	2039	2027	2027	2027	2027	2027	2027	2027	2027	2027	2027	2027	2027	2027	2027	2027	2027	2027	2027	2027	2027	2027	2027	2039	2039	2039	2039	2039	2039	2039	2039	2039	2027	2027	2027	2027	2039	2039	2027	2039	2051	2051	2589	2589	2589	2589	2589	2589	2589	2570	2570	2570	2570	2609	2589	2589	2589	2589	2589	2589	2589	2589	2589	2589	2589	2570	2570	2570	2570	2589	2589	2570	2609	2609	2609	2609	2609	2609	2609	2609	2609	2589	2589	2589	2589	2589	2589	2589	2609	2609	2589	2609	2609	2629	3546	3546	3546	3546	3546	3546	3546	3546	3510	3510	3510	3510	3510	3510	3510	3510	3510	3546	3546	3546	3583	3583	3621	3659	3698	3659	3659	3659	3659	3659	3659	3659	3659	3659	3659	3659	3698	3698	3698	3698	3698	3698	3698	3698	3698	3698	3698	3698	3698	3698	3698	3698	3698	3698	3698	3698	3698	3738	3738	3738	3698	3738	3698	3698	3738	3738	3738	3738	3698	3698	3698	3698	3698	3738	3698	3738	3738	3738	3738	3738	3738	3738	3738	3738	3738	3738	3738	3738	3738	3738	3698	3698	3698	3698	3698	3698	3698	3698	3698	3738	3738	3738	3738	3738	3738	3698	3698	3698	3698	3698	3698	3698	3698	3698	3698	3698	3698	3698	3698	3698	3698	3698	3698	3698	3698	3698	3698	3698	3698	3698	3698	3698	3698	3698	3698	3698	3698	3698	3698	3659	3659	3583	3510	3406	3309	3309	3277	3277	3277	3277	3277	3277	3246	3277	3246	3246	3216	3216	3216	3246	3246	3246	3246	3246	3246	3246	3216	3246	3246	3246	3216	3216	3216	3738	3738	3738	3738	3738	3738	3698	3698	3698	3698	3698	3659	3698	3698	3698	3659	3659	3659	3698	3698	3659	3659	3659	3659	3659	3659	3659	3698	3698	3698	3738	3698	3698	3659	3659	3659	3659	3621	3621	3621	3621	3621	3659	3659	3659	3698	3698	3698	3698	3698	3698	3698	3698	3659	3659	3659	3659	3659	3659	3659	3698	3698	3698	3698	3698	3659	3698	3698	3659	3659	3659	3659	3659	3659	3659	3659	3659	3659	3659	3659	3659	3659	3659	3659	3659	3659	3659	3659	3659	3659	3659	3659	3659	3659	3659	3659	3621	3621	3621	3621	3659	3621	3659	3621	3659	3659	3659	3659	3659	3659	3659	3659	3659	3621	3621	3621	3659	3621	3621	3621	3621	3621	3621	3621	3621	3621	3621	3621	3621	3621	3621	3621	3621	3621	3621	3621	3621	3659	3621	3621	3621	3621	3659	3659	3659	3659	3698	3698	3698	3659	3659	3698	3659	3659	3659	3659	3659	3659	3659	3659	3659	3621	3621	3621	3621	3621	3621	3621	3621	3621	3621	3659	3659	3659	3659	3659	3659	3659	3659	3659	3659	3659	3659	3659	3659	3659	3659	3659	3659	3659	3659	3621	3621	3621	3583	3583	3583	3583	3621	3621	3583	3583	3621	3621	3621	3621	3621	3621	3621	3583	3583	3583	3583	3621	3583	3621	3583	3621	3583	3583	3583	3583	3583	3583	3583	3583	3583	3583	3583	3621	3621	3621	3621	3621	3583	3583	3583	3583	3583	3546	3546	3583	3546	3546	3546	3546	3546	3546	3546	3546	3546	3546	3546	3510	3546	3546	3546	3546	3546	3510	3510	3510	3510	3510	3510	3510	0	0	0	0	0	0	0	0	0	0	0	0	0	0	0	0	0	0	0	0	0	0	0	0	0	0	0	0	0	0	0	0	0	0	0
0	0	0	0	0	0	0	0	0	0	1525	1519	1519	1519	1519	1519	1519	1519	1512	1512	1512	1512	1512	1512	1512	1512	1506	1506	1512	1512	1506	1512	1506	1506	1512	1512	1506	1506	1506	1512	1512	1512	1512	1519	1519	1532	1539	1539	1539	1539	0	2039	2039	2039	2039	2039	2039	2039	2039	2039	2027	2027	2027	2027	2027	2027	2039	2051	2051	2051	2063	2063	2051	2051	2039	2039	2039	2039	2027	2039	2039	2039	2039	2039	2039	2039	2027	2027	2027	2027	2027	2027	2039	2039	2039	2039	2051	2051	2051	2051	2039	2039	2051	2039	2039	2039	2039	2039	2051	2039	2039	2039	2051	2051	2063	2076	2076	2570	2570	2570	2570	2570	2589	2570	2589	2589	2589	2589	2589	2589	2589	2589	2589	2589	2570	2589	2570	2570	2570	2570	2570	2589	2589	2570	2589	2609	2609	2609	2609	2609	2609	2609	2589	2589	2589	2589	2589	2589	2589	2609	2609	2609	2629	2609	2629	2629	3510	3546	3546	3510	3546	3546	3546	3510	3510	3510	3510	3510	3510	3510	3510	3510	3510	3546	3546	3546	3583	3583	3621	3659	3698	3659	3659	3659	3659	3659	3659	3659	3659	3659	3659	3659	3698	3698	3698	3698	3698	3698	3698	3698	3698	3698	3698	3698	3698	3698	3698	3698	3698	3698	3698	3698	3738	3738	3738	3738	3738	3738	3738	3738	3738	3738	3738	3698	3698	3698	3698	3698	3698	3698	3698	3738	3738	3738	3738	3738	3738	3738	3738	3738	3738	3738	3738	3738	3738	3738	3698	3698	3698	3698	3698	3698	3698	3698	3738	3738	3738	3738	3738	3738	3698	3698	3698	3698	3698	3698	3698	3698	3698	3698	3698	3698	3698	3698	3698	3698	3698	3698	3698	3698	3698	3698	3698	3698	3698	3698	3698	3698	3698	3698	3698	3698	3698	3698	3698	3659	3659	3583	3510	3373	3309	3309	3277	3277	3277	3277	3277	3277	3246	3277	3246	3246	3216	3216	3216	3246	3246	3246	3246	3246	3246	3246	3246	3246	3246	3246	3216	3216	3216	3738	3738	3738	3738	3738	3738	3698	3698	3698	3698	3698	3659	3698	3698	3659	3659	3659	3659	3659	3659	3659	3659	3659	3659	3659	3659	3659	3698	3698	3698	3738	3698	3698	3659	3659	3659	3659	3621	3621	3659	3659	3659	3659	3659	3659	3698	3698	3698	3698	3698	3698	3698	3698	3659	3659	3659	3659	3659	3659	3659	3698	3698	3659	3698	3698	3659	3698	3698	3659	3659	3659	3659	3659	3659	3659	3659	3659	3659	3659	3659	3659	3659	3659	3659	3659	3659	3659	3659	3659	3659	3659	3659	3659	3659	3659	3659	3659	3659	3621	3621	3659	3621	3659	3621	3659	3659	3659	3659	3659	3659	3659	3621	3659	3621	3621	3621	3659	3621	3621	3621	3621	3621	3621	3621	3621	3621	3621	3621	3621	3621	3621	3621	3621	3621	3621	3621	3621	3621	3621	3621	3621	3621	3621	3621	3659	3659	3698	3698	3698	3698	3698	3698	3659	3659	3659	3659	3659	3659	3659	3659	3659	3659	3621	3621	3621	3621	3621	3621	3621	3621	3621	3621	3659	3659	3659	3621	3659	3621	3659	3659	3659	3659	3659	3621	3659	3659	3659	3659	3659	3621	3659	3621	3621	3621	3583	3583	3583	3583	3583	3621	3621	3621	3621	3621	3621	3621	3621	3621	3583	3583	3583	3583	3583	3583	3583	3621	3583	3583	3621	3583	3583	3583	3546	3583	3583	3546	3583	3583	3583	3621	3621	3621	3621	3621	3583	3583	3583	3546	3546	3546	3546	3583	3583	3546	3546	3583	3583	3546	3546	3546	3546	3546	3546	3546	3546	3546	3546	3546	3546	3546	3510	3510	3510	3510	3510	3510	0	0	0	0	0	0	0	0	0	0	0	0	0	0	0	0	0	0	0	0	0	0	0	0	0	0	0	0	0	0	0	0	0	0	0
0	0	0	0	0	0	0	0	0	0	1519	1519	1512	1512	1519	1519	1519	1519	1519	1512	1512	1512	1512	1512	1512	1512	1512	1512	1512	1512	1512	1512	1506	1506	1512	1506	1506	1506	1506	1506	1512	1512	1512	1512	1519	1525	1532	1539	1539	1539	0	2039	2039	2051	2039	2039	2039	2051	2051	2051	2039	2039	2027	2039	2039	2051	2051	2051	2051	2051	2063	2063	2051	2051	2051	2051	2039	2051	2039	2051	2051	2051	2051	2051	2039	2039	2039	2027	2027	2039	2039	2039	2039	2039	2051	2051	2051	2051	2051	2051	2051	2039	2051	2051	2039	2039	2039	2039	2051	2051	2051	2051	2051	2063	2063	2063	2063	2570	2570	2589	2570	2570	2589	2589	2589	2589	2589	2570	2570	2589	2570	2589	2589	2570	2570	2570	2570	2570	2570	2570	2570	2589	2589	2589	2609	2609	2609	2609	2609	2589	2589	2589	2589	2589	2589	2589	2589	2589	2589	2609	2609	2629	2629	2609	2629	2629	3510	3546	3546	3510	3546	3546	3546	3546	3510	3510	3510	3510	3510	3510	3510	3510	3510	3546	3546	3546	3583	3621	3659	3659	3698	3698	3659	3659	3659	3659	3659	3659	3659	3659	3659	3659	3659	3698	3698	3698	3698	3698	3698	3698	3698	3698	3698	3698	3698	3698	3698	3698	3698	3698	3698	3698	3738	3738	3738	3738	3738	3738	3738	3738	3738	3738	3738	3738	3698	3698	3698	3698	3698	3698	3698	3698	3738	3738	3738	3738	3738	3738	3738	3738	3738	3738	3738	3738	3738	3738	3698	3698	3698	3698	3698	3698	3698	3698	3698	3738	3698	3698	3698	3698	3698	3698	3698	3698	3698	3698	3698	3698	3698	3698	3698	3698	3698	3698	3698	3698	3698	3698	3698	3698	3698	3698	3698	3698	3698	3698	3698	3698	3698	3698	3698	3698	3698	3698	3659	3659	3659	3583	3546	3406	3309	3277	3277	3309	3277	3277	3277	3277	3246	3277	3277	3246	3216	3216	3216	3216	3246	3246	3246	3277	3246	3246	3246	3246	3246	3246	3216	3216	3216	3779	3738	3738	3738	3738	3738	3698	3698	3698	3698	3698	3659	3698	3698	3659	3659	3659	3659	3659	3659	3621	3621	3621	3621	3659	3659	3659	3698	3659	3698	3698	3698	3698	3698	3659	3659	3698	3659	3659	3659	3659	3659	3659	3659	3659	3659	3698	3698	3698	3698	3698	3698	3698	3659	3659	3659	3659	3659	3659	3659	3698	3698	3659	3698	3698	3659	3659	3698	3659	3659	3659	3659	3659	3659	3659	3659	3659	3659	3659	3659	3659	3659	3659	3659	3659	3621	3659	3659	3659	3659	3659	3659	3659	3659	3659	3659	3621	3621	3621	3621	3621	3621	3621	3621	3659	3659	3659	3621	3621	3621	3659	3621	3621	3621	3621	3621	3621	3621	3621	3621	3621	3621	3659	3621	3621	3621	3621	3621	3621	3621	3621	3621	3621	3621	3621	3621	3621	3621	3621	3621	3621	3621	3621	3621	3659	3659	3659	3659	3698	3659	3659	3698	3659	3659	3698	3659	3698	3698	3698	3659	3659	3659	3659	3621	3621	3621	3621	3621	3621	3621	3621	3621	3621	3659	3659	3621	3659	3621	3659	3659	3659	3659	3659	3621	3659	3659	3659	3659	3659	3659	3659	3621	3621	3621	3583	3583	3583	3583	3621	3621	3621	3621	3621	3621	3621	3621	3621	3621	3621	3583	3583	3583	3583	3583	3583	3583	3583	3583	3621	3621	3583	3583	3583	3583	3583	3583	3583	3583	3583	3621	3621	3583	3583	3583	3583	3583	3583	3546	3583	3546	3546	3583	3583	3583	3583	3583	3583	3583	3583	3546	3546	3546	3546	3546	3546	3546	3546	3546	3546	3546	3510	3510	3510	3510	3510	3510	0	0	0	0	0	0	0	0	0	0	0	0	0	0	0	0	0	0	0	0	0	0	0	0	0	0	0	0	0	0	0	0	0	0	0
0	0	0	0	0	0	0	0	0	0	1519	1512	1512	1512	1519	1512	1512	1519	1519	1519	1512	1512	1512	1512	1512	1512	1512	1512	1512	1512	1506	1506	1506	1506	1506	1506	1506	1506	1506	1506	1506	1512	1506	1512	1519	1525	1532	1532	1532	1532	0	2039	2051	2051	2051	2051	2051	2051	2051	2063	2051	2051	2051	2051	2051	2063	2063	2063	2063	2063	2063	2063	2063	2063	2051	2051	2051	2051	2051	2063	2063	2063	2063	2063	2051	2051	2051	2039	2039	2051	2051	2051	2051	2051	2063	2063	2063	2063	2063	2063	2051	2063	2063	2063	2063	2063	2063	2063	2063	2063	2051	2051	2063	2063	2076	2076	2088	2088	2127	2127	2570	2570	2570	2589	2589	2589	2570	2570	2570	2570	2570	2570	2570	2570	2570	2570	2570	2570	2570	2570	2570	2609	2589	2589	2609	2609	2609	2609	2609	2589	2589	2589	2589	2589	2589	2589	2589	2589	2589	2609	2609	2609	2609	2609	2629	2629	3475	3510	3546	3510	3546	3546	3546	3546	3510	3510	3510	3510	3510	3510	3510	3510	3510	3546	3546	3546	3583	3621	3659	3659	3698	3698	3659	3659	3659	3659	3659	3659	3659	3659	3659	3659	3698	3698	3698	3698	3698	3698	3698	3698	3698	3698	3698	3698	3698	3698	3698	3698	3698	3698	3698	3738	3738	3738	3738	3738	3738	3738	3738	3738	3738	3738	3738	3738	3698	3698	3698	3698	3698	3698	3698	3738	3738	3738	3738	3738	3738	3738	3738	3738	3738	3738	3738	3738	3738	3738	3738	3698	3698	3698	3698	3698	3698	3698	3698	3698	3698	3698	3698	3698	3698	3698	3698	3698	3698	3698	3698	3698	3698	3698	3698	3698	3698	3698	3698	3698	3698	3698	3698	3698	3698	3698	3698	3698	3698	3698	3698	3698	3698	3698	3698	3698	3698	3698	3659	3621	3621	3583	3510	3406	3309	3309	3277	3277	3277	3277	3277	3277	3246	3277	3246	3246	3216	3246	3216	3246	3246	3246	3246	3277	3277	3246	3246	3246	3277	3277	3277	3277	3738	3738	3738	3738	3738	3738	3738	3698	3698	3698	3698	3698	3659	3698	3698	3698	3659	3659	3659	3659	3659	3659	3659	3659	3659	3659	3659	3659	3698	3698	3698	3698	3698	3698	3698	3698	3698	3698	3659	3659	3659	3659	3659	3659	3659	3659	3698	3698	3698	3698	3698	3698	3698	3698	3659	3659	3659	3659	3659	3659	3659	3698	3698	3698	3698	3659	3659	3659	3698	3659	3659	3659	3659	3659	3659	3659	3659	3659	3659	3659	3659	3659	3659	3659	3659	3621	3621	3659	3621	3621	3659	3659	3659	3659	3659	3659	3659	3621	3621	3621	3621	3621	3621	3621	3621	3621	3621	3621	3621	3621	3621	3621	3621	3621	3621	3621	3621	3659	3621	3621	3621	3621	3621	3659	3621	3621	3621	3621	3621	3621	3621	3621	3621	3621	3621	3621	3621	3621	3621	3621	3621	3621	3621	3621	3621	3659	3659	3698	3659	3698	3659	3659	3698	3698	3698	3698	3698	3698	3698	3698	3659	3659	3659	3659	3621	3583	3583	3621	3621	3621	3621	3621	3621	3621	3659	3621	3621	3621	3621	3621	3659	3659	3659	3659	3621	3659	3659	3659	3659	3659	3659	3621	3621	3621	3621	3621	3583	3583	3583	3621	3621	3621	3621	3621	3621	3621	3621	3621	3621	3621	3583	3583	3583	3583	3546	3583	3583	3583	3583	3583	3583	3583	3583	3546	3583	3583	3583	3583	3583	3546	3621	3621	3583	3583	3583	3583	3583	3583	3546	3546	3546	3546	3583	3583	3583	3546	3583	3546	3546	3546	3546	3546	3546	3546	3546	3546	3546	3546	3546	3546	3510	3510	3510	3510	3510	3546	3546	0	0	0	0	0	0	0	0	0	0	0	0	0	0	0	0	0	0	0	0	0	0	0	0	0	0	0	0	0	0	0	0	0	0	0
0	0	0	0	0	0	0	0	0	0	1512	1512	1512	1512	1512	1512	1512	1519	1519	1519	1512	1512	1512	1512	1512	1512	1506	1512	1512	1512	1512	1512	1512	1506	1512	1506	1506	1506	1506	1506	1506	1506	1506	1512	1512	1525	1525	1532	1532	1532	0	2039	2039	2051	2051	2051	2051	2063	2063	2063	2063	2063	2063	2063	2063	2063	2063	2063	2063	2063	2063	2063	2063	2063	2063	2063	2063	2063	2063	2063	2076	2076	2076	2076	2076	2076	2063	2051	2063	2063	2063	2063	2063	2063	2076	2076	2076	2076	2076	2063	2063	2076	2076	2076	2076	2076	2076	2076	2076	2088	2076	2076	2076	2076	2088	2088	2101	2101	2114	2127	2140	2140	2589	2589	2589	2589	2570	2570	2570	2570	2570	2570	2570	2570	2570	2570	2570	2570	2570	2570	2570	2589	2570	2570	2589	2589	2609	2609	2609	2589	2589	2589	2589	2589	2589	2589	2589	2589	2589	2589	2609	2609	2609	2609	2629	2629	3510	3546	3546	3546	3546	3546	3546	3546	3510	3510	3510	3510	3510	3510	3510	3510	3510	3546	3546	3546	3583	3621	3621	3659	3698	3698	3659	3659	3659	3659	3659	3659	3659	3659	3659	3659	3698	3698	3698	3698	3698	3698	3698	3698	3698	3698	3698	3698	3698	3698	3698	3698	3698	3738	3698	3738	3738	3738	3738	3738	3738	3738	3698	3698	3738	3738	3738	3738	3698	3698	3698	3698	3698	3698	3698	3738	3738	3738	3738	3738	3738	3738	3738	3738	3738	3738	3738	3738	3738	3698	3698	3698	3698	3698	3698	3698	3698	3698	3698	3698	3698	3698	3698	3698	3698	3698	3698	3698	3698	3698	3698	3698	3698	3698	3698	3698	3698	3698	3698	3698	3698	3698	3698	3698	3698	3698	3698	3698	3698	3698	3738	3698	3698	3698	3698	3698	3698	3698	3659	3659	3621	3583	3546	3406	3309	3309	3277	3309	3277	3277	3277	3277	3246	3277	3277	3246	3216	3216	3246	3246	3246	3246	3246	3277	3246	3277	3277	3277	3277	3277	3277	3277	3738	3738	3738	3738	3738	3738	3738	3698	3698	3698	3698	3698	3659	3698	3698	3698	3698	3698	3659	3698	3698	3659	3659	3659	3659	3659	3659	3659	3698	3698	3698	3698	3698	3698	3698	3698	3659	3698	3659	3659	3659	3659	3659	3659	3659	3659	3698	3698	3698	3698	3698	3698	3659	3659	3659	3659	3659	3659	3659	3659	3659	3698	3698	3659	3659	3659	3659	3659	3659	3659	3659	3659	3659	3659	3659	3659	3659	3659	3659	3659	3659	3659	3659	3659	3659	3621	3621	3621	3621	3621	3659	3621	3621	3659	3659	3659	3659	3621	3621	3621	3621	3621	3621	3621	3621	3621	3621	3621	3621	3621	3621	3659	3621	3659	3621	3659	3621	3659	3621	3621	3621	3621	3621	3659	3659	3621	3621	3621	3621	3621	3621	3621	3621	3621	3621	3621	3621	3621	3621	3621	3621	3621	3621	3621	3621	3659	3659	3659	3659	3659	3659	3698	3698	3659	3659	3659	3659	3698	3659	3659	3659	3659	3621	3621	3621	3583	3583	3621	3621	3583	3621	3621	3621	3621	3621	3621	3621	3621	3621	3621	3621	3621	3621	3621	3621	3659	3659	3659	3659	3659	3659	3621	3621	3621	3621	3621	3583	3621	3621	3621	3621	3621	3621	3621	3621	3621	3621	3621	3621	3583	3583	3546	3546	3546	3546	3583	3546	3546	3583	3583	3583	3583	3583	3546	3583	3583	3583	3583	3546	3546	3621	3621	3583	3583	3583	3583	3583	3583	3546	3546	3546	3546	3546	3583	3546	3546	3546	3546	3546	3546	3546	3546	3546	3583	3546	3546	3546	3546	3546	3546	3546	3510	3510	3510	3510	3546	3546	0	0	0	0	0	0	0	0	0	0	0	0	0	0	0	0	0	0	0	0	0	0	0	0	0	0	0	0	0	0	0	0	0	0	0
0	0	0	0	0	0	0	0	0	0	1506	1506	1506	1512	1512	1512	1512	1519	1519	1519	1512	1512	1512	1512	1512	1512	1506	1512	1512	1512	1512	1512	1512	1512	1512	1506	1506	1506	1506	1506	1506	1506	1506	1512	1512	1519	1519	1525	1525	1525	0	2039	2039	2051	2063	2063	2063	2076	2076	2076	2076	2063	2063	2063	2063	2076	2076	2063	2063	2063	2063	2063	2063	2063	2063	2063	2063	2076	2063	2063	2076	2076	2076	2088	2076	2088	2101	2076	2088	2088	2088	2088	2088	2076	2088	2088	2088	2088	2076	2076	2076	2076	2076	2076	2076	2076	2076	2088	2088	2101	2088	2088	2088	2088	2101	2101	2101	2114	2114	2127	2127	2127	2127	2127	2589	2589	2589	2570	2570	2570	2570	2570	2570	2570	2570	2570	2570	2570	2570	2570	2570	2589	2570	2570	2609	2609	2609	2609	2609	2589	2589	2589	2589	2589	2589	2589	2589	2589	2589	2589	2609	2609	2609	2609	2629	2629	3510	3546	3546	3546	3546	3546	3546	3546	3510	3510	3510	3510	3510	3510	3510	3510	3510	3510	3546	3583	3583	3621	3659	3698	3698	3698	3659	3698	3698	3659	3659	3659	3659	3659	3659	3659	3698	3698	3698	3698	3698	3698	3698	3698	3698	3659	3698	3698	3698	3698	3698	3698	3698	3698	3698	3738	3698	3738	3738	3698	3698	3698	3698	3698	3738	3738	3738	3738	3738	3698	3698	3698	3698	3698	3698	3698	3698	3738	3738	3738	3738	3738	3738	3738	3738	3738	3738	3698	3698	3698	3738	3698	3698	3698	3698	3698	3698	3698	3698	3698	3698	3698	3698	3698	3698	3698	3698	3698	3698	3698	3698	3698	3698	3698	3698	3698	3698	3698	3698	3698	3698	3698	3698	3698	3698	3698	3698	3698	3698	3698	3738	3738	3738	3698	3698	3698	3698	3698	3659	3659	3659	3583	3583	3440	3341	3309	3277	3309	3309	3277	3277	3277	3277	3277	3277	3246	3246	3246	3246	3246	3246	3246	3277	3277	3277	3277	3277	3277	3277	3309	3309	3309	3738	3738	3738	3738	3738	3738	3738	3698	3698	3698	3698	3698	3659	3698	3698	3698	3698	3698	3659	3698	3698	3659	3659	3659	3659	3659	3698	3698	3698	3698	3698	3698	3698	3698	3698	3698	3659	3659	3659	3659	3659	3659	3659	3659	3659	3659	3659	3698	3659	3659	3659	3659	3659	3659	3659	3659	3659	3659	3659	3659	3698	3698	3698	3698	3698	3659	3659	3659	3659	3659	3659	3659	3659	3659	3659	3659	3659	3659	3659	3659	3659	3659	3659	3659	3659	3621	3621	3621	3621	3621	3621	3621	3621	3659	3659	3659	3659	3659	3659	3621	3621	3621	3621	3621	3621	3621	3621	3621	3621	3621	3621	3659	3659	3659	3621	3659	3659	3659	3659	3621	3621	3621	3621	3621	3621	3621	3621	3621	3621	3621	3621	3621	3621	3621	3621	3621	3621	3621	3621	3621	3621	3621	3621	3621	3621	3659	3659	3659	3659	3659	3659	3659	3698	3659	3659	3659	3659	3659	3659	3659	3621	3659	3621	3621	3621	3583	3583	3621	3621	3583	3583	3621	3621	3621	3621	3621	3621	3621	3621	3621	3659	3659	3659	3659	3659	3659	3659	3659	3621	3621	3621	3621	3621	3621	3621	3621	3621	3621	3621	3621	3621	3621	3621	3621	3621	3621	3621	3621	3621	3583	3583	3546	3546	3546	3546	3583	3583	3583	3583	3583	3621	3583	3583	3583	3583	3583	3583	3546	3583	3546	3621	3621	3583	3583	3583	3583	3583	3583	3583	3583	3546	3546	3546	3583	3546	3546	3546	3546	3546	3546	3546	3546	3583	3583	3546	3546	3546	3583	3546	3546	3546	3546	3510	3510	3510	3510	3510	0	0	0	0	0	0	0	0	0	0	0	0	0	0	0	0	0	0	0	0	0	0	0	0	0	0	0	0	0	0	0	0	0	0	0
0	0	0	0	0	0	0	0	0	0	1506	1506	1506	1512	1512	1512	1512	1519	1519	1519	1512	1512	1512	1512	1512	1512	1506	1512	1512	1512	1512	1512	1512	1512	1512	1506	1506	1506	1506	1506	1506	1512	1512	1512	1512	1519	1512	1512	1512	1512	0	0	2063	2063	2076	2076	2076	2076	2076	2076	2076	2076	2076	2076	2076	2076	2076	2076	2076	2076	2076	2076	2076	2076	2076	2076	2076	2088	2076	2088	2088	2101	2101	2101	2101	2101	2101	2101	2088	2101	2088	2088	2088	2088	2088	2088	2101	2101	2101	2088	2088	2088	2088	2088	2088	2088	2088	2088	2101	2101	2088	2088	2101	2101	2101	2101	2101	2114	2114	2127	2127	2127	2127	2127	2609	2589	2589	2570	2570	2570	2570	2570	2570	2570	2570	2570	2570	2570	2570	2570	2570	2589	2589	2589	2609	2609	2609	2609	2609	2589	2589	2589	2589	2589	2589	2589	2589	2589	2589	2589	2589	2609	2609	2609	2649	2649	3510	3510	3546	3510	3510	3510	3546	3510	3510	3510	3510	3510	3546	3546	3546	3546	3546	3546	3546	3583	3583	3659	3659	3698	3698	3698	3659	3698	3698	3698	3659	3659	3659	3659	3659	3659	3659	3698	3698	3659	3659	3698	3698	3698	3698	3698	3698	3698	3698	3698	3698	3698	3698	3698	3698	3738	3738	3738	3698	3698	3698	3698	3698	3698	3738	3738	3738	3738	3738	3738	3698	3698	3698	3698	3698	3698	3738	3738	3738	3738	3738	3738	3698	3698	3698	3698	3698	3698	3698	3698	3738	3698	3698	3698	3698	3698	3698	3698	3698	3698	3698	3698	3698	3698	3698	3698	3698	3698	3698	3698	3698	3698	3698	3698	3698	3698	3698	3698	3698	3698	3698	3698	3698	3698	3698	3698	3698	3698	3698	3738	3738	3738	3738	3698	3698	3698	3698	3698	3659	3659	3659	3621	3583	3475	3440	3309	3277	3309	3309	3309	3277	3277	3277	3277	3277	3277	3246	3246	3246	3246	3246	3246	3277	3277	3277	3277	3277	3309	3309	3309	3309	3698	3698	3698	3698	3738	3738	3738	3698	3698	3698	3698	3698	3698	3698	3698	3698	3698	3698	3698	3698	3698	3698	3698	3698	3698	3659	3698	3698	3698	3698	3698	3698	3698	3698	3698	3698	3659	3659	3659	3659	3659	3659	3659	3659	3659	3659	3659	3659	3659	3659	3659	3659	3659	3659	3659	3659	3659	3659	3621	3659	3659	3698	3698	3698	3698	3698	3659	3659	3659	3659	3659	3659	3659	3659	3659	3659	3659	3659	3659	3659	3659	3659	3659	3659	3659	3659	3621	3621	3621	3621	3621	3621	3621	3621	3621	3621	3621	3621	3621	3621	3621	3621	3621	3621	3621	3621	3621	3621	3621	3621	3621	3621	3659	3659	3659	3621	3659	3659	3659	3659	3621	3621	3659	3621	3659	3621	3621	3621	3621	3621	3621	3621	3621	3621	3621	3621	3621	3621	3621	3621	3621	3621	3621	3621	3621	3621	3659	3659	3659	3659	3659	3659	3659	3698	3659	3659	3659	3659	3659	3659	3621	3621	3621	3621	3621	3583	3583	3621	3621	3621	3583	3621	3621	3621	3659	3659	3659	3621	3659	3659	3621	3659	3659	3621	3659	3659	3621	3621	3659	3621	3621	3621	3621	3621	3583	3583	3583	3583	3621	3621	3621	3621	3621	3621	3659	3621	3621	3621	3621	3583	3583	3583	3546	3546	3546	3546	3546	3546	3583	3583	3583	3621	3583	3583	3583	3583	3583	3583	3546	3583	3546	3583	3583	3583	3583	3583	3583	3583	3583	3583	3583	3583	3546	3546	3546	3546	3546	3546	3546	3546	3546	3546	3546	3583	3583	3583	3583	3583	3583	3546	3546	3546	3546	0	0	3510	3510	3510	0	0	0	0	0	0	0	0	0	0	0	0	0	0	0	0	0	0	0	0	0	0	0	0	0	0	0	0	0	0	0	0	0	0	0
0	0	0	0	0	0	0	0	0	0	1499	1499	1499	1499	1506	1506	1512	1519	1519	1519	1519	1512	1512	1512	1512	1506	1506	1512	1512	1512	1512	1512	1512	1506	1506	1506	1506	1506	1506	1506	1506	1506	1512	1512	1512	1519	1519	1519	1519	1519	0	0	2063	2063	2076	2076	2076	2088	2088	2088	2088	2088	2088	2088	2088	2088	2088	2101	2101	2088	2101	2101	2088	2088	2088	2088	2088	2101	2088	2101	2101	2114	2114	2114	2114	2114	2114	2114	2101	2101	2101	2101	2101	2101	2101	2101	2101	2101	2101	2101	2101	2101	2101	2114	2101	2101	2101	2114	2114	2114	2114	2101	2101	2114	2114	2114	2114	2114	2127	2127	2127	2127	2140	2140	2140	2589	2589	2589	2589	2570	2570	2570	2570	2570	2570	2570	2570	2570	2570	2570	2589	2589	2589	2570	2589	2589	2589	2589	2609	2589	2589	2589	2589	2589	2589	2589	2589	2589	2589	2589	2589	2589	2609	2609	2649	2649	2649	3510	3510	3510	3510	3510	3510	3510	3510	3510	3510	3546	3546	3546	3546	3546	3546	3546	3546	3583	3621	3659	3659	3659	3659	3659	3659	3659	3698	3659	3659	3659	3659	3659	3659	3659	3659	3698	3698	3659	3659	3698	3659	3698	3659	3698	3698	3698	3698	3698	3698	3698	3698	3698	3698	3698	3698	3698	3698	3698	3698	3698	3698	3698	3738	3738	3738	3738	3738	3698	3698	3698	3698	3698	3698	3698	3738	3738	3738	3738	3698	3698	3698	3698	3698	3698	3698	3698	3698	3698	3738	3698	3698	3698	3698	3698	3698	3698	3698	3698	3698	3698	3698	3698	3698	3698	3698	3698	3698	3698	3698	3698	3698	3698	3698	3698	3698	3698	3698	3698	3698	3698	3698	3698	3698	3698	3698	3698	3698	3698	3738	3738	3738	3738	3698	3698	3698	3698	3698	3659	3698	3659	3659	3659	3475	3309	3277	3309	3309	3309	3277	3277	3277	3277	3277	3277	3246	3246	3246	3246	3246	3246	3277	3277	3277	3277	3277	3309	3309	3341	3341	3698	3698	3659	3698	3698	3698	3698	3698	3698	3698	3698	3698	3698	3698	3698	3698	3698	3698	3698	3698	3659	3698	3698	3698	3659	3659	3659	3659	3698	3698	3698	3698	3698	3698	3698	3698	3659	3659	3659	3659	3659	3659	3659	3659	3659	3659	3659	3659	3659	3659	3659	3659	3659	3659	3659	3659	3659	3659	3659	3659	3659	3659	3698	3698	3659	3659	3659	3659	3659	3659	3659	3659	3659	3659	3659	3659	3659	3659	3659	3659	3659	3659	3659	3659	3621	3621	3621	3621	3621	3621	3621	3621	3621	3621	3621	3621	3621	3621	3621	3659	3621	3621	3621	3621	3621	3621	3621	3621	3621	3621	3621	3621	3659	3659	3659	3621	3659	3621	3659	3621	3621	3621	3621	3621	3621	3621	3621	3621	3621	3621	3621	3621	3621	3621	3621	3621	3621	3621	3621	3621	3621	3621	3621	3621	3621	3621	3659	3659	3659	3659	3659	3659	3659	3659	3659	3659	3659	3659	3659	3659	3621	3583	3621	3621	3621	3583	3583	3621	3621	3621	3583	3621	3621	3621	3621	3659	3659	3659	3659	3659	3659	3659	3659	3659	3621	3621	3583	3621	3621	3621	3583	3583	3621	3621	3583	3621	3621	3621	3621	3621	3621	3621	3621	3621	3621	3621	3621	3621	3621	3621	3583	3583	3546	3546	3583	3546	3583	3546	3583	3583	3583	3583	3583	3583	3583	3583	3583	3583	3546	3583	3546	3583	3583	3583	3583	3583	3583	3583	3583	3583	3583	3583	3546	3546	3546	3546	3510	3546	3546	3546	3546	3546	3546	3583	3583	3583	3583	3583	0	0	0	0	0	0	0	0	0	0	0	0	0	0	0	0	0	0	0	0	0	0	0	0	0	0	0	0	0	0	0	0	0	0	0	0	0	0	0	0	0	0	0	0	0
0	0	0	0	0	0	0	0	0	0	1499	1499	1499	1499	1499	1506	1506	1512	1512	1519	1519	1512	1512	1512	1512	1506	1506	1506	1506	1512	1506	1506	1506	1506	1506	1499	1499	1499	1499	1506	1506	1506	1506	1512	1519	1532	1532	1539	1539	1539	0	2076	2076	2076	2088	2088	2088	2101	2114	2114	2101	2101	2101	2101	2101	2101	2101	2101	2114	2114	2114	2114	2114	2114	2101	2101	2114	2114	2114	2127	2127	2127	2127	2127	2127	2127	2114	2114	2114	2101	2101	2101	2114	2101	2114	2114	2114	2114	2114	2114	2114	2114	2114	2114	2114	2114	2114	2114	2114	2114	2114	2114	2114	2114	2127	2127	2127	2127	2127	2127	2127	2140	2140	2153	2153	2589	2629	2609	2589	2589	2570	2570	2570	2570	2570	2570	2570	2570	2589	2589	2589	2589	2589	2589	2589	2589	2589	2589	2589	2589	2589	2589	2589	2589	2589	2589	2589	2589	2589	2589	2589	2589	2589	2589	2589	2629	3510	3546	3546	3546	3510	3510	3510	3510	3510	3546	3546	3546	3546	3546	3546	3546	3546	3546	3546	3583	3583	3659	3659	3659	3659	3659	3659	3659	3659	3659	3659	3659	3659	3659	3659	3659	3659	3659	3659	3659	3659	3659	3698	3698	3659	3698	3698	3698	3698	3698	3698	3698	3698	3698	3698	3698	3698	3698	3698	3698	3698	3698	3698	3698	3738	3738	3738	3738	3738	3738	3698	3698	3698	3698	3698	3698	3738	3698	3698	3698	3698	3698	3698	3698	3698	3698	3698	3698	3698	3698	3738	3698	3698	3698	3698	3698	3698	3698	3698	3698	3698	3698	3698	3698	3698	3698	3698	3698	3698	3698	3698	3698	3698	3698	3698	3698	3698	3698	3698	3698	3698	3698	3698	3698	3659	3698	3698	3698	3698	3698	3698	3698	3698	3698	3698	3698	3698	3698	3698	3698	3698	3659	3659	3659	3475	3373	3309	3309	3309	3309	3309	3277	3277	3277	3277	3277	3246	3246	3246	3246	3246	3246	3277	3277	3277	3277	3277	3309	3309	3309	3309	3738	3698	3659	3659	3698	3698	3698	3698	3659	3659	3698	3698	3698	3698	3698	3698	3698	3698	3698	3698	3698	3698	3698	3698	3698	3698	3659	3659	3698	3698	3659	3698	3698	3659	3698	3698	3659	3659	3659	3659	3659	3659	3659	3621	3621	3621	3659	3659	3659	3659	3659	3659	3659	3659	3621	3621	3621	3659	3621	3659	3659	3659	3659	3698	3659	3659	3659	3659	3659	3659	3659	3659	3659	3659	3659	3659	3659	3659	3659	3659	3659	3659	3659	3621	3621	3621	3621	3621	3621	3621	3621	3621	3621	3621	3621	3621	3621	3621	3621	3659	3621	3621	3621	3621	3621	3621	3621	3621	3621	3621	3621	3621	3621	3621	3659	3621	3621	3621	3621	3621	3621	3621	3621	3621	3621	3621	3621	3621	3621	3621	3621	3621	3621	3621	3621	3621	3621	3621	3621	3621	3621	3621	3621	3621	3621	3621	3659	3659	3659	3659	3659	3659	3659	3659	3659	3659	3621	3621	3621	3621	3621	3583	3583	3583	3621	3583	3583	3621	3621	3621	3583	3621	3621	3621	3621	3621	3621	3621	3659	3659	3659	3659	3659	3621	3621	3621	3621	3621	3621	3583	3583	3583	3583	3621	3583	3583	3621	3621	3659	3659	3659	3621	3659	3659	3659	3659	3621	3621	3621	3621	3583	3583	3546	3583	3583	3546	3583	3546	3546	3583	3583	3583	3583	3583	3583	3583	3583	3583	3583	3546	3546	3583	3583	3583	3583	3583	3583	3583	3583	3583	3583	3583	3546	3546	3546	3546	3510	3510	3510	3546	3546	3546	3546	0	0	0	0	0	0	0	0	1480	1480	0	0	0	0	0	0	0	0	0	0	0	0	0	0	0	0	0	0	0	0	0	0	0	0	0	0	0	0	0	0	0	0	0	0	0	0	0	0	0	0
0	0	0	0	0	0	0	0	0	0	1499	1499	1499	1499	1499	1499	1506	1512	1512	1519	1519	1512	1512	1512	1512	1506	1506	1506	1506	1506	1506	1506	1506	1499	1499	1492	1492	1499	1499	1499	1506	1506	1506	1512	1519	1532	1539	1539	1553	1553	1553	2076	2101	2101	2101	2101	2101	2101	2114	2114	2114	2114	2114	2114	2114	2114	2114	2114	2127	2127	2127	2127	2127	2127	2127	2127	2127	2127	2140	2140	2140	2140	2140	2127	2127	2127	2127	2127	2114	2114	2114	2114	2114	2127	2127	2127	2127	2127	2127	2127	2127	2127	2127	2127	2127	2114	2114	2127	2127	2127	2127	2127	2127	2127	2127	2127	2127	2127	2127	2127	2127	2140	2140	2153	2153	0	2649	2629	2589	2589	2589	2570	2570	2570	2570	2570	2570	2570	2589	2570	2589	2589	2589	2589	2589	2589	2589	2589	2589	2589	2589	2589	2589	2589	2589	2589	2589	2589	2589	2570	2589	2589	2570	2589	2589	3546	3546	3546	3546	3510	3510	3510	3510	3510	3510	3510	3546	3546	3546	3546	3546	3546	3546	3546	3546	3583	3583	3659	3659	3659	3659	3659	3659	3659	3659	3659	3659	3659	3659	3659	3659	3659	3659	3659	3659	3659	3659	3698	3698	3698	3659	3698	3698	3698	3698	3698	3698	3698	3698	3698	3698	3698	3698	3698	3698	3698	3698	3698	3698	3698	3738	3738	3738	3738	3738	3738	3698	3698	3738	3698	3698	3698	3698	3698	3698	3698	3698	3698	3698	3698	3698	3698	3698	3698	3698	3698	3698	3698	3698	3698	3698	3698	3698	3698	3698	3698	3698	3698	3698	3698	3698	3698	3698	3698	3698	3698	3698	3698	3698	3698	3698	3698	3698	3698	3698	3698	3698	3698	3698	3698	3659	3659	3698	3698	3698	3698	3698	3738	3738	3738	3698	3698	3698	3698	3698	3698	3698	3659	3659	3659	3583	3440	3309	3309	3309	3309	3277	3277	3277	3277	3277	3277	3246	3246	3246	3246	3277	3277	3277	3277	3277	3277	3309	3277	3277	3309	3309	3698	3659	3659	3659	3659	3659	3659	3659	3659	3659	3659	3659	3659	3698	3698	3698	3698	3698	3698	3659	3659	3698	3698	3698	3659	3659	3659	3659	3698	3698	3698	3698	3698	3698	3698	3698	3659	3659	3659	3659	3659	3659	3659	3621	3621	3621	3621	3659	3659	3621	3659	3659	3659	3621	3621	3621	3621	3621	3621	3621	3621	3621	3698	3698	3659	3659	3659	3659	3659	3659	3659	3659	3659	3659	3659	3659	3659	3659	3659	3659	3659	3659	3659	3621	3621	3621	3621	3621	3621	3621	3621	3621	3621	3621	3621	3621	3621	3621	3621	3621	3621	3621	3621	3621	3621	3621	3621	3621	3621	3621	3621	3621	3621	3621	3621	3621	3621	3621	3621	3621	3621	3621	3621	3621	3621	3621	3621	3621	3621	3621	3621	3621	3621	3621	3621	3621	3621	3621	3621	3621	3621	3621	3621	3621	3621	3621	3659	3659	3659	3659	3659	3659	3659	3659	3659	3659	3621	3621	3621	3621	3583	3546	3583	3583	3583	3583	3621	3621	3621	3621	3621	3621	3621	3621	3621	3659	3659	3659	3659	3659	3659	3659	3621	3621	3621	3621	3583	3621	3621	3583	3583	3583	3583	3621	3621	3621	3621	3621	3659	3659	3659	3659	3659	3659	3659	3621	3621	3621	3621	3621	3621	3583	3583	3583	3583	3583	3583	3583	3583	3583	3583	3583	3583	3583	3583	3583	3583	3583	3546	3546	3546	3583	3583	3583	3583	3583	3583	3583	3583	3583	3583	3583	3546	3546	3546	3510	3475	3510	3510	3510	3546	0	0	0	0	0	0	0	0	0	1480	1480	1480	0	0	0	0	0	0	0	0	0	0	0	0	0	0	0	0	0	0	0	0	0	0	0	0	0	0	0	0	0	0	0	0	0	0	0	0	0	0	0	0
0	0	0	0	0	0	0	0	0	0	1499	1499	1506	1506	1506	1499	1506	1512	1512	1512	1512	1512	1506	1506	1499	1499	1499	1506	1499	1499	1499	1499	1499	1499	1499	1499	1499	1499	1506	1506	1512	1512	1512	1519	1525	1532	1539	1546	1553	1553	1553	0	2114	2114	2114	2114	2114	2114	2127	2127	2140	2140	2140	2140	2127	2127	2127	2114	2127	2127	2127	2127	2140	2140	2140	2153	2153	2153	2153	2153	2153	2153	2153	2140	2140	2140	2140	2140	2127	2127	2127	2127	2127	2127	2140	2140	2140	2140	2140	2140	2140	2127	2127	2127	2127	2127	2127	2127	2127	2140	2140	2127	2140	2127	2127	2127	2127	2127	2127	2127	2127	2140	2140	2153	2153	0	2649	2629	2609	2589	2589	2570	2570	2570	2570	2570	2570	2570	2570	2589	2589	2589	2589	2589	2589	2589	2589	2589	2589	2589	2589	2589	2589	2589	2589	2589	2589	2589	2589	2570	2589	2589	2589	2589	2589	2589	3546	3546	3546	3546	3510	3510	3510	3510	3510	3510	3510	3546	3546	3546	3546	3546	3546	3546	3546	3583	3583	3659	3659	3659	3659	3659	3659	3659	3659	3659	3659	3659	3659	3659	3659	3659	3659	3659	3659	3659	3659	3659	3698	3698	3698	3659	3698	3698	3698	3698	3698	3698	3698	3698	3698	3698	3698	3698	3698	3698	3698	3698	3698	3698	3738	3738	3738	3738	3738	3738	3698	3698	3698	3698	3698	3698	3698	3698	3698	3698	3698	3698	3698	3698	3698	3698	3698	3698	3698	3698	3738	3698	3698	3698	3698	3698	3698	3698	3698	3698	3698	3698	3698	3698	3698	3698	3698	3698	3698	3698	3698	3698	3698	3698	3698	3698	3698	3698	3698	3698	3698	3698	3698	3698	3659	3659	3698	3698	3698	3698	3698	3698	3698	3698	3698	3698	3698	3698	3698	3698	3698	3659	3659	3659	3621	3583	3309	3309	3309	3309	3309	3277	3277	3277	3277	3277	3277	3246	3246	3246	3277	3277	3277	3277	3277	3277	3277	3277	3309	3309	3738	3738	3698	3659	3659	3659	3659	3659	3659	3621	3659	3659	3659	3698	3698	3698	3698	3698	3698	3659	3659	3659	3659	3659	3659	3659	3659	3659	3659	3698	3698	3659	3698	3698	3698	3698	3659	3659	3659	3659	3659	3659	3659	3659	3621	3621	3621	3659	3659	3659	3621	3659	3659	3621	3621	3621	3621	3621	3621	3621	3621	3621	3621	3698	3698	3659	3659	3659	3698	3698	3659	3659	3659	3659	3659	3659	3659	3659	3659	3659	3659	3659	3659	3659	3621	3621	3621	3621	3621	3621	3621	3621	3621	3621	3621	3621	3621	3621	3621	3621	3621	3621	3621	3621	3621	3621	3621	3621	3621	3621	3621	3621	3621	3621	3621	3621	3621	3621	3621	3621	3621	3621	3621	3621	3621	3621	3621	3621	3621	3621	3621	3621	3621	3621	3621	3621	3621	3621	3621	3621	3621	3621	3621	3621	3621	3621	3621	3659	3659	3659	3659	3659	3659	3659	3659	3659	3659	3621	3621	3621	3621	3583	3583	3583	3583	3583	3583	3583	3621	3621	3621	3621	3621	3621	3621	3659	3659	3659	3659	3659	3659	3659	3659	3621	3621	3621	3621	3583	3583	3621	3583	3583	3583	3583	3621	3583	3583	3621	3621	3621	3659	3659	3621	3621	3659	3659	3621	3621	3621	3621	3621	3621	3583	3583	3583	3583	3583	3583	3583	3583	3583	3583	3583	3583	3583	3583	3546	3546	3546	3546	3546	3546	3583	3583	3583	3583	3583	3583	3583	3583	3583	3583	3546	3546	3546	3546	3510	3440	3440	3510	3510	0	0	0	0	0	0	0	0	1486	1486	1480	1480	1480	0	0	0	0	0	0	0	0	0	0	0	0	0	0	0	0	0	0	0	0	0	0	0	0	0	0	0	0	0	0	0	0	0	0	0	0	0	0	0	0
0	0	0	0	0	0	0	0	0	0	1506	1506	1506	1506	1506	1506	1506	1506	1512	1512	1512	1506	1506	1506	1499	1499	1506	1506	1499	1499	1499	1499	1499	1492	1499	1499	1499	1499	1499	1506	1506	1512	1512	1519	1519	1525	1532	1546	1546	1546	1546	0	2114	2114	2114	2114	2114	2114	2140	2140	2140	2153	2153	2153	2140	2140	2140	2127	2140	2153	2140	2153	2153	2153	2167	2167	2167	2167	2167	2167	2167	2167	2167	2153	2153	2153	2153	2153	2140	2127	2127	2127	2140	2140	2140	2153	2153	2153	2153	2153	2153	2153	2140	2140	2140	2140	2140	2140	2140	2140	2153	2140	2153	2140	2140	2140	2140	2140	2127	2140	2140	2140	2140	2153	2167	2167	2649	2629	2609	2589	2589	2570	2570	2570	2570	2570	2570	2570	2570	2570	2570	2570	2570	2570	2570	2589	2589	2589	2589	2589	2589	2589	2589	2589	2589	2589	2589	2570	2570	2570	2589	2589	2589	2589	2589	2589	3510	3546	3510	3510	3510	3510	3510	3510	3510	3510	3510	3546	3510	3546	3546	3546	3546	3546	3546	3583	3583	3659	3659	3659	3659	3659	3659	3659	3659	3659	3659	3659	3659	3659	3659	3659	3659	3659	3659	3659	3659	3659	3659	3659	3659	3659	3698	3698	3698	3698	3698	3698	3698	3698	3698	3698	3698	3698	3698	3698	3698	3698	3698	3698	3738	3738	3738	3738	3738	3738	3698	3698	3698	3698	3698	3698	3698	3698	3698	3698	3698	3698	3698	3698	3698	3698	3698	3698	3698	3738	3738	3698	3698	3698	3698	3698	3698	3698	3698	3698	3698	3698	3698	3698	3698	3659	3698	3698	3698	3698	3698	3698	3698	3698	3698	3698	3698	3698	3698	3698	3698	3698	3698	3698	3659	3698	3659	3698	3698	3698	3698	3698	3698	3698	3698	3698	3698	3698	3698	3698	3698	3698	3659	3659	3659	3621	3621	3341	3341	3309	3309	3309	3277	3277	3277	3277	3246	3246	3246	3246	3277	3277	3277	3277	3277	3277	3277	3277	3277	3738	3698	3698	3698	3659	3659	3659	3659	3659	3659	3659	3659	3659	3698	3698	3698	3698	3698	3698	3698	3659	3659	3659	3659	3659	3659	3659	3659	3659	3659	3659	3659	3659	3659	3659	3659	3659	3659	3659	3659	3659	3659	3659	3659	3659	3659	3621	3621	3659	3659	3659	3621	3621	3621	3621	3621	3621	3621	3621	3621	3621	3621	3621	3659	3698	3698	3698	3659	3659	3698	3698	3659	3659	3659	3659	3659	3659	3659	3659	3659	3659	3621	3659	3659	3659	3621	3621	3621	3621	3621	3621	3621	3621	3621	3621	3621	3621	3621	3621	3621	3621	3621	3621	3621	3621	3621	3621	3621	3621	3621	3621	3621	3621	3621	3621	3621	3621	3621	3621	3621	3621	3621	3621	3621	3621	3621	3621	3621	3621	3621	3621	3621	3621	3621	3621	3621	3621	3621	3621	3621	3621	3621	3621	3621	3621	3621	3621	3621	3659	3659	3659	3659	3659	3659	3659	3659	3659	3659	3621	3621	3621	3621	3583	3583	3583	3583	3621	3583	3621	3621	3621	3621	3621	3621	3621	3621	3621	3621	3659	3621	3659	3659	3659	3659	3621	3621	3621	3621	3583	3583	3583	3583	3583	3583	3583	3621	3583	3583	3621	3621	3621	3659	3659	3621	3621	3621	3659	3621	3621	3621	3621	3621	3583	3583	3583	3621	3621	3583	3583	3583	3583	3583	3583	3583	3583	3583	3583	3583	3583	3583	3546	3546	3546	3583	3583	3583	3583	3583	3583	3583	3583	3583	3583	3583	3546	3546	3546	3510	3440	3440	0	0	0	0	0	0	0	0	1499	1499	1492	1486	1480	1480	1480	0	0	0	0	0	0	0	0	0	0	0	0	0	0	0	0	0	0	0	0	0	0	0	0	0	0	0	0	0	0	0	0	0	0	0	0	0	0	0	0
0	0	0	0	0	0	0	0	0	0	1506	1506	1506	1506	1506	1506	1506	1512	1512	1512	1512	1506	1506	1506	1499	1499	1506	1499	1499	1499	1499	1499	1499	1499	1499	1499	1499	1499	1499	1506	1512	1512	1512	1519	1525	1525	1532	1546	1546	1546	1546	0	2114	2114	2127	2127	2127	2127	2140	2153	2153	2167	2167	2167	2153	2153	2153	2153	2153	2167	2167	2167	2167	2167	2167	2167	2167	2167	2167	2167	2167	2167	2167	2167	2167	2167	2167	2167	2153	2140	2140	2153	2153	2153	2153	2167	2167	2167	2153	2167	2153	2153	2153	2153	2153	2153	2153	2153	2153	2153	2167	2167	2167	2153	2153	2153	2153	2153	2140	2140	2140	2153	2153	2167	2181	2181	2649	2629	2609	2589	2589	2570	2570	2570	2570	2570	2570	2570	2570	2570	2570	2570	2570	2570	2589	2589	2589	2589	2589	2589	2589	2589	2589	2589	2589	2589	2570	2570	2589	2570	2570	2589	2589	2589	2589	3510	3510	3546	3510	3510	3510	3510	3510	3510	3510	3510	3510	3546	3546	3546	3546	3546	3546	3546	3583	3583	3621	3659	3659	3659	3659	3659	3659	3659	3659	3659	3659	3659	3659	3659	3659	3659	3659	3659	3659	3659	3659	3698	3698	3698	3698	3698	3698	3698	3698	3698	3698	3698	3698	3698	3698	3698	3698	3698	3698	3698	3698	3698	3698	3698	3738	3738	3738	3738	3738	3738	3698	3698	3698	3698	3698	3698	3698	3698	3698	3698	3698	3659	3698	3698	3698	3698	3698	3698	3698	3738	3738	3698	3698	3698	3698	3698	3698	3698	3698	3698	3698	3698	3698	3698	3698	3698	3698	3698	3698	3698	3698	3698	3698	3698	3698	3698	3698	3698	3698	3698	3698	3698	3659	3659	3659	3698	3659	3698	3698	3698	3698	3698	3698	3698	3698	3698	3698	3698	3698	3698	3698	3698	3659	3659	3621	3621	3546	3341	3341	3309	3309	3309	3309	3309	3309	3309	3277	3277	3246	3246	3277	3277	3277	3277	3277	3277	3277	3309	3309	3698	3698	3698	3659	3659	3659	3659	3659	3659	3621	3621	3659	3659	3698	3698	3698	3698	3698	3698	3698	3659	3659	3659	3659	3659	3659	3659	3621	3659	3659	3659	3659	3659	3659	3659	3659	3659	3659	3659	3659	3659	3621	3659	3659	3659	3621	3621	3621	3621	3621	3621	3621	3621	3659	3621	3621	3621	3621	3621	3621	3621	3621	3621	3621	3698	3659	3659	3659	3659	3659	3659	3659	3659	3659	3659	3659	3659	3659	3659	3659	3659	3659	3659	3659	3659	3621	3621	3621	3621	3621	3621	3621	3621	3621	3621	3621	3621	3621	3621	3621	3621	3621	3621	3621	3621	3621	3621	3621	3621	3621	3621	3583	3583	3621	3621	3621	3621	3621	3621	3621	3621	3621	3621	3621	3621	3621	3621	3621	3621	3621	3621	3621	3621	3621	3621	3621	3621	3621	3621	3621	3621	3621	3621	3621	3621	3621	3621	3621	3659	3659	3659	3659	3659	3659	3659	3659	3659	3659	3659	3621	3621	3621	3621	3583	3583	3583	3621	3583	3583	3621	3621	3621	3621	3621	3621	3621	3621	3659	3659	3659	3659	3659	3659	3659	3621	3621	3621	3621	3583	3583	3583	3583	3583	3546	3583	3621	3621	3621	3621	3621	3659	3659	3659	3621	3621	3621	3659	3621	3621	3621	3621	3621	3621	3621	3621	3621	3621	3621	3583	3583	3583	3583	3583	3583	3583	3583	3583	3583	3583	3583	3546	3546	3546	3583	3583	3583	3583	3583	3583	3583	3583	3583	3583	3546	3546	3546	3583	3510	3440	3440	0	0	0	0	0	0	1512	1506	1499	1499	1486	1480	1480	1480	1480	0	0	0	0	0	0	0	0	0	0	0	0	0	0	0	0	0	0	0	0	0	0	0	0	0	0	0	0	0	0	0	0	0	0	0	0	0	0	0	0
0	0	0	0	0	0	0	0	0	0	1499	1499	1506	1506	1506	1506	1506	1506	1506	1506	1512	1506	1506	1506	1506	1506	1506	1506	1499	1499	1499	1499	1499	1492	1499	1499	1499	1499	1499	1506	1506	1512	1512	1519	1525	1532	1539	1546	1546	1546	1546	1546	2114	2127	2127	2140	2140	2140	2167	2167	2167	2181	2181	2181	2181	2181	2167	2167	2167	2167	2167	2167	2167	2167	2167	2167	2167	2167	2167	2167	2167	2167	2167	2167	2167	2167	2167	2167	2167	2153	2167	2153	2153	2167	2167	2167	2181	2167	2167	2167	2167	2167	2167	2167	2167	2167	2167	2167	2167	2167	2167	2167	2167	2167	2167	2167	2167	2167	2153	2153	2153	2167	2167	2167	2181	2181	2194	2649	2629	2589	2589	2589	2570	2570	2570	2570	2570	2570	2570	2570	2589	2570	2570	2570	2589	2589	2589	2589	2589	2589	2589	2589	2589	2589	2589	2589	2589	2589	2589	2570	2570	2570	2570	2589	2589	3510	3510	3546	3510	3510	3510	3510	3510	3510	3510	3510	3510	3510	3546	3546	3546	3546	3546	3546	3583	3583	3659	3659	3659	3659	3659	3659	3659	3659	3659	3659	3659	3659	3659	3659	3659	3659	3659	3659	3659	3659	3659	3659	3698	3698	3698	3698	3698	3698	3698	3698	3698	3698	3698	3698	3698	3698	3698	3698	3698	3698	3698	3698	3698	3698	3738	3738	3738	3738	3738	3738	3698	3698	3698	3698	3698	3698	3698	3698	3698	3698	3698	3698	3698	3698	3698	3698	3698	3698	3698	3698	3698	3698	3698	3698	3698	3698	3698	3698	3698	3698	3698	3698	3698	3698	3698	3698	3698	3698	3698	3698	3698	3698	3738	3698	3698	3738	3698	3698	3698	3698	3698	3659	3659	3659	3698	3698	3659	3698	3698	3698	3659	3698	3698	3698	3698	3698	3698	3698	3698	3698	3698	3698	3659	3659	3621	3583	3546	3373	3341	3341	3309	3309	3309	3309	3309	3309	3277	3277	3277	3277	3277	3277	3277	3277	3277	3277	3277	3309	3698	3698	3698	3698	3698	3659	3659	3659	3659	3659	3621	3621	3659	3659	3659	3698	3698	3698	3698	3698	3659	3659	3621	3621	3621	3621	3621	3621	3621	3621	3621	3621	3659	3659	3621	3659	3621	3659	3659	3659	3659	3659	3659	3659	3659	3659	3621	3621	3621	3621	3659	3659	3659	3621	3659	3621	3621	3621	3621	3621	3621	3621	3621	3621	3621	3659	3659	3659	3659	3659	3659	3659	3659	3659	3659	3659	3659	3659	3659	3659	3659	3659	3659	3659	3659	3659	3621	3621	3621	3621	3621	3621	3621	3621	3621	3621	3621	3621	3621	3621	3621	3621	3621	3621	3621	3621	3621	3621	3621	3621	3621	3621	3621	3621	3621	3621	3621	3621	3621	3621	3621	3621	3621	3621	3621	3621	3621	3621	3621	3621	3621	3621	3621	3621	3621	3621	3621	3621	3621	3621	3621	3621	3621	3621	3621	3621	3621	3621	3621	3659	3659	3659	3659	3659	3659	3659	3659	3659	3659	3621	3621	3621	3621	3621	3583	3583	3583	3621	3583	3583	3621	3621	3621	3621	3621	3621	3621	3621	3621	3621	3621	3659	3659	3659	3659	3621	3621	3621	3621	3583	3583	3583	3583	3583	3546	3583	3621	3621	3583	3583	3621	3621	3659	3621	3621	3621	3621	3621	3621	3621	3621	3621	3621	3621	3621	3621	3621	3621	3621	3621	3583	3583	3583	3583	3583	3583	3621	3583	3583	3621	3583	3583	3546	3546	3583	3583	3583	3583	3583	3583	3583	3583	3583	3546	3546	3546	3546	3583	0	0	0	0	0	0	0	0	1512	1512	1506	1499	1492	1486	1480	1480	1480	1480	0	0	0	0	0	0	0	0	0	0	0	0	0	0	0	0	0	0	0	0	0	0	0	0	0	0	0	0	0	0	0	0	0	0	0	0	0	0	0	0
0	0	0	0	0	0	0	0	0	0	1499	1499	1506	1506	1512	1506	1506	1506	1506	1506	1512	1506	1506	1506	1506	1506	1512	1506	1499	1499	1499	1499	1499	1499	1499	1499	1499	1506	1506	1512	1512	1512	1512	1519	1525	1525	1532	1539	1539	1546	1546	1546	0	2127	2140	2153	2153	2153	2167	2181	2181	2181	2181	2181	2181	2194	2181	2181	2181	2181	2181	2181	2181	2181	2181	2181	2181	2181	2181	2181	2181	2181	2181	2181	2181	2181	2181	2181	2181	2167	2181	2167	2167	2167	2181	2181	2181	2181	2181	2181	2181	2181	2167	2167	2167	2167	2167	2167	2181	2167	2181	2181	2181	2167	2167	2167	2167	2167	2167	2167	2167	2181	2181	2181	2194	2194	2208	2223	2223	2237	2237	2609	2589	2570	2570	2570	2570	2570	2570	2570	2570	2570	2570	2570	2589	2589	2589	2589	2589	2589	2589	2589	2589	2589	2589	2589	2570	2570	2570	2570	2570	2570	2570	2589	2589	3510	3510	3546	3510	3510	3510	3510	3510	3510	3510	3510	3510	3510	3510	3546	3546	3546	3510	3546	3546	3583	3621	3621	3659	3659	3659	3659	3659	3659	3659	3659	3659	3659	3659	3659	3659	3659	3659	3659	3659	3659	3659	3659	3659	3659	3698	3698	3698	3698	3698	3698	3698	3698	3698	3698	3698	3698	3698	3698	3659	3698	3698	3698	3698	3698	3738	3738	3738	3738	3738	3738	3698	3698	3698	3698	3698	3698	3698	3698	3698	3698	3698	3698	3698	3698	3698	3698	3698	3698	3698	3698	3698	3698	3698	3698	3698	3698	3698	3698	3698	3698	3698	3698	3698	3698	3698	3698	3698	3698	3698	3698	3738	3738	3738	3738	3738	3738	3698	3698	3698	3698	3698	3659	3659	3659	3659	3698	3698	3698	3698	3698	3698	3698	3698	3698	3698	3698	3698	3698	3698	3698	3698	3698	3659	3659	3621	3583	3583	3440	3341	3341	3341	3309	3309	3309	3309	3277	3277	3277	3246	3246	3277	3277	3277	3309	3309	3277	3309	3309	3698	3698	3698	3698	3659	3659	3659	3659	3659	3659	3659	3659	3659	3659	3659	3698	3698	3698	3698	3698	3659	3659	3621	3621	3621	3621	3621	3621	3621	3621	3621	3621	3621	3621	3621	3621	3659	3659	3659	3659	3659	3659	3659	3659	3659	3659	3659	3659	3659	3659	3659	3659	3659	3659	3659	3621	3621	3621	3621	3621	3621	3621	3621	3621	3621	3659	3659	3659	3659	3659	3659	3659	3659	3659	3659	3659	3659	3659	3659	3659	3659	3659	3659	3659	3659	3659	3621	3621	3621	3621	3621	3621	3621	3621	3621	3621	3621	3621	3621	3621	3621	3621	3621	3621	3621	3621	3621	3621	3621	3621	3621	3621	3621	3621	3621	3621	3621	3621	3621	3621	3621	3621	3621	3621	3621	3621	3621	3621	3621	3621	3621	3621	3621	3621	3621	3621	3621	3621	3621	3621	3621	3621	3621	3621	3621	3621	3621	3621	3621	3659	3659	3659	3659	3659	3659	3659	3659	3659	3659	3621	3621	3621	3621	3621	3583	3583	3583	3621	3583	3583	3621	3621	3621	3621	3621	3621	3621	3621	3621	3621	3621	3621	3659	3659	3659	3621	3621	3621	3621	3583	3583	3583	3583	3583	3546	3583	3583	3621	3621	3621	3621	3621	3659	3621	3621	3583	3583	3621	3621	3621	3621	3621	3621	3621	3621	3621	3583	3583	3583	3583	3583	3583	3583	3583	3583	3621	3621	3621	3621	3621	3621	3583	3546	3546	3583	3583	3583	3583	3583	3583	3583	3583	3583	3583	3583	3546	0	0	0	0	0	0	0	0	1512	1512	1512	1512	1506	1499	1492	1492	1486	1480	1480	1480	0	0	0	0	0	0	0	0	0	0	0	0	0	0	0	0	0	0	0	0	0	0	0	0	0	0	0	0	0	0	0	0	0	0	0	0	0	0	0	0
0	0	0	0	0	0	0	0	0	0	1506	1506	1506	1506	1512	1506	1506	1506	1506	1506	1512	1512	1506	1506	1506	1506	1506	1506	1499	1499	1499	1499	1499	1499	1499	1506	1499	1506	1506	1512	1512	1512	1519	1519	1525	1525	1532	1532	1532	1539	1546	1546	1546	2127	2153	2153	2153	2167	2181	2181	2181	2194	2181	2194	2181	2194	2181	2181	2181	2181	2181	2181	2181	2181	2181	2181	2181	2181	2181	2194	2181	2181	2181	2181	2181	2181	2181	2181	2181	2181	2181	2181	2181	2181	2181	2181	2194	2194	2181	2194	2181	2181	2181	2181	2181	2181	2181	2181	2181	2181	2181	2194	2181	2181	2181	2194	2194	2194	2181	2181	2194	2194	2194	2194	2194	2208	2208	2237	2237	2237	2252	2252	2570	2570	2570	2570	2570	2570	2570	2570	2589	2570	2570	2570	2589	2589	2589	2589	2589	2589	2589	2589	2589	2589	2589	2589	2570	2570	2570	2570	2570	2589	2570	2570	3546	3510	3510	3546	3546	3510	3510	3510	3510	3510	3510	3510	3510	3510	3510	3546	3546	3546	3510	3546	3546	3583	3621	3621	3659	3659	3659	3659	3659	3659	3659	3659	3659	3659	3659	3659	3659	3659	3659	3659	3659	3659	3659	3659	3659	3659	3698	3698	3698	3698	3698	3698	3698	3698	3698	3698	3698	3698	3698	3698	3659	3698	3698	3698	3698	3698	3738	3738	3738	3738	3738	3738	3738	3698	3698	3698	3698	3698	3698	3698	3698	3698	3698	3698	3698	3698	3698	3698	3698	3738	3738	3738	3698	3698	3698	3698	3698	3698	3698	3698	3698	3698	3698	3698	3698	3698	3698	3698	3698	3698	3698	3698	3698	3698	3738	3698	3698	3698	3698	3698	3698	3698	3698	3659	3659	3698	3698	3698	3698	3698	3698	3698	3698	3698	3698	3698	3698	3698	3659	3698	3698	3698	3698	3698	3659	3659	3659	3621	3546	3440	3373	3341	3341	3341	3309	3309	3309	3309	3309	3277	3277	3277	3277	3309	3309	3309	3309	3309	3309	3309	3698	3698	3698	3698	3698	3698	3659	3698	3698	3698	3659	3659	3659	3659	3659	3659	3659	3698	3698	3698	3698	3659	3621	3659	3621	3621	3621	3621	3621	3621	3621	3621	3621	3621	3621	3621	3621	3659	3659	3659	3659	3659	3659	3659	3659	3659	3621	3621	3621	3621	3659	3659	3659	3621	3659	3621	3621	3621	3621	3621	3621	3621	3621	3583	3621	3659	3659	3659	3659	3659	3659	3659	3659	3659	3659	3659	3659	3659	3659	3659	3659	3659	3659	3659	3659	3659	3659	3659	3659	3659	3659	3659	3621	3659	3621	3621	3621	3621	3621	3621	3621	3621	3621	3621	3621	3621	3621	3621	3621	3621	3621	3621	3621	3621	3621	3621	3621	3621	3621	3621	3621	3621	3621	3621	3621	3621	3621	3621	3621	3621	3621	3621	3621	3621	3621	3621	3621	3621	3621	3621	3621	3621	3621	3621	3621	3621	3621	3621	3621	3659	3659	3659	3659	3659	3659	3659	3659	3659	3659	3659	3621	3621	3621	3583	3583	3583	3583	3583	3583	3583	3621	3621	3621	3621	3621	3621	3621	3621	3621	3621	3621	3621	3621	3659	3659	3621	3621	3621	3621	3621	3583	3583	3583	3583	3583	3583	3583	3621	3621	3583	3621	3621	3621	3621	3583	3583	3583	3621	3621	3621	3621	3621	3621	3621	3621	3583	3583	3583	3583	3583	3583	3583	3546	3583	3583	3583	3621	3621	3621	3621	3621	3583	3546	3546	3583	3583	3583	3583	3583	3583	3583	3583	3583	3583	3583	0	0	0	0	0	0	0	0	0	1519	1512	1512	1512	1506	1506	1499	1492	1486	1486	1480	1480	0	0	0	0	0	0	0	0	0	0	0	0	0	0	0	0	0	0	0	0	0	0	0	0	0	0	0	0	0	0	0	0	0	0	0	0	0	0	0	0
