0	0	0	0	0	0	0	0	0	0	1282	1282	1282	1287	1287	1301	1296	1296	1301	1301	1301	0	0	0	0	0	0	0	0	0	0	0	0	0	0	0	0	0	1385	1379	1379	0	0	0	0	0	0	0	0	0	0	0	0	0	0	0	0	0	0	0	0	1413	1407	1407	1396	0	0	0	0	0	0	0	0	0	0	0	0	0	0	0	0	0	0	0	0	0	1402	1407	1419	1419	1419	1419	1419	1419	1419	1413	1413	1413	1419	1419	1419	1419	1419	1425	1431	1437	1431	1437	1437	1449	1455	1461	1461	1467	1473	1473	1480	1486	1492	1499	1499	1512	1519	1525	1532	1539	1546	1546	1553	1560	1560	1567	1581	1589	1589	1596	1603	1618	1626	1634	1641	1641	1649	1649	1673	1690	1698	1706	1706	1715	1723	1732	1732	1732	1741	1741	1741	1741	1741	1741	0	2690	2690	2711	2711	2711	2711	2711	2711	2711	2711	2711	2711	2711	2690	2690	2669	2690	2669	2669	0	0	0	0	2845	2822	2822	2822	2822	2822	2822	2822	2822	2845	2845	2845	2869	2869	2893	2893	2893	2917	2917	2942	2942	2967	3019	3046	3046	3046	3046	3046	3046	3046	0	0	0	0	0	0	0	0	0	0	0	0	0	0	6349	6349	6349	6349	6349	6349	6349	6349	6349	6349	6349	6349	6349	6349	6349	6349	6349	6349	6468	6349	6349	6349	6468	6468	6468	6592	6592	6592	6468	6468	6468	6468	6468	6468	6468	6592	0	3864	3864	3864	3864	3864	3864	3821	3821	3821	3821	3821	3779	3738	3738	3821	3864	3864	3821	3821	3821	3821	3821	3779	3779	3779	3779	3779	3779	3738	3738	3738	3738	3738	3738	3738	3779	3779	3779	3779	3779	3779	3779	3779	3779	3779	3779	3779	3779	3821	3779	3779	3821	3821	3779	3779	3779	3779	3779	3779	3779	3779	3779	3779	3779	3779	3779	3779	3779	3779	3779	3779	3779	3779	3779	3779	3738	3738	3738	3821	3779	3821	3864	3864	3864	3864	3864	3907	3952	3952	3952	0	8343	8146	8146	8146	8146	8146	8146	8146	7959	7959	7959	8146	8146	8146	8146	8343	8343	8146	8343	8343	8146	6468	6468	6349	6349	6349	6349	6468	6468	6468	6468	6468	6468	6468	6468	6468	6468	6349	6349	6468	6468	6468	6468	6349	6349	6349	6468	6349	6720	6720	8767	8550	8343	8343	8343	8343	8343	8146	8343	8146	8146	8146	8146	8146	8146	8146	8146	8146	8146	8146	8146	8146	8146	8146	8146	7959	7959	7959	7959	7959	7959	7959	7959	7959	7959	7959	7959	7959	7959	7959	7959	7959	0	0	0	0	0	0	0	0	0	0	0	0	0	0	0	0	0	0	0	0	0	0	0	0	0	0	0	0	0	0	0	0	0	0	0	0	0	0	0	0	0	0	0	0	0	0	0	0	0	0	0	0	0	0	0	0	0	0	0	0	0	0	0	0	0	0	0	0	0	0	0	0	0	0	0	0	0	0	1546	1546	1546	1539	1539	1532	1532	1519	1512	1512	1512	0	0	1512	1506	1506	0	1486	1492	1486	1486	1480	1480	1480	1473	1473	1467	1467	1473	1467	1480	1473	1467	1467	1455	1461	1455	1455	1449	1449	1449	1449	1449	1443	1443	1443	1443	1443	1443	1437	1437	1443	1437	1437	1437	1431	1425	1425	1425	1425	1419	1419	1419	1413	1419	1419	1419	1419	1419	1419	1419	1419	1419	1419	0	0	0	0	0	0	0	0	0	0	0	0	0	0	0	0	0	0	0	0	0	0	0	0	0	0	0	0	0	0	0	0	0	0	0	0	0	0	0	0
0	0	0	0	0	0	0	0	0	0	1282	1282	1282	1287	1291	1301	1296	1296	1301	1301	1301	0	0	0	0	0	0	0	0	0	0	0	0	0	0	0	0	0	1379	1379	1368	1368	0	0	0	0	0	0	0	0	0	0	0	0	0	0	0	0	0	0	0	1413	1407	1407	0	0	0	0	0	0	0	0	0	0	0	0	0	0	0	0	0	0	0	0	0	0	0	0	1419	1419	1419	1419	1419	1419	1419	1413	1413	1413	1413	1419	1419	1419	1425	1431	1431	1437	1437	1437	1443	1449	1455	1461	1461	1467	1473	1473	1480	1486	1492	1499	1499	1512	1519	1519	1525	1532	1539	1539	1546	1560	1560	1567	1581	1589	1596	1603	1603	1618	1626	1641	1641	1641	1657	1665	1673	1690	1706	1706	1706	1715	1732	1741	1741	1732	1741	1741	1741	1741	1741	1741	0	2669	2690	2711	2711	2711	2711	2711	2711	2711	2711	2711	2711	2690	2690	2690	2669	2649	2649	2649	0	0	0	0	2845	2845	2822	2822	2822	2822	2822	2822	2822	2822	2845	2845	2869	2869	2917	2917	2917	2917	2942	2942	2967	2967	3019	3046	3046	3046	3046	3046	3046	3046	0	0	0	0	0	0	0	0	0	0	0	0	0	0	6349	6468	6468	6468	6468	6468	6468	6468	6349	6349	6349	6349	6349	6349	6349	6349	6349	6349	6349	6349	6349	6349	6468	6468	6592	6592	6592	6468	6468	6468	6468	6468	6468	6468	6468	6468	3864	3864	3864	3864	3864	3864	3864	3864	3864	3864	3821	3821	3738	3738	3738	3821	3821	3864	3821	3864	3864	3864	3821	3779	3779	3779	3779	3779	3779	3779	3738	3738	3738	3738	3738	3738	3779	3779	3779	3779	3779	3779	3779	3779	3779	3779	3779	3779	3779	3779	3821	3821	3821	3779	3821	3821	3779	3779	3779	3779	3779	3779	3779	3779	3779	3779	3779	3779	3779	3779	3779	3779	3779	3779	3779	3779	3738	3738	3864	3821	3821	3821	3821	3864	3864	3864	3864	3864	3907	3907	3907	3907	8343	8343	8146	8146	8146	8146	8146	8146	7959	7959	7959	8146	8146	8146	8343	8343	8343	8146	8343	8146	8146	6468	6468	6349	6349	6349	6349	6468	6468	6468	6468	6468	6468	6468	6468	6468	6468	6468	6468	6468	6468	6468	6468	6349	6349	6349	6592	6349	6720	6720	8550	8550	8550	8343	8343	8343	8343	8146	8146	8146	8146	8146	8146	8146	8146	8146	8146	8146	8146	8146	8146	8146	8146	8146	7959	7959	7959	7959	7959	7959	7959	7959	7959	7959	7959	7959	7959	7959	7959	7959	7959	7959	0	0	0	0	0	0	0	0	0	0	0	0	0	0	0	0	0	0	0	0	0	0	0	0	0	0	0	0	0	0	0	0	0	0	0	0	0	0	0	0	0	0	0	0	0	0	0	0	0	0	0	0	0	0	0	0	0	0	0	0	0	0	0	0	0	0	0	0	0	0	0	0	0	0	0	0	0	0	0	1553	1546	1539	1539	1532	1532	0	0	1512	1512	0	0	0	0	0	0	1486	1492	1492	1486	1473	1486	1480	1480	1473	1467	1467	0	0	1480	1473	1467	1467	1461	1455	1455	1449	1449	1449	1449	1449	1443	1443	1443	1443	1443	1443	1443	1443	1437	1443	1437	1437	1437	1437	1425	1425	1425	1425	1425	1419	1419	1419	1419	1419	1419	1419	1419	1419	1419	1419	1419	1419	0	0	0	0	0	0	0	0	0	0	0	0	0	0	0	0	0	0	0	0	0	0	0	0	0	0	0	0	0	0	0	0	0	0	0	0	0	0	0	0
0	0	0	0	0	0	0	0	0	0	1282	1282	1282	1287	1296	1301	1296	1296	1301	1301	1301	1301	0	0	0	0	0	0	0	0	0	0	0	0	0	0	0	1374	1368	1368	1363	1363	0	0	0	0	0	0	0	0	0	0	0	0	0	0	0	0	0	0	0	0	0	0	0	0	0	0	0	0	0	0	0	0	0	0	0	0	0	0	0	0	0	0	0	0	0	0	0	1419	1419	1419	1419	1419	1419	1419	1419	1419	1419	1419	1419	1425	1425	1431	1431	1437	1437	1443	1443	1449	1455	1461	1461	1461	1473	1473	1480	1486	1486	1486	1499	1512	1512	1519	1525	1532	1539	1546	1546	1560	1560	1567	1581	1589	1596	1603	1611	1618	1626	1634	1641	1641	1649	1649	1665	1673	1706	1706	1715	1732	1741	1741	1741	1741	1741	1741	1741	1741	1741	1741	0	2669	2690	2711	2711	2711	2711	2711	2711	2711	2711	2711	2711	2690	2690	2669	2649	2649	2629	2629	0	0	0	0	2822	2822	2822	2822	2822	2799	2799	2822	2822	2845	2845	2845	2869	2869	2917	2893	2917	2917	2942	2967	2967	2993	2993	3046	3046	3046	3046	3046	3046	3046	3019	3019	0	0	0	0	0	0	0	0	0	0	0	0	6349	6468	6468	6468	6468	6468	6468	6468	6349	6349	6349	6349	6468	6349	6349	6349	6349	6349	6349	6349	6349	6468	6468	6468	6468	6592	6592	6592	6592	6468	6468	6468	6468	6468	6468	6468	3864	3864	3864	3864	3907	3864	3864	3864	3864	3864	3821	3821	3698	3738	3738	3779	3821	3864	3821	3864	3864	3864	3821	3821	3779	3779	3779	3779	3738	3738	3738	3738	3738	3738	3738	3738	3779	3779	3779	3779	3779	3779	3779	3779	3779	3779	3779	3779	3779	3779	3779	3821	3821	3779	3821	3821	3821	3779	3779	3779	3779	3779	3779	3779	3779	3779	3779	3779	3779	3779	3779	3779	3779	3779	3779	3779	3779	3779	3864	3864	3779	3821	3821	3864	3864	3864	3864	3864	3907	3907	3907	8146	8343	8146	8146	8146	8146	8146	8146	8146	8146	8146	8146	8146	8146	7959	8146	8343	8146	8146	8146	7959	7959	6592	6592	6468	6349	6349	6349	6468	6468	6468	6468	6592	6468	6468	6349	6468	6468	6468	6468	6468	6468	6468	6468	6468	6349	6592	6592	6592	6853	6853	8146	8343	8343	8146	8146	8146	8343	8343	8146	8146	8343	8146	8146	8146	8146	8146	8146	8146	8146	8146	8146	8146	8146	8146	7959	7959	7959	7959	7959	8146	7959	7959	7959	7959	7959	7959	7959	7959	7959	7959	7959	7959	0	0	0	0	0	0	0	0	0	0	0	0	0	0	0	0	0	0	0	0	0	0	0	0	0	0	0	0	0	0	0	0	0	0	0	0	0	0	0	0	0	0	0	0	0	0	0	0	0	0	0	0	0	0	0	0	0	0	0	0	0	0	0	0	0	0	0	0	0	0	0	0	0	0	0	0	0	0	0	1553	1553	1553	1539	1532	1532	0	0	0	0	0	0	0	0	0	0	0	0	1492	1492	1492	1486	1480	1480	0	0	0	0	0	0	0	0	0	1461	1455	1449	1449	1449	1443	1443	1443	1443	1443	1443	1443	1443	1443	1443	1443	1437	1443	1443	1431	1431	1431	1425	1419	1419	1419	1425	1419	1419	1425	1425	1425	1425	1419	1419	1419	1419	1419	1419	1419	0	0	0	0	0	0	0	0	0	0	0	0	0	0	0	0	0	0	0	0	0	0	0	0	0	0	0	0	0	0	0	0	0	0	0	0	0	0	0	0
0	0	0	0	0	0	0	0	0	0	1282	1282	1287	1291	1301	1301	1296	1296	1301	1301	1301	1301	0	0	0	0	0	0	0	0	0	0	0	0	0	0	0	1363	1358	1352	1352	1363	0	0	0	0	0	0	0	0	0	0	0	0	0	0	0	0	0	0	0	0	0	0	0	0	0	0	0	0	0	0	0	0	0	0	0	0	0	0	0	0	0	0	0	0	0	0	0	0	1419	1419	1419	1419	1419	1419	1413	1413	1419	1419	1419	1425	1425	1431	1431	1437	1437	1443	1449	1449	1455	1461	1461	1461	1467	1473	1473	1480	1486	1499	1506	1506	1512	1519	1525	1532	1539	1546	1546	1553	1560	1567	1574	1589	1596	1603	1611	1618	1626	1634	1641	1641	1649	1649	1665	1673	1698	1706	1706	1732	1741	1741	1741	1741	1741	1741	1741	1741	1741	1741	0	2690	2690	2711	2711	2711	2711	2711	2711	2711	2711	2690	2690	2690	2690	2669	2669	2649	2649	2629	0	0	2822	2822	2822	2822	2822	2822	2822	2799	2822	2822	2822	2845	2845	2845	2869	2869	2893	2893	2917	2917	2942	2967	2967	2993	2993	3019	3046	3046	3019	3019	3019	3019	3019	3019	0	0	0	0	0	0	0	0	0	0	0	0	0	6468	6468	6468	6468	6468	6468	6349	6349	6349	6349	6349	6468	6349	6349	6349	6349	6349	6349	6349	6349	6349	6468	6468	6468	6592	6592	6468	6468	6468	6468	6592	6592	6468	6468	6468	3907	3907	3907	3907	3907	3864	3864	3864	3864	3864	3821	3738	3698	3698	3698	3779	3821	3821	3821	3864	3864	3821	3821	3821	3779	3779	3779	3779	3738	3738	3738	3738	3738	3738	3738	3738	3738	3738	3779	3779	3779	3779	3821	3779	3821	3821	3821	3779	3821	3821	3821	3821	3821	3821	3821	3821	3821	3779	3779	3779	3779	3779	3779	3779	3779	3779	3779	3779	3779	3779	3779	3779	3779	3821	3779	3779	3779	3779	3864	3864	3821	3779	3864	3907	3864	3864	3864	3864	8343	8343	8146	8146	8146	8146	8146	8146	8146	8343	8343	8343	8146	8146	8146	8146	8146	7959	8146	8146	8146	8146	7959	7959	7959	6592	6592	6349	6235	6349	6349	6468	6468	6468	6468	6592	6468	6468	6468	6592	6592	6468	6468	6468	6468	6468	6349	6592	6349	6592	6592	6592	6720	6720	8146	8146	8146	8146	8146	8146	8146	8146	8146	8146	8343	8343	8146	8146	8146	8146	8146	8146	8146	8146	7959	7959	7959	7959	7959	7959	7959	7959	7959	7959	7959	7959	7959	7959	7959	7959	7959	7959	7959	7959	7959	7959	7959	0	0	0	0	0	0	0	0	0	0	0	0	0	0	0	0	0	0	0	0	0	0	0	0	0	0	0	0	0	0	0	0	0	0	0	0	0	0	0	0	0	0	0	0	0	0	0	0	0	0	0	0	0	0	0	0	0	0	0	0	0	0	0	0	0	0	0	0	0	0	0	0	0	0	0	0	0	0	0	1553	1553	0	0	0	0	0	0	0	0	0	0	0	0	0	0	0	1492	1492	1492	0	0	0	0	0	0	0	0	0	0	0	0	0	0	1449	1443	1443	1449	1449	1449	1443	1443	1443	1443	1443	1443	1437	1437	1437	1581	1581	1581	1425	1425	1425	1419	1425	1425	1431	1431	1431	1431	1431	1425	1425	1425	1425	1419	1419	1419	1419	1419	0	0	0	0	0	0	0	0	0	0	0	0	0	0	0	0	0	0	0	0	0	0	0	0	0	0	0	0	0	0	0	0	0	0	0	0	0	0	0	0
0	0	0	0	0	0	0	0	0	0	1287	1282	1291	1296	1301	1301	1301	1296	1301	1301	1301	1301	0	0	0	0	0	0	0	0	0	0	0	0	0	0	0	1363	1358	1352	1352	0	0	0	0	0	0	0	0	0	0	0	0	0	0	0	0	0	0	0	0	0	0	0	0	0	0	0	0	0	0	0	0	0	0	0	0	0	0	0	0	0	0	0	0	0	0	0	0	0	1419	1419	1419	1419	1419	1419	1413	1413	1419	1419	1419	1425	1425	1431	1431	1437	1437	1443	1443	1449	1449	1455	1461	1461	1467	1473	1480	1486	1492	1499	1506	1506	1519	1519	1525	1532	1539	1546	1546	1553	1560	1567	1581	1589	1596	1603	1603	1611	1626	1634	1641	1641	1649	1649	1665	1673	1673	1698	1715	1732	1741	1750	1750	1741	1741	1732	1741	1741	1741	0	0	2711	2711	2711	2733	2711	2711	2711	2711	2711	2711	2711	2690	2690	2690	2690	2649	2649	2629	2649	2649	2649	2822	2845	2822	2822	2822	2822	2822	2799	2822	2822	2822	2845	2845	2869	2869	2869	2893	2893	2893	2917	2942	2967	2967	2993	2993	3019	3019	3046	3046	3019	3019	3019	3046	3046	0	0	0	0	0	0	0	0	0	0	0	0	0	6468	6468	6468	6468	6468	6468	6468	6349	6349	6349	6349	6349	6349	6349	6349	6468	6349	6349	6349	6349	6349	6468	6468	6468	6468	6468	6468	6468	6468	6468	6592	6592	6468	6468	6468	6468	3907	3864	3907	3907	3907	3864	3864	3864	3821	3821	3779	3698	3738	3738	3779	3821	3821	3821	3821	3821	3821	3821	3821	3779	3779	3779	3779	3779	3738	3738	3738	3738	3738	3738	3738	3738	3738	3738	3738	3779	3779	3779	3779	3821	3821	3821	3779	3779	3779	3779	3821	3821	3779	3821	3821	3821	3779	3779	3779	3779	3779	3779	3779	3779	3779	3779	3779	3779	3779	3779	3821	3821	3821	3779	3779	3779	3779	3821	3821	3779	3779	3821	3864	3864	3864	3864	8343	8343	8343	8146	8146	8343	8146	8146	8146	8146	8343	8343	8343	8146	8146	8146	8146	7959	7959	7959	8146	7959	7959	7959	7779	7779	6592	6592	6349	6349	6468	6349	6468	6468	6468	6468	6592	6468	6468	6468	6468	6468	6468	6468	6468	6468	6468	6468	6468	6468	6468	6468	6468	6468	6720	8146	8146	8146	8146	8146	8146	8146	8146	8146	8146	8146	8146	8146	8146	8146	8146	8146	8146	7959	7959	7959	7959	7959	7959	7959	7959	7959	7959	7779	7959	7959	7959	7959	7959	7959	7959	7959	8146	8146	8146	7959	8146	8146	0	0	0	0	0	0	0	0	0	0	0	0	0	0	0	0	0	0	0	0	0	0	0	0	0	0	0	0	0	0	0	0	0	0	0	0	0	0	0	0	0	0	0	0	0	0	0	0	0	0	0	0	0	0	0	0	0	0	0	0	0	0	0	0	0	0	0	0	0	0	0	0	0	0	0	0	0	0	0	0	0	0	0	0	0	0	0	0	0	0	0	0	0	0	0	0	0	0	0	0	0	0	0	0	0	0	0	0	0	0	0	0	0	1449	1443	1443	1449	1449	1449	1443	1449	1449	1443	1443	1443	1443	1567	1567	1581	1581	1581	1581	1581	1574	1546	1546	1539	1546	1532	1532	1539	1539	1539	1425	1425	1425	1419	1419	1419	1419	1419	0	0	0	0	0	0	0	0	0	0	0	0	0	0	0	0	0	0	0	0	0	0	0	0	0	0	0	0	0	0	0	0	0	0	0	0	0	0	0	0
0	0	0	0	0	0	0	0	0	0	1287	1287	1291	1296	1301	1301	1296	1296	1296	1296	1296	1296	0	0	0	0	0	0	0	0	0	0	0	0	0	0	0	0	0	0	0	0	0	0	0	0	0	0	0	0	0	0	0	0	0	0	0	0	0	0	0	0	0	0	0	0	0	0	0	0	0	0	0	0	0	0	0	0	0	0	0	0	0	0	0	0	0	0	0	0	0	1413	1419	1419	1419	1419	1419	1419	1419	1419	1419	1419	1425	1425	1431	1437	1443	1443	1449	1449	1455	1455	1461	1461	1467	1473	1480	1480	1486	1499	1506	1506	1512	1519	1519	1525	1532	1539	1539	1546	1560	1567	1581	1589	1596	1603	1603	1611	1626	1634	1641	1641	1649	1649	1665	1673	1673	1698	1698	1732	1741	1759	1750	1741	1741	1741	1741	1741	1741	0	0	2711	2711	2733	2733	2733	2711	2711	2711	2711	2711	2711	2690	2690	2690	2690	2669	2649	2649	2649	2649	2649	2822	2822	2822	2822	2822	2822	2822	2799	2822	2822	2822	2845	2845	2869	2869	2869	2893	2893	2893	2917	2942	2942	2967	2993	2967	2993	3019	3019	2993	2993	2993	3019	3046	3046	0	0	0	0	0	0	0	0	0	0	0	0	0	6468	6468	6468	6468	6468	6468	6468	6349	6349	6349	6468	6468	6349	6349	6468	6349	6349	6349	6349	6349	6349	6349	6468	6468	6468	6592	6592	6592	6592	6592	6592	6592	6468	6468	6468	6468	3864	3864	3864	3907	3907	3864	3864	3864	3864	3779	3779	3698	3698	3698	3821	3821	3779	3821	3821	3821	3821	3821	3821	3779	3779	3779	3779	3779	3738	3738	3738	3738	3738	3738	3738	3738	3779	3779	3738	3779	3779	3821	3779	3821	3821	3821	3779	3779	3779	3779	3821	3821	3779	3821	3821	3821	3779	3779	3779	3779	3779	3779	3779	3779	3779	3779	3779	3779	3779	3779	3779	3821	3779	3779	3779	3779	3779	3821	3821	3779	3779	3779	3779	3864	8550	8550	8550	8550	8550	8343	8343	8343	8146	8146	8146	8146	8146	8146	8146	8146	8146	8146	8146	7959	7959	7959	8146	8146	7959	7959	7779	7779	6592	6592	6235	6349	6349	6235	6349	6468	6592	6592	6592	6592	6592	6592	6592	6468	6468	6468	6468	6468	6468	6592	6468	6592	6592	6592	6592	6720	6720	7959	7959	8146	8146	8146	8146	8146	8146	8146	8146	8146	8146	8146	8146	8146	8146	8146	7959	7959	7959	7959	7959	7959	7959	7959	7959	7779	7779	7779	7779	7779	7959	7959	8146	7959	8146	8146	8146	8146	7959	7959	8146	8146	0	0	0	0	0	0	0	0	0	0	0	0	0	0	0	0	0	0	0	0	0	0	0	0	0	0	0	0	0	0	0	0	0	0	0	0	0	0	0	0	0	0	0	0	0	0	0	0	0	0	0	0	0	0	0	0	0	0	0	0	0	0	0	0	0	0	0	0	0	0	0	0	0	0	0	0	0	0	0	0	0	0	0	0	0	0	0	0	0	0	0	0	0	0	0	0	0	0	0	0	0	0	0	0	0	0	0	0	0	0	0	0	0	0	0	0	1449	1449	1443	1443	1449	1449	1449	1449	1574	1574	1567	1567	1567	1574	1574	1574	1574	1574	1546	1546	1539	1546	1532	1532	1539	1539	1539	0	0	0	0	0	0	0	0	0	0	0	0	0	0	0	0	0	0	0	0	0	0	0	0	0	0	0	0	0	0	0	0	0	0	0	0	0	0	0	0	0	0	0	0	0	0	0	0
0	0	0	0	0	0	0	0	0	0	1287	1287	1291	1296	1301	1301	1296	1296	1296	1291	1291	1296	0	0	0	0	0	0	0	0	0	0	0	0	0	0	0	0	0	0	0	0	0	0	0	0	0	0	0	0	0	0	0	0	0	0	0	0	0	0	0	0	0	0	0	0	0	0	0	0	0	0	0	0	0	0	0	0	0	0	0	0	0	0	0	0	0	0	0	0	0	1413	1413	1419	1419	1413	1413	1413	1413	1419	1419	1419	1425	1425	1431	1437	1437	1443	1443	1449	1455	1455	1461	1461	1467	1473	1473	1480	1486	1499	1506	1506	1512	1519	1519	1525	1525	1539	1539	1546	1553	1567	1581	1589	1596	1603	1611	1611	1626	1634	1641	1641	1649	1657	1665	1673	1690	1690	1715	1732	1741	1759	1750	1750	1741	1741	1741	1741	1741	0	2777	2733	2733	2733	2733	2733	2711	2711	2711	2711	2711	2690	2690	2690	2690	2690	2669	2669	2669	2690	2690	2690	2822	2822	2822	2822	2822	2822	2822	2799	2822	2822	2822	2822	2845	2845	2845	2869	2869	2893	2893	2917	2942	2942	2942	2967	2993	2967	2993	2993	2993	2993	2993	0	0	0	0	0	0	0	0	0	0	0	0	0	0	0	0	6468	6468	6592	6592	6468	6468	6468	6468	6468	6468	6468	6468	6468	6468	6468	6468	6468	6349	6349	6349	6349	6349	6468	6592	6592	6592	6592	6592	6592	6592	6592	6592	6592	6468	6468	6468	3864	3864	3864	3907	3864	3821	3864	3864	3821	3821	6468	3698	3698	3698	3821	3821	3821	3821	3821	3821	3821	3821	3779	3779	3779	3779	3779	3779	3779	3779	3738	3738	3738	3738	3738	3738	3779	3779	3738	3779	3779	3779	3779	3779	3779	3821	3779	3779	3779	3779	3821	3821	3779	3821	3821	3821	3779	3779	3779	3779	3779	3779	3779	3779	3779	3779	3779	3779	3779	3779	3821	3821	3779	3779	3779	3779	3779	3779	3779	3779	3779	3779	3779	0	8767	8550	8550	8550	8550	8343	8343	8343	8146	8146	8146	8343	8343	8343	8343	8343	8343	8146	8146	8146	7959	7959	8146	8146	7959	7779	7779	7779	6592	6592	6235	6349	6235	6235	6349	6468	6468	6468	6592	6468	6468	6468	6592	6468	6468	6468	6468	6468	6468	6468	6468	6468	6592	6468	6592	6720	6853	7959	8146	8146	8146	8146	8146	8146	8343	8146	8146	8146	8146	8146	8146	8146	7959	7959	7959	7959	7959	7959	7959	7959	7959	7959	7959	7779	7779	7779	7959	7959	7779	7779	8146	7959	7959	7959	7959	7959	8146	7959	8146	8146	8146	0	0	0	0	0	0	0	0	0	0	0	0	0	0	0	0	0	0	0	0	0	0	0	0	0	0	0	0	0	0	0	0	0	0	0	0	0	0	0	0	0	0	0	0	0	0	0	0	0	0	0	0	0	0	0	0	0	0	0	0	0	0	0	0	0	0	0	0	0	0	0	0	0	0	0	0	0	0	0	0	0	0	0	0	0	0	0	0	0	0	0	0	0	0	0	0	0	0	0	0	0	0	0	0	0	0	0	0	0	0	0	0	0	0	0	1449	1449	1443	1443	1589	1581	1581	1581	1574	1574	1567	1567	1567	1567	1567	1567	1567	1567	1546	1546	1546	1539	1532	1532	1539	1539	1519	1512	1512	0	0	0	0	0	0	0	0	0	0	0	0	0	0	0	0	0	0	0	0	0	0	0	0	0	0	0	0	0	0	0	0	0	0	0	0	0	0	0	0	0	0	0	0	0	0
0	0	0	0	0	0	0	0	0	0	0	1287	1291	1296	1296	1296	1296	1291	1291	1296	1296	0	0	0	0	0	0	0	0	0	0	0	0	0	0	0	0	0	0	0	0	0	0	0	0	0	0	0	0	0	0	0	0	0	0	0	0	0	0	0	0	0	0	0	0	0	0	0	0	0	0	0	0	0	0	0	0	0	0	0	0	0	0	0	0	0	0	0	0	0	0	1419	1413	1419	1419	1419	1419	1419	1419	1419	1419	1419	1425	1425	1431	1431	1437	1443	1443	1443	1449	1455	1461	1455	1467	1473	1473	1480	1492	1499	1506	1512	1519	1519	1519	1525	1532	1539	1539	1546	1553	1567	1581	1581	1596	1603	1611	1618	1626	1634	1641	1649	1649	1649	1665	1673	1681	1706	1715	1732	1732	1750	1750	1750	1741	1741	1741	1741	1741	0	2777	2711	2711	2711	2733	2733	2711	2711	2711	2711	2690	2690	2690	2690	2690	2690	2690	2690	2690	2690	2690	2845	2845	2822	2822	2822	2822	2822	2822	2799	2822	2822	2822	2822	2845	2845	2845	2845	2869	2869	2893	2917	2942	2942	2942	2967	2967	2942	2993	2967	2993	2993	2993	0	0	0	0	0	0	0	0	0	0	0	0	0	0	0	0	0	6720	6592	6468	6468	6468	6468	6349	6468	6349	6349	6468	6468	6468	6468	6468	6468	6468	6468	6349	6349	6349	6468	6468	6468	6592	6592	6592	6592	6592	6592	6592	6592	6468	6468	6468	6468	3952	3864	3907	3821	3821	3779	3821	3821	6592	6468	6468	6468	6468	3779	3779	3779	3821	3821	3821	3821	3821	3821	3821	3779	3779	3821	3779	3779	3779	3779	3738	3738	3738	3738	3738	3779	3779	3779	3779	3779	3779	3779	3779	3779	3779	3779	3779	3779	3779	3821	3821	3821	3821	3821	3821	3779	3779	3779	3779	3779	3779	3779	3779	3779	3779	3779	3779	3779	3779	3779	3779	3779	3779	3779	3779	3779	3779	3779	3779	3779	3738	3738	0	8767	8767	8550	8550	8550	8343	8343	8146	8146	8146	8146	8343	8343	8343	8343	8343	8343	8146	8146	8146	7959	7959	8146	7959	7959	7779	7779	7779	6720	6592	6592	6349	6349	6235	6349	6468	6468	6592	6592	6468	6468	6468	6592	6468	6468	6468	6468	6468	6468	6468	6468	6468	6592	6468	6468	6468	6468	7959	8146	8343	8146	8146	8146	8146	8146	8146	8146	8146	8146	8146	8146	8146	8146	7959	7959	7959	7959	7959	7959	7959	7959	7959	7959	7959	7959	7959	7959	7959	7959	7959	7959	7959	7959	7959	8146	7959	7959	7959	8146	8146	8146	0	0	0	0	0	0	0	0	0	0	0	0	0	0	0	0	0	0	0	0	0	0	0	0	0	0	0	0	0	0	0	0	0	0	0	0	0	0	0	0	0	0	0	0	0	0	0	0	0	0	0	0	0	0	0	0	0	0	0	0	0	0	0	0	0	0	0	0	0	0	0	0	0	0	0	0	0	0	0	0	0	0	0	0	0	0	0	0	0	0	0	0	0	0	0	0	0	0	0	0	0	0	0	0	0	0	0	0	0	0	0	0	0	0	0	0	1449	1596	1596	1589	1581	1581	1581	1574	1574	1567	1567	1567	1567	1567	1567	1567	1553	1546	1546	1546	1539	1539	1532	1532	1525	1519	1512	1512	0	0	0	0	0	0	0	0	0	0	0	0	0	0	0	0	0	0	0	0	0	0	0	0	0	0	0	0	0	0	0	0	0	0	0	0	0	0	0	0	0	0	0	0	0	0
0	0	0	0	0	0	0	0	0	0	0	1287	1287	1291	1296	1296	1296	1291	1291	1291	1291	0	0	0	0	0	0	0	0	0	0	0	0	0	0	0	0	0	0	0	0	0	0	0	0	0	0	0	0	0	0	0	0	0	0	0	0	0	0	0	0	0	0	0	0	0	0	0	0	0	0	0	0	0	0	0	0	0	0	0	0	0	0	0	0	0	0	0	0	0	0	1419	1419	1419	1419	1419	1419	1413	1419	1419	1419	1419	1425	1425	1425	1431	1437	1443	1443	1443	1449	1455	1461	1461	1473	1473	1473	1480	1492	1499	1506	1512	1519	1525	1525	1525	1532	1546	1546	1553	1560	1567	1581	1589	1596	1611	1611	1618	1626	1634	1641	1649	1657	1657	1665	1673	1681	1690	1698	1732	1732	1750	1750	1750	1741	1741	1741	1741	1741	0	2777	2733	2733	2754	2733	2733	2711	2711	2711	2711	2690	2690	2690	2690	2690	2690	2690	2690	2690	2669	2669	2845	2845	2845	2822	2822	2822	2822	2822	2799	2822	2822	2822	2822	2845	2845	2845	2845	2869	2869	2869	2869	2917	2917	2942	2967	2942	2893	2893	2967	2993	2993	2993	0	0	0	0	0	0	0	0	0	0	0	0	0	0	0	0	0	6592	6592	6468	6468	6468	6349	6349	6349	6349	6349	6468	6349	6468	6349	6349	6349	6349	6349	6349	6349	6349	6468	6468	6468	6468	6592	6592	6592	6592	6592	6592	6592	6592	6468	6468	6468	6468	3864	3864	3821	3821	3779	3779	3821	6468	6468	6468	6468	6468	6468	6468	3864	3864	3821	3821	3821	3821	3821	3779	3779	3779	3779	3779	3779	3738	3738	3738	3738	3779	3738	3779	3779	3779	3779	3779	3779	3779	3779	3821	3779	3821	3779	3779	3779	3779	3821	3821	3821	3821	3821	3821	3821	3821	3779	3779	3779	3779	3779	3779	3779	3779	3779	3779	3779	3779	3821	3821	3779	3779	3779	3779	3779	6468	6468	6468	6468	6468	6349	6468	6349	8550	8550	8550	8550	8343	8343	8146	8146	8146	8146	8343	8343	8343	8343	8343	8343	8146	8146	7959	7959	7959	7959	7959	7959	7779	7779	7608	6720	6592	6349	6349	6349	6349	6349	6468	6468	6592	6592	6592	6468	6592	6592	6468	6468	6468	6468	6468	6468	6468	6468	6468	6592	6468	6468	6468	6468	7959	8343	8343	8146	8146	8146	8146	8146	8343	8146	8146	7959	7959	7959	8146	8146	8146	8146	7959	7959	7959	7959	7959	7959	7959	7959	7779	7779	7959	7959	7959	7959	7959	8146	7959	7959	8146	8146	7959	8146	7959	8146	7959	7959	0	0	0	0	0	0	0	0	0	0	0	0	0	0	0	0	0	0	0	0	0	0	0	0	0	0	0	0	0	0	0	0	0	0	0	0	0	0	0	0	0	0	0	0	0	0	0	0	0	0	0	0	0	0	0	0	0	0	0	0	0	0	0	0	0	0	0	0	0	0	0	0	0	0	0	0	0	0	0	0	0	0	0	0	0	0	0	0	0	0	0	0	0	0	0	0	0	0	0	0	0	0	0	0	0	0	0	0	0	0	0	0	0	0	0	0	0	1596	1589	1596	1589	1589	1581	1581	1581	1574	1567	1567	1574	1574	1567	1567	1567	1546	1546	1546	1539	1539	1532	1532	1525	1519	1506	1506	1492	1492	0	0	0	0	0	0	0	0	0	0	0	0	0	0	0	0	0	0	0	0	0	0	0	0	0	0	0	0	0	0	0	0	0	0	0	0	0	0	0	0	0	0	0	0
0	0	0	0	0	0	0	0	0	0	0	1287	1287	1291	1291	1296	1296	1291	1291	1282	1282	0	0	0	0	0	0	0	0	0	0	0	0	0	0	0	0	0	0	0	0	0	0	0	0	0	0	0	0	0	0	0	0	0	0	0	0	0	0	0	0	0	0	0	0	0	0	0	0	0	0	0	0	0	0	0	0	0	0	0	0	0	0	0	0	0	0	0	0	0	0	1419	1419	1419	1419	1419	1419	1413	1419	1419	1419	1419	1425	1431	1431	1431	1437	1443	1443	1443	1449	1461	1467	1467	1480	1486	1480	1486	1492	1499	1512	1512	1525	1525	1525	1525	1532	1546	1546	1553	1560	1574	1581	1589	1596	1603	1611	1618	1626	1634	1641	1649	1657	1657	1673	1673	1673	1690	1698	1723	1715	1750	1750	1768	1768	1768	1768	1741	0	0	0	2733	2733	2754	2733	2733	2711	2711	2711	2711	2690	2690	2690	2690	2690	2690	2690	2690	2669	2669	2669	2845	2845	2845	2822	2822	2822	2822	2822	2799	2822	2822	2822	2822	2845	2845	2845	2845	2869	2869	2893	2893	2917	2917	2942	2942	2917	2869	2869	0	0	0	0	0	0	0	0	0	0	0	0	0	0	0	0	0	0	0	0	0	6592	6592	6468	6468	6349	6349	6349	6349	6349	6349	6468	6349	6468	6468	6468	6468	6349	6468	6349	6349	6349	6468	6592	6468	6468	6592	6592	6592	6592	6592	6592	6592	6592	6592	6468	6468	6468	6468	6592	6592	6720	6720	6592	6592	6592	6592	6592	6468	6468	6468	6468	3864	3864	3821	3821	3821	3821	3779	3779	3779	3779	3779	3779	3779	3779	3779	3738	3779	3779	3779	3779	3779	3779	3779	3779	3779	3821	3779	3821	3821	3821	3779	3779	3779	3779	3821	3821	3821	3864	3864	3821	3821	3821	3779	3779	3779	3779	3779	3779	3779	3779	3779	3779	3779	3779	3779	3821	3779	3821	3821	3821	0	6468	6468	6468	6468	6468	6349	6468	6349	6349	8550	8343	8343	8343	8343	8146	8146	8146	8146	8146	8146	8146	8343	8343	8146	8146	7959	7959	7959	7959	7959	7959	7959	7779	7779	7608	6468	6468	6235	6349	6349	6349	6468	6468	6592	6592	6592	6468	6468	6468	6468	6468	6468	6468	6468	6468	6468	6468	6468	6468	6468	6349	6468	6349	6349	8146	8343	8343	8146	8146	8146	8146	8146	8343	8146	8146	7959	7959	7959	8146	8146	8146	8146	7959	8146	7959	7959	7959	7959	7959	7959	7959	7959	7959	7959	7959	8146	8146	8146	8146	8146	8146	8146	7959	7959	7959	7959	7959	7959	0	0	0	0	0	0	0	0	0	0	0	0	0	0	0	0	0	0	0	0	0	0	0	0	0	0	0	0	0	0	0	0	0	0	0	0	0	0	0	0	0	0	0	0	0	0	0	0	0	0	0	0	0	0	0	0	0	0	0	0	0	0	0	0	0	0	0	0	0	0	0	0	0	0	0	0	0	0	0	0	0	0	0	0	0	0	0	0	0	0	0	0	0	0	0	0	0	0	0	0	0	0	0	0	0	0	0	0	0	0	0	0	0	0	0	1611	1603	1603	1596	1596	1589	1589	1589	1581	1581	1567	1567	1574	1574	1574	1574	1567	1567	1546	1546	1546	1539	1539	1532	1532	1532	1525	1512	1506	1492	1486	1486	0	0	0	0	0	0	0	0	0	0	0	0	0	0	0	0	0	0	0	0	0	0	0	0	0	0	0	0	0	0	0	0	0	0	0	0	0	0	0	0	0	0	0
0	0	0	0	0	0	0	0	0	0	0	1287	1291	1291	1291	1296	1296	1296	1296	1296	1282	0	0	0	0	0	0	0	0	0	0	0	0	0	0	0	0	0	0	0	0	0	0	0	0	0	0	0	0	0	0	0	0	0	0	0	0	0	0	0	0	0	0	0	0	0	0	0	0	0	0	0	0	0	0	0	0	0	0	0	0	0	0	0	0	0	0	0	0	1402	1413	1425	1425	1419	1425	1419	1413	1413	1413	1419	1419	1419	1431	1431	1431	1437	1437	1443	1443	1443	1449	1449	1473	1480	1486	1486	1486	1486	1486	1499	1506	1512	1525	1525	1525	1525	1532	1546	1553	1560	1567	1574	1581	1581	1589	1603	1611	1611	1618	1634	1641	1634	1657	1665	1665	1673	1681	1690	1698	1723	1732	1750	1750	1750	1768	1768	1768	0	0	0	0	2733	2733	2733	2733	2733	2711	2711	2711	2711	2690	2711	2711	2711	2711	2690	2669	2690	2669	2669	2669	2845	2845	2822	2822	2822	2822	2822	2822	2822	2822	2822	2822	2822	2822	2845	2845	2869	2869	2869	2893	2893	2917	2917	2917	2917	2917	2917	2869	0	0	0	0	0	0	0	0	0	0	0	0	0	0	0	0	0	0	0	0	0	6592	6592	6468	6468	6468	6468	6468	6468	6468	6349	6468	6468	6468	6468	6468	6468	6468	6468	6468	6468	6468	6592	6592	6468	6468	6592	6592	6592	6592	6592	6592	6592	6592	6592	6592	6592	6592	6592	6592	6592	6592	6592	6592	6592	6592	6592	6592	6468	6468	6592	6592	3864	3864	3821	3821	3821	3821	3821	3821	3779	3821	3821	3779	3779	3779	3779	3779	3779	3779	3779	3779	3779	3821	3779	3821	3779	3779	3779	3821	3821	3821	3779	3779	3779	3779	3821	3821	3821	3821	3821	3821	3821	3821	3779	3779	3779	3779	3779	3779	3779	3779	3779	3779	3779	3779	3779	3779	3779	3821	3821	3821	6592	6349	6468	6468	6468	6468	6349	6468	6468	6468	8343	8343	8343	8343	8146	8146	8146	8146	8146	8146	8146	8146	8343	8146	8146	8146	8146	8146	8146	8146	8146	8146	7959	7779	7779	7287	6468	6349	6349	6349	6349	6349	6468	6468	6468	6468	6468	6592	6468	6468	6468	6468	6468	6468	6468	6468	6468	6468	6468	6468	6468	6349	6349	6349	6349	7959	8146	8343	8146	8146	8146	8146	8343	8343	8146	8146	7959	7959	7959	8146	8146	8146	8146	8146	8146	8146	8146	8146	8146	8146	7959	7959	7959	7959	7959	7959	8146	8146	8146	8146	8146	7959	7959	7959	7959	7959	7959	7959	7959	0	0	0	0	0	0	0	0	0	0	0	0	0	0	0	0	0	0	0	0	0	0	0	0	0	0	0	0	0	0	0	0	0	0	0	0	0	0	0	0	0	0	0	0	0	0	0	0	0	0	0	0	0	0	0	0	0	0	0	0	0	0	0	0	0	0	0	0	0	0	0	0	0	0	0	0	0	0	0	0	0	0	0	0	0	0	0	0	0	0	0	0	0	0	0	0	0	0	0	0	0	0	0	0	0	0	0	0	0	0	0	0	0	0	0	1611	1603	1603	1596	1596	1596	1589	1589	1589	1581	1567	1567	1574	1574	1574	1574	1567	1567	1560	1553	1546	1539	1539	1539	1539	1532	1525	1519	1512	1499	1499	1486	0	0	0	0	0	0	0	0	0	0	0	0	0	0	0	0	0	0	0	0	0	0	0	0	0	0	0	0	0	0	0	0	0	0	0	0	0	0	0	0	0	0	0
0	0	0	0	0	0	0	0	0	0	0	1282	1287	1287	1291	1291	1296	1296	1296	1296	0	0	0	0	0	0	0	0	0	0	0	0	0	0	0	0	0	0	0	0	0	0	0	0	0	0	0	0	0	0	0	0	0	0	0	0	0	0	0	0	0	0	0	0	0	0	0	0	0	0	0	0	0	0	0	0	0	0	0	0	0	0	0	0	0	0	0	0	0	1407	1413	1425	1425	1425	1425	1419	1419	1413	1413	1413	1413	1419	1425	1431	1431	1437	1437	1443	1443	1443	1443	1492	1486	1486	1492	1492	1492	1492	1492	1492	1492	1512	1525	1525	1525	1532	1532	1546	1553	1560	1567	1574	1581	1581	1589	1589	1603	1611	1611	1634	1641	1641	1641	1665	1673	1673	1681	1690	1698	1715	1715	1741	1750	1750	0	0	0	0	0	0	0	2733	2711	2733	2711	2711	2711	2711	2711	2711	2711	2711	2711	2711	2711	2690	2690	2690	2669	2669	2669	2845	2845	2845	2845	2845	2822	2822	2822	2822	2822	2822	2822	2822	2845	2845	2845	2869	2869	2869	2893	2893	2893	2917	2893	2917	2893	2893	0	0	0	0	0	0	0	0	0	0	0	0	0	0	0	0	0	0	0	0	0	0	0	6592	6349	6468	6349	6468	6468	6468	6468	6468	6468	6468	6468	6468	6468	6468	6468	6468	6468	6468	6468	6592	6592	6592	6468	6592	6592	6592	6592	6592	6592	6592	6592	6592	6468	6592	6468	6592	6592	6592	6592	6592	6592	6592	6592	6592	6592	6468	6468	6468	6592	3821	3821	3821	3821	3821	3821	3821	3821	3821	3779	3779	3779	3738	3738	3779	3779	3779	3779	3779	3779	3779	3821	3821	3821	3779	3779	3779	3779	3779	3779	3779	3779	3779	3779	3779	3821	3821	3821	3821	3821	3821	3821	3821	3779	3779	3779	3779	3779	3779	3779	3779	3779	3779	3779	3779	3821	3779	3821	3821	0	6349	6349	6468	6468	6468	6468	6349	6349	6468	6468	6468	8550	8343	8343	8343	8146	8146	8146	8146	8146	8146	8146	8146	8146	8146	8146	8146	7959	7959	7959	7959	7959	7959	7959	7779	7137	6468	6349	6235	6349	6349	6349	6349	6349	6349	6468	6468	6592	6468	6468	6468	6468	6468	6349	6349	6349	6468	6349	6349	6349	6468	6349	6349	6235	6349	8146	8343	8343	8343	8343	8343	8343	8343	8343	8146	8146	7959	7959	7959	8146	8146	8146	8146	8146	8146	8146	8146	8146	8146	8146	7959	7959	7959	7959	7959	8146	8146	8146	8146	8146	8146	7959	7959	7959	7959	7959	7959	7959	7959	0	0	0	0	0	0	0	0	0	0	0	0	0	0	0	0	0	0	0	0	0	0	0	0	0	0	0	0	0	0	0	0	0	0	0	0	0	0	0	0	0	0	0	0	0	0	0	0	0	0	0	0	0	0	0	0	0	0	0	0	0	0	0	0	0	0	0	0	0	0	0	0	0	0	0	0	0	0	0	0	0	0	0	0	0	0	0	0	0	0	0	0	0	0	0	0	0	0	0	0	0	0	0	0	0	0	0	0	0	0	0	0	0	0	0	1618	1611	1611	1603	1603	1596	1589	1589	1589	1589	1574	1567	1567	1574	1574	1574	1574	1567	1567	1553	1546	1546	1546	1539	1539	1532	1532	1519	1519	1499	1499	0	0	0	0	0	0	0	0	0	0	0	0	0	0	0	0	0	0	0	0	0	0	0	0	0	0	0	0	0	0	0	0	0	0	0	0	0	0	0	0	0	0	0	0
0	0	0	0	0	0	0	0	0	0	0	1282	1282	1287	1287	1291	1291	1296	1301	1301	0	0	0	0	0	0	0	0	0	0	0	0	0	0	0	0	0	0	0	0	0	0	0	0	0	0	0	0	0	0	0	0	0	0	0	0	0	0	0	0	0	0	0	0	0	0	0	0	0	0	0	0	0	0	0	0	0	0	0	0	0	0	0	0	0	0	0	0	0	1407	1413	1425	1419	1425	1419	1419	1413	1413	1413	1413	1413	1413	1419	1419	1431	1437	1443	1449	1449	1449	1443	1492	1492	1492	1499	1499	1499	1492	1492	1499	1506	1512	1525	1532	1532	1532	1532	1553	1560	1567	1574	1574	1581	1581	1589	1596	1603	1611	1618	1626	1641	1641	1649	1665	1673	1681	1690	1698	1706	1706	1715	1741	1759	1759	0	0	0	0	0	0	0	2733	2711	2733	2711	2711	2711	2711	2711	2690	2690	2690	2711	2711	2690	2690	2669	2690	2669	2669	2669	2845	2845	2845	2845	2845	2822	2822	2822	2822	2822	2822	2822	2822	2822	2822	2845	2869	2893	2893	2917	2893	2917	2917	2917	2917	2917	2917	0	0	0	0	0	0	0	0	0	0	0	0	0	0	0	0	0	0	0	0	0	0	0	0	6349	6349	6349	6349	6349	6468	6468	6468	6468	6468	6468	6468	6468	6468	6468	6468	6468	6468	6468	6592	6592	6592	6592	6592	6592	6592	6592	6592	6592	6592	6592	6592	6468	6592	6592	6592	6592	6592	6592	6592	6592	6592	6592	6592	6592	6468	6468	6468	6592	3864	3864	3864	3864	3864	3864	3821	3821	3821	3779	3779	3779	3779	3738	3779	3779	3779	3779	3779	3779	3779	3821	3779	3779	3779	3779	3779	3779	3821	3779	3779	3779	3779	3779	3821	3821	3821	3821	3821	3821	3821	3821	3821	3779	3779	3779	3779	3779	3779	3779	3779	3779	3779	3779	3779	3821	3821	3821	3821	6349	6349	6349	6468	6468	6468	6349	6349	6349	6468	6468	6468	8343	8343	8343	8343	8146	8146	8146	8146	8146	8146	8146	8146	8146	8146	8146	8146	7959	7959	8146	8146	7959	7959	7779	7779	6992	6468	6349	6235	6349	6349	6349	6349	6349	6468	6468	6468	6468	6349	6468	6468	6468	6468	6349	6349	6349	6349	6349	6349	6349	6349	6349	6349	6349	6349	8343	8343	8343	8343	8343	8343	8343	8343	8343	8146	8146	7959	7959	7959	8146	8146	8146	8146	8146	8146	8146	8146	8146	8146	8146	8146	7959	7959	7959	7959	7959	8146	8146	8146	8146	8146	7959	7959	7959	7959	7959	7959	7959	7779	7779	0	0	0	0	0	0	0	0	0	0	0	0	0	0	0	0	0	0	0	0	0	0	0	0	0	0	0	0	0	0	0	0	0	0	0	0	0	0	0	0	0	0	0	0	0	0	0	0	0	0	0	0	0	0	0	0	0	0	0	0	0	0	0	0	0	0	0	0	0	0	0	0	0	0	0	0	0	0	0	0	0	0	0	0	0	0	0	0	0	0	0	0	0	0	0	0	0	0	0	0	0	0	0	0	0	0	0	0	0	0	0	0	0	0	1618	1611	1611	1603	1603	1596	1596	1589	1589	1589	1581	1574	1574	1581	1574	1574	1574	1574	1567	1553	1553	1546	1546	1539	1539	1532	1532	1525	1519	1506	1506	0	0	0	0	0	0	0	0	0	0	0	0	0	0	0	0	0	0	0	0	0	0	0	0	0	0	0	0	0	0	0	0	0	0	0	0	0	0	0	0	0	0	0	0
0	0	0	0	0	0	0	0	0	0	0	1282	1282	1282	1287	1291	1291	1296	1296	1301	1301	0	0	0	0	0	0	0	0	0	0	0	0	0	0	0	0	0	0	0	0	0	0	0	0	0	0	0	0	0	0	0	0	0	0	0	0	0	0	0	0	0	0	0	0	0	0	0	0	0	0	0	0	0	0	0	0	0	0	0	0	0	0	0	0	0	0	0	0	0	1413	1425	1419	1419	1419	1419	1413	1413	1413	1413	1413	1413	1413	1419	1431	1431	1443	1449	1449	1449	0	1499	1499	1499	1499	1506	1506	1499	1499	1506	1512	1519	1532	1532	1532	1539	1539	1567	1574	1574	1581	1589	1589	1589	1589	1603	1603	1611	1618	1626	1641	1641	1649	1657	1673	1673	1690	1698	1706	1706	1715	1715	1741	1741	0	0	0	0	0	0	0	2733	2711	2711	2711	2711	2690	2690	2711	2690	2690	2690	2711	2711	2690	2690	2690	2690	2690	2690	2690	2690	2845	2845	2845	2822	2822	2822	2822	2822	2822	2822	2822	2822	2822	2845	2845	2869	2893	2893	2917	2893	2917	2917	2917	2917	2917	2917	0	0	0	0	0	0	0	0	0	0	0	0	0	0	0	0	0	0	0	0	0	0	0	0	0	6349	6349	6468	6349	6349	6349	6349	6349	6349	6468	6468	6468	6468	6468	6468	6468	6468	6468	6468	6592	6592	6592	6592	6592	6592	6592	6592	6592	6592	6592	6592	6468	6592	6468	6592	6592	6592	6592	6592	6592	6592	6592	6592	6592	6468	6468	6468	6592	3864	3864	3864	3864	3864	3864	3864	3821	3821	3779	3821	3779	3779	3738	3779	3779	3779	3779	3779	3779	3779	3821	3779	3779	3779	3779	3779	3821	3821	3821	3821	3821	3821	3821	3821	3821	3821	3821	3821	3821	3821	3821	3821	3779	3779	3779	3779	3779	3779	3779	3779	3779	3779	3779	3779	3821	3821	3821	6349	6349	6349	6349	6468	6468	6349	6349	6349	6349	6468	6468	6468	8343	8343	8146	8146	8146	8146	8146	8146	7959	7959	7959	7959	7959	7959	7959	7959	7959	7959	8146	7959	7959	7959	7779	7779	6992	6720	6349	6235	6349	6349	6349	6349	6349	6468	6468	6592	6349	6349	6468	6468	6468	6468	6349	6349	6349	6349	6349	6349	6349	6349	6349	6349	6235	6235	8343	8550	8343	8343	8343	8343	8343	8146	8146	8146	8146	8146	7959	7959	8146	8146	8146	8146	8146	8146	8146	8146	8146	8146	8146	7959	7959	7959	7959	7959	7959	8146	8146	8146	8146	8146	7959	7959	7959	7959	7959	7959	7959	7779	7779	0	0	0	0	0	0	0	0	0	0	0	0	0	0	0	0	0	0	0	0	0	0	0	0	0	0	0	0	0	0	0	0	0	0	0	0	0	0	0	0	0	0	0	0	0	0	0	0	0	0	0	0	0	0	0	0	0	0	0	0	0	0	0	0	0	0	0	0	0	0	0	0	0	0	0	0	0	0	0	0	0	0	0	0	0	0	0	0	0	0	0	0	0	0	0	0	0	0	0	0	0	0	0	0	0	0	0	0	0	0	0	0	0	0	1618	1611	1611	1611	1611	1596	1596	1596	1589	1589	1589	1589	1581	1581	1581	1581	1574	1574	1567	1560	1560	1553	1546	1546	1546	1539	1532	1525	1519	1499	1499	0	0	0	0	0	0	0	0	0	0	0	0	0	0	0	0	0	0	0	0	0	0	0	0	0	0	0	0	0	0	0	0	0	0	0	0	0	0	0	0	0	0	0	0
0	0	0	0	0	0	0	0	0	0	0	1282	1282	1282	1287	1287	1291	1301	1306	1311	1311	0	0	0	0	0	0	0	0	0	0	0	0	0	0	0	0	0	0	0	0	0	0	0	0	0	0	0	0	0	0	0	0	0	0	0	0	0	0	0	0	0	0	0	0	0	0	0	0	0	0	0	0	0	0	0	0	0	0	0	0	0	0	0	0	0	0	0	0	0	0	1425	1419	1425	1419	1413	1413	1413	1413	1413	1413	1419	1419	1419	1431	1431	0	0	0	0	0	1499	1506	1506	1506	1506	1506	1506	1506	1519	1519	1525	1539	1546	1546	1546	1553	1567	1574	1574	1581	1589	1589	1589	1596	1603	1611	1611	1618	1626	1641	1641	1649	1665	1673	1673	1690	1698	1706	1706	1715	1732	1732	1741	0	0	0	0	0	0	2711	2711	2711	2711	2711	2690	2711	2711	2711	2711	2690	2711	2711	2711	2711	2690	2690	2690	2690	2690	2690	2690	2845	2822	2822	2845	2822	2822	2822	2822	2822	2822	2822	2822	2822	2845	2845	2869	2893	2893	2917	2917	2917	2917	2917	2942	2942	0	0	0	0	0	0	0	0	0	0	0	0	0	0	0	0	0	0	0	0	0	0	0	0	0	0	6349	6592	6468	6468	6349	6349	6349	6349	6349	6468	6468	6468	6349	6349	6468	6468	6468	6468	6592	6592	6592	6592	6592	6592	6592	6592	6592	6592	6592	6592	6592	6468	6592	6592	6592	6592	6592	6592	6592	6592	6592	6592	6592	6592	6592	6592	6468	6592	3864	3864	3864	3864	3864	3864	3864	3821	3821	3779	3779	3779	3779	3779	3779	3779	3779	3779	3779	3779	3779	3779	3779	3779	3779	3779	3821	3821	3821	3821	3821	3821	3821	3821	3821	3821	3821	3821	3821	3821	3821	3821	3821	3779	3779	3779	3779	3779	3779	3779	3779	3779	3779	3779	3821	3821	3864	3864	6349	6468	6468	6349	6468	6349	6349	6349	6349	6349	6349	6349	6349	8767	8550	8343	8146	8146	8146	8146	8146	7959	7959	7959	7959	7959	7959	7959	7959	7959	7959	7959	7959	7779	7779	7779	7779	7137	6720	6349	6235	6349	6349	6235	6349	6349	6468	6468	6468	6468	6349	6468	6468	6468	6468	6349	6349	6349	6349	6349	6349	6349	6349	6349	6349	6235	6235	6235	8146	8146	8343	8343	8343	8343	8146	8343	8146	8146	8146	7959	7959	8146	7959	7959	8146	8146	8146	8146	8146	8146	8146	8146	7959	7959	7959	7959	7959	7959	8146	8146	8146	8146	8146	7959	7959	7959	7959	7959	7959	7959	7779	7779	7779	0	0	0	0	0	0	0	0	0	0	0	0	0	0	0	0	0	0	0	0	0	0	0	0	0	0	0	0	0	0	0	0	0	0	0	0	0	0	0	0	0	0	0	0	0	0	0	0	0	0	0	0	0	0	0	0	0	0	0	0	0	0	0	0	0	0	0	0	0	0	0	0	0	0	0	0	0	0	0	0	0	0	0	0	0	0	0	0	0	0	0	0	0	0	0	0	0	0	0	0	0	0	0	0	0	0	0	0	0	0	0	0	0	1618	1611	1611	1611	1611	1603	1596	1596	1596	1589	1589	1589	1581	1581	1589	1581	1574	1574	1567	1567	1567	1553	1553	1553	1553	1546	1539	1532	1532	1499	1499	0	0	0	0	0	0	0	0	0	0	0	0	0	0	0	0	0	0	0	0	0	0	0	0	0	0	0	0	0	0	0	0	0	0	0	0	0	0	0	0	0	0	0	0
0	0	0	0	0	0	0	0	0	0	0	1282	1282	1282	1287	1287	1287	1306	1306	1316	1316	0	0	0	0	0	0	0	0	0	0	0	0	0	0	0	0	0	0	0	0	0	0	0	0	0	0	0	0	0	0	0	0	0	0	0	0	0	0	0	0	0	0	0	0	0	0	0	0	0	0	0	0	0	0	0	0	0	0	0	0	0	0	0	0	0	0	0	0	0	0	0	0	1425	1419	1419	1413	1413	1413	1413	1413	1419	1419	0	0	0	0	0	0	0	0	0	1506	1506	1506	1512	1519	1512	1519	1525	1532	1539	1539	1546	1546	1546	1567	1574	1574	1581	1581	1589	1589	1589	1596	1603	1603	1611	1618	1634	1641	1641	1649	1665	1673	1681	1690	1698	1706	1706	1715	1732	1741	1741	1768	1768	0	0	0	0	2711	2733	2733	2733	2711	2711	2711	2711	2711	2711	2711	2711	2711	2711	2690	2690	2690	2690	2669	2690	2690	2690	2822	2822	2845	2845	2822	2822	2822	2822	2822	2822	2822	2822	2822	2845	2845	2869	2893	2893	2917	2917	2917	2942	2942	2967	2967	0	0	0	0	0	0	0	0	0	0	0	0	0	0	0	0	0	0	0	0	0	0	0	0	0	0	0	6592	6468	6468	6349	6349	6349	6349	6349	6349	6468	6468	6349	6468	6468	6468	6468	6468	6592	6592	6592	6592	6592	6592	6592	6592	6592	6592	6592	6592	6592	6468	6592	6468	6592	6592	6592	6592	6592	6592	6592	6592	6592	6592	6592	6592	6468	6592	6468	3864	3864	3821	3864	3864	3821	3821	3779	3779	3779	3779	3779	3779	3779	3779	3779	3779	3779	3779	3779	3779	3779	3821	3779	3779	3821	3821	3821	3821	3864	3821	3821	3821	3821	3821	3821	3821	3821	3821	3821	3821	3821	3779	3779	3779	3779	3779	3779	3779	3779	3779	3779	3779	3821	3821	3864	3864	6468	6468	6468	6468	6468	6468	6349	6349	6349	6349	6468	6349	6468	6468	8146	8146	8146	8146	8146	7959	8146	7959	7959	7959	7959	7959	7959	7959	7959	7959	7959	7959	7779	7779	7779	7608	7608	7137	7137	6349	6349	6349	6349	6235	6349	6349	6349	6468	6468	6468	6349	6468	6468	6349	6349	6349	6349	6349	6349	6349	6349	6349	6349	6349	6349	6349	6235	6235	8146	8343	8343	8343	8343	8146	8146	8146	8146	8146	8146	7959	7959	8146	7959	8146	7959	8146	8146	8146	8146	8146	8146	8146	7959	7959	7959	7959	7959	8146	8146	8146	8146	8146	8146	8146	7959	7959	7959	7959	7959	7959	7779	7779	7959	8146	8146	0	0	0	0	0	0	0	0	0	0	0	0	0	0	0	0	0	0	0	0	0	0	0	0	0	0	0	0	0	0	0	0	0	0	0	0	0	0	0	0	0	0	0	0	0	0	0	0	0	0	0	0	0	0	0	0	0	0	0	0	0	0	0	0	0	0	0	0	0	0	0	0	0	0	0	0	0	0	0	0	0	0	0	0	0	0	0	0	0	0	0	0	0	0	0	0	0	0	0	0	0	0	0	0	0	0	0	0	0	0	0	0	0	1611	1611	1611	1603	1596	1596	1596	1596	1596	1596	1589	1589	1581	1581	1574	1574	1567	1567	1567	1567	1560	1567	1567	1567	1560	1553	1553	1553	0	0	0	0	0	0	0	0	0	0	0	0	0	0	0	0	0	0	0	0	0	0	0	0	0	0	0	0	0	0	0	0	0	0	0	0	0	0	0	0	0	0	0	0	0
0	0	0	0	0	0	0	0	0	0	0	1282	1282	1282	1287	1287	1287	1287	1306	1316	1316	0	0	0	0	0	0	0	0	0	0	0	0	0	0	0	0	0	0	0	0	0	0	0	0	0	0	0	0	0	0	0	0	0	0	0	0	0	0	0	0	0	0	0	0	0	0	0	0	0	0	0	0	0	0	0	0	0	0	0	0	0	0	0	0	0	0	0	0	0	0	0	0	0	0	1419	1413	1413	1413	1413	1413	0	0	0	0	0	0	0	0	0	0	0	1506	1506	1512	1519	1519	1519	1519	1525	1532	1546	1546	1546	1553	1546	1567	1574	1574	1581	1589	1596	1589	1596	1603	1603	1611	1611	1618	1634	1634	1641	1641	1665	1673	1673	1698	1698	1706	1706	1715	1732	1741	1741	1768	1768	0	0	0	0	0	2733	2711	2711	2711	2711	2711	2711	2711	2711	2711	2711	2711	2711	2711	2690	2690	2690	2690	2690	2690	2845	2845	2845	2845	2845	2822	2822	2822	2822	2822	2822	2822	2822	2845	2845	2845	2869	2893	2893	2917	2917	2942	2917	2967	2967	2967	0	0	0	0	0	0	0	0	0	0	0	0	0	0	0	0	0	0	0	0	0	0	0	0	0	0	0	0	0	6468	6349	6349	6349	6349	6349	6468	6468	6468	6468	6349	6468	6468	6468	6468	6592	6592	6592	6592	6592	6592	6592	6592	6592	6592	6592	6592	6592	6468	6468	6468	6468	6592	6592	6592	6592	6592	6592	6592	6592	6592	6592	6592	6468	6468	3821	3821	3821	3821	3864	3864	3821	3779	3779	3779	3779	3779	3779	3779	3779	3779	3779	3779	3779	3779	3779	3779	3779	3821	3779	3779	3821	3821	3821	3821	3864	3821	3821	3821	3821	3821	3821	3821	3821	3821	3821	3821	3821	3779	3779	3779	3779	3779	3779	3779	3779	3779	3779	3779	3779	3821	3821	3821	6349	6468	6349	6349	6468	6349	6349	6349	6349	6349	6468	6349	6349	8550	8343	8146	8146	7959	7959	7959	7959	7959	7959	7959	7959	7959	7959	7959	7959	7959	7959	7959	7959	7608	7779	7608	7444	7444	6349	6349	6349	6349	6235	6349	6349	6349	6349	6468	6468	6468	6349	6349	6349	6349	6349	6349	6349	6349	6349	6349	6349	6349	6349	6349	6349	6349	6235	6235	8146	8550	8343	8343	8343	8343	8146	8343	7959	8146	8146	7959	7959	7959	7959	7959	7959	7959	7959	8146	8146	8146	8146	8146	7959	7959	7959	7959	7959	7959	8146	8146	8146	8146	8146	8146	7959	7959	7959	7959	7959	7959	7959	7959	8146	8146	8146	0	0	0	0	0	0	0	0	0	0	0	0	0	0	0	0	0	0	0	0	0	0	0	0	0	0	0	0	0	0	0	0	0	0	0	0	0	2237	2223	2208	2208	0	0	0	0	0	0	0	0	0	0	0	0	0	0	0	0	0	0	0	0	0	0	0	0	0	0	0	0	0	0	0	0	0	0	0	0	0	0	0	0	0	0	0	0	0	0	0	0	0	0	0	0	0	0	0	0	0	0	0	0	0	0	0	0	0	0	0	0	0	0	0	0	0	1618	1611	1596	1596	1596	1596	1596	1596	1589	1589	1589	1581	1581	1574	1567	1567	1567	1567	1567	1567	1567	1574	1581	1574	1574	1567	1567	1567	0	0	0	0	0	0	0	0	0	0	0	0	0	0	0	0	0	0	0	0	0	0	0	0	0	0	0	0	0	0	0	0	0	0	0	0	0	0	0	0	0	0	0	0
0	0	0	0	0	0	0	0	0	0	0	1282	1282	1282	1282	1287	1296	1301	1301	0	0	0	0	0	0	0	0	0	0	0	0	0	0	0	0	0	0	0	0	0	0	0	0	0	0	0	0	0	0	0	0	0	0	0	0	0	0	0	0	0	0	0	0	0	0	0	0	0	0	0	0	0	0	0	0	0	0	0	0	0	0	0	0	0	0	0	0	0	0	0	0	0	0	0	0	0	0	0	0	0	0	0	0	0	0	0	0	0	0	0	0	0	0	0	1512	1519	1525	1525	1525	1525	1539	1546	1546	1546	1553	1553	1560	1567	1581	1581	1589	1596	1596	1596	1603	1603	1611	1611	1611	1626	1634	1641	1649	1665	1665	1673	1698	1706	1715	1715	1715	1732	1732	1759	1777	1777	0	0	0	0	2733	2733	2711	2711	2711	2690	2711	2711	2711	2690	2690	2690	2711	2711	2690	2690	2690	2711	2711	2711	2711	2845	2845	2845	2845	2845	2822	2822	2822	2822	2822	2822	2822	2822	2845	2845	2845	2869	2917	2893	2917	2917	2942	2917	2917	2917	0	0	0	0	0	0	0	0	0	0	0	0	0	0	0	0	0	0	0	0	0	0	0	0	0	0	0	0	0	0	6468	6349	6349	6349	6349	6349	6468	6468	6349	6468	6349	6349	6468	6468	6468	6592	6592	6592	6592	6592	6592	6592	6592	6592	6592	6592	6592	6592	6468	6468	6468	6468	6468	6468	6468	6468	6592	6592	6592	6592	6592	6592	6592	6468	6592	3821	3864	3864	3864	3864	3864	3821	3821	3779	3779	3779	3779	3779	3779	3779	3779	3779	3779	3779	3779	3779	3779	3779	3779	3779	3779	3821	3821	3821	3821	3864	3821	3821	3821	3821	3821	3821	3821	3821	3821	3821	3821	3779	3779	3779	3779	3779	3779	3779	3779	3779	3779	3779	3779	3779	3821	3821	3821	6468	6468	6349	6349	6349	6468	6468	6349	6349	6349	6349	6349	6349	8550	8343	8146	8146	7959	7959	7959	7959	7959	7959	7959	7959	7959	7959	7959	7959	7959	7959	7959	7779	7779	7779	7608	7444	7444	7444	6349	6349	6349	6349	6349	6349	6468	6468	6468	6468	6468	6349	6349	6349	6349	6349	6349	6349	6349	6349	6349	6349	6349	6349	6349	6349	6349	6349	6349	8146	8550	8343	8343	8343	8343	8146	8146	7959	7959	7959	7959	7959	7959	7959	7959	7959	7959	7959	8146	8146	8146	8146	7959	7959	7959	7959	7959	7959	7959	8146	8146	8146	8146	7959	8146	7959	7959	7959	7959	7959	7959	7959	7959	8146	8146	8146	8146	0	0	0	0	0	0	0	0	0	0	0	0	0	0	0	0	0	0	0	0	0	0	0	0	0	0	0	0	0	0	0	0	0	0	0	2223	2223	2223	2208	2223	2223	2208	2208	0	0	0	0	0	0	0	0	0	0	0	0	0	0	0	0	0	0	0	0	0	0	0	0	0	0	0	0	0	0	0	0	0	0	0	0	0	0	0	0	0	0	0	0	0	0	0	0	0	0	0	0	0	0	0	0	0	0	0	0	0	0	0	0	0	0	0	0	0	0	1618	1611	1596	1596	1596	1596	1596	1596	1589	1589	1589	1581	1581	1574	1574	1574	1567	1567	1567	1567	0	1581	1589	1581	1581	1574	1574	1567	1574	1574	0	0	0	0	0	0	0	0	0	0	0	0	0	0	0	0	0	0	0	0	0	0	0	0	0	0	0	0	0	0	0	0	0	0	0	0	0	0	0	0	0	0
0	0	0	0	0	0	0	0	0	0	0	1282	1282	1282	1287	1291	1296	1296	1301	1301	0	0	0	0	0	0	0	0	0	0	0	0	0	0	0	0	0	0	0	0	0	0	0	0	0	0	0	0	0	0	0	0	0	0	0	0	0	0	0	0	0	0	0	0	0	0	0	0	0	0	0	0	0	0	0	0	0	0	0	0	0	0	0	0	0	0	0	0	0	0	0	0	0	0	0	0	0	0	0	0	0	0	0	0	0	0	0	0	0	0	0	0	0	0	0	0	1525	1525	1525	1525	1539	1539	1553	1553	1560	1553	1560	1574	1581	1589	1596	1603	1596	1603	1603	1611	1611	1611	1618	1626	1641	1641	1649	1673	1665	1698	1706	1706	1715	1715	1715	1732	1741	1750	1768	1768	1768	1768	0	0	2711	2711	2711	2711	2711	2711	2711	2711	2711	2690	2690	2690	2711	2690	2690	2690	2690	2711	2711	2711	2711	2845	2845	2845	2845	2822	2822	2822	2822	2822	2822	2822	2822	2822	2822	2822	2845	2869	2917	2917	2917	2917	2917	2942	2917	2917	0	0	0	0	0	0	0	0	0	0	0	0	0	0	0	0	0	0	0	0	0	0	0	0	0	0	0	0	0	4406	4406	4406	4463	4463	6349	6349	6468	6468	6349	6468	6349	6349	6349	6468	6349	6592	6592	6592	6592	6592	6592	6592	6592	6592	6592	6592	6592	6592	6592	6468	6468	6468	6468	6468	6468	6468	6468	6592	6592	6592	6592	6592	6592	6468	6468	3864	3864	3864	3864	3864	3864	3821	3821	3821	3821	3779	3821	3821	3821	3821	3779	3779	3779	3779	3779	3779	3779	3779	3779	3821	3821	3821	3821	3821	3864	3864	3864	3821	3821	3864	3821	3821	3821	3821	3821	3821	3821	3779	3779	3779	3779	3779	3779	3779	3779	3779	3779	3779	3779	3779	3779	3738	3738	6468	6468	6468	6468	6349	6349	6349	6349	6349	6349	6349	6349	8550	8550	8343	8146	8146	7959	7959	7959	8146	7959	7959	7959	7959	7959	7959	7959	7959	7959	7779	7779	7779	7779	7779	7779	7779	7779	7779	6349	6349	6349	6349	6349	6468	6468	6468	6468	6468	6349	6349	6349	6349	6349	6349	6349	6349	6349	6349	6349	6349	6349	6349	6349	6349	6235	6235	6235	8343	8343	8343	8343	8343	8343	8343	8146	7959	7959	7959	7959	7959	7959	7959	8146	7959	8146	7959	8146	8146	7959	7959	7959	7959	7959	7959	7959	7959	7959	8146	7959	7959	8146	7959	7959	7959	7959	7959	7959	7959	7959	7959	7959	8146	8146	8146	7959	7959	0	0	0	0	0	0	0	0	0	0	0	0	0	0	0	0	0	0	0	0	0	0	0	0	0	0	0	0	0	0	0	0	2208	2208	2223	2223	2208	2194	2208	2208	2194	2194	2194	2194	2194	0	2194	2194	2208	2208	0	0	0	0	0	0	0	0	0	0	0	0	0	0	0	0	0	0	0	0	0	0	0	0	0	0	0	0	0	0	0	0	0	0	0	0	0	0	0	0	0	0	0	0	0	0	0	0	0	0	0	0	0	0	0	0	0	0	0	0	0	0	0	0	0	0	0	0	0	0	0	0	0	0	1581	1574	1574	1574	0	0	0	0	0	1589	1589	1581	1581	1574	1574	1567	1567	1567	0	0	0	0	0	0	0	0	0	0	0	0	0	0	0	0	0	0	0	0	0	0	0	0	0	0	0	0	0	0	0	0	0	0	0	0	0	0	0	0	0	0
0	0	0	0	0	0	0	0	0	0	0	1282	1282	1282	1287	1291	1296	1296	1301	1316	1316	1316	0	0	0	0	0	0	0	0	0	0	0	0	0	0	0	0	0	0	0	0	0	0	0	0	0	0	0	0	0	0	0	0	0	0	0	0	0	0	0	0	0	0	0	0	0	0	0	0	0	0	0	0	0	0	0	0	0	0	0	0	0	0	0	0	0	0	0	0	0	0	0	0	0	0	0	0	0	0	0	0	0	0	0	0	0	0	0	0	0	0	0	0	0	0	0	0	0	0	1567	1553	1553	1560	1560	1560	1560	1574	1589	1596	1603	1603	1603	1611	1611	1611	1618	1618	1618	1634	1641	1649	1657	1681	1698	1698	1706	1706	1715	1715	1723	1741	1741	1759	1759	1768	1768	1777	1777	0	2711	2733	2733	2711	2711	2711	2711	2711	2690	2690	2690	2690	2690	2690	2690	2690	2711	2711	2711	2711	2711	2845	2845	2845	2845	2845	2822	2822	2822	2822	2822	2822	2822	2822	2822	2822	2845	2845	2917	2917	2917	2917	2917	2942	2942	2917	0	0	0	0	0	0	0	0	0	0	0	0	0	0	0	0	0	0	0	0	0	0	0	0	0	0	0	4406	4406	4406	4406	4406	4463	4463	6349	6349	6468	6468	6349	6349	6349	6349	6349	6349	6349	6468	6468	6592	6592	6592	6592	6592	6592	6720	6592	6592	6592	6720	6592	6468	6349	6349	6349	6349	6349	6349	6468	6592	6592	6592	6592	6468	6468	6468	6468	3864	3864	3864	3864	3864	3864	3821	3821	3821	3779	3779	3779	3821	3779	3779	3779	3779	3779	3779	3779	3779	3779	3779	3779	3821	3821	3821	3864	3864	3864	3864	3864	3821	3821	3821	3864	3864	3821	3864	3821	3821	3821	3779	3779	3779	3779	3779	3779	3779	3779	3779	3779	3779	3779	3779	3779	5050	5050	5050	6592	6468	6468	6592	6468	6349	6349	6235	6235	6235	6235	8767	8767	8550	8146	7959	7959	7959	8146	8146	7959	7959	7959	7959	7959	7959	7959	7959	7959	7779	7779	7779	7779	7959	7779	7959	7959	7959	6235	6235	6349	6349	6349	6349	6468	6468	6468	6468	6468	6468	6349	6349	6349	6349	6349	6349	6349	6349	6349	6349	6349	6349	6349	6349	6235	6235	6235	7959	8146	8343	8343	8343	8146	8343	8146	7959	8146	7959	7959	7959	7959	7959	8146	8146	8146	8146	8146	8146	8146	8146	7959	7959	7959	7959	7959	7959	7959	7959	7959	7959	7959	7959	7959	7959	7959	7959	7959	7959	7959	7959	7959	8146	8343	8146	8146	8146	0	0	0	0	0	0	0	0	0	0	0	0	0	0	0	0	0	0	0	0	0	0	0	0	0	0	0	0	0	0	0	0	2208	2208	2208	2208	2208	2194	2194	2194	2194	2194	2194	2194	2194	2194	2194	2194	2208	2194	2194	0	0	0	0	0	0	0	0	0	0	0	0	0	0	0	0	0	0	0	0	0	0	0	0	0	0	0	0	0	0	0	0	0	0	0	0	0	0	0	0	0	0	0	0	0	0	0	0	0	0	0	0	0	0	0	0	0	0	0	0	0	0	0	0	0	0	0	0	0	0	0	0	0	0	0	0	0	0	0	0	0	0	1589	1589	1581	1581	1581	1574	1574	1574	1574	0	0	0	0	0	0	0	0	0	0	0	0	0	0	0	0	0	0	0	0	0	0	0	0	0	0	0	0	0	0	0	0	0	0	0	0	0	0	0	0	0	0
0	0	0	0	0	0	0	0	0	0	0	1282	1287	1287	1287	1296	1296	1301	1306	1311	1306	1306	0	0	0	0	0	0	0	0	0	0	0	0	0	0	0	0	0	0	0	0	0	0	0	0	0	0	0	0	0	0	0	0	0	0	0	0	0	0	0	0	0	0	0	0	0	0	0	0	0	0	0	0	0	0	0	0	0	0	0	0	0	0	0	0	0	0	0	0	0	0	0	0	0	0	0	0	0	0	0	0	0	0	0	0	0	0	0	0	0	0	0	0	0	0	0	0	0	1574	1574	1574	1567	1567	1560	1560	1567	1581	1603	1596	1603	1611	1611	1618	1618	1618	1626	1626	1626	1634	1641	1649	1657	1690	1698	1698	1706	1706	1715	1715	1732	1732	1741	1768	1777	1777	1777	1777	1777	0	0	2733	2733	2711	2711	2711	2711	2711	2690	2690	2690	2690	2690	2690	2690	2690	2690	2690	2690	2690	2690	2845	2845	2845	2822	2845	2822	2822	2822	2822	2822	2822	2822	2822	2822	2822	2845	2845	2869	2869	2893	2893	2893	2942	2942	0	0	0	0	0	0	0	0	0	0	0	0	0	0	0	0	0	0	0	0	0	0	0	0	0	0	0	4406	4406	4406	4406	4406	4406	4406	4463	4463	6349	6468	6468	6349	6349	6349	6349	6349	6349	6349	6468	6468	6592	6592	6592	6592	6592	6592	6720	6592	6592	6592	6720	6592	6349	6349	6349	6235	6235	6124	6124	6349	6349	6349	6468	6468	6468	6349	6468	6235	6124	3864	3864	3864	3864	3821	3821	3821	3821	3821	3779	3779	3821	3779	3779	3779	3779	3779	3779	3779	3779	3779	3779	3779	3821	3821	3821	3821	3821	3821	3864	3821	3821	3821	3821	3864	3864	3864	3864	3821	3821	3821	3779	3779	3779	3779	3779	3779	3779	3779	3779	3779	3821	3821	3779	3779	5050	5050	4977	4977	4977	6592	6720	6592	6468	6468	6468	5050	5050	4906	4906	4906	8146	7959	7959	7959	7959	8146	8146	8146	7959	8146	8146	8146	8146	7959	7959	7959	7959	7779	7959	7959	7959	7959	7959	7959	6235	6235	6235	6349	6235	6349	6468	6592	6468	6468	6468	6468	6468	6349	6349	6349	6349	6349	6349	6349	6349	6349	6349	6349	6349	6349	6349	6349	6349	6349	7959	8146	8146	8146	8146	8146	8146	8146	8146	8146	8146	7959	7959	8146	8146	8146	8146	8146	8146	8146	8146	8146	8146	8146	7959	7959	8146	7959	7959	7959	7959	7959	7959	7959	7959	7959	7959	7959	7959	7959	7959	7959	7959	7959	8146	8343	8146	8146	8146	8146	0	0	0	0	0	0	0	0	0	0	0	0	0	0	0	0	0	0	0	0	0	0	0	0	0	0	0	0	0	0	0	2223	2223	2223	2208	2208	2194	2194	2194	2194	2194	2194	2194	2194	2194	2194	2208	2208	2208	2208	2208	0	0	0	0	0	0	0	0	0	0	0	0	0	0	0	0	0	0	0	0	0	0	0	0	0	0	0	0	0	0	0	0	0	0	0	0	0	0	0	0	0	0	0	0	0	0	0	0	0	0	0	0	0	0	0	0	0	0	0	0	0	0	0	0	0	0	0	0	0	0	0	0	0	0	0	0	0	0	0	0	0	1589	1589	1581	1581	1581	1574	1574	1574	1574	0	0	0	0	0	0	0	0	0	0	0	0	0	0	0	0	0	0	0	0	0	0	0	0	0	0	0	0	0	0	0	0	0	0	0	0	0	0	0	0	0	0
0	0	0	0	0	0	0	0	0	0	0	1282	1287	1291	1296	1301	1301	1301	1301	1306	1306	1306	1306	0	0	0	0	0	0	0	0	0	0	0	0	0	0	0	0	0	0	0	0	0	0	0	0	0	0	0	0	0	0	0	0	0	0	0	0	0	0	0	0	0	0	0	0	0	0	0	0	0	0	0	0	0	0	0	0	0	0	0	0	0	0	0	0	0	0	0	0	0	0	0	0	0	0	0	0	0	0	0	0	0	0	0	0	0	0	0	0	0	0	0	0	0	0	0	0	1581	1581	1581	1574	1581	1581	1581	1581	1603	1603	1603	1603	1611	1618	1618	1626	1626	1626	1626	1626	1634	1641	1649	1657	1698	1706	1706	1706	1715	1723	1723	1741	1741	1741	1768	1777	1777	1768	1768	1768	0	0	2733	2711	2711	2711	2711	2711	2690	2690	2690	2690	2690	2690	2669	2669	2669	2690	2690	2690	2733	2733	2799	2845	2845	2822	2822	2822	2822	2822	2822	2822	2822	2822	2822	2822	2845	2845	2845	2893	2869	2893	2893	2893	2893	2942	0	0	0	0	0	0	0	0	0	0	0	0	0	0	0	0	0	0	0	0	0	0	0	0	0	0	0	4463	4463	4406	4406	4406	4406	4406	4463	4521	4521	6468	6468	6349	6349	6349	6349	6349	6349	6349	6468	6468	6468	6592	6468	6592	6592	6592	6592	6592	6592	6592	6720	6592	6592	6124	6124	6124	6018	6018	6018	6018	6349	6349	6468	6468	6468	6349	6468	6235	6124	3864	3864	3864	3821	3821	3779	3779	3779	3779	3779	3779	3821	3779	3779	3779	3779	3779	3779	3779	3779	3779	3821	3821	3821	3821	3821	3821	3821	3821	3864	3864	3821	3821	3821	3864	3864	3821	3821	3821	3821	3821	3779	3779	3779	3779	3779	3779	3779	3779	3779	3821	3821	3779	3779	5125	5050	5050	4977	4977	4906	4977	4977	6720	6592	4977	5050	5050	5050	4977	4977	4977	8146	8146	7959	7959	7959	8146	8146	8146	8146	8146	8146	8146	8146	8146	7959	7959	7959	7959	7959	7959	7959	7959	7959	8146	6235	6235	6235	6235	6235	6349	6349	6468	6468	6468	6468	6349	6468	6349	6349	6349	6349	6349	6349	6349	6349	6349	6349	6349	6349	6349	6349	6853	6853	7608	7959	8146	8146	8146	8146	8146	8146	8146	8146	8146	8146	8146	8146	8146	8146	8146	8146	8146	8146	8146	8146	8146	8146	8146	8146	8146	8146	8146	7959	7959	7959	7959	7959	7959	7959	7959	7959	7959	7959	7959	7959	7959	7959	7959	8146	8343	8343	8146	8146	8146	0	0	0	0	0	0	0	0	0	0	0	0	0	0	0	0	0	0	0	0	0	0	0	0	0	0	0	0	0	0	0	2194	2194	2208	2208	2208	2194	2194	2194	2194	2194	2194	2194	2194	2194	2194	2208	2208	2208	2208	2208	2194	2194	0	0	0	0	0	0	0	0	0	0	0	0	0	0	0	0	0	0	0	0	0	0	0	0	0	0	0	0	0	0	0	0	0	0	0	0	0	0	0	0	0	0	0	0	0	0	0	0	0	0	0	0	0	0	0	0	0	0	0	0	0	0	0	0	0	0	0	0	0	0	0	0	0	0	0	0	0	0	0	0	1589	1574	1574	1574	1574	1574	1574	1574	0	0	0	0	0	0	0	0	0	0	0	0	0	0	0	0	0	0	0	0	0	0	0	0	0	0	0	0	0	0	0	0	0	0	0	0	0	0	0	0	0	0
0	0	0	0	0	0	0	0	0	0	0	1287	1287	1291	1296	1301	1301	1301	1301	1306	1301	1301	1306	0	0	0	0	0	0	0	0	0	0	0	0	0	0	0	0	0	0	0	0	0	0	0	0	0	0	0	0	0	0	0	0	0	0	0	0	0	0	0	0	0	0	0	0	0	0	0	0	0	0	0	0	0	0	0	0	0	0	0	0	0	0	0	0	0	0	0	0	0	0	0	0	0	0	0	0	0	0	0	0	0	0	0	0	0	0	0	0	0	0	0	0	0	0	0	0	1581	1581	1581	1574	1581	1581	1581	1581	1611	1611	1603	1611	1618	1626	1626	1634	1626	1634	1634	1634	1634	1641	1673	1673	1715	1715	1706	1715	1723	1732	1732	1741	1741	1741	1777	1777	1777	1777	1777	1777	0	0	0	2711	2711	2690	2690	2711	2690	2711	2690	2690	2690	2690	2669	2669	2669	2669	2690	2711	2711	2733	2799	2822	2845	2845	2845	2822	2822	2822	2799	2822	2822	2822	2822	2822	2845	2845	2845	2845	2845	2869	2869	2869	2869	2869	0	0	0	0	0	0	0	0	0	0	0	0	0	0	0	0	0	0	0	0	0	0	0	0	0	0	0	4406	4406	4406	4406	4406	4406	4406	4463	4463	4463	6468	6468	6468	6349	6349	6349	6349	6349	6349	6468	6468	6468	6468	6468	6592	6592	6592	6592	6592	0	0	0	6592	6592	6124	6124	6124	5915	6018	6018	6018	0	0	0	0	0	0	0	0	0	3907	3864	3864	3864	3821	3779	3779	3779	3779	3779	3779	3821	3821	3779	3779	3779	3779	3779	3779	3779	3779	3821	3821	3821	3821	3821	3821	3821	3821	3821	3821	3821	3821	3821	3821	3821	3821	3821	3821	3779	3779	3779	3779	3779	3779	3779	3779	3779	3779	3779	3821	3821	3821	3821	5125	5050	5050	4977	4977	4906	4977	4977	4977	5050	5050	5050	5050	5050	4977	4977	4977	7959	7959	7959	7959	7959	8146	8146	8146	8146	8146	8146	8146	8146	8146	8146	7959	7959	7959	7959	7959	7959	8146	8343	8550	8995	6124	6235	6235	6235	6235	6349	6349	6349	6349	6349	6468	6349	6349	6349	6349	6349	6349	6349	6349	6349	6349	6468	6349	6349	6349	6235	6992	6992	7779	7779	8146	8146	8146	8146	8146	8146	8343	8146	8146	8146	8146	8146	8146	8146	8146	8146	8146	8146	8146	8343	8343	8146	8146	8146	8146	8146	7959	7959	7959	7959	7779	7959	7959	7959	7959	7959	7959	7959	7959	7959	7959	7959	7959	8146	8343	8343	8343	8550	8550	0	0	0	0	0	0	0	0	0	0	0	0	0	0	0	0	0	0	0	0	0	0	0	0	0	0	0	0	0	0	0	2223	2223	2223	2208	2208	2194	2194	2194	2194	2181	2181	2181	2194	2194	2194	2208	2208	2208	2208	2194	2194	2194	2194	2194	0	0	0	0	0	0	2208	2208	0	0	0	0	0	0	0	0	0	0	0	0	0	0	0	0	0	0	0	0	0	0	0	0	0	0	0	0	0	0	0	0	0	0	0	0	0	0	0	0	0	0	1958	1958	0	0	0	0	0	1925	1904	1904	0	0	0	0	0	0	0	0	0	0	0	0	0	0	0	0	0	0	0	1574	1574	1574	1574	1567	1574	1574	1574	0	0	0	0	0	0	0	0	0	0	0	0	0	0	0	0	0	0	0	0	0	0	0	0	0	0	0	0	0	0	0	0	0	0	0	0	0	0	0	0	0
0	0	0	0	0	0	0	0	0	0	0	1287	1291	1291	1296	1301	1301	1301	1301	1306	1301	1301	0	0	0	0	0	0	0	0	0	0	0	0	0	0	0	0	0	0	0	0	0	0	0	0	0	0	0	0	0	0	0	0	0	0	0	0	0	0	0	0	0	0	0	0	0	0	0	0	0	0	0	0	0	0	0	0	0	0	0	0	0	0	0	0	0	0	0	0	0	0	0	0	0	0	0	0	0	0	0	0	0	0	0	0	0	0	0	0	0	0	0	0	0	0	0	0	0	0	0	0	0	0	0	0	0	1618	1618	1611	1618	1641	1634	1634	1641	1641	1641	1634	1634	1634	1641	1673	1673	1715	1715	1706	1715	1723	1732	1732	1750	1750	1750	1777	1777	1786	1777	1777	1777	0	0	0	2690	2690	2690	2690	2690	2690	2711	2690	2669	2669	2669	2669	2669	2669	2669	2669	2690	2711	2754	2799	2822	2822	2822	2845	2822	2822	2799	2799	2822	2822	2822	2822	2822	2845	2845	2845	2845	2845	2869	2869	2869	2893	2893	0	0	0	0	0	0	0	0	0	0	0	0	0	0	0	0	0	0	0	0	0	0	0	0	0	0	0	4406	4406	4406	4406	4406	4463	4463	4463	4463	4463	4463	6468	6468	6349	6349	6349	6349	6349	6349	6468	6468	6468	6468	6468	6468	6592	0	0	0	0	0	0	0	0	0	0	0	5915	6018	6018	0	0	0	0	0	0	0	0	0	0	3907	3864	3864	3821	3821	3779	3779	3779	3779	3779	3779	3821	3779	3779	3779	3779	3779	3779	3779	3779	3779	3821	3821	3821	3821	3821	3864	3864	3779	3779	3821	3821	3821	3821	3864	3821	3821	3821	3779	3779	3779	3779	3779	3779	3779	3779	3779	3779	3779	3779	3779	3821	3779	3779	5125	5050	5050	4977	4977	4977	4977	4977	4977	5050	5050	5050	5050	5050	5050	4977	4977	7959	7959	8146	8146	7959	8146	8146	8146	8146	8146	8146	8146	8146	8146	8146	8146	8146	8146	8146	8146	8146	8146	8343	8550	8767	6124	6235	6235	6235	6235	6349	6349	6349	6349	6349	6349	6349	6349	6349	6349	6349	6468	6468	6349	6349	6349	6468	6349	6349	6468	6592	6853	7444	7779	7779	7959	8146	8146	8146	8146	8146	8146	8146	8146	8146	8146	8146	8343	8146	8146	8146	8146	8146	8146	8343	8343	8343	8146	8146	8146	8146	7959	7959	7959	7959	7959	7959	7959	7959	7959	7959	7959	7959	7959	7959	7959	7959	7959	8146	8343	8343	8343	8343	8146	8146	0	0	0	0	0	0	0	0	0	0	0	0	0	0	0	0	0	0	0	0	0	0	0	0	0	0	0	0	0	0	2223	2208	2208	2208	2194	2194	2194	2194	2194	2181	2181	2194	2194	2194	2194	2194	2194	2194	2194	2194	2194	2194	2194	2208	2208	2208	0	0	0	0	2208	2208	0	0	0	0	0	0	0	0	0	0	0	0	0	0	0	0	0	0	0	0	0	0	0	0	0	0	0	0	0	0	0	0	0	0	0	0	1958	1958	1969	1969	1958	1958	1958	1958	1958	1947	1947	1947	1947	1936	1925	1925	1915	1915	0	0	0	0	0	0	0	0	0	0	0	0	0	0	0	0	0	0	1574	1574	1574	1567	1574	1574	1574	0	0	0	0	0	0	0	0	0	0	0	0	0	0	0	0	0	0	0	0	0	0	0	0	0	0	0	0	0	0	0	0	0	0	0	0	0	0	0	0	0
0	0	0	0	0	0	0	0	0	0	0	1287	1291	1291	1296	1296	1296	1301	1301	1301	1301	1301	0	0	0	0	0	0	0	0	0	0	0	0	0	0	0	0	0	0	0	0	0	0	0	0	0	0	0	0	0	0	0	0	0	0	0	0	0	0	0	0	0	0	0	0	0	0	0	0	0	0	0	0	0	0	0	0	0	0	0	0	0	0	0	0	0	0	0	0	0	0	0	0	0	0	0	0	0	0	0	0	0	0	0	0	0	0	0	0	0	0	0	0	0	0	0	0	0	0	0	0	0	0	0	0	0	1634	1634	1641	1649	1657	1657	1657	1657	1649	1641	1634	1634	1634	0	0	0	1706	1715	1706	1715	1723	1723	1732	1732	1768	1768	1777	1777	1786	1786	1786	0	0	0	0	2690	2690	2690	2690	2669	2669	2669	2669	2669	2669	2669	2669	2669	2669	2669	2669	2690	2711	2754	2799	2822	2822	2822	2822	2799	2799	2799	2799	2799	2799	2822	2822	2822	2845	2845	2845	2869	2869	2869	2845	2845	2917	2917	0	0	0	0	0	0	0	0	0	0	0	0	0	0	0	0	0	0	0	0	0	0	0	0	0	0	0	4350	4406	4406	4406	4406	4406	4406	4463	4463	4463	4463	6468	6468	6349	6349	6349	6349	6349	6349	6349	6468	6468	6468	6468	6468	0	0	0	0	0	0	0	0	0	0	0	0	0	0	0	0	0	0	0	0	0	0	0	0	0	3907	3864	3864	3864	3821	3779	3864	3821	3821	3779	3779	3779	3779	3779	3779	3779	3779	3779	3779	3779	3779	3821	3821	3821	3821	3821	3821	3864	3779	3821	3821	3864	3864	3821	3864	3864	3821	3821	3779	3779	3779	3779	3779	3779	3779	3779	3779	3779	3779	3779	3779	3779	3779	3779	3779	5050	5050	4977	4977	4977	4977	4977	5050	5050	5050	5050	5050	5050	5050	4977	4977	8343	8146	8146	8146	8146	8146	8146	8146	8146	8146	8343	8343	8343	8146	8146	8146	8146	8146	8146	8146	7959	8146	8343	8550	8550	6124	6235	6235	6235	6235	6349	6349	6349	6349	6349	6349	6349	6349	6349	6349	6349	6468	6349	6349	6349	6349	6349	6349	6349	6349	6235	6235	7779	7779	7779	7959	8146	8146	8146	8146	8146	8146	8146	8146	8146	8146	8146	8343	8146	8146	8146	8146	8146	8146	8343	8343	8343	8146	8146	8146	8146	8146	7959	7959	7959	7959	7959	7959	7959	7959	7959	7959	7959	7959	7959	7959	7959	7959	8146	8146	8343	8343	8146	8146	8146	0	0	0	0	0	0	0	0	0	0	0	0	0	0	0	0	0	0	0	0	0	0	0	0	0	0	0	0	0	0	0	2208	2208	2194	2194	2194	2194	2194	2194	2194	2194	2194	2194	2194	2194	2194	2194	2194	2194	2194	2194	2194	2194	2194	2208	2208	2208	2223	2208	2208	2194	2194	2194	2194	2208	2208	2194	2194	2194	2194	2181	2181	2181	2181	0	0	0	0	0	0	0	0	0	0	1936	1936	1936	0	0	0	0	0	0	0	1947	1947	1958	1958	1958	1958	1958	1958	1958	1958	1958	1958	1958	1947	1947	1947	1947	1936	1925	1925	1925	1925	1925	0	0	0	0	0	0	0	0	0	0	0	0	0	0	0	0	0	0	0	0	0	0	0	0	0	0	0	0	0	0	0	0	0	0	0	0	0	0	0	0	0	0	0	0	0	0	0	0	0	0	0	0	0	0	0	0	0	0	0	0	0	0	0	0	0
0	0	0	0	0	0	0	0	0	0	0	1287	1287	1291	1296	1296	1296	1296	1301	1296	1296	1301	0	0	0	0	0	0	0	0	0	0	0	0	0	0	0	0	0	0	0	0	0	0	0	0	0	0	0	0	0	0	0	0	0	0	0	0	0	0	0	0	0	0	0	0	0	0	0	0	0	0	0	0	0	0	0	0	0	0	0	0	0	0	0	0	0	0	0	0	0	0	0	0	0	0	0	0	0	0	0	0	0	0	0	0	0	0	0	0	0	0	0	0	0	0	0	0	0	0	0	0	0	0	0	0	1641	1634	1634	1657	1665	1665	1665	1665	1665	1673	1673	1634	1634	0	0	0	0	1706	1706	1706	1715	1723	1723	1723	1732	1768	1768	0	0	0	1786	1786	0	0	0	0	2690	2690	2690	2669	2669	2669	2669	2669	2669	2669	2669	2669	2669	2669	2669	2669	2690	2690	2690	2777	2822	2822	2799	2799	2799	2799	2799	2799	2799	2799	2822	2822	2822	2822	2845	2869	2869	2869	2869	2869	2869	2917	2917	0	0	0	0	0	0	0	0	0	0	0	0	0	0	0	0	0	0	0	0	0	0	0	0	0	0	4296	4350	4350	4406	4406	4406	4406	4406	4463	4463	4463	4463	6468	6468	6349	6349	6349	6349	6349	6349	6468	6468	6468	6468	6468	0	0	0	0	0	0	0	0	0	0	0	0	0	0	0	0	0	0	0	0	0	0	0	0	0	0	3907	3907	3864	3821	3821	3864	3864	3864	3821	3821	3779	3779	3779	3779	3738	3738	3779	3779	3779	3779	3779	3779	3821	3821	3779	3779	3779	3779	3779	3821	3821	3864	3864	3864	3907	3864	3821	3821	3779	3779	3779	3779	3779	3779	3779	3779	3779	3779	3779	3779	3779	3779	3779	3779	5050	5050	5050	4977	4977	4977	4977	5050	5050	5050	5050	5050	5050	5050	5050	5050	5050	8146	8146	8146	8146	8146	8146	8146	8146	8343	8146	8146	8146	8343	8146	8146	8146	8146	8146	8146	8146	8146	8146	8343	8550	8550	6124	6235	6235	6235	6235	6349	6349	6349	6349	6349	6468	6349	6349	6349	6349	6468	6468	6468	6349	6349	6349	6349	6468	6349	6349	6349	6349	7779	7959	7959	7959	8146	8146	8146	7959	7959	8146	8146	8146	8146	8146	8146	8146	8146	8146	8146	8146	8146	8146	8146	8146	8146	8146	8146	8146	8146	8146	8146	7959	7959	7959	7959	7959	7959	7959	7959	7959	7959	7959	8146	8146	7959	7959	8343	8343	8343	8343	8343	8343	0	0	0	0	0	0	0	0	0	0	0	0	0	0	0	0	0	0	0	0	0	0	0	0	0	0	0	0	0	0	0	0	2208	2194	2194	2194	2194	2194	2194	2194	2194	2194	2194	2194	2194	2194	2194	2194	2194	2194	2194	2194	2194	2194	2194	2208	2208	2208	2223	2208	2208	2194	2194	2194	2194	2208	2208	2208	2208	2194	2194	2194	2194	2194	2181	2181	2181	0	0	0	0	0	1958	1958	1947	1947	1947	1947	1936	1936	1925	1925	0	0	1947	1947	1947	1958	1958	1958	1958	1958	1947	1947	1958	1947	1958	1958	1947	1947	1947	1947	1936	1925	1925	1925	1925	1925	1915	1915	0	0	0	0	0	0	0	0	0	0	0	0	0	0	0	0	0	0	0	0	0	0	0	0	0	0	0	0	0	0	0	0	0	0	0	0	0	0	0	0	0	0	0	0	0	0	0	0	0	0	0	0	0	0	0	0	0	0	0	0	0	0	0
0	0	0	0	0	0	0	0	0	0	0	1287	1287	1287	1291	1291	1291	1296	1296	1296	1296	0	0	0	0	0	0	0	0	0	0	0	0	0	0	0	0	0	0	0	0	0	0	0	0	0	0	0	0	0	0	0	0	0	0	0	0	0	0	0	0	0	0	0	0	0	0	0	0	0	0	0	0	0	0	0	0	0	0	0	0	0	0	0	0	0	0	0	0	0	0	0	0	0	0	0	0	0	0	0	0	0	0	0	0	0	0	0	0	0	0	0	0	0	0	0	0	0	0	0	0	0	0	0	0	0	1641	1641	1634	1657	1665	1665	1665	1665	1665	1673	1673	0	0	0	0	0	0	1706	1706	1706	1706	1715	1715	1723	0	0	0	0	0	0	0	0	0	0	0	0	2711	2711	2690	2690	2669	2669	2669	2669	2649	2669	2669	2669	2649	2669	2649	2649	2690	2669	2669	2754	2754	2777	2799	2799	2799	2799	2799	2799	2799	2799	2822	2822	2822	2845	2845	2893	2869	2893	2893	2893	2893	2893	0	0	0	0	0	0	0	0	0	0	0	0	0	0	0	0	0	0	0	0	0	0	0	0	0	0	0	4296	4350	4350	4406	4406	4406	4406	4406	4463	4463	4406	4406	6468	6468	6349	6349	6349	6349	6349	6349	6468	6349	6349	6468	0	0	0	0	0	0	0	0	0	0	0	0	0	0	0	0	0	0	0	0	0	0	0	0	0	0	0	0	3907	3864	3864	3864	3864	3864	3821	3821	3821	3779	3779	3779	3779	3779	3779	3779	3779	3779	3779	3821	3821	3821	3821	3779	3779	3779	3779	3779	3821	3821	3864	3864	3864	3907	3864	3821	3821	3779	3779	3779	3779	3779	3779	3779	3779	3779	3779	3779	3779	3779	3779	3779	3779	5125	5050	5050	5050	5050	4977	4977	5050	5050	5050	5050	5050	5050	5050	5050	5050	8146	7959	8146	8146	8146	8146	8146	8146	8146	8343	8146	8146	8146	8146	8146	8146	8146	8146	8146	8146	8146	7959	8146	8343	8343	6124	6235	6235	6235	6235	6235	6349	6349	6349	6349	6349	6349	6349	6349	6349	6349	6349	6468	6349	6349	6349	6349	6349	6349	6349	6349	6349	6468	6468	7959	7959	8146	8146	8146	8146	7959	8146	8146	8146	8146	8146	8146	8146	8146	8146	8146	8146	8146	8146	8146	8146	8146	8146	8146	8146	8146	8146	8146	7959	7959	7959	7959	7959	7959	7959	7959	7959	7959	8146	8146	8146	8146	8146	7959	8343	8343	8146	8146	8343	8343	0	0	0	0	0	0	0	0	0	0	0	0	0	0	0	0	0	0	0	0	0	0	0	0	0	0	0	0	0	0	0	0	0	2194	2208	2194	2208	2194	2194	2194	2194	2194	2194	2181	2181	2181	2194	2194	2194	2194	2194	2194	2194	2194	2194	2194	2208	2208	2208	2194	2194	2194	2194	2194	2194	2194	2208	2208	2208	2194	2208	2194	2194	2194	2194	2194	2194	0	0	0	0	0	1947	1947	1947	1947	1936	1936	1936	1936	1925	1936	1936	1947	1947	1947	1958	1958	1958	1958	1958	1958	1947	1958	1958	1958	1947	1947	1947	1947	1947	1947	1947	1936	1936	1925	1925	1925	1915	1915	1915	0	0	0	0	0	0	0	0	0	0	0	0	0	0	0	0	0	0	0	0	0	0	0	0	0	0	0	0	0	0	0	0	0	0	0	0	0	0	0	0	0	0	0	0	0	0	0	0	0	0	0	0	0	0	0	0	0	0	0	0	0	0
0	0	0	0	0	0	0	0	0	0	0	1287	1287	1287	1287	1287	1287	1291	1291	1291	1296	0	0	0	0	0	0	0	0	0	0	0	0	0	0	0	0	0	0	0	0	0	0	0	0	0	0	0	0	0	0	0	0	0	0	0	0	0	0	0	0	0	0	0	0	0	0	0	0	0	0	0	0	0	0	0	0	0	0	0	0	0	0	0	0	0	0	0	0	0	0	0	0	0	0	0	0	0	0	0	0	0	0	0	0	0	0	0	0	0	0	0	0	0	0	0	0	0	0	0	0	0	0	0	0	0	1641	1641	0	0	1665	1665	1665	0	0	0	0	0	0	0	0	0	0	0	0	1706	1706	1715	1715	0	0	0	0	0	0	0	0	0	0	0	0	0	2711	2711	2690	2690	2690	2690	2711	2669	2669	2669	2669	2669	2649	2649	2649	2649	2669	2669	2669	2711	2777	2799	2799	2799	2799	2799	2799	2799	2799	2799	2799	2822	2822	2845	2845	2893	2893	2893	2917	2917	2917	2917	0	0	0	0	0	0	0	0	0	0	0	0	0	0	0	0	0	0	0	0	0	0	0	0	0	0	0	0	4350	4350	4406	4406	4406	4406	4406	4463	4463	4463	4463	6592	6468	6349	6349	6349	6349	6349	6349	6349	6349	6349	0	0	0	0	0	0	0	0	0	0	0	0	0	0	0	0	0	0	0	0	0	0	0	0	0	0	0	0	0	0	3907	3907	3864	3864	3864	3864	3821	3821	3821	3779	3821	3779	3779	3779	3779	3779	3779	3779	3779	3779	3821	3821	3779	3779	3821	3779	3821	3864	3864	3864	3864	3864	3907	3864	3821	3821	3779	3779	3779	3779	3779	3779	3779	3779	3779	3779	3779	3779	3779	3779	3779	3779	5050	5050	5050	5050	5050	5050	5050	5050	5050	5050	5050	5050	5050	5050	5050	5050	8146	8146	8146	8146	8146	8146	8146	8343	8343	8343	8343	8146	8146	8146	8146	8146	8146	8146	8146	8146	8343	8146	8146	8146	6124	6124	6124	6235	6235	6235	6235	6349	6349	6349	6349	6349	6349	6468	6349	6349	6349	6468	6468	6349	6349	6349	6349	6349	6349	6468	6468	6349	6468	6468	7959	7779	8146	8146	8146	8146	7959	7959	8146	8146	8146	8146	7959	8146	8146	8146	8146	8146	8146	8146	8146	8146	8146	8146	8146	8146	7959	8146	7959	7959	7959	7959	7959	7959	7959	7959	7959	7959	7959	8146	8146	8146	8146	8146	7959	7959	8146	8146	8146	8343	0	0	0	0	0	0	0	0	0	0	0	0	0	0	0	0	0	0	0	0	0	0	0	0	0	0	0	0	0	0	0	0	0	0	0	2208	2208	2208	2194	2194	2181	2181	2181	2181	2181	2181	2181	2181	2194	2194	2194	2194	2194	2194	2194	2194	2194	2208	2208	2208	2208	2208	2194	2194	2194	2194	2194	2194	2194	2194	2194	2208	2208	2194	2194	2194	2194	2194	2194	2194	0	0	1947	1947	1958	1947	1947	1947	1947	1936	1947	1947	1936	1958	1958	1947	1958	1958	1958	1958	1958	1958	1958	1947	1947	1958	1958	1947	1947	1947	1947	1947	1947	1947	1936	1936	1936	1936	1936	1925	1925	1925	1925	0	0	0	0	0	0	0	0	0	1581	1581	1574	1574	1574	0	0	0	0	0	0	0	0	0	0	0	0	0	0	0	0	0	0	0	0	0	0	0	0	0	0	0	0	0	0	0	0	0	0	0	0	0	0	0	0	0	0	0	0	0	0	0
0	0	0	0	0	0	0	0	0	0	0	1287	1287	1287	1287	1287	1287	1287	1287	1287	0	0	0	0	0	0	0	0	0	0	0	0	0	0	0	0	0	0	0	0	0	0	0	0	0	0	0	0	0	0	0	0	0	0	0	0	0	0	0	0	0	0	0	0	0	0	0	0	0	0	0	0	0	0	0	0	0	0	0	0	0	0	0	0	0	0	0	0	0	0	0	0	0	0	0	0	0	0	0	0	0	0	0	0	0	0	0	0	0	0	0	0	0	0	0	0	0	0	0	0	0	0	0	0	0	0	0	0	0	0	0	0	0	0	0	0	0	0	0	0	0	0	0	0	0	0	0	0	0	0	0	0	0	0	0	0	0	0	0	0	0	0	2711	2711	2690	2711	2690	2690	2690	2669	2669	2669	2669	2669	2649	2669	2649	2649	2690	2669	2669	2690	2733	2777	2799	2799	2799	2799	2799	2799	2799	2799	2799	2799	2822	2822	2845	2869	2893	2893	2917	2917	2917	2917	2917	0	0	0	0	0	0	0	0	0	0	0	0	0	0	0	0	0	0	0	0	0	0	0	0	0	0	0	0	0	4406	4350	4406	4406	4406	4406	4406	4406	4406	6592	6468	6468	6349	6349	6349	6349	6349	6349	6235	6235	0	0	0	0	0	0	0	0	0	0	0	0	0	0	0	0	0	0	0	0	0	0	0	0	0	0	0	0	0	0	3907	3907	3864	3864	3864	3864	3821	3821	3779	3779	3821	3821	3779	3779	3779	3779	3779	3779	3779	3779	3779	3779	3779	3779	3779	3779	3821	3864	3821	3864	3864	3864	3907	3864	3821	3821	3779	3779	3779	3779	3779	3779	3779	3779	3779	3779	3779	3779	3779	3779	3779	3779	5050	5050	5050	5050	5050	4977	4977	4977	5050	4977	5050	5050	4977	4977	4977	5050	5050	8146	8146	8146	7959	7959	8146	8146	8146	8343	8146	8146	8146	8146	8146	8146	8146	8146	8146	8146	8343	8146	7959	7959	6018	6018	6124	6235	6235	6235	6235	6349	6349	6349	6349	6349	6349	6349	6349	6349	6349	6349	6468	6349	6468	6468	6468	6468	6468	6468	6468	6468	6468	6468	8146	8146	8146	8146	8146	8146	8146	8146	8146	8146	8146	8146	8146	8146	8146	8146	8146	8146	8146	8146	8146	8146	8146	8146	8146	7959	7959	7959	7959	7959	7959	7959	7959	7959	7959	7959	7959	7959	8146	8146	8146	8146	8146	8146	8146	8146	8146	8146	8343	8343	0	0	0	0	0	0	0	0	0	0	0	0	0	0	0	0	0	0	0	0	0	0	0	0	0	0	0	0	0	0	0	0	0	0	0	2208	2208	2208	2208	2194	2194	2181	2181	2181	2181	2181	2181	2181	2181	2181	2194	2194	2194	2194	2194	2194	2194	2208	2194	2194	2208	2208	2194	2194	2194	2194	2194	2194	2194	2194	2194	2208	2208	2208	2208	2208	2194	2194	2194	2194	2194	0	1958	1958	1958	1947	1958	1958	1947	1947	1947	1947	1947	1947	1958	1958	1958	1958	1958	1969	1969	1969	1958	1958	1958	1958	1947	1947	1947	1947	1947	1947	1947	1947	1936	1936	1925	1936	1936	1925	1925	1936	1936	0	0	0	0	0	0	0	0	1589	1589	1589	1581	1581	1574	0	0	0	0	0	0	0	0	0	0	0	0	0	0	0	0	0	0	0	0	0	0	0	0	0	0	0	0	0	0	0	0	0	0	0	0	0	0	0	0	0	0	0	0	0	0	0
0	0	0	0	0	0	0	0	0	0	0	1282	1287	1287	1287	1287	1287	1287	1287	1287	0	0	0	0	0	0	0	0	0	0	0	0	0	0	0	0	0	0	0	0	0	0	0	0	0	0	0	0	0	0	0	0	0	0	0	0	0	0	0	0	0	0	0	0	0	0	0	0	0	0	0	0	0	0	0	0	0	0	0	0	0	0	0	0	0	0	0	0	0	0	0	0	0	0	0	0	0	0	0	0	0	0	0	0	0	0	0	0	0	0	0	0	0	0	0	0	0	0	0	0	0	0	0	0	0	0	0	0	0	0	0	0	0	0	0	0	0	0	0	0	0	0	0	0	0	0	0	0	0	0	0	0	0	0	0	0	0	0	0	0	0	0	2711	2711	2690	2690	2669	2669	2669	2669	2649	2669	2669	2669	2649	2649	2649	2649	2669	2669	2669	2690	2733	2777	2777	2799	2799	2799	2799	2799	2799	2799	2822	2822	2822	2845	2845	2869	2893	2917	2917	2917	2942	2942	2942	0	0	0	0	0	0	0	0	0	0	0	0	0	0	0	0	0	0	0	0	0	0	0	0	0	0	0	0	0	0	4350	4406	4406	4406	4406	4406	4406	4406	6592	6468	6468	6349	6349	6349	6349	6349	6349	6124	6018	6018	0	0	0	0	0	0	0	0	0	0	0	0	0	0	0	0	0	0	0	0	0	0	0	0	0	0	0	0	0	3907	3864	3864	3864	3864	3821	3821	3821	3779	3779	3779	3779	3779	3779	3779	3779	3779	3779	3779	3779	3779	3779	3779	3779	3779	3821	3821	3864	3864	3864	3864	3864	3907	3864	3779	3821	3779	3779	3779	3779	3779	3779	3779	3779	3779	3779	3779	3779	3779	3779	3738	3738	5050	4977	4977	5050	5050	4977	4977	5050	5050	4977	4977	4977	4977	4977	4977	4977	4977	8146	8146	8146	8146	8146	8146	8146	8146	8146	8146	8146	8146	8146	8146	8146	7959	7959	7959	8146	8146	8146	7959	7959	7959	6124	6124	6235	6235	6235	6235	6349	6349	6349	6349	6349	6349	6468	6349	6349	6349	6468	6349	6349	6468	6468	6468	6468	6468	6468	6468	6468	6468	6468	7959	8146	8146	8343	8146	8146	8146	8146	8146	8146	8146	7959	8146	8146	8146	8146	8146	8146	8146	8146	8146	8146	8146	8146	8146	7959	7959	7959	8146	7959	7959	7959	7959	7959	7959	7959	8146	8146	8146	8146	8146	8146	8146	8146	7959	8146	8146	8146	8146	8146	0	0	0	0	0	0	0	0	0	0	0	0	0	0	0	0	0	0	0	0	0	0	0	0	0	0	0	0	0	0	0	0	0	0	0	0	2223	2223	2208	2194	2194	2194	2181	2181	2167	2181	2181	2181	2181	2181	2194	2194	2194	2194	2194	2181	2194	2208	2194	2194	2181	2194	2194	2194	2194	2194	2194	2194	2208	2208	2208	2223	2208	2208	2208	2208	2208	2208	2194	2194	1969	1958	1958	1958	1958	1958	1958	1958	1958	1947	1958	1958	1947	1958	1958	1958	1958	1958	1969	1969	1969	1969	1958	1958	1958	1958	1947	1947	1947	1947	1947	1947	1947	1947	1936	1936	1936	1925	1936	1925	1925	1925	1936	0	0	0	0	0	1581	1581	1589	1589	1589	1596	1589	1589	0	0	0	0	0	0	0	0	0	0	0	0	0	0	0	0	0	0	0	0	0	0	0	0	0	0	0	0	0	0	0	0	0	0	0	0	0	0	0	0	0	0	0	0	0	0	0	0
0	0	0	0	0	0	0	0	0	0	0	1282	1287	1282	1287	1287	1287	1287	1287	0	0	0	0	0	0	0	0	0	0	0	0	0	0	0	0	0	0	0	0	0	0	0	0	0	0	0	0	0	0	0	0	0	0	0	0	0	0	0	0	0	0	0	0	0	0	0	0	0	0	0	0	0	0	0	0	0	0	0	0	0	0	0	0	0	0	0	0	0	0	0	0	0	0	0	0	0	0	0	0	0	0	0	0	0	0	0	0	0	0	0	0	0	0	0	0	0	0	0	0	0	0	0	0	0	0	0	0	0	0	0	0	0	0	0	0	0	0	0	0	0	0	0	0	0	0	0	0	0	0	0	0	0	0	0	0	0	0	0	0	0	0	0	2711	2711	2690	2690	2711	2690	2669	2669	2669	2690	2669	2669	2649	2649	2649	2669	2669	2669	2669	2669	2822	2822	2799	2799	2799	2799	2799	2799	2799	2799	2845	2822	2822	2822	2845	2845	2869	2893	2917	2917	2917	2917	2942	0	0	0	0	0	0	0	0	0	0	0	0	0	0	0	0	0	0	0	0	0	0	0	0	0	0	0	0	0	0	4350	4406	4406	4406	4406	4463	4406	4406	6592	6468	6349	6349	6349	6349	6349	6349	6349	6124	6018	6018	0	0	0	0	0	0	0	0	0	0	0	0	0	0	0	0	0	0	0	0	0	0	0	0	0	0	0	0	0	3907	3864	3864	3864	3864	3821	3821	3821	3779	3738	3779	3779	3779	3779	3779	3779	3779	3779	3779	3779	3779	3779	3779	3779	3821	3821	3821	3864	3864	3864	3864	3864	3907	3864	3821	3821	3821	3821	3779	3779	3779	3779	3779	3779	3779	3779	3779	3779	3779	3779	3779	4977	4977	4977	5050	4977	5050	4977	4977	5050	5050	4977	4977	5050	5050	4977	4977	4977	4977	8146	8146	7959	8146	8146	8146	8146	8146	8146	8343	8146	8146	8146	7959	8146	8146	7959	7959	7959	8146	8146	7959	7959	7779	6018	6124	6235	6235	6235	6349	6349	6468	6468	6349	6349	6349	6468	6468	6349	6349	6468	6468	6468	6468	6468	6468	6468	6468	6468	6468	6349	6349	6349	6349	8146	8146	8343	8146	8146	8146	8146	7959	7959	7959	7959	8146	8146	8146	8146	8146	8146	8146	8146	8146	8146	7959	7959	7959	7959	7959	7959	8146	7959	7959	7959	7959	7959	7959	7959	8146	8146	8146	8146	8146	8146	8146	8146	7959	8343	8146	8146	8146	8146	0	0	0	0	0	0	0	0	0	0	0	0	0	0	0	0	0	0	0	0	0	0	0	0	0	0	0	0	0	0	0	0	0	0	0	0	2237	2237	2237	2208	2194	2194	2181	2181	2181	2181	2181	2181	2181	2181	2194	2194	2194	2194	2194	2194	2181	2194	2194	2181	2181	2194	2194	2194	2194	2194	2194	2208	2208	2208	2208	2223	2208	2208	2208	2208	2208	2208	2194	2208	2194	2194	1958	1958	1958	1958	1958	1958	1958	1958	1958	1958	1958	1958	1958	1958	1958	1958	1958	1969	1969	1969	1958	1958	1958	1958	1947	1947	1947	1947	1936	1936	1936	1936	1936	1925	1925	1925	1925	1915	1915	1915	0	0	0	0	0	0	1589	1581	1589	1589	1596	1596	1589	1589	1589	0	0	0	0	0	0	0	0	0	0	0	0	0	0	0	0	0	0	0	0	0	0	0	0	0	0	0	0	0	0	0	0	0	0	0	0	0	0	0	0	0	0	0	0	0	0	0
0	0	0	0	0	0	0	0	0	0	0	1282	1282	1282	1282	1282	1282	1282	1287	0	0	0	0	0	0	0	0	0	0	0	0	0	0	0	0	0	0	0	0	0	0	0	0	0	0	0	0	0	0	0	0	0	0	0	0	0	0	0	0	0	0	0	0	0	0	0	0	0	0	0	0	0	0	0	0	0	0	0	0	0	0	0	0	0	0	0	0	0	0	0	0	0	0	0	0	0	0	0	0	0	0	0	0	0	0	0	0	0	0	0	0	0	0	0	0	0	0	0	0	0	0	0	0	0	0	0	0	0	0	0	0	0	0	0	0	0	0	0	0	0	0	0	0	0	0	0	0	0	0	0	0	0	0	0	0	0	0	0	0	0	0	0	2711	2711	2690	2690	2711	2711	2669	2669	2649	2669	2649	2649	2649	2649	2649	2669	2669	2669	2690	2690	2733	2733	2799	2799	2822	2799	2799	2799	2799	2799	2845	2822	2822	2822	2845	2845	2869	2869	2869	2893	2917	2917	0	0	0	0	0	0	0	0	0	0	0	0	0	0	0	0	0	0	0	0	0	0	0	0	0	0	0	0	0	0	0	0	4406	4406	4406	4406	4463	4406	4406	6592	6468	6349	6349	6349	6235	6235	6235	6235	0	0	0	0	0	0	0	0	0	0	0	0	0	0	0	0	0	0	0	0	0	0	0	0	0	0	0	0	0	0	0	0	3907	3864	3864	3864	3864	3821	3779	3779	3738	3779	3738	3779	3779	3821	3821	3821	3779	3779	3779	3779	3779	3779	3821	3864	3821	3864	3864	3864	3864	3864	3864	3864	3864	3864	3821	3821	3779	3821	3779	3779	3779	3779	3779	3779	3779	3779	3779	3779	3779	3779	3779	5050	4977	4977	4977	4977	5050	4977	4977	4977	4977	4977	4977	5050	5050	4977	4977	4977	4977	8146	7959	7959	8146	8146	8146	8146	8146	8343	8343	8343	8343	7959	7959	7959	7959	7959	7959	7959	7959	7959	7959	7779	7779	7779	6235	6235	6235	6235	6349	6468	6468	6349	6349	6349	6468	6468	6468	6468	6349	6468	6468	6468	6468	6468	6468	6468	6468	6468	6468	6349	6349	6349	6349	8146	8146	8146	8146	8146	7959	7959	8146	7959	7959	7959	8146	8146	8146	8146	8146	8146	8146	8146	8146	8146	7959	7959	7959	7959	7959	7959	7959	7959	7959	7779	7779	7959	7959	7959	8146	8146	8146	8146	8146	8146	8146	8146	7959	8146	8146	8146	8146	8146	0	0	0	0	0	0	0	0	0	0	0	0	0	0	0	0	0	0	0	0	0	0	0	0	0	0	0	0	0	0	0	0	0	0	0	0	2237	2208	2194	2194	2194	2181	2181	2181	2194	2181	2181	2181	2181	2181	2181	2194	2181	2181	2181	2194	2181	2194	2194	2194	2194	2194	2194	2194	2181	2194	2194	2194	2208	2208	2208	2208	2208	2194	2208	2194	2208	2208	2194	2194	2194	2194	1958	1958	1958	1958	1958	1958	1958	1958	1958	1958	1958	1958	1958	1958	1958	1958	1969	1969	1969	1969	1958	1958	1958	1958	1947	1947	1936	1947	1936	1936	1925	1936	1936	1925	1936	1925	1936	1925	1925	1925	0	0	0	0	0	1581	1589	1589	1589	1581	1589	1589	1581	1581	1581	0	0	0	0	0	0	0	0	0	0	0	0	0	0	0	0	0	0	0	0	0	0	0	0	0	0	0	0	0	0	0	0	0	0	0	0	0	0	0	0	0	0	0	0	0	0	0
0	0	0	0	0	0	0	0	0	0	0	1282	1282	1282	1282	1282	1282	1282	1282	1282	0	0	0	0	0	0	0	0	0	0	0	0	0	0	0	0	0	0	0	0	0	0	0	0	0	0	0	0	0	0	0	0	0	0	0	0	0	0	0	0	0	0	0	0	0	0	0	0	0	0	0	0	0	0	0	0	0	0	0	0	0	0	0	0	0	0	0	0	0	0	0	0	0	0	0	0	0	0	0	0	0	0	0	0	0	0	0	0	0	0	0	0	0	0	0	0	0	0	0	0	0	0	0	0	0	0	0	0	0	0	0	0	0	0	0	0	0	0	0	0	0	0	0	0	0	0	0	0	0	0	0	0	0	0	0	0	0	0	0	0	0	0	2711	2690	2690	2690	2711	2711	2669	2669	2669	2669	2649	2649	2649	2649	2649	2649	2690	2690	2711	2733	2754	2754	2799	2799	2799	2799	2799	2799	2799	2845	2845	2822	2822	2845	2845	2845	2845	2845	2869	2869	2893	2893	0	0	0	0	0	0	0	0	0	0	0	0	0	0	0	0	0	0	0	0	0	0	0	0	0	0	0	0	0	0	0	0	4406	4406	4463	4463	4463	4406	4406	6468	6349	6349	6349	6235	6235	6124	6124	6124	0	0	0	0	0	0	0	0	0	0	0	0	0	0	0	0	0	0	0	0	0	0	0	0	0	0	0	0	0	0	0	0	3907	3907	3864	3864	3864	3864	3779	3779	3779	3779	3779	3779	3779	3821	3821	3821	3779	3821	3779	3821	3779	3821	3864	3864	3864	3907	3864	3864	3864	3864	3864	3864	3864	3864	3821	3821	3779	3779	3779	3779	3779	3779	3779	3779	3779	3779	3779	3779	3779	3779	3779	4977	4977	4977	4977	4977	5050	4977	5050	5050	4977	5050	5050	5050	5050	4977	4977	4977	4977	8146	8146	8146	8146	8146	8146	8146	8146	8343	8343	8343	8146	7959	7959	7959	7959	7959	7959	7959	8146	7959	7779	7779	7608	6349	6349	6349	6235	6235	6235	6349	6349	6349	6349	6349	6349	6468	6468	6468	6468	6468	6468	6468	6468	6468	6468	6468	6468	6468	6468	6468	6349	6468	6468	8146	8146	8343	8146	8146	7959	7959	7959	8146	7959	8146	8146	8146	8146	8146	8146	8146	8146	8146	8146	8146	7959	7959	7959	7959	7959	7959	7959	7959	7779	7779	7959	7959	7959	7959	7959	7959	7959	8146	8146	8146	8146	8146	7959	8146	8146	8146	8146	8146	0	0	0	0	0	0	0	0	0	0	0	0	0	0	0	0	0	0	0	0	0	0	0	0	0	0	0	0	0	0	0	0	0	0	0	0	0	2208	2194	2194	2194	2194	2181	2194	2194	2181	2181	2181	2181	2181	2194	2194	2181	2181	2181	2194	2181	2194	2194	2194	2194	2194	2194	2194	2194	2194	2194	2194	2194	2194	2194	2208	2208	2194	2194	2194	2194	2194	2194	2194	2194	2194	1958	1958	1958	1958	1958	1958	1958	1958	1958	1958	1958	1958	1958	1958	1958	1958	1958	1969	1969	1969	1958	1958	1958	1958	1947	1947	1947	1947	1936	1936	1936	1925	1925	1925	1925	1925	1925	1915	1915	1915	0	0	0	0	1581	1581	1589	1589	1589	1589	1589	1589	1581	1581	1581	0	0	0	0	0	0	0	0	0	0	0	0	0	0	0	0	0	0	0	0	0	0	0	0	0	0	0	0	0	0	0	0	0	0	0	0	0	0	0	0	0	0	0	0	0	0	0
0	0	0	0	0	0	0	0	0	0	0	1282	1282	1282	1282	1282	1282	1282	1272	1272	0	0	0	0	0	0	0	0	0	0	0	0	0	0	0	0	0	0	0	0	0	0	0	0	0	0	0	0	0	0	0	0	0	0	0	0	0	0	0	0	0	0	0	0	0	0	0	0	0	0	0	0	0	0	0	0	0	0	0	0	0	0	0	0	0	0	0	0	0	0	0	0	0	0	0	0	0	0	0	0	0	0	0	0	0	0	0	0	0	0	0	0	0	0	0	0	0	0	0	0	0	0	0	0	0	0	0	0	0	0	0	0	0	0	0	0	0	0	0	0	0	0	0	0	0	0	0	0	0	0	0	0	0	0	0	0	0	0	0	0	0	2669	2669	2690	2690	2690	2711	2690	2669	2669	2669	2669	2649	2649	2649	2649	2649	2649	2669	2669	2711	2711	2733	2754	2799	2799	2799	2777	2799	2799	2799	2822	2845	2822	2822	2845	2822	2845	2845	2845	2845	2845	2869	2869	2942	2942	2967	2967	2967	2967	0	0	0	0	0	0	0	0	0	0	0	0	0	0	0	0	0	0	0	0	0	0	0	0	0	0	4350	4406	4463	4463	4463	4463	4463	6468	6349	6349	6235	6235	6235	6235	6124	6124	0	0	0	0	0	0	0	0	0	0	0	0	0	0	0	0	0	0	0	0	0	0	0	0	0	0	0	0	0	0	0	0	3907	3864	3864	3864	3821	3821	3821	3779	3779	3779	3738	3779	3779	3821	3821	3779	3779	3821	3779	3821	3821	3821	3864	3864	3864	3907	3907	3907	3864	3864	3864	3864	3864	3864	3821	3779	3821	3779	3779	3779	3779	3779	3779	3779	3779	3779	3779	3779	3779	3779	3779	4977	4977	5050	4977	4977	4977	4977	5050	5050	4977	5050	5050	5050	4977	4977	4977	4977	4977	8146	8146	8146	8146	8146	8146	8343	8146	8343	8343	8146	8146	8146	8146	8146	7959	7959	7959	7959	7959	7959	7959	7779	7779	6349	6349	6349	6235	6235	6235	6349	6349	6349	6349	6349	6468	6468	6468	6468	6468	6468	6468	6468	6468	6349	6468	6468	6468	6468	6468	6468	6349	6468	6468	7959	7959	8343	8146	8146	8146	8146	8146	8146	7959	8146	7959	8146	7959	8146	8146	8146	8146	8146	8146	8146	8146	7959	7959	7959	7959	7959	7959	7959	7959	7959	7959	7959	7959	7959	7959	8146	8146	8146	8146	8146	8146	8146	7959	8146	8146	8146	8146	0	0	0	0	0	0	0	0	0	0	0	0	0	0	0	0	0	0	0	0	0	0	0	0	0	0	0	0	0	0	0	0	0	0	0	0	0	0	2237	2194	2194	2208	2194	2181	2194	2194	2194	2194	2181	2194	2194	2181	2181	2181	2181	2181	2181	2181	2194	2194	2194	2194	2194	2194	2181	2181	2181	2194	2194	2194	2194	2194	2194	2194	2194	2194	2194	2194	2194	2194	2194	2194	2194	1969	1969	1958	1958	1958	1958	1958	1958	1958	1958	1958	1958	1969	1969	1969	1969	1969	1969	1969	1969	1958	1958	1958	1958	1947	1947	1936	1936	1936	1915	1915	1915	1915	1915	1915	1915	1915	1915	1915	1915	0	0	0	1589	1589	1589	1589	1589	1589	1589	1589	1589	1581	1581	1581	0	0	1581	1574	1574	0	0	0	0	0	0	0	0	0	0	0	0	0	0	0	0	0	0	0	0	0	0	0	0	0	0	0	0	0	0	0	0	0	0	0	0	0	0	0	0	0	0
0	0	0	0	0	0	0	0	0	0	0	1282	1282	1282	1282	1287	1287	1287	1282	1282	0	0	0	0	0	0	0	0	0	0	0	0	0	0	0	0	0	0	0	0	0	0	0	0	0	0	0	0	0	0	0	0	0	0	0	0	0	0	0	0	0	0	0	0	0	0	0	0	0	0	0	0	0	0	0	0	0	0	0	0	0	0	0	0	0	0	0	0	0	0	0	0	0	0	0	0	0	0	0	0	0	0	0	0	0	0	0	0	0	0	0	0	0	0	0	0	0	0	0	0	0	0	0	0	0	0	0	0	0	0	0	0	0	0	0	0	0	0	0	0	0	0	0	0	0	0	0	0	0	0	0	0	0	0	0	0	0	0	0	0	0	2649	2669	2669	2690	2690	2690	2690	2690	2669	2649	2649	2649	2649	2649	2649	2649	2649	2669	2669	2669	2669	2799	2799	2777	2799	2799	2777	2799	2822	2845	2845	2845	2822	2822	2845	2822	2822	2822	2822	2822	2845	2845	2893	2942	2942	2942	2942	2967	2993	2993	2993	0	0	0	0	0	0	0	0	0	0	0	0	0	0	0	0	0	0	0	0	0	0	0	0	4350	4406	4463	4463	4521	4521	4521	6468	6349	6235	6235	6124	6124	6124	6018	6018	0	0	0	0	0	0	0	0	0	0	0	0	0	0	0	0	0	0	0	0	0	0	0	0	0	0	0	0	0	0	0	0	3864	3864	3864	3864	3864	3821	3821	3779	3779	3779	3738	3779	3779	3821	3821	3821	3779	3821	3779	3821	3821	3864	3864	3864	3864	3907	3864	3864	3864	3864	3864	3864	3907	3864	3821	3821	3779	3779	3779	3779	3779	3779	3779	3779	3779	3779	3779	3779	3779	3779	3779	5050	4977	4977	4977	4977	4977	4977	4977	4977	4977	4977	4977	5050	4977	4977	4906	4977	4977	8146	7959	8146	8146	8146	8146	8146	8146	8146	8146	8146	8146	7779	7779	7779	7959	7959	7959	7959	7959	7959	7959	7779	7608	7608	6349	6349	6235	6235	6235	6349	6349	6349	6349	6349	6468	6468	6468	6468	6468	6349	6468	6468	6349	6349	6349	6349	6468	6468	6349	6349	6349	6349	6349	8343	8343	8343	8343	8146	8146	8146	8146	7959	7959	7959	7959	7959	7959	8146	8146	8146	8146	8146	8146	8146	8146	8146	7959	7959	7959	7959	7959	7959	7959	7959	7959	7959	8146	7959	7959	8146	8146	8146	8146	8146	8146	8146	7959	8146	8146	8146	8146	8146	0	0	0	0	0	0	0	0	0	0	0	0	0	0	0	0	0	0	0	0	0	0	0	0	0	0	0	0	0	0	0	0	0	0	0	0	0	2252	2194	2194	2208	2194	2194	2181	2194	2194	2181	2194	2194	2194	2194	2194	2194	2194	2194	2194	2181	2181	2194	2181	2181	2181	2181	2181	2194	2194	2194	2208	2194	2194	2194	2194	2194	2194	2194	2194	2194	2194	2194	2194	2194	2194	1969	1969	1958	1958	1958	1958	1958	1958	1958	1958	1958	1958	1958	1969	1969	1969	1969	1969	1969	1958	1958	1958	1958	1947	1947	1936	1925	1925	1925	1915	1925	1915	1915	1915	1915	1915	1915	1925	1925	0	0	0	1596	1589	1589	1596	1589	1589	1589	1581	1581	1581	1581	1574	1574	1574	1574	1574	1574	1574	0	0	0	0	0	0	0	0	0	0	0	0	0	0	0	0	0	0	0	0	0	0	0	0	0	0	0	0	0	0	0	0	0	0	0	0	0	0	0	0	0	0
0	0	0	0	0	0	0	0	0	0	0	1282	1282	1282	1287	1287	1287	1287	1282	1282	0	0	0	0	0	0	0	0	0	0	0	0	0	0	0	0	0	0	0	0	0	0	0	0	0	0	0	0	0	0	0	0	0	0	0	0	0	0	0	0	0	0	0	0	0	0	0	0	0	0	0	0	0	0	0	0	0	0	0	0	0	0	0	0	0	0	0	0	0	0	0	0	0	0	0	0	0	0	0	0	0	0	0	0	0	0	0	0	0	0	0	0	0	0	0	0	0	0	0	0	0	0	0	0	0	0	0	0	0	0	0	0	0	0	0	0	0	0	0	0	0	0	0	0	0	0	0	0	0	0	0	0	0	0	0	0	0	0	2570	2589	2609	2629	2649	2669	2690	2690	2690	2690	2690	2669	2649	2649	2649	2649	2649	2649	2649	2649	2649	2649	2649	2649	2754	2754	2777	2799	2799	2777	2799	2822	2822	2822	2822	2822	2822	2822	2822	2822	2822	2822	2845	2845	2845	2893	2917	2917	2942	2942	2942	2993	2993	2993	0	0	0	0	0	0	0	0	0	0	0	0	0	0	0	0	0	0	0	0	0	0	0	4406	4406	4406	4463	4521	4521	4521	4521	6349	6235	6124	6124	6124	6018	6018	6018	6018	0	0	0	0	0	0	0	0	0	0	0	0	0	0	0	0	0	0	0	0	0	0	0	0	0	0	0	0	0	0	0	0	3864	3864	3864	3864	3864	3821	3821	3779	3779	3779	3738	3779	3779	3821	3821	3821	3821	3821	3821	3821	3821	3821	3821	3821	3821	3864	3864	3864	3864	3864	3864	3864	3907	3864	3821	3821	3779	3779	3779	3779	3779	3779	3779	3779	3779	3779	3779	3779	3779	3738	3738	4977	4977	4977	4977	4977	4977	4977	4977	4977	4977	4977	4977	5050	5050	4977	5050	5050	5050	8146	7959	8146	8146	8146	8146	8146	8146	8146	8146	7959	7959	7959	7959	7959	7959	7959	7959	7959	7959	7959	7959	7779	7779	6468	6468	6349	6235	6235	6235	6349	6349	6349	6349	6349	6349	6468	6468	6468	6468	6468	6468	6468	6349	6349	6349	6349	6468	6468	6349	6349	6349	6349	6349	8146	8146	8146	8146	7959	7959	7959	7959	7959	7959	8146	7959	8146	8146	8146	8146	8146	8146	8146	8146	8146	8146	8146	8146	7959	7959	7959	7959	7959	7959	7959	7959	7959	7959	7959	7959	8146	8146	8146	8146	8146	8146	8146	7959	8146	8146	7959	7959	8146	0	0	0	0	0	3998	3998	0	0	0	0	0	0	0	0	0	0	0	0	0	0	0	0	0	0	0	0	0	0	0	0	0	0	0	0	0	0	2252	2194	2194	2208	2194	2208	2194	2194	2194	2194	2181	2194	2194	2181	2194	2194	2194	2194	2194	2194	2181	2194	2194	2194	2181	2181	2181	2181	2181	2194	2194	2194	2194	2194	2194	2194	2194	2194	2194	2194	2194	2194	2194	2194	1969	1969	1969	1969	1958	1958	1958	1958	1969	1958	1958	1958	1969	1969	1969	1969	1969	1969	1969	1969	1958	1958	1958	1958	1947	1947	1936	1925	1925	1925	1915	1915	1915	1915	1925	1915	1925	1925	1925	1925	0	0	1596	1596	1589	1589	1589	1589	1589	1581	1574	1581	1574	1574	1567	1567	1574	1574	1574	1574	1581	1581	1581	1574	1574	0	0	0	0	0	0	0	0	0	0	0	0	0	0	0	0	0	0	0	0	0	0	0	0	0	0	0	0	0	0	0	0	0	0	0	0	0	0
0	0	0	0	0	0	0	0	0	0	0	1282	1282	1282	1282	1282	1282	1282	1282	1282	0	0	0	0	0	0	0	0	0	0	0	0	0	0	0	0	0	0	0	0	0	0	0	0	0	0	0	0	0	0	0	0	0	0	0	0	0	0	0	0	0	0	0	0	0	0	0	0	0	0	0	0	0	0	0	0	0	0	0	0	0	0	0	0	0	0	0	0	0	0	0	0	0	0	0	0	0	0	0	0	0	0	0	0	0	0	0	0	0	0	0	0	0	0	0	0	0	0	0	0	0	0	0	0	0	0	0	0	0	0	0	0	0	0	0	0	0	0	0	0	0	0	0	0	0	0	0	0	0	0	0	0	0	0	0	0	0	0	2570	2589	2649	2649	2669	2690	2690	2690	2690	2690	2690	2669	2649	2649	2649	2649	2649	2649	2649	2649	2649	2649	2649	2690	2754	2754	2777	2799	2777	2754	2799	2799	2822	2822	2822	2822	2822	2822	2799	2799	2822	2799	2822	2822	2845	2869	2893	2917	2917	2942	2942	0	0	0	0	0	0	0	0	0	0	0	0	0	0	0	0	0	0	0	0	0	0	0	0	0	0	4406	4406	4463	4463	4581	4581	4581	6468	6349	6124	6018	6018	6018	6018	6018	6018	6018	0	0	0	0	0	0	0	0	0	0	0	0	0	0	0	0	0	0	0	0	0	0	0	0	0	0	0	0	0	0	0	0	3864	3864	3864	3864	3864	3821	3821	3821	3779	3779	3779	3779	3821	3821	3821	3821	3821	3821	3821	3821	3821	3864	3864	3864	4977	5050	4977	3864	3864	3864	3864	3864	3907	3864	3821	3821	3779	3779	3779	3779	3779	3779	3779	3779	3779	3779	3779	3779	3779	3738	3738	4977	4977	4977	4977	4977	4977	4977	4977	4977	4977	5050	5050	5050	5050	5050	5050	5050	5050	8146	7959	8146	8146	8146	8146	8146	8146	7959	7959	7959	7779	7959	7959	7959	7959	7959	7959	8146	7959	7959	7959	7959	7959	6468	6468	6349	6349	6235	6235	6349	6349	6349	6349	6349	6468	6468	6468	6468	6468	6349	6468	6468	6349	6349	6349	6349	6468	6468	6349	6349	6349	6235	6349	6349	8146	8146	8146	7959	7959	7959	7959	7959	7959	7959	7959	8146	8146	8146	8146	8146	8146	8146	8146	8146	8146	8146	8146	7959	7959	7959	7959	7959	7959	7959	7959	7959	7959	7959	7959	8146	8146	8146	8146	8146	8146	8146	7959	8146	7779	7779	7959	0	0	0	4045	3998	3998	4045	4045	0	0	0	4406	4406	4350	4350	0	0	0	0	0	0	0	0	0	0	0	0	0	0	0	0	0	0	0	0	0	0	0	0	2194	2194	2208	2194	2208	2194	2194	2194	2194	2181	2194	2194	2181	2194	2194	2194	2194	2194	2194	2181	2194	2194	2194	2181	2167	2194	2194	2181	2181	2194	2194	2194	2194	2194	2194	2194	2194	2194	2194	2194	2194	2194	2194	1969	1969	1969	1969	1958	1958	1958	1958	1958	1958	1958	1958	1958	1958	1969	1969	1969	1958	1969	1958	1958	1958	1958	1947	1947	1947	1936	1925	1925	1925	1925	1915	1915	1915	1925	1925	1925	1925	1925	1925	0	0	1596	1596	1589	1589	1589	1581	1581	1574	1567	1567	1567	1567	1560	1560	1567	1581	1574	1574	1581	1574	1581	1574	1574	0	0	0	0	0	0	0	0	0	0	0	0	0	0	0	0	0	0	0	0	0	0	0	0	0	0	0	0	0	0	0	0	0	0	0	0	0	0
0	0	0	0	0	0	0	0	0	0	0	1282	1282	1282	1282	1282	1282	1282	1277	1277	1282	1282	0	0	0	0	0	0	0	0	0	0	0	0	0	0	0	0	0	0	0	0	0	0	0	0	0	0	0	0	0	0	0	0	0	0	0	0	0	0	0	0	0	0	0	0	0	0	0	0	0	0	0	0	0	0	0	0	0	0	0	0	0	0	0	0	0	0	0	0	0	0	0	0	0	0	0	0	0	0	0	0	0	0	0	0	0	0	0	0	0	0	0	0	0	0	0	0	0	0	0	0	0	0	0	0	0	0	0	0	0	0	0	0	0	0	0	0	0	0	0	0	0	0	0	0	0	0	0	0	0	0	0	0	0	0	0	0	0	0	2649	2669	2669	2690	2690	2690	2690	2690	2690	2669	2669	2649	2649	2649	2649	2649	2649	2649	2649	2669	2690	2711	2733	2733	2733	2754	2754	2754	2777	2799	2822	2822	2822	2822	2822	2822	2822	2799	2822	2799	2799	2845	2845	2845	2845	2893	2893	2917	2917	2917	0	0	0	0	0	0	0	0	0	0	0	0	0	0	0	0	0	0	0	0	4192	4243	4192	4192	0	4350	4350	4463	4521	4581	4581	4581	6468	6349	6235	6124	6124	6124	6124	6124	6018	0	0	0	0	0	0	0	0	0	0	0	0	0	0	0	0	0	0	0	0	0	0	0	0	0	0	0	0	0	0	0	0	0	0	3864	3864	3864	3864	3864	3821	3821	3779	3738	3779	3779	3821	3821	3821	3821	3821	3821	3821	3821	3821	3821	3821	3821	4977	5050	4977	4977	3864	3864	3864	3864	3907	3864	3821	3821	3779	3779	3779	3779	3779	3779	3738	3738	3738	3779	3779	3779	3779	3738	3738	5050	4977	4977	4977	4977	4977	4977	4977	4977	5050	5050	5050	5050	4977	4977	4977	4977	4977	8343	8146	8343	8146	8146	8146	8146	7959	7959	7959	7779	7779	7779	7959	8146	7959	8146	8146	8146	8146	8146	8146	8146	8146	6349	6349	6349	6349	6235	6235	6349	6349	6349	6349	6349	6349	6468	6349	6468	6468	6468	6468	6468	6349	6349	6349	6349	6468	6468	6349	6349	6349	6349	6349	8146	8146	8146	8146	7959	7959	7959	7959	7959	7959	7959	7959	8146	8146	8146	8146	8146	8146	8146	8146	8146	8146	8146	8146	8146	7959	7959	7959	7959	7959	7959	7959	7959	7959	7959	7959	8146	8146	8146	8146	8146	8146	8146	8146	8146	8146	8146	0	0	0	0	4045	4045	4045	4045	4093	4093	0	0	4406	4406	4350	4350	4350	0	0	0	0	0	0	0	0	0	0	0	0	0	0	0	0	0	0	0	0	0	0	0	2194	2208	2208	2194	2208	2208	2194	2194	2181	2181	2181	2194	2194	2194	2194	2194	2194	2194	2181	2181	2194	2194	2194	2181	2194	2194	2194	2181	2181	2194	2194	2194	2194	2194	2194	2194	2194	2194	2194	2181	2194	2194	2194	1969	1969	1969	1969	1958	1958	1958	1958	1958	1958	1958	1969	1969	1969	1969	1969	1969	1958	1969	1958	1958	1958	1958	1947	1947	1947	1936	1936	1936	1936	1925	1925	1925	1925	1925	1925	1925	1925	1936	1936	0	0	1589	1589	1589	1589	1589	1581	1581	1574	1574	1567	1567	1567	1560	1567	1567	1574	1574	1574	1574	1581	1581	1581	1581	0	0	0	0	0	0	0	0	0	0	0	0	0	0	0	0	0	0	0	0	0	0	0	0	0	0	0	0	0	0	0	0	0	0	0	0	0	0
0	0	0	0	0	0	0	0	0	0	0	1282	1282	1282	1282	1287	1282	1282	1282	1282	1277	1277	0	0	0	0	0	0	0	0	0	0	0	0	0	0	0	0	0	0	0	0	0	0	0	0	0	0	0	0	0	0	0	0	0	0	0	0	0	0	0	0	0	0	0	0	0	0	0	0	0	0	0	0	0	0	0	0	0	0	0	0	0	0	0	0	0	0	0	0	0	0	0	0	0	0	0	0	0	0	0	0	0	0	0	0	0	0	0	0	0	0	0	0	0	0	0	0	0	0	0	0	0	0	0	0	0	0	0	0	0	0	0	0	0	0	0	0	0	0	0	0	0	0	0	0	0	0	0	0	0	0	0	0	0	0	0	0	2570	2589	2649	2669	2669	2690	2690	2690	2690	2669	2690	2669	2669	2649	2649	2649	2649	2649	2649	2649	2649	2649	2669	2711	2733	2733	2733	2754	2754	2754	2777	2799	2822	2822	2822	2822	2822	2822	2822	2799	2822	2822	2799	2845	2845	2822	2822	2869	2869	2893	2917	2917	0	0	0	0	0	0	0	0	0	0	0	0	0	0	0	0	0	0	0	0	4192	4192	4192	4192	4192	4243	4350	4406	4406	4581	4581	6468	6468	6468	6235	6235	6124	6235	6124	6124	0	0	0	0	0	0	0	0	0	0	0	0	0	0	0	0	0	0	0	0	0	0	0	0	0	0	0	0	0	0	0	0	0	0	0	3864	3864	3864	3864	3864	3821	3779	3779	3779	3779	3779	3821	3821	3821	3864	3821	3821	3821	3821	3821	3821	3821	5050	5050	5050	4977	4977	3821	3821	3864	3864	3907	3907	3864	3821	3821	3779	3779	3779	3779	3779	3779	3779	3779	3779	3779	3779	3779	3779	5050	5050	5050	4977	4977	4977	4977	4977	4977	4977	4977	4977	4977	4977	4977	4977	4977	4906	4906	8343	8146	8343	8146	8146	8146	8146	7959	7959	7959	7779	7779	7959	7959	8146	8146	8146	8343	8146	8146	8146	8146	8146	8146	6349	6349	6349	6349	6235	6235	6468	6468	6349	6349	6468	6468	6468	6468	6468	6468	6468	6468	6468	6349	6349	6349	6349	6349	6349	6349	6349	6349	6349	6349	8146	8146	8146	8146	8146	7959	7959	7959	7959	7959	7959	7959	7959	7959	7959	8146	8146	8146	8146	8146	8146	8146	8146	8146	8146	7959	7959	7959	7959	7959	7959	7959	7959	7959	7959	7959	8146	8146	8146	8146	8146	8146	8146	7959	7959	8146	8146	0	0	0	0	3998	3998	3998	4045	4045	4045	0	4406	4406	4406	4406	4350	4350	0	0	0	0	0	0	0	0	0	0	0	0	0	0	0	0	0	0	0	0	0	0	0	2194	2208	2194	2194	2194	2194	2194	2194	2181	2181	2194	2194	2194	2194	2194	2194	2194	2194	2181	2181	2194	2194	2194	2181	2167	2194	2194	2181	2181	2181	2194	2194	2194	2194	2194	2194	2194	2194	2194	2181	2181	2181	2181	1969	1969	1969	1969	1958	1958	1958	1958	1969	1969	1958	1969	1969	1969	1980	1980	1969	1969	1969	1969	1958	1958	1958	1947	1947	1947	1947	1936	1936	1936	1925	1925	1925	1925	1925	1925	1936	1925	1947	1947	0	0	1589	1589	1589	1589	1581	1574	1574	1574	1574	1567	1574	1567	1567	1567	1574	1574	1567	1567	1567	1574	1574	1581	1581	0	0	0	0	0	0	0	0	0	0	0	0	0	0	0	0	0	0	0	0	0	0	0	0	0	0	0	0	0	0	0	0	0	0	0	0	0	0
0	0	0	0	0	0	0	0	0	0	0	1282	1282	1287	1287	1287	1287	1287	1282	1282	1277	1277	0	0	0	0	0	0	0	0	0	0	0	0	0	0	0	0	0	0	0	0	0	0	0	0	0	0	0	0	0	0	0	0	0	0	0	0	0	0	0	0	0	0	0	0	0	0	0	0	0	0	0	0	0	0	0	0	0	0	0	0	0	0	0	0	0	0	0	0	0	0	0	0	0	0	0	0	0	0	0	0	0	0	0	0	0	0	0	0	0	0	0	0	0	0	0	0	0	0	0	0	0	0	0	0	0	0	0	0	0	0	0	0	0	0	0	0	0	0	0	0	0	0	0	0	0	0	0	0	0	0	0	0	0	0	0	0	2570	2629	2649	2669	2669	2690	2690	2690	2690	2669	2690	2690	2669	2649	2649	2649	2649	2649	2649	2649	2649	2649	2669	2711	2733	2733	2754	2777	2754	2754	2777	2799	2822	2822	2822	2799	2822	2822	2799	2799	2822	2822	2799	2822	2822	2822	2822	2822	2893	2893	2893	2893	0	0	0	0	0	0	0	0	0	0	0	0	0	0	0	0	0	0	0	0	4142	4142	4192	4243	4296	4296	4350	4406	4406	4463	4463	4463	6592	6468	6349	6235	6235	6235	6235	6235	6235	0	0	0	0	0	0	0	0	0	0	0	0	0	0	0	0	0	0	0	0	0	0	0	0	0	0	0	0	0	0	0	0	0	0	3864	3864	3864	3864	3864	3821	3779	3779	3738	3738	3779	3779	3821	3821	3821	3821	3821	3821	3821	3821	3821	3821	5050	5050	5050	4977	4977	4977	3821	3821	3821	3907	3907	3864	3821	3821	3779	3779	3779	3779	3779	3779	3779	3779	3779	3779	3779	3779	3779	4977	5050	5050	5050	4977	4977	4977	4977	4977	4977	4977	4977	4977	4977	4977	4977	4977	4977	4977	7959	8146	8146	8146	8146	8146	8146	8146	8146	8146	7959	7959	7959	7959	8146	8146	8146	8146	7959	8146	8146	7959	7959	7959	6468	6468	6468	6468	6349	6349	6468	6468	6468	6468	6468	6468	6468	6468	6468	6468	6468	6468	6468	6468	6349	6468	6468	6468	6468	6349	6349	6349	6349	6349	8146	8146	8146	8146	8146	7959	7959	7959	7959	7959	7959	7959	7959	7959	7959	8146	8146	8146	8146	8146	8146	8146	8146	8146	8146	7959	7959	7959	7959	7959	7959	7959	7959	7959	7959	7959	8146	8146	8146	8146	8146	8146	8146	7959	8146	8146	8146	0	0	0	0	3998	3998	3998	4045	4045	4045	4406	4406	4463	4406	4406	4406	4406	0	0	0	0	0	0	0	0	0	0	0	0	0	0	0	0	0	0	0	0	0	0	0	2194	2208	2208	2194	2208	2194	2194	2181	2181	2181	2181	2181	2181	2181	2194	2194	2194	2194	2194	2194	2208	2194	2194	2181	2181	2181	2181	2181	2181	2181	2181	2181	2181	2194	2194	2194	2194	2208	2194	2194	2181	2181	2181	1969	1969	1969	1980	1969	1969	1969	1969	1958	1958	1969	1969	1969	1969	1980	1980	1980	1969	1969	1969	1958	1958	1958	1958	1958	1947	1947	1936	1936	1936	1925	1925	1925	1925	1936	1925	1936	1947	1958	1958	0	0	1596	1589	1589	1589	1581	1574	1574	1574	1574	1574	1567	1567	1567	1560	1567	1567	1560	1567	1574	1574	1574	1581	0	0	0	0	0	0	0	0	0	0	0	0	0	0	0	0	0	0	0	0	0	0	0	0	0	0	0	0	0	0	0	0	0	0	0	0	0	0	0
