0	0	0	0	0	0	0	0	0	0	0	1282	1287	1287	1287	1282	1282	1282	0	0	0	0	0	0	0	0	0	0	0	0	0	0	0	0	0	0	0	0	0	0	0	0	0	0	0	0	0	0	0	0	0	0	0	0	0	0	0	0	0	0	0	0	0	0	0	0	2003	2015	2015	2015	2015	2015	2015	2003	2003	0	0	0	0	0	0	0	0	0	0	0	0	0	0	0	0	0	0	0	0	0	0	0	0	0	0	0	0	0	0	0	0	0	0	0	0	0	0	0	0	0	0	0	0	0	0	0	0	0	0	0	0	0	0	0	0	0	0	0	0	0	0	0	0	0	0	0	0	0	0	0	0	0	0	0	0	0	0	0	0	0	0	2649	2649	2690	2690	2690	2690	2711	2733	2711	2711	2711	2711	2690	2690	2690	2690	2690	2690	2690	2711	2711	2733	2754	2777	2777	2777	2777	2777	2799	2799	2777	2799	2799	2822	2799	2799	2799	2799	2777	2777	2777	2777	2777	2799	2777	2799	2799	2799	2822	2822	2822	2845	2845	2869	2893	2893	2893	2942	3019	3073	3101	3129	3129	3129	0	0	0	0	0	0	0	4045	4045	4045	4045	4093	4192	4243	4296	4350	4350	4463	4463	4463	4581	4581	4581	0	0	0	0	0	0	0	0	0	0	0	0	0	0	0	0	0	0	0	0	0	0	0	0	0	0	0	0	0	0	0	0	0	0	0	0	0	0	0	0	0	0	0	0	0	0	0	0	0	0	0	4243	4243	4243	4243	4243	4243	4243	4243	4243	4243	4243	4243	4243	4243	4243	4243	4243	4243	4243	5050	5050	5050	5050	5050	5050	5050	5050	4296	4296	4243	4243	4243	4243	4243	4192	4192	4192	4192	4192	4192	4142	4142	4142	4142	5050	5050	5050	4977	5050	4977	4977	4977	4977	4977	4977	4977	5050	5050	5050	5050	7959	7959	7959	7959	7959	7959	7959	7959	7959	7959	7959	7959	7959	7959	7959	7959	7959	7959	7959	7959	7959	7779	6349	6235	6349	6349	6349	6349	6349	6349	6349	6349	6349	6235	6235	6235	6235	6235	6349	6349	6349	6349	6349	6349	6349	6349	6468	6349	6349	6468	6468	6468	8550	8343	8343	8146	8146	8146	7959	8146	8146	8146	8146	8146	8146	8146	7959	7959	7959	7959	7959	8146	8146	8146	8146	8146	8146	8146	8146	7959	7959	7959	7959	7959	7959	7959	7959	7959	7959	7959	7959	7959	7959	7959	7959	7959	7959	8146	8146	0	0	0	0	0	0	0	0	4463	4406	4406	4350	4350	4350	4350	4350	4296	4243	4192	4192	0	0	0	0	0	0	0	0	0	0	0	0	0	0	0	0	0	0	0	0	0	0	0	0	2208	2208	2208	2194	2194	2194	2194	2194	2194	2194	2194	2194	2194	2194	2181	2181	2181	2181	2167	2167	2181	2181	2181	2181	2181	2181	2181	2181	2167	2167	2167	2167	2167	2167	2167	2167	2167	1969	1969	1958	1980	1980	1969	1969	1980	1969	1969	1980	1969	1969	1969	1969	1969	1958	1958	1958	1958	1958	1958	1958	1958	1958	1947	1947	1947	1947	1936	1947	1947	1947	1936	1925	1915	1904	1904	1904	1904	1904	0	0	0	0	0	1574	1574	1574	1574	1574	1560	1567	1560	1560	1560	1560	1560	1560	1560	1560	1574	1581	1581	1581	1589	1589	0	0	0	0	0	0	0	0	0	0	0	0	0	0	0	0	0	0	0	0	0	0	0	0	0	0	0	0	0	0	0	0	0	0	0	0	0	0
0	0	0	0	0	0	0	0	0	0	0	1282	1287	1287	1287	1282	1282	0	0	0	0	0	0	0	0	0	0	0	0	0	0	0	0	0	0	0	0	0	0	0	0	0	0	0	0	0	0	0	0	0	0	0	0	0	0	0	0	0	0	0	0	0	0	0	1992	2003	2003	2003	2003	2003	2003	2003	2003	2003	2003	0	0	0	0	0	0	0	0	0	0	0	0	0	0	0	0	0	0	0	0	0	0	0	0	0	0	0	0	0	0	0	0	0	0	0	0	0	0	0	0	0	0	0	0	0	0	0	0	0	0	0	0	0	0	0	0	0	0	0	0	0	0	0	0	0	0	0	0	0	0	0	0	0	0	0	0	0	0	0	0	0	2711	2669	2690	2690	2690	2690	2690	2711	2711	2711	2711	2711	2690	2690	2690	2690	2690	2690	2690	2690	2711	2733	2754	2754	2777	2777	2777	2777	2777	2777	2777	2799	2822	2822	2822	2799	2822	2799	2777	2777	2777	2777	2777	2777	2777	2777	2799	2799	2799	2822	2822	2822	2845	2845	2869	2893	2893	2893	2917	2993	3019	3101	3101	3129	3129	0	0	0	0	0	0	0	4045	4045	4045	4045	4045	4192	4243	4296	4296	4350	4406	4463	4521	4581	4581	0	0	0	0	0	0	0	0	0	0	0	0	0	0	0	0	0	0	0	0	0	0	0	0	0	0	0	0	0	0	0	0	0	0	0	0	0	0	0	0	0	0	0	0	0	0	0	0	0	0	0	4243	4243	4243	4243	4243	4243	4243	4243	4243	4243	4243	4243	4243	4243	4243	4243	4243	4243	4243	5125	5050	5050	5050	5050	5050	5050	5050	5050	4296	4296	4243	4243	4243	4243	4243	4192	4142	4142	4192	4192	4192	4142	4142	4142	4142	4192	5050	4977	4977	4977	4977	4977	4977	4977	4977	4977	4977	4977	5050	5050	5050	7779	7779	7959	7959	7959	7959	7959	7959	7959	7959	7959	7959	7959	7959	7959	7959	7959	7959	7959	7959	7959	7779	6349	6235	6349	6349	6349	6349	6349	6349	6349	6349	6349	6235	6235	6235	6235	6235	6235	6349	6349	6349	6349	6349	6349	6349	6349	6349	6349	6349	6468	8767	8550	8343	8343	8146	8146	8146	7959	8146	8146	8146	8146	8146	7959	7959	7959	7959	7959	7959	7959	8146	8146	8146	8146	8146	8146	8146	8146	8146	7959	8146	7959	7959	7959	7959	7959	7959	7959	7959	7959	7959	7959	7959	7959	8146	8146	8343	8343	0	0	0	0	0	0	0	0	4463	4406	4350	4350	4350	4350	4350	4350	4296	4243	4192	4192	0	0	0	0	0	0	0	0	0	0	0	0	0	0	0	0	0	0	0	0	0	0	0	0	2208	2223	2208	2208	2194	2194	2194	2194	2194	2194	2194	2194	2194	2194	2181	2181	2181	2181	2181	2181	2181	2181	2181	2181	2181	2181	2167	2167	2167	2167	2167	2167	2167	2167	2167	2167	2167	2167	1980	1969	1980	1980	1980	1980	1980	1969	1969	1980	1969	1969	1969	1969	1958	1958	1958	1958	1958	1958	1958	1958	1958	1958	1947	1947	1947	1947	1936	1936	1947	1936	1936	1925	1915	1915	1904	1904	1894	1894	0	0	0	1574	1574	1567	1567	1567	1567	1567	1560	1560	1560	1560	1560	1560	1560	1560	1560	1560	1567	1581	1574	1581	1581	1581	0	0	0	0	0	0	0	0	0	0	0	0	0	0	0	0	0	0	0	0	0	0	0	0	0	0	0	0	0	0	0	0	0	0	0	0	0	0
0	0	0	0	0	0	0	0	0	0	0	1282	1287	1287	1287	1282	1282	0	0	0	0	0	0	0	0	0	0	0	0	0	0	0	0	0	0	0	0	0	0	0	0	0	0	0	0	0	0	0	0	0	0	0	0	0	0	0	0	0	0	0	0	0	0	0	1992	2003	2003	2003	2003	2003	2003	2003	2003	2003	2003	0	0	0	0	0	0	0	0	0	0	0	0	0	0	0	0	0	0	0	0	0	0	0	0	0	0	0	0	0	0	0	0	0	0	0	0	0	0	0	0	0	0	0	0	0	0	0	0	0	0	0	0	0	0	0	0	0	0	0	0	0	0	0	0	0	0	0	0	0	0	0	0	0	0	0	0	0	0	0	0	0	2711	2690	2690	2690	2690	2690	2690	2711	2711	2711	2690	2690	2690	2690	2690	2690	2690	2690	2690	2711	2733	2733	2733	2754	2777	2777	2777	2754	2754	2777	2777	2777	2799	2799	2822	2799	2822	2799	2799	2777	2777	2777	2777	2777	2777	2777	2777	2799	2799	2822	2822	2822	2845	2845	2869	2893	2893	2893	2942	2993	3019	3046	3073	3073	3129	0	0	0	0	0	0	3998	3998	4045	4045	4045	4045	4093	4243	4296	4350	4406	4463	4463	4521	4581	4581	0	0	0	0	0	0	0	0	0	0	0	0	0	0	0	0	0	0	0	0	0	0	0	0	0	0	0	0	0	0	0	0	0	0	0	0	0	0	0	0	0	0	0	0	0	0	0	0	0	0	4243	4243	4243	4243	4296	4296	4296	4243	4296	4243	4243	4243	4243	4243	4243	4243	4243	4243	4243	4243	5050	5050	5050	5050	5050	5050	5050	5050	5050	4296	4296	4296	4243	4243	4192	4192	4192	4192	4192	4192	4142	4142	4142	4142	4142	4142	4142	4977	4977	4977	4977	4977	4977	4977	4977	4977	4977	4977	4977	5050	5050	5050	7779	7779	7959	7959	7959	7959	7959	7959	7959	7959	8146	8146	7959	7959	7959	7959	7959	7959	7959	7959	7959	7779	6349	6235	6349	6349	6349	6349	6349	6349	6349	6349	6349	6235	6235	6235	6235	6235	6349	6349	6349	6349	6349	6349	6349	6349	6349	6349	6349	6349	6349	8767	8550	8343	8343	8146	8146	8146	8146	8146	8146	8146	8146	8146	8146	8146	7959	8146	7959	7959	7959	7959	8146	8146	8146	8146	8146	8146	8146	8146	7959	8146	7959	7959	8146	7959	7959	7959	7959	7959	7959	7959	7959	7959	7959	8146	8146	8343	8343	8343	0	0	0	0	0	0	0	4406	4350	4350	4350	4350	4350	4350	4350	4296	4243	4192	4093	4093	0	0	0	0	0	0	0	0	0	0	0	0	0	0	0	0	0	0	0	0	0	0	0	0	2208	2208	2208	2194	2194	2194	2194	2194	2194	2194	2194	2194	2194	2194	2181	2181	2181	2181	2181	2181	2181	2181	2181	2181	2167	2167	2167	2167	2167	2167	2167	2167	2153	2153	2153	2153	1980	1980	1969	1980	1980	1980	1980	1980	1980	1980	1980	1969	1969	1969	1969	1958	1958	1958	1958	1958	1958	1947	1958	1958	1958	1958	1947	1947	1947	1936	1936	1936	1936	1936	1925	1925	1915	1904	1904	1894	1904	1904	0	0	1574	1567	1567	1567	1567	1567	1567	1560	1560	1560	1560	1560	1560	1560	1553	1553	1553	1560	1574	1574	1581	1581	1581	0	0	0	0	0	0	0	0	0	0	0	0	0	0	0	0	0	0	0	0	0	0	0	0	0	0	0	0	0	0	0	0	0	0	0	0	0	0
0	0	0	0	0	0	0	0	0	0	0	1282	1287	1287	1287	1287	1282	0	0	0	0	0	0	0	0	0	0	0	0	0	0	0	0	0	0	0	0	0	0	0	0	0	0	0	0	0	0	0	0	0	0	0	0	0	0	0	0	0	0	0	0	0	0	1980	1992	2003	2003	2003	2003	2003	2003	2003	2003	2003	2003	0	0	0	0	0	0	0	0	0	0	0	0	0	0	0	0	0	0	0	0	0	0	0	0	0	0	0	0	0	0	0	0	0	0	0	0	0	0	0	0	0	0	0	0	0	0	0	0	0	0	0	0	0	0	0	0	0	0	0	0	0	0	0	0	0	0	0	0	0	0	0	0	0	0	0	0	0	0	0	0	0	2711	2690	2690	2690	2690	2690	2690	2690	2711	2690	2690	2711	2690	2690	2690	2690	2690	2690	2690	2711	2733	2733	2733	2754	2777	2777	2777	2754	2777	2777	2777	2777	2799	2799	2822	2799	2822	2799	2799	2799	2777	2777	2777	2777	2777	2777	2777	2777	2777	2799	2822	2822	2845	2845	2869	2893	2917	2917	2942	2993	3019	3019	3019	3046	3046	3046	0	0	0	0	3952	3998	3998	3998	3998	4045	4045	4142	4243	4243	4296	4406	4463	4463	4463	4581	4581	0	0	0	0	0	0	0	0	0	0	0	0	0	0	0	0	0	0	0	0	0	0	0	0	0	0	0	0	0	0	0	0	0	0	0	0	0	0	0	0	0	0	0	0	0	0	0	0	0	4243	4243	4243	4243	4243	4243	4243	4296	4243	4296	4243	4243	4243	4243	4243	4243	4243	4243	4243	4243	4243	5050	5050	5050	5050	5050	5050	5050	5050	4296	4296	4296	4296	4243	4243	4243	4192	4192	4192	4192	4192	4192	4142	4192	4192	4192	4192	4192	4192	4977	4977	4977	4977	4977	4977	4977	4977	4977	4977	4977	4906	5050	5050	7779	7959	7959	7959	7959	7959	7959	7959	7959	8146	8146	8146	8146	7959	7959	7959	7959	7959	7959	7959	7959	7779	6235	6235	6349	6349	6349	6349	6349	6349	6349	6349	6235	6235	6235	6235	6235	6235	6349	6349	6349	6349	6468	6349	6349	6349	6349	6349	6349	6349	6468	8550	8550	8343	8343	8146	8146	8146	8146	7959	7959	7959	7959	7959	7959	7959	7959	7959	7959	7959	7959	7959	8146	7959	8146	8146	8146	8146	8146	8146	8146	8146	7959	7959	7959	7959	8146	7959	7959	7959	7959	7959	7959	7959	7959	8146	8146	8343	8343	8343	0	0	0	0	0	0	0	4406	4350	4350	4406	4350	4350	4406	4350	4296	4243	4192	4142	4093	4093	0	0	0	0	0	0	0	0	0	0	0	0	0	0	0	0	0	0	0	0	0	0	0	2208	2208	2208	2194	2194	2194	2194	2194	2194	2181	2194	2194	2194	2194	2194	2181	2167	2194	2181	2181	2181	2181	2181	2181	2181	2167	2167	2167	2167	2167	2167	2167	2167	2153	2153	2153	1980	1980	1980	1980	1980	1980	1980	1992	1992	1992	1992	1980	1969	1969	1969	1969	1958	1958	1958	1958	1958	1958	1958	1958	1958	1958	1947	1947	1936	1936	1925	1936	1936	1936	1915	1925	1915	1904	1904	1904	1904	1894	1894	0	1567	1567	1567	1567	1567	1567	1567	1567	1560	1560	1560	1560	1560	1560	1553	1553	1553	1553	1567	1567	1574	1574	1574	0	0	0	0	0	0	0	0	0	0	0	0	0	0	0	0	0	0	0	0	0	0	0	0	0	0	0	0	0	0	0	0	0	0	0	0	0	0
0	0	0	0	0	0	0	0	0	0	0	1282	1287	1287	1287	1287	0	0	0	0	0	0	0	0	0	0	0	0	0	0	0	0	0	0	0	0	0	0	0	0	0	0	0	0	0	0	0	0	0	0	0	0	0	0	0	0	0	0	0	0	0	0	0	2015	2015	2003	2003	2003	2003	2003	2003	1992	1980	1969	1969	0	0	0	0	0	0	0	0	0	0	0	0	0	0	0	0	0	0	0	0	0	0	0	0	0	0	0	0	0	0	0	0	0	0	0	0	0	0	0	0	0	0	0	0	0	0	0	0	0	0	0	0	0	0	0	0	0	0	0	0	0	0	0	0	0	0	0	0	0	0	0	0	0	0	0	0	0	0	0	0	0	2711	2690	2690	2711	2690	2690	2690	2711	2711	2711	2711	2711	2690	2690	2690	2690	2690	2690	2690	2690	2711	2733	2733	2733	2754	2777	2777	2754	2777	2799	2822	2799	2799	2799	2799	2799	2822	2799	2799	2799	2777	2799	2777	2777	2777	2777	2777	2799	2799	2822	2822	2822	2845	2845	2869	2893	2917	2917	2942	2967	2967	2993	3019	3019	3019	3019	3019	0	0	3998	3952	3998	3998	4045	4045	4045	4093	4142	4192	4243	4296	4350	4406	4463	4521	4521	4521	0	0	0	0	0	0	0	0	0	0	0	0	0	0	0	0	6468	6468	6468	0	0	0	0	0	0	0	0	0	0	0	0	0	0	0	0	0	0	0	0	0	0	0	0	0	0	0	0	0	0	4243	4243	4296	4296	4296	4296	4296	4296	4296	4296	4243	4243	4243	4243	4243	4243	4243	4243	4243	4243	4243	5050	5050	5050	5050	5050	5050	5050	5050	5050	4296	4296	4296	4243	4243	4192	4192	4192	4192	4192	4192	4192	4192	4192	4192	4192	4192	4192	4192	4977	4977	4977	4977	4977	4977	4977	4977	4977	4977	4906	4906	4906	7959	7779	7959	7959	7959	7959	7959	7959	7959	7959	7959	8146	8146	8146	7959	7959	7959	7959	7959	7959	7959	7779	7779	6720	6349	6349	6349	6349	6235	6235	6235	6235	6235	6235	6235	6235	6235	6235	6235	6349	6349	6349	6349	6349	6349	6349	6349	6349	6349	6349	6468	6468	8767	8550	8343	8343	8146	8146	8146	8146	8146	8146	7959	7959	7959	7959	7959	7959	7959	7959	7959	7959	7959	8146	7959	8146	8146	8146	8146	8146	7959	7959	7959	7959	7959	7959	7959	8146	7959	7959	8146	7959	7959	7959	7959	7959	8146	8146	8343	8343	8343	0	0	0	0	0	0	0	0	4350	4350	4406	4350	4350	4406	4350	4296	4243	4192	4142	4045	4045	0	0	0	0	0	0	0	0	0	0	0	0	0	0	0	0	0	0	0	0	0	0	0	2208	2208	2208	2194	2194	2194	2194	2194	2181	2181	2181	2181	2181	2194	2181	2167	2167	2167	2181	2181	2181	2181	2181	2181	2181	2167	2167	2167	2167	2153	2167	2167	2153	2153	2153	2153	1980	1969	1969	1980	1980	1980	1992	1992	1992	1992	1992	1980	1980	1969	1969	1969	1958	1958	1958	1958	1958	1958	1958	1958	1958	1947	1947	1947	1936	1936	1925	1936	1936	1936	1925	1915	1915	1915	1904	1904	1567	1567	1560	1560	1567	1567	1567	1567	1567	1567	1567	1560	1560	1553	1553	1553	1553	1553	1546	1553	1553	1553	1560	1567	1567	1574	1574	0	0	0	0	0	0	0	0	0	0	0	0	0	0	0	0	0	0	0	0	0	0	0	0	0	0	0	0	0	0	0	0	0	0	0	0	0	0
0	0	0	0	0	0	0	0	0	0	0	1282	1287	1287	1287	1287	0	0	0	0	0	0	0	0	0	0	0	0	0	0	0	0	0	0	0	0	0	0	0	0	0	0	0	0	0	0	0	0	0	0	0	0	0	0	0	0	0	0	0	0	0	0	0	1980	2003	2003	2003	2003	2003	2003	2003	1992	1980	1980	1980	0	0	0	0	0	0	0	0	0	0	0	0	0	0	0	0	0	0	0	0	0	0	0	0	0	0	0	0	0	0	0	0	0	0	0	0	0	0	0	0	0	0	0	0	0	0	0	0	0	0	0	0	0	0	0	0	0	0	0	0	0	0	0	0	0	0	0	0	0	0	0	0	0	0	0	0	0	0	0	0	0	2690	2690	2711	2690	2690	2690	2669	2690	2690	2690	2690	2690	2690	2690	2690	2669	2690	2669	2690	2690	2711	2733	2733	2733	2754	2754	2754	2754	2799	2799	2822	2799	2799	2799	2799	2799	2799	2799	2799	2799	2799	2799	2799	2799	2799	2799	2777	2799	2799	2822	2822	2822	2822	2845	2845	2869	2893	2917	2942	2942	2967	2993	2993	3019	3019	3019	2993	2993	0	3952	3952	3998	3998	4045	4045	4045	4045	4142	4192	4243	4296	4406	4463	4463	4463	4521	4521	0	0	0	0	0	0	0	0	0	0	0	0	0	0	0	6468	6468	6468	6349	6349	6349	6124	6124	6124	0	0	0	0	0	0	0	0	0	0	0	0	0	0	0	0	0	0	0	0	0	0	0	0	0	4243	4243	4296	4296	4296	4296	4296	4296	4296	4296	4243	4243	4243	4243	4243	4243	4243	4243	4243	4243	4243	5050	5050	5050	5050	5050	5050	5050	5050	5125	4243	4243	4243	4243	4243	4192	4192	4192	4192	4192	4192	4192	4192	4192	4192	4192	4192	4192	4192	4977	4977	4977	4977	4977	4977	4977	4977	4977	4906	4906	4838	4838	7959	7779	7779	7959	7959	7959	7959	7959	7959	7959	7959	7959	7959	7959	7959	7959	7959	7959	7959	7959	7779	7779	7608	6992	6468	6349	6349	6235	6235	6235	6235	6235	6235	6235	6235	6235	6235	6235	6235	6349	6349	6468	6349	6349	6349	6349	6349	6349	6349	6349	6349	6468	8767	8550	8550	8343	8146	8146	8146	8146	8146	8146	7959	8146	8146	7959	7959	7959	7959	7959	7959	7959	7959	7959	7959	7959	8146	8146	8146	8146	8146	7959	7959	7959	7959	7959	7959	7959	7959	7959	8146	7959	7959	7959	7959	7959	7959	8146	8146	8146	8146	0	0	0	0	0	0	0	0	4350	4350	4406	4350	4350	4406	4350	4296	4243	4192	4142	4142	4142	4142	0	0	0	0	0	0	0	0	0	0	0	0	0	0	0	0	0	0	0	0	0	0	2208	2208	2194	2194	2194	2194	2181	2181	2181	2181	2181	2181	2181	2181	2181	2167	2167	2167	2167	2167	2181	2181	2181	2181	2181	2181	2181	2167	2167	2153	2167	2167	2153	2153	2167	2167	0	1969	1969	1980	1980	1980	1992	1992	1992	1992	1992	1980	1980	1980	1969	1969	1958	1958	1958	1958	1958	1958	1958	1958	1958	1947	1947	1947	1936	1925	1925	1936	1925	1915	1915	1915	1915	1915	1904	1894	1894	1560	1553	1553	1560	1574	1574	1567	1567	1567	1567	1567	1560	1553	1553	1553	1553	1553	1546	1546	1553	1553	1560	1567	1574	1574	1574	0	0	0	0	0	0	0	0	0	0	0	0	0	0	0	0	0	0	0	0	0	0	0	0	0	0	0	0	0	0	0	0	0	0	0	0	0	0
0	0	0	0	0	0	0	0	0	0	0	1282	1282	1287	1291	1291	0	0	0	0	0	0	0	0	0	0	0	0	0	0	0	0	0	0	0	0	0	0	0	0	0	0	0	0	0	0	0	0	0	0	0	0	0	0	0	0	0	0	0	0	0	0	1992	2003	2015	2003	2003	2003	2003	2003	2003	2003	1992	1980	1980	1980	0	0	0	0	0	0	0	0	0	0	0	0	0	0	0	0	0	0	0	0	0	0	0	0	0	0	0	0	0	0	0	0	0	0	0	0	0	0	0	0	0	0	0	0	0	0	0	0	0	0	0	0	0	0	0	0	0	0	0	0	0	0	0	0	0	0	0	0	0	0	0	0	0	0	0	0	0	0	0	2690	2711	2690	2711	2690	2690	2690	2690	2711	2690	2711	2690	2690	2690	2690	2690	2669	2690	2669	2669	2690	2690	2711	2733	2733	2754	2754	2754	2754	2777	2822	2822	2822	2822	2799	2799	2777	2733	2733	2799	2799	2799	2799	2799	2799	2799	2799	2799	2799	2799	2799	2822	2822	2822	2822	2845	2869	2893	2917	2917	2942	2967	2993	3019	3019	3019	3019	3019	2993	2993	3952	3952	3998	3998	4045	3998	4045	4045	4142	4192	4243	4296	4406	4463	4463	4521	4581	4581	0	0	0	0	0	0	0	0	0	0	0	0	0	0	0	6468	6468	6468	6349	6235	6235	6124	6124	6124	0	0	0	0	0	0	0	0	0	0	0	0	0	0	0	0	0	0	0	0	0	0	0	0	0	4243	4243	4296	4296	4243	4243	4296	4296	4296	4296	4243	4243	4243	4243	4243	4243	4243	4243	4243	4243	4243	5050	5050	5050	4977	4977	5050	5050	5125	5125	4243	4243	4243	4243	4243	4192	4192	4192	4192	4192	4192	4192	4192	4192	4192	4192	4243	4192	4142	4142	4977	4977	4977	4977	4977	4977	4977	4977	4977	4906	4906	4906	7959	7779	7779	7959	7959	7779	7779	7959	7959	7959	7959	7959	7959	7959	7959	7959	7959	7959	7779	7959	7959	7779	7779	6992	6349	6235	6349	6235	6235	6235	6235	6235	6235	6235	6235	6235	6235	6235	6235	6349	6349	6349	6468	6349	6349	6349	6468	6349	6349	6349	6349	6349	8767	8550	8550	8146	8146	8146	8146	8146	8146	8146	7959	8146	8146	8146	7959	7959	7959	7959	7959	7959	8146	8146	8146	8146	8146	8146	8146	8146	7959	7959	7959	7959	7959	7959	7959	7959	7959	7959	7959	7959	7959	7959	7959	7959	7959	8146	8146	8343	8146	8146	0	0	0	0	0	0	0	0	0	0	4350	4350	4406	4406	4296	4243	4142	4142	4093	4093	4142	4142	0	0	0	0	0	0	0	0	0	0	0	0	0	0	0	0	0	0	0	0	0	2208	2208	2208	2194	2194	2194	2181	2181	2181	2181	2181	2181	2181	2181	2181	2181	2167	2181	2167	2181	2181	2181	2181	2181	2181	2181	2181	2167	2153	2153	2153	2167	2167	2167	2167	2167	0	0	1969	1980	1980	1980	1992	1992	1992	1992	1992	1992	1980	1980	1980	1969	1958	1958	1958	1958	1958	1958	1947	1958	1958	1947	1947	1947	1936	1936	1925	1936	1925	1925	1915	1915	1915	1904	1904	1894	1894	1560	1589	1589	1589	1581	1581	1581	1581	1581	1574	1567	1567	1560	1560	1560	1553	1553	1546	1546	1553	1553	1553	1560	1567	1574	1574	0	0	0	0	0	0	0	0	0	0	0	0	0	0	0	0	0	0	0	0	0	0	0	0	0	0	0	0	0	0	0	0	0	0	0	0	0	0
0	0	0	0	0	0	0	0	0	0	0	1287	1287	1291	1291	1296	1296	0	0	0	0	0	0	0	0	0	0	0	0	0	0	0	0	0	0	0	0	0	0	0	0	0	0	0	0	0	0	0	0	0	0	0	0	0	0	0	0	0	0	0	0	0	1992	2015	2003	2003	2003	2003	2003	1992	2003	1992	1992	1992	1980	1980	1980	0	0	0	0	0	0	0	0	0	0	0	0	0	0	0	0	0	0	0	0	0	0	0	0	0	0	0	0	0	0	0	0	0	0	0	0	0	0	0	0	0	0	0	0	0	0	0	0	0	0	0	0	0	0	0	0	0	0	0	0	0	0	0	0	0	0	0	0	0	0	0	0	0	0	0	0	0	2711	2711	2711	2711	2711	2690	2690	2690	2690	2711	2711	2711	2733	2733	2690	2711	2690	2669	2690	2669	2669	2690	2690	2711	2711	2733	2733	2754	2754	2754	2822	2822	2822	2822	2822	2799	2777	2754	2733	2733	2777	2777	2799	2777	2777	2799	2799	2799	2799	2799	2799	2822	2822	2822	2822	2822	2845	2845	2869	2893	2917	2942	2967	2993	3019	3019	3019	3019	3019	2993	2993	3952	3952	3998	3998	3998	3998	3998	4045	4142	4192	4243	4296	4406	4463	4521	4521	4581	4581	0	0	0	0	0	0	0	0	0	0	0	0	0	0	6592	6468	6468	6349	6235	6235	6235	6124	6124	6124	0	0	0	0	0	0	0	0	0	0	0	0	0	0	0	0	0	0	0	0	0	0	0	0	0	4192	4243	4296	4296	4243	4296	4296	4296	4296	4296	4243	4243	4243	4243	4243	4243	4243	4243	4243	4243	5125	5050	5050	5050	4977	5050	5050	5050	5125	5125	4243	4243	4243	4243	4243	4243	4243	4192	4192	4192	4192	4192	4192	4192	4192	4192	4243	4243	4192	4192	4977	4977	4977	4977	4977	4977	4977	4906	4906	4906	4906	4906	7959	7779	7779	7959	7959	7779	7779	7779	7959	7959	7959	7959	7959	7959	7959	7959	7959	7959	7959	7959	7959	7779	7779	6853	6349	6235	6349	6349	6235	6235	6235	6235	6235	6235	6235	6235	6235	6235	6235	6349	6349	6349	6349	6349	6349	6349	6349	6468	6349	6349	6349	6349	8767	8767	8550	8146	8146	8146	8146	8146	8146	7959	7959	7959	7959	7959	7959	7959	7959	7959	7959	7959	8146	8146	8146	8146	8146	8146	8146	8146	8146	7959	7959	7959	7959	7959	7959	7959	8146	8146	8146	8146	7959	8146	7959	7959	7959	8146	8146	8146	8146	8146	0	0	0	0	0	0	0	0	0	0	4350	4350	4406	4406	0	0	4142	4093	4093	4045	4045	4142	0	0	0	0	0	0	0	0	0	0	0	0	0	0	0	0	0	0	0	0	0	0	2208	2208	2208	2194	2194	2194	2181	2181	2181	2181	2181	2181	2181	2181	2181	2181	2181	2181	2181	2181	2181	2181	2181	2181	2181	2181	2167	2167	2153	2167	2167	2181	2167	2167	2167	0	0	1969	1980	1980	1980	1992	1992	1992	1992	1992	1992	1980	1980	1980	1969	1958	1958	1958	1958	1947	1947	1947	1947	1947	1947	1947	1947	1936	1936	1925	1925	1915	1915	1915	1915	1915	1904	1904	1894	1894	1883	1883	1589	1589	1589	1589	1581	1574	1574	1574	1574	1567	1560	1560	1560	1560	1553	1546	1546	1553	1560	1560	1560	1567	1574	1574	0	0	0	0	0	0	0	0	0	0	0	0	0	0	0	0	0	0	0	0	0	0	0	0	0	0	0	0	0	0	0	0	0	0	0	0	0	0
0	0	0	0	0	0	0	0	0	0	0	1291	1291	1296	1296	1296	1331	1331	0	0	0	0	0	0	0	0	0	0	0	0	0	0	0	0	0	0	0	0	0	0	0	0	0	0	0	0	0	0	0	0	0	0	0	0	0	0	0	0	0	0	0	0	0	1992	1992	1992	1992	1992	2003	1992	2003	2003	1992	1992	1980	1969	1969	1969	0	0	0	0	0	0	0	0	0	0	0	0	0	0	0	0	0	0	0	0	0	0	0	0	0	0	0	0	0	0	0	0	0	0	0	0	0	0	0	0	0	0	0	0	0	0	0	0	0	0	0	0	0	0	0	0	0	0	0	0	0	0	0	0	0	0	0	0	0	0	0	0	0	0	0	0	2711	2690	2711	2690	2690	2690	2690	2669	2690	2711	2711	2711	2733	2711	2711	2711	2711	2690	2690	2690	2669	2669	2690	2711	2711	2733	2733	2754	2754	2754	2754	2799	2822	2822	2799	2777	2777	2754	2754	2754	2754	2754	2777	2799	2799	2799	2799	2799	2799	2822	2799	2822	2822	2822	2822	2822	2822	2822	2845	2869	2893	2917	2967	2967	2993	2993	3019	3019	3019	3019	3019	3952	3952	3998	3998	3998	4045	4045	4093	4142	4142	4243	4296	4406	4581	4581	4581	4643	4581	4581	0	0	0	0	0	0	0	0	0	0	0	0	6349	6349	6349	6349	6235	6235	6124	6124	6124	6018	6018	6018	0	0	0	0	0	0	0	0	0	0	0	0	0	0	0	0	0	0	0	0	0	0	0	0	4192	4243	4243	4296	4243	4243	4296	4296	4296	4296	4243	4243	4243	4243	4243	4243	4243	4243	4243	4296	4296	5050	4977	4977	4977	5050	5050	5050	5050	5050	4243	4243	4142	4243	4243	4243	4243	4243	4243	4192	4192	4192	4192	4192	4192	4192	4192	4192	4192	4192	4977	4977	4977	4977	4977	4977	4977	4906	4906	4906	4838	4838	7959	7779	7779	7959	7959	7959	7959	7779	7959	7959	7959	7959	7959	7959	7959	7959	7959	7959	7779	7959	7779	7779	7608	7444	6468	6235	6349	6235	6235	6235	6235	6235	6235	6235	6235	6235	6235	6235	6235	6349	6349	6349	6468	6468	6468	6468	6468	6468	6468	6349	6349	6349	8767	8767	8550	8146	8146	8146	8146	8146	8146	7959	7959	7959	7959	7959	7959	7959	7959	7959	7959	8146	8146	8146	8146	8146	8146	8146	8146	8146	8146	7959	7959	7959	7959	7959	7959	7959	7959	7959	8146	8146	7959	7959	7959	7959	7959	7959	8146	8146	7959	7959	0	0	0	0	0	0	0	0	0	0	0	0	0	0	0	0	0	4093	4093	4045	4045	0	0	0	0	0	0	0	0	0	0	0	0	0	0	0	0	0	0	0	0	0	0	0	0	2208	2208	2194	2194	2181	2181	2181	2181	2181	2181	2181	2181	2181	2181	2181	2181	2167	2167	2181	2181	2181	2181	2181	2181	2181	2167	2167	2153	2167	2167	2181	2167	2181	2181	0	0	0	1980	1980	1980	1992	1992	1992	1992	1992	1980	1992	1980	1980	1969	1969	1958	1958	1958	1947	1947	1947	1947	1947	1936	1936	1936	1936	1925	1925	1915	1915	1915	1904	1904	1904	1904	1894	1894	1894	1883	1589	1589	1589	1589	1589	1581	1581	1581	1574	1574	1567	1567	1560	1560	1560	1560	1553	1546	1553	1553	1553	1553	1560	1560	1574	0	0	0	0	0	0	0	0	0	0	0	0	0	0	0	0	0	0	0	0	0	0	0	0	0	0	0	0	0	0	0	0	0	0	0	0	0	0
0	0	0	0	0	0	0	0	0	0	0	1291	1291	1296	1321	1311	1311	1326	0	0	0	0	0	0	0	0	0	0	0	0	0	0	0	0	0	0	0	0	0	0	0	0	0	0	0	0	0	0	0	0	0	0	0	0	0	0	0	0	0	0	0	0	0	1992	1992	1992	1992	2003	2003	2003	2003	2003	2003	1992	1992	1969	1969	1969	0	0	0	0	0	0	0	0	0	0	0	0	0	0	0	0	0	0	0	0	0	0	0	0	0	0	0	0	0	0	0	0	0	0	0	0	0	0	0	0	0	0	0	0	0	0	0	0	0	0	0	0	0	0	0	0	0	0	0	0	0	0	0	0	0	0	0	0	0	0	0	0	0	0	0	2711	2711	2711	2711	2690	2690	2690	2690	2690	2669	2711	2690	2733	2690	2733	2711	2690	2690	2669	2690	2690	2669	2690	2690	2711	2711	2733	2733	2754	2754	2733	2754	2799	2799	2799	2799	2754	2754	2754	2754	2754	2754	2777	2799	2799	2799	2822	2822	2822	2799	2822	2799	2822	2822	2822	2822	2822	2822	2822	2845	2845	2893	2893	2942	2942	2993	2993	2993	3019	3019	3046	3046	3907	3998	3998	3998	3998	3998	4045	4045	4093	4142	4192	4243	4243	4463	4581	4581	4643	4643	4643	4643	0	0	0	0	0	0	0	0	0	0	0	6349	6235	6235	6235	6124	6124	6124	6124	6124	6018	6018	6018	0	0	0	0	0	0	0	0	0	0	0	0	0	0	0	0	0	0	0	0	0	0	0	0	4192	4243	4243	4296	4243	4243	4243	4243	4243	4243	4243	4243	4243	4243	4243	4243	4243	4243	4243	4243	4243	5050	4977	4977	4977	5050	5050	5050	5125	5050	4142	4142	4142	4243	4243	4243	4243	4243	4243	4243	4243	4192	4192	4243	4243	4243	4243	4192	4192	4192	4977	5050	5050	4977	4977	4977	4906	4906	4906	4838	4838	7779	7959	7779	7779	7959	7959	7959	7959	7959	7959	7959	7779	7779	7959	7959	7959	7959	7959	7959	7959	7959	7779	7779	7608	7444	6720	6349	6349	6235	6235	6235	6235	6235	6235	6235	6235	6235	6235	6235	6235	6349	6349	6349	6468	6468	6468	6468	6468	6468	6468	6468	6468	6349	8767	8767	8550	8146	8146	8146	8146	8146	8146	8146	7959	7959	7959	7959	7959	7959	7959	7959	8146	8146	8146	8146	8146	8146	8146	8146	8146	8146	8146	8146	8146	7959	7959	7959	8146	8146	8146	8146	8146	8146	7959	7959	7959	7959	7959	7959	7959	7959	7959	7959	7959	0	0	0	0	0	0	0	0	0	0	0	0	0	0	0	0	0	0	0	0	0	0	0	0	0	0	0	0	0	0	0	0	0	0	0	0	0	0	0	0	0	0	0	0	2208	2208	2194	2194	2181	2181	2181	2181	2181	2181	2167	2167	2167	2167	2167	2167	2167	2167	2181	2181	2181	2181	2181	2181	2181	2181	2167	2153	2167	2181	2181	2181	2181	2181	0	0	0	1969	1980	1980	1992	1980	1992	1992	1992	1992	1980	1980	1980	1969	1969	1958	1958	1947	1947	1947	1947	1936	1936	1936	1936	1936	1936	1925	1925	1915	1915	1904	1904	1904	1904	1904	1894	1894	1894	1883	1589	1589	1589	1589	1589	1581	1581	1581	1581	1574	1567	1567	1560	1560	1560	1553	1546	1546	1553	1553	1553	1553	1567	1567	0	0	0	0	0	0	0	0	0	0	0	0	0	0	0	0	0	0	0	0	0	0	0	0	0	0	0	0	0	0	0	0	0	0	0	0	0	0	0
0	0	0	0	0	0	0	0	0	0	0	1291	1291	1296	1296	1301	1301	1326	0	0	0	0	0	0	0	0	0	0	0	0	0	0	0	0	0	0	0	0	0	0	0	0	0	0	0	0	0	0	0	0	0	0	0	0	0	0	0	0	0	0	0	0	0	0	0	0	0	2003	2015	2003	2015	2015	2003	2003	1992	1992	1969	1969	0	0	0	0	0	0	0	0	0	0	0	0	0	0	0	0	0	0	0	0	0	0	0	0	0	0	0	0	0	0	0	0	0	0	0	0	0	0	0	0	0	0	0	0	0	0	0	0	0	0	0	0	0	0	0	0	0	0	0	0	0	0	0	0	0	0	0	0	0	0	0	0	0	0	0	2711	2711	2711	2711	2690	2690	2690	2690	2690	2669	2711	2711	2711	2690	2711	2711	2711	2690	2690	2690	2669	2669	2690	2690	2711	2711	2733	2733	2754	2754	2733	2754	2754	2799	2799	2754	2754	2754	2754	2754	2754	2777	2799	2799	2799	2799	2822	2822	2822	2799	2822	2799	2822	2822	2822	2822	2799	2799	2799	2822	2845	2869	2893	2917	2942	2967	2967	2993	3019	3019	3019	3019	3998	3998	3998	3998	3998	3998	4045	4045	4093	4142	4192	4243	4406	4406	4406	4406	4581	4643	4643	4643	0	0	0	0	0	0	0	0	0	0	0	6124	6124	6124	6124	6124	6018	6018	6018	6018	6018	6018	6018	0	0	0	0	0	0	0	0	0	0	0	0	0	0	0	0	0	0	0	0	0	0	0	0	4142	4192	4243	4243	4243	4243	4243	4243	4243	4243	4243	4243	4243	4243	4243	4243	4243	4243	4243	4243	4243	5050	4977	4977	4977	5050	5050	5050	5050	5050	5050	4142	4142	4142	4243	4243	4243	4243	4243	4243	4243	4243	4192	4243	4243	4243	4243	4192	4192	4192	5050	5050	4977	4977	4977	4977	4906	4906	4838	4838	4838	4838	7959	7959	7959	7959	7959	7959	7959	7959	7959	7779	7779	7779	7959	7959	7959	7959	7959	7959	7959	7959	7959	7959	7779	6468	6468	6235	6349	6235	6235	6235	6235	6235	6235	6235	6235	6235	6235	6235	6235	6349	6349	6349	6468	6468	6468	6468	6468	6468	6349	6349	6349	6349	6349	8146	8146	8146	8146	8146	8146	8146	8146	8146	8146	7959	7959	8146	7959	7959	7959	8146	8146	8146	8146	8146	8146	8146	8146	8146	8146	8146	8146	7959	8146	7959	7959	7959	8146	8146	8146	8146	8146	8146	7959	7959	7959	7959	7959	7959	7959	7959	7959	7959	7959	7959	0	0	0	0	0	0	0	0	0	0	0	0	0	0	0	0	0	0	0	0	0	0	0	0	0	0	0	0	0	0	0	0	0	0	0	0	0	0	0	0	0	0	0	2208	2208	2194	2194	2181	2181	2181	2181	2181	2181	2167	2167	2167	2167	2167	2167	2167	2167	2181	2181	2181	2181	2181	2181	2181	2167	2167	2153	2181	2181	2181	2181	2181	2181	2181	0	0	1969	1980	1980	1980	1980	1980	1992	1980	1980	1980	1980	1980	1969	1969	1958	1947	1947	1947	1947	1936	1936	1936	1936	1936	1925	1925	1925	1925	1915	1915	1904	1904	1904	1904	1904	1894	1894	1883	1883	1581	1589	1589	1589	1589	1581	1581	1581	1581	1567	1567	1567	1553	1560	1553	1553	1553	1546	1546	1553	1546	1553	1553	1567	0	0	0	0	0	0	0	0	0	0	0	0	0	0	0	0	0	0	0	0	0	0	0	0	0	0	0	0	0	0	0	0	0	0	0	0	0	0	0
0	0	0	0	0	0	0	0	0	0	0	1291	1291	1296	1296	1301	1301	0	0	0	0	0	0	0	0	0	0	0	0	0	0	0	0	0	0	0	0	0	0	0	0	0	0	0	0	0	0	0	0	0	0	0	0	0	0	0	0	0	0	0	0	0	0	0	0	0	0	0	2015	2015	2015	2015	2015	2003	2003	2003	2003	0	0	0	0	0	0	0	0	0	0	0	0	0	0	0	0	0	0	0	0	0	0	0	0	0	0	0	0	0	0	0	0	0	0	0	0	0	0	0	0	0	0	0	0	0	0	0	0	0	0	0	0	0	0	0	0	0	0	0	0	0	0	0	0	0	0	0	0	0	0	0	0	0	0	0	0	2733	2711	2711	2711	2690	2690	2690	2690	2690	2669	2711	2711	2711	2711	2711	2711	2711	2690	2690	2669	2669	2669	2669	2690	2711	2711	2711	2733	2733	2754	2754	2754	2777	2777	2777	2754	2754	2754	2733	2733	2754	2754	2754	2799	2799	2777	2799	2799	2799	2799	2822	2799	2799	2799	2799	2799	2799	2777	2799	2822	2822	2845	2845	2893	2917	2942	2942	2942	2942	2942	2942	3998	3998	3998	3998	3998	3998	3998	4045	4045	4093	4142	4192	4243	4243	4406	4406	4406	4581	0	0	0	0	0	0	0	0	0	0	0	0	0	0	6124	6124	6018	6124	6018	6018	6018	5915	5915	5915	5915	0	0	0	0	0	0	0	0	0	0	0	0	0	0	0	0	0	0	0	0	0	0	0	0	0	4093	4243	4243	4243	4243	4243	4243	4243	4243	4243	4243	4243	4243	4243	4243	4243	4243	4243	4243	4243	5125	5050	4977	4977	4977	5050	5050	5050	5050	5050	5050	4093	4093	4093	4142	4243	4243	4243	4243	4243	4243	4192	4192	4192	4192	4243	4243	4243	4192	4192	4192	5050	4977	4977	4906	4906	4906	4906	4906	4906	4906	4906	7959	7959	7959	7959	7959	7959	7959	7959	7959	7779	7779	7779	7779	7959	7959	7959	7959	7959	7959	7959	7959	7959	7779	7779	6235	6235	6235	6235	6235	6235	6124	6235	6235	6235	6235	6235	6235	6235	6235	6349	6349	6349	6468	6468	6349	6349	6468	6349	6349	6349	6349	6349	6349	8146	8146	8146	8146	8146	8146	8146	8146	8146	8146	8146	8146	8146	7959	7959	8146	8146	8146	8146	8146	8146	8146	8146	8146	8146	8146	8146	7959	7959	7959	7959	7959	7959	7959	7959	7959	8146	8146	8146	8146	7959	7959	7959	8146	7959	7959	7959	7959	7959	7959	7959	0	0	0	0	0	0	0	0	0	0	0	0	0	0	0	0	0	0	0	0	0	0	0	0	0	0	0	0	0	0	0	0	0	0	0	0	0	0	0	0	0	0	0	0	2223	2208	2208	2194	2181	2181	2181	2181	2181	2167	2167	2181	2167	2167	2167	2167	2167	2181	2181	2181	2181	2181	2181	2181	2167	2167	2167	2167	2167	2181	2167	2167	2167	2167	0	0	0	1980	1980	1980	1980	1980	1980	1980	1980	1980	1969	1969	1969	1969	1958	1947	1947	1947	1936	1925	1925	1925	1925	1925	1925	1925	1925	1925	1915	1915	1915	1904	1904	1904	1904	1894	1894	1873	1873	1589	1589	1589	1589	1581	1581	1574	1574	1567	1567	1567	1567	1553	1560	1553	1553	1553	1546	1546	1553	1553	1553	1553	0	0	0	0	0	0	0	0	0	0	0	0	0	0	0	0	0	0	0	0	0	0	0	0	0	0	0	0	0	0	0	0	0	0	0	0	0	0	0	0
0	0	0	0	0	0	0	0	0	0	0	1291	1291	1301	1306	1311	1311	0	0	0	0	0	0	0	0	0	0	0	0	0	0	0	0	0	0	0	0	0	0	0	0	0	0	0	0	0	0	0	0	0	0	0	0	0	0	0	0	0	0	0	0	0	0	0	0	0	0	2051	2039	2015	2015	2015	2003	2003	2003	1992	1992	0	0	0	0	0	0	0	0	0	0	0	0	0	0	0	0	0	0	0	0	0	0	0	0	0	0	0	0	0	0	0	0	0	0	0	0	0	0	0	0	0	0	0	0	0	0	0	0	0	0	0	0	0	0	0	0	0	0	0	0	0	0	0	0	0	0	0	0	0	0	0	0	0	0	0	0	2711	2733	2711	2711	2690	2690	2690	2690	2690	2669	2711	2690	2711	2711	2711	2690	2690	2690	2690	2669	2669	2669	2669	2669	2711	2711	2711	2733	2754	2754	2733	2754	2754	2777	2777	2754	2754	2754	2733	2754	2754	2754	2754	2754	2777	2777	2777	2777	2777	2799	2799	2799	2799	2799	2799	2799	2799	2799	2799	2822	2822	2845	2845	2869	2917	2942	2942	2942	2942	2942	2942	3998	3998	3998	3998	3998	3998	3998	3998	3998	4093	4142	4142	4243	4296	4350	4350	4350	0	0	0	0	0	0	0	0	0	0	0	0	0	0	6124	6124	6018	6018	6018	5915	5915	5915	5915	5915	5915	5915	0	0	0	0	0	0	0	0	0	0	0	0	0	0	0	0	0	0	0	0	0	0	0	0	0	4093	4192	4243	4243	4243	4243	4243	4243	4243	4243	4243	4243	4243	4243	4243	4243	4243	4243	4243	4243	5050	5050	4977	4977	4977	5050	5050	5050	5050	5050	5050	4093	4093	4093	4142	4243	4243	4243	4243	4243	4192	4192	4192	4243	4243	4243	4243	4243	4192	4192	4192	5050	4977	4977	4977	4977	4906	4906	4906	4906	4906	4906	7959	7959	7959	7959	7959	7959	7959	7959	7959	7959	7779	7959	7959	7959	7959	7959	7959	7959	7959	7959	7959	7959	7959	7959	6235	6235	6235	6235	6235	6124	6124	6235	6235	6235	6235	6235	6235	6235	6235	6349	6349	6349	6468	6468	6349	6349	6349	6349	6349	6349	6349	6349	6349	7959	7959	7959	7959	8146	8146	8146	8146	8146	8146	8146	8146	8146	8146	8146	8146	8146	8146	8146	8146	8146	8146	8146	8146	8146	8146	8146	7959	7959	7959	7959	7959	7959	7959	7959	7959	8146	8146	8146	7959	7959	7959	7959	7959	7959	7959	7959	7959	7959	7959	7959	7959	0	0	0	0	0	0	0	0	0	0	0	0	0	0	0	0	0	0	0	0	0	0	0	0	0	0	0	0	0	0	0	0	0	0	0	0	0	0	0	0	0	0	0	2223	2223	2194	2194	2181	2181	2181	2181	2181	2181	2181	2181	2181	2167	2181	2181	2181	2181	2181	2181	2181	2181	2181	2181	2181	2167	2167	2167	2181	2181	2181	2181	2181	2181	0	0	0	1980	1980	1980	1980	1980	1980	1969	1969	1969	1969	1969	1969	1958	1958	1947	1947	1936	1936	1925	1925	1925	1925	1925	1925	1925	1925	1925	1915	1915	1915	1904	1904	1904	1904	1894	1894	1873	1873	1589	1589	1581	1581	1574	1567	1574	1567	1567	1567	1567	1567	1560	1560	1560	1560	1553	1546	1546	1553	1553	1553	1553	0	0	0	0	0	0	0	0	0	0	0	0	0	0	0	0	0	0	0	0	0	0	0	0	0	0	0	0	0	0	0	0	0	0	0	0	0	0	0	0
0	0	0	0	0	0	0	0	0	0	0	1291	1296	1301	1306	1311	1311	0	0	0	0	0	0	0	0	0	0	0	0	0	0	0	0	0	0	0	0	0	0	0	0	0	0	0	0	0	0	0	0	0	0	0	0	0	0	0	0	0	0	0	0	0	0	0	0	0	0	2051	2051	2015	2015	2003	2003	1992	1992	1992	1992	0	0	0	0	0	0	0	0	0	0	0	0	0	0	0	0	0	0	0	0	0	0	0	0	0	0	0	0	0	0	0	0	0	0	0	0	0	0	0	0	0	0	0	0	2027	2027	2027	0	0	0	0	0	0	0	0	0	0	0	0	0	0	0	0	0	0	0	0	0	0	0	0	0	0	0	0	0	2733	2733	2733	2711	2690	2690	2690	2690	2690	2669	2711	2690	2690	2711	2690	2690	2690	2690	2669	2669	2669	2669	2669	2669	2711	2690	2711	2733	2777	2754	2754	2754	2754	2777	2777	2777	2754	2754	2754	2754	2754	2754	2754	2777	2777	2754	2754	2754	2754	2777	2777	2777	2799	2799	2799	2799	2799	2799	2822	2822	2822	2845	2869	2869	2917	2942	2942	2967	2967	2967	0	3998	3998	3998	3998	3998	4045	4045	4045	4045	4093	4142	4192	4192	4243	4296	4296	4296	0	0	0	0	0	0	0	0	0	0	0	0	0	6124	6124	6018	6018	6018	6018	6018	6018	5915	5915	5915	5915	0	0	0	0	0	0	0	0	0	0	0	0	0	0	0	0	0	0	0	0	0	0	0	0	0	0	0	4192	4243	4243	4243	4243	4243	4243	4243	4243	4243	4243	4243	4243	4243	4243	4243	4192	4192	4192	5050	5050	4977	4977	4977	5050	5050	5050	5050	5050	5050	4142	4142	4045	4243	4192	4243	4243	4243	4243	4243	4192	4192	4243	4243	4243	4243	4192	4192	4192	4192	5050	4977	4977	4977	4977	4906	4906	4906	4906	4906	4906	7959	7959	7959	7959	7959	7959	7959	7959	7959	7959	7959	7959	7959	7959	7959	7959	7959	7959	7959	7959	7959	7959	7959	7779	6349	6349	6235	6235	6235	6235	6124	6235	6235	6235	6235	6235	6235	6349	6349	6468	6468	6468	6468	6468	6468	6349	6349	6349	6349	6349	6349	6349	6349	7959	7959	7959	7959	8146	8146	8146	8146	8146	8146	8146	8146	8146	8146	8146	8146	8146	8146	8146	8146	8146	8146	8146	8146	8146	8146	8146	7959	7959	7959	7959	7959	7959	7959	7959	7959	7959	7959	7959	7959	7959	7959	7959	8146	7959	7959	7959	7959	7959	7959	7959	7959	7959	0	0	0	0	0	0	0	0	0	0	0	0	0	0	0	4406	4406	0	0	0	0	0	0	0	0	0	4463	4463	0	0	0	0	0	0	0	0	0	0	0	0	0	0	2223	2223	2194	2194	2181	2181	2181	2181	2181	2181	2181	2181	2181	2181	2181	2181	2181	2181	2181	2181	2181	2181	2181	2181	2181	2181	2181	2181	2181	2181	2181	2167	2153	2167	2167	0	0	1980	1969	1980	1969	1969	1969	1969	1969	1969	1969	1958	1958	1958	1947	1947	1936	1936	1925	1925	1925	1925	1925	1925	1925	1925	1925	1925	1915	1915	1915	1904	1904	1904	1904	1904	1904	1873	1873	0	1589	1581	1574	1574	1567	1567	1567	1567	1567	1567	1567	1560	1560	1560	1560	1553	1553	1553	1553	1553	1553	1553	0	0	0	0	0	0	0	0	0	0	0	0	0	0	0	0	0	0	0	0	0	0	0	0	0	0	0	0	0	0	0	0	0	0	0	0	0	0	0	0
0	0	0	0	0	0	0	0	0	0	0	1291	1296	1301	1306	1311	1311	0	0	0	0	0	0	0	0	0	0	0	0	0	0	0	0	0	0	0	0	0	0	0	0	0	0	0	0	0	0	0	0	0	0	0	0	0	0	0	0	0	0	0	0	0	0	0	0	0	0	2063	2051	2051	2015	2015	2003	1992	1992	1980	1980	0	0	0	0	0	0	0	0	0	0	0	0	0	0	0	0	0	0	0	0	0	0	0	0	0	0	0	0	0	0	0	0	0	0	0	0	0	0	0	0	0	0	0	2027	2027	2027	2027	0	0	0	0	0	0	0	0	0	0	0	0	0	0	0	0	0	0	0	0	0	0	0	0	0	2733	2733	2754	2711	2711	2711	2711	2690	2690	2690	2669	2669	2669	2669	2690	2690	2690	2690	2690	2690	2669	2669	2669	2669	2669	2669	2669	2669	2690	2690	2711	2733	2799	2777	2754	2754	2754	2777	2777	2777	2754	2777	2754	2777	2777	2777	2777	2799	2799	2754	2754	2754	2754	2777	2777	2777	2777	2799	2799	2822	2822	2822	2822	2822	2822	2845	2869	2869	2917	2917	2917	2967	2967	2967	0	3998	3998	3998	3998	3998	3998	4045	4045	4045	4093	4192	4142	4192	4192	4243	4243	4243	4243	0	0	0	0	0	0	0	0	0	0	0	0	6124	6018	6018	6018	5915	6018	5915	6018	5915	6018	6018	6018	0	0	0	0	0	0	0	0	0	0	0	0	0	0	0	0	0	0	0	0	0	0	0	0	0	0	0	4192	4243	4243	4243	4243	4243	4243	4243	4243	4243	4243	4243	4243	4243	4243	4192	4192	4192	4192	5050	5050	4977	4977	4977	5050	5050	5050	5050	5050	5050	5050	4142	4142	4243	4192	4192	4192	4192	4243	4243	4243	4243	4243	4243	4243	4243	4192	4192	4142	4142	5050	5050	4977	4977	4977	4977	4906	4906	4977	4977	4977	7959	7959	7959	7959	7959	7959	7959	7959	7959	7959	7959	7959	7959	7959	7959	7959	7959	7959	7959	7959	7959	7959	7959	7779	6349	6349	6235	6235	6235	6235	6235	6235	6235	6235	6235	6235	6349	6349	6349	6592	6468	6468	6468	6468	6349	6349	6349	6349	6349	6349	6349	6349	6468	7959	7959	7959	7959	8146	8146	8146	8146	8146	8146	8146	7959	7959	8146	7959	8146	7959	8146	8146	8146	8146	8146	8146	8146	8146	8146	8146	7959	8146	8146	7959	7959	7959	7959	7959	7959	7959	7959	7959	7959	7959	7959	7959	7959	7959	7959	7959	7959	7959	7959	7959	8146	8146	8146	0	0	0	0	0	0	0	0	4406	4406	4350	4463	4463	4463	4406	4406	4350	4350	4243	4192	4192	0	4192	4350	4406	4406	4406	4406	4406	0	0	0	0	0	0	0	0	0	0	0	0	2223	2208	2194	2194	2181	2181	2181	2181	2181	2181	2181	2181	2181	2181	2181	2181	2181	2181	2181	2181	2181	2181	2181	2181	2181	2181	2181	2181	2181	2181	2181	2167	2140	2140	2140	0	0	0	1969	1980	1969	1958	1958	1969	1958	1958	1958	1958	1947	1958	1947	1947	1936	1936	1936	1925	1925	1925	1925	1925	1925	1925	1925	1925	1915	1915	1915	1915	1915	1904	1904	1904	1904	1904	0	0	0	1581	1574	1567	1567	1567	1567	1567	1567	1567	1567	1553	1553	1553	1553	1553	1553	1546	1553	1553	1553	1553	1553	0	0	0	0	0	0	0	0	0	0	0	0	0	0	0	0	0	0	0	0	0	0	0	0	0	0	0	0	0	0	0	0	0	0	0	0	0	0	0
0	0	0	0	0	0	0	0	0	0	0	1287	1291	1296	1296	1296	1311	0	0	0	0	0	0	0	0	0	0	0	0	0	0	0	0	0	0	0	0	0	0	0	0	0	0	0	0	0	0	0	0	0	0	0	0	0	0	0	0	0	0	0	0	1958	1958	2003	2015	2039	2039	2051	2051	2039	2015	2003	1992	1980	1980	1969	1969	0	0	0	0	0	0	0	0	0	0	0	0	0	0	0	0	0	0	0	0	0	0	0	0	0	0	0	0	0	0	0	0	0	0	0	0	0	0	0	0	0	0	2027	2027	2027	2027	2027	0	0	0	0	0	0	0	0	0	0	0	0	0	0	0	0	0	0	0	0	0	0	0	0	2733	2733	2733	2733	2711	2711	2711	2711	2690	2690	2690	2669	2669	2669	2649	2690	2690	2690	2690	2690	2690	2690	2690	2669	2669	2669	2669	2669	2669	2690	2690	2690	2777	2777	2777	2754	2754	2754	2754	2754	2754	2754	2777	2777	2777	2754	2754	2754	2754	2799	2754	2754	2754	2754	2777	2777	2777	2822	2822	2799	2822	2822	2822	2822	2822	2822	2845	2869	2893	2917	2942	2967	2967	2967	2967	0	3998	3998	3998	4045	3998	4045	4045	4045	4142	4192	4192	4243	4192	4243	4243	4243	4243	4243	0	0	0	0	0	0	0	0	6349	6349	0	6235	6124	6124	6018	5915	5915	6018	5915	5915	6018	5915	5915	6018	0	0	0	0	0	0	0	0	0	0	0	0	0	0	0	0	0	0	0	0	0	0	0	0	0	0	0	4243	4243	4243	4243	4243	4243	4243	4243	4243	4243	4243	4243	4243	4243	4243	4192	4192	4142	4142	5050	5050	4977	4977	4977	5050	5050	5050	5050	5050	5050	4142	4142	4093	4243	4192	4192	4192	4243	4192	4243	4243	4243	4243	4243	4243	4243	4243	4192	4192	4192	5050	4977	4977	4977	4977	4977	4977	4906	4977	4977	4977	7959	7959	7959	7959	7959	7959	7959	7959	7959	7959	7959	7959	7959	7959	7959	7959	7959	7959	7959	7959	7959	7959	7959	7779	7779	6349	6235	6235	6235	6235	6235	6235	6235	6235	6235	6235	6235	6349	6349	6468	6468	6468	6468	6349	6349	6349	6349	6349	6349	6349	6349	6349	7779	7959	7959	7959	7959	8146	8146	8146	8146	8146	8146	8146	8146	8146	8146	7959	8146	7959	7959	8146	8146	8146	8146	8146	8146	8146	8146	8146	7959	7959	7959	7959	7959	7959	7959	7959	7959	7959	7959	7959	7959	7959	7959	7959	7959	7959	7959	7959	7959	7959	7959	7959	7959	7959	7959	7959	0	0	0	0	0	4350	4463	4406	4406	4350	4350	4350	4350	4350	4350	4350	4296	4296	4192	4192	4142	4192	4243	4350	4406	4406	4350	4350	4350	0	0	0	0	0	0	0	0	0	0	0	0	2208	2208	2194	2194	2181	2181	2181	2181	2181	2181	2181	2181	2181	2181	2181	2181	2181	2181	2181	2181	2181	2181	2181	2181	2181	2181	2181	2181	2153	2167	2167	2140	2153	2153	2153	0	1958	1958	1958	1958	1958	1969	1958	1958	1958	1958	1947	1947	1947	1947	1947	1936	1936	1925	1925	1925	1925	1925	1925	1925	1915	1925	1925	1915	1915	1915	1915	1915	1904	1904	1904	1904	1904	0	0	1581	1574	1574	1567	1567	1567	1567	1567	1560	1567	1560	1560	1553	1553	1553	1553	1553	1546	1546	1553	1553	1553	1553	1553	0	0	0	0	0	0	0	0	0	0	0	0	0	0	0	0	0	0	0	0	0	0	0	0	0	0	0	0	0	0	0	0	0	0	0	0	0	0
0	0	0	0	0	0	0	0	0	0	0	1287	1287	1296	1296	1296	0	0	0	0	0	0	0	0	0	0	0	0	0	0	0	0	0	0	0	0	0	0	0	0	0	0	0	0	0	0	0	0	0	0	0	0	0	0	0	0	0	0	1992	1992	1992	1969	1992	2003	2015	2027	2027	2039	2039	2039	1992	1992	1980	1969	1969	1969	1969	1969	1969	0	0	0	0	0	0	0	0	0	0	0	0	0	0	0	0	0	0	0	0	0	0	0	0	0	0	0	0	0	0	0	0	0	0	0	0	0	0	0	2027	2027	2027	2015	2015	2015	0	0	0	0	0	0	0	0	0	0	0	0	0	0	0	0	0	0	0	0	0	2822	2754	2733	2711	2711	2733	2733	2711	2711	2711	2711	2711	2690	2690	2690	2669	2669	2649	2669	2669	2690	2669	2669	2690	2669	2669	2669	2669	2669	2669	2669	2669	2669	2690	2690	2690	2799	2777	2754	2754	2754	2754	2754	2754	2754	2777	2777	2777	2754	2777	2754	2754	0	2777	2754	2754	2754	2754	2777	2822	2822	2822	2822	2822	2822	2822	2822	2845	2845	2893	2917	2917	2917	2942	2942	3019	3019	3019	0	3998	3998	3998	4045	4045	4045	4093	4093	4142	4192	4192	4192	4192	4243	4350	4406	4406	0	0	0	0	0	0	0	0	6124	6235	6235	6235	6235	6124	6124	6018	5915	5915	6018	5915	6018	6018	6018	5915	0	0	0	0	0	0	0	0	0	0	0	0	0	0	0	0	0	0	0	0	0	0	0	0	0	0	0	0	4243	4243	4243	4243	4243	4243	4243	4243	4243	4243	4243	4243	4243	4243	4243	4192	4192	4142	4142	5050	5050	5050	4977	4977	5050	5050	5050	5050	5050	5050	5050	4243	4243	4243	4192	4192	4192	4192	4192	4192	4192	4243	4243	4243	4243	4243	4243	4192	4192	4192	4977	4977	4977	4977	4977	4977	4977	4977	4977	4977	4977	7959	7959	7959	7959	7959	7959	7959	7959	7959	7959	7959	7959	7959	7959	8146	7959	8146	7959	7959	7959	7959	7959	7959	7959	7779	6349	6349	6235	6235	6235	6235	6235	6235	6235	6235	6235	6349	6349	6349	6468	6468	6468	6468	6349	6349	6349	6349	6349	6349	6349	6349	6349	7779	7959	7959	7959	7959	8146	8146	8146	8146	8146	8146	8146	8146	8146	8146	7959	8146	7959	7959	8146	8146	7959	7959	7959	7959	7959	8146	8146	7959	7959	7959	7959	7959	7959	7959	7959	7959	7959	7959	7959	7959	7959	7959	7959	7959	7959	7959	7959	7959	7959	7959	7959	7959	7959	7959	7959	0	0	0	0	4350	4350	4406	4406	4406	4350	4350	4350	4350	4350	4350	4350	4350	4243	4192	4192	4192	4192	4243	4243	4406	4350	4350	4350	4350	0	0	0	0	0	0	0	0	0	0	0	0	2208	2208	2194	2194	2181	2181	2181	2181	2181	2181	2181	2181	2181	2181	2181	2181	2181	2181	2181	2181	2181	2181	2181	2181	2181	2181	2181	2181	2153	2167	2153	2153	2140	2140	2140	0	1958	1958	1969	1958	1958	1958	1958	1958	1958	1947	1947	1947	1947	1947	1947	1936	1936	1936	1925	1925	1925	1925	1915	1915	1915	1915	1915	1915	1915	1915	1915	1915	1904	1904	1904	1904	0	0	0	1581	1574	1574	1567	1567	1567	1567	1567	1560	1560	1560	1553	1546	1546	1546	1546	1553	1546	1553	1553	1553	1553	1553	1553	0	0	0	0	0	0	0	0	0	0	0	0	0	0	0	0	0	0	0	0	0	0	0	0	0	0	0	0	0	0	0	0	0	0	0	0	0	0
0	0	0	0	0	0	0	0	0	0	0	1287	1287	1291	1296	1296	0	0	0	0	0	0	0	0	0	0	0	0	0	0	0	0	0	0	0	0	0	0	0	0	0	0	0	0	0	0	0	0	0	0	0	0	1969	1969	1969	1958	1958	1969	1992	1992	1992	1969	1980	1992	2003	2027	2027	2039	2039	2039	1969	1980	1969	1969	1958	1969	1969	1969	1969	0	0	0	0	0	0	0	0	0	0	0	0	0	0	0	0	0	0	0	0	0	0	0	0	0	0	0	0	0	0	0	0	0	0	0	0	0	0	2027	2027	2027	2027	2015	2015	1992	1992	1992	0	0	0	0	0	0	0	0	0	0	0	0	0	0	0	0	0	0	0	2822	2733	2711	2690	2690	2690	2690	2711	2711	2711	2711	2711	2711	2690	2690	2690	2669	2649	2669	2690	2690	2690	2669	2669	2669	2669	2669	2669	2669	2669	2669	2669	2690	2690	2711	2711	2799	2777	2754	2754	2754	2754	2754	2754	2754	2754	2754	2754	2754	2777	2754	2754	0	2777	2754	2754	2754	2754	2754	2754	2822	2822	2845	2845	2845	2845	2845	2869	2869	2917	2917	2917	2942	2942	2942	3019	3019	3019	3101	3101	3998	3998	3998	3998	4045	4093	4142	4192	4192	4192	4243	4243	4296	4350	4406	4406	0	0	0	0	0	0	0	0	6124	6235	6235	6235	6235	6235	6235	6235	6018	6018	6018	5915	5915	6349	6349	0	0	0	0	0	0	0	0	0	0	0	0	0	0	0	0	0	0	0	0	0	0	0	0	0	0	0	0	0	4243	4243	4243	4296	4243	4243	4243	4243	4243	4243	4243	4243	4243	4243	4243	4192	4192	4093	4093	5050	5050	5050	4977	4977	5050	5050	5050	5125	5050	5050	5050	4243	4243	4243	4192	4192	4192	4192	4192	4243	4243	4243	4243	4243	4243	4243	4243	4192	4192	4192	4838	4906	4906	4906	4906	4906	4906	4977	4977	4977	7959	7959	7959	8146	8146	7959	7959	7959	7959	7959	7959	7959	7959	7959	7959	7959	7959	7959	7959	7959	7959	7959	7959	7959	7779	6853	6592	6349	6349	6349	6235	6235	6235	6235	6235	6235	6235	6349	6349	6349	6468	6468	6468	6468	6349	6349	6349	6349	6349	6349	6349	6349	6349	7779	7959	7959	7959	7959	7959	7959	8146	8146	8146	8146	8146	7959	7959	7959	7959	7959	7959	7959	7959	7959	7959	7959	7959	7959	7959	7959	8146	7959	7959	7959	7959	7959	7959	7959	7959	7959	7959	7959	7959	7959	7959	7959	7959	7959	7959	7959	7959	7959	7959	7959	7959	7959	7959	7959	7959	0	0	0	4350	4350	4350	4406	4406	4406	4350	4350	4350	4350	4350	4350	4350	4350	4243	4192	4142	4142	4192	4192	4350	4350	4350	4296	4296	4296	4296	0	0	0	0	0	0	0	0	0	0	0	0	2208	2194	2194	2181	2181	2181	2181	2181	2181	2181	2181	2181	2181	2181	2181	2181	2181	2181	2167	2167	2167	2181	2181	2181	2181	2181	2181	2167	2167	2153	2140	2140	2153	2153	0	0	1947	1958	1958	1958	1958	1958	1958	1958	1947	1947	1947	1947	1947	1947	1936	1936	1925	1925	1915	1915	1915	1915	1915	1915	1915	1915	1915	1915	1915	1904	1904	1894	1883	1873	1873	1873	0	0	1574	1574	1567	1567	1567	1567	1560	1560	1560	1560	1560	1553	1546	1546	1546	1546	1553	1546	1553	1553	1553	1553	1553	1553	0	0	0	0	0	0	0	0	0	0	0	0	0	0	0	0	0	0	0	0	0	0	0	0	0	0	0	0	0	0	0	0	0	0	0	0	0	0
0	0	0	0	0	0	0	0	0	0	0	1287	1287	1291	1296	1296	0	0	0	0	0	0	0	0	0	0	0	0	0	0	0	0	0	0	0	0	0	0	0	0	0	0	0	0	0	0	0	0	0	0	0	1969	1969	1969	1969	1969	1969	1969	1969	1969	1992	1969	1969	1980	2003	2015	2027	1992	1992	1992	1980	1992	1980	1958	1947	1947	1947	1969	1969	0	0	0	0	0	0	0	0	0	0	0	0	0	0	0	0	0	0	0	0	0	0	0	0	0	0	0	0	0	0	0	0	0	0	0	0	0	2027	2027	2039	2027	2027	2027	2015	1992	1980	1980	0	0	0	0	0	0	0	0	0	0	0	0	0	0	0	0	0	0	0	0	2669	2669	2669	2690	2690	2711	2711	2711	2711	2711	2690	2690	2690	2690	2690	2669	2669	2669	2690	2690	2669	2669	2669	2669	2669	2669	2669	2669	2669	2669	2669	2690	2690	2711	2733	2733	2777	2754	2754	2733	2754	2754	2754	2754	2754	2777	2777	2777	0	0	0	0	0	2754	2754	2754	2733	2733	2822	2845	2845	2845	2869	2869	2893	2893	2917	2917	2917	2942	2942	2942	2942	3019	3046	3073	3073	3101	3101	3952	3998	3998	3998	4045	4093	4142	4192	4192	4192	4192	4296	4296	4350	4406	4406	0	0	0	0	0	6235	6124	6124	6235	6468	6349	6349	6235	6349	6235	6124	6018	6018	6124	6124	6349	6349	6349	0	0	0	0	0	0	0	0	0	0	0	0	0	0	0	0	0	0	0	0	0	0	0	0	0	0	0	0	0	4243	4243	4243	4243	4243	4243	4243	4243	4243	4243	4243	4243	4243	4243	4243	4192	4192	4093	4093	5050	5050	4977	4977	4977	5050	5050	5050	5050	5050	5050	5050	4296	4243	4243	4192	4192	4192	4192	4243	4243	4243	4243	4296	4243	4243	4243	4243	4192	4192	4192	4838	4906	4977	4977	4977	4977	4977	4977	4977	4977	7959	7959	7959	7959	7959	7959	7959	7959	7959	7959	7959	7959	7959	7959	7959	8146	7959	8146	7959	8146	7959	7959	7959	7959	7779	6853	6468	6349	6349	6349	6349	6349	6235	6235	6235	6235	6235	6235	6235	6349	6468	6468	6468	6349	6349	6349	6349	6349	6349	6349	6349	6349	6124	7959	7959	7959	7959	7959	8146	8146	8146	8146	8146	8146	8146	7959	7959	7959	7959	7959	7959	7959	7959	7959	7959	7959	7959	7959	7959	7959	8146	8146	8146	8146	7959	7959	7959	7959	7959	7959	7959	7959	7959	7959	7959	7959	7959	7959	7959	7959	7959	7959	7959	7959	7959	7959	7959	7779	7779	0	0	4406	4406	4406	4350	4406	4406	4406	4350	4350	4350	4350	4406	4406	4350	4350	4296	4192	4142	4142	4243	4243	4350	4350	4350	4350	4296	4296	4296	0	0	0	0	0	0	0	0	0	0	0	2208	2208	2194	2194	2181	2181	2181	2181	2181	2181	2181	2181	2181	2181	2181	2181	2181	2181	2181	2181	2181	2181	2181	2181	2181	2181	2167	2167	2167	2167	2153	2153	2153	2153	2167	2167	2167	1947	1958	1958	1958	1958	1958	1958	1958	1947	1947	1947	1947	1947	1936	1925	1925	1925	1925	1915	1915	1915	1915	1915	1925	1925	1915	1915	1915	1915	1904	1904	1904	1873	1873	1863	1863	1863	0	1589	1581	1574	1567	1567	1567	1567	1567	1560	1553	1553	1553	1546	1546	1546	1546	1546	1546	1546	1546	1546	1546	1546	1546	0	0	0	0	0	0	0	0	0	0	0	0	0	0	0	0	0	0	0	0	0	0	0	0	0	0	0	0	0	0	0	0	0	0	0	0	0	0
0	0	0	0	0	0	0	0	0	0	0	0	1291	1296	1296	1296	0	0	0	0	0	0	0	0	0	0	0	0	0	0	0	0	0	0	0	0	0	0	0	0	0	0	0	0	0	0	0	0	0	0	0	1969	1969	1969	1980	1980	1980	1969	1969	1969	1980	1969	1969	1980	1992	2015	1980	1992	1992	1992	1980	1992	1980	1958	1947	1947	1947	0	0	0	0	0	0	0	0	0	0	0	0	0	0	0	0	0	0	0	0	0	0	0	0	0	0	0	0	0	0	0	0	0	0	0	0	0	2039	2027	2039	2039	2027	2027	2015	2027	2003	1992	1992	1992	1992	0	0	0	0	0	0	0	0	0	0	0	0	0	0	0	0	0	0	2629	2649	2649	2669	2669	2669	2690	2711	2711	2711	2711	2711	2711	2690	2690	2690	2690	2669	2669	2690	2690	2669	2669	2669	2669	2669	2669	2669	2669	2669	2669	2669	2669	2690	2711	2711	2711	2777	2754	2754	2754	2754	2754	2754	2754	2754	2777	2754	2754	2754	0	0	0	0	0	2754	2754	2733	2822	2845	2845	2869	2869	2869	2869	2893	2917	2917	2917	2942	2942	2942	2942	2967	2993	3073	3073	3129	3101	3101	3952	3952	3952	3952	4045	4093	4142	4192	4192	4192	4243	4296	4350	4350	4406	4406	0	0	0	0	6235	6349	6235	6349	6468	6468	6468	6468	6468	6468	6468	6349	6349	6235	6235	6235	6349	6468	6468	6468	6468	0	0	0	0	0	0	0	0	0	0	0	0	0	0	0	0	0	0	0	0	0	0	0	0	0	0	0	4243	4243	4243	4243	4243	4243	4243	4243	4243	4243	4243	4243	4243	4243	4243	4192	4192	4192	4192	5050	5050	5050	4977	4977	5050	5050	5050	5050	5050	5050	5050	4192	4243	4192	4192	4192	4192	4243	4243	4243	4296	4296	4296	4296	4243	4243	4243	4192	4192	4192	4192	4977	4977	4977	4977	4977	4906	4977	4906	4906	7779	7959	7959	8146	8146	7959	7959	7959	7959	7959	7959	7959	7959	8146	7959	8146	7959	8146	8146	8146	7959	7959	7959	7959	7959	6853	6468	6349	6349	6349	6349	6349	6235	6235	6235	6349	6235	6235	6235	6349	6468	6468	6468	6349	6349	6349	6349	6349	6349	6349	6349	6235	6124	7959	7959	7959	7959	8146	8146	8146	8146	8146	8146	8146	8146	8146	7959	7959	7959	7959	7959	7959	7959	7959	7959	7959	7959	7959	7959	7959	8146	8146	8146	8146	7959	7959	7959	7959	7959	7959	7959	7959	7959	7959	7959	7959	7959	7959	7959	7959	7959	7959	7959	7959	7959	7959	7959	7779	7779	0	4406	4406	4406	4350	4350	4350	4406	4350	4350	4350	4350	4350	4406	4406	4406	4350	4296	4192	4142	4142	4192	4243	4296	4350	4350	4350	4406	4406	0	0	0	0	0	0	0	0	0	0	0	0	2208	2208	2208	2194	2194	2181	2181	2181	2181	2181	2181	2181	2181	2181	2181	2181	2181	2181	2181	2181	2181	2181	2181	2181	2181	2167	2167	2167	2153	2153	2153	2153	2140	2153	2153	2153	2153	0	1958	1958	1958	1958	1958	1958	1958	1947	1947	1947	1947	1936	1936	1925	1925	1925	1925	1915	1915	1925	1915	1915	1915	1915	1915	1915	1904	1904	1904	1894	1894	1883	1873	1873	1873	1873	1589	1589	1581	1574	1567	1567	1567	1560	1567	1560	1560	1560	1553	1546	1546	1546	1546	1546	1546	1546	1546	1546	1546	1546	1546	0	0	0	0	0	0	0	0	0	0	0	0	0	0	0	0	0	0	0	0	0	0	0	0	0	0	0	0	0	0	0	0	0	0	0	0	0	0
0	0	0	0	0	0	0	0	0	0	0	0	1291	1291	1296	1296	1296	0	0	0	0	0	0	0	0	0	0	0	0	0	0	0	0	0	0	0	0	0	0	0	0	0	0	0	0	0	0	0	0	0	0	1969	1969	1969	1992	1980	1980	1980	1969	1969	1969	1969	1969	1980	1992	2003	1980	1992	1992	1992	0	0	0	0	0	0	0	0	0	0	0	0	0	0	0	0	0	0	0	0	0	0	0	0	0	0	0	0	0	2027	2027	0	0	0	0	0	0	0	0	0	0	0	0	2027	2027	2027	2027	2027	2027	2027	2027	2015	2003	1992	1992	1992	1992	0	0	0	0	0	0	0	0	0	0	0	0	0	0	0	0	0	0	2629	2649	2669	2669	2669	2690	2690	2690	2711	2690	2690	2690	2690	2690	2690	2690	2690	2690	2669	2690	2690	2690	2690	2690	2669	2669	2669	2669	2669	2669	2669	2669	2669	2690	2711	2711	2711	0	0	2754	2754	2754	2754	2754	2754	2754	2777	2754	2754	2754	0	0	0	0	0	0	0	0	2822	2845	2845	2869	2869	2893	2893	2893	2917	2917	2917	2942	2942	2942	2942	2967	2993	3073	3101	3129	3129	3129	3907	3907	3907	3907	4045	4093	4142	4142	4192	4192	4243	4243	4350	4406	4463	4521	4521	0	0	6235	6235	6349	6235	6349	6468	6468	6468	6468	6468	6468	6468	6468	6468	6468	6468	6235	6349	6468	6468	6468	6468	6468	6468	0	0	0	0	0	0	0	0	0	0	0	0	0	0	0	0	0	0	0	0	0	0	0	0	0	4192	4243	4243	4243	4243	4243	4243	4243	4243	4192	4243	4243	4243	4243	4243	4192	4192	4192	4192	4977	4977	4977	4977	4977	5050	5050	5050	5050	5050	5050	5050	4243	4296	4243	4243	4243	4243	4243	4243	4243	4296	4296	4296	4296	4296	4243	4243	4243	4243	4243	4243	4906	4977	4977	4977	4977	4906	4906	4977	4906	4906	7959	7959	7959	8146	7959	7959	7959	7959	7959	7959	7959	7959	7959	7959	8146	7959	7959	8146	8146	7959	8146	8146	7959	7959	6853	6468	6349	6468	6349	6349	6349	6235	6235	6235	6235	6235	6235	6235	6235	6349	6468	6468	6349	6349	6349	6349	6349	6349	6349	6349	6349	6124	7959	7959	7959	7959	8146	8146	8146	8146	8146	8146	8146	8146	8146	7959	7959	7959	7959	7959	7959	7959	7959	7959	7959	7959	7959	8146	7959	8146	8146	8146	8146	7959	7959	7959	7959	7959	7959	7959	7959	7959	7959	7959	7959	7959	7959	7959	7959	7959	7959	7959	7959	7959	7959	7779	7779	7779	0	4406	4406	4350	4350	4350	4406	4406	4350	4350	4350	4406	4350	4350	4350	4350	4350	4243	4192	4192	4142	4192	4243	4243	4296	4296	4350	4296	4296	4296	0	0	0	0	0	0	0	0	0	0	0	0	2208	2208	2194	2194	2194	2181	2181	2181	2181	2181	2181	2181	2181	2181	2181	2181	2181	2181	2181	2181	2181	2181	2181	2167	2167	2153	2153	2153	2153	2140	2140	2153	2153	2153	2153	2153	0	1958	1958	1958	1958	1958	1958	1958	1947	1947	1947	1947	1936	1936	1936	1925	1925	1925	1915	1915	1925	1915	1915	1915	1915	1915	1915	1915	1904	1894	1894	1894	1883	1873	1863	1863	1863	1589	1589	1574	1574	1567	1567	1560	1560	1567	1560	1560	1560	1560	1553	1546	1546	1546	1546	1546	1546	1546	1546	1546	1546	1546	0	0	0	0	0	0	0	0	0	0	0	0	0	0	0	0	0	0	0	0	0	0	0	0	0	0	0	0	0	0	0	0	0	0	0	0	0	0
0	0	0	0	0	0	0	0	0	0	0	0	1291	1291	1291	1291	1291	1291	0	0	0	0	0	0	0	0	0	0	0	0	0	0	0	0	0	0	0	0	0	0	0	0	0	0	0	0	0	0	0	0	0	0	1969	1969	1992	1980	1969	1969	1958	1958	1969	1969	1969	1969	1969	2003	1980	1980	1980	1980	0	0	0	0	0	0	0	0	0	0	0	0	0	0	0	0	0	0	0	0	0	0	0	0	0	0	0	2027	2027	2015	2003	2003	1992	1992	0	0	0	0	0	0	0	0	2015	2027	2027	2027	2027	2027	2027	2027	2027	2015	2015	1992	1992	1980	1980	1980	0	0	0	0	0	0	0	0	0	0	0	0	0	0	0	0	0	0	2629	2649	2669	2669	2669	2690	2711	2711	2690	2690	2690	2690	2690	2690	2690	2690	2690	2669	2690	2690	2690	2690	2690	2669	2669	2669	2669	2669	2669	2669	2669	2669	2690	2711	2711	2711	0	0	0	0	0	0	0	0	2754	2777	2754	2754	2754	0	0	0	0	0	0	0	0	2822	2845	2845	2845	2869	2893	2893	0	0	2917	2917	2942	2942	2942	2942	2942	2993	3101	3129	3157	3129	3129	3129	3907	3907	3998	3998	4093	4142	4142	4192	4192	4243	4296	4350	4350	4406	4406	4463	6468	6349	6468	6468	6349	6349	6468	6468	6468	6468	6468	6468	6468	6468	6468	6468	6468	6468	6349	6468	6468	6468	6468	6468	6468	6468	0	0	0	0	0	0	0	0	0	0	0	0	0	0	0	0	0	0	0	0	0	0	0	0	0	4192	4192	4243	4243	4243	4243	4243	4243	4243	4243	4243	4243	4243	4243	4243	4192	4192	4192	4192	4977	4977	4977	4977	4977	4977	5050	5050	5050	5050	4977	4977	4296	4296	4243	4243	4243	4243	4243	4243	4243	4243	4296	4296	4243	4243	4243	4243	4243	4243	4192	4192	4977	4977	4906	4906	4906	4906	4906	4906	4838	4838	7959	7959	8146	8146	8146	7959	7959	7959	8146	7959	7959	7959	8146	8146	8146	8146	8146	8146	8146	7959	8146	8146	8146	7959	7779	6468	6349	6349	6349	6349	6235	6235	6235	6235	6235	6235	6235	6235	6235	6349	6349	6468	6349	6349	6349	6349	6468	6349	6349	6349	6349	6018	6018	7959	8146	8146	8146	8146	8146	8146	8146	8146	8146	8146	8146	8146	8146	7959	8146	8146	7959	7959	7959	7959	7959	7959	7959	7959	7959	8146	8146	8146	8146	7959	7959	7959	7959	7959	7959	7959	7959	7959	7959	7959	7959	7959	7959	7959	7959	7959	7959	7959	7959	7959	7959	7779	7779	7779	4406	4406	4406	4350	4350	4350	4406	4406	4350	4406	4406	4406	4406	4406	4350	4350	4350	4296	4243	4192	4243	4243	4296	4296	4296	4296	4296	4296	4296	4243	4243	0	0	0	0	0	0	0	0	0	0	0	2208	2208	2194	2194	2194	2181	2181	2181	2181	2181	2181	2181	2181	2181	2181	2181	2181	2181	2181	2181	2181	2181	2181	2181	2167	2153	2153	2153	2153	2140	2153	2153	2153	2167	2167	0	0	0	0	0	1958	1958	1947	1958	1947	1947	1947	1947	1936	1936	1936	1936	1925	1925	1915	1925	1915	1915	1915	1915	1915	1915	1915	1904	1904	1894	1894	1894	1883	1873	1873	1873	1581	1581	1581	1574	1567	1567	1567	1560	1560	1560	1560	1560	1560	1553	1553	1553	1546	1546	1546	1546	1546	1546	1546	1546	1546	1546	0	0	0	0	0	0	0	0	0	0	0	0	0	0	0	0	0	0	0	0	0	0	0	0	0	0	0	0	0	0	0	0	0	0	0	0	0	0
0	0	0	0	0	0	0	0	0	0	0	0	1291	1287	1291	1291	1287	1287	0	0	0	0	0	0	0	0	0	0	0	0	0	0	0	0	0	0	0	0	0	0	0	0	0	0	0	0	0	0	0	0	0	0	1980	1969	1992	1992	1992	1969	1969	1969	1980	1980	1980	1980	1980	1980	1980	1980	1980	1980	0	0	0	0	0	0	0	0	0	0	0	0	0	0	0	0	0	0	0	0	0	0	0	0	0	0	0	2039	2051	2027	2015	2027	2003	2003	2015	2015	2015	1992	1992	2015	2015	2015	2015	2015	2027	2027	2027	2027	2015	2015	2015	2015	2015	2003	1980	1980	1969	1947	1947	0	0	0	0	0	0	0	0	0	0	0	0	0	0	0	0	0	2589	2589	2690	2690	2690	2711	2711	2711	2690	2690	2690	2690	2690	2690	2690	2690	2690	2690	2690	2690	2690	2690	2690	2669	2690	2690	2669	2669	2669	2669	2669	2669	2690	2733	2733	0	0	0	0	0	0	0	0	0	0	0	2754	2754	2754	0	0	0	0	0	0	0	0	0	0	2845	2845	0	0	0	0	0	0	0	0	2942	2942	2942	2942	0	3101	3129	3129	3101	3101	3101	3907	3952	3998	4045	4093	4142	4142	4192	4192	4296	4350	4350	4406	4406	4463	4463	6592	6468	6468	6468	6468	6349	6468	6468	6468	6468	6468	6468	6468	6468	6468	6468	6468	6468	6349	6468	6468	6468	6468	6468	6468	6468	6468	0	0	0	0	0	0	0	0	0	0	0	0	0	0	0	0	0	0	0	0	0	0	0	4243	4243	4243	4243	4243	4243	4243	4243	4243	4243	4243	4192	4243	4243	4243	4243	4192	4243	4243	4243	4977	4977	4977	4977	4977	4977	5050	5050	5050	5050	4977	4977	4296	4296	4243	4243	4243	4243	4243	4243	4243	4296	4296	4243	4243	4243	4243	4243	4243	4243	4243	4771	4771	4906	4977	4906	4906	4906	4906	4906	4906	4906	7959	7959	7959	7959	7959	7959	7959	7959	8146	7959	7959	7959	8146	8146	8146	8146	8146	8146	8146	7959	8146	8146	8146	7959	6349	6349	6349	6349	6349	6235	6235	6235	6235	6235	6235	6235	6235	6235	6235	6349	6349	6468	6349	6349	6349	6349	6349	6349	6349	6349	6235	6018	6018	8146	8146	8146	8146	8146	8146	8146	8146	8146	8146	8146	8146	8146	8146	8146	8146	8146	8146	8146	7959	7959	7959	7959	7959	7959	7959	8146	8146	8146	8146	7959	7959	7959	7959	7959	7959	7959	7959	7959	7959	7959	7959	7959	7959	7959	7959	7959	7959	7959	7959	7959	7959	7959	7779	7959	4406	4406	4406	4350	4406	4350	4406	4406	4350	4350	4406	4406	4406	4406	4406	4406	4350	4296	4243	4243	4296	4296	4350	4350	4350	4296	4296	4296	4296	4243	4243	0	0	0	0	0	0	0	0	0	0	0	2208	2208	2208	2194	2194	2194	2194	2194	2181	2181	2181	2181	2181	2181	2181	2181	2181	2181	2181	2181	2181	2181	2167	2181	2167	2153	2153	2153	2153	2140	2153	2153	2153	2167	2167	0	0	0	0	0	1958	1958	1958	1958	1947	1947	1947	1947	1947	1936	1936	1936	1925	1925	1915	1915	1915	1915	1915	1915	1904	1904	1904	1904	1904	1904	1904	1904	1894	1883	1873	1873	1873	1581	1574	1567	1567	1567	1567	1560	1560	1560	1560	1560	1560	1553	1553	1553	1546	1546	1546	1546	1539	1546	1546	1546	1546	1546	0	0	0	0	0	0	0	0	0	0	0	0	0	0	0	0	0	0	0	0	0	0	0	0	0	0	0	0	0	0	0	0	0	0	0	0	0	0
0	0	0	0	0	0	0	0	0	0	0	0	1291	1287	1291	1291	1287	1287	0	0	0	0	0	0	0	0	0	0	0	0	0	0	0	0	0	0	0	0	0	0	0	0	0	0	0	0	0	0	0	0	0	1980	1969	1969	1980	1980	1969	1969	1969	1969	1969	1969	1980	1980	1980	1980	1980	1980	1980	1980	0	0	0	0	0	0	0	0	0	0	0	0	0	0	0	0	0	0	0	0	0	0	0	0	0	0	2051	2051	2051	2051	2027	2027	2003	2015	2015	2015	2015	2003	2003	2003	2015	2015	2015	2015	2015	2015	2027	2015	2015	2015	2015	2015	2015	2003	2003	1992	1980	1980	1947	0	0	0	0	0	0	0	0	0	0	0	0	0	0	0	0	0	2570	2570	2690	2711	2733	2733	2733	2711	2711	2690	2690	2669	2649	2669	2669	2669	2669	2669	2690	2690	2690	2669	2690	2669	2669	2669	2669	2669	2669	2669	2669	2669	2669	2733	2733	0	0	0	0	0	0	0	0	0	0	0	0	0	0	0	0	0	0	0	0	0	0	0	0	0	0	0	0	0	0	0	0	0	0	0	0	2942	2942	0	0	3129	3129	3101	3101	3907	3907	3998	3998	4045	4093	4142	4142	4243	4243	4296	4350	4406	4406	4406	4406	4406	6592	6468	6468	6468	6468	6349	6468	6468	6468	6468	6468	6468	6468	6468	6468	6468	6468	6468	6349	6468	6468	6468	6468	6468	6349	6349	6349	0	0	0	0	0	0	0	0	0	0	0	0	0	0	0	0	0	0	0	0	0	0	0	4243	4243	4243	4243	4243	4243	4243	4243	4243	4243	4192	4192	4243	4243	4243	4243	4243	4243	4243	4243	4906	4977	4977	4977	4977	5050	5050	5050	5050	5050	4977	4977	4977	4296	4243	4243	4296	4243	4243	4243	4243	4296	4243	4243	4243	4243	4243	4243	4243	4296	4350	4838	4906	4977	4977	4977	4977	4906	4977	4906	4906	4838	4838	7959	7959	7959	7959	7959	7959	7959	8146	8146	7959	7959	8146	8146	8146	8146	8146	8146	8146	8146	8146	7959	7959	7779	6349	6349	6349	6349	6235	6235	6235	6235	6235	6235	6235	6235	6235	6235	6235	6349	6349	6468	6468	6349	6349	6349	6468	6349	6349	6349	6235	6235	6235	8146	8146	8146	8146	8146	8146	8146	8146	8146	8146	8146	8146	8146	8146	8146	8146	8146	8146	8146	7959	7959	7959	7959	7959	7959	7959	8146	8146	8146	8146	7959	7959	7959	7959	7959	7959	7959	7959	7959	7959	7959	7959	7959	7959	7959	7959	7959	7959	7959	7959	7959	7959	7959	7959	7959	4406	4406	4406	4350	4350	4350	4406	4406	4350	4406	4406	4406	4350	4406	4350	4406	4350	4350	4296	4296	4296	4296	4296	4296	4296	4296	4296	4296	4296	4296	4296	0	0	0	0	0	0	0	0	0	0	0	2194	2208	2208	2208	2194	2194	2194	2194	2181	2181	2181	2181	2181	2181	2181	2181	2181	2181	2181	2181	2181	2181	2181	2167	2181	2153	2153	2153	2153	2153	2153	2153	2167	2167	2167	2167	0	0	0	0	0	1958	1958	1958	1947	1947	1947	1947	1936	1936	1936	1925	1925	1915	1915	1915	1915	1904	1904	1915	1904	1915	1915	1904	1904	1904	1904	1904	1894	1883	1873	1873	1873	1574	1574	1567	1567	1567	1567	1560	1560	1560	1560	1560	1560	1560	1553	1553	1553	1546	1546	1546	1546	1546	1546	1546	1546	1546	0	0	0	0	0	0	0	0	0	0	0	0	0	0	0	0	0	0	0	0	0	0	0	0	0	0	0	0	0	0	0	0	0	0	0	0	0	0
0	0	0	0	0	0	0	0	0	0	0	0	1291	1291	1291	1291	1287	1287	0	0	0	0	1992	1992	1992	0	0	0	0	0	0	0	0	0	0	0	0	0	0	0	0	0	0	0	0	0	0	0	0	0	0	1980	1980	1969	1969	1980	1969	1969	1958	1958	1969	1969	1980	1980	1980	1992	1992	2003	1980	0	0	0	0	0	0	0	0	0	0	0	0	0	0	0	0	0	0	0	0	0	0	0	0	0	0	2051	2076	2063	2063	2063	2027	2015	2015	2003	2015	2015	2015	2015	2015	2015	2015	2015	2003	2015	2003	2015	2015	2015	2027	2027	2027	2027	2015	2015	2003	2003	2003	2003	2003	2003	0	0	0	0	0	0	0	0	0	0	0	0	0	0	0	0	2570	2570	2711	2754	2754	2733	2733	2711	2690	2690	2690	2669	2669	2669	2690	2669	2669	2669	2669	2690	2690	2669	2669	2669	2669	2669	2669	2669	2669	2669	2669	2669	2669	0	0	0	0	0	0	0	0	0	0	0	0	0	0	0	0	0	0	0	0	0	0	0	0	0	0	0	0	0	0	0	0	0	0	0	0	0	0	0	0	0	0	0	3129	3907	3864	3864	3907	3907	3998	3998	4093	4093	4142	4243	4243	4296	4296	4350	4350	4406	4406	4406	6592	6468	6468	6468	6468	6349	6468	6468	6468	6468	6468	6468	6468	6468	6468	6468	6468	6468	6468	6468	6468	6468	6468	6468	6349	6349	6349	6349	0	0	0	0	0	0	0	0	0	0	0	0	0	0	0	0	0	0	0	0	0	0	4243	4243	4243	4243	4243	4243	4243	4192	4192	4243	4192	4192	4243	4243	4243	4243	4243	4243	4296	4771	4771	4906	4977	4977	4906	4977	5050	5050	4977	4977	4977	4977	4906	4296	4243	4296	4296	4243	4243	4243	4243	4243	4243	4243	4243	4243	4243	4296	4243	4296	4296	4906	4977	4977	4977	4977	4977	4906	4977	4906	4906	4838	4838	7779	7959	7959	7959	7959	7959	7959	8146	7959	7959	7959	7959	7959	7959	8146	8146	7959	8146	7959	7959	7959	7959	7779	6235	6235	6235	6349	6235	6235	6235	6235	6235	6235	6235	6235	6235	6235	6235	6349	6349	6468	6349	6349	6349	6349	6349	6349	6349	6349	6349	6349	6349	8146	8146	8146	8146	8146	8146	8146	8146	8146	8146	8146	8146	8146	8146	8146	8146	8146	8146	8146	7959	8146	7959	7959	7959	7959	7959	8146	7959	7959	7959	7959	7959	7959	7959	7959	7959	7959	7959	7959	7959	7959	7959	7959	7959	7959	7959	7959	7959	7959	7959	7959	7959	7959	7959	7959	7959	7959	4406	4350	4350	4350	4406	4406	4406	4406	4406	4406	4350	4350	4350	4350	4350	4350	4296	4296	4296	4296	4296	4296	4296	4296	4296	4296	4296	4296	4296	0	0	0	0	0	0	0	0	0	0	0	2194	2208	2223	2208	2208	2194	2194	2194	2194	2181	2181	2181	2181	2181	2181	2181	2181	2194	2194	2181	2181	2181	2181	2167	2167	2153	2153	2153	2153	2153	2153	2167	2167	2167	2167	2167	0	0	0	0	0	1958	1958	1958	1947	1947	1947	1936	1936	1925	1925	1915	1915	1915	1915	1915	1904	1904	1904	1904	1904	1904	1904	1904	1904	1904	1904	1904	1894	1883	1883	1883	1883	1581	1581	1574	1574	1567	1567	1560	1567	1560	1560	1560	1560	1560	1553	1553	1553	1546	1553	1546	1546	1546	1546	1546	1546	1546	0	0	0	0	0	0	0	0	0	0	0	0	0	0	0	0	0	0	0	0	0	0	0	0	0	0	0	0	0	0	0	0	0	0	0	0	0	0
0	0	0	0	0	0	0	0	0	0	0	0	1291	1291	1291	1296	1296	1296	0	0	0	2003	2003	2003	1992	2003	2003	0	0	0	0	0	0	0	0	0	0	0	0	0	0	0	0	0	0	0	0	0	0	0	0	0	1980	1969	1969	1980	1969	1969	1969	1969	0	0	0	1980	1980	1992	1992	2003	0	0	0	0	0	0	0	0	0	0	0	0	0	0	0	0	0	0	0	0	0	0	0	0	0	0	2039	2039	2039	2076	2063	2063	2027	2015	2015	2015	2015	2015	2015	2015	2015	2003	2015	2015	2015	2015	2003	2015	2015	2027	2027	2027	2027	2027	2015	2015	2015	2003	2003	2015	2015	2015	0	0	0	0	0	0	0	0	0	0	0	0	0	0	0	0	2570	2570	2711	2777	2777	2754	2733	2711	2711	2690	2690	2669	2649	2669	2669	2669	2669	2669	2669	2690	2669	2669	2669	2669	2690	2690	2669	2669	2669	2669	2669	2669	2669	0	0	0	0	0	0	0	0	0	0	0	0	0	0	0	0	0	0	0	0	0	0	0	0	0	0	0	0	0	0	0	0	0	0	0	0	0	0	0	0	0	0	0	0	3864	3864	3864	3907	3952	3998	3998	4093	4142	4192	4243	4243	4296	4350	4350	4406	4406	4406	4406	6592	6468	6468	6349	6468	6349	6468	6468	6468	6468	6468	6468	6468	6468	6468	6468	6468	6468	6468	6468	6468	6592	6468	6468	6468	6349	6349	6235	6235	0	0	0	0	0	0	0	0	0	0	0	0	0	0	0	0	0	0	0	0	0	4243	4243	4243	4243	4243	4243	4192	4192	4192	4243	4192	4192	4243	4243	4243	4243	4243	4243	4296	4771	4771	4906	4906	4906	4906	4977	4977	4977	4977	4977	4906	4838	4838	4350	4296	4296	4296	4296	4243	4243	4243	4243	4243	4243	4243	4243	4296	4296	4296	4296	4296	4906	4977	4977	4977	4977	4977	4977	4977	4977	4906	4906	7959	7959	7959	7959	7959	7959	7959	7959	7959	7959	7959	7959	7959	7959	7959	8146	8146	8146	8146	8146	8146	7959	7959	7779	6235	6235	6235	6235	6235	6235	6235	6235	6235	6235	6235	6235	6235	6235	6235	6349	6349	6349	6349	6349	6349	6349	6349	6349	6349	6349	6349	6468	6468	7959	8146	8146	8146	8146	8146	8146	8146	8146	8146	8146	8146	8146	8146	8146	8146	8146	8146	8146	7959	8146	7959	7959	7959	7959	7959	7959	7959	7959	7959	7959	7959	7959	7959	7959	7959	7959	7959	7959	7959	7959	7959	7959	7959	7959	7959	7959	7959	7959	7959	7959	7959	7959	7959	7959	7959	7444	4406	4350	4350	4350	4406	4406	4406	4406	4406	4406	4406	4350	4350	4350	4350	4350	4350	4296	4296	4296	4296	4296	4296	4350	4350	4296	4296	4296	4296	0	0	0	0	0	0	0	0	0	0	0	0	2223	2223	2223	2208	2194	2194	2194	2181	2181	2181	2181	2181	2181	2181	2181	2181	2181	2181	2181	2194	2194	2181	2181	2167	2167	2153	2153	2140	2140	2140	2153	2153	2153	2153	2167	0	0	0	0	0	1958	1958	1958	1947	1947	1936	1936	1925	1925	1925	1925	1925	1915	1915	1915	1915	1904	1904	1904	1904	1904	1904	1904	1904	1904	1904	1894	1894	1883	1883	1883	1883	1574	1574	1574	1574	1567	1567	1560	1560	1560	1560	1560	1560	1560	1553	1553	1553	1553	1553	1546	1546	1553	1553	1546	1546	0	0	0	0	0	0	0	0	0	0	0	0	0	0	0	0	0	0	0	0	0	0	0	0	0	0	0	0	0	0	0	0	0	0	0	0	0	0	0
0	0	0	0	0	0	0	0	0	0	0	0	1291	1291	1291	1291	1296	1296	0	1992	1992	2003	1992	2003	2003	2003	2003	2003	0	0	0	0	0	0	0	0	0	0	0	0	0	0	0	0	0	0	0	0	0	0	0	0	1980	1969	1980	1969	1969	1969	1980	1980	0	0	0	0	0	0	0	0	0	0	0	0	0	0	0	0	0	0	0	0	0	0	0	0	0	0	0	0	0	0	0	0	0	2027	2039	2039	2063	2063	2063	2063	2027	2027	2015	2015	2015	2027	2027	2015	2015	2015	2015	2015	2015	2015	2015	2015	2015	2027	2027	2027	2027	2027	2027	2015	2015	2003	2003	2003	2015	2015	0	0	0	0	0	0	0	0	0	0	0	0	0	0	0	0	0	0	0	2777	2777	2754	2733	2711	2711	2711	2690	2669	2649	2649	2669	2649	2649	2669	2669	2669	2669	2669	2669	2669	2669	2669	2669	2669	2669	2669	2669	2669	2669	0	0	0	0	0	0	0	0	0	0	0	0	0	0	0	0	0	0	0	0	0	0	0	0	0	0	0	0	0	0	0	0	0	0	0	0	0	0	0	0	0	0	0	0	3907	3864	3907	3907	3907	3952	3998	4045	4093	4142	4192	4192	4296	4296	4350	4350	4350	4406	4406	6592	6468	6349	6349	6468	6468	6468	6468	6468	6468	6468	6468	6468	6468	6468	6468	6592	6592	6468	6468	6592	6592	6592	6468	6468	6468	6349	6349	6235	6235	0	0	0	0	0	0	0	0	0	0	0	0	0	0	0	0	0	0	0	0	4243	4243	4243	4243	4243	4243	4192	4192	4192	4243	4243	4243	4243	4243	4243	4243	4243	4243	4296	4771	4771	4906	4906	4906	4906	4977	4977	4977	4977	4906	4906	4906	4838	4350	4296	4296	4296	4296	4243	4243	4192	4192	4192	4192	4192	4192	4243	4296	4296	4296	4838	4906	4977	4977	4977	4977	4977	4977	4977	4977	4906	4906	7959	7959	7959	7959	7959	7959	7959	7959	8146	7959	7959	7959	7959	7959	7959	8146	8146	8146	8146	8146	8146	7959	7959	6235	6235	6235	6235	6235	6235	6235	6235	6235	6235	6235	6235	6235	6235	6235	6235	6349	6349	6349	6349	6349	6349	6349	6349	6349	6349	6349	6468	6468	6468	7959	8146	8146	8146	8146	8146	8146	8146	8146	7959	8146	8146	7959	7959	8146	8146	8146	8146	8146	7959	8146	7959	7959	7959	7959	7959	7959	7959	7959	7959	7959	7959	7959	7959	7959	7959	7959	7959	7959	7959	7959	7959	7959	7959	7959	7959	7959	7959	7959	7959	7959	7959	7959	7959	7959	7608	7444	4350	4350	4350	4350	4406	4406	4406	4406	4406	4406	4350	4350	4350	4350	4350	4350	4350	4296	4296	4296	4350	4350	4350	4350	4350	4350	4296	4296	4243	4142	4093	3998	3998	0	0	0	0	0	0	0	2237	2223	2223	2223	2208	2194	2194	2194	2194	2181	2181	2181	2181	2181	2181	2181	2181	2181	2181	2181	2181	2181	2181	2181	2167	2167	2153	2140	2140	2140	2140	2153	2140	2153	2153	2153	0	0	0	0	0	1958	1947	1947	1947	1947	1936	1936	1925	1925	1925	1925	1915	1915	1915	1915	1904	1904	1904	1904	1904	1904	1904	1904	1904	1904	1904	1894	1894	1873	1873	0	0	1574	1574	1574	1574	1567	1567	1560	1560	1567	1560	1560	1560	1560	1560	1560	1553	1553	1553	1553	1560	1560	1560	1553	1553	0	0	0	0	0	0	0	0	0	0	0	0	0	0	0	0	0	0	0	0	0	0	0	0	0	0	0	0	0	0	0	0	0	0	0	0	0	0	0
0	0	0	0	0	0	0	0	0	0	0	0	1282	1282	1282	1291	0	0	2003	2003	2003	2003	1992	1992	2003	2003	2003	2003	0	0	0	0	0	0	0	0	0	0	0	0	0	0	0	0	0	0	0	0	0	0	0	0	1980	1980	1980	1980	1992	1992	1992	1980	0	0	0	0	0	0	0	0	0	0	0	0	0	0	0	0	0	0	0	0	0	0	0	0	0	0	0	0	0	0	0	0	0	2027	2027	2039	2039	2027	2063	2051	2027	2027	2027	2027	2027	2027	2027	2027	2027	2015	2027	2027	2027	2015	2015	2015	2015	2027	2027	2027	2027	2027	2027	2015	2015	2015	2015	2003	2003	2003	0	0	0	0	0	0	0	0	0	0	0	0	0	0	0	0	0	0	0	2777	2777	2733	2711	2711	2711	2690	2690	2669	2669	2669	2669	2649	2669	2669	2690	2669	2669	2669	2669	2669	2669	2669	2669	2669	2669	2669	2690	2669	2669	0	0	0	0	0	0	0	0	0	0	0	0	0	0	0	0	0	0	0	0	0	0	0	0	0	0	0	0	0	0	0	0	0	0	0	0	0	0	0	0	0	0	0	3907	3864	3864	3907	3907	3907	3907	3998	4045	4093	4142	4192	4192	4296	4350	4350	4350	4350	4406	4406	6592	6468	6468	6349	6468	6468	6468	6468	6468	6468	6468	6468	6468	6468	6468	6468	6468	6592	6468	6468	6592	6592	6592	6468	6468	6468	6468	6349	6349	6349	0	0	0	0	0	0	0	0	0	0	0	0	0	0	0	0	0	0	0	0	4243	4243	4243	4243	4243	4243	4192	4192	4192	4192	4243	4243	4243	4243	4243	4243	4243	4243	4296	4296	4771	4906	4906	4906	4906	4906	4977	4977	4977	4906	4906	4906	4838	4350	4296	4296	4296	4243	4192	4192	4192	4192	4192	4192	4192	4192	4243	4243	4296	4406	4838	4906	4906	4977	4977	4977	4977	4977	4977	4977	4906	4906	4906	7959	7959	7959	7959	7959	7959	7959	7959	7959	7959	7959	7959	7959	7959	8146	8146	8146	8146	8146	8146	7959	7959	6124	6124	6124	6235	6235	6235	6235	6235	6235	6235	6235	6235	6235	6235	6235	6235	6349	6349	6349	6349	6349	6349	6349	6349	6349	6349	6349	6349	6468	6468	6468	8146	8146	8146	8146	8146	8146	8146	8146	7959	8146	8146	7959	7959	8146	8146	8146	8146	8146	7959	7959	7959	7959	7959	7959	7959	7959	7959	7959	7959	7959	7959	7959	7959	7959	7959	7959	7959	7959	7959	7959	7959	7959	7959	7959	7959	7959	7959	7959	7959	7959	7959	7959	7959	7959	7959	7959	4350	4350	4350	4350	4406	4406	4406	4406	4406	4406	4350	4350	4350	4350	4350	4350	4350	4350	4350	4350	4350	4350	4350	4350	4350	4350	4350	4296	4243	4142	4093	3998	3998	3952	3952	0	0	0	0	0	2237	2223	2223	2223	2208	2208	2194	2194	2194	2181	2181	2181	2181	2181	2181	2181	2181	2181	2181	2181	2181	2181	2181	2181	2167	2167	2153	2140	2140	2140	2140	2153	2140	2140	2140	2153	0	0	0	0	0	1958	1947	1947	1947	1947	1936	1925	1925	1915	1925	1925	1915	1915	1915	1904	1904	1904	1904	1904	1904	1904	1904	1904	1904	1904	1904	1894	1883	1883	1873	0	0	1574	1574	1574	1567	1567	1567	1560	1567	1560	1560	1560	1560	1560	1560	1560	1560	1560	1553	1553	1560	1560	1560	1553	1553	1553	0	0	0	0	0	0	0	0	0	0	0	0	0	0	0	0	0	0	0	0	0	0	0	0	0	0	0	0	0	0	0	0	0	0	0	0	0	0
0	0	0	0	0	0	0	0	0	0	0	0	1282	1282	1287	1287	1287	0	2003	2003	2003	1992	1992	1992	2003	2003	2003	1992	2003	2003	0	0	0	0	0	0	0	0	0	0	0	0	0	0	0	0	0	0	0	0	0	0	2003	1980	1980	1992	1992	2003	2015	2027	2027	0	0	0	0	0	0	0	0	0	0	0	0	0	0	0	0	0	0	0	0	0	0	0	0	0	0	0	0	0	0	0	0	2027	2027	2039	2039	2027	2039	2039	2027	2027	2015	2015	2027	2027	2027	2027	2027	2015	2027	2027	2027	2015	2015	2015	2015	2027	2027	2027	2027	2027	2027	2015	2015	2003	2003	2003	2003	2003	0	0	0	0	0	0	0	0	0	0	0	0	0	0	0	0	0	0	0	2754	2754	2711	2711	2711	2711	2711	2690	2669	2669	2669	2669	2649	2649	2649	2690	2669	2669	2669	2669	2669	2669	2669	2669	2669	2669	2669	2690	2669	2669	0	0	0	0	0	0	0	0	3373	3373	3341	3341	3341	0	0	0	0	0	0	0	0	0	0	0	0	0	0	0	0	0	0	0	0	0	0	0	0	0	0	0	0	0	0	3864	3864	3907	3907	3907	3907	3907	3952	3998	4045	4093	4142	4142	4192	4350	4350	4350	4350	4406	4406	6592	6592	6468	6468	6468	6468	6468	6468	6468	6468	6468	6468	6468	6468	6468	6468	6468	6592	6468	6468	6592	6592	6468	6468	6468	6468	6468	6349	6349	6349	0	0	0	0	0	0	0	0	0	0	0	0	0	0	0	0	0	0	0	0	4296	4243	4243	4243	4243	4243	4192	4192	4192	4192	4192	4243	4243	4243	4243	4243	4243	4296	4350	4350	4771	4838	4838	4906	4906	4977	4977	4977	4977	4977	4977	4977	4838	4406	4296	4296	4243	4243	4192	4192	4192	4142	4192	4192	4192	4243	4243	4243	4296	4296	4838	4906	4906	4977	4977	4977	4977	4977	4977	4977	4906	4977	4977	7959	7959	7959	7959	7959	7959	7959	7959	7959	7959	7959	7959	7959	7959	7959	7959	8146	8146	8146	7959	7959	7779	7779	6235	6235	6235	6235	6235	6235	6235	6235	6235	6235	6235	6235	6235	6235	6235	6349	6349	6349	6349	6349	6349	6349	6349	6349	6349	6349	6349	6349	6349	6349	8146	8146	8146	8146	8146	8146	7959	7959	7959	8146	7959	7959	7959	8146	8146	8146	8146	8146	8146	7959	7959	7959	7959	7959	7959	7959	7959	7959	7959	7959	7959	7959	7959	7959	7959	7959	7959	7959	7959	7959	8146	8146	7959	7959	7959	7959	7959	7959	7959	7959	7959	7959	7959	7959	7959	7959	7959	4350	4350	4350	4406	4406	4406	4350	4350	4350	4350	4350	4350	4350	4350	4350	4350	4350	4350	4296	4350	4350	4406	4406	4350	4406	4350	4350	4243	4192	4142	4045	4045	3952	3952	0	0	0	0	0	2237	2237	2237	2223	2223	2208	2194	2194	2194	2194	2181	2181	2181	2167	2167	2181	2181	2181	2181	2181	2181	2181	2181	2181	2181	2167	2153	2153	2140	2140	2140	2140	2140	2140	2140	0	0	0	0	0	0	1958	1947	1947	1947	1936	1936	1925	1925	1915	1915	1915	1904	1904	1904	1904	1904	1894	1904	1904	1904	1904	1904	1904	1904	1904	1904	1883	1883	1883	0	0	0	1574	1574	1574	1567	1567	1567	1560	1560	1560	1560	1560	1560	1560	1553	1560	1553	1553	1553	1553	1553	1560	1553	1553	1546	1546	0	0	0	0	0	0	0	0	0	0	0	0	0	0	0	0	0	0	0	0	0	0	0	0	0	0	0	0	0	0	0	0	0	0	0	0	0	0
0	0	0	0	0	0	0	0	0	0	0	0	1282	1287	1287	1287	1287	0	1992	1992	1992	1992	1992	2003	1992	1992	1992	1992	1992	1992	0	0	0	0	0	0	0	0	0	0	0	0	0	0	0	0	0	0	0	0	0	0	2003	1980	1980	1980	2003	2003	2015	2027	2027	0	0	0	0	0	0	0	0	0	0	0	0	0	0	0	0	0	0	0	0	0	0	0	0	0	0	0	0	0	0	0	2015	2003	2003	2027	2027	2027	2027	2039	2039	2039	2015	2015	2015	2027	2027	2027	2027	2015	2027	2027	2027	2015	2003	2015	2027	2027	2027	2027	2027	2027	2027	2015	2015	2015	2015	2003	2015	2015	0	0	0	0	0	0	0	0	0	0	0	0	0	2711	2711	0	0	0	0	2733	2711	2733	2711	2711	2711	2711	2690	2690	2669	2669	2669	2649	2649	2669	2690	2669	2669	2669	2669	2669	2669	2669	2669	2669	2669	2669	2669	2669	2669	0	0	0	0	0	0	0	3373	3406	3373	3373	3373	3373	3373	0	0	0	0	0	0	0	0	3510	3510	0	0	0	0	0	0	0	0	0	0	0	0	0	0	3864	3821	3864	3864	3907	3864	3864	3864	3907	3907	3907	3907	3952	3998	4045	4045	4093	4093	4142	4296	4296	4350	4406	4406	4406	6592	6468	6468	6349	6349	6349	6468	6468	6468	6349	6349	6468	6468	6468	6468	6468	6468	6592	6592	6592	6592	6592	6468	6468	6468	6468	6468	6349	6349	6349	0	0	0	0	0	0	0	0	0	0	0	0	0	0	0	0	0	0	0	0	4243	4296	4243	4243	4243	4243	4192	4192	4192	4192	4192	4243	4243	4243	4243	4243	4243	4296	4296	4296	4906	4906	4906	4906	4906	4977	4977	4977	4977	4977	4906	4906	4838	4406	4296	4296	4243	4243	4192	4192	4192	4142	4142	4192	4192	4243	4243	4243	4243	4350	4906	4906	4977	4977	4977	4977	4977	4977	4977	4977	4906	4906	4906	7959	7959	7959	8146	7959	7959	7959	7959	7959	7959	7779	7779	7959	7959	7959	7959	7959	7959	7959	7959	7779	7779	7779	6720	6235	6235	6235	6235	6349	6235	6235	6235	6349	6349	6235	6235	6235	6235	6349	6349	6349	6349	6349	6349	6349	6349	6349	6349	6349	6349	6349	6349	6349	8146	7959	8146	7959	7959	8146	7959	7959	7959	8146	7959	7959	7959	7959	7959	8146	8146	7959	8146	8146	7959	7959	7959	7959	7959	7959	7959	7959	7959	7959	7959	7959	7959	7959	8146	7959	7959	7959	7959	8146	8146	8146	7959	7959	8146	7959	7959	7959	7959	7959	7959	7779	7959	7959	7779	7779	7959	0	4350	4350	4406	4406	4406	4350	4350	4350	4350	4350	4350	4350	4350	4350	4350	4350	4296	4296	4350	4350	4406	4406	4406	4406	4406	4350	4243	4192	4142	4142	4045	4045	4045	4045	0	0	0	2266	2252	2237	2237	2223	2223	2208	2194	2194	2194	2194	2194	2181	2181	2181	2167	2167	2181	2181	2181	2181	2181	2181	2181	2181	2167	2167	2153	2140	2140	2153	2153	2153	2140	2140	2153	2153	2153	0	0	0	0	0	0	1947	1947	1936	1925	1925	1915	1915	1915	1915	1904	1904	1904	1904	1904	1904	1904	1904	1894	1894	1904	1904	1904	1904	1904	1904	1904	0	0	0	0	1581	1581	1574	1574	1567	1567	1560	1560	1560	1553	1553	1553	1560	1553	1553	1553	1560	1560	1553	1553	1553	1553	1546	1539	1539	0	0	0	0	0	0	0	0	0	0	0	0	0	0	0	0	0	0	0	0	0	0	0	0	0	0	0	0	0	0	0	0	0	0	0	0	0	0
0	0	0	0	0	0	0	0	0	0	0	0	1282	1282	1282	1287	0	1992	1992	2003	2003	2003	2003	2003	2003	2003	2003	1992	2003	2003	0	0	0	0	0	0	0	0	0	0	0	0	0	0	0	0	0	0	0	0	0	0	0	1980	1992	1992	2003	2003	2015	2027	2027	0	0	0	0	0	0	0	0	0	0	0	0	0	0	0	0	0	0	0	0	0	0	0	0	0	0	0	0	0	1992	1992	1992	2003	2003	2003	2039	2039	2039	0	2039	2039	0	2015	2015	2027	2015	2027	2027	2027	2027	2027	2027	2015	2015	2015	2015	2015	2027	2027	2027	2027	2027	2015	2027	2015	2015	2015	2015	2015	0	0	0	0	0	0	0	0	0	0	0	0	2754	2711	2711	0	0	2629	2629	2711	2711	2711	2711	2711	2711	2690	2690	2690	2669	2669	2669	2669	2649	2669	2690	2690	2669	2669	2669	2669	2669	2669	2669	2669	2669	2669	2669	2649	2649	3406	3406	0	0	0	0	0	3406	3406	3373	3373	3373	3373	3373	3406	3406	3406	3475	3475	3510	3510	3510	3510	3510	3510	0	0	0	0	0	0	0	0	0	0	0	0	0	3821	3821	3821	3864	3864	3864	3864	3864	3907	3907	3907	3952	3952	3998	4045	4045	4093	4093	4243	4296	4296	4350	4406	4406	4406	6592	6592	6468	6468	6468	6468	6468	6349	6349	6349	6349	6468	6468	6468	6468	6592	6468	6592	6592	6592	6592	6592	6468	6468	6468	6468	6468	6468	6468	6468	6468	0	0	0	0	0	0	0	0	0	0	0	0	0	0	0	0	0	0	0	4296	4243	4243	4243	4243	4243	4192	4192	4192	4192	4192	4243	4243	4243	4243	4243	4243	4243	4243	4838	4906	4906	4906	4906	4906	4977	4977	4977	4977	4977	4977	4977	4906	4350	4296	4243	4192	4192	4192	4192	4142	4142	4142	4192	4192	4243	4243	4243	4243	4350	4906	4977	4977	4977	4977	4977	4977	4977	4977	4977	4906	4977	4977	7959	8146	7959	8146	7959	7959	7959	7959	7959	7959	7779	7959	7959	7959	7959	7959	7959	7959	7959	7959	7779	7779	7444	6992	6235	6235	6235	6235	6349	6235	6235	6235	6349	6235	6235	6235	6235	6235	6349	6349	6349	6349	6349	6349	6349	6349	6349	6349	6349	6349	6349	6349	6349	7959	7959	7959	7959	7959	8146	8146	8146	8146	8146	8146	8146	7959	7959	7959	8146	8146	7959	7959	8146	7959	7959	7959	7959	7959	7959	7959	7959	7959	7959	7959	7959	7959	7959	8146	7959	7959	7959	7959	8146	8146	8146	7959	7959	8146	7959	7959	7959	7959	7959	7959	7959	7779	7959	7959	7959	7959	0	4296	4350	4406	4406	4406	4350	4350	4350	4350	4350	4350	4350	4350	4350	4350	4350	4350	4296	4350	4350	4406	4406	4406	4350	4350	4350	4243	4142	4093	3998	4045	4045	4045	4045	0	0	0	2266	2252	2252	2237	2237	2223	2208	2208	2208	2194	2194	2194	2194	2181	2181	2167	2167	2167	2167	2181	2181	2167	2167	2167	2167	2153	2153	2140	2140	2140	2140	2140	2140	2140	2140	2153	2153	2153	0	0	0	0	0	0	0	1947	1936	1925	1915	1915	1915	1915	1915	1904	1915	1915	1915	1904	1904	1904	1904	1894	1904	1904	1904	1904	1904	1904	1894	1894	0	0	0	1589	1581	1581	1581	1574	1574	1574	1560	1560	1560	1553	1560	1560	1560	1553	1553	1553	1553	1546	1553	1553	1560	1560	1553	1546	1546	0	0	0	0	0	0	0	0	0	0	0	0	0	0	0	0	0	0	0	0	0	0	0	0	0	0	0	0	0	0	0	0	0	0	0	0	0	0
0	0	0	0	0	0	0	0	0	0	0	0	1282	1282	1282	0	0	2003	1992	2003	2003	2003	2003	2003	2003	2003	2003	2003	2003	2003	0	0	0	0	0	0	0	0	0	0	0	0	0	0	0	0	0	0	0	0	0	0	0	1992	1992	2003	2015	2015	2027	2039	2039	0	0	0	0	0	0	0	0	0	0	0	0	0	0	0	0	0	0	0	0	0	0	0	0	2003	2003	2015	2015	2003	2003	2003	2003	2003	1980	1980	2039	2039	2039	0	0	0	0	2015	2015	2027	2027	2027	2027	2027	2027	2027	2027	2015	2015	2015	2015	2015	2015	2027	2027	2027	2027	2015	2027	2027	2027	2015	2015	2015	0	0	0	0	0	0	0	0	0	0	0	2733	2733	2711	2649	2649	2649	2629	2629	2649	2690	2690	2690	2690	2690	2690	2669	2669	2669	2669	2669	2669	2669	2669	2690	2669	2669	2669	2669	2669	2669	2669	2669	2669	2669	2669	2669	2649	2649	3406	3406	3406	3406	3406	3373	3373	3373	3406	3373	3373	3373	3373	3373	3373	3406	3406	3406	3440	3475	3440	3510	3510	3510	3475	3475	0	0	0	0	0	0	3546	3546	3546	3546	3546	3821	3821	3821	3864	3864	3864	3864	3864	3864	3952	3907	3907	3907	3952	3998	4045	4093	4093	4093	4243	4296	4296	4350	4350	4406	4406	6468	6592	6468	6468	6468	6468	6468	6349	6349	6349	6349	6468	6468	6468	6468	6468	6468	6592	6468	6468	6468	6468	6468	6468	6468	6468	6349	6468	6468	6468	6468	6468	0	0	0	0	0	0	0	0	0	0	0	0	0	0	0	0	0	0	4296	4296	4296	4243	4243	4243	4192	4192	4192	4192	4192	4243	4243	4243	4243	4243	4243	4243	4906	4906	4977	4906	4906	4906	4906	4977	5050	4977	4977	4977	4977	4977	4977	4350	4296	4243	4192	4192	4192	4142	4142	4142	4142	4192	4192	4192	4192	4192	4192	4192	4906	4977	4977	4977	4977	4977	4977	4977	4906	4977	4906	4906	7959	7959	7959	8146	8146	8146	7959	7959	7959	7959	7959	7959	7959	7779	7959	7959	7959	7959	7959	7959	7959	7779	7779	7608	6992	6235	6235	6235	6235	6235	6235	6235	6235	6349	6235	6235	6235	6235	6235	6349	6349	6349	6349	6349	6349	6349	6349	6349	6349	6349	6349	6349	6349	6349	6349	7959	8146	8146	8146	8146	8146	8146	8146	8146	8146	8146	7959	8146	8146	8146	8146	8146	8146	8146	7959	7959	7959	7959	7959	7959	7959	7959	7959	7959	8146	7959	7959	7959	8146	7959	7959	7959	7959	8146	8146	8146	7959	7959	7959	7959	7959	7959	7959	7959	7959	7779	7779	7779	7779	7779	4296	4296	4296	4296	4406	4406	4406	4406	4350	4350	4406	4350	4350	4350	4350	4350	4350	4350	4296	4296	4350	4350	4406	4406	4406	4350	4350	4296	4192	4192	4045	3998	4045	3998	3952	3952	0	0	0	2266	2252	2252	2237	2237	2237	2223	2208	2208	2208	2194	2194	2194	2181	2181	2167	2167	2167	2153	2153	2167	2167	2167	2167	2167	2153	2153	2140	2140	2140	2140	2140	2140	2153	2140	2153	2153	2153	0	0	0	0	0	0	0	1947	1936	1925	1915	1915	1915	1915	1904	1904	1904	1904	1904	1904	1904	1904	1904	1904	1904	1904	1894	1894	1894	1894	1894	1894	0	0	0	1589	1581	1589	1581	1574	1574	1567	1567	1560	1560	1553	1553	1553	1553	1546	1546	1546	1546	1546	1553	1553	1560	1560	1553	1553	1553	0	0	0	0	0	0	0	0	0	0	0	0	0	0	0	0	0	0	0	0	0	0	0	0	0	0	0	0	0	0	0	0	0	0	0	0	0	0
0	0	0	0	0	0	0	0	0	0	0	0	1282	1282	1282	1282	0	2003	1992	2003	2003	2003	2003	2003	2003	2003	2003	2003	1992	1992	0	0	0	0	0	0	0	0	0	0	0	0	0	0	0	0	0	0	0	0	0	0	0	1992	1992	2003	2015	2015	2039	2051	2051	0	0	0	0	0	0	0	0	0	0	0	0	0	0	0	0	0	0	0	0	2003	2003	2015	2015	2003	2015	2015	2015	2003	2003	2003	2003	2003	1980	1980	2003	1992	1969	1969	0	0	0	2015	2027	2027	2027	2027	2027	2027	2027	2027	2027	2015	2015	2015	2015	2015	2015	2027	2027	2027	2027	2015	2027	2027	2015	2015	2015	2015	0	0	0	0	0	0	0	0	0	0	0	2690	2711	2690	2649	2629	2629	2629	2629	2629	2629	2690	2690	2690	2690	2690	2669	2669	2669	2669	2669	2669	2669	2669	2690	2690	2669	2669	2669	2669	2669	2669	2669	2669	2669	2669	2669	2669	3406	3406	3406	3406	3406	3406	3373	3373	3373	3406	3373	3373	3373	3373	3373	3373	3373	3406	3406	3440	3440	3440	3510	3510	3475	3475	3475	3440	3440	0	0	3546	3546	3546	3583	3583	3583	3583	3821	3821	3821	3864	3864	3907	3864	3864	3864	3952	3907	3907	3907	3952	3998	4045	4045	4142	4192	4296	4296	4296	4350	4406	4406	4406	6468	6468	6468	6468	6468	6468	6349	6349	6349	6349	6349	6468	6468	6468	6468	6468	6468	6468	6468	6468	6468	6468	6468	6468	6468	6468	6349	6349	6468	6468	6468	6468	0	0	0	0	0	0	0	0	0	0	0	0	0	0	0	0	0	0	4296	4296	4296	4243	4243	4243	4192	4192	4192	4192	4192	4192	4192	4243	4243	4243	4243	4243	4906	4977	4977	4977	4906	4906	4977	4977	5050	5050	5050	4977	5050	5050	4977	5050	4192	4192	4142	4142	4142	4142	4142	4142	4142	4192	4192	4192	4192	4192	4192	4838	4906	4977	4977	4977	4977	4977	4977	4977	4906	4977	4977	4977	7959	7959	8146	8146	8146	7959	7959	7959	7959	7959	7959	7959	7959	7959	7959	7959	7959	7959	7959	7959	7959	7779	7608	7444	6992	6235	6235	6235	6235	6235	6235	6235	6235	6349	6235	6235	6235	6235	6235	6349	6349	6349	6349	6349	6349	6349	6349	6349	6349	6349	6349	6349	6349	6349	8146	8146	8146	8146	8146	8146	8146	8146	8146	8146	8146	8146	7959	8146	8146	8146	8146	8146	8146	8146	8146	7959	7959	7959	7959	7959	7959	7959	7959	8146	8146	7959	8146	7959	8146	8146	8146	7959	8146	8146	8146	8146	7959	8146	8146	8146	7959	7959	7959	7959	7959	7779	7779	7779	7779	7779	4296	4296	4296	4350	4406	4406	4406	4406	4406	4350	4350	4350	4350	4350	4296	4350	4350	4350	4350	4296	4350	4350	4406	4406	4406	4350	4350	4296	4192	4192	4045	3998	4045	4093	4093	3952	0	0	2266	2252	2252	2252	2237	2237	2237	2223	2208	2208	2208	2194	2194	2194	2181	2181	2167	2167	2167	2167	2167	2167	2167	2167	2167	2167	2153	2153	2153	2153	2153	2153	2153	2153	2153	2153	2153	2167	2167	0	0	0	0	0	0	0	0	1936	1936	1925	1925	1915	1915	1915	1904	1904	1904	1904	1904	1904	1904	1904	1904	1904	1904	1894	1894	1894	1894	1883	1883	1883	0	0	0	0	1589	1581	1574	1574	1567	1560	1560	1553	1553	1553	1553	1553	1546	1546	1546	1546	1546	1539	1553	1553	1553	1553	1553	1553	0	0	0	0	0	0	0	0	0	0	0	0	0	0	0	0	0	0	0	0	0	0	0	0	0	0	0	0	0	0	0	0	0	0	0	0	0	0
0	0	0	0	0	0	0	0	0	0	0	0	1287	1282	1282	1282	0	0	1992	2003	2003	2003	2015	2015	2003	2003	2003	2003	1992	1992	0	0	0	0	0	0	0	0	0	0	0	0	0	0	0	0	0	0	0	0	0	0	0	1992	1980	2015	2015	2015	2039	2051	2051	0	0	0	0	0	0	0	0	0	0	0	0	0	0	0	0	0	0	0	0	2003	2003	2015	2015	2003	2015	2015	2015	2015	2015	2015	2015	1992	1980	1980	1980	1980	1969	1969	0	0	0	0	2027	2027	2027	2027	2027	2027	2027	2027	2027	2015	2015	2015	2015	2015	2015	2027	2027	2015	2015	2015	2015	2027	2027	2015	2015	2015	0	0	0	0	0	0	0	0	0	0	0	2690	2690	2649	2629	2629	2629	2629	2649	2629	2649	2649	2690	2690	2690	2669	2669	2649	2669	2690	2690	2669	2669	2669	2690	2690	2669	2669	2669	2669	2669	2690	2690	2669	2669	2669	2669	2669	3406	3373	3373	3406	3406	3406	3373	3373	3406	3406	3406	3406	3373	3373	3406	3373	3406	3406	3406	3440	3475	3475	3510	3510	3475	3475	3475	3406	3406	3475	3475	3510	3546	3546	3583	3583	3583	3698	3821	3821	3821	3864	3864	3907	3864	3907	3907	3952	3952	3952	3952	3952	3998	4045	4045	4093	4192	4192	4296	4296	4296	4350	4350	4350	6468	6468	6468	6349	6349	6349	6349	6349	6349	6349	6349	6468	6468	6468	6468	6468	6468	6468	6468	6468	6468	6468	6349	6349	6349	6349	6349	6235	6235	6235	6468	6468	0	0	0	0	0	0	0	0	0	0	0	0	0	0	0	0	0	0	4296	4296	4296	4243	4243	4243	4192	4192	4192	4192	4192	4192	4192	4243	4243	4243	4243	4243	4243	5050	4977	4906	4906	4977	4977	5050	5050	5050	5050	5050	5050	5050	5050	4192	4192	4192	4142	4142	4142	4142	4142	4142	4142	4192	4192	4192	4192	4192	4192	4142	4142	4977	4977	4977	4977	4977	4977	4977	4906	4977	4977	4977	7959	7959	7959	7959	7959	7959	7959	7959	7959	7959	7959	7959	7959	7959	7959	7959	7959	7959	7959	7779	7779	7779	7608	7444	6592	6235	6235	6235	6235	6235	6235	6235	6235	6349	6235	6235	6235	6235	6235	6349	6349	6349	6349	6349	6349	6349	6349	6349	6349	6349	6349	6235	6235	6235	8146	8146	8146	8146	8146	8146	8146	8146	8146	8146	8146	8146	7959	8146	8146	8146	8146	8146	8146	8146	7959	7959	7959	7959	7959	7959	7959	7959	7959	7959	7959	7959	7959	7959	7959	7959	7959	7959	7959	8146	8146	8146	7959	7959	7959	7959	7959	7959	7959	7959	7959	7779	7779	7959	7959	7959	4243	4243	4296	4350	4406	4406	4406	4406	4350	4350	4350	4350	4350	4350	4296	4350	4350	4350	4350	4350	4350	4350	4406	4406	4406	4350	4350	4350	4192	4192	0	0	0	4045	4045	0	0	0	2266	2266	2266	2252	2252	2252	2237	2223	2223	2208	2208	2194	2194	2194	2194	2181	2181	2167	2167	2167	2167	2167	2167	2153	2167	2153	2153	2153	2153	2153	2153	2153	2153	2153	2153	2153	2153	2167	2167	0	0	0	0	0	0	0	0	1936	1936	1925	1925	1915	1915	1904	1904	1904	1904	1904	1904	1904	1904	1904	1894	1904	1904	1894	1894	1883	1883	1883	1873	1873	0	0	0	0	0	0	0	0	0	1560	1560	1553	1546	1553	1553	1553	1546	1546	1546	1546	1546	1539	1539	1546	1539	1546	1546	1546	0	0	0	0	0	0	0	0	0	0	0	0	0	0	0	0	0	0	0	0	0	0	0	0	0	0	0	0	0	0	0	0	0	0	0	0	0	0
0	0	0	0	0	0	0	0	0	0	0	0	1287	1287	1287	1287	0	0	2003	2003	2015	2015	2015	2015	2003	2003	2003	1992	1992	1992	0	0	0	0	0	0	0	0	0	0	0	0	0	0	0	0	0	0	0	0	0	0	0	0	1980	2015	2015	0	0	0	0	0	0	0	0	0	0	0	0	0	0	0	0	0	0	0	0	0	0	0	0	0	0	2015	2015	2003	2015	2003	2003	2003	2003	2015	2003	2003	1992	1992	1992	1980	1980	1980	1980	0	2027	2015	2015	2027	2027	2027	2027	2027	2027	2027	2027	2015	2015	2015	2015	2015	2015	2015	2015	2015	2015	2015	2015	2015	2015	2015	2015	2015	0	0	0	0	0	0	0	0	0	0	0	0	2669	2649	2649	2629	2649	2649	2669	2649	2649	2669	2669	2669	2669	2669	2669	2649	2669	2669	2690	2669	2669	2669	2690	2690	2669	2669	2669	2669	2669	2669	2690	2690	2669	2669	2669	2669	3406	3373	3406	3406	3406	3406	3373	3373	3406	3373	3406	3406	3373	3406	3406	3406	3406	3406	3406	3406	3440	3440	3475	3475	3406	3406	3406	3406	3406	3440	3475	3510	3546	3583	3583	3583	3621	3698	3779	3821	3821	3821	3864	3864	3864	3864	3864	3952	3952	3952	3952	3952	3998	3998	4045	4093	4192	4243	4296	4296	4350	4406	4406	4406	6468	6468	6468	6349	6349	6349	6349	6349	6349	6349	6349	6349	6468	6468	6468	6468	6468	6468	6468	6468	6468	6468	6349	6349	6349	6349	6349	6349	6349	6349	0	0	0	0	0	0	0	0	0	0	0	0	0	0	0	0	0	0	0	0	0	4296	4243	4243	4243	4192	4192	4192	4192	4192	4192	4243	4243	4243	4243	4243	4243	4243	4243	4906	4977	4906	4906	4906	4977	4977	5050	5050	5050	5050	5050	4977	4977	4192	4192	4192	4192	4142	4142	4142	4142	4142	4142	4192	4192	4192	4192	4142	4093	4093	4977	4977	4977	4977	4977	4977	4977	4977	4906	4977	4977	7959	7959	7959	7959	7959	7959	7959	7959	7959	7959	7959	7959	7959	7959	7959	7959	7959	7959	7959	7959	7959	7779	7779	7779	7608	6349	6235	6235	6235	6235	6235	6235	6235	6235	6349	6235	6235	6235	6349	6235	6235	6349	6349	6349	6349	6349	6349	6349	6349	6349	6349	6349	6235	6235	6235	8146	7959	8146	8146	8146	8146	8146	8146	8146	8146	8146	8146	8146	7959	8146	8146	7959	7959	7959	8146	7959	7959	7959	7959	7959	7959	7959	7959	7959	7959	7959	7959	7959	7959	7959	7959	7959	7959	7959	7959	7959	7959	7959	7959	7959	7959	7959	7959	7959	7779	7779	7779	7779	7959	7779	4350	4350	4296	4296	4350	4406	4406	4406	4406	4406	4350	4350	4350	4350	4350	4296	4350	4350	4350	4350	4350	4350	4350	4406	4406	4406	4350	4350	4350	0	0	0	0	0	4045	4045	0	0	0	2266	2266	2266	2266	2252	2252	2252	2237	2237	2237	2237	2223	2208	2194	2194	2194	2181	2167	2167	2167	2167	2167	2153	2153	2167	2167	2153	2153	2153	2153	2153	2153	2153	2153	2153	2153	2153	2167	2167	0	0	0	0	0	0	0	0	0	1936	1925	1925	1915	1915	1915	1904	1904	1904	1904	1904	1904	1904	1904	1894	1894	1904	1894	1883	1883	1873	1873	1863	1863	0	0	0	0	0	0	0	0	0	0	1553	1546	1546	1546	1546	1546	1546	1546	1539	1539	1539	1539	1539	1539	1539	1539	1539	1539	0	0	0	0	0	0	0	0	0	0	0	0	0	0	0	0	0	0	0	0	0	0	0	0	0	0	0	0	0	0	0	0	0	0	0	0	0	0
0	0	0	0	0	0	0	0	0	0	0	0	1287	1287	1287	1287	1287	0	2003	2003	2015	2015	2015	2015	2003	2003	1992	1992	1980	1980	0	0	0	0	0	0	0	0	0	0	0	0	0	0	0	0	0	0	0	0	0	0	0	0	1980	2015	2015	0	0	0	0	0	0	0	0	0	0	0	0	0	0	0	0	0	0	0	0	0	0	0	0	0	0	1980	1980	2003	1992	1992	2003	1992	2003	2003	2003	2003	2015	2015	2027	2015	2015	2015	2015	2015	2027	2015	2015	2027	2027	2027	2027	2027	2027	2015	2015	2015	2027	2015	2015	2015	2015	2015	2015	2015	2015	2015	2015	2015	2027	2027	2027	2015	0	0	0	0	0	0	0	0	0	0	2649	2669	2669	2649	2649	2649	2649	2669	2669	2669	2669	2669	2669	2690	2690	2690	2669	2669	2690	2690	2690	2690	2669	2669	2690	2690	2690	2690	2669	2669	2669	2669	2669	2669	2669	2669	2669	2649	2649	3406	3406	3406	3406	3406	3373	3373	3406	3406	3406	3406	3406	3406	3406	3406	3406	3406	3406	3406	3406	3406	3440	3440	3406	3440	3440	3406	3440	3440	3475	3510	3546	3583	3621	3621	3659	3698	3779	3779	3779	3821	3821	3864	3864	3864	3864	3907	3907	3907	3907	3952	3998	4093	4093	4192	4243	4296	4243	4296	4350	4406	4406	4406	6468	6468	6468	6349	6349	6349	6349	6349	6349	6349	6349	6349	6468	6468	6468	6468	6468	6468	6468	6468	6468	6468	6468	6468	6349	6349	6349	6349	6349	6349	0	0	0	0	0	0	0	0	0	0	0	0	0	0	0	0	0	0	0	0	0	0	4243	4243	4192	4192	4192	4192	4192	4192	4192	4243	4243	4243	4243	4243	4243	4243	4243	4906	4906	4906	4906	4906	4977	4977	5050	4977	4977	5050	5050	5050	5050	5050	4192	4192	4192	4192	4192	4142	4142	4142	4142	4192	4142	4142	4142	4093	4045	4977	4977	5050	4977	4977	4977	4977	4977	4977	4906	4906	4906	7959	7959	7959	7959	7959	7959	7959	7959	7959	7959	7959	7959	7959	8146	8146	7959	7959	7959	7959	7959	7779	7779	7779	7608	7444	6349	6235	6235	6235	6235	6235	6235	6235	6235	6235	6235	6235	6235	6235	6349	6349	6349	6468	6468	6468	6349	6349	6349	6349	6349	6349	6349	6349	6349	6235	6235	7959	8146	8146	8146	8146	8146	8146	8146	8146	8146	8146	8146	7959	7959	7959	7959	7959	7959	7959	7959	7959	7959	7959	7959	7959	7959	7959	7959	7959	7959	7959	7959	7959	7959	7959	7959	7959	7959	7959	7959	7959	7959	7959	7959	7959	7959	7959	7959	7779	7779	7779	7779	7779	7779	7779	4350	4296	4296	4350	4406	4406	4406	4406	4406	4350	4350	4350	4350	4350	4296	4350	4350	4350	4350	4350	4350	4350	4406	4406	4406	4350	4350	4350	0	0	0	0	0	0	0	0	0	0	2266	2266	2266	2252	2252	2252	2266	2252	2237	2237	2237	2223	2208	2208	2208	2194	2181	2181	2181	2181	2167	2167	2153	2153	2167	2167	2153	2153	2153	2140	2153	2153	2153	2153	2153	2153	2167	2167	2167	0	0	0	0	0	0	0	0	0	0	1925	1915	1915	1915	1904	1904	1904	1904	1904	1904	1904	1904	1904	1894	1894	1894	1883	1883	1883	1873	1873	1863	1863	1863	0	0	0	0	0	0	0	0	1553	1553	1553	1546	1546	1546	1546	1546	1546	1539	1539	1539	1539	1539	1539	1539	1539	1539	1539	0	0	0	0	0	0	0	0	0	0	0	0	0	0	0	0	0	0	0	0	0	0	0	0	0	0	0	0	0	0	0	0	0	0	0	0	0	0
0	0	0	0	0	0	0	0	0	0	0	0	1287	1287	1287	1287	1287	0	2003	2015	2015	2027	2015	2015	2015	2003	2003	1992	1980	1980	1980	0	0	0	0	0	0	0	0	0	0	0	0	0	0	0	0	0	0	0	0	0	0	0	0	0	0	0	0	0	0	0	0	0	0	0	0	0	0	0	0	0	0	0	0	0	0	0	0	0	0	2015	2015	2027	2015	2003	2027	2027	2003	1992	2003	2015	2015	2003	2003	2015	2015	2015	2015	2015	2015	2027	2027	2015	2027	2027	2027	2027	2027	2027	2027	2015	2027	2015	2027	2027	2015	2015	2015	2015	2015	2015	2015	2003	2003	2015	2027	2027	2027	2027	0	0	0	0	0	0	0	0	0	0	2629	2649	2669	2649	2649	2649	2669	2690	2690	2690	2690	2690	2690	2690	2690	2690	2669	2669	2690	2690	2690	2690	2669	2669	2711	2690	2669	2690	2669	2669	2669	2669	2690	2690	2669	2669	2669	2669	2669	3406	3406	3406	3406	3406	3373	3406	3406	3406	3406	3406	3406	3406	3406	3406	3406	3406	3406	3406	3406	3406	3406	3406	3406	3406	3406	3406	3440	3440	3475	3510	3546	3583	3621	3621	3659	3698	3738	3779	3779	3821	3821	3821	3821	3821	3821	3907	3952	3952	3907	3952	3998	4045	4093	4192	4243	4296	4243	4296	4296	4406	4406	4463	4463	6468	6468	6349	6349	6349	6349	6349	6349	6349	6349	6468	6468	6468	6468	6468	6468	6468	6468	6468	6468	6468	6349	6468	6349	6468	6349	6349	6349	6349	0	0	0	0	0	0	0	0	0	0	0	0	0	0	0	0	0	0	0	0	0	0	4243	4192	4192	4192	4192	4142	4142	4192	4192	4243	4243	4243	4243	4243	4296	4296	4296	4906	4906	4977	4906	4906	4977	4977	5050	4977	4977	5050	5050	5050	5050	5050	4192	4192	4142	4142	4142	4142	4142	4142	4142	4142	4142	4142	4093	4093	4977	4977	4977	4977	4977	4977	4977	4977	4977	4906	4906	4906	4906	7959	7959	7959	7959	7959	7959	7959	7959	7959	7959	7959	7959	8146	8146	8146	7959	7959	7959	7959	7959	7779	7779	7779	7779	7608	7608	6235	6235	6124	6124	6124	6124	6235	6235	6235	6235	6235	6235	6235	6235	6349	6349	6468	6468	6468	6468	6349	6349	6349	6349	6349	6349	6349	6349	6349	6349	7959	8146	8146	8146	7959	8146	8146	8146	8146	8146	8146	7959	7959	7959	7959	7959	7959	7959	7959	7959	7959	7959	7959	7959	7959	7959	7959	7959	7959	7959	7959	7959	7959	7959	7959	7959	7959	7959	7959	7959	7959	7959	7959	7959	7959	7959	7959	7779	7779	7779	7779	7779	7779	7779	7779	4350	4350	4350	4350	4406	4406	4406	4350	4350	4350	4350	4350	4350	4296	4296	4296	4350	4350	4350	4350	4350	4350	4350	4406	4350	4350	4350	4350	0	0	0	0	0	0	0	0	0	0	2266	2266	2266	2252	2252	2252	2252	2252	2252	2252	2252	2237	2223	2208	2208	2194	2194	2181	2181	2181	2181	2167	2167	2153	2167	2167	2153	2153	2153	2140	2153	2153	2153	2153	2153	2140	2153	2153	2153	0	0	0	0	0	0	0	0	0	1947	1936	1925	1925	1915	1915	1915	1904	1904	1904	1904	1904	1904	1894	1894	1894	1894	1883	1883	1873	1873	1873	1863	1863	1863	0	0	0	0	0	0	0	0	1560	1560	1553	1553	1553	1553	1553	1546	1539	1539	1539	1539	1539	1539	1539	1539	1539	1539	1539	0	0	0	0	0	0	0	0	0	0	0	0	0	0	0	0	0	0	0	0	0	0	0	0	0	0	0	0	0	0	0	0	0	0	0	0	0	0
