0	0	0	0	0	0	0	0	0	0	0	0	0	1567	1567	1574	1574	1581	1581	1581	1581	1574	1574	1574	1574	1574	1581	1574	1574	1581	1581	1581	1581	1589	1581	1581	1581	1574	1574	1574	1574	1574	1581	1581	1581	1589	1581	1581	1574	1581	1574	1574	1574	1574	1574	1574	1574	1574	1574	1581	1574	1581	1574	1574	1581	1581	1581	1574	1581	1581	1581	1574	1574	1574	1581	1581	1581	1581	1581	1581	1581	1581	1574	1574	1574	1574	1574	1574	1581	1581	1581	1589	1589	1581	1581	1581	1581	1581	1581	1596	1596	1596	1596	1581	1581	1589	1581	1589	1581	1581	1581	1581	1589	1581	1581	1581	1581	1581	1581	1581	1581	1581	1581	1581	1581	1589	1581	1589	1589	1603	1611	1626	1634	1641	1641	1641	1649	1665	1673	1690	1698	1706	1723	1732	1732	1750	1795	1804	1824	1833	1843	1843	1843	1853	1853	1853	1873	1894	1894	1915	1915	1925	1936	1936	1980	1980	2063	2076	2063	2076	2076	2076	2076	2063	2076	2076	2076	2088	2088	2101	2114	2127	2127	2140	2194	2237	2252	2252	2252	2266	2266	2281	2297	2312	2392	2392	2392	2426	2443	2460	2460	2460	2460	2460	0	0	0	7959	7959	8146	8146	8146	8146	7959	7779	7608	7608	7608	7608	7444	7444	7444	7444	7444	7608	7779	7959	8146	8146	8343	8343	8343	8343	8343	8343	8343	8146	7959	8146	7959	7959	7959	7959	8146	8146	8343	8343	8343	8343	8343	8343	8343	8343	8343	8343	8343	7959	7959	4771	4771	4771	4706	4706	4706	4706	4706	4706	4706	4706	4706	4706	4706	4706	4706	4706	4706	4706	4706	4706	4706	4706	4706	4706	4706	4643	4581	4521	4521	4521	4463	4521	4581	4581	3738	3738	3738	3738	3738	3738	3698	3698	3698	3698	3698	3659	3698	3698	3698	3698	3698	3698	3698	3698	3698	3698	3738	3779	3779	3738	3738	3738	3738	3698	3698	3698	3698	3698	3698	3698	3698	3698	3698	3698	3698	3698	3659	3659	3659	3698	4643	4643	4643	4643	4643	4581	4581	4581	4581	4581	4581	4581	4581	4581	4581	4581	4581	4521	4406	4406	4406	4406	4463	4463	4463	4463	4521	4463	4463	4406	4406	4463	4350	4350	4406	4406	4406	4406	4406	4406	4406	4406	4350	4350	4350	4350	4350	4350	4350	4350	4406	4463	4463	4463	4463	4521	4521	4463	4463	4463	4463	4463	4463	4463	4521	4521	4581	4581	4643	4643	4643	4643	4643	4643	4643	4643	4581	4581	4581	4581	4581	4581	4521	4521	4406	4350	4350	4296	4296	4243	4192	4243	4243	4243	4521	4521	4521	4521	4581	4581	4581	4581	4581	4581	4581	4581	4581	4581	0	0	0	0	0	0	0	0	0	2460	2443	2443	2443	2443	2426	2426	2392	2376	2343	2327	2312	2297	2281	2266	2252	2252	2223	2223	2208	2194	2194	2181	2153	2140	2114	2101	2088	2088	2088	2076	2076	2076	2076	2076	2076	2051	2015	2003	1992	1969	1958	1947	1915	1904	1894	1873	1873	1863	1853	1843	1833	1814	1804	1795	1786	1786	1777	1768	1750	1732	1723	1715	1715	1706	1706	1698	1681	1657	1649	1641	1641	1634	1634	1634	1634	1626	1618	1611	1611	1603	1596	1596	1596	1596	1596	1596	1596	1596	1596	1596	1596	1589	1589	1581	1581	0	0	0	0	0	1150	1150	0	0	0	0	0	0	0	0	1120	1120	1120	1120	1120	1116	1116	1116	1116	1116	1116	1113	1109	1113	1113	1113	1113	1109	1109	1109	1109	1109	1105	1105	1105	1105	1105	1105	0	0	1589	1596	1596	1596	1596	0	0	0	0	0	0	0	0	0	0	0	0	0	0	0	0	0	0	0	0	0	0	0	0	0	0	0	0	0	0	0	0	0	0	0	0	0	0
0	0	0	0	0	0	0	0	0	0	0	0	0	1567	1567	1574	1574	1581	1581	1581	1581	1581	1574	1574	1574	1574	1574	1574	1567	1567	1581	1581	1581	1589	1581	1581	1581	1574	1574	1574	1574	1581	1581	1589	1589	1589	1581	1581	1581	1581	1574	1574	1574	1574	1574	1574	1574	1574	1574	1574	1574	1581	1581	1574	1581	1581	1581	1574	1581	1581	1581	1574	1574	1581	1581	1581	1581	1581	1581	1581	1581	1574	1574	1574	1574	1574	1574	1574	1581	1581	1581	1581	1581	1581	1581	1581	1603	1596	1596	1596	1596	1596	1589	1581	1581	1581	1581	1581	1581	1581	1581	1581	1581	1581	1581	1581	1581	1581	1581	1574	1574	1581	1574	1581	1581	1581	1581	1589	1589	1603	1611	1626	1641	1641	1641	1649	1657	1665	1673	1690	1698	1706	1715	1732	1732	1750	1750	1795	1804	1814	1824	1824	1843	1843	1853	1853	1863	1904	1915	1915	1925	1936	1936	1936	1936	2063	2063	2076	2063	2063	2076	2076	2076	2063	2076	2076	2076	2088	2088	2101	2114	2127	2127	2140	2194	2237	2252	2252	2252	2266	2281	2297	2312	2312	2409	2392	2392	2426	2426	2443	2443	2460	2460	2460	0	0	7779	7779	7959	7959	7959	8146	8146	7959	7779	7779	7608	7608	7608	7608	7608	7608	7608	7779	7779	7608	7959	7959	8343	8343	8343	8343	8343	8343	8343	8146	8146	7959	7959	7779	7959	7959	7959	8146	8146	8343	8343	8343	8343	8146	8343	8146	8343	8146	8343	8343	7779	7779	0	0	4771	4706	4706	4706	4706	4706	4706	4706	4706	4706	4706	4706	4706	4706	4706	4706	4706	4706	4706	4771	4771	4771	4706	4706	4706	4643	4581	4581	4521	4521	4521	4581	4581	4581	3738	3738	3738	3738	3738	3738	3698	3698	3698	3698	3659	3698	3698	3698	3698	3698	3698	3698	3698	3738	3738	3738	3738	3738	3738	3738	3738	3738	3698	3698	3698	3698	3698	3698	3698	3698	3698	3698	3698	3698	3698	3698	3659	3659	3698	4643	4643	4643	4643	4581	4581	4581	4581	4581	4581	4581	4581	4581	4581	4581	4581	4581	4581	4463	4406	4406	4406	4521	4463	4463	4521	4521	4521	4463	4406	4350	4406	4406	4350	4406	4406	4406	4406	4406	4406	4406	4350	4350	4350	4296	4350	4350	4350	4350	4350	4463	4463	4463	4463	4463	4463	4463	4463	4463	4463	4463	4463	4463	4463	4463	4521	4581	4581	4643	4643	4643	4643	4643	4643	4643	4643	4581	4581	4581	4581	4581	4581	4581	4521	4463	4406	4350	4296	4243	4243	4192	4192	4192	4192	4581	4581	4581	4581	4581	4581	4581	4581	4581	4581	4521	4581	4521	4521	0	0	0	0	0	0	0	0	0	2460	2460	2443	2443	2443	2426	2426	2392	2376	2343	2312	2312	2297	2281	2266	2252	2237	2223	2223	2208	2194	2194	2167	2153	2140	2127	2114	2101	2088	2088	2088	2076	2076	2076	2076	2076	2039	2027	2003	1992	1969	1958	1947	1936	1904	1894	1873	1863	1863	1853	1843	1833	1804	1795	1786	1786	1777	1777	1768	1750	1732	1723	1715	1706	1706	1698	1690	1690	1681	1649	1649	1641	1641	1634	1634	1634	1626	1618	1611	1603	1603	1596	1596	1596	1596	1596	1596	1596	1596	1596	1596	1596	1589	1589	1581	1581	0	0	0	0	1153	1150	1138	1138	1138	0	0	0	0	0	0	1120	1120	1120	1120	1120	1116	1116	1116	1116	1116	1116	1113	1105	1105	1109	1113	1109	1105	1109	1109	1105	1105	1105	1105	1105	1105	1105	1105	1105	0	0	1596	1596	1596	1596	0	0	0	0	0	0	0	0	0	0	0	0	0	0	0	0	0	0	0	0	0	0	0	0	0	0	0	0	0	0	0	0	0	0	0	0	0	0
0	0	0	0	0	0	0	0	0	0	0	0	0	1567	1567	1574	1574	1581	1589	1581	1581	1581	1581	1574	1574	1574	1574	1574	1574	1581	1581	1581	1581	1581	1581	1581	1574	1574	1574	1574	1574	1581	1581	1581	1581	1581	1581	1581	1574	1574	1574	1574	1574	1574	1574	1574	1574	1574	1574	1574	1574	1574	1574	1581	1581	1581	1574	1574	1574	1581	1581	1574	1574	1581	1589	1581	1581	1581	1589	1581	1581	1581	1574	1574	1574	1574	1574	1574	1574	1581	1581	1589	1589	1581	1581	1581	1596	1589	1589	1589	1596	1589	1589	1581	1581	1581	1581	1581	1581	1581	1581	1581	1581	1581	1581	1581	1581	1581	1574	1574	1574	1581	1581	1581	1581	1589	1589	1589	1596	1603	1611	1634	1641	1641	1641	1649	1665	1673	1673	1673	1698	1706	1715	1723	1732	1741	1750	1759	1777	1786	1804	1824	1824	1843	1853	1853	1863	1894	1915	1915	1925	1936	1936	1936	2027	2027	2063	2076	2063	2063	2076	2076	2076	2063	2076	2076	2076	2088	2088	2088	2101	2127	2140	2167	2208	2237	2252	2252	2252	2266	2266	2297	2327	2327	2409	2409	2409	2426	2426	2443	2443	2443	2443	0	0	0	7608	7608	7779	7608	7779	7779	7959	7608	7608	7779	7779	7608	7608	7608	7608	7608	7608	7608	7608	7608	7779	7959	7959	8343	8343	8343	8343	8343	8343	8146	8146	8146	7959	7959	7959	8146	8146	8146	8146	8343	8343	8343	8343	8146	8343	8146	8146	8343	8343	8343	8343	7779	0	0	4771	4706	4706	4706	4706	4706	4706	4706	4706	4706	4706	4706	4706	4706	4706	4706	4706	4706	4706	4706	4706	4771	4706	4706	4706	4643	4581	4643	4521	4521	4521	4581	4581	4581	3738	3738	3738	3738	3738	3738	3698	3698	3698	3698	3698	3698	3698	3698	3698	3698	3698	3698	3698	3738	3738	3738	3738	3738	3738	3738	3738	3698	3698	3738	3698	3698	3698	3698	3698	3698	3698	3698	3738	3738	3698	3698	3698	3659	4643	4643	4643	4643	4581	4581	4581	4581	4581	4581	4581	4581	4581	4581	4581	4581	4581	4581	4521	4406	4406	4406	4463	4521	4463	4463	4521	4521	4521	4463	4406	4406	4406	4406	4406	4406	4406	4406	4406	4406	4406	4406	4350	4350	4350	4296	4350	4350	4350	4350	4350	4406	4406	4463	4463	4463	4463	4463	4463	4463	4463	4463	4463	4463	4463	4463	4521	4521	4581	4581	4581	4581	4581	4581	4643	4643	4643	4581	4581	4581	4581	4581	4581	4581	4581	4581	4581	4350	4296	4243	4243	4192	4192	4192	4192	4581	4581	4581	4581	4581	4581	4581	4581	4581	4581	4581	4581	4581	4581	0	0	0	0	0	0	0	0	0	2460	2460	2443	2443	2443	2426	2426	2392	2376	2343	2327	2312	2297	2281	2266	2252	2237	2223	2223	2208	2194	2194	2181	2167	2140	2140	2114	2114	2088	2088	2076	2076	2076	2063	2076	2063	2027	2015	1992	1980	1958	1958	1947	1915	1904	1883	1873	1863	1853	1853	1843	1833	1804	1786	1786	1777	1777	1777	1768	1750	1732	1723	1715	1715	1706	1698	1698	1690	1681	1649	1649	1641	1641	1634	1634	1634	1626	1618	1603	1603	1596	1596	1596	1596	1596	1596	1596	1596	1596	1596	1589	1589	1589	1589	1589	1589	0	0	0	0	1153	1142	1138	1142	1138	1138	0	0	0	0	1131	1131	1120	1120	1120	1116	1116	1116	1116	1116	1113	1113	1109	1105	1102	1109	1113	1109	1109	1105	1109	1105	1105	1105	1105	1105	1105	1105	1105	1105	0	0	0	1596	1596	1596	0	0	0	0	0	0	0	0	0	0	0	0	0	0	0	0	0	0	0	0	0	0	0	0	0	0	0	0	0	0	0	0	0	0	0	0	0	0
0	0	0	0	0	0	0	0	0	0	0	0	0	1567	1567	1567	1567	1574	1574	1581	1581	1581	1574	1581	1574	1574	1574	1574	1574	1581	1581	1581	1581	1581	1574	1574	1574	1574	1574	1574	1574	1581	1581	1581	1581	1581	1574	1574	1574	1574	1574	1574	1574	1574	1574	1574	1574	1574	1574	1581	1574	1581	1581	1581	1581	1581	1581	1574	1581	1581	1581	1574	1574	1574	1581	1581	1581	1581	1589	1589	1581	1581	1574	1581	1574	1574	1574	1574	1574	1581	1581	1589	1589	1581	1596	1596	1596	1589	1589	1589	1589	1589	1581	1581	1581	1581	1581	1581	1581	1581	1581	1581	1581	1581	1581	1581	1581	1581	1574	1581	1581	1581	1589	1581	1581	1589	1589	1589	1596	1603	1611	1634	1641	1641	1641	1649	1657	1665	1673	1673	1690	1698	1698	1715	1732	1741	1750	1750	1768	1786	1795	1814	1814	1833	1843	1843	1853	1883	1904	1915	1915	1925	1936	1936	2027	2051	2051	2076	2063	2063	2063	2076	2076	2063	2076	2076	2076	2088	2088	2088	2101	2127	2153	2181	2194	2223	2252	2252	2252	2266	2266	2297	2327	2327	2409	2409	2409	2426	2426	2443	2443	2443	2443	0	0	0	7608	7608	7608	7608	7608	7779	7779	7608	7779	7779	7608	7608	7608	7608	7608	7608	7444	7608	7608	7608	7608	7779	7779	8343	8343	8343	0	0	0	0	8146	8146	7959	7959	7959	8146	8146	8146	8146	8343	8343	8343	8343	8146	8146	8343	8343	8343	8343	8343	8343	0	0	0	4706	4706	4706	4706	4706	4706	4706	4706	4706	4706	4706	4706	4706	4706	4706	4706	4706	4706	4706	4706	4706	4771	4706	4706	4706	4643	4643	4643	4581	4463	4521	4521	4521	4521	3779	3779	3738	3738	3738	3738	3698	3698	3698	3698	3698	3698	3698	3698	3698	3698	3698	3698	3698	3738	3738	3738	3738	3738	3738	3738	3738	3698	3698	3698	3698	3698	3698	3698	3698	3698	3698	3698	3698	3698	3698	3698	3698	3659	4643	4643	4643	4581	4581	4581	4581	4581	4581	4581	4581	4581	4581	4581	4643	4581	4581	4581	4521	4463	4406	4406	4406	4521	4463	4463	4463	4521	4463	4463	4350	4406	4406	4406	4406	4406	4406	4350	4406	4350	4350	4350	4350	4296	4296	4296	4296	4350	4350	4350	4350	4406	4406	4463	4463	4463	4463	4521	4463	4463	4463	4463	4463	4463	4463	4463	4521	4521	4581	4581	4581	4581	4581	4581	4581	4581	4581	4581	4581	4581	4581	4581	4581	4581	4581	4581	4581	0	4296	4243	4243	0	0	0	0	4643	4643	4581	4581	4581	4581	4581	4581	4581	4581	4581	4581	4581	4521	4521	0	0	0	0	0	0	0	0	2478	2460	2443	2443	2443	2426	2426	2409	2392	2343	2327	2312	2297	2281	2266	2252	2237	2223	2223	2208	2208	2194	2181	2167	2153	2140	2114	2114	2101	2088	2088	2076	2076	2063	2063	2063	2027	1992	1980	1958	1947	1947	1936	1915	1904	1883	1873	1863	1843	1843	1833	1824	1804	1786	1786	1777	1777	1768	1768	1750	1723	1723	1715	1706	1706	1698	1690	1681	1673	1649	1649	1641	1641	1634	1641	1634	1626	1618	1603	1596	1596	1596	1596	1589	1596	1596	1596	1596	1596	1596	1596	1596	1589	1581	1589	1589	0	0	0	0	0	1146	1138	1138	1138	1138	1134	1131	1131	1131	1131	1127	1123	1123	1120	1116	1116	1116	1116	1113	1113	1109	1105	1102	1102	1109	1102	1109	1109	1102	1105	1105	1105	1105	1105	1105	1105	1105	1105	1102	1102	0	0	1596	1596	1596	0	0	0	0	0	0	0	0	0	0	0	0	0	0	0	0	0	0	0	0	0	0	0	0	0	0	0	0	0	0	0	0	0	0	0	0	0	0
0	0	0	0	0	0	0	0	0	0	0	0	0	1567	1567	1574	1567	1574	1574	1574	1574	1581	1574	1574	1574	1574	1574	1574	1574	1581	1581	1581	1581	1581	1574	1581	1581	1574	1574	1574	1574	1581	1581	1581	1581	1589	1581	1581	1574	1574	1574	1567	1574	1574	1574	1574	1574	1574	1581	1589	1581	1581	1589	1589	1589	1581	1581	1581	1581	1581	1581	1574	1574	1574	1574	1581	1581	1581	1589	1589	1589	1581	1581	1581	1574	1574	1574	1574	1574	1581	1581	1589	1581	1589	1589	1589	1596	1589	1589	1589	1589	1589	1581	1581	1581	1581	1581	1581	1574	1581	1581	1581	1581	1574	1581	1574	1581	1574	1574	1581	1581	1581	1589	1581	1581	1581	1589	1589	1596	1596	1603	1626	1634	1634	1634	1649	1649	1657	1665	1665	1690	1698	1715	1715	1732	1741	1750	1750	1768	1777	1786	1795	1814	1824	1824	1833	1843	1863	1873	1904	1904	1915	1925	1936	2039	2051	2063	2076	2076	2076	2076	2076	2076	2063	2063	2076	2076	2088	2088	2088	2114	2140	2167	2181	2194	2223	2237	2237	2252	2252	2266	2297	2297	2392	2392	2392	2409	2409	2426	2443	2443	2426	2426	0	0	0	7608	7444	7444	7608	7608	7608	7608	7779	7779	7779	7608	7608	7608	7608	7608	7608	7444	7608	7608	7608	7608	7779	7444	7959	7959	7959	0	0	0	0	0	0	0	0	7959	8146	8146	8146	8146	8343	8343	8343	8343	8146	8146	8343	8550	8343	8550	8343	8343	0	0	4706	4706	4706	4706	4706	4706	4706	4706	4706	4706	4706	4706	4706	4706	4706	4706	4706	4706	4706	4706	4706	4706	4706	4706	4706	4706	4643	4643	4643	4581	4521	4463	4521	4521	4521	3779	3779	3779	3779	3738	3738	3738	3698	3698	3698	3698	3698	3698	3698	3698	3698	3698	3698	3698	3738	3738	3738	3779	3779	3779	3779	3738	3738	3698	3698	3698	3698	3698	3698	3698	3698	3698	3698	3698	3698	3698	3698	3659	3621	3621	4643	4581	4581	4581	4581	4581	4581	4581	4581	4581	4581	4581	4643	4643	4643	4581	4581	4581	4521	4406	4406	4463	4521	4406	4463	4463	4521	4463	4463	4350	4406	4406	4406	4406	4406	4406	4406	4406	4406	4350	4296	4296	4296	4296	4296	4296	4350	4350	4350	4350	4406	4406	4463	4463	4463	4463	4463	4463	4463	4463	4463	4463	4463	4463	4463	4463	4521	4521	4581	4581	4581	4581	4581	4581	4581	4581	4581	4581	4581	4581	4581	4581	4643	4643	4643	0	0	0	0	0	0	0	0	4643	4643	4643	4581	4581	4581	4581	4581	4581	4581	4581	4581	4581	4581	4581	4581	0	0	0	0	0	0	0	0	2496	2460	2460	2460	2443	2426	2426	2409	2392	2343	2327	2327	2312	2297	2266	2252	2237	2237	2223	2208	2194	2194	2181	2167	2140	2140	2114	2114	2101	2088	2088	2076	2063	2051	2063	2051	2003	1969	1958	1947	1936	1936	1925	1904	1894	1873	1863	1853	1843	1833	1833	1824	1804	1795	1786	1777	1777	1768	1750	1741	1723	1715	1715	1706	1706	1698	1690	1681	1673	1657	1649	1649	1641	1634	1634	1634	1626	1618	1603	1596	1596	1596	1596	1589	1589	1589	1596	1589	1589	1596	1596	1589	1589	1589	1574	1574	0	0	0	0	1153	1150	1142	1142	1138	1134	1134	1134	1131	1131	1131	1127	1127	1123	1120	1120	1116	1116	1116	1113	1113	1105	1105	1102	1102	1105	1105	1102	1102	1102	1105	1105	1105	1102	1105	1105	1105	1105	1105	1105	1105	0	0	0	1596	1596	0	0	0	0	0	0	0	0	0	0	0	0	0	0	0	0	0	0	0	0	0	0	0	0	0	0	0	0	0	0	0	0	0	0	0	0	0	0
0	0	0	0	0	0	0	0	0	0	0	0	0	1567	1567	1567	1567	1574	1574	1574	1574	1574	1574	1574	1574	1574	1574	1574	1574	1581	1581	1581	1574	1581	1574	1574	1574	1574	1574	1574	1574	1574	1581	1581	1581	1581	1574	1574	1574	1574	1574	1567	1574	1574	1574	1574	1574	1574	1581	1581	1581	1581	1589	1589	1589	1581	1581	1581	1581	1581	1581	1574	1574	1574	1581	1581	1581	1581	1589	1589	1596	1589	1581	1581	1581	1581	1574	1574	1574	1574	1581	1589	1581	1589	1589	1589	1589	1589	1581	1581	1581	1581	1581	1581	1581	1581	1581	1581	1581	1581	1581	1581	1581	1581	1581	1574	1581	1581	1581	1581	1581	1589	1589	1581	1581	1581	1581	1589	1589	1589	1596	1626	1626	1626	1634	1641	1649	1649	1665	1681	1690	1698	1715	1715	1723	1741	1750	1750	1768	1777	1786	1786	1804	1814	1824	1833	1843	1853	1883	1894	1904	1915	1925	1925	1925	2051	2063	2076	2076	2076	2076	2076	2076	2063	2076	2076	2076	2088	2088	2101	2127	2140	2153	2181	2194	2208	2237	2237	2237	2252	2252	2281	2359	2376	2376	2392	2409	2426	2426	2443	2443	2460	2478	2478	0	0	7608	7608	7608	7608	7608	7608	7779	7608	7608	7608	7608	7608	7608	7444	7444	7444	7444	7444	7608	7444	7608	7608	7608	7959	7959	7959	0	0	0	0	0	0	0	0	0	0	0	0	8146	8550	8550	8550	8343	0	0	0	8550	8343	8550	8550	8343	0	0	4706	4706	4706	4706	4706	4706	4706	4706	4706	4706	4706	4706	4706	4706	4706	4706	4706	4706	4706	4706	4706	4706	4706	4706	4706	4706	4643	4643	4643	4581	4521	4521	4521	4521	4521	3779	3779	3779	3779	3738	3738	3738	3698	3698	3698	3698	3698	3698	3698	3698	3698	3698	3698	3698	3738	3738	3738	3779	3779	3779	3779	3738	3738	3738	3738	3698	3698	3698	3738	3698	3698	3698	3698	3698	3698	3698	3659	3659	3621	4643	4581	4581	4581	4581	4581	4581	4581	4581	4581	4581	4581	4581	4643	4643	4581	4581	4581	4581	4521	4406	4406	4463	4463	4463	4463	4521	4521	4463	4463	4463	4406	4406	4406	4406	4406	4406	4406	4406	4406	4350	4350	4350	4350	4350	4296	4296	4350	4350	4350	4350	4463	4406	4463	4463	4463	4463	4521	4463	4463	4463	4463	4463	4463	4406	4406	4406	4463	4463	4521	4581	4581	4581	4581	4581	4581	4581	4581	4581	4581	4581	4581	4581	4643	4643	4643	0	0	0	0	0	0	0	0	4581	4581	4581	4581	4581	4581	4581	4581	4581	4581	4581	4581	4581	4581	4581	4581	0	0	0	0	0	0	0	0	2496	2478	2460	2460	2443	2426	2426	2392	2376	2376	2343	2327	2312	2297	2266	2252	2237	2237	2223	2208	2194	2194	2181	2153	2140	2127	2114	2114	2101	2088	2076	2076	2063	2051	2051	2015	1958	1958	1947	1947	1936	1936	1925	1915	1894	1873	1863	1853	1843	1833	1833	1824	1804	1795	1786	1777	1777	1777	1768	1750	1715	1715	1715	1706	1698	1690	1690	1681	1673	1657	1649	1649	1641	1634	1634	1634	1626	1618	1603	1596	1603	1596	1596	1596	1589	1596	1596	1596	1589	1596	1596	1589	1589	1589	1581	1581	0	0	0	1150	1150	1146	1142	1138	1134	1134	1134	1134	1131	1131	1131	1131	1127	1127	1120	1120	1120	1116	1116	1116	1113	1113	1105	1102	1102	1105	1102	1105	1102	1102	1105	1105	1105	1102	1105	1105	1105	1102	1102	1102	1102	0	0	0	1589	1589	0	0	0	0	0	0	0	0	0	0	0	0	0	0	0	0	0	0	0	0	0	0	0	0	0	0	0	0	0	0	0	0	0	0	0	0	0	0
0	0	0	0	0	0	0	0	0	0	0	0	0	1567	1574	1574	1567	1574	1574	1574	1574	1581	1574	1574	1574	1574	1574	1574	1574	1574	1574	1574	1574	1581	1581	1581	1581	1574	1574	1574	1574	1574	1574	1581	1574	1581	1574	1574	1574	1574	1574	1574	1574	1574	1574	1574	1581	1581	1589	1581	1581	1581	1589	1589	1589	1581	1581	1581	1581	1581	1581	1574	1574	1574	1581	1581	1581	1581	1589	1589	1596	1589	1589	1589	1581	1581	1574	1581	1574	1574	1574	1581	1581	1581	1589	1581	1589	1581	1581	1581	1581	1581	1581	1581	1581	1581	1581	1581	1574	1574	1574	1581	1581	1574	1581	1574	1581	1581	1581	1581	1581	1589	1589	1581	1581	1581	1581	1581	1589	1589	1596	1626	1626	1634	1634	1641	1649	1649	1665	1681	1698	1706	1715	1723	1732	1741	1750	1750	1768	1777	1777	1786	1804	1814	1824	1833	1853	1863	1873	1883	1894	1894	1925	1925	1925	2051	2063	2063	2076	2063	2063	2076	2076	2063	2063	2076	2076	2088	2101	2101	2127	2140	2167	2167	2194	2208	2223	2223	2237	2252	2266	2297	2343	2376	2376	2392	2392	2409	2426	2426	2443	2460	2478	2478	0	0	0	7608	7608	7608	7608	7779	7779	7779	7779	7779	7779	7779	7608	7608	7608	7608	7444	7444	7608	7444	7608	7608	7779	7959	7959	7959	0	0	0	0	0	0	0	0	0	0	0	0	0	8550	8550	8550	0	0	0	0	0	0	8550	8550	0	0	4706	4706	4706	4706	4706	4706	4706	4706	4706	4706	4706	4706	4771	4771	4706	4706	4706	4706	4771	4706	4706	4706	4771	4706	4706	4706	4706	4643	4643	4581	4581	4581	4521	4521	4521	4463	4463	3779	3779	3779	3738	3738	3738	3738	3698	3698	3698	3698	3698	3698	3698	3698	3698	3698	3698	3738	3738	3779	3779	3779	3779	3779	3738	3738	3738	3738	3738	3738	3698	3738	3738	3698	3698	3698	3698	3698	3698	3659	3659	3583	4643	4643	4643	4581	4581	4581	4581	4581	4581	4581	4581	4581	4581	4643	4643	4581	4581	4581	4581	4521	4463	4463	4521	4521	4463	4463	4463	4521	4463	4463	4406	4406	4406	4406	4406	4406	4406	4350	4406	4406	4350	4350	4350	4350	4350	4296	4296	4350	4350	4350	4350	4406	4406	4463	4463	4463	4463	4521	4521	4463	4463	4463	4463	4463	4406	4406	4406	4406	4463	4463	4521	4521	4581	4581	4581	4581	4581	4581	4581	4581	4521	4581	4581	4581	4581	0	0	0	0	0	0	0	0	4463	4521	4581	4581	4581	4581	4581	4581	4643	4643	4643	4581	4643	4643	4581	4581	4581	0	0	0	0	0	0	0	0	2496	2478	2460	2460	2443	2426	2409	2392	2376	2376	2343	2327	2312	2297	2266	2252	2237	2237	2223	2208	2194	2194	2181	2167	2140	2127	2114	2101	2088	2088	2076	2076	2063	2039	2039	1980	1958	1958	1947	1936	1936	1925	1915	1915	1894	1873	1863	1853	1843	1843	1833	1824	1804	1795	1786	1786	1777	1777	1768	1741	1715	1715	1706	1706	1698	1698	1690	1681	1681	1673	1649	1649	1641	1634	1634	1626	1626	1618	1611	1603	1596	1596	1596	1589	1596	1596	1596	1596	1596	1596	1596	1589	1589	1589	1581	1581	0	0	0	1150	1150	1146	1138	1138	1134	1134	1134	1131	1131	1131	1131	1131	1127	1127	1123	1120	1116	1116	1116	1113	1113	1109	1105	1102	1102	1102	1102	1102	1102	1102	1105	1102	1102	1102	1105	1102	1102	1102	1102	1102	1102	0	0	0	1589	1589	0	0	0	0	0	0	0	0	0	0	0	0	0	0	0	0	0	0	0	0	0	0	0	0	0	0	0	0	0	0	0	0	0	0	0	0	0	0
0	0	0	0	0	0	0	0	0	0	0	0	0	1567	1567	1574	1567	1574	1574	1574	1574	1574	1574	1574	1574	1574	1574	1574	1574	1574	1574	1574	1574	1574	1581	1581	1581	1574	1574	1574	1574	1574	1574	1574	1574	1581	1574	1581	1574	1574	1574	1574	1574	1574	1581	1574	1574	1581	1581	1581	1574	1574	1581	1581	1581	1581	1581	1581	1581	1581	1574	1574	1574	1574	1574	1574	1581	1581	1581	1581	1589	1581	1589	1589	1581	1581	1574	1581	1574	1574	1574	1581	1581	1581	1589	1581	1581	1581	1581	1581	1581	1581	1581	1581	1581	1581	1581	1581	1574	1574	1574	1581	1581	1581	1581	1581	1581	1589	1581	1581	1581	1589	1589	1581	1581	1581	1581	1581	1589	1589	1603	1618	1626	1634	1634	1641	1649	1649	1665	1690	1698	1706	1715	1723	1723	1741	1750	1750	1759	1768	1777	1786	1804	1814	1824	1833	1853	1853	1873	1883	1894	1894	1925	1925	1936	1936	2051	2063	2063	2063	2063	2076	2076	2063	2063	2076	2088	2101	2101	2114	2140	2153	2167	2167	2194	2208	2223	2237	2237	2252	2266	2281	2359	2359	2376	2376	2392	2409	2409	2426	2426	2443	2443	2443	0	0	0	7779	7608	7608	7608	7608	7608	7608	7608	7779	7779	7608	7608	7608	7608	7608	7444	7444	7444	7444	7444	7444	7608	7779	7779	7779	0	0	0	0	0	0	0	0	0	0	0	0	0	0	0	0	0	0	0	0	0	0	0	0	0	0	4706	4706	4706	4706	4706	4706	4706	4706	4706	4706	4706	4706	4771	4706	4706	4706	4706	4706	4706	4706	4706	4771	4771	4706	4706	4706	4706	4643	4581	4581	4581	4581	4463	4521	4521	4463	4463	3779	3779	3779	3738	3738	3738	3738	3698	3698	3698	3698	3698	3698	3698	3698	3698	3698	3698	3738	3738	3779	3821	3779	3779	3779	3738	3738	3738	3698	3738	3738	3698	3738	3738	3698	3698	3698	3698	3698	3698	3659	3659	3583	4581	4581	4581	4581	4581	4581	4581	4521	4581	4581	4581	4581	4581	4581	4581	4521	4521	4521	4521	4463	4406	4463	4521	4463	4463	4463	4463	4463	4463	4406	4406	4406	4406	4406	4406	4406	4406	4406	4406	4406	4350	4350	4350	4350	4406	4350	4350	4350	4350	4350	4350	4406	4406	4463	4463	4463	4463	4521	4463	4463	4463	4463	4463	4463	4406	4406	4406	4406	4406	4406	4521	4521	4581	4581	4581	4581	4581	4581	4581	4581	4521	4521	4521	4521	4521	0	0	0	0	0	0	0	0	4463	4521	4581	4581	4581	4581	4581	4581	4581	4643	4643	4643	4643	4643	4643	4643	4643	0	0	0	0	0	0	0	2478	2478	2478	2460	2460	2443	2426	2409	2392	2376	2376	2343	2327	2312	2297	2266	2252	2237	2237	2208	2194	2194	2194	2181	2167	2153	2127	2114	2088	2088	2076	2076	2063	2039	2039	2015	1969	1947	1947	1947	1936	1936	1925	1915	1915	1894	1873	1863	1853	1843	1843	1833	1824	1824	1795	1786	1777	1777	1777	1768	1741	1715	1715	1706	1706	1698	1698	1690	1681	1673	1665	1649	1641	1641	1634	1634	1626	1626	1618	1611	1603	1596	1596	1596	1596	1596	1596	1596	1596	1596	1589	1589	1589	1589	1574	1574	1581	0	0	0	0	1150	1146	1138	1134	1134	1134	1134	1131	1131	1131	1131	1127	1127	1127	1120	1120	1116	1116	1116	1113	1109	1105	1102	1102	1102	1102	1102	1105	1102	1102	1105	1102	1102	1102	1102	1102	1102	1102	1102	1105	1105	0	0	0	0	0	0	0	0	0	0	0	0	0	0	0	0	0	0	0	0	0	0	0	0	0	0	0	0	0	0	0	0	0	0	0	0	0	0	0	0	0	0	0
0	0	0	0	0	0	0	0	0	0	0	0	0	1574	1574	1574	1567	1574	1574	1574	1574	1574	1574	1574	1574	1574	1574	1574	1574	1574	1574	1574	1574	1574	1574	1574	1574	1574	1574	1574	1574	1574	1574	1574	1574	1574	1574	1574	1574	1574	1574	1574	1574	1574	1574	1574	1574	1574	1581	1581	1574	1574	1574	1581	1574	1574	1574	1581	1581	1581	1581	1574	1581	1574	1574	1574	1574	1581	1581	1581	1589	1589	1589	1589	1581	1581	1581	1581	1581	1574	1574	1581	1581	1581	1581	1581	1581	1581	1581	1581	1581	1581	1581	1581	1581	1581	1581	1581	1574	1574	1574	1581	1581	1581	1581	1581	1589	1589	1589	1589	1589	1589	1589	1589	1581	1581	1581	1581	1589	1589	1603	1611	1618	1634	1634	1641	1649	1649	1665	1690	1698	1706	1706	1715	1723	1732	1750	1750	1777	1777	1786	1786	1804	1814	1833	1843	1853	1863	1873	1883	1894	1894	1915	1925	1936	1936	1936	2063	2051	2063	2063	2076	2063	2063	2063	2076	2088	2088	2114	2127	2140	2153	2181	2181	2194	2208	2223	2237	2252	2252	2266	2312	2359	2343	2359	2376	2392	2392	2409	2426	2426	2443	2460	2460	0	0	0	7959	7779	7608	7608	7608	7608	7608	7779	7608	7608	7608	7608	7608	7608	7608	7444	7444	7444	7444	7287	7444	7444	7608	7608	7608	0	0	0	0	0	0	0	0	0	0	0	0	0	0	0	0	0	0	0	0	0	0	0	0	0	0	4643	4643	4643	4706	4706	4643	4706	4706	4706	4706	4706	4706	4706	4706	4706	4706	4706	4706	4706	4706	4706	4706	4771	4706	4706	4706	4643	4643	4581	4521	4581	4521	4463	4463	4463	4463	4406	4406	3738	3738	3738	3738	3738	3698	3698	3698	3698	3698	3698	3698	3698	3698	3698	3698	3698	3698	3738	3779	3821	3779	3779	3779	3779	3738	3698	3698	3698	3738	3698	3738	3698	3698	3698	3698	3698	3698	3659	3621	3621	4581	4581	4581	4521	4521	4521	4521	4521	4521	4521	4521	4581	4521	4521	4521	4521	4521	4463	4406	4406	4406	4406	4406	4521	4521	4521	4463	4463	4463	4463	4406	4406	4406	4406	4463	4463	4406	4406	4406	4406	4406	4350	4350	4350	4350	4406	4350	4350	4350	4350	4350	4350	4463	4406	4463	4521	4463	4463	4521	4463	4463	4463	4463	4463	4463	4406	4406	4406	4463	4463	4463	4521	4581	4581	4581	4581	4581	4581	4581	4581	4521	4521	4521	4463	4463	4406	4406	4406	0	0	0	0	0	0	0	4521	4521	4581	4581	4581	4581	4581	4581	4643	4581	4581	4643	4643	4643	4643	4643	0	0	0	0	0	0	0	2496	2478	2478	2460	2443	2426	2409	2392	2376	2376	2376	2359	2343	2312	2297	2266	2252	2252	2237	2223	2194	2194	2194	2181	2167	2153	2127	2114	2088	2088	2076	2076	2063	2039	2027	2003	1958	1947	1947	1947	1936	1936	1925	1915	1904	1883	1873	1863	1853	1843	1843	1833	1824	1824	1795	1786	1777	1777	1777	1759	1750	1723	1715	1706	1706	1698	1698	1690	1690	1681	1673	1649	1649	1641	1641	1641	1626	1626	1618	1611	1611	1603	1596	1596	1596	1596	1596	1596	1596	1596	1596	1596	1589	1589	1589	1589	0	0	0	0	0	1142	1142	1138	1134	1134	1134	1134	1131	1131	1131	1131	1127	1127	1123	1120	1116	1116	1116	1116	1113	1109	1105	1102	1102	1102	1102	1105	1105	1105	1105	1105	1105	1102	1102	1102	1102	1102	1102	1095	1095	1105	0	0	0	0	0	0	0	0	0	0	0	0	0	0	0	0	0	0	0	0	0	0	0	0	0	0	0	0	0	0	0	0	0	0	0	0	0	0	0	0	0	0	0
0	0	0	0	0	0	0	0	0	0	0	0	0	1567	1567	1567	1567	1574	1567	1567	1574	1574	1574	1574	1574	1574	1574	1574	1574	1574	1574	1567	1574	1574	1574	1574	1574	1574	1574	1574	1574	1574	1574	1574	1574	1574	1574	1574	1574	1574	1567	1567	1567	1574	1574	1574	1574	1574	1581	1581	1574	1574	1581	1581	1574	1581	1581	1589	1581	1581	1574	1574	1574	1574	1574	1574	1574	1574	1581	1581	1589	1589	1589	1589	1589	1581	1581	1581	1574	1574	1574	1581	1581	1581	1581	1581	1581	1581	1581	1581	1581	1581	1581	1581	1581	1581	1581	1581	1574	1574	1581	1581	1581	1581	1581	1581	1581	1589	1589	1589	1589	1589	1589	1589	1581	1581	1581	1589	1596	1589	1603	1611	1618	1626	1634	1641	1649	1649	1665	1690	1698	1706	1706	1715	1723	1732	1750	1759	1768	1777	1786	1795	1804	1804	1824	1843	1853	1853	1873	1873	1883	1915	1925	1936	1936	1936	1936	2039	2051	2063	2063	2076	2063	2063	2063	2063	2076	2088	2114	2127	2140	2153	2181	2181	2194	2208	2223	2237	2237	2252	2297	2312	2327	2343	2359	2376	2392	2409	2409	2426	2426	2460	2460	2460	0	0	0	7959	7779	7608	7608	7608	7779	7608	7779	7608	7608	7608	7608	7608	7608	7608	7444	7444	7444	7444	7287	7287	7444	7444	7608	7608	0	0	0	0	0	0	0	0	0	0	0	0	0	0	0	0	0	0	0	0	0	0	0	0	0	0	4643	4643	4643	4643	4643	4643	4706	4706	4706	4706	4706	4706	4706	4771	4706	4706	4706	4706	4706	4706	4706	4706	4771	4706	4706	4706	4643	4581	4521	4521	4521	4521	4463	4406	4406	4463	4406	4406	3738	3738	3738	3738	3738	3738	3738	3698	3698	3698	3698	3698	3698	3698	3698	3698	3698	3698	3738	3738	3779	3779	3779	3779	3738	3738	3738	3698	3698	3738	3738	3698	3698	3698	3698	3698	3698	3698	3698	3621	3621	4581	4521	4521	4463	4463	4463	4521	4521	4521	4521	4521	4521	4521	4463	4463	4463	4463	4406	4406	4406	4406	4406	4406	4463	4463	4463	4406	4463	4463	4406	4406	4406	4406	4406	4406	4406	4406	4406	4350	4406	4406	4406	4350	4406	4406	4406	4350	4350	4350	4350	4350	4350	4406	4406	4463	4463	4463	4406	4521	4521	4521	4463	4463	4463	4463	4406	4406	4406	4406	4406	4406	4521	4581	4581	4581	4581	4581	4581	4581	4581	4521	4521	4521	4521	4463	4463	4406	4406	0	0	0	0	0	0	4406	4463	4521	4581	4581	4581	4581	4581	4581	4581	4643	4581	4581	4581	4581	4581	4581	0	0	0	0	0	2496	2496	2496	2496	2478	2443	2443	2426	2409	2392	2376	2376	2376	2343	2327	2297	2281	2266	2252	2252	2237	2223	2194	2194	2194	2181	2167	2153	2127	2114	2088	2088	2076	2076	2051	2039	2027	2003	1958	1947	1947	1947	1936	1936	1925	1915	1904	1883	1873	1863	1853	1843	1833	1833	1824	1814	1804	1786	1777	1777	1777	1759	1750	1741	1715	1715	1706	1698	1698	1698	1690	1681	1673	1649	1649	1641	1641	1641	1626	1626	1618	1618	1611	1603	1603	1596	1596	1596	1596	1596	1596	1596	1596	1589	1589	1589	1589	1589	0	0	0	0	0	1142	1138	1134	1134	1134	1131	1131	1131	1131	1131	1131	1127	1127	1123	1120	1116	1116	1116	1116	1113	1109	1105	1102	1102	1102	1102	1105	1105	1105	1105	1105	1105	1102	1102	1102	1102	1098	1102	1095	1095	1095	0	0	0	0	0	0	0	0	0	0	0	0	0	0	0	0	0	0	0	0	0	0	0	0	0	0	0	0	0	0	0	0	0	0	0	0	0	0	0	0	0	0	0
0	0	0	0	0	0	0	0	0	0	0	0	0	1567	1567	1567	1567	1574	1567	1574	1574	1567	1567	1567	1574	1574	1567	1574	1567	1567	1567	1567	1567	1574	1574	1574	1574	1574	1574	1574	1574	1574	1574	1574	1574	1574	1574	1574	1574	1574	1567	1567	1567	1567	1574	1574	1574	1574	1574	1574	1574	1574	1574	1581	1574	1581	1581	1589	1581	1581	1581	1574	1574	1574	1574	1574	1574	1574	1574	1574	1581	1581	1589	1589	1581	1581	1574	1574	1574	1574	1574	1581	1581	1581	1581	1581	1581	1581	1581	1581	1581	1581	1581	1581	1581	1581	1581	1581	1581	1581	1574	1581	1581	1581	1581	1581	1589	1589	1589	1581	1581	1581	1581	1581	1581	1581	1581	1589	1596	1596	1603	1611	1618	1626	1634	1641	1649	1649	1665	1690	1698	1706	1715	1715	1723	1732	1741	1750	1768	1777	1795	1795	1804	1814	1824	1843	1853	1853	1873	1883	1894	1915	1925	1936	1936	1936	1936	1936	2063	2076	2076	2076	2076	2063	2063	2063	2088	2088	2127	2140	2140	2153	2181	2181	2194	2208	2223	2237	2237	2252	2297	2312	2327	2343	2359	2376	2392	2409	2409	2426	2443	2460	2460	2460	0	0	0	7959	7779	7608	7608	7779	7779	7608	7779	7608	7608	7608	7608	7608	7608	7444	7444	7444	7444	7287	7137	7137	7137	7444	0	0	0	0	0	0	0	0	0	0	0	0	0	0	0	0	0	0	0	0	0	0	0	0	0	0	0	4581	4643	4643	4643	4643	4643	4643	4706	4706	4706	4706	4706	4706	4643	4771	4706	4706	4706	4771	4706	4706	4706	4706	4706	4706	4706	4706	4643	4581	4521	4521	4521	4463	4463	4406	4406	4406	4350	4406	3738	3738	3738	3738	3738	3738	3738	3738	3698	3698	3698	3698	3698	3698	3698	3698	3698	3698	3738	3738	3779	3779	3779	3779	3738	3738	3738	3698	3738	3738	3698	3698	3698	3698	3738	3698	3698	3698	3698	3621	3621	4463	4463	4463	4463	4350	4406	4463	4521	4463	4463	4521	4521	4521	4463	4463	4463	4463	4406	4406	4406	4406	4350	4406	4406	4463	4463	4463	4463	4463	4406	4406	4406	4463	4406	4463	4406	4406	4406	4350	4406	4406	4350	4350	4406	4406	4406	4406	4350	4350	4406	4406	4350	4350	4406	4406	4406	4406	4406	4463	4463	4463	4463	4463	4463	4463	4406	4406	4406	4406	4406	4463	4521	4581	4581	4581	4581	4581	4581	4581	4581	4581	4521	4521	4521	4463	4463	4406	4406	0	0	0	0	0	0	4406	4406	4463	4521	4581	4581	4581	4581	4581	4581	4581	4581	4581	4581	4581	4581	4581	0	0	0	0	0	2496	2496	2496	2478	2478	2443	2443	2426	2409	2392	2376	2376	2359	2343	2312	2297	2297	2266	2252	2252	2237	2223	2194	2194	2194	2181	2153	2140	2127	2114	2088	2088	2076	2076	2063	2051	2039	2003	1958	1947	1947	1947	1947	1936	1925	1915	1904	1883	1873	1863	1853	1843	1833	1833	1824	1814	1804	1786	1786	1777	1777	1768	1759	1750	1723	1715	1706	1706	1698	1690	1690	1681	1681	1657	1641	1634	1634	1634	1626	1626	1618	1618	1611	1603	1603	1596	1596	1596	1596	1596	1596	1596	1589	1589	1589	1589	1596	1596	0	0	0	0	0	0	1134	1134	1134	1131	1134	1131	1131	1131	1127	1131	1127	1123	1123	1120	1120	1116	1116	1116	1113	1109	1105	1105	1102	1102	1105	1105	1105	1105	1105	1105	1105	1105	1105	1105	1105	1105	1105	1105	1095	1095	0	0	0	0	0	0	0	0	0	0	0	0	0	0	0	0	0	0	0	0	0	0	0	0	0	0	0	0	0	0	0	0	0	0	0	0	0	0	0	0	0	0	0
0	0	0	0	0	0	0	0	0	0	0	0	0	1567	1567	1567	1567	1574	1574	1574	1574	1567	1567	1567	1567	1574	1567	1567	1567	1567	1567	1567	1574	1574	1574	1574	1574	1574	1574	1574	1574	1574	1567	1574	1574	1574	1574	1574	1574	1574	1567	1567	1567	1567	1574	1574	1574	1574	1574	1574	1574	1574	1574	1574	1574	1574	1581	1581	1581	1581	1574	1574	1581	1574	1574	1574	1574	1574	1574	1574	1574	1581	1581	1581	1581	1574	1574	1574	1574	1574	1574	1581	1581	1581	1581	1581	1581	1581	1581	1581	1581	1581	1581	1589	1581	1581	1581	1581	1581	1581	1581	1581	1581	1581	1581	1581	1581	1589	1581	1581	1581	1581	1581	1589	1581	1581	1581	1596	1596	1596	1603	1611	1618	1634	1634	1641	1649	1649	1665	1690	1698	1706	1715	1715	1723	1732	1741	1759	1768	1786	1786	1795	1804	1814	1833	1853	1853	1863	1863	1883	1883	1915	1915	1936	1936	1925	1936	1936	2076	2076	2076	2076	2063	2063	2063	2076	2088	2088	2114	2127	2140	2153	2181	2194	2194	2208	2223	2237	2252	2266	2297	2297	2312	2327	2343	2359	2376	2392	2409	2426	2443	2443	2460	2460	0	0	0	7959	7779	7608	7608	7608	7608	7608	7608	7608	7608	7608	7608	7608	7608	7608	7608	7608	7444	7287	7287	7137	7137	0	0	0	0	0	0	0	0	0	0	0	0	0	0	0	0	0	0	0	0	0	0	0	0	0	0	0	0	4581	4581	4643	4643	4706	4706	4706	4706	4706	4706	4706	4706	4706	4706	4706	4706	4706	4706	4706	4771	4706	4706	4706	4706	4706	4706	4706	4643	4581	4521	4521	4521	4463	4463	4406	4350	4406	4350	4406	3738	3738	3738	3738	3738	3738	3738	3738	3698	3698	3698	3698	3698	3698	3698	3698	3698	3698	3698	3738	3779	3779	3779	3779	3779	3738	3738	3738	3738	3738	3738	3698	3698	3698	3698	3698	3698	3698	3698	3621	3621	4521	4463	4463	4406	4350	4350	4350	4406	4463	4463	4463	4521	4521	4463	4406	4406	4406	4406	4406	4406	4350	4350	4406	4406	4406	4406	4406	4406	4406	4406	4406	4406	4406	4406	4463	4463	4406	4406	4406	4463	4463	4463	4406	4406	4463	4463	4406	4350	4350	4406	4350	4350	4406	4406	4406	4406	4463	4463	4463	4463	4463	4463	4463	4463	4463	4406	4406	4463	4463	4463	4463	4521	4581	4581	4581	4581	4581	4581	4581	4581	4581	4581	4521	4521	4521	4463	4406	4406	0	0	0	0	0	0	4350	4406	4463	4463	4521	4581	4581	4581	4581	4581	4581	4581	4581	4581	4581	4581	0	0	0	0	0	0	0	2478	2478	2478	2443	2443	2443	2426	2409	2392	2376	2376	2359	2343	2312	2297	2297	2266	2252	2252	2237	2223	2194	2194	2181	2167	2153	2140	2127	2114	2088	2088	2076	2076	2063	2076	2076	2076	1958	1947	1947	1947	1947	1936	1925	1915	1904	1883	1873	1863	1853	1843	1843	1833	1824	1824	1795	1786	1786	1777	1777	1759	1750	1741	1715	1715	1706	1706	1698	1698	1690	1681	1681	1673	1641	1634	1626	1634	1626	1626	1618	1618	1611	1603	1596	1596	1589	1596	1589	1596	1596	1596	1596	1589	1589	1596	1596	1596	1596	0	0	0	0	0	1134	1138	1134	1134	1134	1131	1131	1127	1127	1127	1123	1120	1120	1120	1120	1116	1116	1113	1113	1109	1105	1105	1105	1102	1102	1105	1105	1105	1102	1102	1105	1105	1105	1105	1105	1105	1105	1105	0	0	0	0	0	0	0	0	0	0	0	0	0	0	0	0	0	0	0	0	0	0	0	0	0	0	0	0	0	0	0	0	0	0	0	0	0	0	0	0	0	0	0	0	0
0	0	0	0	0	0	0	0	0	0	0	0	0	1567	1567	1567	1567	1574	1574	1574	1574	1574	1567	1567	1567	1574	1567	1567	1567	1567	1567	1567	1567	1574	1574	1574	1574	1574	1574	1574	1574	1574	1574	1574	1574	1574	1567	1574	1567	1574	1567	1567	1567	1574	1574	1574	1574	1574	1574	1574	1574	1574	1574	1574	1574	1574	1581	1581	1581	1581	1574	1574	1581	1574	1574	1574	1574	1574	1574	1574	1574	1574	1574	1581	1574	1574	1574	1574	1574	1574	1574	1581	1581	1581	1581	1581	1581	1581	1581	1581	1581	1589	1589	1589	1589	1589	1589	1581	1581	1574	1574	1581	1581	1581	1581	1581	1581	1581	1581	1581	1581	1581	1581	1581	1589	1581	1581	1596	1596	1596	1603	1611	1618	1634	1634	1641	1649	1649	1665	1690	1698	1706	1715	1715	1732	1732	1750	1759	1777	1786	1795	1804	1814	1814	1833	1843	1843	1863	1883	1894	1904	1915	1925	1936	1936	1936	1936	1936	2076	2076	2063	2076	2076	2063	2063	2063	2088	2101	2114	2127	2127	2153	2181	2194	2208	2223	2223	2237	2252	2297	2312	2312	2312	2327	2343	2343	2343	2392	2409	2426	2443	2443	2443	2460	2460	0	0	7959	7779	7608	7608	7608	7608	7608	7608	7608	0	7444	7444	7444	7608	7608	7608	7608	7444	7287	7287	7287	0	0	0	0	0	0	0	0	0	0	0	0	0	0	0	0	0	0	0	0	0	0	0	0	0	0	0	0	0	0	4643	4706	4706	4706	4706	4643	4706	4706	4706	4706	4706	4706	4706	4706	4706	4706	4706	4706	4706	4706	4706	4706	4706	4706	4706	4643	4643	4581	4521	4463	4463	4463	4406	4406	4406	4463	4350	4406	3738	3738	3738	3738	3738	3738	3738	3738	3698	3698	3698	3698	3698	3698	3698	3698	3698	3698	3698	3738	3779	3738	3779	3779	3779	3738	3738	3738	3738	3738	3738	3738	3738	3738	3738	3698	3698	3698	3698	3659	3659	4463	4463	4463	4406	4350	4350	4350	4406	4406	4406	4521	4521	4463	4406	4406	4406	4406	4406	4406	4463	4350	4350	4463	4463	4406	4406	4350	4350	4350	4350	4350	4350	4406	4406	4406	4463	4406	4406	4406	4406	4406	4406	4406	4406	4463	4406	4406	4406	4350	4350	4350	4350	4406	4406	4406	4406	4406	4406	4406	4406	4406	4406	4406	4406	4406	4406	4463	4463	4463	4463	4521	4521	4643	4643	4643	4643	4643	4581	4581	4581	4581	4581	4521	4521	4521	4463	4406	4406	0	0	0	0	0	0	4350	4350	4463	4521	4521	4521	4521	4581	4581	4581	4581	4581	4521	4521	4581	0	0	0	0	0	0	0	0	2478	2478	2460	2443	2426	2426	2426	2409	2392	2376	2376	2359	2343	2312	2297	2297	2281	2266	2252	2237	2237	2208	2194	2181	2181	2153	2140	2127	2114	2088	2088	2076	2076	2076	2076	2076	2003	1958	1947	1947	1947	1947	1936	1925	1915	1894	1883	1873	1863	1863	1853	1843	1843	1833	1824	1795	1786	1786	1777	1768	1759	1750	1741	1723	1715	1706	1706	1706	1698	1690	1681	1681	1673	1641	1641	1641	1634	1626	1626	1618	1618	1611	1603	1596	1596	1589	1596	1589	1596	1596	1596	1596	1596	1589	1596	1596	1596	1596	0	0	0	0	0	0	1138	1134	1134	1134	1134	1131	1131	1127	1123	1123	1120	1120	1120	1116	1116	1113	1113	1109	1109	1105	1105	1102	1102	1105	1105	1105	1105	1105	1105	1105	1105	1105	1105	1105	1105	1109	1109	1109	0	0	0	0	0	0	0	0	0	0	0	0	0	0	0	0	0	0	0	0	0	0	0	0	0	0	0	0	0	0	0	0	0	0	0	0	0	0	0	0	0	0	0	0
0	0	0	0	0	0	0	0	0	0	0	0	0	1567	1567	1567	1567	1574	1574	1574	1574	1567	1567	1567	1567	1567	1567	1567	1567	1567	1567	1567	1567	1574	1574	1574	1574	1574	1574	1574	1567	1574	1567	1574	1567	1567	1567	1567	1567	1567	1567	1560	1567	1567	1574	1574	1574	1574	1574	1574	1574	1574	1574	1574	1574	1574	1574	1581	1574	1574	1574	1574	1574	1574	1574	1567	1574	1574	1574	1574	1574	1574	1574	1581	1574	1574	1574	1574	1574	1574	1574	1574	1581	1589	1589	1589	1589	1589	1589	1589	1589	1589	1589	1589	1589	1589	1589	1581	1581	1581	1581	1581	1581	1581	1581	1581	1581	1581	1581	1581	1581	1581	1581	1589	1581	1581	1589	1596	1603	1603	1611	1611	1618	1626	1634	1649	1649	1649	1665	1690	1698	1706	1715	1715	1723	1732	1750	1768	1777	1777	1795	1804	1814	1824	1833	1843	1853	1863	1883	1894	1904	1915	1925	1936	1936	1936	1947	1980	1980	2076	2063	2076	2063	2063	2063	2076	2076	2088	2114	2127	2127	2140	2181	2194	2208	2223	2237	2252	2252	2281	2297	2312	2312	2327	2327	2327	2343	2392	2409	2426	2426	2443	2443	2426	2426	0	0	0	7608	7608	7608	0	0	0	0	0	0	7444	7444	7444	0	0	0	0	0	0	7444	7444	0	0	0	0	0	0	0	0	0	0	0	0	0	0	0	0	0	0	0	0	0	0	0	0	0	0	0	0	0	0	4706	4706	4706	4706	4706	4706	4706	4706	4706	4706	4706	4706	4706	4706	4706	4706	4706	4706	4706	4706	4706	4706	4706	4706	4706	4643	4643	4581	4521	4463	4463	4406	4406	4350	4406	4463	4406	4406	3738	3738	3738	3738	3738	3738	3738	3698	3698	3698	3698	3698	3698	3698	3698	3698	3698	3698	3738	3738	3779	3738	3738	3738	3738	3738	3738	3738	3738	3738	3738	3738	3698	3698	3738	3738	3698	3698	3659	3659	3659	4463	4463	4463	4406	4350	4350	4350	4350	4406	4463	4521	4521	4463	4406	4406	4406	4406	4406	4406	4406	4406	4350	4463	4463	4406	4406	4406	4350	4350	4350	4350	4350	4350	4350	4406	4406	4406	4406	4406	4406	4406	4406	4406	4406	4463	4406	4406	4406	4406	4406	4350	4350	4406	4406	4406	4406	4406	4406	4406	4406	4406	4406	4406	4406	4463	4406	4463	4463	4463	4463	4521	4521	4581	4581	4643	4643	4643	4581	4581	4581	4581	4581	4581	4521	4463	4463	4463	4406	0	0	0	0	0	0	4350	4406	4463	4521	4521	4521	4581	4581	4581	4521	4581	4581	4521	4521	0	0	0	0	0	0	0	0	0	2478	2478	2443	2443	2426	2443	2426	2426	2409	2376	2376	2359	2343	2312	2297	2297	2281	2266	2252	2252	2237	2223	2194	2181	2167	2140	2140	2127	2114	2114	2088	2076	2076	2076	2076	2063	2003	1958	1947	1947	1947	1936	1936	1925	1915	1894	1883	1873	1863	1853	1853	1843	1843	1833	1824	1795	1786	1777	1777	1768	1759	1750	1741	1732	1715	1715	1706	1706	1698	1690	1681	1673	1673	1641	1641	1634	1626	1626	1626	1618	1611	1611	1596	1596	1596	1589	1596	1596	1596	1596	1596	1596	1596	1596	1596	1596	1596	1596	1596	0	0	0	0	0	0	1138	1134	1134	1134	1131	1131	1123	1123	1120	1120	1116	1116	1113	1113	1113	1113	1109	1105	1105	1105	1105	1105	1102	1105	1105	1105	1105	1102	1105	1105	1105	1105	1105	1109	1109	1109	1109	0	0	0	0	0	0	0	0	0	0	0	0	0	0	0	0	0	0	0	0	0	0	0	0	0	0	0	0	0	0	0	0	0	0	0	0	0	0	0	0	0	0	0	0
0	0	0	0	0	0	0	0	0	0	0	0	0	1567	1567	1567	1567	1574	1574	1574	1574	1567	1567	1567	1567	1567	1567	1567	1567	1567	1567	1567	1567	1567	1567	1567	1574	1574	1574	1574	1567	1567	1567	1574	1567	1567	1567	1567	1567	1567	1567	1567	1567	1574	1574	1574	1574	1574	1574	1574	1574	1574	1574	1574	1574	1574	1574	1574	1574	1574	1574	1574	1574	1567	1567	1567	1567	1567	1574	1574	1574	1574	1574	1574	1574	1574	1574	1567	1567	1567	1574	1574	1581	1589	1589	1589	1589	1589	1589	1589	1589	1589	1589	1596	1596	1589	1589	1581	1581	1581	1581	1581	1581	1581	1581	1581	1581	1581	1581	1581	1581	1581	1581	1581	1589	1589	1596	1596	1603	1603	1611	1611	1618	1634	1641	1649	1649	1657	1665	1681	1698	1706	1715	1715	1723	1723	1741	1759	1786	1804	1804	1804	1814	1824	1833	1843	1853	1863	1883	1894	1904	1915	1925	1936	1936	1936	1969	1980	1980	2063	2063	2063	2063	2051	2063	2063	2076	2101	2114	2127	2127	2140	2181	2194	2208	2208	2223	2237	2252	2281	2297	2312	2312	2327	2327	2343	2359	2392	2409	2426	2426	2443	2426	2426	2426	0	0	0	7444	7444	0	0	0	0	0	0	0	0	0	0	0	0	0	0	0	0	7444	7444	0	0	0	0	0	0	0	0	0	0	0	0	0	0	0	0	0	0	0	0	0	0	0	0	0	0	0	0	0	0	4706	4706	4706	4706	4706	4706	4706	4771	4771	4706	4706	4706	4706	4706	4706	4706	4706	4706	4706	4706	4706	4706	4706	4706	4706	4643	4643	4581	4521	4463	4406	4406	4406	4350	4463	4521	4463	4463	4463	3779	3779	3779	3738	3738	3738	3738	3698	3698	3698	3698	3698	3698	3698	3698	3698	3698	3698	3698	3698	3738	3779	3738	3779	3738	3738	3738	3738	3738	3738	3738	3698	3698	3738	3698	3698	3659	3659	3659	4521	4521	4521	4521	4463	4406	4406	4406	4406	4463	4463	4521	4521	4521	4463	4463	4463	4463	4463	4406	4406	4406	4406	4350	4406	4406	4350	4350	4350	4350	4350	4350	4350	4350	4350	4350	4406	4406	4406	4406	4406	4406	4406	4406	4406	4406	4406	4406	4406	4406	4406	4350	4350	4406	4406	4406	4406	4406	4406	4406	4406	4406	4406	4406	4406	4463	4406	4463	4406	4406	4406	4521	4581	4581	4581	4581	4643	4581	4581	4581	4581	4581	4581	4581	4521	4521	4521	4521	0	0	0	0	0	0	4350	4350	4406	4463	4521	4521	4521	4581	4581	4581	4521	4581	4521	4521	4521	0	0	0	0	0	0	0	0	0	0	2478	2460	2443	2426	2443	2426	2426	2409	2392	2376	2359	2312	2312	2297	2281	2281	2266	2252	2237	2223	2194	2194	2181	2153	2140	2140	2127	2127	2114	2088	2088	2088	2076	2076	2063	2003	1958	1947	1947	1947	1936	1936	1925	1915	1904	1883	1873	1863	1853	1853	1843	1843	1833	1824	1795	1786	1777	1777	1768	1759	1750	1741	1732	1715	1706	1706	1706	1698	1690	1681	1673	1673	1649	1641	1634	1626	1626	1626	1618	1611	1603	1596	1596	1596	1589	1596	1596	1596	1596	1596	1596	1596	1596	1596	1596	1589	1589	1581	1581	0	0	0	0	1146	1146	1134	1134	1134	1131	1127	1123	1123	1120	1120	1116	1116	1116	1116	1113	1113	1109	1109	1109	1105	1105	1105	1105	1109	1105	1105	1105	1105	1105	1105	1105	1105	1109	1109	1109	0	0	0	0	0	0	0	0	0	0	0	0	0	0	0	0	0	0	0	0	0	0	0	0	0	0	0	0	0	0	0	0	0	0	0	0	0	0	0	0	0	0	0	0	0	0
0	0	0	0	0	0	0	0	0	0	0	0	0	1560	1560	1567	1567	1574	1574	1574	1574	1567	1567	1567	1567	1567	1567	1567	1567	1567	1574	1574	1574	1574	1574	1567	1574	1574	1574	1574	1567	1567	1567	1574	1567	1567	1567	1567	1567	1567	1567	1567	1567	1574	1574	1574	1574	1574	1574	1581	1574	1574	1574	1574	1574	1574	1574	1574	1574	1574	1567	1567	1567	1567	1567	1567	1567	1574	1574	1574	1574	1574	1567	1567	1567	1567	1574	1567	1567	1567	1574	1574	1581	1581	1589	1589	1589	1589	1589	1589	1589	1596	1596	1596	1596	1589	1589	1589	1581	1581	1581	1581	1581	1581	1581	1581	1581	1581	1581	1581	1581	1581	1581	1581	1581	1581	1589	1589	1589	1596	1603	1611	1618	1634	1641	1649	1657	1657	1665	1673	1690	1698	1706	1723	1732	1741	1741	1759	1768	1795	1804	1804	1814	1824	1833	1843	1853	1863	1883	1894	1904	1915	1925	1936	1936	1936	1969	1992	2027	2063	2063	2063	2063	2051	2051	2063	2076	2088	2114	2114	2127	2140	2181	2194	2194	2208	2223	2237	2266	2281	2297	2312	2312	2327	2327	2343	2376	2376	2409	2409	2409	2443	2443	2426	2426	0	0	0	7444	7444	0	0	0	0	0	0	0	0	0	0	0	0	0	0	0	0	0	0	0	0	0	0	0	0	0	0	0	0	0	0	0	0	0	0	0	0	0	0	0	0	0	0	0	0	0	0	0	0	4706	4706	4771	4706	4771	4771	4771	4771	4771	4771	4771	4771	4771	4706	4706	4706	4706	4706	4706	4706	4706	4706	4706	4706	4706	4706	4643	4581	4521	4463	4406	4406	4406	4350	4463	4521	4463	4521	4521	3779	3779	3779	3779	3738	3738	3738	3698	3698	3698	3698	3698	3698	3698	3698	3698	3698	3698	3698	3779	3738	3738	3738	3738	3738	3738	3738	3738	3738	3738	3698	3698	3698	3698	3698	3698	3659	3659	3659	4581	4581	4581	4521	4521	4521	4521	4521	4521	4521	4521	4521	4521	4521	4521	4521	4521	4521	4521	4463	4463	4463	4406	4350	4350	4350	4350	4350	4350	4350	4350	4350	4350	4350	4350	4406	4406	4406	4406	4406	4463	4463	4406	4406	4463	4463	4406	4406	4406	4406	4406	4350	4350	4406	4406	4406	4406	4406	4406	4406	4406	4406	4406	4406	4406	4463	4406	4406	4406	4406	4406	4521	4581	4581	4581	4581	4643	4581	4581	4581	4581	4581	4581	4581	4581	4521	4521	4521	0	0	0	0	0	0	4350	4350	4406	4463	4521	4521	4521	4581	4581	4581	4581	4581	4581	4581	4581	4581	0	0	0	0	0	0	0	0	0	2478	2460	2460	2426	2443	2426	2426	2409	2392	2376	2359	2327	2312	2297	2281	2266	2266	2252	2237	2223	2194	2194	2181	2153	2140	2140	2127	2127	2114	2114	2088	2088	2076	2076	2051	1992	1958	1958	1947	1947	1936	1936	1925	1904	1904	1883	1873	1863	1853	1853	1843	1833	1833	1824	1814	1786	1777	1768	1759	1750	1750	1741	1723	1715	1715	1706	1706	1698	1690	1681	1673	1665	1641	1641	1634	1634	1618	1626	1618	1611	1603	1596	1596	1596	1596	1596	1596	1596	1596	1596	1596	1589	1596	1589	1581	1589	1589	1589	1589	0	0	0	0	1150	1150	1138	1134	1134	1131	1127	1120	1120	1120	1116	1116	1116	1116	1116	1113	1113	1113	1109	1109	1109	1105	1105	1105	1105	1105	1105	1105	1105	1105	1105	1105	1105	1109	1109	1109	0	0	0	0	0	0	0	0	0	0	0	0	0	0	0	0	0	0	0	0	0	0	0	0	0	0	0	0	0	0	0	0	0	0	0	0	0	0	0	0	0	0	0	0	0	0
0	0	0	0	0	0	0	0	0	0	0	0	0	1560	1560	1560	1567	1567	1574	1567	1567	1567	1567	1567	1567	1560	1567	1567	1574	1574	1574	1574	1574	1574	1574	1567	1574	1574	1567	1567	1567	1574	1567	1574	1567	1574	1567	1567	1567	1567	1567	1567	1567	1574	1574	1574	1574	1574	1574	1581	1574	1574	1574	1574	1574	1574	1574	1574	1574	1567	1567	1567	1567	1567	1567	1567	1567	1574	1574	1574	1574	1567	1567	1567	1567	1567	1567	1567	1567	1574	1574	1574	1581	1581	1589	1589	1589	1589	1589	1589	1589	1589	1589	1589	1589	1589	1589	1581	1581	1574	1581	1581	1581	1581	1581	1581	1581	1581	1574	1581	1574	1581	1581	1581	1581	1581	1589	1589	1589	1596	1603	1611	1618	1626	1641	1641	1649	1665	1665	1673	1690	1706	1715	1723	1732	1741	1741	1759	1768	1768	1795	1814	1814	1824	1833	1843	1853	1863	1883	1894	1904	1915	1925	1936	1936	1936	1980	1980	2039	2063	2063	2063	2063	2063	2051	2051	2076	2088	2101	2114	2127	2140	2181	2181	2194	2208	2208	2237	2252	2281	2297	2297	2312	2312	2327	2343	2359	2392	2409	2409	2426	2426	2426	0	0	0	0	0	0	0	0	0	0	0	0	0	0	0	0	0	0	0	0	0	0	0	0	0	0	0	0	0	0	0	0	0	0	0	0	0	0	0	0	0	0	0	0	0	0	0	0	0	0	0	0	0	0	0	0	0	4771	4706	4771	4771	4771	4771	4771	4771	4771	4771	4771	4706	4706	4706	4706	4706	4706	4706	4706	4706	4706	4706	4706	4706	4643	4581	4521	4463	4463	4463	4406	4350	4463	4521	4521	4521	4643	3779	3779	3779	3779	3738	3738	3738	3738	3698	3698	3698	3698	3698	3698	3698	3698	3698	3738	3698	3779	3779	3779	3738	3738	3738	3738	3738	3738	3698	3738	3698	3698	3698	3698	3698	3698	3659	3659	3659	4581	4581	4581	4581	4581	4581	4581	4581	4521	4521	4521	4521	4581	4581	4521	4581	4521	4521	4521	4521	4521	4463	4406	4350	4350	4350	4350	4350	4350	4350	4350	4350	4350	4350	4350	4406	4406	4406	4463	4463	4463	4463	4406	4406	4463	4463	4406	4350	4350	4406	4406	4406	4350	4406	4406	4406	4406	4406	4406	4406	4406	4406	4406	4406	4406	4406	4406	4406	4406	4406	4406	4463	4521	4581	4581	4581	4643	4643	4581	4581	4581	4581	4581	4521	4521	4521	4406	4406	0	0	4192	4192	0	0	4350	4350	4463	4521	4521	4521	4521	4581	4581	4581	4581	4581	4581	4581	4581	4581	0	0	0	0	0	0	0	0	0	2478	2478	2443	2443	2443	2443	2426	2426	2409	2376	2359	2327	2312	2297	2297	2281	2266	2252	2237	2208	2208	2181	2181	2167	2140	2140	2114	2114	2101	2088	2088	2088	2076	2076	2063	2027	1958	1958	1947	1947	1936	1936	1925	1904	1904	1883	1863	1863	1853	1853	1843	1833	1824	1814	1786	1777	1777	1768	1759	1750	1741	1732	1732	1723	1715	1706	1706	1698	1690	1673	1673	1665	1641	1641	1634	1634	1626	1626	1618	1611	1603	1596	1596	1596	1596	1596	1596	1603	1596	1596	1596	1589	1589	1589	1581	1589	1589	1574	1574	0	1165	1161	1153	1150	1150	1138	1134	1134	1131	1123	1123	1120	1120	1116	1116	1116	1116	1113	1113	1113	1113	1113	1109	1105	1109	1109	1109	1109	1109	1105	1105	1105	1105	1105	1105	1105	1109	1113	1113	0	0	0	0	0	0	0	0	0	0	0	0	0	0	0	0	0	0	0	0	0	0	0	0	0	0	0	0	0	0	0	0	0	0	0	0	0	0	0	0	0	0	0	0	0	0
0	0	0	0	0	0	0	0	0	0	0	0	0	1567	1560	1567	1567	1574	1574	1574	1567	1567	1567	1567	1567	1560	1567	1567	1574	1574	1574	1574	1574	1574	1574	1567	1574	1574	1567	1567	1567	1574	1567	1574	1567	1574	1567	1574	1567	1574	1567	1574	1574	1574	1574	1574	1581	1574	1581	1581	1574	1574	1574	1574	1574	1574	1574	1574	1574	1567	1567	1567	1567	1567	1574	1574	1574	1574	1574	1574	1574	1567	1567	1567	1567	1567	1574	1567	1567	1574	1574	1574	1581	1581	1581	1581	1581	1589	1581	1581	1581	1581	1589	1581	1589	1581	1581	1581	1581	1581	1581	1581	1581	1581	1581	1581	1581	1581	1581	1581	1581	1581	1581	1581	1581	1581	1581	1581	1596	1596	1603	1611	1611	1626	1641	1649	1657	1665	1665	1673	1690	1706	1715	1723	1741	1741	1750	1759	1777	1777	1795	1804	1824	1824	1843	1843	1853	1863	1873	1894	1904	1915	1925	1936	1936	1936	1969	2003	2027	2051	2051	2063	2063	2063	2051	2051	2063	2076	2101	2114	2127	2140	2167	2181	2194	2194	2208	2237	2266	2266	2297	2312	2312	2327	2343	2359	2376	2376	2409	2426	2426	2426	2426	2426	0	0	0	0	0	0	0	0	0	0	0	0	0	0	0	0	0	0	0	0	0	0	0	0	0	0	0	0	0	0	0	0	0	0	0	0	0	0	0	0	0	0	0	0	0	0	0	0	0	0	0	0	0	0	0	4771	4706	4706	4771	4706	4706	4771	4706	4771	4771	4706	4706	4706	4643	4706	4706	4706	4706	4706	4706	4706	4706	4706	4706	4706	4643	4581	4521	4463	4406	4463	4406	4406	4581	4581	4581	4643	4643	3738	3738	3738	3738	3738	3738	3738	3698	3698	3698	3698	3659	3698	3698	3698	3698	3698	3738	3738	3779	3779	3779	3779	3738	3738	3738	3738	3698	3698	3698	3698	3698	3698	3698	3698	3698	3659	3659	3659	4643	4643	4581	4581	4581	4581	4581	4581	4581	4521	4521	4581	4581	4581	4581	4581	4581	4581	4521	4581	4581	4521	4521	4406	4350	4350	4350	4350	4350	4350	4350	4350	4350	4350	4350	4350	4406	4406	4406	4406	4406	4406	4406	4406	4406	4406	4406	4350	4350	4350	4350	4350	4350	4406	4406	4406	4406	4406	4406	4406	4406	4406	4406	4406	4406	4406	4406	4406	4406	4406	4463	4463	4521	4521	4581	4643	4643	4581	4581	4581	4581	4581	4581	4521	4521	4463	4406	4296	4243	4243	4192	4192	4296	4296	4350	4350	4406	4521	4521	4521	4521	4581	4581	4581	4581	4581	4581	4581	4581	4581	0	0	0	0	0	0	0	0	0	2478	2460	2443	2426	2443	2443	2426	2426	2409	2376	2327	2312	2312	2312	2281	2266	2266	2252	2237	2208	2208	2181	2181	2167	2153	2127	2114	2114	2101	2101	2088	2088	2076	2076	2063	2039	1992	1958	1947	1947	1936	1925	1915	1904	1904	1894	1873	1863	1853	1853	1843	1833	1833	1824	1786	1777	1768	1759	1750	1750	1741	1732	1732	1723	1715	1706	1706	1690	1681	1673	1673	1657	1649	1641	1634	1634	1626	1626	1618	1611	1603	1596	1596	1596	1596	1596	1603	1603	1596	1596	1596	1589	1589	1589	1581	1589	1589	1574	1574	1165	1157	1157	1150	1150	1150	1146	1138	1138	1134	1134	1123	1120	1120	1116	1116	1116	1116	1113	1113	1113	1113	1113	1109	1105	1113	1113	1109	1109	1109	1109	1105	1105	1105	1105	1105	1105	1109	1113	1113	0	0	0	0	0	0	0	0	0	0	0	0	0	0	0	0	0	0	0	0	0	0	0	0	0	0	0	0	0	0	0	0	0	0	0	0	0	0	0	0	0	0	0	0	0	0
0	0	0	0	0	0	0	0	0	0	0	0	0	1567	1560	1567	1567	1574	1574	1574	1574	1567	1567	1567	1567	1567	1567	1567	1567	1567	1574	1574	1574	1574	1574	1567	1574	1574	1574	1574	1567	1574	1567	1567	1567	1567	1567	1567	1574	1574	1567	1574	1574	1574	1574	1581	1581	1581	1581	1581	1581	1574	1574	1574	1574	1567	1567	1574	1574	1567	1567	1567	1567	1567	1574	1574	1574	1574	1574	1574	1574	1574	1574	1574	1567	1574	1567	1567	1567	1574	1574	1574	1581	1574	1581	1581	1581	1581	1581	1581	1581	1581	1581	1581	1581	1581	1581	1581	1581	1581	1581	1581	1581	1581	1581	1581	1581	1581	1581	1581	1581	1581	1581	1581	1581	1581	1581	1589	1596	1603	1603	1611	1611	1626	1634	1649	1649	1665	1673	1681	1690	1706	1715	1732	1732	1741	1750	1759	1768	1786	1795	1804	1814	1824	1843	1843	1853	1863	1873	1883	1894	1915	1925	1936	1936	1936	1969	1992	2027	2051	2063	2051	2051	2051	2051	2051	2051	2063	2101	2127	2127	2140	2167	2181	2181	2194	2223	2237	2252	2281	2297	2312	2312	2327	2327	2359	2376	2409	2426	2426	2426	2426	2426	2426	0	0	0	0	0	0	0	0	0	0	0	0	0	0	0	0	0	0	0	0	0	0	0	0	0	0	0	0	0	0	0	0	0	0	0	0	0	0	0	0	0	0	0	0	0	0	0	0	0	0	0	0	0	0	0	4771	4771	4706	4706	4706	4706	4771	4771	4771	4706	4706	4706	4706	4643	4706	4706	4706	4643	4706	4706	4706	4771	4706	4706	4706	4643	4581	4521	4463	4406	4463	4406	4463	4643	4643	4643	4643	4706	4771	3738	3779	3779	3738	3738	3738	3698	3698	3698	3659	3659	3698	3698	3698	3698	3698	3738	3738	3779	3779	3779	3779	3738	3738	3738	3738	3698	3698	3698	3698	3698	3698	3698	3698	3698	3659	3659	4643	4643	4643	4643	4581	4581	4581	4581	4581	4581	4581	4581	4581	4581	4581	4581	4581	4581	4581	4581	4581	4581	4581	4521	4406	4406	4350	4350	4350	4350	4350	4350	4350	4350	4350	4350	4350	4350	4406	4406	4406	4406	4406	4406	4406	4406	4406	4350	4350	4350	4350	4350	4350	4350	4406	4406	4406	4406	4406	4406	4406	4406	4406	4406	4406	4406	4406	4406	4406	4406	4406	4463	4521	4521	4521	4581	4581	4581	4581	4581	4581	4581	4581	4581	4521	4463	4463	4406	4296	4296	4243	4243	4296	4296	4296	4350	4350	4406	4463	4521	4521	4521	4581	4581	4581	4581	4581	4581	4581	4581	4643	4643	0	0	0	0	0	0	0	2460	2460	2478	2478	2443	2443	2443	2426	2426	2409	2376	2327	2327	2312	2297	2297	2266	2266	2252	2237	2208	2208	2181	2181	2153	2140	2127	2114	2101	2101	2101	2088	2088	2076	2076	2051	2039	2003	1958	1947	1947	1936	1925	1915	1904	1894	1894	1873	1863	1853	1843	1833	1833	1824	1824	1795	1777	1768	1759	1750	1750	1750	1741	1732	1723	1715	1706	1698	1690	1681	1673	1673	1657	1641	1634	1626	1626	1626	1618	1618	1611	1603	1596	1596	1596	1596	1596	1603	1603	1596	1596	1596	1589	1589	1589	1581	1581	1574	1589	1581	1596	1153	1153	1150	1150	1150	1146	1142	1138	1138	1134	1131	1123	1120	1116	1116	1113	1113	1113	1113	1113	1113	1113	1109	1113	1113	1113	1113	1113	1113	1113	1113	1109	1109	1109	1109	1105	1109	1109	1116	1116	0	0	0	0	0	0	0	0	0	0	0	0	0	0	0	0	0	0	0	0	0	0	0	0	0	0	0	0	0	0	0	0	0	0	0	0	0	0	0	0	0	0	0	0	0
0	0	0	0	0	0	0	0	0	0	0	0	0	1574	1567	1567	1567	1574	1574	1574	1574	1567	1567	1567	1567	1567	1567	1574	1574	1574	1574	1574	1574	1574	1574	1567	1574	1574	1574	1574	1567	1574	1567	1574	1567	1567	1567	1567	1567	1567	1574	1574	1574	1574	1581	1581	1581	1581	1581	1581	1574	1574	1574	1574	1574	1574	1574	1574	1574	1567	1567	1567	1567	1567	1574	1574	1574	1574	1574	1574	1574	1574	1574	1574	1574	1574	1567	1567	1574	1574	1574	1574	1574	1574	1581	1581	1581	1581	1581	1581	1581	1581	1581	1581	1581	1581	1581	1581	1581	1581	1581	1581	1581	1581	1581	1581	1581	1581	1581	1581	1581	1581	1581	1581	1581	1581	1581	1589	1596	1603	1603	1611	1618	1626	1634	1649	1657	1673	1673	1681	1698	1706	1715	1723	1732	1741	1741	1750	1759	1777	1795	1814	1824	1833	1843	1843	1853	1863	1873	1883	1894	1915	1925	1936	1936	1936	1947	1969	2027	2051	2063	2051	2063	2051	2051	2039	2051	2051	2051	2127	2140	2140	2167	2181	2181	2194	2208	2223	2266	2281	2297	2312	2312	2327	2343	2359	2392	2426	2426	2443	2443	2426	2426	2426	0	0	0	0	0	0	0	0	0	0	0	0	0	0	0	0	0	0	0	0	0	0	0	0	0	0	0	0	0	0	0	0	0	0	0	0	0	0	0	0	0	0	0	0	0	0	0	0	0	0	0	0	0	0	0	4706	4706	4706	4706	4706	4706	4706	4706	4771	4706	4706	4706	4643	4643	4706	4706	4706	4706	4706	4706	4706	4706	4706	4706	4706	4643	4581	4521	4463	4463	4463	4406	4521	4521	4706	4643	4706	4771	4838	3738	3738	3738	3738	3738	3738	3698	3698	3698	3698	3698	3698	3698	3698	3698	3698	3738	3738	3779	3779	3779	3738	3738	3738	3738	3698	3698	3698	3698	3698	3698	3698	3698	3698	3698	3698	3698	4581	4581	4581	4643	4643	4643	4581	4581	4581	4581	4581	4521	4581	4581	4581	4581	4581	4581	4581	4581	4581	4581	4521	4463	4406	4350	4350	4350	4350	4350	4350	4350	4350	4350	4350	4350	4350	4350	4350	4406	4406	4406	4350	4406	4406	4406	4406	4350	4350	4350	4350	4350	4350	4350	4406	4406	4406	4406	4406	4406	4406	4406	4406	4406	4406	4406	4406	4406	4406	4406	4406	4463	4463	4463	4521	4521	4581	4581	4521	4521	4521	4521	4521	4521	4463	4406	4406	4350	4296	4296	4296	4296	4296	4350	4350	4350	4350	4406	4463	4521	4521	4581	4581	4581	4581	4581	4581	4581	4581	4581	4581	4581	0	0	0	0	0	0	0	2478	2478	2478	2478	2460	2443	2443	2426	2426	2409	2376	2359	2312	2312	2297	2297	2266	2266	2252	2223	2208	2208	2181	2181	2167	2153	2140	2127	2114	2101	2101	2088	2088	2076	2076	2051	2039	2003	1969	1958	1947	1936	1925	1915	1904	1904	1894	1873	1863	1853	1843	1833	1824	1814	1804	1795	1777	1768	1759	1750	1750	1750	1741	1732	1723	1715	1706	1698	1681	1681	1673	1665	1657	1634	1626	1626	1626	1618	1618	1618	1611	1603	1596	1596	1596	1596	1596	1596	1596	1596	1596	1589	1589	1589	1589	1589	1581	1581	1581	1589	1596	1150	1150	1150	1150	1150	1146	1138	1134	1138	1134	1131	1123	1120	1116	1116	1120	1120	1116	1113	1113	1116	1113	1113	1113	1116	1116	1113	1113	1116	1113	1113	1109	1109	1109	1109	1109	1109	1109	1116	1116	0	0	0	0	0	0	0	0	0	0	0	0	0	0	0	0	0	0	0	0	0	0	0	0	0	0	0	0	0	0	0	0	0	0	0	0	0	0	0	0	0	0	0	0	0
0	0	0	0	0	0	0	0	0	0	0	0	0	1574	1567	1567	1567	1574	1574	1574	1574	1574	1574	1574	1567	1567	1574	1574	1574	1574	1574	1574	1574	1574	1574	1567	1574	1574	1574	1574	1567	1574	1567	1567	1567	1567	1567	1567	1567	1567	1574	1574	1574	1574	1574	1574	1574	1574	1574	1574	1574	1574	1574	1574	1574	1567	1567	1574	1567	1567	1567	1567	1567	1567	1574	1574	1574	1574	1574	1574	1574	1567	1567	1567	1567	1567	1567	1567	1574	1574	1567	1574	1574	1574	1581	1581	1581	1581	1581	1581	1581	1581	1581	1581	1581	1581	1581	1581	1581	1581	1581	1581	1581	1581	1581	1581	1581	1581	1581	1581	1581	1581	1581	1581	1581	1581	1581	1589	1596	1603	1603	1611	1618	1626	1634	1657	1657	1681	1681	1690	1698	1706	1715	1723	1723	1741	1741	1750	1759	1768	1795	1804	1814	1824	1843	1843	1853	1863	1873	1883	1894	1915	1925	1936	1936	1947	1947	1969	2027	2051	2051	2051	2063	2051	2051	2039	2051	2051	2088	2088	2127	2140	2167	2181	2181	2194	2208	2237	2252	2266	2297	2297	2312	2327	2359	2376	2409	2426	2443	2443	2443	2443	2426	2426	0	0	0	0	0	0	0	0	0	0	0	0	0	0	0	0	0	0	0	0	0	0	0	0	0	0	0	6124	6018	5915	5915	6018	0	0	0	0	0	0	0	0	0	0	0	0	0	0	0	0	0	0	0	0	0	0	0	4706	4706	4706	4706	4706	4706	4706	4706	4771	4706	4706	4706	4706	4643	4706	4706	4706	4706	4706	4706	4706	4706	4706	4706	4706	4643	4581	4406	4406	4350	4406	4350	4581	4706	4706	4643	4706	4771	4838	3738	3738	3738	3738	3738	3738	3738	3698	3698	3698	3698	3698	3698	3698	3698	3698	3738	3738	3779	3779	3779	3779	3738	3738	3738	3698	3698	3698	3698	3698	3698	3698	3698	3698	3698	3698	4581	4581	4581	4581	4581	4581	4581	4581	4581	4581	4581	4581	4581	4581	4581	4581	4581	4581	4581	4581	4581	4581	4521	4521	4463	4406	4350	4350	4350	4350	4350	4350	4350	4350	4350	4350	4350	4350	4350	4350	4350	4350	4350	4406	4406	4406	4406	4350	4350	4350	4350	4350	4350	4350	4350	4406	4406	4406	4406	4406	4406	4406	4406	4406	4350	4406	4350	4406	4406	4350	4406	4406	4463	4463	4463	4463	4463	4521	4521	4521	4521	4521	4521	4521	4521	4463	4406	4350	4296	4296	4296	4296	4296	4296	4350	4350	4350	4350	4406	4521	4521	4521	4581	4581	4581	4581	4581	4581	4581	4581	4581	4581	4643	4643	0	0	0	0	0	0	2478	2478	2478	2478	2460	2460	2443	2426	2426	2409	2376	2359	2312	2312	2297	2281	2266	2252	2237	2237	2208	2208	2181	2181	2167	2153	2140	2127	2114	2101	2101	2088	2088	2076	2063	2051	2039	2015	1969	1958	1958	1936	1936	1904	1904	1904	1894	1883	1863	1853	1853	1824	1833	1814	1804	1795	1777	1768	1768	1759	1750	1750	1741	1732	1723	1715	1706	1698	1681	1681	1665	1657	1649	1634	1626	1626	1626	1626	1618	1618	1611	1603	1596	1596	1596	1596	1596	1589	1596	1596	1596	1589	1589	1589	1589	1589	1589	1589	1589	1596	1596	1146	1146	1146	1146	1146	1142	1138	1134	1134	1134	1131	1123	1120	1120	1120	1120	1120	1120	1116	1116	1116	1116	1116	1116	1116	1116	1113	1113	1116	1113	1113	1109	1109	1109	1109	1109	1109	1109	1109	1116	0	0	0	0	0	0	0	0	0	0	0	0	0	0	0	0	0	0	0	0	0	0	0	0	0	0	0	0	0	0	0	0	0	0	0	0	0	0	0	0	0	0	0	0	0
0	0	0	0	0	0	0	0	0	0	0	0	0	1567	1567	1567	1567	1574	1574	1574	1574	1574	1567	1567	1567	1567	1574	1567	1574	1574	1567	1574	1574	1567	1574	1567	1574	1574	1574	1574	1574	1574	1567	1574	1567	1574	1567	1567	1567	1567	1567	1567	1567	1567	1574	1574	1581	1581	1574	1574	1574	1574	1574	1574	1574	1574	1574	1567	1567	1567	1567	1567	1567	1567	1574	1574	1574	1574	1574	1574	1574	1567	1574	1574	1574	1574	1574	1574	1574	1567	1567	1567	1574	1574	1574	1574	1581	1581	1581	1581	1581	1581	1581	1581	1581	1574	1574	1581	1581	1581	1581	1581	1581	1581	1581	1581	1581	1581	1589	1589	1581	1581	1581	1581	1581	1581	1581	1581	1596	1603	1603	1611	1626	1634	1641	1649	1657	1673	1673	1698	1698	1706	1715	1715	1723	1732	1741	1750	1759	1768	1768	1795	1814	1824	1843	1843	1853	1863	1873	1883	1894	1915	1925	1925	1936	1936	1936	1958	1958	2076	2076	2076	2076	2076	2051	2051	2051	2063	2088	2088	2127	2140	2167	2181	2181	2194	2208	2237	2266	2281	2297	2297	2312	2312	2343	2376	2409	2426	2443	2443	2443	2443	2426	2426	0	0	0	0	0	0	0	0	0	0	0	0	0	0	0	0	0	0	0	0	0	0	0	0	0	0	0	6018	6018	5719	5719	6018	0	0	0	0	0	0	0	0	0	0	0	0	0	0	0	0	0	0	0	0	0	0	0	4706	4706	4706	4706	4706	4706	4706	4706	4706	4706	4706	4706	4706	4643	4706	4706	4706	4706	4706	4706	4706	4706	4706	4706	4706	4581	4521	4463	4406	4350	4350	4350	4643	4706	4706	4706	4706	4771	4838	3738	3738	3738	3738	3738	3738	3738	3738	3698	3698	3698	3698	3698	3698	3698	3738	3738	3738	3779	3779	3779	3779	3738	3738	3738	3738	3698	3698	3698	3698	3698	3698	3698	3698	3659	3659	4581	4581	4581	4581	4581	4581	4581	4581	4581	4581	4581	4581	4581	4581	4581	4581	4581	4581	4581	4581	4581	4581	4521	4521	4463	4406	4350	4350	4350	4350	4350	4350	4350	4350	4350	4350	4296	4296	4350	4350	4350	4350	4350	4350	4406	4406	4350	4350	4296	4296	4296	4296	4296	4296	4350	4350	4463	4463	4463	4463	4463	4463	4463	4406	4350	4350	4350	4350	4350	4350	4350	4406	4463	4463	4463	4521	4521	4581	4581	4521	4521	4463	4521	4521	4521	4406	4350	4296	4350	4296	4296	4296	4296	4296	4296	4350	4296	4350	4350	4521	4521	4581	4581	4581	4643	4581	4581	4581	4581	4581	4581	4581	4643	4643	0	0	0	0	0	0	0	2478	2478	2478	2478	2460	2443	2426	2409	2409	2359	2343	2312	2312	2297	2281	2266	2252	2252	2237	2208	2208	2181	2181	2167	2153	2140	2127	2114	2101	2101	2088	2088	2076	2063	2051	2039	2015	1992	1969	1958	1947	1925	1915	1904	1904	1894	1883	1863	1863	1853	1843	1833	1824	1804	1795	1777	1768	1768	1759	1750	1741	1732	1732	1715	1715	1706	1698	1681	1673	1665	1657	1649	1641	1626	1626	1626	1618	1618	1618	1611	1603	1603	1596	1596	1596	1589	1589	1589	1589	1589	1589	1589	1589	1589	1589	1589	1581	1589	1596	1596	1146	1146	1142	1146	1146	1142	1142	1142	1138	1134	1131	1127	1120	1123	1123	1120	1120	1120	1116	1116	1116	1116	1113	1116	1116	1113	1109	1113	1113	1113	1113	1109	1109	1105	1109	1109	1105	1105	1109	0	0	0	0	0	0	0	0	0	0	0	0	0	0	0	0	0	0	0	0	0	0	0	0	0	0	0	0	0	0	0	0	0	0	0	0	0	0	0	0	0	0	0	0	0	0
0	0	0	0	0	0	0	0	0	0	0	0	0	1567	1567	1567	1567	1574	1574	1574	1574	1567	1567	1567	1567	1567	1567	1567	1574	1574	1574	1574	1574	1574	1574	1574	1574	1574	1574	1574	1574	1574	1574	1574	1574	1567	1567	1567	1567	1560	1560	1560	1560	1567	1567	1574	1574	1574	1574	1574	1574	1574	1574	1574	1574	1574	1574	1574	1567	1567	1567	1567	1567	1567	1574	1574	1574	1574	1574	1574	1574	1574	1574	1574	1574	1574	1567	1574	1567	1567	1567	1567	1574	1574	1574	1581	1581	1581	1581	1581	1581	1581	1574	1574	1574	1574	1574	1581	1581	1581	1581	1581	1581	1581	1581	1581	1589	1589	1589	1589	1589	1581	1581	1581	1581	1581	1581	1596	1603	1603	1603	1611	1626	1634	1641	1649	1649	1673	1673	1690	1698	1706	1706	1715	1723	1732	1741	1750	1750	1768	1768	1795	1814	1814	1833	1843	1853	1863	1873	1883	1894	1915	1915	1925	1936	1936	1947	1969	2039	2076	2076	2076	2076	2076	2063	2063	2063	2076	2088	2088	2127	2140	2167	2181	2181	2194	2223	2237	2266	2266	2297	2297	2312	2312	2359	2376	2426	2443	2443	2443	2443	2443	2443	2443	0	0	0	0	0	0	0	0	0	0	0	0	0	0	0	0	0	0	0	0	0	0	0	0	0	0	0	6018	6018	5915	5626	5626	0	0	0	0	0	0	0	0	0	0	0	0	0	0	0	0	0	0	0	0	0	0	0	4706	4706	4706	4706	4706	4706	4706	4706	4706	4706	4706	4706	4706	4706	4706	4706	4706	4706	4706	4706	4706	4706	4706	4706	4706	4581	4521	4463	4463	4406	4521	4643	4706	4706	4706	4706	4706	4771	4838	3738	3779	3779	3738	3738	3738	3738	3738	3738	3698	3698	3698	3698	3698	3738	3738	3738	3738	3779	3779	3779	3779	3738	3738	3738	3738	3738	3738	3738	3698	3698	3698	3698	3698	3698	3698	3698	4581	4581	4581	4581	4581	4581	4581	4581	4581	4581	4581	4581	4581	4581	4581	4581	4581	4581	4581	4581	4581	4521	4463	4463	4406	4350	4350	4350	4350	4350	4350	4406	4350	4350	4350	4350	4350	4350	4350	4406	4406	4350	4406	4406	4406	4350	4350	4350	4350	4296	4350	4350	4406	4406	4463	4463	4463	4521	4463	4463	4521	4406	4406	4350	4350	4350	4350	4350	4406	4406	4406	4406	4463	4463	4521	4521	4581	4581	4521	4521	4463	4463	4521	4463	4406	4350	4350	4350	4350	4296	4296	4296	4350	4350	4350	4296	4350	4350	4463	4521	4521	4521	4581	4581	4581	4581	4643	4581	4581	4581	4581	4643	4643	0	0	0	0	0	0	0	2478	2478	2478	2478	2460	2443	2426	2409	2409	2376	2343	2327	2327	2297	2281	2266	2252	2252	2237	2223	2208	2181	2181	2167	2153	2140	2127	2114	2101	2088	2088	2076	2076	2063	2063	2039	2027	1992	1969	1958	1936	1925	1915	1904	1894	1894	1883	1863	1853	1843	1843	1833	1814	1804	1786	1777	1768	1759	1759	1750	1741	1732	1732	1723	1715	1706	1698	1681	1673	1657	1657	1649	1641	1626	1626	1626	1626	1618	1618	1618	1611	1603	1596	1596	1596	1589	1589	1589	1589	1589	1589	1589	1589	1589	1589	1589	1581	1574	1596	1596	0	1142	1142	1146	1146	1142	1142	1138	1134	1134	1131	1127	1120	1123	1123	1120	1120	1120	1116	1116	1113	1113	1113	1116	1113	1113	1109	1109	1113	1109	1109	1105	1105	1105	1105	1105	1109	1109	1109	0	0	0	0	0	0	0	0	0	0	0	0	0	0	0	0	0	0	0	0	0	0	0	0	0	0	0	0	0	0	0	0	0	0	0	0	0	0	0	0	0	0	0	0	0	0
0	0	0	0	0	0	0	0	0	0	0	0	0	1567	1567	1567	1567	1574	1574	1574	1574	1567	1567	1567	1567	1567	1567	1567	1567	1574	1567	1574	1574	1574	1574	1574	1574	1574	1574	1574	1574	1574	1574	1574	1574	1567	1567	1560	1560	1560	1560	1560	1560	1567	1567	1567	1574	1574	1574	1574	1574	1574	1574	1574	1574	1574	1574	1574	1574	1567	1567	1567	1567	1574	1574	1574	1574	1574	1567	1574	1574	1574	1574	1574	1574	1574	1574	1574	1574	1574	1567	1574	1581	1581	1581	1581	1581	1581	1581	1581	1574	1574	1574	1574	1581	1574	1581	1581	1581	1581	1581	1581	1581	1581	1581	1581	1589	1589	1589	1589	1589	1589	1581	1581	1581	1581	1581	1596	1603	1603	1611	1618	1634	1634	1641	1657	1657	1673	1673	1698	1698	1706	1706	1715	1723	1732	1741	1750	1750	1768	1768	1795	1804	1814	1814	1843	1853	1853	1873	1883	1894	1925	1925	1936	1936	1947	1958	1958	2076	2076	2076	2076	2076	2076	2063	2063	2063	2076	2088	2101	2127	2140	2153	2181	2181	2194	2237	2252	2266	2281	2297	2297	2312	2312	2343	2376	2426	2443	2443	2443	2460	2460	2443	2443	0	0	0	0	0	0	0	0	0	0	0	0	0	0	0	0	0	0	0	0	0	0	0	0	0	0	0	0	0	5719	5626	5626	5626	5626	0	0	0	0	0	0	0	0	0	0	0	0	0	0	0	0	0	0	0	0	4643	4706	4706	4706	4706	4706	4706	4706	4706	4706	4706	4706	4706	4706	4706	4706	4706	4706	4706	4643	4706	4706	4706	4706	4706	4706	4581	4521	4463	4463	4463	4463	4521	4643	4706	4706	4706	4706	4706	4838	4906	3779	3779	3738	3738	3738	3738	3738	3698	3698	3698	3698	3698	3698	3698	3738	3738	3738	3779	3779	3779	3779	3779	3738	3738	3738	3698	3698	3698	3698	3698	3698	3738	3698	3698	3738	3738	4643	4581	4581	4581	4581	4581	4581	4581	4581	4581	4581	4581	4581	4581	4581	4581	4581	4581	4581	4581	4581	4521	4521	4463	4463	4406	4350	4350	4350	4350	4350	4406	4350	4350	4350	4350	4350	4350	4350	4406	4406	4406	4406	4406	4406	4350	4350	4350	4350	4350	4406	4406	4463	4406	4581	4521	4521	4581	4521	4581	4581	4521	4463	4406	4406	4406	4406	4406	4406	4406	4406	4463	4463	4463	4463	4521	4581	4521	4521	4521	4521	4521	4521	4521	4406	4406	4406	4406	4350	4350	4406	4350	4350	4350	4350	4296	4296	4296	4406	4521	4521	4581	4581	4581	4581	4581	4581	4581	4581	4581	4581	4643	4643	0	0	0	0	0	0	0	2478	2478	2478	2478	2460	2443	2409	2409	2409	2327	2327	2327	2327	2297	2281	2266	2252	2252	2237	2223	2208	2181	2181	2167	2153	2140	2127	2114	2101	2088	2088	2076	2076	2063	2063	2039	2027	2003	1969	1958	1936	1925	1915	1904	1904	1894	1863	1853	1853	1843	1833	1824	1814	1795	1786	1768	1759	1759	1750	1750	1741	1732	1723	1715	1715	1706	1690	1681	1673	1665	1657	1649	1641	1634	1626	1626	1626	1618	1618	1618	1611	1603	1596	1589	1589	1589	1589	1589	1589	1589	1589	1589	1589	1589	1589	1589	1589	1589	1596	1596	0	1142	1146	1146	1142	1142	1142	1138	1134	1134	1131	1127	1120	1123	1123	1120	1123	1120	1116	1116	1113	1113	1113	1109	1109	1109	1109	1105	1105	1105	1105	1105	1105	1105	1105	1109	1109	1113	1113	1113	0	0	0	0	0	0	0	0	0	0	0	0	0	0	0	0	0	0	0	0	0	0	0	0	0	0	0	0	0	0	0	0	0	0	0	0	0	0	0	0	0	0	0	0	0
0	0	0	0	0	0	0	0	0	0	0	0	0	1567	1567	1560	1567	1574	1574	1574	1574	1574	1567	1574	1567	1567	1567	1567	1567	1567	1567	1574	1574	1574	1574	1567	1567	1574	1574	1574	1574	1574	1574	1574	1574	1574	1567	1567	1560	1560	1560	1560	1560	1560	1567	1567	1574	1574	1574	1567	1574	1574	1574	1567	1567	1574	1574	1574	1574	1567	1567	1574	1574	1574	1574	1574	1574	1567	1567	1567	1567	1574	1567	1574	1574	1574	1567	1574	1574	1574	1567	1574	1581	1581	1581	1581	1581	1581	1581	1581	1581	1581	1574	1574	1581	1574	1581	1581	1581	1581	1581	1581	1581	1581	1581	1581	1589	1581	1581	1589	1589	1581	1581	1581	1581	1581	1589	1589	1596	1603	1611	1618	1641	1641	1649	1657	1657	1665	1673	1698	1698	1706	1715	1715	1723	1732	1741	1741	1750	1768	1777	1795	1795	1824	1833	1843	1853	1873	1883	1883	1894	1904	1925	1936	1936	1936	1947	1947	2076	2076	2076	2076	2076	2076	2063	2063	2063	2076	2088	2101	2127	2140	2153	2167	2181	2194	2237	2252	2266	2266	2297	2297	2297	2312	2312	2392	2426	2443	2443	2443	2443	2460	2443	2443	0	0	0	0	0	0	0	0	0	0	0	0	0	0	0	0	0	0	0	0	0	0	0	0	0	0	0	0	0	5626	5626	5626	5535	5535	5535	5535	0	0	0	0	0	0	0	0	0	0	0	0	0	0	0	0	0	0	4643	4706	4706	4706	4706	4706	4706	4706	4706	4706	4706	4706	4706	4706	4706	4706	4706	4706	4706	4643	4643	4706	4706	4706	4706	4643	4581	4581	4521	4463	4463	4521	4521	4643	4706	4706	4706	4706	4706	4838	4906	3779	3779	3779	3738	3738	3738	3738	3698	3698	3698	3698	3698	3698	3698	3738	3738	3738	3779	3779	3779	3779	3779	3738	3738	3738	3738	3738	3738	3738	3738	3738	3738	3738	3738	3738	3738	4643	4581	4581	4581	4581	4581	4581	4581	4581	4581	4581	4581	4581	4581	4581	4581	4581	4581	4581	4581	4521	4521	4463	4463	4406	4406	4406	4406	4406	4406	4406	4406	4406	4350	4350	4350	4350	4350	4350	4350	4406	4406	4406	4406	4406	4350	4406	4350	4350	4463	4406	4406	4463	4463	4581	4581	4521	4581	4581	4581	4581	4581	4521	4521	4521	4463	4463	4463	4406	4406	4463	4463	4463	4521	4521	4521	4581	4581	4581	4581	4521	4581	4581	4581	4521	4463	4406	4463	4463	4406	4406	4406	4406	4350	4350	4296	4296	4350	4406	4463	4521	4581	4581	4643	4643	4581	4643	4643	4643	4581	4581	4581	4581	0	0	0	0	0	0	0	2496	2478	2478	2460	2460	2443	2409	2409	2409	2392	2327	2327	2312	2297	2281	2281	2266	2252	2237	2223	2208	2194	2181	2167	2153	2140	2140	2127	2114	2101	2088	2076	2076	2063	2063	2039	2015	1992	1958	1947	1936	1925	1915	1904	1904	1894	1883	1853	1853	1843	1843	1833	1824	1804	1786	1768	1759	1768	1759	1750	1741	1732	1732	1723	1715	1706	1690	1681	1673	1665	1657	1649	1641	1634	1626	1626	1626	1618	1618	1611	1603	1603	1596	1596	1589	1589	1589	1589	1589	1589	1589	1589	1589	1589	1589	1589	1589	1596	1596	1596	0	0	1146	1146	1142	1142	1142	1138	1134	1134	1131	1123	1120	1120	1120	1120	1120	1120	1116	1116	1113	1113	1113	1109	1109	1105	1105	1105	1105	1105	1105	1105	1105	1105	1105	1105	1109	1109	1109	1113	0	1486	1486	1499	1499	1499	0	0	0	0	0	0	0	0	0	0	0	0	0	0	0	0	0	0	0	0	0	0	0	0	0	0	0	0	0	0	0	0	0	0	0	0	0	0	0
0	0	0	0	0	0	0	0	0	0	0	0	0	1567	1567	1560	1567	1574	1574	1574	1574	1567	1567	1567	1567	1567	1567	1567	1567	1567	1567	1567	1574	1567	1567	1567	1567	1567	1567	1574	1574	1567	1567	1567	1567	1567	1560	1560	1560	1560	1560	1560	1560	1560	1567	1567	1567	1567	1567	1567	1567	1574	1574	1567	1574	1574	1574	1574	1574	1574	1567	1574	1574	1567	1567	1574	1574	1567	1567	1567	1574	1574	1567	1567	1574	1567	1567	1567	1567	1574	1567	1567	1581	1581	1581	1581	1581	1581	1581	1581	1581	1581	1581	1581	1581	1574	1581	1574	1581	1581	1581	1581	1581	1581	1581	1581	1581	1581	1581	1574	1581	1581	1581	1581	1581	1581	1581	1581	1589	1603	1618	1634	1641	1641	1649	1657	1665	1665	1673	1698	1698	1706	1706	1715	1723	1732	1741	1750	1750	1768	1777	1786	1795	1814	1833	1843	1853	1863	1883	1883	1904	1915	1925	1936	1936	1936	1936	1936	2076	2076	2076	2076	2076	2076	2063	2063	2076	2088	2088	2101	2114	2140	2140	2167	2181	2208	2237	2252	2266	2281	2281	2297	2297	2297	2312	2376	2409	2426	2443	2443	2460	2460	2443	2443	0	0	0	0	0	0	0	0	0	0	0	0	0	0	0	0	0	0	0	0	0	0	0	0	0	0	0	0	5719	5626	5535	5535	5535	5535	5535	5535	5535	0	0	0	0	0	0	0	0	0	0	0	0	0	0	0	0	0	4643	4643	4706	4706	4643	4706	4706	4706	4706	4706	4706	4706	4706	4706	4706	4706	4706	4706	4706	4643	4643	4706	4706	4706	4706	4643	4581	4521	4463	4463	4463	4521	4521	4581	4643	4706	4643	4643	4706	4771	4838	3779	3779	3738	3738	3738	3738	3738	3738	3698	3698	3698	3698	3698	3698	3738	3738	3738	3738	3779	3779	3779	3779	3738	3738	3738	3738	3738	3738	3738	3738	3738	3738	3738	3738	3738	3738	4643	4581	4581	4581	4581	4581	4581	4581	4581	4581	4581	4581	4581	4581	4581	4581	4521	4521	4521	4521	4521	4521	4463	4406	4406	4406	4406	4406	4406	4406	4406	4463	4406	4406	4350	4350	4463	4463	4463	4406	4463	4463	4463	4463	4463	4406	4406	4406	4350	4463	4406	4406	4521	4521	4581	4581	4581	4643	4643	4643	4643	4643	4581	4581	4581	4521	4521	4521	4521	4521	4463	4463	4463	4521	4521	4521	4581	4581	4581	4581	4521	4521	4581	4581	4521	4581	4521	4521	4521	4521	4521	4463	4406	4406	4350	4350	4350	4350	4406	4521	4581	4581	4581	4643	4643	4581	4643	4643	4643	4643	4643	4643	4643	4643	0	0	0	0	0	0	2496	2478	2478	2460	2443	2426	2409	2409	2392	2392	2359	2327	2312	2297	2281	2266	2252	2252	2237	2223	2208	2194	2181	2167	2153	2140	2140	2127	2127	2101	2088	2076	2076	2063	2063	2039	2015	1992	1980	1958	1936	1925	1915	1904	1904	1894	1873	1853	1853	1853	1853	1843	1824	1804	1795	1768	1759	1768	1759	1750	1741	1732	1723	1715	1715	1698	1690	1681	1673	1665	1657	1649	1641	1641	1634	1634	1626	1618	1611	1611	1603	1603	1596	1596	1596	1596	1589	1589	1589	1589	1589	1589	1589	1589	1589	1589	1589	1596	1596	1596	0	0	0	1146	1142	1142	1138	1138	1131	1131	1127	1123	1120	1123	1120	1120	1120	1120	1120	1116	1113	1113	1113	1109	1109	1105	1105	1105	1105	1102	1102	1102	1102	1102	1102	1105	1105	1105	1105	0	0	1492	1492	1499	1499	1499	0	0	0	0	0	0	0	0	0	0	0	0	0	0	0	0	0	0	0	0	0	0	0	0	0	0	0	0	0	0	0	0	0	0	0	0	0	0	0
0	0	0	0	0	0	0	0	0	0	0	0	0	1574	1567	1560	1567	1574	1574	1574	1574	1567	1567	1567	1567	1567	1567	1560	1560	1567	1567	1567	1567	1567	1567	1567	1567	1567	1567	1567	1574	1567	1567	1567	1567	1567	1560	1560	1560	1560	1560	1560	1560	1560	1560	1567	1567	1567	1567	1567	1567	1567	1574	1567	1574	1574	1574	1574	1574	1574	1567	1574	1567	1567	1567	1567	1567	1567	1567	1567	1574	1574	1567	1567	1567	1567	1567	1574	1574	1574	1567	1574	1581	1581	1581	1581	1581	1581	1581	1581	1581	1581	1581	1581	1581	1581	1581	1581	1581	1581	1581	1581	1581	1581	1581	1581	1581	1581	1581	1574	1581	1581	1574	1574	1581	1581	1581	1581	1589	1589	1611	1626	1641	1649	1657	1665	1665	1673	1673	1698	1698	1706	1706	1715	1723	1732	1741	1759	1759	1768	1777	1786	1795	1814	1824	1833	1843	1863	1883	1883	1904	1915	1925	1936	1936	1936	1958	1958	2063	2076	2076	2076	2076	2076	2063	2063	2076	2076	2088	2101	2114	2127	2140	2167	2181	2194	2223	2252	2266	2281	2281	2297	2297	2312	2327	2376	2392	2409	2426	2426	2426	2443	2460	2460	0	0	0	0	0	0	0	0	0	0	0	0	0	0	0	0	0	0	0	0	0	0	0	0	0	0	5626	5626	5626	5535	5535	5535	5535	5535	5535	5535	5535	5535	5535	0	0	0	0	0	0	0	0	0	0	0	0	0	0	0	4706	4706	4706	4706	4643	4643	4706	4706	4706	4706	4706	4706	4706	4706	4706	4706	4706	4706	4706	4706	4706	4706	4706	4706	4706	4581	4521	4521	4463	4463	4463	4463	4521	4521	4643	4643	4643	4643	4643	4706	3779	3779	3779	3738	3738	3738	3738	3738	3738	3738	3698	3698	3698	3698	3738	3738	3738	3738	3779	3779	3779	3779	3779	3738	3738	3738	3738	3738	3738	3738	3738	3698	3738	3738	3738	3738	3738	4643	4581	4521	4521	4521	4521	4521	4521	4581	4581	4581	4521	4521	4521	4521	4521	4521	4521	4521	4521	4521	4463	4406	4406	4406	4350	4406	4406	4406	4463	4463	4521	4521	4463	4463	4521	4521	4521	4463	4463	4521	4521	4521	4463	4521	4463	4521	4463	4463	4521	4463	4521	4521	4521	4581	4643	4643	4643	4643	4643	4643	4643	4643	4581	4581	4581	4581	4521	4521	4521	4521	4521	4463	4521	4521	4521	4581	4581	4581	4581	4581	4581	4581	4581	4581	4581	4581	4581	4581	4521	4521	4521	4463	4463	4350	4350	4296	4350	4406	4521	4581	4581	4581	4643	4643	4643	4643	4643	4643	4643	4643	4643	4706	4706	0	0	0	0	0	0	2496	2478	2478	2460	2443	2443	2409	2392	2392	2376	2359	2327	2312	2281	2281	2266	2252	2252	2237	2223	2208	2194	2181	2167	2153	2140	2140	2127	2127	2101	2088	2076	2076	2063	2051	2027	2003	1992	1980	1958	1947	1925	1904	1904	1894	1883	1873	1853	1853	1843	1843	1833	1824	1814	1786	1777	1768	1759	1759	1750	1741	1732	1723	1715	1715	1698	1690	1681	1673	1665	1657	1657	1649	1641	1634	1626	1618	1618	1611	1611	1603	1603	1596	1596	1596	1596	1596	1589	1589	1589	1589	1589	1589	1589	1589	1589	1589	1589	1596	1596	0	0	0	1146	1142	1142	1138	1138	1131	1131	1127	1123	1123	1123	1120	1120	1120	1120	1120	1116	1116	1113	1113	1109	1109	1105	1105	1105	1105	1102	1102	1102	1102	1102	1102	1105	1105	1098	1098	1098	0	1492	1492	1499	1492	1499	1499	0	0	0	0	0	0	0	0	0	0	0	0	0	0	0	0	0	0	0	0	0	0	0	0	0	0	0	0	0	0	0	0	0	0	0	0	0	0
0	0	0	0	0	0	0	0	0	0	0	0	0	1567	1560	1560	1567	1574	1574	1574	1574	1567	1567	1567	1567	1560	1560	1560	1560	1560	1567	1567	1567	1567	1567	1567	1567	1567	1567	1567	1567	1567	1567	1567	1560	1560	1560	1560	1553	1560	1560	1560	1560	1560	1560	1567	1567	1567	1567	1567	1567	1567	1567	1567	1574	1574	1574	1574	1574	1574	1567	1574	1574	1567	1567	1574	1567	1567	1567	1567	1567	1567	1567	1567	1567	1567	1581	1574	1574	1574	1574	1574	1581	1581	1581	1581	1581	1581	1581	1581	1581	1581	1574	1574	1581	1574	1581	1581	1581	1581	1581	1581	1581	1581	1581	1581	1589	1581	1581	1581	1581	1581	1574	1574	1574	1581	1581	1581	1581	1589	1611	1626	1634	1641	1649	1657	1657	1665	1665	1690	1698	1706	1715	1723	1723	1741	1750	1759	1759	1768	1777	1786	1795	1814	1824	1833	1843	1863	1883	1883	1904	1915	1925	1936	1936	1936	1969	2015	2063	2076	2076	2076	2063	2063	2063	2063	2063	2076	2088	2101	2114	2127	2140	2167	2181	2208	2237	2252	2266	2281	2297	2297	2297	2312	2343	2343	2376	2409	2426	2426	2443	2443	2460	2460	0	0	0	0	0	0	0	0	0	0	0	0	0	0	0	0	0	0	0	0	0	0	0	0	0	0	5626	5626	5626	5535	5535	5535	5535	5535	5535	5535	5535	5448	5448	5448	0	0	0	0	0	0	0	0	0	0	0	0	0	4706	4771	4771	4771	4706	4643	4643	4706	4706	4706	4706	4706	4706	4706	4706	4706	4706	4706	4706	4706	4643	4643	4706	4643	4706	4643	4643	4521	4521	4463	4463	4463	4463	4521	4521	4581	4581	4581	4581	4643	4643	4643	3779	3779	3738	3738	3738	3738	3738	3738	3738	3698	3698	3698	3698	3698	3738	3738	3738	3779	3779	3779	3779	3738	3738	3738	3738	3738	3738	3738	3738	3738	3738	3738	3738	3738	3738	3738	3738	4581	4521	4521	4521	4521	4521	4521	4521	4521	4521	4521	4521	4521	4521	4521	4463	4521	4521	4521	4463	4463	4406	4406	4406	4406	4463	4463	4463	4581	4581	4521	4521	4521	4521	4521	4521	4521	4521	4521	4521	4521	4521	4521	4521	4521	4521	4521	4521	4521	4521	4521	4581	4521	4643	4643	4643	4643	4643	4643	4643	4643	4643	4643	4581	4581	4581	4581	4581	4581	4521	4521	4521	4581	4581	4581	4581	4581	4581	4581	4581	4581	4581	4581	4581	4581	4581	4581	4521	4463	4406	4406	4350	4350	4350	4296	4243	4350	4406	4463	4521	4581	4581	4581	4581	4581	4581	4643	4643	4643	4643	4643	4643	4643	0	0	0	0	0	0	2496	2478	2478	2460	2443	2443	2409	2409	2376	2376	2343	2312	2297	2281	2266	2252	2252	2237	2237	2208	2194	2194	2181	2167	2153	2153	2140	2140	2127	2101	2088	2076	2076	2063	2051	2027	2003	1992	1980	1958	1947	1925	1915	1904	1894	1883	1873	1853	1853	1843	1843	1833	1824	1814	1795	1777	1768	1759	1759	1750	1741	1732	1723	1715	1706	1690	1681	1681	1673	1665	1665	1665	1649	1649	1626	1626	1618	1611	1611	1611	1611	1603	1603	1603	1596	1596	1596	1596	1589	1589	1589	1589	1589	1589	1589	1589	1589	1589	1581	1581	0	0	0	1146	1142	1142	1138	1138	1131	1131	1127	1127	1123	1120	1120	1120	1120	1120	1120	1116	1116	1113	1113	1109	1105	1105	1105	1105	1102	1102	1102	1102	1102	1102	1102	1102	1105	1098	1098	1098	0	0	0	1499	1492	1499	1499	0	0	0	0	0	0	0	0	0	0	0	0	0	0	0	0	0	0	0	0	0	0	0	0	0	0	0	0	0	0	0	0	0	0	0	0	0	0
0	0	0	0	0	0	0	0	0	0	0	0	0	1567	1560	1560	1560	1574	1574	1574	1567	1567	1567	1567	1567	1567	1560	1567	1560	1567	1567	1567	1567	1567	1567	1567	1567	1567	1567	1567	1567	1560	1560	1560	1560	1560	1553	1553	1553	1560	1560	1560	1553	1560	1560	1567	1567	1567	1567	1567	1567	1567	1567	1567	1574	1574	1574	1574	1574	1574	1574	1574	1574	1567	1567	1567	1567	1567	1567	1567	1574	1574	1567	1567	1574	1574	1574	1574	1567	1574	1567	1574	1581	1581	1581	1581	1581	1581	1581	1581	1581	1581	1574	1574	1581	1574	1581	1581	1581	1581	1581	1581	1581	1581	1581	1581	1589	1581	1581	1581	1581	1581	1581	1574	1574	1581	1581	1581	1581	1596	1603	1626	1634	1634	1649	1657	1665	1673	1673	1690	1698	1698	1706	1723	1732	1732	1741	1759	1759	1768	1777	1786	1795	1814	1833	1843	1853	1863	1873	1883	1894	1904	1925	1936	1936	1936	1992	2039	2051	2063	2076	2063	2063	2063	2063	2063	2063	2076	2088	2088	2114	2127	2153	2181	2194	2194	2237	2252	2266	2281	2281	2312	2312	2343	2359	2376	2376	2392	2426	2443	2460	2478	2460	2460	0	0	0	0	0	0	0	0	0	0	0	0	0	0	0	0	0	0	0	0	0	0	0	0	0	0	5535	5626	5535	5626	5535	5535	5535	5535	5535	5535	5448	5448	5448	5448	0	0	0	0	0	0	0	0	0	0	0	0	0	4706	4706	4771	4771	4706	4706	4643	4706	4706	4706	4643	4643	4706	4706	4706	4706	4706	4706	4706	4706	4706	4706	4706	4706	4706	4706	4643	4581	4521	4521	4463	4463	4463	4521	4521	4581	4581	4581	4581	4581	4581	3779	3738	3738	3738	3738	3738	3738	3738	3698	3738	3698	3698	3698	3698	3698	3738	3738	3738	3779	3779	3779	3779	3779	3738	3738	3738	3738	3698	3738	3738	3738	3738	3738	3738	3738	3738	3738	3738	3738	4521	4521	4521	4463	4463	4521	4521	4521	4521	4521	4521	4521	4521	4463	4463	4463	4463	4463	4463	4463	4406	4406	4406	4406	4463	4463	4521	4521	4581	4521	4521	4521	4521	4581	4581	4521	4521	4521	4521	4521	4521	4521	4521	4521	4521	4521	4521	4521	4521	4521	4521	4521	4581	4581	4581	4643	4643	4643	4581	4643	4581	4643	4581	4581	4581	4581	4581	4581	4521	4521	4521	4521	4521	4521	4521	4521	4581	4581	4581	4581	4581	4581	4581	4581	4521	4521	4521	4463	4463	4406	4406	4406	4350	4296	4296	4296	4350	4406	4521	4581	4581	4581	4581	4581	4581	4581	4581	4581	4643	4643	4643	4643	0	0	0	0	0	0	2496	2478	2460	2443	2426	2409	2409	2392	2376	2376	2359	2327	2312	2297	2266	2252	2237	2237	2223	2208	2194	2194	2181	2167	2153	2140	2140	2127	2127	2101	2088	2076	2076	2063	2051	2027	2003	1992	1980	1958	1936	1925	1915	1904	1894	1873	1863	1853	1853	1843	1843	1833	1824	1814	1795	1777	1759	1759	1750	1750	1741	1732	1723	1715	1706	1690	1681	1681	1673	1673	1665	1665	1657	1649	1641	1626	1618	1611	1611	1611	1611	1611	1603	1611	1603	1596	1589	1589	1589	1589	1589	1589	1589	1589	1589	1589	1589	1589	1589	1581	0	0	0	0	1146	1142	1138	1131	1127	1127	1127	1123	1123	1120	1120	1120	1120	1120	1120	1116	1116	1116	1113	1109	1109	1105	1105	1105	1102	1102	1102	1102	1102	1102	1102	1105	1105	1098	1098	1098	0	0	0	1499	1492	1492	1492	0	0	0	0	0	0	0	0	0	0	0	0	0	0	0	0	0	0	0	0	0	0	0	0	0	0	0	0	0	0	0	0	0	0	0	0	0	0
0	0	0	0	0	0	0	0	0	0	0	0	0	1567	1560	1560	1560	1567	1567	1567	1567	1567	1567	1567	1567	1567	1560	1567	1560	1560	1567	1567	1567	1567	1567	1567	1567	1567	1560	1560	1560	1560	1560	1553	1553	1553	1553	1553	1553	1560	1560	1560	1560	1560	1567	1567	1567	1567	1567	1567	1567	1567	1567	1567	1567	1574	1574	1574	1574	1574	1574	1574	1574	1574	1574	1574	1574	1574	1574	1567	1567	1567	1574	1567	1574	1574	1574	1574	1567	1574	1574	1574	1581	1581	1581	1581	1581	1581	1581	1581	1581	1581	1574	1574	1581	1574	1581	1574	1574	1574	1581	1581	1581	1581	1581	1581	1581	1581	1581	1581	1581	1581	1581	1574	1581	1581	1581	1581	1596	1596	1603	1618	1634	1634	1641	1657	1665	1673	1673	1690	1698	1706	1706	1715	1732	1741	1750	1759	1759	1768	1777	1786	1795	1795	1824	1843	1853	1863	1873	1883	1894	1915	1925	1936	1936	1936	2015	2039	2051	2063	2063	2063	2063	2063	2063	2063	2063	2076	2076	2076	2076	2127	2153	2167	2167	2194	2223	2252	2266	2281	2297	2312	2327	2343	2359	2376	2376	2392	2409	2443	2460	2460	2460	2460	0	0	0	0	0	0	0	0	0	0	0	0	0	0	0	0	0	0	0	0	0	0	0	0	0	0	5535	5626	5535	5626	5535	5535	5535	5535	5535	5448	5448	5448	5448	5448	0	0	0	0	0	0	0	0	0	0	0	0	0	4706	4771	4706	4771	4706	4706	4706	4706	4706	4706	4706	4643	4706	4706	4706	4706	4706	4706	4706	4706	4706	4706	4706	4706	4706	4706	4643	4581	4521	4521	4463	4463	4463	4463	4521	4521	4521	4521	4406	4406	4406	3779	3738	3738	3738	3738	3738	3738	3738	3698	3698	3698	3698	3698	3698	3698	3738	3738	3738	3779	3779	3779	3779	3779	3738	3738	3738	3738	3698	3738	3738	3738	3738	3738	3738	3738	3738	3738	3738	3738	4581	4521	4521	4463	4463	4463	4463	4521	4521	4463	4463	4463	4463	4406	4463	4463	4463	4463	4463	4406	4463	4406	4406	4463	4521	4521	4521	4521	4581	4521	4521	4521	4521	4521	4581	4521	4521	4521	4521	4521	4521	4521	4521	4521	4521	4521	4521	4521	4521	4521	4521	4521	4581	4581	4581	4643	4581	4581	4581	4581	4581	4581	4581	4581	4581	4581	4581	4581	4581	4521	4521	4521	4521	4521	4521	4463	4521	4521	4521	4521	4521	4521	4521	4521	4463	4463	4463	4406	4406	4406	4350	4350	4296	4296	4243	4296	4296	4406	4521	4521	4581	4581	4581	4581	4581	4581	4581	4581	4581	4643	4643	4643	0	0	0	0	0	0	2496	2478	2460	2426	2426	2426	2409	2409	2392	2376	2359	2327	2312	2297	2266	2252	2237	2237	2223	2208	2194	2194	2181	2167	2153	2140	2140	2140	2127	2101	2088	2088	2076	2063	2039	2015	1992	1980	1958	1947	1936	1925	1915	1904	1894	1873	1863	1853	1853	1843	1843	1824	1824	1814	1795	1786	1777	1768	1768	1759	1750	1750	1741	1715	1715	1706	1690	1681	1681	1673	1673	1673	1665	1649	1641	1626	1626	1618	1626	1618	1618	1618	1611	1611	1596	1596	1596	1596	1589	1596	1589	1596	1589	1589	1589	1589	1589	1581	1581	0	0	0	0	0	1146	1138	1134	1134	1127	1127	1123	1123	1123	1120	1120	1120	1120	1120	1120	1116	1116	1116	1113	1105	1105	1102	1105	1105	1102	1102	1102	1102	1102	1102	1102	1105	1105	1105	1105	1105	0	0	1492	1492	1492	1492	1492	0	0	0	0	0	0	0	0	0	0	0	0	0	0	0	0	0	0	0	0	0	0	0	0	0	0	0	0	0	0	0	0	0	0	0	0	0	0
0	0	0	0	0	0	0	0	0	0	0	0	0	1567	1560	1560	1560	1567	1567	1567	1567	1567	1574	1567	1567	1567	1567	1567	1567	1567	1567	1567	1567	1567	1567	1567	1567	1567	1560	1560	1560	1560	1560	1553	1553	1553	1553	1553	1553	1560	1560	1560	1560	1567	1567	1567	1567	1567	1567	1567	1567	1567	1567	1567	1567	1567	1567	1567	1567	1567	1567	1574	1567	1567	1567	1574	1574	1567	1567	1567	1567	1567	1574	1567	1574	1574	1574	1574	1567	1567	1567	1567	1574	1581	1581	1581	1581	1581	1581	1581	1581	1581	1574	1574	1574	1574	1581	1581	1574	1574	1581	1581	1581	1581	1581	1581	1581	1574	1574	1574	1574	1581	1581	1581	1596	1596	1596	1603	1603	1603	1611	1618	1634	1641	1641	1657	1665	1673	1673	1681	1698	1698	1706	1715	1732	1741	1741	1759	1759	1768	1777	1786	1804	1814	1824	1843	1853	1863	1883	1883	1894	1915	1925	1936	1936	1947	2015	2039	2051	2063	2063	2063	2063	2063	2063	2063	2063	2063	2063	2076	2076	2127	2194	2194	2194	2194	2223	2237	2252	2266	2281	2297	2327	2343	2359	2376	2392	2392	2426	2443	2460	2460	2460	0	0	0	0	0	0	0	0	0	0	0	0	0	0	0	0	0	0	0	0	0	0	0	0	0	0	0	5626	5626	5626	5535	5535	5535	5535	5535	5448	5448	5448	5364	5448	5364	5364	0	0	0	0	0	0	0	0	0	0	0	0	4771	4771	4771	4706	4706	4706	4706	4706	4706	4706	4706	4643	4643	4706	4706	4706	4706	4706	4706	4706	4706	4706	4706	4706	4706	4643	4643	4521	4521	4463	4463	4463	4463	4463	4463	4463	4463	4350	4350	4350	4406	0	3779	3779	3738	3738	3738	3738	3738	3738	3738	3698	3698	3698	3698	3738	3738	3738	3738	3779	3779	3779	3779	3738	3738	3738	3738	3738	3738	3738	3738	3738	3738	3738	3738	3738	3738	3738	3738	3738	4521	4521	4521	4406	4406	4406	4406	4406	4406	4463	4463	4463	4463	4463	4463	4463	4463	4463	4406	4406	4463	4406	4406	4406	4463	4521	4521	4521	4521	4521	4521	4521	4521	4521	4521	4521	4521	4521	4521	4521	4521	4521	4521	4581	4521	4521	4521	4521	4521	4521	4521	4521	4581	4581	4581	4643	4581	4581	4581	4521	4521	4521	4521	4521	4521	4521	4521	4521	4521	4463	4463	4463	4463	4463	4463	4463	4463	4463	4463	4463	4463	4463	4463	4463	4463	4463	4406	4406	4406	4350	4350	4350	4296	4296	4296	4296	4350	4406	4521	4521	4581	4581	4581	4581	4581	4581	4581	4581	4581	4581	4581	0	0	0	0	0	0	0	2496	2478	2460	2426	2426	2426	2392	2392	2376	2359	2343	2327	2312	2297	2266	2252	2237	2237	2223	2208	2194	2181	2181	2167	2153	2140	2140	2140	2127	2114	2101	2088	2076	2063	2039	2015	1992	1980	1958	1947	1936	1925	1904	1904	1894	1873	1863	1853	1853	1843	1843	1833	1824	1814	1804	1786	1786	1777	1768	1759	1759	1750	1750	1741	1723	1715	1690	1681	1681	1681	1673	1673	1673	1657	1649	1649	1626	1611	1626	1618	1618	1618	1618	1618	1596	1596	1596	1596	1596	1596	1589	1596	1589	1589	1589	1589	1589	1581	1581	0	0	0	0	0	1146	1138	1134	1134	1131	1127	1123	1123	1123	1120	1120	1120	1120	1120	1120	1116	1116	1116	1113	1109	1109	1105	1105	1105	1102	1102	1102	1102	1102	1102	1102	1102	1105	1102	1102	1102	0	0	1486	1486	1486	1486	1486	0	0	0	0	0	0	0	0	0	0	0	0	0	0	0	0	0	0	0	0	0	0	0	0	0	0	0	0	0	0	0	0	0	0	0	0	0	0
0	0	0	0	0	0	0	0	0	0	0	0	0	1560	1560	1560	1560	1567	1567	1567	1567	1567	1567	1567	1567	1567	1567	1567	1560	1567	1567	1567	1567	1567	1567	1567	1567	1567	1560	1567	1560	1560	1560	1560	1553	1553	1553	1553	1553	1560	1560	1567	1567	1567	1567	1567	1567	1567	1567	1567	1567	1567	1567	1567	1567	1567	1567	1567	1567	1567	1567	1567	1567	1567	1567	1574	1574	1567	1567	1567	1574	1574	1574	1574	1574	1574	1574	1574	1567	1567	1567	1567	1574	1574	1581	1581	1581	1581	1581	1581	1581	1581	1574	1574	1574	1574	1581	1581	1574	1574	1581	1581	1581	1581	1581	1574	1574	1574	1574	1581	1581	1581	1589	1596	1603	1603	1603	1603	1603	1603	1603	1618	1634	1634	1641	1657	1665	1673	1681	1690	1698	1706	1706	1715	1732	1732	1741	1750	1750	1759	1777	1786	1804	1814	1824	1843	1853	1873	1883	1883	1894	1904	1915	1936	1936	2003	2015	2039	2051	2063	2063	2063	2051	2051	2051	2063	2063	2063	2076	2076	2076	0	2167	2194	2194	2208	2237	2252	2266	2266	2281	2312	2327	2343	2359	2376	2392	2392	2409	2443	2443	2460	2460	0	0	0	0	0	0	0	0	0	0	0	0	0	0	0	0	0	0	0	0	0	0	0	0	0	0	0	5626	5535	5626	5535	5626	5535	5535	5535	5535	5535	5535	5448	5448	5364	5364	5448	5448	0	0	0	0	0	0	0	0	0	0	4771	4771	4771	4706	4706	4706	4706	4706	4706	4706	4706	4643	4643	4706	4706	4706	4706	4706	4706	4706	4706	4706	4706	4706	4706	4643	4643	4521	4521	4463	4463	4463	4463	4463	4521	4463	4463	4463	4406	4406	0	0	3821	3779	3738	3738	3738	3738	3738	3738	3738	3738	3698	3698	3698	3738	3738	3738	3738	3779	3779	3779	3779	3779	3779	3738	3738	3738	3738	3738	3738	3738	3738	3738	3738	3738	3738	3738	3738	3738	3738	4521	4463	4406	4406	4406	4406	4521	4521	4521	4521	4521	4521	4463	4463	4463	4463	4463	4463	4463	4463	4406	4406	4406	4463	4463	4463	4521	4521	4521	4521	4521	4521	4521	4521	4521	4521	4521	4521	4521	4521	4521	4521	4581	4521	4521	4521	4521	4521	4521	4521	4521	4581	4581	4581	4581	4581	4581	4521	4521	4463	4463	4463	4463	4406	4406	4406	4406	4463	4463	4406	4406	4406	4406	4406	4406	4406	4406	4406	4406	4406	4406	4406	4463	4406	4406	4406	4406	4350	4350	4350	4350	4296	4296	4296	4243	4243	4406	4521	4581	4581	4581	4581	4581	4581	4581	4581	4581	4581	4581	4581	0	0	0	0	0	0	0	2496	2478	2460	2443	2426	2426	2409	2392	2376	2359	2343	2327	2312	2297	2297	2252	2237	2223	2223	2208	2194	2181	2181	2167	2153	2140	2140	2140	2127	2114	2101	2088	2076	2051	2039	2027	1980	1969	1958	1947	1936	1925	1904	1894	1883	1873	1863	1863	1853	1843	1843	1824	1824	1814	1804	1795	1786	1786	1777	1768	1759	1759	1750	1741	1741	1723	1690	1690	1681	1681	1681	1681	1673	1673	1665	1665	1657	1641	1634	1618	1626	1626	1618	1618	1611	1603	1596	1603	1596	1596	1589	1589	1589	1589	1589	1581	1581	1581	1567	1567	0	0	0	0	1146	1138	1138	1134	1134	1127	1127	1127	1123	1120	1123	1120	1120	1120	1120	1116	1116	1116	1113	1109	1109	1105	1105	1105	1102	1102	1098	1098	1098	1102	1098	1102	1105	1102	1102	1102	0	0	1486	1486	1486	1486	1486	0	0	0	0	0	0	0	0	0	0	0	0	0	0	0	0	0	0	0	0	0	0	0	0	0	0	0	0	0	0	0	0	0	0	0	0	0	0
0	0	0	0	0	0	0	0	0	0	0	0	0	1560	1560	1560	1560	1567	1567	1567	1574	1574	1574	1567	1567	1567	1567	1567	1567	1567	1567	1567	1567	1567	1567	1567	1567	1567	1560	1560	1560	1560	1560	1553	1553	1553	1553	1553	1553	1560	1560	1567	1567	1574	1567	1567	1567	1567	1567	1567	1567	1567	1567	1567	1567	1567	1567	1567	1567	1567	1567	1567	1567	1567	1567	1567	1567	1567	1567	1567	1567	1574	1574	1574	1574	1574	1574	1574	1567	1567	1567	1567	1574	1574	1574	1574	1574	1574	1574	1574	1581	1581	1574	1574	1581	1581	1581	1581	1581	1581	1581	1581	1581	1574	1574	1574	1574	1574	1574	1581	1581	1589	1589	1596	1603	1603	1603	1603	1611	1611	1611	1618	1626	1634	1634	1649	1690	1690	1690	1698	1706	1706	1715	1715	1732	1732	1741	1750	1750	1759	1777	1786	1804	1814	1824	1843	1853	1873	1883	1883	1894	1915	1925	1925	1936	1969	1969	2039	2051	2051	2063	2063	2051	2063	2063	2063	2063	2076	2076	2088	2088	2140	2167	2167	2194	2208	2237	2252	2266	2281	2297	2312	2327	2343	2359	2376	2392	2392	2409	2443	2443	2460	2460	0	0	0	0	0	0	0	0	0	0	0	0	0	0	0	0	0	0	0	0	0	0	0	0	0	0	0	0	5535	5535	5626	5626	5626	5626	5535	5535	5535	5535	5448	5448	5448	5364	5364	5448	0	0	0	0	0	0	0	0	0	0	4838	4771	4771	4706	4706	4706	4706	4706	4706	4706	4706	4643	4706	4706	4706	4706	4706	4706	4706	4706	4643	4643	4643	4643	4643	4643	4643	4581	4521	4463	4463	4463	4463	4463	4463	4463	4463	4406	4406	4406	0	0	3779	3779	3738	3738	3738	3738	3738	3738	3738	3698	3698	3698	3698	3738	3738	3738	3738	3779	3779	3779	3779	3779	3779	3779	3779	3738	3738	3738	3738	3738	3738	3738	3738	3738	3738	3738	3738	3738	4521	4521	4521	4463	4406	4463	4463	4521	4521	4521	4581	4521	4521	4521	4521	4521	4521	4521	4521	4463	4463	4406	4406	4406	4463	4463	4463	4521	4521	4521	4521	4521	4521	4521	4521	4521	4521	4521	4521	4521	4521	4521	4581	4581	4581	4521	4521	4521	4521	4521	4521	4521	4521	4581	4581	4581	4581	4521	4463	4463	4463	4406	4406	4406	4350	4406	4350	4406	4406	4406	4406	4406	4406	4406	4406	4350	4350	4350	4350	4350	4350	4406	4406	4406	4406	4406	4406	4350	4350	4350	4350	4296	4296	4296	4243	4243	4243	4521	4521	4581	4581	4581	4581	4581	4581	4581	4581	4521	4521	4521	4521	0	0	0	0	0	0	0	2496	2496	2478	2443	2426	2426	2392	2392	2376	2359	2343	2327	2312	2297	2297	2266	2237	2237	2223	2208	2194	2194	2181	2167	2153	2140	2140	2127	2127	2114	2101	2088	2063	2051	2039	1992	1980	1969	1958	1947	1936	1925	1915	1915	1894	1883	1873	1863	1853	1853	1843	1833	1824	1824	1814	1804	1795	1786	1777	1777	1777	1768	1759	1750	1750	1741	1732	1706	1698	1690	1690	1681	1681	1681	1673	1665	1665	1657	1641	1634	1626	1634	1626	1626	1603	1603	1603	1603	1596	1596	1589	1589	1589	1589	1581	1581	1581	1574	1567	1567	0	0	0	0	1146	1142	1142	1142	1134	1131	1127	1131	1123	1123	1123	1120	1120	1116	1116	1116	1116	1116	1113	1105	1105	1102	1102	1102	1098	1098	1095	1102	1102	1098	1098	1102	1105	1105	1105	1105	0	0	1480	1480	1486	1486	1486	0	0	0	0	0	0	0	0	0	0	0	0	0	0	0	0	0	0	0	0	0	0	0	0	0	0	0	0	0	0	0	0	0	0	0	0	0	0
