0	0	0	0	0	0	0	0	0	0	0	0	0	0	0	0	0	0	0	0	0	0	0	0	0	0	0	0	0	0	0	0	0	0	0	0	0	0	0	0	0	0	0	0	0	0	0	0	0	0	0	0	0	0	0	0	0	0	0	0	0	0	0	0	0	0	0	0	0	0	0	0	0	0	0	0	0	0	0	0	0	0	0	0	0	0	0	0	0	0	0	0	0	0	0	0	0	0	0	0	0	0	0	0	0	0	0	0	0	0	0	0	0	0	0	0	0	0	0	0	0	0	0	0	0	0	0	0	0	0	0	0	0	0	0	0	0	0	0	0	0	0	0	0	0	0	0	0	0	0	0	0	0	0	0	0	0	0	0	0	0	0	0	0	0	0	0	0	0	0	0	0	0	0	0	0	0	0	0	0	0	0	0	0	0	0	0	0	0	0	0	0	0	0	0	0	0	0	0	0	0	0	0	0	0	0	0	0	0	0	0	0	0	0	0	0	0	0	0	0	0	0	0	0	0	0	0	0	0	0	0	0	0	0	0	0	0	0	0	0	0	0	0	0	0	0	0	0	0	0	0	0	0	0	0	0	0	0	0	0	0	0	0	0	0	0	0	0	0	0	0	0	0	0	0	0	0	0	0	0	0	0	0	0	0	0	0	0	0	0	0	0	0	0	0	0	0	0	0	0	0	0	0	0	0	0	0	0	0	0	0	0	0	0	0	0	0	0	0	0	0	0	0	0	0	0	0	0	0	0	0	0	0	0	0	0	0	0	0	0	0	0	0	0	0	0	0	0	0	0	0	0	0	0	0	0	0	0	0	0	0	0	0	0	0	0	0	0	0	0	0	0	0	0	0	0	0	0	0	0	0	0	0	0	0	0	0	0	0	0	0	0	0	0	0	0	0	0	0	0	0	0	0	0	0	0	0	0	0	0	0	0	0	0	0	0	0	0	0	0	0	0	0	0	0	0	0	0	0	0	0	0	0	4977	4906	4906	4977	4977	4977	4977	4977	4977	4977	4977	4977	4977	4977	4977	4977	4906	4906	4906	4906	4906	4977	4977	4977	4977	4977	5050	4977	4977	4977	4977	4977	4977	4977	4977	4977	4977	4977	5050	5050	4977	4977	4977	4906	4906	4906	4906	4977	4977	4977	5050	5050	5050	4977	5050	4977	4977	4906	4977	4906	4906	4906	4906	4906	4906	4906	4906	4906	4906	4906	4906	4906	4906	4906	4906	4906	4838	4838	4838	4838	4771	4771	4838	4838	4906	4906	4977	4977	4977	4977	4977	4977	4906	4906	4838	4838	4838	4838	4771	4838	4906	4906	4906	4906	4906	4906	4906	4838	4838	4906	4906	4906	4906	4906	4906	4906	4906	4906	4838	4838	4838	4838	4771	4771	4771	4771	4771	4706	4706	4706	4771	4771	4771	4771	4771	4771	4771	4771	4771	4771	4771	0	0	0	0	2609	2609	2609	2589	2589	2589	2570	2570	2570	2532	2532	2514	2496	2496	2514	2478	2496	2478	2496	2496	2496	2478	2460	2460	2460	0	0	0	0	0	0	0	0	0	0	0	0	0	0	0	0	0	0	0	0	0	0	0	0	0	0	0	0	0	0	0	0	0	0	0	0	0
0	0	0	0	0	0	0	0	0	0	0	0	0	0	0	0	0	0	0	0	0	0	0	0	0	0	0	0	0	0	0	0	0	0	0	0	0	0	0	0	0	0	0	0	0	0	0	0	0	0	0	0	0	0	0	0	0	0	0	0	0	0	0	0	0	0	0	0	0	0	0	0	0	0	0	0	0	0	0	0	0	0	0	0	0	0	0	0	0	0	0	0	0	0	0	0	0	0	0	0	0	0	0	0	0	0	0	0	0	0	0	0	0	0	0	0	0	0	0	0	0	0	0	0	0	0	0	0	0	0	0	0	0	0	0	0	0	0	0	0	0	0	0	0	0	0	0	0	0	0	0	0	0	0	0	0	0	0	0	0	0	0	0	0	0	0	0	0	0	0	0	0	0	0	0	0	0	0	0	0	0	0	0	0	0	0	0	0	0	0	0	0	0	0	0	0	0	0	0	0	0	0	0	0	0	0	0	0	0	0	0	0	0	0	0	0	0	0	0	0	0	0	0	0	0	0	0	0	0	0	0	0	0	0	0	0	0	0	0	0	0	0	0	0	0	0	0	0	0	0	0	0	0	0	0	0	0	0	0	0	0	0	0	0	0	0	0	0	0	0	0	0	0	0	0	0	0	0	0	0	0	0	0	0	0	0	0	0	0	0	0	0	0	0	0	0	0	0	0	0	0	0	0	0	0	0	0	0	0	0	0	0	0	0	0	0	0	0	0	0	0	0	0	0	0	0	0	0	0	0	0	0	0	0	0	0	0	0	0	0	0	0	0	0	0	0	0	0	0	0	0	0	0	0	0	0	0	0	0	0	0	0	0	0	0	0	0	0	0	0	0	0	0	0	0	0	0	0	0	0	0	0	0	0	0	0	0	0	0	0	0	0	0	0	5125	5125	5125	5125	5050	5050	5050	5125	5050	5050	5050	5050	5050	5050	5050	5050	5050	5050	5050	5050	4977	4977	4977	4977	5050	5050	5125	5050	5050	5050	4977	5050	4977	4906	4906	4906	4906	4906	4906	4906	4906	4906	4906	4977	4977	4977	4977	4977	4977	4977	4977	4977	4977	4977	4977	4906	4906	4977	4977	4906	4977	4977	4977	4977	4977	5050	4977	5050	5050	4977	4977	4977	4977	4977	4977	5050	4977	5050	5050	4977	4977	4977	4977	4977	4906	4906	4977	4977	5050	5050	5050	5050	5050	5050	4977	4906	4906	4977	4977	4906	4906	4906	4906	4906	4906	4906	4906	4906	4906	4906	4906	4906	4906	4906	4906	4838	4906	4906	4838	4838	4771	4838	4838	4906	4906	4977	4977	4977	4977	4977	4977	4906	4906	4838	4838	4838	4838	4838	4906	4906	4906	4906	4906	4906	4906	4906	4838	4838	4838	4906	4906	4906	4906	4906	4906	4906	4838	4838	4838	4838	4838	4771	4771	4771	4771	4771	4771	4706	4706	4771	4771	4771	4771	4771	4771	4771	4771	4838	4838	4838	0	0	0	0	2589	2609	2589	2589	2589	2589	2589	2570	2570	2532	2532	2514	2496	2496	2496	2478	2496	2478	2478	2478	2478	2460	2460	2460	2460	0	0	0	0	0	0	0	0	0	0	0	0	0	0	0	0	0	0	0	0	0	0	0	0	0	0	0	0	0	0	0	0	0	0	0	0	0
0	0	0	0	0	0	0	0	0	0	0	0	0	0	0	0	0	0	0	0	0	0	0	0	0	0	0	0	0	0	0	0	0	0	0	0	0	0	0	0	0	0	0	0	0	0	0	0	0	0	0	0	0	0	0	0	0	0	0	0	0	0	0	0	0	0	0	0	0	0	0	0	0	0	0	0	0	0	0	0	0	0	0	0	0	0	0	0	0	0	0	0	0	0	0	0	0	0	0	0	0	0	0	0	0	0	0	0	0	0	0	0	0	0	0	0	0	0	0	0	0	0	0	0	0	0	0	0	0	0	0	0	0	0	0	0	0	0	0	0	0	0	0	0	0	0	0	0	0	0	0	0	0	0	0	0	0	0	0	0	0	0	0	0	0	0	0	0	0	0	0	0	0	0	0	0	0	0	0	0	0	0	0	0	0	0	0	0	0	0	0	0	0	0	0	0	0	0	0	0	0	0	0	0	0	0	0	0	0	0	0	0	0	0	0	0	0	0	0	0	0	0	0	0	0	0	0	0	0	0	0	0	0	0	0	0	0	0	0	0	0	0	0	0	0	0	0	0	0	0	0	0	0	0	0	0	0	0	0	0	0	0	0	0	0	0	0	0	0	0	0	0	0	0	0	0	0	0	0	0	0	0	0	0	0	0	0	0	0	0	0	0	0	0	0	0	0	0	0	0	0	0	0	0	0	0	0	0	0	0	0	0	0	0	0	0	0	0	0	0	0	0	0	0	0	0	0	0	0	0	0	0	0	0	0	0	0	0	0	0	0	0	0	0	0	0	0	0	5050	5050	5050	5050	5050	5050	5050	5050	5050	5050	5050	5050	5050	5050	5050	5050	4977	5050	5050	5050	4906	5050	5050	5050	5050	4906	4906	4906	4906	4906	4906	4977	5050	5050	5050	5050	5050	5050	5125	5050	5050	5050	5050	5125	5125	5125	5125	5125	5125	5125	5125	5050	5050	5125	5050	5125	5050	5050	5050	5050	5050	5125	5050	5050	5050	5050	5050	5050	5050	5050	5050	5050	5125	5050	5050	5050	5050	5050	4977	4977	4977	4906	4906	4906	4906	4906	4906	4977	4977	4977	4977	4977	4977	4977	4977	4977	4977	4977	4977	4977	4977	4906	4906	4977	4977	4977	4977	4977	4977	4977	5050	5050	5050	5050	5125	5050	5050	5050	5050	5125	5125	5050	4977	5050	5050	4977	4977	4977	4906	4906	4906	5050	5050	5050	5050	5050	5050	5050	5050	5050	4977	4977	4906	4906	4977	4977	4906	4906	4977	4906	4906	4977	4906	4906	4906	4906	4906	4906	4906	4906	4906	4906	4906	4906	4906	4906	4838	4906	4906	4906	4906	4977	4977	4977	4977	4977	4977	4906	4906	4838	4838	4838	4838	4906	4906	4906	4977	4906	4906	4906	4906	4906	4838	4838	4838	4906	4906	4906	4906	4906	4906	4906	4838	4838	4838	4838	4838	4838	4771	4771	4838	4771	4771	4706	4771	4771	4771	4771	4771	4771	4771	4771	4771	4838	4838	4838	0	0	0	0	2589	2609	2609	2609	2609	2589	2589	2570	2570	2532	2532	2514	2496	2496	2496	2478	2496	2478	2478	2460	2460	2460	2460	2443	2443	0	0	0	0	0	0	0	0	0	0	0	0	0	0	0	0	0	0	0	0	0	0	0	0	0	0	0	0	0	0	0	0	0	0	0	0	0
0	0	0	0	0	0	0	0	0	0	0	0	0	0	0	0	0	0	0	0	0	0	0	0	0	0	0	0	0	0	0	0	0	0	0	0	0	0	0	0	0	0	0	0	0	0	0	0	0	0	0	0	0	0	0	0	0	0	0	0	0	0	0	0	0	0	0	0	0	0	0	0	0	0	0	0	0	0	0	0	0	0	0	0	0	0	0	0	0	0	0	0	0	0	0	0	0	0	0	0	0	0	0	0	0	0	0	0	0	0	0	0	0	0	0	0	0	0	0	0	0	0	0	0	0	0	0	0	0	0	0	0	0	0	0	0	0	0	0	0	0	0	0	0	0	0	0	0	0	0	0	0	0	0	0	0	0	0	0	0	0	0	0	0	0	0	0	0	0	0	0	0	0	0	0	0	0	0	0	0	0	0	0	0	0	0	0	0	0	0	0	0	0	0	0	0	0	0	0	0	0	0	0	0	0	0	0	0	0	0	0	0	0	0	0	0	0	0	0	0	0	0	0	0	0	0	0	0	0	0	0	0	0	0	0	0	0	0	0	0	0	0	0	0	0	0	0	0	0	0	0	0	0	0	0	0	0	0	0	0	0	0	0	0	0	0	0	0	0	0	0	0	0	0	0	0	0	0	0	0	0	0	0	0	0	0	0	0	0	0	0	0	0	4977	4977	4977	4977	4977	4977	5050	5050	5050	5050	4977	5050	5050	4977	4977	4977	4977	4977	4977	4977	4977	5050	5050	5050	5050	5050	4977	4977	4977	4977	4977	4977	4977	5050	5050	5050	5050	5050	5050	5050	5050	5050	5050	4977	4977	4977	4906	4906	4906	4906	4977	4977	5050	5050	5050	5050	5050	5050	5050	5050	5050	5050	5050	5050	5050	5050	5050	5050	5050	5050	5050	4977	4977	5050	5050	4977	4977	4977	4977	4977	4977	4906	4906	4906	4977	4977	5050	5050	5050	5050	5050	5050	5050	5125	5125	5125	5125	5125	5125	5202	5202	5125	5202	5125	5125	5125	5125	5125	5125	5125	5125	5050	5050	5050	5050	5050	5050	5050	5125	5125	5125	5050	5050	5050	5050	5050	5050	5125	5125	5125	5050	5050	5050	5050	5050	4977	4977	4906	4977	4977	4906	4906	4977	4977	4977	4977	4977	5050	5050	5050	4977	4977	4977	4977	4977	4977	4977	4977	4977	4977	4977	4977	4977	4977	4977	4977	5050	5050	5050	5125	5125	5050	5050	5050	5125	5125	5125	5050	5125	5125	5050	4977	4977	4977	4977	4977	5050	5050	5050	5050	5125	5125	5125	5050	5050	4977	4977	4977	4977	4977	4977	4977	4977	4977	4977	4977	4977	4977	4977	4977	4906	4906	4906	4977	4906	4906	4906	4906	4906	4906	4906	4906	4906	4906	4977	4977	4977	4977	4977	4977	4977	4977	4977	4906	4906	4906	4906	4906	4906	4977	4977	4977	4906	4906	4906	4906	4838	4838	4838	4838	4838	4906	4906	4838	4906	4906	4906	4838	4838	4906	4906	4906	4906	4838	4906	4838	4838	4771	4771	4771	4706	4771	4771	4771	4838	4838	4838	4906	4906	4906	4977	4977	0	0	0	2609	2609	2609	2589	2589	2589	2589	2570	2570	2551	2551	2532	2478	2478	2496	2478	2478	2478	2478	2478	2478	2460	2460	2460	2460	0	0	0	0	0	0	0	0	0	0	0	0	0	0	0	0	0	0	0	0	0	0	0	0	0	0	0	0	0	0	0	0	0	0	0	0	0
0	0	0	0	0	0	0	0	0	0	0	0	0	0	0	0	0	0	0	0	0	0	0	0	0	0	0	0	0	0	0	0	0	0	0	0	0	0	0	0	0	0	0	0	0	0	0	0	0	0	0	0	0	0	0	0	0	0	0	0	0	0	0	0	0	0	0	0	0	0	0	0	0	0	0	0	0	0	0	0	0	0	0	0	0	0	0	0	0	0	0	0	0	0	0	0	0	0	0	0	0	0	0	0	0	0	0	0	0	0	0	0	0	0	0	0	0	0	0	0	0	0	0	0	0	0	0	0	0	0	0	0	0	0	0	0	0	0	0	0	0	0	0	0	0	0	0	0	0	0	0	0	0	0	0	0	0	0	0	0	0	0	0	0	0	0	0	0	0	0	0	0	0	0	0	0	0	0	0	0	0	0	0	0	0	0	0	0	0	0	0	0	0	0	0	0	0	0	0	0	0	0	0	0	0	0	0	0	0	0	0	0	0	0	0	0	0	0	0	5050	5050	4977	4977	4977	4977	4977	4977	4977	4977	4977	4977	4977	4906	4977	4977	4977	4977	4977	4977	4977	4977	4977	5050	5050	5050	5050	5050	5050	5050	5050	5050	4977	5050	5050	5050	5050	5050	5050	5050	5050	5050	4977	5050	4977	5050	5050	5050	5050	5050	5050	5050	5050	5050	5050	5050	5050	5050	5050	5050	5050	5050	5050	5050	4977	4977	4977	4906	4906	4977	4977	4977	4977	4977	4977	4977	4977	4977	4977	5050	5050	5050	5050	5050	4977	5050	5050	5050	4977	4977	4977	4977	4977	4977	4977	5050	5050	5050	5050	5050	5050	4977	4977	4977	4977	4977	5050	5050	5050	5050	5050	5050	5050	5050	5050	5050	5050	5050	4977	4977	4906	4906	4977	4906	5050	5050	5050	5050	5050	5050	5050	5050	5050	5050	5050	5050	5050	5050	5050	5050	5050	5050	5050	5050	5050	5050	5050	5050	5050	5050	5050	5050	5050	5050	4977	4977	4977	4977	5050	4977	4977	5050	5050	5050	5050	5050	5050	5125	5125	5125	5125	5125	5125	5202	5202	5125	5125	5125	5125	5125	5125	5125	5202	5125	5125	5125	5125	5125	5125	5125	5125	5125	5125	5125	5125	5125	5125	5125	5125	5125	5125	5125	5125	5125	5125	5050	5125	5050	4977	4977	4977	4977	4977	4977	4977	4977	5050	4977	5050	5050	5050	5050	5050	5050	4977	4977	4977	4977	4977	4977	4977	4977	4977	4977	4977	4977	4977	4977	4977	5050	5125	5125	5050	5125	5125	5125	5125	5125	5125	5202	5125	5125	5125	5125	5125	5050	5050	5050	5050	5050	5125	5050	5050	5050	5125	5125	5125	5050	5050	5050	4977	4977	4977	4977	4977	4977	4977	4977	4977	4977	4977	4977	4977	4977	4977	4977	4977	4977	4977	4906	4906	4977	4977	4977	4977	4906	4977	5050	5050	4977	4977	4977	4977	4977	4977	4977	4977	4977	4977	4977	4977	4906	4906	4977	4977	4977	4977	4906	4906	4906	4906	4838	4838	4838	4838	4906	4906	4838	4838	4838	4838	4906	4838	4906	4906	4906	4977	4977	4977	4906	4906	4838	4771	4771	4706	4706	4771	4771	4771	4838	4906	4906	4906	4906	4977	4977	4977	0	0	2609	2609	2609	2609	2589	2589	2589	2589	2589	2570	2570	2551	2496	2478	2478	2478	2478	2478	2478	2478	2478	2478	2460	2460	2460	0	0	0	0	0	0	0	0	0	0	0	0	0	0	0	0	0	0	0	0	0	0	0	0	0	0	0	0	0	0	0	0	0	0	0	0	0
0	0	0	0	1088	1091	1091	1091	1091	1091	1091	1091	1091	1095	1098	1098	1098	1098	1098	1102	1105	1105	1109	1109	1095	1095	1095	1102	1105	1102	1102	1102	1102	1102	1102	1102	1098	1098	1098	1098	1105	1102	1102	1102	1102	1105	1105	1105	1105	1105	1102	1105	1120	1123	1127	1131	1131	1131	1131	1131	1131	1131	0	0	0	0	0	0	0	0	5125	5202	5202	5202	0	0	0	0	0	0	0	0	5125	5125	5125	5125	5125	5125	5125	5125	5125	5125	5125	5125	5050	5050	5050	5125	5125	0	0	5202	5202	5202	5202	5202	5202	0	0	0	0	5202	5125	5125	5125	5125	5125	5125	5125	5125	5125	5125	5050	5050	5050	5125	5125	5125	5125	5125	5202	5125	5125	0	0	5125	5125	5125	5125	5125	5125	5050	5050	5125	5125	5125	5125	5125	5125	5125	5125	5125	5125	0	0	0	0	0	0	0	5050	5050	5050	5050	5050	4977	4977	4906	4906	4906	4977	4977	4977	4977	5050	4977	4977	4977	5050	5050	5125	5125	5202	5202	5202	5202	5202	5125	5125	0	0	0	0	0	5125	5125	5050	5050	5050	5050	5050	5050	5125	5125	5125	5125	5202	5202	5125	5050	5125	5050	5050	5050	5050	5050	5050	5050	4977	5050	5050	4977	4977	4977	4977	4977	4977	4977	4977	4977	4977	4977	4977	4977	4977	4977	4977	4977	4977	4977	4977	4977	5050	5050	5050	5050	5050	5050	5050	4977	4977	4977	4977	5050	5050	5050	5050	4977	4977	4977	4977	4977	4977	4977	4977	5050	5050	5050	5050	5050	5050	5050	5050	5050	5050	5050	5050	5050	5050	5050	5050	4977	4977	4977	4977	4977	4977	4906	4977	4977	4977	5050	5050	5050	5050	5050	5050	5050	5050	5050	5050	5050	5050	4977	5050	5050	5050	4977	4977	4977	4977	4977	4977	4977	5125	5125	5050	5050	5050	5050	4977	4977	4977	4977	4977	5050	5050	5050	5050	5050	5050	5050	5125	5050	5050	5050	5050	5050	5050	4977	4977	4977	5050	5050	5050	5050	5050	5050	5050	5050	5050	5050	5050	5050	5050	5050	5050	5050	5050	5050	5050	5050	5050	5050	5050	5050	5125	5050	5125	5125	5125	5125	5125	5050	5050	5050	5050	5050	5050	5050	5050	5050	5050	5050	5050	5050	5050	5125	5125	5125	5202	5125	5125	5125	5125	5125	5125	5125	5125	5125	5125	5202	5125	5125	5125	5125	5125	5125	5125	5125	5125	5125	5125	5125	5125	5125	5125	5202	5202	5125	5202	5125	5125	5050	5050	4977	4977	5050	5050	5050	5050	5050	4977	4977	4977	5050	4977	5050	4977	5050	5050	5050	5050	4977	4977	4977	5050	4977	4977	5050	5050	5050	5050	5050	5050	4977	4977	4977	5050	5125	5125	5050	5125	5202	5202	5202	5202	5202	5202	5202	5202	5125	5125	5125	5202	5202	5125	5125	5125	5125	5125	5125	5125	5125	5125	5125	5050	5050	5050	5050	4977	5050	4977	4977	4977	4977	4977	4977	4977	4977	4977	4977	4977	4977	4977	4977	5050	4977	4977	4977	4977	4977	4977	4977	4977	4977	5050	5050	4977	4977	4977	4977	4977	4977	4977	4977	4977	4977	4977	4977	4977	4977	4977	4977	4977	4977	4977	4977	4906	4906	4906	4838	4838	4906	4906	4906	4906	4906	4906	4906	4906	4906	4977	4906	4977	4977	4977	4977	4906	4906	4838	4838	4771	4771	4771	4771	4771	4838	4838	4906	4906	4906	4906	4977	5050	5050	5050	2629	2609	2609	2609	2609	2609	2609	2589	2589	2589	2570	2570	2551	2551	2514	2514	2478	2478	2478	2478	2478	2496	2496	2496	2478	2478	0	0	0	0	0	0	0	0	0	0	0	0	0	0	0	0	0	0	0	0	0	0	0	0	0	0	0	0	0	0	0	0	0	0	0	0	0
0	0	0	0	1088	1091	1091	1091	1095	1095	1095	1095	1095	1095	1098	1098	1098	1098	1098	1102	1102	1102	1105	1105	1105	1105	1105	1102	1105	1105	1102	1102	1102	1102	1102	1102	1098	1098	1098	1098	1098	1098	1098	1102	1102	1105	1102	1105	1105	1105	1102	1109	1120	1127	1131	1131	1134	1134	1131	1134	1134	1134	0	0	0	0	0	0	0	0	5202	5282	5202	5282	5282	5282	0	0	0	0	0	0	5125	5125	5125	5125	5125	5125	5125	5125	5125	5125	5125	5125	5125	5125	5125	5202	5202	0	5202	5202	5202	5202	5202	5202	5202	5202	0	0	0	5125	5125	5125	5202	5125	5125	5125	5125	5125	5125	5125	5050	5050	5125	5125	5050	5050	5050	5125	5202	5125	5125	5125	5125	5125	5125	5050	5125	5125	5125	5050	5050	5125	5125	5125	5125	5125	5125	5125	5125	5125	5125	5050	5050	5125	5050	5050	0	5050	5050	5050	5050	5125	5050	4977	4977	4977	4906	4906	4977	5050	4977	4977	5050	4977	4977	4977	5050	5050	5125	5125	5202	5202	5202	5202	5202	5125	5125	5125	0	0	5202	5202	5202	5202	5125	5125	5050	5050	5050	5050	5125	5125	5202	5202	5202	5202	5202	5125	5125	5125	5125	5050	5050	5050	5050	5050	4977	4977	4977	4977	4977	4977	4977	4977	4977	4977	4977	4977	5125	4977	4977	4977	4977	5050	4977	4977	4977	4977	5050	4977	5050	5050	5050	5125	5050	5050	5050	5050	4977	5050	5050	5050	5050	5050	5050	5050	5050	4977	4977	4977	5050	4977	5050	5050	5050	5050	5125	5125	5050	5050	5050	5050	5050	5050	5050	5050	5050	5050	5050	5050	5050	5050	4977	4977	4977	4977	5050	5050	5050	5050	5050	5050	5050	5050	5050	5050	5050	5050	5050	5050	5050	4977	5050	5050	5050	4977	4977	4977	4977	4977	5050	5050	5125	5125	5125	5125	5050	5050	5050	5050	5050	5050	4977	5050	5050	5050	5050	5050	5050	5125	5125	5050	5050	5050	5050	5050	5050	4977	5050	5050	5050	5125	5125	5125	5125	5125	5050	5050	5050	5050	5050	5050	5050	5050	5050	5125	5050	5125	5050	5125	5050	5050	5050	5050	5125	5050	5125	5125	5125	5125	5125	5050	5050	5050	5050	5050	5050	5050	5050	5050	5050	5050	5050	5050	5125	5125	5125	5125	5202	5202	5202	5202	5202	5202	5125	5125	5125	5125	5125	5202	5125	5125	5125	5125	5125	5125	5125	5125	5125	5125	5125	5202	5125	5202	5202	5202	5202	5125	5125	5125	5125	5050	5125	5125	5125	5125	5125	5125	5125	5125	5050	5050	4977	5050	5050	5050	5050	5125	5125	5125	5050	5050	4977	5050	5050	5050	4977	5050	5050	5050	5050	5050	5050	5050	5125	5125	5125	5202	5202	5202	5202	5202	5202	5202	5202	5202	5202	5202	5202	5202	5125	5282	5282	5282	5202	5202	5125	5202	5125	5125	5050	5050	5125	5050	5050	5050	5050	5050	4977	5050	4977	4977	4977	5125	4977	4977	4977	4977	5050	5050	4977	4977	5050	4977	5050	4977	4977	4977	5050	4977	4977	4977	4977	5050	5050	5050	4977	4977	5125	4977	4977	5050	5050	4977	4977	4977	4977	4977	4977	4977	4977	4977	5050	4977	4977	4977	4906	4906	4906	4838	4838	4906	4906	4906	4906	4906	4906	4906	4906	4906	4977	4977	4977	4977	4977	4977	4977	4906	4838	4838	4771	4771	4838	4771	4771	4838	4838	4906	4977	4977	4977	4977	5050	5050	5050	2609	2609	2609	2609	2609	2609	2589	2589	2589	2589	2570	2570	2570	2551	2514	2514	2496	2478	2478	2496	2496	2496	2496	2496	2496	2496	0	0	0	0	0	0	0	0	0	0	0	0	0	0	0	0	0	0	0	0	0	0	0	0	0	0	0	0	0	0	0	0	0	0	0	0	0
0	0	0	0	1088	1091	1091	1091	1095	1095	1091	1095	1091	1095	1095	1098	1098	1098	1098	1098	1102	1102	1105	1105	1102	1102	1102	1102	1102	1102	1098	1102	1098	1098	1102	1102	1098	1098	1098	1098	1098	1098	1098	1102	1102	1105	1105	1105	1105	1105	1105	1109	1116	1127	1131	1134	1134	1134	1134	1134	1134	1134	0	0	0	0	0	0	0	5282	5282	5282	5282	5202	5282	5282	5282	0	0	0	0	0	5125	5125	5125	5125	5125	5125	5125	5125	5125	5125	5125	5125	5125	5125	5125	5202	5202	0	5202	5202	5202	5202	5202	5202	5202	5202	5202	0	0	5202	5202	5202	5202	5202	5202	5125	5125	5125	5125	5125	5125	5125	5125	5202	5050	5050	5050	5125	5202	5125	5125	5125	5125	5202	5125	5202	5202	5125	5125	5125	5050	5125	5125	5125	5125	5125	5125	5125	5125	5125	5125	5125	5125	5125	5125	5050	5125	5125	5125	5125	5125	5050	5050	5050	5050	4977	4906	4906	4977	5050	5050	5050	5050	5050	5050	5050	5050	4977	5125	5125	5202	5125	5202	5202	5202	5125	5125	5202	5202	0	5202	5202	5202	5202	5125	5125	5125	5050	5050	5125	5125	5125	5202	5125	5125	5202	5202	5125	5125	5125	5125	5125	5050	5050	5050	5050	4977	4977	4977	4977	4977	4977	4977	4977	4977	4977	5050	5050	5125	5050	4977	4977	4977	4977	4977	4977	4977	4977	5050	4977	5125	5125	5125	5125	5125	5050	5050	5050	5050	5050	5050	5050	5050	5050	5050	5050	5050	5050	5050	5050	5050	5050	5050	5050	5125	5050	5125	5125	5125	5125	5050	5050	5050	5050	5050	5050	5050	5050	5050	5050	5050	5050	5050	5050	5050	5050	5050	5050	5050	5050	5050	5050	5050	5050	5050	5050	5050	5050	5050	5050	5050	4977	5050	5050	5050	4977	4977	4977	4977	5050	5050	5050	5125	5125	5125	5125	5125	5125	5050	5050	5050	5050	5050	5050	5050	5050	5050	5050	5050	5050	5050	5050	5050	5050	5050	5050	5125	5125	5125	5125	5125	5125	5125	5125	5125	5050	5050	5050	5050	5050	5050	5050	5050	5125	5125	5125	5125	5125	5125	5125	5125	5050	5050	5050	5125	5050	5125	5125	5125	5125	5125	5125	5125	5125	5050	5125	5050	5050	5050	5050	5050	5050	5050	5050	5125	5125	5125	5125	5202	5202	5202	5202	5202	5202	5202	5125	5050	5050	5050	5202	5125	5125	5125	5125	5125	5125	5125	5125	5125	5125	5125	5202	5202	5202	5202	5202	5125	5202	5202	5125	5125	5202	5125	5125	5125	5125	5125	5125	5125	5125	5050	5050	5050	5050	5050	5050	5050	5125	5125	5125	5050	5050	5050	5050	5050	5050	4977	5050	5050	5050	5125	5125	5125	5125	5125	5125	5125	5202	5202	5202	5202	5202	5202	5202	5202	5202	5202	5202	5282	5202	5202	5202	5202	5202	5202	5202	5202	5202	5202	5125	5125	5125	5125	5125	5125	5050	5050	5050	4977	4977	4977	4977	5125	5125	5125	4977	5050	4977	4977	4977	4977	4977	5050	5050	5050	5050	4977	5050	5050	5050	4977	5050	4977	4977	5050	5050	4977	4977	5125	5125	5050	5050	5050	5050	5050	4977	4977	4977	4977	4977	5050	5050	5050	5050	5050	4977	4977	4977	4906	4906	4906	4906	4906	4906	4906	4906	4906	4906	4906	4906	4977	4906	4977	4977	4977	4977	4906	4906	4838	4906	4838	4838	4838	4838	4906	4838	4906	4977	4977	4977	4977	5050	5050	5050	5050	2609	2609	2609	2609	2609	2609	2589	2589	2570	2589	2570	2570	2551	2532	2514	2478	2478	2478	2478	2478	2496	2496	2496	2496	2496	2496	0	0	0	0	0	0	0	0	0	0	0	0	0	0	0	0	0	0	0	0	0	0	0	0	0	0	0	0	0	0	0	0	0	0	0	0	0
0	0	0	0	1091	1091	1091	1091	1091	1091	1091	1091	1091	1095	1098	1102	1102	1102	1098	1098	1102	1102	1105	1102	1102	1102	1102	1102	1102	1102	1098	1102	1102	1102	1102	1102	1102	1102	1098	1098	1098	1095	1098	1098	1098	1102	1102	1105	1105	1105	1105	1105	1113	1120	1131	1134	1134	1134	1134	1131	1131	0	0	0	0	0	0	0	0	5364	5282	5282	5364	5202	5364	5282	5202	5282	5282	5202	5125	5202	5125	5125	5125	5125	5125	5125	5125	5125	5125	5125	5125	5125	5125	5125	5125	5202	5202	5202	5202	5202	5202	5202	5202	5202	5202	5202	5202	5202	5202	5202	5202	5202	5202	5202	5202	5202	5125	5125	5125	5125	5125	5125	5125	5202	5202	5125	5125	5125	5125	5125	5125	5125	5202	5202	5125	5125	5125	5125	5125	5050	5125	5050	5125	5125	5125	5125	5125	5125	5125	5125	5125	5125	5125	5125	5125	5050	5125	5125	5125	5125	5125	5125	5125	5050	5050	4977	4977	4977	4977	5050	5050	5050	5050	5050	5050	5050	5050	5050	5125	5125	5202	5125	5202	5202	5202	5202	5202	5202	5202	5202	5202	5202	5202	5202	5202	5125	5125	5050	5050	5050	5050	5125	5125	5125	5202	5202	5202	5125	5125	5125	5125	5125	5050	5050	5050	5125	5050	5050	4977	5050	5050	4977	5050	4977	5050	5050	5050	5050	5202	5050	5050	5202	5125	5125	4977	4977	4977	5050	5050	5050	5125	5125	5125	5125	5125	5050	5050	5050	5050	5050	5050	5050	5050	5050	5050	5050	5050	5050	5050	4977	5050	5050	5050	5125	5125	5125	5202	5202	5125	5125	5125	5050	5050	5050	5050	5050	5050	5050	5050	5050	5050	5050	5050	5050	5050	5050	5050	5050	5050	5050	5050	5050	5050	5050	5050	5050	5050	5050	5050	5050	5050	5050	5050	5050	5050	4977	4977	4977	5050	5050	5050	5050	5125	5202	5125	5125	5125	5125	5125	5050	5050	5050	5050	5050	5050	5050	5050	5050	5050	5050	5050	5050	5125	5125	5125	5125	5125	5125	5125	5125	5125	5125	5125	5125	5125	5125	5125	5125	5050	5125	5125	5050	5050	5125	5125	5125	5050	5125	5125	5125	5050	5050	5050	5125	5125	5125	5125	5125	5125	5125	5125	5125	5125	5125	5125	5125	5050	5050	5050	5050	5050	5050	5050	5050	5125	5125	5202	5202	5202	5202	5202	5202	5202	5202	5202	5202	5050	5050	5050	5202	5125	5202	5202	5125	5125	5125	5125	5125	5125	5202	5202	5202	5202	5202	5202	5202	5202	5125	5282	5202	5202	5125	5202	5125	5202	5125	5125	5125	5125	5125	5125	5125	5050	5050	5050	5050	5050	5125	5125	5125	5125	5125	5125	5125	5125	5050	5050	5125	5050	5125	5125	5125	5125	5202	5202	5202	5202	5202	5202	5202	5202	5202	5202	5202	5202	5202	5202	5282	5282	5282	5202	5282	5282	5282	5202	5202	5202	5282	5202	5202	5202	5202	5202	5202	5125	5050	5050	5050	5050	4977	4977	4977	5125	5125	5125	5125	5125	5050	5050	5050	5050	5050	5050	5050	5125	5050	5050	5050	5125	5050	5050	5050	5050	5050	5050	5050	5050	5125	5125	5125	5125	5050	5050	5125	5125	5050	5050	5050	5050	4977	5050	5050	5050	5050	5050	5050	4977	4977	4906	4906	4906	4906	4906	4906	4906	4977	4977	4977	4906	4977	4977	4977	4977	4977	4977	4977	4977	4977	4906	4977	4906	4906	4906	4906	4906	4838	4906	4977	4977	4977	4977	5050	5050	5050	0	2609	2609	2609	2609	2609	2609	2589	2589	2570	2589	2570	2570	2551	2478	2514	2478	2496	2496	2478	2496	2496	2496	2496	2496	0	0	0	0	0	0	0	0	0	0	0	0	0	0	0	0	0	0	0	0	0	0	0	0	0	0	0	0	0	0	0	0	0	0	0	0	0	0	0
0	0	0	0	1091	1095	1091	1088	1095	1095	1091	1091	1091	1098	1102	1102	1102	1102	1098	1098	1102	1102	1105	1102	1102	1102	1102	1098	1102	1102	1098	1102	1098	1098	1102	1102	1098	1098	1098	1098	1098	1098	1098	1102	1102	1102	1105	1105	1105	1105	1105	1105	1109	1120	1127	1131	1134	1134	1134	1131	1131	0	0	0	0	0	0	0	0	5535	5364	5364	5364	5364	5364	5364	5202	5282	5282	5125	5125	5202	5125	5202	5202	5125	5125	5125	5125	5125	5125	5125	5125	5202	5202	5202	5202	5202	5202	5202	5202	5202	5202	5202	5282	5202	5202	5202	5202	5125	5125	5202	5202	5202	5202	5202	5202	5202	5202	5202	5125	5125	5125	5125	5125	5202	5202	5202	5202	5125	5125	5125	5125	5202	5202	5202	5202	5125	5125	5125	5125	5125	5125	5125	5125	5125	5125	5125	5202	5125	5202	5125	5202	5202	5202	5202	5125	5125	5125	5125	5125	5125	5125	5125	5050	5050	5050	5050	4977	5050	5050	5050	5125	5125	5125	5125	5125	5125	5050	5050	5125	5202	5202	5202	5202	5202	5202	5202	5202	5202	5202	5202	5202	5202	5202	5202	5202	5125	5125	5050	5125	5125	5125	5125	5125	5125	5202	5202	5202	5202	5202	5202	5202	5125	5125	5050	5125	5125	5050	4977	4977	4977	4977	4977	4977	4977	4977	5050	5050	5050	5202	5125	5202	5202	5202	5125	5125	4977	4977	5050	5050	5050	5125	5125	5125	5125	5125	5125	5050	5050	5050	5050	5125	5125	5125	5125	5050	5050	5050	5050	5050	5050	5050	5050	5050	5050	5125	5125	5202	5202	5202	5202	5125	5125	5050	5050	5050	5050	5050	5050	5050	5050	5050	5050	5050	5125	5050	5125	5125	5125	5050	5050	5050	5125	5050	5050	5050	5050	5050	5050	5125	5050	5050	5050	5050	5050	5050	5050	5050	5050	5050	5050	5050	5050	5202	5202	5125	5125	5125	5125	5125	5125	5125	5125	5125	5125	5125	5125	5050	5050	5125	5125	5125	5125	5125	5125	5125	5125	5125	5125	5125	5125	5125	5125	5125	5125	5125	5125	5125	5125	5050	5050	5050	5050	5050	5050	5050	5050	5050	5125	5125	5125	5050	5125	5125	5125	5125	5125	5125	5202	5125	5125	5125	5125	5125	5125	5125	5125	5125	5125	5125	5125	5125	5050	5050	5125	5202	5202	5202	5202	5202	5202	5202	5202	5202	5202	5202	5202	5050	5202	5202	5202	5202	5202	5202	5202	5125	5125	5125	5202	5202	5282	5282	5202	5282	5202	5202	5202	5202	5202	5202	5202	5202	5202	5202	5125	5202	5125	5202	5125	5125	5202	5125	5125	5125	5125	5125	5125	5125	5202	5202	5202	5125	5125	5125	5125	5125	5125	5050	5125	5050	5202	5202	5202	5202	5202	5202	5202	5202	5202	5202	5202	5202	5202	5202	5202	5202	5282	5282	5282	5282	5282	5202	5282	5282	5282	5282	5282	5282	5282	5202	5202	5202	5202	5202	5202	5125	5050	5050	5050	5125	5125	5125	5202	5202	5202	5125	5125	5125	5125	5125	5125	5050	5050	5125	5125	5125	5125	5125	5125	5125	5125	5050	5125	5050	5050	5050	5050	5050	5125	5050	5125	5125	5050	5050	5125	5125	5125	5125	5125	5050	5050	5125	5125	5050	5050	5050	5050	4977	5050	4977	4977	4906	4906	4906	4977	4977	4977	4977	4977	4977	4977	4977	4977	4977	4977	4977	4977	4977	4977	4977	4977	4977	4977	4977	4977	4977	4906	4977	4977	4977	4977	5050	5050	5050	5050	0	2609	2609	2609	2609	2609	2609	2609	2589	2570	2570	2570	2551	2532	2532	2514	2460	2496	2496	2496	2514	2514	2514	2514	2496	0	0	0	0	0	0	0	0	0	0	0	0	0	0	0	0	0	0	0	0	0	0	0	0	0	0	0	0	0	0	0	0	0	0	0	0	0	0	0
0	0	0	0	1091	1091	1091	1091	1095	1095	1095	1098	1098	1102	1105	1102	1105	1102	1102	1102	1102	1102	1102	1102	1102	1102	1098	1098	1098	1098	1098	1098	1098	1098	1102	1102	1098	1098	1098	1098	1098	1098	1098	1102	1102	1105	1105	1105	1105	1105	1105	1105	1109	1120	1127	1131	1134	1134	1134	1131	1131	0	0	0	0	0	0	0	0	5626	5448	5282	5282	5282	5202	5202	5125	5125	5125	5125	5125	5125	5125	5202	5202	5202	5125	5125	5202	5125	5125	5125	5125	5202	5202	5202	5202	5202	5448	5448	5282	5282	5282	5202	5282	5202	5202	5202	5125	5125	5202	5202	5202	5202	5202	5202	5202	5202	5202	5202	5202	5202	5125	5125	5202	5202	5202	5202	5202	5202	5282	5202	5125	5202	5202	5202	5202	5202	5202	5125	5125	5125	5125	5125	5125	5125	5125	5125	5125	5202	5202	5202	5202	5202	5202	5202	5202	5202	5202	5202	5125	5125	5125	5125	5125	5050	5125	5050	5050	5125	5050	5125	5202	5125	5125	5125	5125	5125	5125	5050	5125	5202	5202	5202	5202	5202	5202	5202	5202	5202	5202	5202	5202	5202	5202	5202	5202	5125	5202	5125	5125	5125	5125	5125	5125	5202	5202	5202	5202	5202	5202	5202	5202	5202	5125	5050	5125	5125	5050	5050	4977	4977	4977	4977	4977	5050	5050	5125	5125	5202	5202	5125	5202	5125	5125	5125	5125	5125	5125	5050	5050	5050	5050	5050	5050	5050	5050	5125	5125	5050	5050	5050	5125	5125	5125	5125	5125	5125	5050	5050	5050	5050	5050	5050	5050	5125	5125	5202	5202	5202	5202	5202	5202	5125	5125	5125	5125	5125	5050	5050	5050	5125	5125	5125	5125	5125	5050	5125	5125	5050	5050	5050	5050	5050	5050	5050	5050	5050	5125	5125	5125	5050	5050	5050	5050	5050	5050	5050	5050	5050	5050	5050	5125	5125	5202	5202	5202	5202	5202	5202	5125	5125	5125	5125	5125	5125	5125	5125	5125	5125	5125	5125	5125	5125	5125	5125	5125	5125	5125	5125	5125	5125	5202	5202	5202	5202	5202	5125	5125	5125	5125	5125	5125	5050	5050	5125	5125	5125	5125	5125	5125	5125	5125	5125	5125	5125	5125	5125	5125	5202	5125	5125	5125	5125	5125	5125	5125	5125	5202	5202	5125	5125	5125	5125	5125	5125	5202	5202	5202	5202	5202	5282	5202	5202	5202	5282	5202	5202	5202	5202	5202	5202	5202	5202	5202	5202	5202	5202	5202	5202	5282	5282	5282	5202	5202	5202	5202	5202	5202	5202	5202	5202	5202	5125	5202	5202	5202	5202	5202	5202	5202	5202	5202	5202	5202	5202	5202	5125	5202	5202	5202	5202	5202	5202	5125	5202	5125	5125	5125	5125	5125	5202	5202	5202	5202	5202	5202	5202	5202	5282	5282	5282	5282	5202	5282	5282	5282	5282	5282	5282	5282	5282	5282	5282	5282	5282	5282	5282	5282	5282	5282	5282	5202	5202	5202	5202	5202	5050	5202	5125	5202	5202	5202	5202	5202	5202	5125	5125	5125	5125	5125	5125	5125	5202	5125	5202	5202	5202	5202	5202	5202	5202	5202	5202	5050	5050	0	0	0	0	5050	5050	5050	5050	5050	5125	5125	5125	5125	5125	5125	5125	5202	5202	0	0	0	0	5125	5125	5050	4977	4977	4977	4977	4977	5050	5050	5050	5050	5050	4977	4977	4977	4977	4977	4977	4977	4977	4977	4977	4977	4906	4906	4977	4977	4977	4906	4977	4977	5050	5050	5050	5050	5050	5050	5050	2609	2609	2609	2609	2609	2609	2609	2589	2570	2570	2551	2551	2532	2514	2514	2496	2514	2514	2514	2514	2514	2514	2514	0	0	0	0	0	0	0	0	0	0	0	0	0	0	0	0	0	0	0	0	0	0	0	0	0	0	0	0	0	0	0	0	0	0	0	0	0	0	0	0
0	0	0	0	1091	1091	1091	1091	1091	1095	1098	1098	1102	1102	1105	1102	1105	1102	1102	1102	1102	1102	1102	1102	1102	1098	1098	1098	1098	1098	1095	1098	1098	1098	1098	1098	1098	1098	1102	1098	1098	1095	1098	1102	1102	1105	1105	1105	1105	1109	1105	1109	1113	1120	1127	1127	1131	1134	1131	1127	1123	1123	0	0	0	0	0	0	0	5626	5448	5364	5282	5282	5282	5202	5125	5125	5125	5125	5125	5125	5125	5202	5202	5202	5202	5202	5202	5202	5125	5125	5202	5202	5282	5282	5282	5282	5448	5448	5448	5282	5202	5202	5202	5202	5202	5202	5125	5202	5202	5202	5202	5202	5202	5282	5282	5202	5202	5202	5202	5202	5202	5202	5202	5202	5202	5202	5202	5282	5282	5202	5202	5202	5202	5202	5202	5202	5202	5125	5125	5125	5125	5125	5125	5125	5202	5125	5202	5202	5202	5202	5202	5202	5202	5202	5202	5202	5202	5202	5202	5125	5125	5125	5125	5125	5125	5125	5125	5125	5202	5202	5202	5202	5202	5202	5202	5125	5125	5125	5125	5125	5202	5202	5202	5202	5202	5202	5202	5202	5282	5202	5202	5202	5202	5202	5202	5125	5202	5125	5125	5125	5125	5125	5202	5202	5202	5202	5282	5282	5202	5202	5202	5202	5125	5125	5125	5125	5125	5050	4977	5125	5125	5125	5125	5125	5125	5202	5202	5202	5202	5202	5125	5125	5125	5125	5125	5125	5125	5125	5125	5125	5125	5125	5125	5125	5125	5125	5125	5125	5125	5125	5125	5125	5125	5125	5125	5125	5125	5050	5050	5050	5050	5050	5125	5125	5202	5202	5202	5202	5202	5282	5282	5202	5202	5125	5125	5050	5125	5125	5050	5125	5125	5202	5202	5125	5125	5125	5125	5125	5050	5050	5050	5050	5050	5050	5050	5050	5050	5125	5125	5050	5050	5050	5050	5125	5125	5050	5050	5050	5050	5125	5125	5125	5125	5125	5202	5202	5125	5202	5125	5202	5125	5202	5202	5125	5125	5125	5202	5202	5202	5125	5202	5125	5125	5125	5125	5125	5125	5125	5125	5125	5202	5202	5202	5202	5202	5125	5125	5125	5125	5125	5050	5050	5050	5125	5125	5125	5125	5125	5202	5202	5125	5125	5125	5125	5125	5125	5125	5125	5125	5125	5125	5125	5125	5202	5125	5202	5202	5202	5202	5125	5125	5125	5125	5125	5202	5202	5202	5202	5202	5202	5282	5202	5202	5202	5202	5202	5202	5202	5202	5202	5202	5202	5202	5202	5202	5202	5202	5202	5282	5282	5282	5282	5282	5282	5202	5202	5202	5202	5282	5202	5202	5202	5202	5202	5202	5202	5202	5202	5282	5202	5202	5202	5202	5202	5202	5202	5202	5202	5202	5202	5202	5202	5202	5202	5125	5125	5125	5125	5125	5125	5202	5202	5202	5202	5202	5202	5202	5282	5282	5282	5282	5202	5282	5282	5282	5282	5282	5282	5282	5282	5282	5282	5282	5282	5282	5282	5282	5282	5282	5282	5282	5282	5282	5282	5282	5282	5282	5282	5202	5202	5202	5202	5202	5202	5125	5125	5125	5125	5125	5125	5125	5202	5202	5202	5202	5282	5282	5282	5282	5282	5202	5202	0	0	0	0	0	0	5050	5050	5050	5050	5050	5125	5050	5050	5202	5125	5202	5202	5282	5282	0	0	0	0	5125	5125	5050	5050	5050	5050	5050	5050	5050	5050	5050	5050	5050	4977	4977	4977	5050	5050	4977	4977	4977	5050	4977	4977	4977	4977	4977	4977	4977	4977	5050	5050	5050	5050	5050	5050	5050	5050	5050	2609	2609	2609	2609	2609	2609	2609	2589	2570	2570	2551	2551	2532	2514	2496	2496	2514	2514	2514	2514	2514	2514	2514	0	0	0	0	0	0	0	0	0	0	0	0	0	0	0	0	0	0	0	0	0	0	0	0	0	0	0	0	0	0	0	0	0	0	0	0	0	0	0	0
0	0	0	0	1088	1088	1091	1088	1091	1095	1095	1095	1098	1098	1102	1102	1102	1102	1098	1098	1098	1102	1102	1098	1098	1098	1098	1098	1098	1095	1095	1098	1098	1098	1098	1098	1098	1102	1102	1102	1102	1095	1098	1102	1102	1105	1105	1105	1105	1109	1105	1109	1113	1120	1131	1131	1134	1134	1131	1127	1127	1123	0	0	0	0	0	0	0	5448	5364	5282	5282	5282	5364	5202	5202	5125	5125	5125	5125	5202	5125	5202	5202	5202	5202	5202	5202	5202	5125	5202	5202	5282	5282	5282	5282	5282	5448	5448	5364	5282	5282	5202	5202	5202	5202	5202	5202	5202	5202	5202	5202	5282	5282	5282	5282	5282	5202	5202	5282	5202	5202	5202	5202	5202	5202	5125	5202	5282	5282	5202	5202	5202	5202	5202	5202	5202	5125	5125	5125	5125	5125	5125	5125	5202	5202	5125	5125	5202	5202	5202	5202	5202	5202	5282	5202	5202	5202	5202	5202	5202	5125	5125	5125	5125	5125	5125	5125	5125	5202	5202	5202	5202	5202	5202	5202	5125	5125	5125	5125	5202	5202	5202	5202	5202	5202	5202	5202	5202	5202	5202	5202	5202	5202	5202	5202	5202	5202	5202	5125	5125	5125	5202	5202	5202	5202	5282	5282	5282	5202	5202	5202	5202	5202	5125	5125	5202	5202	5202	5125	5202	5125	5125	5125	5125	5125	5125	5202	5202	5202	5202	5202	5202	5125	5202	5202	5202	5202	5202	5125	5202	5202	5202	5202	5202	5202	5202	5202	5125	5125	5125	5125	5125	5125	5202	5202	5125	5125	5125	5125	5125	5050	5125	5125	5125	5202	5282	5282	5282	5364	5282	5202	5202	5202	5202	5125	5050	5125	5125	5125	5125	5202	5202	5202	5202	5202	5202	5202	5202	5125	5125	5125	5125	5125	5125	5125	5125	5125	5125	5125	5125	5125	5050	5125	5125	5125	5050	5050	5050	5125	5125	5050	5050	5125	5125	5202	5202	5202	5202	5202	5202	5202	5202	5202	5282	5202	5202	5202	5202	5202	5202	5202	5125	5202	5202	5125	5125	5202	5202	5202	5202	5202	5202	5202	5202	5202	5125	5125	5125	5125	5125	5125	5125	5050	5125	5125	5125	5125	5125	5202	5202	5125	5125	5202	5125	5125	5125	5125	5125	5125	5125	5125	5125	5202	5202	5125	5202	5202	5202	5202	5125	5125	5125	5125	5125	5202	5202	5282	5282	5282	5282	5282	5282	5282	5282	5282	5282	5202	5202	5202	5202	5202	5202	5202	5202	5202	5282	5202	5282	5282	5364	5282	5282	5282	5282	5202	5202	5202	5202	5202	5202	5202	5202	5202	5202	5202	5202	5282	5202	5202	5282	5202	5202	5202	5202	5202	5202	5202	5202	5202	5202	5202	5202	5202	5202	5125	5125	5125	5125	5125	5202	5202	5202	5282	5282	5282	5282	5282	5282	5364	5282	5282	5282	5282	5282	5282	5282	5282	5282	5282	5282	5282	5282	5282	5282	5282	5282	5282	5364	5364	5282	5282	5202	5202	5202	5282	5282	5282	5282	5202	5202	5202	5202	5202	5202	5125	5125	5202	5125	5202	5202	5202	5202	5202	5202	5202	5282	5282	5282	5282	5282	5202	5202	0	0	0	0	0	5050	5050	5050	5050	5050	5050	5125	5125	5125	5202	5202	5202	5202	5282	5282	0	0	0	0	5125	5202	5125	5050	5125	5050	5050	5050	5050	5050	5050	5050	5050	4977	4977	4977	4977	4977	4977	4977	4977	4977	4977	4977	4977	4977	4977	4977	5050	5050	5050	5050	5050	5050	5050	5050	5050	0	0	0	2609	2609	2589	2609	2609	2589	2589	2551	2532	2532	2532	2532	2514	2514	2496	2514	2514	2514	2514	2496	2496	0	0	0	0	0	0	0	0	0	0	0	0	0	0	0	0	0	0	0	0	0	0	0	0	0	0	0	0	0	0	0	0	0	0	0	0	0	0	0	0	0
0	0	0	0	1088	1088	1091	1088	1088	1091	1095	1095	1095	1098	1098	1098	1102	1098	1098	1098	1098	1098	1098	1098	1098	1098	1098	1098	1098	1098	1095	1095	1098	1098	1098	1098	1098	1102	1102	1102	1102	1095	1095	1095	1109	1109	1105	1105	1105	1109	1105	1105	1109	1116	1127	1131	1131	1131	1131	1127	1123	1123	0	0	0	0	0	0	0	5448	5364	5282	5282	5282	5364	5364	5364	5282	5282	5282	5282	5282	5202	5282	5282	5282	5282	5282	5282	5202	5202	5202	5282	5282	5282	5282	5364	5448	5448	5448	5364	5364	5282	5282	5282	5202	5202	5202	5202	5202	5202	5202	5282	5282	5282	5282	5282	5282	5282	5282	5282	5202	5202	5202	5202	5202	5202	5202	5202	5282	5282	5202	5125	5202	5202	5202	5202	5202	5125	5125	5125	5125	5125	5125	5125	5202	5202	5202	5202	5202	5202	5202	5202	5282	5282	5282	5202	5202	5202	5202	5202	5202	5202	5125	5125	5202	5125	5125	5125	5125	5202	5202	5202	5202	5202	5202	5202	5125	5202	5202	5202	5202	5202	5202	5282	5202	5282	5202	5202	5202	5282	5202	5202	5202	5282	5282	5202	5202	5282	5202	5202	5125	5202	5202	5202	5202	5202	5282	5282	5282	5282	5282	5282	5202	5202	5125	5202	5202	5202	5125	5125	5125	5125	5125	5125	5125	5202	5202	5202	5202	5202	5202	5202	5202	5202	5202	5202	5202	5202	5202	5202	5202	5202	5282	5282	5202	5202	5282	5202	5202	5202	5202	5202	5202	5202	5282	5202	5202	5125	5125	5125	5125	5125	5125	5125	5202	5282	5282	5282	5282	5282	5282	5282	5282	5202	5202	5202	5125	5125	5125	5125	5125	5202	5202	5202	5202	5202	5202	5202	5202	5202	5202	5125	5125	5202	5202	5202	5202	5202	5202	5202	5202	5125	5125	5125	5202	5202	5125	5125	5125	5125	5125	5050	5050	5125	5125	5125	5202	5202	5202	5202	5202	5202	5202	5282	5282	5202	5125	5125	5202	5125	5125	5125	5125	5125	5202	5125	5202	5202	5202	5202	5202	5202	5202	5202	5202	5202	5125	5125	5125	5202	5125	5125	5125	5125	5125	5125	5125	5125	5202	5202	5202	5202	5202	5202	5125	5125	5125	5125	5125	5125	5125	5125	5125	5202	5202	5202	5282	5282	5282	5282	5202	5202	5125	5202	5125	5202	5282	5282	5282	5282	5282	5364	5282	5282	5282	5282	5282	5282	5202	5202	5202	5202	5282	5202	5282	5282	5282	5282	5282	5364	5282	5202	5202	5202	5202	5202	5202	5202	5202	5202	5282	5202	5202	5202	5282	5282	5202	5282	5202	5202	5282	5202	5202	5202	5202	5202	5202	5202	5202	5202	5202	5202	5202	5202	5202	5202	5202	5202	5202	5202	5282	5282	5202	5282	5282	5282	5282	5282	5364	5282	5282	5282	5282	5282	5282	5282	5282	5282	5282	5282	5282	5282	5282	5282	5282	5282	5282	5282	5282	5364	5282	5282	5282	5202	5282	5282	5282	5282	0	0	0	5202	5282	5202	5202	5202	5202	5202	5202	5202	5202	5282	5282	5202	0	0	0	0	0	0	0	0	0	0	0	0	0	0	5050	5050	5125	5125	5125	5125	5202	5125	5125	5282	5202	5282	5202	5202	5202	0	0	0	0	0	5202	5125	5050	5050	5050	5125	5050	5050	5050	5050	5050	5050	5050	5050	5050	5050	4977	0	4977	4977	5050	5050	4977	4977	4977	4977	4977	4977	4977	5050	5050	5050	0	0	0	0	0	0	0	0	2589	2589	2589	2589	2570	2551	2532	2514	2532	2514	2514	2496	2496	2496	2496	2514	2514	2496	2496	2496	0	0	0	0	0	0	0	0	0	0	0	0	0	0	0	0	0	0	0	0	0	0	0	0	0	0	0	0	0	0	0	0	0	0	0	0	0	0	0	0	0
0	0	0	0	1088	1088	1088	1088	1088	1088	1088	1095	1095	1098	1098	1098	1102	1102	1098	1102	1098	1102	1098	1098	1098	1098	1095	1098	1095	1095	1095	1095	1098	1098	1098	1098	1098	1102	1105	1105	1102	0	1095	1095	1109	1109	1105	1105	1105	1105	1105	1105	1109	1113	1120	1123	1127	1131	1127	1123	1120	1120	0	0	0	0	0	0	0	0	5364	5364	5282	5364	5364	5364	5364	5364	5364	5282	5282	5282	5282	5364	5364	5364	5282	5364	5364	5282	5282	5282	5282	5364	5282	5364	5364	5535	5448	5448	5364	5364	5282	5282	5282	5282	5282	5282	5202	5282	5282	5282	5282	5282	5282	5282	5364	5282	5364	5282	5282	5282	5202	5202	5125	5202	5202	5125	5202	5202	5282	5202	5202	5202	5282	5282	5282	5202	5125	5125	5125	5125	5125	5125	5125	5202	5202	5202	5202	5202	5202	5282	5282	5282	5282	5282	5282	5282	5282	5202	5202	5202	5202	5125	5202	5202	5125	5125	5125	5202	5202	5202	5202	5202	5202	5202	5202	5202	5202	5202	5202	5202	5202	5202	5282	5282	5282	5282	5282	5282	5282	5202	5202	5202	5282	5282	5282	5282	5282	5282	5202	5202	5202	5202	5202	5202	5202	5282	5282	5282	5282	5282	5282	5202	5202	5202	5202	5202	5202	5202	5202	5202	5202	5125	5202	5125	5202	5202	5202	5202	5202	5202	5282	5202	5282	5282	5202	5202	5202	5202	5202	5202	5202	5202	5282	5282	5282	5282	5282	5282	5282	5282	5282	5282	5282	5282	5282	5282	5202	5202	5202	5202	5202	5125	5202	5202	5282	5282	5282	5282	5282	5282	5282	5282	5282	5202	5202	5202	5125	5125	5125	5202	5202	5202	5202	5202	5202	5202	5202	5202	5202	5202	5125	5125	5202	5202	5202	5125	5202	5202	5202	5282	5282	5125	5125	5202	5202	5202	5125	5125	5125	5125	5050	5050	5125	5125	5125	5202	5202	5202	5202	5282	5282	5282	5282	5282	5202	5202	5202	5202	5202	5202	5202	5202	5202	5202	5202	5202	5202	5202	5202	5282	5202	5202	5282	5282	5282	5282	5202	5202	5202	5125	5125	5125	5125	5125	5125	5125	5125	5202	5202	5282	5282	5202	5202	5202	5202	5125	5125	5125	5125	5125	5125	5125	5202	5202	5202	5202	5282	5282	5282	5202	5202	5202	5202	5202	5282	5282	5364	5364	5364	5364	5364	5364	5282	5282	5282	5282	5282	5202	5282	5282	5282	5282	5282	5282	5364	5364	5282	5282	5364	5282	5202	5202	5202	5202	5202	5202	5202	5202	5282	5282	5282	5202	5282	5282	5282	5282	5282	5202	5202	5282	5202	5202	5202	5202	5202	5202	5202	5202	5282	5202	5202	5202	5202	5202	5202	5202	5202	5202	5202	5202	5202	5202	5202	5282	5282	5282	5282	5364	5364	5364	5282	5282	5282	5282	5364	5364	5364	5364	5364	5364	5282	5282	5364	5364	5364	5282	5282	5282	5282	5282	5282	5282	5282	5282	5282	5282	5282	0	0	0	0	5282	5202	5202	5202	5125	5202	5202	5202	5202	5202	5282	0	0	0	0	0	0	0	0	0	0	0	0	0	0	0	0	5050	5125	5125	5202	5202	5202	5282	5282	5364	5282	5282	5282	5364	5282	5364	5364	5364	0	0	5202	5125	5125	5125	5125	5125	5125	5050	5050	5050	5050	5050	5050	5050	5050	5050	0	0	5125	5050	4977	4977	4977	4977	4977	4977	4977	4977	4977	4977	4977	4977	0	0	0	0	0	0	0	0	2589	2589	2570	2570	2551	2532	2532	2514	2514	2514	2514	2514	2514	2496	2514	2514	2496	2496	2478	2460	2460	2460	0	0	0	0	0	0	0	0	0	0	0	0	0	0	0	0	0	0	0	0	0	0	0	0	0	0	0	0	0	0	0	0	0	0	0	0	0	0	0
0	0	0	0	1088	1088	1088	1088	1088	1085	1085	1088	1095	1098	1098	1098	1098	1098	1098	1102	1098	1102	1102	1098	1098	1098	1095	1095	1095	1095	1095	1095	1098	1098	1098	1095	1095	1095	1105	1105	0	0	0	0	0	1109	1105	1105	1105	1105	1105	1105	1105	1109	1116	1123	1123	1127	1131	1123	1120	1120	0	0	0	0	0	0	0	0	5364	5282	5282	5364	5364	5364	5364	5364	5364	5282	5364	5364	5364	5364	5364	5364	5364	5364	5364	5364	5282	5282	5364	5364	5282	5364	5364	5535	5535	5535	5448	5448	5364	5282	5282	5282	5282	5364	5282	5364	5364	5364	5282	5282	5282	5282	5364	5364	5364	5364	5282	5282	5202	5202	5125	5125	5125	5125	5125	5202	5282	5125	5125	5202	5202	5282	5282	0	5125	5125	5125	5125	5125	5202	5202	5202	5202	5202	5202	5282	5282	5282	5282	5282	5282	5282	5202	5282	5282	5202	5125	5125	5202	5202	5202	5202	5202	5202	5202	5202	5282	5282	5202	5202	5202	5202	5202	5202	5282	5202	5282	5202	5202	5282	5282	5282	5282	5282	5282	5282	5282	5282	5282	5282	5282	5282	5282	5282	5282	5282	5282	5202	5202	5202	5202	5202	5282	5282	5282	5282	5282	5282	5282	5202	5282	5282	5282	5282	5282	5202	5282	5202	5202	5202	5202	5202	5202	5202	5202	5202	5282	5202	5282	5282	5282	5282	5282	5282	5202	5202	5202	5202	5282	5282	5282	5282	5282	5364	5282	5282	5282	5282	5282	5282	5282	5282	5282	5282	5282	5202	5202	5202	5202	5202	5202	5282	5282	5282	5282	5282	5282	5282	5282	5282	5282	5282	5202	5202	5125	5125	5125	5202	5202	5202	5282	5282	5282	5202	5202	5202	5202	5202	5125	5125	5125	5125	5125	5202	5202	5202	5282	5282	5282	5282	5282	5282	5202	5202	5202	5202	5202	5202	5125	5050	5125	5125	5125	5202	5202	5202	5202	5202	5202	5282	5282	5282	5282	5282	5282	5202	5202	5202	5202	5202	5202	5202	5202	5202	5202	5282	5282	5282	5282	5282	5364	5364	5282	5282	5202	5282	5282	5202	5125	5202	5125	5202	5202	5202	5202	5202	5282	5282	5282	5282	5282	5282	5282	5202	5202	5202	5125	5125	5125	5125	5202	5202	5202	5202	5282	5282	5282	5282	5202	5202	5282	5202	5282	5364	5364	5364	5364	5364	5364	5364	5364	5364	5282	5282	5282	5202	5282	5282	5282	5282	5282	5282	5282	5364	5364	5364	5364	5364	5364	5282	5202	5202	5202	5202	5282	5282	5282	5282	5282	5202	5282	5364	5282	5282	5282	5202	5282	5282	5202	5202	5202	5202	5202	5202	5202	5202	5282	5202	5202	5202	5202	5202	5202	5202	5202	5202	5202	5282	5282	5364	5364	5282	5282	5282	5282	5364	5364	5364	5282	5282	5282	5364	5364	5364	5448	5364	5364	5364	5364	5364	5364	5282	5282	5282	5282	5282	5282	5282	5282	5282	5282	5282	5364	5282	5282	5282	0	0	0	0	5202	5202	5202	5125	5202	5202	5202	5202	5202	0	0	0	0	0	0	0	0	0	0	0	0	0	0	0	0	0	5050	5125	5125	5202	5202	5202	5282	5282	5364	5282	5282	5202	5282	5282	5364	5364	5202	5202	0	0	0	5125	5125	5125	0	5202	5125	5125	5050	0	5050	5050	5050	5050	0	5125	5050	5125	5050	5050	5050	4977	4977	4977	4977	4977	4977	4977	4977	4977	5282	5282	0	0	0	0	0	0	0	2589	2589	2570	2570	2551	2532	2532	2514	2514	2514	2514	2514	2514	2496	2496	2496	2496	2496	2478	2460	2443	2443	2443	2443	0	0	0	0	0	0	0	0	0	0	0	0	0	0	0	0	0	0	0	0	0	0	0	0	0	0	0	0	0	0	0	0	0	0	0	0	0
0	0	0	0	1085	1085	1088	1088	1088	1085	1085	1088	1088	1088	1098	1098	1098	1095	1102	1102	1102	1102	1102	1098	1095	1095	1095	1095	1095	1095	1095	1095	1095	1095	1098	1095	1091	1091	0	0	0	0	0	0	0	1109	1105	1109	1109	1105	1105	1105	1105	1109	1116	1123	1123	1131	1127	1123	1123	1123	0	0	0	0	0	0	0	0	5282	5364	5282	5364	5364	5364	5364	5364	5364	5364	5364	5364	5364	5364	5364	5364	5364	5364	5364	5364	5364	5364	5364	5364	5364	5364	5448	5535	5535	5535	5448	5448	5364	5282	5364	5364	5364	5364	5282	5364	5364	5448	5364	5364	5364	5364	5448	5448	5364	5364	5282	5282	5202	5202	5050	5125	5125	5050	5050	5202	5202	5202	5364	5364	5202	0	0	0	0	0	0	0	5125	5202	5202	5202	5202	5202	5202	5282	5282	5282	5282	5282	5202	5282	5202	5202	5202	5202	5202	5125	5202	5202	5202	5202	5202	5202	5202	5282	5282	5282	5282	5282	5282	5282	5282	5282	5282	5282	5282	5282	5282	5282	5282	5282	5282	5282	5282	5282	5282	5282	5202	5282	5282	5282	5282	5282	5282	5282	5282	5282	5282	5202	5282	5282	5282	5282	5282	5282	5282	5282	5202	5202	5282	5282	5282	5282	5282	5282	5282	5202	5202	5202	5202	5202	5202	5202	5202	5282	5282	5282	5282	5282	5282	5282	5282	5282	5282	5202	5202	5202	5282	5282	5364	5282	5282	5364	5282	5282	5282	5282	5282	5364	5364	5364	5282	5282	5282	5282	5282	5282	5282	5202	5202	5282	5282	5364	5364	5282	5364	5364	5282	5282	5282	5282	5282	5202	5202	5202	5202	5282	5282	5282	5282	5282	5282	5282	5202	5202	5202	5202	5125	5125	5125	5125	5202	5202	5282	5282	5282	5282	5282	5282	5282	5282	5202	5202	5202	5125	5125	5202	5202	5125	5282	5125	5364	5282	5282	5282	5282	5282	5282	5282	5282	5282	5282	5282	5282	5282	5202	5202	5282	5202	5202	5282	5282	5282	5282	5282	5282	5282	5202	5202	5282	5364	5282	5282	5202	5202	5282	5202	5202	5202	5125	5202	5202	5202	5202	5282	5364	5364	5364	5364	5364	5364	5282	5202	5202	5202	5202	5202	5125	5202	5282	5282	5202	5202	5282	5282	5282	5202	5202	5202	5202	5202	5202	5364	5364	5364	5364	5364	5364	5364	5364	5364	5364	5364	5364	5282	5282	5282	5282	5282	5282	5282	5364	5364	5282	5364	5364	5364	5364	5282	5282	5282	5282	5202	5282	5282	5282	5364	5282	5282	5282	5364	5282	5364	5282	5202	5282	5282	5282	5202	5202	5202	5282	5282	5202	5202	5282	5202	5202	5202	5202	5202	5202	5202	5282	5282	5202	5282	5282	5364	5364	5282	5282	5282	5282	5364	5364	5282	5282	5282	5282	5364	5364	5364	5364	5364	5364	5364	5364	5282	5282	5282	5282	5282	5282	5364	5364	5364	5364	5364	5364	5364	5448	5364	5364	5364	0	0	0	0	0	0	0	0	0	0	5202	5202	0	0	0	0	0	0	0	0	0	0	0	0	0	0	0	0	0	0	0	0	0	0	0	0	0	0	0	0	5282	5202	5282	5282	5364	5282	5202	5202	0	0	0	0	0	0	0	5202	5125	5125	0	0	0	5050	5050	0	5202	5125	5125	5125	5050	5050	4977	4906	4977	4977	5050	4977	5050	5050	5050	5202	5282	5282	5282	0	0	0	0	0	0	2589	2570	2570	2570	2551	2532	2532	2514	2514	2514	2514	2514	2514	2496	2496	2514	2496	2478	2478	2460	2443	2443	2443	2443	0	0	0	0	0	0	0	0	0	0	0	0	0	0	0	0	0	0	0	0	0	0	0	0	0	0	0	0	0	0	0	0	0	0	0	0	0
0	0	0	0	1085	1091	1088	1088	1088	1088	1088	1088	1088	1088	1095	1095	1095	1091	1098	1102	1098	1102	1102	1098	1095	1098	1095	1095	1095	1091	1095	1095	1095	1095	0	1095	1091	1091	0	0	0	0	0	0	0	0	1105	1102	1105	1105	1102	1105	1105	1109	1109	1109	1109	1127	1127	1127	1127	1123	0	0	0	0	0	0	0	5202	5202	5202	5202	5282	5364	5364	5364	5364	5364	5364	5364	5364	0	0	0	0	0	5364	5448	5364	5364	5364	5364	5364	5364	5364	5448	5535	5535	5535	5448	5448	5364	5364	5364	5282	5282	5282	5282	5364	5364	5364	5364	5282	5282	5364	5448	5448	5364	5364	5364	5282	5282	5282	5050	5125	5125	5050	5050	0	5202	5202	5364	5364	0	0	0	0	0	0	0	0	0	0	0	0	0	0	0	0	0	0	0	5282	5202	5282	5202	5202	5202	5202	5202	0	0	5202	5202	5202	5202	5202	5202	5282	5364	5364	5364	5364	5364	5364	5282	5364	5364	5364	5364	5364	5364	5364	5364	5282	5282	5282	5282	5282	5282	5282	5202	5282	5282	5282	5282	5282	5282	5282	5282	5282	5282	5282	5282	5282	5282	5282	5282	5282	5282	5282	5282	5202	5282	5202	5282	5282	5282	5282	5282	5282	5202	5202	5202	5202	5202	5202	5282	5282	5282	5282	5282	5282	5282	5282	5282	5282	5282	5282	5282	5282	5282	5282	5364	5282	5282	5282	5282	5282	5364	5364	5282	5364	5364	5364	5364	5364	5282	5282	5282	5282	5282	5202	5282	5282	5364	5364	5364	5364	5364	5364	5282	5364	5282	5282	5282	5282	5282	5282	5282	5282	5282	5282	5282	5282	5282	5282	5202	5202	5202	5202	5125	5125	5125	5125	5202	5282	5282	5282	5282	5282	5282	0	5282	5282	5202	5282	5202	5202	5125	5125	5202	5202	5282	5202	5282	5282	5282	5282	5202	5202	5282	5282	5282	5282	5202	5202	5282	5202	5202	5202	5282	5202	5282	5282	5282	5282	5282	5364	5282	5282	5282	5202	5282	5282	5202	5202	5202	5202	5282	5282	5202	5282	5202	5282	5282	5282	5282	5282	5364	5364	5448	5364	5364	5364	5364	5282	5282	5202	5202	5202	5202	5202	5282	5282	5202	5202	5282	5282	5282	5202	5202	5202	5202	5202	5282	5282	5364	5282	5282	5364	5364	5364	5364	5282	5364	5364	5364	5282	5282	5282	5282	5282	5282	5282	5282	5282	5282	5364	5364	5364	5364	5364	5364	5364	5282	5364	5364	5364	5364	5448	5364	5364	5364	5364	5282	5364	5282	5282	5364	5364	5282	5282	5282	5282	5282	5282	5202	5202	5202	5282	5202	5282	5282	5282	5282	5282	5282	5282	5282	5282	5282	5282	5282	5282	5282	5282	5282	5364	5364	5282	5282	5364	5364	5448	5364	5448	5448	5448	5448	5364	5364	5282	5282	5282	5282	5364	5364	5364	5364	5364	5364	5364	5364	5364	5448	5448	5448	5448	5448	0	0	0	0	0	0	0	0	0	0	0	0	0	0	0	0	0	0	0	0	0	0	0	0	0	0	0	0	0	0	0	0	0	0	0	0	0	0	0	0	5202	5282	5364	5364	5282	5282	5202	0	0	0	0	0	0	0	0	5125	5125	0	0	0	5050	5050	0	5202	5202	5125	5125	5050	4977	4977	4977	4977	4977	4977	5125	5125	5050	5125	5202	5202	5202	5202	0	0	0	0	0	0	2532	2570	2570	2551	2551	2532	2532	2532	2514	2514	2514	2514	2514	2496	2496	2496	2496	2478	2460	2460	2460	2443	2443	2443	0	0	0	0	0	0	0	0	0	0	0	0	0	0	0	0	0	0	0	0	0	0	0	0	0	0	0	0	0	0	0	0	0	0	0	0	0
0	0	0	0	1078	1091	1091	1088	1088	1088	1085	1085	1088	1088	1085	1085	1088	1088	1091	1102	1098	1102	1102	1102	1098	1095	1095	1095	1095	1091	1091	1095	1095	1095	0	0	0	0	0	0	0	0	0	0	0	0	0	1091	1091	1105	1102	1105	1105	1109	1109	1109	1109	1127	1127	1127	1127	0	0	0	0	0	0	5448	5448	5282	5282	5282	5282	5364	5364	5364	5364	5364	5364	5364	5364	0	0	0	0	0	0	0	5448	5364	5364	5364	5448	5364	5364	5448	5448	5535	5535	5535	5448	5448	5448	5364	5364	5364	5282	5282	5282	5364	5364	5364	5364	5282	5282	5364	5448	5448	5448	5364	5448	5448	5448	5282	0	0	0	0	0	0	0	0	0	0	0	0	0	0	0	0	0	0	0	0	0	0	0	0	0	0	0	0	0	0	0	0	0	0	0	0	0	0	0	0	0	0	0	0	0	0	5364	5364	5364	5448	5364	5364	5364	5364	5448	5448	5364	5364	5364	5364	5364	5282	5282	5282	5282	5202	5202	5202	5282	5282	5282	5282	5282	5282	5282	5282	5282	5282	5282	5282	5282	5282	5282	5364	5364	5364	5282	5282	5202	5202	5202	5202	5282	5282	5282	5282	5282	5282	5202	5202	5202	5202	5282	5202	5282	5282	5282	5282	5282	5282	5282	5282	5282	5282	5282	5282	5282	5282	5364	5364	5364	5282	5364	5364	5364	5364	5364	5364	5364	5364	5364	5364	5364	5364	5364	5282	5282	5282	5282	5202	5282	5282	5364	5364	5364	5364	5364	5364	5364	5364	5364	5282	5364	5282	5282	5282	5282	5282	5282	5282	5282	5282	5282	5282	5202	5202	5202	5202	5202	5125	5125	5125	5282	5282	5282	5282	5282	5282	5364	5364	5202	5202	5202	5202	5202	5202	5202	5282	5282	5202	5282	5282	5364	5282	5282	5364	5282	5364	5364	5282	5282	5282	5202	5282	5282	5202	5202	5282	5282	5282	5282	5364	5282	5364	5364	5364	5364	5282	5202	5202	5282	5282	4977	4977	4977	4977	5202	5202	5202	5282	5202	5282	5282	5364	5364	5364	5448	5448	5448	5364	5364	5364	5364	5282	5282	5282	5282	5282	5202	5202	5282	5202	5202	5202	5202	5282	5282	5202	5202	5282	5282	5282	5282	5364	5364	5282	5364	5364	5364	5364	5364	5364	5364	5364	5364	5282	5282	5282	5282	5282	5282	5282	5448	5364	5364	5364	5448	5448	5448	5364	5364	5282	5282	5364	5364	5364	5364	5448	5364	5364	5364	5364	5282	5282	5282	5282	5364	5364	5364	5282	5202	5364	5282	5282	5202	5282	5282	5282	5282	5282	5282	5282	5282	5282	5364	5282	5364	5282	5364	5282	5282	5282	5282	5202	5202	5364	5364	5364	5282	5282	5448	5448	5448	5448	5448	5448	5448	5448	5448	5282	5282	5364	5364	5364	5364	5364	5364	5364	5364	5364	5364	5364	5535	5448	5448	5535	5448	5448	0	0	0	0	0	0	0	0	0	0	0	0	0	0	0	0	0	0	0	0	0	0	0	0	0	0	0	0	0	0	0	0	0	0	0	0	0	0	0	0	0	5364	5364	5282	5282	0	0	0	0	0	0	0	0	0	0	0	0	0	0	0	0	0	5364	5282	5202	5202	5125	5125	5050	5050	5125	5125	5125	5050	5125	5202	5202	5202	5282	5202	5202	5202	0	0	0	2532	2532	2532	2532	2570	2551	2551	2532	2532	2532	2514	2514	2514	2514	2514	2496	2496	2496	2496	2478	2478	2460	2460	2460	2460	2460	0	0	0	0	0	0	0	0	0	0	0	0	0	0	0	0	0	0	0	0	0	0	0	0	0	0	0	0	0	0	0	0	0	0	0	0	0
0	0	0	0	1078	1088	1091	1088	1085	1085	1085	1088	1088	1088	1085	1088	1088	1091	1095	1095	1102	1102	1102	1102	1102	1102	1095	1095	1095	1081	1081	1095	1095	0	0	0	0	0	0	0	0	0	0	0	0	0	0	1091	1091	0	0	1105	1105	1105	1105	1105	0	0	0	0	0	0	0	0	0	0	0	5448	5448	5282	5364	5364	5364	5364	5364	5364	5364	5364	5364	5364	5364	0	0	0	0	0	0	0	0	0	0	5364	5448	5364	5364	5364	5448	5535	5535	5535	5448	5448	5448	5448	5448	5448	5364	5364	5282	5364	5448	5448	5364	5282	5282	5448	5448	5448	5364	5364	5364	5364	5448	0	0	0	0	0	0	0	0	0	0	0	0	0	0	0	0	0	0	0	0	0	0	0	0	0	0	0	0	0	0	0	0	0	0	0	0	0	0	0	0	0	0	0	0	0	0	0	5364	5364	5364	5448	5364	5282	5282	5282	5448	5448	0	0	0	0	0	5282	5282	5282	5282	5202	5202	5202	5202	5282	5282	5364	5364	5364	5364	5364	5282	5282	5282	5282	5282	5282	5282	5364	5364	5364	5364	5282	5282	5282	5282	5282	5282	5282	5282	5282	5282	5282	5202	5202	5202	5202	5282	5282	5282	5282	5282	5282	5364	5364	5364	5364	5364	5282	5282	5282	5282	5282	5364	5364	5364	5364	5364	5364	5364	5364	5364	5364	5364	5364	5364	5364	5364	5364	5364	5364	5282	5282	5282	5282	5282	5282	5364	5448	5448	5364	5364	5364	5364	5364	5364	5364	5364	5364	5364	5364	5364	5364	5364	5364	5364	5282	5282	5282	5202	5202	5202	5202	5202	5202	5202	5282	5282	5282	5282	5282	5364	5364	5364	5364	5282	5282	5282	5282	5202	5202	5202	5282	5282	5282	5282	5364	5364	5364	5364	5364	5364	5364	5364	5282	5282	5282	5202	5282	5282	5202	5202	5282	5282	5282	5282	5364	5364	5364	5364	5364	5364	5364	5282	5282	0	0	4977	4977	4977	4977	5202	5282	5282	5364	5282	5282	5282	5364	5364	5364	5448	5448	0	0	0	0	0	0	5282	5282	5282	5202	5202	5125	5202	5125	5202	5202	5282	5282	5282	5282	5282	5364	5282	5282	5282	5364	5364	5364	5364	5364	5364	5364	5364	5364	5364	5448	5364	5282	5364	5282	5282	5282	5282	5364	5364	5364	5364	5448	5448	5448	5448	5364	5448	5448	5448	5364	5448	5364	5448	5448	5364	5364	5364	5364	5364	5364	5282	5282	5364	5364	5282	5282	5282	5282	5282	5282	5282	5282	5364	5364	5364	5364	5364	5282	5282	5282	5364	5364	5364	5282	5364	5364	5282	5282	5364	5282	5282	5364	5448	5364	5448	5448	5448	5448	5448	5448	5535	5535	5448	5448	5448	5448	5282	5364	5364	5364	5364	5364	5364	5364	5364	5364	5364	5535	5535	5535	5448	5448	5448	5448	0	0	0	0	0	0	0	0	0	0	0	0	0	0	0	0	0	0	0	0	0	0	0	0	0	0	0	0	0	0	0	0	0	0	0	0	0	0	0	0	0	0	0	0	0	0	0	0	0	0	0	0	0	0	0	0	0	0	0	0	0	5282	5364	5282	5282	5202	5202	5125	5125	5125	5125	5202	5202	5202	5202	5202	5282	5282	5282	5282	5282	5364	5364	0	0	2532	2532	2532	2570	2570	2551	2551	2532	2532	2532	2532	2514	2514	2514	2514	2496	2496	2496	2496	2478	2478	2460	2460	2460	2460	2460	0	0	0	0	0	0	0	0	0	0	0	0	0	0	0	0	0	0	0	0	0	0	0	0	0	0	0	0	0	0	0	0	0	0	0	0	0
0	0	0	0	1088	1091	1091	1088	1085	1088	1085	1088	1088	1088	1088	1088	1088	1091	1095	1095	1102	1102	1102	1102	1102	1102	1095	1095	0	1081	1081	0	0	0	0	0	0	0	0	0	0	0	0	0	0	0	0	0	0	0	0	1098	1102	1102	1102	1102	0	0	0	0	0	0	0	0	0	0	0	5448	5448	5364	5364	5364	5364	5364	5364	5364	5364	5364	5448	5448	5364	0	0	0	0	0	0	0	0	0	0	0	5448	5364	5364	5364	5364	5535	5535	5535	5448	5448	5448	5448	5448	5448	5364	5364	5364	5448	5448	5448	5364	5282	5282	5448	5448	5448	5448	5364	5448	5448	5448	0	0	0	0	0	0	0	0	0	0	0	0	0	0	0	0	0	0	0	0	0	0	0	0	0	0	0	0	0	0	0	0	0	0	0	0	0	0	0	0	0	0	0	0	0	0	0	0	0	0	5535	5448	5282	5282	5282	0	0	0	0	0	0	0	0	0	0	5282	5202	5202	5202	5202	5282	5364	5364	5364	5282	5282	5364	5282	5282	5282	5282	5282	5282	5282	5282	5282	5364	5282	5282	5282	5282	5282	5282	5282	5282	5282	5282	5282	5202	5282	5202	5202	5202	5282	5282	5282	5282	5364	5364	5364	5364	5364	5364	5282	5282	5282	5282	5282	5282	5364	5448	5364	5448	5364	5448	5364	5364	5364	5364	5364	5364	5364	5364	5364	5364	5364	5364	5282	5282	5364	5364	5364	5364	5364	5448	5448	5448	5364	5364	5364	5364	5364	5364	5364	5364	5364	5364	5364	5364	5364	5364	5364	5282	5364	5364	5282	5202	5202	5202	5202	5202	5202	5282	5282	5282	5282	5282	5282	5364	5364	5448	5282	5282	5282	5202	5202	5202	5202	5282	5364	5364	5364	5364	5364	5364	5364	5364	5364	5364	5364	5364	5364	5282	5282	5282	5282	5202	5202	5282	5364	5282	5282	5364	5364	5448	5364	5364	5364	5364	5364	5282	0	0	0	0	0	0	0	5282	5282	5364	5202	5202	5282	0	0	0	0	0	0	0	0	0	0	0	5282	5282	5282	5202	5202	5202	5202	5202	5364	5282	5282	5282	5282	5282	5282	5364	5282	5282	5282	5364	5364	5364	5364	5448	5448	5364	5364	5364	5364	5448	5448	5448	5364	5282	5364	5282	5364	5364	5364	5364	5364	5448	5448	5448	5448	5364	5448	5448	5448	5448	5448	5448	5448	5448	5364	5364	5364	5364	5364	5364	5282	5364	5364	5364	5282	5282	5282	5282	5364	5364	5364	5364	5448	5448	5448	5448	5364	5364	5364	5364	5364	5364	5364	5364	5364	5364	5364	5364	5364	5282	5364	5448	5448	5448	5448	5448	5448	5448	5535	5535	5535	5535	5448	5448	5535	5448	5448	5448	5364	5448	5448	5448	5448	5448	5535	5535	5535	5535	5535	5448	5448	5448	5448	5448	0	0	0	0	0	0	0	0	0	0	0	0	0	0	0	0	0	0	0	0	0	0	0	0	0	0	0	0	0	0	0	0	0	0	0	0	0	0	0	0	0	0	0	0	0	0	0	0	0	0	0	0	0	0	0	0	0	0	0	0	0	5282	5282	5282	5282	5202	5202	5202	5202	5202	5202	5282	5282	5282	5282	5282	5282	5282	5282	5282	5282	5364	5364	5364	0	0	0	0	2570	2570	2551	2551	2551	2551	2532	2532	2514	2532	2514	2514	2514	2496	2496	2478	2478	2478	2460	2460	2460	2443	2443	0	0	0	0	0	0	0	0	0	0	0	0	0	0	0	0	0	0	0	0	0	0	0	0	0	0	0	0	0	0	0	0	0	0	0	0	0
0	0	0	0	1088	1088	1091	1091	1088	1088	1088	1088	1088	1088	1088	1088	1091	1091	1095	1095	1105	1105	1105	1102	0	0	0	0	0	0	0	0	0	0	0	0	0	0	0	0	0	0	0	0	0	0	0	0	0	0	0	1098	1102	1102	1102	1102	0	0	0	0	0	0	0	0	0	0	0	5448	5448	5364	5364	5448	5448	5364	5448	5364	5364	5364	5364	5364	0	0	0	0	0	0	0	0	0	0	0	0	0	5364	5364	5448	5448	5535	5535	5535	5535	5535	5535	0	0	0	0	5364	5364	5448	5448	5448	5364	5364	5364	5448	5364	5364	5448	5364	5448	5448	5448	0	0	0	0	0	0	0	0	0	0	0	0	0	0	0	0	0	0	0	0	0	0	0	0	0	0	0	0	0	0	0	0	0	0	0	0	0	0	0	0	0	0	0	0	0	0	0	0	0	0	5535	5448	5282	5282	5282	0	0	0	0	0	0	0	0	0	0	0	5202	5282	5282	5282	5282	5282	5282	5282	5282	5282	5282	5282	5282	5282	5282	5282	5282	5282	5364	5282	5364	5364	5282	5282	5282	5282	5282	5282	5282	5282	5282	5282	5282	5282	5282	5202	5282	5282	5282	5282	5282	5282	5364	5364	5364	5364	5364	5282	5282	5282	5282	5282	5282	5448	5448	5448	5448	5448	5448	5364	5364	5364	5364	5364	5448	5448	5364	5364	5364	5364	5364	5282	5282	5364	5364	5364	5364	5364	5535	5535	5448	5448	5448	5448	5448	5364	5364	5364	5364	5364	5364	5364	5364	5364	5364	5364	5364	5364	5282	5282	5282	5202	5282	5282	5282	5282	5282	5282	5282	5282	5364	5364	5448	5448	5448	5448	5282	5535	5364	5364	5364	5364	0	5364	5364	5364	5448	5448	5448	5448	5448	5364	5448	5448	5364	5364	5364	5282	5282	5282	5282	5282	5282	5364	5364	5448	5448	5448	5448	5448	5364	5364	5364	5364	0	0	0	0	0	0	0	0	0	0	0	5202	5202	0	0	0	0	0	0	0	0	0	0	0	0	5282	5282	5282	5202	5202	5202	5202	5282	5364	5282	5282	5282	5282	5282	5282	5364	5282	5282	5282	5448	5364	5364	5364	5448	5448	5448	5448	5448	5448	5448	5448	5448	5364	5282	5282	5282	5364	5364	5364	5364	5364	5448	5448	5448	5448	5448	5448	5448	5448	5448	5448	5448	5448	5448	5448	5448	5448	5364	5364	5364	5364	5364	5364	5364	5282	5282	5364	5364	5364	5364	5364	5364	5448	5448	5448	5448	5448	5364	5364	5448	5364	5364	5364	5364	5364	5364	5364	5364	5364	5364	5448	5448	5448	5448	5448	5448	5448	5448	5448	5535	5535	5535	5535	5535	5535	5535	5448	5448	5448	5535	5448	5448	5535	5535	5535	5535	5535	5535	5535	5535	5535	5535	5448	5448	0	0	0	0	0	0	0	0	0	0	0	0	0	0	0	0	0	0	0	0	0	0	0	0	0	0	0	0	0	0	0	0	0	0	0	0	0	0	0	0	0	0	0	0	0	0	0	0	0	0	0	0	0	0	0	0	0	0	0	5364	5282	5282	5282	5282	5282	5282	5202	5202	5202	5202	5282	5364	5282	5282	5282	5282	5282	5282	5282	5282	5282	5364	5364	5364	0	0	0	0	2570	2570	2570	2570	2570	2570	2551	2551	2532	2532	2514	2514	2514	2496	2496	2478	2478	2460	2460	2460	2460	2460	2460	0	0	0	0	0	0	0	0	0	0	0	0	0	0	0	0	0	0	0	0	0	0	0	0	0	0	0	0	0	0	0	0	0	0	0	0	0
0	0	0	0	1078	1088	1091	1091	1085	1088	1085	1088	1088	1091	1088	1091	1091	1095	1095	1095	1105	1105	1105	0	0	0	0	0	0	0	0	0	0	0	0	0	0	0	0	0	0	0	0	0	0	0	0	0	0	0	0	0	1105	1105	1105	0	0	0	0	0	0	0	0	0	0	0	0	5364	5364	5364	5448	5448	5448	5448	5448	5448	5448	5448	5448	5364	0	0	0	0	0	0	0	0	0	0	0	0	0	0	5364	5448	5448	5448	5535	5535	5535	5535	5535	0	0	0	0	5364	5364	5448	5448	5448	5448	5448	5448	0	5364	5364	0	5448	5448	5448	5364	5364	0	0	0	0	0	0	0	0	0	0	0	0	0	0	0	0	0	0	0	0	0	0	0	0	0	0	0	0	0	0	0	0	0	0	0	0	0	0	0	0	0	0	0	0	0	0	0	0	0	0	0	5282	5282	5282	0	0	0	0	0	0	0	0	0	0	0	0	5282	5282	5282	5282	5282	5364	5282	5282	5282	5282	5282	5282	5282	5282	5364	5364	5448	5364	5364	5364	5364	5282	5282	5282	5282	5282	5282	5282	5282	5282	5282	5282	5282	5282	5282	5282	5282	5282	5282	5364	5364	5448	5364	5364	5364	5364	5282	5282	5282	5202	5282	5448	5448	5535	5535	5448	5535	5535	5364	5448	5448	5364	5364	5448	5448	5364	5364	5364	5364	5364	5364	5364	5364	5364	5364	5364	5364	5448	5535	5448	5448	5448	5448	5448	5448	5364	5364	5364	5364	5364	5364	5364	5364	5364	5364	5364	5364	5364	5364	5364	5282	5282	5282	5282	5282	5282	5364	5364	5364	5364	5364	5448	5448	5448	5448	5282	5448	5364	5364	5364	5364	0	5364	5364	5364	5448	5448	5448	5448	5448	5448	5364	5364	5448	5448	5364	5282	5364	5364	5282	5282	5364	5364	5448	5448	5448	5448	5448	5448	5448	5364	5364	5364	0	0	0	0	0	0	0	0	0	0	0	0	0	0	0	0	0	0	0	0	0	0	0	0	5364	5364	5364	5364	5202	5202	5202	5202	5364	5364	5282	5282	5282	5364	5364	5364	5364	5364	5364	5364	5448	5448	5364	5448	5448	5448	5448	5448	5448	5448	5448	5448	5448	5364	5364	5364	5364	5364	5364	5364	5364	5448	5448	5448	5448	5448	5448	5448	5448	5448	5448	5448	5448	5448	5448	5448	5448	5448	5448	5364	5364	5364	5364	5448	5364	5364	5364	5364	5364	5364	5364	5364	5448	5535	5535	5535	5535	5448	5364	5448	5448	5448	5448	5448	5364	5364	5364	5364	5448	5448	5448	5448	5535	5535	5535	5535	5535	5535	5535	5535	5535	5535	5535	5535	5535	5535	5535	5448	5448	5448	5448	5448	5448	5535	5535	5535	5535	5535	5535	5535	5535	5535	5448	5448	5448	0	0	0	0	0	0	0	0	0	0	0	0	0	0	0	0	0	0	0	0	0	0	0	0	0	0	0	0	0	0	0	0	0	0	0	0	0	0	0	0	0	0	0	0	0	0	0	0	0	0	0	0	0	0	0	0	5282	5282	5282	5282	5282	5282	5282	5282	5282	5282	5282	5282	5282	5282	5364	5364	5282	5282	5282	5364	5364	5364	5364	5282	5364	5364	5364	5364	0	0	0	0	2570	2570	2570	2570	2570	2570	2532	2532	2514	2514	2514	2514	2514	2496	2496	2478	2478	2478	2478	2478	2460	2460	2460	0	0	0	0	0	0	0	0	0	0	0	0	0	0	0	0	0	0	0	0	0	0	0	0	0	0	0	0	0	0	0	0	0	0	0	0	0
0	0	0	0	1081	1085	1085	1088	1088	1088	1088	1088	1088	1088	1102	1102	1091	1102	1102	1102	0	0	0	0	0	0	0	0	0	0	0	0	0	0	0	0	0	0	0	0	0	0	0	0	0	0	0	0	0	0	0	0	1105	1105	1109	1109	0	0	0	0	0	0	0	0	0	5282	5282	5282	5364	5364	5364	5364	5364	5448	5448	5448	5448	5448	5448	5448	0	0	0	0	0	0	0	0	5448	5448	0	0	0	0	0	5448	5448	5535	5535	5535	5535	5626	5626	0	0	0	0	5448	5448	5448	5448	5448	5364	5364	5448	0	0	0	0	5448	5448	5448	5448	5448	5364	5364	5364	0	0	0	0	0	0	0	0	0	0	0	0	0	0	0	0	0	0	0	0	0	0	0	0	0	0	0	0	0	0	0	0	0	0	0	0	0	0	0	0	0	0	0	0	0	0	0	0	0	0	0	0	0	0	0	0	0	0	0	0	0	0	0	0	5282	5282	5364	5364	5364	5364	5448	5448	5448	5448	5448	5364	5364	5364	5448	5535	5535	5364	5364	5364	5364	5282	5282	5282	5282	5282	5282	5282	5282	5282	5282	5282	5282	5282	5282	5282	5364	5364	5448	5364	5448	5448	5448	5448	5364	5282	5282	5282	5364	5202	5448	5448	5535	5535	5535	5535	5535	5535	5448	5448	5448	5448	5448	5448	5364	5364	5364	5364	5364	5364	5364	5364	5364	5364	5364	5364	5448	5535	5535	5535	5448	5448	5448	5448	5364	5448	5448	5448	5448	5364	5448	5448	5364	5364	5364	5364	5364	5364	5364	5364	5364	5364	5364	5364	5364	5364	5448	5364	5364	5448	5448	5448	5448	5448	5448	5448	5364	5364	5364	5364	0	5364	5364	5364	5448	5535	5535	5535	5448	5448	5364	5364	5364	5448	5364	5282	5364	5364	0	0	5364	5364	5448	5448	5448	5535	5535	5535	5535	5535	5535	5364	0	0	0	0	0	0	0	0	0	0	0	0	0	0	0	0	0	0	0	0	0	0	0	5364	5282	5282	5282	5282	5282	5282	5282	5364	5364	5364	5364	5282	5364	5364	5364	5364	5364	5364	5364	5364	5448	5448	5448	5448	5448	5535	5448	5448	5448	5448	5448	5448	5448	5448	5364	5364	5364	5448	5448	5448	5364	5448	5448	5448	5448	5448	5448	5448	5448	5448	5448	5448	5448	5448	5448	5448	5448	5448	5448	5364	5364	5364	5364	5448	5448	5448	5448	5448	5448	5448	5448	5448	5448	5535	5626	5626	5626	5535	5535	5535	5448	5448	5448	5448	5448	5364	5364	5448	5448	5448	5448	5448	5535	5535	5626	5535	5535	5535	5535	5535	5535	5535	5535	5535	5535	5535	5535	5535	5535	5448	5448	5535	5535	5535	5535	5535	5535	5535	5535	5535	5535	5535	5535	5448	0	0	0	0	0	0	0	0	0	0	0	0	0	0	0	0	0	0	0	0	0	0	0	0	0	0	0	0	0	0	0	0	0	0	0	0	0	0	0	0	0	0	0	0	0	0	0	0	0	0	0	0	0	0	0	5448	5364	5364	5364	5282	5282	5282	5282	5282	5282	5282	5282	5282	5282	5282	5282	5364	5364	5282	5282	5282	5282	5364	5364	5364	5364	5364	5364	5364	5364	0	0	0	0	2570	2570	2570	2551	2570	2551	2532	2532	2532	2532	2514	2514	2514	2514	2496	2478	2478	2478	2478	2478	2460	2460	2460	0	0	0	0	0	0	0	0	0	0	0	0	0	0	0	0	0	0	0	0	0	0	0	0	0	0	0	0	0	0	0	0	0	0	0	0	0
0	0	0	0	1081	1085	1085	1088	1091	1095	1095	1098	1098	1102	1102	1105	1102	1102	1102	1102	0	0	0	0	0	0	0	0	0	0	0	0	0	0	0	0	0	0	0	0	0	0	0	0	0	0	0	0	0	0	0	1105	1105	1105	1105	1105	0	0	0	0	0	0	0	0	0	5282	5282	5364	5364	5364	5364	5364	5448	5448	5448	5535	5448	5448	5448	5448	0	0	5364	5448	5448	5448	5448	5448	5535	5535	5535	0	0	0	0	5535	5535	5626	5626	5626	5626	5626	5626	5626	5626	5626	5626	5535	5448	5448	5448	5448	5448	5364	5364	0	5448	5448	0	5448	5448	5448	5448	5448	5364	5364	5364	0	0	0	0	0	0	0	0	0	0	0	0	0	0	0	0	0	0	0	0	0	0	0	0	0	0	0	0	0	0	0	0	0	0	0	0	0	0	0	0	0	0	0	0	0	0	0	0	0	0	0	0	0	0	0	0	0	0	0	0	0	0	0	0	5282	5448	5448	5448	5364	5364	5364	5448	5448	5448	5448	5364	5364	5448	5448	5535	5448	5448	5448	5448	5364	5364	5364	5282	5282	5282	5282	5282	5282	5282	5282	5364	5282	5282	5282	5282	5364	5364	5448	5448	5535	5448	5448	5535	5448	5364	5282	5282	5202	5282	5448	5535	5626	5626	5535	5535	5535	5535	5535	5535	5535	5535	5535	5535	5448	5364	5364	5364	5364	5364	5364	5364	5364	5364	5364	5364	5448	5535	5535	5448	5448	5448	5448	5448	5364	5448	5448	5448	5448	5448	5448	5448	5364	5364	5364	5364	5364	5364	5448	5364	5364	5364	5364	5364	5364	5364	5448	5448	5364	5448	5448	5448	5448	5448	5364	5364	5364	5282	5282	5364	5364	5364	5364	5535	5535	5535	5535	5535	5448	5535	5535	5364	5364	0	0	0	0	0	0	0	0	0	0	0	0	5535	5535	5535	5535	5448	5448	5448	0	0	0	0	0	0	0	0	0	0	0	0	0	0	0	0	0	0	0	0	0	0	0	5364	5282	5364	5282	5282	5282	5282	5282	5448	5282	5364	5364	5364	5364	5364	5364	5364	5364	5364	5364	5364	5448	5535	5448	5448	5535	5535	5535	5448	5448	5535	5535	5535	5448	5448	5448	5448	5448	5448	5448	5448	5448	5448	5448	5448	5448	5448	5448	5535	5535	5448	5448	5448	5448	5535	5448	5448	5448	5448	5448	5448	5448	5448	5448	5448	5448	5448	5448	5448	5448	5448	5448	5448	5535	5535	5626	5535	5535	5535	5535	5448	5448	5364	5448	5448	5364	5364	5364	5448	5448	5448	5448	5448	5535	5626	5626	5535	5535	5535	5535	5448	5448	5535	5535	5535	5535	5448	5535	5535	5448	5448	5448	5448	5535	5535	5535	5535	5535	5535	5535	5535	5535	5535	5535	0	0	0	0	0	0	0	0	0	0	0	0	0	0	0	0	0	0	0	0	0	0	0	0	0	0	0	0	0	0	0	0	0	0	0	0	0	0	0	0	0	0	0	0	0	0	0	0	0	0	0	0	0	0	0	0	5448	5448	5364	5364	5364	5282	5282	5282	5282	5282	5282	5364	5364	5364	5364	5282	5364	5364	5282	5282	5282	5282	5282	5282	5364	5364	5364	5364	5364	5364	0	0	0	0	0	2570	2570	2551	2570	2551	2532	2532	2514	2532	2514	2514	2514	2514	2496	2478	2478	2478	2478	2478	2460	2460	2460	0	0	0	0	0	0	0	0	0	0	0	0	0	0	0	0	0	0	0	0	0	0	0	0	0	0	0	0	0	0	0	0	0	0	0	0	0
0	0	0	0	0	1088	1088	1088	1088	1091	1095	1098	1098	1102	1102	1102	1102	1102	1102	1102	0	0	0	0	0	0	0	0	0	0	0	1091	1091	1091	0	0	0	0	0	1071	1071	1071	1081	1081	0	0	0	0	0	0	1105	1102	1102	1105	1105	1105	0	0	0	0	0	0	0	0	0	5282	5282	5364	5364	5364	5364	5364	5364	5448	5448	5535	5535	5535	5535	0	0	0	5364	5448	5535	5535	5535	5535	5626	5626	5626	5448	5448	5448	5448	5535	5535	5626	5626	5626	5626	5626	5626	5626	5626	5626	5535	5535	5535	5448	5448	5448	5448	5448	5364	5448	5448	5448	0	5448	5448	5448	5448	5448	5364	5364	5364	0	0	0	0	0	0	0	0	0	0	0	0	0	0	0	0	0	0	0	0	0	0	0	0	0	0	0	0	0	0	0	0	0	0	0	0	0	0	0	0	0	0	0	0	0	0	0	0	0	0	0	0	0	0	0	0	0	0	0	0	0	0	0	0	0	5448	5448	5448	5448	5448	5448	5448	5535	5535	5535	5448	5448	5448	5448	5535	5448	5364	5448	5448	5364	5364	5364	5364	5364	5364	5364	5364	5364	5364	5364	5364	5282	5364	5364	5364	5448	5448	5448	5448	5535	5448	5448	5448	5448	5448	5364	5282	5202	5282	5448	5535	5626	5535	5535	5448	5535	5535	5535	5535	5535	5535	5535	5626	5535	5535	5448	5448	5364	5364	5364	5364	5364	5364	5364	5448	5448	5535	5535	5535	5448	5448	5448	5364	5364	5448	5448	5364	5448	5448	5448	5448	5364	5448	5448	5448	5448	5448	5448	5448	5448	5364	5364	5364	5364	5364	5448	5448	5364	5448	5448	5448	5448	5364	5364	5364	5364	5364	5364	5364	5364	5364	5364	5364	5535	5535	5535	5535	5535	5535	5535	0	0	0	0	0	0	0	0	0	0	0	0	0	0	5626	5535	5535	5535	5448	5448	5448	5448	0	0	0	0	0	0	0	0	0	0	0	0	0	0	0	0	0	0	0	0	0	0	5364	5364	5364	5364	5364	5364	5364	5364	5448	5448	5364	5364	5364	5364	5364	5364	5448	5448	5448	5448	5448	5535	5535	5535	5535	5535	5535	5535	5535	5448	5535	5535	5535	5535	5448	5448	5448	5448	5448	5448	5448	5448	5448	5535	5535	5535	5535	5448	5535	5535	5448	5448	5448	5448	5448	5448	5448	5448	5448	5448	5448	5448	5448	5448	5448	5448	5448	5535	5448	5535	5535	5535	5535	5535	5535	5626	5535	5535	5535	5535	5448	5448	5448	5364	5448	5448	5364	5448	5448	5448	5448	5448	5448	5535	5535	5626	5535	5535	5535	5535	5535	5535	5535	5535	5535	5448	5448	5448	5535	5535	5448	5448	5535	5535	5535	5535	5535	5535	5535	5535	5626	5626	5626	0	0	0	0	0	0	0	0	0	0	0	0	0	0	0	0	0	0	0	0	0	0	0	0	0	0	0	0	0	0	0	0	0	0	0	0	0	0	0	0	0	0	0	0	0	0	0	0	0	0	0	0	0	0	0	0	0	5535	5448	5364	5364	5364	5364	5364	5282	5282	5282	5282	5282	5364	5364	5364	5364	5364	5364	5282	5282	5282	5282	5282	5282	5364	5364	5364	5364	5364	0	0	0	0	0	2570	2570	2570	2570	2570	2551	2532	2532	2532	2514	2532	2514	2514	2514	2496	2496	2496	2460	2443	2443	2443	2443	2443	0	0	0	0	0	0	0	0	0	0	0	0	0	0	0	0	0	0	0	0	0	0	0	0	0	0	0	0	0	0	0	0	0	0	0	0	0
0	0	0	0	0	1088	1088	1088	1088	1091	1095	1088	1098	1102	1102	1102	1095	1098	1098	1098	1098	1098	1105	1105	0	0	0	1095	1095	1095	1095	1091	1091	1091	0	0	1085	1085	1081	1074	1074	1074	1081	1081	0	0	0	0	0	0	1105	1102	1102	1105	1105	1105	0	0	0	0	0	0	0	0	5125	5202	5282	5282	5282	5364	5364	5364	5364	5364	5448	5535	5448	5448	5535	0	0	0	5364	5535	5535	5535	5626	5626	5626	5626	5626	5535	5448	5448	5535	5535	5535	5626	5535	5626	5626	5626	5626	5626	5535	5535	5535	5535	5448	5448	5448	5535	5448	5448	5448	5448	5364	5535	5535	5535	5535	5535	5448	5364	5448	5448	5448	0	0	0	0	0	0	0	0	0	0	0	0	0	0	0	0	0	0	0	0	0	0	0	0	0	0	0	0	0	0	0	0	0	0	0	0	0	0	0	0	0	0	0	0	0	0	0	0	0	0	0	0	0	0	0	0	0	0	0	0	0	0	0	0	0	0	5535	5535	5448	5448	5535	5535	5535	5535	5535	5535	5626	5535	5448	5535	5448	5448	5448	5448	5448	5448	5448	5448	5448	5448	5448	5364	5364	5364	5364	5364	5282	5282	5282	5364	5364	5448	5448	5448	5535	5535	5535	5535	5448	5448	5364	5282	5282	5282	5364	5535	5626	5626	5535	5535	5535	5448	5535	5535	5535	5535	5535	5535	5535	5535	5448	5448	5448	5364	5364	5364	5364	5364	5364	5364	5448	5535	5535	5535	5448	5448	5448	5448	5448	5448	5448	5364	5448	5448	5364	5448	5448	5448	5448	5448	5448	5448	5448	5448	5448	5364	5364	5364	5448	5448	5448	5448	5448	5448	5364	5448	5364	5364	5364	5364	5282	5364	5364	5364	5364	5364	5448	5448	5626	5626	5535	5626	5535	5626	5626	0	0	0	0	0	0	0	0	0	0	0	0	0	5719	5626	5535	5535	5535	5535	5535	5535	5448	0	0	0	0	0	0	0	0	0	0	0	0	0	0	0	0	0	0	0	0	0	0	5448	5364	5364	5364	5364	5364	5364	5364	5448	5448	5448	5448	5448	5448	5448	5448	5448	5448	5448	5448	5448	5535	5535	5535	5535	5535	5535	5535	5535	5535	5535	5535	5535	5535	5535	5448	5448	5448	5448	5448	5448	5448	5448	5535	5535	5535	5535	5448	5535	5535	5448	5448	5448	5535	5535	5535	5535	5535	5535	5535	5448	5448	5448	5448	5448	5448	5448	5535	5535	5535	5535	5535	5535	5535	5535	5535	5535	5535	5448	5535	5448	5364	5448	5448	5448	5448	5448	5448	5448	5448	5448	5448	5448	5535	5626	5626	5535	5626	5535	5626	5535	5535	5535	5535	5535	5448	5448	5448	5535	5535	5535	5535	5535	5535	5535	5535	5535	5535	5626	5626	5626	5626	5626	0	0	0	0	0	0	0	0	0	0	0	0	0	0	0	0	0	0	0	0	0	0	0	0	0	0	0	0	0	0	0	0	0	0	0	0	0	0	0	0	0	0	0	0	0	0	0	0	0	0	0	0	0	0	0	0	0	5535	5448	5364	5364	5364	5364	5364	5282	5282	5282	5282	5364	5364	5364	5364	5364	5364	5364	5282	5282	5282	5282	5282	5364	5364	5364	5364	5364	5364	0	0	0	0	0	2570	2609	2589	2589	2570	2551	2532	2532	2532	2514	2514	2514	2514	2514	2496	2460	2460	2443	2443	2443	2443	2443	2443	0	0	0	0	0	0	0	0	0	0	0	0	0	0	0	0	0	0	0	0	0	0	0	0	0	0	0	0	0	0	0	0	0	0	0	0	0
0	0	0	0	0	1088	1088	1088	1088	1088	1088	1088	1098	1102	1098	1102	1095	1095	1098	1098	1095	1095	1102	1095	1105	1102	1098	1095	1095	1095	1095	1095	1091	1091	1091	0	1088	1088	1081	1074	1074	1078	1081	1081	0	0	0	0	0	0	1102	1102	1102	1105	1105	0	0	0	0	0	0	0	0	0	5125	5202	5282	5282	5282	5282	5282	5364	5364	5364	5448	5448	5448	5448	5448	0	0	0	0	5535	5626	5626	5626	5626	5719	5626	5626	5535	5448	5448	5448	5535	5535	5719	5719	5719	5719	5626	5626	5626	5626	5626	5535	5535	5535	5535	5535	5535	5535	5535	5448	5448	5448	5626	5626	5535	5535	5535	5535	5364	5448	5448	5448	0	0	0	0	0	0	0	0	0	0	0	0	0	0	0	0	0	0	0	0	0	0	0	0	0	0	0	0	0	0	0	0	0	0	0	0	0	0	0	0	0	0	0	0	0	0	0	0	0	0	0	0	0	0	0	0	0	0	0	0	0	0	0	0	0	0	5535	5448	5448	5448	5448	5448	5535	5535	5535	5626	5535	5535	5626	5535	5535	5448	5448	5535	5535	5448	5448	5535	5448	5535	5448	5448	5448	5364	5364	5364	5364	5364	5364	5364	5448	5448	5535	5535	5535	5535	5535	5448	5448	5448	5448	5364	5448	5535	5535	5626	5626	5626	5626	5535	5535	5535	5535	5626	5626	5626	5535	5626	5535	5535	5535	5535	5448	5364	5364	5364	5364	5364	5364	5364	5448	5448	5448	5448	5448	5448	5448	5448	5448	5448	5448	5364	5448	5448	5448	5448	5448	5448	5535	5448	5448	5448	5448	5448	5448	5448	5448	5448	5448	5448	5448	5448	5448	5448	5448	5364	5364	5364	5364	5364	5364	5364	5364	5364	5364	5448	5448	5448	5626	5626	5626	5626	5535	5535	5626	0	0	0	0	0	0	0	0	0	0	0	0	0	5719	5815	5448	5448	5448	5448	5448	5535	0	0	0	0	0	0	0	0	0	0	0	0	0	0	0	0	0	0	0	0	0	0	0	5448	5448	5448	5364	5364	5448	5448	5448	5448	5448	5448	5448	5448	5448	5448	5448	5448	5448	5448	5448	5448	5535	5535	5535	5535	5535	5535	5535	5535	5535	5535	5535	5535	5535	5535	5535	5535	5448	5535	5535	5535	5448	5448	5535	5535	5535	5448	5448	5535	5535	5535	5535	5535	5535	5535	5535	5535	5535	5535	5535	5448	5448	5448	5448	5448	5448	5448	5535	5535	5535	5535	5535	5535	5535	5535	5535	5535	5535	5448	5535	5448	5364	5448	5448	5448	5448	5448	5448	5448	5448	5535	5448	5535	5626	5626	5626	5626	5626	5626	5626	5535	5535	5535	5535	5448	5448	5448	5535	5535	5535	5535	5535	5535	5535	5626	5535	5535	5626	5626	5626	5626	0	0	0	0	0	0	0	0	0	0	0	0	0	0	0	0	0	0	0	0	0	0	0	0	0	0	0	0	0	0	0	0	0	0	0	0	0	0	0	0	0	0	0	0	0	0	0	0	0	0	0	0	0	0	0	0	0	0	0	5448	5448	5364	5364	5364	5364	5364	5282	5282	5282	5282	5364	5364	5364	5364	5364	5364	5364	5364	5282	5282	5282	5282	5364	5364	5364	5364	5364	5364	0	0	0	0	0	0	2609	2589	2589	2570	2551	2532	2532	2532	2514	2532	2514	2514	2514	2496	2460	2443	2443	2443	2426	2426	2426	2426	0	0	0	0	0	0	0	0	0	0	0	0	0	0	0	0	0	0	0	0	0	0	0	0	0	0	0	0	0	0	0	0	0	0	0	0	0
0	0	0	0	0	1088	1088	1088	1088	1088	1088	1088	1091	1098	1098	1098	1095	1095	1095	1095	1095	1091	1095	1091	1095	1098	1095	1095	1095	1095	1095	1091	1091	1088	1091	1088	1088	1088	1085	1081	1078	1081	1081	1081	1081	0	0	0	1095	1095	1098	1098	1095	1095	1105	0	0	0	0	0	0	0	0	5125	5125	5202	5282	5282	5282	5364	5282	5364	5364	5448	5448	5448	5448	5448	5448	0	0	0	0	5535	5535	5626	5626	5626	5719	5719	5719	5719	5535	5535	5535	5535	5535	5626	5626	5719	5719	5719	5626	5535	5535	5535	5535	5535	5535	5535	5535	5535	5535	5535	5535	5535	5535	5626	5626	5535	5626	5626	5535	5448	5448	5448	0	0	0	0	0	0	0	0	0	0	0	0	0	0	0	0	0	0	0	0	0	0	0	0	0	0	0	0	0	0	0	0	0	0	0	0	0	0	0	0	0	0	0	0	0	0	0	0	0	0	0	0	0	0	0	0	0	0	0	0	0	0	0	0	0	0	0	5448	5448	5448	5448	5448	5535	5535	5535	5626	5535	5535	5535	5535	5535	5535	5535	5535	5535	5535	5535	5535	5535	5535	5535	5535	5535	5448	5448	5448	5448	5448	5448	5364	5448	5448	5448	5364	5448	5535	5535	5535	5535	5535	5448	5448	5535	5535	5535	5535	5535	5626	5626	5626	5535	5626	5535	5626	5626	5626	5626	5626	5626	5626	5626	5535	5535	5448	5448	5364	5364	5364	5364	5364	5448	5448	5535	5535	5535	5535	5535	5535	5448	5535	5535	5535	5448	5448	5448	5448	5448	5448	5535	5535	5535	5535	5535	5535	5448	5448	5448	5448	5448	5448	5448	5448	5448	5448	5448	5448	5364	5364	5364	5364	5364	5364	5364	5364	5364	5364	5535	5535	5535	5626	5626	5626	5626	5626	5535	0	0	0	0	0	0	0	0	0	0	0	0	0	0	5626	5535	5448	5448	5448	5448	5448	0	0	0	0	0	0	0	0	0	0	0	0	0	0	0	0	0	0	0	0	0	0	0	0	5448	5448	5448	5448	5448	5448	5448	5448	5448	5448	5448	5448	5448	5448	5448	5448	5448	5448	5448	5448	5448	5535	5535	5535	5535	5535	5535	5535	5535	5535	5626	5535	5535	5535	5535	5535	5535	5535	5535	5535	5535	5535	5535	5535	5535	5535	5535	5535	5535	5535	5535	5535	5535	5535	5535	5535	5535	5535	5535	5535	5535	5535	5535	5535	5535	5535	5535	5535	5535	5535	5535	5535	5535	5535	5535	5535	5535	5535	5535	5535	5535	5448	5535	5535	5535	5535	5535	5535	5535	5535	5535	5535	5535	5626	5626	5626	5626	5626	5626	5626	5535	5535	5535	5535	5535	5535	5535	5535	5535	5535	5535	5535	5535	5535	5626	5626	5626	5626	5626	5626	5626	0	0	0	0	0	0	0	0	0	0	0	0	0	0	0	0	0	0	0	0	0	0	0	0	0	0	0	0	0	0	0	0	0	0	0	0	0	0	0	0	0	0	0	0	0	0	0	0	0	0	0	0	0	0	0	0	0	0	5448	5448	5448	5364	5364	5364	5364	5364	5364	5364	5364	5364	5364	5364	5364	5364	5364	5364	5364	5364	5282	5282	5282	5282	5364	5364	5364	5364	5364	5364	0	0	0	0	0	0	2609	2609	2589	2589	2551	2532	2532	2532	2514	2532	2532	2514	2514	2496	2460	2443	2443	2443	2426	2426	2426	2426	0	0	0	0	0	0	0	0	0	0	0	0	0	0	0	0	0	0	0	0	0	0	0	0	0	0	0	0	0	0	0	0	0	0	0	0	0
0	0	0	0	0	1088	1088	1088	1088	1088	1091	1088	1088	1095	1095	1095	1091	1091	1095	1095	1095	1091	1095	1095	1095	1095	1095	1095	1095	1095	1091	1091	1091	1088	1088	1088	1088	1088	1088	1081	1081	1081	1081	1081	1071	1071	1071	1091	1095	1095	1098	1098	1095	1095	1095	0	0	0	0	0	0	0	0	5125	5125	5202	5282	5282	5282	5282	5282	5364	5364	5364	5448	5448	5448	5448	5282	5282	5282	5282	5364	5364	5282	5282	5626	5626	5719	5719	5719	5719	5535	5535	5535	5535	5626	5719	5719	5719	5719	5719	5626	5626	5535	5535	5535	5535	5626	5626	5626	5626	5626	5626	5626	5535	5719	5719	5719	5626	5626	5626	5626	5626	5535	5535	0	0	0	0	0	0	0	0	0	0	0	0	0	0	0	0	0	0	0	0	0	0	0	0	0	0	0	0	0	0	0	0	0	0	0	0	0	0	0	0	0	0	0	0	0	0	0	0	0	0	0	0	0	0	0	0	0	0	0	0	0	0	0	0	0	0	0	5626	5535	5535	5535	5535	5535	5535	5535	5535	5535	5535	5535	5535	5535	5535	5535	5535	5535	5535	5535	5535	5535	5535	5535	5535	5448	5448	5535	5535	5535	5535	5535	5535	5535	5448	5448	5448	5535	5535	5535	5535	5535	5535	5535	5535	5535	5535	5535	5535	5535	5626	5719	5626	5626	5626	5535	5626	5626	5626	5626	5626	5626	5626	5626	5535	5535	5535	5448	5448	5535	5535	5535	5535	5448	5448	5535	5535	5535	5535	5535	5535	5535	5535	5535	5535	5448	5448	5448	5448	5448	5448	5535	5535	5535	5535	5535	5535	5448	5448	5448	5448	5448	5448	5448	5448	5535	5448	5448	5448	5364	5364	5364	5364	5364	5364	5364	5364	5364	5364	5535	5535	5535	5626	5626	5535	5535	5535	0	0	0	0	0	0	0	0	0	0	0	0	0	0	5535	5448	5364	5448	5448	5364	5364	5364	5364	0	0	0	0	0	0	0	0	0	0	0	0	0	0	0	0	0	0	0	0	0	0	5535	5535	5535	5535	5448	5448	5448	5448	5448	5535	5535	5535	5448	5448	5448	5448	5448	5448	5448	5448	5448	5448	5535	5535	5535	5535	5535	5535	5535	5535	5626	5626	5626	5626	5626	5626	5626	5535	5535	5535	5535	5535	5535	5535	5535	5535	5535	5535	5535	5535	5535	5535	5535	5535	5535	5535	5535	5535	5535	5535	5535	5535	5535	5535	5535	5535	5535	5535	5535	5535	5535	5535	5535	5535	5535	5535	5535	5535	5535	5535	5535	5535	5448	5535	5535	5535	5535	5535	5535	5535	5535	5535	5535	5535	5626	5626	5626	5626	5626	5626	5626	5626	5626	5535	5535	5535	5535	5535	5535	5535	5535	5535	5535	5535	5535	5626	5626	5535	5535	5626	5626	0	0	0	0	0	0	0	0	0	0	0	0	0	0	0	0	0	0	0	0	0	0	0	0	0	0	0	0	0	0	0	0	0	0	0	0	0	0	0	0	0	0	0	0	0	0	0	0	0	0	0	0	0	0	0	0	0	0	0	5448	5448	5448	5448	5448	5364	5364	5364	5364	5364	5364	5364	5364	5282	5364	5364	5364	5364	0	0	0	0	0	0	0	0	5364	5364	0	0	0	0	0	0	0	0	2609	2609	2589	2589	2570	2532	2532	2532	2532	2532	2514	2514	2514	2496	2460	2460	2443	2443	2426	2426	2443	2443	0	0	0	0	0	0	0	0	0	0	0	0	0	0	0	0	0	0	0	0	0	0	0	0	0	0	0	0	0	0	0	0	0	0	0	0	0
0	0	0	0	0	1088	1088	1088	1088	1088	1091	1088	1091	1095	1095	1095	1095	1091	1091	1095	1091	1091	1091	1091	1095	1095	1095	1091	1091	1091	1091	1091	1091	1088	1088	1088	1088	1091	1088	1085	1085	1085	1088	1085	1074	1078	1088	1091	1095	1095	1095	1095	1095	1095	1095	0	0	0	0	0	0	0	0	0	5125	5202	5282	5282	5202	5202	5282	5364	5364	5364	5364	5364	5364	5448	5448	5364	5364	5364	5448	5448	5282	5364	5626	5719	5719	5719	5719	5719	5719	5535	5535	5535	5626	5719	5719	5626	5719	5719	5719	5626	5719	5719	5535	5535	5626	5626	5626	5719	5719	5719	5719	5719	5719	5719	5719	5626	5626	5626	5626	5626	5535	5535	0	0	0	0	0	0	0	0	0	0	0	0	0	0	0	0	0	0	0	0	0	0	0	0	0	0	0	0	0	0	0	0	0	0	0	0	0	0	0	0	0	0	0	0	0	0	0	0	0	0	0	0	0	0	0	0	0	0	0	0	0	0	0	0	0	0	0	5626	5535	5626	5626	5535	5535	5535	5535	5535	5535	5535	5535	5626	5535	5535	5535	5535	5535	5535	5535	5535	5535	5535	5535	5535	5535	5535	5535	5535	5535	5535	5535	5535	5448	5535	5448	5448	5535	5535	5535	5535	5535	5535	5535	5535	5535	5535	5535	5535	5535	5626	5626	5626	5535	5535	5535	5535	5626	5626	5626	5626	5626	5626	5626	5626	5626	5535	5535	5535	5535	5535	5535	5535	5535	5535	5626	5535	5626	5626	5535	5626	5626	5626	5535	5535	5448	5448	5535	5448	5535	5535	5535	5535	5535	5535	5535	5535	5448	5448	5448	5448	5448	5448	5448	5535	5535	5535	5535	5535	5364	5364	5364	5364	5364	5364	5364	5448	5448	5535	5626	5626	5626	5626	5626	5535	5535	5535	0	0	0	0	0	0	0	0	0	0	0	5448	5448	5535	5448	5448	5364	5448	5364	5364	5364	5364	5364	5364	0	0	0	0	0	0	0	0	0	0	0	0	0	0	0	0	0	0	0	0	0	5535	5535	5535	5535	5535	5535	5535	5535	5535	5535	5535	5448	5448	5535	5535	5448	5448	5448	5448	5448	5448	5448	5535	5535	5535	5535	5535	5535	5626	5626	5626	5626	5719	5626	5719	5719	5626	5626	5626	5535	5626	5535	5535	5535	5535	5535	5535	5535	5535	5535	5535	5535	5535	5535	5535	5535	5535	5535	5535	5535	5535	5535	5535	5535	5535	5535	5535	5535	5535	5535	5535	5535	5535	5535	5535	5535	5535	5535	5535	5448	5535	5448	5448	5535	5535	5535	5535	5535	5535	5626	5535	5535	5535	5626	5626	5626	5626	5626	5719	5626	5626	5626	5626	5626	5626	5626	5626	5626	5535	5535	5626	5626	5626	5535	5626	5626	5626	5626	5535	5535	5626	0	0	0	0	0	0	0	0	0	0	0	0	0	0	0	0	0	0	0	0	0	0	0	0	0	0	0	0	0	0	0	0	0	0	0	0	0	0	0	0	0	0	0	0	0	0	0	0	0	0	0	0	0	0	0	0	0	0	5448	5535	5535	5448	5448	5448	5448	5448	5448	5448	5364	5364	5364	5364	5282	5364	5364	0	0	0	0	0	0	0	0	0	0	0	0	0	0	0	0	0	0	0	0	2609	2589	2589	2589	2551	2551	2551	2551	2532	2532	2514	2514	2514	2496	2460	2460	2443	2443	2443	2460	2443	2443	0	0	0	0	0	0	0	0	0	0	0	0	0	0	0	0	0	0	0	0	0	0	0	0	0	0	0	0	0	0	0	0	0	0	0	0	0
0	0	0	0	0	1085	1088	1088	1088	1088	1091	1091	1088	1095	1091	1091	1091	1091	1091	1091	1088	1088	1091	1091	1095	1095	1095	1091	1091	1081	1081	1081	1088	1085	1088	1088	1088	1091	1088	1085	1085	1088	1088	1088	1088	1091	1091	1091	1095	1095	1095	1095	1098	1098	1095	0	0	0	0	0	0	0	0	5202	5202	5202	5282	5282	5202	5202	5202	5364	5364	5448	5448	5448	5364	5364	5364	5364	5282	5282	5364	5448	5448	5448	5626	5626	5719	5719	5719	5719	5719	5535	5535	5535	5535	5719	5719	5815	5815	5719	5719	5626	5535	5535	5535	5535	5626	5626	5719	5815	5815	5719	5719	5815	5719	5719	5626	5626	5626	5626	5626	5626	5626	5626	0	0	0	0	5626	5535	5535	5535	5535	0	0	0	0	0	0	0	0	0	0	0	0	0	0	0	0	0	0	0	0	0	0	0	0	0	0	0	0	0	0	0	0	0	0	0	0	0	0	0	0	0	0	0	0	0	0	0	0	0	0	0	0	0	0	0	0	0	0	0	5535	5535	5535	5535	5535	5535	5626	5626	5535	5535	5626	5626	5626	5626	5626	5626	5626	5626	5535	5535	5535	5535	5535	5535	5535	5535	5535	5535	5535	5535	5535	5535	5535	5448	5448	5448	5535	5535	5535	5535	5535	5535	5626	5626	5626	5626	5535	5626	5535	5626	5626	5626	5535	5535	5535	5535	5626	5626	5626	5626	5626	5626	5626	5626	5626	5535	5535	5535	5535	5535	5535	5535	5535	5535	5626	5626	5626	5626	5626	5626	5626	5626	5626	5626	5626	5448	5535	5626	5535	5626	5626	5626	5626	5535	5535	5535	5448	5448	5448	5448	5448	5535	5535	5535	5535	5535	5535	5535	5364	5364	5364	5364	5364	5364	5364	5364	5364	5535	5626	5626	5626	5719	5719	5535	5535	0	0	0	0	0	0	0	0	0	0	0	5535	5448	5535	5535	5535	5535	5448	5448	5448	5364	5448	5364	5364	5448	5448	0	0	0	0	0	0	0	0	0	0	0	0	0	0	0	0	0	0	0	0	0	5535	5535	5535	5535	5626	5535	5535	5535	5535	5535	5535	5448	5535	5535	5535	5448	5535	5535	5535	5535	5448	5535	5535	5535	5535	5535	5535	5626	5626	5626	5719	5719	5626	5626	5626	5626	5626	5626	5626	5626	5626	5626	5626	5626	5626	5535	5535	5535	5535	5535	5535	5535	5535	5535	5535	5535	5535	5535	5535	5535	5535	5626	5626	5535	5535	5535	5535	5535	5535	5535	5535	5535	5535	5535	5535	5535	5535	5535	5448	5535	5448	5448	5535	5535	5535	5535	5626	5626	5626	5626	5626	5626	5626	5719	5719	5719	5719	5719	5719	5719	5719	5626	5626	5626	5626	5626	5626	5626	5626	5626	5626	5626	5626	5626	5626	5626	5626	5626	5626	0	0	0	0	0	0	0	0	0	0	0	0	0	0	0	0	0	0	0	0	0	0	0	0	0	0	0	0	0	0	0	0	0	0	0	0	0	0	0	0	0	0	0	0	0	0	0	0	0	0	0	0	0	0	0	0	0	0	0	5535	5448	5448	5448	5448	5535	5535	5535	5535	5448	5448	5448	5448	5364	5282	5364	5364	0	0	0	0	0	0	0	0	0	0	0	0	0	0	0	0	0	0	0	0	2609	2609	2589	2589	2551	2551	2551	2551	2532	2532	2514	2514	2496	2496	2460	2460	2443	2443	2443	2460	2460	2460	0	0	0	0	0	0	0	0	0	0	0	0	0	0	0	0	0	0	0	0	0	0	0	0	0	0	0	0	0	0	0	0	0	0	0	0	0
0	0	0	0	0	1064	1081	1085	1085	1085	1091	1085	1088	1095	1091	1091	1091	1091	1091	1091	1088	1088	1091	1091	1091	1091	1091	1091	1091	1091	1081	1085	1088	1085	1085	1091	1091	1091	1091	1088	1088	1091	1091	1091	1091	1091	1091	1091	1091	1095	1095	1098	1095	1095	0	0	0	0	0	0	0	0	0	5282	5282	5282	5282	5282	5282	5282	5282	5282	5448	5448	5448	5448	5448	5448	5448	5448	5364	5448	5448	5448	5448	5448	5448	5719	5719	5719	5719	5719	5719	5535	5535	5535	5535	5719	5815	5815	5815	0	0	5719	5719	5626	5626	5535	5719	5626	5719	5719	5815	5719	5815	5815	5815	5719	5719	5719	5719	5626	5626	5626	5626	5626	0	0	0	0	5626	5535	5535	5535	5535	0	0	0	0	0	0	0	0	0	0	0	0	0	0	0	0	0	0	0	0	0	0	0	0	0	0	0	0	0	0	0	0	0	0	0	0	0	0	0	0	0	0	0	0	0	0	0	0	0	0	0	0	0	0	0	0	0	0	0	0	5626	5626	5626	5626	5626	5535	5626	5626	5626	5626	5626	5719	5626	5719	5626	5626	5626	5626	5626	5535	5535	5535	5535	5535	5535	5626	5535	5535	5535	5535	5535	5535	5535	5535	5535	5626	5626	5626	5535	5535	5626	5626	5626	5626	5626	5626	5626	5626	5626	5626	5626	5626	5626	5535	5535	5626	5626	5626	5626	5626	5626	5626	5626	5626	5626	5535	5535	5535	5626	5626	5535	5626	5535	5626	5626	5626	5626	5626	5626	5626	5626	5626	5626	5626	0	0	5626	5535	5626	5626	5626	5626	5535	5535	5535	5448	5448	5448	5448	5448	5535	5535	5535	5535	5535	5535	5535	5535	5535	5535	5535	5448	5448	5448	5448	5448	5535	5626	5626	5626	5626	5626	0	0	0	0	0	0	0	0	0	0	5448	5535	5535	5535	5448	5535	5535	5535	5535	5448	5535	5448	5448	5282	5448	5364	5448	5448	0	0	0	0	0	0	0	0	0	0	0	0	0	0	0	0	0	0	0	0	0	5626	5626	5626	5626	5626	5626	5535	5535	5535	5535	5535	5535	5535	5535	5535	5535	5535	5535	5535	5535	5448	5535	5535	5535	5535	5535	5535	5626	5626	5626	5626	5626	5626	5626	5626	5626	5626	5626	5626	5719	5626	5626	5719	5626	5626	5535	5535	5535	5535	5535	5448	5535	5535	5535	5535	5535	5535	5535	5626	5626	5535	5626	5626	5626	5535	5535	5535	5626	5626	5626	5626	5626	5626	5626	5626	5535	5535	5535	5535	5535	5535	5535	5535	5535	5535	5535	5535	5626	5626	5626	5626	5626	5719	5719	5815	5719	5719	5815	5719	5719	5719	5719	5626	5626	5626	5626	5626	5626	5626	5626	5626	5626	5626	5626	5626	5626	5626	5626	5626	0	0	0	0	0	0	0	0	0	0	0	0	0	0	0	0	0	0	0	0	0	0	0	0	0	0	0	0	0	0	0	0	0	0	0	0	0	0	0	0	0	0	0	0	0	0	0	0	0	0	0	0	5719	5626	5626	0	0	5535	5535	5535	5448	5448	5535	5535	5626	5535	5626	5535	5535	5448	5448	5364	5282	5202	5282	5282	0	5364	5364	0	0	0	0	0	0	0	0	0	0	0	0	0	0	0	0	0	2609	2609	2589	2589	2551	2551	2551	2532	2532	2532	2532	2514	2496	2496	2460	2460	2443	2460	2460	2443	2443	2443	0	0	0	0	0	0	0	0	0	0	0	0	0	0	0	0	0	0	0	0	0	0	0	0	0	0	0	0	0	0	0	0	0	0	0	0	0
0	0	0	0	0	1068	1074	1074	1081	1081	1088	1085	1085	1091	1091	1091	1091	1091	1091	1091	1088	1088	1091	1091	1091	1091	1091	1091	1091	1091	1088	1088	1085	1085	1085	1085	1091	1091	1091	1088	1091	1091	1091	1091	1091	1091	1091	1091	1091	1095	1095	1095	1095	1095	0	0	0	0	0	0	0	0	0	5364	5364	5364	5364	5364	5364	5364	5364	5364	5364	5448	5448	5448	5448	5448	5535	5448	5448	5448	5448	5448	5364	5202	5202	5719	5719	5719	0	0	5719	5626	5626	5535	5535	5719	5815	5815	5815	0	0	5719	5815	5815	5626	5626	5719	5719	5815	5815	5815	5815	5815	5815	5815	5719	5719	5719	5719	5626	5626	5626	5719	5626	5626	5626	5535	5626	5535	5535	5535	5535	5535	0	0	0	0	0	0	0	0	0	0	0	0	0	0	0	0	0	0	0	0	0	0	0	0	0	0	0	0	0	0	0	0	0	0	0	0	0	0	0	0	0	0	0	0	0	0	0	0	0	0	0	0	0	0	0	0	0	0	0	0	5626	5626	5626	5626	5626	5626	5626	5626	5626	5626	5719	5719	5719	5719	5719	5719	5626	5626	5626	5626	5535	5535	5626	5626	5626	5626	5626	5535	5535	5535	5535	5535	5535	5535	5535	5626	5626	5626	5626	5626	5626	5626	5719	5719	5626	5626	5626	5626	5719	5626	5626	5626	5626	5626	5626	5719	5719	5719	5719	5719	5626	5719	5626	5626	5626	5626	5626	5626	5626	5626	5626	5626	5626	5626	5626	5626	5626	5626	5626	5626	5626	5626	0	0	0	0	0	0	0	5626	5626	5626	5535	5535	5535	5448	5448	5448	5535	5535	5535	5535	5535	5626	5626	5535	5535	5535	5535	5535	5535	5448	5448	5448	5448	5535	5535	5626	5626	5626	5626	5626	0	0	0	0	0	0	0	0	5535	5535	5448	5535	5535	5535	5535	5535	5626	5535	5535	5535	5448	5448	5448	5448	5364	5364	5364	5364	0	0	0	0	0	0	0	0	0	0	0	0	0	0	0	0	0	0	0	0	5719	5719	5719	5719	5719	5626	5626	5626	5626	5626	5535	5448	5535	5535	5535	5535	5535	5535	5535	5535	5535	5535	5626	5626	5626	5719	5719	5719	5719	5719	5719	5626	5626	5626	5626	5626	5626	5626	5626	5626	5719	5626	5626	5719	5626	5626	5626	5535	5535	5535	5535	5535	5535	5535	5535	5535	5535	5535	5535	5626	5626	5626	5626	5626	5626	5626	5626	5626	5626	5535	5535	5535	5626	5535	5626	5626	5535	5626	5626	5535	5535	5535	5535	5535	5535	5535	5535	5626	5626	5626	5626	5626	5626	5626	5719	5719	5719	5719	5719	5719	5719	5719	5719	5626	5626	5626	5626	5626	5626	5626	5626	5719	5626	5626	5626	5719	5626	5626	5626	0	0	0	0	0	0	0	0	0	0	0	0	0	0	0	0	0	0	0	0	0	0	0	0	0	0	0	0	0	0	0	0	0	0	0	0	0	0	0	0	0	0	0	0	0	0	0	0	0	0	0	0	5815	5719	5626	5626	5719	5626	5535	5626	5626	5626	5535	5535	5535	5626	5626	5626	5626	5626	5535	5626	5626	5626	5626	5626	5282	0	5282	5282	0	0	0	0	0	0	0	0	0	0	0	0	0	0	0	0	0	2589	2589	2589	2589	2551	2551	2551	2551	2532	2532	2532	2514	2496	2496	2460	2460	2460	2443	2443	2443	2443	2443	0	0	0	0	0	0	0	0	0	0	0	0	0	0	0	0	0	0	0	0	0	0	0	0	0	0	0	0	0	0	0	0	0	0	0	0	0
0	0	0	0	0	1071	1074	1074	1081	1091	1088	1091	1085	1091	1091	1091	1091	1091	1091	1091	1088	1088	1091	1091	1091	1091	1091	1091	1091	1091	1088	1088	1085	1085	1085	1091	1091	1091	1091	1091	1091	1095	1091	1091	1091	1091	1088	1091	1091	1091	1095	1095	1098	1098	1098	0	0	0	0	0	0	0	0	5364	5364	5364	5364	5364	5364	5364	5364	5364	5364	5448	5448	5535	5535	5448	5535	5535	5535	5448	5364	5364	5202	5202	5202	0	0	0	0	0	5626	5626	5626	5535	5535	5535	0	0	0	0	0	0	5815	5815	5815	5815	5719	5719	5815	5815	5815	5815	5815	5815	5815	5815	5815	5719	5719	5626	5626	5626	5719	5719	5719	5815	5535	5626	5535	5626	5626	5626	5626	5626	5719	5719	0	0	0	0	0	0	0	0	0	0	0	0	0	0	0	0	0	0	0	0	0	0	0	0	0	0	0	0	0	0	0	0	0	0	0	0	0	0	0	0	0	0	0	0	0	0	0	0	0	0	0	0	0	0	0	0	0	5626	5626	5626	5626	5626	5719	5719	5626	5626	5626	5719	5719	5719	5719	5719	5719	5719	5626	5626	5535	5535	5535	5626	5626	5626	5626	5626	5626	5535	5535	5535	5535	5535	5535	5626	5719	5626	5626	5626	5626	5626	5626	5626	5719	5719	5719	5719	5626	5719	5719	5626	5626	5626	5626	5626	5719	5719	5719	5719	5719	5719	5719	5626	5626	5626	5626	5626	5626	5626	5719	5719	5719	5626	5626	5626	5626	5626	5626	5626	5626	0	0	0	0	0	0	0	0	0	0	0	0	0	0	0	5448	5448	5448	5535	5535	5626	5626	5626	5626	5719	5719	5626	5626	5535	5535	5535	5535	5535	5535	5535	5535	5626	5626	5626	5626	5626	0	0	0	0	0	0	0	0	0	5535	5535	5535	5626	5626	5626	5626	5626	5626	5535	5535	5535	5535	5448	5448	5535	5448	5448	5448	5364	0	0	0	0	0	0	0	0	0	0	0	0	0	0	0	0	0	0	0	0	5719	5719	5719	5719	5719	5626	5626	5626	5626	5626	5626	5448	5626	5626	5626	5626	5626	5626	5626	5626	5626	5535	5626	5626	5719	5719	5719	5815	5815	5719	5719	5626	5719	5626	5719	5719	5626	5626	5626	5626	5719	5719	5719	5719	5626	5626	5626	5626	5535	5535	5535	5535	5535	5535	5535	5535	5535	5535	5535	5626	5626	5626	5719	5626	5626	5626	5626	5626	5626	5626	5626	5626	5626	5626	5626	5626	5626	5626	5626	5626	5535	5535	5535	5535	5535	5535	5535	5626	5626	5626	5626	5626	5626	5626	5719	5719	5719	5719	5719	5719	5719	5719	5719	5626	5626	5626	5626	5626	5626	5626	5626	5719	5626	5626	5626	5626	5626	5626	0	0	0	0	0	0	0	0	0	0	0	0	0	0	0	0	0	0	0	0	0	0	0	0	0	0	0	0	0	0	0	0	0	0	0	0	0	0	0	0	0	0	0	0	0	0	0	0	0	0	0	0	0	5719	5719	5626	5626	5719	5626	5626	5626	5719	5719	5626	5626	5626	5719	5626	5626	5626	5626	5626	5719	5719	5626	5719	5719	0	0	5364	5364	5448	5448	5448	0	0	0	0	0	0	0	0	0	0	0	0	0	0	2589	2609	2589	2570	2551	2551	2551	2551	2532	2532	2532	2514	2496	2496	2478	2460	2443	2443	2443	2443	2443	2443	0	0	0	0	0	0	0	0	0	0	0	0	0	0	0	0	0	0	0	0	0	0	0	0	0	0	0	0	0	0	0	0	0	0	0	0	0
0	0	0	0	0	1071	1085	1088	1091	1091	1091	1091	1085	1088	1091	1091	1088	1088	1088	1088	1088	1085	1088	1088	1088	1088	1091	1091	1091	1088	1085	1085	1085	1085	1085	1085	1091	1091	1088	1088	1088	1091	1091	1091	1091	1091	1091	1088	1091	1091	1095	1095	1098	1098	1098	0	0	0	0	0	0	0	0	5364	5364	5364	5364	5364	5364	5364	5364	5364	5448	5448	5448	5448	5448	5448	5626	5626	5448	5448	5448	5448	5448	5364	5364	0	0	0	0	0	5626	5626	5719	5626	5626	5535	0	0	0	0	0	0	5815	5815	5915	5815	5815	5815	5815	5815	5815	5815	5815	5815	5815	5719	5719	5719	5719	5719	5626	5626	5719	5719	5719	5719	5719	5719	5626	5626	5626	5626	5719	5626	5719	5719	0	0	0	0	0	0	0	0	0	0	0	0	0	0	0	0	0	0	0	0	0	0	0	0	0	0	0	0	0	0	0	0	0	0	0	0	0	0	0	0	0	0	0	0	0	0	0	0	0	0	0	0	0	0	0	0	5626	5626	5626	5626	5626	5719	5719	5719	5719	5719	5626	5719	5815	5815	5815	5815	5719	5719	5719	5626	5626	5535	5535	5626	5626	5626	5626	5626	5626	5535	5535	5535	5535	5535	5626	5626	5719	5626	5626	5626	5626	5719	5626	5815	5815	5815	5815	5719	5719	5719	5719	5719	5719	5719	5719	5719	5719	5719	5719	5719	5719	5719	5719	5719	5626	5626	5626	5626	5626	5719	5626	5626	5719	5626	5719	5626	5626	5626	5626	0	0	0	0	0	0	0	0	0	0	0	0	0	0	0	0	0	0	0	0	5535	5626	5626	5626	5626	5719	5719	5719	5626	5626	5626	5626	5626	5535	5626	5626	5626	5626	5626	5626	5626	0	0	0	0	0	0	0	0	0	5535	5448	5626	5626	5626	5719	5719	5719	5719	5815	5719	5719	5626	5626	5626	5626	5626	5626	5626	5626	5448	0	0	0	0	0	0	0	0	0	0	0	0	0	0	0	0	0	0	0	0	0	5719	5626	5719	5719	5626	5626	5626	5626	5626	5626	5626	5626	5626	5719	5626	5719	5719	5719	5719	5626	5626	5626	5719	5719	5719	5719	5719	5719	5815	5815	5815	5719	5719	5626	5719	5719	5626	5626	5719	5719	5719	5719	5719	5719	5626	5626	5626	5626	5535	5535	5535	5535	5535	5535	5535	5535	5535	5626	5626	5626	5626	5719	5719	5719	5719	5719	5719	5719	5719	5719	5719	5719	5719	5719	5626	5626	5626	5719	5719	5626	5535	5535	5535	5535	5535	5535	5535	5626	5626	5626	5626	5626	5626	5626	5719	5815	5815	5815	5815	5815	5719	5719	5719	5626	5626	5626	5626	5626	5626	5626	5719	5719	5626	5626	5626	5626	0	0	0	0	0	0	0	0	0	0	0	0	0	0	0	0	0	0	0	0	0	0	0	0	0	0	0	0	0	0	0	0	0	0	0	0	0	0	0	0	0	0	0	0	0	0	0	0	0	0	0	0	0	0	0	5719	5719	5719	5719	5719	5719	5626	5719	5719	5719	5626	5626	5626	5719	5626	5626	5626	5626	5626	5719	5719	5719	5719	5719	0	0	5364	5719	5626	5535	5535	5535	5626	5626	5535	5535	5535	5535	0	0	0	0	0	0	0	0	2589	2570	2570	2551	2551	2551	2551	2532	2532	2514	2514	2496	2478	2460	2443	2443	2443	2443	2443	2443	2443	0	0	0	0	0	0	0	0	0	0	0	0	0	0	0	0	0	0	0	0	0	0	0	0	0	0	0	0	0	0	0	0	0	0	0	0	0
