0	0	0	0	0	0	0	0	0	0	0	0	0	1915	1904	1904	1915	1904	1894	1894	1894	1894	1894	1894	1894	1894	1904	1894	1894	1894	1894	1904	1904	1894	1904	1904	1915	1915	1904	1904	1915	1904	1904	1894	1894	1904	1904	1904	1904	1915	1915	1915	1915	1915	1915	1894	1894	1904	1894	1894	1904	1915	1925	1925	1936	1936	1936	1936	1947	1947	1947	1947	1947	1958	1958	2478	2496	2532	2551	2551	2551	2551	2551	2551	2551	2551	2551	2551	2551	2551	2551	2551	2551	2551	2551	2551	2551	2551	2551	2551	2551	2532	2551	2551	2532	2532	2551	2532	2532	2532	2532	2551	2551	2551	2551	2570	2551	2551	2551	2551	2551	2551	2551	2551	2551	2551	2551	2570	2570	2570	2570	2589	2570	2570	2570	0	3738	3738	3698	3698	3698	3698	3698	3698	3659	3659	3659	3659	3659	3659	3659	3659	3659	3659	3659	3659	3659	3659	3659	3659	3659	3659	3659	3659	3659	3659	3659	3659	3659	3659	3659	3659	3659	3659	3659	3659	3659	3659	3659	3659	3659	3659	3659	3659	3659	3659	3698	3698	3698	3738	3698	3698	3698	3698	3698	3698	3738	3738	3738	3738	3738	3779	3738	3738	3698	3738	3738	3738	3698	3698	3698	3698	3698	3698	3698	3698	3698	3698	3698	3698	3698	3698	3698	3738	3738	3738	3738	3738	3738	3738	3738	3738	3738	3738	3738	3738	3738	3738	3738	3738	3738	3698	3698	3738	3698	3738	3738	3738	3738	3738	3698	3698	3738	3698	3738	3698	3738	3738	3738	3738	3738	3738	3738	3738	3738	3738	3738	3738	3698	3698	3698	3659	3659	3440	3373	3373	3341	3309	3309	3309	3309	3277	3309	3309	3309	3309	3309	3309	3309	3309	3309	3309	3309	3341	3373	3373	3738	3738	3738	3698	3698	3698	3698	3698	3698	3698	3698	3698	3698	3698	3698	3698	3698	3698	3738	3738	3738	3738	3738	3738	3738	3738	3738	3738	3738	3738	3738	3698	3698	3738	3738	3738	3738	3738	3738	3738	3738	3698	3698	3698	3698	3698	3698	3698	3698	3698	3738	3738	3738	3738	3738	3738	3738	3698	3698	3698	3698	3698	3659	3659	3659	3698	3698	3698	3698	3698	3698	3698	3698	3698	3659	3659	3698	3698	3698	3698	3698	3698	3698	3698	3659	3698	3659	3659	3698	3698	3698	3698	3659	3698	3659	3659	3659	3659	3659	3659	3698	3698	3698	3698	3698	3698	3698	3698	3698	3698	3738	3738	3738	3738	3738	3738	3698	3738	3738	3738	3698	3698	3698	3698	3698	3659	3698	3698	3659	3659	3698	3698	3698	3698	3659	3659	3659	3659	3659	3659	3659	3659	3659	3659	3698	3698	3698	3698	3698	3659	3659	3659	3659	3659	3659	3659	3698	3659	3659	3698	3698	3659	3698	3659	3659	3659	3659	3659	3659	3659	3659	3659	3659	3659	3659	3621	3659	3621	3621	3659	3659	3621	3659	3659	3621	3621	3621	0	0	0	0	0	0	0	0	0	0	1259	1254	1254	1245	1245	1240	1227	1227	1223	1223	1223	1219	1219	1219	1214	1214	1214	1210	1210	1210	1210	1206	1206	1206	1206	1210	1210	1210	1206	1210	1206	1206	1206	1206	1206	1206	1206	1206	1206	1210	1214	1219	1227	1232	1240	1240	1240	1249	1249	1249	1245	1003	1006	1000	1000	1000	994	994	991	988	988	985	985	983	983	980	972	969	969	966	963	963	963	963	963	963	963	963	966	966	966	963	963	0	0	0	0	0	0	0	0	0	0	0	0	0	0	0	0	0	1342	1342	0	0	0	0	0	0	0	0	0	0	0	0	0	0	0	0	0	0	0	0	0	0	0	0	0	0	0	0	0	0	0	0	0	0	0	0	0	0	0	0	0	0	0	0	0
0	0	0	0	0	0	0	0	0	0	0	0	0	1915	1904	1915	1915	1904	1915	1904	1904	1904	1904	1904	1904	1915	1915	1915	1904	1904	1904	1904	1904	1904	1904	1915	1915	1925	1915	1915	1915	1915	1904	1904	1904	1915	1904	1925	1925	1925	1925	1925	1925	1925	1925	1915	1915	1904	1904	1904	1915	1925	1925	1936	1936	1936	1936	1936	1947	1947	1958	1958	1958	1969	1969	1969	2460	2532	2532	2551	2551	2551	2551	2551	2551	2551	2551	2551	2551	2551	2551	2551	2551	2551	2551	2551	2551	2551	2551	2551	2551	2551	2551	2551	2551	2551	2551	2532	2532	2551	2551	2551	2551	2570	2570	2570	2570	2551	2551	2551	2551	2551	2551	2551	2551	2551	2551	2570	2570	2551	2570	2589	2589	2570	2570	0	3738	3698	3698	3698	3698	3698	3698	3659	3659	3659	3659	3659	3659	3659	3659	3659	3659	3659	3659	3659	3659	3659	3659	3659	3659	3659	3659	3659	3659	3659	3659	3659	3659	3659	3659	3659	3659	3659	3659	3659	3659	3659	3659	3659	3659	3659	3659	3659	3659	3659	3659	3698	3698	3698	3698	3698	3698	3698	3698	3698	3738	3738	3738	3779	3738	3779	3738	3738	3698	3698	3738	3698	3698	3698	3698	3698	3698	3698	3698	3698	3698	3698	3698	3698	3698	3698	3698	3738	3738	3738	3738	3738	3738	3738	3738	3738	3738	3738	3738	3738	3738	3738	3738	3738	3738	3698	3698	3698	3738	3698	3698	3698	3698	3698	3698	3698	3698	3698	3698	3698	3698	3738	3738	3698	3738	3698	3738	3738	3738	3738	3738	3738	3738	3698	3698	3698	3698	3698	3373	3341	3341	3309	3309	3309	3309	3309	3309	3309	3309	3309	3309	3309	3309	3309	3309	3309	3341	3373	3406	3738	3738	3738	3738	3698	3698	3698	3698	3698	3698	3698	3698	3698	3698	3698	3698	3698	3698	3698	3738	3738	3738	3738	3738	3738	3738	3738	3738	3738	3738	3738	3738	3738	3738	3738	3738	3738	3738	3738	3738	3738	3738	3698	3698	3698	3698	3698	3698	3698	3698	3738	3738	3738	3738	3738	3738	3738	3738	3698	3698	3698	3698	3698	3659	3698	3659	3698	3698	3738	3738	3738	3698	3698	3698	3698	3698	3659	3659	3698	3698	3698	3698	3698	3698	3698	3659	3659	3659	3659	3698	3698	3698	3698	3698	3698	3698	3698	3659	3659	3659	3659	3659	3698	3698	3698	3698	3698	3698	3698	3698	3738	3738	3738	3738	3738	3738	3738	3738	3738	3738	3738	3698	3698	3698	3698	3698	3659	3698	3698	3698	3698	3698	3698	3698	3698	3698	3698	3659	3659	3659	3659	3659	3659	3659	3659	3659	3659	3698	3659	3659	3659	3698	3659	3659	3659	3659	3659	3659	3659	3659	3698	3698	3698	3698	3659	3659	3659	3659	3659	3659	3659	3659	3659	3659	3659	3659	3621	3659	3621	3621	3659	3659	3621	3659	3659	3659	3621	3621	3621	0	0	0	0	0	0	0	0	0	0	1254	1254	1240	1240	1232	1227	1223	1223	1223	1219	1219	1219	1214	1214	1214	1210	1210	1206	1206	1206	1206	1206	1206	1206	1206	1206	1206	1206	1206	1206	1206	1206	1206	1202	1206	1206	1206	1206	1210	1214	1219	1223	1227	1245	1249	1249	1249	1249	1249	0	1006	1008	1003	1003	1003	997	994	991	988	988	985	985	983	983	983	980	974	974	983	983	985	985	963	963	963	963	963	966	966	966	966	966	0	0	0	0	0	0	0	0	0	0	0	0	1363	1347	1347	1342	1342	1342	1342	1342	0	0	0	0	0	0	0	0	0	0	0	0	0	0	0	0	0	0	0	0	0	0	0	0	0	0	0	0	0	0	0	0	0	0	0	0	0	0	0	0	0	0	0	0
0	0	0	0	0	0	0	0	0	0	0	0	0	1915	1915	1915	1915	1915	1915	1915	1904	1915	1915	1915	1915	1915	1915	1915	1915	1915	1915	1915	1915	1915	1915	1915	1925	1925	1925	1925	1925	1925	1925	1925	1915	1925	1925	1936	1925	1925	1925	1925	1925	1925	1925	1925	1915	1915	1915	1915	1925	1925	1936	1936	1936	1936	1936	1936	1947	1947	1958	1958	1958	1969	1969	2443	2460	2496	2532	2551	2551	2551	2551	2551	2551	2551	2532	2551	2551	2551	2551	2551	2551	2551	2551	2551	2551	2551	2551	2551	2551	2551	2551	2551	2551	2551	2551	2532	2532	2551	2551	2551	2551	2551	2570	2570	2570	2551	2551	2551	2551	2551	2551	2551	2551	2551	2551	2551	2551	2551	2570	2589	2570	2570	2570	0	3698	3698	3698	3659	3659	3659	3659	3659	3659	3659	3659	3659	3659	3659	3659	3659	3659	3659	3659	3659	3659	3659	3659	3659	3659	3659	3659	3659	3698	3698	3659	3698	3698	3659	3659	3659	3659	3659	3659	3659	3659	3659	3659	3659	3659	3659	3659	3659	3659	3659	3659	3698	3698	3698	3698	3698	3698	3698	3698	3698	3738	3738	3738	3779	3779	3779	3738	3698	3698	3698	3738	3698	3698	3698	3698	3698	3698	3698	3698	3698	3698	3698	3698	3698	3698	3698	3698	3738	3738	3738	3738	3738	3738	3738	3738	3698	3738	3738	3738	3738	3698	3698	3698	3698	3698	3698	3698	3738	3738	3738	3698	3698	3698	3698	3698	3698	3698	3698	3698	3698	3698	3698	3698	3698	3698	3698	3738	3738	3698	3738	3738	3738	3738	3738	3698	3698	3698	3698	3406	3341	3341	3309	3309	3309	3309	3309	3309	3309	3309	3309	3309	3309	3309	3309	3309	3309	3341	3373	3440	3738	3698	3698	3698	3698	3698	3698	3698	3698	3698	3698	3698	3698	3698	3698	3698	3698	3698	3698	3738	3738	3738	3738	3738	3738	3738	3738	3738	3738	3738	3738	3738	3698	3698	3738	3698	3698	3738	3738	3738	3738	3738	3698	3698	3698	3698	3698	3698	3698	3698	3698	3738	3738	3738	3738	3738	3738	3698	3698	3698	3659	3698	3698	3659	3698	3659	3698	3698	3698	3698	3698	3698	3698	3698	3698	3698	3659	3659	3698	3698	3698	3698	3698	3698	3659	3659	3659	3659	3659	3659	3698	3698	3698	3698	3698	3698	3698	3659	3659	3659	3659	3659	3698	3698	3698	3698	3698	3698	3698	3698	3698	3738	3698	3738	3738	3738	3738	3738	3698	3738	3738	3698	3698	3698	3698	3698	3659	3698	3698	3698	3698	3698	3698	3698	3698	3659	3698	3698	3698	3698	3659	3659	3698	3659	3659	3659	3659	3659	3659	3659	3659	3698	3659	3659	3659	3659	3659	3659	3659	3659	3659	3659	3659	3659	3659	3659	3659	3659	3659	3659	3659	3659	3659	3659	3659	3659	3659	3659	3659	3659	3659	3659	3659	3659	3659	3659	3659	3659	3659	0	0	0	0	0	0	0	0	0	0	0	1254	1240	1240	1227	1223	1223	1223	1219	1219	1219	1214	1214	1210	1210	1210	1206	1206	1206	1206	1202	1202	1202	1202	1202	1202	1202	1206	1206	1202	1202	1202	1202	1202	1202	1206	1206	1206	1206	1210	1219	1240	1240	1033	1033	1011	1020	1020	1008	1011	1011	1011	1008	1006	1006	1003	1003	997	991	988	988	985	985	985	985	983	983	983	983	983	983	985	963	966	966	966	966	966	966	966	966	966	0	0	1331	1336	1336	1342	1347	1347	1347	1347	1347	1352	1352	1347	1347	1342	1342	1347	1342	1342	1342	0	0	0	0	0	0	0	0	0	0	0	0	0	0	0	0	0	0	0	0	0	0	0	0	0	0	0	0	0	0	0	0	0	0	0	0	0	0	0	0	0	0	0
0	0	0	0	0	0	0	0	0	0	0	0	1925	1915	1915	1915	1915	1915	1915	1915	1915	1915	1925	1925	1925	1925	1925	1915	1915	1915	1915	1915	1915	1915	1915	1915	1936	1936	1936	1925	1925	1925	1925	1936	1925	1936	1936	1936	1936	1936	1936	1936	1936	1936	1936	1936	1936	1936	1936	1936	1936	1936	1936	1936	1936	1936	1947	1936	1947	1947	1958	1958	1958	1958	1969	1980	1980	1980	2532	2551	2551	2551	2551	2551	2551	2551	2551	2551	2551	2551	2551	2532	2551	2551	2551	2551	2551	2551	2551	2551	2551	2551	2551	2551	2551	2551	2551	2532	2532	2532	2551	2551	2551	2551	2551	2570	2570	2551	2551	2551	2551	2551	2551	2551	2551	2551	2551	2551	2551	2551	2570	2589	2570	2570	2570	0	3698	3659	3659	3659	3659	3659	3659	3659	3659	3659	3659	3698	3659	3659	3659	3659	3659	3659	3659	3659	3659	3659	3659	3659	3659	3659	3659	3659	3659	3659	3659	3659	3659	3659	3659	3659	3659	3659	3659	3659	3659	3659	3659	3659	3659	3659	3659	3659	3659	3659	3698	3698	3698	3698	3698	3698	3698	3698	3698	3698	3698	3738	3738	3779	3738	3779	3738	3698	3698	3698	3738	3698	3698	3698	3698	3698	3698	3698	3698	3698	3698	3698	3698	3698	3698	3698	3698	3738	3738	3738	3738	3738	3738	3738	3738	3698	3698	3698	3698	3698	3698	3698	3698	3698	3698	3698	3698	3738	3738	3738	3738	3738	3738	3738	3698	3698	3698	3698	3698	3698	3698	3698	3698	3698	3698	3698	3698	3738	3698	3738	3738	3738	3738	3698	3698	3698	3698	3698	3406	3341	3341	3309	3309	3309	3309	3309	3309	3309	3309	3309	3309	3309	3309	3309	3309	3341	3373	3406	3440	3659	3659	3698	3698	3698	3698	3698	3698	3698	3698	3698	3698	3698	3698	3698	3698	3698	3698	3698	3738	3738	3738	3738	3738	3738	3738	3738	3738	3738	3738	3738	3738	3738	3738	3738	3698	3738	3738	3738	3738	3738	3738	3738	3738	3698	3698	3698	3698	3698	3698	3698	3698	3698	3738	3738	3738	3738	3698	3698	3698	3698	3698	3659	3659	3698	3659	3659	3698	3698	3698	3698	3698	3698	3659	3698	3659	3659	3659	3698	3698	3698	3698	3698	3698	3659	3659	3659	3659	3659	3659	3698	3698	3698	3698	3698	3698	3698	3659	3659	3659	3659	3659	3698	3659	3698	3698	3698	3698	3698	3698	3738	3738	3738	3738	3738	3738	3738	3738	3698	3738	3738	3698	3698	3698	3698	3698	3659	3698	3698	3659	3659	3659	3698	3698	3698	3659	3698	3698	3698	3698	3659	3659	3659	3659	3659	3659	3659	3659	3659	3659	3659	3659	3659	3659	3659	3659	3659	3659	3659	3659	3659	3659	3659	3659	3659	3659	3659	3659	3659	3659	3659	3659	3659	3659	3659	3659	3659	3659	3659	3659	3659	3659	3659	3659	3659	3659	3659	3659	3621	3621	0	0	0	0	0	0	0	0	0	0	0	1236	1236	1227	1223	1223	1223	1219	1219	1214	1214	1214	1210	1210	1210	1202	1202	1202	1202	1202	1202	1197	1197	1197	1197	1197	1202	1202	1202	1197	1202	1197	1202	1202	1202	1202	1202	1042	1042	1039	1036	1033	1030	1030	1026	1020	1020	1020	1017	1014	1011	1008	1008	1006	1006	1006	997	991	991	988	988	988	988	988	988	985	985	985	985	985	0	0	966	966	966	963	961	961	969	969	0	1336	1336	1336	1336	1336	1336	1342	1342	1342	1347	1347	1352	1352	1347	1347	1347	1347	1347	1347	1342	1342	0	0	0	0	0	0	0	0	0	0	0	0	0	0	0	0	0	0	0	0	0	0	0	0	0	0	0	0	0	0	0	0	0	0	0	0	0	0	0	0	0	0	0
0	0	0	0	0	0	0	0	0	0	0	0	1925	1925	1925	1925	1925	1925	1925	1925	1936	1936	1925	1936	1936	1925	1925	1925	1925	1925	1925	1915	1915	1925	1925	1925	1936	1936	1936	1936	1936	1936	1936	1936	1936	1947	1947	1947	1947	1947	1936	1936	1947	1936	1947	1936	1947	1947	1958	1958	1947	1947	1947	1947	1947	1947	1947	1947	1958	1947	1947	1958	1958	1958	1969	1980	1980	1980	1980	2551	2551	2551	2551	2551	2551	2551	2551	2551	2551	2551	2532	2532	2532	2551	2551	2551	2551	2551	2551	2551	2551	2551	2551	2551	2551	2551	2551	2532	2532	2532	2551	2551	2551	2551	2570	2570	2570	2551	2551	2551	2551	2551	2551	2551	2551	2551	2551	2551	2551	2551	2551	2589	2570	2570	2570	2570	3698	3659	3659	3659	3659	3659	3659	3659	3659	3659	3659	3659	3659	3659	3659	3659	3659	3659	3659	3621	3659	3659	3659	3659	3659	3659	3659	3659	3659	3659	3659	3659	3659	3659	3659	3659	3659	3659	3659	3659	3659	3659	3659	3659	3659	3659	3659	3659	3659	3659	3659	3698	3698	3698	3698	3698	3698	3698	3698	3698	3738	3738	3738	3738	3738	3738	3738	3698	3698	3698	3738	3698	3698	3698	3698	3698	3698	3698	3698	3698	3698	3698	3698	3698	3698	3698	3698	3738	3738	3738	3738	3738	3738	3738	3698	3698	3698	3698	3698	3698	3698	3698	3698	3698	3698	3698	3738	3738	3738	3738	3738	3698	3738	3698	3698	3698	3738	3698	3698	3698	3698	3698	3698	3698	3698	3698	3698	3698	3698	3738	3738	3738	3738	3698	3698	3698	3659	3583	3440	3373	3341	3341	3309	3309	3309	3309	3309	3309	3309	3309	3309	3309	3309	3309	3341	3341	3341	3440	3440	3659	3698	3698	3698	3698	3698	3698	3698	3698	3698	3698	3698	3698	3698	3698	3698	3698	3698	3698	3738	3738	3738	3738	3738	3738	3738	3738	3738	3738	3738	3738	3738	3738	3738	3738	3698	3698	3698	3738	3738	3698	3738	3698	3738	3738	3698	3698	3698	3698	3698	3698	3698	3738	3738	3698	3698	3698	3698	3698	3698	3698	3698	3659	3659	3698	3659	3659	3698	3698	3698	3698	3698	3698	3698	3698	3698	3659	3698	3698	3698	3698	3698	3698	3698	3659	3659	3659	3659	3659	3659	3659	3698	3698	3698	3698	3698	3698	3698	3698	3698	3698	3659	3698	3659	3659	3698	3698	3698	3698	3698	3738	3738	3698	3698	3738	3698	3738	3698	3698	3738	3738	3698	3698	3698	3698	3659	3659	3659	3659	3659	3659	3659	3698	3698	3698	3698	3698	3698	3698	3698	3659	3698	3698	3659	3659	3659	3659	3659	3659	3659	3659	3659	3659	3659	3659	3659	3659	3659	3659	3659	3659	3659	3659	3659	3659	3659	3659	3659	3659	3659	3659	3659	3659	3698	3698	3659	3659	3659	3659	3659	3659	3659	3659	3659	3659	3659	3659	3659	3659	3659	0	0	0	0	0	0	0	0	0	0	0	1232	1236	1227	1223	1223	1223	1219	1219	1214	1214	1210	1210	1206	1206	1202	1197	1197	1193	1193	1197	1193	1197	1193	1193	1193	1197	1197	1197	1197	1202	1197	1197	1202	1206	1202	1202	1042	1042	1039	1036	1033	1033	1030	1026	1020	1020	1020	1020	1008	1014	1011	1008	1008	1006	1006	1003	1000	1000	991	991	991	991	988	988	988	988	985	988	985	985	0	0	966	966	961	961	961	969	1331	1331	1331	1336	1336	1336	1336	1336	1342	1342	1342	1342	1342	1342	1347	1342	1347	1347	1347	1347	1347	1347	1342	1342	0	0	0	0	0	0	0	0	0	0	0	0	0	0	0	0	0	0	0	0	0	0	0	0	0	0	0	0	0	0	0	0	0	0	0	0	0	0	0	0	0	0
0	0	0	0	0	0	0	0	0	0	0	0	1925	1925	1925	1925	1925	1936	1936	1947	1947	1936	1936	1936	1936	1936	1925	1925	1925	1925	1925	1925	1925	1925	1925	1925	1936	1947	1936	1936	1936	1936	1936	1947	1947	1958	1958	1958	1947	1947	1947	1947	1947	1947	1947	1947	1969	1969	1969	1969	1969	1958	1958	1947	1958	1958	1958	1947	1958	1947	1958	1958	1958	1969	1969	1980	1980	1980	1980	2551	2551	2551	2551	2551	2551	2551	2551	2551	2551	2551	2532	2532	2532	2551	2551	2551	2551	2551	2551	2551	2551	2551	2551	2551	2551	2551	2551	2532	2532	2551	2551	2551	2551	2570	2570	2570	2570	2551	2551	2551	2551	2551	2551	2551	2551	2551	2551	2551	2551	2551	2551	2570	2570	2570	2570	2570	3621	3621	3621	3659	3659	3659	3659	3659	3659	3659	3659	3659	3659	3659	3659	3659	3659	3659	3659	3621	3659	3659	3659	3659	3659	3659	3659	3659	3659	3659	3659	3659	3659	3659	3659	3659	3659	3659	3621	3659	3659	3659	3659	3621	3621	3659	3659	3659	3659	3659	3698	3698	3698	3698	3698	3698	3698	3698	3698	3698	3698	3698	3698	3738	3738	3738	3698	3698	3698	3698	3698	3698	3698	3698	3698	3698	3698	3698	3698	3698	3698	3698	3698	3698	3698	3698	3698	3698	3738	3738	3738	3738	3738	3738	3738	3698	3698	3698	3698	3698	3698	3698	3698	3698	3698	3698	3738	3738	3738	3738	3698	3698	3698	3698	3698	3698	3698	3698	3698	3698	3698	3698	3698	3698	3698	3698	3698	3698	3698	3698	3698	3738	3698	3698	3698	3698	3659	3621	3475	3373	3373	3341	3341	3309	3309	3309	3309	3309	3309	3309	3309	3309	3341	3341	3341	3373	3406	3440	3475	3659	3698	3698	3698	3698	3698	3698	3698	3698	3698	3698	3698	3698	3698	3698	3698	3698	3698	3698	3738	3738	3738	3738	3738	3738	3738	3738	3738	3698	3698	3698	3738	3738	3738	3738	3738	3738	3698	3738	3738	3698	3738	3698	3738	3738	3698	3698	3738	3738	3738	3698	3698	3698	3698	3698	3698	3698	3698	3698	3698	3698	3698	3698	3698	3698	3698	3659	3698	3698	3698	3698	3698	3698	3698	3698	3698	3698	3698	3698	3698	3698	3698	3698	3698	3659	3659	3659	3659	3659	3659	3698	3698	3698	3698	3698	3738	3738	3738	3698	3698	3698	3698	3698	3659	3698	3698	3698	3698	3698	3698	3738	3738	3698	3698	3698	3698	3698	3698	3698	3698	3738	3698	3698	3698	3659	3659	3659	3659	3659	3659	3659	3698	3698	3698	3698	3698	3698	3698	3698	3698	3698	3659	3659	3659	3659	3659	3659	3659	3659	3659	3659	3659	3659	3659	3659	3659	3659	3659	3659	3659	3659	3659	3659	3659	3659	3659	3659	3659	3659	3659	3659	3659	3659	3698	3698	3659	3659	3659	3621	3621	3659	3659	3659	3659	3659	3659	3659	3659	3659	3659	0	0	0	0	0	0	0	0	0	0	0	1232	1232	1227	1223	1223	1219	1219	1219	1214	1214	1210	1210	1206	1206	1197	1197	1197	1193	1193	1193	1193	1193	1193	1193	1193	1193	1193	1197	1197	1206	1202	1202	1202	1206	1202	1045	1045	1042	1042	1039	1036	1033	1030	1026	1020	1020	1020	1020	1017	1017	1014	1011	1011	1011	1008	1008	1008	1008	1023	991	991	991	991	988	988	988	988	988	985	985	0	0	0	0	961	961	0	0	1331	1326	1326	1331	1331	1336	1336	1336	1342	1342	1342	1342	1342	1342	1342	1342	1342	1342	1347	1347	1347	1347	1347	1347	1347	0	0	0	0	0	0	0	0	0	0	0	0	0	0	0	0	0	0	0	0	0	0	0	0	0	0	0	0	0	0	0	0	0	0	0	0	0	0	0	0	0
0	0	0	0	0	0	0	0	0	0	0	0	1925	1936	1936	1936	1936	1947	1947	1958	1947	1947	1947	1947	1947	1936	1925	1936	1936	1936	1936	1925	1936	1936	1936	1936	1947	1947	1947	1947	1958	1958	1958	1958	1958	1958	1969	1958	1958	1958	1947	1947	1958	1958	1958	1969	1980	1980	1980	1980	1980	1969	1969	1958	1969	1958	1958	1958	1969	1958	1958	1969	1969	1980	1980	1980	1980	2003	2027	2027	2551	2551	2551	2551	2551	2551	2551	2551	2551	2551	2532	2532	2532	2532	2551	2551	2551	2551	2551	2551	2551	2551	2551	2551	2551	2551	2551	2532	2532	2532	2551	2551	2551	2551	2551	2570	2551	2551	2551	2551	2551	2551	2551	2551	2551	2551	2551	2551	2551	2551	2551	2551	2570	2570	2589	2589	3659	3621	3659	3659	3659	3659	3659	3659	3659	3659	3698	3698	3659	3659	3659	3659	3659	3659	3659	3621	3659	3659	3659	3659	3659	3659	3659	3659	3659	3659	3659	3659	3659	3659	3659	3659	3659	3659	3621	3659	3659	3659	3659	3659	3659	3659	3659	3659	3659	3659	3659	3698	3698	3698	3698	3698	3698	3698	3698	3698	3698	3698	3698	3698	3698	3698	3698	3698	3698	3698	3698	3738	3738	3698	3698	3698	3698	3698	3698	3698	3698	3698	3698	3698	3698	3698	3698	3738	3738	3738	3738	3738	3738	3738	3738	3698	3698	3698	3698	3698	3698	3698	3698	3698	3698	3698	3738	3738	3738	3738	3698	3698	3698	3698	3698	3738	3738	3698	3698	3698	3698	3698	3698	3698	3698	3698	3698	3698	3698	3738	3738	3738	3698	3698	3698	3698	3659	3583	3475	3440	3373	3373	3341	3341	3309	3309	3341	3309	3309	3309	3309	3309	3341	3341	3341	3373	3406	3440	3475	3546	3659	3698	3698	3698	3698	3698	3698	3698	3698	3698	3698	3698	3698	3698	3698	3698	3698	3698	3738	3738	3738	3738	3738	3738	3698	3698	3698	3698	3698	3738	3738	3738	3738	3738	3738	3738	3698	3738	3738	3698	3698	3698	3698	3738	3738	3738	3738	3738	3738	3738	3738	3738	3698	3738	3698	3698	3698	3698	3698	3698	3698	3698	3698	3698	3698	3659	3698	3698	3698	3698	3698	3698	3698	3738	3698	3698	3698	3698	3698	3698	3698	3698	3698	3659	3659	3659	3659	3659	3659	3659	3698	3698	3698	3698	3738	3738	3738	3698	3698	3698	3698	3698	3659	3698	3698	3698	3698	3698	3698	3738	3738	3698	3698	3698	3698	3698	3698	3698	3698	3698	3698	3698	3698	3659	3659	3659	3659	3659	3659	3659	3698	3698	3698	3698	3698	3698	3698	3698	3698	3659	3659	3659	3659	3659	3659	3659	3659	3659	3659	3659	3659	3659	3659	3659	3659	3659	3659	3659	3659	3659	3659	3659	3659	3659	3659	3659	3659	3659	3659	3659	3659	3659	3659	3659	3659	3659	3659	3621	3621	3659	3659	3659	3659	3659	3659	3659	3659	3659	3659	0	0	0	0	0	0	0	0	0	0	0	1232	1232	1227	1223	1223	1219	1219	1219	1214	1214	1210	1210	1206	1206	1197	1197	1197	1193	1193	1193	1193	1193	1193	1193	1189	1193	1189	1189	1197	1206	1202	1202	1206	1206	1045	1042	1042	1042	1042	1039	1036	1033	1030	1026	1023	1023	1020	1020	1017	1020	1017	1014	1014	1014	1011	1011	1011	1023	1023	1023	991	991	991	991	988	988	985	988	985	985	0	0	1316	1316	0	0	1321	1321	1321	1326	1326	1326	1326	1331	1331	1331	1336	1342	1342	1336	1336	1342	1342	1342	1342	1342	1342	1347	1347	1347	1347	1347	1347	0	0	0	0	0	0	0	0	0	0	0	0	0	0	0	0	0	0	0	0	0	0	0	0	0	0	0	0	0	0	0	0	0	0	0	0	0	0	0	0	0
0	0	0	0	0	0	0	0	0	0	0	0	1936	1947	1958	1947	1958	1958	1958	1969	1958	1958	1958	1958	1958	1936	1936	1947	1947	1958	1958	1958	1958	1958	1958	1958	1958	1958	1958	1958	1969	1969	1969	1969	1969	1969	1969	1969	1958	1958	1958	1958	1958	1958	1969	1969	1980	1980	1980	1980	1980	1980	1969	1969	1969	1969	1969	1980	1980	1969	1969	1980	1980	1980	1992	1992	1980	2003	2015	2027	2027	2551	2551	2551	2551	2551	2551	2551	2551	2532	2532	2532	2532	2532	2532	2532	2551	2551	2551	2551	2551	2551	2551	2551	2551	2551	2532	2532	2532	2532	2551	2551	2551	2551	2551	2551	2551	2551	2532	2532	2514	2514	2532	2532	2532	2532	2551	2551	2551	2551	2551	2589	2589	2589	2589	2589	3659	3621	3659	3659	3659	3659	3659	3659	3659	3659	3698	3698	3659	3659	3659	3659	3659	3659	3659	3621	3659	3659	3659	3659	3659	3659	3659	3659	3659	3659	3659	3659	3659	3659	3659	3659	3659	3659	3621	3659	3659	3659	3659	3659	3659	3659	3659	3659	3659	3659	3659	3698	3698	3698	3698	3698	3698	3698	3698	3698	3698	3698	3698	3698	3698	3698	3698	3698	3698	3698	3698	3738	3738	3698	3698	3698	3698	3698	3698	3698	3698	3698	3698	3698	3659	3698	3698	3738	3738	3738	3738	3738	3738	3738	3738	3698	3738	3698	3698	3698	3698	3698	3698	3698	3698	3698	3738	3738	3698	3698	3698	3698	3698	3698	3698	3738	3738	3698	3698	3698	3698	3698	3698	3698	3698	3698	3698	3698	3698	3738	3738	3738	3738	3698	3698	3698	3659	3621	3546	3475	3373	3373	3341	3341	3341	3341	3341	3309	3309	3309	3309	3309	3341	3341	3373	3373	3406	3440	3475	3546	3659	3698	3698	3698	3698	3698	3659	3698	3698	3659	3698	3698	3698	3698	3659	3659	3698	3698	3698	3738	3738	3738	3738	3698	3698	3698	3698	3698	3698	3698	3698	3738	3738	3738	3698	3698	3698	3698	3698	3698	3738	3738	3738	3738	3738	3738	3738	3738	3738	3738	3698	3698	3698	3698	3698	3698	3698	3698	3698	3698	3698	3698	3698	3698	3698	3698	3698	3698	3698	3698	3698	3698	3698	3738	3738	3698	3738	3698	3698	3698	3698	3698	3659	3659	3659	3659	3659	3659	3659	3659	3698	3698	3698	3738	3738	3738	3738	3738	3738	3698	3698	3698	3659	3698	3698	3698	3698	3698	3698	3738	3738	3698	3698	3698	3698	3698	3698	3659	3698	3698	3698	3659	3698	3698	3698	3698	3698	3659	3698	3659	3698	3698	3698	3698	3698	3738	3698	3698	3698	3659	3659	3659	3659	3659	3659	3659	3659	3659	3659	3659	3659	3659	3659	3659	3659	3659	3659	3659	3659	3659	3659	3659	3659	3659	3659	3659	3659	3659	3659	3659	3659	3659	3659	3659	3659	3659	3659	3659	3659	3659	3659	3659	3659	3659	3659	3659	3659	3659	3659	0	0	0	0	0	0	0	0	0	0	0	1232	1232	1227	1227	1223	1223	1219	1219	1214	1214	1210	1210	1206	1197	1193	1193	1193	1193	1193	1193	1189	1193	1189	1189	1189	1189	1181	1189	1193	1193	1058	1052	1052	1045	1045	1042	1042	1042	1042	1039	1036	1033	1030	1030	1026	1023	1023	1023	1020	1020	1020	1017	1017	1017	1017	1014	1026	1023	1023	1023	0	991	991	991	988	988	985	985	985	985	1306	1316	1316	1316	0	0	1321	1321	1321	1321	1321	1326	1326	1331	1331	1331	1336	1336	1336	1336	1336	1336	1342	1342	1342	1342	1342	1347	1347	1347	1342	1342	1342	0	0	0	0	0	0	0	0	0	0	0	0	0	0	0	0	0	0	0	0	0	0	0	0	0	0	0	0	0	0	0	0	0	0	0	0	0	0	0	0	0
0	0	0	0	0	0	0	0	0	0	0	0	1947	1958	1958	1958	1958	1958	1969	1969	1958	1958	1958	1958	1969	1969	1947	1947	1969	1980	1980	1969	1969	1969	1969	1969	1980	1980	1969	1969	1969	1980	1969	1969	1969	1969	1969	1969	1969	1969	1969	1969	1969	1980	1980	1980	1980	1980	1980	1980	1980	1980	1980	1969	1980	1980	1980	1980	1980	1980	1980	1992	1992	2003	2003	1992	1992	2003	2015	2015	2015	2551	2551	2551	2551	2551	2551	2551	2551	2532	2532	2532	2514	2514	2514	2514	2551	2532	2551	2551	2551	2551	2551	2551	2551	2551	2551	2532	2551	2551	2551	2551	2532	2532	2532	2532	2532	2514	2496	2496	2514	2532	2532	2532	2532	2551	2551	2551	2551	2551	2551	2589	2589	2589	2589	2589	3698	3621	3659	3659	3659	3659	3659	3659	3659	3659	3698	3659	3659	3659	3659	3659	3698	3659	3659	3659	3659	3659	3659	3659	3659	3659	3659	3659	3659	3621	3621	3659	3659	3659	3659	3659	3659	3659	3621	3621	3621	3621	3659	3621	3621	3659	3659	3659	3659	3659	3659	3698	3698	3698	3698	3698	3698	3698	3698	3698	3698	3698	3698	3698	3698	3698	3698	3698	3698	3698	3698	3698	3698	3698	3698	3698	3698	3698	3698	3698	3698	3698	3698	3698	3659	3659	3698	3738	3738	3738	3738	3738	3738	3738	3738	3698	3738	3698	3698	3698	3698	3698	3698	3698	3698	3698	3698	3698	3698	3698	3698	3698	3738	3698	3738	3738	3738	3698	3738	3698	3698	3698	3698	3698	3698	3698	3698	3698	3698	3698	3698	3698	3698	3698	3698	3698	3659	3621	3546	3475	3440	3406	3373	3341	3341	3373	3341	3341	3341	3309	3309	3341	3341	3341	3373	3373	3406	3440	3475	3546	3659	3698	3698	3698	3698	3659	3659	3659	3659	3659	3659	3659	3659	3659	3659	3659	3659	3659	3698	3738	3738	3738	3738	3698	3698	3698	3698	3698	3698	3698	3698	3698	3698	3698	3698	3698	3698	3698	3698	3698	3698	3738	3738	3738	3738	3738	3738	3738	3738	3698	3698	3698	3698	3698	3698	3698	3698	3698	3698	3698	3698	3698	3698	3698	3698	3738	3698	3698	3698	3698	3698	3698	3698	3738	3698	3698	3698	3698	3698	3698	3659	3659	3659	3659	3659	3659	3659	3659	3659	3659	3698	3698	3698	3698	3738	3738	3738	3738	3738	3738	3698	3698	3698	3698	3698	3698	3698	3698	3698	3738	3738	3698	3698	3698	3698	3698	3698	3698	3698	3698	3698	3698	3698	3698	3659	3698	3698	3659	3659	3659	3698	3698	3698	3698	3698	3698	3698	3698	3698	3659	3659	3659	3659	3659	3659	3659	3659	3659	3659	3659	3659	3659	3659	3659	3659	3659	3659	3659	3659	3659	3659	3659	3659	3659	3659	3659	3659	3659	3659	3659	3659	3659	3659	3659	3659	3659	3659	3621	3659	3659	3659	3659	3659	3659	3659	3659	3659	3621	3621	0	0	0	0	0	0	0	0	0	0	0	1236	1236	1232	1227	1223	1223	1219	1219	1214	1214	1210	1210	1202	1193	1193	1193	1193	1189	1189	1189	1189	1189	1189	1189	1189	1189	1185	1071	1058	1058	1058	1052	1052	1048	1045	1045	1042	1042	1042	1039	1036	1033	1033	1033	1033	1026	1026	1026	1023	1023	1023	1020	1020	1023	1023	1026	1030	1030	1030	1030	0	1301	1296	1301	1311	1311	1296	1287	1287	1296	1306	1316	1316	1316	1321	1321	1321	1321	1321	1321	1321	1326	1326	1331	1331	1331	1336	1336	1336	1336	1336	1336	1336	1336	1336	1342	1342	1347	1347	1342	1342	1342	1342	0	0	0	0	0	0	0	0	0	0	0	0	0	0	0	0	0	0	0	0	0	0	0	0	0	0	0	0	0	0	0	0	0	0	0	0	0	0	0	0	0
0	0	0	0	0	0	0	0	0	0	0	0	1958	1969	1969	1969	1969	1969	1969	1969	1958	1969	1969	1969	1980	1980	1980	1992	1992	1980	1992	1980	1992	1980	1992	1992	2003	1992	1980	1980	1980	1980	1980	1980	1980	1969	1980	1980	1980	1980	1980	1980	1980	1992	1992	1992	1992	1992	1992	1992	1992	1980	1980	1980	1980	1980	1980	1980	1980	1980	1980	1992	1992	1992	2003	1992	2003	2015	2015	2027	2027	2551	2551	2532	2532	2551	2551	2551	2551	2532	2514	2532	2514	2514	2514	2514	2532	2532	2532	2532	2551	2551	2551	2551	2532	2532	2551	2532	2532	2532	2532	2532	2532	2514	2532	2551	2532	2514	2514	2496	2514	2514	2514	2514	2532	2551	2551	2551	2551	2551	2551	2589	2589	2589	2589	2589	3659	3621	3621	3659	3659	3659	3659	3659	3659	3659	3659	3659	3659	3659	3659	3659	3698	3659	3659	3659	3659	3659	3659	3659	3659	3659	3659	3659	3621	3621	3621	3621	3621	3621	3659	3659	3659	3659	3621	3621	3621	3621	3659	3659	3659	3659	3659	3659	3659	3659	3698	3698	3698	3698	3698	3698	3698	3698	3698	3698	3698	3698	3698	3698	3698	3698	3698	3698	3698	3698	3698	3698	3698	3698	3698	3698	3698	3698	3698	3698	3659	3698	3659	3659	3659	3659	3698	3738	3738	3738	3738	3738	3738	3738	3738	3698	3698	3738	3698	3698	3698	3698	3698	3698	3698	3698	3738	3738	3698	3698	3698	3738	3698	3738	3738	3738	3738	3738	3738	3698	3698	3698	3698	3698	3698	3698	3698	3698	3698	3698	3698	3698	3698	3698	3698	3659	3621	3583	3546	3475	3440	3406	3373	3373	3373	3373	3373	3341	3341	3341	3309	3341	3341	3341	3373	3373	3406	3440	3475	3583	3659	3698	3698	3698	3698	3698	3659	3659	3659	3659	3659	3659	3659	3698	3659	3659	3698	3698	3738	3738	3738	3738	3738	3738	3738	3698	3698	3698	3698	3698	3698	3698	3698	3698	3698	3698	3698	3698	3698	3698	3738	3738	3738	3738	3738	3738	3738	3738	3738	3738	3698	3698	3698	3698	3698	3698	3698	3698	3698	3698	3698	3698	3738	3698	3698	3738	3698	3698	3698	3698	3698	3698	3698	3698	3738	3698	3738	3698	3698	3698	3698	3698	3698	3659	3659	3659	3659	3659	3659	3659	3659	3698	3698	3698	3698	3698	3698	3698	3738	3698	3698	3698	3698	3698	3698	3698	3698	3698	3698	3738	3738	3738	3698	3698	3698	3698	3698	3698	3659	3698	3698	3698	3698	3698	3698	3698	3698	3659	3659	3659	3659	3659	3659	3698	3698	3698	3698	3698	3659	3659	3659	3659	3659	3659	3659	3659	3659	3659	3659	3659	3659	3659	3659	3659	3659	3659	3659	3659	3659	3659	3659	3621	3659	3621	3621	3659	3659	3659	3659	3659	3659	3659	3659	3659	3659	3659	3621	3621	3621	3659	3659	3659	3659	3659	3659	3659	3659	3621	3621	0	0	0	0	0	0	0	0	0	0	0	1236	1236	1232	1232	1227	1223	1219	1219	1219	1214	1214	1210	1202	1193	1193	1193	1189	1189	1189	1189	1189	1189	1189	1189	1185	1185	1071	1071	1058	1058	1058	1055	1055	1052	1045	1045	1042	1045	1042	1039	1036	1036	1033	1036	1033	1033	1030	1030	1030	1026	1026	1023	1026	1026	1026	1030	1033	1030	1030	1030	0	1301	1296	1301	1306	1306	1301	1296	1301	1301	1306	1311	1316	1311	1321	1321	1321	1321	1321	1321	1321	1326	1326	1331	1331	1331	1336	1336	1331	1331	1331	1331	1336	1336	1336	1342	1342	1347	1347	1347	1342	1342	1342	0	0	0	0	0	0	0	0	0	0	0	0	0	0	0	0	0	0	0	0	0	0	0	0	0	0	0	0	0	0	0	0	0	0	0	0	0	0	0	0	0
0	0	0	0	0	0	0	0	0	0	0	0	1980	1980	1980	1969	1969	1969	1969	1969	1969	1969	1969	1969	1980	1992	1992	1992	1992	1980	1992	1992	1992	1992	2003	2003	2003	2003	2003	1992	1980	1992	1980	1980	1980	1980	1992	1992	2003	1992	1992	1992	2003	2003	2003	2003	2003	1992	1992	1992	1992	1992	1992	1992	1992	1992	1992	1992	1992	1992	1992	1992	1992	2003	2003	2003	2003	2015	2015	2027	2027	2027	2027	2532	2532	2551	2551	2551	2551	2532	2514	2532	2514	2514	2514	2514	2514	2514	2514	2514	2532	2532	2532	2551	2551	2551	2532	2532	2532	2532	2532	2532	2514	2514	2514	2532	2532	2532	2514	2496	2514	2532	2514	2532	2551	2551	2551	2551	2551	2551	2551	2589	2589	2589	2589	2589	2589	3621	3659	3659	3659	3659	3698	3698	3659	3659	3659	3659	3659	3659	3659	3659	3698	3659	3659	3659	3659	3659	3659	3659	3659	3659	3659	3621	3621	3621	3621	3621	3621	3621	3621	3659	3659	3659	3659	3659	3659	3659	3659	3659	3659	3659	3659	3659	3659	3659	3698	3698	3698	3698	3698	3698	3698	3698	3698	3698	3698	3698	3698	3698	3698	3698	3698	3698	3698	3698	3698	3698	3698	3698	3698	3698	3698	3698	3698	3698	3659	3659	3698	3698	3659	3659	3698	3738	3738	3738	3738	3738	3738	3698	3698	3698	3698	3698	3698	3698	3698	3698	3698	3698	3698	3698	3738	3738	3698	3698	3698	3698	3698	3698	3698	3698	3698	3698	3698	3698	3698	3698	3698	3698	3698	3698	3698	3698	3698	3698	3698	3698	3698	3698	3698	3659	3621	3583	3546	3475	3440	3406	3373	3373	3373	3373	3373	3341	3341	3341	3341	3341	3341	3373	3373	3373	3406	3440	3440	3583	3659	3698	3698	3698	3698	3698	3659	3659	3659	3659	3659	3659	3659	3659	3659	3659	3659	3659	3698	3738	3738	3738	3738	3738	3698	3698	3698	3698	3698	3698	3698	3698	3698	3698	3698	3698	3698	3698	3698	3698	3738	3738	3738	3738	3738	3738	3738	3698	3698	3698	3698	3698	3698	3698	3659	3659	3698	3659	3698	3698	3698	3698	3738	3698	3698	3738	3698	3698	3698	3698	3698	3698	3698	3698	3698	3698	3738	3698	3698	3698	3698	3698	3698	3659	3659	3659	3698	3659	3659	3659	3659	3698	3698	3698	3698	3698	3698	3698	3698	3698	3698	3698	3659	3698	3698	3698	3698	3698	3698	3738	3738	3738	3698	3698	3698	3698	3698	3698	3659	3659	3659	3698	3659	3659	3698	3698	3659	3659	3659	3659	3659	3659	3659	3659	3659	3659	3659	3659	3659	3659	3659	3659	3659	3659	3659	3659	3659	3659	3659	3659	3659	3659	3659	3659	3659	3659	3659	3659	3659	3659	3659	3621	3621	3621	3621	3659	3659	3659	3659	3659	3659	3659	3659	3659	3659	3659	3621	3621	3621	3621	3621	3621	3659	3659	3659	3659	3659	3659	3659	0	0	0	0	0	0	0	0	0	0	0	0	1240	1236	1232	1227	1223	1219	1219	1214	1214	1210	1210	1202	1193	1193	1189	1189	1189	1189	1189	1189	1189	1189	1189	1185	1074	1074	1074	1061	1058	1058	1058	1055	1055	1045	1045	1045	1045	1045	1042	1042	1042	1042	1042	1036	1033	1033	1033	1033	1030	1030	1030	1030	1030	1030	1033	1033	1033	1033	0	1296	1296	1296	1296	1296	1301	1296	1296	1301	1301	1306	1311	1311	1311	1316	1321	1316	1321	1316	1321	1321	1321	1326	1331	1331	1331	1336	1331	1331	1331	1331	1331	1336	1336	1336	1342	1342	1342	1342	1342	1336	1342	1342	0	0	0	0	0	0	0	0	0	0	0	0	0	0	0	0	0	0	0	0	0	0	0	0	0	0	0	0	0	0	0	0	0	0	0	0	0	0	0	0	0
0	0	0	0	0	0	0	0	0	0	0	0	1980	1992	1980	1980	1980	1969	1980	1980	1969	1980	1969	1980	1992	1992	1992	1992	1992	1992	1992	1992	2003	2003	2003	2003	2015	2003	2003	2003	1992	1992	1992	1992	2003	2003	2015	2015	2015	2003	2003	2015	2015	2015	2015	2015	2015	2003	2003	2003	2003	2003	2003	1992	2003	2003	2003	2003	2003	1992	2003	2003	2003	2015	2015	2015	2015	2015	2015	2027	2027	2027	2039	2039	2532	2551	2551	2551	2551	2532	2514	2532	2514	2514	2514	2514	2514	2514	2532	2514	2532	2532	2532	2532	2532	2551	2532	2532	2532	2532	2532	2532	2514	2514	2514	2532	2532	2514	2514	2496	2514	2532	2532	2532	2551	2551	2551	2551	2551	2551	2551	2570	2570	2589	2589	2589	2589	3621	3659	3659	3659	3659	3659	3659	3659	3659	3659	3659	3659	3659	3659	3659	3698	3659	3659	3659	3659	3659	3659	3621	3621	3659	3659	3621	3621	3621	3621	3621	3621	3621	3621	3659	3659	3659	3659	3659	3659	3659	3659	3659	3659	3659	3659	3659	3659	3659	3698	3698	3698	3698	3698	3698	3698	3698	3698	3698	3698	3698	3698	3698	3698	3698	3698	3698	3698	3698	3698	3698	3698	3698	3659	3659	3698	3698	3659	3659	3659	3659	3659	3698	3698	3698	3698	3738	3738	3738	3738	3738	3738	3698	3698	3698	3738	3738	3698	3698	3698	3738	3698	3698	3698	3698	3698	3738	3698	3698	3698	3698	3698	3698	3698	3698	3698	3698	3698	3698	3698	3698	3698	3698	3698	3698	3698	3698	3698	3698	3698	3698	3698	3698	3659	3659	3621	3583	3510	3475	3440	3406	3373	3373	3373	3373	3373	3341	3341	3341	3341	3341	3341	3341	3373	3373	3373	3406	3440	3546	3659	3698	3698	3698	3698	3698	3659	3659	3659	3659	3659	3659	3659	3659	3659	3659	3698	3698	3738	3738	3738	3738	3738	3738	3698	3698	3698	3659	3659	3659	3698	3698	3698	3698	3698	3698	3698	3698	3698	3738	3738	3738	3738	3738	3738	3738	3738	3698	3698	3738	3738	3698	3698	3698	3659	3659	3659	3659	3698	3698	3698	3698	3738	3738	3698	3698	3698	3698	3698	3698	3698	3698	3738	3698	3698	3698	3738	3738	3698	3698	3698	3698	3698	3659	3659	3659	3698	3659	3659	3659	3659	3659	3698	3698	3698	3698	3698	3698	3698	3698	3698	3698	3659	3698	3698	3698	3698	3698	3659	3698	3738	3698	3698	3698	3698	3698	3698	3698	3659	3659	3698	3698	3659	3698	3698	3698	3698	3659	3659	3659	3659	3659	3659	3659	3659	3659	3659	3659	3659	3659	3659	3659	3659	3659	3659	3659	3659	3659	3659	3659	3659	3659	3659	3659	3659	3659	3659	3659	3659	3659	3659	3621	3621	3621	3659	3659	3659	3659	3659	3659	3659	3659	3659	3659	3659	3621	3621	3621	3621	3621	3621	3659	3659	3621	3659	3659	3659	3621	3621	0	0	0	0	0	0	0	0	0	0	0	0	1240	1236	1232	1227	1223	1219	1219	1214	1210	1210	1206	1202	1193	1193	1189	1189	1189	1189	1189	1189	1189	1185	1185	1181	1173	1074	1074	1061	1061	1058	1058	1055	1055	1048	1045	1048	1048	1048	1048	1048	1048	1042	1045	1045	1033	1033	1033	1033	1030	1030	1030	1030	1030	1030	1030	1033	1033	1291	1287	1282	1287	1287	1291	1291	1301	1296	1301	1301	1301	1306	1311	1311	1311	1316	1316	1316	1316	1316	1316	1316	1321	1326	1326	1326	1326	1331	1331	1331	1336	1331	1331	1336	1336	1336	1336	1336	1342	1342	1336	1336	1336	1336	0	0	0	0	0	0	0	0	0	0	0	0	0	0	0	0	0	0	0	0	0	0	0	0	0	0	0	0	0	0	0	0	0	0	0	0	0	0	0	0	0
0	0	0	0	0	0	0	0	0	0	0	0	1992	2003	1992	1992	1980	1980	1980	1980	1992	1980	1980	1992	2003	2003	2003	2003	2003	2003	2003	1992	2003	2003	2003	2003	2015	2015	2015	2015	2003	2015	2015	2015	2015	2015	2027	2027	2027	2015	2015	2027	2027	2027	2027	2027	2015	2015	2015	2003	2003	2003	2015	2003	2015	2015	2015	2003	2003	1992	2003	2015	2015	2015	2015	2015	2015	2015	2027	2027	2027	2027	2039	2039	2051	2051	2051	2570	2551	2551	2551	2532	2532	2514	2514	2514	2514	2514	2514	2514	2514	2532	2532	2532	2532	2551	2532	2532	2532	2532	2514	2532	2514	2514	2514	2532	2532	2514	2514	2514	2514	2532	2532	2532	2551	2551	2551	2551	2551	2551	2551	2570	2570	2570	2570	2570	2570	3659	3659	3659	3659	3698	3698	3659	3659	3659	3659	3659	3659	3659	3659	3659	3698	3659	3659	3659	3659	3659	3659	3621	3659	3659	3659	3621	3621	3621	3621	3621	3621	3621	3659	3659	3659	3659	3659	3659	3659	3659	3659	3659	3659	3659	3659	3659	3659	3698	3698	3698	3698	3698	3698	3698	3698	3698	3698	3698	3698	3698	3698	3698	3698	3698	3698	3698	3738	3698	3738	3698	3698	3698	3659	3659	3659	3659	3659	3659	3659	3659	3659	3698	3698	3698	3698	3738	3738	3738	3738	3738	3738	3698	3698	3738	3738	3738	3698	3698	3738	3738	3698	3698	3698	3698	3698	3698	3698	3698	3698	3698	3698	3698	3698	3698	3698	3698	3698	3698	3698	3698	3698	3698	3698	3698	3698	3698	3738	3738	3698	3698	3698	3698	3659	3659	3583	3510	3475	3440	3440	3406	3373	3373	3373	3373	3373	3373	3373	3373	3373	3341	3341	3341	3373	3373	3373	3406	3406	3475	3546	3659	3698	3698	3698	3659	3659	3659	3659	3659	3659	3659	3659	3659	3659	3659	3659	3659	3738	3738	3738	3738	3738	3738	3698	3698	3698	3698	3698	3659	3698	3698	3698	3659	3698	3698	3698	3698	3698	3738	3738	3738	3738	3738	3738	3738	3738	3738	3738	3738	3738	3738	3698	3698	3698	3659	3659	3659	3698	3698	3698	3698	3738	3698	3698	3698	3698	3698	3698	3698	3698	3698	3698	3698	3698	3698	3698	3698	3698	3698	3698	3698	3698	3659	3659	3659	3698	3659	3659	3659	3659	3659	3659	3698	3698	3698	3659	3659	3659	3659	3698	3698	3698	3698	3698	3698	3698	3698	3659	3698	3698	3698	3698	3698	3698	3698	3698	3698	3659	3659	3698	3698	3659	3698	3698	3698	3698	3659	3659	3659	3659	3659	3621	3621	3659	3659	3659	3659	3659	3659	3659	3659	3659	3659	3659	3659	3659	3659	3659	3659	3659	3659	3659	3659	3659	3659	3659	3659	3659	3659	3659	3621	3659	3659	3659	3659	3659	3659	3659	3659	3659	3659	3659	3621	3621	3621	3621	3621	3621	3621	3621	3659	3659	3659	3659	3659	3659	3659	3659	0	0	0	0	0	0	0	0	0	0	0	0	1240	1236	1232	1232	1223	1214	1214	1210	1210	1206	1202	1202	1193	1193	1189	1189	1189	1189	1189	1189	1189	1189	1185	1177	1173	1074	1074	1071	1061	1058	1058	1058	1058	1048	1048	1048	1048	1048	1048	1048	1048	0	1045	1045	0	0	0	0	0	1030	1030	1030	1030	1277	1277	1277	1282	1277	1282	1277	1282	1282	1287	1287	1296	1296	1296	1301	1301	1306	1311	1311	1311	1316	1316	1316	1316	1316	1316	1316	1321	1321	1326	1326	1326	1331	1331	1336	1336	1331	1331	1336	1336	1336	1336	1331	1331	1336	1336	1331	1331	1331	0	0	0	0	0	0	0	0	0	0	0	0	0	0	0	0	0	0	0	0	0	0	0	0	0	0	0	0	0	0	0	0	0	0	0	0	0	0	0	0	0
0	0	0	0	0	0	0	0	0	0	0	0	1992	2003	2003	2003	2003	1992	1992	1992	1992	1992	1992	2003	2003	2003	2003	2003	2003	2003	2003	2003	2003	2015	2015	2015	2027	2027	2015	2015	2015	2015	2015	2015	2015	2015	2027	2027	2027	2027	2027	2027	2039	2039	2027	2027	2027	2027	2027	2015	2015	2027	2027	2015	2015	2027	2027	2015	2015	2003	2015	2015	2015	2015	2027	2027	2027	2039	2039	2039	2039	2039	2051	2051	2063	2051	2051	2570	2551	2551	2551	2532	2532	2514	2514	2514	2514	2514	2514	2514	2514	2532	2532	2532	2532	2551	2532	2532	2532	2532	2532	2532	2532	2514	2514	2532	2532	2532	2532	2514	2532	2532	2532	2532	2532	2551	2551	2532	2551	2551	2551	2570	2570	2570	2570	2570	2570	3659	3659	3698	3698	3698	3698	3659	3659	3659	3659	3659	3659	3659	3659	3659	3659	3659	3659	3659	3659	3659	3659	3659	3659	3659	3659	3621	3621	3621	3621	3621	3621	3621	3621	3659	3659	3659	3659	3659	3659	3659	3659	3659	3659	3659	3659	3659	3698	3698	3698	3698	3698	3698	3698	3698	3698	3698	3698	3698	3698	3698	3698	3698	3698	3698	3698	3698	3698	3698	3698	3698	3698	3698	3698	3659	3659	3659	3659	3659	3659	3659	3659	3659	3698	3698	3698	3698	3738	3738	3698	3738	3698	3698	3698	3738	3738	3738	3738	3698	3698	3698	3698	3698	3698	3698	3698	3698	3698	3698	3698	3698	3698	3698	3698	3698	3698	3698	3698	3698	3698	3698	3698	3698	3698	3698	3698	3698	3698	3698	3698	3698	3698	3659	3659	3583	3546	3475	3440	3440	3406	3406	3373	3373	3373	3373	3373	3373	3373	3373	3373	3341	3341	3341	3373	3373	3373	3373	3406	3440	3475	3583	3621	3659	3659	3659	3659	3659	3659	3659	3621	3621	3621	3659	3659	3659	3659	3659	3738	3738	3738	3738	3738	3738	3698	3698	3698	3698	3698	3698	3698	3698	3698	3698	3698	3698	3698	3698	3698	3738	3738	3738	3738	3698	3738	3698	3698	3698	3698	3738	3738	3738	3698	3698	3698	3698	3659	3659	3698	3698	3698	3698	3698	3698	3698	3698	3698	3698	3698	3698	3698	3698	3698	3698	3698	3698	3698	3698	3698	3698	3698	3698	3698	3659	3659	3659	3659	3659	3659	3659	3698	3698	3698	3698	3698	3698	3698	3698	3698	3698	3698	3698	3698	3698	3698	3698	3698	3698	3659	3698	3698	3698	3698	3698	3698	3698	3698	3698	3659	3659	3698	3698	3659	3698	3698	3698	3659	3659	3659	3659	3659	3659	3621	3621	3621	3621	3659	3659	3621	3659	3659	3659	3659	3659	3659	3659	3659	3659	3659	3659	3659	3659	3659	3659	3659	3659	3659	3659	3659	3659	3659	3659	3659	3659	3659	3659	3659	3659	3659	3659	3659	3659	3659	3621	3621	3621	3621	3621	3621	3621	3659	3659	3659	3659	3659	3659	3659	3621	3659	3659	0	0	0	0	0	0	0	0	0	0	0	0	0	1232	1232	1219	1214	1214	1210	1210	1206	1202	1197	1193	1193	1189	1189	1193	1189	1189	1085	1085	1085	1085	1081	1081	1074	1074	1071	1068	1068	1061	1061	1058	1058	1048	0	0	0	0	0	0	0	0	0	0	0	0	0	0	0	0	0	0	1277	1277	1277	1272	1277	1277	1277	1282	1282	1287	1287	1291	1291	1296	1301	1301	1301	1306	1311	1311	1316	1316	1316	1316	1316	1316	1316	1321	1321	1321	1321	1321	1331	1331	1331	1331	1331	1331	1331	1336	1336	1336	1331	1331	1336	1336	1331	1331	1331	0	0	0	0	0	0	0	0	0	0	0	0	0	0	0	0	0	0	0	0	0	0	0	0	0	0	0	0	0	0	0	0	0	0	0	0	0	0	0	0	0
0	0	0	0	0	0	0	0	0	0	0	0	1992	2027	2015	2015	2015	2015	2015	2003	2003	2003	2003	2015	2015	2015	2015	2015	2015	2015	2015	2003	2003	2015	2015	2015	2039	2039	2027	2027	2027	2027	2027	2027	2027	2027	2027	2039	2027	2027	2027	2039	2039	2051	2039	2039	2039	2039	2027	2027	2027	2027	2039	2027	2027	2027	2027	2027	2027	2027	2027	2051	2039	2039	2051	2039	2051	2039	2051	2039	2039	2039	2039	2051	2051	2051	2051	2063	2063	2570	2570	2551	2551	2532	2532	2532	2532	2514	2532	2514	2514	2532	2532	2532	2532	2551	2551	2532	2532	2532	2532	2532	2532	2514	2532	2532	2551	2551	2532	2532	2551	2551	2532	2532	2532	2551	2551	2532	2532	2532	2551	2551	2570	2551	2551	2532	2532	3659	3659	3659	3659	3659	3659	3659	3659	3659	3659	3659	3659	3659	3659	3659	3659	3659	3659	3659	3698	3659	3659	3659	3659	3659	3659	3621	3621	3621	3621	3621	3621	3621	3621	3659	3659	3659	3659	3659	3659	3659	3659	3659	3659	3659	3659	3659	3698	3698	3698	3698	3698	3698	3698	3698	3698	3698	3698	3698	3698	3698	3698	3698	3698	3698	3698	3698	3698	3698	3698	3698	3698	3698	3659	3659	3659	3659	3659	3659	3659	3659	3659	3659	3698	3698	3698	3698	3738	3738	3738	3738	3738	3738	3738	3738	3738	3738	3698	3698	3698	3698	3698	3698	3698	3698	3698	3698	3698	3698	3698	3698	3698	3698	3698	3659	3659	3698	3698	3698	3698	3698	3698	3698	3698	3659	3698	3698	3698	3698	3698	3659	3659	3659	3583	3510	3475	3475	3440	3440	3406	3406	3406	3373	3373	3373	3373	3373	3373	3373	3373	3341	3341	3341	3341	3341	3341	3341	3373	3406	3440	3583	3583	3583	3659	3546	3546	3546	3546	3621	3621	3621	3621	3659	3659	3659	3659	3659	3738	3738	3738	3738	3738	3698	3698	3698	3698	3698	3698	3698	3698	3698	3698	3698	3738	3738	3738	3698	3698	3698	3738	3738	3698	3698	3698	3698	3698	3698	3698	3698	3738	3738	3698	3698	3738	3698	3698	3659	3659	3659	3659	3659	3698	3698	3698	3698	3698	3698	3698	3698	3698	3698	3698	3698	3659	3659	3698	3698	3659	3659	3698	3698	3698	3659	3659	3659	3659	3659	3659	3659	3698	3698	3698	3698	3698	3698	3698	3698	3698	3698	3698	3738	3698	3698	3698	3698	3698	3659	3659	3698	3698	3698	3698	3698	3698	3698	3698	3698	3659	3659	3698	3698	3659	3698	3698	3698	3659	3659	3659	3659	3659	3659	3621	3621	3621	3621	3659	3659	3621	3659	3659	3659	3659	3659	3659	3659	3659	3659	3659	3659	3659	3659	3659	3659	3659	3659	3659	3659	3659	3659	3659	3659	3659	3659	3659	3659	3659	3659	3659	3659	3621	3659	3621	3621	3621	3621	3621	3621	3621	3621	3621	3659	3659	3621	3621	3659	3659	3621	3621	3621	3621	0	0	0	0	0	0	0	0	0	0	0	0	0	1232	1219	1214	1214	1210	1210	1206	1202	1197	1193	1193	1189	1185	1185	1185	1088	1085	1085	1085	1085	1081	1081	1078	1078	1074	1071	1071	1061	1061	1058	1058	0	0	0	0	0	0	0	0	0	0	0	0	0	0	0	0	0	0	1227	1227	0	1268	1272	1277	1277	1277	1282	1282	1287	1287	1287	1291	1291	1296	1296	1301	1301	1311	1311	1311	1311	1311	1316	1316	1311	1311	1316	1321	1321	1321	1321	1331	1331	1331	1331	1326	1331	1331	1336	1336	1336	1331	1331	1336	1331	1331	1331	1331	0	0	0	0	0	0	0	0	0	0	0	0	0	0	0	0	0	0	0	0	0	0	0	0	0	0	0	0	0	0	0	0	0	0	0	0	0	0	0	0	0
0	0	0	0	0	0	0	0	0	0	0	0	0	2039	2015	2027	2027	2027	2015	2015	2015	2015	2015	2027	2027	2015	2027	2015	2015	2015	2015	2015	2015	2027	2027	2027	2039	2051	2039	2039	2039	2039	2039	2051	2039	2039	2051	2051	2039	2051	2039	2051	2051	2051	2051	2051	2051	2051	2039	2039	2051	2051	2051	2051	2051	2039	2051	2039	2051	2051	2051	2051	2063	2063	2063	2063	2063	2063	2063	2051	2051	2051	2051	2063	2063	2063	2063	2063	2076	2088	2088	2570	2570	2532	2532	2551	2532	2514	2532	2514	2514	2532	2532	2532	2532	2532	2532	2532	2532	2532	2532	2532	2532	2514	2532	2532	2551	2551	2551	2551	2551	2551	2551	2532	2532	2532	2532	2532	2532	2532	2532	2551	2551	2551	2551	2532	2532	3659	3659	3698	3698	3659	3659	3659	3659	3659	3659	3659	3659	3659	3659	3659	3698	3659	3659	3659	3659	3659	3659	3659	3621	3659	3621	3621	3621	3583	3621	3621	3621	3621	3621	3659	3659	3659	3659	3659	3659	3659	3659	3659	3659	3659	3659	3659	3698	3698	3698	3698	3698	3698	3698	3698	3698	3698	3698	3698	3698	3698	3698	3698	3698	3698	3698	3698	3698	3698	3698	3698	3698	3698	3659	3659	3659	3659	3659	3659	3659	3659	3698	3698	3698	3698	3698	3698	3738	3738	3738	3738	3738	3738	3738	3738	3698	3738	3698	3698	3698	3698	3698	3698	3698	3698	3698	3738	3698	3698	3698	3698	3698	3698	3698	3659	3659	3698	3698	3698	3698	3698	3659	3659	3659	3659	3698	3698	3698	3698	3698	3659	3659	3583	3510	3475	3440	3440	3440	3406	3406	3406	3373	3373	3373	3373	3373	3373	3373	3373	3341	3341	3341	3341	3341	3341	3341	3341	3373	3406	3373	3406	3406	3440	3440	3475	3475	3510	3546	3583	3583	3621	3659	3659	3659	3659	3659	3659	3698	3698	3698	3698	3698	3698	3698	3698	3698	3698	3698	3698	3698	3698	3698	3698	3738	3738	3738	3698	3698	3698	3698	3738	3698	3659	3698	3698	3698	3698	3698	3698	3738	3738	3698	3698	3698	3698	3659	3659	3659	3659	3698	3659	3698	3698	3698	3698	3659	3698	3659	3659	3659	3698	3698	3698	3698	3659	3698	3698	3659	3659	3698	3698	3698	3659	3659	3659	3659	3659	3659	3659	3698	3698	3698	3698	3698	3698	3659	3659	3698	3698	3698	3698	3659	3659	3698	3698	3698	3698	3659	3698	3698	3698	3698	3698	3698	3659	3659	3659	3659	3659	3698	3659	3659	3659	3659	3659	3659	3659	3659	3659	3659	3621	3621	3621	3621	3621	3659	3659	3621	3659	3659	3659	3659	3659	3659	3659	3659	3659	3621	3621	3621	3659	3659	3659	3659	3659	3659	3659	3659	3659	3659	3659	3659	3659	3659	3659	3659	3659	3659	3659	3659	3659	3621	3621	3621	3621	3621	3621	3621	3621	3621	3659	3659	3621	3621	3659	3659	3659	3659	3621	3621	3621	0	0	0	0	0	0	0	0	0	0	0	0	1223	1219	1214	1210	1210	1206	1206	1197	1197	1193	1189	1105	1105	1088	1088	1088	1088	1085	1085	1085	1081	1085	1081	1081	1081	1071	1071	0	0	0	0	0	0	0	0	0	0	0	0	0	0	0	0	0	1197	1197	1219	1223	1223	1227	1245	1254	1259	1268	1272	1277	1277	1277	1282	1282	1282	1287	1287	1291	1296	1296	1296	1301	1306	1306	1306	1306	1306	1311	1311	1306	1311	1311	1316	1321	1321	1321	1326	1326	1326	1326	1326	1331	1331	1331	1331	1331	1331	1326	1331	1326	1326	1326	1326	0	0	0	0	0	0	0	0	0	0	0	0	0	0	0	0	0	0	0	0	0	0	0	0	0	0	0	0	0	0	0	0	0	0	0	0	0	0	0	0	0
0	0	0	0	0	0	0	0	0	0	0	0	0	2051	2027	2027	2039	2027	2027	2015	2027	2027	2027	2027	2027	2027	2027	2027	2027	2027	2027	2027	2027	2027	2039	2039	2027	2051	2051	2051	2051	2051	2051	2063	2051	2063	2063	2063	2063	2063	2063	2076	2076	2076	2076	2076	2063	2063	2063	2051	2063	2063	2063	2063	2063	2051	2051	2051	2063	2063	2063	2063	2063	2063	2063	2063	2063	2063	2063	2063	2063	2063	2063	2063	2076	2063	2063	2076	2088	2088	2101	2101	2570	2551	2551	2551	2532	2532	2532	2532	2514	2532	2532	2532	2532	2532	2532	2532	2551	2532	2532	2551	2532	2532	2551	2551	2551	2551	2551	2551	2551	2551	2551	2532	2551	2532	2532	2532	2532	2532	2532	2551	2551	2551	2551	2532	2532	3659	3698	3698	3698	3698	3659	3659	3659	3659	3659	3659	3659	3659	3659	3659	3659	3659	3659	3659	3659	3659	3659	3659	3621	3659	3621	3621	3621	3621	3621	3621	3621	3621	3621	3659	3659	3621	3659	3659	3659	3659	3659	3659	3659	3659	3659	3659	3698	3698	3698	3698	3698	3698	3698	3698	3698	3698	3698	3698	3698	3698	3698	3698	3698	3698	3698	3698	3698	3698	3698	3698	3698	3698	3659	3659	3659	3659	3659	3659	3659	3659	3659	3698	3698	3698	3698	3698	3738	3738	3738	3738	3738	3738	3738	3738	3738	3698	3698	3698	3698	3698	3698	3698	3698	3698	3698	3698	3698	3698	3698	3698	3698	3698	3698	3698	3698	3698	3698	3698	3698	3698	3698	3659	3659	3659	3659	3659	3659	3659	3621	3583	3510	3475	3440	3440	3440	3440	3406	3406	3406	3373	3373	3373	3373	3373	3373	3373	3373	3373	3341	3341	3341	3309	3341	3341	3309	3341	3341	3341	3373	3373	3406	3406	3440	3440	3440	3440	3475	3510	3546	3583	3621	3621	3621	3621	3621	3659	3698	3698	3698	3698	3698	3738	3698	3698	3698	3698	3698	3698	3738	3738	3738	3698	3738	3738	3738	3698	3698	3698	3698	3698	3698	3659	3659	3659	3659	3659	3698	3698	3698	3698	3698	3698	3698	3659	3659	3659	3659	3659	3659	3659	3698	3698	3698	3659	3659	3659	3659	3659	3659	3659	3698	3698	3659	3659	3659	3659	3659	3659	3659	3698	3698	3659	3659	3698	3698	3659	3659	3698	3698	3698	3698	3698	3698	3698	3659	3659	3659	3659	3659	3698	3698	3698	3698	3698	3659	3659	3659	3698	3698	3698	3698	3698	3698	3698	3698	3698	3659	3659	3659	3659	3659	3659	3659	3659	3659	3659	3659	3659	3659	3621	3621	3621	3621	3621	3659	3621	3621	3621	3659	3659	3659	3659	3659	3659	3659	3659	3659	3659	3621	3659	3659	3659	3659	3659	3659	3659	3659	3659	3659	3659	3659	3659	3659	3659	3659	3659	3659	3659	3659	3659	3659	3659	3659	3621	3621	3621	3621	3621	3621	3621	3621	3621	3659	3659	3659	3659	3659	3659	3621	3659	3659	0	0	0	0	0	0	0	0	0	0	0	1223	1219	1214	1210	1210	1206	1206	1202	1197	1197	1197	1105	1105	1102	1091	1091	1088	1085	1085	1085	1081	1085	1085	1085	1085	0	0	0	0	0	0	0	0	0	0	0	0	0	0	0	0	0	0	0	1193	1210	1214	1223	1223	1227	1236	1245	1254	1263	1268	1272	1272	1277	1277	1282	1282	1282	1287	1287	1291	1296	1296	1301	1301	1301	1306	1301	1301	1306	1306	1301	1306	1311	1316	1321	1316	1316	1326	1326	1326	1326	1326	1326	1326	1331	1326	1331	1326	1326	1326	1326	1326	1326	1326	0	0	0	0	0	0	0	0	0	0	0	0	0	0	0	0	0	0	0	0	0	0	0	0	0	0	0	0	0	0	0	0	0	0	0	0	0	0	0	0	0
0	0	0	0	0	0	0	0	0	0	0	0	0	2063	2051	2051	2051	2039	2039	2039	2039	2039	2039	2039	2039	2039	2039	2039	2027	2039	2039	2039	2039	2039	2051	2051	2051	2076	2076	2063	2076	2076	2063	2076	2063	2076	2063	2063	2063	2076	2076	2088	2088	2088	2088	2088	2076	2076	2076	2076	2076	2076	2076	2076	2076	2076	2063	2063	2063	2063	2063	2063	2063	2063	2076	2076	2076	2076	2076	2076	2076	2076	2076	2076	2076	2076	2076	2088	2101	2101	2101	2101	2570	2570	2551	2551	2551	2532	2532	2532	2532	2532	2532	2532	2532	2532	2532	2532	2551	2551	2551	2551	2551	2551	2551	2532	2551	2551	2551	2551	2551	2551	2551	2532	2551	2532	2532	2532	2532	2551	2551	2570	2551	2551	2551	2532	2532	3659	3698	3698	3698	3698	3659	3659	3659	3659	3659	3621	3621	3659	3659	3659	3659	3659	3659	3698	3659	3659	3659	3659	3659	3659	3621	3621	3621	3621	3621	3621	3621	3621	3659	3659	3621	3621	3659	3659	3659	3621	3659	3659	3659	3659	3659	3698	3698	3698	3698	3698	3698	3698	3698	3698	3698	3698	3698	3698	3698	3698	3698	3698	3698	3698	3698	3698	3698	3698	3698	3698	3698	3698	3659	3659	3659	3659	3659	3659	3659	3659	3698	3698	3698	3698	3698	3698	3738	3738	3738	3738	3738	3738	3738	3738	3738	3698	3698	3698	3698	3698	3698	3698	3698	3698	3698	3698	3698	3698	3698	3698	3698	3698	3698	3698	3698	3698	3698	3698	3698	3698	3659	3659	3659	3621	3621	3621	3583	3546	3475	3475	3440	3440	3440	3406	3406	3406	3406	3406	3373	3373	3373	3373	3373	3373	3373	3373	3373	3373	3341	3341	3341	3309	3309	3309	3309	3341	3341	3341	3341	3373	3373	3373	3406	3406	3406	3440	3440	3440	3475	3510	3546	3583	3583	3621	3583	3621	3698	3698	3698	3698	3698	3698	3698	3698	3698	3698	3698	3698	3698	3738	3738	3698	3738	3738	3738	3698	3698	3698	3698	3738	3698	3659	3698	3698	3659	3659	3698	3698	3698	3698	3698	3698	3698	3659	3659	3659	3698	3659	3659	3659	3698	3698	3698	3698	3659	3698	3659	3698	3698	3659	3698	3698	3659	3659	3698	3659	3659	3659	3659	3698	3698	3698	3698	3698	3698	3659	3698	3698	3698	3698	3698	3698	3698	3698	3659	3659	3659	3659	3659	3698	3659	3698	3698	3659	3659	3659	3659	3738	3698	3698	3698	3698	3738	3698	3698	3698	3659	3659	3659	3659	3659	3659	3659	3659	3659	3659	3659	3659	3659	3659	3659	3659	3659	3659	3659	3659	3659	3659	3659	3659	3659	3659	3659	3659	3659	3659	3659	3659	3659	3659	3659	3659	3659	3659	3659	3659	3659	3659	3659	3659	3659	3659	3659	3659	3659	3659	3659	3659	3659	3659	3659	3659	3659	3659	3621	3621	3621	3621	3621	3621	3621	3621	3659	3659	3659	3659	3621	3621	3621	3621	3621	0	0	0	0	0	0	0	0	0	0	0	1223	1214	1210	1210	1206	1206	1202	1202	1202	1109	1109	1109	1105	1102	1098	1095	1095	1088	1088	1088	1085	1088	1088	1091	1088	1088	0	0	0	0	0	0	0	0	0	0	0	0	0	0	0	1181	1181	1193	1197	1210	1210	1219	1223	1227	1232	1236	1245	1254	1263	1272	1272	1272	1277	1277	1277	1282	1282	1282	1291	1291	1296	1296	1301	1301	1306	1301	1301	1301	1301	1301	1301	1301	1306	1311	1311	1316	1321	1326	1326	1321	1326	1326	1326	1326	1326	1331	1326	1326	1326	1326	1326	1326	1326	0	0	0	0	0	0	0	0	0	0	0	0	0	0	0	0	0	0	0	0	0	0	0	0	0	0	0	0	0	0	0	0	0	0	0	0	0	0	0	0	0
0	0	0	0	0	0	0	0	0	0	0	0	0	2063	2063	2051	2051	2051	2051	2051	2051	2051	2051	2051	2063	2051	2051	2063	2051	2063	2051	2063	2063	2063	2063	2063	2063	2076	2076	2076	2076	2088	2088	2076	2076	2088	2076	2076	2076	2088	2088	2088	2088	2088	2101	2101	2088	2076	2076	2076	2088	2076	2076	2076	2076	2076	2076	2076	2076	2076	2088	2076	2076	2076	2088	2088	2088	2076	2076	2076	2088	2088	2088	2076	2088	2088	2088	2101	2101	2101	2114	2114	2114	2570	2570	2551	2551	2532	2532	2532	2532	2532	2532	2532	2532	2532	2532	2532	2551	2551	2551	2551	2551	2551	2551	2551	2551	2551	2551	2551	2551	2551	2551	2532	2532	2532	2532	2532	2532	2532	2532	2551	2551	2551	2551	2551	2551	3659	3659	3659	3698	3659	3659	3659	3621	3621	3621	3621	3621	3621	3659	3659	3659	3659	3659	3659	3659	3659	3659	3659	3659	3659	3621	3659	3621	3621	3621	3621	3659	3659	3659	3659	3659	3621	3659	3621	3621	3621	3621	3621	3659	3659	3659	3659	3698	3698	3698	3698	3698	3698	3698	3659	3698	3698	3698	3698	3698	3698	3698	3698	3698	3698	3698	3698	3698	3698	3698	3698	3698	3698	3659	3659	3659	3659	3659	3659	3659	3698	3698	3698	3698	3698	3698	3698	3698	3738	3738	3738	3738	3738	3738	3738	3698	3698	3698	3698	3698	3698	3698	3698	3698	3698	3698	3698	3698	3698	3698	3698	3698	3698	3698	3698	3698	3698	3698	3698	3698	3698	3698	3659	3621	3583	3583	3546	3510	3475	3440	3440	3440	3440	3406	3406	3406	3406	3406	3373	3373	3373	3373	3373	3373	3373	3373	3373	3341	3341	3341	3341	3341	3309	3309	3309	3309	3309	3309	3341	3341	3341	3373	3373	3406	3406	3406	3406	3406	3440	3440	3440	3475	3510	3546	3546	3546	3583	3621	3659	3659	3698	3698	3698	3698	3698	3698	3698	3698	3698	3698	3698	3698	3698	3698	3698	3738	3698	3698	3698	3698	3698	3698	3659	3659	3659	3659	3698	3659	3698	3698	3698	3698	3698	3698	3698	3659	3659	3698	3659	3659	3659	3698	3698	3698	3698	3659	3698	3698	3698	3698	3659	3698	3698	3659	3659	3659	3659	3659	3659	3659	3698	3698	3698	3698	3698	3698	3698	3698	3698	3698	3698	3698	3698	3698	3698	3659	3659	3659	3698	3698	3698	3698	3698	3698	3698	3659	3659	3659	3738	3698	3698	3738	3698	3738	3698	3698	3698	3698	3659	3659	3659	3659	3659	3659	3659	3659	3659	3659	3659	3659	3659	3659	3659	3659	3659	3659	3659	3659	3659	3659	3659	3659	3621	3659	3659	3659	3659	3659	3621	3621	3659	3659	3659	3659	3659	3659	3659	3659	3659	3659	3659	3659	3659	3659	3659	3659	3659	3659	3659	3659	3659	3659	3659	3659	3659	3621	3621	3621	3621	3621	3621	3621	3621	3659	3659	3659	3659	3659	3621	3621	3659	3659	0	0	0	0	0	0	0	0	0	0	0	1223	1219	1210	1210	1206	1206	1206	1116	1116	1109	1109	1109	1105	1102	1102	1098	1095	1091	1088	1088	1085	1091	1088	1091	1091	1091	0	0	0	0	0	0	0	0	0	0	0	0	0	1169	1181	1181	1173	1189	1197	1206	1210	1214	1219	1223	1232	1236	1240	1249	1259	1263	1268	1272	1277	1277	1277	1282	1282	1282	1291	1296	1296	1296	1301	1301	1301	1301	1301	1301	1301	1301	1301	1301	1306	1311	1311	1316	1321	1326	1321	1321	1321	1326	1326	1326	1326	1326	1326	1326	1326	1326	1326	1326	1326	0	0	0	0	0	0	0	0	0	0	0	0	0	0	0	0	0	0	0	0	0	0	0	0	0	0	0	0	0	0	0	0	0	0	0	0	0	0	0	0	0
0	0	0	0	0	0	0	0	0	0	0	0	0	2088	2076	2076	2076	2076	2076	2063	2063	2063	2063	2063	2063	2063	2063	2063	2063	2063	2063	2076	2076	2076	2063	2063	2063	2088	2088	2076	2076	2088	2088	2088	2088	2088	2088	2088	2088	2101	2101	2101	2101	2088	2101	2101	2088	2088	2088	2088	2101	2088	2088	2088	2088	2101	2088	2088	2088	2088	2101	2101	2088	2088	2088	2088	2088	2088	2088	2088	2101	2101	2088	2088	2088	2088	2101	2101	2101	2114	2114	2114	2127	2127	2570	2551	2551	2532	2532	2551	2532	2551	2532	2532	2532	2532	2532	2551	2551	2551	2551	2551	2551	2551	2551	2551	2551	2551	2551	2551	2551	2532	2532	2532	2532	2532	2514	2514	2532	2532	2532	2551	2551	2551	2551	2551	2551	3698	3698	3659	3698	3659	3659	3621	3621	3621	3621	3621	3621	3621	3659	3659	3659	3659	3659	3659	3659	3659	3659	3659	3659	3621	3621	3621	3621	3621	3621	3621	3621	3621	3659	3621	3621	3621	3621	3621	3621	3621	3621	3621	3621	3659	3659	3698	3698	3698	3698	3698	3698	3698	3698	3698	3698	3698	3698	3698	3698	3698	3698	3698	3698	3698	3698	3698	3698	3698	3698	3698	3698	3698	3659	3659	3659	3659	3659	3659	3659	3698	3698	3698	3698	3698	3698	3698	3738	3738	3738	3738	3738	3698	3698	3698	3698	3698	3698	3698	3698	3698	3698	3698	3698	3698	3698	3698	3698	3698	3698	3698	3698	3698	3698	3659	3698	3698	3698	3698	3698	3698	3659	3621	3546	3510	3510	3475	3440	3440	3406	3406	3406	3406	3406	3406	3406	3406	3406	3373	3373	3373	3373	3373	3373	3373	3373	3373	3341	3341	3341	3341	3341	3309	3309	3309	3309	3309	3309	3341	3341	3341	3373	3373	3406	3406	3406	3406	3406	3406	3406	3406	3406	3406	3475	3510	3546	3546	3621	3621	3659	3659	3698	3698	3698	3698	3738	3738	3698	3698	3698	3738	3738	3698	3698	3698	3698	3698	3698	3698	3698	3698	3698	3659	3659	3621	3621	3659	3659	3698	3698	3698	3698	3698	3698	3698	3698	3698	3698	3698	3698	3698	3698	3698	3698	3698	3659	3698	3659	3698	3698	3659	3659	3698	3659	3659	3659	3659	3659	3659	3659	3698	3698	3698	3698	3698	3698	3698	3698	3698	3698	3698	3698	3698	3698	3698	3659	3659	3659	3698	3698	3698	3698	3698	3659	3659	3659	3659	3659	3738	3698	3738	3738	3738	3738	3698	3698	3698	3698	3659	3659	3659	3659	3659	3659	3659	3659	3659	3659	3659	3659	3659	3659	3659	3659	3659	3659	3659	3659	3659	3621	3659	3621	3621	3659	3659	3659	3659	3659	3621	3621	3621	3621	3659	3659	3659	3659	3659	3659	3659	3659	3659	3659	3659	3659	3659	3659	3659	3659	3659	3659	3659	3659	3659	3659	3659	3659	3621	3621	3621	3621	3621	3621	3621	3659	3621	3621	3621	3621	3621	3621	3621	3621	0	0	0	0	0	0	0	0	0	0	0	0	1219	1210	1210	1206	1206	1206	1116	1116	1113	1113	1109	1105	1102	1102	1102	1098	1098	1095	1095	1088	1095	1095	1091	1095	1095	0	0	0	0	0	0	0	0	0	0	0	0	1169	1173	1177	1177	1177	1181	1189	1202	1206	1206	1214	1223	1227	1232	1240	1249	1254	1263	1268	1272	1272	1277	1277	1277	1282	1282	1287	1291	1291	1296	1301	1301	1301	1301	1301	1301	1301	1301	1301	1301	1306	1311	1311	1316	1321	1321	1321	1321	1321	1321	1321	1321	1326	1326	1326	1326	1326	1326	1326	1326	1326	0	0	0	0	0	0	0	0	0	0	0	0	0	0	0	0	0	0	0	0	0	0	0	0	0	0	0	0	0	0	0	0	0	0	0	0	0	0	0	0	0
0	0	0	0	0	0	0	0	0	0	0	0	0	2088	2088	2088	2088	2088	2088	2101	2088	2076	2076	2076	2076	2063	2063	2076	2076	2088	2088	2088	2088	2088	2076	2088	2076	2101	2101	2101	2088	2101	2101	2101	2088	2088	2088	2088	2088	2101	2101	2101	2101	2101	2101	2114	2101	2101	2101	2101	2101	2114	2101	2114	2114	2114	2114	2101	2101	2101	2114	2114	2101	2101	2088	2101	2101	2101	2088	2101	2101	2101	2101	2088	2101	2101	2101	2114	2114	2114	2114	2114	2127	2127	2127	2551	2551	2532	2532	2551	2532	2532	2532	2532	2532	2532	2532	2532	2551	2551	2551	2551	2551	2551	2551	2551	2551	2532	2551	2551	2551	2532	2532	2532	2532	2532	2514	2514	2532	2532	2532	2551	2551	2551	2551	2551	3659	3659	3659	3659	3659	3659	3659	3621	3621	3621	3621	3659	3621	3659	3659	3659	3659	3659	3659	3659	3659	3659	3659	3659	3659	3659	3621	3659	3659	3659	3659	3621	3659	3659	3659	3621	3621	3621	3621	3621	3621	3621	3621	3621	3621	3659	3659	3659	3659	3698	3698	3698	3698	3698	3698	3698	3659	3698	3698	3698	3698	3698	3698	3698	3698	3698	3698	3698	3698	3698	3698	3698	3698	3659	3659	3659	3659	3659	3659	3698	3698	3698	3698	3698	3698	3698	3698	3698	3738	3738	3738	3698	3698	3698	3698	3698	3698	3698	3698	3698	3698	3698	3698	3698	3698	3698	3698	3698	3698	3698	3698	3698	3698	3698	3698	3659	3698	3698	3698	3698	3698	3659	3659	3546	3475	3475	3440	3440	3406	3406	3406	3406	3406	3406	3406	3406	3406	3406	3406	3373	3373	3373	3373	3373	3373	3373	3373	3373	3341	3341	3341	3341	3341	3309	3309	3309	3309	3309	3309	3309	3309	3341	3373	3373	3373	3373	3373	3406	3406	3373	3373	3373	3373	3373	3440	3440	3475	3475	3546	3510	3583	3621	3659	3659	3698	3698	3738	3698	3698	3698	3698	3698	3738	3698	3698	3698	3698	3698	3698	3698	3698	3698	3659	3698	3659	3659	3659	3659	3698	3698	3698	3698	3698	3698	3698	3698	3659	3659	3698	3659	3659	3659	3698	3698	3698	3698	3659	3698	3698	3698	3698	3659	3659	3698	3659	3659	3659	3659	3659	3659	3659	3659	3698	3698	3698	3698	3698	3698	3698	3698	3698	3698	3659	3659	3659	3659	3659	3659	3659	3659	3659	3659	3659	3659	3659	3659	3621	3621	3659	3698	3698	3698	3738	3698	3738	3698	3698	3698	3698	3698	3659	3698	3698	3659	3659	3659	3659	3659	3659	3659	3659	3659	3659	3659	3659	3659	3659	3659	3659	3659	3659	3659	3659	3659	3659	3659	3659	3659	3659	3621	3621	3621	3621	3659	3659	3659	3659	3659	3659	3659	3659	3659	3659	3659	3659	3659	3659	3659	3659	3659	3659	3659	3659	3659	3659	3659	3659	3621	3621	3621	3621	3621	3621	3621	3621	3621	3621	3621	3621	3621	3621	3621	3621	0	0	0	0	0	0	0	0	0	0	0	0	0	0	0	0	1131	1120	1120	1116	1116	1113	1109	1105	1105	1105	1102	1102	1102	1102	1102	1095	1098	1098	1098	1098	1098	0	0	0	0	0	0	0	0	0	0	0	1169	1169	1173	1177	1177	1177	1181	1185	1193	1197	1202	1210	1219	1227	1232	1236	1245	1249	1259	1268	1268	1272	1277	1277	1277	1282	1282	1291	1291	1291	1296	1296	1301	1301	1301	1301	1301	1301	1301	1301	1301	1306	1311	1311	1311	1321	1321	1321	1321	1321	1321	1321	1321	1326	1326	1326	1326	1326	1326	1326	1326	1326	0	0	0	0	0	0	0	0	0	0	0	0	0	0	0	0	0	0	0	0	0	0	0	0	0	0	0	0	0	0	0	0	0	0	0	0	0	0	0	0	0
0	0	0	0	0	0	0	0	0	0	0	0	0	2088	2088	2088	2101	2101	2101	2114	2101	2101	2088	2088	2088	2088	2088	2088	2088	2101	2101	2101	2101	2101	2088	2088	2101	2114	2114	2114	2101	2101	2114	2101	2101	2101	2088	2101	2101	2101	2101	2101	2101	2101	2101	2114	2114	2101	2101	2114	2114	2114	2114	2114	2114	2114	2114	2114	2114	2114	2127	2114	2114	2101	2101	2114	2114	2101	2101	2114	2114	2114	2114	2101	2114	2114	2114	2114	2114	2114	2127	2127	2127	2140	2140	2140	2551	2532	2551	2551	2551	2551	2532	2532	2532	2532	2532	2532	2532	2551	2551	2551	2551	2551	2551	2551	2551	2532	2532	2532	2532	2532	2532	2532	2532	2532	2514	2532	2532	2551	2551	2570	2551	2570	2570	2570	2570	3659	3659	3659	3659	3659	3621	3621	3621	3621	3621	3659	3621	3659	3659	3621	3621	3659	3659	3659	3621	3659	3659	3659	3659	3621	3621	3659	3659	3659	3659	3621	3659	3659	3659	3659	3621	3621	3621	3621	3621	3621	3621	3659	3621	3659	3659	3659	3659	3659	3698	3698	3698	3698	3698	3698	3659	3698	3698	3698	3698	3698	3698	3698	3698	3698	3698	3698	3698	3698	3698	3698	3698	3659	3659	3659	3659	3659	3659	3659	3659	3698	3698	3698	3698	3698	3698	3698	3738	3738	3698	3698	3698	3698	3698	3698	3698	3698	3698	3698	3698	3698	3698	3698	3698	3698	3698	3698	3698	3698	3698	3698	3698	3698	3698	3659	3659	3659	3698	3698	3698	3475	3475	3440	3406	3406	3406	3406	3373	3373	3373	3373	3373	3373	3373	3373	3373	3373	3373	3373	3373	3373	3373	3373	3373	3373	3373	3341	3341	3341	3341	3341	3309	3309	3309	3309	3309	3309	3309	3341	3309	3309	3341	3341	3373	3373	3373	3373	3373	3373	3373	3341	3373	3373	3406	3373	3373	3406	3440	3475	3546	3621	3621	3659	3659	3698	3698	3698	3698	3698	3698	3698	3698	3698	3698	3698	3698	3698	3698	3659	3698	3698	3698	3698	3698	3659	3659	3698	3698	3698	3698	3698	3698	3698	3698	3698	3698	3698	3698	3659	3659	3698	3698	3698	3698	3698	3698	3698	3698	3698	3698	3659	3659	3659	3659	3659	3659	3659	3621	3621	3659	3659	3698	3698	3698	3698	3698	3698	3698	3659	3698	3659	3659	3659	3659	3659	3659	3659	3659	3659	3659	3659	3659	3659	3621	3659	3621	3621	3659	3698	3698	3738	3738	3738	3738	3738	3698	3698	3698	3698	3659	3659	3659	3659	3659	3659	3659	3659	3659	3659	3659	3659	3659	3659	3659	3659	3659	3659	3659	3659	3659	3659	3659	3659	3659	3659	3659	3659	3659	3621	3621	3621	3621	3659	3659	3659	3659	3659	3659	3659	3659	3659	3659	3659	3659	3659	3659	3659	3659	3659	3659	3659	3659	3659	3659	3659	3659	3621	3621	3621	3621	3621	3621	3621	3621	3621	3621	3621	3621	3621	3621	3621	3621	0	0	0	0	0	0	0	0	0	0	0	0	0	0	0	1131	1131	1127	1123	1116	1116	1113	1113	1109	1105	1105	1105	1105	1105	1105	1105	1105	1102	1102	1102	1102	1105	1113	1113	0	0	1116	1116	0	0	0	0	1169	1169	1169	1169	1173	1177	1177	1181	1185	1193	1193	1197	1206	1219	1223	1232	1236	1240	1249	1254	1263	1268	1272	1277	1277	1277	1282	1282	1287	1291	1291	1291	1291	1296	1296	1301	1301	1301	1301	1301	1301	1306	1306	1306	1311	1311	1316	1321	1321	1316	1321	1321	1321	1321	1321	1326	1321	1321	1326	1321	1326	1326	1326	0	0	0	0	0	0	0	0	0	0	0	0	0	0	0	0	0	0	0	0	0	0	0	0	0	0	0	0	0	0	0	0	0	0	0	0	0	0	0	0	0
0	0	0	0	0	0	0	0	0	0	0	0	0	2088	2088	2101	2101	2101	2114	2114	2114	2101	2101	2101	2101	2101	2101	2101	2101	2114	2114	2114	2114	2114	2101	2101	2114	2127	2127	2127	2114	2114	2127	2114	2114	2114	2101	2114	2114	2101	2114	2114	2114	2101	2114	2114	2114	2114	2114	2114	2114	2114	2114	2114	2114	2114	2114	2127	2127	2127	2127	2127	2127	2114	2114	2114	2114	2114	2101	2114	2114	2114	2114	2114	2114	2114	2114	2114	2114	2127	2127	2127	2127	2140	2140	2153	2153	2153	2551	2551	2551	2551	2532	2532	2532	2532	2532	2532	2532	2532	2532	2532	2532	2532	2532	2532	2532	2532	2532	2532	2532	2532	2532	2532	2532	2532	2532	2532	2532	2532	2532	2551	2551	2570	2570	2570	2570	3659	3621	3621	3659	3621	3621	3621	3621	3583	3621	3621	3621	3621	3621	3621	3621	3621	3621	3621	3621	3621	3659	3659	3659	3659	3659	3659	3659	3659	3659	3659	3659	3659	3659	3659	3621	3621	3621	3621	3621	3621	3621	3621	3621	3621	3621	3659	3659	3659	3698	3698	3698	3698	3698	3698	3659	3659	3698	3698	3698	3698	3698	3698	3698	3698	3698	3698	3698	3698	3698	3698	3698	3659	3659	3659	3659	3659	3659	3659	3659	3698	3659	3698	3698	3698	3698	3698	3738	3698	3698	3698	3698	3698	3698	3698	3698	3698	3698	3698	3698	3698	3698	3698	3698	3698	3698	3698	3698	3698	3698	3698	3698	3698	3698	3738	3475	3440	3406	3406	3406	3373	3373	3373	3373	3373	3373	3373	3373	3373	3373	3373	3373	3373	3373	3373	3373	3373	3373	3341	3341	3373	3373	3373	3341	3341	3341	3341	3341	3341	3341	3309	3309	3309	3309	3309	3309	3309	3309	3309	3309	3309	3341	3341	3341	3373	3341	3373	3373	3341	3341	3341	3341	3341	3373	3341	3341	3341	3406	3406	3475	3546	3583	3621	3659	3659	3698	3698	3659	3698	3698	3698	3698	3659	3659	3659	3659	3659	3659	3659	3659	3698	3659	3698	3698	3659	3659	3698	3698	3698	3698	3698	3698	3698	3698	3698	3698	3698	3698	3659	3659	3698	3698	3698	3698	3698	3698	3698	3659	3698	3659	3659	3659	3659	3659	3659	3659	3659	3659	3659	3659	3698	3698	3698	3698	3698	3698	3698	3698	3659	3659	3659	3659	3659	3659	3659	3659	3659	3621	3621	3621	3621	3621	3621	3621	3659	3621	3621	3659	3698	3698	3738	3738	3738	3738	3738	3738	3738	3698	3698	3698	3698	3698	3659	3659	3659	3659	3659	3698	3659	3659	3659	3659	3659	3659	3659	3659	3659	3659	3659	3659	3659	3659	3659	3659	3659	3659	3659	3659	3621	3621	3621	3621	3621	3659	3621	3659	3659	3659	3659	3659	3659	3659	3659	3659	3659	3659	3659	3659	3659	3659	3659	3659	3659	3659	3659	3621	3621	3621	3621	3621	3621	3621	3621	3659	3621	3621	3621	3621	3621	3621	3621	3621	0	0	0	0	0	0	0	0	0	0	0	0	0	0	0	1131	1131	1127	1120	1116	1116	1116	1113	1113	1105	1105	1109	1109	1109	1109	1113	1113	1109	1109	1113	1113	1116	1116	1116	1120	1120	1116	1116	0	0	1161	1165	1165	1165	1165	1169	1173	1177	1177	1181	1185	1189	1193	1193	1202	1214	1219	1227	1232	1236	1245	1254	1263	1263	1268	1272	1272	1277	1277	1277	1287	1287	1287	1291	1296	1296	1296	1301	1301	1301	1301	1301	1301	1306	1306	1306	1306	1311	1316	1316	1321	1316	1321	1321	1321	1321	1321	1321	1321	1321	1321	1321	1321	1321	1321	0	0	0	0	0	0	0	0	0	0	0	0	0	0	0	0	0	0	0	0	0	0	0	0	0	0	0	0	0	0	0	0	0	0	0	0	0	0	0	0	0
0	0	0	0	0	0	0	0	0	0	0	0	0	2101	2101	2101	2114	2114	2114	2114	2114	2114	2114	2114	2114	2114	2127	2127	2114	2127	2127	2127	2127	2127	2114	2114	2114	2127	2127	2127	2127	2127	2127	2127	2127	2127	2127	2127	2127	2127	2127	2127	2127	2114	2114	2127	2114	2114	2114	2114	2114	2127	2127	2127	2127	2127	2140	2153	2140	2140	2140	2140	2127	2127	2114	2114	2114	2114	2114	2114	2127	2127	2114	2114	2127	2114	2127	2114	2127	2127	2127	2127	2140	2140	2140	2153	2153	2153	2551	2551	2551	2551	2551	2551	2532	2532	2532	2514	2514	2514	2514	2514	2532	2532	2532	2532	2532	2532	2532	2532	2532	2532	2532	2532	2532	2532	2514	2532	2532	2532	2532	2551	2551	2570	2570	2570	3659	3659	3621	3621	3659	3621	3621	3621	3621	3621	3621	3621	3621	3621	3583	3583	3583	3621	3621	3621	3583	3621	3621	3659	3659	3621	3621	3659	3659	3659	3659	3659	3659	3659	3659	3659	3621	3621	3621	3621	3621	3621	3621	3659	3621	3621	3621	3659	3659	3659	3659	3698	3698	3698	3698	3698	3659	3659	3659	3659	3659	3659	3659	3698	3698	3698	3698	3698	3698	3698	3698	3698	3698	3659	3659	3659	3659	3659	3659	3659	3659	3698	3659	3698	3698	3698	3698	3698	3738	3698	3698	3698	3698	3698	3698	3698	3698	3698	3698	3698	3698	3698	3698	3698	3698	3698	3698	3698	3698	3698	3698	3698	3698	3698	3659	3440	3440	3406	3406	3373	3373	3373	3341	3341	3373	3373	3373	3373	3341	3373	3341	3341	3341	3341	3341	3341	3373	3373	3373	3341	3341	3373	3373	3341	3341	3341	3341	3309	3309	3309	3309	3309	3309	3309	3309	3309	3309	3309	3309	3309	3309	3309	3309	3341	3341	3341	3341	3341	3341	3341	3341	3341	3341	3309	3341	3341	3341	3341	3373	3373	3406	3406	3440	3510	3621	3659	3659	3698	3659	3659	3659	3659	3698	3659	3659	3659	3659	3659	3659	3659	3659	3698	3698	3698	3698	3659	3659	3698	3698	3698	3698	3698	3698	3698	3698	3698	3698	3698	3698	3659	3659	3698	3659	3659	3698	3698	3698	3698	3659	3698	3659	3659	3659	3659	3659	3659	3659	3659	3659	3659	3659	3698	3698	3659	3659	3659	3698	3698	3659	3659	3659	3659	3659	3659	3659	3659	3659	3659	3659	3659	3621	3621	3621	3659	3659	3659	3659	3659	3659	3698	3698	3698	3738	3738	3738	3738	3738	3738	3698	3698	3698	3698	3698	3698	3698	3659	3659	3659	3698	3698	3659	3659	3659	3659	3659	3659	3659	3659	3659	3659	3659	3659	3659	3659	3659	3659	3659	3659	3659	3621	3621	3621	3621	3621	3621	3621	3659	3659	3659	3659	3659	3659	3659	3659	3659	3659	3659	3659	3659	3659	3659	3659	3659	3659	3659	3659	3621	3621	3621	3621	3621	3621	3621	3621	3621	3621	3621	3621	3621	3621	3621	3621	3621	0	0	0	0	0	0	0	0	0	0	0	0	1142	1142	1134	1131	1131	1127	1120	1120	1120	1116	1116	1113	1109	1113	1113	1113	1113	1113	1113	1116	1113	1116	1116	1116	1120	1120	1120	1127	1142	1165	1165	1165	1165	1165	1165	1169	1165	1165	1169	1173	1173	1177	1177	1189	1193	1193	1193	1197	1210	1219	1227	1232	1236	1245	1254	1259	1263	1268	1272	1272	1272	1272	1277	1277	1287	1287	1287	1291	1291	1296	1296	1296	1301	1301	1301	1301	1301	1306	1306	1306	1306	1316	1311	1316	1316	1316	1321	1321	1321	1321	1321	1321	1321	1321	1321	1321	1321	1321	0	0	0	0	0	0	0	0	0	0	0	0	0	0	0	0	0	0	0	0	0	0	0	0	0	0	0	0	0	0	0	0	0	0	0	0	0	0	0	0	0
0	0	0	0	0	0	0	0	0	0	0	0	0	2114	2114	2127	2127	2114	2127	2127	2127	2127	2127	2127	2127	2127	2127	2140	2127	2140	2140	2140	2140	2127	2127	2127	2127	2127	2140	2140	2127	2127	2127	2127	2127	2127	2127	2127	2127	2127	2127	2127	2127	2127	2127	2140	2140	2127	2127	2127	2127	2127	2127	2140	2140	2153	2153	2167	2153	2153	2153	2153	2140	2127	2127	2127	2127	2127	2114	2127	2140	2140	2127	2127	2127	2127	2127	2127	2127	2127	2127	2127	2140	2140	2153	2153	2153	2167	2167	2167	2551	2551	2551	2551	2532	2532	2514	2514	2514	2514	2514	2514	2532	2532	2551	2551	2551	2532	2532	2551	2532	2532	2532	2532	2532	2532	2532	2532	2532	2532	2532	2551	2551	2570	2570	2570	3621	3659	3621	3621	3621	3621	3621	3621	3621	3621	3621	3621	3621	3621	3583	3583	3583	3583	3621	3621	3621	3621	3659	3659	3659	3621	3621	3659	3659	3659	3659	3659	3659	3659	3659	3621	3621	3621	3621	3621	3621	3621	3621	3621	3621	3621	3621	3659	3659	3659	3659	3659	3659	3659	3659	3659	3659	3659	3659	3659	3659	3659	3659	3698	3698	3698	3698	3698	3698	3698	3698	3698	3698	3698	3659	3659	3659	3659	3659	3659	3659	3659	3659	3698	3659	3698	3698	3659	3698	3698	3698	3698	3698	3698	3698	3698	3698	3698	3698	3698	3698	3698	3698	3698	3698	3698	3698	3698	3698	3698	3698	3698	3659	3659	3583	3440	3406	3406	3373	3373	3373	3341	3341	3373	3341	3341	3341	3373	3341	3341	3341	3341	3341	3341	3341	3341	3341	3373	3373	3341	3341	3373	3373	3341	3341	3341	3341	3309	3309	3309	3341	3309	3309	3309	3309	3309	3309	3309	3309	3309	3309	3309	3309	3309	3309	3341	3309	3341	3341	3341	3341	3341	3341	3341	3341	3341	3373	3341	3341	3373	3406	3406	3406	3475	3583	3621	3659	3659	3659	3659	3659	3659	3659	3659	3659	3659	3659	3659	3659	3659	3659	3698	3659	3698	3659	3659	3659	3659	3659	3698	3659	3698	3698	3698	3698	3698	3698	3698	3698	3698	3698	3698	3698	3698	3698	3698	3698	3698	3659	3659	3659	3659	3659	3659	3659	3659	3659	3659	3659	3659	3659	3698	3698	3659	3659	3659	3698	3698	3659	3659	3659	3659	3659	3659	3659	3659	3659	3659	3659	3621	3621	3621	3621	3621	3621	3659	3659	3659	3659	3698	3698	3698	3738	3738	3738	3738	3698	3738	3698	3698	3698	3698	3698	3698	3698	3659	3698	3698	3698	3659	3659	3659	3659	3659	3659	3659	3659	3659	3659	3659	3659	3659	3659	3659	3659	3659	3659	3659	3659	3621	3621	3621	3621	3621	3621	3621	3659	3659	3659	3659	3659	3659	3659	3659	3659	3621	3659	3621	3659	3659	3621	3659	3659	3621	3659	3621	3621	3621	3621	3621	3621	3621	3621	3621	3621	3621	3621	3621	3621	3621	3621	3621	3621	0	0	0	0	0	0	0	0	0	0	0	1146	1138	1131	1131	1127	1127	1127	1123	1120	1120	1116	1116	1116	1113	1113	1116	1113	1113	1116	1116	1116	1116	1120	1123	1127	1131	1131	1131	1142	1142	1161	1165	1165	1165	1165	1165	1169	1165	1169	1169	1173	1173	1177	1177	1181	1189	1189	1193	1197	1206	1214	1223	1227	1236	1240	1254	1259	1263	1263	1263	1263	1268	1272	1277	1282	1282	1287	1287	1287	1291	1296	1296	1296	1296	1301	1296	1301	1301	1306	1306	1306	1306	1311	1311	1316	1316	1316	1321	1321	1321	1321	1321	1321	1316	1321	1316	1316	1316	1321	0	0	0	0	0	0	0	0	0	0	0	0	0	0	0	0	0	0	0	0	0	0	0	0	0	0	0	0	0	0	0	0	0	0	0	0	0	0	0	0	0
0	0	0	0	0	0	0	0	0	0	0	0	0	2127	2127	2127	2140	2127	2140	2140	2140	2140	2140	2127	2127	2127	2140	2140	2140	2140	2140	2140	2140	2140	2140	2127	2127	2140	2153	2153	2153	2140	2140	2140	2140	2140	2140	2140	2140	2140	2140	2153	2140	2140	2140	2153	2153	2140	2140	2140	2140	2140	2140	2140	2153	2153	2153	2167	2167	2167	2153	2153	2153	2140	2140	2127	2140	2140	2127	2127	2153	2140	2140	2140	2140	2140	2140	2127	2127	2140	2140	2140	2153	2167	2167	2167	2167	2167	2181	2181	2181	2570	2551	2551	2532	2532	2514	2514	2514	2514	2532	2514	2532	2532	2551	2551	2532	2532	2532	2532	2532	2532	2532	2532	2532	2532	2532	2532	2532	2532	2551	2551	2570	2570	2570	2570	3621	3659	3659	3621	3621	3621	3621	3621	3621	3621	3621	3621	3621	3621	3583	3583	3583	3583	3583	3583	3583	3621	3659	3659	3659	3621	3621	3659	3659	3659	3659	3659	3659	3659	3659	3621	3621	3621	3621	3621	3621	3621	3621	3621	3621	3583	3583	3583	3621	3659	3659	3659	3659	3659	3659	3659	3659	3659	3659	3659	3659	3659	3659	3698	3698	3698	3698	3698	3698	3698	3698	3698	3698	3698	3659	3659	3659	3659	3659	3659	3659	3659	3659	3698	3698	3698	3698	3659	3698	3698	3698	3698	3698	3698	3698	3698	3698	3698	3698	3698	3698	3698	3698	3698	3698	3698	3698	3698	3698	3698	3698	3698	3659	3659	3475	3440	3406	3373	3373	3373	3373	3373	3373	3373	3373	3341	3341	3373	3341	3341	3341	3341	3341	3341	3309	3341	3341	3341	3341	3341	3341	3373	3341	3341	3309	3309	3309	3309	3309	3309	3309	3309	3309	3309	3309	3309	3309	3309	3309	3309	3309	3309	3309	3309	3309	3309	3309	3309	3341	3341	3341	3309	3309	3309	3309	3341	3341	3341	3373	3373	3373	3373	3406	3406	3510	3583	3621	3659	3621	3659	3659	3659	3659	3659	3659	3659	3659	3659	3659	3659	3659	3698	3659	3659	3659	3659	3659	3659	3659	3659	3659	3698	3698	3698	3698	3698	3698	3698	3698	3659	3659	3698	3698	3659	3659	3698	3698	3698	3659	3659	3659	3659	3659	3659	3659	3659	3659	3659	3659	3659	3659	3659	3659	3659	3659	3659	3659	3659	3659	3659	3659	3659	3659	3659	3659	3659	3659	3659	3659	3659	3659	3621	3621	3621	3621	3621	3659	3659	3659	3698	3698	3698	3698	3738	3738	3738	3738	3738	3738	3698	3698	3698	3698	3698	3698	3659	3698	3698	3698	3659	3659	3659	3659	3659	3659	3659	3659	3659	3659	3659	3659	3659	3659	3659	3659	3659	3659	3659	3659	3621	3621	3621	3621	3621	3621	3621	3621	3621	3659	3659	3659	3659	3659	3659	3621	3621	3621	3621	3659	3621	3621	3659	3659	3621	3621	3621	3621	3621	3621	3621	3621	3621	3621	3621	3621	3621	3621	3621	3621	3621	3621	3621	0	0	0	0	0	0	0	0	0	0	0	0	1146	1138	1131	1131	1127	1127	1127	1127	1123	1123	1120	1120	1116	1116	1116	1116	1116	1116	1116	1120	1123	1123	1127	1131	1134	1134	1134	1142	1142	1161	1161	1161	1161	1161	1161	1165	1165	1165	1165	1169	1173	1173	1173	1173	1177	1181	1185	1189	1197	1206	1210	1223	1227	1236	1240	1249	1254	1259	1259	1263	1263	1268	1272	1272	1277	1282	1282	1282	1282	1287	1287	1291	1291	1296	1296	1296	1301	1301	1306	1306	1306	1306	1311	1311	1311	1311	1311	1316	1316	1316	1316	1316	1316	1316	1316	1316	1316	1321	1321	0	0	0	0	0	0	0	0	0	0	0	0	0	0	0	0	0	0	0	0	0	0	0	0	0	0	0	0	0	0	0	0	0	0	0	0	0	0	0	0	0
0	0	0	0	0	0	0	0	0	0	0	0	0	2140	2140	2153	2140	2140	2140	2140	2153	2153	2140	2153	2140	2153	2153	2153	2153	2153	2140	2153	2153	2153	2140	2140	2140	2153	2167	2181	2167	2153	2153	2153	2153	2153	2153	2153	2153	2167	2167	2167	2167	2167	2153	2167	2167	2153	2153	2140	2153	2153	2153	2153	2153	2167	2167	2167	2167	2167	2167	2167	2153	2153	2153	2140	2153	2153	2140	2140	2153	2153	2153	2153	2167	2167	2167	2167	2167	2167	2167	2167	2167	2167	2167	2167	2167	2181	2181	2181	2194	2194	2570	2570	2551	2551	2532	2514	2514	2532	2532	2532	2514	2532	2551	2551	2551	2551	2532	2532	2532	2532	2532	2532	2532	2551	2551	2532	2532	2532	2551	2551	2570	2551	2551	2570	3621	3659	3621	3621	3621	3621	3621	3621	3659	3621	3621	3621	3659	3621	3583	3583	3583	3583	3621	3583	3583	3621	3659	3659	3621	3621	3621	3621	3659	3659	3621	3621	3659	3659	3621	3621	3621	3621	3621	3621	3621	3621	3621	3621	3621	3583	3621	3621	3621	3659	3659	3659	3659	3659	3659	3659	3659	3659	3659	3659	3659	3659	3659	3659	3698	3659	3698	3698	3698	3698	3698	3698	3698	3698	3659	3659	3659	3659	3659	3659	3659	3659	3659	3698	3659	3698	3698	3659	3698	3698	3698	3698	3698	3698	3698	3698	3698	3698	3698	3698	3698	3698	3698	3698	3698	3698	3698	3698	3698	3698	3698	3698	3659	3510	3440	3406	3406	3373	3373	3373	3341	3373	3373	3373	3341	3341	3341	3341	3341	3341	3341	3309	3309	3309	3309	3309	3341	3341	3341	3309	3341	3341	3341	3309	3309	3309	3309	3309	3309	3309	3309	3309	3309	3309	3309	3309	3309	3309	3309	3309	3309	3309	3309	3309	3309	3309	3309	3309	3309	3309	3309	3309	3309	3341	3341	3341	3341	3341	3373	3373	3373	3373	3373	3406	3475	3546	3621	3659	3659	3659	3659	3698	3698	3659	3659	3698	3659	3659	3659	3659	3659	3698	3698	3698	3698	3698	3659	3659	3698	3698	3698	3698	3698	3698	3698	3698	3698	3698	3698	3659	3659	3659	3659	3659	3698	3698	3698	3659	3659	3659	3659	3659	3621	3621	3621	3621	3659	3659	3659	3659	3659	3659	3659	3659	3659	3659	3659	3659	3659	3659	3659	3659	3659	3659	3659	3659	3659	3659	3659	3621	3621	3621	3621	3621	3621	3621	3659	3659	3659	3659	3698	3698	3698	3698	3698	3738	3738	3738	3738	3698	3698	3698	3698	3659	3659	3659	3659	3659	3659	3659	3659	3659	3659	3659	3659	3659	3659	3659	3659	3659	3659	3659	3659	3659	3659	3659	3659	3659	3659	3621	3621	3621	3621	3621	3621	3621	3621	3621	3621	3659	3659	3621	3659	3659	3621	3621	3621	3621	3621	3621	3621	3659	3659	3621	3621	3621	3621	3621	3583	3621	3621	3621	3621	3621	3621	3621	3621	3621	3621	3621	0	0	0	0	0	0	0	0	0	0	0	0	0	1150	1146	1138	1131	1131	1131	1131	1127	1127	1127	1123	1123	1120	1120	1120	1120	1120	1120	1120	1120	1127	1127	1134	1131	1134	1134	1134	1134	1142	1142	1161	1161	1161	1165	1161	1161	1165	1165	1165	1165	1169	1173	1177	1173	1173	1177	1181	1189	1189	1189	1202	1206	1219	1227	1232	1236	1245	1245	1259	1259	1259	1263	1268	1272	1272	1277	1277	1282	1282	1282	1282	1287	1287	1287	1291	1291	1296	1296	1301	1306	1306	1306	1301	1311	1311	1311	1311	1311	1311	1316	1316	1311	1311	1311	1311	1311	1316	1316	1321	1321	0	0	0	0	0	0	0	0	0	0	0	0	0	0	0	0	0	0	0	0	0	0	0	0	0	0	0	0	0	0	0	0	0	0	0	0	0	0	0	0	0
0	0	0	0	0	0	0	0	0	0	0	0	0	2167	2167	2167	2167	2153	2153	2153	2153	2153	2153	2153	2140	2153	2153	2153	2153	2153	2140	2153	2153	2153	2153	2140	2140	2167	2181	2181	2181	2167	2153	2153	2167	2167	2153	2167	2167	2167	2167	2167	2167	2167	2167	2167	2167	2167	2153	2153	2153	2153	2153	2153	2153	2167	2167	2167	2167	2167	2167	2167	2167	2153	2153	2153	2167	2167	2167	2167	2167	2181	2167	2181	2181	2181	2181	2181	2181	2181	2181	2167	2181	2181	2181	2181	2181	2181	2194	2194	2194	2194	2194	2649	2570	2551	2532	2532	2532	2532	2532	2532	2532	2532	2551	2551	2551	2532	2532	2532	2532	2532	2532	2532	2532	2551	2532	2532	2532	2532	2551	2551	2551	2551	2551	0	3621	3621	3621	3621	3621	3621	3621	3621	3659	3621	3621	3621	3659	3659	3583	3583	3583	3583	3583	3583	3583	3621	3659	3659	3659	3621	3621	3659	3659	3621	3621	3621	3621	3659	3621	3621	3621	3621	3621	3621	3621	3621	3621	3621	3621	3583	3621	3621	3621	3659	3659	3659	3659	3659	3659	3659	3659	3659	3659	3659	3659	3659	3659	3659	3698	3659	3659	3698	3698	3698	3698	3698	3698	3698	3659	3659	3659	3659	3659	3659	3659	3659	3659	3698	3698	3698	3698	3698	3698	3698	3698	3698	3698	3698	3698	3698	3698	3698	3698	3698	3698	3698	3698	3698	3698	3698	3698	3698	3698	3698	3698	3659	3659	3475	3440	3406	3406	3373	3373	3373	3373	3373	3373	3373	3341	3341	3341	3341	3341	3341	3341	3309	3309	3309	3309	3309	3341	3309	3309	3309	3309	3309	3309	3309	3309	3309	3309	3309	3309	3309	3309	3309	3309	3309	3309	3309	3309	3309	3309	3309	3309	3309	3309	3309	3309	3309	3309	3309	3309	3309	3309	3309	3309	3309	3341	3341	3341	3341	3373	3373	3373	3373	3373	3373	3406	3475	3546	3659	3659	3698	3659	3698	3698	3659	3659	3698	3659	3659	3659	3659	3659	3698	3698	3698	3698	3698	3659	3659	3659	3659	3659	3698	3698	3698	3698	3698	3659	3659	3659	3659	3698	3698	3698	3659	3698	3698	3659	3659	3659	3659	3659	3659	3659	3621	3621	3621	3659	3659	3659	3659	3621	3659	3659	3659	3659	3659	3659	3659	3659	3659	3659	3659	3659	3659	3659	3659	3659	3659	3659	3621	3621	3621	3621	3621	3621	3621	3659	3659	3659	3698	3698	3698	3698	3698	3698	3738	3738	3738	3698	3698	3698	3659	3659	3659	3659	3659	3659	3659	3659	3659	3659	3659	3659	3659	3659	3659	3659	3659	3659	3659	3659	3698	3659	3659	3659	3659	3659	3659	3659	3621	3621	3621	3621	3621	3621	3621	3621	3621	3621	3621	3659	3621	3659	3659	3621	3621	3621	3621	3621	3621	3621	3621	3621	3621	3621	3621	3621	3621	3583	3621	3621	3621	3621	3621	3621	3621	3621	3621	0	0	0	0	0	0	0	0	0	0	0	0	0	1153	1153	1150	1146	1138	1131	1127	1127	1131	1127	1127	1127	1127	1127	1127	1127	1123	1127	1127	1134	1138	1138	1127	1131	1134	1131	1134	1138	1138	1142	1150	1157	1161	1161	1161	1161	1161	1161	1161	1161	1161	1161	1169	1173	1173	1177	1177	1181	1177	1189	1189	1193	1197	1202	1202	1210	1223	1232	1240	1249	1254	1259	1259	1259	1263	1272	1272	1277	1277	1277	1277	1277	1282	1282	1287	1287	1287	1287	1291	1296	1301	1301	1301	1301	1301	1306	1306	1306	1306	1306	1306	1306	1306	1311	1311	1311	1311	1311	1316	1316	1321	1321	0	0	0	0	0	0	0	0	0	0	0	0	0	0	0	0	0	0	0	0	0	0	0	0	0	0	0	0	0	0	0	0	0	0	0	0	0	0	0	0	0
0	0	0	0	0	0	0	0	0	0	0	0	0	2181	2181	2181	2181	2167	2153	2153	2153	2153	2153	2153	2153	2153	2153	2153	2167	2153	2153	2153	2153	2167	2167	2153	2153	2167	2181	2181	2181	2167	2167	2167	2181	2181	2167	2181	2167	2181	2181	2181	2167	2167	2167	2181	2181	2167	2167	2167	2167	2167	2167	2167	2167	2167	2167	2181	2181	2181	2181	2181	2181	2181	2181	2181	2181	2181	2181	2167	2181	2181	2181	2181	2181	2194	2194	2194	2181	2181	2181	2181	2194	2194	2181	2181	2194	2194	2194	2194	2208	2208	2223	2237	2237	2570	2551	2532	2532	2532	2532	2532	2532	2532	2551	2551	2532	2532	2532	2532	2532	2532	2532	2532	2532	2551	2551	2532	2532	2551	2551	2551	2570	2570	2551	3659	3621	3621	3659	3659	3659	3621	3621	3659	3659	3659	3659	3659	3659	3659	3621	3583	3583	3583	3583	3583	3583	3621	3621	3659	3621	3621	3621	3621	3621	3621	3621	3621	3659	3659	3621	3621	3621	3621	3621	3621	3621	3621	3621	3621	3621	3583	3621	3621	3621	3659	3659	3659	3659	3659	3659	3659	3659	3659	3659	3659	3659	3659	3659	3659	3659	3659	3659	3659	3698	3698	3698	3698	3698	3698	3698	3659	3659	3659	3659	3659	3659	3659	3659	3659	3659	3698	3698	3698	3698	3698	3698	3698	3698	3698	3698	3698	3698	3698	3698	3698	3698	3698	3698	3698	3698	3698	3698	3698	3698	3698	3698	3659	3659	3475	3440	3406	3406	3373	3373	3373	3373	3373	3373	3373	3373	3341	3341	3341	3341	3341	3341	3309	3309	3309	3309	3309	3309	3309	3309	3309	3309	3309	3309	3309	3309	3309	3309	3309	3309	3309	3309	3309	3309	3309	3309	3309	3309	3309	3309	3309	3309	3309	3309	3309	3277	3309	3309	3309	3309	3309	3309	3309	3309	3309	3341	3341	3341	3341	3373	3373	3373	3373	3373	3373	3406	3440	3475	3621	3659	3698	3698	3698	3698	3698	3659	3698	3659	3659	3659	3659	3659	3698	3698	3659	3659	3659	3659	3659	3659	3659	3659	3698	3698	3698	3659	3659	3659	3698	3698	3659	3698	3659	3659	3659	3659	3698	3659	3659	3659	3659	3659	3659	3659	3659	3621	3659	3659	3698	3659	3659	3659	3659	3659	3659	3659	3659	3659	3659	3659	3659	3659	3659	3659	3659	3659	3659	3659	3659	3659	3621	3621	3621	3621	3621	3659	3659	3659	3659	3659	3698	3698	3698	3698	3698	3698	3698	3698	3698	3698	3698	3698	3659	3659	3659	3659	3659	3659	3659	3659	3659	3659	3659	3659	3659	3659	3659	3659	3659	3659	3659	3659	3659	3659	3659	3659	3621	3621	3621	3621	3621	3621	3621	3621	3621	3621	3621	3621	3621	3621	3621	3659	3621	3621	3621	3621	3621	3621	3621	3621	3621	3621	3621	3621	3621	3621	3621	3621	3621	3583	3583	3583	3621	3583	3583	3621	3621	3621	0	0	0	0	0	0	0	0	0	0	0	0	1161	1161	1157	1153	1150	1146	1138	1131	1127	1127	1131	1127	1127	1127	1127	1127	1127	1131	1131	1138	1138	1138	1142	1142	1138	1138	1138	1138	1142	1142	1146	1150	1153	1157	1161	1161	1161	1161	1161	1161	1161	1161	1161	1161	1169	1173	1173	1173	1177	1181	1177	1185	1189	1189	1193	1193	1202	1206	1214	1214	1236	1245	1254	1254	1259	1259	1263	1268	1272	1277	1277	1277	1277	1277	1282	1282	1282	1282	1287	1287	1291	1296	1301	1301	1301	1301	1301	1306	1306	1306	1306	1306	1306	1306	1306	1306	1306	1311	1316	1316	1316	1316	1321	1321	0	0	0	0	0	0	0	0	0	0	0	0	0	0	0	0	0	0	0	0	0	0	0	0	0	0	0	0	0	0	0	0	0	0	0	0	0	0	0	0	0
0	0	0	0	0	0	0	0	0	0	0	0	0	2194	2194	2194	2194	2194	2181	2167	2167	2167	2153	2153	2153	2153	2167	2167	2167	2167	2167	2167	2167	2167	2167	2167	2167	2194	2194	2194	2194	2181	2167	2181	2181	2181	2181	2181	2181	2181	2181	2181	2181	2181	2181	2181	2181	2181	2194	2194	2194	2181	2181	2181	2181	2181	2181	2181	2181	2181	2194	2194	2181	2181	2181	2181	2194	2181	2181	2181	2194	2194	2194	2194	2194	2208	2208	2208	2208	2194	2194	2208	2208	2208	2194	2194	2194	2208	2208	2208	2208	2223	2237	2237	2237	2237	2551	2532	2532	2532	2532	2532	2532	2551	2551	2551	2532	2532	2532	2532	2532	2532	2532	2532	2532	2551	2551	2532	2532	2551	2532	2551	2551	2551	2551	3659	3659	3621	3659	3659	3659	3621	3659	3659	3659	3659	3659	3659	3659	3659	3621	3583	3583	3583	3583	3583	3583	3621	3621	3621	3621	3621	3621	3621	3621	3621	3621	3621	3621	3621	3621	3621	3621	3621	3621	3621	3621	3621	3621	3621	3621	3621	3621	3621	3659	3659	3659	3659	3698	3659	3659	3659	3659	3659	3659	3659	3659	3659	3659	3659	3659	3659	3659	3659	3698	3698	3698	3659	3698	3698	3698	3698	3698	3659	3659	3659	3659	3659	3659	3659	3659	3698	3698	3698	3698	3698	3698	3698	3698	3698	3698	3698	3698	3698	3698	3698	3698	3698	3698	3698	3698	3698	3698	3698	3698	3698	3698	3659	3659	3475	3406	3406	3406	3373	3373	3373	3373	3341	3373	3373	3341	3341	3341	3341	3341	3309	3309	3309	3309	3309	3309	3309	3309	3309	3309	3309	3309	3309	3309	3277	3309	3309	3309	3309	3309	3309	3309	3309	3309	3309	3309	3341	3309	3309	3309	3309	3309	3309	3309	3309	3277	3277	3277	3277	3309	3309	3309	3309	3309	3309	3341	3341	3341	3341	3373	3373	3373	3373	3373	3373	3406	3406	3440	3698	3659	3698	3698	3698	3698	3698	3659	3698	3659	3659	3659	3698	3659	3659	3698	3659	3659	3659	3659	3659	3659	3659	3659	3698	3698	3659	3659	3659	3659	3698	3698	3698	3698	3659	3698	3698	3659	3659	3659	3659	3659	3659	3659	3659	3659	3659	3659	3659	3659	3698	3659	3659	3659	3659	3659	3659	3621	3659	3659	3659	3659	3659	3659	3659	3659	3659	3659	3659	3659	3659	3659	3659	3659	3659	3621	3621	3659	3621	3621	3621	3621	3659	3659	3659	3698	3698	3698	3698	3698	3698	3698	3698	3659	3659	3659	3659	3659	3659	3659	3659	3659	3659	3659	3659	3659	3659	3659	3659	3659	3659	3659	3659	3659	3659	3659	3659	3621	3621	3621	3621	3621	3621	3621	3621	3621	3621	3621	3659	3621	3621	3621	3621	3621	3621	3621	3621	3621	3621	3621	3621	3621	3621	3621	3659	3659	3621	3621	3621	3621	3621	3546	3583	3583	3583	3583	3583	0	0	0	0	0	0	0	0	0	0	0	0	0	0	1165	1161	1161	1157	1153	1150	1146	1138	1134	1127	1127	1131	1131	1127	1131	1131	1131	1131	1131	1138	1138	1142	1142	1142	1142	1138	1142	1142	1146	1146	1146	1150	1153	1157	1161	1161	1161	1161	1161	1161	1161	1161	1161	1161	1161	1165	1169	1173	1173	1173	1177	1173	1177	1177	1177	1189	1189	1193	1202	1206	1210	1236	1245	1254	1254	1259	1259	1263	1268	1272	1272	1277	1277	1277	1277	1277	1282	1282	1282	1282	1282	1287	1296	1296	1296	1296	1301	1301	1306	1306	1306	1306	1306	1301	1306	1301	1306	1306	1306	1311	1311	1311	1316	1316	1316	0	0	0	0	0	0	0	0	0	0	0	0	0	0	0	0	0	0	0	0	0	0	0	0	0	0	0	0	0	0	0	0	0	0	0	0	0	0	0	0	0
0	0	0	0	0	0	0	0	0	0	0	0	0	2194	2194	2194	2194	2194	2181	2181	2167	2167	2153	2153	2167	2167	2167	2181	2181	2167	2167	2167	2167	2167	2167	2167	2181	2194	2208	2208	2194	2194	2194	2181	2194	2194	2181	2194	2181	2194	2194	2194	2194	2194	2194	2194	2194	2194	2208	2208	2208	2194	2194	2194	2181	2194	2181	2181	2194	2208	2208	2208	2208	2208	2208	2194	2208	2194	2208	2194	2194	2208	2208	2208	2208	2208	2223	2223	2208	2208	2208	2208	2223	2208	2208	2208	2208	2208	2208	2208	2208	2223	2237	2237	2252	2252	2570	2551	2551	2551	2551	2551	2532	2551	2551	2532	2532	2532	2514	2532	2532	2514	2532	2532	2532	2532	2532	2532	2551	2551	2551	2570	2570	2551	2551	0	3621	3621	3659	3659	3659	3621	3659	3659	3659	3659	3659	3659	3659	3659	3621	3583	3583	3583	3621	3621	3621	3621	3621	3621	3621	3621	3621	3621	3621	3621	3621	3621	3659	3659	3659	3621	3659	3621	3621	3621	3621	3621	3621	3621	3621	3621	3659	3659	3659	3659	3659	3659	3698	3659	3659	3659	3659	3659	3659	3659	3659	3659	3659	3659	3659	3659	3659	3659	3698	3698	3698	3698	3698	3698	3698	3698	3698	3698	3659	3659	3659	3659	3659	3659	3659	3659	3698	3659	3659	3698	3698	3698	3698	3698	3698	3698	3698	3698	3698	3698	3698	3698	3698	3698	3698	3698	3698	3698	3698	3698	3698	3659	3510	3440	3406	3406	3406	3373	3373	3373	3373	3341	3341	3341	3341	3341	3309	3341	3341	3309	3309	3309	3309	3309	3309	3309	3309	3309	3309	3309	3309	3309	3309	3309	3309	3309	3309	3309	3309	3309	3309	3309	3309	3309	3341	3309	3309	3309	3309	3309	3309	3309	3309	3277	3277	3277	3277	3277	3277	3277	3309	3309	3309	3309	3341	3341	3341	3341	3373	3373	3373	3373	3373	3373	3406	3406	3440	3475	3621	3659	3659	3698	3698	3698	3659	3698	3698	3698	3659	3659	3659	3659	3698	3659	3659	3659	3659	3659	3659	3659	3698	3698	3698	3698	3698	3698	3698	3698	3698	3698	3698	3698	3698	3698	3659	3698	3659	3659	3659	3659	3659	3659	3659	3659	3659	3659	3659	3659	3659	3659	3621	3621	3659	3621	3621	3659	3659	3659	3659	3659	3659	3659	3659	3659	3659	3659	3659	3659	3659	3659	3659	3659	3621	3621	3621	3621	3621	3621	3621	3659	3659	3659	3659	3659	3698	3659	3698	3698	3698	3698	3659	3659	3659	3659	3659	3659	3659	3659	3659	3659	3659	3659	3659	3659	3659	3659	3659	3659	3659	3659	3659	3621	3659	3659	3621	3621	3621	3621	3621	3621	3621	3621	3621	3621	3621	3659	3621	3621	3621	3621	3621	3621	3621	3621	3621	3621	3621	3621	3621	3621	3621	3621	3621	3621	3621	3621	3621	3621	3546	3583	3583	3583	3583	0	0	0	0	0	0	0	0	0	0	0	0	0	0	0	1165	1165	1161	1157	1150	1150	1146	1142	1138	1131	1131	1131	1131	1131	1131	1134	1142	1142	1142	1142	1142	1142	1142	1142	1142	1142	1142	1142	1146	1150	1150	1153	1157	1157	1161	1161	1161	1161	1161	1161	1161	1161	1161	1161	1161	1161	1165	1169	1169	1169	1169	1169	1173	1173	1177	1177	1181	1193	1202	1202	1206	1210	1236	1245	1254	1254	1259	1263	1268	1268	1272	1272	1277	1277	1277	1277	1277	1282	1282	1282	1287	1291	1296	1296	1296	1296	1296	1296	1296	1301	1306	1306	1306	1301	1301	1301	1301	1306	1306	1311	1311	1311	1311	1321	1321	0	0	0	0	0	0	0	0	0	0	0	0	0	0	0	0	0	0	0	0	0	0	0	0	0	0	0	0	0	0	0	0	0	0	0	0	0	0	0	0	0
0	0	0	0	0	0	0	0	0	0	0	0	0	0	2194	2194	2194	2194	2181	2181	2167	2181	2167	2167	2167	2181	2181	2194	2194	2181	2181	2181	2181	2181	2167	2181	2194	2208	2208	2208	2208	2208	2223	2208	2208	2208	2194	2208	2208	2208	2208	2194	2194	2194	2194	2194	2194	2208	2208	2223	2208	2208	2208	2208	2208	2208	2194	2194	2194	2223	2208	2223	2223	2223	2223	2223	2223	2208	2223	2208	2208	2208	2223	2223	2223	2223	2223	2223	2208	2208	2208	2208	2223	2208	2208	2208	2223	2223	2223	2223	2223	2237	2237	2252	2266	2266	2266	2266	2570	2570	2570	2551	2551	2551	2532	2532	2532	2532	2514	2532	2532	2514	2514	2514	2532	2532	2532	2532	2551	2551	2551	2570	2570	2551	2551	0	3621	3621	3659	3659	3659	3659	3659	3659	3659	3659	3659	3659	3659	3659	3659	3659	3659	3621	3621	3621	3621	3621	3621	3621	3583	3621	3621	3621	3583	3621	3621	3621	3659	3659	3621	3621	3659	3621	3659	3621	3621	3621	3621	3621	3621	3621	3659	3659	3659	3659	3659	3659	3698	3659	3659	3659	3659	3659	3659	3659	3659	3659	3659	3659	3659	3659	3659	3659	3698	3698	3698	3698	3698	3698	3698	3698	3698	3698	3698	3659	3659	3659	3659	3659	3659	3659	3659	3659	3698	3698	3698	3698	3659	3698	3698	3698	3698	3698	3698	3698	3698	3698	3698	3698	3698	3698	3698	3698	3698	3698	3698	3659	3475	3440	3406	3406	3406	3373	3373	3373	3373	3341	3341	3341	3341	3309	3309	3341	3309	3309	3309	3309	3309	3309	3309	3309	3309	3309	3309	3309	3309	3309	3309	3309	3309	3277	3277	3309	3309	3309	3309	3309	3309	3309	3341	3309	3309	3309	3309	3309	3309	3309	3277	3277	3277	3277	3277	3277	3277	3277	3277	3309	3309	3309	3309	3309	3341	3341	3373	3373	3373	3373	3373	3373	3406	3406	3440	3475	3546	3621	3659	3698	3698	3698	3698	3698	3698	3659	3659	3659	3659	3659	3659	3659	3659	3659	3698	3698	3698	3698	3698	3698	3698	3698	3659	3659	3698	3698	3698	3698	3698	3698	3698	3659	3659	3659	3659	3659	3659	3659	3659	3659	3659	3659	3659	3659	3659	3698	3659	3659	3659	3659	3659	3659	3621	3659	3659	3659	3659	3659	3621	3621	3659	3659	3659	3659	3659	3659	3659	3659	3659	3659	3621	3621	3621	3621	3621	3621	3621	3659	3659	3659	3659	3659	3659	3659	3659	3659	3659	3659	3659	3659	3659	3659	3659	3659	3659	3659	3659	3659	3659	3659	3659	3659	3659	3659	3659	3659	3659	3659	3621	3621	3621	3621	3621	3621	3621	3621	3621	3621	3621	3621	3621	3621	3659	3659	3621	3621	3621	3621	3621	3621	3621	3621	3621	3621	3621	3621	3621	3621	3621	3621	3621	3621	3621	3621	3621	3621	3621	3583	3583	3583	3583	0	0	0	0	0	0	0	0	0	0	0	0	0	0	0	1161	1157	1157	1153	1150	1150	1150	1146	1142	1134	1131	1134	1142	1142	1142	1142	1146	1146	1146	1150	1146	1146	1146	1146	1146	1146	1146	1146	1153	1153	1157	1157	1161	1161	1161	1161	1161	1161	1161	1161	1161	1161	1161	1161	1161	1161	1161	1165	1165	1169	1169	1169	1173	1173	1173	1177	1181	1189	1202	1206	1206	1214	1214	1240	1249	1254	1254	1263	1263	1268	1268	1272	1272	1277	1277	1277	1277	1282	1282	1282	1282	1287	1291	1291	1291	1291	1296	1296	1301	1301	1306	1306	1306	1301	1306	1301	1306	1306	1306	1306	1311	1311	1311	1316	1316	0	0	0	0	0	0	0	0	0	0	0	0	0	0	0	0	0	0	0	0	0	0	0	0	0	0	0	0	0	0	0	0	0	0	0	0	0	0	0	0	0
