0	0	0	0	0	0	0	1268	1263	1259	1259	1259	1259	1263	1268	1272	1277	1282	1282	1282	1282	1282	1287	1291	1291	1291	1455	1455	1461	1461	1506	1506	1512	1525	1532	1532	1532	1539	1539	1546	1546	1560	1546	1553	1560	1560	1589	1589	0	0	0	0	0	0	0	0	0	0	0	0	0	0	0	0	0	0	0	1431	1437	1437	1443	1443	1443	1449	1443	1443	1443	1437	1437	1443	0	0	0	0	0	0	0	0	0	0	0	0	0	0	0	0	0	0	0	0	0	0	0	0	0	0	0	0	0	0	0	0	0	1589	1596	1603	1603	1611	1618	1626	1634	1634	1641	1641	1649	1665	1673	1673	1681	1690	1698	1715	1732	1732	1741	1741	1741	1741	1741	1750	1750	1750	1750	0	0	0	0	0	0	0	0	0	0	0	0	6349	6349	6235	6235	6235	6235	6235	6235	6235	6349	6235	6349	6349	6349	6349	6349	6349	6349	6349	6349	6349	6349	6235	6235	6235	6468	6468	6468	6468	6349	6349	6235	6235	6235	6349	6349	6349	6235	6349	6349	6235	6349	6235	6235	6235	6235	6124	6235	6235	6235	6235	6349	6349	6468	6468	6468	6468	6349	6349	6235	6235	6235	6235	6235	6235	6235	6235	6124	6124	6018	6018	6124	6124	6124	6124	6124	6124	0	6018	6018	6018	6018	6018	6018	6124	6124	6124	6018	6018	6018	6018	0	6124	6124	6018	6018	6124	6124	6124	6124	6124	6124	6124	6124	6124	6124	6124	6124	6018	6124	6124	6124	6124	6235	6235	6235	6235	6235	6124	6018	6018	6018	6018	6124	6018	6018	6235	6235	6235	6349	6349	6468	6468	6468	6468	6349	6349	6349	6349	6349	6124	6124	6018	6018	6018	6124	6124	6018	6124	6018	6124	6124	6124	6124	6018	6124	6018	6124	6018	6235	6235	6235	6124	6235	6235	6235	5815	0	0	0	0	0	0	6468	6235	6235	6235	6235	6235	6235	6124	6018	6018	6124	6124	6018	6018	6018	6124	6018	5915	5915	6124	6235	6235	6235	6235	6124	6235	6235	6235	6124	6235	6124	6124	6124	6124	6124	6124	6235	6235	6235	6349	6235	6235	6235	6124	6124	6235	6235	6235	6235	6235	6349	6349	6349	6349	6235	6349	6235	6235	6235	6235	6235	6235	6235	0	0	0	0	0	0	0	6349	6349	6349	6349	6349	6349	6349	6349	6468	6592	6592	6468	6349	6349	6349	6235	6018	6018	6018	6235	6235	6349	6349	6349	6349	6349	6349	6468	6468	6468	6468	6468	6349	6349	6349	6235	6349	6349	6349	6468	6468	6468	6592	6853	6853	6853	6853	6720	6720	6720	6592	6592	6592	6592	6592	6592	6720	6720	6720	6853	6853	6720	6720	6720	6720	6720	6592	6592	6720	6720	6720	6720	6720	6853	6853	6853	6853	6720	6853	6853	6720	6592	6468	6592	6592	6592	6592	6592	6592	6592	6592	6468	6468	6349	6349	6349	6235	6124	6124	6124	6124	6018	6018	5915	5915	5915	5915	6018	5915	5915	5719	5719	5719	5719	5626	5626	5626	5626	5626	5626	5626	5626	5535	5535	5448	5448	5448	5282	5282	5202	5202	5202	5125	5050	5050	5050	5050	5050	0	0	0	0	0	0	0	0	0	0	0	0	0	0	0	0	1443	1443	1449	1443	1437	1437	1431	1431	1437	1431	1431	1431	1431	1431	1431	1431	1431	1431	1431	1431	1431	1431	1437	1443	1437	1437	1431	1431	1431	1425	1419	1419	1419	1419	1419	1419	1419	1413	1413	1419	1419	1419	1419	1419	1413	1413	1413	0	0	0	0	0	0	0	0	0	0	0	0	0	0	0	0	0	0	0	0	0	0	0	0	0	0	0	0	0	0	0	0	0	0	0	0	0	0	0	0	0
0	0	0	0	0	0	0	1254	1254	1259	1263	1259	1259	1263	1263	1272	1277	1282	1282	1282	1282	1287	1287	1291	1301	1301	1301	1461	1461	1461	1492	1492	1506	1519	1532	1532	1539	1539	1539	1539	1546	1546	1546	1553	1553	1560	0	0	0	0	0	0	0	0	0	0	0	0	0	0	0	0	0	0	0	1437	1431	1431	1437	1443	1443	1443	1443	1443	1443	1443	1443	1443	1443	1443	0	0	0	0	0	0	0	0	0	0	0	0	0	0	0	0	0	0	0	0	0	0	0	0	0	0	0	0	0	0	0	0	0	1596	1596	1603	1603	1611	1618	1626	1634	1641	1641	1649	1657	1665	1673	1673	1681	1690	1698	1715	1732	1732	1741	1741	1741	1741	1741	1750	1750	1750	1750	0	0	0	0	0	0	0	0	0	0	0	0	0	0	6124	6124	6124	6235	6124	6235	6235	0	6235	6349	6349	6349	6349	6349	6349	6349	6235	6235	6235	6235	6235	6235	6235	0	0	6468	6468	6349	6349	6235	6235	6235	0	6349	6349	6235	6349	6235	6235	6349	6235	6235	6235	6235	6124	6124	6124	6235	6124	6124	6349	6468	6468	6468	0	6592	6468	6349	6235	6349	6235	6235	6235	6235	6235	6124	6124	6018	6018	6124	6124	6018	6018	6018	0	0	0	0	6018	6018	6018	6018	6018	6018	6018	6018	6018	6018	5915	5915	6124	6018	6018	6018	6124	6124	6235	6124	6235	6124	6235	6235	6235	6235	6235	6124	6018	6018	6124	6124	6124	6235	6235	6235	6124	6124	6124	6018	6018	0	0	0	0	0	6349	6235	6235	6468	6468	6468	6468	6468	6468	6349	6349	6349	6349	6349	6235	6124	6124	6124	6018	6124	6124	6124	6124	6124	6124	6124	6124	6124	6124	6124	6124	6124	6018	6235	6235	6235	6235	6235	6235	6235	0	0	0	0	0	0	0	6468	6235	6235	6235	6235	6124	6124	6018	6124	6468	6468	6235	6124	6018	6018	6124	6018	5915	5915	6124	6235	6235	6235	6235	6235	6349	6235	6235	6235	6235	6124	6124	6124	6124	6124	6124	6235	6235	6468	6468	6468	6235	6349	6235	6235	6235	6235	6235	6235	6235	6349	6349	6349	6349	6349	6349	6468	6468	6468	6468	6468	6349	6349	0	0	0	0	0	0	0	6468	6468	6468	6468	6468	6468	6468	6468	6468	6592	6592	6592	6592	6592	6592	6468	6468	6349	6349	6468	6468	6468	6468	6468	6468	6468	6468	6592	6592	6592	6592	6468	6349	6349	6349	6349	6349	6349	6468	6468	6592	6592	6720	6853	6853	6853	6853	6720	6720	6720	6592	6720	6592	6592	6720	6720	6720	6720	6853	6853	6853	6853	6720	6720	6720	6720	6720	6720	6720	6720	6853	6720	6720	6853	6853	6853	6853	6720	6853	6853	6720	6720	6592	6592	6592	6592	6592	6592	6592	6592	6592	6468	6468	6468	6349	6349	6235	6124	6124	6018	6018	6018	5915	5915	5915	5915	5915	5915	5815	5815	5719	5719	5719	5719	5626	5719	5626	5626	5626	5626	5626	5626	5626	5535	5448	5448	5448	5364	5282	5282	5202	5202	5125	5050	5050	5050	5050	0	0	0	0	0	0	0	0	0	0	0	0	0	0	0	0	1449	1449	1443	1443	1443	1437	1437	1437	1437	1437	1431	1437	1437	1431	1431	1431	1425	1425	1431	1431	1431	1431	1431	1437	1437	1437	1431	1431	1431	1431	1425	1419	1419	1419	1419	1419	1413	1419	1413	1413	1419	1413	1419	1419	1413	1413	1413	1413	0	0	0	0	0	0	0	0	0	0	0	0	0	0	0	0	0	0	0	0	0	0	0	0	0	0	0	0	0	0	0	0	0	0	0	0	0	0	0	0	0
0	0	0	0	0	0	0	1259	1263	1263	1263	1263	1263	1263	1268	1268	1272	1277	1282	1282	1287	1287	1296	1301	1301	1311	1311	1311	1311	1321	1321	1492	1499	1512	1525	1525	1539	1539	1539	1546	1546	1546	1546	1553	1553	1560	0	0	0	0	0	0	0	0	0	0	0	0	0	0	0	0	0	0	0	1437	1431	1425	1437	1437	1443	1443	1443	1443	1443	1449	1449	1449	1443	0	0	0	0	0	0	0	0	0	0	0	0	0	0	0	0	0	0	0	0	0	0	0	0	0	0	0	0	0	0	0	0	0	0	1596	1603	1603	1603	1611	1618	1626	1634	1641	1649	1649	1665	1665	1673	1681	1681	1690	1698	1715	1732	1732	1741	1741	1741	1741	1741	1750	1759	1759	0	0	0	0	0	0	0	0	0	0	0	0	0	0	0	6124	6124	6124	6235	6124	6235	6235	0	0	0	0	6349	6235	6235	6349	6235	6235	6235	6235	6235	6235	6235	0	0	0	0	0	0	0	0	0	0	0	0	0	0	0	6235	6235	6349	6235	6235	6235	0	6124	6124	6124	6235	6124	6124	0	0	0	0	0	6592	6468	6468	6349	6349	6349	6235	6235	6349	6235	6235	6235	6349	6124	6235	6235	6235	6235	6018	0	0	0	0	0	6018	6018	6349	6235	6124	6018	6018	6018	5915	5915	5915	5915	6124	6018	6018	6018	6235	6235	6235	6235	6235	6349	6235	6349	6349	6235	6124	6124	6124	6124	6124	6124	6124	6235	6235	6124	6124	6018	6018	6018	0	0	0	0	0	6235	6235	6235	6349	6468	6468	6468	6468	6468	6468	6349	6349	6349	6349	6235	6235	6124	6124	6235	6124	6235	6235	6235	6235	6235	6124	6235	6235	6235	6124	6124	6124	6018	6235	6235	6349	6235	6468	6468	6468	0	0	0	0	0	0	0	6468	6349	6235	6349	6235	6235	6468	6468	6468	6468	6468	6468	6349	6235	6235	6349	6235	6124	6018	6124	6349	6468	6349	6349	6349	6468	6349	6349	6349	6235	6235	6124	6124	6235	6124	6124	6124	6235	6468	6468	6468	6468	6349	6235	6235	6235	6349	6349	6349	6349	6468	6468	6592	6592	6720	6592	6592	6592	6592	6592	6592	6468	6592	6592	0	0	0	0	0	6592	6592	6592	6592	6592	6592	6592	6592	6592	6592	6592	6592	6592	6592	6592	6592	6592	6592	6592	6592	6592	6592	6468	6468	6468	6592	6592	6592	6592	6592	6468	6468	6468	6468	6349	6349	6349	6349	6468	6468	6468	6592	6592	6592	6720	6720	6720	6720	6720	6592	6720	6592	6720	6720	6720	6720	6720	6720	6853	6853	6853	6853	6853	6853	6853	6720	6720	6720	6720	6720	6853	6853	6853	6853	6853	6853	6853	6853	6853	6853	6853	6853	6720	6592	6720	6720	6720	6592	6592	6592	6592	6592	6468	6468	6349	6349	6349	6235	6124	6124	6018	6018	6018	5915	5915	5915	5915	5815	5915	5815	5815	5719	5719	5719	5719	5719	5719	5626	5626	5626	5626	5626	5626	5626	5448	5448	5448	5448	5282	5282	5282	5202	5202	5202	5125	5125	5050	5050	0	0	0	0	0	0	0	0	0	0	1480	1480	1473	1473	1473	1461	1455	1449	1443	1443	1443	1437	1437	1437	1437	1437	1437	1437	1437	1431	1431	1431	1425	1425	1431	1431	1431	1431	1437	1437	1437	1437	1431	1431	1425	1431	1425	1419	1419	1419	1419	1419	1419	1419	1419	1419	1419	1413	1419	1419	1413	1413	1413	1413	0	0	0	0	0	0	0	0	0	0	0	0	0	0	0	0	0	0	0	0	0	0	0	0	0	0	0	0	0	0	0	0	0	0	0	0	0	0	0	0	0
0	0	0	0	0	0	0	1287	1277	1272	1272	1272	1268	1272	1272	1277	1282	1282	1287	1287	1287	1296	1301	1306	1306	1316	1316	1316	1316	1321	1321	1321	1499	1512	1512	1525	1539	1539	1532	1532	1532	1539	1539	1539	1553	0	0	0	0	0	0	0	0	0	0	0	0	0	0	0	0	0	0	0	0	1443	1431	1425	1431	1431	1443	1443	1443	1443	1443	1449	1449	1449	0	0	0	0	0	0	0	0	0	0	0	0	0	0	0	0	0	0	0	0	0	0	0	0	0	0	0	0	0	0	0	0	0	0	0	1603	1603	1603	1611	1611	1618	1634	1634	1641	1641	1649	1649	1665	1673	1673	1690	1690	1698	1706	1723	1732	1741	1741	1750	1750	1750	1768	1777	1786	1786	0	0	0	0	0	0	0	0	0	0	0	0	0	0	0	0	0	0	0	0	0	0	0	0	0	0	6349	6349	6349	6235	6235	6235	6235	6124	6124	6124	0	0	0	0	0	0	0	0	0	0	0	0	0	0	0	0	0	0	0	0	0	0	0	0	0	0	0	0	0	0	0	0	0	6592	6468	6468	6349	6349	6349	6349	6349	6349	6349	6349	6235	6349	6124	6349	6235	6235	6235	0	0	0	0	0	0	0	6018	6349	6349	6018	6018	6018	6018	5915	6018	6018	5915	6124	6124	6124	6235	6235	6235	6235	6235	6349	6349	6349	6349	6349	6235	6124	6018	6018	6124	6124	6124	6124	6235	6235	6124	6235	6235	6018	0	0	0	0	0	0	6468	6349	6349	6349	6468	6468	6468	6592	6468	6468	6349	6349	6349	6349	6349	6468	6468	6349	6349	6349	6349	6349	6235	6235	6349	6468	6235	6235	6235	6235	6124	6124	6124	6349	6349	6468	6592	6592	6468	6592	6349	6349	0	6592	6592	6592	6468	6468	6468	6468	6468	6468	6468	6592	6592	6592	6592	6592	6468	6468	6468	6468	6468	6468	6349	6349	6468	6468	6468	6468	6468	6468	6468	6468	6468	6468	6468	6235	6124	6124	6235	6235	6235	6235	6235	6468	6468	6468	6468	6468	6468	6349	6349	6349	6349	6349	6468	6720	6720	6720	6720	6720	6720	6720	6720	6720	6720	6720	6592	6720	6592	6592	0	0	0	0	6592	6592	6592	6592	6592	6592	6592	6592	6592	6592	6592	6592	6592	6592	6592	6592	6592	6592	6592	6592	6720	6592	6592	6592	6592	6592	6592	6592	6592	6592	6468	6468	6349	6349	6349	6349	6349	6349	6468	6468	6468	6592	6592	6592	6720	6720	6720	6720	6720	6592	6720	6592	6720	6592	6720	6720	6720	6720	6853	6853	6853	6853	6853	6853	6853	6720	6720	6720	6720	6720	6853	6853	6853	6853	6853	6853	6853	6853	6853	6853	6853	6853	6720	6720	6720	6720	6720	6592	6468	6468	6468	6592	6468	6349	6349	6349	6349	6235	6235	6124	6124	6124	6018	6018	5915	5915	5915	5815	5915	5815	5815	5815	5719	5719	5719	5626	5626	5626	5626	5626	5626	5626	5626	5626	5448	5448	5364	5364	5364	5282	5282	5282	5282	5202	5125	5125	5125	5125	0	0	0	0	0	0	0	0	0	0	1480	1473	1473	1467	1461	1455	1455	1443	1443	1443	1443	1437	1437	1437	1437	1443	1437	1437	1437	1431	1425	1425	1425	1425	1425	1431	1431	1431	1437	1437	1437	1437	1431	1425	1419	1425	1419	1419	1413	1413	1413	1419	1413	1413	1413	1419	1419	1413	1419	1413	1413	1413	1413	1413	0	0	0	0	0	0	0	0	0	0	0	0	0	0	0	0	0	0	0	0	0	0	0	0	0	0	0	0	0	0	0	0	0	0	0	0	0	0	0	0	0
0	0	0	0	0	0	0	1291	1282	1282	1282	1282	1282	1287	1287	1287	1287	1287	1287	1287	1287	1296	1296	1301	1301	1316	1321	1316	1316	1321	1321	1321	1321	1512	1532	1532	1532	1539	1532	1532	1532	1539	1539	1539	0	0	0	0	0	0	0	0	0	0	0	0	0	0	0	0	0	0	0	0	0	1437	1437	1431	1437	1437	1437	1443	1443	1443	1443	0	0	0	0	0	0	0	0	0	0	0	0	0	0	0	0	0	0	0	0	0	0	0	0	0	0	0	0	0	0	0	0	0	0	0	0	0	0	1596	1603	1603	1603	1603	1618	1634	1641	1649	1641	1649	1665	1665	1673	1681	1690	1690	1698	1706	1715	1732	1741	1741	1750	1750	1759	1777	1786	1804	1814	1814	0	0	0	0	0	0	0	0	0	0	0	0	0	0	0	0	0	0	0	0	0	0	0	0	0	6349	6349	6349	6349	6235	6235	6124	6124	6124	6124	6124	0	0	0	0	0	0	0	0	0	0	0	0	0	0	0	0	0	0	0	0	0	0	0	0	0	0	0	0	0	0	0	0	6592	6592	6468	6468	6349	6349	6349	6349	0	6349	6349	0	0	0	6349	6235	6235	6235	6235	6235	0	0	0	0	0	0	6349	6349	6124	6124	6124	6018	6018	6018	6018	6018	6468	6468	6349	6349	6349	6349	6349	6349	6349	6349	6349	6349	6349	6349	6124	6124	6468	6592	6468	6468	6468	6468	6468	6468	6468	6468	0	0	0	0	0	0	0	6468	6468	6468	6468	6468	6468	6468	6468	6468	6468	6468	6468	6468	6468	6468	6468	6468	6468	6592	6592	6592	6468	6468	6468	6468	6468	6468	6349	6349	6349	6349	6349	6349	6468	6592	6592	6592	6592	6592	6720	6592	6592	6592	6592	6592	6592	6592	6592	6592	6592	6592	6592	6592	6592	6592	6592	6592	6592	6592	6592	6592	6592	6592	6592	6468	6592	6720	6592	6592	6592	6468	6468	6592	6592	6592	6468	6468	0	0	0	6235	6235	6235	6235	6235	6468	6468	6592	6592	6468	6592	6468	6468	6468	6468	6468	6468	6720	6720	6720	6720	6720	6720	6720	6720	6720	6720	6720	6592	6720	6720	6720	0	0	0	6468	6592	6720	6720	6592	6592	6592	6592	6592	6592	6592	6592	6592	6592	6592	6592	6592	6592	6592	6592	6592	6592	6720	6592	6592	6592	6592	6592	6468	6468	6468	6468	6468	6349	6349	6349	6349	6349	6349	6468	6468	6468	6592	6592	6592	6853	6720	6720	6720	6720	6720	6720	6720	6720	6720	6720	6720	6720	6720	6853	6853	6853	6853	6853	6853	6853	6720	6720	6720	6720	6720	6720	6720	6720	6853	6853	6853	6853	6853	6853	6853	6853	6853	6720	6720	6720	6720	6720	6720	6592	6592	6468	6468	6468	6349	6349	6349	6349	6349	6235	6235	6124	6124	6124	6018	6018	5915	5915	5915	5915	5915	5915	5915	5719	5719	5719	5626	5626	5626	5626	5626	5626	5626	5626	5626	5448	5448	5364	5364	5364	5364	5282	5282	5282	5202	5125	5125	5125	5125	0	0	0	0	0	0	0	0	0	1480	1473	1467	1461	1461	1461	1449	1449	1443	1443	1443	1443	1437	1437	1437	1443	1443	1437	1443	1437	1437	1431	1431	1425	1425	1431	1431	1431	1431	1437	1437	1437	1437	1425	1425	1419	1419	1419	1419	1419	1419	1419	1419	1413	1413	1413	1413	1419	1413	1413	1413	1413	1413	1413	1413	0	0	0	0	0	0	0	0	0	0	0	0	0	0	0	0	0	0	0	0	0	0	0	0	0	0	0	0	0	0	0	0	0	0	0	0	0	0	0	0	0
0	0	0	0	0	0	0	1291	1287	1287	1282	1287	1287	1291	1287	1291	1291	1291	1291	1291	1296	1301	1306	1306	1311	1321	1321	1321	1321	1321	1321	1321	1321	0	1539	1539	1539	1539	1532	1532	1532	1532	1539	0	0	0	0	0	0	0	0	0	0	0	0	0	0	0	0	0	0	0	0	0	0	1437	1437	1419	1425	1425	1443	1443	1443	1443	0	0	0	0	0	0	0	0	0	0	0	0	0	0	0	0	0	0	0	0	0	0	0	0	0	0	0	0	0	0	0	0	0	0	0	0	0	0	0	1596	1603	1603	1611	1603	1618	1634	1641	1649	1657	1665	1673	1665	1673	1681	1690	1698	1698	1706	1715	1723	1732	1741	1750	1750	1750	1768	1795	1814	1814	1814	0	0	0	0	0	0	0	0	0	0	0	0	0	0	0	0	0	0	0	0	0	0	0	0	0	0	0	6349	6349	6349	6235	6235	6235	6235	6235	6468	6468	6468	6468	6468	6349	6349	0	0	6468	6468	6468	0	0	0	0	0	0	0	0	0	0	0	0	0	0	0	0	0	0	0	0	0	0	6592	6468	6468	6468	6468	6468	6349	0	0	0	0	0	0	6349	6349	6235	6235	6349	6349	0	0	0	0	0	0	0	0	6349	6124	6018	6018	6018	6124	6124	6124	6468	6468	6468	6468	6720	6468	6468	6468	6468	6468	6468	6468	6468	6468	6349	6349	6468	6592	6592	6592	6592	6592	6592	6592	6592	6592	6592	0	0	0	0	0	0	6592	6468	6468	6468	6468	6468	6468	6592	6468	6468	6468	6592	6468	6592	6592	6592	6592	6592	6592	6720	6853	6592	6592	6592	6592	6592	6468	6468	6468	6468	6468	6468	6468	6468	6592	6592	6592	6592	6592	6592	6592	6592	6592	6592	6592	6592	6592	6592	6592	6592	6592	6592	6592	6592	6592	6592	6592	6592	6592	6592	6592	6592	6592	6592	6592	6592	6720	6720	6592	6592	6592	6592	6592	6468	6468	0	0	0	0	0	6235	6235	6235	6235	0	6468	6468	6592	6592	0	6592	6468	6468	6592	6592	6468	6468	6720	6720	6720	6720	6720	6720	6720	6720	6720	6720	6720	6720	6720	6720	6720	6720	6720	6720	6720	6720	6720	6720	6720	6592	6720	6720	6720	6592	6592	6592	6592	6592	6592	6592	6592	6592	6592	6592	6468	6592	6592	6592	6592	6592	6592	6592	6592	6592	6468	6468	6468	6468	6349	6349	6349	6349	6349	6349	6468	6592	6720	6592	6592	6720	6720	6720	6720	6720	6720	6720	6720	6720	6720	6720	6720	6720	6720	6853	6853	6720	6720	6720	6720	6720	6720	6592	6720	6720	6720	6720	6720	6720	6720	6720	6720	6853	6853	6853	6853	6720	6720	6720	6720	6720	6720	6720	6720	6592	6592	6592	6468	6468	6468	6468	6349	6349	6235	6235	6124	6124	6124	6018	6018	6018	5915	5915	5915	6018	5915	5915	5915	5719	5719	5719	5626	5626	5626	5626	5626	5626	5626	5626	5626	5448	5448	5364	5364	5364	5364	5282	5282	5282	5202	5202	5125	5125	0	0	0	0	0	0	0	0	0	0	1473	1467	1461	1455	1455	1455	1443	1437	1437	1443	1443	1443	1443	1443	1443	1449	1449	1443	1449	1443	1437	1437	1431	1431	1425	1431	1431	1431	1431	1431	1437	1437	1437	1431	1425	1425	1425	1425	1419	1419	1419	1419	1419	1413	1419	1413	1413	1419	1413	1419	1413	1413	1413	1413	1413	0	0	0	0	0	0	0	0	0	0	0	0	0	0	0	0	0	0	0	0	0	0	0	0	0	0	0	0	0	0	0	0	0	0	0	0	0	0	0	0	0
0	0	0	0	0	0	0	1301	1296	1296	1291	1291	1291	1296	1296	1296	1296	1296	1296	1296	1301	1301	1306	1311	1316	1321	1321	1321	1321	1321	1321	1321	1321	1321	1539	1546	1553	1539	1539	1539	1532	1532	0	0	0	0	0	0	0	0	0	0	0	0	0	0	0	0	0	0	0	0	0	0	0	1437	1437	1425	1425	1443	1443	1443	1443	1443	0	0	0	0	0	0	0	0	0	0	0	0	0	0	0	0	0	0	0	0	0	0	0	0	0	0	0	0	0	0	0	0	0	0	0	0	0	0	0	0	1603	1603	1603	1603	1618	1634	1641	1657	1665	1665	1673	1673	1673	1681	1690	1690	1698	1706	1715	1715	1732	1732	1741	1732	1732	1741	1741	1824	1843	1843	1843	1853	1853	1853	1853	0	0	0	0	0	0	0	0	0	0	0	0	0	0	0	0	0	0	0	0	0	0	0	6349	6349	6235	6235	6235	6235	6349	6349	6468	6468	6592	6468	6592	6592	6720	6720	6592	6592	6468	6468	0	0	0	0	0	0	0	0	0	0	0	0	0	0	0	0	0	0	0	0	6720	6720	6592	6592	6592	6592	6592	0	0	0	0	0	0	0	0	6349	6235	6235	6349	6349	0	0	0	0	0	0	0	0	6349	6349	6349	6349	6468	6349	6349	6468	6468	6468	6468	6468	6720	6592	6592	6592	6592	6592	6592	6592	6592	6592	6720	6720	6720	6720	6592	6592	6592	6592	6592	6592	6592	6720	6720	6853	6853	0	0	0	0	6592	6592	6468	6468	6468	6468	6592	6592	6592	6592	6592	6592	6592	6592	6592	6592	6592	6720	6720	6720	6592	6592	6592	6592	6592	6592	6592	6592	6592	6592	6592	6592	6468	6468	6592	6592	6592	6592	6592	6592	6592	6592	6720	6592	6592	6720	6720	6592	6720	6592	6592	6592	6592	6592	6592	6592	6592	6592	6592	6592	6592	6592	6592	6592	6592	6592	6592	6592	6592	6592	6592	6592	6592	6468	6468	0	0	0	0	0	0	0	0	0	0	0	0	0	0	0	6592	6592	6592	6592	6592	6592	6468	6720	6720	6720	6720	6720	6720	6720	6720	6720	6720	6720	6720	6720	6720	6720	6720	6720	6720	6720	6720	6720	6720	6720	6720	6720	6720	6720	6720	6720	6592	6592	6592	6592	6592	6592	6592	6592	6592	6468	6592	6592	6592	6592	6592	6468	6592	6592	6468	6468	6468	6468	6468	6468	6349	6349	6349	6468	6468	6468	6592	6720	6592	6592	6720	6720	6720	6720	6720	6720	6720	6720	6720	6720	6720	6720	6720	6720	6720	6853	6720	6720	6720	6720	6720	6720	6592	6592	6592	6720	6720	6720	6720	6720	6720	6720	6853	6853	6853	6853	6853	6720	6720	6720	6720	6720	6720	6720	6592	6468	6592	6592	6468	6468	6468	6349	6349	6235	6235	6124	6124	6124	6018	6018	6018	5915	5915	5915	5915	5915	5915	5815	5719	5719	5719	5719	5626	5626	5626	5626	5626	5626	5535	5535	5448	5448	5364	5364	5364	5364	5282	5282	5202	5202	5202	5125	5125	0	0	0	0	0	0	0	0	0	1467	1467	1467	1461	1455	1455	1449	1437	1437	1437	1443	1437	1443	1443	1443	1443	1449	1449	1443	1455	1443	1443	1437	1431	1431	1425	1431	1431	1431	1431	1437	1437	1437	1437	1431	1425	1425	1425	1419	1419	1419	1419	1419	1419	1413	1413	1413	1413	1419	1413	1419	1413	1413	1413	1413	1413	0	0	0	0	0	0	0	0	0	0	0	0	0	0	0	0	0	0	0	0	0	0	0	0	0	0	0	0	0	0	0	0	0	0	0	0	0	0	0	0	0
0	0	0	0	0	0	0	1306	1301	1296	1296	1296	1296	1301	1301	1301	1301	1306	1306	1311	1311	1311	1316	1316	1321	1326	1326	1326	1326	1326	1326	1321	1321	1326	1326	1326	1326	1539	1539	1539	0	0	0	0	0	0	0	0	0	0	0	0	0	0	0	0	0	0	0	0	0	0	0	0	0	1437	1437	1437	1443	1443	1449	1449	1443	1437	1437	0	0	0	0	0	0	0	0	0	0	0	0	0	0	0	0	0	0	0	0	0	0	0	0	0	0	0	0	0	0	0	0	0	0	0	0	0	0	0	0	1603	1611	1611	1618	1634	1641	1649	1657	1665	1673	1673	1673	1690	1690	1698	1698	1706	1706	1715	1723	1723	1723	1723	1723	1732	1732	1814	1843	1843	1853	1853	1863	1863	1863	0	0	0	0	0	0	0	0	0	0	0	0	0	0	0	0	0	0	0	0	0	0	0	6349	6349	6235	6235	6349	6349	6349	6349	6592	6592	6720	6592	6592	6720	6592	6592	6720	6592	6592	6592	0	0	0	0	0	0	0	0	0	0	0	0	0	0	0	0	0	0	0	6853	6853	6853	6720	6720	6720	6720	6720	6720	0	0	0	0	0	0	0	0	0	0	6349	6349	0	0	0	0	0	0	0	0	0	6349	6349	6349	6468	6468	6468	6468	6592	6592	6720	6720	6720	6720	6720	6720	6720	6720	6720	6720	6720	6720	6720	6720	6720	6720	6720	6592	6720	6720	6720	6720	6720	6720	6720	6853	6720	6853	6853	6720	6720	6720	6592	6592	6592	6592	6592	6592	6592	6592	6592	6592	6592	6592	6592	6592	6720	6592	6720	6720	6720	6720	6592	6592	6592	6592	6592	6592	6592	6592	6592	6592	6592	6592	6592	6592	6720	6720	6720	6592	6592	6592	6720	6720	6592	6592	6592	6720	6592	6720	6592	6592	6592	6592	6592	6592	6592	6592	6592	6592	6592	6592	6592	6592	6592	6592	6592	6720	6720	6592	6592	6592	6592	6592	6592	6468	0	0	0	0	0	0	0	0	0	0	0	0	0	0	0	0	6592	6592	6592	6592	6592	6592	6720	6720	6720	6720	6720	6720	6720	6720	6720	6720	6720	6720	6720	6720	6720	6853	6853	6720	6720	6720	6720	6720	6720	6720	6592	6592	6592	6592	6592	6592	6468	6468	6468	6592	6592	6592	6592	6592	6592	6592	6592	6592	6592	6592	6468	6468	6468	6468	6468	6468	6468	6592	6468	6349	6468	6468	6468	6468	6468	6592	6720	6592	6592	6720	6720	6720	6720	6720	6592	6720	6720	6720	6720	6720	6853	6853	6853	6720	6853	6720	6720	6720	6720	6720	6592	6592	6592	6592	6720	6720	6720	6720	6720	6720	6720	6853	6853	6853	6853	6853	6720	6720	6720	6720	6720	6720	6720	6720	6720	6592	6592	6468	6468	6468	6468	6349	6235	6235	6124	6124	6124	6018	6018	6018	5915	5915	5915	6018	5915	5915	5815	5815	5815	5719	5719	5626	5626	5626	5626	5626	5626	5626	5535	5448	5448	5364	5364	5364	5282	5282	5282	5202	5202	5125	5125	5125	0	0	0	0	0	0	0	0	0	1467	1467	1461	1455	1455	1449	1443	1437	1437	1437	1437	1437	1443	1443	1443	1443	1449	1449	1443	1455	1443	1443	1437	1431	1431	1431	1431	1437	1437	1437	1437	1437	1437	1437	1431	1425	1419	1419	1419	1419	1419	1413	1413	1419	1413	1413	1413	1413	1413	1413	1413	1413	1413	1413	1413	1413	0	0	0	0	0	0	0	0	0	0	0	0	0	0	0	0	0	0	0	0	0	0	0	0	0	0	0	0	0	0	0	0	0	0	0	0	0	0	0	0	0
0	0	0	0	0	0	0	1306	1301	1301	1301	1301	1301	1306	1306	1306	1306	1311	1311	1316	1316	1316	1321	1321	1326	1326	1326	1326	1326	1326	1326	1326	1321	1331	1336	1336	1336	0	0	0	0	0	0	0	0	0	0	0	0	0	0	0	0	0	0	0	0	0	0	0	0	0	0	0	0	0	1443	1443	1443	1443	1443	1443	1437	1437	1437	0	0	0	0	0	0	0	0	0	0	0	0	0	0	0	0	0	0	0	0	0	0	0	0	0	0	0	0	0	0	0	0	0	0	0	0	0	0	0	0	1603	1611	1611	1626	1641	1641	1649	1657	1665	1673	1673	1681	1690	1698	1698	1706	1706	1706	1706	1715	1715	1723	1723	1732	1795	1804	1814	1814	1843	1843	1853	1863	1863	1863	0	0	0	0	0	0	0	0	0	0	0	0	0	0	0	0	0	0	0	0	0	0	0	6349	6468	6349	6468	6468	6468	6468	6468	6720	6720	6853	6720	6720	6720	6720	6592	6720	6720	6720	6720	6853	6853	0	0	0	0	0	0	0	0	0	0	0	0	0	0	0	0	6992	6853	6853	6853	6853	6853	6853	6720	6720	6720	0	0	0	0	0	0	0	0	0	0	0	0	0	0	0	0	0	0	0	0	0	6349	6349	6349	6720	6720	6592	6592	6720	6720	6592	6720	6720	6720	6720	6720	6720	6720	6720	6720	6853	6853	6853	6720	6720	6720	6720	6592	6720	6592	6720	6592	6720	6720	6720	6720	6720	6720	6720	6720	6720	6720	6592	6592	6592	6592	6592	6592	6592	6592	6592	6592	6720	6592	6720	6720	6720	6720	6720	6720	6720	6720	6592	6592	6592	6592	6592	6592	6592	6592	6592	6592	6592	6592	6592	6720	6720	6720	6720	6720	6592	6592	6592	6592	6592	6592	6592	6720	6720	6720	6720	6720	6720	6720	6592	6592	6592	6592	6592	6592	6592	6592	6592	6592	6592	6592	6592	6720	6720	6592	6592	6592	6592	6592	6592	0	0	0	0	0	0	0	0	0	0	0	0	0	0	0	0	0	6592	6592	6592	6592	6592	6592	6720	6720	6592	6720	6720	6720	6720	6720	6720	6720	6720	6592	6720	6720	6592	6720	6720	6720	6592	6720	6592	6720	6720	6720	6592	6592	6592	6592	6592	6592	6592	6592	6468	6468	6468	6468	6592	6592	6592	6592	6720	6592	6592	6592	6468	6468	6468	6468	6468	6468	6468	6468	6468	6349	6468	6468	6468	6468	6468	6592	6592	6592	6592	6720	6720	6720	6592	6592	6592	6592	6592	6592	6720	6720	6720	6720	6720	6720	6853	6720	6720	6720	6720	6720	6720	6592	6720	6720	6720	6720	6720	6720	6720	6853	6720	6853	6853	6853	6720	6853	6853	6853	6720	6720	6720	6853	6720	6720	6720	6592	6592	6468	6468	6468	6468	6468	6349	6349	6235	6124	6124	6018	6018	6018	5915	5915	5815	5915	5915	5815	5815	5719	5719	5719	5719	5626	5626	5626	5719	5626	5626	5626	5535	5448	5448	5364	5364	5282	5282	5282	5282	5202	5202	5125	5125	5125	0	0	0	0	0	0	0	0	0	1461	1467	1461	1455	1449	1449	1443	1437	1437	1437	1437	1437	1443	1443	1443	1443	1449	1449	1443	1449	1443	1443	1437	1431	1431	1431	1437	1437	1437	1437	1437	1437	1437	1437	1431	1425	1425	1425	1425	1419	1419	1419	1419	1419	1413	1413	1413	1413	1413	1413	1413	1413	1413	1413	1413	1413	0	0	0	0	0	0	0	0	0	0	0	0	0	0	0	0	0	0	0	0	0	0	0	0	0	0	0	0	0	0	0	0	0	0	0	0	0	0	0	0	0
0	0	0	0	0	0	0	1306	1301	1301	1301	1306	1306	1306	1306	1311	1311	1316	1316	1321	1321	1321	1326	1326	1326	1326	1326	1326	1326	1326	1326	1326	1326	1326	1342	1342	1342	1342	0	0	0	0	0	0	0	0	0	0	0	0	0	0	0	0	0	0	0	0	0	0	0	0	0	0	0	0	1443	1443	1443	1443	1443	1437	1437	1437	1437	1437	0	0	0	0	0	0	0	0	0	0	0	0	0	0	0	0	0	0	0	0	0	0	0	0	0	0	0	0	0	0	0	0	0	0	0	0	0	0	0	0	1618	1618	1634	1641	1641	1641	1649	1649	1665	1665	1673	1690	1698	1698	1698	1698	1706	1706	1715	1715	1715	1715	1795	1795	1804	1814	1814	1814	1824	1833	1833	1863	0	0	0	0	0	0	0	0	0	0	0	0	0	0	0	0	0	0	0	0	0	0	0	0	0	6468	6468	6468	6468	6468	6468	6468	6720	6720	6853	6720	6720	6853	6720	6720	6853	6853	6853	6853	6853	6853	6853	0	0	0	0	0	0	0	0	0	0	0	0	0	0	0	6992	6853	6992	6992	6853	6853	6853	6720	6720	6720	0	0	0	0	0	0	0	0	0	0	0	0	0	0	0	0	0	0	0	0	0	0	0	0	6853	6853	6720	6720	6720	6853	6853	6720	6853	6853	6853	6853	6853	6853	6720	6720	6720	6720	6720	6720	6720	6720	6720	6592	6592	6592	6592	6592	6592	6720	6592	6720	6720	6720	6720	6592	6592	6592	6592	6592	6592	6592	6592	6592	6592	6592	6592	6592	6720	6592	6592	6720	6720	6720	6720	6720	6592	6720	6592	6592	6592	6592	6592	6592	6592	6592	6592	6592	6592	6592	6592	6720	6720	6720	6720	6592	6592	6592	6592	6592	6592	6592	6720	6720	6720	6720	6720	6720	6720	6720	6592	6592	6720	6592	6720	6720	6592	6720	6720	6720	6720	6592	6720	6720	6720	6720	6592	6592	6720	6720	6720	0	0	0	0	0	0	0	0	0	0	0	0	0	0	0	6592	6592	6592	6592	6592	6592	6720	6592	6720	6720	6592	6720	6720	6720	6720	6720	6720	6720	6720	6592	6720	6720	6592	6592	6592	6592	6592	6592	6592	6592	6592	6592	6592	6592	6592	6592	6592	6592	6468	6592	6468	6468	6468	6468	6592	6592	6592	6592	6592	6592	6592	6592	6349	6468	6349	6349	6349	6468	6468	6592	6468	6468	6468	6592	6592	6468	6468	6592	6592	6468	6468	6592	6592	6592	6720	6720	6720	6720	6720	6592	6720	6720	6720	6720	6720	6720	6720	6720	6720	6720	6720	6720	6720	6592	6592	6592	6720	6720	6720	6720	6720	6853	6720	6853	6853	6853	6853	6853	6720	6720	6853	6720	6720	6720	6720	6720	6720	6592	6592	6468	6468	6468	6468	6468	6349	6349	6235	6124	6124	6124	6124	6018	5915	5915	5915	6018	6018	5915	5915	5815	5815	5815	5719	5719	5719	5719	5719	5626	5626	5626	5535	5448	5364	5364	5282	5282	5282	5282	5282	5202	5202	5125	5125	5125	0	0	0	0	0	0	0	0	0	1461	1461	1461	1455	1449	1449	1443	1437	1437	1437	1437	1437	1443	1443	1443	1443	1443	1443	1443	1449	1443	1443	1437	1437	1431	1431	1437	1437	1437	1437	1437	1437	1437	1431	1431	1431	1425	1425	1425	1419	1419	1413	1413	1413	1413	1413	1413	1413	1413	1413	1413	1413	1413	1413	1413	1413	0	0	0	0	0	0	0	0	0	0	0	0	0	0	0	0	0	0	0	0	0	0	0	0	0	0	0	0	0	0	0	0	0	0	0	0	0	0	0	0	0
0	0	0	0	0	0	0	1306	1306	1306	1306	1306	1306	1311	1311	1316	1316	1316	1321	1321	1326	1326	1336	1331	1336	1326	1326	1326	1326	1326	1326	1331	1331	1331	1342	1347	1347	1342	1342	0	0	0	0	0	0	0	0	0	0	0	0	0	0	0	0	0	0	0	0	0	0	0	0	0	0	0	0	1449	1443	1443	1443	1437	1437	1437	1437	1437	1437	0	0	0	0	0	0	0	0	0	0	0	0	0	0	0	0	0	0	0	0	0	0	0	0	0	0	0	0	0	0	0	0	0	0	0	0	0	0	0	1618	1618	1634	1641	1641	1641	1641	1649	1665	1665	1673	1681	1690	1698	1698	1698	1698	1706	1715	1715	1715	1715	1795	1795	1804	1814	1814	1814	1824	1824	1833	0	0	0	0	0	0	0	0	0	0	0	0	0	0	0	0	0	0	0	0	0	0	0	0	0	0	0	6468	6592	6468	6468	6468	6468	6720	6720	0	6720	6720	6853	6853	6720	6853	6853	6853	6853	6853	6853	6853	0	0	0	0	0	0	0	0	0	0	0	0	0	0	0	6992	6992	6992	6992	6853	6992	6992	6720	6720	0	0	0	0	0	0	0	0	0	0	0	0	0	0	0	0	0	0	0	0	0	0	0	0	0	6853	6992	6853	6853	6853	6853	6853	6720	6720	6992	6992	6992	6992	6853	6853	6853	6853	6720	6720	6720	6720	6720	6592	6592	6592	6592	6592	6592	6592	6592	6592	6720	6720	6720	6720	6592	6592	6592	6592	6592	6592	6592	6592	6592	6592	6592	6592	6592	6720	6720	6720	6720	6720	6720	6720	6720	6592	6720	6592	6592	6592	6592	6592	6592	6592	6592	6592	6592	6592	6592	6592	6720	6720	6720	6592	6720	6592	6592	6592	6592	6720	6720	6720	6720	6720	6720	6720	6720	6720	6720	6592	6592	6592	6592	6592	6592	6592	6592	6592	6592	6592	6592	6592	6592	6592	6592	6592	6592	6720	6592	6592	6592	6592	6592	0	0	0	0	0	0	0	0	0	0	0	0	6592	6592	6592	6592	6720	6592	6592	6592	6720	6720	6592	6592	6592	6592	6592	6592	6592	6592	6592	6592	6592	6592	6468	6592	6592	6592	6468	6592	6592	6592	6592	6592	6592	6592	6592	6592	6592	6592	6592	6592	6592	6592	6592	6468	6592	6468	6468	6592	6592	6592	6592	6468	6468	6349	6349	6349	6349	6349	6468	6592	6468	6592	6592	6592	6592	6468	6468	6592	6592	6468	6468	6720	6720	6720	6720	6720	6720	6720	6720	6592	6720	6720	6720	6720	6720	6720	6720	6720	6720	6720	6720	6720	6720	6592	6592	6592	6720	6720	6720	6720	6720	6720	6720	6720	6853	6853	6853	6720	6853	6853	6853	6720	6720	6720	6720	6720	6720	6592	6592	6592	6468	6468	6468	6349	6349	6349	6235	6235	6124	6124	6124	6018	5915	5915	5915	6018	5915	5815	5815	5815	5815	5815	5815	5815	5719	5719	5719	5626	5535	5535	5448	5448	5364	5364	5282	5282	5282	5282	5282	5202	5125	5125	5125	0	0	0	0	0	0	0	0	0	0	0	1473	1467	1455	1455	1449	1449	1443	1443	1443	1443	1437	1443	1443	1443	1443	1443	1443	1443	1455	1443	1443	1443	1437	1437	1437	1437	1437	1437	1437	1437	1437	1437	1431	1431	1431	1425	1425	1425	1419	1419	1413	1413	1413	1413	1413	1413	1407	1413	1413	1413	1413	1413	1413	1413	1413	0	0	0	0	0	0	0	0	0	0	0	0	0	0	0	0	0	0	0	0	0	0	0	0	0	0	0	0	0	0	0	0	0	0	0	0	0	0	0	0	0
0	0	0	0	0	0	0	1311	1311	1311	1316	1316	1311	1316	1316	1316	1321	1321	1321	1321	1326	1326	1326	1326	1326	1326	1331	1326	1326	1326	1326	1331	1336	1336	1342	1347	1352	1347	1347	1347	0	0	0	0	0	0	0	0	0	0	0	0	0	0	0	0	0	0	0	0	0	0	0	0	0	0	0	1443	1443	1443	1437	1437	1437	1437	1437	1437	1437	1437	0	0	0	0	0	0	0	0	0	0	0	0	0	0	0	0	0	0	0	0	0	0	0	0	0	0	0	0	0	0	0	0	0	0	0	0	0	0	1618	1618	1634	1634	1641	1641	1641	1649	1665	1665	1673	1681	1690	1698	1698	1698	1706	1706	1706	1715	1715	1715	1715	1786	1786	1814	1814	1824	1824	1824	1833	0	0	0	0	0	0	0	0	0	0	0	0	0	0	0	0	0	0	0	0	0	0	0	0	0	0	0	6468	6349	6468	6592	6468	6468	6720	6720	0	0	0	6853	6853	6720	6853	6853	6853	6853	6853	6853	0	0	0	0	0	0	0	0	0	0	0	0	0	0	0	6992	6992	6992	6992	6992	6992	6992	6992	0	0	0	0	0	0	0	0	0	0	0	0	0	0	0	0	0	0	0	0	0	0	0	0	0	0	0	6853	6992	6853	6853	6853	6853	6853	6720	6853	6853	6853	6853	6853	6853	6853	6853	6853	6720	6720	6720	6592	6592	6592	6592	6592	6592	6592	6592	6592	6592	6592	6720	6592	6720	6592	6592	6592	6592	6592	6592	6592	6592	6592	6592	6592	6592	6592	6592	6720	6720	6720	6720	6720	6720	6720	6720	6592	6592	6592	6592	6592	6592	6592	6592	6592	6592	6592	6592	6592	6592	6592	6720	6720	6720	6592	6720	6720	6720	6720	6592	6720	6720	6720	6720	6720	6720	6720	6720	6720	6720	6592	6592	6592	6592	6592	6720	6720	6720	6720	6720	6592	6592	6592	6592	6592	6720	6720	6720	6720	6720	6720	6720	6592	6720	6720	0	0	0	0	0	0	0	0	0	0	0	0	0	6592	6592	6592	6592	6592	6592	6720	6720	6592	6592	6592	6592	6592	6592	6592	6720	6720	6592	6592	6592	6592	6720	6592	6592	6592	6592	6468	6468	6592	6592	6592	6592	6592	6592	6592	6592	6592	6592	6592	6468	6468	6468	6592	6592	6592	6592	6592	6592	6592	6592	6468	6349	6349	6349	6349	6349	6468	6720	6592	6720	6720	6720	6720	6592	6592	6592	6468	6468	6468	6592	6592	6592	6592	6592	6592	6720	6720	6592	6592	6592	6720	6592	6592	6592	6720	6720	6720	6720	6720	6720	6720	6592	6592	6592	6720	6720	6720	6720	6720	6720	6720	6720	6853	6853	6853	6853	6853	6853	6853	6720	6720	6720	6592	6592	6592	6592	6592	6592	6468	6468	6349	6349	6349	6235	6235	6124	6124	6018	6018	6018	5915	5915	5815	5915	5915	5915	5815	5815	5815	5815	5719	5719	5719	5719	5719	5626	5535	5535	5448	5448	5364	5364	5282	5282	5282	5282	5202	5125	5125	5125	0	0	0	0	0	0	0	0	0	0	0	0	1473	1467	1461	1455	1455	1449	1449	1449	1443	1443	1437	1443	1443	1443	1443	1443	1443	1443	1449	1443	1443	1437	1443	1443	1437	1437	1437	1437	1437	1437	1437	1437	1437	1437	1437	1431	1431	1425	1425	1419	1419	1413	1413	1413	1413	1413	1407	1413	1407	1413	1413	1413	1419	1419	1419	0	0	0	0	0	0	0	0	0	0	0	0	0	0	0	0	0	0	0	0	0	0	0	0	0	0	0	0	0	0	0	0	0	0	0	0	0	0	0	0	0
0	0	0	0	0	0	0	1311	1316	1316	1321	1321	1321	1321	1321	1321	1321	1326	1326	1326	1326	1326	1326	1331	1336	1336	1336	1331	1331	1331	1331	1336	1336	1342	1347	1352	1352	1358	1363	1363	1363	0	0	0	0	0	0	0	0	0	0	0	0	0	0	0	0	0	0	0	0	0	0	0	1449	1443	1443	1437	1443	1437	1437	1437	1437	1437	1443	1443	1443	1443	0	0	0	0	0	0	0	0	0	0	0	0	0	0	0	0	0	0	0	0	0	0	0	0	0	0	0	0	0	0	0	0	0	0	0	0	0	0	1618	1618	1626	1634	1634	1634	1641	1649	1657	1665	1665	1681	1681	1690	1690	1698	1698	1706	1706	1732	1741	1750	1750	1786	1804	1814	1814	1824	1824	0	0	0	0	0	0	0	0	0	0	0	0	0	0	0	0	0	0	0	0	0	0	0	0	0	0	0	0	0	0	6349	6592	6592	6592	6592	0	0	0	0	0	0	6853	6720	6853	6853	6853	6853	0	0	0	0	0	0	0	0	0	0	0	0	0	0	0	0	0	6992	6992	6992	6992	6992	6992	6992	6992	6992	0	0	0	0	0	0	0	0	0	0	0	0	0	0	0	0	0	0	0	0	0	0	0	0	0	0	6853	6992	6853	6853	6853	6853	6720	6592	6592	6853	6853	6853	6853	6853	6853	6720	6720	6720	6720	6592	6592	6592	6592	6592	6592	6592	6592	6592	6592	6592	6592	6592	6592	6592	6592	6592	6592	6592	6592	6592	6592	6592	6592	6592	6592	6592	6592	6592	6720	6592	6720	6592	6592	6720	6592	6592	6592	6592	6592	6592	6592	6592	6592	6592	6592	6592	6592	6592	6592	6720	6720	6720	6720	6720	6592	6720	6720	6720	6720	6592	6720	6720	6720	6720	6720	6720	6720	6720	6720	6720	6720	6592	6720	6720	6720	6720	6720	6720	6592	6592	6592	6592	6592	6592	6592	6720	6720	6720	6720	6720	6720	6720	6720	6720	6720	0	0	0	0	0	0	0	0	0	0	0	0	0	6592	6592	6592	6592	6592	6592	6720	6720	6720	6592	6720	6592	6592	6592	6592	6592	6720	6592	6720	6592	6592	6592	6592	6592	6468	6592	6468	6592	6592	6592	6592	6592	6592	6592	6592	6592	6592	6592	6468	6468	6468	6592	6592	6592	6592	6592	6720	6592	6592	6592	6468	6468	6349	6349	6349	6349	6592	6592	6468	6592	6592	6592	6592	6592	6592	6468	6468	6468	6468	6592	6592	6592	6592	6592	6720	6720	6592	6592	6592	6592	6720	6592	6592	6592	6720	6720	6592	6592	6720	6720	6720	6720	6720	6720	6720	6720	6720	6720	6720	6853	6853	6853	6853	6853	6853	6853	6853	6853	6720	6720	6720	6592	6592	6592	6592	6592	6592	6592	6468	6468	6349	6349	6235	6235	6124	6018	6018	6018	5915	5915	5915	5915	5815	5915	5915	5815	5815	5815	5815	5815	5719	5719	5719	5719	5719	5626	5535	5448	5364	5364	5364	5364	5282	5282	5282	5282	5202	5202	5125	0	0	0	0	0	0	0	0	0	0	0	0	0	1473	1467	1461	1461	1455	1455	1455	1455	1449	1443	1443	1443	1443	1443	1443	1443	1443	1443	1455	1449	1449	1443	1443	1443	1437	1437	1437	1437	1437	1437	1437	1437	1437	1437	1437	1437	1437	1431	1425	1425	1419	1413	1413	1413	1413	1413	1407	1413	1407	1407	1413	1413	1413	1413	1413	0	0	0	0	0	0	0	0	0	0	0	0	0	0	0	0	0	0	0	0	0	0	0	0	0	0	0	0	0	0	0	0	0	0	0	0	0	0	0	0	0
0	0	0	0	0	0	0	0	1321	1321	1321	1326	1326	1326	1326	1326	1326	1326	1326	1326	1326	1326	1326	1331	1342	1336	1342	1336	1336	1336	1336	1342	1342	1347	1347	1347	1352	1358	1363	1358	1358	1379	1379	0	0	0	0	0	0	0	0	0	0	0	0	0	0	0	0	0	0	0	0	1449	1449	1443	1437	1437	1443	1443	1443	1437	1437	1443	1443	1443	1443	1443	0	0	0	0	0	0	0	0	0	0	0	0	0	0	0	0	0	0	0	0	0	0	0	0	0	0	0	0	0	0	0	0	0	0	0	0	0	0	1618	1618	1626	1626	1634	1634	1634	1641	1649	1657	1665	1673	1681	1690	1690	1698	1706	1715	1723	1741	1750	1759	1777	1786	1795	1804	1814	1814	1824	0	0	0	0	0	0	0	0	0	0	0	0	0	0	0	0	0	0	0	0	0	0	0	0	0	0	0	0	0	0	0	6592	6592	6592	6592	0	0	0	0	0	0	0	0	6992	6992	6992	6992	0	0	0	0	0	0	0	0	0	0	0	0	0	0	0	0	0	0	6992	7137	6992	6992	6992	6992	6992	6992	0	0	0	0	0	0	0	0	0	6992	6992	6992	6992	6992	6992	0	0	0	0	0	0	0	0	0	0	0	6853	6853	6853	6853	6853	6853	6720	6853	6992	6992	6853	6853	6853	6853	6853	6720	6720	6592	6592	6592	6592	6592	6592	6592	6592	6592	6592	6592	6592	6592	6592	6592	6592	6592	6592	6592	6592	6592	6592	6592	6592	6592	6592	6592	6592	6592	6592	6592	6592	6592	6592	6592	6592	6720	6592	6592	6592	6592	6592	6592	6592	6592	6592	6592	6592	6592	6592	6592	6592	6592	6592	6720	6720	6720	6720	6720	6720	6720	6720	6592	6592	6592	6592	6592	6592	6720	6720	6592	6720	6720	6720	6592	6720	6720	6720	6720	6720	6720	6720	6720	6592	6592	6592	6592	6720	6720	6720	6720	6720	6853	6720	6720	6720	6720	6720	0	0	0	0	0	0	0	0	0	0	0	0	6720	6720	6720	6720	6720	6592	6592	6720	6720	6720	6720	6720	6720	6720	6720	6592	6592	6720	6592	6592	6592	6592	6592	6592	6592	6468	6592	6592	6592	6592	6592	6592	6592	6592	6592	6592	6592	6592	6592	6592	6592	6468	6468	6592	6592	6592	6592	6592	6592	6592	6592	6468	6468	6349	6349	6349	6349	6592	6592	6592	6720	6592	6592	6592	6592	6592	6468	6349	6349	6349	6592	6592	6592	6592	6592	6592	6592	6592	6592	6592	6592	6720	6592	6592	6592	6720	6720	6720	6720	6720	6720	6720	6592	6720	6720	6720	6720	6720	6720	6720	6720	6720	6720	6720	6720	6720	6720	6853	6853	6720	6720	6592	6592	6592	6592	6592	6468	6468	6468	6468	6468	6349	6349	6235	6235	6124	6124	6018	6018	5915	5915	5815	5815	5719	5719	5915	5815	5815	5815	5815	5719	5719	5626	5626	5626	5626	5626	5448	5448	5364	5364	5364	5282	5282	5282	5282	5282	5282	5282	0	0	0	0	0	0	0	0	0	0	0	1492	1492	0	1461	1461	1461	1461	1461	1461	1461	1461	1455	1449	1443	1443	1443	1443	1443	1443	1443	1443	1443	1449	1449	1449	1443	1443	1443	1437	1437	1437	1437	1443	1437	1437	1437	1437	1437	1437	1437	1431	1425	1425	1413	1413	1413	1413	1407	1407	1407	1407	1407	1413	1413	1413	1413	1419	1419	0	0	0	0	0	0	0	0	0	0	0	0	0	0	0	0	0	0	0	0	0	0	0	0	0	0	0	0	0	0	0	0	0	0	0	0	0	0	0	0	0
0	0	0	0	0	0	0	0	1326	1326	1331	1331	1331	1331	1331	1331	1331	1326	1326	1326	1326	1342	1342	1342	1342	1342	1342	1336	1336	1342	1342	1342	1347	1347	1347	1347	1352	1352	1363	1368	1368	1385	1385	1390	1390	0	0	0	0	0	0	0	0	0	0	0	0	0	0	0	0	0	1443	1449	1443	1443	1437	1437	1443	1437	1437	1437	1437	1443	1443	1443	1449	1449	0	0	0	0	0	0	0	0	0	0	0	0	0	0	0	0	0	0	0	0	0	0	0	0	0	0	0	0	0	0	0	0	0	0	0	0	0	0	1618	1626	1634	1634	1641	1641	1641	1641	1649	1657	1657	1673	1681	1690	1698	1706	1723	1732	1732	1750	1750	1768	1777	1777	1786	1804	1814	1814	0	0	0	0	0	0	0	0	0	0	0	0	0	0	0	0	0	0	0	0	0	0	0	0	0	0	0	0	0	0	0	0	6720	6720	6720	6720	0	0	0	0	0	0	0	0	6992	6992	6992	6992	0	0	0	0	0	0	0	0	0	0	0	0	0	0	0	0	0	0	0	7137	7137	7137	6992	6992	6992	6992	0	0	0	0	0	0	0	0	0	6992	6992	6992	6992	6992	6992	6992	6992	6853	6853	6853	6853	6853	0	0	0	0	6853	6853	6853	6853	6853	6853	6853	6853	6992	6853	6992	6853	6853	6853	6853	6720	6720	6592	6592	6592	6592	6592	6592	6592	6592	6592	6592	6592	6592	6592	6592	6592	6592	6592	6592	6592	6592	6592	6592	6592	6592	6592	6592	6592	6592	6592	6592	6592	6592	6592	6592	6592	6592	6720	6592	6592	6592	6592	6592	6592	6592	6592	6592	6592	6592	6592	6592	6592	6592	6592	6592	6720	6720	6592	6592	6720	6720	6720	6592	6592	6720	6720	6592	6592	6592	6720	6720	6720	6720	6720	6592	6592	6592	6592	6720	6720	6720	6720	6720	6720	6592	6592	6720	6592	6720	6720	6720	6853	6853	6853	6853	6720	0	0	0	0	0	0	0	0	0	0	0	0	0	0	6720	6720	6720	6720	6720	6720	6592	6592	6720	6720	6720	6720	6720	6720	6720	6720	6592	6592	6592	6592	6720	6592	6592	6592	6468	6468	6468	6592	6592	6592	6592	6592	6592	6592	6592	6592	6592	6592	6592	6592	6592	6592	6592	6592	6592	6592	6592	6592	6592	6592	6592	6592	6468	6468	6468	6468	6468	6468	6592	6592	6592	6592	6592	6592	6592	6592	6468	6468	6349	6349	6468	6592	6592	6592	6720	6720	6720	6720	6720	6720	6592	6592	6720	6592	6592	6720	6720	6720	6720	6720	6720	6720	6720	6720	6720	6720	6720	6720	6720	6720	6720	6720	6720	6720	6720	6720	6853	6720	6853	6720	6720	6592	6592	6592	6468	6468	6468	6468	6468	6468	6468	6349	6349	6349	6235	6235	6124	6124	6124	6018	6018	5915	5815	5815	5815	5915	5915	5815	5815	5719	5719	5719	5719	5626	5626	5626	5626	5626	5448	5448	5364	5364	5364	5282	5364	5364	5364	5364	5364	5282	0	0	0	0	0	0	0	0	0	0	0	1492	1492	1486	1480	1461	1461	1461	1461	1461	1461	1461	1455	1449	1443	1443	1443	1443	1443	1443	1443	1443	1455	1455	1455	1449	1443	1443	1443	1437	1437	1437	1437	1437	1437	1437	1437	1437	1437	1437	1437	1431	1425	1425	1419	1413	1413	1413	1413	1413	1413	1413	1413	1419	1419	1419	1419	1419	1419	0	0	0	0	0	0	0	0	0	0	0	0	0	0	0	0	0	0	0	0	0	0	0	0	0	0	0	0	0	0	0	0	0	0	0	0	0	0	0	0	0
0	0	0	0	0	0	0	0	1342	1331	1331	1336	1336	1342	1342	1342	1336	1336	1336	1336	1347	1347	1342	1342	1347	1342	1342	1336	1342	1342	1342	1342	1347	1352	1347	1347	1352	1358	1363	1363	1374	1379	1379	1385	1390	1390	1390	0	0	0	0	0	0	0	0	0	0	0	0	0	0	0	1449	1449	1449	1443	1437	1437	1437	1437	1437	1437	1437	1443	1443	1449	1455	1455	1461	1461	1467	1467	0	0	0	0	0	0	0	0	0	0	0	0	0	0	0	0	0	0	0	0	0	0	0	0	0	0	0	0	0	0	0	0	0	0	1618	1626	1634	1634	1641	1641	1641	1641	1649	1665	1665	1665	1681	1690	1698	1732	1732	1732	1741	1750	1759	1768	1777	1777	1786	1795	1795	1795	0	0	0	0	0	0	0	0	0	0	0	0	0	0	0	0	0	0	0	0	0	0	0	0	0	0	0	0	0	0	0	0	6853	6853	6853	6853	0	0	0	0	0	0	0	0	6992	6992	6992	6992	0	0	0	0	0	0	0	0	0	0	0	0	0	0	0	0	0	0	0	7137	7137	6992	6992	6992	6992	6992	0	0	0	0	0	0	0	0	0	6992	6992	6992	6992	6992	6992	6853	6992	6853	6853	6853	6853	6720	6720	0	6853	6853	6853	6853	6853	6720	6720	6853	6853	6853	6992	6853	6992	6853	6853	6853	6720	6720	6592	6592	6592	6592	6592	6592	6592	6592	6592	6592	6592	6592	6592	6592	6592	6592	6592	6592	6592	6592	6592	6592	6592	6592	6592	6592	6592	6592	6592	6592	6592	6592	6592	6592	6592	6592	6592	6592	6592	6592	6592	6592	6592	6592	6592	6592	6592	6592	6592	6592	6592	6592	6592	6592	6592	6720	6720	6592	6592	6720	6720	6720	6720	6720	6720	6720	6720	6720	6720	6720	6720	6720	6720	6592	6592	6592	6592	6592	6720	6720	6720	6720	6720	6720	6592	6592	6592	6592	6592	6592	6592	6853	6853	6853	6853	0	0	0	0	0	0	0	0	0	0	0	0	0	0	0	6720	6853	6720	6720	6720	6720	6592	6592	6720	6720	6720	6720	6720	6720	6720	6720	6720	6720	6720	6720	6720	6592	6592	6720	6592	6592	6592	6592	6592	6592	6592	6592	6592	6592	6592	6592	6592	6592	6592	6592	6592	6592	6468	6468	6592	6592	6592	6592	6592	6592	6592	6468	6468	6468	6468	6468	6468	6468	6592	6592	6592	6592	6592	6592	6592	6468	6468	6468	6349	6349	6468	6592	6592	6592	6720	6592	6720	6720	6720	6720	6720	6592	6720	6592	6592	6720	6720	6720	6592	6592	6592	6720	6720	6592	6592	6720	6720	6720	6720	6720	6720	6720	6720	6592	6592	6720	6720	6720	6720	6592	6592	6592	6468	6468	6468	6468	6468	6468	6468	6468	6349	6349	6235	6235	6235	6235	6124	6124	6018	6018	5915	5915	5915	5915	5815	5915	5915	5815	5815	5815	5719	5719	5719	5626	5626	5626	5626	5535	5448	5448	5364	5364	5364	5282	5364	5364	5364	5364	5364	5364	0	0	0	0	0	0	0	0	0	0	0	1492	1492	1486	1480	1473	1461	1467	1461	1461	1461	1461	1455	1455	1449	1449	1443	1443	1443	1449	1449	1449	1455	1455	1455	1449	1449	1443	1443	1437	1437	1437	1437	1437	1437	1437	1437	1437	1437	1437	1437	1437	1437	1431	1425	1419	1419	1413	1413	1413	1413	1413	1413	1419	1419	1419	1419	1425	1425	0	0	0	0	0	0	0	0	0	0	0	0	0	0	0	0	0	0	0	0	0	0	0	0	0	0	0	0	0	0	0	0	0	0	0	0	0	0	0	0	0
0	0	0	0	0	0	0	0	1342	1331	1336	1342	1342	1342	1347	1347	1342	1342	1342	1342	1342	1347	1342	1347	1347	1347	1347	1342	1347	1347	1347	1347	1352	1352	1352	1352	1352	1358	1363	1368	1379	1379	1379	1385	1396	1396	1407	1413	1413	0	0	0	0	0	0	0	0	0	0	0	0	0	1449	1449	1443	1443	1437	1437	1437	1431	1437	1443	1443	1443	1449	1455	1455	1461	1461	1461	1467	1467	0	0	0	0	0	0	0	0	0	0	0	0	0	0	0	0	0	0	0	0	0	0	0	0	0	0	0	0	0	0	0	0	0	0	0	1626	1634	1634	1641	1641	1641	1641	1657	1665	1665	1681	1698	1706	1732	1741	1732	1741	1741	1759	1759	1768	1777	1777	1777	1777	1777	1843	1843	1843	0	0	0	0	0	0	0	0	0	0	0	0	0	0	0	0	0	0	0	0	0	0	0	0	0	0	0	0	0	0	6853	6853	6853	6720	6720	0	0	0	0	0	0	0	0	0	0	0	0	0	0	0	0	0	0	0	0	0	6853	6853	0	0	0	0	0	0	0	6992	6992	6992	6992	6992	0	0	0	0	0	0	0	0	0	0	0	6992	6992	6992	6992	6992	6853	6853	6853	6853	6853	6853	6853	6720	6720	6720	6720	6720	6592	6720	6853	6853	6720	0	6853	6853	6992	6992	6992	6853	6853	6853	6720	6720	6592	6592	6592	6592	6592	6592	6592	6592	6592	6592	6592	6592	6592	6592	6592	6592	6592	6592	6592	6592	6592	6592	6592	6592	6592	6592	6592	6592	6592	6592	6592	6592	6592	6592	6592	6592	6592	6592	6720	6720	6720	6592	6592	6592	6592	6592	6592	6592	6592	6592	6592	6592	6592	6592	6592	6720	6592	6592	6592	6720	6720	6720	6720	6720	6720	6720	6720	6720	6720	6720	6720	6720	6592	6592	6592	6592	6592	6592	6592	6592	6720	6720	6720	6592	6592	6592	6592	6592	6592	6592	6592	6853	6992	6992	6992	0	0	0	0	0	0	0	0	0	0	0	0	0	0	0	0	6992	6853	6853	6853	6720	6592	6592	6720	6720	6720	6720	6720	6720	6720	6720	6720	6720	6720	6720	6720	6592	6720	6720	6592	6592	6592	6720	6592	6592	6592	6720	6592	6592	6592	6592	6592	6592	6592	6592	6592	6592	6468	6592	6468	6468	6468	6468	6468	6468	6468	6468	6468	6468	6468	6468	6592	6592	6592	6468	6592	6592	6592	6592	6468	6592	6468	6468	6349	6349	6468	6592	6592	6720	6720	6720	6720	6720	6720	6720	6720	6720	6720	6592	6592	6720	6720	6592	6592	6592	6592	6720	6592	6592	6720	6720	6720	6720	6720	6720	6720	6720	6720	6592	6592	6592	6720	6592	6592	6592	6592	6468	6468	6468	6468	6468	6468	6468	6468	6468	6349	6349	6235	6235	6235	6235	6124	6124	6018	5915	5915	5915	5815	5815	5815	5915	5915	5815	5815	5719	5719	5719	5719	5626	5626	5626	5626	5535	5448	5448	5364	5364	5364	5364	5364	5364	5364	5364	5364	5364	0	0	0	0	0	0	0	0	0	0	0	1492	1492	1486	1486	1473	1467	1467	1461	1461	1461	1461	1455	1449	1449	1449	1443	1443	1449	1449	1449	1449	1455	1455	1455	1455	1449	1443	1443	1437	1437	1437	1437	1437	1437	1437	1437	1437	1443	1437	1443	1437	1437	1431	1425	1419	1419	1419	1413	1413	1413	1419	1419	1419	1419	1419	1431	1431	1431	0	0	0	0	0	0	0	0	0	0	0	0	0	0	0	0	0	0	0	0	0	0	0	0	0	0	0	0	0	0	0	0	0	0	0	0	0	0	0	0	0
0	0	0	0	0	0	0	0	1342	1342	1342	1342	1347	1347	1347	1352	1347	1352	1347	1352	1358	1347	1342	1342	1347	1347	1347	1347	1347	1347	1352	1352	1352	1358	1352	1352	1358	1363	1368	1368	1379	1374	1379	1385	1390	1396	1402	1413	1407	1413	1413	0	0	0	0	0	0	0	0	0	0	0	1455	1449	1449	1443	1437	1437	1437	1431	1443	1443	1443	1449	1449	1455	1455	1461	1461	1461	1467	1467	0	0	0	0	0	0	0	0	0	0	0	0	0	0	0	0	0	0	0	0	0	0	0	0	0	0	0	0	0	0	0	0	0	0	0	1626	1634	1634	1641	1641	1649	1649	1657	1665	1673	1698	1706	1732	1741	1741	1741	1741	1750	1759	1750	1759	1768	1768	1768	1777	1777	1843	1843	1853	1853	0	0	0	0	0	0	0	0	0	0	0	0	0	0	0	0	0	0	6992	6992	6853	6853	0	0	0	0	0	0	0	0	6853	6853	6853	6853	6853	0	0	0	0	0	0	0	0	0	0	0	0	0	0	0	0	0	0	6853	6853	6853	6853	6853	6853	6992	6992	6992	6992	6992	6992	6992	7137	7137	7137	0	0	0	0	0	0	0	0	0	0	0	6992	6992	6992	6992	6992	6992	6992	6992	6853	6853	6853	6720	6720	6720	6720	6720	6720	6592	6720	6720	6853	0	0	6853	6853	6992	6992	6992	6992	6853	6853	6720	6720	6592	6592	6592	6592	6592	6592	6592	6592	6592	6592	6592	6592	6592	6592	6592	6592	6592	6592	6592	6592	6592	6592	6592	6592	6592	6592	6592	6592	6592	6592	6592	6592	6592	6592	6592	6592	6592	6592	6592	6720	6720	6592	6592	6592	6592	6592	6592	6592	6592	6592	6592	6592	6592	6592	6592	6720	6720	6720	6592	6720	6720	6720	6720	6720	6720	6720	6720	6592	6592	6720	6720	6592	6592	6592	6592	6592	6592	6592	6592	6592	6720	6720	6720	6592	6592	6592	6592	6592	6592	6592	0	0	6992	6992	6992	0	0	0	0	0	0	0	0	0	0	0	0	0	7137	7137	6992	6853	6853	6853	6720	6592	6592	6592	6720	6720	6720	6720	6720	6720	6720	6720	6720	6720	6720	6720	6720	6720	6720	6720	6592	6720	6592	6720	6720	6720	6720	6720	6720	6720	6720	6720	6592	6592	6592	6592	6592	6592	6468	6468	6468	6468	6468	6468	6468	6468	6468	6468	6468	6468	6592	6592	6720	6592	6592	6592	6592	6592	6592	6592	6592	6592	6592	6349	6349	6349	6349	6592	6592	6720	6720	6720	6720	6853	6720	6720	6720	6720	6720	6720	6720	6720	6720	6720	6592	6592	6592	6592	6592	6592	6592	6720	6720	6720	6592	6720	6720	6720	6720	6720	6592	6720	6720	6592	6592	6592	6592	6592	6468	6468	6468	6468	6468	6468	6468	6468	6349	6349	6235	6235	6235	6124	6018	6018	6018	5915	5915	5915	5915	5915	5815	6018	5915	5815	5815	5719	5719	5626	5626	5626	5626	5626	5626	5535	5448	5448	5364	5364	5364	5364	5364	5364	5364	5364	5364	5364	0	0	0	0	0	0	0	0	0	0	0	0	1492	1492	1486	1473	1461	1461	1461	1461	1461	1461	1455	1449	1449	1449	1449	1449	1449	1449	1449	1449	1455	1455	1455	1449	1449	1443	1443	1443	1437	1437	1437	1437	1437	1437	1437	1443	1443	1443	1443	1443	1437	1437	1425	1425	1419	1419	1419	1419	1419	1419	1419	1419	1419	1419	1419	1425	1425	0	0	0	0	0	0	0	0	0	0	0	0	0	0	0	0	0	0	0	0	0	0	0	0	0	0	0	0	0	0	0	0	0	0	0	0	0	0	0	0	0
0	0	0	0	0	0	0	0	1347	1342	1342	1347	1347	1347	1347	1352	1352	1352	1352	1358	1358	1358	1342	1347	1358	1347	1358	1352	1358	1358	1358	1358	1363	1363	1358	1358	1363	1363	1368	1374	1379	1374	1379	1385	1390	1390	1402	1407	1413	1413	1413	1413	0	0	0	0	0	0	0	0	0	1455	1455	1449	1443	1443	1431	1431	1431	1425	1437	1437	1449	1449	1455	1461	1461	1467	1461	1467	1467	0	0	0	0	0	0	0	0	0	0	0	0	0	0	0	0	0	0	0	0	0	0	0	0	0	0	0	0	0	0	0	0	0	0	0	0	0	0	1634	1641	1641	1641	1641	1665	1665	1673	1706	1715	1723	1723	1732	1741	1750	1750	1759	1759	1768	1768	1777	1777	1777	1833	1843	1843	1843	1853	0	0	0	0	0	0	0	0	0	0	0	0	0	0	0	0	0	0	7137	6853	6853	6853	0	0	0	0	0	0	0	0	6853	6853	6853	6853	6853	0	0	0	0	0	0	0	0	0	0	0	0	0	0	0	0	0	0	6853	6992	6853	6853	6992	6992	7137	7137	6992	6992	6992	6992	6992	7137	6992	6992	0	0	0	0	0	0	0	6992	6992	6992	6992	6992	6992	6992	6992	6992	6992	6992	6992	6992	6853	6992	6992	6720	0	0	0	0	6592	6720	6720	0	0	0	0	0	6992	6992	7137	6992	6992	6853	6720	6720	6592	6592	6592	6592	6592	6592	6592	6592	6592	6592	6592	6592	6592	6592	6592	6592	6592	6592	6592	6592	6592	6592	6592	6592	6592	6592	6592	6592	6592	6592	6592	6592	6592	6592	6592	6592	6592	6592	6592	6720	6592	6592	6592	6592	6592	6592	6592	6592	6592	6592	6592	6592	0	6592	6592	6720	6720	6720	0	0	6720	6720	6720	6720	6720	6720	6720	6592	6592	6592	6592	6592	6592	6592	6592	6592	6592	6592	6592	6592	6592	6592	6592	6592	6592	6592	6592	6592	6720	6720	0	0	0	0	0	0	0	0	0	0	0	0	0	0	0	0	0	0	7137	7137	6992	6992	6853	6853	6720	6592	6592	6592	6592	6720	6720	6853	6853	6720	6853	6720	6720	6720	6720	6720	6720	6720	6720	6720	6720	6720	6720	6720	6720	6720	6720	6720	6720	6720	6592	6592	6592	6592	6592	6592	6592	6592	6468	6592	6468	6468	6468	6468	6349	6349	6349	6349	6468	6468	6592	6592	6592	6592	6592	6592	6592	6592	6592	6592	6468	6468	6468	6349	6349	6349	6468	6592	6592	6720	6720	6720	6720	6720	6720	6720	6720	6720	6720	6720	6720	6720	6720	6592	6592	6592	6592	6592	6592	6592	6592	6592	6720	6592	6592	6720	6720	6720	6720	6720	6720	6720	6720	6592	6592	6592	6592	6592	6468	6468	6468	6468	6468	6468	6468	6468	6349	6235	6235	6124	6124	6124	6018	6018	6018	5915	5915	5915	5915	5915	5915	6018	5915	5815	5815	5719	5719	5626	5626	5626	5626	5626	5626	5626	5535	5448	5448	5364	5364	5364	5364	5364	5364	5364	5364	5364	0	0	0	0	0	0	0	0	0	0	0	0	0	1492	1492	1461	1461	1461	1461	1461	1461	1461	1455	1455	1449	1449	1449	1449	1449	1449	1449	1449	1455	1455	1449	1449	1443	1443	1443	1443	1443	1437	1437	1443	1437	1437	1437	1443	1443	1443	1443	1443	1437	1431	1425	1419	1419	1419	1419	1413	1419	1419	1419	1419	1419	1425	1425	1425	1425	0	0	0	0	0	0	0	0	0	0	0	0	0	0	0	0	0	0	0	0	0	0	0	0	0	0	0	0	0	0	0	0	0	0	0	0	0	0	0	0	0
0	0	0	0	0	0	0	0	1347	1347	1347	1347	1352	1347	1352	1352	1352	1358	1363	1363	1363	1363	1363	1363	1363	1358	1363	1363	1363	1363	1358	1358	1363	1363	1363	1363	1363	1368	1374	1374	1379	1379	1379	1385	1385	1390	1402	1407	1407	1413	1419	1431	1431	1455	1455	0	0	0	0	0	1461	1461	1455	1449	1449	1449	1431	1431	1437	1431	1437	1443	1449	1455	1455	1461	1461	1461	1461	1461	1467	0	0	0	0	0	0	0	0	0	0	0	0	0	0	0	0	0	0	0	0	0	0	0	0	0	0	0	0	0	0	0	0	0	0	0	0	0	0	1641	1649	1649	1649	1641	1665	1673	1698	1706	1715	1723	1723	1732	1741	1750	1759	1759	1759	1768	1768	1777	1777	1786	1833	1833	1843	1843	0	0	0	0	0	0	0	0	0	0	0	0	0	0	0	0	0	0	0	7287	6853	6853	6853	6853	0	0	0	0	0	0	0	6853	6853	6853	6853	6853	0	0	0	0	0	0	0	0	0	0	0	0	0	0	0	0	0	0	6853	6992	6992	6992	6992	7137	6992	6992	6992	6992	6992	7137	7137	7137	7137	7137	0	0	0	0	0	0	6853	6992	6992	6992	6992	6992	6992	6992	6992	6992	6992	6992	6992	6992	6992	6992	6992	0	0	0	0	0	6592	6720	6720	0	0	0	0	0	0	7137	7137	7137	6992	6853	6720	6720	6592	6592	6592	6592	6592	6592	6592	6592	6592	6592	6592	6592	6592	6592	6592	6592	6592	6592	6592	6592	6592	6592	6592	6592	6592	6592	6592	6592	6592	6592	6592	6592	6592	6592	6592	6592	6592	6592	6592	6592	6592	6592	6592	6592	6592	6592	6592	6592	6592	0	0	0	0	0	0	0	0	0	0	0	0	6720	6720	6720	6720	6720	6720	6592	6592	6592	6592	6592	6592	6592	6592	6592	6592	6592	6592	6592	6592	6592	6592	6592	6592	6720	6720	6720	6720	6720	0	0	0	0	0	0	0	0	0	0	0	0	0	0	0	0	0	7137	7137	7137	7137	7137	6853	6853	6720	6720	6592	6592	6720	6720	6853	6853	6853	6853	6853	6853	6853	6720	6720	6720	6720	6592	6720	6720	6720	6720	6720	6720	6720	6720	6720	6720	6592	6592	6592	6592	6592	6592	6592	6592	6592	6592	6592	6592	6468	6468	6468	6349	6235	6349	6349	6468	6468	6592	6592	6592	6592	6720	6592	6592	6592	6592	6468	6592	6468	6468	6468	6349	6349	6349	6468	6720	6720	6720	6720	6720	6853	6853	6720	6720	6720	6720	6720	6720	6720	6720	6720	6720	6720	6720	6592	6720	6592	6468	6592	6592	6592	6592	6592	6592	6592	6592	6720	6720	6592	6720	6720	6592	6592	6592	6592	6592	6592	6592	6592	6592	6592	6592	6468	6468	6349	6349	6235	6124	6124	6124	6018	6018	6018	6018	5915	5915	5915	5915	5915	6018	5915	5815	5815	5719	5719	5719	5626	5626	5626	5626	5626	5535	5535	5535	5448	5364	5364	5364	5364	5364	5364	5364	5364	5364	0	0	0	0	0	0	0	0	0	0	0	0	0	1492	1480	1467	1467	1467	1467	1461	1461	1455	1455	1455	1449	1449	1449	1449	1449	1449	1449	1449	1455	1449	1449	1449	1443	1443	1443	1443	1443	1437	1443	1443	1437	1437	1437	1437	1443	1443	1443	1437	1437	1425	1425	1419	1419	1419	1419	1419	1419	1419	1419	1425	1419	1425	1425	1431	1431	0	0	0	0	0	0	0	0	0	0	0	0	0	0	0	0	0	0	0	0	0	0	0	0	0	0	0	0	0	0	0	0	0	0	0	0	0	0	0	0	0
0	0	0	0	0	0	0	0	1358	1358	1363	1363	1358	1352	1363	1363	1363	1368	1374	1374	1385	1379	1363	1374	1368	1363	1368	1363	1368	1368	1368	1368	1368	1368	1368	1368	1368	1368	1374	1379	1379	1379	1379	1385	1385	1390	1390	1407	1413	1413	1419	1437	1443	1449	1455	1455	1461	1461	0	0	1461	1461	1461	1443	1449	1437	1437	1437	1437	1431	1443	1443	1449	1449	1455	1455	1461	1461	1461	1461	0	0	0	0	0	0	0	0	0	0	0	0	0	0	0	0	0	0	0	0	0	0	0	0	0	0	0	0	0	0	0	0	0	0	0	0	0	0	0	1641	1649	1657	1649	1649	1698	1698	1706	1715	1723	1723	1723	1723	1741	1750	1750	1759	1768	1768	1768	1777	1777	1786	1804	1814	1833	1833	1833	0	0	0	0	0	0	0	0	0	0	0	0	0	0	0	0	0	0	7137	6853	6853	6853	6853	0	0	0	0	0	0	0	6853	6853	6853	6853	6720	6853	6853	6853	6853	0	0	0	0	0	0	0	0	0	0	0	0	0	0	0	0	6992	6992	6992	7137	7137	6992	6992	6992	6992	7137	7137	7137	6992	7137	7137	0	0	0	0	6853	6853	6853	6992	6992	6992	6992	6992	6992	6992	6992	6992	6992	6992	6992	6992	6992	0	0	0	0	0	0	0	0	0	0	0	0	0	0	0	7137	7137	7137	6992	6853	6720	6720	6592	6592	6592	6592	6592	6592	6592	6592	6592	6592	6592	6592	6592	6468	6592	6592	6592	6592	6592	6592	6592	6592	6592	6592	6592	6592	6592	6592	6592	6720	6592	6720	6592	6720	6592	6592	6592	6592	6592	6592	6592	6592	6592	6592	6592	6592	6592	6592	0	0	0	0	0	0	0	0	0	0	0	0	0	0	6720	6720	6720	6720	6592	6592	6592	6592	6592	6592	6592	6592	6592	6592	6592	6592	6592	6592	6592	6592	6592	6592	6592	6720	6592	6592	6592	0	0	0	0	0	0	0	0	0	0	0	0	0	0	0	0	0	0	7137	7137	7137	7137	7137	6992	6992	6853	6720	6592	6592	6720	6720	6720	6853	6853	6853	6853	6853	6853	6720	6720	6720	6592	6592	6720	6592	6592	6720	6720	6720	6720	6720	6720	6720	6720	6720	6592	6592	6592	6720	6592	6720	6592	6720	6592	6592	6468	6349	6349	6349	6349	6349	6349	6468	6468	6468	6592	6592	6592	6720	6720	6592	6720	6592	6592	6592	6468	6468	6468	6349	6349	6468	6468	6720	6720	6853	6720	6720	6853	6853	6720	6720	6720	6720	6720	6720	6720	6720	6720	6720	6720	6592	6592	6720	6592	6468	6592	6592	6592	6592	6592	6592	6720	6720	6720	6720	6720	6720	6720	6592	6592	6592	6592	6592	6592	6592	6592	6592	6592	6592	6592	6468	6349	6349	6235	6235	6235	6124	6124	6018	6018	6018	5915	5915	5915	5915	5915	6018	6018	5915	5815	5815	5719	5719	5719	5626	5626	5626	5535	5535	5535	5448	5448	5448	5364	5364	5364	5364	5364	5282	5282	5364	0	0	0	0	0	0	0	0	0	0	0	0	0	0	1480	1480	1467	1467	1467	1461	1455	1455	1455	1449	1449	1449	1449	1449	1449	1449	1449	1449	1443	1449	1449	1449	1443	1443	1443	1443	1443	1443	1437	1443	1437	1437	1437	1437	1437	1437	1437	1437	1437	1431	1425	1425	1419	1419	1419	1419	1419	1419	1425	1425	1425	1425	1431	1431	1431	0	0	0	0	0	0	0	0	0	0	0	0	0	0	0	0	0	0	0	0	0	0	0	0	0	0	0	0	0	0	0	0	0	0	0	0	0	0	0	0	0
0	0	0	0	0	0	0	0	1374	1374	1379	1368	1368	1385	1385	1379	1396	1396	1390	1390	1390	1390	1385	1390	1385	1379	1379	1379	1379	1385	1379	1385	1385	1385	1390	1385	1374	1374	1379	1379	1379	1379	1374	1379	1390	1390	1402	1407	1413	1413	1425	1437	1443	1455	1455	1455	1461	1461	1467	1461	1461	1461	1461	1443	1437	1437	1437	1437	1437	1431	1443	1443	1449	1449	1455	1461	1461	1461	1461	1461	0	0	0	0	0	0	0	0	0	0	0	0	0	0	0	0	0	0	0	0	0	0	0	0	0	0	0	0	0	0	0	0	0	0	0	0	0	0	0	0	1649	1673	1673	1673	1723	1723	1732	1732	1732	1732	1723	1723	1732	1741	1750	1759	1768	1768	1768	1777	1777	1786	1786	1814	1833	1833	1833	0	0	0	0	0	0	0	0	0	0	0	0	0	0	0	0	0	0	7137	6853	6853	6853	6853	6853	0	0	0	0	0	0	0	0	6853	6853	6720	6853	6853	6853	6853	6853	0	0	0	0	0	0	0	0	0	0	0	0	0	0	0	6992	6992	7444	7444	7137	7137	6992	6992	6992	6992	7137	7137	7137	7137	7137	0	0	6992	6992	6992	6853	6992	6992	6992	6992	6992	6992	0	0	6992	6992	6992	6992	6992	6992	6992	0	0	0	0	0	0	6853	6853	6853	0	0	0	0	0	0	7137	7137	7137	6992	6853	6720	6720	6592	6720	6720	6592	6592	6592	6592	6592	6592	6592	6592	6592	6592	6592	6592	6592	6592	6592	6592	6592	6592	6592	6592	6592	6592	6592	6592	6592	6592	6720	6720	6720	6720	6720	6592	6592	6592	6592	6592	6592	6592	6592	6592	6592	6592	6592	6592	6592	0	0	0	0	0	0	0	0	0	0	0	0	0	0	0	6720	6720	6592	6592	6592	6592	6592	6592	6592	6592	6592	6592	6592	6592	6592	6592	6592	6592	6592	6592	6592	6592	6720	6720	6720	6720	0	0	0	0	0	0	0	0	0	0	0	0	0	0	0	0	0	0	7137	7287	7287	7287	7137	6992	6992	6720	6720	6592	6592	6720	6720	6720	6720	6720	6853	6853	6853	6720	6720	6720	6720	6592	6720	6720	6720	6720	6720	6720	6720	6720	6720	6720	6720	6720	6720	6720	6720	6720	6720	6720	6592	6592	6592	6592	6468	6468	6468	6349	6349	6349	6349	6349	6468	6592	6592	6592	6592	6592	6592	6592	6592	6592	6592	6592	6592	6468	6468	6468	6468	6468	6468	6592	6720	6720	6720	6720	6720	6853	6853	6720	6720	6720	6720	6720	6720	6720	6720	6720	6720	6720	6592	6592	6592	6592	6592	6468	6592	6592	6592	6592	6592	6720	6720	6720	6720	6720	6720	6720	6592	6592	6592	6592	6592	6592	6592	6592	6592	6592	6592	6592	6468	6349	6349	6235	6235	6235	6124	6124	6124	6018	6018	6018	5915	5915	5915	5915	6018	6018	5915	5815	5815	5719	5719	5719	5719	5626	5626	5535	5535	5535	5448	5448	5448	5364	5364	5364	5282	5282	5282	5282	0	0	0	0	0	0	0	0	0	0	0	0	0	0	1480	1480	1480	1467	1467	1473	1461	1455	1455	1455	1455	1449	1449	1449	1455	1449	1449	1449	1449	1443	1449	1449	1443	1443	1443	1443	1443	1443	1437	1437	1437	1437	1437	1437	1437	1437	1437	1443	1437	1437	1431	1431	1425	1419	1419	1419	1419	1419	1419	1419	1425	1425	1425	1425	1431	1431	0	0	0	0	0	0	0	0	0	0	0	0	0	0	0	0	0	0	0	0	0	0	0	0	0	0	0	0	0	0	0	0	0	0	0	0	0	0	0	0	0
0	0	0	0	0	0	0	0	1385	1385	1390	1390	1402	1396	1402	1396	1402	1402	1396	1396	1396	1396	1396	1396	1396	1390	1396	1385	1385	1385	1385	1385	1390	1390	1396	1390	1385	1379	1385	1385	1379	1379	1374	1385	1390	1396	1402	1407	1413	1413	1419	1419	1437	1443	1455	1461	1461	1455	1467	1467	1467	1467	1443	1443	1437	1437	1437	1437	1437	1437	1443	1443	1449	1449	1455	1461	1461	1461	1461	1461	0	0	0	0	0	0	0	0	0	0	0	0	0	0	0	0	0	0	0	0	0	0	0	0	0	0	0	0	0	0	0	0	0	0	0	0	0	0	0	0	0	1681	1681	1681	1732	1723	1723	1723	1723	1723	1723	1715	1723	1732	1741	1759	1768	1777	1777	1777	1777	1777	1777	0	0	0	0	0	0	0	0	0	0	0	0	0	0	0	0	0	0	0	0	0	0	0	6853	6853	6853	6992	6992	0	0	0	0	0	0	0	0	0	0	0	6853	6853	6853	6853	6853	0	0	0	0	0	0	7287	7287	7137	7137	0	0	7137	7137	0	0	0	7444	7444	7444	6992	6992	6992	6992	6992	7137	7137	7137	7137	7137	0	6992	6992	6992	6853	6853	6992	6992	6992	6992	6992	7137	7287	7287	6992	6992	6992	6992	6992	6992	0	0	0	0	0	0	0	6853	6853	6853	0	0	0	0	0	0	7137	7287	7137	6992	6853	6853	6720	6720	6720	6720	6720	6592	6592	6592	6592	6592	6592	6592	6592	6592	6468	6468	6592	6592	6592	6592	6592	6592	6592	6592	6592	6592	6592	6720	6592	6720	6720	6720	6853	6720	6720	6720	6720	6592	6592	6592	6592	6592	6592	6592	6592	6592	6592	6592	0	0	0	0	0	0	3907	3907	0	0	0	0	0	0	0	0	0	6720	6592	6592	6592	6592	6592	6592	6592	6592	6592	6592	6592	6592	6592	6592	6592	6592	6592	6592	6592	6592	6592	6720	6720	6720	6720	0	0	0	0	0	0	0	0	0	0	0	0	0	0	0	0	7287	7287	7287	7287	7287	0	0	0	6592	6720	6592	6592	6720	6720	6720	6720	6720	6720	6720	6720	6720	6720	6720	6720	6592	6720	6720	6720	6720	6720	6720	6720	6720	6720	6720	6720	6720	6720	6592	6720	6720	6720	6592	6592	6592	6592	6592	6592	6468	6468	6468	6468	6349	6349	6468	6468	6592	6592	6592	6592	6592	6592	6592	6592	6592	6592	6592	6592	6592	6592	6468	6468	6468	6468	6592	6720	6720	6720	6720	6720	6853	6853	6720	6720	6592	6720	6720	6592	6720	6720	6720	6720	6720	6720	6720	6720	6592	6592	6592	6592	6592	6592	6592	6720	6592	6720	6720	6720	6720	6720	6720	6592	6592	6592	6592	6592	6592	6592	6592	6592	6592	6592	6592	6468	6349	6349	6349	6235	6235	6124	6124	6124	6018	6018	6018	6018	5915	5915	5915	5915	6018	5915	5815	5815	5815	5719	5719	5719	5626	5626	5626	5535	5535	5535	5448	5448	5364	5364	5364	5282	5125	5282	5282	0	0	0	0	0	0	0	0	0	0	0	0	0	1486	1486	1480	1467	1461	1467	1467	1461	1455	1455	1455	1455	1455	1455	1455	1455	1455	1449	1449	1449	1449	1449	1443	1443	1443	1443	1443	1443	1443	1443	1437	1443	1437	1437	1437	1437	1437	1443	1443	1437	1437	1431	1431	1431	1425	1419	1419	1419	1425	1419	1425	1425	1425	1431	1425	1431	1431	0	0	0	0	0	0	0	0	0	0	0	0	0	0	0	0	0	0	0	0	0	0	0	0	0	0	0	0	0	0	0	0	0	0	0	0	0	0	0	0	0
0	0	0	0	0	0	0	0	1396	1396	1402	1402	1407	1407	1402	1396	1402	1396	1396	1402	1402	1402	1402	1402	1402	1402	1390	1385	1385	1390	1385	1390	1396	1396	1402	1396	1396	1385	1390	1385	1385	1385	1379	1396	1396	1396	1407	1413	1413	1413	1419	1431	1437	1443	1455	1455	1461	1455	1467	1467	1467	1449	1443	1437	1431	1431	1437	1437	1437	1437	1437	1443	1443	1449	1449	1461	1461	1461	1461	1461	0	0	0	0	0	0	0	0	0	0	0	0	0	0	0	0	0	0	0	0	0	0	0	0	0	0	0	0	0	0	0	0	0	0	0	0	0	0	0	0	0	1681	1681	1681	1732	1723	1732	1723	1723	1723	1723	1715	1723	1732	1741	1759	1768	1768	1768	1768	1768	1768	1777	0	0	0	0	0	0	0	0	0	0	0	0	0	0	0	0	0	0	0	0	0	0	0	6853	6853	6853	6853	7287	7137	6992	6992	6992	0	0	0	0	0	0	0	0	6853	6853	6853	0	0	0	0	0	0	0	7287	7137	7137	7137	6992	7137	7137	7137	0	0	0	7444	7444	7608	6992	6992	6992	6992	6992	7137	7137	7137	7287	7287	0	6992	6992	6992	6992	6992	6992	7137	7137	7137	7137	7137	7287	7287	7287	6992	6992	6992	7287	6992	6992	0	0	0	0	0	0	6992	6992	6992	6992	0	0	0	0	0	0	7287	7137	6992	6992	6992	6853	6720	6720	6720	6720	6592	6592	6592	6592	6592	6592	6592	6592	6592	6592	6468	6592	6592	6592	6592	6592	6592	6592	6592	6592	6720	6592	6720	6720	6720	6720	6720	6720	6720	6720	6720	6592	6592	6592	6592	6592	6592	6592	6592	6592	6592	6592	6592	0	0	3821	3821	3821	3821	3907	3907	3907	3907	3907	3907	3907	3952	3952	3952	0	0	6592	6592	6592	6592	6592	6592	6592	6592	6592	6592	6592	6592	6592	6592	6592	6592	6592	6592	6592	6592	6720	6720	6720	6720	6720	0	0	0	0	0	0	0	7287	7287	0	0	7287	7287	7287	0	0	7287	7287	7287	7287	0	0	0	0	6592	6720	6468	6592	6720	6720	6720	6720	6720	6720	6720	6720	6720	6720	6720	6720	6592	6592	6720	6720	6592	6720	6592	6720	6720	6592	6720	6720	6720	6720	6592	6592	6592	6592	6592	6592	6592	6592	6592	6592	6468	6468	6468	6468	6349	6468	6468	6468	6468	6468	6592	6592	6592	6592	6592	6592	6592	6592	6592	6592	6592	6592	6468	6468	6468	6468	6592	6720	6720	6720	6720	6720	6720	6853	6720	6720	6720	6592	6592	6592	6592	6592	6720	6720	6592	6720	6720	6720	6592	6592	6592	6592	6592	6592	6592	6720	6720	6720	6720	6720	6720	6720	6720	6720	6720	6592	6592	6592	6592	6720	6592	6592	6592	6592	6592	6468	6468	6349	6349	6349	6235	6124	6124	6124	6018	6018	6018	6018	5915	5815	5815	5915	5915	5915	5815	5815	5815	5719	5719	5719	5626	5626	5535	5535	5535	5535	5448	5448	5364	5364	5282	5282	5125	5125	5282	0	0	0	0	0	0	0	0	0	0	0	0	0	1486	1486	1473	1467	1461	1461	1467	1461	1461	1455	1455	1455	1455	1455	1455	1455	1455	1455	1455	1449	1455	1449	1449	1449	1443	1443	1443	1443	1443	1443	1443	1443	1437	1437	1437	1437	1437	1443	1443	1437	1437	1437	1437	1431	1431	1419	1425	1419	1425	1419	1419	1419	1425	1431	1425	1425	1425	0	0	0	0	0	0	0	0	0	0	0	0	0	0	0	0	0	0	0	0	0	0	0	0	0	0	0	0	0	0	0	0	0	0	0	0	0	0	0	0	0
0	0	0	0	0	0	0	0	1396	1402	1402	1407	1407	1407	1407	1407	1407	1396	1402	1402	1407	1407	1402	1402	1407	1402	1402	1402	1390	1396	1396	1402	1407	1407	1407	1402	1402	1396	1402	1390	1385	1390	1390	1402	1402	1402	1413	1413	1419	1419	1419	1431	1437	1437	1443	1455	1455	1455	1449	1449	1443	1443	1437	1437	1431	1431	1437	1431	1431	1437	1437	1443	1443	1449	1449	1461	1461	1461	1461	1467	1467	0	0	0	0	0	0	0	0	0	0	0	0	0	0	0	0	0	0	0	0	0	0	0	0	0	0	0	0	0	0	0	0	0	0	0	0	0	0	0	0	0	0	0	1732	1723	1723	1715	1723	1723	1723	1723	1723	1741	1750	1759	1768	1768	1777	1777	1777	1786	1786	0	0	0	0	0	0	0	0	0	0	0	0	0	0	0	0	0	0	0	0	0	0	0	0	6853	6853	6992	6992	6992	6992	6992	7137	7137	0	0	0	0	0	0	0	0	0	0	0	0	0	0	0	7287	7287	7287	7287	7137	7137	7137	7137	7137	7137	7137	0	0	7444	7608	7608	7287	7137	7137	7137	7137	7287	7287	7287	7287	7287	0	6992	6992	6853	6853	6853	6992	6992	7137	7137	7137	7137	7287	7137	7137	7137	7137	7137	7287	7137	6992	6992	6992	6992	6992	6992	6992	6992	6992	6992	6992	0	0	0	0	0	0	0	7137	6992	6992	6853	6853	6720	6720	6720	6592	6592	6592	6592	6592	6592	6592	6592	6592	6592	6592	6592	6592	6592	6592	6592	6592	6592	6592	6592	6592	6720	6592	6592	6592	6592	6720	6720	6720	6720	6720	6720	6592	6592	6592	6592	6592	6592	6592	6592	6592	6592	6720	6720	0	3821	3864	3821	3821	3821	3907	3907	3907	3907	3907	3907	3907	3907	3952	3952	3907	3907	6720	6720	6720	6720	6592	6592	6592	6592	6592	6592	6592	6592	6592	6592	6592	6592	6592	6592	6592	6592	6592	6592	6720	6720	6720	0	0	0	0	0	0	7287	7137	7287	7287	7444	7287	7444	7444	7444	7444	7444	7287	7287	7287	0	0	0	0	0	6720	6720	6592	6720	6720	6720	6720	6720	6853	6853	6720	6720	6720	6720	6720	6592	6720	6720	6720	6720	6592	6592	6592	6720	6592	6592	6592	6720	6592	6592	6592	6592	6592	6592	6592	6592	6592	6592	6592	6592	6468	6468	6468	6349	6468	6468	6468	6468	6468	6592	6468	6592	6592	6592	6592	6592	6592	6592	6592	6592	6592	6592	6468	6592	6592	6592	6720	6720	6720	6720	6720	6720	6853	6720	6720	6592	6592	6592	6592	6592	6592	6592	6592	6592	6720	6720	6720	6592	6592	6592	6592	6592	6592	6592	6720	6720	6720	6720	6853	6853	6720	6720	6720	6720	6720	6720	6720	6720	6720	6592	6592	6592	6468	6468	6468	6468	6349	6349	6349	6235	6235	6124	6124	6018	6018	6018	6018	5915	5915	5915	5915	6018	5915	5915	5915	5815	5815	5719	5719	5626	5626	5626	5535	5535	5535	5448	5448	5364	5364	5364	5282	5282	5125	0	0	0	0	0	0	0	0	0	0	0	0	0	1486	1480	1473	1467	1461	1461	1467	1467	1461	1461	1455	1455	1455	1455	1455	1455	1455	1455	1455	1455	1449	1455	1455	1449	1449	1443	1443	1449	1443	1449	1449	1443	1443	1437	1437	1437	1437	1437	1437	1437	1437	1437	1437	1437	1437	1437	1425	1425	1419	1425	1419	1419	1419	1419	1419	1419	1425	1425	0	0	0	0	0	0	0	0	0	0	0	0	0	0	0	0	0	0	0	0	0	0	0	0	0	0	0	0	0	0	0	0	0	0	0	0	0	0	0	0	0
0	0	0	0	0	0	0	0	0	1407	1407	1407	1413	1413	1407	1407	1407	1407	1407	1407	1407	1402	1402	1402	1425	1419	1413	1413	1407	1407	1407	1413	1413	1413	1407	1407	1407	1402	1402	1396	1390	1396	1407	1407	1407	1407	1413	1419	1419	1419	1425	1437	1437	1437	1443	1455	1455	1455	1455	1455	1449	1443	1437	1437	1431	1431	1437	1431	1437	1437	1437	1443	1449	1455	1455	1461	1461	1467	1461	1467	1467	1467	0	0	0	0	0	0	0	0	0	0	0	0	0	0	0	0	0	0	0	0	0	0	0	0	0	0	0	0	0	0	0	0	0	0	0	0	0	0	0	0	0	0	0	1715	1715	1715	1715	1715	1715	1715	1715	1732	1741	1768	1777	1777	1786	1786	1786	1795	1795	1795	0	0	0	0	0	0	0	0	0	0	0	0	0	0	0	0	0	0	0	0	0	0	0	6853	6992	6992	7137	7137	7137	7137	7137	7137	7137	0	0	0	0	0	0	0	0	0	6992	6992	7287	7137	7137	7287	7287	7287	7287	7287	7137	7137	7137	7287	7287	7287	7287	7444	7444	7444	7444	7287	7287	7287	7287	7287	7444	7444	7287	7287	7287	6992	6992	6992	6992	6992	6992	6992	6992	7137	7137	7137	7137	7287	7287	7287	7287	7137	7137	7137	6992	7137	6992	6992	6992	7137	6992	6992	6992	6992	7137	7137	7137	0	0	0	0	0	0	6992	6853	6853	6853	6720	6720	6720	6720	6592	6592	6592	6592	6592	6592	6592	6592	6592	6592	6592	6592	6592	6592	6592	6592	6592	6592	6592	6592	6592	6592	6592	6592	6592	6592	6592	6720	6720	6720	6720	6720	6592	6592	6592	6592	6592	6592	6592	6592	6592	6592	6592	6720	0	3864	3864	3821	3821	3821	3907	3907	3907	3907	3907	3907	3907	3907	3907	3907	3907	3907	6720	6720	6720	6720	6592	6592	6720	6720	6720	6720	6592	6592	6720	6720	6720	6592	6592	6592	6592	6592	6592	6592	6720	6720	6720	0	0	0	0	7137	7137	7287	7287	7444	7608	7608	7608	7608	7608	7608	7608	7608	7287	7287	0	0	0	0	0	0	6720	6720	6592	6720	6720	6720	6720	6720	6853	6853	6720	6720	6720	6720	6720	6720	6720	6720	6720	6720	6592	6592	6592	6592	6592	6592	6592	6592	6720	6592	6592	6592	6592	6592	6592	6592	6592	6592	6592	6592	6592	6468	6468	6349	6468	6468	6468	6468	6468	6468	6468	6468	6592	6592	6592	6592	6592	6592	6592	6592	6592	6592	6592	6592	6592	6592	6720	6720	6720	6720	6720	6720	6853	6720	6720	6720	6592	6592	6592	6592	6592	6592	6592	6720	6720	6720	6720	6592	6592	6592	6592	6592	6592	6592	6720	6720	6592	6592	6720	6720	6720	6720	6720	6720	6720	6720	6720	6720	6720	6720	6592	6592	6468	6468	6468	6468	6349	6349	6349	6349	6235	6124	6124	6018	6018	6018	6018	5915	5915	5915	5915	5915	5915	5915	5815	5815	5719	5719	5719	5626	5626	5626	5535	5535	5535	5448	5535	5448	5364	5364	5364	5364	0	0	0	0	0	0	0	0	0	0	0	0	1499	1499	1492	1480	1473	1467	1461	1461	1461	1461	1461	1461	1455	1455	1455	1455	1455	1455	1455	1455	1455	1455	1449	1449	1449	1449	1443	1443	1443	1449	1449	1449	1449	1443	1443	1437	1437	1437	1437	1437	1437	1437	1437	1437	1443	1437	1437	1437	1431	1425	1425	1425	1419	1419	1419	1419	1419	1419	1425	1425	0	0	0	0	0	0	0	0	0	0	0	0	0	0	0	0	0	0	0	0	0	0	0	0	0	0	0	0	0	0	0	0	0	0	0	0	0	0	0	0	0
0	0	0	0	0	0	0	0	0	1407	1407	1407	1413	1413	1413	1413	1419	1413	1413	1413	1413	1413	1413	1425	1425	1425	1425	1419	1419	1419	1419	1425	1425	1413	1413	1407	1407	1407	1407	1402	1402	1402	1407	1407	1407	1413	1413	1425	1425	1419	1425	1437	1437	1437	1449	1455	1461	1461	1461	1461	1449	1443	1437	1437	1431	1437	1437	1437	1437	1437	1437	1443	1443	1455	1455	1461	1461	1461	1461	1467	1467	1467	0	0	0	0	0	0	0	0	0	0	0	0	0	0	0	0	0	0	0	0	0	0	0	0	0	0	0	0	0	0	0	0	0	0	0	0	0	0	0	0	0	0	0	1706	1715	1706	1706	1715	1715	1715	1715	1741	1750	1768	1777	1777	1777	1777	1777	1786	1786	1795	0	0	0	0	0	0	0	0	0	0	0	0	0	0	0	0	0	0	0	0	0	0	0	6853	6992	7137	7287	7287	7137	7287	7287	7287	7287	7287	0	0	0	0	0	0	0	0	6992	6992	7287	7287	7287	7287	7287	7287	7287	7287	7137	7137	7287	7287	7287	7287	7444	7444	7444	7444	7608	7608	7444	7444	7444	7444	7444	7444	7444	7287	7287	6992	6992	6992	6992	6992	6992	6992	7137	7137	7287	7137	7287	7444	7444	7287	7287	7137	7137	7137	7137	7137	6992	7137	7137	7444	7444	7137	7137	6992	7137	7137	7137	7137	0	0	0	0	0	6992	6853	6853	6853	6720	6720	6720	6592	6592	6592	6592	6592	6592	6592	6592	6592	6592	6592	6592	6592	6592	6592	6592	6592	6592	6592	6592	6592	6592	6592	6592	6592	6592	6592	6592	6592	6592	6592	6592	6592	6592	6592	6592	6592	6468	6468	6468	6592	6592	6592	6592	0	0	3864	3864	3864	3864	3864	3907	3907	3864	3864	3907	3907	3907	3907	3907	3907	3907	3907	0	6720	6720	6720	6720	6720	6720	6720	6720	6720	6592	6592	6720	6720	6720	6592	6592	6592	6592	6592	6592	6592	6592	6720	6720	6720	0	0	0	7287	7287	7444	7444	7608	7608	7608	7608	7608	7779	7779	7779	7779	0	0	0	0	0	0	6853	6992	6853	6720	6592	6720	6720	6720	6720	6720	6853	6853	6720	6720	6720	6720	6592	6592	6720	6592	6592	6592	6592	6592	6468	6468	6592	6592	6592	6720	6720	6592	6592	6592	6592	6592	6592	6592	6592	6592	6592	6592	6468	6468	6468	6468	6468	6468	6468	6468	6468	6468	6468	6592	6592	6592	6592	6592	6592	6592	6592	6592	6468	6468	6592	6592	6592	6592	6720	6720	6720	6720	6720	6720	6720	6720	6592	6592	6592	6592	6592	6592	6592	6592	6592	6592	6592	6720	6720	6592	6720	6720	6720	6720	6720	6720	6720	6720	6720	6720	6720	6720	6720	6720	6592	6720	6720	6720	6720	6592	6720	6592	6592	6468	6468	6468	6468	6349	6349	6349	6349	6235	6235	6124	6124	6018	6018	6018	6018	5915	5915	5915	5915	6018	5915	5915	5815	5815	5815	5719	5719	5626	5626	5626	5535	5535	5535	5448	5448	5448	5364	5364	5364	5364	0	0	0	0	0	0	0	0	0	0	0	1506	1506	1499	1492	1473	1467	1467	1461	1461	1461	1461	1455	1461	1455	1455	1455	1455	1455	1455	1455	1461	1455	1455	1449	1455	1455	1449	1449	1449	1449	1449	1449	1449	1449	1443	1437	1437	1437	1437	1437	1437	1437	1437	1437	1443	1443	1443	1443	1437	1431	1431	1425	1431	1425	1425	1419	1419	1419	1419	1419	1419	0	0	0	0	0	0	0	0	0	0	0	0	0	0	0	0	0	0	0	0	0	0	0	0	0	0	0	0	0	0	0	0	0	0	0	0	0	0	0	0	0
0	0	0	0	0	0	0	0	0	1413	1413	1413	1419	1419	1419	1419	1425	1425	1419	1425	1425	1431	1425	1431	1431	1431	1431	1431	1425	1425	1425	1431	1431	1419	1413	1413	1413	1413	1413	1407	1407	1402	0	1407	1419	1419	1419	1431	1425	1425	1431	1437	1437	1437	1443	1455	1461	1461	1461	1461	1455	1449	1443	1437	1437	1437	1437	1437	1437	1437	1437	1443	1443	1455	1461	1467	1467	1473	1473	1473	1473	1467	0	0	0	0	0	0	0	0	0	0	0	0	0	0	0	0	0	0	0	0	0	0	0	0	0	0	0	0	0	0	0	0	0	0	0	0	0	0	0	0	0	1673	1673	1706	1706	1706	1706	1715	1723	1723	1723	1741	1759	1768	1777	1777	1795	1786	1786	1786	1786	0	0	0	0	0	0	0	0	0	0	0	0	0	0	0	0	0	0	0	0	0	0	0	0	0	0	7137	7287	7287	7287	7287	7287	7287	7287	7287	0	0	0	0	0	0	0	0	7137	7137	7137	7287	7287	7287	7287	7287	7287	7287	7287	7287	7287	7444	7287	7444	7444	7444	7444	7444	7444	7444	7444	7444	7444	7444	7444	7444	7287	7287	7137	7137	7137	6992	6992	6992	6992	6992	7137	7137	7287	7287	7287	7287	7444	7287	7287	7137	7137	7287	7287	7287	7137	7137	7137	7444	7444	7137	7137	6992	7137	7137	7137	7137	7137	0	0	0	0	0	6853	6853	6853	6853	6720	6720	6592	6592	6592	6592	6592	6592	6592	6592	6592	6592	6592	6592	6592	6592	6592	6592	6592	6592	6592	6592	6592	6592	6592	6592	6592	6592	6592	6592	6592	6592	6592	6592	6592	6592	6592	6592	6468	6468	6592	6592	6592	6592	0	0	0	0	3864	3864	3864	3821	3821	3864	3864	3864	3864	3864	3907	3907	3864	3864	3864	3907	3864	3864	0	6720	6853	6853	6720	6720	6720	6720	6720	6720	6592	6720	6720	6720	6592	6592	6592	6592	6592	6592	6592	6720	6720	6853	6853	6992	7137	7137	7287	7444	7444	7444	7608	7608	7608	7608	7608	7779	7779	7779	7779	0	0	0	0	0	0	6992	6992	6992	6720	6592	6720	6720	6720	6720	6720	6720	6720	6720	6720	6720	6720	6592	6592	6592	6592	6592	6592	6468	6592	6468	6592	6592	6592	6592	6592	6592	6592	6592	6468	6468	6468	6468	6592	6592	6592	6592	6592	6592	6592	6592	6468	6468	6468	6468	6468	6468	6468	6468	6468	6468	6592	6592	6592	6592	6592	6592	6592	6592	6592	6592	6592	6592	6592	6720	6720	6720	6720	6720	6720	6720	6720	6720	6720	6592	6592	6592	6592	6592	6592	6592	6592	6592	6720	6720	6592	6720	6720	6720	6720	6720	6720	6853	6720	6720	6720	6592	6592	6720	6720	6592	6592	6720	6720	6592	6592	6592	6592	6592	6468	6468	6468	6349	6349	6235	6349	6349	6235	6235	6124	6124	6018	6018	6018	6018	5915	5915	5915	5915	6018	5915	5915	5815	5815	5719	5719	5719	5626	5626	5626	5626	5535	5535	5535	5535	5448	5448	5364	5364	0	0	0	0	0	0	0	0	0	0	1506	1506	1506	1506	1499	1486	1480	1473	1467	1461	1461	1461	1461	1461	1461	1455	1455	1455	1455	1455	1455	1455	1455	1455	1455	1449	1455	1449	1449	1449	1449	1449	1449	1449	1449	1449	1443	1443	1437	1437	1437	1437	1437	1443	1437	1437	1437	1443	1443	1443	1437	1431	1431	1425	1425	1425	1425	1419	1419	1419	1419	1419	1419	0	0	0	0	0	0	0	0	0	0	0	0	0	0	0	0	0	0	0	0	0	0	0	0	0	0	0	0	0	0	0	0	0	0	0	0	0	0	0	0	0
0	0	0	0	0	0	0	0	0	1413	1413	1419	1425	1425	1419	1419	1425	1431	1425	1431	1431	1437	1431	1437	1437	1437	1437	1431	1431	1431	1431	1437	1431	1431	1419	1419	1419	1413	1413	1413	1413	0	0	0	1431	1437	1437	1437	1431	1431	1431	1437	1437	1437	1443	1455	1461	1461	1461	1455	1455	1443	1437	1437	1437	1437	1437	1437	1437	1437	1437	1443	1449	1461	1461	1467	1467	1473	1480	1480	1480	0	0	0	0	0	0	0	0	0	0	0	0	0	0	0	0	0	0	0	0	0	0	0	0	0	0	0	0	0	0	0	0	0	0	0	0	0	0	0	0	0	0	1673	1673	1690	1698	1698	1698	1706	1723	1723	1750	1768	1768	1777	1777	1786	1795	1786	1786	1786	1786	0	0	0	0	0	0	0	0	0	0	0	0	0	0	0	0	0	0	0	0	0	0	0	0	0	7137	7137	7137	7137	7137	7287	7137	7287	7287	7287	7287	0	0	0	0	0	0	0	7137	7137	7137	7287	7287	7287	7444	7444	7287	7287	7287	7287	7287	7444	7444	7444	7444	7444	7444	7444	7444	7444	7444	7444	7444	7444	7444	7444	7287	7287	7137	7137	7137	7137	7137	7137	7137	6992	7137	7137	7137	7287	7287	7287	7444	7444	7444	7287	7287	7287	7287	7287	7137	7287	7287	7444	7444	7287	7137	7137	7137	7287	7287	7137	7137	0	0	0	0	0	0	6853	6720	6853	6720	6592	6592	6592	6592	6592	6592	6592	6592	6592	6592	6592	6592	6592	6592	6592	6592	6592	6592	6592	6592	6592	6592	6592	6592	6592	6592	6592	6592	6592	6592	6592	6592	6592	6592	6592	6592	6592	6592	6592	6592	6592	6592	6592	0	0	0	0	3864	3864	3864	3864	3821	3864	3864	3864	3864	3864	3864	3907	3864	3864	3864	3864	3864	3864	0	6720	6720	6720	6720	6720	6720	6720	6720	6720	6720	6720	6720	6720	6592	6592	6592	6592	6592	6592	6592	6720	6720	6853	6853	6853	7287	7287	7444	7444	7444	7444	7608	7608	7608	7608	7608	7779	7779	7779	7779	0	0	0	0	0	0	6992	6992	6992	6720	6592	6720	6720	6720	6720	6720	6720	6720	6720	6720	6720	6720	6720	6592	6592	6592	6592	6592	6592	6592	6592	6592	6592	6592	6592	6592	6592	6592	6468	6468	6468	6592	6592	6592	6592	6592	6720	6592	6592	6592	6592	6592	6592	6468	6468	6468	6468	6468	6349	6349	6468	6468	6468	6592	6592	6592	6592	6592	6592	6592	6592	6592	6592	6592	6720	6720	6720	6720	6720	6720	6720	6720	6720	6720	6592	6468	6468	6592	6468	6592	6592	6592	6720	6720	6720	6720	6720	6720	6720	6720	6720	6720	6720	6720	6592	6592	6720	6720	6720	6720	6592	6720	6720	6720	6720	6592	6592	6592	6592	6468	6468	6468	6349	6349	6349	6349	6235	6235	6124	6124	6018	6018	6018	6018	6018	5915	5915	5915	6018	6018	5915	5915	5815	5815	5719	5719	5719	5626	5626	5626	5626	5535	5535	5535	5448	5448	5448	5448	5364	0	0	0	0	0	0	0	0	0	0	1512	1506	1506	1506	1499	1492	1480	1473	1467	1467	1461	1467	1467	1461	1461	1461	1461	1461	1461	1455	1455	1461	1461	1455	1455	1449	1455	1449	1449	1443	1449	1449	1449	1449	1449	1449	1449	1443	1443	1437	1437	1437	1437	1437	1437	1437	1437	1443	1443	1443	1437	1431	1425	1425	1425	1419	1419	1419	1419	1419	1419	1425	1425	0	0	0	0	0	0	0	0	0	0	0	0	0	0	0	0	0	0	0	0	0	0	0	0	0	0	0	0	0	0	0	0	0	0	0	0	0	0	0	0	0
0	0	0	0	0	0	0	0	0	1419	1419	1419	1425	1425	1425	1419	1425	1431	1431	1437	1437	1437	1437	1437	1437	1437	1437	1437	1437	1437	1437	1437	1437	1431	1431	1425	1419	1419	1419	1419	1413	0	0	0	1431	1437	1443	1443	1437	1437	1437	1449	1443	1443	1449	1455	1461	1461	1461	1455	1449	1443	1437	1437	1431	1431	1431	1431	1431	1437	1437	1443	1449	1449	1461	1467	1467	1467	1499	1499	1480	0	0	0	0	0	0	0	0	0	0	0	0	0	0	0	0	0	0	0	0	0	0	0	0	0	0	0	0	0	0	0	0	0	0	0	0	0	0	0	0	0	0	0	1673	1690	1698	1690	1690	1690	1690	1768	1759	1777	1777	1777	1777	1786	1795	1786	1786	1795	1795	1795	0	0	0	0	0	0	0	0	0	0	0	0	0	0	0	0	0	0	0	0	0	0	0	0	7137	7137	7137	7137	7287	7287	7287	7287	7287	7287	7287	7287	7287	7287	7287	7287	0	7287	7287	7287	7287	7287	7287	7287	7287	7444	7287	7287	7287	7287	7287	7444	7444	7444	7444	7444	7444	7444	7444	7444	7444	7444	7444	7444	7444	7444	7287	7287	7287	7287	7137	7137	7137	7137	7137	6992	6992	7137	7137	7287	7287	7287	7444	7444	7444	7287	7287	7287	7287	7287	7287	7287	7287	7444	7287	7287	7137	7137	7137	7137	7287	7137	7137	6992	6992	0	0	0	0	0	6720	6592	6592	6592	6592	6592	6592	6592	6592	6592	6592	6592	6592	6592	6592	6592	6592	6592	6592	6592	6592	6592	6592	6592	6592	6592	6592	6592	6592	6592	6592	6592	6592	6592	6592	6592	6592	6592	6592	6592	6592	6592	6592	6592	6592	0	0	0	0	0	3864	3864	3864	3821	3821	3864	3864	3864	3864	3864	3864	3864	3864	3864	3907	3864	3864	3864	3864	6720	6720	6720	6720	6720	6720	6720	6720	6720	6720	6720	6720	6720	6592	6592	6592	6720	6592	6720	6720	6720	6853	6853	6853	7287	7444	7444	7444	7608	7444	7608	7608	7444	7444	7444	7444	7779	7779	7608	7608	0	0	0	0	0	6992	6992	6992	6853	6720	6720	6720	6720	6720	6720	6720	6720	6720	6720	6720	6720	6592	6592	6592	6592	6592	6468	6468	6468	6592	6592	6592	6592	6592	6720	6592	6592	6592	6592	6468	6468	6468	6592	6592	6592	6592	6592	6592	6592	6592	6592	6592	6468	6468	6468	6468	6468	6468	6349	6349	6468	6468	6468	6468	6592	6592	6592	6592	6592	6592	6592	6592	6592	6592	6720	6720	6720	6720	6720	6720	6720	6720	6592	6592	6592	6468	6468	6468	6592	6592	6592	6592	6720	6720	6720	6720	6720	6720	6720	6720	6592	6592	6720	6720	6592	6720	6720	6720	6720	6720	6592	6720	6720	6720	6720	6720	6592	6592	6592	6468	6468	6468	6349	6349	6235	6349	6235	6235	6124	6124	6018	6018	6018	6018	6018	6018	5915	5915	6018	6018	6018	5915	5815	5815	5719	5719	5719	5626	5626	5626	5626	5535	5535	5448	5535	5448	5448	5448	0	0	0	0	0	0	0	0	0	0	0	1512	1512	1506	1506	1499	1492	1480	1473	1473	1467	1467	1467	1467	1467	1461	1461	1461	1461	1461	1461	1461	1461	1461	1461	1455	1449	1455	1449	1449	1449	1449	1449	1449	1449	1449	1449	1443	1443	1443	1437	1437	1437	1437	1443	1437	1443	1437	1443	1443	1443	1437	1431	1425	1425	1425	1425	1425	1419	1419	1425	1425	1425	1425	0	0	0	0	0	0	0	0	0	0	0	0	0	0	0	0	0	0	0	0	0	0	0	0	0	0	0	0	0	0	0	0	0	0	0	0	0	0	0	0	0
0	0	0	0	0	0	0	0	0	1419	1443	1419	1431	1431	1431	1431	1437	1443	1437	1443	1443	1455	1443	1449	1455	1443	1443	1443	1443	1443	1443	1443	1437	1443	1437	1431	1425	1425	1419	1419	0	0	0	0	0	0	1443	1449	1443	1443	1437	1449	1443	1443	1449	1455	1455	1461	1455	1455	1449	1443	1437	1437	1431	1431	1431	1431	1431	1437	1443	1449	1449	1449	1461	1461	1467	1467	1499	1499	0	0	0	0	0	0	0	0	0	0	0	0	0	0	0	0	0	0	0	0	0	0	0	0	0	0	0	0	0	0	0	0	0	0	0	0	0	0	0	0	0	0	0	0	1673	1690	1690	1690	1690	1715	1741	1750	1759	1768	1768	1768	1777	1795	1795	1795	1786	1804	1804	1804	0	0	0	0	0	0	0	0	0	0	0	0	0	0	0	0	0	0	0	0	0	0	0	0	7137	7137	7137	7137	7287	7287	7287	7444	7287	7287	7287	7287	7287	7287	7287	7287	7287	7287	7287	7287	7287	7287	7287	7287	7287	7287	7287	7287	0	0	0	0	0	0	7444	7444	7444	7444	7444	7444	7444	7444	7444	7444	7444	7444	7444	7444	7444	7287	7137	7444	7444	7444	7444	6992	6992	7137	0	0	0	0	0	7444	7444	7444	7444	7444	7444	7444	7444	7444	7444	7444	7444	7444	7444	7137	7287	7287	7287	7287	7137	7137	7137	0	0	0	0	0	0	6592	6592	6592	6592	6592	6592	6592	6468	6592	6592	6592	6592	6592	6592	6720	6592	6592	6592	6592	6592	6592	6592	6592	6592	6592	6592	6592	6592	6592	6592	6592	6592	6592	6592	6592	6592	6592	6592	6592	6592	6592	6592	6592	6592	0	0	0	0	0	3864	3864	3864	3864	3821	3864	3864	3864	3864	3864	3864	3864	3864	3864	3864	3864	3864	3864	3864	3864	6720	6720	6720	6720	6720	6720	6720	6720	6720	6720	6720	6720	6592	6592	6592	6592	6592	6720	6720	6720	6992	7137	7287	7287	7608	7608	7608	7608	7608	7779	7608	7444	7444	7444	7444	7779	7608	7608	7608	0	0	0	0	0	6992	6992	6992	6853	6720	6720	6592	6720	6720	6720	6720	6720	6720	6720	6720	6720	6720	6592	6592	6592	6592	6468	6592	6592	6592	6592	6592	6592	6720	6720	6592	6592	6592	6592	6592	6592	6592	6592	6592	6592	6592	6720	6592	6592	6592	6592	6592	6468	6468	6468	6349	6349	6349	6349	6349	6349	6349	6468	6592	6592	6592	6720	6592	6592	6592	6592	6592	6592	6592	6720	6720	6592	6592	6720	6720	6720	6720	6592	6720	6592	6592	6468	6592	6592	6592	6592	6720	6720	6720	6720	6720	6720	6720	6720	6720	6720	6720	6720	6720	6720	6720	6720	6720	6720	6720	6592	6592	6720	6720	6720	6720	6720	6720	6592	6468	6468	6468	6349	6349	6235	6349	6235	6235	6235	6124	6124	6018	6018	6018	6018	6018	6018	5915	6018	6018	6018	5915	5815	5815	5719	5719	5719	5719	5626	5626	5626	5626	5535	5535	5535	5448	5448	0	0	0	0	0	0	0	0	0	0	0	0	1512	1506	1506	1506	1499	1492	1480	1473	1473	1473	1467	1467	1467	1467	1467	1461	1461	1461	1461	1461	1461	1461	1461	1461	1461	1455	1455	1449	1449	1443	1449	1449	1449	1449	1449	1449	1443	1443	1443	1437	1437	1437	1437	1437	1437	1437	1437	1443	1443	1443	1437	1431	1425	1425	1425	1419	1425	1425	1425	1425	1425	1425	1425	0	0	0	0	0	0	0	0	0	0	0	0	0	0	0	0	0	0	0	0	0	0	0	0	0	0	0	0	0	0	0	0	0	0	0	0	0	0	0	0	0
0	0	0	0	0	0	0	0	0	1431	1443	1437	1443	1443	1443	1443	1443	1443	1443	1449	1449	1455	1449	1455	1461	1449	1449	1449	1449	1449	1449	1443	1443	1449	1443	1437	1437	1437	1437	0	0	0	0	0	0	1455	1449	1455	1449	1443	1443	1449	1443	1443	1455	1455	1461	1461	1461	1455	1449	1443	1437	1437	1437	1437	1437	1437	1437	1437	1443	1455	1449	1455	1461	1461	1467	1467	1492	1492	0	0	0	0	0	0	0	0	0	0	0	0	0	0	0	0	0	0	0	0	0	0	0	0	0	0	0	0	0	0	0	0	0	0	0	0	0	0	0	0	0	0	0	0	0	1690	1690	1690	1690	1690	1741	1750	1750	1768	1768	1759	1768	1795	1786	1786	1786	1786	1786	1804	0	0	0	0	0	0	0	0	0	0	0	0	0	0	0	0	0	0	0	0	0	0	0	0	7137	6992	7137	7287	7287	7287	7287	7444	7444	7444	7444	7444	7444	7444	7444	7444	7287	7287	7287	7287	7287	7287	7444	7444	7444	7444	7444	7444	0	0	0	0	0	0	7444	7287	7444	7444	7444	7444	7444	7444	7444	7444	7444	7444	7444	7444	7444	7444	7444	7444	7444	7287	7287	7287	0	0	0	0	0	0	0	7608	7608	7444	7444	7444	7444	7444	7444	7444	7444	7444	7444	7444	7444	7287	7287	7287	7287	7287	6992	6992	6992	0	0	0	0	0	0	6592	6592	6592	6592	6592	6592	6592	6592	6592	6592	6592	6592	6592	6592	6592	6592	6592	6592	6592	6592	6592	6592	6592	6592	6592	6592	6592	6592	6592	6592	6592	6592	6592	6592	6592	6592	6592	6592	6592	6592	6592	6592	6592	0	0	0	0	0	0	3864	3864	3864	3864	3821	3864	3864	3907	3864	3907	3907	3907	3907	3907	3907	3907	3907	3907	3907	3864	6720	6720	6720	6720	6720	6720	6720	6592	6592	6720	6720	6720	6592	6592	6592	6720	6720	6720	6720	6720	6853	7137	7287	7287	7608	7779	7779	7779	7779	7779	7779	7608	7608	7608	7608	7779	7608	7608	7608	0	0	0	0	7137	7137	6992	6992	6853	6720	6720	6720	6720	6720	6720	6720	6720	6720	6720	6720	6720	6720	6592	6592	6592	6592	6468	6592	6592	6592	6592	6592	6592	6720	6720	6720	6720	6592	6592	6592	6592	6720	6720	6592	6592	6592	6720	6592	6592	6592	6592	6592	6592	6468	6468	6468	6468	6349	6349	6349	6468	6468	6592	6592	6592	6592	6592	6592	6592	6592	6592	6592	6468	6592	6592	6592	6720	6592	6592	6592	6720	6592	6592	6592	6592	6592	6592	6592	6592	6720	6720	6720	6720	6720	6720	6720	6720	6720	6720	6720	6720	6720	6720	6720	6592	6592	6592	6592	6592	6592	6592	6592	6720	6720	6720	6720	6720	6720	6592	6468	6468	6468	6349	6349	6235	6235	6235	6235	6124	6124	6018	6018	6018	6018	6018	6018	5915	5915	6018	6018	5915	5815	5815	5815	5719	5719	5719	5719	5719	5626	5626	5535	5535	5535	5535	5448	5448	0	0	0	0	0	0	0	0	0	0	0	0	1512	1506	1506	1506	1499	1492	1480	1480	1473	1473	1473	1473	1473	1473	1467	1467	1467	1461	1461	1461	1461	1461	1461	1461	1455	1449	1449	1443	1449	1443	1443	1449	1449	1449	1449	1443	1443	1443	1443	1437	1437	1437	1437	1437	1437	1443	1437	1443	1437	1437	1431	1431	1425	1425	1425	1425	1431	1425	1425	1425	1431	1425	1425	0	0	0	0	0	0	0	0	0	0	0	0	0	0	0	0	0	0	0	0	0	0	0	0	0	0	0	0	0	0	0	0	0	0	0	0	0	0	0	0	0
0	0	0	0	0	0	0	0	0	1455	1455	1455	1455	1455	1455	1449	1449	1449	1449	1455	1449	1449	1455	1461	1461	1455	1455	1455	1455	1455	1455	1455	1455	1455	1449	1449	1443	1443	1437	0	0	0	0	0	0	1455	1449	1455	1449	1449	1449	1455	1449	1449	1461	1461	1461	1461	1461	1455	1449	1443	1437	1437	1437	1431	1431	1437	1437	1437	1443	1449	1455	1461	1461	1467	1467	1480	1480	1492	0	0	0	0	0	0	0	0	0	0	0	0	0	0	0	0	0	0	0	0	0	0	0	0	0	0	0	0	0	0	0	0	0	0	0	0	0	0	0	0	0	0	0	0	0	0	1690	1690	1690	1690	1750	1750	1750	1768	1759	1759	1759	1777	1786	1786	1786	1786	1786	0	0	0	0	0	0	0	0	0	0	0	0	0	0	0	0	0	0	0	0	0	0	0	0	0	0	7137	7137	7287	7287	7444	7444	7444	7444	7444	7444	7444	7444	7444	7444	7444	7444	7444	7287	7287	7287	7444	7444	7444	7444	7444	7444	7444	0	0	0	0	0	0	0	7287	7287	7444	7287	7287	7444	7444	7444	7444	7444	7444	7444	7444	7444	7444	7444	7444	7444	7444	7287	7287	0	0	0	0	0	0	0	7608	7608	7608	7608	7608	7444	7444	7444	7444	7444	7287	7287	7608	7444	7287	7287	7287	7287	7287	6992	6992	6992	0	0	0	0	0	0	6720	6592	6592	6592	6592	6592	6592	6592	6592	6592	6592	6592	6592	6592	6720	6592	6592	6592	6592	6592	6592	6592	6592	6592	6592	6592	6592	6592	6592	6592	6592	6592	6592	6592	6592	6592	6592	6592	6592	6592	6592	6592	6592	6592	0	0	0	0	0	3864	3864	3864	3864	3864	3907	3907	3907	3907	3907	3907	3907	3907	3907	3907	3907	3907	3907	3907	0	6720	6720	6720	6592	6592	6592	6592	6592	6592	6720	6592	6592	6592	6592	6592	6720	6720	6720	6720	6720	6853	7137	7287	7287	7608	7779	7779	7779	7779	7779	7779	7608	7608	7779	7779	7779	7608	7608	7608	0	0	7137	7137	7137	6992	6992	6992	6853	6720	6720	6592	6592	6720	6720	6720	6720	6720	6720	6720	6592	6592	6592	6592	6592	6592	6468	6468	6592	6592	6592	6592	6592	6720	6720	6720	6720	6720	6592	6592	6592	6592	6720	6592	6592	6592	6720	6592	6592	6592	6592	6592	6468	6468	6468	6468	6468	6468	6468	6468	6468	6468	6592	6592	6592	6592	6592	6592	6592	6592	6592	6468	6468	6468	6592	6592	6592	6592	6592	6592	6720	6592	6592	6720	6720	6592	6592	6720	6720	6720	6720	6720	6720	6720	6720	6720	6720	6720	6720	6720	6720	6720	6720	6720	6592	6592	6592	6592	6592	6592	6592	6592	6592	6592	6720	6720	6720	6720	6720	6592	6468	6468	6468	6349	6349	6349	6235	6235	6124	6124	6124	6018	6124	6018	6018	6018	5915	5915	6018	6018	5915	5815	5815	5815	5719	5719	5719	5719	5719	5626	5535	5535	5535	5448	5448	5448	5364	5364	0	0	0	0	0	0	0	0	0	0	0	0	1512	1506	1506	1506	1492	1480	1480	1480	1480	1473	1473	1473	1473	1467	1467	1461	1461	1461	1461	1461	1461	1461	1461	1455	1455	1449	1449	1449	1449	1449	1449	1449	1449	1449	1443	1443	1443	1443	1443	1443	1437	1443	1443	1443	1443	1443	1443	1443	1437	1437	1431	1419	1419	1425	1425	1425	1425	1425	1425	1431	1425	1425	0	0	0	0	0	0	0	0	0	0	0	0	0	0	0	0	0	0	0	0	0	0	0	0	0	0	0	0	0	0	0	0	0	0	0	0	0	0	0	0	0
0	0	0	0	0	0	0	0	0	1455	1455	1449	1461	1467	1467	1467	1461	1461	1461	1461	1467	1461	1467	1467	1467	1467	1467	1467	1467	1461	1461	1461	1461	1461	1461	1461	1455	1455	0	0	0	0	0	0	0	0	1455	1455	1455	1455	1455	1455	1455	1455	1461	1461	1461	1461	1455	1449	1443	1437	1437	1437	1431	1431	1431	1437	1437	1437	1443	1449	1449	1461	1455	1461	1461	1461	1480	0	0	0	0	0	0	0	0	0	0	0	0	0	0	0	0	0	0	0	0	0	0	0	0	0	0	0	0	0	0	0	0	0	0	0	0	0	0	0	0	0	0	0	0	0	0	0	0	0	0	0	1750	1750	1750	1759	1750	1750	1750	1750	1786	1795	1795	1786	0	0	0	0	0	0	0	0	0	0	0	0	0	0	0	0	0	0	0	0	0	0	0	0	0	0	0	7287	7287	7287	7287	7444	7444	7608	7608	7608	7608	7608	7444	7608	7444	7608	7444	7444	7287	7287	7287	7444	7444	7444	7444	7444	7444	7444	0	0	0	0	0	0	0	0	7287	7444	7287	7444	7444	7444	7444	7444	7444	7444	7444	7444	7444	7608	7444	7444	7444	7444	0	0	0	0	0	0	0	0	0	7608	7608	7608	7608	7608	7608	7608	7608	7608	7608	7608	7608	7608	7608	7444	7444	7444	7444	7444	7444	6992	6992	0	0	0	0	0	0	6720	6592	6592	6592	6592	6592	6592	6592	6592	6592	6592	6592	6592	6592	6592	6720	6592	6592	6592	6592	6592	6592	6592	6592	6592	6592	6592	6592	6592	6592	6592	6592	6592	6592	6592	6592	6592	6592	6592	6592	6592	6592	6592	6592	0	0	0	0	0	3864	3864	3864	3864	3864	3864	3907	3907	3907	3907	3907	3907	3907	3907	3907	3907	3907	3907	3952	0	6720	6720	6592	6592	6592	6592	6592	6592	6592	6592	6592	6592	6592	6592	6592	6720	6720	6720	6720	6720	6853	7137	7287	7608	7779	7779	7779	7959	7779	7959	7779	7608	7608	7779	7779	7959	7779	7779	7779	7608	7608	7137	7137	7137	7137	6992	6992	6853	6720	6720	6592	6720	6720	6720	6720	6720	6720	6592	6592	6592	6592	6592	6592	6468	6468	6468	6468	6468	6592	6592	6592	6592	6720	6720	6720	6592	6720	6592	6592	6720	6720	6720	6720	6592	6592	6592	6592	6592	6592	6592	6592	6468	6468	6468	6468	6468	6468	6468	6468	6468	6468	6592	6592	6592	6592	6592	6592	6592	6592	6592	6468	6468	6468	6592	6592	6592	6592	6592	6592	6592	6592	6592	6592	6592	6592	6592	6720	6720	6720	6720	6720	6720	6720	6720	6720	6592	6720	6592	6592	6468	6592	6592	6592	6592	6592	6592	6592	6592	6592	6592	6592	6592	6592	6720	6720	6720	6720	6720	6592	6468	6468	6468	6468	6349	6349	6349	6235	6235	6124	6124	6124	6124	6124	6018	6018	5915	5915	6018	5915	5815	5815	5815	5815	5719	5719	5719	5719	5719	5626	5535	5535	5535	5448	5448	5448	5364	5364	0	0	0	0	0	0	0	0	0	0	0	0	1512	1499	1506	1499	1486	1486	1486	1480	1480	1480	1480	1480	1480	1473	1473	1467	1461	1461	1461	1461	1455	1461	1461	1455	1455	1455	1449	1449	1449	1449	1449	1449	1449	1449	1443	1443	1443	1443	1443	1443	1443	1443	1443	1443	1443	1443	1443	1443	1437	1431	1431	1425	1425	1425	1425	1431	1431	1431	1431	1431	1431	1431	0	0	0	0	0	0	0	0	0	0	0	0	0	0	0	0	0	0	0	0	0	0	0	0	0	0	0	0	0	0	0	0	0	0	0	0	0	0	0	0	0
0	0	0	0	0	0	0	0	0	1461	1467	1473	1473	1473	1473	1480	1480	1480	1473	1473	1480	1480	1486	1480	1480	1473	1473	1473	1467	1461	1461	1461	1461	1461	1461	1461	1461	1455	0	0	0	0	0	0	0	0	1455	1455	1455	1455	1455	1455	1455	1455	1461	1461	1461	1455	1455	1449	1443	1437	1437	1431	1431	1425	1425	1431	1431	1437	1437	1449	1461	1461	1467	1467	1467	1467	0	0	0	0	0	0	0	0	0	0	0	0	0	0	0	0	0	0	0	0	0	0	0	0	0	0	0	0	0	0	0	0	0	0	0	0	0	0	0	0	0	0	0	0	0	0	0	0	0	0	0	1732	1741	1741	1750	1759	1750	1750	1750	1777	1786	1795	1804	1804	0	0	0	0	0	0	0	0	0	0	0	0	0	0	0	0	0	0	0	0	0	0	0	0	0	0	0	7287	7287	0	0	0	0	7608	7608	7608	7608	7608	7444	7608	7608	7608	7444	7444	7444	7287	7287	7444	7444	7444	7444	7444	7444	7444	7444	0	0	0	0	0	0	0	0	7444	7444	7444	7444	7444	7444	7444	7444	7444	7444	7444	7444	7608	7444	7444	7444	7444	0	0	0	0	0	0	0	0	0	0	7608	7608	7608	7608	7608	7608	7608	7608	7608	7608	7608	7608	7608	7444	7444	7444	7444	7444	7444	0	0	0	0	0	0	0	0	0	6720	6592	6592	6592	6592	6592	6592	6592	6592	6592	6592	6592	6592	6592	6592	6592	6592	6592	6592	6592	6592	6592	6592	6592	6592	6592	6592	6592	6592	6592	6592	6592	6592	6592	6592	6592	6592	6592	6592	6592	6592	6592	6592	0	0	0	0	3821	3864	3864	3864	3864	3864	3864	3907	3907	3907	3907	3907	3907	3907	3907	3907	3907	3907	3907	3907	0	6720	6592	6592	6592	6592	6592	6592	6592	6592	6592	6592	6592	6592	6592	6592	6592	6592	6720	6720	6720	6853	7137	7444	7444	7779	7959	7959	7959	7959	7959	7959	7779	7608	7779	7779	7779	7779	7779	7608	7608	7287	7287	7287	7137	7137	6992	6853	6720	6720	6592	6592	6720	6720	6720	6720	6720	6592	6592	6592	6592	6592	6592	6592	6592	6468	6468	6468	6468	6592	6592	6592	6592	6592	6720	6592	6592	6720	6592	6592	6720	6592	6720	6720	6592	6592	6592	6592	6592	6468	6468	6468	6468	6468	6468	6468	6468	6468	6468	6468	6468	6468	6592	6592	6592	6592	6592	6592	6592	6592	6592	6468	6468	6468	6592	6592	6592	6592	6592	6592	6592	6592	6592	6592	6592	6592	6592	6720	6720	6720	6720	6720	6720	6720	6720	6720	6720	6720	6720	6592	6592	6592	6592	6592	6592	6592	6592	6592	6592	6592	6592	6592	6592	6592	6720	6720	6720	6720	6720	6592	6592	6468	6468	6468	6349	6349	6349	6235	6235	6235	6124	6124	6124	6124	6018	6018	5915	5915	6018	5915	5815	5719	5815	5815	5719	5719	5719	5719	5719	5626	5626	5535	5535	5448	5448	5448	5364	5364	5364	0	0	0	0	0	0	0	0	0	0	0	0	1506	1499	1492	1486	1486	1486	1486	1486	1480	1480	1480	1473	1473	1473	1467	1467	1461	1461	1461	1461	1461	1461	1455	1455	1455	1455	1455	1449	1449	1449	1455	1449	1449	1449	1443	1443	1443	1443	1443	1443	1443	1443	1443	1443	1443	1443	1443	1443	1437	1437	1431	1431	1431	1431	1431	1431	1431	1431	1431	1431	1431	0	0	0	0	0	0	0	0	0	0	0	0	0	0	0	0	0	0	0	0	0	0	0	0	0	0	0	0	0	0	0	0	0	0	0	0	0	0	0	0	0
0	0	0	0	0	0	0	0	0	1461	1467	1480	1473	1480	1480	1486	1486	1486	1486	1480	1486	1492	1492	1486	1486	1486	1486	1480	1480	1467	1467	1467	1467	1461	1461	1461	1461	0	0	0	0	0	0	0	0	0	0	0	0	0	0	0	1461	1455	1467	1461	1461	1455	1449	1443	1437	1437	1431	1431	1431	1425	1425	1431	1431	1437	1437	1449	1461	1461	1467	1467	1467	1467	0	0	0	0	0	0	0	0	0	0	0	0	0	0	0	0	0	0	0	0	0	0	0	0	0	0	0	0	0	0	0	0	0	0	0	0	0	0	0	0	0	0	0	0	0	0	0	0	0	0	0	1741	1741	1741	1750	1750	1750	1750	1750	1759	1759	1795	1795	1795	0	0	0	0	0	0	0	0	0	0	0	0	0	0	0	0	0	0	0	0	0	0	0	0	0	0	0	0	0	0	0	0	0	7608	7608	7608	7608	7608	7608	7608	7608	7444	7444	7444	7444	7444	7287	7444	7444	7608	7608	7608	7608	7608	7608	0	0	0	0	0	0	0	0	0	7444	7444	7444	7444	7444	7444	7444	7444	7608	7608	7608	7608	7608	7608	7608	7608	0	0	0	0	0	0	0	0	0	7779	7779	7779	7779	7779	7608	7608	7608	7608	7608	7608	7444	7444	7608	7444	7608	7608	7444	7444	7444	0	0	0	0	0	0	0	6853	6720	6720	6720	6592	6592	6592	6592	6592	6592	6592	6592	6592	6592	6592	6592	6592	6592	6592	6592	6592	6592	6592	6592	6592	6592	6592	6592	6592	6592	6592	6592	6592	6592	6592	6592	6592	6592	6592	6592	6592	6592	6592	6592	6592	0	0	0	3907	3864	3864	3864	3864	3864	3864	3864	3907	3907	3864	3864	3907	3907	3907	3907	3907	3907	3907	3907	3952	3952	6720	6720	6592	6592	6592	6592	6592	6592	6592	6592	6592	6592	6592	6592	6592	6592	6592	6720	6720	6720	6853	6853	7287	7287	7959	7959	7959	7959	7959	7959	7959	7779	7779	7779	7779	7779	7779	7779	7608	7608	7444	7287	7287	7137	7137	6992	6853	6720	6720	6592	6592	6720	6720	6720	6592	6720	6592	6592	6592	6592	6592	6592	6592	6592	6468	6468	6468	6468	6592	6468	6468	6592	6592	6592	6592	6592	6720	6720	6720	6720	6720	6720	6720	6720	6720	6592	6592	6468	6468	6468	6468	6349	6468	6468	6468	6468	6468	6468	6468	6468	6468	6592	6592	6592	6592	6592	6592	6592	6592	6468	6468	6468	6468	6592	6592	6592	6592	6592	6592	6592	6468	6468	6468	6592	6592	6592	6592	6720	6720	6720	6720	6720	6720	6592	6592	6592	6720	6592	6592	6592	6592	6720	6592	6592	6592	6592	6592	6592	6592	6592	6592	6592	6592	6720	6720	6853	6853	6720	6720	6592	6468	6468	6468	6349	6349	6349	6235	6235	6235	6124	6235	6235	6124	6018	6018	5915	5915	6018	6018	5915	5815	5815	5815	5719	5719	5719	5719	5719	5626	5626	5535	5448	5448	5448	5364	5364	5364	5364	0	0	0	0	0	0	0	0	0	0	0	0	1506	1499	1492	1486	1486	1486	1486	1486	1480	1480	1480	1473	1473	1473	1467	1461	1461	1461	1461	1461	1461	1461	1461	1461	1461	1455	1455	1449	1449	1449	1449	1455	1449	1443	1443	1443	1443	1443	1443	1443	1443	1443	1443	1443	1443	1443	1443	1443	1437	1443	1437	1437	1431	1431	1431	1437	1431	1431	1431	1431	1431	0	0	0	0	0	0	0	0	0	0	0	0	0	0	0	0	0	0	0	0	0	0	0	0	0	0	0	0	0	0	0	0	0	0	0	0	0	0	0	0	0
