0	0	0	0	0	0	0	0	0	0	0	0	0	0	0	0	0	0	0	0	0	0	0	0	0	0	0	0	0	0	0	0	0	0	0	0	0	0	0	0	0	0	0	0	0	0	0	0	0	0	0	0	0	0	0	0	0	0	0	0	0	0	0	0	0	0	0	0	0	0	0	0	0	0	0	0	0	0	0	0	0	0	0	0	0	0	0	0	0	0	0	0	0	0	0	0	0	0	0	0	0	0	0	0	0	0	0	0	0	0	0	0	0	0	0	0	0	0	0	0	0	0	0	0	0	0	0	0	0	0	0	0	0	0	0	0	0	0	0	0	0	0	0	0	0	0	0	0	0	0	0	0	0	0	0	0	0	0	0	0	0	0	0	0	0	0	0	0	0	0	0	0	0	0	0	0	0	0	0	0	0	0	0	0	0	0	0	0	0	0	0	0	0	0	0	0	0	0	0	0	0	0	0	0	0	0	0	0	0	0	0	0	0	0	0	0	0	0	0	0	0	0	0	0	0	0	0	0	0	0	0	0	0	0	0	0	0	0	0	0	0	0	0	0	0	0	0	0	0	0	0	0	0	0	0	0	0	0	0	0	0	0	0	0	0	0	0	0	0	0	0	0	0	0	0	0	0	0	0	0	0	0	0	0	0	0	0	0	0	0	0	0	0	0	0	0	0	0	0	0	0	0	0	0	0	0	0	0	0	0	0	0	0	0	0	0	0	0	0	0	0	0	0	0	0	0	0	0	0	0	0	0	0	0	0	0	0	0	0	0	0	0	0	0	0	0	0	0	0	0	0	0	0	0	0	0	0	0	0	0	0	0	0	0	0	0	0	0	0	0	0	0	0	0	0	0	0	0	0	0	0	0	0	0	0	0	0	0	0	0	0	0	0	0	0	0	0	0	0	0	0	0	0	0	0	0	0	0	0	0	0	0	0	0	0	0	0	0	0	0	0	0	0	0	0	0	0	0	0	0	0	0	0	0	0	0	0	0	0	0	0	0	0	0	0	0	0	0	0	0	0	0	0	0	0	0	0	0	0	0	0	0	0	0	0	0	0	0	0	0	0	0	0	0	0	0	0	0	0	0	0	0	0	0	0	0	0	0	0	0	0	0	0	0	0	0	0	0	0	0	0	0	0	0	0	0	0	0	0	0	0	0	0	0	0	0	0	0	0	0	0	0	0	0	0	0	0	0	0	0	0	0	0	0	0	0	0	0	0	0	0	0	0	0	0	0	0	0	0	0	0	0	0	0	0	0	0	0	0	0	0	0	0	0	0	0	0	0	0	0	0	0	2629	2609	2589	2589	2570	2570	2570	0	2570	2570	2589	2589	2589	2570	2589	2532	2460	2460	2460	2460	2460	2460	2460	2443	2443	2409	2409	2392	2392	0	0	0	0	0	0	0	0	0	0	0	0	0	0	0	0	0	0	0	0	0	0	0	0	0	0	0	0	0	0	0	0	0	0	0	0	0	0	0
0	0	0	0	0	0	0	0	0	0	0	0	0	0	0	0	0	0	0	0	0	0	0	0	0	0	0	0	0	0	0	0	0	0	0	0	0	0	0	0	0	0	0	0	0	0	0	0	0	0	0	0	0	0	0	0	0	0	0	0	0	0	0	0	0	0	0	0	0	0	0	0	0	0	0	0	0	0	0	0	0	0	0	0	0	0	0	0	0	0	0	0	0	0	0	0	0	0	0	0	0	0	0	0	0	0	0	0	0	0	0	0	0	0	0	0	0	0	0	0	0	0	0	0	0	0	0	0	0	0	0	0	0	0	0	0	0	0	0	0	0	0	0	0	0	0	0	0	0	0	0	0	0	0	0	0	0	0	0	0	0	0	0	0	0	0	0	0	0	0	0	0	0	0	0	0	0	0	0	0	0	0	0	0	0	0	0	0	0	0	0	0	0	0	0	0	0	0	0	0	0	0	0	0	0	0	0	0	0	0	0	0	0	0	0	0	0	0	0	0	0	0	0	0	0	0	0	0	0	0	0	0	0	0	0	0	0	0	0	0	0	0	0	0	0	0	0	0	0	0	0	0	0	0	0	0	0	0	0	0	0	0	0	0	0	0	0	0	0	0	0	0	0	0	0	0	0	0	0	0	0	0	0	0	0	0	0	0	0	0	0	0	0	0	0	0	0	0	0	0	0	0	0	0	0	0	0	0	0	0	0	0	0	0	0	0	0	0	0	0	0	0	0	0	0	0	0	0	0	0	0	0	0	0	0	0	0	0	0	0	0	0	0	0	0	0	0	0	0	0	0	0	0	0	0	0	0	0	0	0	0	0	0	0	0	0	0	0	0	0	0	0	0	0	0	0	0	0	0	0	0	0	0	0	0	0	0	0	0	0	0	0	0	0	0	0	0	0	0	0	0	0	0	0	0	0	0	0	0	0	0	0	0	0	0	0	0	0	0	0	0	0	0	0	0	0	0	0	0	0	0	0	0	0	0	0	0	0	0	0	0	0	0	0	0	0	0	0	0	0	0	0	0	0	0	0	0	0	0	0	0	0	0	0	0	0	0	0	0	0	0	0	0	0	0	0	0	0	0	0	0	0	0	0	0	0	0	0	0	0	0	0	0	0	0	0	0	0	0	0	0	0	0	0	0	0	0	0	0	0	0	0	0	0	0	0	0	0	0	0	0	0	0	0	0	0	0	0	0	0	0	0	0	0	4906	4906	4906	4906	4906	4906	4906	4906	4906	4906	4906	4906	4906	4771	4706	4706	4706	4706	4771	4906	4906	4906	4906	4906	4906	4906	4906	4906	4906	4643	4643	0	0	0	0	0	0	2629	2609	2609	2589	2589	2570	2589	2570	2570	2570	2570	2570	2589	2589	2514	2496	2496	2460	2460	2460	2460	2460	2443	2443	2443	2426	2409	2392	2392	2392	2392	2392	0	0	0	0	0	0	0	0	0	0	0	0	0	0	0	0	0	0	0	0	0	0	0	0	0	0	0	0	0	0	0	0	0	0	0	0	0
0	0	0	0	0	0	0	0	0	0	0	0	0	0	0	0	0	0	0	0	0	0	0	0	0	0	0	0	0	0	0	0	0	0	0	0	0	0	0	0	0	0	0	0	0	0	0	0	0	0	0	0	0	0	0	0	0	0	0	0	0	0	0	0	0	0	0	0	0	0	0	0	0	0	0	0	0	0	0	0	0	0	0	0	0	0	0	0	0	0	0	0	0	0	0	0	0	0	0	0	0	0	0	0	0	0	0	0	0	0	0	0	0	0	0	0	0	0	0	0	0	0	0	0	0	0	0	0	0	0	0	0	0	0	0	0	0	0	0	0	0	0	0	0	0	0	0	0	0	0	0	0	0	0	0	0	0	0	0	0	0	0	0	0	0	0	0	0	0	0	0	0	0	0	0	0	0	0	0	0	0	0	0	0	0	0	0	0	0	0	0	0	0	0	0	0	0	0	0	0	0	0	0	0	0	0	0	0	0	0	0	0	0	0	0	0	0	0	0	0	0	0	0	0	0	0	0	0	0	0	0	0	0	0	0	0	0	0	0	0	0	0	0	0	0	0	0	0	0	0	0	0	0	0	0	0	0	0	0	0	0	0	0	0	0	0	0	0	0	0	0	0	0	0	0	0	0	0	0	0	0	0	0	0	0	0	0	0	0	0	0	0	0	0	0	0	0	0	0	0	0	0	0	0	0	0	0	0	0	0	0	0	0	0	0	0	0	0	0	0	0	0	0	0	0	0	0	0	0	0	0	0	0	0	0	0	0	0	0	0	0	0	0	0	0	0	0	0	0	0	0	0	0	0	0	0	0	0	0	0	0	0	0	0	0	0	0	0	0	0	0	0	0	0	0	0	0	0	0	0	0	0	0	0	0	0	0	0	0	0	0	0	0	0	0	0	0	0	0	0	0	0	0	0	0	0	0	0	0	0	0	0	0	0	0	0	0	0	0	0	0	0	0	0	0	0	0	0	0	0	0	0	0	0	0	0	0	0	0	0	0	0	0	0	0	0	0	0	0	0	0	0	0	0	0	0	0	0	0	0	0	0	0	0	0	0	0	0	0	0	0	0	0	0	0	0	0	0	0	0	0	0	0	0	0	0	0	0	0	0	0	0	0	0	0	0	0	0	0	0	0	0	0	4977	4977	4906	4977	4977	4977	4977	4977	4977	4977	4977	4977	4977	4977	4977	4906	4906	4906	4906	4906	4906	4906	4906	4977	4977	4977	4977	4977	4977	4977	4977	4906	4906	4906	4906	4906	4906	4906	4906	4906	4906	4906	4906	4906	4906	4706	4838	4706	4706	4838	4906	4906	4906	4906	4906	4906	4906	4906	4906	4706	4706	4706	0	0	0	0	0	0	2629	2609	2609	2589	2589	2589	2589	2570	2570	2570	2589	2589	2589	2589	2514	2496	2478	2460	2460	2460	2460	2443	2443	2460	2443	2443	2443	2443	2392	2409	2392	2392	0	0	0	0	0	0	0	0	0	0	0	0	0	0	0	0	0	0	0	0	0	0	0	0	0	0	0	0	0	0	0	0	0	0	0	0	0
0	0	0	0	0	0	0	0	0	0	0	0	0	0	0	0	0	0	0	0	0	0	0	0	0	0	0	0	0	0	0	0	0	0	0	0	0	0	0	0	0	0	0	0	0	0	0	0	0	0	0	0	0	0	0	0	0	0	0	0	0	0	0	0	0	0	0	0	0	0	0	0	0	0	0	0	0	0	0	0	0	0	0	0	0	0	0	0	0	0	0	0	0	0	0	0	0	0	0	0	0	0	0	0	0	0	0	0	0	0	0	0	0	0	0	0	0	0	0	0	0	0	0	0	0	0	0	0	0	0	0	0	0	0	0	0	0	0	0	0	0	0	0	0	0	0	0	0	0	0	0	0	0	0	0	0	0	0	0	0	0	0	0	0	0	0	0	0	0	0	0	0	0	0	0	0	0	0	0	0	0	0	0	0	0	0	0	0	0	0	0	0	0	0	0	0	0	0	0	0	0	0	0	0	0	0	0	0	0	0	0	0	0	0	0	0	0	0	0	0	0	0	0	0	0	0	0	0	0	0	0	0	0	0	0	0	0	0	0	0	0	0	0	0	0	0	0	0	0	0	0	0	0	0	0	0	0	0	0	0	0	0	0	0	0	0	0	0	0	0	0	0	0	0	0	0	0	0	0	0	0	0	0	0	0	0	0	0	0	0	0	0	0	0	0	0	0	0	0	0	0	0	0	0	0	0	0	0	0	0	0	0	0	0	0	0	0	0	0	0	0	0	0	0	0	0	0	0	0	0	0	0	0	0	0	0	0	0	0	0	0	0	0	0	0	0	0	0	0	0	0	0	0	0	0	0	0	0	0	0	0	0	0	0	0	0	0	0	0	0	0	0	0	0	0	0	0	0	0	0	0	0	0	0	0	0	0	0	0	0	0	0	0	0	0	0	0	0	0	0	0	0	0	0	0	0	0	0	0	0	0	0	0	0	0	0	0	0	0	0	0	0	0	0	0	0	0	0	0	0	0	0	0	0	0	0	0	0	0	0	0	0	0	0	0	0	0	0	0	0	0	0	0	0	0	0	0	0	0	0	0	0	0	0	0	0	0	0	0	0	4977	4977	5050	4977	4977	5050	5050	5050	5050	5050	5050	5050	4977	4977	5050	5125	5125	5050	5050	5125	5125	5050	5050	5050	5125	5125	5125	5050	5050	5050	4977	4977	4977	4977	4977	4906	4977	4977	4977	4977	4977	4977	4977	4977	4977	4977	4977	4977	4906	4906	4977	4906	4906	4906	4906	4906	4977	4977	4977	4977	4977	4977	4977	4977	4906	4906	4906	4906	4906	4906	4906	4906	4906	4906	4906	4906	4906	4906	4906	4838	4838	4838	4838	4906	4906	4906	4977	4977	4906	4906	4977	4906	4906	4706	4706	0	0	0	0	0	0	2609	2609	2609	2589	2589	2589	2589	2570	2609	2589	2589	2589	2589	2570	2514	2478	2478	2460	2443	2443	2443	2443	2443	2460	2443	2443	2443	2443	2392	2392	2392	2392	0	0	0	0	0	0	0	0	0	0	0	0	0	0	0	0	0	0	0	0	0	0	0	0	0	0	0	0	0	0	0	0	0	0	0	0	0
0	0	0	0	0	0	0	0	0	0	0	0	0	0	0	0	0	0	0	0	0	0	0	0	0	0	0	0	0	0	0	0	0	0	0	0	0	0	0	0	0	0	0	0	0	0	0	0	0	0	0	0	0	0	0	0	0	0	0	0	0	0	0	0	0	0	0	0	0	0	0	0	0	0	0	0	0	0	0	0	0	0	0	0	0	0	0	0	0	0	0	0	0	0	0	0	0	0	0	0	0	0	0	0	0	0	0	0	0	0	0	0	0	0	0	0	0	0	0	0	0	0	0	0	0	0	0	0	0	0	0	0	0	0	0	0	0	0	0	0	0	0	0	0	0	0	0	0	0	0	0	0	0	0	0	0	0	0	0	0	0	0	0	0	0	0	0	0	0	0	0	0	0	0	0	0	0	0	0	0	0	0	0	0	0	0	0	0	0	0	0	0	0	0	0	0	0	0	0	0	0	0	0	0	0	0	0	0	0	0	0	0	0	0	0	0	0	0	0	0	0	0	0	0	0	0	0	0	0	0	0	0	0	0	0	0	0	0	0	0	0	0	0	0	0	0	0	0	0	0	0	0	0	0	0	0	0	0	0	0	0	0	0	0	0	0	0	0	0	0	0	0	0	0	0	0	0	0	0	0	0	0	0	0	0	0	0	0	0	0	0	0	0	0	0	0	0	0	0	0	0	0	0	0	0	0	0	0	0	0	0	0	0	0	0	0	0	0	0	0	0	0	0	0	0	0	0	0	0	0	0	0	0	0	0	0	0	0	0	0	0	0	0	0	0	0	0	0	0	0	0	0	0	0	0	0	0	0	0	0	0	0	0	0	0	0	0	0	0	0	0	0	0	0	0	0	0	0	0	0	0	0	0	0	0	0	0	0	0	0	0	0	0	0	0	0	0	0	0	0	0	0	0	0	0	0	0	0	0	0	0	0	0	0	0	0	0	0	0	0	0	0	0	0	0	0	0	0	0	0	0	0	0	0	5125	5050	5125	5125	5125	5050	5050	5050	5050	5125	5050	5050	5050	5050	4977	4977	4977	4977	5050	5050	5050	5050	5050	5050	5050	5050	5050	5050	5050	5050	5125	5125	5125	5125	5125	5050	5050	5050	5050	4977	5050	5050	5050	5050	5050	5050	5050	5050	5050	4977	5050	5050	5125	5050	5050	5125	5125	5125	5125	5125	5125	5125	5125	5125	5125	5050	5050	4977	4977	4977	4977	4977	4977	4977	4977	4977	4977	4977	5050	4977	4977	4977	4977	4977	4906	4977	4977	4977	4906	4906	4906	4977	4977	4977	4977	4977	4977	4977	4977	4977	4906	4906	4906	4906	4906	4906	4906	4906	4906	4906	4906	4906	4906	4906	4906	4906	4838	4906	4906	4977	4977	4977	4977	4977	4906	4906	4977	4906	4906	4706	4706	0	0	0	0	0	0	2609	2609	2609	2589	2589	2589	2589	2570	2609	2570	2570	2570	2551	2532	2514	2478	2460	2443	2443	2426	2426	2426	2460	2460	2460	2443	2443	2443	2409	2392	2392	2392	0	0	0	0	0	0	0	0	0	0	0	0	0	0	0	0	0	0	0	0	0	0	0	0	0	0	0	0	0	0	0	0	0	0	0	0	0
0	0	0	0	0	0	0	0	0	0	0	0	0	0	0	0	0	0	0	0	0	0	0	0	0	0	0	0	0	0	0	0	0	0	0	0	0	0	0	0	0	0	0	0	0	0	0	0	0	0	0	0	0	0	0	0	0	0	0	0	0	0	0	0	0	0	0	0	0	0	0	0	0	0	0	0	0	0	0	0	0	0	0	0	0	0	0	0	0	0	0	0	0	0	0	0	0	0	0	0	0	0	0	0	0	0	0	0	0	0	0	0	0	0	0	0	0	0	0	0	0	0	0	0	0	0	0	0	0	0	0	0	0	0	0	0	0	0	0	0	0	0	0	0	0	0	0	0	0	0	0	0	0	0	0	0	0	0	0	0	0	0	0	0	0	0	0	0	0	0	0	0	0	0	0	0	0	0	0	0	0	0	0	0	0	0	0	0	0	0	0	0	0	0	0	0	0	0	0	0	0	0	0	0	0	0	0	0	0	0	0	0	0	0	0	0	0	0	0	0	0	0	0	0	0	0	0	0	0	0	0	0	0	0	0	0	0	0	0	0	0	0	0	0	0	0	0	0	0	0	0	0	0	0	0	0	0	0	0	0	0	0	0	0	0	0	0	0	0	0	0	0	0	0	0	0	0	0	0	0	0	0	0	0	0	0	0	0	0	0	0	0	0	0	0	0	0	0	0	0	0	0	0	0	0	0	0	0	0	0	0	0	0	0	0	0	0	0	0	0	0	0	0	0	0	0	0	0	0	0	0	0	0	0	0	0	0	0	0	0	0	0	0	0	0	0	0	0	0	0	0	0	0	0	0	0	0	0	0	0	0	0	0	0	0	0	0	0	0	0	0	0	0	0	0	0	0	0	0	0	0	0	0	0	0	0	0	0	0	0	0	0	0	0	5050	5050	5050	5125	5125	5125	5125	5125	5125	5050	5050	5050	5050	5050	5125	5125	5125	5125	5050	5050	5125	5125	5125	5125	5125	5125	5202	5125	5125	5050	5050	5050	5050	5050	5125	5050	5125	5125	5125	5125	5125	5125	5125	5125	5125	5125	5050	5050	5050	5050	5050	5050	5050	5050	5050	4977	4977	5050	5050	5050	5050	5050	5050	5050	5050	5050	5050	5050	5050	5050	5125	5125	5125	5125	5125	5125	5050	5125	5125	5125	5125	5125	5125	5125	5050	5050	5050	5050	5050	5050	5125	5125	5125	5125	5125	5125	5125	5125	5125	5125	5125	5125	5125	5125	5125	5050	5050	5050	4977	4977	4977	4977	4977	4977	4977	4977	5050	5050	5050	5050	5050	4977	4977	4977	4977	4977	4977	4977	4977	4977	4977	4977	4977	4977	4977	4977	4977	4977	4977	4977	4977	4977	4906	4906	4906	4906	4906	4906	4906	4906	4906	4977	4977	4977	4977	4906	4906	4906	4977	4977	4977	4977	4977	4977	4906	4906	4977	4906	4906	4906	4706	0	0	0	0	0	0	2589	2589	2589	2589	2589	2589	2589	2570	2589	2589	2570	2570	2532	2532	2514	2478	2443	2426	2426	2443	2426	2443	2443	2443	2443	2443	2443	2443	2409	2392	2392	2392	0	0	0	0	0	0	0	0	0	0	0	0	0	0	0	0	0	0	0	0	0	0	0	0	0	0	0	0	0	0	0	0	0	0	0	0	0
0	0	0	0	0	0	0	0	0	0	0	0	0	0	0	0	0	0	0	0	0	0	0	0	0	0	0	0	0	0	0	0	0	0	0	0	0	0	0	0	0	0	0	0	0	0	0	0	0	0	0	0	0	0	0	0	0	0	0	0	0	0	0	0	0	0	0	0	0	0	0	0	0	0	0	0	0	0	0	0	0	0	0	0	0	0	0	0	0	0	0	0	0	0	0	0	0	0	0	0	0	0	0	0	0	0	0	0	0	0	0	0	0	0	0	0	0	0	0	0	0	0	0	0	0	0	0	0	0	0	0	0	0	0	0	0	0	0	0	0	0	0	0	0	0	0	0	0	0	0	0	0	0	0	0	0	0	0	0	0	0	0	0	0	0	0	0	0	0	0	0	0	0	0	0	0	0	0	0	0	0	0	0	0	0	0	0	0	0	0	0	0	0	0	0	0	0	0	0	0	0	0	0	0	0	0	0	0	0	0	0	0	0	0	0	0	0	0	0	0	0	0	0	0	0	0	0	0	0	0	0	0	0	0	0	0	0	0	0	0	0	0	0	0	0	0	0	0	0	0	0	0	0	0	0	0	0	0	0	0	0	0	0	0	0	0	0	0	0	0	0	0	0	0	0	0	0	0	0	0	0	0	0	0	0	0	0	0	0	0	0	0	0	0	0	0	0	0	0	0	0	0	0	0	0	0	0	0	0	0	0	0	0	0	0	0	0	0	0	0	0	0	0	0	0	0	0	0	0	0	0	0	0	0	0	0	0	0	0	0	0	0	0	0	0	0	0	0	5050	5050	5050	5050	5050	5050	5050	5050	4977	4977	4977	4977	5050	5050	5050	5050	5050	5050	5125	5050	5050	5050	5125	5125	5050	5050	5050	5050	5050	5050	4977	4977	5050	5050	5050	5050	5050	5050	5050	5050	5050	5050	5050	4977	4977	4977	5050	5050	5050	5125	5125	5125	5125	5125	5125	5125	5125	5125	5125	5125	5125	5125	5125	5125	5125	5125	5125	5125	5125	5125	5125	5125	5202	5125	5125	5050	5125	5125	5125	5125	5125	5125	5125	5125	5125	5125	5125	5125	5202	5125	5125	5050	5050	5050	5050	5050	5050	5050	5050	5050	5125	5050	4977	5050	5050	5050	5050	5050	5050	5050	5050	5125	5050	5050	5050	5125	5125	5125	5125	5125	5125	5125	5125	5125	5125	5202	5125	5202	5125	5125	5050	5050	5050	5050	5050	5050	5125	5125	5125	5125	5125	5125	5050	5050	5125	5125	5125	5125	5125	5050	5125	5125	5050	5050	5050	4977	5050	5050	5050	5050	5050	5050	5050	5050	5050	5050	5050	4977	4977	4977	4977	4977	4977	4977	4977	4977	4977	4977	4977	4977	4977	4977	4977	4977	4977	4977	4977	4977	4906	4977	4906	4906	4906	4977	4977	4977	4977	4977	4977	4977	4977	4977	4906	4906	4977	4977	4977	4977	4977	4977	4977	4977	4977	4906	4906	4906	0	0	0	0	0	0	0	2609	2609	2609	2589	2589	2589	2589	2609	2609	2589	2551	2551	2532	2532	2514	2478	2409	2443	2443	2443	2426	2443	2443	2443	2443	2443	2426	2443	2409	2409	2392	2392	0	0	0	0	0	0	0	0	0	0	0	0	0	0	0	0	0	0	0	0	0	0	0	0	0	0	0	0	0	0	0	0	0	0	0	0	0
0	0	0	0	0	0	0	0	0	0	0	0	0	0	0	0	0	0	0	0	0	0	0	0	0	0	0	0	0	0	0	0	0	0	0	0	0	0	0	0	0	0	0	0	0	0	0	0	0	0	0	0	0	0	0	0	0	0	0	0	0	0	0	0	0	0	0	0	0	0	0	0	0	0	0	0	0	0	0	0	0	0	0	0	0	0	0	0	0	0	0	0	0	0	0	0	0	0	0	0	0	0	0	0	0	0	0	0	0	0	0	0	0	0	0	0	0	0	0	0	0	0	0	0	0	0	0	0	0	0	0	0	0	0	0	0	0	0	0	0	0	0	0	0	0	0	0	0	0	0	0	0	0	0	0	0	0	0	0	0	0	0	0	0	0	0	0	0	0	0	0	0	0	0	0	0	0	0	0	0	0	0	0	0	0	0	0	0	0	0	0	0	0	0	0	0	0	0	0	0	0	0	0	0	0	0	0	0	0	0	0	0	0	0	0	0	0	0	0	0	0	0	0	0	0	0	0	0	0	0	0	0	0	0	0	0	0	0	0	0	0	0	0	0	0	0	0	0	0	0	0	0	0	0	0	0	0	0	0	0	0	0	0	0	0	0	0	0	0	0	0	0	0	0	0	0	0	0	0	0	0	0	0	0	0	0	0	0	0	0	0	0	0	4977	4977	4977	4977	5050	5050	5050	5050	5050	5050	5050	5050	5050	5050	5050	4977	4977	4977	4977	4977	5050	5050	5125	5050	5050	5125	5125	5125	5050	5125	5050	5050	5050	5050	5050	5050	5050	5050	5050	5050	5050	5050	5050	5050	5050	4977	4977	5050	5050	5050	5050	5050	5050	5050	5050	5050	5125	5125	5050	5050	5050	5050	5050	5050	5050	5050	5050	5050	5050	5050	5050	5050	5050	5050	5050	5050	5050	5050	5125	5050	5050	5050	5050	5050	5050	4977	5050	5050	5050	5050	5050	5050	5050	5050	5050	5050	5050	5050	5050	5050	5125	5050	5125	5050	5125	5125	5125	5125	5125	5125	5125	5125	5125	5125	5125	5125	5125	5125	5125	5125	5125	5125	5125	5125	5125	5125	5125	5125	5125	5125	5050	5125	5125	5125	5125	5125	5125	5125	5125	5125	5125	5125	5125	5125	5125	5125	5050	5050	5125	5125	5050	5050	5050	5050	5050	5050	5050	5050	5125	5050	5050	5125	5050	5050	5050	5125	5125	5125	5125	5125	5125	5125	5125	5125	5125	5125	5125	5125	5125	5125	5125	5125	5125	5125	5125	5050	5125	5050	5050	5050	5050	5125	5125	5125	5050	5050	5125	5125	5125	5125	5125	5125	5202	5125	5125	5125	5125	5050	5050	5050	5050	5050	5050	5050	5050	5050	4977	5050	5050	5050	5050	5050	4977	5050	4977	4977	4977	4977	4977	4977	4977	4977	4977	4977	4977	5050	5050	5050	5050	5050	5050	4977	4977	4977	4977	4906	4906	4906	4977	4977	4906	4977	4977	4977	4977	4977	4977	4906	4977	4977	4977	4977	4977	4977	4977	4977	4977	4977	4977	4977	4977	0	0	0	0	0	0	0	2609	2609	2609	2609	2609	2609	2589	2589	2570	2589	2551	2532	2532	2514	2496	2478	2443	2443	2443	2443	2443	2443	2443	2443	2443	2443	2426	2443	2443	2409	2392	2392	0	0	0	0	0	0	0	0	0	0	0	0	0	0	0	0	0	0	0	0	0	0	0	0	0	0	0	0	0	0	0	0	0	0	0	0	0
0	0	0	0	0	0	0	0	0	0	0	0	0	0	0	0	0	0	0	0	0	0	0	0	0	0	0	0	0	0	0	0	0	0	0	0	0	0	0	0	0	0	0	0	0	0	0	0	0	0	0	0	0	0	0	0	0	0	0	0	0	0	0	0	0	0	0	0	0	0	0	0	0	0	0	0	0	0	0	0	0	0	0	0	0	0	0	0	0	0	0	0	0	0	0	0	0	0	0	0	0	0	0	0	0	0	0	0	0	0	0	0	0	0	0	0	0	0	0	0	0	0	0	0	0	0	0	0	0	0	0	0	0	0	0	0	0	0	0	0	0	0	0	0	0	0	0	0	0	0	0	0	0	0	0	0	0	0	0	0	0	0	0	0	0	0	0	0	0	0	0	0	0	0	0	0	0	0	0	0	0	0	0	0	0	0	0	0	0	0	0	0	0	0	0	0	0	0	0	0	0	0	0	0	0	0	0	0	0	0	0	0	0	0	0	0	0	0	0	4977	4977	4977	4977	4977	4977	4977	4977	4977	4977	4977	4977	4977	4977	4977	4977	5050	5050	5050	5050	5050	5050	5050	5050	5050	5050	5050	5050	4977	4977	4977	4977	4977	4977	4977	4977	4977	4977	4977	4977	4977	5050	5050	5050	4977	4977	4977	5050	5050	5050	5050	5050	5050	5050	5050	5050	4977	4977	4977	5050	5050	5050	4977	5050	5050	5050	5050	4977	4977	4977	4977	4977	4977	4977	4977	4977	5050	5050	5050	5050	5050	5050	5050	5050	5050	5050	5050	5050	5050	4977	4977	4977	4977	4977	5050	5125	5125	5125	5125	5050	5125	5125	5050	5125	5050	5050	5125	5050	5050	5050	5050	5050	5050	5125	5050	5050	5050	5050	5050	5050	5050	5050	5050	5050	5050	5050	5050	5125	5125	5125	5125	5125	5125	5050	5050	5050	5050	5050	5050	5050	5050	5050	5050	5050	5050	5050	5050	5050	5050	5050	5050	5125	5125	5125	5050	5050	5050	5050	5050	5050	5050	5050	5050	5050	5125	5050	5050	5050	5050	5050	5050	5050	5050	5050	5125	5125	5125	5125	5125	5125	5125	5125	5125	5125	5125	5125	5125	5125	5125	5125	5125	5125	5125	5125	5125	5125	5125	5125	5125	5125	5125	5125	5125	5125	5050	5125	5050	5125	5125	5125	5125	5125	5125	5125	5202	5125	5125	5202	5125	5125	5125	5050	5125	5125	5125	5050	5050	5050	5050	5050	5050	5050	5050	5050	5050	5050	5125	5125	5125	5125	5125	5125	5125	5125	5125	5125	5125	5125	5125	5125	5125	5125	5125	5202	5202	5125	5202	5125	5125	5125	5125	5125	5125	5125	5125	5125	5125	5125	5125	5125	5125	5050	5125	5202	5125	5125	5202	5125	5125	5125	5125	5125	5125	5125	5050	5125	5050	5050	5050	5050	4977	4977	4977	5050	5050	5050	4977	4977	5050	4977	4977	5050	4977	4977	5050	5050	5050	5050	5050	5050	5050	5050	5050	5050	5050	5050	4977	4977	4977	4977	4977	4977	4977	4977	4977	4977	4977	4977	4977	4977	4977	4977	4977	5050	4977	4977	4977	4977	4977	4977	4977	4977	4977	4977	4977	4977	0	0	0	0	0	0	0	2609	2609	2609	2609	2609	2589	2589	2570	2589	2551	2532	2532	2514	2496	2496	2478	2443	2460	2460	2443	2460	2460	2460	2443	2443	2426	2443	2409	2392	2392	2392	0	0	0	0	0	0	0	0	0	0	0	0	0	0	0	0	0	0	0	0	0	0	0	0	0	0	0	0	0	0	0	0	0	0	0	0	0
0	0	0	0	1113	1113	1120	1113	1123	1120	1123	1123	1127	1131	1134	1134	1134	1134	1134	1134	1131	1134	1131	1131	1134	1131	1131	1134	1131	1131	1134	1131	1127	1127	1131	1134	1134	1134	1138	1146	1150	1161	1165	1169	1169	1169	1169	1169	1165	1165	1165	1165	1169	1169	0	0	0	0	0	0	0	0	0	0	0	0	5050	5050	5125	5202	5202	5202	5202	5202	5202	5202	5202	0	0	0	0	0	5282	5202	5202	5202	5202	5202	5202	5202	5202	5202	5202	5125	5125	5125	5125	5125	5125	5125	5125	5125	5125	5125	5125	5050	5050	5050	4977	5050	5050	5050	5050	5125	5202	5202	5202	5202	5202	5202	5202	5202	5125	5125	5125	5125	4977	4977	4977	4977	4977	4977	4977	4977	5050	5050	5050	5050	5125	5125	5125	5125	5050	5050	5050	5050	4977	4977	4977	4977	4977	4977	4906	4977	4977	0	0	0	0	5125	5125	5202	5202	5125	5202	5125	5125	5125	5125	5125	5125	5050	5050	5050	5125	5125	5125	5050	5050	5050	5050	5050	4977	5050	5050	5050	5050	5050	5050	5125	5125	5050	5050	5050	5050	4977	4977	4977	4977	5050	4977	5125	5050	4977	4977	4977	4977	4977	5050	5050	5125	5125	5125	5202	5125	5125	5125	4977	4977	5050	4977	4977	4977	4977	4977	4977	5050	4977	4977	5050	5050	5050	5050	5050	4977	5125	5050	5050	5050	5050	5050	5050	5050	5050	5050	5050	5050	5050	4977	4977	4977	4977	4977	4977	4977	4977	4977	4977	4977	5050	5050	5050	5050	4977	4977	5050	5050	5050	5050	5125	5050	5050	5050	5050	5050	4977	4977	5050	5050	5050	5050	5050	5050	5050	5050	5050	5050	5050	4977	4977	4977	5050	5050	5050	5050	5050	5050	5050	5050	5050	5050	5050	5050	5050	5050	5050	5050	5050	4977	4977	4977	4977	4977	5050	5125	5125	5125	5125	5125	5125	5125	5050	5050	5050	5050	5125	5050	5050	5050	5125	5125	5125	5125	5050	5050	5050	5050	5050	5050	5050	5050	5050	5050	5050	5125	5125	5125	5125	5125	5125	5125	5125	5125	5050	5050	5050	5050	5050	5050	5125	5125	5125	5125	5125	5125	5125	5050	5050	5050	5050	5125	5125	5125	5050	5050	5050	5050	5050	5050	5050	5050	5050	5125	5050	5050	5050	5050	5050	5050	5050	5050	5050	5050	5125	5125	5125	5125	5125	5125	5125	5125	5202	5125	5202	5202	5202	5202	5202	5202	5125	5125	5125	5125	5125	5125	5125	5125	5125	5125	5125	5125	5125	5125	5050	5125	5125	5125	5125	5125	5125	5125	5125	5125	5202	5125	5125	5202	5125	5125	5125	5125	5125	5125	5125	5050	5050	5125	5125	5050	5050	5125	5125	5202	5050	5050	5125	5125	5125	5125	5125	5125	5125	5125	5125	5125	5125	5125	5125	5125	5125	5125	5125	5202	5202	5202	5202	5125	5125	5125	5125	5125	5125	5125	5125	5125	5125	5125	5125	5125	5125	5050	5125	5202	5125	5202	5202	5202	5202	5202	5202	5125	5125	5125	5125	5125	5125	5125	5050	5050	5050	5050	4977	4977	5050	4977	4977	4977	4977	4977	4977	5050	5050	5050	5050	5050	5125	5050	5050	5050	5050	5050	5125	5050	5050	5125	5050	5050	5050	4977	5050	4977	4977	4977	4977	4977	4977	4977	4977	4977	4977	4977	4977	5050	4977	4977	4977	4977	4977	4977	4977	4977	4977	4977	4977	4977	4977	0	0	0	0	0	0	2609	2629	2609	2609	2609	2589	2570	2570	2551	2551	2532	2514	2514	2496	2496	2478	2460	2460	2460	2460	2460	2460	2460	2443	2443	2426	2409	2409	2392	2392	2392	0	0	0	0	0	0	0	0	0	0	0	0	0	0	0	0	0	0	0	0	0	0	0	0	0	0	0	0	0	0	0	0	0	0	0	0	0
0	0	0	0	1113	1120	1120	1123	1123	1123	1123	1127	1127	1134	1134	1131	1134	1134	1131	1131	1131	1131	1127	1131	1131	1131	1134	1134	1134	1134	1134	1131	1131	1127	1131	1134	1134	1134	1138	1142	1146	1161	1165	1169	1169	1169	1169	1169	1165	1165	1165	1169	1169	1169	0	0	0	0	0	0	0	0	0	0	0	5050	5125	5125	5125	5202	5202	5202	5202	5202	5202	5202	5282	5282	5282	5282	0	0	5282	5202	5202	5202	5202	5202	5202	5202	5202	5202	5202	5125	5125	5125	5125	5125	5125	5125	5125	5125	5125	5125	5125	5125	5050	5050	5050	5050	5050	5050	5050	5125	5202	5202	5202	5202	5202	5202	5202	5202	5125	5125	5125	5050	5050	4977	4977	5050	4977	4977	5050	4977	5050	5125	5125	5050	5125	5125	5125	5125	5050	5050	5125	5050	4977	4977	4977	4977	4977	4977	4977	4977	5050	5125	5125	5125	5125	5125	5125	5125	5125	5125	5125	5125	5125	5125	5050	5125	5050	5125	5125	5125	5125	5202	5125	5125	5050	5050	5050	5050	5050	5050	5050	5050	5050	5050	5125	5125	5125	5125	5050	5125	5050	5050	4977	4977	5050	5050	5050	5125	5050	5050	4977	4977	5050	5050	5050	5050	5050	5050	5125	5202	5125	5125	5125	4977	5050	5050	5050	4977	4977	4977	5050	5050	5050	4977	4977	5050	5050	5050	5050	5050	5050	5125	5125	5050	5125	5125	5125	5125	5050	5050	5125	5125	5050	5050	5050	5050	5050	5050	4977	4977	4977	5050	5050	5050	5050	5050	5050	5050	5050	4977	4977	5050	5050	5050	5050	5125	5050	5050	5050	5050	5050	5050	5050	5050	5050	5050	5050	5050	5125	5125	5050	5050	5050	5050	5050	5050	5050	5050	5050	5050	5050	5050	5050	5050	5050	5050	5050	5050	5050	5050	5050	5050	5050	5050	5050	5050	5050	5050	5050	5125	5125	5125	5125	5125	5125	5125	5050	5050	5050	5050	5050	5125	5125	5125	5125	5125	5125	5125	5125	5050	5050	5050	5050	5050	5050	5050	5050	5125	5125	5125	5125	5125	5125	5125	5125	5125	5125	5125	5125	5125	5125	5125	5050	5050	5050	5125	5125	5125	5125	5125	5125	5125	5125	5125	5050	5125	5125	5125	5125	5125	5125	5125	5050	5050	5050	5050	5050	5050	5125	5050	5050	5125	5050	5050	5050	5050	5050	5050	5050	5125	5125	5125	5125	5125	5125	5125	5125	5202	5202	5202	5202	5202	5202	5202	5202	5202	5125	5125	5125	5125	5125	5125	5202	5202	5202	5125	5125	5125	5125	5125	5125	5125	5202	5202	5202	5125	5202	5202	5202	5202	5125	5125	5202	5125	5125	5125	5125	5125	5125	5125	5050	5125	5125	5125	5050	5050	5050	5125	5202	5050	5050	5125	5125	5125	5125	5125	5202	5125	5125	5202	5202	5202	5202	5125	5125	5125	5125	5125	5202	5202	5202	5202	5125	5125	5125	5125	5125	5125	5125	5125	5125	5125	5125	5125	5125	5125	5050	5125	5202	5202	5202	5202	5202	5202	5202	5202	5202	5202	5202	5202	5202	5125	5125	5125	5050	4977	4977	4977	4977	4977	4977	4977	4977	4977	4977	5050	5050	5050	5050	5050	5125	5125	5050	5050	5050	5050	5050	5125	5050	5125	5125	5125	5050	5050	5050	5050	5050	5050	5050	4977	5050	5050	5050	5050	5050	4977	4977	4977	5050	5050	5050	4977	4977	4977	4977	4977	4977	4977	4977	4977	4977	4977	0	0	0	0	0	0	0	2649	2669	2609	2589	2570	2570	2570	2551	2551	2532	2514	2514	2496	2496	2478	2460	2460	2460	2443	2460	2460	2460	2443	2443	2426	2426	2409	2392	2392	2392	0	0	0	0	0	0	0	0	0	0	0	0	0	0	0	0	0	0	0	0	0	0	0	0	0	0	0	0	0	0	0	0	0	0	0	0	0
0	0	0	0	1116	1116	1116	1120	1120	1120	1120	1120	1127	1134	1150	1150	1134	1134	1131	1131	1131	1131	1127	1131	1131	1131	1131	1131	1134	1134	1134	1131	1127	1127	1131	1134	1134	1134	1138	1138	1142	1157	1165	1165	1169	1169	1169	1169	1169	1165	1169	1169	1169	1169	0	0	0	0	0	0	0	0	0	0	5125	5125	5125	5202	5202	5202	5282	5202	5202	5202	5202	5202	5282	5282	5282	5282	5282	5202	5202	5202	5202	5202	5202	5202	5202	5202	5202	5202	5202	5125	5125	5125	5125	5125	5125	5125	5125	5125	5125	5125	5125	5125	5125	5050	5050	5050	4977	5050	5050	5125	5202	5202	5202	5202	5202	5202	5202	5202	5125	5125	5125	5050	5050	5050	4977	5050	5050	5050	5050	5050	5125	5125	5125	5125	5125	5125	5125	5125	5050	5050	5125	5050	5050	4977	5050	4977	4977	4977	4977	5050	5125	5202	5202	5202	5202	5202	5202	5202	5202	5125	5125	5125	5125	5050	5050	5125	5050	5125	5125	5125	5202	5125	5125	5125	5050	5050	5050	5050	5050	5050	5050	5050	5050	5050	5125	5125	5125	5125	5050	5050	5050	5050	4977	5050	5050	5050	4977	5125	5125	5050	5050	5050	5050	5050	5050	5050	5125	5125	5202	5202	5202	5125	5125	5125	5125	5050	5050	5050	4977	5050	5050	5050	5050	5050	5050	5050	5050	5050	5050	5050	5050	5125	5125	5125	5125	5125	5125	5125	5050	5050	5125	5125	5125	5125	5125	5125	5050	5050	5050	5050	5050	5050	5050	5050	5050	5050	5050	5050	5050	5050	5050	5050	5125	5050	5125	5125	5125	5050	5050	5050	5050	5050	5050	5050	5050	5125	5125	5125	5125	5125	5125	5125	5050	5050	5050	5050	5050	5050	5050	5050	5050	5050	5050	5050	5050	5050	5050	5050	5050	5050	5050	5050	5050	5050	5050	5050	5050	5050	5050	5125	5050	5125	5125	5125	5125	5125	5050	5050	5050	5050	5050	5050	5125	5125	5125	5125	5125	5125	5125	5050	5050	5050	5050	5050	5050	5125	5125	5125	5125	5125	5125	5125	5125	5125	5125	5125	5125	5125	5125	5125	5125	5125	5050	5125	5050	5125	5125	5125	5125	5125	5125	5125	5125	5050	5125	5125	5125	5125	5125	5125	5125	5125	5125	5125	5125	5125	5125	5125	5125	5050	5050	5125	5050	5050	5050	5125	5050	5125	5125	5125	5125	5125	5125	5125	5125	5125	5202	5202	5202	5202	5202	5202	5202	5202	5202	5202	5125	5125	5202	5125	5202	5125	5202	5202	5125	5125	5125	5125	5125	5125	5125	5125	5202	5202	5202	5125	5125	5202	5202	5202	5202	5202	5202	5125	5202	5125	5125	5125	5125	5125	5125	5125	5125	5125	5125	5050	5125	5125	5202	5050	5125	5125	5202	5202	5125	5202	5202	5202	5202	5202	5202	5202	5202	5202	5202	5202	5202	5125	5202	5202	5202	5202	5202	5125	5125	5125	5125	5125	5050	5050	5125	5125	5125	5125	5050	5050	5125	5125	5202	5202	5202	5202	5202	5202	5202	5202	5202	5202	5202	5202	5202	5125	5125	5125	5050	4977	4977	4977	4977	5050	4977	4977	4977	4977	4977	4977	5050	5050	5050	5125	5125	5125	5050	5050	5050	5050	5050	5050	5050	5125	5125	5125	5125	5050	5125	5125	5050	5125	5125	5050	5125	5125	5125	5050	5125	5050	5050	4977	5050	5050	5050	4977	4977	4977	4977	4977	4977	4977	4977	4977	4977	4977	0	0	0	0	0	0	0	2629	2609	2589	2589	2589	2570	2570	2570	2551	2532	2514	2514	2496	2496	2496	2460	2460	2460	2443	2460	2460	2460	2443	2443	2443	2460	2443	2443	2443	2443	0	0	0	0	0	0	0	0	0	0	0	0	0	0	0	0	0	0	0	0	0	0	0	0	0	0	0	0	0	0	0	0	0	0	0	0	0
0	0	0	0	1120	1116	1116	1120	1120	1116	1120	1120	1127	1150	1150	1150	1134	1134	1131	1131	1131	1127	1127	1131	1131	1131	1131	1131	1131	1131	1131	1127	1127	1127	1131	1131	1134	1134	1138	1138	1142	1153	1161	1165	1169	1169	1169	1165	1165	1165	1165	1165	1169	1169	0	0	0	0	0	0	0	0	0	0	5050	5125	5125	5125	5202	5202	5202	5202	5202	5202	5202	5282	5282	5282	5282	5282	5282	5202	5202	5202	5202	5202	5202	5202	5202	5202	5202	5202	5202	5125	5125	5125	5125	5125	5125	5125	5125	5125	5125	5125	5202	5125	5125	5125	5125	5125	5125	5125	5125	5125	5202	5202	5202	5202	5202	5202	5202	5202	5125	5125	5125	5125	5125	5050	5050	5125	5125	5125	5125	5125	5125	5125	5125	5125	5125	5125	5125	5125	5125	5050	5125	5050	5050	5050	5050	5050	5050	5050	5050	5050	5125	5202	5202	5202	5202	5202	5202	5202	5202	5202	5202	5125	5125	5125	5125	5125	5125	5125	5125	5125	5125	5125	5125	5125	5125	5125	5125	5125	5125	5050	5050	5125	5125	5125	5125	5202	5202	5125	5125	5125	5125	4977	5050	5050	5125	5125	5125	5202	5125	5125	5050	5125	5125	5125	5125	5125	5125	5125	5202	5202	5202	5125	5125	5125	5125	5125	5125	5050	5050	5050	5050	5050	5050	5050	5050	5050	5050	5050	5050	5050	5125	5202	5202	5125	5125	5125	5125	5125	5125	5125	5125	5125	5125	5125	5125	5125	5125	5125	5050	5050	5125	5125	5125	5125	5125	5125	5125	5050	5050	5050	5050	5125	5125	5125	5125	5125	5125	5050	5050	5050	5050	5050	5050	5050	5050	5125	5125	5125	5202	5202	5202	5125	5125	5125	5050	5050	5050	5050	5050	5050	5050	5125	5125	5050	5125	5125	5125	5125	5125	5125	5125	5125	5125	5125	5125	5050	5050	5050	5050	5125	5050	5125	5125	5125	5125	5125	5050	5125	5050	5050	5050	5125	5125	5125	5125	5125	5125	5125	5125	5125	5125	5125	5125	5125	5125	5125	5125	5125	5125	5125	5125	5125	5125	5125	5125	5125	5202	5202	5125	5125	5125	5125	5050	5125	5125	5125	5125	5125	5125	5125	5125	5125	5125	5050	5050	5125	5125	5125	5125	5125	5125	5125	5125	5125	5125	5125	5125	5125	5125	5125	5125	5125	5050	5125	5125	5125	5125	5125	5125	5202	5125	5125	5125	5125	5125	5125	5202	5202	5202	5282	5282	5202	5202	5202	5202	5202	5202	5202	5202	5202	5202	5125	5202	5125	5125	5125	5125	5125	5125	5125	5125	5125	5202	5202	5202	5125	5202	5202	5202	5202	5202	5202	5202	5202	5202	5125	5125	5125	5125	5125	5125	5125	5125	5125	5125	5125	5125	5125	5125	5125	5125	5202	5202	5202	5202	5202	5202	5202	5202	5202	5202	5202	5202	5202	5202	5202	5202	5125	5202	5202	5202	5202	5202	5202	5202	5202	5202	5125	5125	5050	5125	5125	5125	5125	5125	5125	5125	5202	5202	5202	5202	5202	5202	5282	5202	5202	5202	5202	5202	5202	5202	5202	5125	5050	5050	4977	4977	4977	4977	5050	4977	4977	4977	4977	4977	4977	5050	5125	5125	5125	5125	5125	5050	5050	5050	5125	5125	5050	5050	5125	5125	5125	5125	5125	5125	5125	5050	5125	5050	5050	5050	5050	5050	5050	5050	5050	5050	4977	5050	5050	5050	4977	4977	5050	5050	5050	5050	5050	5050	5050	5050	5050	0	0	0	0	0	0	0	2690	2609	2589	2589	2570	2570	2570	2570	2570	2551	2532	2514	2532	2551	2551	2532	2460	2460	2460	2460	2460	2460	2460	2443	2443	2443	2443	2443	2443	2443	0	0	0	0	0	0	0	0	0	0	0	0	0	0	0	0	0	0	0	0	0	0	0	0	0	0	0	0	0	0	0	0	0	0	0	0	0
0	0	0	0	1120	1120	1116	1120	1120	1116	1120	1120	1120	1150	1150	1150	1150	1134	1131	1131	1131	1127	1127	1131	1131	1131	1131	1127	1127	1127	1127	1127	1127	1127	1127	1131	1134	1134	1138	1138	1142	1150	1161	1165	1169	1169	1169	1169	1165	1165	1165	1165	1165	1165	0	0	0	0	0	0	0	0	4977	5050	5050	5125	5125	5125	5202	5202	5202	5202	5202	5202	5282	5282	5282	5364	5282	5282	5282	5282	5282	5202	5202	5202	5202	5202	5202	5202	5202	5202	5202	5125	5125	5125	5125	5125	5050	5125	5125	5125	5125	5125	5202	5125	5125	5125	5125	5125	5125	5125	5125	5125	5202	5202	5202	5202	5202	5202	5202	5202	5202	5202	5202	5125	5125	5050	5125	5125	5125	5125	5125	5125	5125	5125	5125	5125	5125	5125	5125	5125	5125	5050	5125	5050	5050	5050	5125	5125	5125	5125	5125	5125	5125	5202	5202	5202	5202	5202	5202	5202	5202	5202	5202	5125	5125	5125	5050	5125	5125	5202	5202	5202	5202	5202	5125	5125	5125	5125	5125	5125	5125	5125	5125	5125	5125	5202	5202	5202	5202	5202	5125	5125	5202	5125	5125	5125	5125	5202	5202	5202	5125	5125	5125	5125	5125	5125	5202	5202	5125	5202	5202	5202	5202	5202	5202	5202	5125	5125	5125	5125	5125	5125	5050	5050	5050	5050	5050	5050	5050	5125	5125	5125	5125	5202	5202	5202	5202	5202	5202	5125	5125	5125	5125	5125	5125	5202	5202	5125	5125	5125	5125	5125	5125	5202	5202	5202	5202	5125	5125	5050	5050	5050	5050	5125	5202	5202	5202	5202	5202	5125	5125	5125	5050	5050	5050	5125	5125	5125	5125	5125	5202	5202	5202	5202	5125	5125	5125	5125	5125	5125	5125	5125	5125	5125	5125	5125	5125	5125	5125	5125	5125	5125	5125	5125	5125	5125	5125	5050	5050	5050	5050	5125	5125	5125	5125	5125	5125	5125	5125	5125	5125	5125	5125	5125	5125	5125	5125	5125	5125	5125	5125	5125	5125	5125	5125	5125	5125	5125	5202	5125	5125	5125	5125	5125	5125	5125	5125	5125	5125	5125	5125	5125	5125	5125	5125	5125	5125	5125	5125	5125	5125	5125	5125	5125	5125	5050	5125	5125	5125	5202	5125	5202	5202	5202	5202	5125	5125	5125	5125	5125	5125	5125	5125	5125	5125	5125	5125	5202	5125	5125	5125	5202	5202	5202	5125	5125	5125	5202	5202	5202	5202	5282	5282	5282	5202	5202	5282	5202	5202	5202	5202	5202	5202	5202	5202	5202	5202	5125	5202	5202	5202	5125	5125	5125	5202	5202	5202	5125	5202	5202	5202	5202	5202	5202	5202	5125	5202	5125	5202	5202	5202	5202	5202	5202	5125	5125	5125	5125	5125	5125	5125	5125	5202	5202	5202	5202	5202	5202	5202	5202	5202	5202	5202	5202	5202	5202	5202	5202	5202	5202	5202	5202	5202	5282	5202	5202	5202	5202	5202	5202	5125	5125	5125	5125	5125	5125	5125	5202	5202	5202	5202	5282	5282	5282	5282	5282	5282	5282	5282	5282	5282	5202	5202	5202	5202	5125	5125	4977	5050	4977	5050	5050	5050	4977	4977	4977	4977	4977	0	5125	5125	5125	5125	5125	5125	5050	5125	5125	5125	5125	5050	5125	5202	5202	5202	5202	5202	5125	5125	5125	5125	5050	5050	5125	5125	5050	5125	5050	5125	5125	5125	5125	5050	5050	5050	5050	5050	5050	5050	5050	5050	5050	5050	5050	5050	0	0	0	0	0	0	2690	2609	2589	2589	2570	2570	2570	2570	2570	2532	2514	2514	2532	2532	2532	2514	2514	2496	2514	2496	2496	2496	2460	2443	2443	2460	2460	2426	2426	2426	0	0	0	0	0	0	0	0	0	0	0	0	0	0	0	0	0	0	0	0	0	0	0	0	0	0	0	0	0	0	0	0	0	0	0	0	0
0	0	0	0	1120	1120	1120	1120	1120	1120	1120	1116	1150	1150	1150	1146	1138	1138	1134	1131	1131	1131	1127	1131	1131	1131	1131	1131	1127	1127	1127	1127	1123	1127	1127	1131	1134	1138	1138	1142	1146	1153	1161	1165	1169	1169	1169	1169	1169	1165	1165	1165	1165	1165	0	0	0	0	0	0	0	0	4977	4977	5050	5125	5125	5125	5202	5202	5202	5202	5202	5202	5282	5282	5364	5364	5364	5364	5364	5364	5364	5202	5202	5202	5202	5202	5202	5202	5202	5202	5202	5125	5125	5125	5125	5125	5125	5125	5125	5125	5125	5202	5202	5202	5202	5202	5125	5125	5125	5202	5125	5202	5202	5202	5125	5202	5202	5202	5202	5202	5125	5125	5202	5202	5125	5125	5125	5125	5125	5125	5125	5125	5202	5202	5202	5202	5202	5202	5202	5125	5125	5125	5125	5125	5125	5125	5125	5125	5125	5125	5125	5202	5202	5282	5202	5202	5202	5202	5202	5202	5202	5202	5202	5202	5202	5125	5125	5202	5202	5202	5202	5202	5202	5202	5202	5125	5125	5125	5125	5125	5125	5125	5202	5202	5202	5202	5202	5202	5202	5202	5202	5202	5202	5202	5125	5125	5202	5202	5202	5202	5125	5125	5125	5125	5202	5202	5202	5202	5202	5202	5202	5202	5202	5202	5202	5202	5202	5125	5202	5125	5125	5125	5125	5125	5125	5050	5050	5125	5125	5125	5125	5125	5125	5202	5282	5202	5202	5202	5202	5202	5202	5125	5125	5125	5125	5125	5125	5125	5125	5125	5202	5125	5202	5202	5202	5202	5202	5202	5125	5125	5050	5050	5050	5125	5125	5202	5202	5202	5202	5125	5125	5125	5125	5125	5125	5125	5125	5125	5202	5202	5202	5202	5202	5202	5202	5125	5125	5125	5125	5125	5125	5125	5125	5125	5125	5125	5202	5125	5125	5125	5125	5202	5202	5125	5125	5125	5125	5125	5050	5050	5050	5125	5125	5125	5125	5202	5202	5202	5202	5202	5202	5125	5125	5125	5125	5125	5125	5125	5125	5125	5125	5125	5125	5125	5125	5125	5125	5202	5202	5202	5202	5125	5125	5125	5125	5125	5125	5125	5125	5125	5125	5125	5125	5125	5125	5125	5125	5125	5125	5125	5125	5125	5125	5125	5125	5125	5125	5125	5125	5202	5125	5202	5202	5202	5125	5125	5125	5125	5125	5125	5125	5125	5125	5125	5125	5202	5125	5202	5125	5125	5125	5202	5202	5202	5125	5125	5202	5202	5202	5282	5282	5282	5282	5282	5282	5202	5282	5202	5202	5202	5202	5202	5202	5202	5282	5202	5282	5202	5282	5202	5202	5202	5125	5202	5202	5202	5202	5202	5202	5202	5202	5202	5202	5202	5125	5125	5202	5202	5202	5202	5282	5202	5202	5202	5202	5202	5125	5125	5202	5202	5202	5202	5202	5202	5202	5202	5202	5202	5202	5202	5202	5202	5202	5202	5202	5202	5202	5202	5202	5202	5282	5282	5282	5282	5282	5282	5282	5282	5282	5202	5202	5202	5202	5202	5202	5202	5202	5282	5282	5202	5282	5282	5282	5282	5282	5282	5282	5282	5282	5282	5282	5282	5202	5202	5202	5125	5125	5050	5050	5050	5050	5050	5050	5050	5050	5050	5125	5125	5202	5125	5202	5202	5202	5202	5125	5125	5125	5125	5125	5125	5050	5125	5202	5202	5202	5202	5202	5202	5125	5125	5125	5050	5125	5125	5050	5125	5125	5202	5202	5202	5202	5282	5125	5125	5050	5050	5050	5050	5050	5050	5050	5050	5050	5050	5050	0	0	0	0	0	2690	2669	2669	2669	2570	2570	2570	2570	2570	2551	2532	2514	2514	2532	2532	2514	2514	2514	2496	2496	2496	2496	2496	2478	2460	2443	2443	2443	2443	2443	2443	0	0	0	0	0	0	0	0	0	0	0	0	0	0	0	0	0	0	0	0	0	0	0	0	0	0	0	0	0	0	0	0	0	0	0	0	0
0	0	0	0	0	1120	1120	1120	1120	1120	1120	1120	1138	1150	1150	1138	1138	1138	1134	1131	1131	1127	1127	1127	1131	1127	1131	1131	1127	1127	1127	1127	1127	1127	1127	1131	1134	1138	1138	1142	1142	1150	1161	1165	1169	1169	1169	1169	1169	1165	1169	1169	1169	1165	0	0	0	0	0	0	0	0	5125	5125	5125	5202	5202	5202	5202	5282	5282	5202	5202	5202	5282	5282	5364	5364	5364	5364	5364	5282	5282	5282	5202	5202	5202	5202	5202	5202	5202	5202	5202	5202	5202	5202	5125	5050	5050	5050	5125	5125	5202	5202	5202	5202	5202	5202	5202	5202	5202	5202	5202	5202	5202	5202	5202	5202	5202	5202	5202	5202	5202	5202	5202	5202	5125	5125	5125	5125	5125	5202	5202	5202	5202	5202	5202	5202	5202	5202	5202	5125	5125	5125	5125	5125	5125	5125	5125	5125	5202	5202	5202	5202	5202	5282	5282	5282	5282	5282	5202	5202	5202	5202	5202	5202	5202	5202	5202	5202	5202	5202	5202	5202	5202	5202	5202	5202	5202	5202	5202	5202	5202	5202	5202	5202	5202	5202	5202	5202	5202	5202	5202	5202	5202	5202	5202	5202	5202	5202	5202	5125	5125	5125	5202	5202	5202	5202	5202	5202	5202	5202	5202	5202	5202	5202	5202	5202	5202	5202	5202	5202	5202	5202	5202	5202	5125	5125	5125	5125	5125	5050	5050	5050	5125	5202	5282	5202	5202	5202	5202	5202	5202	5202	5202	5125	5202	5202	5202	5202	5125	5202	5202	5202	5202	5282	5282	5282	5202	5202	5202	5202	5125	5125	5125	5202	5202	5202	5202	5202	5202	5202	5202	5202	5202	5202	5202	5202	5202	5202	5202	5282	5282	5282	5282	5202	5202	5202	5125	5125	5125	5125	5125	5125	5125	5125	5125	5125	5202	5125	5125	5202	5202	5202	5202	5202	5125	5125	5125	5125	5125	5125	5125	5125	5125	5202	5202	5202	5202	5202	5202	5282	5202	5202	5125	5125	5125	5125	5202	5202	5202	5202	5202	5125	5125	5125	5125	5202	5202	5202	5202	5202	5202	5125	5125	5125	5125	5125	5125	5125	5125	5202	5125	5125	5125	5125	5125	5125	5125	5125	5202	5125	5125	5202	5202	5125	5125	5125	5125	5125	5125	5202	5202	5202	5202	5202	5202	5202	5125	5202	5125	5125	5125	5125	5125	5125	5125	5125	5125	5202	5125	5125	5125	5202	5202	5202	5125	5202	5202	5202	5202	5282	5282	5282	5282	5282	5282	5282	5282	5282	5282	5282	5282	5282	5282	5282	5364	5364	5282	5282	5282	5282	5282	5202	5202	5202	5282	5202	5202	5202	5282	5282	5282	5202	5202	5202	5202	5202	5202	5202	5202	5202	5282	5202	5202	5202	5202	5202	5202	5125	5202	5202	5202	5202	5202	5202	5202	5202	5202	5202	5202	5202	5202	5202	5202	5202	5202	5202	5202	5202	5202	5202	5282	5282	5282	5282	5282	5282	5282	5282	5282	5282	5202	5202	5202	5202	5282	5282	5364	5282	5282	5282	5282	5282	5282	5282	5282	5282	5282	5282	5282	5282	5282	5282	5282	5282	5282	5282	5202	5125	5125	5125	5125	5125	5125	5050	5125	5125	5125	5202	5202	5202	5202	5202	5202	5202	5202	5125	5125	5125	5125	5050	5050	5050	5125	5202	5202	5202	5202	5125	5050	5125	5050	5050	5050	5050	5050	5050	5202	5202	5202	5202	5202	5282	5125	5125	5125	5125	5125	5125	5050	5050	5050	5050	5125	5125	5125	0	0	0	0	0	2690	2690	2690	2690	2551	2551	2551	2570	2570	2551	2532	2514	2514	2496	2496	2496	2514	2496	2478	2478	2478	2496	2478	2478	2460	2460	2443	2460	2443	2443	2443	0	0	0	0	0	0	0	0	0	0	0	0	0	0	0	0	0	0	0	0	0	0	0	0	0	0	0	0	0	0	0	0	0	0	0	0	0
0	0	0	0	0	1123	1120	1120	1120	1120	1123	1127	1138	1146	1142	1138	1138	1138	1134	1131	1131	1131	1127	1131	1127	1127	1131	1131	1127	1127	1127	1127	1127	1127	1131	1134	1134	1138	1138	1142	1142	1146	1157	1165	1165	1165	1169	1165	1165	1165	1169	1169	1169	0	0	0	0	0	0	0	0	5364	5202	5202	5202	5282	5282	5202	5282	5282	5282	5202	5202	5202	5282	5282	5364	5364	5364	5364	5282	5282	5282	5282	5202	5202	5202	5202	5202	5202	5202	5202	5202	5202	5202	5202	5125	5125	5050	5050	5125	5125	5202	5202	5202	5202	5202	5202	5202	5202	5202	5202	5202	5202	5202	5202	5202	5202	5202	5202	5202	5202	5202	5202	5202	5202	5202	5202	5202	5202	5202	5202	5202	5202	5282	5282	5282	5282	5202	5202	5202	5202	5202	5125	5125	5125	5125	5125	5125	5202	5202	5202	5202	5202	5202	5282	5282	5282	5282	5282	5202	5202	5202	5202	5202	5202	5202	5202	5202	5202	5202	5202	5202	5202	5202	5202	5202	5202	5202	5202	5202	5202	5202	5202	5282	5282	5282	5282	5282	5202	5202	5202	5202	5202	5202	5202	5202	5202	5202	5202	5202	5125	5125	5125	5125	5202	5202	5202	5202	5202	5202	5202	5202	5202	5202	5202	5202	5202	5202	5202	5202	5202	5202	5202	5202	5202	5202	5202	5125	5125	5125	5050	5050	5050	5125	5202	5282	5282	5282	5282	5282	5202	5202	5202	5202	5202	5202	5202	5202	5125	5125	5202	5202	5202	5202	5202	5282	5282	5202	5202	5202	5202	5202	5125	5202	5202	5282	5282	5202	5202	5202	5202	5202	5202	5202	5202	5202	5202	5202	5282	5282	5282	5282	5282	5282	5282	5282	5202	5125	5125	5125	5125	5125	5125	5202	5202	5125	5202	5202	5202	5202	5202	5202	5202	5202	5202	5202	5202	5202	5202	5202	5202	5125	5202	5202	5202	5202	5202	5202	5202	5202	5282	5282	5202	5202	5202	5202	5202	5202	5202	5202	5202	5202	5125	5202	5202	5202	5202	5202	5202	5282	5202	5202	5202	5125	5125	5125	5125	5125	5125	5125	5202	5202	5202	5125	5202	5202	5202	5202	5202	5202	5202	5202	5125	5202	5202	5125	5125	5125	5125	5202	5202	5202	5202	5282	5202	5202	5202	5125	5202	5125	5125	5125	5125	5125	5125	5125	5202	5202	5282	5202	5202	5202	5202	5202	5125	5125	5202	5202	5202	5202	5282	5282	5282	5282	5282	5282	5282	5282	5282	5282	5364	5282	5282	5364	5364	5364	5364	5282	5282	5364	5282	5282	5282	5202	5202	5282	5202	5202	5282	5282	5202	5282	5282	5202	5202	5202	5202	5202	5202	5282	5282	5364	5282	5282	5202	5202	5202	5202	5202	5202	5202	5202	5202	5202	5202	5202	5202	5202	5202	5202	5202	5202	5202	5282	5282	5202	5202	5202	5202	5202	5202	5282	5282	5282	5282	5282	5282	5282	5282	5364	5282	5282	5282	5282	5448	5282	5282	5364	5364	5282	5282	5282	5282	5282	5282	5282	5282	5282	5282	5364	5282	5282	5282	5282	5282	5364	5282	5282	5282	5202	5202	5202	5125	5125	5125	5125	5125	5202	5202	5125	5202	5202	5202	5202	5202	5202	5125	5125	5125	5125	5050	5050	5050	5125	5125	5125	5125	5125	5050	5050	5050	4977	4977	4977	4977	5125	5125	5202	5202	5202	5202	5202	5282	5202	5202	5125	5125	5125	5125	5125	5050	5125	5050	5050	5125	5125	0	0	0	0	0	2690	2690	2690	2690	2551	2532	2532	2551	2551	2532	2532	2514	2514	2496	2496	2496	2478	2443	2443	2478	2460	2478	2460	2460	2460	2443	2460	2460	2443	2443	2443	0	0	0	0	0	0	0	0	0	0	0	0	0	0	0	0	0	0	0	0	0	0	0	0	0	0	0	0	0	0	0	0	0	0	0	0	0
0	0	0	0	0	1123	1113	1120	1113	1113	1123	1131	1134	1138	1142	1138	1138	1138	1134	1131	1131	1131	1127	1127	1127	1127	1127	1131	1127	1127	1127	1127	1127	1127	1131	1134	1134	1138	1142	1142	1146	1150	1161	1165	1169	1165	1169	1165	1165	1165	1169	1169	1169	0	0	0	0	0	0	0	0	5364	5364	5282	5364	5364	5364	5364	5282	5282	5282	5282	5282	5202	5282	5282	5364	5364	5282	5282	5282	5282	5282	5202	5202	5202	5202	5202	5202	5202	5202	5202	5202	5202	5202	5202	5125	5125	5125	5125	5125	5202	5202	5202	5202	5202	5202	5202	5202	5202	5202	5202	5202	5202	5202	5202	5202	5202	5202	5202	5202	5202	5202	5202	5202	5202	5202	5202	5202	5202	5282	5282	5282	5282	5282	5364	5364	5282	5282	5282	5282	5202	5202	5202	5125	5202	5125	5202	5202	5202	5202	5202	5202	5202	5202	5282	5282	5282	5282	5282	5202	5202	5202	5202	5202	5202	5202	5202	5202	5202	5282	5202	5202	5202	5202	5202	5202	5202	5202	5202	5282	5202	5282	5282	5282	5282	5282	5282	5282	5282	5282	5202	5202	5202	5202	5202	5202	5202	5202	5202	5202	5202	5202	5202	5202	5202	5202	5202	5202	5202	5202	5202	5202	5202	5202	5202	5202	5202	5202	5202	5202	5202	5202	5202	5202	5202	5202	5125	5125	5125	5125	5050	5125	5125	5125	5282	5282	5282	5282	5282	5282	5282	5282	5202	5202	5125	5202	5202	5202	5202	5125	5202	5202	5202	5202	5282	5282	5282	5282	5202	5202	5202	5202	5202	5202	5202	5282	5282	5282	5282	5202	5202	5202	5282	5282	5202	5202	5202	5202	5282	5282	5282	5282	5282	5282	5282	5282	5202	5202	5202	5202	5125	5202	5202	5202	5202	5202	5202	5202	5202	5202	5282	5282	5282	5282	5282	5202	5282	5282	5202	5202	5202	5202	5282	5202	5202	5202	5202	5202	5202	5202	5202	5202	5202	5202	5202	5202	5202	5202	5202	5202	5202	5202	5125	5202	5202	5202	5202	5282	5282	5282	5202	5202	5202	5125	5125	5125	5125	5125	5125	5125	5202	5202	5202	5202	5202	5202	5202	5202	5202	5202	5202	5202	5202	5202	5202	5125	5125	5125	5125	5202	5282	5282	5282	5282	5202	5202	5202	5202	5202	5202	5202	5202	5202	5202	5125	5202	5202	5202	5202	5202	5202	5202	5282	5202	5202	5125	5125	5202	5202	5202	5282	5282	5282	5282	5364	5282	5282	5364	5282	5364	5364	5364	5364	5364	5364	5364	5364	5364	5282	5364	5282	5282	5282	5282	5282	5364	5364	5364	5364	5364	5282	5282	5282	5282	5202	5202	5202	5282	5282	5282	5364	5364	5364	5282	5282	5282	5282	5202	5202	5202	5282	5282	5282	5202	5202	5282	5202	5202	5202	5202	5282	5202	5202	5282	5282	5282	5282	5202	5202	5202	5202	5282	5282	5282	5282	5282	5282	5364	5282	5364	5282	5282	5448	5448	5448	5448	5448	5448	5364	5364	5282	5282	5282	5282	5282	5282	5282	5282	5282	5364	5282	5364	5282	5282	5282	5448	5448	5448	5448	5202	5202	5202	5202	5202	5202	5202	5202	5202	5202	5202	5202	5282	5282	5282	5202	5202	5202	5202	5125	5125	5050	5050	5050	5050	5050	5125	5125	5125	5125	5050	5050	5050	4977	4977	4977	5125	5202	5202	5202	5202	5202	5202	5282	5282	5282	5202	5202	5202	5125	5125	5050	5050	5050	5050	5125	5125	0	0	0	0	0	0	0	0	0	0	2551	2551	2570	2570	2551	2532	2514	2514	2496	2496	2478	2443	2443	2443	2443	2460	2460	2460	2460	2460	2460	2443	2443	2426	2426	2426	0	0	0	0	0	0	0	0	0	0	0	0	0	0	0	0	0	0	0	0	0	0	0	0	0	0	0	0	0	0	0	0	0	0	0	0	0
0	0	0	0	0	1123	1113	1120	1109	1109	1120	1116	1134	1138	1138	1138	1138	1138	1138	1134	1134	1131	1131	1131	1131	1127	1127	1131	1127	1127	1127	1127	1127	1127	1131	1134	1138	1142	1142	1146	1150	1153	1161	1165	1169	1169	1165	1169	1165	1165	1169	1169	1169	0	0	0	0	0	0	0	0	5364	5364	5364	5364	5364	5364	5364	5364	5364	5364	5364	5282	5282	5282	5364	5364	5364	5364	5282	5364	5282	5282	5282	5202	5202	5202	5202	5202	5282	5282	5282	5282	5202	5202	5202	5125	5125	5125	5125	5125	5202	5202	5202	5202	5282	5282	5282	5202	5282	5282	5282	5202	5202	5202	5202	5202	5202	5202	5202	5202	5202	5202	5202	5202	5202	5202	5202	5202	5282	5282	5282	5282	5282	5282	5364	5364	5364	5282	5282	5282	5282	5202	5202	5125	5125	5202	5202	5202	5202	5202	5202	5202	5202	5202	5282	5282	5282	5282	5282	5282	5202	5202	5202	5202	5202	5202	5202	5202	5282	5282	5282	5282	5282	5282	5282	5282	5282	5282	5282	5282	5202	5282	5282	5282	5282	5282	5282	5282	5282	5282	5202	5202	5202	5282	5202	5282	5282	5282	5282	5202	5202	5202	5202	5202	5202	5202	5202	5202	5282	5202	5282	5202	5202	5282	5282	5202	5282	5202	5282	5282	5202	5202	5202	5202	5202	5202	5202	5202	5125	5125	5125	5202	5202	5202	5282	5282	5282	5282	5282	5282	5282	5282	5202	5202	5125	5202	5202	5202	5202	5125	5202	5282	5202	5282	5282	5282	5282	5282	5282	5202	5202	5202	5202	5202	5202	5282	5282	5282	5282	5282	5282	5282	5282	5282	5282	5282	5202	5282	5282	5282	5282	5282	5282	5282	5282	5282	5282	5282	5282	5282	5202	5282	5282	5282	5202	5202	5282	5282	5282	5282	5282	5282	5282	5282	5282	5282	5282	5282	5282	5202	5282	5202	5282	5282	5282	5202	5202	5202	5202	5282	5282	5282	5282	5282	5282	5282	5202	5202	5202	5282	5282	5202	5202	5202	5202	5202	5202	5202	5202	5282	5202	5202	5202	5125	5125	5125	5125	5125	5125	5125	5202	5202	5202	5202	5282	5202	5202	5202	5202	5282	5202	5202	5202	5202	5202	5202	5125	5202	5282	5282	5282	5282	5282	5282	5282	5202	5202	5202	5282	5202	5202	5202	5202	5282	5202	5202	5282	5282	5282	5282	5282	5282	5282	5202	5202	5202	5364	5202	5202	5282	5282	5282	5282	5282	5364	5364	5282	5364	5282	5364	5364	5364	5364	5364	5364	5364	5364	5364	5364	5364	5364	5364	5364	5282	5364	5364	5364	5364	5364	5364	5364	5364	5364	5282	5202	5202	5202	5282	5282	5282	5282	5364	5282	5282	5282	5282	5364	5282	5282	5282	5282	5282	5282	5282	5282	5282	5202	5202	5202	5202	5282	5202	5282	5282	5282	5282	5282	5202	5364	5282	5282	5364	5364	5282	5364	5364	5364	5282	5364	5364	5448	5448	5448	5448	5448	5448	5448	5448	5364	5364	5282	5282	5282	5202	5282	5282	5282	5282	5282	5364	5282	5364	5282	5282	5282	5535	5448	5448	5448	0	5282	5282	5282	5282	5202	5282	5282	5282	5202	5202	5202	5282	5282	5282	5282	5282	5282	5282	5282	5202	5125	5125	5050	5050	5125	5125	5125	5125	5448	5050	5050	5050	5050	4977	4977	5125	5202	5202	5202	5202	5202	5202	5282	5282	5282	5202	5282	5202	5202	5202	5125	5125	5125	5125	5125	5125	0	0	0	0	0	0	0	0	2570	2551	2551	2551	2570	2570	2551	2532	2532	2514	2514	2496	2496	2443	2443	2443	2443	2443	2460	2460	2460	2460	2460	2443	2443	2426	2426	2426	0	0	0	0	0	0	0	0	0	0	0	0	0	0	0	0	0	0	0	0	0	0	0	0	0	0	0	0	0	0	0	0	0	0	0	0	0
0	0	0	0	0	1123	1127	1113	1109	1109	1113	1113	1134	1134	1138	1138	1138	1138	1138	1134	1134	1131	1131	1131	1131	1127	1127	1131	1127	1131	1127	1127	1131	1131	1131	1134	1138	1138	1142	1150	1150	1157	1165	1169	1169	1169	1165	1169	1165	1165	1165	1165	1165	0	0	0	0	0	0	0	0	5364	5364	5364	5364	5364	5364	5364	5364	5282	5364	5364	5282	5282	5364	5364	5448	5448	5364	5364	5364	5364	5282	5282	5282	5202	5202	5202	5364	5364	5364	5364	5364	5282	5282	5202	5202	5202	5202	5202	5202	5202	5202	5202	5282	5282	5282	5282	5282	5282	5282	5282	5282	5282	5202	5202	5282	5202	5282	5202	5202	5202	5202	5202	5202	5202	5202	5282	5282	5282	5282	5282	5282	5282	5282	5364	5364	5364	5282	5364	5364	5282	5202	5202	5202	5202	5202	5202	5202	5202	5202	5202	5202	5202	5202	5282	5282	5282	5202	5202	5202	5202	5202	5202	5125	5202	5202	5202	5202	5282	5282	5282	5282	5282	5282	5282	5282	5282	5282	5282	5282	5282	5282	5282	5282	5282	5282	5282	5282	5282	5282	5202	5202	5282	5282	5282	5282	5282	5282	5282	5202	5202	5202	5125	5202	5202	5202	5202	5282	5282	5282	5282	5282	5282	5282	5282	5282	5282	5282	5282	5282	5202	5202	5202	5202	5202	5202	5202	5202	5202	5202	5125	5202	5202	5202	5364	5282	5282	5364	5282	5282	5282	5282	5282	5282	5202	5202	5282	5202	5202	5125	5202	5282	5282	5282	5282	5282	5282	5282	5282	5282	5282	5282	5202	5202	5202	5202	5282	5282	5282	5282	5282	5282	5282	5282	5282	5282	5282	5282	5282	5282	5282	5282	5282	5282	5282	5282	5282	5282	5282	5282	5282	5282	5282	5282	5282	5282	5282	5282	5282	5282	5282	5282	5282	5282	5282	5282	5282	5282	5202	5202	5282	5202	5282	5282	5282	5282	5282	5282	5282	5282	5282	5282	5282	5282	5282	5282	5282	5282	5282	5282	5282	5282	5202	5125	5202	5125	5202	5202	5202	5282	5202	5282	5202	5202	5202	5125	5125	5125	5125	5125	5202	5202	5282	5282	5282	5282	5202	5202	5202	5282	5202	5202	5202	5202	5202	5202	5202	5202	5282	5282	5364	5364	5364	5364	5282	5282	5282	5282	5282	5282	5282	5282	5202	5282	5282	5282	5282	5282	5282	5282	5364	5364	5448	5448	5364	5364	5364	5282	5282	5364	5364	5282	5364	5282	5364	5364	5364	5364	5364	5448	5448	5364	5364	5364	5364	5364	5364	5364	5364	5364	5364	5364	5364	5364	5364	5364	5448	5448	5448	5448	5364	5364	5364	5282	5282	5202	5202	5282	5282	5282	5364	5364	5364	5364	5364	5364	5364	5282	5282	5282	5282	5282	5282	5282	5282	5364	5282	5202	5282	5282	5282	5282	5282	5282	5282	5282	5202	5282	5364	5364	5364	5364	5364	5364	5364	5364	5364	5364	5364	5364	5448	5535	5535	5448	5448	5535	5448	5448	5448	5364	5282	5282	5202	5282	5282	5282	5282	5282	5282	0	0	0	0	0	0	5535	5448	5448	5448	0	5282	5282	5535	5535	5535	5282	5282	5282	5202	5125	5202	5202	5364	5364	5364	5282	5282	5282	5535	5535	5125	5125	0	0	5125	5125	0	0	5448	5050	5050	5050	5050	0	0	0	0	5364	5282	5282	5282	5282	5282	5364	5282	5282	5282	5202	5202	5202	5125	5125	5050	5050	5050	5050	0	0	0	0	0	0	0	2589	2570	2551	2551	2551	2570	2551	2551	2532	2532	2514	2514	2496	2496	2478	2443	2443	2443	2443	2426	2443	2460	2460	2460	2443	2443	2426	2426	2426	0	0	0	0	0	0	0	0	0	0	0	0	0	0	0	0	0	0	0	0	0	0	0	0	0	0	0	0	0	0	0	0	0	0	0	0	0
0	0	0	0	0	1127	1131	1113	1109	1109	1109	1127	1127	1131	1134	1134	1134	1134	1134	1134	1131	1131	1131	1131	1131	1131	1127	1131	1127	1131	1131	1131	1131	1131	1131	1134	1134	1138	1138	1150	1150	1157	1165	1169	1169	1165	1165	1165	1165	1161	1165	1165	1165	0	0	0	0	0	0	0	0	5364	5364	5364	5364	5448	5448	5364	5364	5364	5364	5364	5282	5282	5364	5448	5448	5448	5448	5448	5448	5364	5364	5364	5282	5202	5282	5282	5448	5448	5448	5364	5364	5364	5282	5282	5202	5202	5202	5202	5202	5282	5202	5282	5282	5282	5282	5282	5282	5282	5282	5282	5282	5282	5282	5282	5282	5282	5282	5282	5202	5282	5282	5282	5202	5202	5202	5282	5282	5282	5282	5282	5364	5202	5202	5364	5364	5364	5364	5364	5364	5282	5202	5202	5202	5202	5202	5202	5202	5202	5202	5202	5202	5202	5202	5202	5282	5282	5202	5202	5202	5202	5202	5202	5202	5202	5282	5202	5202	5282	5282	5282	5282	5282	5282	5282	5282	5282	5282	5282	5282	5282	5282	5282	5282	5282	5282	5282	5282	5282	5282	5282	5282	5282	5282	5282	5202	5282	5202	5202	5202	5202	5202	5125	5202	5202	5202	5202	5202	5282	5282	5282	5282	5282	5282	5282	5282	5282	5282	5282	5282	5282	5202	5202	5202	5202	5202	5202	5202	5202	5202	5202	5282	5202	5282	5364	5282	5282	5364	5364	5282	5282	5282	5282	5282	5202	5282	5282	5282	5202	5202	5202	5282	5282	5282	5282	5282	5364	5282	5282	5282	5282	5282	5202	5202	5282	5282	5282	5282	5282	5282	5282	5282	5282	5282	5282	5282	5282	5282	5282	5282	5282	5282	5282	5282	5282	5282	5282	5282	5282	5282	5282	5282	5282	5282	5282	5282	5282	5282	5282	5282	5282	5282	5364	5282	5282	5282	5282	5202	5202	5202	5202	5202	5282	5282	5364	5282	5282	5282	5364	5364	5364	5282	5364	5364	5364	5364	5282	5282	5364	5364	5282	5282	5202	5202	5202	5202	5202	5282	5282	5282	5282	5282	5202	5202	5202	5202	5125	5125	5125	5202	5202	5202	5282	5282	5282	5282	5202	5282	5282	5282	5282	5202	5282	5282	5282	5282	5282	5282	5282	5364	5364	5364	5364	5364	5364	5364	5282	5282	5282	5282	5282	5282	5282	5282	5282	5282	5282	5282	5282	5364	5364	5364	5448	5448	5364	5364	5364	5364	5364	5364	5364	5282	5364	5364	5364	5364	5364	5364	5364	5448	5448	5364	5364	5364	5364	5364	5364	5364	5364	5364	5448	5364	5364	5364	5364	5364	5364	5448	5448	5448	5364	5364	5364	5282	5282	5282	5282	5282	5282	5282	5364	5364	5364	5364	5364	5364	5364	5364	5282	5282	5282	5282	5364	5364	5364	5364	5364	5282	5364	5282	5282	5282	5282	5282	5282	5282	5282	5364	5364	5364	5364	5448	5364	5364	5364	5364	5364	5364	5448	5364	5448	5535	5535	5448	5535	5535	5535	5535	5448	5448	5364	5364	5282	5282	5282	5282	0	0	0	0	0	0	0	0	0	0	0	0	0	0	0	0	5535	5535	5535	0	0	0	0	5125	5202	5202	5364	5448	5448	5282	5282	0	5535	5535	0	0	0	0	0	0	0	0	0	0	0	0	0	0	0	0	0	5364	5282	5282	5282	5202	5282	5282	5282	5282	5282	5282	5202	5202	5125	5125	5050	5125	5050	4977	4977	0	0	2669	2649	2629	2629	2609	2570	2570	2570	2570	2570	2551	2551	2532	2532	2514	2514	2496	2496	2443	2443	2443	2443	2443	2443	2443	2443	2460	2460	2443	2426	2426	2426	2426	0	0	0	0	0	0	0	0	0	0	0	0	0	0	0	0	0	0	0	0	0	0	0	0	0	0	0	0	0	0	0	0	0	0	0	0	0
0	0	0	0	0	1131	1134	1109	1109	1109	1120	1120	1127	1127	1131	1131	1131	1134	1134	1131	1131	1127	1127	1131	1131	1131	1127	1131	1131	1131	1131	1131	1131	1131	1134	1134	1134	1138	1138	1146	1150	1157	1165	1165	1165	1165	1165	1165	1165	1161	1165	1165	1165	0	0	0	0	0	0	0	0	5364	5364	5364	5364	5364	5364	5364	5364	5364	5364	5364	5364	5282	5364	5364	5448	5364	5364	5364	5448	5364	5364	5364	5202	5202	5364	5364	5448	5448	5448	5448	5364	5364	5364	5282	5282	5282	5282	5282	5282	5282	5282	5282	5282	5364	5364	5364	5364	5364	5364	5282	5282	5282	5282	5282	5282	5282	5364	5282	5282	5282	5282	5364	5282	5282	5282	5364	5364	5364	5364	5364	5364	5364	5282	5282	5364	5364	5364	5364	5364	5282	5202	5202	5202	5202	5282	5202	5202	5202	5202	5202	5202	5202	5202	5282	5282	5282	5282	5282	5202	5202	5125	5125	5125	5202	5282	5282	5282	5282	5282	5282	5282	5282	5282	5282	5282	5364	5282	5282	5364	5282	5282	5282	5282	5282	5282	5282	5282	5282	5282	5282	5282	5282	5202	5202	5202	5202	5202	5202	5202	5202	5202	5202	5202	5202	5202	5202	5282	5282	5282	5282	5282	5282	5282	5282	5282	5282	5282	5282	5282	5202	5202	5202	5202	5202	5202	5202	5202	5282	5202	5202	5282	5282	5282	5364	5364	5364	5364	5364	5282	5282	5282	5282	5282	5202	5282	5282	5282	5282	5282	5282	5282	5282	5364	5364	5364	5364	5364	5364	5282	5282	5282	5282	5202	5282	5282	5282	5282	5282	5282	5282	5282	5282	5282	5282	5282	5282	5282	5364	5282	5364	5282	5282	5282	5282	5282	5282	5282	5282	5282	5282	5282	5282	5282	5282	5282	5364	5282	5364	5282	5282	5364	5282	5282	5282	5282	5282	5282	5282	5282	5282	5282	5282	5364	5364	5282	5282	5282	5364	5364	5364	5282	5364	5364	5282	5364	5282	5282	5364	5364	5364	5282	5202	5202	5202	5202	5202	5282	5282	5448	5448	5364	5282	5282	5282	5282	5202	5202	5202	5202	5282	5282	5364	5364	5364	5364	5282	5282	5364	5282	5282	5282	5282	5282	5282	5282	5282	5282	5282	5364	5364	5448	5448	5448	5364	5364	5364	5364	5364	5282	5282	5282	5282	5282	5364	5282	5282	5282	5364	5364	5364	5282	5448	5448	5364	5364	5364	5364	5282	5364	5364	5364	5364	5364	5448	5448	5448	5364	5448	5448	5448	5448	5364	5448	5448	5448	5364	5448	5448	5448	5448	5448	5448	5448	5364	5364	5448	5448	5364	5448	5364	5448	5448	5364	5364	5282	5282	5282	5282	5282	5364	5364	5364	5364	5364	5364	5364	5364	5364	5282	5364	5364	5364	5364	5364	5448	5364	5364	5364	5364	5364	5364	5282	5282	5282	5282	5364	5364	5364	5364	5364	5364	5364	5364	5364	5364	5448	5448	5448	5448	5535	5535	5535	5535	5535	5535	5535	5535	5448	5448	5448	5364	5282	5282	0	0	0	0	0	0	0	0	0	0	0	0	0	0	0	0	0	0	0	0	0	0	0	0	0	0	0	0	0	5448	5448	0	0	0	0	0	0	0	0	0	0	0	0	0	0	0	0	0	0	0	0	0	0	5282	5282	5282	5282	5202	5282	5282	5282	5202	5282	5202	5202	5125	5125	5050	5050	5050	5050	5050	5050	0	0	2669	2649	2629	2629	2609	2589	2589	2589	2570	2570	2551	2551	2532	2532	2514	2514	2496	2496	2478	2443	2443	2460	2443	2443	2443	2443	2443	2460	2443	2426	2426	2426	2426	0	0	0	0	0	0	0	0	0	0	0	0	0	0	0	0	0	0	0	0	0	0	0	0	0	0	0	0	0	0	0	0	0	0	0	0	0
0	0	0	0	0	1109	1146	1109	1109	1109	1120	1120	1123	1123	1131	1127	1131	1131	1131	1131	1127	1127	1123	1127	1131	1131	1131	1131	1131	1131	1131	1131	1131	1127	1131	1131	1134	1134	1138	1142	1146	1150	1161	1165	1165	1165	1161	1165	1165	1161	1161	1161	1161	0	0	0	0	0	0	0	0	5448	5364	5364	5364	5364	5448	5448	5364	5364	5364	5364	5364	5364	5364	5364	5448	5448	5364	5448	5448	5364	5364	5364	5282	5282	5364	5364	5364	5448	5448	5448	5364	5364	5364	5364	5282	5282	5364	5364	5282	5364	5282	5364	5364	5364	5364	5364	5364	5364	5282	5282	5282	5282	5282	5282	5364	5364	5364	5364	5364	5364	5364	5364	5364	5364	5364	5448	5448	5448	5448	5448	5448	5448	5282	5282	5364	5282	5282	0	0	0	0	0	0	5202	5282	5202	5125	5125	5202	5202	5202	5202	5202	5282	5282	5282	5282	5282	0	0	5125	5125	5125	5202	5282	5448	5364	5364	5364	5364	5282	5282	5282	5282	5282	5282	5202	5282	5282	5282	5282	5282	5282	5282	5282	5364	5282	5282	5282	5282	5282	5282	5282	5282	5282	5282	5282	5202	5202	5202	5202	5202	5202	5202	5282	5282	5282	5282	5282	5282	5282	5282	5282	5282	5282	5282	5282	5282	5282	5202	5202	5202	5202	5202	5202	5202	5282	5282	5282	5282	5282	5282	5282	5364	5364	5364	5364	5364	5282	5364	5282	5282	5282	5282	5282	5364	5364	5282	5282	5282	5282	5364	5364	5364	5364	5364	5364	5364	5282	5282	5282	5282	5202	5282	5282	5282	5282	5282	5282	5364	5282	5364	5282	5364	5364	5364	5364	5364	5282	5364	5282	5282	5282	5282	5282	5282	5282	5282	5282	5282	5282	5282	5282	5282	5282	5282	5282	5364	5282	5364	5364	5364	5282	5364	5282	5282	5282	5282	5282	5282	5282	5282	5448	5364	5364	5282	0	0	0	0	0	0	0	5282	5364	5364	5364	5364	5364	5364	5364	5282	5202	5202	5202	0	0	0	5448	5448	5448	5448	5448	5364	5364	5364	5282	5282	5282	5282	5364	5448	5364	5364	5282	5282	5282	5364	5282	5282	5282	5282	5282	5282	5282	5364	5364	5364	5364	5448	5448	5448	5448	5364	5364	5364	5364	5364	5364	5364	5364	5364	5364	5364	5282	5282	5282	5364	5282	5282	5282	5448	5448	5448	5364	5364	5364	5282	5364	5364	5448	5448	5448	5448	5448	5448	5448	5448	5448	5448	5448	5448	5448	5448	5448	5364	5448	5448	5448	5448	5448	5448	5448	5448	5448	5448	5448	5448	5448	5448	5448	5448	5364	5364	5364	5282	5282	5364	5364	5364	5364	5364	5364	5364	5364	5448	5364	5364	5364	5364	5364	5364	5364	5364	5448	5364	5448	5364	5364	5364	5364	5364	5282	5364	5364	5364	5364	5364	5364	5364	5448	5448	5364	5448	5448	5448	5535	5448	5448	5535	5535	5535	5535	5535	5535	5535	5535	5448	5448	5448	0	0	0	0	0	0	0	0	0	0	0	0	0	0	0	0	0	0	0	0	0	0	0	0	0	0	0	0	0	0	0	0	0	0	0	0	0	0	0	0	0	0	0	0	0	0	0	0	0	0	0	0	0	0	0	5282	5282	5282	5282	5282	5282	5282	5282	5282	5202	5282	5202	5202	5125	5125	5050	5125	5125	5125	5125	5050	0	0	0	2649	2609	2629	2609	2589	2589	2589	2589	2570	2551	2551	2532	2532	2514	2514	2496	2478	2460	2443	2443	2460	2443	2443	2443	2443	2443	2443	2443	2443	2426	2426	2426	0	0	0	0	0	0	0	0	0	0	0	0	0	0	0	0	0	0	0	0	0	0	0	0	0	0	0	0	0	0	0	0	0	0	0	0	0
0	0	0	0	0	1109	1109	1109	1109	1113	1116	1120	1123	1123	1127	1123	1127	1131	1131	1131	1127	1123	1123	1127	1131	1131	1127	1127	1131	1131	1131	1131	1131	1127	1131	1131	1134	1134	1138	1142	1146	1153	1161	1165	1165	1165	1161	1165	1165	1161	1161	1161	1161	0	0	0	0	0	0	0	0	5364	5364	5282	5364	5364	5364	5364	5364	5282	5364	5364	5282	5282	5364	5448	5448	5448	5448	5364	5448	5448	5448	5448	5448	5448	5448	5448	5448	5535	5448	5448	5448	5364	5364	5364	5282	5282	5364	5364	5282	5364	5282	5364	5364	5364	5448	5448	5364	5448	5364	5282	5282	5282	5282	5282	5364	5364	5364	5364	5364	5364	5448	5448	5448	5448	5448	5448	5448	5535	5448	5448	5448	5448	5282	5282	0	5282	5282	0	0	0	0	0	0	0	0	5202	5125	5125	5282	5202	5202	5202	5202	5282	5282	5282	5282	0	0	0	0	0	0	0	5282	5535	5448	5448	5364	5364	5364	5282	5282	5282	5282	5282	5202	5282	5282	5282	5282	5282	5282	5364	5364	5364	5364	5364	5364	5282	5282	5282	5282	5282	5282	5282	5282	5282	5282	5282	5282	5202	5282	5282	5282	5282	5282	5282	5282	5282	5282	5282	5282	5282	5282	5282	5282	5282	5282	5202	5202	5202	5282	5202	5282	5282	5282	5282	5282	5282	5364	5282	5282	5364	5364	5364	5364	5364	5364	5364	5364	5364	5364	5282	5364	5364	5364	5364	5364	5364	5282	5364	5364	5364	5364	5364	5364	5364	5364	5282	5282	5282	5282	5282	5282	5282	5364	5364	5364	5364	5364	5364	5364	5364	5364	5364	5364	5364	5282	5282	5282	5282	5282	5282	5282	5282	5282	5282	5282	5282	5282	5282	5364	5282	5364	5364	5364	5364	5364	5364	5364	5364	5364	5364	5364	5364	5364	5364	5364	5364	5364	5364	5448	5448	5448	0	0	0	0	0	0	0	0	0	5364	5364	5364	5448	5364	5364	5364	5282	5202	5202	0	0	0	0	5448	5448	5535	5535	5535	5448	5448	5448	5364	5364	5364	5364	5364	5448	5364	5364	5364	5282	5364	5364	5282	5282	5282	5282	5364	5282	5364	5364	5364	5364	5448	5448	5448	5448	5448	5448	5364	5364	5364	5364	5364	5364	5364	5364	5364	5364	5364	5364	5364	5364	5364	5364	5364	5448	5448	5364	5364	5364	5364	5364	5448	5448	5448	5448	5448	5448	5448	5448	5448	5448	5448	5448	5448	5448	5448	5448	5448	5448	5448	5448	5448	5535	5448	5448	5448	5448	5448	5448	5448	5448	5448	5448	5448	5448	5448	5364	5364	5364	5364	5364	5364	5364	5364	5448	5448	5448	5448	5448	5448	5448	5448	5448	5364	5448	5448	5448	5448	5448	5448	5448	5448	5364	5364	5364	5364	5364	5364	5364	5364	5364	5364	5364	5448	5448	5364	5448	5448	5448	5448	5448	5448	5535	5535	5535	5535	5535	5535	5535	5535	5535	5535	5535	0	0	0	0	0	0	0	0	0	0	0	0	0	0	0	0	0	0	0	0	0	0	0	0	0	0	0	0	0	0	0	0	0	0	0	0	0	0	0	0	0	0	0	0	0	0	0	0	0	0	0	0	0	0	0	5282	5282	5282	5282	5282	5282	5282	5282	5282	5282	5282	5202	5202	5202	5202	5202	5202	5202	5202	5202	0	0	0	0	0	2609	2629	2609	2589	2589	2589	2589	2570	2570	2551	2551	2532	2514	2532	2514	2496	2478	2443	2443	2460	2443	2443	2443	2443	2443	2460	2443	2443	2426	2426	2426	0	0	0	0	0	0	0	0	0	0	0	0	0	0	0	0	0	0	0	0	0	0	0	0	0	0	0	0	0	0	0	0	0	0	0	0	0
0	0	0	0	0	1109	1109	1113	1109	1113	1113	1120	1120	1116	1123	1116	1127	1131	1131	1131	1123	1123	1120	1127	1127	1127	1127	1127	1131	1131	1131	1131	1131	1127	1131	1131	1131	1134	1134	1142	1150	1161	1165	1165	1165	1165	1165	1165	1161	1161	1165	1165	1165	0	0	0	0	0	0	0	0	5364	5364	5282	5364	5364	5364	5364	5364	5282	5282	5364	5364	5364	5364	5448	5535	5448	5448	5448	5448	5448	5448	5448	5448	5448	5448	5448	5448	5535	5448	5448	5364	5364	5364	5364	5364	5364	5364	5364	5364	5364	5364	5364	5448	5448	5448	5448	5364	5448	5448	5364	5364	5364	5364	5202	5202	5202	5202	5202	5364	5364	5364	5448	5448	5535	5535	5535	5448	5535	5448	5448	0	0	0	0	0	0	0	0	0	0	0	0	0	0	0	0	0	0	5282	5202	5202	5202	5202	0	0	0	0	0	0	0	0	0	0	0	0	5535	5448	5448	5448	5364	5364	5364	5364	0	0	0	0	0	0	5282	5364	5364	5364	5364	5364	5364	5364	5448	5364	5364	5364	5364	5282	5282	5282	5282	5364	5364	5282	5282	5282	5282	5282	5282	5364	5364	5364	5364	5364	5364	5282	5282	5282	5282	5282	5282	5282	5282	5282	5282	5282	5282	5282	5282	5282	5282	5282	5282	5282	5282	5364	5282	5282	5282	5364	5448	5448	5448	5364	5448	5364	5364	5364	5364	5364	5364	5282	5282	5364	5282	5282	5364	5364	5364	5364	5364	5364	5364	5364	5364	5364	5282	5282	5282	5282	5364	5364	5364	5364	5364	5364	5448	5364	5364	5364	5364	5364	5364	5282	5364	5282	5364	5282	5282	5282	5282	5364	5282	5364	5364	5364	5364	5364	5364	5364	5364	5364	5364	5364	5364	5364	5364	5364	5364	5364	5364	5364	5364	5364	5364	5364	5364	5448	5535	5535	0	0	0	0	0	0	0	0	0	0	0	0	5448	5364	5364	5364	0	0	0	0	0	0	0	0	0	5535	5535	5448	5448	5448	5448	5364	5448	5448	5364	5364	5535	5448	5448	5448	5535	5535	5364	5364	5364	5364	5364	5364	5364	5364	5364	5364	5448	5448	5448	5448	5535	5448	5448	5448	5448	5448	5364	5364	5364	5364	5364	5364	5364	5364	5364	5364	5364	5364	5364	5364	5448	5448	5448	5448	5448	5448	5448	5448	5364	5448	5448	5448	5448	5448	5448	5448	5448	5448	5448	5448	5448	5448	5448	5448	5448	5448	5535	5448	5448	5535	5448	5448	5448	5448	5448	5448	5448	5448	5448	5448	5448	5448	5364	5364	5364	5364	5364	5364	5448	5448	5448	5448	5448	5448	5448	5448	5448	5448	5364	5364	5448	5448	5448	5448	5448	5448	5448	5448	5364	5364	5364	5364	5364	5448	5448	5448	5448	5364	5448	5535	5448	5364	5448	5448	5448	5448	5448	5448	5535	5535	5626	5535	5626	5626	5535	5535	5535	5535	5535	0	0	0	0	0	0	0	0	0	0	0	0	0	0	0	0	0	0	0	0	0	0	0	0	0	0	0	0	0	0	0	0	0	0	0	0	0	0	0	0	0	0	0	0	0	0	0	0	0	0	0	0	0	0	5282	5282	5282	5282	5282	5282	5282	5282	5282	5282	5282	5282	5202	5202	5202	5202	5202	5282	5202	5202	5282	5282	0	0	0	0	2629	2629	2629	2609	2589	2589	2589	2589	2570	2570	2551	2551	2532	2532	2532	2496	2478	2460	2460	2478	2443	2443	2443	2443	2443	2443	2443	2443	2409	2426	2426	0	0	0	0	0	0	0	0	0	0	0	0	0	0	0	0	0	0	0	0	0	0	0	0	0	0	0	0	0	0	0	0	0	0	0	0	0
0	0	0	0	0	1123	1127	1113	1109	1109	1120	1120	1120	1116	1120	1116	1123	1123	1127	1127	1123	1123	1120	1127	1127	1127	1127	1127	1127	1131	1131	1127	1127	1123	1127	1131	1131	1134	1134	1138	1142	1165	1165	1165	1165	1165	1165	1165	1161	1157	1165	1169	1169	0	0	0	0	0	0	0	0	5364	5364	5282	5282	5364	5364	5364	5364	5282	5282	5282	5282	5364	5364	5448	5448	5448	5448	5535	5535	5448	5448	5535	5535	5535	5535	5535	5535	5535	5448	5448	5448	5364	5448	5364	5364	5364	5448	5448	5364	5364	5364	5364	5448	5448	5448	5448	5448	5448	5448	5364	5364	5364	5364	5282	5282	5202	5282	5364	5364	5448	5448	5448	5535	5535	5535	5626	5626	0	0	0	0	0	0	0	0	0	0	0	0	0	0	0	0	0	0	0	0	0	0	0	0	0	0	0	0	0	0	0	0	0	0	0	0	0	0	5535	5448	5448	5448	5364	5364	5364	5364	0	0	0	0	0	0	0	5364	5448	5448	5448	5448	5448	5448	5448	5448	5364	5364	5364	5282	5282	5282	5282	5364	5364	5282	5364	5364	5364	5364	5364	5364	5448	5364	5448	5364	5364	5364	5364	5364	5282	5282	5282	5282	5282	5282	5282	5282	5282	5282	5282	5282	5282	5282	5282	5282	5282	5282	5364	5364	5448	5448	5448	5448	5448	5364	5448	5448	5448	5364	5364	5364	5364	5282	5282	5282	5282	5282	5364	5364	5364	5364	5364	5364	5364	5364	5364	5364	5364	5282	5364	5364	5364	5364	5364	5364	5364	5364	5448	5364	5364	5364	5448	5364	5364	5364	5364	5364	5364	5364	5282	5364	5364	5364	5364	5364	5364	5364	5364	5364	5364	5364	5364	5364	5364	5364	5364	5364	5364	5364	5364	5364	5364	5364	0	0	0	0	0	0	5535	5535	0	0	0	0	0	0	0	0	0	0	0	0	0	0	0	0	0	0	0	0	0	0	0	0	5626	5535	5535	5535	5535	5535	5535	5448	5448	5448	5448	5535	5535	5535	5448	5448	5535	5535	5448	5448	5448	5448	5448	5448	5448	5448	5448	5448	5448	5448	5448	5448	5448	5448	5448	5448	5448	5448	5364	5364	5448	5364	5448	5364	5364	5364	5364	5364	5364	5364	5364	5364	5448	5448	5535	5535	5535	5448	5448	5448	5448	5448	5448	5448	5448	5448	5448	5448	5448	5448	5448	5448	5448	5448	5535	5448	5448	5535	5535	5448	5535	5535	5448	5448	5448	5448	5448	5448	5448	5448	5448	5448	5448	5448	5448	5364	5448	5364	5364	5448	5448	5448	5448	5448	5448	5448	5448	5448	5448	5448	5448	5364	5448	5448	5448	5535	5448	5535	5448	5448	5448	5448	5448	5364	5448	5448	5448	5448	5448	5448	5448	5535	5535	5535	5535	5535	5535	5535	5535	5535	5535	5626	5626	5626	5626	5626	5626	5626	5626	5535	0	0	0	0	0	0	0	0	0	0	0	0	0	0	0	0	0	0	0	0	0	0	0	0	0	0	0	0	0	0	0	0	0	0	0	0	0	0	0	0	0	0	0	0	0	0	0	0	0	0	0	0	0	0	0	5282	5282	5282	5282	5282	5282	5282	5282	5202	5282	5202	5202	5202	5202	5202	5202	5282	5282	5282	5282	5282	5282	0	0	0	0	2629	2649	2629	2629	2609	2589	2589	2589	2570	2570	2551	2551	2532	2532	2532	2514	2496	2460	2460	2478	2460	2460	2443	2443	2443	2443	2443	2443	2426	2426	2426	0	0	0	0	0	0	0	0	0	0	0	0	0	0	0	0	0	0	0	0	0	0	0	0	0	0	0	0	0	0	0	0	0	0	0	0	0
0	0	0	0	0	1123	1123	1123	1113	1116	1116	1123	1120	1120	1123	1120	1123	1123	1127	1127	1123	1120	1120	1127	1123	1123	1123	1123	1123	1127	1127	1123	1123	1123	1127	1127	1131	1131	1134	1138	1142	1161	1165	1165	1165	1165	1165	1161	1161	1157	1161	1169	1169	0	0	0	0	0	0	0	0	5364	5282	5282	5282	5282	5282	5282	5282	5282	5282	5282	5282	5282	5364	5448	5448	5448	5448	5535	5535	5535	5535	5535	5535	5535	5535	5535	5535	5535	5448	5448	5448	5448	5448	5448	5448	5448	5448	5448	5448	5448	5535	5535	5535	5535	5535	5448	5448	5448	5448	5448	5448	5448	5448	5448	5448	5448	5448	5448	5448	5448	5448	5448	5535	5535	5535	5626	5626	5626	0	0	0	0	0	0	0	0	0	0	0	0	0	0	0	0	0	0	0	0	0	0	0	0	0	0	0	0	0	0	0	0	0	0	0	0	0	5535	5535	5448	5448	5364	5364	5364	5282	5282	0	0	0	0	0	0	0	5535	5535	5535	5448	5448	5448	5535	5535	5448	5448	5448	5364	5364	5364	5364	5448	5448	5448	5448	5448	5448	5448	5364	5448	5448	5448	5448	5448	5448	5364	5364	5282	5282	5282	5282	5282	5282	5282	5282	5282	5282	5282	5282	5282	5282	5282	5282	5364	5364	5364	5364	5364	5535	5535	5535	5448	5448	5448	5448	5448	5448	5448	5364	5364	5364	5282	5282	5282	5282	5282	5364	5364	5364	5364	5364	5364	5364	5364	5364	5364	5364	5364	5364	5364	5364	5364	5364	5364	5448	5448	5448	5448	5448	5364	5448	5364	5364	5364	5364	5364	5364	5364	5364	5364	5364	5364	5364	5364	5364	5364	5364	5364	5364	5448	5448	5364	5364	5364	5364	5364	5364	5364	5364	5364	5364	0	0	0	0	0	0	0	0	0	0	0	0	0	0	0	0	0	0	0	0	0	0	0	0	0	0	0	0	0	0	0	0	0	5626	5626	5626	5815	5815	5626	5626	5719	5626	5626	5535	5448	5448	5535	5448	5448	5535	5535	5448	5448	5448	5535	5535	5535	5448	5448	5448	5448	5448	5448	5448	5448	5448	5448	5448	5448	5448	5448	5448	5448	5448	5448	5448	5448	5448	5364	5448	5364	5364	5364	5364	5448	5535	5535	5535	5535	5535	5535	5448	5448	5448	5448	5448	5448	5448	5448	5448	5448	5448	5448	5448	5448	5535	5535	5535	5535	5535	5535	5535	5535	5535	5535	5448	5448	5448	5448	5448	5448	5448	5448	5448	5448	5448	5448	5448	5448	5448	5448	5364	5364	5364	5364	5364	5448	5448	5448	5448	5364	5448	5448	5448	5448	5448	5448	5535	5535	5535	5535	5535	5535	5535	5535	5448	5448	5448	5448	5535	5535	5535	5535	5535	5535	5535	5448	5535	5448	5535	5535	5535	5535	5626	5626	5626	5626	5626	5626	5626	5626	5626	0	0	0	0	0	0	0	0	0	0	0	0	0	0	0	0	0	0	0	0	0	0	0	0	0	0	0	0	0	0	0	0	0	0	0	0	0	0	0	0	0	0	0	0	0	0	0	0	0	0	0	0	0	0	0	5364	5282	5282	5282	5282	5282	5282	5202	5282	5202	5202	5202	5202	5202	5202	5202	5282	5364	5364	5282	5282	5282	5282	0	0	0	0	0	2649	2629	2609	2589	2589	2589	2589	2589	2570	2570	2551	2532	2532	2532	2514	2496	2460	2460	2460	2443	2443	2443	2443	2443	2443	2443	2443	2426	2426	2426	0	0	0	0	0	0	0	0	0	0	0	0	0	0	0	0	0	0	0	0	0	0	0	0	0	0	0	0	0	0	0	0	0	0	0	0	0
0	0	0	0	0	1120	1120	1120	1120	1120	1120	1120	1123	1120	1120	1120	1120	1123	1123	1127	1123	1120	1116	1116	1120	1123	1109	1109	1109	1123	1123	1120	1120	1116	1116	1123	1131	1131	1134	1138	1146	1153	1153	1161	1161	1165	1161	1161	1157	1157	1157	1161	1161	0	0	0	0	0	0	0	0	5364	5282	5202	5202	5202	5202	5202	5202	5202	5202	5202	5282	5282	5364	5364	5448	5448	5448	5448	5448	5448	5448	5535	5535	5535	5535	5535	5535	5535	5535	5448	5535	5535	5535	5535	5535	5535	5535	5535	5535	5535	5535	5535	5535	5535	5535	5535	5448	5448	5448	5448	5448	5448	5448	5448	5448	5448	5448	5448	5448	5448	5448	5448	5535	5535	5535	5535	5535	5626	0	0	0	0	0	0	0	0	0	0	0	0	0	0	0	0	0	0	0	0	0	0	0	0	0	0	0	0	0	0	0	0	0	0	0	0	0	0	5535	5448	5448	5364	5364	5364	5282	5282	5282	0	0	0	0	0	5535	5535	5535	5535	5535	5535	5535	5535	5448	5448	5448	5364	5364	5364	5448	5448	5448	5448	5448	5535	5535	5448	5448	5448	5448	5448	5448	5448	5448	5448	5448	5364	5364	5364	5282	5282	5282	5282	5282	5282	5282	5282	5364	5364	5364	5364	5364	5364	5364	5364	5448	5448	5448	5626	5626	5535	5535	5535	5448	5535	5535	5535	5448	5448	5364	5364	5364	5364	5364	5364	5364	5364	5364	5364	5364	5364	5364	5364	5364	5364	5364	5364	5364	5364	5364	5364	5448	5448	5448	5448	5448	5448	5448	5448	5364	5364	5364	5364	5364	5364	5364	5364	5364	5364	5364	5364	5448	5448	5448	5364	5535	5535	5535	5535	5535	5535	5448	5448	5448	5448	5364	5364	5364	5364	5364	5364	0	0	0	0	0	0	0	0	0	0	0	0	0	0	0	0	0	0	0	0	0	0	0	0	0	0	0	5448	5626	5626	5626	5626	5626	5719	5719	5719	5719	5719	5719	5626	5719	5626	5626	5535	5535	5535	5535	5448	5448	5535	5535	5535	0	0	5535	5535	5535	5448	5448	5448	5448	5448	5448	5448	5448	5448	5448	5448	5448	5448	5448	5448	5448	5448	5448	5448	5448	5448	5448	5448	5448	5448	5448	5448	5448	5535	5535	5535	5535	5535	5535	5535	5535	5448	5448	5448	5448	5448	5448	5448	5448	5448	5448	5448	5448	5535	5535	5535	5535	5535	5535	5535	5535	5535	5535	5448	5448	5448	5448	5448	5448	5448	5535	5535	5535	5535	5448	5448	5448	5448	5364	5364	5448	5448	5282	5364	5364	5364	5364	5448	5364	5535	5535	5448	5448	5448	5535	5535	5626	5535	5626	5535	5535	5535	5535	5535	5535	5535	5535	5535	5535	5535	5535	5535	5535	5535	5535	5535	5535	5535	5535	5535	5535	5535	5626	5626	5626	5626	5626	5626	5626	0	0	0	0	0	0	0	0	0	0	0	0	0	0	0	0	0	0	0	0	0	0	0	0	0	0	0	0	0	0	0	0	0	0	0	0	0	0	0	0	0	0	0	0	0	0	0	0	0	0	0	0	0	0	0	0	5448	5364	5364	5282	5364	5282	5282	5202	5282	5125	5202	5202	5282	5282	5282	5364	5364	5364	5364	5282	5282	5282	5282	0	0	0	0	0	2649	2609	2589	2589	2589	2589	2570	2570	2570	2551	2551	2532	2532	2532	2514	2496	2460	2460	2443	2443	2443	2443	2443	2426	2426	2426	2426	2409	2392	2392	0	0	0	0	0	0	0	0	0	0	0	0	0	0	0	0	0	0	0	0	0	0	0	0	0	0	0	0	0	0	0	0	0	0	0	0	0
0	0	0	0	0	1120	1123	1123	1120	1123	1123	1123	1123	1120	1120	1120	1120	1123	1123	0	0	0	1116	1116	1120	1123	1109	1109	1109	1123	1123	1120	1120	1116	1116	1123	1131	1134	1138	1142	1142	1150	1150	1157	1161	1161	1161	1161	1157	1157	1157	1157	1157	0	0	0	0	0	0	0	0	5364	5282	5125	5202	5202	5202	5202	5202	5125	5125	5202	5282	5364	5364	5364	5535	5535	5535	5535	5535	5535	5535	5535	5626	5626	5535	5535	5535	5535	5535	5535	5535	5535	5535	5535	5535	5535	5535	5535	5535	5535	5535	5535	5535	5535	5448	5448	5448	5448	5448	5448	5448	5448	5448	5448	5535	5535	5364	5448	5448	5448	5448	5448	5448	5535	5535	5626	5626	0	0	0	0	0	0	0	0	0	0	0	0	0	0	0	0	0	0	0	0	0	0	0	0	0	0	0	0	0	0	0	0	0	0	0	0	5626	5535	5535	5626	5535	5448	5364	5448	5448	5448	5364	5364	0	0	0	0	0	5535	5535	5535	5626	5535	5535	5535	5535	5535	5535	5448	5448	5364	5364	5448	5448	5535	5535	5535	5535	5535	5535	5535	5448	5448	5448	5448	5448	5448	5448	5448	5448	5448	5364	5364	5364	5282	5364	5364	5364	5364	5364	5364	5364	5364	5364	5364	5364	5364	5448	5448	5535	5535	5626	5626	5626	5535	5535	5535	5535	5535	5535	5448	5448	5448	5364	5364	5364	5364	5364	5364	5364	5364	5448	5364	5448	5364	5364	5364	5364	5364	5364	5364	5364	5364	5364	5448	5448	5448	5448	5448	5448	5448	5448	5448	5448	5364	5364	5364	5364	5364	5364	5364	5448	5448	5448	5448	5448	5535	5448	5535	5535	5535	5535	5535	5535	5448	5448	5448	5448	5364	5364	5364	5364	5364	5364	0	0	0	0	0	0	0	0	0	0	0	0	0	0	0	0	0	0	0	0	0	0	0	0	0	5719	5535	5535	5626	5626	5626	5719	5626	5626	5626	5626	5626	5626	5626	5626	5626	5626	5626	5535	5535	5535	5535	5626	5626	5535	5535	5535	0	0	5535	5535	5535	5448	5448	5448	5448	5448	5448	5448	5448	5448	5448	5448	5448	5448	5448	5448	5448	5448	5448	5448	5448	5448	5448	5448	5448	5448	5448	5448	5448	5535	5535	5535	5626	5535	5535	5535	5535	5535	5535	5448	5448	5448	5448	5448	5448	5448	5535	5535	5448	5535	5535	5535	5535	5535	5535	5535	5535	5535	5535	5535	5535	5535	5448	5535	5535	5448	5535	5535	5535	5535	5535	5448	5448	5448	5448	5364	5448	5448	5448	5364	5282	5364	5364	5448	5448	5448	5535	5448	5448	5448	5535	5535	5535	5535	5626	5535	5535	5535	5535	5535	5626	5719	5626	5535	5535	5535	5535	5535	5535	5535	5535	5535	5535	5535	5535	5535	5535	5535	5535	5626	5626	5626	5626	5626	5626	0	0	0	0	0	0	0	0	0	0	0	0	0	0	0	0	0	0	0	0	0	0	0	0	0	0	0	0	0	0	0	0	0	0	0	0	0	0	0	0	0	0	0	0	0	0	0	0	0	0	0	0	0	0	0	5448	5535	5448	5364	5364	5364	5364	5364	5282	5364	5364	5282	5364	5364	5364	5364	5364	5364	5364	5364	5282	5282	5282	5282	0	0	0	0	0	2649	2629	2589	2589	2589	2570	2570	2570	2570	2551	2551	2532	2514	2514	2496	2496	2460	2460	2443	2443	2443	2443	2443	2426	2426	2426	2426	2409	2392	2392	0	0	0	0	0	0	0	0	0	0	0	0	0	0	0	0	0	0	0	0	0	0	0	0	0	0	0	0	0	0	0	0	0	0	0	0	0
0	0	0	0	0	1120	1123	1123	1120	1123	1123	1123	0	0	0	0	0	0	0	0	0	0	0	0	0	0	0	1109	1109	0	0	0	0	0	0	0	1131	1131	1134	1134	1142	1142	1157	1161	1161	1161	1161	1161	1161	1157	1161	1161	1157	0	0	0	0	0	0	0	5364	5364	5282	5282	5202	5202	5282	5202	5202	5202	5125	5202	5202	5364	5364	5626	5535	5535	5535	5535	5535	5535	5626	5626	5626	5626	5626	5626	5626	5535	5535	5535	5535	5448	5535	5448	5535	5535	5535	5535	5535	5535	5535	5535	5535	5535	5448	5448	5448	5448	5448	5448	5448	5535	5535	5535	5535	5535	5448	5535	5448	5448	5448	5448	5448	5535	5448	5535	5535	0	0	0	0	0	0	0	0	0	0	0	0	0	0	0	0	0	0	0	0	0	0	0	0	0	0	0	0	0	0	0	0	0	0	0	0	5626	5535	5535	5626	5535	5535	5448	5535	5535	5535	5535	5535	0	0	0	0	0	0	0	0	5626	5626	5626	5626	5535	5535	5535	5535	5448	5448	5448	5535	5535	5535	5535	5535	5535	5535	5535	5535	5535	5535	5535	5448	5535	5535	5535	5448	5448	5364	5448	5448	5364	5364	5364	5448	5448	5448	5448	5448	5448	5448	5448	5364	5364	5448	5448	5535	5535	5535	5626	5626	5626	5535	5535	5535	5535	5535	5535	5448	5448	5448	5448	5364	5364	5364	5364	5448	5448	5448	5448	5448	5448	5448	5364	5448	5364	5364	5364	5364	5448	5448	5448	5448	5448	5535	5535	5448	5535	5535	5448	5448	5448	5364	5364	5364	5364	5364	5364	5364	5448	5448	5448	5535	5535	5448	5448	5448	5448	5535	5535	5535	5535	5448	5448	5448	5448	5364	5364	5364	5364	5364	5364	5364	0	0	0	0	0	0	0	0	0	0	0	0	0	0	0	0	0	0	0	0	0	0	0	0	5719	5626	5535	5626	5626	5626	5626	5626	5626	5535	5535	5535	5535	5448	5626	5626	5626	5719	5626	5535	5535	5626	5626	5535	5535	5535	5535	0	0	0	0	0	5535	5448	5448	5448	5535	5448	5448	5448	5448	5535	5535	5448	5448	5448	5448	5448	5448	5448	5448	5448	5448	5448	5448	5448	5448	5448	5448	5448	5535	5535	5535	5535	5535	5535	5535	5535	5535	5535	5448	5448	5448	5448	5448	5448	5448	5535	5535	5535	5535	5535	5535	5535	5535	5535	5535	5535	5535	5535	5535	5535	5535	5448	5448	5448	5448	5535	5535	5535	5535	5535	5448	5448	5448	5448	5448	5448	5448	5535	5448	5364	5448	5448	5448	5448	5448	5448	5448	5448	5448	5535	5535	5535	5535	5626	5626	5626	5626	5626	5626	5719	5719	5719	5626	5535	5535	5535	5535	5626	5626	5535	5535	5535	5535	5535	5535	5535	5535	5535	5626	5626	5626	5626	5626	0	0	0	0	0	0	0	0	0	0	0	0	0	0	0	0	0	0	0	0	0	0	0	0	0	0	0	0	0	0	0	0	0	0	0	0	0	0	0	0	0	0	0	0	0	0	0	0	0	0	0	0	0	0	0	0	5535	5535	5535	5448	5448	5448	5364	5448	5364	5448	5448	5364	5448	5448	5448	5364	5364	5364	5364	5364	5282	5282	5282	5282	0	0	0	0	0	2649	2609	2589	2589	2570	2570	2570	2570	2570	2570	2551	2532	2514	2514	2496	2496	2496	2460	2443	2443	2443	2443	2426	2426	2426	2409	2409	2392	2392	2392	0	0	0	0	0	0	0	0	0	0	0	0	0	0	0	0	0	0	0	0	0	0	0	0	0	0	0	0	0	0	0	0	0	0	0	0	0
0	0	0	0	0	1116	1120	1120	1123	1123	1123	1123	0	0	0	0	0	0	0	0	0	0	0	0	0	0	0	0	0	0	0	0	0	0	0	0	0	1131	1138	1142	1150	1150	1157	1161	1161	1161	1161	1161	1161	1161	1161	1161	1161	0	0	0	0	0	0	0	5364	5448	5364	5125	5125	5282	5282	5282	5282	5202	5202	5282	5282	5448	5535	5626	5719	5535	5535	5535	5535	5535	5626	5626	5626	5626	5626	5626	5626	5535	5535	5535	5535	5448	5535	5448	5448	5535	5535	5535	5535	5535	5535	5535	5535	5535	5448	5448	5448	5535	5448	5448	5448	5535	5535	5535	5535	5535	5448	5535	5535	5535	5448	5448	5535	5535	5535	5535	5626	5626	0	0	0	0	0	0	0	0	0	0	0	0	0	0	0	0	0	0	0	0	0	0	0	0	0	0	0	0	0	0	0	0	0	0	0	5626	5535	5535	5626	5535	5535	5535	5535	5535	5535	5626	5626	0	0	0	0	0	0	0	0	5626	5626	5535	5535	5535	5535	5535	5448	5448	5448	5448	5535	5535	5535	5535	5535	5535	5535	5535	5535	5535	5535	5535	5448	5535	5535	5535	5535	5448	5448	5448	5448	5448	5448	5364	5448	5448	5448	5448	5448	5448	5448	5448	5364	5364	5448	5448	5535	5535	5535	5626	5626	5626	5535	5535	5535	5535	5535	5535	5535	5535	5535	5448	5448	5448	5448	5448	5535	5535	5535	5448	5448	5448	5448	5364	5364	5364	5364	5364	5364	5448	5448	5448	5448	5448	5535	5535	5535	5535	5535	5448	5448	5448	5448	5364	5364	5364	5448	5448	5448	5448	5535	5448	5535	5535	5535	5448	5535	5535	5535	5535	5535	5535	5448	5448	5448	5448	5364	5364	5364	5364	5364	5364	5364	0	0	0	0	0	0	0	0	0	0	0	0	0	0	0	0	0	0	0	0	0	0	0	0	0	5626	5626	5719	5719	5719	5719	5626	5535	5535	5448	5448	5448	5448	5535	5535	5626	5719	5626	5535	5535	5626	5626	5535	5535	5535	5535	5535	0	0	0	5535	5535	5448	5448	5448	5535	5535	5535	5448	5535	5535	5535	5448	5448	5448	5448	5448	5448	5448	5448	5448	5448	5448	5448	5448	5448	5448	5448	5448	5535	5535	5626	5626	5626	5626	5535	5535	5535	5448	5448	5448	5448	5448	5448	5448	5448	5448	5448	5448	5535	5535	5535	5535	5535	5535	5535	5535	5535	5535	5535	5535	5535	5535	5535	5535	5535	5535	5535	5535	5535	5535	5535	5535	5535	5448	5448	5535	5535	5535	5535	5448	5448	5448	5448	5448	5448	5535	5535	5535	5535	5535	5535	5535	5626	5626	5626	5626	5626	5626	5719	5719	5719	5719	5626	5626	5626	5626	5535	5815	5626	5535	5626	5626	5626	5535	5535	5535	5626	5626	5626	5626	5626	5626	0	0	0	0	0	0	0	0	0	0	0	0	0	0	0	0	0	0	0	0	0	0	0	0	0	0	0	0	0	0	0	0	0	0	0	0	0	0	0	0	0	0	0	0	0	0	0	0	0	0	0	0	0	0	0	0	5626	5535	5626	5535	5448	5448	5448	5448	5448	5448	5448	5448	5448	5448	5448	5448	5448	5364	5364	5364	5364	5282	5282	5282	5282	0	0	0	0	0	2629	2609	2589	2589	2570	2570	2570	2570	2570	2570	2532	2532	2514	2514	2496	2496	2496	2460	2460	2460	2443	2443	2443	2426	2426	2409	2409	2392	2392	2392	0	0	0	0	0	0	0	0	0	0	0	0	0	0	0	0	0	0	0	0	0	0	0	0	0	0	0	0	0	0	0	0	0	0	0	0	0
0	0	0	0	0	1116	1120	1123	1123	1123	1123	1123	0	0	0	0	0	0	0	0	0	0	0	0	0	0	0	0	0	0	0	0	0	0	0	0	0	0	1138	1150	1150	1150	1153	1157	1161	1161	1161	1161	1161	1161	1161	1161	1161	0	0	0	0	0	0	0	0	5364	5282	5125	5050	5202	5125	5202	5202	5202	5202	5282	5282	5364	5448	5535	5626	5535	5535	5626	5626	5626	5626	5719	5719	5719	5626	5626	5626	5535	5535	5535	5535	5535	5535	5535	5535	5535	5535	5626	5626	5535	5535	5535	5535	5535	5535	5448	5535	5535	5535	5535	5535	5535	5535	5535	5535	5535	5535	5535	5535	5535	5535	5448	5535	5535	5535	5535	5626	5719	5815	5815	5815	0	0	0	0	0	0	0	0	0	0	0	0	0	0	0	0	0	0	0	0	0	0	0	0	0	0	0	0	0	0	5719	5719	5626	5535	5535	5535	5535	5535	5535	5535	5535	5535	5626	5626	0	0	0	0	0	0	0	0	5626	5626	5626	5535	5535	5535	5535	5535	5448	5448	5535	5535	5535	5535	5535	5535	5535	5535	5535	5535	5535	5535	5535	5535	5535	5535	5535	5535	5448	5448	5448	5448	5448	5448	5448	5448	5448	5535	5448	5448	5448	5448	5448	5448	5448	5448	5535	5535	5535	5535	5626	5626	5626	5626	5535	5535	5535	5535	5535	5535	5535	5535	5535	5535	5535	5535	5535	5535	5535	5535	5448	5448	5535	5448	5364	5364	5364	5364	5364	5448	5448	5448	5448	5448	5535	5535	5535	5535	5535	5535	5535	5535	5448	5448	5448	5364	5364	5448	5448	5448	5448	5535	5448	5535	5535	5535	5448	5535	5535	5535	5535	5535	5535	5535	5535	5448	5448	5364	5364	5364	5364	5364	5364	5364	0	0	0	0	0	0	0	0	0	0	0	0	0	0	0	0	0	0	0	0	0	0	0	0	5815	5815	5815	5719	5719	5719	5719	5719	5626	5626	5448	5535	5535	5626	5626	5719	5719	5719	5719	5626	5626	5626	5535	5535	5535	5535	5535	5535	0	0	5626	5626	5535	5535	5448	5448	5448	5448	5448	5448	5448	5535	5535	5448	5448	5448	5448	5535	5448	5448	5535	5448	5448	5448	5448	5448	5448	5448	5448	5448	5626	5626	5626	5626	5626	5626	5626	5535	5535	5535	5535	5448	5448	5448	5448	5535	5535	5535	5535	5535	5535	5535	5535	5535	5535	5535	5535	5535	5535	5535	5535	5535	5535	5535	5535	5535	5535	5535	5535	5535	5535	5535	5535	5535	5535	5535	5535	5535	5535	5535	5535	5448	5535	5535	5535	5535	5535	5535	5535	5535	5535	5535	5535	5535	5535	5535	5626	5626	5626	5719	5719	5719	5719	5719	5626	5719	5535	5535	5535	5815	5626	5626	5626	5626	5626	5626	5626	5626	5626	5719	5719	5719	5626	0	0	0	0	0	0	0	0	0	0	0	0	0	0	0	0	0	0	0	0	0	0	0	0	0	0	0	0	0	0	0	0	0	0	0	0	0	0	0	0	0	0	0	0	0	0	0	0	0	0	0	0	0	0	0	0	5626	5626	5626	5626	5626	5535	5535	5535	5535	5535	5535	5535	5535	5535	5535	5535	5535	5535	5448	5448	5364	5364	5364	5364	5282	0	0	0	0	0	0	2629	2609	2589	2589	2570	2570	2570	2570	2570	2551	2532	2514	2514	2496	2496	2496	2496	2460	2460	2460	2443	2443	2443	2443	2426	2426	2409	2392	2376	2376	0	0	0	0	0	0	0	0	0	0	0	0	0	0	0	0	0	0	0	0	0	0	0	0	0	0	0	0	0	0	0	0	0	0	0	0	0
0	0	0	0	0	1120	1120	1123	1123	1123	1123	1123	0	0	0	0	0	0	0	0	0	0	0	0	0	0	0	0	0	0	0	0	0	0	0	0	0	0	0	1142	1146	1150	1153	1157	1161	1161	1161	1161	1161	1161	1161	1161	1161	0	0	0	0	0	0	0	0	5125	5125	5050	5050	5050	5125	5125	5202	5202	5202	5364	5364	5448	5448	5626	5626	5626	5626	5626	5626	5719	5719	5719	5719	5719	5719	5626	5626	5626	5535	5535	5535	5535	5535	5535	5535	5626	5626	5626	5626	5626	5626	5535	5535	5535	5535	5535	5535	5535	5535	5535	5535	5535	5535	5535	5535	5535	5535	5535	5535	5535	5535	5535	5535	5535	5535	5535	5626	5815	5815	5815	5815	0	0	0	0	0	0	0	0	0	0	0	0	0	0	0	0	0	0	0	0	0	5448	5535	5535	5535	5719	5815	5719	5719	5719	5719	5719	5626	5626	5535	5535	0	0	0	0	0	0	0	0	0	0	0	0	0	0	0	0	0	5626	5626	5535	5535	5535	5535	5448	5448	5448	5448	5535	5535	5535	5535	5535	5626	5626	5535	5535	5535	5535	5535	5535	5535	5535	5535	5535	5448	5448	5448	5448	5364	5448	5448	5535	5535	5535	5535	5535	5535	5535	5448	5448	5448	5448	5535	5535	5535	5535	5626	5626	5626	5626	5535	5535	5626	5626	5535	5535	5535	5535	5535	5535	5535	5535	5535	5626	5535	5535	5448	5448	5535	5448	5364	5364	5364	5448	5364	5448	5448	5448	5448	5448	5535	5626	5535	5535	5535	5535	5535	5535	5535	5448	5448	5448	5448	5535	5535	5535	5535	5535	5535	5535	5535	5535	5535	5535	5535	5626	5626	5535	5535	5535	5535	5448	5448	5364	5364	5364	5364	5282	5282	5282	0	0	0	0	0	0	0	0	0	0	0	0	0	0	0	0	0	0	0	0	0	0	0	0	5815	5815	5815	5719	5719	5719	5719	5719	5719	5626	5719	5719	5719	5719	5719	5719	5719	5815	5719	5719	5626	5626	5535	5535	5535	5535	5535	0	0	0	5626	5719	5626	5535	5448	5535	5448	5535	5448	5448	5448	5535	5535	5448	5448	5535	5535	5448	5448	5535	5535	5535	5535	5448	5448	5448	5448	5448	5448	5448	5535	5626	5626	5626	5626	5626	5626	5626	5535	5535	5535	5535	5535	5535	5535	5535	5535	5535	5535	5535	5535	5535	5535	5535	5535	5535	5535	5535	5535	5535	5535	5535	5535	5535	5535	5535	5535	5535	5626	5535	5626	5535	5535	5535	5535	5535	5535	5626	5535	5535	5535	5448	5535	5535	5535	5535	5535	5535	5535	5535	5535	5535	5535	5535	5535	5535	5535	5626	5626	5626	5719	5626	5719	5626	5626	5626	5535	5626	5535	5626	5626	5626	5626	5626	5626	5626	5626	5626	5626	5719	5719	5719	0	0	0	0	0	0	0	0	0	0	0	0	0	0	0	0	0	0	0	0	0	0	0	0	0	0	0	0	0	0	0	0	0	0	0	0	0	0	0	0	0	0	0	0	0	0	0	0	0	0	0	0	0	0	0	0	5626	5626	5626	5626	5719	5626	5626	5535	5535	5535	5535	5535	5626	5626	5626	5535	5535	5535	5535	5535	5535	5448	5448	5364	5364	0	0	0	0	0	0	0	2609	2589	2589	2570	2551	2551	2570	2551	2551	2551	2532	2514	2496	2496	2496	2496	2478	2460	2460	2460	2460	2443	2443	2443	2443	2426	2409	2392	2392	2392	0	0	0	0	0	0	0	0	0	0	0	0	0	0	0	0	0	0	0	0	0	0	0	0	0	0	0	0	0	0	0	0	0	0	0	0	0
0	0	0	0	0	1120	1123	1123	1123	1123	1123	0	0	0	0	0	0	0	0	0	0	0	0	0	0	0	0	0	0	0	0	0	0	0	0	0	0	0	1134	1142	1142	1146	1153	1157	1161	1161	1161	1161	1161	1161	1161	1165	1165	0	0	0	0	0	0	0	0	5448	5364	5282	5282	5282	5282	5282	5282	5282	5202	5282	5364	5448	5448	5535	5626	5626	5626	5626	5626	5719	5719	5719	5719	5719	5719	5626	5719	5626	5535	5535	5535	5535	5535	5535	5626	5626	5719	5719	5626	5626	5626	5535	5535	5535	5535	5535	5535	5535	5626	5535	5535	5535	5535	5535	5535	5535	5626	5626	5626	5626	5535	5535	5535	5626	5626	5626	5719	5719	5815	5815	5815	0	0	0	0	0	0	0	0	0	0	0	0	0	0	0	0	0	0	0	0	5448	5448	5535	5535	5535	5626	5719	5719	5719	5719	5719	5815	5719	5626	5626	5535	0	0	0	0	0	0	0	0	0	0	0	0	0	0	0	0	0	5626	5626	5535	5535	5535	5535	5535	5448	5535	5535	5626	5626	5626	5626	5626	5626	5626	5626	5626	5626	5535	5626	5626	5626	5626	5626	5535	5535	5535	5535	5535	5448	5448	5448	5535	5535	5535	5535	5535	5535	5535	5535	5535	5535	5535	5535	5535	5535	5535	5626	5626	5626	5626	5626	5535	5626	5626	5626	5626	5535	5626	5626	5535	5535	5535	5626	5626	5626	5535	5535	5535	5535	5535	5448	5448	5448	5448	5448	5448	5448	5448	5448	5448	5535	5535	5626	5626	5626	5626	5626	5626	5535	5535	5535	5448	5448	5535	5535	5535	5535	5448	5535	5535	5535	5535	5535	5535	5535	5626	5535	5535	5535	5535	5535	5448	5448	5364	5364	5364	5364	5282	5282	5282	5282	0	0	0	0	0	0	0	0	0	0	0	0	0	0	0	0	0	0	0	0	0	0	0	0	0	5815	5719	5719	5719	5719	5719	5719	5719	5719	5719	5719	5815	5815	5815	5815	5815	5719	5719	5626	5535	5448	5448	5448	5448	5535	0	0	0	5626	5719	5626	5535	5535	5535	5535	5535	5535	5448	5535	5535	5535	5535	5448	5535	5535	5448	5448	5448	5535	5535	5535	5535	5448	5535	5535	5448	5448	5535	5626	5626	5626	5626	5626	5626	5626	5626	5535	5535	5535	5535	5535	5535	5535	5535	5535	5535	5535	5535	5535	5535	5535	5535	5535	5535	5535	5535	5626	5626	5626	5626	5626	5535	5626	5535	5535	5535	5535	5626	5626	5626	5626	5626	5626	5626	5626	5535	5535	5535	5448	5448	5535	5535	5535	5535	5626	5535	5626	5626	5626	5535	5535	5535	5535	5535	5535	5626	5626	5626	5626	5626	5719	5626	5626	5626	5626	5626	5626	5626	5626	5626	5626	5626	5626	5626	5626	5626	5626	5626	5719	0	0	0	0	0	0	0	0	0	0	0	0	0	0	0	0	0	0	0	0	0	0	0	0	0	0	0	0	0	0	0	0	0	0	0	0	0	0	0	0	0	0	0	0	0	0	0	0	0	0	0	0	0	0	0	0	0	5626	5626	5719	5719	5719	5626	5626	5626	5626	5626	5535	5535	5626	5626	5626	5626	5535	5535	5535	5448	5448	5448	5448	0	0	0	0	0	0	0	0	2589	2589	2589	2570	2570	2551	2551	2551	2551	2532	2532	2532	2514	2496	2496	2496	2478	2478	2460	2460	2460	2443	2443	2443	2443	2426	2426	2443	2392	2392	2392	0	0	0	0	0	0	0	0	0	0	0	0	0	0	0	0	0	0	0	0	0	0	0	0	0	0	0	0	0	0	0	0	0	0	0	0	0
0	0	0	0	0	1120	1123	1123	1127	1127	1127	0	0	0	0	0	0	0	0	0	0	0	0	0	0	0	0	0	0	0	0	0	0	0	0	0	0	0	1134	1142	1142	1146	1153	1157	1161	1161	1161	1161	1161	1161	1161	1165	1165	1165	0	0	0	0	0	0	0	5448	5364	5282	5282	5282	5282	5282	5282	5282	5282	5364	5364	5448	5448	5535	5626	5626	5626	5626	5719	5815	5815	5815	5815	5815	5815	5719	5719	5626	5535	5535	5535	5535	5535	5535	5626	5626	5719	5719	5719	5626	5626	5626	5626	5626	5535	5535	5626	5535	5626	5535	5535	5535	5535	5535	5535	5535	5626	5626	5626	5626	5626	5626	5626	5626	5626	5626	5719	5719	5719	5719	5719	0	0	0	0	0	0	0	0	0	0	0	0	0	0	0	0	0	0	0	0	5448	5448	5626	5535	5626	5626	5719	5719	5719	5719	5719	5815	5719	5719	5626	0	0	0	0	0	0	0	0	0	0	0	0	0	0	0	0	0	0	0	0	5535	5535	5626	5626	5535	5535	5535	5535	5626	5626	5626	5626	5626	5626	5626	5626	5626	5626	5626	5626	5626	5626	5626	5626	5626	5535	5535	5535	5535	5535	5448	5448	5535	5535	5535	5535	5535	5535	5535	5535	5535	5626	5626	5626	5626	5626	5535	5626	5626	5626	5626	5626	5626	5626	5719	5626	5626	5626	5626	5626	5626	5535	5535	5626	5626	5626	5626	5535	5535	5535	5535	5535	5535	5535	5535	5535	5535	5535	5535	5535	5535	5535	5626	5626	5626	5626	5626	5626	5626	5626	5535	5535	5535	5535	5535	5535	5535	5535	5535	5535	5535	5535	5535	5535	5535	5535	5626	5535	5535	5535	5535	5535	5626	5448	5448	5448	5448	5364	5364	5364	5364	5364	0	0	0	0	0	0	0	0	0	0	0	0	0	0	0	0	0	0	0	0	0	0	0	0	0	0	5719	5719	5719	5719	5719	5719	5719	5719	5719	5719	5719	5719	5815	5815	5815	5815	5815	5626	5626	5626	5626	5448	5448	0	0	0	0	0	5719	5626	5535	5535	5535	5535	5535	5535	5535	5535	5626	5535	5535	5448	5535	5448	5448	5448	5535	5535	5535	5535	5535	5535	5535	5535	5535	5535	5535	5626	5626	5626	5626	5626	5626	5626	5626	5535	5535	5626	5535	5535	5535	5535	5535	5535	5535	5535	5535	5535	5535	5535	5535	5535	5535	5535	5626	5626	5626	5626	5719	5626	5535	5626	5535	5626	5535	5626	5626	5626	5626	5626	5626	5626	5626	5626	5626	5626	5535	5535	5448	5535	5535	5626	5626	5626	5626	5626	5626	5626	5626	5535	5535	5535	5535	5535	5626	5626	5626	5719	5626	5719	5626	5719	5626	5626	5626	5626	5626	5626	5626	5626	5626	5626	5626	5626	5626	5626	5626	0	0	0	0	0	0	0	0	0	0	0	0	0	0	0	0	0	0	0	0	0	0	0	0	0	0	0	0	0	0	0	0	0	0	0	0	0	0	0	0	0	0	0	0	0	0	0	0	0	0	0	0	0	0	0	0	0	0	5626	5626	5719	5719	5719	5626	5626	5626	5626	5626	5626	5626	5719	5626	5626	5626	5626	5535	5535	5535	5535	5448	5448	0	0	0	0	0	0	0	2609	2609	2589	2589	2570	2570	2551	2551	2551	2551	2551	2551	2532	2514	2496	2496	2496	2496	2496	2460	2460	2460	2443	2443	2443	2443	2426	2426	2443	2392	2392	2392	0	0	0	0	0	0	0	0	0	0	0	0	0	0	0	0	0	0	0	0	0	0	0	0	0	0	0	0	0	0	0	0	0	0	0	0	0
0	0	0	0	0	1120	1127	1123	1131	1131	1127	0	0	0	0	0	0	0	0	0	0	0	0	0	0	0	0	0	0	0	0	0	0	0	0	0	0	0	0	1142	1138	1142	1150	1153	1161	1161	1161	1161	1161	1161	1165	1165	1169	1169	0	0	0	0	0	0	0	0	5282	5282	5282	5282	5282	5282	5282	5282	5282	5282	5282	5364	5448	5535	5626	5626	5719	5719	5719	5719	5815	5815	5815	5815	5815	5719	5719	5626	5535	5535	5535	5535	5626	5535	5535	5626	5719	5719	5719	5626	5719	5719	5626	5626	5626	5626	5626	5626	5626	5626	5626	5626	5626	5626	5626	5626	5626	5626	5626	5626	5626	5626	5626	5626	5626	5626	5626	5626	5626	5719	5626	5626	0	0	0	0	0	0	0	0	0	0	0	0	0	0	0	0	0	0	0	5448	5448	5626	5626	5719	5719	5815	5815	5719	5719	5719	5815	5815	5815	0	0	0	0	0	0	0	0	0	0	0	0	0	0	0	0	0	0	0	0	0	0	5626	5626	5626	5626	5535	5626	5626	5626	5626	5626	5626	5719	5626	5719	5626	5626	5626	5626	5626	5626	5626	5626	5626	5626	5535	5535	5535	5535	5535	5535	5535	5535	5535	5535	5535	5626	5535	5535	5535	5626	5626	5626	5626	5626	5535	5535	5626	5626	5626	5626	5626	5626	5719	5719	5719	5626	5626	5626	5626	5626	5626	5626	5626	5626	5626	5626	5626	5626	5626	5535	5535	5626	5626	5626	5626	5626	5626	5626	5535	5626	5626	5626	5626	5626	5626	5626	5626	5626	5626	5626	5626	5626	5535	5535	5535	5535	5535	5535	5535	5535	5535	5535	5535	5535	5535	5626	5626	5535	5535	5626	5626	5626	5626	5448	5364	5448	5448	5364	5448	5282	5282	0	0	0	0	0	0	0	0	0	0	0	0	0	0	0	0	0	0	0	0	0	0	0	0	0	0	0	0	5719	5719	5719	5719	5719	5719	5719	5815	5719	5815	5815	5815	5815	5815	5815	5626	5719	5719	5719	0	0	0	0	0	0	5719	5719	5719	5626	5535	5535	5626	5626	5626	5535	5535	5626	5535	5535	5535	5535	5535	5535	5535	5535	5535	5535	5535	5535	5535	5535	5535	5535	5535	5535	5626	5626	5626	5626	5626	5626	5626	5626	5535	5626	5535	5535	5535	5626	5535	5626	5535	5626	5535	5535	5626	5626	5535	5535	5535	5626	5626	5626	5626	5719	5626	5719	5626	5535	5626	5626	5626	5626	5719	5719	5719	5626	5719	5626	5719	5719	5626	5626	5535	5535	5535	5448	5448	5448	5626	5626	5626	5626	5626	5626	5626	5626	5626	5535	5535	5535	5626	5626	5626	5719	5719	5719	5719	5626	5626	5626	5626	5626	5535	5626	5626	5626	5626	5626	5626	5626	5626	5626	5719	5719	0	0	0	0	0	0	0	0	0	0	0	0	0	0	0	0	0	0	0	0	0	0	0	0	0	0	0	0	0	0	0	0	0	0	0	0	0	0	0	0	0	0	0	0	0	0	0	0	0	0	0	0	0	0	0	0	0	0	5626	5626	5719	5719	5719	5719	5626	5626	5626	5626	5626	5626	5719	5719	5719	5719	5719	5626	5626	5626	5626	5535	5448	5448	0	0	0	0	0	0	2609	2609	2589	2589	2589	2570	2570	2570	2570	2551	2551	2551	2532	2532	2514	2496	2496	2496	2496	2460	2460	2460	2460	2443	2443	2443	2443	2426	2443	2443	2426	2426	0	0	0	0	0	0	0	0	0	0	0	0	0	0	0	0	0	0	0	0	0	0	0	0	0	0	0	0	0	0	0	0	0	0	0	0	0
0	0	0	0	0	1120	1123	1123	1134	1134	0	0	0	0	0	0	0	0	0	0	0	0	0	0	0	0	0	0	0	0	0	0	0	0	0	0	0	0	0	0	1138	1142	1157	1157	1161	1161	1161	1161	1161	1161	1165	1165	1165	1165	0	0	0	0	0	0	0	0	5282	5202	5202	5202	5282	5282	5282	5282	5282	5364	5364	5364	5448	5535	5626	5719	5719	5719	5719	5815	5815	5815	5815	5815	5719	5719	5719	5535	5535	5535	5535	5535	5626	5535	5535	5719	5815	5719	5719	5719	5719	5719	5719	5719	5719	5719	5719	5535	5719	5719	5719	5626	5626	5626	5626	5626	5719	5719	5719	5719	5719	5626	5626	5626	5626	5626	5626	5626	5626	5626	5535	5535	5535	0	0	0	0	0	0	0	5915	5915	0	0	0	0	0	0	0	0	0	0	0	5626	5915	5815	5815	5815	5815	5815	5815	5626	5815	5815	5815	0	0	0	0	0	0	0	0	0	0	0	0	0	0	0	0	0	0	0	0	0	0	5626	5626	5626	5626	5626	5626	5626	5719	5626	5719	5719	5719	5719	5719	5719	5626	5626	5626	5719	5626	5626	5626	5626	5626	5626	5626	5626	5626	5535	5535	5535	5535	5535	5535	5535	5626	5535	5626	5626	5626	5626	5626	5626	5626	5535	5535	5719	5626	5626	5626	5626	5626	5719	5719	5719	5626	5626	5626	5626	5626	5626	5626	5626	5626	5626	5626	5626	5626	5626	5626	5626	5626	5626	5626	5626	5626	5626	5626	5626	5626	5626	5626	5626	5626	5626	5626	5626	5626	5626	5626	5626	5626	5626	5626	5626	5626	5626	5535	5535	5535	5535	5535	5535	5535	5626	5626	5626	5535	5626	5626	5626	5626	5626	5448	5448	5535	5535	5448	5535	5535	5626	5626	0	0	0	0	0	0	0	0	0	0	0	0	0	0	0	0	0	0	0	0	0	0	0	0	0	0	0	0	0	5626	5626	5719	5719	5719	5915	5815	5815	5815	5815	5815	5815	5815	5815	5815	5719	5719	0	0	0	0	0	0	5719	5719	5719	5719	5626	5626	5626	5626	5626	5535	5535	5626	5535	5535	5535	5535	5535	5535	5535	5535	5535	5535	5535	5535	5535	5535	5626	5535	5535	5626	5719	5626	5626	5626	5626	5626	5626	5626	5535	5626	5535	5535	5535	5535	5535	5626	5626	5626	5626	5626	5626	5626	5535	5626	5626	5626	5626	5626	5719	5626	5626	5719	5626	5535	5626	5626	5719	5626	5719	5719	5626	5535	5626	5626	5719	5719	5626	5626	5626	5535	5535	5535	5535	5535	5535	5626	5626	5626	5626	5719	5719	5815	5626	5626	5535	5626	5626	5815	5626	5719	5719	5719	5719	5626	5626	5626	5626	5626	5626	5719	5719	5719	5719	5719	5719	5626	5719	5719	5719	5719	0	0	0	0	0	0	0	0	0	0	0	0	0	0	0	0	0	0	0	0	0	0	0	0	0	0	0	0	0	0	0	0	0	0	0	0	0	0	0	0	0	0	0	0	0	0	0	0	0	0	0	0	0	0	0	5535	5535	5626	5626	5626	5626	5626	5719	5719	5626	5719	5719	5719	5719	5719	5719	5719	5719	5719	5815	5719	5719	5626	5626	5626	5535	5535	0	0	0	0	0	0	2589	2589	2589	2589	2589	2570	2570	2551	2551	2551	2551	2532	2532	2532	2514	2496	2496	2496	2478	2460	2460	2460	2443	2443	2443	2460	2443	2443	2443	2443	2443	2443	0	0	0	0	0	0	0	0	0	0	0	0	0	0	0	0	0	0	0	0	0	0	0	0	0	0	0	0	0	0	0	0	0	0	0	0	0
