0	0	0	0	0	0	0	0	0	0	0	0	662	662	675	675	675	675	674	675	675	675	691	691	693	693	700	707	707	707	708	708	710	710	713	716	720	723	725	728	731	732	732	736	745	747	748	750	752	752	772	773	773	775	775	775	777	780	782	786	789	791	791	791	810	810	815	817	819	819	829	835	839	841	843	843	848	852	852	858	858	869	882	887	889	891	889	896	903	913	913	917	920	920	922	925	925	950	953	955	955	961	963	966	977	983	983	985	988	997	997	1023	1030	1030	1030	1033	1039	1045	1055	1058	1061	1061	1064	1068	1064	1064	1071	1071	1071	0	0	0	0	0	0	0	0	4706	4706	4706	4706	4643	1443	1449	1449	1449	1449	1449	1449	1449	1449	1449	1425	1425	0	0	0	4906	4906	4977	4977	4977	4977	5050	5125	5202	5202	5202	5202	5202	5202	5202	5202	5202	5125	5125	5125	5050	5050	5050	5050	5050	5125	5125	5125	5202	5125	5202	5202	5202	5202	5125	5125	0	0	0	0	0	0	0	0	0	0	0	0	0	6992	7137	6992	7137	7137	6992	6992	6992	6992	6992	6992	0	0	0	0	0	0	0	0	0	0	0	7608	7608	7779	7779	7779	7959	8343	8343	8146	8146	7959	7959	7959	7779	7779	7959	7779	7959	7959	7959	7959	7959	7779	7779	7959	7959	8146	8343	8146	8146	8146	7959	8146	8146	7959	7959	7959	7959	0	0	0	0	0	0	0	0	0	0	0	0	0	5282	5282	5282	5282	5282	5282	5282	5282	5282	5282	5282	5282	5202	5202	5202	5282	5202	5202	5202	5202	5050	5050	3621	3621	3583	3583	3583	3546	3583	3546	3546	3546	3546	3546	3546	3546	3583	3583	3621	3621	3621	3621	3621	3583	3621	3621	3621	3621	3659	3659	3659	3621	3621	3621	3583	3583	3583	3546	3546	3510	3510	3510	3510	3546	3546	3546	3546	3546	3546	3546	3546	3546	0	0	0	0	0	0	0	0	0	0	0	0	0	0	4521	4581	4581	4581	4581	4581	4581	4643	4643	4581	4581	4581	4581	4581	4581	4581	4581	4581	4581	4581	4581	4581	4581	4581	4581	4581	4581	4581	4581	4581	4581	4581	4581	4581	4581	4643	4643	4643	4643	4643	4643	4643	4581	4581	4581	4581	4581	4581	4581	4581	4581	4521	4521	4521	4521	4521	4463	4463	4521	4581	4581	4521	4406	4350	4350	4350	4350	4296	4296	4296	4296	4243	4296	4296	4296	4296	4296	4296	4296	4350	4350	4350	4350	4350	4350	4350	4350	4296	4350	4350	4350	4350	4350	4350	4350	4350	4350	4350	4296	4296	4296	4296	4350	4350	4350	4350	4406	4406	4406	4406	4350	4350	4350	4350	4350	4350	4350	4350	4350	4350	4296	4296	4296	4296	4243	4243	4243	4296	4296	4350	4350	4350	4350	4350	4350	4296	4296	4350	4406	4406	4406	4463	4521	4521	4521	4521	4521	4521	4521	7959	7959	7779	7779	7779	7608	7608	7608	7608	0	0	0	0	0	0	0	0	0	0	0	0	0	0	0	0	0	0	0	0	0	0	0	6720	6720	6720	6720	6720	6853	6853	6853	6853	6853	6853	6853	6992	6992	6992	0	0	0	0	0	0	0	0	0	0	0	0	0	0	0	0	3216	3246	3246	3216	3216	3216	3186	3186	3186	3186	3186	3186	3186	3186	3186	3186	3186	3186	3186	3129	3129	3129	3073	3073	3019	3019	3019	3019	3019	0	0	0	0	0	0	0	0	0	0	0	0	0	0	0	0	0	0	0	0	0	0	0	0	0	0	0	0	0	0	0	0	0	0
0	0	0	0	0	0	0	0	0	0	0	0	0	0	0	676	675	676	674	674	674	680	691	691	691	698	701	705	707	707	708	708	710	710	714	717	722	723	725	728	729	732	732	739	743	747	748	750	752	752	772	772	773	773	775	775	777	780	782	786	789	797	800	808	810	808	814	817	819	827	827	831	835	839	841	843	845	845	852	852	865	869	871	882	884	889	889	894	896	913	915	917	920	920	922	925	927	948	948	953	955	961	963	969	977	983	983	985	988	994	994	1023	1030	1033	1033	1033	1036	1039	1052	1058	1061	1061	1064	1068	1068	1068	1071	1071	1071	0	0	0	0	0	0	0	4643	4643	4643	4643	4706	4706	1449	1455	1449	1449	1449	1455	1455	1455	1449	1449	0	0	0	0	0	4906	4906	4977	4977	4977	4977	5050	5202	5202	5202	5202	5202	5202	5202	5202	5202	5202	5125	5125	5125	5050	5050	5050	5050	5050	5125	5125	5125	5125	5125	5202	5202	5202	5202	5202	5125	0	0	0	0	0	0	0	0	0	0	0	0	6853	6853	6992	6992	6992	6992	6992	6992	6992	6992	6992	6992	0	0	0	0	0	0	0	0	0	0	0	7608	7608	7608	7779	7779	7779	8146	8146	8146	7959	7959	7959	7959	7959	7779	7959	7959	7959	8146	7959	7959	7959	7959	7779	7959	7959	7959	8343	8343	7959	7959	7959	8146	8146	7779	7959	7959	7959	7959	0	0	0	0	0	0	0	0	0	0	0	0	5282	5282	5282	5282	5282	5282	5282	5282	5282	5282	5282	5282	5202	5202	5282	5282	5282	5282	5202	5202	5202	5202	3583	3621	3621	3621	3583	3583	3583	3583	3546	3546	3546	3546	3546	3546	3583	3583	3621	3583	3583	3621	3621	3621	3621	3621	3621	3659	3659	3659	3621	3621	3621	3621	3583	3583	3583	3546	3546	3510	3510	3510	3546	3546	3546	3546	3546	3546	3546	3546	3546	0	0	0	0	0	0	0	0	0	0	0	0	0	0	4463	4521	4581	4581	4581	4581	4581	4581	4581	4581	4581	4581	4581	4581	4581	4581	4581	4581	4581	4581	4581	4581	4581	4581	4581	4581	4581	4581	4581	4581	4581	4581	4581	4581	4581	4643	4643	4643	4643	4643	4643	4643	4643	4581	4581	4581	4581	4581	4581	4581	4581	4581	4581	4521	4521	4521	4521	4463	4463	4521	4521	4521	4521	4521	4406	4521	4406	4350	4350	4296	4296	4296	4296	4296	4296	4296	4296	4296	4296	4296	4350	4350	4350	4350	4350	4350	4350	4350	4350	4350	4350	4350	4350	4350	4350	4350	4350	4350	4350	4296	4296	4296	4296	4350	4296	4350	4350	4406	4350	4350	4406	4350	4350	4350	4350	4350	4350	4350	4350	4350	4350	4296	4296	4243	4243	4243	4243	4243	4296	4296	4350	4350	4350	4350	4350	4350	4296	4350	4350	4406	4406	4463	4521	4581	4521	4463	4463	4463	4463	4521	7959	7959	7959	7779	7959	7779	7779	7779	7779	0	0	0	0	0	0	0	0	0	0	0	0	0	0	0	0	0	0	0	0	0	0	0	6720	6720	6720	6720	6720	6720	6720	6720	6853	6853	6853	6853	6992	6992	6992	0	0	0	0	0	0	0	0	0	0	0	0	0	0	0	0	0	3246	3246	3216	3186	3186	3186	3216	3186	3216	3186	3186	3186	3186	3186	3186	3157	3157	3186	3186	3157	3129	3101	3073	3073	3046	3046	3046	3046	0	0	0	0	0	0	0	0	0	0	0	0	0	0	0	0	0	0	0	0	0	0	0	0	0	0	0	0	0	0	0	0	0	0
0	0	0	0	0	0	0	0	0	0	0	0	0	0	0	675	674	674	679	679	680	680	693	697	697	700	701	703	705	705	708	708	708	710	711	716	723	725	728	728	731	732	732	740	745	745	748	750	752	752	752	772	772	773	775	775	777	779	786	788	791	797	800	804	808	806	810	817	817	825	829	831	835	837	837	843	845	850	850	852	852	867	871	884	887	889	889	889	889	915	917	917	920	920	922	925	927	945	950	950	953	958	961	969	980	985	985	988	988	991	991	1030	1033	1033	1033	1036	1039	1045	1045	1055	1058	1061	1064	1068	1064	1064	1068	1068	0	0	0	0	0	0	0	0	4643	4643	4643	4706	4706	4643	1455	1455	1449	1443	1443	1443	1449	1443	1443	0	0	0	0	0	0	4906	4977	4977	4977	4977	4977	5202	5202	5202	5202	5202	5202	5202	5202	5202	5202	5125	5125	5125	5125	5125	5050	5050	5125	5125	5125	5125	5125	5125	5202	5202	5202	5202	5202	5202	0	0	0	0	0	0	0	0	0	0	0	0	6992	6853	6853	6853	6853	6853	6992	6853	6853	6853	6853	6853	0	0	0	0	0	0	0	0	0	0	0	0	7608	7608	7608	7779	7779	7779	7959	7959	7959	7959	7959	7959	7959	7959	7959	7959	7959	7959	7959	7959	7959	7959	7959	7959	7959	7959	8146	8343	8343	8146	8146	7959	8146	8146	7959	7959	7959	8146	8146	0	0	0	0	0	0	0	0	0	0	0	0	0	5282	5282	5282	5282	5282	5282	5282	5282	5282	5202	5282	5202	5282	5282	5282	5282	5282	5202	5202	5202	5125	3583	3583	3583	3583	3583	3583	3583	3546	3546	3546	3546	3546	3546	3546	3546	3546	3583	3583	3621	3621	3621	3621	3621	3659	3659	3659	3659	3659	3621	3621	3621	3621	3583	3583	3583	3546	3546	3510	3546	3546	3546	3546	3546	3546	3546	3546	3546	3546	3546	0	0	0	0	0	0	0	0	0	0	0	4296	4296	4350	4463	4463	4521	4521	4521	4581	4581	4581	4581	4581	4581	4581	4581	4581	4581	4581	4581	4581	4581	4581	4581	4581	4581	4581	4581	4581	4581	4581	4581	4581	4581	4581	4581	4581	4581	4581	4643	4643	4643	4643	4643	4643	4643	4581	4581	4581	4581	4581	4581	4581	4581	4581	4581	4581	4581	4521	4521	4521	4521	4521	4581	4521	4521	4521	4521	4521	4406	4350	4350	4296	4296	4296	4296	4350	4350	4296	4296	4296	4296	4350	4350	4350	4350	4350	4350	4350	4350	4350	4350	4350	4406	4406	4406	4350	4350	4350	4350	4350	4350	4296	4296	4296	4296	4296	4296	4350	4350	4406	4350	4406	4406	4350	4406	4350	4350	4350	4350	4350	4350	4350	4350	4350	4350	4296	4296	4243	4243	4243	4296	4296	4350	4350	4350	4350	4350	4350	4350	4350	4350	4406	4406	4463	4521	4521	4521	4463	4463	4463	4463	0	7779	7779	7779	7779	7779	7779	7608	7779	7779	7779	0	0	0	0	0	0	0	0	0	0	0	0	0	0	0	0	0	0	0	0	0	0	0	0	6720	6720	6720	6853	6853	6853	6853	6853	6992	6992	6992	6992	6992	0	0	0	0	0	0	0	0	0	0	0	0	0	0	0	0	0	0	3246	3246	3216	3216	3216	3216	3186	3216	3216	3216	3186	3186	3186	3186	3186	3186	3186	3186	3157	3129	3101	3073	3046	3046	3046	3019	3019	0	0	0	0	0	0	0	0	0	0	0	0	0	0	0	0	0	0	0	0	0	0	0	0	0	0	0	0	0	0	0	0	0	0
0	0	0	0	0	0	0	0	0	0	0	0	0	0	0	675	672	672	679	679	680	680	693	695	697	698	700	701	704	705	707	708	708	710	711	714	714	726	728	729	731	732	734	737	743	743	747	748	750	750	772	772	772	775	775	777	779	780	786	788	791	797	797	804	808	808	808	817	817	825	827	831	833	835	837	837	845	850	856	856	856	856	856	884	887	889	891	889	889	915	915	917	920	920	922	925	927	950	950	953	953	958	961	966	983	985	985	988	988	991	991	1030	1033	1033	1036	1036	1042	1045	1045	1055	1058	1061	1064	1068	1068	1064	1068	1068	0	0	0	0	0	0	0	0	0	4706	4706	4706	4643	4643	4643	1449	1443	1443	1443	1443	1455	1455	1455	1455	0	0	0	0	0	4906	4906	4977	4977	4977	5050	5050	5125	5202	5202	5202	5125	5125	5202	5125	5202	5125	5125	5125	5125	5125	5050	5050	5050	5050	5125	5125	5202	5202	5202	5202	5125	5125	5202	0	0	0	0	0	0	0	0	0	0	0	0	0	6992	6853	6853	6853	6853	6853	6853	6853	6853	6853	6853	6853	0	0	0	0	0	0	0	0	0	0	0	0	0	0	7608	7608	7608	7959	7959	7959	7959	7779	7959	7959	7959	7959	7959	7959	7959	7959	7959	7959	7959	7959	7959	8343	8146	7959	8343	8343	8343	8343	8146	8146	8146	8146	8146	7959	7959	8146	8146	0	0	0	0	0	0	0	0	0	0	0	0	0	5282	5282	5364	5282	5282	5282	5282	5282	5282	5282	5282	5282	5282	5282	5282	5282	5282	5282	5282	5125	5125	3621	3621	3621	3621	3583	3583	3583	3583	3546	3546	3546	3546	3546	3546	3546	3546	3583	3583	3621	3583	3621	3621	3621	3621	3659	3659	3659	3659	3621	3621	3621	3583	3583	3583	3546	3546	3546	3546	3510	3546	3546	3546	3583	3546	3546	3546	3546	3546	0	0	0	0	0	0	0	0	0	0	0	0	4243	4243	4350	4463	4463	4521	4521	4581	4581	4581	4581	4581	4581	4581	4581	4581	4581	4581	4581	4581	4581	4581	4581	4581	4581	4581	4581	4581	4581	4581	4581	4581	4581	4581	4581	4581	4581	4581	4643	4643	4643	4643	4643	4643	4643	4643	4581	4581	4581	4581	4581	4581	4581	4581	4581	4581	4581	4581	4521	4521	4581	4581	4521	4521	4521	4521	4521	4463	4521	4406	4350	4296	4296	4296	4296	4296	4350	4350	4350	4296	4350	4350	4350	4350	4350	4350	4406	4350	4350	4350	4406	4350	4406	4406	4406	4406	4350	4350	4350	4350	4350	4296	4296	4296	4296	4296	4350	4350	4350	4406	4406	4521	4406	4406	4406	4406	4350	4350	4350	4350	4406	4406	4406	4406	4406	4406	4350	4350	4350	4192	4243	4350	4350	4350	4350	4350	4406	4406	4406	4406	4406	4350	4463	4463	4463	4521	4521	4521	4521	4521	4463	4463	0	7779	7779	7779	7779	7779	7779	7608	7608	7608	7608	0	0	0	0	0	0	0	0	0	0	0	0	0	0	0	0	0	0	0	0	0	0	0	0	0	6720	6720	6720	6853	6853	6853	6853	6992	6992	6992	6992	0	0	0	0	0	0	0	0	0	0	0	0	0	0	0	0	0	0	0	3246	3246	3216	3216	3216	3186	3186	3186	3186	3186	3186	3157	3157	3157	3186	3157	3157	3186	3157	3129	3101	3073	3046	3046	3046	3019	3019	0	0	0	0	0	0	0	0	0	0	0	0	0	0	0	0	0	0	0	0	0	0	0	0	0	0	0	0	0	0	0	0	0	0
0	0	0	0	0	0	0	0	0	0	0	0	0	0	0	675	674	674	678	678	679	679	689	687	695	697	698	700	704	705	707	708	708	710	711	711	711	725	729	731	732	734	734	739	742	743	747	748	752	753	760	770	772	775	777	777	779	780	786	788	791	797	797	804	808	810	810	812	819	819	827	831	833	835	837	848	845	858	860	858	858	860	869	884	887	887	891	889	915	915	915	917	917	920	922	925	927	950	953	953	955	958	961	966	969	985	985	988	988	988	1023	1023	1030	1033	1033	1036	1042	1048	1048	1055	1058	1061	1064	1068	1068	1068	1068	1068	0	0	0	0	0	0	0	0	0	4643	4643	4643	4643	4643	4643	1449	1437	1437	1443	1437	1455	1455	1455	1455	0	0	0	0	4906	4906	4906	4977	4977	4977	4977	5050	5050	5125	5125	5202	5125	5125	5125	5202	5202	5125	5125	5125	5125	5125	5050	5050	5202	5202	5202	5202	5202	5125	5202	5125	5125	5125	0	0	0	0	0	0	0	0	0	0	0	0	0	0	6992	6992	6853	6853	6853	6853	6992	6853	6853	6853	6992	6992	0	0	0	0	0	0	0	0	0	0	0	0	0	0	0	7608	7779	7779	7779	7779	7779	7779	7779	7779	7959	7959	7959	7959	7959	7959	8146	7959	7959	8146	8146	8146	8146	8146	8146	8343	8343	8343	8146	8146	8146	8146	8146	8146	7959	8146	8146	0	0	0	0	0	0	0	0	0	0	0	0	0	0	5364	5364	5364	5364	5364	5282	5282	5282	5282	5282	5282	5282	5282	5282	5282	5282	5282	5282	5202	5202	5282	3659	3659	3621	3583	3583	3583	3583	3583	3546	3546	3546	3546	3546	3546	3546	3583	3583	3621	3583	3621	3621	3621	3659	3659	3659	3659	3659	3621	3621	3583	3583	3583	3583	3546	3546	3546	3546	3510	3546	3546	3546	3583	3546	3546	3546	3475	3475	0	0	0	0	0	0	0	0	0	0	0	0	4243	4243	4350	4463	4521	4521	4521	4581	4521	4581	4581	4581	4581	4581	4581	4581	4581	4581	4581	4581	4581	4581	4581	4581	4581	4521	4581	4581	4581	4581	4581	4581	4581	4581	4581	4581	4581	4581	4581	4643	4643	4643	4581	4643	4581	4643	4581	4581	4581	4581	4581	4581	4581	4521	4581	4581	4581	4581	4581	4581	4581	4581	4521	4521	4521	4521	4521	4463	4463	4463	4350	4350	4350	4296	4296	4350	4406	4406	4350	4350	4406	4406	4406	4406	4350	4406	4406	4350	4350	4406	4406	4406	4521	4521	4521	4463	4463	4406	4406	4350	4350	4350	4350	4350	4350	4350	4350	4521	4521	4521	4521	4521	4406	4521	4406	4406	4406	4406	4463	4463	4463	4521	4463	4521	4463	4406	4406	4350	4350	4350	4350	4350	4350	4350	4350	4406	4406	4406	4350	4350	4350	4350	4406	4463	4463	4521	4521	4521	4521	4463	4463	4463	0	0	7959	7959	7959	7959	7779	7779	7779	7779	7779	0	0	0	0	0	0	0	0	0	0	0	0	0	0	0	0	0	0	0	0	0	0	0	0	0	6720	6720	6720	6853	6853	6853	6853	6992	6992	6992	0	0	0	0	0	0	0	0	0	0	0	0	0	0	0	0	0	0	0	0	0	3246	3216	3216	3216	3216	3186	3186	3186	3186	3186	3186	3157	3157	3186	3186	3157	3186	3157	3129	3129	3101	3073	3073	3046	3046	3046	0	0	0	0	0	0	0	0	0	0	0	0	0	0	0	0	0	0	0	0	0	0	0	0	0	0	0	0	0	0	0	0	0	0
0	0	0	0	0	0	0	0	0	0	0	0	0	0	672	674	672	672	678	678	679	679	687	689	695	697	698	698	703	703	707	708	708	710	713	714	714	722	722	734	734	736	737	740	743	743	747	748	752	755	760	765	772	775	777	779	779	782	786	786	793	793	802	806	806	810	815	815	819	827	829	831	833	835	837	848	854	858	860	860	860	862	871	875	884	887	889	889	889	915	915	917	920	920	922	925	932	948	950	953	955	961	963	966	966	980	985	994	994	1000	1000	1026	1026	1033	1033	1036	1039	1048	1048	1055	1055	1061	1064	1064	1068	1068	1068	1071	0	0	0	0	0	0	0	0	0	4643	4643	4706	4643	4643	4643	1437	1437	1437	1437	1437	1437	1437	4643	0	0	0	0	0	4906	4906	4906	4906	4977	4977	4977	5050	5050	5125	5125	5202	5125	5125	5202	5202	5202	5202	5125	5125	5125	5125	5125	5050	5050	5202	5202	5202	5202	5125	5125	5125	5125	0	0	0	0	0	0	0	0	0	0	0	0	0	0	0	6720	6853	6853	6853	6853	6853	6992	6853	6853	6853	6853	6992	0	0	0	0	0	0	0	0	0	0	0	0	0	0	0	0	7779	7779	7779	7779	7779	7779	7779	7779	7959	7959	7959	7959	7959	7959	7959	7959	7959	7959	8146	8343	8343	8343	8343	8146	8343	8343	8146	8146	8146	8146	7959	8146	7959	8146	8146	0	0	0	0	0	0	0	0	0	0	0	0	0	0	5364	5448	5448	5448	5364	5364	5364	5282	5282	5282	5282	5282	5282	5282	5282	5282	5282	5282	5282	5282	5282	3659	5282	3659	3621	3621	3583	3583	3546	3546	3546	3546	3546	3546	3546	3546	3621	3621	3621	3583	3621	3621	3621	3621	3659	3659	3659	3659	3621	3621	3621	3583	3583	3583	3583	3546	3546	3546	3510	3546	3546	3546	3583	3583	3546	3546	3546	3475	0	0	0	0	0	0	0	0	0	0	0	0	0	0	4350	4406	4521	4521	4521	4581	4521	4581	4581	4581	4581	4581	4581	4581	4581	4581	4581	4581	4581	4581	4581	4521	4521	4521	4581	4581	4581	4581	4581	4581	4581	4581	4581	4581	4581	4581	4643	4643	4643	4643	4581	4643	4581	4581	4581	4581	4581	4581	4581	4581	4581	4581	4581	4581	4581	4581	4581	4581	4581	4581	4521	4521	4521	4521	4521	4463	4463	4350	4406	4350	4350	4406	4463	4463	4521	4521	4463	4463	4521	4463	4406	4406	4350	4350	4406	4350	4350	4406	4406	4521	4581	4581	4581	4521	4521	4463	4406	4406	4406	4350	4406	4521	4581	4521	4521	4581	4581	4581	4581	4581	4581	4581	4581	4581	4521	4521	4521	4521	4521	4521	4521	4521	4521	4463	4406	4406	4350	4296	4296	4350	4350	4350	4350	4406	4406	4406	4406	4350	4350	4350	4406	4463	4463	4521	4521	4581	4521	4463	4521	4521	0	0	7959	7959	7959	7959	7959	7779	7779	7779	7779	7779	0	0	0	0	0	0	0	0	0	0	0	0	0	0	0	0	0	0	0	0	0	0	0	0	0	0	0	0	0	0	0	0	0	0	0	0	0	0	0	0	0	0	0	0	0	0	0	0	0	0	0	0	0	0	3246	3246	3216	3216	3216	3216	3186	3186	3186	3186	3186	3186	3186	3186	3186	3186	3186	3186	3186	3157	3129	3129	3101	3101	3073	3046	3046	0	0	0	0	0	0	0	0	0	0	0	0	0	0	0	0	0	0	0	0	0	0	0	0	0	0	0	0	0	0	0	0	0	0
0	0	0	0	0	0	0	0	0	0	0	0	0	0	672	674	672	672	678	678	679	682	687	695	697	697	698	698	700	700	704	707	708	710	710	717	720	723	728	731	732	734	736	740	742	745	748	752	755	755	760	761	770	773	777	777	780	784	784	788	793	797	797	802	806	808	810	817	821	825	827	829	833	835	837	848	856	858	860	860	860	862	873	882	884	887	887	887	887	917	917	917	922	922	925	930	932	942	948	953	955	961	966	972	974	980	985	994	994	994	1020	1020	1026	1033	1036	1036	1042	1042	1045	1052	1055	1058	1061	1071	1071	1071	1071	1068	1068	0	0	0	0	0	0	0	0	4643	4643	4706	4643	4643	4643	4643	1437	1437	1437	1431	1431	4463	4463	0	0	0	0	0	0	0	0	4977	4977	4977	5050	5125	5125	5125	5125	5202	5125	5125	5125	5125	5202	5202	5125	5125	5125	5125	5125	5125	5125	5125	5125	5202	5202	5125	5125	5125	0	0	0	0	0	0	0	0	0	0	0	0	0	0	0	0	6720	6853	6853	6853	6853	6853	6853	6853	6853	6853	6853	0	0	0	0	0	0	0	0	0	0	0	0	0	0	0	0	0	7779	7779	7779	7779	7779	7779	7779	7779	7959	7959	7959	7959	7959	7959	7959	7959	7959	8146	8146	8343	8343	8343	8343	8146	8146	8343	7959	7779	7959	7959	7959	8146	7959	8146	8146	0	0	0	0	0	0	0	0	0	0	0	0	0	0	5364	5448	5448	5448	5364	5364	5364	5282	5282	5282	5282	5282	5282	5282	5282	5282	5282	5282	5364	5364	5364	5364	5282	3659	3659	3583	3583	3583	3546	3583	3546	3546	3546	3583	3583	3583	3621	3621	3621	3621	3621	3621	3621	3621	3621	3621	3659	3659	3621	3621	3621	3583	3583	3583	3546	3546	3546	3546	3546	3583	3546	3583	3546	3546	3546	3510	3510	0	0	0	0	0	0	0	0	0	0	0	0	0	0	0	4350	4406	4581	4643	4581	4581	4581	4581	4581	4643	4643	4643	4643	4643	4643	4581	4581	4581	4581	4581	4581	4581	4581	4581	4581	4581	4581	4581	4643	4581	4643	4643	4643	4581	4581	4581	4643	4581	4581	4581	4581	4581	4581	4581	4581	4581	4581	4581	4581	4581	4581	4581	4581	4581	4581	4581	4581	4581	4581	4581	4521	4581	4521	4521	4521	4463	4406	4350	4406	4406	4406	4463	4463	4521	4581	4581	4521	4521	4581	4521	4463	4463	4350	4406	4406	4406	4406	4406	4521	4521	4581	4581	4581	4581	4521	4521	4521	4521	4521	4463	4521	4581	4581	4581	4581	4581	4581	4581	4581	4581	4581	4581	4581	4581	4581	4581	4581	4521	4521	4581	4581	4581	4521	4521	4463	4463	4406	4350	4350	4350	4406	4350	4350	4406	4406	4406	4406	4350	4350	4350	4406	4521	4463	4521	4521	4521	4521	4521	4521	4521	0	0	7959	7959	7959	7779	7779	7779	7779	7779	7608	7608	0	0	0	0	0	0	0	0	0	0	0	0	0	0	0	0	0	0	0	0	0	0	0	0	0	0	0	0	0	0	0	0	0	0	0	0	0	0	0	0	0	0	0	0	0	0	0	0	0	0	0	0	0	0	3246	3216	3216	3216	3216	3216	3186	3186	3186	3186	3186	3186	3186	3186	3186	3186	3186	3186	3186	3157	3157	3129	3129	3129	3101	3073	3073	0	0	0	0	0	0	0	0	0	0	0	0	0	0	0	0	0	0	0	0	0	0	0	0	0	0	0	0	0	0	0	0	0	0
0	0	0	0	0	0	0	0	0	0	0	0	0	0	0	672	672	672	678	679	680	682	686	691	697	697	698	698	700	700	704	707	708	710	719	719	722	723	728	731	732	734	736	740	743	747	752	755	756	756	758	760	761	761	761	782	782	784	786	786	786	795	798	804	806	808	810	815	821	827	829	829	833	835	837	848	858	860	860	862	862	865	873	878	884	884	887	887	887	917	917	920	922	925	927	932	935	940	945	950	955	961	966	974	977	980	983	988	988	988	994	1000	1000	1000	1036	1036	1048	1048	1048	1052	1055	1061	1068	1068	1068	1071	1068	1068	1068	0	0	0	0	0	0	0	0	4643	4643	4643	4643	4643	4643	1437	1437	1437	1437	1431	1431	4581	4581	0	0	0	0	0	0	0	0	4977	4977	4977	5202	5202	5125	5125	5125	5125	5125	5125	5125	5125	5125	5202	5125	5125	5125	5125	5125	5125	5202	5202	5202	5202	5202	5202	5125	0	0	0	0	0	0	0	0	0	0	0	0	0	0	0	0	0	6720	6853	6853	6853	6853	6853	6853	6853	6720	6720	6853	0	0	0	0	0	0	0	0	0	0	0	0	0	0	0	0	0	7608	7608	7779	7779	7779	7779	7959	7779	8146	8146	7959	7959	7959	7959	7959	7959	7959	7959	8146	8146	8343	8343	8146	8146	8146	8146	7959	7779	7779	7779	7779	7959	7959	7959	7959	7959	7959	0	0	0	0	0	0	0	0	0	0	0	0	0	0	5448	5448	5364	5364	5282	5202	5202	5125	5125	5125	5202	5202	5282	5282	5364	5364	5364	5364	5364	5364	5282	3698	3698	3698	3621	3621	3583	3583	3583	3583	3583	3583	3583	3583	3621	3621	3583	3583	3621	3621	3621	3621	3621	3621	3621	3621	3621	3621	3583	3583	3583	3583	3546	3546	3546	3546	3583	3583	3583	3583	3583	3583	3583	3583	3546	3546	0	0	0	0	0	0	0	0	0	0	0	0	0	0	0	0	4581	4643	4643	4581	4581	4581	4581	4643	4643	4643	4581	4643	4581	4581	4581	4581	4581	4581	4581	4581	4581	4581	4581	4581	4581	4581	4581	4581	4581	4643	4643	4581	4581	4581	4581	4581	4581	4581	4581	4581	4581	4581	4581	4581	4581	4581	4581	4581	4581	4581	4581	4581	4581	4581	4581	4581	4581	4581	4521	4581	4521	4521	4463	4406	4406	4350	4350	4406	4463	4463	4521	4521	4581	4581	4581	4581	4581	4581	4521	4521	4406	4521	4521	4521	4581	4581	4581	4581	4581	4581	4581	4581	4581	4581	4521	4521	4521	4521	4581	4581	4581	4581	4581	4581	4581	4581	4643	4643	4581	4643	4581	4581	4581	4581	4581	4581	4581	4581	4581	4581	4581	4521	4521	4521	4406	4406	4406	4406	4406	4406	4350	4463	4521	4463	4463	4406	4406	4406	4406	4406	4463	4463	4521	4581	4581	4581	4581	4581	0	0	7959	7959	7959	7779	7779	7779	7608	7779	7779	7779	0	0	0	0	0	0	0	0	0	0	0	0	0	0	0	0	0	0	0	0	0	0	0	0	0	0	0	0	0	0	0	0	0	0	0	0	0	0	0	0	0	0	0	0	0	0	0	0	0	0	0	0	0	3246	3246	3246	3246	3216	3216	3216	3216	3186	3186	3186	3186	3186	3157	3186	3186	3186	3186	3186	3186	3157	3157	3129	3129	3101	3073	3046	3046	0	0	0	0	0	0	0	0	0	0	0	0	0	0	0	0	0	0	0	0	0	0	0	0	0	0	0	0	0	0	0	0	0	0
0	0	0	0	0	0	0	0	0	0	0	0	0	0	671	671	672	672	679	679	682	683	686	691	695	697	698	698	700	700	703	703	708	710	719	719	722	723	731	732	732	734	739	740	742	747	752	753	753	756	758	760	760	760	780	780	782	784	786	788	788	795	800	804	808	810	810	810	827	831	831	831	831	837	837	850	852	860	862	862	862	873	873	878	884	884	887	887	887	915	915	917	917	922	925	927	935	940	942	948	958	961	966	966	977	983	985	985	988	988	997	1000	1000	1000	1033	1033	1048	1048	1048	1052	1055	1058	1061	1068	1068	1071	1068	1064	1064	1064	0	0	0	0	0	0	0	0	4643	4643	4643	4643	4581	1437	1437	1437	1437	1431	1431	4581	4581	0	0	0	0	0	0	0	0	0	4977	4977	5202	5202	5125	5125	5125	5125	5125	5050	5050	5125	5125	5125	5125	5125	5125	5125	5125	5202	5202	5202	5202	5202	5202	5202	0	0	0	0	0	0	0	0	0	0	0	0	0	0	0	0	0	0	6720	6853	6853	6853	6853	6853	6992	6992	6720	6720	0	0	0	0	0	0	0	0	0	0	0	0	0	0	0	0	0	0	7608	7779	7779	7779	7959	7959	7959	7779	7959	7959	7959	7779	7779	7779	7959	7959	7959	7959	8146	8146	8146	8146	8146	7959	8146	7959	7959	7779	7959	7779	7959	8146	7959	8146	8146	7959	8146	8146	0	0	0	0	0	0	0	0	0	0	0	0	0	0	0	0	0	5202	5202	5202	5202	5202	5202	5202	5202	5282	5282	5282	5364	5364	5364	5282	5364	5282	3698	3698	3659	3621	3621	3583	3583	3583	3583	3583	3583	3583	3583	3621	3621	3621	3621	3621	3621	3621	3621	3621	3621	3621	3621	3621	3583	3583	3583	3583	3583	3546	3546	3546	3546	3583	3583	3583	3583	3583	3583	3583	3583	3546	3546	0	0	0	0	0	0	0	0	0	0	0	0	0	0	0	4581	4643	4643	4643	4643	4581	4581	4643	4643	4643	4643	4643	4643	4643	4581	4581	4581	4581	4581	4581	4581	4581	4581	4581	4581	4581	4581	4581	4581	4581	4581	4581	4581	4581	4581	4581	4581	4581	4581	4581	4581	4581	4581	4581	4581	4581	4581	4581	4581	4581	4581	4581	4581	4521	4581	4581	4581	4581	4581	4521	4521	4521	4521	4521	4463	4406	4406	4350	4463	4463	4463	4521	4581	4643	4643	4581	4581	4643	4581	4581	4581	4521	4581	4581	4581	4581	4581	4581	4643	4581	4581	4581	4581	4581	4581	4581	4521	4521	4581	4581	4581	4581	4581	4581	4581	4581	4581	4643	4643	4581	4643	4581	4643	4643	4643	4581	4581	4581	4581	4581	4581	4581	4581	4581	4521	4406	4406	4406	4406	4406	4406	4350	4521	4521	4463	4463	4406	4406	4350	4406	4463	4463	4463	4521	4581	4581	4581	4581	4581	0	8146	7959	7959	7959	7779	7779	7779	7608	7779	7779	7779	0	0	0	0	0	0	0	0	0	0	0	0	0	0	0	0	0	0	0	0	0	0	0	0	0	0	0	0	0	0	0	0	0	0	0	0	0	0	0	0	0	0	0	0	0	0	0	0	0	0	0	0	0	3246	3246	3246	3246	3216	3216	3216	3186	3186	3186	3186	3157	3157	3157	3157	3186	3186	3186	3186	3157	3157	3157	3129	3129	3101	3073	3046	3046	0	0	0	0	0	0	0	0	0	0	0	0	0	0	0	0	0	0	0	0	0	0	0	0	0	0	0	0	0	0	0	0	0	0
0	0	0	0	0	0	0	0	0	0	0	0	0	670	670	670	671	671	678	678	680	682	683	691	695	695	697	698	698	698	703	703	704	710	711	719	720	725	732	732	732	736	736	739	740	745	752	753	756	756	758	758	758	758	780	780	780	784	786	788	788	797	802	804	806	808	810	810	827	829	831	831	831	839	839	850	852	860	862	865	869	873	873	878	884	884	887	889	889	913	915	917	917	920	925	927	932	935	937	948	961	963	966	966	974	980	985	985	988	997	1000	1000	1000	1000	1055	1055	1055	1052	1052	1058	1058	1058	1064	1064	1068	1068	1068	1064	1064	1064	0	0	0	0	0	0	0	0	4581	4643	4643	4643	4581	4581	1437	1437	1437	4581	4581	4581	4581	0	0	0	0	0	0	0	0	0	4977	4977	5202	5202	5202	5125	5125	5125	5125	5125	5125	5050	5125	5125	5125	5202	5202	5202	5202	5202	5202	5125	5125	5202	5125	5125	0	0	0	0	0	0	0	0	0	0	0	0	0	0	0	0	0	0	0	6853	6853	6853	6853	6853	6992	6992	0	0	0	0	0	0	0	0	0	0	0	0	0	0	0	0	0	0	0	0	0	7959	7779	7779	7959	7779	7779	7779	7779	7779	7779	7779	7779	7779	7779	7779	7959	7959	8146	8146	8146	8146	7959	7959	7959	7959	7959	7959	7959	7959	7959	8146	8146	8146	8146	7959	8146	8146	8146	0	0	0	0	0	0	0	0	0	0	0	0	0	0	0	0	5282	5282	5282	5202	5202	5202	5202	5282	5282	5282	5364	5364	5364	5282	5282	5364	5282	3698	3698	3659	3621	3583	3583	3583	3583	3583	3583	3583	3583	3583	3621	3621	3583	3583	3621	3621	3621	3583	3583	0	0	3621	3621	3583	3583	3583	3546	3546	3546	3546	3546	3546	3583	3583	3583	3583	3583	3583	3583	3583	3583	3583	3583	0	0	0	0	0	0	0	0	0	0	0	0	0	0	4581	4643	4581	4643	4581	4581	4581	4581	4643	4581	4581	4581	4581	4581	4581	4581	4581	4581	4581	4581	4581	4581	4581	4581	4581	4581	4581	4581	4581	4581	4581	4581	4581	4581	4581	4581	4581	4581	4581	4581	4581	4581	4581	4581	4581	4581	4581	4581	4581	4581	4581	4581	4581	4581	4581	4581	4581	4581	4521	4521	4521	4521	4521	4521	4463	4521	4521	4350	4406	4463	4521	4521	4581	4643	4643	4643	4643	4643	4643	4581	4643	4581	4643	4643	4643	4643	4643	4581	4581	4581	4581	4581	4581	4581	4581	4581	4581	4581	4581	4581	4581	4643	4643	4643	4643	4581	4643	4643	4643	4643	4643	4643	4643	4643	4643	4643	4581	4643	4581	4581	4581	4581	4581	4581	4581	4521	4521	4521	4521	4521	4406	4521	4521	4521	4463	4406	4406	4350	4350	4350	4406	4463	4463	4521	4581	4581	4581	4581	4581	0	8146	7959	7959	7959	7959	7959	7779	7779	7779	7779	7779	0	0	0	0	0	0	0	0	0	0	0	0	0	0	0	0	0	0	0	0	0	0	0	0	0	0	0	0	0	0	0	0	0	0	0	0	0	0	0	0	0	0	0	0	0	0	0	0	0	0	0	0	3246	3246	3246	3246	3246	3216	3216	3216	3186	3186	3186	3157	3157	3157	3157	3157	3186	3157	3157	3157	3157	3157	3157	3129	3129	3101	3101	3101	3101	0	0	0	0	0	0	0	0	0	0	0	0	0	0	0	0	0	0	0	0	0	0	0	0	0	0	0	0	0	0	0	0	0	0
0	0	0	0	0	0	0	0	0	0	0	0	0	670	670	670	672	672	676	679	682	683	683	686	693	694	695	697	698	700	703	703	704	704	719	719	722	723	723	732	732	736	737	739	740	748	752	753	755	756	756	756	756	758	779	779	780	784	786	788	788	800	804	804	806	810	810	812	815	827	829	829	837	839	839	848	854	854	862	867	869	873	873	878	880	884	884	896	913	913	913	915	917	920	927	930	932	935	937	950	950	966	969	972	974	980	983	985	988	988	997	1020	1020	1023	1023	1048	1048	1048	1055	1058	1058	1061	1064	1064	1064	1068	1068	1064	1064	1064	0	0	0	0	0	0	0	0	4581	4581	4643	4581	4581	4581	1443	1449	1449	1449	4643	4643	0	0	0	0	0	0	0	0	0	0	4977	4977	5125	5202	5202	5125	5125	5125	5125	5125	5125	5125	5125	5125	5125	5202	5202	5202	5202	5202	5125	5125	5125	5125	5050	5050	0	0	0	0	0	0	0	0	0	0	0	0	0	0	0	0	0	0	0	0	6853	6992	6992	0	0	0	0	0	0	0	0	0	0	0	0	0	0	0	0	0	0	0	0	0	0	0	0	7959	7779	7779	7959	7779	7779	7779	7779	7779	7779	7779	7779	7779	7779	7779	7959	7959	7959	8146	8146	7959	7959	7959	7959	7959	7959	7959	8146	8146	8146	8146	8146	8146	8146	7959	7959	8146	7959	7959	0	0	0	0	0	0	0	0	0	0	0	0	0	0	0	5282	5282	5282	5282	5282	5202	5282	5282	5282	5282	5282	5364	5364	5282	5282	5282	5282	5282	3698	3659	3621	3583	3583	3583	3583	3583	3583	3583	3583	3583	3621	3621	3583	3583	3583	3583	3583	3583	3583	0	0	0	3583	3583	3583	3583	3546	3583	3546	3546	3546	3583	3583	3583	3583	3583	3583	3583	3583	3583	3583	3583	3583	0	0	0	0	0	0	0	0	0	0	0	0	0	0	4581	4643	4643	4643	4581	4581	4581	4581	4643	4581	4581	4581	4581	4581	4581	4581	4581	4581	4581	4581	4581	4581	4581	4581	4581	4581	4581	4581	4581	4581	4581	4581	4581	4581	4581	4581	4581	4581	4581	4581	4581	4581	4581	4581	4581	4581	4581	4581	4581	4581	4581	4581	4581	4521	4581	4581	4581	4581	4581	4521	4581	4521	4521	4521	4463	4463	4463	4350	4406	4463	4521	4521	4581	4581	4643	4643	4643	4643	4643	4643	4643	4643	4643	4643	4643	4643	4643	4581	4581	4581	4581	4581	4581	4581	4581	4581	4581	4581	4581	4581	4643	4643	4643	4643	4643	4643	4643	4643	4643	4643	4643	4643	4643	4581	4643	4643	4581	4581	4581	4581	4581	4581	4581	4581	4581	4521	4521	4581	4581	4581	4581	4581	4521	4521	4463	4406	4406	4350	4350	4350	4406	4406	4463	4521	4581	4581	4581	4581	4581	0	7959	7959	7959	7959	7959	7959	7959	7779	7779	7779	7779	0	0	0	0	0	0	0	0	0	0	0	0	0	0	0	0	0	0	0	0	0	0	0	0	0	0	0	0	0	0	0	0	0	0	0	0	0	0	0	0	0	0	0	0	0	0	0	0	0	0	0	0	3246	3246	3246	3246	3246	3246	3216	3216	3216	3186	3186	3157	3157	3157	3157	3157	3186	3157	3186	3157	3157	3157	3157	3157	3157	3129	3129	3101	3101	0	0	0	0	0	0	0	0	0	0	0	0	0	0	0	0	0	0	0	0	0	0	0	0	0	0	0	0	0	0	0	0	0	0
0	0	0	0	0	0	0	0	0	0	0	0	0	671	670	671	674	675	678	679	680	682	683	683	694	695	694	697	698	701	701	703	704	704	719	720	720	722	726	731	731	734	737	739	740	745	750	752	753	753	753	755	755	0	779	777	779	782	786	786	789	802	804	806	808	810	812	814	817	819	819	819	841	841	845	850	856	856	858	860	865	869	869	878	882	884	889	896	905	910	913	915	915	920	920	930	937	940	940	945	955	963	972	974	977	983	985	988	991	997	997	1020	1020	1023	1023	1033	1033	1048	1052	1058	1058	1061	1064	1068	1068	1068	1068	1064	1064	0	0	0	0	0	0	0	0	0	4643	4581	4581	4581	4581	4581	4581	1449	1449	1449	4643	4643	0	0	0	0	0	0	0	0	0	0	5125	5125	5125	5125	5125	5125	5125	5125	5125	5050	5125	5125	5125	5202	5125	5202	5202	5202	5202	5202	5125	5125	5050	5050	4977	4977	0	0	0	0	0	0	0	0	0	0	0	0	0	0	0	0	0	0	0	0	6992	6992	6992	6992	0	0	0	0	0	0	0	0	0	0	0	0	0	0	0	0	0	0	0	0	0	0	0	0	7779	7959	7959	7779	7779	7779	7779	7779	7779	7779	7779	7779	7779	7779	7959	7959	7959	7959	7959	7959	7959	7959	7959	7959	7959	8146	8146	8146	8146	8146	8146	7959	7959	7959	7959	8146	7959	7959	7959	0	0	0	0	0	0	0	0	0	0	0	0	0	0	5202	5202	5282	5282	5282	5282	5282	5282	5282	5282	5364	5364	5364	5282	5282	5282	5282	5282	3659	3621	3583	3583	3583	3583	3583	3583	3583	3583	3583	3583	3621	3621	3621	3583	3583	3583	3583	3546	3546	0	0	0	3583	3583	3583	3583	3583	3583	3546	3546	3546	3583	3583	3583	3583	3583	3583	3583	3583	3583	3583	3583	3583	0	0	0	0	0	0	0	0	0	0	0	0	0	0	4581	4643	4581	4581	4581	4581	4581	4581	4581	4581	4581	4581	4581	4581	4581	4581	4581	4581	4581	4581	4581	4581	4581	4581	4581	4581	4581	4581	4581	4581	4581	4581	4581	4581	4581	4581	4581	4581	4581	4581	4581	4581	4581	4581	4581	4581	4581	4581	4581	4581	4581	4581	4581	4581	4581	4581	4581	4581	4581	4521	4581	4521	4521	4463	4463	4350	4463	4350	4406	4406	4463	4521	4521	4643	4643	4643	4643	4643	4643	4643	4643	4581	4643	4643	4643	4643	4643	4581	4643	4581	4581	4581	4581	4581	4581	4581	4581	4581	4581	4581	4643	4643	4643	4643	4643	4643	4643	4643	4643	4581	4643	4643	4643	4581	4643	4581	4643	4643	4643	4581	4581	4581	4581	4581	4581	4581	4581	4581	4581	4581	4581	4581	4581	4521	4521	4463	4406	4350	4350	4350	4350	4406	4406	4463	4521	4581	4581	4581	4581	0	7959	7959	7959	7959	7959	7959	7959	7779	7779	7779	7779	0	0	0	0	0	0	0	0	0	0	0	0	0	0	0	0	0	0	0	0	0	0	0	0	0	0	0	0	0	0	0	0	0	0	0	0	0	0	0	0	0	0	0	0	0	0	0	0	0	0	0	0	3246	3216	3246	3246	3246	3246	3216	3216	3216	3216	3216	3186	3186	3186	3186	3186	3186	3186	3186	3157	3186	3157	3157	3157	3129	3129	3101	3073	3073	0	0	0	0	0	0	0	0	0	0	0	0	0	0	0	0	0	0	0	0	0	0	0	0	0	0	0	0	0	0	0	0	0	0
0	0	0	0	0	0	0	0	0	0	0	0	0	671	670	670	674	674	674	675	676	680	683	684	693	693	695	697	697	701	704	705	705	705	719	720	722	723	728	729	731	734	737	739	740	742	750	752	753	753	755	755	755	0	777	775	777	780	780	789	795	802	806	806	808	810	812	815	817	819	821	821	837	841	843	848	854	856	856	860	865	869	869	882	884	887	889	896	896	896	913	913	915	930	932	937	940	940	942	948	955	963	969	974	980	983	985	988	994	1000	1003	1017	1020	1023	1030	1033	1045	1045	1048	1058	1058	1061	1064	1068	1068	1071	1068	1071	1071	0	0	0	0	0	0	0	0	0	4643	4581	4581	4581	4581	4581	4581	4581	4581	4706	4706	0	0	0	0	0	0	0	0	0	0	0	5125	5125	5125	5125	5125	5125	5050	5050	5050	5050	5125	5125	5202	5202	5202	5202	5202	5202	5202	5202	5202	5125	5050	5050	4977	4977	0	0	0	0	0	0	0	0	0	0	0	0	0	0	0	0	0	6720	6720	6853	6992	6992	6992	6992	0	0	0	0	0	0	0	0	0	0	0	0	0	0	0	0	0	0	0	0	0	0	0	0	0	7959	7779	7779	7779	7608	7779	7608	7779	7779	7779	7779	7779	7779	7779	7779	7959	7959	7959	7779	7779	7959	7959	8146	7959	8146	8146	8146	8146	8146	7959	7959	7959	7779	7779	7959	7959	7779	7779	7779	0	0	0	0	0	0	0	0	0	0	0	0	0	5202	5202	5282	5282	5282	5282	5282	5364	5364	5364	5364	5364	5364	5282	5282	5282	5282	5282	3659	3621	3583	3583	3583	3583	3583	3583	3583	3583	3546	3546	3583	3583	3583	3583	3583	3583	3583	3546	3546	0	0	0	0	3583	3583	3583	3583	3583	3583	3583	3583	3583	3583	3583	3583	3583	3583	3583	3583	3583	3583	3583	3583	3583	0	0	0	0	0	0	0	0	0	0	0	0	0	4581	4643	4643	4581	4581	4581	4581	4581	4581	4581	4581	4581	4581	4581	4581	4521	4581	4581	4581	4581	4581	4581	4581	4581	4581	4581	4581	4581	4581	4581	4581	4581	4581	4581	4581	4581	4581	4581	4581	4581	4581	4581	4581	4581	4581	4581	4581	4581	4581	4581	4581	4581	4581	4581	4581	4581	4581	4581	4581	4521	4521	4521	4521	4463	4463	4406	4406	4350	4350	4463	4463	4521	4521	4581	4643	4643	4643	4643	4643	4643	4643	4581	4581	4643	4643	4581	4581	4581	4643	4581	4581	4581	4581	4581	4581	4581	4581	4581	4581	4643	4643	4643	4643	4643	4643	4643	4643	4643	4581	4581	4581	4581	4643	4581	4643	4643	4643	4643	4643	4581	4581	4581	4581	4581	4581	4581	4581	4581	4581	4581	4581	4581	4581	4521	4521	4463	4406	4406	4350	4350	4406	4406	4406	4463	4581	4581	4581	4643	4643	7959	7959	7959	7779	7959	7779	7779	7779	7779	7779	7779	7779	0	0	0	0	0	0	0	0	0	0	0	0	0	0	0	0	0	0	0	0	0	0	0	0	0	0	0	0	0	0	0	0	0	0	0	0	0	0	0	0	0	0	0	0	0	0	0	0	0	0	0	3246	3246	3216	3246	3246	3246	3246	3246	3216	3216	3216	3186	3186	3186	3186	3186	3186	3186	3186	3186	3157	3186	3157	3157	3129	3129	3101	3073	3046	3046	0	0	0	0	0	0	0	0	0	0	0	0	0	0	0	0	0	0	0	0	0	0	0	0	0	0	0	0	0	0	0	0	0	0
0	0	0	0	0	0	0	0	0	0	0	0	0	0	670	670	674	674	672	675	675	675	675	675	697	697	695	697	701	703	704	705	705	705	716	719	720	725	728	731	732	734	737	739	740	742	748	748	750	752	753	753	753	779	777	775	777	782	782	789	795	802	808	808	808	810	812	815	815	817	821	821	833	837	841	848	854	856	858	860	865	867	867	880	880	887	889	901	903	910	910	913	915	915	935	940	940	940	942	945	958	963	966	972	972	983	985	991	1000	1003	1006	1014	1020	1023	1026	1030	1045	1045	1048	1061	1055	1058	1064	1064	1064	1068	1068	1068	1068	0	0	0	0	0	0	0	0	0	4643	4581	4643	4643	4643	4643	4581	4521	4521	4521	4706	0	0	0	0	0	0	0	0	0	0	0	0	5125	5125	5125	5125	5125	5050	5050	5125	5050	5050	5125	5202	5202	5202	5202	5202	5202	5202	5202	5202	5125	5050	5125	5050	5050	0	0	0	0	0	0	0	0	0	0	0	0	0	0	0	0	0	6720	6720	6853	6992	6992	6992	6992	0	0	0	0	0	0	0	0	0	0	0	0	0	0	0	0	0	0	0	0	0	0	0	0	0	7959	7779	7779	7779	7779	7608	7608	7779	7779	7779	7779	7779	7779	7779	7779	7779	7779	7779	7779	7779	7779	7959	8146	7959	8146	8146	8146	8146	7959	7959	7959	7959	7959	7779	7959	7779	7779	7779	7779	0	0	0	0	0	0	0	0	0	0	0	0	0	0	5202	5282	5282	5282	5282	5282	5364	5364	5364	5364	5364	5364	5282	5282	5282	5282	5282	3698	3659	3621	3621	3583	3583	3583	3583	3583	3583	3546	3546	3583	3583	3621	3583	3621	3621	3583	3583	3546	0	0	0	0	3546	3546	3583	3583	3583	3583	3583	3583	3583	3583	3583	3583	3583	3583	3583	3583	3583	3583	3583	3583	3583	0	0	0	0	0	0	0	0	0	0	0	0	0	4581	4643	4581	4581	4581	4581	4581	4581	4581	4581	4581	4581	4581	4581	4521	4521	4581	4581	4581	4581	4581	4581	4581	4581	4581	4581	4581	4581	4581	4581	4581	4581	4581	4581	4581	4581	4581	4581	4581	4581	4581	4581	4581	4581	4581	4581	4581	4581	4581	4581	4581	4581	4581	4581	4581	4581	4581	4581	4581	4521	4521	4521	4521	4463	4463	4406	4406	4350	4350	4406	4406	4463	4521	4581	4643	4643	4643	4643	4643	4643	4643	4581	4643	4643	4643	4581	4581	4643	4643	4643	4643	4581	4581	4581	4581	4581	4581	4581	4643	4643	4643	4643	4643	4643	4643	4581	4643	4643	4581	4581	4581	4581	4581	4581	4643	4643	4643	4643	4643	4581	4581	4581	4581	4581	4581	4581	4581	4581	4581	4581	4581	4581	4581	4581	4581	4463	4463	4406	4350	4350	4406	4406	4406	4521	4581	4581	4643	4643	4643	7779	7959	7959	7779	7779	7779	7608	7779	7608	7608	7608	7608	0	0	0	0	0	0	0	0	0	0	0	0	0	0	0	0	0	0	0	0	0	0	0	0	0	0	0	0	0	0	0	0	0	0	0	0	0	0	0	0	0	0	0	0	0	0	0	0	0	0	0	3216	3246	3216	3246	3246	3246	3246	3246	3216	3216	3186	3186	3186	3157	3186	3186	3186	3186	3186	3186	3157	3186	3157	3157	3157	3129	3073	3073	3046	3046	0	0	0	0	0	0	0	0	0	0	0	0	0	0	0	0	0	0	0	0	0	0	0	0	0	0	0	0	0	0	0	0	0	0
0	0	0	0	0	0	0	0	0	0	0	0	0	0	670	672	672	674	674	676	676	676	689	689	695	695	694	698	701	703	705	710	708	710	716	720	722	726	728	729	731	734	737	739	739	740	745	748	750	752	753	753	753	779	779	779	777	780	780	788	788	804	808	808	810	812	814	815	817	819	823	827	833	837	841	848	852	854	856	856	862	867	867	878	884	889	894	905	905	908	910	910	913	915	937	940	942	942	942	945	958	963	966	974	977	980	985	991	1003	1006	1008	1014	1017	1020	1023	1030	1042	1042	1048	1061	1055	1058	1061	1064	1064	1061	1064	1064	1064	0	0	0	0	0	0	0	0	0	4643	4643	4643	4643	4643	4643	4643	4643	4643	4643	0	0	0	0	0	0	0	0	0	0	0	0	0	5125	5125	5125	5202	5125	5125	5125	5125	5050	5125	5125	5202	5202	5202	5202	5202	5202	5282	5202	5202	5202	5050	5050	4977	4977	0	0	0	0	0	0	0	0	0	0	0	0	0	0	0	0	0	0	0	0	0	6992	6992	0	0	0	0	0	0	0	0	0	0	0	0	0	0	0	0	0	0	0	0	0	0	0	0	0	0	7779	7779	7779	7779	7608	7608	7608	7608	7779	7779	7779	7779	7959	7779	7779	7779	7779	7779	7608	7608	7608	7779	7779	7959	8146	8146	8146	8146	8146	7959	7959	7959	7959	7779	7779	7779	7779	7779	7608	7608	7608	0	0	0	0	0	0	0	0	0	0	0	5282	5282	5282	5364	5364	5364	5364	5364	5364	5364	5364	5364	5364	5282	5282	5282	5282	5282	3659	3621	3621	3621	3583	3583	3583	3583	3583	3583	3546	3546	3583	3583	3621	3621	3621	3621	3621	3583	3583	0	0	0	0	3546	3583	3583	3583	3583	3583	3583	3546	3583	3583	3583	3583	3583	3583	3583	3546	3583	3583	3583	3583	0	0	0	0	0	0	0	0	0	0	0	0	0	4581	4521	4581	4581	4581	4581	4581	4581	4581	4581	4581	4581	4581	4581	4581	4581	4581	4581	4581	4581	4581	4581	4581	4581	4581	4581	4521	4581	4581	4581	4581	4581	4581	4581	4581	4581	4581	4581	4581	4581	4581	4581	4581	4581	4581	4581	4581	4581	4581	4581	4581	4581	4581	4581	4581	4581	4581	4581	4581	4581	4581	4521	4521	4521	4463	4463	4406	4406	4350	4406	4406	4463	4463	4521	4581	4643	4581	4643	4643	4643	4643	4643	4643	4643	4643	4643	4581	4581	4643	4643	4581	4643	4581	4581	4581	4581	4581	4581	4643	4581	4643	4643	4643	4643	4643	4643	4581	4581	4581	4581	4581	4581	4581	4581	4581	4643	4643	4643	4643	4643	4581	4581	4581	4581	4581	4581	4581	4581	4581	4581	4581	4581	4581	4521	4581	4463	4463	4406	4406	4350	4350	4406	4406	4463	4521	4581	4643	4643	4643	4643	7779	7959	7959	7779	7779	7779	7779	7779	7608	7608	7608	7608	0	0	0	0	0	0	0	0	0	0	0	0	0	0	0	0	0	0	0	0	0	0	0	0	0	0	0	0	0	0	0	0	0	0	0	0	0	0	0	0	0	0	0	0	0	0	0	0	0	0	0	3216	3246	3216	3216	3246	3246	3246	3216	3186	3216	3186	3186	3186	3186	3186	3186	3186	3186	3157	3186	3157	3157	3129	3157	3157	3129	3101	3073	3073	3073	0	0	0	0	0	0	0	0	0	0	0	0	0	0	0	0	0	0	0	0	0	0	0	0	0	0	0	0	0	0	0	0	0	0
0	642	644	645	646	647	650	651	651	651	0	0	0	0	669	672	675	675	675	676	678	678	689	689	693	695	695	697	701	704	705	710	710	710	714	720	722	725	728	729	732	734	737	739	739	740	742	747	750	753	758	758	758	777	777	777	775	779	779	789	789	797	808	802	804	814	815	817	815	819	827	831	835	839	839	845	850	854	856	858	862	867	867	873	887	894	898	905	905	908	910	908	910	915	937	940	942	942	942	942	955	961	966	974	977	980	983	991	1000	1003	1003	1014	1020	1023	1030	1033	1042	1045	1048	1058	1052	1055	1061	1061	1061	1064	1068	1068	1064	0	0	0	0	0	0	0	0	4706	4643	4643	4643	4643	4643	4643	4643	4643	4643	4643	0	0	0	0	0	0	0	0	0	0	0	0	0	5125	5050	5125	5125	5125	5125	5125	5125	5050	5125	5125	5125	5202	5202	5202	5202	5202	5202	5202	5202	5202	5125	5050	5050	5050	5050	0	0	0	0	0	0	0	0	0	0	0	0	0	0	0	0	0	0	0	0	0	0	0	0	0	0	0	0	0	0	0	0	0	0	0	0	0	0	0	0	0	0	0	0	0	0	0	0	7779	7608	7608	7608	7608	7608	7608	7608	7779	7779	7779	7959	7959	7959	7959	7779	7779	7779	7608	7608	7779	7959	8146	7959	8146	7959	8146	7959	7959	7959	7959	7959	7779	7779	7779	7779	7779	7779	7779	7608	7608	7608	0	0	0	0	0	0	0	0	0	0	5282	5282	5282	5364	5282	5282	5364	5364	5364	5364	5364	5282	5364	5282	5282	5282	5282	5282	3659	3621	3621	3583	3583	3583	3583	3546	3546	3546	3546	3546	3583	3583	3583	3583	3583	3621	3583	3546	3546	0	0	0	0	3546	3583	3583	3583	3583	3583	3583	3583	3583	3583	3583	3583	3583	3583	3583	3546	3546	3546	3546	3546	0	0	0	0	0	0	0	0	0	0	0	0	0	4581	4463	4581	4581	4581	4581	4581	4521	4581	4581	4581	4581	4581	4581	4581	4581	4581	4581	4581	4581	4581	4581	4581	4581	4581	4581	4521	4521	4581	4581	4581	4581	4581	4581	4581	4581	4581	4581	4581	4581	4581	4581	4581	4581	4581	4581	4581	4581	4581	4581	4581	4581	4581	4581	4581	4581	4581	4581	4581	4581	4521	4521	4521	4463	4463	4463	4406	4350	4350	4406	4406	4463	4463	4521	4581	4643	4581	4581	4643	4643	4643	4643	4643	4581	4643	4643	4581	4643	4643	4643	4643	4643	4581	4581	4581	4581	4581	4581	4581	4581	4581	4643	4643	4643	4643	4581	4581	4581	4581	4581	4581	4581	4581	4581	4581	4643	4643	4643	4643	4643	4643	4643	4581	4581	4581	4581	4581	4581	4581	4581	4581	4581	4581	4521	4581	4581	4521	4463	4406	4350	4350	4406	4406	4406	4463	4581	4581	4581	4643	4643	4643	7959	7959	7959	7779	7779	7779	7779	7779	7608	7608	7608	0	0	0	0	0	0	0	0	0	0	0	0	0	0	0	0	0	0	0	0	0	0	0	0	0	0	0	0	0	0	0	0	0	0	0	0	0	0	0	0	0	0	0	0	0	0	0	0	0	0	0	3216	3246	3216	3246	3246	3216	3216	3186	3186	3216	3186	3186	3186	3157	3186	3157	3186	3186	3157	3186	3157	3157	3129	3157	3157	3129	3101	3073	3073	3073	0	0	0	0	0	0	0	0	0	0	0	0	0	0	0	0	0	0	0	0	0	0	0	0	0	0	0	0	0	0	0	0	0	0
0	642	644	645	646	648	648	651	652	652	0	0	0	0	671	671	674	675	675	676	678	678	689	689	687	695	695	697	700	703	704	713	713	714	716	720	722	722	726	728	731	734	737	739	739	740	742	747	752	756	758	760	760	760	777	777	775	780	780	788	789	795	808	802	810	815	815	817	819	819	829	831	835	839	841	843	848	852	856	860	862	867	867	880	887	887	894	901	901	905	908	910	910	915	935	940	942	942	942	945	953	958	966	974	977	980	985	991	1000	1003	1006	1020	1020	1026	1030	1033	1036	1042	1055	1058	1055	1058	1061	1061	1061	1064	1064	1064	1071	0	0	0	0	0	0	0	0	4706	4643	4643	4643	4643	4643	4643	4643	4643	4643	4643	0	0	0	0	0	0	0	0	0	0	0	0	4977	5050	5050	5050	5125	5125	5125	5125	5125	5125	5125	5125	5125	5202	5202	5202	5202	5202	5202	5202	5202	5202	5125	5050	4977	4977	5050	0	0	0	0	0	0	0	0	0	0	0	0	0	0	0	0	0	0	0	0	0	0	0	0	0	0	0	0	0	0	0	0	0	0	0	0	0	0	0	0	0	0	0	0	0	0	0	0	0	7608	7608	7608	7608	7444	7608	7608	7779	7608	7779	7779	7779	7779	7959	7779	7779	7608	7608	7444	7608	7779	7959	7959	8146	7959	7959	7959	7959	7959	7779	7779	7779	7779	7779	7779	7779	7779	7779	7608	7608	7608	7608	0	0	0	0	0	0	0	0	0	5282	5364	5364	5364	5282	5282	5364	5364	5364	5282	5282	5282	5282	5282	5282	5282	5282	5282	3659	3659	3621	3583	3583	3583	3583	3546	3546	3546	3546	3546	3583	3583	3583	3621	3621	3621	3621	3583	3583	0	0	0	0	3546	3583	3583	3583	3583	3583	3583	3583	3583	3583	3583	3583	3583	3583	3583	3546	3546	3546	3583	3583	0	0	0	0	0	0	0	0	0	0	0	0	0	0	4463	4521	4521	4521	4521	4521	4521	4521	4581	4581	4581	4581	4581	4581	4581	4581	4581	4581	4581	4581	4581	4581	4581	4521	4521	4521	4521	4581	4581	4581	4581	4581	4581	4581	4581	4581	4581	4581	4581	4581	4581	4581	4521	4521	4521	4581	4581	4581	4581	4581	4581	4581	4581	4581	4581	4581	4581	4581	4521	4521	4521	4521	4463	4463	4463	4463	4406	4350	4350	4406	4463	4463	4521	4581	4643	4643	4643	4643	4643	4643	4643	4643	4643	4643	4643	4643	4643	4643	4643	4643	4581	4581	4581	4581	4581	4581	4581	4581	4581	4581	4643	4643	4643	4643	4581	4581	4581	4581	4581	4581	4581	4581	4643	4643	4643	4643	4643	4643	4643	4581	4581	4581	4581	4581	4581	4581	4581	4521	4521	4521	4521	4521	4521	4521	4521	4521	4521	4406	4350	4350	4350	4406	4406	4521	4581	4581	4581	4643	4643	4643	7959	7959	7779	7779	7608	7608	7779	7444	7444	7444	7444	0	0	0	0	0	0	0	0	0	0	0	0	0	0	0	0	0	0	0	0	0	0	0	0	0	0	0	0	0	0	0	0	0	0	0	0	0	0	0	0	0	0	0	0	0	0	0	0	0	0	0	0	0	3186	3216	3216	3186	3186	3186	3186	3186	3186	3186	3186	3186	3186	3157	3157	3186	3157	3186	3157	3157	3129	3129	3157	3129	3129	3101	3073	3073	0	0	0	0	0	0	0	0	0	0	0	0	0	0	0	0	0	0	0	0	0	0	0	0	0	0	0	0	0	0	0	0	0	0
0	0	645	645	646	650	651	652	652	652	0	0	0	0	669	670	670	674	675	676	676	676	689	695	695	695	697	698	700	703	704	708	713	716	717	720	722	722	725	726	732	732	737	739	739	739	742	752	753	756	758	767	767	770	775	775	775	780	780	786	786	786	808	810	810	815	815	817	819	821	829	831	835	837	837	841	845	850	865	865	865	869	869	878	884	891	894	898	898	903	908	908	910	915	932	940	942	942	945	945	948	955	969	972	974	977	983	991	1000	1003	1006	1017	1023	1026	1033	1036	1039	1042	1055	1055	1055	1058	1058	1061	1061	1061	1064	1064	1071	0	0	0	0	0	0	0	0	4706	4706	4643	4643	4643	4643	4643	4643	4643	4643	4643	0	0	0	0	0	0	0	0	0	0	0	0	4977	5050	5050	5050	5125	5125	5125	5125	5050	5050	5125	5125	5125	5125	5202	5202	5202	5202	5202	5202	5202	5202	5202	5125	5125	5125	5125	0	0	0	0	0	0	0	0	0	0	0	0	0	0	0	0	0	0	0	0	0	0	0	0	0	0	0	0	0	0	0	0	0	0	0	0	0	0	0	0	0	0	0	0	0	0	0	0	0	7608	7608	7608	7608	7444	7444	7444	7608	7608	7779	7779	7779	7779	7959	7779	7779	7608	7444	7287	7608	7608	7608	7779	7959	7779	7959	7959	7959	7959	7779	7779	7779	7779	7779	7779	7779	7779	7608	7608	7608	7608	7608	0	0	0	0	0	0	0	0	0	5282	5282	5282	5282	5282	5282	5282	5364	5364	5282	5282	5282	5282	5282	5282	5202	5202	3659	3659	3621	3621	3583	3583	3583	3546	3546	3546	3546	3546	3546	3583	3583	3583	3621	3621	3621	3621	3621	3621	0	0	0	0	3583	3583	3583	3583	3583	3583	3583	3583	3583	3583	3583	3583	3583	3583	3583	3546	3546	3546	3546	3546	3583	0	0	0	0	0	0	0	0	0	0	0	0	0	0	4350	4463	4463	4521	4521	4521	4521	4521	4521	4521	4521	4521	4521	4521	4581	4581	4581	4581	4581	4581	4581	4581	4521	4521	4521	4521	4581	4581	4581	4581	4581	4581	4581	4581	4581	4581	4581	4581	4581	4521	4521	4521	4521	4521	4581	4581	4581	4581	4581	4581	4581	4581	4581	4581	4581	4581	4581	4521	4521	4521	4463	4463	4463	4463	4463	4406	4406	4406	4463	4463	4463	4521	4581	4643	4643	4643	4643	4643	4643	4643	4643	4581	4581	4581	4581	4581	4581	4581	4581	4581	4581	4581	4581	4581	4581	4581	4581	4643	4643	4643	4643	4643	4643	4581	4581	4581	4581	4581	4581	4581	4581	4643	4643	4643	4643	4643	4581	4643	4581	4581	4581	4581	4581	4581	4581	4581	4581	4521	4521	4521	4521	4463	4521	4463	4521	4521	4406	4406	4406	4406	4406	4463	4463	4521	4581	4581	4581	4581	4643	4643	7959	7779	7608	7608	7444	7608	7444	7444	7287	7287	0	0	0	0	0	0	0	0	0	0	0	0	0	0	0	0	0	0	0	0	0	0	0	0	0	0	0	0	0	0	0	0	0	0	0	0	0	0	0	0	0	0	0	0	0	0	0	0	0	0	0	0	0	3186	3216	3186	3186	3186	3157	3157	3157	3157	3157	3186	3157	3157	3157	3186	3186	3186	3157	3157	3157	3157	3157	3157	3157	3129	3101	3073	3073	0	0	0	0	0	0	0	0	0	0	0	0	0	0	0	0	0	0	0	0	0	0	0	0	0	0	0	0	0	0	0	0	0	0
0	0	645	645	647	647	651	651	651	652	0	0	0	0	669	670	670	674	674	674	676	676	0	695	694	694	698	698	701	703	704	707	713	714	716	720	722	723	725	726	729	732	736	740	740	740	753	753	755	756	758	761	761	768	773	775	777	777	780	780	784	784	808	810	812	812	814	817	819	825	829	831	833	835	837	839	841	845	867	867	871	869	873	878	880	891	894	898	901	903	908	908	908	917	930	940	940	942	942	948	950	955	966	963	974	977	985	991	1000	1003	1006	1014	1023	1026	1033	1036	1042	1045	1045	1055	1055	1058	1061	1061	1058	1061	1061	1061	0	0	0	0	0	0	0	0	0	4706	4643	4706	4706	4643	4643	4643	4643	4643	4581	4581	0	0	0	0	0	0	0	0	0	0	4906	4906	4977	5050	5050	5050	5125	5202	5125	5125	5050	5050	5125	5125	5125	5125	5202	5202	5202	5282	5282	5202	5202	5202	5202	5125	5125	5202	5202	0	0	0	0	0	0	0	0	0	0	0	0	0	0	0	0	0	0	0	0	0	0	0	0	0	0	0	0	0	0	0	0	0	0	0	0	0	0	0	0	0	0	0	0	0	0	0	0	0	7608	7608	7608	7608	7444	7444	7444	7608	7608	7608	7779	7779	7779	7959	7779	7779	7608	7444	7137	7287	7287	7444	7608	7779	7779	7779	7959	7959	7959	7959	7779	7779	7779	7779	7779	7779	7779	7608	7779	7779	7608	0	0	0	0	0	0	0	0	0	5282	5282	5282	5282	5282	5282	5282	5364	5364	5364	5282	5282	5282	5282	5282	5202	5202	5202	3698	3659	3621	3621	3583	3583	3583	3583	3546	3546	3546	3546	3546	3583	3583	3583	3583	3621	3621	3621	3621	3621	0	0	0	0	3621	3583	3583	3583	3583	3583	3583	3583	3583	3583	3583	3583	3583	3583	3583	3546	3546	3546	3546	3546	3546	0	0	0	0	0	0	0	0	0	0	0	0	0	0	4243	4350	4406	4463	4463	4463	4521	4521	4521	4521	4521	4521	4521	4581	4581	4581	4521	4581	4581	4581	4581	4463	4463	4521	4521	4521	4581	4581	4581	4581	4643	4581	4581	4581	4581	4521	4521	4521	4521	4521	4521	4521	4521	4521	4521	4521	4521	4521	4521	4521	4521	4521	4521	4521	4521	4521	4521	4521	4521	4463	4463	4463	4463	4463	4463	4406	4406	4350	4463	4463	4521	4521	4581	4643	4643	4643	4643	4643	4643	4643	4581	4581	4581	4581	4581	4581	4581	4581	4581	4581	4581	4581	4581	4581	4581	4581	4581	4643	4643	4581	4581	4581	4581	4581	4581	4581	4581	4581	4581	4581	4643	4643	4643	4643	4643	4643	4643	4643	4581	4581	4581	4581	4581	4581	4581	4581	4521	4521	4521	4521	4521	4521	4521	4463	4521	4463	4406	4406	4406	4350	4406	4463	4463	4463	4521	4581	4581	4581	4581	7959	7959	7779	7779	7608	7444	7444	7287	7287	7137	7137	0	0	0	0	0	0	0	0	0	0	0	0	0	0	0	0	0	0	0	0	0	0	0	0	0	0	0	0	0	0	0	0	0	0	0	0	0	0	0	0	0	0	0	0	0	0	0	0	0	0	0	0	0	0	0	3186	3186	3186	3157	3186	3157	3157	3157	3157	3157	3157	3157	3157	3157	3157	3157	3157	3157	3157	3157	3157	3157	3129	3101	3101	3101	0	0	0	0	0	0	0	0	0	0	0	0	0	0	0	0	0	0	0	0	0	0	0	0	0	0	0	0	0	0	0	0	0	0
0	0	645	646	646	653	650	651	651	0	0	0	0	0	0	0	0	0	674	674	0	0	0	693	693	694	697	698	703	704	707	710	714	714	716	720	725	722	728	728	731	732	736	739	740	740	752	753	756	758	760	760	765	768	772	772	777	779	780	780	784	784	810	810	812	812	814	814	821	825	827	831	833	835	837	839	841	845	867	865	871	871	873	875	878	891	894	898	901	903	913	913	915	917	917	937	940	942	945	950	953	955	966	969	972	974	983	988	997	997	1000	1006	1017	1017	1033	1036	1039	1045	1055	1052	1055	1058	1058	1058	1058	1061	1061	1061	1061	0	0	0	0	0	0	0	0	4706	4643	4643	4706	4643	4643	4643	4643	4643	4643	4643	0	0	0	0	0	0	0	0	0	4906	4906	4906	4977	5050	5050	5050	5125	5125	5125	5125	5050	5050	5050	5050	5125	5125	5125	5202	5202	5202	5202	5202	5202	5202	5202	5202	5202	5202	5282	5282	0	0	0	0	0	0	0	0	0	0	0	0	0	0	0	0	0	0	0	0	0	0	0	0	0	0	0	0	0	0	0	0	0	0	0	0	0	0	0	0	0	0	0	0	0	0	0	7608	7608	7608	7608	7608	7608	7608	7444	7444	7608	7608	7779	7779	7779	7959	7779	7779	7608	7444	7287	7287	7287	7608	7779	7779	7779	7779	7959	7959	7959	7959	7959	7959	7779	7779	7779	7779	7779	7779	7779	7779	0	0	0	0	0	0	0	0	0	0	5282	5282	5364	5364	5364	5282	5364	5364	5364	5364	5282	5282	5282	5282	5282	5202	5202	5125	3698	3659	3621	3621	3583	3583	3583	3583	3583	3546	3546	3546	3546	3583	3583	3583	3583	3621	3621	3621	3621	0	0	0	0	0	3621	3583	3583	3583	3583	3583	3583	3583	3583	3583	3583	3583	3583	3583	3583	3546	3546	3546	3546	3546	3546	0	0	0	0	0	0	0	0	0	0	0	4192	4192	4243	4243	4296	4350	4350	4350	4350	4406	4463	4463	4463	4521	4521	4521	4521	4521	4521	4521	4521	4521	4521	4521	4406	4406	4463	4521	4463	4521	4521	4521	4581	4581	4581	4581	4521	4521	4521	4521	4521	4521	4521	4521	4463	4463	4521	4521	4521	4521	4463	4521	4521	4463	4463	4463	4463	4521	4521	4521	4521	4521	4463	4463	4406	4463	4463	4463	4406	4406	4350	4463	4521	4521	4521	4643	4643	4643	4643	4643	4643	4643	4581	4581	4581	4581	4581	4581	4581	4581	4581	4581	4581	4581	4581	4581	4581	4581	4581	4581	4643	4643	4581	4581	4581	4581	4581	4581	4581	4581	4581	4581	4581	4581	4643	4643	4643	4643	4643	4581	4643	4581	4581	4581	4581	4581	4581	4581	4581	4521	4521	4521	4521	4521	4521	4521	4463	4463	4463	4406	4350	4350	4406	4406	4521	4521	4521	4521	4581	4581	4581	4581	7959	7959	7959	7779	7779	7608	7444	7287	7287	7287	7137	7137	0	0	0	0	0	0	0	0	0	0	0	0	0	0	0	0	0	0	0	0	0	0	0	0	0	0	0	0	0	0	0	0	0	0	0	0	0	0	0	0	0	0	0	0	0	0	0	0	0	0	0	0	0	0	0	3157	3157	3157	3157	3157	3157	3157	3157	3157	3157	3129	3129	3157	3157	3157	3157	3157	3157	3157	3157	3157	3157	3129	3101	3101	0	0	0	0	0	0	0	0	0	0	0	0	0	0	0	0	0	0	0	0	0	0	0	0	0	0	0	0	0	0	0	0	0	0
0	0	645	645	647	653	651	651	651	0	0	0	0	0	0	0	0	0	0	0	0	0	689	691	694	694	694	697	704	704	707	710	711	713	716	719	726	723	728	729	731	732	734	739	740	740	740	753	755	755	761	761	765	768	770	775	777	779	780	782	784	784	810	812	812	814	812	814	819	825	827	829	833	833	837	843	843	845	867	865	873	873	875	878	880	882	894	898	901	901	905	913	915	917	927	935	937	942	948	950	953	955	966	969	974	980	983	985	985	997	1000	1006	1017	1023	1033	1039	1039	1048	1052	1052	1055	1058	1058	1058	1058	1061	1061	1061	1061	0	0	0	0	0	0	0	0	4643	4643	4643	4643	4706	4643	4643	4643	4643	4581	4581	0	0	0	0	0	0	0	0	0	4906	4906	4906	4977	4977	5050	5125	5125	5125	5125	5125	5050	5050	5125	5125	5125	5125	5125	5202	5202	5202	5202	5202	5202	5202	5202	5202	5202	5202	5282	5282	0	0	0	0	0	0	0	0	0	0	0	0	0	0	0	0	0	0	0	0	0	0	0	0	0	0	0	0	0	0	0	0	0	0	0	0	0	0	0	0	0	0	0	0	0	0	0	7608	7608	7608	7608	7608	7608	7608	7444	7608	7608	7608	7608	7608	7608	7779	7779	7779	7608	7444	7444	7444	7444	7608	7608	7779	7779	7779	7959	7959	7959	7959	7959	7959	7959	7779	7959	7779	7779	7779	7779	7779	0	0	0	0	0	0	0	0	0	0	5282	5364	5364	5364	5364	5364	5364	5364	5364	5364	5282	5282	5282	5282	5282	5202	5125	5125	3659	3621	3621	3583	3583	3583	3583	3546	3546	3546	3583	3546	3546	3583	3583	3583	3583	3583	3621	3621	3621	0	0	0	0	0	0	3583	3583	3583	3583	3583	3583	3583	3583	3583	3583	3583	3583	3583	3583	3583	3546	3546	3546	3546	3546	0	0	0	0	0	0	0	0	0	0	0	4243	4243	4243	4296	4296	4350	4350	4350	4350	4406	4406	4406	4406	4463	4463	4463	4463	4521	4521	4463	4406	4463	4521	4521	4350	4350	4406	4463	4406	4521	4521	4581	4581	4581	4581	4521	4521	4521	4463	4463	4463	4463	4463	4463	4463	4463	4463	4521	4463	4463	4463	4463	4463	4463	4463	4463	4463	4463	4463	4463	4463	4463	4463	4406	4406	4406	4463	4463	4406	4350	4350	4463	4463	4521	4521	4581	4643	4643	4643	4643	4643	4581	4581	4581	4581	4581	4581	4581	4581	4581	4581	4581	4581	4581	4581	4581	4581	4581	4581	4581	4581	4643	4581	4581	4581	4581	4581	4581	4581	4581	4581	4581	4581	4581	4643	4643	4643	4581	4581	4581	4581	4581	4643	4643	4581	4643	4643	4581	4581	4581	4521	4521	4521	4521	4521	4521	4463	4463	4463	4406	4406	4406	4406	4406	4463	4521	4521	4581	4581	4581	4581	4581	7959	7959	7959	7959	7779	7779	7444	7287	7287	7287	7137	7137	0	0	0	0	0	0	0	0	0	0	0	0	0	0	0	0	0	0	0	0	0	0	0	0	0	0	0	0	0	0	0	0	0	0	0	0	0	0	0	0	0	0	0	0	0	0	0	0	0	0	0	0	0	0	0	3157	3157	3157	3157	3186	3157	3157	3157	3157	3157	3129	3129	3157	3157	3157	3157	3157	3129	3157	3157	3157	3157	3129	3101	3101	0	0	0	0	0	0	0	0	0	0	0	0	0	0	0	0	0	0	0	0	0	0	0	0	0	0	0	0	0	0	0	0	0	0
0	0	0	645	645	655	651	651	651	0	0	0	0	0	0	0	0	0	0	0	0	0	689	691	691	693	694	698	704	705	707	708	711	711	716	719	722	722	725	728	731	734	736	736	739	742	750	753	756	758	760	763	763	767	768	775	777	779	780	782	784	784	810	812	812	814	812	812	819	823	825	829	831	835	839	843	843	845	852	860	878	878	878	878	880	880	891	896	898	901	913	913	917	920	927	932	937	942	950	950	953	958	958	969	977	980	983	985	988	997	1000	1006	1014	1023	1026	1036	1039	1048	1052	1052	1055	1058	1058	1058	1058	1061	1061	1061	0	0	0	0	0	0	0	0	0	4643	4706	4643	4706	4643	4643	4643	4643	4643	4581	4581	0	0	0	0	0	0	0	0	0	4906	4906	4906	4977	4977	4977	5050	5050	5125	5125	5125	5125	5125	5125	5125	5125	5125	5125	5202	5202	5202	5202	5202	5282	5282	5282	5202	5202	5282	5282	5282	0	0	0	0	0	0	0	0	0	0	0	0	0	0	0	0	0	0	0	0	0	0	0	0	0	0	0	0	0	0	0	0	0	0	0	0	0	0	0	0	0	0	0	0	0	0	0	7608	7608	7608	7608	7608	7608	7608	7608	7608	7608	7608	7608	7608	7608	7779	7779	7608	7608	7608	7444	7444	7444	7608	7608	7779	7779	7779	7779	7779	7779	7959	7779	7959	7779	7779	7959	7779	7779	7779	7959	7959	7959	0	0	0	0	0	0	0	0	0	5282	5364	5364	5364	5364	5364	5364	5364	5364	5364	5282	5282	5202	5282	5202	5125	5125	5050	3698	3621	3621	3583	3583	3583	3546	3546	3546	3546	3546	3546	3546	3583	3583	3583	3583	3583	3621	3621	3621	0	0	0	0	0	0	3621	3621	3621	3583	3583	3583	3583	3583	3583	3583	3583	3583	3583	3583	3583	3546	3583	3546	3546	3546	0	0	0	0	0	0	0	0	0	0	0	4243	4243	4243	4243	4243	4296	4296	4296	4296	4350	4350	4350	4350	4406	4463	4406	4463	4463	4463	4406	4296	4350	4350	4296	4296	4296	4406	4463	4406	4463	4463	4521	4521	4521	4521	4463	4463	4463	4406	4406	4463	4406	4463	4463	4406	4406	4406	4463	4406	4406	4406	4463	4406	4406	4406	4406	4406	4406	4463	4463	4463	4463	4406	4406	4406	4406	4350	4350	4350	4350	4296	4463	4463	4463	4521	4581	4581	4643	4643	4643	4581	4581	4581	4581	4581	4581	4581	4581	4581	4581	4581	4581	4581	4581	4581	4581	4581	4581	4581	4581	4581	4581	4581	4581	4581	4581	4581	4581	4581	4581	4581	4581	4581	4581	4643	4581	4581	4581	4581	4581	4581	4581	4581	4581	4581	4581	4581	4581	4581	4581	4521	4521	4521	4521	4521	4521	4463	4521	4463	4406	4406	4406	4406	4406	4406	4463	4521	4581	4581	4581	4581	4581	4581	7959	7959	7959	7779	7779	7608	7444	7287	7137	7137	7137	0	0	0	0	0	0	0	0	0	0	0	0	0	0	0	0	0	0	0	0	0	0	0	0	0	0	0	0	0	0	0	0	0	0	0	0	0	0	0	0	0	0	0	0	0	0	0	0	0	0	0	0	0	0	3216	3186	3157	3157	3186	3186	3157	3186	3186	3157	3157	3129	3129	3157	3157	3157	3129	3157	3157	3129	3157	3157	3157	3129	3101	3101	0	0	0	0	0	0	0	0	0	0	0	0	0	0	0	0	0	0	0	0	0	0	0	0	0	0	0	0	0	0	0	0	0	0
0	0	0	642	642	655	653	655	656	656	657	660	660	0	0	0	0	0	0	0	0	0	689	694	695	695	695	698	703	704	707	710	711	713	716	717	719	722	723	723	732	734	737	739	740	742	748	752	755	755	758	760	760	765	765	775	777	780	780	782	784	784	810	810	810	812	812	814	819	823	825	829	831	833	837	845	843	845	860	860	875	878	878	880	882	884	891	894	896	898	913	913	920	922	927	930	935	937	937	955	958	958	972	969	977	983	985	988	988	1000	1000	1006	1014	1023	1023	1036	1039	1052	1052	1052	1055	1058	1058	1061	1058	1061	1061	1061	0	0	0	0	0	0	0	0	0	4706	4706	4706	4706	4643	4643	4643	4581	4581	4581	4581	0	0	0	0	0	0	0	0	0	4906	4906	4977	4977	4977	4977	5050	5050	5125	5125	5125	5125	5125	5125	5125	5125	5125	5125	5202	5202	5202	5202	5202	5282	5282	5282	5202	5282	5282	5364	5364	0	0	0	0	0	0	0	0	0	0	0	0	0	0	0	0	0	0	0	0	0	0	0	0	0	0	0	0	0	0	0	0	0	0	0	0	0	0	0	0	0	0	0	0	0	0	0	7608	7779	7608	7608	7779	7608	7779	7608	7608	7608	7608	7608	7608	7608	7608	7779	7779	7608	7608	7444	7444	7444	7608	7608	7779	7779	7779	7779	7779	7779	7779	7779	7959	7779	7779	7779	7959	7779	7779	7959	7959	7959	0	0	0	0	0	0	0	0	0	0	5364	5364	5364	5364	5364	5364	5364	5364	5364	5282	5282	5202	5202	5202	5125	5050	5050	3698	3621	3621	3583	3583	3583	3546	3546	3546	3546	3546	3583	3546	3621	3621	3583	3583	3583	3621	3621	3621	0	0	0	0	0	0	3621	3621	3621	3583	3583	3583	3583	3583	3583	3583	3583	3583	3583	3583	3583	3546	3583	3546	3546	3546	0	0	0	0	0	0	0	0	0	0	0	0	0	0	4296	4296	4296	4296	4296	4296	4296	4350	4350	4350	4406	4350	4350	4406	4406	4406	4350	4296	4350	4406	4463	4296	4350	4463	4521	4406	4406	4406	4406	4463	4463	4463	4463	4406	4406	4406	4406	4406	4350	4350	4350	4350	4350	4406	4406	4406	4406	4406	4406	4406	4406	4406	4406	4406	4406	4406	4406	4406	4406	4406	4350	4350	4350	4296	4296	4296	4296	4243	4296	4350	4463	4521	4581	4643	4643	4581	4581	4581	4581	4581	4581	4581	4581	4581	4581	4581	4581	4581	4581	4581	4581	4581	4581	4581	4581	4581	4581	4581	4581	4581	4581	4581	4581	4581	4581	4581	4581	4581	4581	4581	4643	4643	4643	4643	4581	4581	4581	4581	4581	4581	4581	4581	4581	4581	4581	4581	4581	4581	4581	4581	4521	4521	4521	4463	4463	4463	4406	4350	4350	4406	4406	4463	4521	4521	4581	4581	4581	4581	4581	4581	4581	7779	7959	7779	7779	7608	7444	7444	7287	7287	7287	7287	0	0	0	0	0	0	0	0	0	0	0	0	0	0	0	0	0	0	0	0	0	0	0	0	0	0	0	0	0	0	0	0	0	0	0	0	0	0	0	0	0	0	0	0	0	0	0	0	0	0	0	0	0	3186	3186	3157	3157	3186	3186	3186	3186	3186	3157	3157	3157	3157	3157	3157	3157	3157	3157	3129	3129	3129	3129	3129	2237	2237	3101	0	0	0	0	0	0	0	0	0	0	0	0	0	0	0	0	0	0	0	0	0	0	0	0	0	0	0	0	0	0	0	0	0	0
0	0	0	642	642	657	655	655	655	655	656	656	660	0	0	0	0	0	0	0	0	0	0	695	695	695	695	698	703	705	708	710	710	711	714	714	719	720	728	731	732	734	736	739	740	743	743	750	753	755	755	760	763	765	765	772	779	780	780	784	784	810	810	812	812	812	812	814	819	823	825	829	831	831	835	843	839	839	862	862	869	878	878	880	882	884	891	891	896	903	910	913	917	917	925	930	932	942	950	955	958	961	972	969	974	977	983	988	997	1000	1003	1006	1011	1030	1026	1039	1042	1052	1052	1052	1055	1058	1058	1058	1058	1058	1058	1058	0	0	0	0	0	0	0	0	0	4706	4706	4706	4706	4643	4643	4643	4643	4643	4581	4581	0	0	0	0	0	0	0	0	0	4906	4906	4906	4977	4977	5050	5050	5125	5125	5125	5125	5125	5125	5125	5125	5125	5125	5125	5202	5202	5202	5202	5202	5282	5282	5282	5282	5282	5364	5364	5364	0	0	0	0	0	0	0	0	0	0	0	0	0	0	0	0	0	0	0	0	0	0	0	0	0	0	0	0	0	0	0	0	0	0	0	0	0	0	0	0	0	0	0	0	0	0	7608	7608	7608	7608	7779	7779	7608	7779	7779	7608	7608	7608	7608	7608	7608	7608	7779	7608	7608	7444	7444	7444	7287	7287	7608	7608	7779	7779	7779	7779	7779	7779	7779	7779	7779	7779	7959	7779	7779	7779	7779	7779	7779	0	0	0	0	0	0	0	0	0	0	5364	5364	5364	5364	5364	5364	5364	5364	5364	5282	5282	5202	5125	5050	5050	5050	5050	3698	3621	3621	3583	3583	3583	3583	3583	3583	3583	3583	3583	3583	3583	3621	3621	3621	3621	3621	3621	0	0	0	0	0	0	0	3621	3621	3621	3621	3583	3583	3583	3583	3583	3583	3583	3583	3583	3583	3546	3546	3583	3546	3546	3546	0	0	0	0	0	0	0	0	0	0	0	0	0	0	4296	4296	4296	4296	4296	4296	4296	4296	4296	4296	4350	4350	4350	4406	4406	4406	4350	4350	4406	4463	4463	4350	4406	4521	4521	4406	4406	4406	4406	4463	4463	4463	4463	4463	4463	4463	4406	4406	4406	4350	4350	4350	4350	4350	4406	4406	4406	4406	4406	4406	4406	4350	4350	4350	4350	4406	4406	4406	4406	4406	4350	4350	4350	4296	4296	4296	4296	4243	4296	4350	4463	4463	4581	4581	4581	4581	4581	4581	4521	4521	4521	4521	4521	4521	4521	4521	4521	4521	4521	4521	4521	4521	4521	4521	4581	4581	4581	4581	4581	4581	4581	4581	4581	4581	4581	4581	4581	4581	4581	4581	4581	4643	4643	4643	4581	4521	4521	4521	4581	4581	4581	4521	4581	4581	4581	4581	4581	4581	4581	4581	4581	4521	4521	4521	4463	4463	4406	4350	4406	4406	4406	4463	4521	4581	4581	4581	4581	4581	4581	4521	4521	7779	7779	7779	7779	7608	7444	7444	7287	7287	7287	7287	0	0	0	0	0	0	0	0	0	0	0	0	0	0	0	0	0	0	0	0	0	0	0	0	0	0	0	0	0	0	0	0	0	0	0	0	0	0	0	0	0	0	0	0	2327	2327	2312	2312	0	0	0	0	0	3186	3157	3157	3157	3186	3186	3186	3186	3216	3186	3186	3157	3129	3157	3157	3157	3129	3129	3129	3129	3129	3129	2237	2237	2237	0	0	0	0	0	0	0	0	0	0	0	0	0	0	0	0	0	0	0	0	0	0	0	0	0	0	0	0	0	0	0	0	0	0	0
0	0	0	0	0	656	655	655	655	655	656	656	0	0	0	0	0	0	0	0	0	0	694	695	695	695	695	698	698	707	708	710	710	711	714	716	717	720	722	729	732	734	737	739	740	743	748	748	752	756	756	760	763	765	765	773	777	780	782	784	786	786	814	814	812	814	814	814	819	823	825	829	829	831	837	843	843	856	860	860	869	875	878	880	880	882	887	889	896	903	910	913	915	915	927	930	935	937	950	953	955	961	969	969	974	983	985	988	991	1000	1003	1006	1008	1011	1023	1042	1042	1055	1052	1052	1055	1058	1061	1061	1058	1058	1058	1058	0	0	0	0	0	0	0	0	0	4706	4706	4643	4706	4643	4706	4643	4643	4643	4643	4643	0	0	0	0	0	0	0	0	0	4977	4977	4977	4977	4977	5050	5050	5125	5125	5125	5125	5125	5125	5125	5050	5050	5125	5125	5125	5125	5125	5125	5202	5125	5202	5282	5202	5282	5282	5364	5364	0	0	0	0	0	0	0	0	0	0	0	0	0	0	0	0	0	0	0	0	0	0	0	0	0	0	0	0	0	0	0	0	0	0	0	0	0	0	0	0	0	0	0	0	0	7608	7608	7608	7608	7608	7779	7779	7608	7779	7779	7608	7608	7608	7608	7608	7608	7779	7779	7779	7779	7779	7779	7608	7444	7608	7608	7608	7608	7779	7779	7779	7779	7779	7779	7779	7779	7779	7959	7779	7779	7779	7779	7779	7779	0	0	0	0	0	0	0	0	0	0	0	5448	5364	5448	5448	5364	5364	5364	5364	5282	5282	5202	5125	5050	5050	5050	4977	3659	3621	3583	3583	3583	3583	3583	3583	3583	3583	3583	3583	3583	3621	3621	3621	3621	3621	3621	3621	0	0	0	0	0	0	0	3659	3621	3621	3621	3583	3583	3583	3583	3583	3583	3583	3583	3583	3546	3546	3546	3546	3546	3546	0	0	0	0	0	0	0	0	0	0	0	0	0	0	4350	4350	4350	4350	4296	4296	4350	4350	4350	4350	4350	4406	4406	4406	4406	4463	4406	4406	4406	4463	4463	4521	4521	4463	4521	4581	4521	4463	4406	4463	4463	4521	4463	4463	4463	4463	4463	4463	4463	4406	4406	4350	4350	4350	4350	4406	4406	4406	4406	4406	4406	4350	4350	4350	4350	4350	4406	4406	4406	4406	4406	4406	4350	4350	4350	4350	4350	4296	4243	4296	4296	4406	4406	4463	4521	4581	4521	4521	4521	4581	4521	4463	4521	4521	4521	4521	4521	4521	4521	4521	4521	4521	4521	4521	4521	4521	4581	4581	4521	4581	4581	4581	4581	4581	4581	4581	4581	4581	4581	4581	4581	4581	4521	4521	4521	4463	4463	4406	4463	4521	4521	4521	4463	4521	4581	4581	4581	4581	4521	4581	4521	4581	4521	4521	4463	4463	4406	4406	4350	4406	4406	4406	4463	4521	4581	4581	4581	4581	4581	4581	4463	4463	0	7779	7959	7779	7608	7608	7444	7287	7287	7287	0	0	0	0	0	0	0	0	0	0	0	0	0	0	0	0	0	0	0	0	0	0	0	0	0	0	0	0	0	0	0	0	0	0	0	0	0	0	0	0	0	0	0	0	0	2327	2327	2327	2327	2312	2312	2312	2312	2312	2327	2312	2312	2297	2297	2281	2281	2252	2252	2266	2266	2266	3157	3129	3129	3157	3129	3129	3129	3101	3129	2252	2252	2252	2252	0	0	0	0	0	0	0	0	0	0	0	0	0	0	0	0	0	0	0	0	0	0	0	0	0	0	0	0	0	0	0	0	0	0	0
0	0	0	0	0	656	655	656	656	656	656	656	0	0	0	0	0	0	0	0	0	0	693	693	694	694	695	700	707	708	710	710	710	711	713	716	719	722	723	729	732	734	737	739	740	743	748	748	753	756	758	761	763	767	768	773	779	782	784	786	786	788	817	815	814	814	814	819	819	823	825	829	829	831	852	848	850	856	858	860	869	873	878	878	878	882	889	891	898	903	910	913	915	915	925	930	935	942	950	953	958	961	969	972	974	980	983	988	997	1000	1003	1003	1006	1008	1039	1042	1045	1055	1052	1052	1052	1058	1061	1061	1058	1058	1058	1058	0	0	0	0	0	0	0	0	0	4706	4706	4706	4706	4706	4706	4643	4643	4643	4643	4706	4706	0	0	0	0	0	0	0	0	4977	4977	4977	4977	5050	5050	5050	5125	5050	5125	5125	5125	5050	5050	5050	5050	5050	5125	5125	5125	5125	5125	5125	5050	5050	5202	5202	5202	5282	5535	5535	0	0	0	0	0	0	0	0	0	0	0	0	0	0	0	0	0	0	6853	6720	6720	0	0	0	0	0	0	0	0	0	0	0	0	0	0	0	0	0	0	0	0	0	0	0	0	7608	7608	7608	7608	7608	7779	7779	7779	7779	7779	7779	7608	7779	7608	7779	7779	7779	7779	7779	7779	7779	7779	7608	7608	7608	7608	7779	7779	7779	7779	7779	7779	7779	7779	7779	7779	7779	7959	7779	7779	7779	7779	7779	7779	0	0	0	0	0	0	0	0	0	0	0	5535	5448	5535	5535	5448	5364	5364	5364	5282	5282	5202	5202	5125	5050	5050	4977	4977	3583	3583	3583	3583	3546	3546	3583	3583	3583	3583	3583	3583	3621	3621	3621	3621	3621	3621	3621	0	0	0	0	0	0	0	3659	3621	3621	3621	3583	3583	3583	3583	3583	3583	3583	3546	3546	3546	3546	3546	3546	3546	3546	0	0	0	0	0	0	0	0	0	0	0	0	4350	4350	4350	4406	4406	4406	4350	4406	4350	4350	4406	4406	4463	4463	4463	4463	4463	4463	4463	4463	4463	4463	4521	4581	4581	4521	4581	4581	4581	4521	4463	4463	4521	4521	4463	4521	4521	4521	4463	4463	4463	4463	4406	4406	4406	4406	4406	4463	4463	4406	4406	4406	4406	4406	4406	4350	4350	4406	4463	4463	4463	4463	4463	4406	4406	4406	4350	4350	4350	4296	4296	4296	4296	4350	4406	4463	4463	4521	4521	4521	4463	4581	4406	4406	4406	4350	4406	4406	4406	4406	4406	4406	4406	4463	4463	4463	4463	4521	4521	4521	4521	4521	4521	4521	4521	4521	4521	4521	4521	4521	4521	4581	4521	4521	4463	4463	4463	4406	4350	4296	4350	4406	4406	4463	4406	4521	4521	4521	4521	4521	4521	4521	4521	4521	4463	4463	4406	4463	4406	4406	4406	4406	4406	4463	4463	4521	4581	4581	4581	4581	4581	4581	4463	4463	0	7959	7959	7779	7779	7779	0	0	0	0	0	0	0	0	0	0	0	0	0	0	0	0	0	0	0	0	0	0	0	0	0	0	0	0	0	0	0	0	0	0	0	0	0	0	0	0	0	0	0	0	0	2376	2376	2359	2343	2343	2343	2327	2327	2312	2312	2312	2312	2312	2312	2312	2297	2297	2297	2297	2281	2266	2281	2266	2281	2266	2266	3129	3129	3129	3101	3101	2297	2266	2266	2252	2252	2252	2252	0	0	0	0	0	0	0	0	0	0	0	0	0	0	0	0	0	0	0	0	0	0	0	0	0	0	0	0	0	0	0	0	0	0	0
0	0	0	0	0	0	653	655	655	656	656	657	657	672	672	675	675	675	675	675	675	691	691	693	693	695	697	703	707	708	708	710	711	711	714	717	719	720	722	726	732	734	737	739	740	743	743	753	755	756	758	761	761	765	768	770	777	784	786	788	786	789	791	817	815	815	814	821	821	819	823	829	829	837	848	848	848	852	858	858	869	873	875	878	878	882	887	889	898	905	913	915	917	915	927	930	937	940	948	953	955	963	969	969	974	980	983	988	997	1000	1003	1006	1008	1011	1036	1042	1039	1048	1048	1048	1052	1058	1058	1061	1061	1061	1061	1058	0	0	0	0	0	0	0	0	4706	4706	4706	4706	4706	4706	4706	4643	4643	4643	4643	4706	4706	0	0	0	0	0	0	0	0	0	4977	4977	5050	5050	5050	5125	5125	5125	5125	5125	5125	5125	5125	5050	5125	5125	5125	5050	5050	5050	5050	5050	5050	5050	5050	5050	5125	5202	5202	5535	0	0	0	0	0	0	0	0	0	0	0	0	0	0	0	0	0	0	6720	6720	6720	0	0	0	0	0	0	0	0	0	0	0	0	0	0	0	0	0	0	0	0	0	0	0	0	7608	7608	7444	7608	7779	7779	7779	7779	7959	7779	7779	7779	7779	7779	7779	7779	7779	7779	7959	7959	7959	7959	7959	7959	7779	7779	7779	7779	7779	7779	7779	7779	7779	7779	7779	7779	7779	7779	7779	7779	7779	7779	7608	7779	7779	0	0	0	0	0	0	0	0	0	0	5535	5535	5535	5626	5448	5364	5364	5282	5282	5282	5202	5202	5202	5050	5050	4977	4977	3583	3583	3583	3546	3546	3583	3583	3583	3583	3583	3583	3583	3621	3621	3583	3621	3621	3621	3659	3659	0	0	0	0	0	0	3659	3621	3621	3621	3621	3621	3583	3583	3583	3583	3583	3583	3546	3546	3583	3546	3583	3583	3583	0	0	0	0	0	0	0	0	0	0	0	4463	4406	4406	4406	4406	4463	4463	4463	4463	4581	4521	4521	4463	4521	4521	4521	4521	4521	4521	4521	4521	4521	4521	4521	4581	4581	4581	4581	4581	4581	4581	4521	4521	4521	4521	4521	4521	4521	4521	4521	4463	4463	4463	4463	4463	4463	4463	4463	4463	4521	4463	4463	4463	4463	4521	4521	4463	4463	4463	4521	4521	4521	4463	4463	4406	4350	4350	4350	4296	4350	4296	4296	4296	4296	4350	4350	4406	4463	4463	4463	4463	4463	4406	4406	4406	4350	4350	4350	4350	4350	4350	4350	4350	4350	4350	4406	4406	4406	4406	4406	4406	4406	4350	4406	4463	4463	4350	4350	4521	4521	4521	4581	4521	4463	4463	4463	4406	4406	4350	4350	4296	4350	4350	4406	4406	4406	4406	4463	4463	4521	4521	4521	4463	4463	4521	4463	4463	4406	4406	4406	4406	4406	4406	4463	4463	4463	4581	4581	4581	4581	4581	4581	4521	4521	4521	4521	7959	7779	7779	7779	7779	0	0	0	0	0	0	0	0	0	0	0	0	0	0	0	0	0	0	0	0	0	0	0	0	0	0	0	0	0	0	0	0	0	0	0	0	0	0	0	0	0	0	0	0	0	2376	2376	2359	2359	2343	2343	2327	2327	2312	2312	2312	2312	2312	2312	2297	2297	2297	2297	2281	2281	2281	2266	2281	2281	2266	2266	2266	2281	2266	2281	2281	2281	2281	2266	2252	2252	2252	2252	0	0	0	0	0	0	0	0	0	0	0	0	0	0	0	0	0	0	0	0	0	0	0	0	0	0	0	0	0	0	0	0	0	0	0
0	0	0	0	0	0	653	656	657	657	657	658	660	660	672	675	675	675	676	675	675	691	691	693	693	695	697	703	707	707	708	710	711	711	714	719	719	720	722	725	729	736	737	739	740	743	743	752	756	756	758	760	761	767	768	772	777	777	784	788	786	786	817	817	814	817	817	821	821	819	827	827	831	837	843	845	845	854	860	865	869	871	875	878	878	882	887	891	898	905	913	913	915	915	930	937	940	942	950	953	953	963	966	972	974	980	983	991	997	1000	1003	1003	1008	1008	1036	1039	1042	1048	1048	1048	1052	1058	1058	1058	1058	1058	1058	0	0	0	0	0	0	0	0	0	4706	4706	4706	4706	4706	4643	4706	4643	4643	4643	4643	4643	4643	0	0	0	0	0	0	0	0	0	4977	4977	5050	5050	5050	5125	5125	5125	5125	5125	5125	5125	5125	5050	5125	5050	5050	5050	5050	5050	4977	4977	4977	4977	4977	4977	5050	5050	5202	0	0	0	0	0	0	0	0	0	0	0	0	0	0	0	0	0	6592	6468	6720	6592	6720	6720	0	0	0	0	0	0	0	0	0	0	0	0	0	0	0	0	0	0	0	0	7444	7444	7444	7608	7608	7608	7779	7779	7959	7779	7779	7779	7779	7779	7779	7779	7608	7608	7779	7959	7959	8146	7959	8146	8146	7959	7959	7779	7779	7779	7779	7779	7779	7779	7779	7779	7779	7779	7779	7779	7779	7779	7779	7608	7608	7608	7608	7779	0	0	0	0	0	0	0	0	0	0	5535	5535	5626	5626	5626	5364	5364	5364	5282	5282	5202	5202	5202	0	0	0	0	3583	3583	3583	3583	3583	3583	3583	3583	3583	3546	3583	3583	3621	3621	3583	3621	3621	3621	3659	3659	0	0	0	0	0	0	3621	3621	3621	3621	3621	3621	3583	3583	3583	3583	3583	3583	3546	3546	3583	3546	3583	3546	3546	0	0	0	0	0	0	0	0	0	0	0	4463	4463	4463	4521	4521	4521	4521	4521	4581	4581	4581	4521	4521	4521	4521	4521	4521	4521	4581	4581	4521	4521	4521	4581	4581	4581	4581	4581	4581	4643	4581	4521	4521	4521	4521	4521	4521	4521	4521	4521	4521	4521	4521	4463	4463	4463	4463	4463	4521	4521	4521	4521	4521	4521	4521	4521	4521	4521	4521	4521	4521	4521	4521	4463	4406	4350	4350	4296	4296	4296	4296	4243	4296	4296	4350	4350	4406	4406	4463	4406	4406	4406	4350	4350	4350	4296	4296	4296	4296	4296	4296	4296	4350	4350	4350	4350	4350	4350	4350	4350	4296	4296	4243	4296	4296	4296	4350	4350	4521	4521	4521	4521	4521	4463	4463	4406	4406	4406	4350	4296	4296	4296	4350	4350	4350	4350	4406	4406	4406	4463	4463	4463	4463	4463	4463	4406	4406	4406	4406	4406	4406	4406	4406	4406	4463	4463	4521	4581	4581	4581	4581	4581	4521	4521	4521	4521	0	7779	7779	7779	0	0	0	0	0	0	0	0	0	0	0	0	0	0	0	0	0	0	0	0	0	0	0	0	0	0	0	0	0	0	0	0	0	0	0	0	0	0	0	0	0	0	0	0	0	2392	2376	2376	2376	2359	2359	2343	2343	2343	2312	2312	2312	2312	2312	2297	2297	2297	2297	2297	2281	2281	2266	2281	2281	2281	2266	2266	2266	2266	2266	2266	2266	2266	2266	2266	2252	2252	2252	2252	0	0	0	0	0	0	0	0	0	0	0	0	0	0	0	0	0	0	0	0	0	0	0	0	0	0	0	0	0	0	0	0	0	0	0
0	0	0	0	0	0	653	656	656	657	658	658	660	661	661	678	679	676	679	678	678	691	691	693	693	695	697	700	707	708	708	710	711	713	714	719	719	722	723	726	729	734	737	739	740	740	747	752	753	755	758	760	761	767	768	772	777	777	784	786	786	786	789	812	812	814	815	815	819	819	827	831	833	837	843	843	845	856	860	865	869	871	875	878	878	882	884	889	903	913	910	913	915	915	917	935	940	942	950	953	953	958	966	972	974	980	985	991	997	1000	1000	1011	1020	1020	1033	1039	1042	1048	1052	1052	1055	1058	1058	1058	1058	1058	1058	0	0	0	0	0	0	0	0	0	4706	4706	4706	4706	4706	4706	4706	4643	4706	4706	4643	4643	4643	0	0	0	0	0	0	0	0	0	4977	5050	5050	5125	5125	5125	5202	5202	5202	5202	5125	5125	5125	5125	5125	5125	5050	5050	5050	4977	5050	5050	4977	5050	4977	4977	5050	5050	5050	0	0	0	0	0	0	0	0	0	0	0	0	0	0	0	0	0	6592	6592	6592	6592	6592	6592	0	0	0	0	0	0	0	0	0	0	0	0	0	0	0	0	0	0	0	7444	7287	7444	7444	7444	7444	7608	7608	7779	7779	7779	7779	7779	7779	7779	7779	7608	7779	7779	7779	7959	7959	8146	8146	7959	8146	8146	7959	7779	7779	7779	7779	7779	7779	7779	7779	7779	7779	7779	7779	7779	7779	7779	7608	7608	7608	7608	7779	7779	0	0	0	0	0	0	0	0	0	0	0	0	5626	5626	5626	5364	5364	5364	0	0	0	0	0	0	0	0	0	3583	3583	3583	3583	3583	3583	3583	3583	3583	3546	3583	3583	3583	3583	3583	3621	3621	3621	3621	3659	3659	0	0	0	0	0	3659	3621	3621	3621	3621	3621	3583	3583	3583	3583	3583	3583	3546	3546	3546	3546	3546	3546	3583	0	0	0	0	0	0	0	0	0	0	0	4521	4463	4521	4521	4521	4521	4581	4581	4581	4581	4581	4581	4521	4581	4581	4581	4581	4581	4581	4581	4581	4581	4581	4581	4643	4643	4581	4581	4581	4581	4581	4521	4521	4521	4521	4521	4581	4581	4581	4581	4521	4521	4521	4521	4521	4521	4521	4521	4581	4581	4581	4581	4581	4581	4521	4521	4521	4521	4521	4581	4521	4521	4521	4521	4406	4406	4350	4296	4296	4296	4296	4243	4296	4296	4296	4296	4350	4350	4406	4406	4350	4350	4350	4350	4350	4296	4296	4296	4296	4296	4296	4296	4296	4296	4296	4296	4296	4296	4296	4296	4296	4296	4243	4243	4243	4243	0	0	4521	4521	4521	4521	4521	4463	4406	4406	4350	4350	4350	4296	4296	4296	4296	4350	4350	4350	4350	4406	4406	4406	4406	4406	4406	4406	4406	4406	4406	4350	4406	4406	4406	4350	4406	4406	4463	4463	4521	4581	4581	4581	4581	4521	4521	4521	4463	4463	0	0	0	0	0	0	0	0	0	0	0	0	0	0	0	0	0	0	0	0	0	0	0	0	0	0	0	0	0	0	0	0	0	0	0	0	0	0	0	0	0	0	0	0	0	0	0	0	0	2376	2376	2376	2376	2359	2359	2359	2359	2343	2343	2327	2312	2312	2312	2312	2297	2297	2297	2297	2297	2281	2281	2281	2281	2281	2281	2266	2266	2266	2266	2266	2266	2252	2252	2252	2252	2252	2252	2252	0	0	0	0	0	0	0	0	0	0	0	0	0	0	0	0	0	0	0	0	0	0	0	0	0	0	0	0	0	0	0	0	0	0	0
0	0	0	0	0	0	656	656	660	660	660	660	660	660	660	680	682	680	682	682	684	686	690	691	691	694	695	700	707	708	708	710	711	713	714	717	719	722	725	728	729	734	736	736	739	739	745	748	753	758	760	763	765	768	770	772	775	780	784	786	788	789	795	797	810	812	821	823	823	825	829	833	835	837	841	843	845	858	860	865	867	869	873	875	878	882	884	889	905	915	915	915	915	915	917	937	940	942	950	953	953	958	963	969	972	977	983	988	997	1000	1003	1011	1014	1014	1033	1039	1042	1048	1048	1052	1055	1055	1058	1055	1058	1058	1058	0	0	0	0	0	0	0	0	0	4706	4706	4706	4706	4706	4706	4706	4643	4706	4706	4706	4706	4706	4706	0	0	0	0	0	0	0	0	4977	4977	5050	5202	5125	5125	5202	5202	5202	5202	5202	5202	5125	5125	5125	5050	5050	5050	4977	4977	4977	4977	4906	4977	4977	4977	4977	5050	5050	0	0	0	0	0	0	0	0	0	0	0	0	0	0	0	0	0	6592	6592	6592	6592	6592	6592	6592	0	0	0	0	0	0	0	0	0	0	0	0	0	0	0	0	0	0	7444	7287	7287	7287	7444	7287	7444	7444	7779	7779	7779	7959	7779	7779	7779	7779	7779	7779	7779	7779	7959	7959	7959	7959	7959	7959	7959	7779	7779	7779	7779	7779	7779	7779	7779	7779	7779	7779	7779	7779	7779	7779	7779	7608	7608	7608	7608	7779	7779	0	0	0	0	0	0	0	0	0	0	0	0	0	0	0	0	0	0	0	0	0	0	0	0	0	0	3583	3583	3583	3583	3546	3583	3583	3583	3583	3583	3583	3583	3583	3583	3583	3583	3621	3621	3621	3621	3659	3659	0	0	0	3659	3659	3659	3621	3621	3621	3621	3621	3583	3583	3583	3583	3583	3546	3546	3546	3546	3546	3546	3583	3583	0	0	0	0	0	0	0	0	0	0	0	4521	4521	4463	4521	4521	4521	4581	4581	4581	4581	4581	4581	4581	4581	4581	4581	4581	4581	4581	4581	4581	4581	4581	4581	4643	4643	4581	4581	4581	4581	4581	4581	4521	4581	4581	4581	4581	4581	4581	4581	4581	4581	4581	4581	4581	4581	4581	4581	4581	4581	4581	4581	4581	4581	4521	4581	4521	4581	4581	4581	4521	4521	4521	4521	4463	4406	4350	4350	4296	4296	4296	4243	4296	4296	4296	4296	4350	4350	4406	4350	4350	4350	4350	4350	4350	4296	4296	4296	4296	4243	4243	4243	4243	4296	4296	4296	4296	4296	4296	4296	4296	4296	4296	4296	4243	4243	0	0	0	0	4406	4463	4521	4406	4406	4350	4350	4350	4350	4296	4296	4296	4296	4296	4296	4296	4350	4350	4350	4350	4406	4406	4406	4406	4406	4350	4350	4350	4350	4350	4350	4350	4406	4463	4463	4463	4521	4521	4521	4581	4521	4521	4521	4463	4463	4463	0	0	0	0	0	0	0	0	0	0	0	0	0	0	0	0	0	0	0	0	0	0	0	0	0	0	0	0	0	0	0	0	0	0	0	0	0	0	0	0	0	0	0	0	0	0	0	0	2392	2392	2376	2376	2376	2359	2359	2359	2359	2359	2343	2327	2312	2312	2312	2312	2297	2297	2297	2297	2297	2297	2281	2281	2281	2281	2281	2281	2281	2281	2266	2266	2266	2252	2252	2252	2252	2252	2252	2252	0	0	0	0	0	0	0	0	0	0	0	0	0	0	0	0	0	0	0	0	0	0	0	0	0	0	0	0	0	0	0	0	0	0	0
0	0	0	0	0	0	656	658	660	660	660	660	661	660	661	661	683	682	683	684	686	686	689	689	689	694	695	698	707	707	708	710	711	713	714	719	720	723	725	728	729	732	734	737	739	743	743	748	756	758	763	763	767	768	770	773	775	775	786	786	788	791	800	800	808	810	821	823	823	823	829	831	835	837	841	843	852	850	858	862	867	871	875	878	878	882	884	889	913	913	913	913	915	915	917	937	940	945	948	958	953	963	963	969	969	974	980	988	1000	1006	1008	1011	1014	1026	1030	1036	1036	1045	1048	1048	1055	1055	1058	1055	1058	1058	1058	0	0	0	0	0	0	0	0	0	4706	4706	4706	4706	4706	4706	4706	4581	4706	4706	4706	4706	4706	4706	0	0	0	0	0	0	0	4977	4977	4977	5050	5202	5050	5125	5202	5202	5202	5202	5202	5202	5202	5125	5125	5050	5050	4977	4977	4977	4977	4906	4906	4977	4977	4977	4977	4977	0	0	0	0	0	0	0	0	0	0	0	0	0	0	0	0	6853	6853	6720	6853	6720	6720	6720	6853	6853	6853	0	0	0	0	0	0	0	0	0	0	0	0	0	0	0	0	0	7287	7287	7137	7137	7287	7608	7779	7779	7779	7779	7779	7959	7779	7959	7959	7779	7779	7779	7779	7779	7959	7959	8146	7959	7959	7959	7959	7779	7779	7779	7779	7779	7779	7779	7779	7779	7959	7779	7779	7779	7779	7779	7779	7608	7608	7779	7779	7959	7959	0	0	0	0	0	0	0	0	0	0	0	0	0	0	0	0	0	0	0	0	0	0	0	0	0	0	3583	3621	3583	3583	3583	3583	3583	3583	3583	3583	3583	3583	3583	3583	3583	3583	3621	3621	3621	3621	3659	3659	3738	3698	3698	3659	3659	3659	3621	3621	3621	3621	3583	3583	3583	3583	3583	3583	3546	3583	3583	3583	3583	3583	3583	3583	0	0	0	0	0	0	0	0	0	0	0	4463	4463	4521	4521	4521	4521	4581	4581	4581	4581	4581	4581	4581	4581	4581	4581	4581	4581	4581	4581	4581	4581	4581	4581	4581	4581	4581	4581	4581	4581	4581	4581	4581	4581	4581	4581	4581	4581	4581	4581	4581	4581	4581	4581	4581	4581	4581	4581	4581	4581	4581	4581	4581	4581	4521	4581	4521	4581	4581	4581	4581	4521	4521	4521	4463	4406	4350	4350	4296	4296	4296	4243	4296	4296	4296	4243	4296	4350	4350	4350	4350	4350	4350	4350	4350	4296	4296	4296	4296	4243	4243	4243	4243	4243	4296	4296	4296	4350	4350	4296	4296	4296	4296	4296	4296	4296	0	0	0	0	4406	4463	4463	4406	4350	4350	4350	4350	4350	4296	4296	4296	4296	4296	4296	4296	4296	4350	4350	4350	4350	4350	4350	4350	4350	4350	4350	4350	4350	4350	4350	4350	4350	4406	4406	4463	4463	4521	4581	4581	4581	4521	4521	4463	4406	4406	0	0	0	0	0	0	0	0	0	0	0	0	0	0	0	0	0	0	0	0	0	0	0	0	0	0	0	0	0	0	0	0	0	0	0	0	0	0	0	0	0	0	0	0	0	0	0	0	2392	2376	2376	2376	2376	2376	2359	2359	2359	2359	2343	2327	2312	2312	2312	2312	2297	2297	2297	2297	2297	2297	2297	2281	2297	2297	2281	2297	2281	2281	2266	2266	2266	2252	2252	2252	2252	2252	2252	2252	0	0	0	0	0	0	0	0	0	0	0	0	0	0	0	0	0	0	0	0	0	0	0	0	0	0	0	0	0	0	0	0	0	0	0
0	0	0	0	0	0	0	660	661	660	660	660	661	661	661	661	682	682	683	683	684	686	687	689	689	693	693	698	707	707	707	710	711	711	713	719	720	725	726	728	729	732	734	737	739	739	739	748	748	755	763	765	765	768	768	770	773	788	786	788	789	795	802	802	806	808	819	821	823	825	829	833	835	837	839	843	845	854	856	860	869	871	875	880	878	882	884	889	913	913	913	913	915	915	915	937	942	945	950	953	953	963	966	969	969	974	977	985	985	1008	1008	1011	1017	1023	1030	1033	1036	1045	1048	1048	1052	1055	1055	1055	1055	1055	1058	0	0	0	0	0	0	0	0	4706	4706	4706	4706	4706	4706	4706	4706	4581	4706	4706	4706	4706	4706	0	0	0	0	0	0	0	0	4977	4977	4977	5050	5050	5050	5125	5125	5202	5202	5202	5202	5202	5202	5125	5125	5125	5050	4977	4906	4906	4906	4906	4906	4977	4977	4977	0	0	0	0	0	0	0	0	0	0	0	0	0	0	0	0	0	6992	6992	6853	6853	6853	6720	6720	6720	6853	6853	6853	0	0	0	0	0	0	0	0	0	0	0	0	0	0	0	0	0	7137	7137	7137	7137	7287	7444	7608	7779	7779	7779	7779	7779	7779	7779	7779	7959	7779	7779	7779	7779	7959	7959	7959	7959	7959	8146	7959	7959	7779	7779	7779	7779	7779	7779	7779	7779	7959	7779	7779	7779	7779	7779	7779	7779	7608	7779	7779	7959	7959	0	0	0	0	0	0	0	0	0	0	0	0	0	0	0	0	0	0	0	0	0	0	0	0	0	0	3698	3621	3583	3583	3583	3583	3583	3583	3583	3583	3583	3583	3583	3583	3621	3583	3621	3621	3621	3621	3659	3659	3659	3659	3659	3621	3659	3621	3621	3621	3621	3583	3583	3583	3583	3583	3583	3583	3546	3583	3583	3583	3583	3583	3583	3583	0	0	0	0	0	0	0	0	0	0	0	4463	4521	4521	4521	4581	4581	4581	4581	4581	4581	4581	4581	4581	4581	4581	4581	4581	4581	4581	4581	4581	4581	4581	4581	4581	4581	4581	4581	4581	4581	4581	4581	4581	4581	4581	4581	4581	4581	4581	4581	4581	4581	4581	4581	4581	4581	4581	4581	4581	4581	4581	4521	4581	4581	4581	4581	4581	4581	4581	4581	4581	4581	4521	4521	4463	4406	4350	4350	4296	4296	4296	4296	4296	4296	4296	4243	4296	4350	4350	4350	4350	4350	4350	4350	4350	4350	4350	4296	4296	4243	4243	4243	4296	4296	4296	4296	4296	4350	4350	4296	4296	4296	4296	4296	4296	4296	0	0	0	0	4406	4406	4463	4406	4350	4350	4350	4350	4350	4296	4296	4296	4296	4296	4296	4296	4296	4296	4296	4350	4350	4350	4350	4350	4350	4350	4350	4296	4296	4296	4296	4296	4296	4406	4406	4463	4463	4521	4581	4581	4581	4521	4521	4406	4406	4406	4406	0	0	0	0	0	0	0	0	0	0	0	0	0	0	0	0	0	0	0	0	0	0	0	0	0	0	0	0	0	0	0	0	0	0	0	0	0	0	0	0	0	0	0	0	0	0	0	0	2376	2392	2376	2376	2376	2376	2376	2359	2359	2343	2327	2312	2312	2312	2312	2297	2297	2312	2297	2312	2297	2297	2297	2297	2297	2297	2297	2281	2281	2266	2266	2266	2252	2252	2252	2252	2252	2252	2252	0	0	0	0	0	0	0	0	0	0	0	0	0	0	0	0	0	0	0	0	0	0	0	0	0	0	0	0	0	0	0	0	0	0	0
0	0	0	0	0	0	0	660	660	660	660	660	661	661	661	661	661	683	683	683	684	686	687	689	689	693	693	697	707	707	708	710	711	711	713	717	720	723	725	728	729	732	734	737	739	743	745	745	747	753	753	763	765	767	768	768	773	773	786	791	791	795	802	804	806	810	814	815	823	825	831	833	837	837	839	841	843	852	854	858	858	875	878	882	880	884	887	889	905	915	913	913	915	917	917	935	945	948	953	955	955	963	963	969	972	974	974	977	977	1008	1011	1014	1014	1020	1026	1033	1036	1045	1045	1048	1052	1055	1052	1055	1055	1055	0	0	0	0	0	0	0	0	0	4706	4706	4706	4706	4706	4706	4706	4643	4581	4581	4706	4706	0	0	0	0	0	0	0	0	0	0	4977	4977	4977	4977	5125	5125	5125	5125	5202	5202	5202	5202	5202	5202	5125	5125	5125	5050	4977	4906	4906	4906	0	0	0	0	0	0	0	0	0	0	0	0	0	0	0	0	0	0	0	0	0	0	6992	6992	6992	6853	6853	6592	6720	6720	6720	6853	6853	0	0	0	0	0	0	0	0	0	0	0	0	0	0	0	0	0	7137	7137	7137	7137	7287	7444	7779	7779	7959	7959	7779	7779	7779	7779	7779	7779	7779	7779	7779	7779	7779	7779	7779	7779	7779	7959	7779	7779	7779	7779	7779	7779	7779	7779	7779	7779	7779	7779	7779	7779	7779	7779	7779	7779	7608	7779	7779	7959	8146	8146	0	0	0	0	0	0	0	0	0	0	0	0	0	0	0	0	0	0	0	0	0	0	0	0	0	3698	3659	3621	3621	3583	3583	3583	3583	3583	3583	3583	3583	3583	3583	3583	3583	3621	3621	3621	3621	3621	3659	3659	3659	3659	3621	3621	3621	3621	3621	3621	3583	3583	3583	3583	3583	3583	3583	3546	3583	3583	3583	3583	3583	3583	3583	0	0	0	0	0	0	0	0	0	0	4350	4406	4463	4521	4521	4581	4581	4581	4581	4581	4581	4581	4581	4581	4581	4581	4581	4581	4581	4581	4581	4581	4581	4581	4581	4581	4581	4581	4581	4581	4581	4581	4581	4581	4581	4581	4581	4581	4581	4581	4581	4581	4581	4581	4581	4581	4581	4581	4581	4581	4521	4521	4521	4521	4521	4521	4521	4521	4581	4581	4581	4581	4521	4521	4521	4463	4463	4406	4350	4296	4296	4296	4296	4243	4296	4243	4192	4296	4296	4350	4350	4350	4350	4350	4350	4350	4350	4350	4296	4296	4296	4243	4243	4243	4243	4296	4296	4296	4350	4350	4296	4296	4296	4296	4243	4243	4243	0	0	0	0	4350	4406	4406	4406	4406	4350	4350	4350	4350	4350	4296	4296	4296	4296	4296	4296	4296	4296	4296	4296	4350	4350	4350	4296	4296	4296	4296	4350	4350	4350	4296	4296	4296	4350	4350	4406	4406	4463	4521	4521	4521	4463	4463	4406	4350	4296	4296	0	0	0	0	0	0	0	0	0	0	0	0	0	0	0	0	0	0	0	0	0	0	0	0	0	0	0	0	0	0	0	0	0	0	0	0	0	0	0	0	0	0	0	0	0	0	0	0	2376	2392	2392	2376	2376	2376	2376	2359	2359	2343	2327	2312	2312	2312	2312	2297	2297	2297	2297	2312	2297	2297	2297	2297	2281	2281	2281	2281	2281	2266	2266	2252	2252	2252	2252	2237	2237	2237	2237	0	0	0	0	0	0	0	0	0	0	0	0	0	0	0	0	0	0	0	0	0	0	0	0	0	0	0	0	0	0	0	0	0	0	0
0	0	0	0	0	0	0	0	660	660	661	661	662	662	662	663	663	682	683	683	684	686	689	689	690	693	693	694	694	707	708	710	711	711	713	717	719	723	725	728	729	732	736	736	737	740	740	743	747	763	765	763	765	768	768	768	775	784	786	788	793	798	804	804	806	808	812	814	823	825	831	833	835	837	837	841	852	852	854	858	858	882	882	884	882	884	887	891	908	913	913	913	915	917	917	932	945	945	953	953	955	961	961	969	972	969	977	985	985	1008	1008	1014	1017	1023	1023	1030	1036	1045	1048	1052	1052	1052	1052	1052	1048	1048	0	0	0	0	0	0	0	0	0	4706	4706	4706	4706	4706	4643	4643	4643	4643	4706	4706	4706	0	0	0	0	0	0	0	0	0	0	0	4977	4977	4977	5202	5125	5125	5202	0	0	0	0	0	0	0	0	0	0	0	0	0	0	0	0	0	0	0	0	0	0	0	0	0	0	0	0	0	0	0	0	0	0	0	6992	6992	6992	6992	6853	6853	6992	6992	6592	6592	6853	6853	0	0	0	0	0	0	0	0	0	0	0	0	0	0	0	0	0	7137	7137	7137	7287	7287	7608	7779	7959	7959	7959	7779	7779	7779	7779	7779	7779	7779	7779	7779	7779	7779	7779	7779	7779	7779	7779	7779	7779	7608	7779	7779	7779	7779	7779	7779	7779	7779	7779	7779	7779	7779	7779	7779	7779	7779	7779	7959	8146	8343	8343	8343	0	0	0	0	0	0	0	0	0	0	0	0	0	0	0	0	0	0	0	0	0	0	0	0	0	3659	3621	3621	3583	3583	3583	3583	3583	3583	3583	3583	3583	3583	3621	3583	3621	3621	3621	3621	3621	3621	3659	3621	3621	3621	3621	3621	3621	3621	3621	3583	3583	3583	3583	3583	3583	3546	3583	3583	3583	3546	3583	3583	3583	3583	0	0	0	0	0	0	0	0	0	0	4350	4406	4406	4463	4521	4521	4581	4581	4581	4581	4581	4581	4581	4581	4581	4581	4581	4581	4581	4581	4581	4581	4581	4581	4581	4581	4581	4581	4581	4581	4521	4581	4581	4581	4581	4581	4581	4581	4581	4581	4581	4581	4581	4581	4581	4581	4581	4581	4581	4581	4581	4521	4521	4521	4521	4521	4521	4521	4521	4581	4581	4581	4581	4581	4581	4521	4521	4406	4350	4296	4296	4296	4243	4243	4243	4243	4243	4296	4350	4350	4350	4350	4350	4350	4350	4350	4350	4350	4296	4296	4296	4296	4243	4296	4243	4296	4296	4296	4296	4296	4296	4296	4296	4296	4243	4243	4243	0	0	0	0	4350	4350	4406	4350	4350	4350	4350	4350	4350	4350	4296	4296	4296	4243	4296	4296	4296	4296	4296	4296	4296	4296	4296	4296	4350	4350	4350	4350	4350	4350	4350	4296	4296	4296	4350	4350	4406	4463	4521	4521	4521	4463	4463	4406	4350	4296	4296	4350	4350	0	0	0	0	0	0	0	0	0	0	0	0	0	0	0	0	0	0	0	0	0	0	0	0	0	0	0	0	0	0	0	0	0	0	0	0	0	0	0	0	0	0	0	0	0	0	2392	2392	2392	2376	2376	2376	2376	2376	2359	2359	2343	2327	2327	2327	2327	2312	2312	2312	2312	2312	2297	2297	2297	2297	2297	2297	2281	2281	2266	2266	2252	2252	2252	2252	2252	2237	2237	2237	2237	0	0	0	0	0	0	0	0	0	0	0	0	0	0	0	0	0	0	0	0	0	0	0	0	0	0	0	0	0	0	0	0	0	0	0
0	0	0	0	0	0	0	660	660	660	661	661	662	662	662	665	666	682	683	683	684	686	690	690	691	693	694	694	697	697	708	710	710	710	711	716	717	723	726	729	731	731	734	736	737	740	742	742	747	760	767	765	765	768	768	770	775	788	786	789	793	797	802	802	804	806	812	814	825	825	829	833	835	837	837	843	852	852	852	856	856	884	884	884	884	887	889	894	903	910	910	913	915	917	917	925	940	942	953	955	955	961	961	966	972	974	977	983	983	1011	1008	1011	1014	1020	1026	1033	1036	1045	1048	1052	1052	1052	1052	1052	1048	1048	0	0	0	0	0	0	0	0	0	4706	4706	4706	4706	4706	4643	4643	4643	4643	4706	4706	4706	0	0	0	0	0	0	0	0	0	0	0	4977	4977	5050	5050	5202	5202	5202	0	0	0	0	0	0	0	0	0	0	0	0	0	0	0	0	0	0	0	0	0	0	0	0	0	0	0	0	0	0	0	0	0	0	0	6992	6853	6853	6853	6853	6853	6853	6992	6992	6592	0	0	0	0	0	0	0	0	0	0	0	0	0	0	0	0	0	0	7287	7137	7137	7287	7287	7444	7608	7779	7779	7779	7779	7779	7779	7779	7779	7779	7779	7779	7779	7779	7608	7608	7444	7608	7444	7444	7287	7608	7608	7608	7779	7779	7779	7779	7959	7779	7779	7779	7779	7779	7779	7779	7779	7779	7779	7779	7959	8146	8343	8343	8343	8343	0	0	0	0	0	0	0	0	0	0	0	0	0	0	0	0	0	0	0	0	0	0	0	0	0	3659	3621	3621	3583	3583	3583	3583	3583	3583	3583	3583	3583	3583	3621	3621	3621	3621	3621	3621	3621	3659	3659	3659	3659	3621	3621	3621	3621	3621	3621	3583	3583	3583	3583	3583	3583	3583	3583	3583	3546	3546	3546	3546	3546	0	0	0	0	0	0	0	0	0	0	4350	4350	4406	4463	4463	4521	4521	4581	4581	4581	4581	4581	4581	4581	4581	4581	4581	4581	4581	4581	4581	4581	4581	4581	4581	4581	4581	4581	4581	4521	4521	4521	4581	4581	4581	4581	4581	4581	4581	4581	4581	4581	4581	4581	4581	4581	4581	4581	4581	4581	4581	4581	4521	4521	4521	4521	4521	4521	4521	4581	4581	4581	4581	4581	4581	4581	4521	4521	4406	4350	4296	4296	4296	4296	4296	4296	4243	4243	4296	4350	4350	4350	4350	4350	4350	4350	4350	4350	4350	4296	4296	4296	4296	4296	4296	4243	4296	4296	4296	4296	4296	4296	4296	4296	4243	4243	4243	4243	4243	4243	4243	4243	4296	4296	4350	4350	4350	4350	4350	4350	4350	4296	4296	4296	4296	4296	4296	4296	4296	4296	4296	4243	4296	4296	4296	4296	4296	4296	4350	4350	4350	4350	4350	4296	4296	4296	4350	4350	4350	4406	4521	4521	4521	4463	4406	4350	4350	4296	4296	4350	4296	4296	0	0	0	0	0	0	0	0	0	0	0	0	0	0	0	0	0	0	0	0	0	0	0	0	0	0	0	0	0	0	0	0	0	0	0	0	0	0	0	0	0	0	0	0	0	2409	2426	2392	2392	2392	2376	2376	2376	2359	2359	2343	2343	2343	2343	2343	2312	2312	2312	2312	2312	2297	2297	2297	2297	2297	2297	2281	2281	2266	2252	2252	2252	2252	2237	2237	2237	2237	2237	2237	0	0	0	0	0	0	0	0	0	0	0	0	0	0	0	0	0	0	0	0	0	0	0	0	0	0	0	0	0	0	0	0	0	0	0
0	0	0	0	0	650	650	660	661	661	661	661	662	663	663	666	666	669	683	683	684	686	690	691	691	693	694	695	697	707	708	710	710	711	714	716	716	722	726	726	728	731	734	736	737	740	743	745	747	752	763	765	767	768	768	772	775	784	786	789	793	797	800	800	802	806	812	812	825	827	829	833	835	837	839	845	852	852	852	856	856	887	887	887	887	887	889	896	903	905	908	913	915	917	917	935	937	940	940	955	955	961	961	966	972	977	980	985	991	991	1006	1006	1014	1020	1023	1023	1033	1045	1048	1052	1052	1052	1052	1052	1052	1048	0	0	0	0	0	0	0	0	4838	4771	4706	4706	4706	4706	4643	4643	4643	4643	4643	4643	4643	0	0	0	0	0	0	0	0	0	0	0	0	0	5050	5050	5202	5202	0	0	0	0	0	0	0	0	0	0	0	0	0	0	0	0	0	0	0	0	0	0	0	0	0	0	0	0	0	0	0	0	0	0	0	6992	6992	6853	6853	6853	6853	6853	6992	6992	6992	0	0	0	0	0	0	0	0	0	0	0	0	0	0	0	0	0	0	7444	7444	7444	7137	7287	7137	7287	7444	7608	7779	7779	7779	7779	7779	7779	7779	7779	7779	7779	7779	7779	7444	7444	7444	7444	7444	7444	7444	7444	7444	7444	7779	7779	7779	7779	7959	7779	7959	7779	7779	7779	7779	7779	7779	7779	7779	7779	7959	8146	8146	8146	7959	7959	0	0	0	0	0	0	0	0	0	0	0	0	0	0	0	0	0	0	0	0	0	0	0	0	0	0	0	3621	3583	3583	3583	3583	3583	3583	3583	3583	3583	3621	3621	3621	3621	3621	3621	3621	3621	3659	3659	3659	3621	3621	3621	3621	3621	3621	3583	3583	3583	3583	3583	3583	3583	3583	3583	3583	3583	3546	3583	3546	3546	3546	0	4296	4296	4296	4296	0	4350	4350	4350	4350	4350	4406	4463	4463	4521	4521	4581	4581	4581	4581	4581	4581	4581	4581	4581	4581	4581	4581	4581	4581	4581	4581	4581	4581	4581	4581	4581	4581	4581	4581	4521	4581	4581	4581	4581	4581	4581	4581	4581	4581	4581	4581	4581	4581	4581	4581	4581	4581	4581	4581	4581	4521	4521	4581	4521	4521	4521	4521	4581	4581	4521	4521	4581	4581	4581	4521	4521	4521	4521	4350	4350	4296	4296	4296	4296	4243	4243	4350	4350	4350	4350	4350	4350	4350	4350	4350	4350	4350	4296	4296	4296	4296	4296	4243	4243	4243	4296	4296	4296	4296	4296	4296	4296	4243	4243	4243	4243	4243	4243	4243	4243	4296	4296	4296	4350	4350	4350	4350	4296	4296	4350	4296	4296	4296	4296	4296	4350	4296	4296	4296	4243	4243	4243	4243	4243	4243	4296	4350	4350	4350	4350	4350	4296	4243	4243	4296	4350	4350	4350	4406	4463	4463	4406	4350	4296	4296	4296	4296	4296	4296	4350	4350	4350	0	4350	4350	0	4406	4406	4406	4350	4350	4350	0	0	0	0	0	0	0	0	0	0	0	0	0	0	0	0	0	0	0	0	0	0	0	0	0	0	0	0	0	0	0	0	2426	2409	2426	2409	2392	2392	2376	2376	2376	2359	2359	2359	2359	2343	2359	2359	2327	2327	2327	2312	2312	2297	2297	2297	2297	2297	2297	2297	2281	2266	2266	2252	2252	2252	2237	2237	2237	2237	2237	2237	0	0	0	0	0	0	0	0	0	0	0	0	0	0	0	0	0	0	0	0	0	0	0	0	0	0	0	0	0	0	0	0	0	0	0
0	0	644	644	648	650	650	660	660	660	661	661	663	665	665	667	667	669	684	684	686	687	690	691	691	693	694	695	698	701	704	705	705	711	716	719	719	722	723	725	728	728	732	734	737	742	745	747	750	753	756	763	767	768	768	768	772	784	786	789	791	797	800	802	804	806	812	814	815	827	831	833	837	839	839	843	850	850	850	852	852	887	887	887	887	887	889	894	896	910	913	913	915	917	917	917	942	945	945	953	955	961	963	972	974	977	985	988	997	997	1006	1006	1014	1014	1023	1023	1036	1039	1045	1052	1052	1052	1052	1052	1052	0	0	0	0	0	0	0	0	0	4838	4771	4706	4706	4706	4706	4643	4643	4643	4581	4643	4463	4463	0	0	0	0	0	0	0	0	0	0	0	0	0	0	0	0	0	0	0	0	0	0	0	0	0	0	0	6018	6018	0	0	0	0	0	0	0	0	0	0	0	0	0	0	0	0	0	0	0	0	0	0	0	6853	6853	6720	6720	6720	6720	6720	6720	6992	0	0	0	0	0	0	0	0	0	0	0	0	0	0	0	0	0	0	7287	7444	7444	7444	7287	7287	7287	7287	7444	7608	7608	7608	7779	7779	7779	7779	7779	7779	7779	7779	7779	7779	7444	7444	7444	7444	7444	7444	7287	7287	7444	7444	7444	7959	7779	7779	7779	7779	7779	7779	7779	7779	7779	7779	7959	7959	7779	7959	7959	7959	8146	7959	7779	7779	0	0	0	0	0	0	0	0	0	0	0	0	0	0	0	0	0	0	0	0	0	0	0	0	0	0	0	0	3621	3621	3583	3583	3583	3583	3583	3583	3583	3621	3621	3621	3621	3621	3621	3621	3621	3659	3659	3659	3621	3621	3621	3621	3621	3621	3621	3583	3583	3583	3583	3583	3583	3583	3583	3583	3583	3546	3583	3583	3583	3583	0	4296	4296	4296	4350	4406	4350	4406	4350	4350	4350	4406	4463	4463	4463	4521	4521	4581	4581	4581	4581	4581	4581	4581	4581	4581	4581	4581	4581	4581	4581	4581	4581	4581	4581	4581	4581	4581	4581	4581	4581	4581	4581	4581	4581	4581	4581	4581	4581	4581	4581	4581	4581	4581	4581	4581	4581	4581	4581	4521	4521	4521	4521	4521	4521	4521	4521	4521	4521	4581	4581	4581	4581	4581	4581	4521	4521	4463	4463	4350	4350	4296	4296	4296	4296	4243	4243	4296	4350	4350	4350	4350	4350	4296	4350	4296	4350	4296	4296	4296	4296	4296	4296	4296	4243	4243	4243	4296	4296	4296	4243	4296	4296	4243	4243	4243	4243	4296	4296	4296	4296	4296	4296	4296	4350	4350	4296	4296	4296	4296	4296	4296	4296	4296	4296	4296	4296	4296	4296	4296	4296	4296	4296	4296	4243	4243	4296	4350	4350	4350	4350	4350	4296	4243	4243	4243	4296	4296	4296	4350	4406	4406	4406	4350	4296	4296	4296	4296	4296	4296	4296	4350	4350	4350	4350	4350	4350	4350	4350	4350	4296	4350	4296	4296	4243	4243	0	0	0	0	0	0	0	0	0	0	0	0	0	0	0	0	0	0	0	0	7137	7287	7444	7444	0	0	0	0	0	2426	2426	2426	2409	2392	2392	2376	2376	2376	2359	2359	2359	2359	2359	2359	2343	2327	2327	2327	2312	2312	2312	2297	2297	2297	2297	2297	2297	2281	2266	2252	2252	2252	2252	2237	2237	2237	2237	2237	2237	0	0	0	0	0	0	0	0	0	0	0	0	0	0	0	0	0	0	0	0	0	0	0	0	0	0	0	0	0	0	0	0	0	0	0
