0	0	0	0	0	0	0	0	1512	1525	1532	1532	1525	1525	1532	1532	1532	0	0	2114	2114	2114	2114	2114	2114	2114	2114	2114	2127	2114	2114	2114	2101	2101	2101	2101	2101	2101	2101	2114	2114	2114	2114	2101	2101	2114	2101	2101	2114	2114	2114	2114	2114	2114	2114	2114	2114	2114	2114	2101	2101	2101	2101	2101	2101	2114	2101	2127	2114	2127	2127	2127	2127	2127	2127	2127	2127	2127	2140	2127	2127	2127	2127	2127	2127	2127	2127	2140	2153	2167	2167	2609	2589	2609	2609	2609	2609	2609	2589	2589	2589	2570	2570	2570	2570	2589	2589	2589	2570	2589	2570	2570	2589	2570	2589	2589	2589	2589	2629	2589	2589	2589	2589	2589	2609	2589	2589	2589	2589	2589	2589	2589	2589	2609	2629	2669	2669	2669	2799	2822	2822	2822	2822	2822	2822	2822	2822	2822	2822	2822	3510	3546	3546	3546	3546	3583	3546	3546	3546	3546	3546	3546	3583	3546	3546	3546	3546	3546	3546	3546	3546	3546	3546	3546	3546	3583	3583	3583	3583	3583	3659	3659	3698	3738	3779	3821	3821	3779	3821	3821	3821	3821	3821	3821	3821	3821	3821	3821	3821	3821	3779	3821	3821	3821	3779	3779	3821	3821	3821	3779	3821	3821	3821	3821	3779	3821	3821	3779	3821	3821	3821	3779	3779	3779	3779	3779	3738	3779	3779	3779	3779	3779	3779	3821	3821	3821	3864	3821	3821	3821	3821	3821	3821	3821	3821	3821	3821	3821	3821	3821	3821	3779	3779	3779	3779	3779	3779	3779	3821	3821	3821	3821	3779	3779	3779	3779	3779	3779	3821	3821	3821	3821	3821	3821	3779	3779	3779	3779	3779	3779	3779	3821	3821	3821	3864	3864	3821	3821	3779	3779	3779	3779	3779	3779	3779	3779	3779	3821	3821	3779	3821	3821	3821	3779	3779	3779	3779	3779	3779	3779	3779	3779	3821	3821	3821	3821	3821	3821	3821	3864	3821	3821	3821	3821	3821	3779	3779	3779	3779	3779	3779	3779	3821	3864	3864	3821	3821	3779	3779	3779	3779	3779	3821	3779	3779	3821	3779	3779	3821	3779	3779	3779	3779	3779	3779	3779	3779	3779	3779	3779	3779	3779	3779	3779	3779	3779	3779	3779	3779	3779	3779	3779	3779	3779	3779	3779	3779	3779	3779	3779	3779	3821	3821	3779	3779	3779	3779	3779	3779	3779	3779	3779	3864	3864	3864	3864	3821	3821	3821	3821	3821	3821	3779	3821	3821	3821	3821	3821	3821	3821	3821	3821	3821	3821	3821	3821	3821	3821	3821	3821	3821	3779	3821	3821	3821	3821	3821	3821	3821	3821	3821	3821	3821	3821	3821	3821	3821	3821	3821	3821	3821	3821	3821	3821	3821	3779	3779	3779	3779	3821	3821	3821	3821	3821	3821	3821	3821	3821	3821	3821	3821	3821	3821	3821	3821	3821	3821	3821	3821	3821	3821	3821	3864	3864	3864	3821	3864	3864	3864	3864	3864	3864	3864	3821	3821	3864	3821	3821	3821	3779	3821	3821	3779	3821	3821	3821	3821	3821	3821	3779	3779	3779	3779	3821	3779	3779	3779	3821	3821	3821	3821	3779	3779	3779	3821	3821	3738	3779	3738	3738	3779	3738	3779	3779	3779	3779	3779	3779	3738	3698	3738	3698	3698	3698	3698	3779	3821	3779	3738	3779	3738	3738	3738	3738	3738	3738	3738	3738	3698	3698	3698	3698	3779	3738	3738	3698	3698	3698	3698	3698	3698	3698	3738	3738	3738	3738	3738	3738	3738	3698	3698	3738	3738	3738	3738	3738	3738	3738	3738	3738	3738	3698	3698	3698	3698	3659	3779	3659	3659	3659	3659	3659	0	0	0	0	0	0	0	0	0	0	0	0	0	0	0	0	0	0	0	0	0	0	0	0	0	0	0	0	0	0	0	0	0	0	0	0	0	0	0	0	0	0	0	0	0	0	0	0
0	0	0	0	0	0	0	0	1512	1525	1532	1525	1525	1525	1532	1532	1532	0	0	2114	2114	2114	2114	2114	2114	2114	2114	2114	2127	2127	2114	2114	2114	2114	2114	2114	2114	2114	2114	2127	2140	2114	2114	2114	2114	2114	2114	2114	2114	2114	2114	2114	2114	2114	2114	2114	2114	2127	2127	2114	2114	2114	2114	2114	2114	2114	2114	2127	2127	2140	2140	2127	2140	2127	2140	2140	2140	2140	2140	2140	2140	2127	2127	2127	2127	2127	2127	2140	2167	2167	2167	2167	2167	2609	2629	2609	2609	2609	2609	2589	2609	2589	2570	2589	2589	2589	2589	2589	2589	2589	2589	2589	2589	2589	2589	2609	2629	2629	2629	2629	2609	2589	2589	2589	2609	2589	2589	2589	2589	2589	2589	2589	2589	2589	2609	2649	2649	2649	2799	2822	2822	2822	2822	2822	2822	2822	2845	2822	2822	2822	3546	3546	3546	3583	3546	3546	3583	3583	3546	3546	3546	3583	3583	3583	3583	3583	3583	3583	3546	3546	3546	3546	3510	3546	3546	3546	3583	3583	3583	3583	3659	3659	3698	3738	3779	3821	3821	3821	3821	3821	3821	3821	3821	3821	3821	3821	3821	3821	3821	3821	3821	3821	3821	3779	3779	3779	3779	3779	3779	3779	3779	3779	3821	3821	3779	3821	3821	3821	3821	3821	3821	3821	3821	3821	3779	3779	3779	3779	3779	3779	3779	3779	3779	3821	3821	3821	3821	3864	3864	3821	3821	3821	3821	3821	3821	3821	3821	3821	3821	3821	3779	3779	3779	3779	3779	3779	3779	3779	3821	3821	3821	3779	3779	3779	3779	3779	3779	3779	3821	3821	3821	3821	3821	3821	3821	3779	3779	3779	3779	3779	3779	3821	3821	3821	3864	3864	3821	3821	3779	3779	3738	3738	3738	3738	3779	3779	3779	3779	3779	3779	3821	3779	3779	3779	3779	3779	3779	3821	3779	3779	3779	3779	3821	3779	3779	3821	3821	3821	3821	3864	3821	3821	3821	3821	3779	3779	3779	3779	3779	3779	3821	3821	3821	3821	3821	3821	3821	3779	3779	3779	3779	3779	3821	3779	3779	3779	3779	3779	3779	3779	3779	3779	3779	3779	3779	3779	3779	3779	3779	3779	3779	3779	3779	3779	3779	3779	3779	3779	3779	3779	3779	3779	3779	3779	3779	3779	3779	3779	3779	3779	3779	3821	3821	3779	3779	3779	3779	3779	3779	3779	3779	3779	3821	3864	3864	3821	3821	3821	3821	3821	3821	3821	3821	3821	3821	3821	3821	3821	3821	3821	3821	3821	3821	3821	3821	3821	3821	3821	3821	3821	3821	3821	3821	3821	3821	3821	3821	3821	3821	3821	3821	3821	3821	3821	3821	3821	3821	3821	3821	3821	3821	3821	3821	3821	3821	3779	3779	3779	3779	3821	3821	3821	3821	3821	3821	3821	3821	3821	3821	3821	3821	3821	3821	3821	3821	3821	3821	3821	3821	3821	3821	3821	3864	3864	3864	3864	3864	3864	3864	3864	3864	3821	3864	3821	3821	3821	3821	3821	3821	3821	3821	3821	3779	3821	3821	3821	3821	3821	3821	3821	3821	3779	3779	3821	3821	3821	3779	3821	3821	3821	3821	3779	3779	3779	3821	3821	3738	3738	3779	3779	3738	3738	3779	3779	3779	3779	3779	3779	3738	3738	3738	3738	3698	3698	3698	3779	3821	3779	3779	3779	3779	3779	3738	3738	3738	3698	3698	3698	3698	3698	3698	3698	3738	3738	3738	3698	3698	3698	3738	3698	3738	3698	3738	3738	3738	3738	3738	3738	3738	3738	3738	3738	3738	3779	3779	3738	3738	3738	3738	3738	3698	3698	3698	3698	3698	3698	3698	3698	3698	3698	3659	3659	0	0	0	0	0	0	0	0	0	0	0	0	0	0	0	0	0	0	0	0	0	0	0	0	0	0	0	0	0	0	0	0	0	0	0	0	0	0	0	0	0	0	0	0	0	0	0	0
0	0	0	0	0	0	0	0	1512	1525	1525	1525	1525	1525	1532	1532	1532	0	2114	2114	2114	2114	2114	2114	2114	2114	2127	2127	2127	2127	2127	2114	2114	2114	2114	2127	2127	2127	2127	2153	2153	2140	2127	2127	2114	2127	2114	2114	2114	2114	2114	2127	2127	2153	2153	2153	2153	2153	2140	2153	2153	2114	2127	2114	2114	2114	2114	2140	2140	2153	2153	2153	2153	2140	2140	2140	2140	2140	2140	2140	2140	2140	2140	2127	2127	2127	2127	2140	2153	2167	2167	2167	2167	2609	2629	2629	2609	2609	2589	2589	2589	2589	2570	2570	2570	2589	2589	2589	2589	2589	2589	2589	2589	2589	2609	2629	2629	2629	2629	2629	2609	2589	2589	2589	2609	2589	2589	2589	2570	2570	2570	2589	2570	2589	2589	2589	2589	2822	2822	2822	2822	2845	2845	2845	2845	2845	2869	2845	2845	2845	3546	3546	3546	3583	3546	3583	3583	3583	3546	3546	3583	3583	3621	3583	3583	3583	3583	3583	3546	3546	3546	3546	3546	3546	3546	3583	3583	3583	3583	3583	3621	3621	3698	3738	3779	3779	3821	3821	3821	3821	3821	3821	3821	3821	3821	3821	3821	3821	3779	3779	3779	3821	3779	3779	3779	3779	3779	3779	3779	3779	3779	3821	3779	3779	3779	3779	3779	3779	3779	3779	3821	3779	3821	3779	3779	3779	3738	3738	3738	3738	3738	3779	3779	3821	3821	3821	3821	3821	3821	3821	3821	3821	3821	3821	3821	3821	3821	3821	3821	3821	3779	3779	3779	3779	3779	3779	3779	3779	3821	3821	3821	3779	3779	3779	3779	3779	3779	3779	3779	3821	3864	3821	3821	3821	3821	3779	3779	3779	3779	3779	3779	3821	3821	3864	3864	3864	3864	3821	3779	3779	3738	3738	3738	3738	3779	3779	3779	3779	3821	3821	3821	3779	3779	3779	3779	3779	3779	3821	3779	3779	3779	3779	3821	3821	3779	3821	3821	3821	3821	3864	3864	3821	3821	3821	3821	3779	3779	3821	3821	3821	3821	3821	3821	3779	3779	3821	3821	3779	3779	3821	3821	3779	3821	3779	3779	3779	3779	3779	3779	3779	3779	3779	3779	3779	3779	3779	3779	3779	3779	3779	3779	3779	3779	3779	3779	3779	3779	3779	3779	3779	3779	3738	3738	3779	3779	3779	3779	3779	3779	3779	3779	3779	3779	3779	3779	3779	3779	3779	3779	3779	3779	3779	3821	3864	3821	3821	3821	3821	3821	3821	3821	3821	3821	3821	3821	3821	3821	3821	3821	3821	3821	3821	3821	3821	3821	3821	3821	3821	3821	3821	3821	3821	3821	3821	3821	3821	3821	3821	3821	3821	3821	3821	3821	3821	3821	3779	3821	3821	3821	3821	3821	3821	3821	3821	3821	3779	3779	3779	3779	3821	3821	3821	3821	3821	3821	3821	3821	3821	3821	3821	3821	3821	3821	3821	3821	3821	3821	3821	3821	3821	3821	3821	3864	3864	3864	3821	3821	3821	3821	3821	3821	3821	3821	3821	3821	3821	3821	3821	3821	3821	3821	3821	3821	3821	3821	3821	3821	3821	3821	3821	3821	3779	3821	3821	3821	3821	3821	3821	3821	3821	3821	3779	3779	3779	3779	3779	3738	3779	3779	3779	3738	3738	3779	3779	3779	3779	3779	3779	3738	3738	3779	3779	3698	3698	3698	3821	3821	3779	3779	3821	3821	3821	3779	3738	3738	3698	3738	3698	3698	3698	3698	3698	3698	3738	3738	3698	3738	3698	3738	3698	3698	3738	3738	3738	3738	3738	3738	3738	3738	3698	3738	3738	3779	3779	3779	3738	3738	3738	3738	3738	3698	3698	3698	3698	3698	3698	3698	3698	3698	3698	3659	3698	3698	0	0	0	0	0	0	0	0	0	0	0	0	0	0	0	0	0	0	0	0	0	0	0	0	0	0	0	0	0	0	0	0	0	0	0	0	0	0	0	0	0	0	0	0	0	0	0
0	0	0	0	0	0	0	0	1519	1525	1525	1525	1525	1525	1525	1525	0	2127	2114	2114	2127	2114	2127	2127	2127	2127	2140	2127	2127	2127	2127	2127	2127	2127	2127	2127	2127	2127	2140	2153	2153	2140	2140	2140	2127	2127	2127	2114	2127	2127	2140	2153	2140	2153	2153	2153	2167	2153	2153	2140	2153	2127	2127	2127	2127	2127	2127	2140	2140	2153	2153	2153	2153	2153	2153	2153	2153	2153	2153	2153	2153	2140	2140	2140	2140	2140	2140	2153	2153	2167	2167	2167	2181	2181	2629	2629	2629	2609	2589	2589	2589	2589	2570	2589	2570	2570	2589	2589	2570	2589	2570	2589	2589	2609	2609	2629	2629	2629	2629	2589	2589	2589	2589	2589	2589	2589	2589	2570	2570	2570	2570	2570	2570	2570	2570	2570	2570	2822	2822	2845	2845	2845	2845	2845	2845	2845	2845	2845	2845	2845	2845	3546	3546	3546	3546	3583	3583	3583	3583	3583	3621	3621	3621	3621	3583	3621	3621	3621	3583	3583	3546	3583	3546	3583	3621	3621	3621	3583	3583	3583	3583	3621	3621	3738	3779	3821	3821	3821	3821	3821	3821	3821	3779	3779	3779	3821	3821	3779	3779	3779	3779	3779	3779	3779	3779	3779	3821	3821	3821	3779	3821	3821	3821	3779	3779	3779	3779	3779	3779	3779	3779	3779	3821	3779	3779	3779	3779	3779	3738	3738	3738	3738	3779	3821	3821	3821	3821	3864	3821	3821	3821	3821	3821	3821	3821	3821	3779	3779	3779	3779	3779	3779	3779	3779	3821	3779	3821	3821	3821	3821	3821	3779	3779	3779	3779	3738	3779	3779	3821	3821	3864	3821	3821	3821	3779	3779	3779	3738	3779	3779	3779	3779	3821	3821	3864	3864	3864	3821	3779	3779	3738	3738	3738	3738	3779	3779	3779	3779	3779	3779	3821	3779	3779	3821	3821	3779	3821	3821	3779	3779	3779	3738	3779	3779	3779	3821	3821	3821	3821	3864	3821	3821	3821	3821	3821	3821	3779	3821	3821	3821	3779	3821	3779	3779	3821	3779	3821	3821	3779	3821	3821	3821	3821	3779	3779	3779	3779	3779	3779	3779	3779	3779	3779	3779	3779	3779	3779	3779	3779	3779	3779	3779	3779	3779	3779	3779	3779	3779	3779	3738	3738	3738	3779	3779	3779	3779	3779	3779	3779	3779	3779	3779	3779	3779	3779	3779	3779	3779	3779	3779	3779	3779	3821	3864	3821	3821	3821	3821	3821	3821	3821	3821	3821	3821	3821	3821	3821	3821	3821	3821	3821	3821	3821	3821	3821	3821	3821	3821	3821	3779	3821	3779	3821	3821	3821	3821	3821	3821	3821	3821	3821	3821	3821	3821	3821	3821	3779	3821	3779	3821	3821	3821	3821	3821	3821	3779	3821	3821	3779	3779	3821	3821	3821	3821	3821	3821	3821	3821	3821	3821	3821	3821	3821	3821	3821	3821	3821	3821	3821	3821	3821	3821	3864	3821	3821	3821	3821	3821	3821	3821	3821	3821	3821	3821	3821	3821	3821	3821	3821	3821	3821	3821	3821	3821	3821	3821	3821	3821	3821	3821	3821	3779	3779	3821	3821	3821	3821	3821	3821	3821	3821	3821	3821	3821	3821	3821	3738	3738	3738	3738	3779	3779	3779	3779	3779	3779	3779	3779	3738	3738	3779	3738	3698	3698	3698	3698	3738	3779	3779	3779	3821	3821	3779	3738	3738	3738	3738	3698	3698	3698	3698	3698	3698	3738	3738	3738	3738	3698	3738	3698	3738	3698	3738	3738	3738	3738	3738	3738	3738	3698	3738	3738	3738	3738	3779	3738	3738	3738	3738	3698	3698	3698	3698	3738	3698	3698	3698	3698	3698	3698	3698	3698	3698	0	0	0	0	0	0	0	0	0	0	0	0	0	0	0	0	0	0	0	0	0	0	0	0	0	0	0	0	0	0	0	0	0	0	0	0	0	0	0	0	0	0	0	0	0	0	0
0	0	0	0	0	0	0	0	1519	1525	1525	1525	1525	1519	1525	1525	0	2140	2127	2127	2127	2114	2127	2127	2127	2127	2140	2140	2140	2140	2140	2140	2140	2140	2140	2140	2140	2140	2153	2153	2153	2153	2153	2153	2140	2153	2140	2140	2140	2127	2153	2153	2153	2153	2153	2153	2153	2153	2153	2153	2140	2127	2140	2127	2127	2127	2127	2153	2140	2153	2153	2167	2153	2153	2153	2153	2153	2153	2153	2153	2167	2153	2153	2153	2153	2153	2153	2153	2153	2167	2167	2167	2181	2181	2181	2629	2629	2609	2609	2589	2589	2589	2570	2589	2570	2589	2589	2589	2589	2589	2589	2589	2609	2609	2609	2629	2629	2629	2629	2589	2609	2589	2589	2589	2589	2589	2589	2570	2570	2570	2570	2570	2570	2570	2570	2570	2570	2845	2845	2845	2869	2869	2845	2845	2845	2845	2845	2822	2822	2822	2845	0	3546	3546	3546	3546	3583	3583	3583	3583	3621	3621	3621	3621	3621	3621	3621	3621	3583	3583	3583	3583	3583	3583	3621	3621	3583	3621	3621	3583	3621	3659	3698	3738	3779	3821	3821	3821	3821	3821	3821	3821	3779	3779	3779	3779	3779	3779	3779	3779	3779	3779	3779	3738	3738	3779	3779	3779	3779	3779	3821	3821	3821	3779	3779	3779	3779	3779	3821	3821	3821	3821	3821	3821	3779	3779	3779	3779	3738	3738	3738	3738	3779	3821	3821	3821	3821	3864	3821	3821	3821	3821	3779	3779	3779	3779	3779	3779	3779	3779	3779	3779	3779	3779	3821	3779	3821	3821	3821	3821	3821	3821	3779	3779	3779	3738	3779	3779	3779	3821	3821	3821	3821	3821	3779	3779	3779	3779	3779	3779	3779	3821	3821	3821	3821	3821	3821	3779	3779	3738	3738	3738	3738	3738	3779	3779	3779	3779	3779	3779	3779	3779	3779	3779	3779	3779	3779	3779	3779	3779	3779	3738	3779	3779	3779	3821	3821	3821	3821	3864	3821	3821	3821	3821	3821	3821	3779	3821	3779	3821	3779	3779	3779	3779	3779	3779	3779	3779	3779	3821	3821	3821	3821	3779	3779	3779	3779	3779	3779	3779	3779	3779	3779	3779	3779	3779	3779	3821	3821	3821	3779	3779	3779	3779	3779	3779	3779	3779	3779	3779	3779	3779	3779	3779	3779	3779	3779	3779	3779	3779	3779	3779	3779	3779	3779	3779	3779	3779	3779	3738	3779	3779	3821	3821	3821	3821	3821	3821	3821	3821	3779	3779	3779	3821	3821	3821	3821	3821	3821	3821	3821	3821	3821	3821	3821	3779	3821	3779	3779	3779	3821	3779	3821	3821	3779	3821	3821	3821	3821	3821	3821	3821	3821	3821	3821	3821	3821	3779	3779	3821	3821	3821	3821	3821	3821	3779	3821	3821	3821	3821	3821	3821	3821	3821	3821	3821	3821	3821	3779	3821	3821	3821	3821	3821	3821	3821	3821	3821	3821	3821	3821	3779	3821	3821	3821	3821	3821	3821	3821	3821	3821	3821	3821	3821	3821	3821	3821	3821	3821	3821	3821	3821	3821	3821	3821	3821	3821	3821	3821	3821	3821	3821	3821	3821	3821	3821	3821	3821	3821	3821	3821	3821	3821	3821	3821	3821	3738	3738	3738	3821	3779	3779	3779	3779	3779	3779	3779	3738	3738	3738	3779	3779	3779	3698	3698	3779	3779	3779	3779	3779	3779	3821	3779	3779	3779	3738	3738	3738	3738	3738	3738	3738	3698	3738	3738	3738	3738	3738	3738	3738	3738	3698	3698	3698	3698	3698	3698	3698	3698	3698	3698	3738	3738	3738	3738	3738	3738	3738	3698	3698	3698	3698	3698	3738	3698	3698	3698	3698	3698	3698	3698	3738	3738	0	0	0	0	0	0	0	0	0	0	0	0	0	0	0	0	0	0	0	0	0	0	0	0	0	0	0	0	0	0	0	0	0	0	0	0	0	0	0	0	0	0	0	0	0	0	0
0	0	0	0	0	0	0	0	1519	1525	1532	1532	1525	1525	1525	1525	2153	2140	2127	2140	2127	2127	2127	2140	2140	2140	2153	2153	2153	2153	2153	2140	2140	2153	2140	2153	2153	2153	2153	2153	2153	2153	2153	2153	2140	2153	2140	2140	2140	2127	2153	2153	2153	2153	2153	2153	2153	2153	2153	2153	2140	2127	2140	2140	2140	2140	2140	2140	2153	2153	2167	2167	2167	2167	2167	2167	2167	2167	2167	2167	2167	2167	2167	2167	2167	2153	2153	2167	2167	2167	2167	2181	2181	2181	2181	2181	2609	2609	2609	2589	2589	2589	2570	2589	2570	2570	2570	2589	2570	2589	2589	2589	2609	2629	2629	2629	2629	2629	2629	2629	2629	2589	2570	2570	2570	2570	2570	2570	2570	2570	2570	2570	2570	2570	2570	2570	2570	2845	2869	2869	2869	2869	2869	2869	2869	2845	2845	2822	2822	2822	2822	0	3546	3546	3546	3546	3583	3621	3621	3621	3621	3621	3621	3621	3621	3621	3621	3621	3621	3583	3621	3621	3621	3659	3659	3621	3621	3621	3621	3621	3621	3659	3698	3738	3779	3779	3821	3821	3821	3821	3821	3821	3779	3779	3779	3779	3779	3779	3779	3779	3779	3779	3779	3738	3738	3779	3779	3779	3779	3779	3821	3821	3821	3779	3779	3779	3779	3821	3821	3821	3821	3821	3821	3821	3821	3779	3779	3779	3738	3738	3738	3738	3779	3821	3821	3821	3821	3821	3821	3821	3821	3821	3779	3779	3779	3779	3779	3779	3779	3821	3779	3779	3821	3821	3821	3821	3821	3821	3821	3821	3821	3821	3779	3779	3779	3738	3779	3779	3821	3821	3864	3821	3821	3821	3821	3779	3779	3779	3779	3779	3779	3779	3821	3821	3821	3821	3779	3779	3779	3738	3738	3738	3738	3738	3779	3779	3779	3779	3779	3779	3779	3779	3779	3779	3779	3779	3779	3779	3779	3779	3779	3779	3779	3779	3779	3779	3779	3779	3821	3821	3821	3821	3821	3821	3821	3821	3779	3779	3779	3821	3779	3779	3779	3779	3779	3779	3779	3779	3779	3779	3779	3821	3821	3779	3779	3779	3779	3779	3779	3779	3779	3779	3779	3779	3779	3779	3779	3821	3821	3779	3779	3779	3779	3779	3779	3779	3779	3821	3779	3779	3779	3779	3779	3779	3779	3779	3779	3779	3779	3779	3779	3779	3779	3779	3779	3779	3779	3779	3779	3738	3779	3779	3821	3821	3821	3821	3821	3821	3821	3821	3779	3779	3779	3821	3821	3821	3821	3821	3821	3821	3821	3821	3821	3821	3821	3779	3779	3779	3779	3779	3821	3779	3821	3821	3779	3821	3779	3821	3821	3779	3821	3821	3821	3779	3821	3779	3779	3779	3779	3821	3821	3821	3779	3779	3821	3779	3821	3821	3821	3821	3821	3821	3821	3821	3779	3821	3779	3779	3779	3779	3779	3821	3821	3821	3821	3821	3821	3821	3821	3821	3779	3779	3864	3864	3821	3821	3821	3821	3821	3821	3821	3864	3821	3821	3821	3821	3821	3821	3821	3821	3821	3821	3821	3821	3821	3821	3821	3821	3821	3821	3821	3821	3821	3821	3864	3864	3821	3821	3821	3821	3821	3821	3821	3821	3821	3821	3821	3821	3821	3821	3821	3779	3779	3779	3779	3779	3779	3779	3738	3738	3779	3738	3698	3698	3698	3738	3779	3738	3738	3779	3779	3821	3779	3779	3779	3779	3738	3738	3738	3738	3738	3738	3698	3738	3738	3738	3779	3738	3738	3738	3738	3698	3698	3698	3698	3698	3698	3698	3698	3698	3698	3698	3698	3698	3738	3698	3738	3698	3698	3698	3698	3698	3698	3698	3698	3698	3698	3698	3698	3698	3698	3698	3738	3738	0	0	0	0	0	0	0	0	0	0	0	0	0	0	0	0	0	0	0	0	0	0	0	0	0	0	0	0	0	0	0	0	0	0	0	0	0	0	0	0	0	0	0	0	0	0
0	0	0	0	0	0	0	0	1519	1519	1525	1525	1525	1525	1525	0	2153	2153	2140	2140	2140	2127	2140	2140	2153	2153	2153	2153	2153	2153	2153	2153	2153	2153	2153	2153	2153	2167	2153	2167	2167	2153	2153	2153	2153	2153	2153	2153	2140	2140	2167	2167	2167	2153	2153	2153	2153	2153	2153	2153	2153	2140	2153	2140	2140	2140	2140	2153	2153	2153	2167	2167	2167	2167	2167	2167	2167	2167	2167	2181	2181	2167	2181	2167	2167	2167	2167	2167	2167	2167	2181	2181	2181	2181	2181	2181	2181	2570	2570	2589	2589	2589	2589	2589	2570	2570	2570	2570	2570	2570	2589	2589	2609	2609	2629	2609	2629	2629	2609	2589	2589	2570	2570	2570	2570	2570	2570	2570	2570	2570	2570	2551	2570	2570	2570	2570	2570	0	2893	2893	2893	2893	2893	2893	2869	2869	2869	2845	2845	2845	2822	0	3546	3546	3546	3546	3659	3659	3659	3659	3659	3659	3659	3659	3698	3698	3698	3659	3659	3659	3659	3659	3659	3659	3659	3659	3659	3659	3659	3621	3659	3659	3698	3738	3779	3779	3821	3821	3821	3821	3821	3821	3779	3779	3779	3821	3821	3779	3779	3779	3779	3779	3779	3779	3779	3779	3779	3779	3779	3779	3779	3821	3821	3779	3779	3779	3779	3779	3821	3821	3821	3821	3821	3821	3821	3821	3864	3864	3698	3698	3698	3698	3738	3779	3821	3821	3821	3821	3821	3821	3821	3821	3821	3821	3779	3779	3779	3779	3779	3779	3779	3779	3779	3779	3779	3821	3821	3821	3821	3821	3864	3821	3821	3779	3779	3738	3779	3738	3779	3779	3821	3821	3821	3821	3821	3779	3779	3779	3779	3779	3779	3779	3821	3821	3821	3821	3821	3779	3779	3779	3738	3738	3738	3738	3779	3779	3779	3779	3779	3738	3738	3779	3779	3779	3779	3779	3779	3779	3779	3779	3779	3779	3821	3821	3779	3821	3821	3821	3821	3821	3821	3821	3821	3821	3821	3821	3779	3779	3779	3779	3779	3779	3779	3779	3779	3779	3779	3779	3779	3779	3779	3821	3821	3779	3779	3821	3779	3779	3779	3779	3779	3779	3779	3779	3779	3779	3779	3779	3779	3779	3779	3779	3779	3779	3779	3779	3821	3779	3779	3779	3779	3779	3779	3779	3779	3779	3779	3779	3779	3779	3779	3779	3779	3779	3779	3779	3779	3779	3779	3779	3779	3779	3821	3821	3821	3821	3821	3821	3821	3821	3821	3821	3821	3821	3821	3821	3821	3821	3821	3821	3821	3821	3821	3821	3821	3779	3779	3821	3779	3821	3821	3821	3821	3821	3779	3821	3779	3779	3821	3779	3821	3779	3779	3779	3779	3779	3779	3779	3779	3779	3779	3821	3821	3779	3821	3821	3821	3821	3821	3821	3821	3821	3821	3821	3779	3821	3779	3779	3779	3779	3779	3779	3779	3779	3779	3779	3821	3821	3779	3779	3779	3779	3821	3864	3821	3821	3821	3821	3821	3821	3821	3864	3864	3821	3821	3821	3821	3821	3821	3821	3821	3821	3821	3821	3821	3821	3821	3821	3821	3821	3821	3821	3821	3821	3864	3864	3821	3821	3821	3821	3821	3821	3821	3821	3821	3821	3821	3821	3821	3821	3821	3821	3779	3821	3779	3779	3779	3779	3779	3738	3779	3738	3738	3738	3738	3779	3779	3779	3779	3821	3779	3779	3779	3779	3779	3779	3779	3779	3779	3738	3738	3738	3738	3738	3738	3738	3738	3738	3698	3698	3698	3698	3698	3698	3698	3698	3698	3698	3698	3698	3698	3698	3738	3698	3738	3738	3738	3738	3698	3698	3698	3698	3698	3698	3698	3698	3738	3698	3698	3698	3698	3698	3698	3698	0	0	0	0	0	0	0	0	0	0	0	0	0	0	0	0	0	0	0	0	0	0	0	0	0	0	0	0	0	0	0	0	0	0	0	0	0	0	0	0	0	0	0	0	0	0
0	0	0	0	0	0	0	0	1519	1525	1532	1525	1525	1525	1525	0	2153	2153	2140	2140	2140	2127	2140	2153	2153	2153	2153	2153	2153	2153	2153	2153	2167	2153	2167	2167	2167	2167	2167	2167	2167	2153	2153	2153	2153	2153	2153	2153	2153	2153	2167	2167	2167	2167	2167	2167	2167	2153	2167	2167	2153	2153	2153	2153	2153	2153	2153	2153	2153	2167	2167	2167	2167	2181	2181	2181	2167	2181	2181	2181	2181	2181	2181	2181	2181	2181	2167	2167	2167	2167	2167	2181	2181	2181	2181	2181	2181	2570	2570	2570	2589	2589	2570	2589	2570	2570	2570	2570	2570	2570	2570	2589	2609	2609	2609	2629	2609	2629	2629	2589	2589	2570	2570	2570	2570	2570	2570	2570	2570	2570	2570	2570	2570	2570	2570	2570	0	0	2893	2893	2893	2893	2893	2893	2893	2893	2893	2893	2893	2845	0	0	0	0	0	0	3659	3659	3698	3698	3698	3698	3698	3698	3698	3698	3698	3659	3659	3659	3659	3659	3659	3698	3698	3698	3698	3698	3659	3659	3659	3659	3698	3738	3738	3779	3779	3821	3821	3821	3821	3821	3779	3779	3779	3779	3779	3779	3779	3779	3779	3779	3779	3779	3779	3779	3779	3779	3779	3779	3779	3779	3779	3779	3779	3779	3821	3821	3821	3821	3821	3821	3864	3864	3864	3864	3821	3821	3698	3738	3738	3698	3738	3821	3821	3821	3821	3821	3821	3821	3821	3779	3821	3821	3779	3821	3821	3779	3779	3779	3738	3738	3779	3779	3779	3779	3821	3821	3821	3821	3821	3821	3821	3779	3779	3779	3779	3738	3779	3779	3821	3821	3821	3821	3779	3779	3779	3779	3779	3779	3779	3821	3821	3821	3821	3821	3821	3779	3779	3738	3738	3738	3738	3779	3738	3779	3779	3779	3779	3779	3779	3779	3779	3779	3779	3779	3779	3779	3779	3779	3779	3779	3779	3821	3821	3821	3821	3821	3821	3821	3821	3821	3821	3821	3821	3821	3779	3779	3779	3779	3779	3779	3779	3779	3779	3779	3779	3779	3779	3779	3779	3779	3779	3779	3779	3779	3779	3779	3779	3779	3779	3779	3779	3779	3779	3779	3779	3779	3779	3779	3779	3779	3779	3779	3779	3779	3821	3779	3779	3779	3779	3779	3779	3779	3779	3779	3779	3779	3779	3779	3779	3779	3779	3779	3779	3779	3779	3779	3779	3779	3779	3779	3821	3821	3821	3821	3821	3821	3821	3821	3821	3821	3821	3779	3779	3821	3779	3779	3821	3821	3821	3821	3821	3821	3821	3779	3779	3779	3779	3821	3821	3821	3821	3821	3779	3779	3779	3779	3779	3779	3821	3779	3779	3779	3779	3779	3821	3779	3779	3821	3779	3779	3821	3821	3821	3821	3821	3821	3821	3821	3821	3821	3821	3821	3779	3821	3779	3779	3779	3779	3779	3779	3779	3779	3779	3779	3779	3779	3779	3779	3779	3779	3821	3821	3821	3821	3821	3821	3821	3821	3821	3864	3864	3864	3864	3864	3864	3864	3864	3821	3864	3821	3821	3821	3821	3821	3821	3821	3821	3821	3821	3821	3821	3821	3821	3821	3821	3821	3821	3821	3821	3821	3779	3821	3821	3821	3821	3821	3821	3821	3821	3821	3779	3779	3779	3779	3779	3779	3779	3779	3779	3779	3779	3738	3738	3738	3779	3738	3738	3779	3779	3779	3779	3779	3779	3779	3779	3738	3738	3738	3738	3738	3698	3738	3738	3738	3738	3738	3738	3698	3698	3698	3698	3698	3698	3698	3698	3698	3698	3698	3698	3698	3738	3738	3738	3738	3738	3738	3738	3738	3698	3698	3698	3698	3698	3698	3738	3698	3738	3738	3738	3738	3738	3738	0	0	0	0	0	0	0	0	0	0	0	0	0	0	0	0	0	0	0	0	0	0	0	0	0	0	0	0	0	0	0	0	0	0	0	0	0	0	0	0	0	0	0	0	0	0
0	0	0	0	0	0	0	0	1519	1519	1525	1525	1525	1525	1525	0	2153	2153	2140	2153	2140	2140	2153	2153	2153	2153	2153	2153	2153	2153	2153	2167	2167	2167	2167	2167	2181	2181	2167	2167	2167	2167	2167	2167	2167	2167	2167	2167	2167	2167	2167	2181	2167	2167	2167	2167	2167	2167	2167	2167	2167	2167	2167	2167	2167	2167	2153	2167	2167	2167	2181	2181	2181	2181	2181	2181	2181	2181	2181	2194	2194	2181	2181	2181	2181	2181	2181	2181	2181	2181	2181	2181	2181	2181	2181	2181	2181	2570	2570	2589	2589	2570	2570	2570	2570	2570	2570	2570	2570	2570	2570	2589	2629	2629	2629	2629	2629	2609	2609	2589	2570	2570	2570	2570	2551	2570	2570	2570	2570	2570	2570	2570	2570	2589	2589	0	0	0	0	2893	2893	2893	2893	2893	2893	2893	2893	2917	2917	2917	2917	2917	2917	2917	0	0	3698	3698	3698	3698	3698	3698	3698	3698	3698	3698	3698	3698	3698	3659	3659	3698	3698	3698	3698	3698	3698	3698	3698	3659	3659	3659	3698	3698	3738	3738	3779	3821	3821	3821	3821	3821	3821	3821	3779	3779	3779	3779	3779	3738	3779	3779	3779	3779	3779	3779	3779	3779	3779	3779	3779	3821	3821	3821	3779	3821	3821	3821	3821	3821	3821	3821	3821	3821	3821	3821	3821	3738	3698	3698	3698	3698	3738	3779	3821	3821	3821	3821	3821	3821	3821	3821	3821	3821	3821	3779	3779	3779	3779	3779	3779	3738	3779	3779	3779	3779	3779	3821	3821	3821	3821	3821	3821	3779	3779	3738	3779	3779	3779	3779	3821	3821	3779	3821	3779	3779	3779	3779	3779	3779	3779	3779	3821	3821	3821	3821	3779	3779	3779	3738	3738	3738	3738	3738	3738	3779	3779	3779	3779	3779	3779	3779	3779	3779	3779	3779	3779	3779	3779	3779	3779	3779	3821	3821	3821	3821	3779	3821	3821	3821	3779	3779	3779	3779	3779	3821	3779	3779	3779	3779	3779	3779	3779	3779	3779	3779	3779	3779	3779	3779	3779	3779	3779	3779	3779	3779	3738	3779	3779	3779	3779	3779	3779	3779	3779	3779	3779	3779	3779	3779	3779	3779	3779	3779	3779	3779	3821	3779	3779	3779	3779	3779	3779	3779	3779	3779	3779	3779	3779	3779	3779	3779	3779	3779	3779	3779	3779	3779	3779	3779	3779	3779	3821	3821	3821	3821	3821	3821	3821	3821	3821	3821	3821	3779	3779	3779	3779	3779	3821	3821	3821	3821	3821	3821	3821	3779	3779	3779	3779	3821	3821	3821	3821	3821	3821	3821	3821	3821	3821	3779	3821	3779	3779	3779	3821	3821	3821	3779	3779	3779	3779	3779	3779	3779	3779	3821	3821	3821	3821	3821	3821	3821	3821	3821	3779	3821	3779	3779	3779	3779	3779	3779	3779	3779	3779	3779	3779	3779	3779	3779	3779	3821	3864	3864	3821	3821	3821	3821	3821	3821	3821	3864	3864	3864	3864	3864	3864	3864	3864	3864	3864	3821	3821	3821	3821	3821	3821	3821	3821	3821	3821	3821	3821	3821	3821	3821	3821	3821	3779	3779	3779	3779	3779	3779	3779	3821	3821	3821	3821	3821	3821	3821	3821	3821	3779	3779	3779	3821	3821	3779	3821	3779	3779	3779	3738	3738	3738	3738	3738	3779	3779	3779	3779	3779	3821	3779	3779	3779	3779	3779	3738	3738	3738	3738	3738	3738	3738	3698	3698	3698	3698	3698	3698	3659	3698	3698	3698	3698	3698	3698	3698	3698	3698	3698	3738	3738	3738	3738	3738	3738	3698	3698	3698	3698	3738	3738	3738	3738	3738	3738	3738	3738	3738	3738	0	0	0	0	0	0	0	0	0	0	0	0	0	0	0	0	0	0	0	0	0	0	0	0	0	0	0	0	0	0	0	0	0	0	0	0	0	0	0	0	0	0	0	0	0	0
0	0	0	0	0	0	0	0	1519	1525	1532	1525	1525	1525	1525	2167	2167	2153	2153	2153	2153	2153	2153	2167	2167	2167	2167	2167	2167	2167	2167	2167	2181	2181	2181	2181	2181	2181	2167	2167	2167	2167	2167	2167	2167	2167	2167	2167	2167	2167	2167	2181	2208	2167	2167	2167	2167	2167	2167	2167	2181	2181	2181	2181	2167	2167	2167	2167	2167	2167	2181	2181	2181	2181	2181	2181	2181	2181	2181	2194	2194	2181	2194	2181	2194	2181	2181	2181	2181	2181	2181	2181	2181	2181	2181	2167	2167	2570	2570	2589	2570	2570	2570	2570	2570	2570	2570	2570	2570	2570	2570	2629	2629	2629	2629	2629	2629	2609	2589	2589	2570	2570	2570	2570	2570	2570	2570	2570	2570	2570	2570	2551	2570	2570	2589	0	0	0	2942	2917	2917	2917	2917	2917	2917	2917	2942	2942	2942	2942	2917	2917	2917	2917	0	0	3698	3698	3738	3738	3698	3738	3698	3698	3698	3698	3698	3698	3698	3698	3698	3698	3698	3698	3698	3698	3698	3698	3698	3659	3659	3698	3698	3698	3738	3738	3738	3779	3821	3821	3821	3821	3821	3821	3779	3779	3779	3779	3779	3738	3738	3738	3779	3738	3738	3738	3779	3779	3779	3779	3779	3821	3821	3779	3779	3821	3779	3821	3821	3821	3779	3821	3821	3821	3821	3821	3738	3738	3698	3738	3698	3698	3698	3779	3779	3779	3821	3821	3821	3821	3821	3779	3779	3821	3821	3821	3821	3821	3779	3821	3779	3779	3779	3779	3779	3779	3779	3821	3821	3821	3821	3821	3821	3779	3738	3738	3738	3738	3738	3738	3779	3821	3821	3821	3821	3779	3779	3779	3779	3779	3779	3779	3821	3821	3821	3821	3779	3779	3779	3779	3738	3738	3738	3779	3738	3779	3779	3738	3779	3779	3779	3779	3779	3738	3779	3779	3779	3779	3779	3779	3779	3779	3779	3821	3821	3821	3779	3821	3779	3779	3779	3779	3779	3779	3779	3779	3779	3779	3779	3779	3779	3779	3779	3779	3779	3779	3779	3779	3779	3779	3779	3779	3779	3779	3779	3779	3779	3779	3779	3779	3779	3779	3779	3779	3779	3779	3779	3779	3779	3779	3779	3779	3779	3779	3779	3779	3821	3779	3821	3779	3821	3779	3779	3779	3779	3779	3779	3779	3779	3779	3779	3779	3779	3779	3779	3779	3779	3779	3779	3738	3779	3779	3821	3821	3821	3821	3821	3821	3821	3821	3821	3779	3821	3779	3779	3779	3779	3779	3821	3821	3821	3821	3821	3821	3821	3821	3779	3821	3779	3821	3821	3821	3821	3821	3821	3821	3821	3821	3821	3779	3821	3821	3779	3779	3821	3779	3821	3779	3779	3821	3779	3779	3779	3779	3779	3821	3821	3821	3821	3821	3821	3821	3779	3779	3779	3821	3779	3779	3779	3779	3779	3779	3779	3779	3779	3779	3779	3821	3779	3779	3779	3779	3821	3821	3821	3821	3821	3821	3821	3821	3821	3864	3864	3821	3864	3864	3864	3864	3864	3864	3864	3821	3821	3821	3821	3821	3821	3821	3779	3821	3821	3821	3821	3821	3821	3821	3821	3821	3821	3779	3821	3779	3779	3821	3821	3821	3821	3821	3821	3821	3821	3821	3821	3821	3821	3779	3821	3821	3821	3779	3779	3779	3779	3779	3738	3738	3738	3738	3738	3738	3738	3738	3779	3779	3779	3779	3779	3779	3779	3779	3738	3738	3738	3738	3738	3738	3698	3698	3698	3698	3698	3698	3698	3698	3698	3698	3698	3698	3698	3698	3698	3698	3698	3698	3738	3738	3738	3738	3738	3738	3738	3738	3698	3698	3738	3738	3738	3738	3738	3738	3738	3738	3738	3738	0	0	0	0	0	0	0	0	0	0	0	0	0	0	0	0	0	0	0	0	0	0	0	0	0	0	0	0	0	0	0	0	0	0	0	0	0	0	0	0	0	0	0	0	0	0
0	0	0	0	0	0	0	0	1519	1519	1525	1525	1525	1525	1525	2167	2167	2167	2167	2167	2167	2167	2167	2167	2167	2167	2181	2181	2167	2181	2181	2194	2194	2194	2194	2194	2181	2181	2167	2167	2167	2167	2167	2167	2167	2167	2181	2167	2167	2181	2181	2181	2208	2208	2208	2181	2167	2208	2181	2181	2181	2181	2181	2181	2167	2167	2167	2167	2167	2167	2181	2194	2181	2194	2194	2194	2194	2194	2194	2194	2194	2194	2194	2194	2194	2194	2194	2194	2194	2181	2194	2181	2181	2181	2181	2167	2181	2181	2570	2570	2570	2570	2570	2570	2570	2570	2570	2570	2570	2570	2570	2629	2629	2629	2629	2629	2609	2609	2589	2589	2570	2570	2570	2570	2570	2570	2570	2570	2570	2570	2570	2570	2570	2570	0	0	0	0	2942	2942	2942	2917	2917	2917	2917	2942	2942	2942	2942	2942	2942	2942	2942	2942	2942	3779	3779	3738	3738	3738	3738	3738	3738	3738	3738	3698	3698	3698	3698	3698	3698	3698	3698	3698	3698	3698	3698	3698	3698	3698	3659	3698	3698	3698	3738	3738	3738	3779	3779	3821	3821	3821	3779	3821	3779	3779	3779	3779	3779	3738	3779	3779	3779	3738	3738	3738	3779	3738	3779	3779	3779	3821	3821	3821	3779	3821	3821	3821	3821	3821	3821	3821	3821	3779	3779	3821	3738	3738	3698	3738	3738	3698	3738	3779	3821	3821	3821	3779	3779	3779	3779	3779	3821	3821	3821	3821	3821	3821	3821	3821	3779	3779	3779	3779	3779	3779	3779	3779	3779	3821	3779	3821	3821	3779	3779	3738	3738	3738	3738	3779	3779	3779	3779	3821	3779	3779	3779	3779	3779	3779	3821	3821	3821	3821	3821	3821	3779	3779	3779	3779	3738	3738	3738	3779	3738	3779	3779	3738	3738	3738	3779	3779	3779	3738	3779	3779	3779	3779	3738	3779	3779	3779	3779	3821	3779	3821	3779	3779	3779	3779	3779	3779	3779	3779	3779	3779	3779	3779	3779	3779	3779	3779	3779	3779	3779	3779	3779	3779	3779	3779	3779	3779	3779	3779	3738	3779	3738	3738	3779	3779	3779	3779	3779	3779	3779	3779	3779	3779	3779	3779	3779	3779	3779	3779	3779	3779	3779	3779	3779	3779	3821	3779	3779	3779	3779	3779	3779	3779	3779	3779	3779	3779	3779	3779	3779	3779	3779	3738	3779	3738	3779	3779	3821	3821	3821	3821	3821	3821	3821	3821	3821	3821	3821	3779	3779	3779	3779	3779	3779	3821	3821	3821	3821	3821	3821	3821	3821	3821	3821	3821	3821	3821	3821	3821	3821	3821	3821	3821	3821	3779	3821	3821	3779	3821	3821	3821	3779	3779	3779	3779	3779	3779	3779	3779	3779	3779	3821	3821	3821	3821	3821	3821	3779	3779	3821	3821	3821	3779	3821	3779	3779	3779	3779	3779	3779	3779	3779	3779	3779	3779	3779	3779	3864	3864	3864	3864	3864	3821	3821	3864	3821	3864	3864	3864	3864	3864	3864	3864	3864	3864	3864	3821	3821	3821	3821	3821	3821	3821	3779	3821	3821	3821	3821	3821	3821	3821	3821	3821	3821	3779	3779	3779	3779	3779	3821	3821	3821	3821	3821	3821	3821	3821	3821	3821	3821	3779	3821	3821	3779	3779	3779	3738	3738	3779	3738	3738	3738	3738	3738	3738	3738	3738	3779	3779	3779	3779	3779	3779	3779	3779	3738	3738	3698	3738	3738	3738	3698	3698	3698	3698	3698	3698	3698	3698	3738	3738	3738	3698	3698	3698	3698	3698	3698	3698	3738	3738	3698	3738	3738	3698	3698	3738	3698	3698	3738	3738	3738	3738	3738	3738	3738	3738	3738	3738	0	0	0	0	0	0	0	0	0	0	0	0	0	0	0	0	0	0	0	0	0	0	0	0	0	0	0	0	0	0	0	0	0	0	0	0	0	0	0	0	0	0	0	0	0	0
0	0	0	0	0	0	0	0	1519	1519	1525	1525	1525	1532	1532	0	2167	2167	2167	2167	2167	2167	2181	2181	2181	2181	2181	2181	2181	2194	2194	2194	2208	2208	2208	2194	2194	2194	2181	2181	2181	2181	2181	2181	2181	2181	2194	2181	2181	2194	2181	2194	2194	2181	2167	2181	2181	2181	2181	2194	2194	2194	2181	2194	2181	2181	2167	2167	2167	2167	2194	2194	2194	2194	2194	2194	2208	2194	2208	2208	2208	2194	2208	2208	2208	2208	2208	2208	2208	2208	2194	2194	2194	2194	2181	2181	2181	2181	2181	2570	2570	2570	2570	2570	2570	2570	2570	2570	2570	2570	2570	0	2629	2629	2629	2629	2609	2609	2570	2570	2570	2570	2570	2570	2570	2570	2570	2570	2570	2570	2570	2570	2570	2570	0	0	0	0	2967	2942	2942	2917	2917	2917	2942	2942	2942	2942	2942	2942	2942	2942	2967	2967	2967	2967	3779	3779	3779	3779	3738	3738	3738	3738	3738	3698	3698	3698	3698	3698	3698	3698	3698	3698	3698	3698	3698	3698	3698	3698	3698	3698	3698	3698	3738	3738	3738	3738	3738	3779	3821	3821	3821	3821	3821	3821	3821	3821	3821	3779	3779	3779	3779	3779	3738	3738	3738	3738	3779	3779	3779	3779	3779	3821	3779	3821	3821	3821	3821	3821	3821	3821	3821	3779	3738	3779	3738	3738	3738	3738	3738	3738	3738	3738	3779	3779	3779	3779	3779	3779	3779	3779	3821	3821	3821	3821	3821	3821	3821	3821	3779	3779	3779	3779	3779	3779	3779	3779	3779	3821	3779	3779	3821	3779	3779	3738	3738	3738	3738	3738	3779	3779	3779	3779	3779	3779	3779	3779	3821	3779	3821	3821	3821	3821	3779	3821	3779	3779	3779	3779	3779	3779	3779	3779	3738	3779	3779	3738	3738	3738	3738	3779	3738	3738	3738	3779	3779	3779	3779	3779	3779	3779	3779	3821	3821	3821	3779	3779	3779	3779	3779	3779	3821	3821	3738	3738	3738	3779	3779	3738	3738	3779	3779	3738	3779	3779	3779	3779	3779	3779	3779	3779	3779	3779	3738	3738	3738	3738	3738	3779	3779	3779	3779	3779	3779	3779	3779	3779	3779	3779	3779	3779	3779	3779	3779	3779	3779	3779	3779	3779	3779	3779	3779	3779	3779	3779	3779	3779	3779	3779	3779	3779	3779	3779	3779	3779	3779	3779	3779	3779	3779	3779	3821	3821	3821	3821	3821	3821	3821	3821	3821	3821	3821	3779	3779	3779	3779	3779	3779	3779	3779	3821	3821	3821	3821	3821	3821	3821	3821	3821	3821	3821	3821	3821	3821	3821	3821	3821	3821	3779	3821	3821	3779	3779	3779	3821	3821	3821	3779	3779	3779	3779	3779	3779	3779	3779	3821	3821	3821	3821	3821	3821	3779	3779	3821	3821	3821	3821	3821	3821	3821	3779	3779	3779	3779	3779	3779	3779	3779	3779	3779	3779	3864	3864	3864	3821	3821	3821	3821	3821	3821	3864	3864	3864	3864	3864	3864	3864	3864	3864	3864	3864	3821	3821	3821	3821	3821	3821	3779	3821	3821	3821	3821	3821	3821	3821	3821	3821	3821	3779	3821	3821	3821	3821	3821	3821	3821	3821	3821	3821	3821	3821	3821	3821	3821	3779	3821	3821	3779	3779	3779	3738	3738	3738	3738	3738	3738	3698	3738	3738	3738	3738	3738	3779	3779	3779	3779	3779	3779	3779	3738	3738	3698	3738	3738	3738	3698	3698	3738	3698	3698	3698	3698	3738	3738	3779	3738	3738	3738	3738	3738	3738	3698	3698	3738	3738	3738	3738	3738	3738	3698	3738	3698	3698	3738	3698	3738	3738	3738	3738	3738	3738	3738	3738	0	0	0	0	0	0	0	0	0	0	0	0	0	0	0	0	0	0	0	0	0	0	0	0	0	0	0	0	0	0	0	0	0	0	0	0	0	0	0	0	0	0	0	0	0	0
0	0	0	0	0	0	0	0	1519	1519	1525	1532	1532	1532	1532	2167	2167	2167	2167	2167	2167	2181	2181	2181	2181	2194	2208	2208	2208	2208	2223	2208	2223	2208	2208	2208	2208	2208	2194	2208	2194	2194	2194	2194	2194	2194	2194	2181	2208	2208	2208	2194	2194	2223	2181	2223	2181	2194	2194	2194	2194	2194	2194	2194	2181	2181	2181	2181	2181	2181	2194	2237	2237	2208	2208	2208	2223	2208	2223	2223	2223	2208	2223	2208	2223	2223	2223	2223	2223	2223	2208	2208	2208	2208	2194	2194	2223	2223	2223	2223	2223	2570	2570	2570	2570	2570	2570	2570	2570	2570	2570	2629	2629	2589	2609	2609	2589	2589	2570	2570	2570	2570	2570	2570	2570	2570	2570	2570	2570	2570	2570	2570	2570	2589	2589	2570	2993	2993	2993	2967	2967	2942	2942	2942	2942	2967	2967	2967	2967	2967	2942	2942	2967	2967	2967	3821	3779	3738	3738	3738	3738	3738	3738	3698	3698	3698	3698	3698	3698	3698	3698	3698	3698	3698	3698	3698	3698	3698	3698	3698	3698	3698	3698	3698	3698	3738	3698	3738	3738	3779	3821	3821	3821	3821	3779	3779	3779	3821	3779	3779	3779	3779	3779	3738	3738	3738	3738	3738	3779	3779	3779	3779	3779	3821	3779	3779	3821	3821	3821	3821	3779	3779	3779	3738	3738	3738	3698	3698	3698	3738	3738	3738	3698	3738	3779	3738	3779	3779	3779	3738	3738	3738	3779	3779	3779	3821	3821	3821	3779	3779	3779	3779	3779	3779	3779	3779	3779	3779	3779	3779	3779	3779	3779	3779	3779	3738	3738	3779	3738	3738	3779	3779	3779	3779	3779	3779	3779	3779	3779	3779	3779	3779	3779	3779	3779	3779	3779	3779	3779	3779	3779	3779	3779	3779	3738	3738	3738	3738	3738	3738	3738	3779	3779	3779	3779	3779	3779	3779	3779	3779	3779	3779	3779	3821	3821	3821	3779	3779	3779	3779	3779	3779	3779	3779	3779	3779	3779	3779	3779	3738	3738	3738	3779	3738	3779	3779	3779	3779	3779	3779	3779	3779	3779	3779	3738	3738	3738	3738	3738	3779	3779	3779	3779	3779	3779	3779	3779	3779	3779	3779	3779	3779	3779	3779	3779	3779	3779	3779	3779	3779	3779	3779	3779	3779	3779	3779	3779	3779	3779	3779	3779	3779	3779	3779	3779	3779	3779	3779	3779	3779	3779	3779	3779	3821	3821	3821	3821	3821	3821	3821	3821	3821	3821	3821	3821	3779	3779	3779	3779	3779	3779	3779	3821	3821	3821	3821	3821	3821	3821	3821	3821	3821	3821	3821	3821	3821	3821	3821	3821	3779	3779	3821	3779	3779	3779	3779	3779	3779	3779	3779	3779	3779	3779	3779	3821	3821	3821	3821	3821	3821	3821	3821	3779	3779	3821	3821	3821	3821	3821	3821	3779	3779	3779	3779	3779	3779	3779	3779	3779	3779	3779	3779	3864	3821	3821	3821	3821	3821	3821	3821	3821	3864	3864	3864	3864	3864	3864	3864	3864	3864	3864	3864	3821	3821	3821	3821	3821	3821	3821	3821	3821	3821	3821	3821	3821	3779	3821	3779	3779	3779	3779	3779	3821	3821	3821	3821	3821	3821	3821	3821	3779	3821	3821	3821	3821	3779	3821	3821	3779	3779	3779	3738	3738	3738	3738	3738	3738	3738	3738	3738	3738	3738	3738	3738	3738	3779	3738	3779	3738	3738	3698	3738	3698	3738	3698	3698	3698	3698	3698	3698	3698	3698	3738	3738	3738	3779	3738	3738	3738	3738	3738	3738	3738	3698	3698	3738	3738	3738	3738	3738	3698	3738	3738	3698	3738	3698	3738	3738	3738	3779	3779	3738	3738	3738	0	0	0	0	0	0	0	0	0	0	0	0	0	0	0	0	0	0	0	0	0	0	0	0	0	0	0	0	0	0	0	0	0	0	0	0	0	0	0	0	0	0	0	0	0	0
0	0	0	0	0	0	0	0	1519	1525	1532	1532	1532	0	0	2167	2167	2167	2167	2167	2167	2167	2181	2181	2181	2194	2194	2208	2208	2208	2223	2223	2223	2223	2223	2223	2223	2208	2208	2208	2208	2208	2208	2208	2208	2223	2208	2208	2208	2194	2194	2208	2208	2194	2194	2194	2194	2194	2194	2194	2194	2208	2194	2194	2181	2181	2181	2181	2181	2181	2237	2237	2223	2223	2223	2223	2223	2223	2223	2223	2223	2223	2223	2223	2223	2223	2223	2223	2223	2223	2223	2223	2208	2208	2223	2223	2223	2223	2237	2237	2237	2237	2589	2570	2570	2570	2570	2570	2570	2570	2609	2570	2609	2589	2609	2609	2589	2570	2570	2570	2570	2570	2570	2570	2570	2570	2570	2570	2570	2570	2570	2570	2570	2570	2570	2570	3019	2967	2967	2967	2967	2942	2942	2967	2967	2967	2967	2967	2967	2967	2967	2967	2967	2993	2967	2967	3821	3738	3738	3738	3698	3698	3698	3698	3698	3698	3698	3698	3698	3698	3698	3698	3698	3698	3698	3698	3698	3698	3698	3698	3698	3698	3698	3698	3738	3738	3698	3738	3779	3779	3821	3821	3821	3821	3779	3779	3779	3821	3779	3738	3738	3738	3779	3738	3738	3738	3738	3738	3738	3779	3779	3779	3779	3779	3779	3779	3779	3821	3821	3779	3779	3779	3779	3738	3738	3698	3698	3738	3738	3738	3738	3738	3738	3779	3779	3779	3779	3738	3779	3738	3738	3738	3779	3779	3821	3821	3821	3821	3821	3821	3779	3779	3779	3779	3779	3779	3779	3779	3779	3779	3779	3779	3779	3738	3779	3738	3738	3738	3738	3738	3738	3738	3779	3779	3779	3779	3779	3779	3779	3779	3779	3779	3779	3779	3779	3779	3779	3821	3779	3779	3779	3779	3779	3779	3738	3738	3738	3738	3738	3738	3738	3779	3779	3779	3779	3779	3779	3779	3779	3779	3779	3779	3779	3821	3821	3821	3821	3821	3821	3821	3821	3821	3821	3779	3779	3779	3779	3779	3779	3738	3738	3738	3738	3738	3738	3738	3779	3779	3779	3779	3779	3779	3779	3738	3738	3738	3738	3738	3738	3779	3779	3779	3779	3779	3779	3779	3779	3779	3779	3779	3779	3779	3738	3779	3738	3779	3779	3779	3779	3779	3779	3779	3779	3738	3738	3738	3779	3779	3779	3779	3779	3779	3779	3779	3779	3779	3779	3779	3779	3779	3779	3779	3821	3821	3821	3821	3821	3821	3821	3821	3821	3821	3821	3821	3821	3779	3779	3779	3779	3779	3779	3821	3821	3821	3821	3821	3821	3821	3821	3821	3821	3821	3821	3779	3821	3821	3821	3821	3821	3779	3779	3821	3821	3821	3779	3821	3779	3779	3779	3779	3779	3779	3779	3821	3821	3821	3821	3821	3821	3821	3821	3821	3779	3779	3821	3821	3821	3821	3821	3821	3821	3779	3779	3779	3779	3779	3779	3779	3779	3779	3779	3821	3864	3864	3821	3821	3821	3821	3821	3821	3821	3864	3864	3864	3821	3864	3864	3864	3864	3821	3821	3821	3821	3821	3821	3821	3821	3821	3821	3821	3821	3821	3821	3821	3821	3779	3821	3779	3779	3779	3779	3779	3821	3779	3779	3779	3779	3821	3821	3779	3779	3779	3821	3821	3821	3779	3779	3821	3779	3779	3779	3738	3738	3738	3738	3738	3738	3738	3738	3698	3698	3698	3698	3738	3738	3738	3738	3738	3738	3738	3738	3698	3698	3738	3698	3698	3698	3698	3698	3698	3698	3698	3738	3738	3738	3779	3779	3738	3738	3738	3738	3738	3738	3698	3698	3738	3738	3738	3698	3698	3698	3698	3698	3698	3698	3698	3738	3738	3738	3779	3779	3738	3779	3779	0	0	0	0	0	0	0	0	0	0	0	0	0	0	0	0	0	0	0	0	0	0	0	0	0	0	0	0	0	0	0	0	0	0	0	0	0	0	0	0	0	0	0	0	0	0
0	0	0	0	0	0	0	0	1532	1532	1532	1532	1532	0	0	2181	2181	2181	2181	2181	2181	2181	2194	2194	2194	2208	2208	2208	2208	2208	2208	2223	2223	2223	2223	2223	2223	2223	2223	2223	2223	2223	2223	2208	2223	2208	2223	2208	2208	2208	2208	2208	2208	2208	2194	2208	2208	2194	2208	2208	2208	2208	2208	2208	2194	2181	2181	2194	2194	2208	2208	2223	2223	2237	2223	2237	2223	2223	2223	2223	2223	2237	2237	2237	2237	2223	2223	2223	2223	2223	2223	2223	2223	2223	2223	2237	2237	2237	2252	2252	2252	2252	2252	2570	2570	2570	2570	2570	2570	2570	2570	2570	2570	2570	2570	2570	2570	2570	2570	2570	2570	2551	2570	2570	2570	2570	2570	2570	2570	2570	2570	2570	2570	2570	2589	2589	3019	2993	2993	2967	2967	2967	2967	2967	2967	2993	2993	2967	2967	2967	2967	2967	2993	2993	2967	2967	3821	3779	3738	3738	3698	3698	3698	3698	3698	3698	3698	3698	3698	3698	3698	3698	3698	3698	3698	3698	3659	3698	3659	3698	3698	3698	3698	3698	3698	3738	3698	3738	3779	3779	3821	3821	3779	3821	3779	3779	3779	3779	3779	3738	3779	3779	3779	3738	3738	3738	3738	3738	3738	3779	3779	3779	3779	3779	3779	3779	3779	3821	3821	3779	3779	3738	3738	3738	3738	3698	3698	3738	3738	3738	3738	3738	3738	3779	3821	3779	3779	3779	3779	3779	3738	3738	3779	3779	3779	3821	3821	3821	3821	3821	3779	3821	3779	3779	3779	3779	3779	3779	3738	3779	3779	3779	3779	3738	3738	3738	3738	3738	3738	3738	3738	3738	3738	3779	3738	3738	3738	3738	3779	3738	3779	3779	3779	3779	3779	3779	3779	3779	3779	3779	3779	3779	3738	3738	3698	3698	3738	3738	3738	3738	3738	3779	3779	3779	0	0	0	0	0	3779	3779	3779	3779	3821	3821	3821	3821	3821	3821	3779	3779	3779	3779	3779	3779	3779	3779	3779	3779	3738	3738	3738	3738	3738	3738	3738	3738	3779	3779	3779	3779	3779	3738	3738	3779	3738	3738	3738	3738	3779	3779	3779	3779	3779	3779	3779	3779	3779	3779	3779	3779	3738	3738	3779	3738	3779	3779	3779	3779	3779	3779	3779	3779	3738	3738	3779	3779	3779	3779	3779	3779	3779	3779	3779	3779	3779	3779	3779	3779	3779	3779	3779	3821	3821	3821	3821	3821	3821	3821	3821	3821	3779	3821	3821	3821	3821	3779	3779	3779	3779	3779	3821	3779	3821	3821	3821	3821	3821	3779	3821	3821	3779	3821	3779	3821	3779	3779	3779	3779	3779	3821	3821	3821	3821	3821	3821	3779	3779	3779	3779	3779	3779	3779	3821	3821	3821	3821	3821	3821	3821	3779	3779	3779	3779	3779	3779	3821	3821	3821	3821	3779	3779	3779	3779	3779	3779	3779	3779	3779	3779	3779	3779	3864	3821	3821	3821	3821	3821	3821	3821	3821	3821	3821	3821	3821	3821	3864	3864	3821	3821	3821	3821	3821	3821	3821	3821	3821	3821	3821	3821	3821	3821	3821	3821	3821	3821	3821	3821	3821	3779	3779	3779	3821	3779	3779	3779	3779	3779	3779	3779	3779	3779	3779	3821	3821	3779	3779	3821	3779	3779	3779	3738	3738	3738	3738	3738	3738	3738	3738	3738	3698	3738	3738	3738	3738	3738	3698	3738	3738	3738	3738	3698	3698	3738	3698	3698	3698	3698	3698	3698	3738	3738	3821	3738	3738	3779	3779	3738	3738	3738	3738	3738	3698	3698	3698	3738	3698	3698	3698	3698	3698	3698	3698	3659	3698	3698	3738	3738	3738	3779	3779	3738	3738	3738	0	0	0	0	0	0	0	0	0	0	0	0	0	0	0	0	0	0	0	0	0	0	0	0	0	0	0	0	0	0	0	0	0	0	0	0	0	0	0	0	0	0	0	0	0	0
0	0	0	0	0	0	0	0	1525	1525	1525	1525	1525	0	0	2194	2194	2194	2194	2194	2194	2208	2208	2223	2208	2223	2223	2223	2223	2223	2223	2223	2223	2223	2223	2223	2237	2223	2223	2223	2223	2223	2223	2223	2237	2223	2223	2208	2208	2223	2223	2223	2208	2223	2208	2208	2208	2208	2208	2208	2208	2223	2223	2223	2208	2223	2237	2208	2237	2223	2237	2237	2252	2252	2237	2252	2237	2237	2252	2237	2237	2237	2237	2237	2237	2237	2223	2223	2223	2223	2223	2223	2223	2223	2237	2237	2237	2252	2252	2252	2252	2252	2252	2589	2589	2589	2589	2570	2551	2570	2570	2570	2570	2570	2570	2570	2570	2570	2551	2570	2551	2551	2551	2570	2570	2570	2570	2551	2570	2570	2570	2570	2570	2570	2570	2570	3019	2993	2993	2993	2967	2993	2967	2967	2967	2993	2993	2993	2967	2993	2993	2967	2993	2993	2967	2967	3821	3779	3738	3698	3698	3698	3698	3698	3698	3698	3698	3698	3698	3698	3698	3698	3698	3698	3659	3659	3659	3659	3659	3698	3659	3698	3698	3698	3738	3738	3698	3738	3779	3779	3821	3821	3779	3821	3779	3779	3779	3779	3779	3738	3779	3779	3779	3738	3738	3738	3779	3779	3738	3779	3779	3779	3821	3779	3779	3779	3779	3779	3779	3779	3738	3738	3738	3738	3738	3738	3698	3698	3738	3738	3738	3738	3738	3779	3779	3738	3738	3738	3738	3738	3738	3738	3738	3779	3779	3821	3779	3821	3779	3779	3779	3779	3779	3779	3779	3779	3779	3779	3738	3779	3738	3738	3738	3738	3738	3738	3738	3738	3738	3738	3779	3738	3738	3738	3738	3738	3738	3738	3779	3738	3779	3779	3738	3738	3738	3779	3738	3738	3738	3779	3779	3779	3779	3738	3738	3738	0	0	0	0	0	0	0	0	0	0	0	0	0	0	0	3779	3779	3864	3864	3864	3821	3821	3779	3779	3779	3779	3779	3779	3779	3779	3779	3779	3779	3779	3738	3738	3738	3738	3738	3738	3738	3738	3779	3779	3779	3779	3779	3738	3738	3738	3738	3738	3738	3738	3779	3779	3779	3779	3779	3779	3779	3779	3779	3779	3779	3779	3738	3779	3779	3779	3779	3779	3779	3779	3779	3779	3738	3738	3738	3779	3779	3779	3779	3779	3779	3779	3779	3779	3779	3779	3779	3779	3779	3779	3779	3779	3821	3821	3821	3821	3821	3821	3821	3821	3821	3821	3821	3821	3821	3821	3821	3821	3779	3779	3779	3821	3779	3821	3821	3821	3821	3821	3779	3821	3821	3779	3779	3779	3779	3779	3779	3779	3779	3779	3821	3821	3821	3821	3821	3821	3779	3779	3779	3779	3779	3779	3779	3821	3821	3821	3821	3821	3821	3779	3779	3779	3779	3779	3779	3779	3821	3779	3821	3821	3779	3821	3779	3779	3779	3779	3779	3779	3779	3779	3779	3779	3864	3821	3821	3821	3821	3821	3821	3821	3821	3821	3821	3821	3821	3821	3821	3821	3821	3821	3821	3821	3821	3821	3821	3821	3821	3821	3821	3821	3821	3821	3821	3821	3821	3779	3821	3821	3821	3821	3821	3779	3821	3821	3779	3779	3779	3779	3779	3779	3779	3779	3821	3821	3821	3779	3779	3779	3779	3779	3779	3779	3738	3738	3738	3738	3738	3738	3738	3738	3738	3738	3738	3779	3779	3779	3779	3779	3779	3738	3738	3698	3698	3738	3698	3698	3698	3738	3738	3738	3738	3738	3738	3738	3738	3738	3738	3738	3738	3698	3698	3738	3698	3698	3698	3698	3738	3698	3698	3698	3698	3698	3698	3659	3659	3659	3738	3738	3738	3779	3779	3738	3738	3738	0	0	0	0	0	0	0	0	0	0	0	0	0	0	0	0	0	0	0	0	0	0	0	0	0	0	0	0	0	0	0	0	0	0	0	0	0	0	0	0	0	0	0	0	0	0
0	0	0	0	0	0	0	0	1525	1525	1525	1525	1525	0	0	2194	2194	2208	2208	2208	2208	2208	2208	2223	2223	2223	2223	2223	2223	2223	2223	2223	2237	2237	2237	2237	2237	2237	2237	2237	2237	2237	2237	2237	2252	2237	2237	2223	2223	2223	2223	2223	2223	2223	2208	2223	2223	2223	2223	2223	2223	2223	2252	2252	2237	2223	2252	2266	2266	2237	2252	2237	2252	2252	2252	2252	2252	2237	2252	2237	2237	2237	2237	2237	2237	2237	2223	2223	2223	2223	2223	2223	2223	2237	2237	2237	2252	2252	2266	2266	2266	2266	2266	2589	2589	2589	2589	2570	2551	2551	2570	2570	2551	2570	2551	2570	2570	2570	2570	2551	2570	2551	2570	2570	2570	2570	2570	2551	2551	2570	2570	2570	2570	2570	2570	2589	3046	2993	2993	2993	2993	2993	2993	2967	2967	2993	2993	2993	2993	2993	2993	2993	3019	3019	2993	2993	3864	3779	3738	3698	3698	3698	3698	3698	3698	3698	3698	3698	3698	3698	3698	3698	3698	3698	3659	3659	3659	3659	3659	3698	3698	3698	3698	3738	3738	3738	3738	3738	3779	3779	3779	3779	3779	3779	3779	3779	3821	3779	3779	3738	3738	3779	3779	3738	3738	3738	3738	3738	3738	3738	3738	3738	3779	3779	3779	3779	3779	3779	3779	3738	3738	3738	3738	3738	3698	3698	3698	3698	3738	3738	3738	3738	3738	3779	3779	3779	3779	3738	3738	3738	3738	3738	3779	3779	3821	3821	3821	3821	3821	3821	3779	3821	3779	3779	3821	3821	3821	3779	3779	3779	3779	3779	3738	3738	3738	3738	3779	3779	3779	3779	3779	3779	3779	3779	3779	3738	3738	3738	3779	3779	3779	3779	3738	3738	3738	3738	3738	3738	3738	3738	3779	3779	3738	3738	3738	3738	0	0	0	0	0	0	0	0	0	0	0	0	0	0	0	0	3779	3864	3864	3821	3821	3821	3779	3779	3779	3779	3779	3779	3779	3779	3779	3779	3779	3779	3738	3738	3738	3738	3738	3738	3738	3738	3738	3779	3779	3779	3738	3738	3738	3738	3738	3738	3738	3738	3779	3779	3779	3779	3779	3779	3779	3779	3779	3779	3779	3779	3779	3779	3738	3738	3779	3779	3779	3779	3779	3779	3779	3779	3779	3779	3779	3779	3779	3779	3779	3779	3779	3779	3779	3779	3779	3779	3779	3779	3779	3779	3821	3821	3821	3821	3821	3821	3821	3821	3821	3821	3821	3821	3821	3821	3821	3821	3779	3779	3779	3821	3779	3779	3779	3821	3821	3821	3779	3821	3821	3779	3821	3779	3779	3779	3779	3779	3779	3779	3821	3821	3821	3821	3821	3821	3779	3779	3779	3779	3821	3779	3779	3821	3821	3821	3821	3779	3779	3779	3779	3779	3779	3779	3779	3779	3821	3779	3779	3779	3779	3779	3779	3779	3779	3779	3779	3779	3779	3779	3779	3779	3864	3821	3821	3821	3821	3821	3821	3821	3821	3821	3821	3821	3821	3821	3821	3821	3821	3821	3821	3821	3821	3821	3821	3821	3821	3821	3821	3821	3821	3821	3821	3821	3821	3821	3821	3821	3821	3821	3821	3821	3821	3821	3779	3779	3779	3779	3779	3821	3779	3779	3779	3821	3821	3779	3779	3779	3779	3738	3738	3738	3738	3738	3738	3738	3738	3738	3738	3738	3738	3738	3738	3779	3779	3779	3779	3779	3738	3738	3738	3698	3698	3738	3738	3698	3738	3738	3779	3698	3821	3779	3779	3779	3779	3738	3738	3738	3738	3698	3738	3738	3738	3698	3698	3738	3738	3698	3698	3659	3659	3659	3659	3659	3621	3659	3659	3659	3779	3779	3779	3738	3738	0	0	0	0	0	0	0	0	0	0	0	0	0	0	0	0	0	0	0	0	0	0	0	0	0	0	0	0	0	0	0	0	0	0	0	0	0	0	0	0	0	0	0	0	0	0	0
0	0	0	0	0	0	0	0	1525	1525	1525	1525	1525	0	0	2208	2208	2208	2208	2208	2208	2223	2237	2237	2237	2237	2252	2237	2237	2223	2252	2252	2252	2266	2252	2237	2252	2252	2252	2252	2252	2252	2252	2252	2252	2252	2252	2237	2237	2237	2237	2237	2237	2237	2223	2223	2237	2237	2237	2223	2237	2237	2252	2252	2252	2252	2252	2252	2252	2252	2252	2252	2266	2266	2252	2252	2252	2252	2252	2237	2237	2252	2237	2237	2237	2237	2223	2223	2223	2223	2237	2237	2237	2237	2252	2252	2252	2266	2266	2266	2266	2266	2266	2266	2589	2589	2589	2570	2551	2551	2570	2570	2570	2570	2551	2570	2570	2570	2570	2570	2570	2551	2551	2551	2570	2551	2551	2551	2551	2570	2570	2570	2570	2570	2570	2589	3019	2993	2993	2993	2993	2993	2967	2967	2993	3019	3019	2993	2993	2993	3019	2993	3019	3019	3019	3019	3019	3779	3738	3698	3698	3698	3698	3698	3698	3698	3698	3698	3698	3698	3698	3698	3698	3698	3698	3659	3659	3659	3698	3698	3698	3698	3738	3738	3738	3738	3738	3738	3779	3779	3779	3779	3779	3779	3738	3738	3821	3779	3738	3738	3738	3779	3779	3738	3738	3738	3738	3738	3738	3779	3779	3779	3779	3779	3779	3779	3779	3779	3779	3738	3738	3738	3738	3738	3698	3698	3698	3698	3738	3738	3698	3738	3738	3779	3779	3738	3738	3738	3738	3738	3738	3738	3779	3779	3779	3821	3779	3779	3779	3779	3779	3779	3779	3779	3821	3821	3821	3821	3779	3779	3779	3779	3738	3738	3738	3738	3779	3779	3779	3779	3779	3779	3779	3779	3738	3738	3738	3738	3738	3738	3738	3738	3738	3738	3738	3738	3738	3738	3738	3738	3738	3779	3779	3738	3738	3738	0	0	0	0	0	0	0	0	0	0	0	0	0	0	0	0	0	3864	3821	3821	3821	3779	3779	3779	3779	3779	3779	3779	3779	3779	3779	3779	3779	3779	3779	3738	3738	3738	3738	3738	3738	3738	3779	3779	3779	3779	3779	3738	3738	3738	3738	3738	3738	3738	3779	3779	3779	3779	3779	3779	3779	3779	3779	3779	3779	3779	3779	3779	3738	3738	3779	3779	3779	3779	3779	3779	3738	3779	3738	3779	3779	3779	3779	3779	3779	3779	3779	3779	3779	3779	3779	3779	3779	3779	3738	3779	3821	3821	3821	3821	3821	3821	3821	3821	3779	3821	3821	3821	3821	3821	3821	3779	3779	3779	3779	3779	3779	3779	3779	3779	3779	3779	3779	3779	3779	3779	3821	3821	3779	3779	3779	3779	3821	3779	3821	3821	3779	3779	3779	3779	3779	3779	3779	3779	3779	3779	3779	3821	3821	3821	3821	3821	3779	3779	3779	3779	3779	3779	3779	3779	3821	3779	3779	3779	3779	3779	3779	3779	3779	3779	3779	3779	3779	3779	3779	3779	3821	3821	3821	3821	3821	3821	3821	3821	3821	3821	3821	3821	3821	3821	3821	3821	3821	3821	3821	3821	3821	3821	3821	3821	3821	3821	3821	3821	3821	3821	3821	3821	3821	3821	3821	3821	3821	3821	3821	3821	3821	3821	3779	3779	3779	3779	3779	3821	3779	3779	3779	3779	3821	3779	3698	3738	3779	3738	3738	3738	3738	3738	3738	3779	3698	3738	3738	3738	3738	3738	3738	3779	3779	3779	3779	3779	3779	3779	3738	3698	3698	3738	3738	3738	3738	3738	3738	3738	3738	3779	3779	3779	3738	3738	3738	3738	3738	3698	3738	3738	3738	3698	3738	3698	3738	3698	3698	3659	3659	3659	3659	3659	3659	3659	3659	3659	3779	3779	3779	3738	3779	3779	0	0	0	0	0	0	0	0	0	0	0	0	0	0	0	0	0	0	0	0	0	0	0	0	0	0	0	0	0	0	0	0	0	0	0	0	0	0	0	0	0	0	0	0	0	0
0	0	0	0	0	0	0	0	1519	1525	1525	1525	1525	0	2223	2208	2208	2208	2208	2223	2223	2223	2237	2252	2252	2237	2252	2252	2237	2237	2252	2252	2252	2266	2266	2266	2266	2266	2252	2252	2252	2252	2266	2266	2266	2266	2252	2252	2252	2237	2252	2252	2237	2237	2252	2252	2266	2266	2252	2252	2252	2252	2266	2266	2252	2252	2266	2266	2266	2252	2266	2252	2266	2266	2266	2266	2266	2252	2266	2252	2252	2266	2252	2252	2237	2237	2237	2237	2237	2223	2237	2237	2237	2252	2252	2266	2266	2266	2281	2281	2281	2281	2281	2281	2281	2589	2570	2570	2551	2551	2570	2570	2570	2570	2570	2570	2570	2570	2570	2570	2570	2551	2551	2551	2551	2551	2551	2551	2551	2570	2570	2570	2570	2570	2570	2589	3046	2993	2993	2993	2993	2993	2993	2993	2993	3019	3019	3019	3019	3019	3019	3019	3046	3019	3019	3019	3019	3019	3738	3698	3698	3698	3698	3698	3698	3698	3698	3698	3698	3698	3698	3698	3698	3698	3698	3659	3659	3698	3698	3698	3698	3698	3738	3738	3738	3738	3738	3779	3779	3779	3779	3779	3779	3779	3779	3738	3779	3738	3738	3738	3738	3738	3738	3738	3738	3738	3738	3738	3738	3738	3738	3779	3779	3779	3779	3779	3779	3779	3738	3738	3738	3698	3738	3738	3698	3698	3698	3698	3738	3738	3698	3738	3738	3821	3821	3821	3779	3738	3779	3779	3779	3779	3779	3821	3821	3821	3779	3779	3779	3779	3779	3779	3779	3779	3821	3821	3821	3821	3779	3779	3779	3738	3738	3738	3738	3738	3738	3738	3779	3779	3821	3779	3779	3779	3779	3738	3738	3738	3779	3738	3738	3738	3738	3738	3738	3738	3738	3738	3738	3738	2845	2845	3779	0	0	0	0	0	0	0	0	0	0	0	0	0	0	0	0	0	0	0	0	0	3821	3821	3821	3779	3779	3779	3779	3779	3779	3779	3779	3779	3779	3779	3779	3779	3779	3779	3738	3779	3779	3779	3779	3779	3779	3779	3779	3779	3779	3738	3738	3738	3738	3738	3738	3738	3779	3779	3779	3779	3779	3779	3779	3779	3779	3779	3779	3779	3779	3779	3779	3738	3779	3779	3779	3738	3738	3738	3738	3779	3738	3779	3779	3779	3779	3779	3779	3779	3779	3779	3779	3779	3779	3779	3738	3779	3738	3738	3821	3821	3821	3821	3821	3821	3821	3821	3779	3779	3779	3779	3779	3821	3821	3779	3779	3779	3779	3779	3779	3779	3779	3779	3779	3779	3779	3779	3779	3779	3821	3779	3779	3779	3821	3779	3821	3779	3821	3779	3779	3779	3779	3779	3779	3779	3779	3779	3779	3779	3779	3821	3821	3821	3821	3779	3779	3779	3779	3779	3779	3779	3779	3779	3779	3779	3779	3779	3779	3779	3779	3779	3779	3779	3779	3779	3779	3779	3779	3779	3821	3821	3821	3821	3821	3821	3821	3821	3821	3821	3821	3864	3821	3821	3821	3821	3821	3821	3821	3821	3821	3821	3779	3821	3821	3821	3821	3779	3821	3821	3821	3821	3821	3821	3821	3821	3821	3821	3821	3821	3821	3821	3821	3779	3821	3779	3779	3821	3779	3779	3779	3779	3779	3738	3738	3738	3738	3738	3779	3738	3738	3738	3779	3779	3779	3738	3738	3738	3738	3779	3779	3779	3779	3779	3779	3779	3779	3779	3738	3698	3698	3698	3738	3738	3698	3698	3698	3698	3738	3738	3738	3738	3738	3738	3738	3738	3738	3698	3738	3738	3738	3698	3738	3698	3738	3698	3698	3698	3659	3659	3659	3659	3659	3659	3621	3659	3738	3738	3738	3738	3738	3779	0	0	0	0	0	0	0	0	0	0	0	0	0	0	0	0	0	0	0	0	0	0	0	0	0	0	0	0	0	0	0	0	0	0	0	0	0	0	0	0	0	0	0	0	0	0
0	0	0	0	0	0	0	0	1519	1525	1525	1525	1525	0	2223	2223	2223	2223	2223	2223	2223	2237	2252	2252	2281	2266	2266	2252	2237	2237	2252	2252	2266	2266	2266	2266	2266	2266	2266	2266	2266	2266	2266	2266	2266	2281	2266	2266	2252	2252	2252	2252	2252	2252	2266	2266	2266	2266	2266	2252	2266	2266	2266	2266	2266	2266	2266	2266	2266	2252	2266	2252	2266	2266	2266	2266	2266	2266	2266	2266	2266	2266	2266	2266	2252	2237	2237	2237	2237	2237	2252	2252	2252	2252	2252	2266	2266	2266	2281	2281	2281	2281	2281	2281	2281	2281	2570	2570	2551	2551	2570	2570	2570	2570	2570	2570	2570	2570	2570	2570	2570	2551	2570	2551	2551	2551	2551	2551	2551	2570	2570	2589	2589	2570	2589	2609	2609	2993	2993	2993	2993	3019	3019	3019	3019	3019	3046	3019	3019	3019	3019	3019	3046	3046	3046	3046	3046	3046	3698	3698	3698	3698	3698	3698	3698	3698	3698	3698	3698	3698	3698	3698	3698	3698	3659	3659	3659	3659	3698	3698	3698	3698	3698	3738	3738	3738	3738	3779	3779	3779	3779	3779	3779	3779	3738	3738	3738	3738	3779	3779	3738	3779	3779	3738	3779	3779	3779	3779	3779	3779	3779	3779	3779	3821	3779	3779	3779	3779	3779	3738	3738	3698	3738	3738	3738	3698	3698	3698	3698	3738	3698	3738	3738	3779	3779	3779	3738	3738	3779	3779	3779	3779	3779	3864	3821	3821	3779	3779	3779	3779	3779	3779	3779	3779	3821	3821	3779	3779	3779	3779	3779	3738	3738	3738	3738	3738	3738	3738	3779	3779	3821	3779	3779	3779	3779	3779	3779	3738	3779	3779	3738	3738	3738	3738	3738	3738	3738	3738	3738	2845	2845	2845	2845	0	0	0	0	0	0	0	0	0	0	0	0	0	0	0	0	0	0	0	0	0	3821	3779	3821	3779	3779	3779	3779	3779	3779	3779	3779	3779	3779	3779	3779	3779	3779	3779	3779	3779	3779	3779	3779	3779	3779	3779	3779	3779	3779	3738	3738	3738	3738	3738	3738	3738	3779	3779	3779	3779	3779	3779	3779	3779	3779	3779	3779	3779	3779	3779	3779	3738	3779	3779	3779	3738	3738	3738	3738	3738	3738	3738	3738	3779	3779	3779	3738	3779	3779	3779	3779	3779	3779	3779	3738	3738	3738	3738	3779	3821	3821	3821	3821	3821	3821	3821	3779	3779	3779	3779	3779	3821	3821	3779	3779	3779	3779	3779	3779	3779	3779	3779	3779	3779	3779	3779	3779	3779	3821	3779	3779	3779	3779	3779	3821	3779	3821	3821	3779	3779	3779	3779	3779	3779	3779	3779	3779	3779	3779	3779	3821	3821	3821	3779	3779	3821	3779	3779	3779	3779	3779	3779	3821	3779	3779	3779	3779	3779	3779	3779	3779	3779	3779	3779	3779	3779	3779	3779	3821	3821	3821	3821	3821	3821	3821	3821	3821	3821	3864	3864	3821	3821	3821	3821	3821	3821	3821	3821	3821	3779	3779	3779	3779	3779	3779	3779	3779	3821	3821	3821	3821	3821	3821	3821	3821	3821	3821	3821	3821	3821	3821	3779	3821	3779	3779	3821	3779	3779	3779	3779	3738	3738	3698	3698	3738	3738	3779	3738	3738	3738	3779	3779	3779	3738	3738	3738	3738	3738	3738	3738	3779	3779	3738	3738	3738	3738	3738	3698	3698	3698	3738	3738	3698	3738	3738	3698	3738	3738	3779	3738	3738	3738	3738	3738	3698	3698	3698	3738	3738	3698	3738	3698	3738	3698	3698	3659	3659	3659	3659	3659	3621	3659	3659	3659	3738	3738	3738	3698	3698	3698	0	0	0	0	0	0	0	0	0	0	0	0	0	0	0	0	0	0	0	0	0	0	0	0	0	0	0	0	0	0	0	0	0	0	0	0	0	0	0	0	0	0	0	0	0	0
0	0	0	0	0	0	0	0	1519	1525	1525	1525	1525	0	0	2223	2223	2223	2223	2237	2237	2252	2266	2266	2266	2266	2252	2252	2252	2237	2252	2252	2266	2266	2266	2281	2281	2281	2266	2266	2266	2281	2281	2281	2281	2281	2266	2266	2266	2266	2266	2266	2252	2266	2266	2266	2266	2266	2266	2252	2266	2266	2266	2266	2252	2252	2266	2266	2266	2266	2266	2266	2281	2281	2266	2281	2266	2266	2281	2266	2266	2266	2266	2266	2266	2252	2252	2252	2266	2252	2266	2252	2266	2266	2266	2266	2266	2266	2281	2281	2281	2281	2281	2297	2297	2297	2589	2570	2570	2551	2570	2570	2570	2570	2570	2570	2570	2570	2570	2570	2570	2570	2570	2570	2570	2551	2551	2551	2551	2570	2570	2589	2589	2589	2609	2609	2609	2993	2993	2993	3019	3019	3019	3019	3019	3046	3046	3046	3019	3019	3019	3019	3046	3046	3046	3046	3046	3046	3046	3698	3698	3698	3698	3698	3698	3698	3698	3698	3698	3698	3698	3698	3698	3698	3659	3659	3659	3659	3698	3698	3698	3698	3698	3738	3738	3738	3738	3738	3738	3779	3779	3779	3779	3779	3779	3779	3779	3779	3779	3779	3738	3779	3779	3779	3738	3738	3738	3738	3738	3738	3779	3779	3779	3821	3821	3821	3779	3779	3779	3779	3738	3738	3779	3779	3738	3738	3738	3738	3738	3738	3738	3738	3738	3779	3779	3779	3779	3738	3779	3779	3779	3821	3864	3864	3864	3864	3864	3864	3864	3864	3779	3779	3779	3779	3821	3821	3821	3779	3821	3779	3779	3738	3738	3738	3738	3738	3738	3738	3779	3779	3779	3779	3779	3779	3738	3738	3779	3738	3738	3738	3738	3738	3738	3738	3738	3738	3738	3738	3698	2845	2845	2845	2845	0	0	0	0	0	0	0	0	0	0	0	0	0	0	0	0	0	0	0	0	0	0	3738	3738	3779	3779	3779	3779	3779	3779	3779	3779	3779	3779	3779	3779	3779	3779	3779	3779	3779	3779	3779	3779	3779	3779	3779	3779	3779	3738	3779	3779	3738	3738	3738	3779	3738	3779	3779	3779	3779	3779	3779	3779	3779	3779	3779	3779	3779	3779	3738	3779	3738	3779	3738	3779	3738	3738	3738	3738	3738	3738	3738	3779	3779	3779	3738	3738	3738	3779	3738	3779	3738	3738	3779	3738	3738	3738	3738	3779	3821	3821	3821	3821	3821	3821	3779	3779	3779	3779	3779	3779	3779	3779	3779	3779	3779	3779	3779	3779	3779	3779	3779	3779	3779	3779	3779	3779	3779	3821	3779	3779	3779	3779	3779	3779	3779	3779	3779	3779	3779	3779	3821	3779	3779	3779	3779	3779	3779	3779	3779	3779	3779	3779	3779	3779	3779	3779	3779	3779	3779	3779	3821	3821	3821	3779	3779	3779	3821	3821	3779	3779	3779	3779	3821	3779	3779	3779	3779	3821	3821	3821	3821	3821	3821	3821	3821	3821	3821	3821	3821	3821	3821	3821	3821	3821	3821	3821	3821	3821	3779	3779	3779	3779	3779	3779	3779	3779	3821	3821	3821	3779	3821	3821	3821	3821	3821	3821	3821	3821	3821	3821	3821	3821	3821	3821	3821	3821	3779	3779	3779	3738	3738	3738	3698	3738	3738	3779	3779	3779	3779	3779	3779	3779	3738	3738	3738	3738	3738	3738	3738	3779	3779	3779	3738	3738	3738	3738	3738	3738	3738	3738	3698	3738	3738	3738	3738	3738	3779	3779	3738	3738	3738	3738	3738	3698	3698	3698	3698	3738	3698	3738	3698	3779	3738	3698	3659	3659	3659	3659	3659	3659	3659	3659	3698	3698	3698	3698	3698	3698	3698	0	0	0	0	0	0	0	0	0	0	0	0	0	0	0	0	0	0	0	0	0	0	0	0	0	0	0	0	0	0	0	0	0	0	0	0	0	0	0	0	0	0	0	0	0	0
0	0	0	0	0	0	0	0	1519	1525	1525	1525	1525	0	0	2237	2237	2223	2223	2237	2252	2266	2266	2266	2266	2266	2266	2266	2252	2252	2266	2266	2266	2281	2281	2281	2266	2281	2281	2281	2281	2281	2281	2281	2281	2281	2281	2266	2266	2266	2266	2266	2266	2266	2266	2281	2281	2281	2266	2266	2266	2266	2266	2266	2266	2252	2266	2266	2266	2266	2281	2281	2281	2281	2281	2281	2281	2281	2281	2281	2281	2281	2281	2281	2281	2266	2281	2281	2281	2266	2266	2266	2266	2266	2281	2281	2281	2281	2281	2297	2297	2297	2297	2297	2297	2297	2589	2570	2570	2551	2570	2570	2551	2551	2551	2570	2570	2570	2570	2570	2570	2570	2570	2570	2570	2570	2570	2570	2570	2570	2570	2589	2589	2589	2609	2609	2609	3019	3019	3019	3019	3046	3019	3019	3019	3046	3073	3046	3019	3019	3046	3046	3073	3046	3046	3073	3046	3046	3046	3698	3698	3698	3698	3698	3698	3698	3698	3698	3698	3698	3698	3698	3698	3698	3659	3659	3659	3698	3698	3698	3698	3698	3698	3698	3698	3698	3738	3738	3738	3779	3738	3738	3779	3779	3779	3779	3738	3779	3738	3779	3738	3738	3779	3738	3738	3738	3738	3738	3738	3738	3779	3779	3779	3821	3821	3821	3779	3779	3779	3779	3738	3738	3779	3779	3779	3738	3738	3738	3738	3738	3738	3738	3738	3779	3779	3779	3779	3779	3779	3779	3779	3779	3821	3864	3864	3821	3821	3864	3779	3779	3779	3779	3779	3779	3779	3821	3821	3779	3779	3779	3779	3738	3738	3738	3738	3738	3738	3779	3779	3821	3821	3779	3779	3779	3779	3779	3779	3779	3738	3738	3738	3738	3738	3738	3738	3738	2799	2799	2822	2822	2822	2822	2822	2822	2777	2777	2799	2777	2777	0	0	0	0	0	0	0	0	0	0	0	0	0	0	0	0	3698	3738	3738	3738	3738	3738	3779	3779	3779	3779	3821	3779	3779	3779	3779	3779	3779	3779	3779	3779	3779	3779	3779	3779	3779	3779	3779	3738	3779	3779	3738	3738	3779	3779	3738	3779	3779	3779	3779	3779	3779	3779	3779	3779	3779	3779	3779	3779	3738	3779	3738	3738	3738	3738	3738	3738	3738	3738	3738	3738	3738	3779	3779	3779	3779	3738	3738	3779	3738	3779	3738	3738	3738	3738	3738	3738	3738	3779	3779	3779	3779	3821	3821	3821	3779	3779	3779	3779	3779	3779	3779	3779	3779	3779	3779	3779	3779	3779	3779	3779	3779	3779	3779	3779	3779	3779	3779	3821	3779	3779	3779	3779	3779	3779	3779	3779	3779	3779	3779	3779	3779	3779	3779	3779	3779	3779	3779	3779	3779	3779	3779	3779	3779	3779	3779	3779	3779	3779	3779	3779	3821	3821	3821	3779	3779	3779	3821	3821	3821	3779	3821	3779	3779	3779	3779	3779	3779	3821	3821	3821	3821	3821	3821	3821	3821	3821	3821	3821	3821	3821	3821	3821	3821	3821	3821	3821	3821	3821	3821	3821	3779	3779	3779	3779	3779	3779	3821	3821	3821	3821	3821	3821	3821	3821	3821	3821	3821	3821	3821	3821	3821	3821	3821	3821	3821	3821	3821	3779	3779	3738	3738	3698	3698	3698	3698	3738	3738	3738	3738	3738	3779	3779	3738	3738	3738	3738	3738	3738	3738	3738	3738	3738	3738	3738	3738	3738	3738	3738	3738	3738	3738	3738	3738	3738	3738	3738	3738	3738	3738	3738	3698	3738	3738	3698	3698	3698	3738	3738	3698	3698	3698	3738	3698	3698	3659	3698	3659	3659	3698	3698	3698	3698	3698	3698	3698	3698	3659	3698	3698	3698	0	0	0	0	0	0	0	0	0	0	0	0	0	0	0	0	0	0	0	0	0	0	0	0	0	0	0	0	0	0	0	0	0	0	0	0	0	0	0	0	0	0	0	0	0
0	0	0	0	0	0	0	0	1519	1519	1525	1525	1525	0	0	2237	2237	2237	2237	2252	2266	2266	2266	2266	2266	2281	2266	2266	2266	2266	2266	2281	2281	2281	2281	2281	2281	2281	2281	2281	2281	2281	2281	2281	2281	2281	2281	2281	2266	2266	2281	2281	2281	2281	2281	2281	2281	2281	2266	2266	2266	2266	2266	2266	2266	2266	2266	2281	2281	2281	2281	2281	2281	2297	2281	2281	2281	2281	2297	2281	2281	2281	2297	2281	2281	2281	2297	2281	2281	2281	2281	2281	2281	2281	2281	2281	2281	2281	2297	2297	2297	2297	2297	2297	2297	2297	2297	2570	2570	2570	2570	2570	2570	2570	2570	2570	2570	2570	2570	2570	2570	2570	2570	2570	2570	2570	2570	2570	2570	2570	2570	2589	2589	2589	2589	2609	2589	2589	3046	3046	3046	3046	3046	3046	3019	3046	3046	3046	3019	3019	3019	3019	3046	3073	3073	3073	3073	3073	3073	3073	3698	3698	3698	3698	3698	3698	3698	3698	3698	3698	3698	3698	3698	3698	3698	3698	3698	3698	3698	3698	3698	3698	3698	3698	3698	3738	3738	3738	3738	3738	3738	3738	3779	3779	3738	3738	3738	3738	3738	3779	3738	3738	3779	3738	3738	3738	3738	3738	3738	3738	3738	3779	3779	3779	3779	3779	3779	3738	3738	3738	3738	3698	3738	3738	3738	3738	3698	3698	3698	3698	3698	3738	3738	3779	3779	3779	3738	3738	3738	3779	3779	3779	3779	3779	3821	3779	3779	3779	3779	3779	3779	3779	3779	3779	3779	3821	3779	3779	3779	3779	3738	3738	3738	3738	3738	3738	3779	3779	3821	3821	3821	3821	3821	3779	3779	3779	3779	3779	3738	3738	3738	3738	3738	3738	3738	2777	2822	2799	2822	2822	2822	2822	2822	2822	2777	2822	2799	2777	2799	2799	0	0	0	0	0	0	0	0	0	0	0	0	0	0	0	3698	3698	3738	3738	3738	3738	3779	3779	3779	3779	3779	3779	3779	3779	3779	3779	3779	3779	3779	3779	3779	3779	3779	3779	3779	3779	3779	3738	3779	3779	3779	3779	3779	3779	3779	3779	3779	3779	3779	3779	3779	3779	3779	3779	3779	3779	3779	3779	3779	3779	3738	3738	3738	3738	3738	3738	3738	3738	3738	3738	3738	3738	3738	3738	3779	3738	3738	3779	3738	3779	3779	3738	3738	3738	3738	3738	3738	3779	3779	3779	3779	3821	3821	3821	3779	3779	3779	3779	3779	3779	3779	3779	3779	3779	3779	3779	3779	3779	3779	3779	3779	3779	3779	3779	3779	3779	3779	3779	3779	3779	3779	3779	3779	3779	3779	3779	3779	3779	3779	3779	3779	3779	3779	3779	3779	3779	3779	3779	3779	3779	3779	3779	3779	3779	3779	3779	3779	3779	3779	3779	3779	3779	3779	3779	3779	3779	3821	3821	3779	3779	3821	3779	3779	3779	3779	3779	3779	3821	3821	3821	3821	3821	3821	3821	3821	3821	3821	3821	3821	3821	3821	3821	3821	3821	3821	3821	3821	3821	3821	3821	3821	3779	3779	3779	3779	3779	3779	3779	3779	3779	3821	3821	3821	3821	3821	3821	3821	3821	3821	3821	3821	3821	3821	3821	3821	3821	3821	3779	3779	3738	3738	3698	3698	3698	3698	3738	3738	3738	3738	3779	3779	3779	3738	3738	3738	3738	3738	3698	3698	3738	3738	3698	3698	3738	3738	3738	3738	3738	3698	3779	3738	3738	3738	3738	3738	3738	3738	3738	3738	3738	3738	3738	3738	3738	3738	3738	3738	3738	3698	3698	3698	3698	3698	3698	3659	3698	3698	3698	3698	3698	3698	3698	3698	3698	3698	3698	3659	3738	3738	3738	0	0	0	0	0	0	0	0	0	0	0	0	0	0	0	0	0	0	0	0	0	0	0	0	0	0	0	0	0	0	0	0	0	0	0	0	0	0	0	0	0	0	0	0	0
0	0	0	0	0	0	0	0	1519	1519	1525	1525	1539	1539	0	2237	2237	2237	2237	2252	2266	2266	2266	2266	2266	2281	2266	2266	2266	2266	2281	2281	2281	2281	2281	2281	2281	2281	2281	2281	2281	2281	2281	2281	2281	2297	2297	2297	2281	2281	2281	2281	2281	2281	2281	2281	2281	2281	2266	2266	2266	2266	2266	2266	2281	2266	2266	2281	2281	2281	2297	2297	2297	2297	2297	2297	2297	2297	2297	2297	2297	2297	2297	2297	2297	2297	2297	2297	2297	2281	2281	2281	2281	2281	2281	2297	2281	2297	2297	2297	2297	2297	2297	2297	2297	2297	2297	2297	2589	2609	2589	2589	2589	2570	2570	2570	2570	2570	2570	2570	2570	2570	2570	2570	2570	2570	2570	2570	2570	2570	2589	2589	2589	2589	2609	2609	2609	3101	3046	3073	3073	3073	3046	3046	3019	3046	3046	3019	3019	3019	3019	3019	3046	3073	3073	3073	3073	3101	3101	3101	3698	3698	3698	3698	3698	3698	3698	3698	3698	3698	3698	3698	3698	3698	3698	3698	3698	3698	3698	3698	3698	3698	3698	3698	3698	3698	3738	3738	3738	3821	3779	3738	3738	3738	3738	3738	3738	3738	3738	3779	3738	3779	3779	3738	3738	3738	3738	3738	3738	3738	3738	3738	3779	3779	3738	3738	3738	3738	3738	3698	3738	3738	3738	3738	3738	3698	3698	3698	3698	3698	3698	3698	3738	3779	3779	3779	3779	3779	3779	3779	3779	3779	3779	3779	3779	3779	3779	3779	3779	3779	3779	3779	3779	3779	3779	3779	3779	3779	3738	3779	3738	3738	3738	3738	3738	3738	3779	3779	3821	3821	3821	3821	3821	3779	3779	3779	3779	3779	3738	3738	3738	3738	3738	3738	3738	3698	2799	2822	2822	2822	2822	2822	2822	2822	2822	2822	2822	2822	2822	2822	2822	2822	2822	0	0	0	0	0	0	0	0	0	0	0	0	3659	3659	3698	3779	3779	3779	3779	3779	3779	3779	3779	3779	3779	3779	3779	3779	3779	3779	3779	3779	3779	3779	3779	3779	3779	3738	3738	3738	3779	3779	3779	3779	3779	3779	3779	3779	3779	3779	3779	3779	3779	3779	3779	3779	3779	3779	3779	3779	3738	3738	3738	3738	3738	3738	3738	3738	3738	3738	3738	3738	3738	3738	3738	3738	3779	3738	3738	3779	3738	3779	3738	3738	3738	3738	3738	3738	3738	3779	3779	3779	3779	3821	3779	3779	3779	3779	3779	3779	3779	3779	3779	3779	3779	3779	3779	3779	3779	3779	3779	3779	3779	3779	3779	3779	3779	3779	3779	3779	3779	3779	3779	3779	3779	3779	3779	3779	3779	3779	3779	3779	3779	3779	3779	3779	3779	3779	3779	3779	3779	3779	3779	3779	3779	3779	3779	3779	3779	3779	3779	3779	3779	3779	3779	3779	3779	3779	3821	3821	3779	3779	3821	3779	3779	3779	3779	3779	3779	3821	3821	3821	3821	3821	3821	3821	3821	3821	3821	3821	3821	3821	3821	3821	3821	3821	3821	3821	3821	3821	3821	3821	3821	3779	3779	3779	3779	3779	3779	3821	3821	3821	3821	3821	3821	3821	3821	3821	3864	3821	3821	3821	3821	3821	3821	3821	3821	3821	3821	3779	3779	3738	3738	3698	3698	3698	3698	3738	3738	3738	3738	3779	3779	3779	3779	3738	3738	3698	3698	3698	3698	3698	3698	3698	3698	3698	3738	3738	3738	3738	3698	3738	3738	3738	3738	3738	3738	3738	3738	3738	3738	3738	3738	3738	3738	3738	3738	3738	3738	3779	3698	3698	3698	3698	3698	3698	3698	3698	3698	3698	3698	3698	3698	3698	3698	3698	3698	3659	3659	3659	3659	3659	0	0	0	0	0	0	0	0	0	0	0	0	0	0	0	0	0	0	0	0	0	0	0	0	0	0	0	0	0	0	0	0	0	0	0	0	0	0	0	0	0	0	0	0	0
0	0	0	0	0	0	0	0	1512	1519	1525	1525	1546	1546	0	0	2252	2237	2237	2252	2266	2266	2266	2266	2281	2281	2281	2281	2281	2281	2281	2281	2297	2297	2297	2297	2297	2297	2281	2281	2281	2281	2297	2297	2297	2297	2312	2297	2297	2297	2297	2297	2281	2281	2281	2281	2281	2281	2281	2281	2281	2281	2281	2281	2281	2281	2281	2281	2297	2281	2297	2312	2312	2312	2312	2312	2297	2312	2312	2297	2297	2297	2297	2297	2297	2297	2312	2297	2297	2297	2297	2297	2297	2297	2297	2297	2297	2312	2312	2312	2297	2297	2297	2297	2297	2297	2297	2297	2629	2629	2609	2609	2589	2589	2589	2570	2570	2570	2570	2570	2570	2570	2570	2570	2570	2570	2570	2570	2570	2589	2589	2589	2589	2589	2589	2609	2609	3129	3101	3101	3073	3073	3073	3046	3046	3046	3046	3046	3046	3046	3046	3046	3046	3073	3073	3101	3101	3101	3101	3101	3101	3698	3698	3698	3698	3698	3698	3698	3698	3698	3698	3698	3698	3738	3698	3698	3698	3698	3698	3698	3698	3698	3698	3698	3698	3698	3738	3738	3738	3779	3779	3779	3738	3779	3738	3738	3738	3738	3738	3779	3738	3779	3779	3779	3779	3738	3738	3738	3738	3738	3738	3738	3738	3738	3738	3738	3698	3738	3738	3698	3738	3738	3779	3738	3738	3738	3698	3698	3698	3698	3698	3698	3698	3738	3779	3738	3738	3779	3779	3779	3821	3821	3779	3779	3779	3779	3738	3738	3779	3779	3779	3779	3779	3779	3779	3779	3779	3779	3738	3738	3738	3738	3738	3738	3738	3738	3779	3779	3779	3779	3821	3821	3779	3779	3738	3738	3779	3779	3779	3738	3738	3738	3738	3738	3738	3698	2799	2799	2822	2822	2799	2822	2822	2822	2799	2822	2822	2822	2822	2822	2799	2799	2799	0	0	0	0	0	0	0	0	0	0	0	2845	2869	2869	2869	3779	3779	3779	3779	3779	3779	3779	3779	3779	3779	3779	3779	3779	3779	3779	3779	3779	3779	3779	3779	3738	3738	3738	3738	3738	3738	3779	3779	3779	3779	3738	3738	3738	3738	3738	3779	3779	3779	3779	3779	3779	3779	3779	3779	3779	3738	3738	3738	3738	3738	3738	3738	3738	3738	3738	3738	3738	3738	3738	3738	3738	3738	3738	3738	3779	3779	3779	3738	3738	3738	3738	3738	3738	3738	3779	3779	3779	3779	3821	3779	3779	3779	3779	3779	3779	3779	3779	3779	3779	3779	3779	3779	3779	3821	3779	3779	3779	3779	3779	3779	3779	3779	3779	3779	3779	3779	3779	3779	3779	3779	3779	3779	3779	3779	3779	3779	3779	3779	3779	3738	3779	3779	3779	3779	3779	3779	3779	3779	3779	3779	3779	3779	3779	3779	3779	3779	3779	3779	3779	3779	3779	3779	3779	3821	3821	3821	3779	3821	3779	3779	3779	3779	3779	3779	3821	3821	3821	3779	3821	3821	3821	3821	3821	3821	3821	3821	3821	3821	3821	3821	3821	3821	3821	3821	3821	3821	3821	3779	3779	3779	3779	3779	3779	3821	3821	3821	3821	3821	3821	3821	3821	3821	3821	3864	3821	3821	3821	3821	3821	3821	3821	3821	3821	3821	3779	3779	3738	3738	3698	3698	3698	3698	3738	3738	3779	3779	3779	3779	3779	3779	3738	3738	3738	3698	3698	3698	3698	3698	3698	3698	3698	3698	3738	3738	3738	3698	3738	3738	3738	3738	3738	3698	3738	3738	3738	3738	3738	3738	3738	3738	3738	3738	3738	3698	3698	3698	3698	3698	3698	3659	3698	3698	3698	3698	3698	3738	3698	3698	3698	3698	3698	3698	3698	3698	3659	3659	3659	0	0	0	0	0	0	0	0	0	0	0	0	0	0	0	0	0	0	0	0	0	0	0	0	0	0	0	0	0	0	0	0	0	0	0	0	0	0	0	0	0	0	0	0	0
0	0	0	0	0	0	0	0	1512	1519	1525	1525	1560	1560	0	0	2266	2252	2252	2266	2266	2281	2281	2281	2281	2297	2297	2281	2281	2281	2281	2281	2297	2297	2297	2297	2297	2297	2297	2297	2297	2297	2312	2312	2312	2312	2312	2312	2312	2297	2297	2297	2297	2281	2281	2281	2281	2281	2281	2281	2281	2281	2281	2281	2297	2281	2281	2281	2297	2297	2312	2312	2312	2312	2312	2312	2312	2312	2312	2297	2297	2297	2297	2297	2297	2297	2312	2312	2312	2312	2297	2297	2312	2312	2297	2327	2312	2327	2327	2327	2312	2312	2312	2312	2297	2312	2312	2312	2312	2629	2629	2629	2589	2570	2570	2570	2570	2570	2570	2570	2570	2570	2570	2570	2570	2570	2570	2570	2570	2589	2589	2589	2589	2589	2589	2609	2609	3129	3129	3129	3101	3101	3073	3073	3073	3073	3101	3073	3073	3073	3073	3073	3073	3101	3101	3101	3101	3129	3129	3129	3129	3129	3129	3698	3698	3698	3698	3698	3698	3698	3698	3698	3698	3738	3698	3698	3698	3698	3698	3698	3698	3698	3698	3698	3698	3698	3698	3698	3738	3738	3738	3738	3738	3738	3738	3738	3738	3738	3738	3779	3779	3779	3779	3821	3779	3779	3738	3738	3738	3738	3738	3738	3738	3738	3738	3738	3698	3698	3698	3698	3738	3738	3738	3738	3738	3738	3738	3698	3698	3698	3698	3698	3738	3779	3779	3779	3779	3779	3779	3821	3821	3821	3821	3779	3779	3779	3738	3738	3738	3779	3779	3779	3779	3779	3779	3779	3779	3738	3738	3738	3738	3738	3738	3738	3738	3738	3779	3779	3779	3779	3779	3779	3779	3738	3738	3738	3738	3738	3738	3738	3738	3738	3738	3738	3738	3738	2799	2799	2822	2822	2799	2822	2822	2822	2822	2822	2822	2822	2822	2822	2799	2799	2822	2799	2799	0	0	2777	2777	2777	2777	2822	2822	2822	2822	2845	2869	2869	3779	3779	3779	3821	3779	3779	3779	3779	3779	3779	3779	3779	3779	3779	3779	3779	3779	3779	3779	3779	3738	3738	3738	3738	3738	3738	3738	3738	3779	3779	3738	3738	3738	3738	3738	3738	3779	3779	3779	3779	3779	3779	3779	3779	3738	3738	3738	3738	3738	3738	3738	3738	3738	3738	3738	3738	3738	3738	3738	3738	3738	3779	3738	3738	3779	3738	3779	3738	3738	3738	3738	3738	3738	3738	3779	3779	3779	3779	3821	3779	3779	3779	3779	3779	3779	3779	3779	3779	3779	3779	3779	3779	3779	3821	3779	3779	3779	3779	3779	3779	3779	3779	3779	3779	3779	3779	3779	3779	3779	3779	3779	3779	3738	3738	3779	3779	3779	3779	3779	3779	3779	3779	3779	3779	3779	3779	3779	3779	3779	3779	3779	3779	3779	3738	3779	3779	3779	3779	3779	3779	3779	3779	3779	3821	3821	3779	3779	3821	3779	3779	3779	3779	3779	3779	3821	3821	3821	3821	3821	3821	3821	3779	3779	3821	3821	3779	3821	3821	3821	3821	3821	3821	3821	3821	3821	3821	3821	3821	3821	3821	3821	3821	3821	3821	3821	3821	3821	3821	3821	3821	3821	3821	3821	3821	3821	3821	3779	3779	3821	3821	3821	3779	3821	3821	3779	3738	3738	3738	3738	3698	3698	3698	3738	3738	3779	3738	3738	3738	3779	3738	3738	3738	3738	3738	3698	3698	3698	3698	3698	3698	3698	3738	3738	3738	3738	3738	3738	3738	3738	3738	3738	3698	3738	3738	3738	3738	3738	3738	3738	3738	3738	3738	3738	3698	3698	3698	3698	3698	3698	3659	3659	3698	3698	3698	3698	3738	3738	3738	3698	3738	3738	3738	3698	3698	3698	3698	3698	0	0	0	0	0	0	0	0	0	0	0	0	0	0	0	0	0	0	0	0	0	0	0	0	0	0	0	0	0	0	0	0	0	0	0	0	0	0	0	0	0	0	0	0	0
0	0	0	0	0	0	0	0	1519	1525	1532	1553	1553	1567	1574	1574	1574	2252	2252	2266	2281	2281	2281	2281	2297	2312	2297	2297	2297	2297	2281	2297	2297	2297	2297	2297	2297	2297	2297	2297	2297	2312	2312	2312	2312	2312	2327	2327	2312	2312	2312	2312	2297	2297	2297	2297	2281	2297	2281	2281	2281	2281	2281	2297	2297	2297	2297	2297	2312	2312	2312	2327	2312	2312	2312	2312	2312	2312	2312	2312	2312	2312	2312	2312	2312	2312	2312	2327	2327	2327	2327	2327	2327	2327	2327	2327	2327	2343	2343	2327	2327	2327	2312	2312	2312	2312	2312	2327	2327	2629	2629	2629	2570	2570	2570	2570	2570	2570	2570	2570	2570	2570	2570	2570	2570	2570	2570	2570	2570	2589	2570	2589	2589	2589	2589	2609	2609	3129	3129	3129	3101	3101	3101	3101	3101	3101	3101	3101	3101	3101	3101	3101	3101	3101	3129	3129	3129	3129	3129	3129	3157	3129	3129	3129	3659	3659	3659	3659	3659	3698	3698	3698	3698	3738	3738	3698	3698	3698	3698	3698	3698	3698	3698	3698	3698	3698	3698	3698	3738	3738	3779	3738	3738	3779	3779	3738	3738	3779	3738	3779	3779	3779	3779	3779	3779	3779	3779	3738	3738	3738	3738	3738	3738	3698	3738	3698	3698	3698	3698	3738	3738	3738	3779	3779	3779	3738	3738	3698	3738	3698	3698	3698	3738	3779	3779	3738	3779	3779	3779	3821	3821	3821	3821	3779	3779	3779	3738	3738	3738	3779	3779	3779	3779	3779	3779	3779	3779	3738	3738	3738	3738	3738	3738	3738	3738	3738	3779	3779	3779	3779	3779	3779	3779	3738	3738	3738	3738	3738	3738	3738	3738	3738	3738	3738	3738	3738	2799	2822	2845	2822	2822	2822	2845	2845	2845	2845	2845	2822	2822	2822	2799	2799	2799	2799	2777	2799	2799	2777	2777	2777	2777	2777	2777	2799	2822	2822	2845	2845	3779	3779	3779	3821	3779	3779	3779	3779	3779	3779	3779	3779	3779	3779	3779	3779	3779	3779	3779	3738	3738	3738	3738	3738	3738	3738	3738	3738	3779	3738	3738	3738	3779	3738	3738	3738	3779	3779	3779	3738	3738	3779	3779	3738	3738	3738	3738	3738	3738	3738	3738	3738	3738	3738	3738	3738	3738	3738	3738	3738	3779	3779	3779	3738	3779	3779	3779	3779	3738	3738	3738	3738	3738	3738	3779	3779	3779	3779	3779	3779	3779	3779	3779	3779	3779	3779	3779	3779	3779	3779	3779	3779	3779	3779	3779	3779	3779	3779	3779	3779	3779	3779	3779	3779	3779	3779	3779	3779	3779	3779	3779	3779	3779	3738	3779	3779	3779	3779	3779	3779	3779	3779	3779	3779	3779	3821	3821	3779	3779	3779	3779	3738	3779	3738	3738	3738	3779	3779	3779	3779	3779	3779	3779	3779	3779	3779	3779	3821	3779	3779	3779	3779	3779	3779	3821	3821	3821	3821	3821	3779	3779	3779	3779	3821	3779	3779	3821	3821	3821	3821	3821	3821	3821	3821	3821	3821	3821	3821	3821	3821	3821	3821	3821	3821	3821	3821	3821	3821	3821	3821	3821	3821	3821	3821	3821	3779	3779	3779	3779	3779	3779	3779	3779	3821	3779	3738	3738	3738	3738	3738	3738	3738	3779	3779	3779	3779	3779	3738	3779	3779	3738	3738	3738	3738	3779	3738	3738	3738	3738	3738	3738	3738	3738	3738	3738	3738	3738	3738	3738	3738	3738	3698	3738	3738	3738	3738	3738	3738	3738	3738	3738	3738	3738	3738	3698	3698	3698	3698	3698	3659	3698	3698	3698	3698	3698	3779	3738	3738	3738	3738	3738	3738	3698	3698	3698	3698	3698	0	0	0	0	0	0	0	0	0	0	0	0	0	0	0	0	0	0	0	0	0	0	0	0	0	0	0	0	0	0	0	0	0	0	0	0	0	0	0	0	0	0	0	0	0
0	0	0	0	0	0	0	0	1519	1525	1532	1532	1560	1567	1574	1649	1581	1581	0	2266	2266	2281	2281	2297	2297	2312	2312	2312	2312	2312	2312	2312	2312	2312	2312	2312	2312	2312	2297	2297	2312	2312	2312	2327	2327	2327	2327	2327	2327	2312	2312	2312	2312	2297	2297	2297	2297	2297	2297	2297	2297	2297	2312	2312	2327	2327	2312	2312	2327	2327	2327	2327	2327	2327	2327	2327	2312	2312	2312	2312	2327	2327	2327	2327	2327	2327	2327	2343	2343	2343	2343	2343	2343	2343	2327	2343	2343	2343	2343	2327	2327	2327	2327	2327	2312	2327	2327	2327	2359	2359	2359	2589	2589	2570	2570	2570	2570	2570	2570	2570	2570	2570	2570	2570	2570	2570	2570	2570	2570	2589	2570	2589	2570	2589	2589	2609	2609	3157	3129	3129	3101	3101	3101	3101	3101	3101	3129	3129	3129	3129	3129	3129	3129	3157	3157	3129	3157	3157	3157	3157	3157	3157	3157	3157	3698	3698	3659	3659	3659	3659	3698	3698	3698	3738	3698	3738	3698	3698	3698	3698	3698	3698	3698	3698	3698	3698	3698	3698	3738	3738	3821	3738	3738	3738	3738	3738	3738	3738	3738	3779	3779	3779	3779	3779	3779	3779	3738	3738	3738	3738	3698	3698	3698	3698	3698	3698	3698	3698	3698	3698	3698	3698	3698	3698	3698	3698	3698	3698	3698	3698	3698	3698	3738	3779	3779	3738	3779	3779	3821	3821	3821	3821	3821	3821	3779	3779	3738	3738	3738	3779	3779	3779	3779	3779	3779	3779	3779	3738	3738	3738	3738	3738	3738	3738	3738	3738	3738	3738	3779	3738	3779	3779	3779	3738	3738	3738	3738	3738	3738	3738	3738	3738	3738	3738	3738	3738	2822	2822	2845	2822	2822	2822	2822	2822	2822	2822	2822	2822	2822	2799	2822	2799	2799	2799	2799	2799	2822	2799	2777	2799	2777	2799	2777	2799	2822	2822	2822	2845	2845	3821	3779	3821	3779	3779	3779	3779	3779	3779	3779	3779	3779	3779	3779	3779	3779	3779	3779	3779	3779	3738	3738	3738	3738	3738	3738	3738	3779	3738	3738	3738	3779	3738	3738	3738	3738	3738	3779	3738	3738	3779	3779	3738	3738	3738	3779	3738	3738	3738	3779	3779	3779	3738	3779	3779	3779	3738	3738	3738	3779	3779	3779	3738	3779	3779	3779	3779	3738	3738	3738	3738	3738	3738	3779	3779	3779	3779	3779	3779	3779	3779	3779	3779	3779	3779	3779	3779	3779	3779	3779	3779	3779	3779	3779	3779	3779	3779	3779	3779	3738	3779	3779	3779	3779	3779	3779	3779	3779	3779	3779	3779	3738	3738	3738	3738	3779	3779	3779	3779	3779	3779	3779	3821	3821	3821	3821	3821	3779	3779	3779	3738	3738	3738	3738	3738	3779	3779	3779	3779	3779	3779	3779	3779	3779	3779	3779	3821	3779	3779	3779	3779	3779	3779	3821	3779	3779	3779	3821	3779	3821	3779	3821	3821	3821	3821	3821	3821	3821	3821	3821	3821	3821	3821	3821	3821	3821	3821	3821	3821	3821	3821	3821	3821	3821	3821	3821	3821	3821	3821	3821	3821	3821	3821	3779	3738	3738	3738	3738	3738	3779	3779	3779	3821	3779	3779	3738	3779	3738	3779	3738	3738	3779	3738	3779	3779	3779	3738	3779	3779	3738	3738	3779	3738	3738	3738	3738	3738	3738	3738	3738	3738	3779	3779	3738	3779	3738	3738	3738	3738	3738	3698	3738	3738	3738	3738	3738	3738	3738	3738	3738	3738	3738	3738	3698	3698	3698	3698	3698	3659	3659	3659	3698	3698	3698	3779	3738	3738	3738	3738	3738	3738	3738	3698	3698	3698	0	0	0	0	0	0	0	0	0	0	0	0	0	0	0	0	0	0	0	0	0	0	0	0	0	0	0	0	0	0	0	0	0	0	0	0	0	0	0	0	0	0	0	0	0	0
0	0	0	0	0	0	0	0	1519	1519	1525	1525	1560	1567	1574	1641	1611	1634	1634	1603	1603	2281	2281	2343	2343	2327	2327	2327	2327	2327	2327	2327	2327	2327	2312	2312	2312	2312	2312	2312	2312	2312	2327	2327	2327	2343	2343	2327	2327	2327	2327	2327	2327	2312	2312	2312	2312	2312	2312	2312	2312	2327	2343	2327	2343	2327	2327	2327	2327	2327	2327	2343	2343	2327	2327	2327	2327	2327	2327	2327	2327	2343	2343	2343	2343	2343	2343	2343	2343	2359	2343	2359	2359	2359	2343	2343	2343	2343	2343	2343	2343	2343	2343	2343	2327	2343	2343	2343	2359	2359	2359	2609	2609	2570	2570	2570	2570	2570	2570	2570	2570	2570	2570	2570	2570	2570	2570	2570	2570	2570	2570	2570	2570	2570	2570	2570	2589	3157	3129	3157	3129	3129	3129	3129	3129	3129	3129	3157	3157	3157	3129	3157	3157	3157	3157	3157	3157	3157	3157	3157	3157	3157	3157	3157	3698	3698	3698	3698	3659	3698	3698	3698	3698	3698	3698	3698	3698	3698	3698	3698	3698	3698	3698	3698	3698	3738	3738	3738	3738	3738	3738	3779	3738	3738	3738	3738	3738	3738	3738	3738	3779	3779	3779	3779	3779	3779	3779	3738	3738	3738	3738	3698	3698	3698	3698	3698	3698	3698	3698	3698	3738	3698	3738	3698	3659	3659	3659	3659	3698	3698	3698	3698	3738	3738	3738	3738	3738	3738	3821	3821	3821	3821	3864	3779	3779	3738	3738	3738	3738	3738	3779	3779	3779	3779	3779	3779	3738	3738	3738	3738	3738	3738	3738	3738	3738	3738	3738	3738	3738	3738	3779	3779	3779	3738	3738	3779	3738	3779	3738	3738	3738	3738	3738	3738	3738	3698	2845	2822	2845	2822	2822	2822	2822	2822	2822	2822	2822	2822	2822	2799	2799	2799	2799	2799	2799	2799	2822	2799	2799	2777	2777	2799	2799	2799	2822	2845	2869	2893	2893	2893	2893	3821	3779	3779	3779	3779	3779	3779	3779	3779	3779	3779	3779	3779	3779	3779	3779	3738	3738	3738	3738	3738	3738	3738	3738	3738	3779	3738	3738	3738	3779	3738	3738	3738	3738	3779	3779	3779	3779	3779	3779	3779	3779	3738	3779	3738	3738	3738	3738	3738	3738	3738	3779	3779	3779	3779	3738	3738	3779	3779	3779	3738	3738	3779	3779	3779	3738	3738	3738	3738	3738	3738	3779	3779	3779	3779	3779	3779	3779	3779	3779	3779	3779	3779	3779	3779	3779	3779	3779	3779	3779	3821	3821	3779	3779	3779	3779	3779	3738	3738	3738	3738	3738	3738	3779	3738	3779	3738	3738	3738	3738	3738	3738	3738	3779	3738	3738	3779	3779	3779	3779	3821	3821	3821	3821	3821	3779	3779	3738	3738	3738	3698	3738	3738	3738	3738	3779	3779	3779	3779	3779	3779	3779	3779	3779	3779	3779	3779	3779	3779	3738	3738	3738	3779	3779	3779	3779	3779	3821	3821	3821	3821	3821	3821	3821	3821	3821	3821	3821	3821	3821	3821	3821	3821	3821	3821	3821	3821	3821	3821	3821	3821	3821	3821	3821	3821	3821	3779	3821	3821	3779	3779	3779	3738	3738	3738	3738	3738	3738	3738	3779	3821	3779	3779	3738	3779	3738	3779	3738	3738	3779	3779	3779	3779	3779	3738	3779	3779	3779	3779	3779	3779	3779	3738	3738	3738	3738	3738	3738	3738	3738	3738	3738	3779	3738	3738	3738	3738	3738	3698	3738	3738	3738	3738	3738	3738	3738	3738	3738	3738	3738	3698	3659	3659	3698	3698	3698	3659	3698	3659	3698	3698	3698	3738	3738	3738	3738	3738	3738	3738	3738	3698	3659	3659	0	0	0	0	0	0	0	0	0	0	0	0	0	0	0	0	0	0	0	0	0	0	0	0	0	0	0	0	0	0	0	0	0	0	0	0	0	0	0	0	0	0	0	0	0	0
0	0	0	0	0	0	0	0	1519	1512	1525	1525	1553	1567	1574	1611	1611	1611	1611	1603	1603	1603	0	2327	2327	2327	2343	2343	2327	2327	2327	2327	2327	2327	2327	2327	2327	2327	2327	2327	2327	2327	2327	2327	2327	2343	2343	2343	2343	2327	2327	2327	2327	2327	2327	2327	2327	2327	2327	2327	2327	2327	2343	2343	2343	2343	2343	2327	2343	2343	2327	2343	2343	2343	2343	2343	2343	2343	2343	2343	2343	2343	2343	2343	2359	2359	2359	2359	2359	2359	2359	2359	2359	2359	2343	2343	2343	2343	2359	2343	2343	2343	2343	2343	2343	2343	2359	2359	2359	2359	2359	2359	2359	2629	2589	2589	2570	2570	2570	2570	2570	2570	2570	2570	2570	2570	2570	2570	2570	2570	2570	2570	2570	2570	2570	2570	3186	3186	3186	3157	3157	3129	3129	3129	3157	3157	3157	3157	3186	3186	3157	3157	3157	3186	3157	3157	3157	3157	3157	3157	3157	3157	3157	3157	3698	3698	3698	3698	3659	3698	3698	3698	3698	3698	3698	3698	3698	3698	3698	3698	3698	3698	3698	3698	3698	3698	3738	3738	3738	3738	3738	3738	3738	3738	3738	3698	3738	3738	3738	3821	3821	3821	3821	3821	3779	3738	3779	3738	3738	3738	3738	3738	3738	3698	3698	3698	3698	3698	3698	3698	3698	3698	3738	3698	3698	3659	3659	3659	3698	3698	3698	3698	3698	3738	3738	3738	3738	3738	3779	3779	3821	3821	3821	3821	3779	3779	3738	3738	3738	3738	3779	3779	3779	3779	3779	3779	3738	3738	3738	3738	3738	3738	3738	3738	3738	3738	3738	3738	3738	3738	3738	3738	3738	3738	3738	3738	3738	3738	3738	3738	3738	3738	3738	3738	3738	2845	2845	2845	2845	2822	2822	2822	2822	2822	2822	2822	2799	2799	2799	2799	2799	2799	2799	2799	2799	2799	2822	2799	2799	2799	2777	2799	2799	2799	2822	2822	2869	2893	2893	2893	2869	2869	3821	3779	3779	3779	3779	3779	3779	3779	3779	3779	3779	3779	3779	3779	3738	3738	3738	3738	3738	3738	3738	3738	3738	3738	3779	3738	3738	3738	3738	3738	3738	3738	3738	3779	3779	3779	3738	3779	3779	3779	3779	3779	3779	3779	3779	3779	3779	3738	3779	3738	3779	3779	3779	3779	3738	3738	3779	3738	3738	3738	3738	3738	3738	3738	3738	3738	3738	3738	3738	3738	3738	3738	3779	3779	3779	3738	3738	3779	3779	3779	3779	3779	3779	3779	3779	3779	3779	3821	3779	3821	3821	3821	3779	3779	3738	3779	3738	3738	3779	3738	3738	3779	3779	3779	3779	3738	3738	3738	3738	3738	3738	3738	3738	3738	3738	3779	3779	3779	3821	3821	3821	3821	3821	3821	3779	3779	3738	3738	3698	3698	3698	3738	3738	3738	3738	3738	3738	3779	3779	3779	3779	3779	3779	3779	3779	3779	3779	3738	3738	3738	3779	3779	3779	3779	3821	3821	3821	3821	3821	3821	3821	3821	3821	3821	3821	3821	3821	3821	3821	3821	3821	3821	3821	3821	3821	3821	3821	3821	3821	3821	3821	3821	3821	3821	3821	3779	3779	3779	3779	3779	3779	3779	3738	3779	3779	3779	3779	3779	3779	3821	3779	3779	3779	3779	3779	3779	3779	3779	3779	3779	3779	3779	3779	3738	3779	3779	3779	3779	3779	3779	3779	3738	3738	3738	3738	3738	3738	3738	3738	3738	3738	3738	3738	3738	3738	3738	3738	3698	3738	3738	3738	3738	3738	3738	3738	3738	3738	3698	3738	3698	3659	3659	3698	3698	3698	3659	3698	3659	3698	3698	3698	3738	3779	3779	3738	3738	3738	3738	3738	3698	3659	3659	0	0	0	0	0	0	0	0	0	0	0	0	0	0	0	0	0	0	0	0	0	0	0	0	0	0	0	0	0	0	0	0	0	0	0	0	0	0	0	0	0	0	0	0	0	0
0	0	0	0	0	0	0	0	0	1512	1525	1532	1546	1567	1574	1611	1603	1611	1611	1603	1603	1603	0	2343	2343	2327	2343	2343	2343	2343	2343	2327	2327	2327	2327	2327	2327	2327	2327	2343	2343	2343	2343	2343	2343	2343	2343	2343	2343	2343	2343	2343	2343	2343	2327	2327	2327	2327	2327	2327	2327	2327	2343	2343	2343	2343	2343	2343	2359	2343	2343	2359	2359	2359	2359	2343	2343	2343	2343	2343	2343	2343	2343	2359	2359	2376	2359	2376	2376	2376	2376	2359	2359	2359	2359	2359	2359	2359	2359	2359	2359	2359	2359	2359	2343	2359	2359	2359	2376	2376	2376	2376	2426	2551	2551	2570	2570	2551	2551	2551	2570	2570	2570	2570	2570	2570	2570	2570	2570	2570	2570	2570	2551	2551	2570	2570	3186	3216	3186	3186	3186	3157	3129	3157	3157	3157	3157	3157	3186	3186	3157	3157	3157	3186	3186	3186	3186	3157	3157	3157	3157	3186	3186	3186	3186	3698	3698	3698	3659	3659	3698	3659	3698	3698	3698	3698	3698	3698	3698	3698	3698	3698	3698	3738	3698	3698	3738	3738	3738	3738	3738	3738	3738	3779	3779	3738	3779	3779	3779	3821	3821	3821	3821	3821	3779	3779	3779	3779	3738	3779	3779	3738	3779	3738	3698	3698	3698	3738	3698	3738	3738	3698	3779	3738	3738	3698	3698	3698	3738	3738	3738	3698	3738	3738	3738	3738	3738	3779	3779	3779	3779	3821	3821	3821	3779	3779	3738	3738	3738	3779	3779	3779	3779	3738	3779	3779	3738	3738	3738	3738	3738	3738	3738	3738	3738	3738	3738	3738	3738	3738	3738	3738	3738	3738	3738	3738	3738	3738	3738	3738	3738	3738	3738	3738	3738	2822	2822	2822	2822	2822	2822	2799	2799	2799	2799	2799	2799	2799	2799	2777	2799	2777	2777	2777	2777	2799	2799	2799	2799	2799	2799	2799	2799	2822	2845	2845	2869	2893	2893	2893	2869	2869	3821	3821	3779	3779	3779	3779	3779	3779	3779	3779	3779	3779	3779	3779	3738	3738	3738	3738	3738	3738	3738	3738	3738	3738	3779	3779	3738	3738	3779	3738	3738	3738	3738	3779	3779	3779	3779	3779	3779	3779	3779	3779	3779	3779	3779	3779	3779	3779	3738	3738	3738	3738	3779	3738	3738	3738	3738	3738	3738	3738	3738	3738	3738	3738	3738	3738	3738	3738	3738	3738	3738	3779	3779	3779	3779	3779	3779	3779	3779	3779	3779	3779	3779	3779	3779	3779	3779	3779	3779	3821	3821	3779	3779	3779	3779	3779	3738	3738	3779	3779	3779	3779	3779	3779	3738	3738	3738	3738	3738	3738	3738	3738	3738	3738	3738	3779	3779	3821	3821	3821	3821	3821	3821	3779	3779	3738	3738	3698	3698	3698	3698	3738	3738	3738	3738	3738	3779	3779	3779	3779	3779	3779	3779	3779	3779	3779	3779	3779	3738	3738	3779	3779	3779	3821	3821	3779	3821	3821	3821	3821	3821	3821	3821	3821	3821	3821	3821	3821	3821	3821	3821	3821	3821	3821	3821	3821	3821	3821	3821	3821	3821	3821	3821	3821	3779	3779	3779	3779	3779	3738	3738	3738	3779	3779	3738	3738	3779	3779	3779	3779	3779	3779	3779	3779	3779	3779	3779	3779	3779	3779	3779	3779	3779	3779	3779	3779	3779	3779	3779	3738	3738	3738	3738	3738	3738	3738	3738	3738	3738	3738	3698	3738	3738	3738	3738	3738	3738	3698	3738	3738	3738	3738	3738	3738	3738	3738	3738	3698	3659	3698	3698	3659	3698	3698	3698	3659	3698	3698	3698	3698	3698	3698	3779	3738	3738	3738	3738	3698	3698	3698	3659	3698	3698	0	0	0	0	0	0	0	0	0	0	0	0	0	0	0	0	0	0	0	0	0	0	0	0	0	0	0	0	0	0	0	0	0	0	0	0	0	0	0	0	0	0	0	0	0
