0	0	0	0	0	854	854	856	860	862	867	871	875	875	878	880	880	882	882	889	891	891	891	905	905	910	913	915	917	917	920	922	925	927	927	932	932	940	945	950	950	950	969	972	972	977	977	974	974	974	974	991	997	1000	1006	1006	1006	1008	1017	1026	1033	1036	1036	1039	1042	1045	1048	1055	1058	1061	1074	1071	1074	1081	1088	1085	1088	1095	1095	1098	1098	1098	1098	1098	0	0	0	0	0	0	0	0	0	5535	5448	5448	5535	5626	5626	5626	5626	5626	5719	5719	5719	5719	5719	5815	5815	6018	6018	6124	6235	6235	6349	6235	6235	6349	6349	6349	6349	6349	6468	6468	6592	6468	6592	6720	6720	6720	6720	6853	6853	6992	6853	6992	7137	7287	7137	7137	7137	7137	7137	7137	7137	7137	7137	7287	7287	7287	7444	7444	7444	7444	7444	7444	7444	7608	7608	7608	7779	7779	7779	7779	7959	7959	8146	8146	7959	8146	8146	8146	8146	7959	7959	7959	7959	7959	7959	8146	8146	8343	8343	8343	8343	8343	8343	8343	8343	8343	8343	8146	8146	8146	8146	8146	8146	8146	8343	8343	8343	8343	8343	8146	8146	8343	8343	8146	8343	8146	8146	8146	8146	8146	8146	8146	8146	8146	8146	8146	8146	8146	8146	8146	8146	8146	8146	7959	7959	7959	7959	7959	7959	7959	7959	7959	7959	7959	7779	7779	4045	4045	4045	4045	3998	3998	4045	4045	4045	4045	4045	4045	4045	3998	3998	3998	3952	3952	3907	3907	3907	3907	3907	3907	3864	3864	3864	3864	3864	3864	3864	3864	3864	3864	3864	3864	3864	3864	3864	3864	3864	3864	3864	3864	3864	3864	3864	3864	3864	3907	3864	3864	3907	3907	3907	3907	3907	3952	3952	3952	3998	3998	3952	3998	3952	3952	3952	3952	3952	3952	3952	3952	3952	0	8550	8343	8343	8550	8343	8343	8343	8343	8343	8343	8343	8343	8343	8343	8550	8343	8550	8550	8343	8343	8343	8343	4771	4706	4706	4706	4771	4771	4771	8550	8550	4771	4771	4838	4838	4838	4771	4771	4771	4771	4771	4771	4771	4771	4771	4771	4771	4771	4771	4771	4771	4771	4771	4771	4771	4771	4771	4771	4771	4706	4706	8146	7959	4706	4706	4706	4706	4643	4643	4643	4643	4838	4838	0	8146	8146	8146	8146	8343	8146	4771	4706	4706	4643	4706	4771	4771	4706	4771	4771	4771	4771	4771	4771	4771	4838	4838	4771	4771	4838	4771	4771	4771	4771	7959	7959	8146	8146	8146	4643	4643	4643	4643	4643	4643	4643	4643	4643	4706	4838	4838	4838	4706	4706	4643	4581	4581	4581	4581	4581	4581	4581	4581	4581	4643	4581	4581	4581	4643	4643	4706	4706	4706	4706	4706	4706	4706	4706	4706	4643	4643	4706	4706	4706	4706	4706	4706	4706	4706	4706	4706	4706	4706	4706	4643	4643	4643	4643	4643	4643	4643	7444	7444	7608	7608	7444	4643	4643	4643	4643	4643	4643	4643	4706	4706	4706	4706	4643	4706	4706	4706	4706	4706	4706	4706	4706	4706	4706	4706	4706	4706	4706	4643	4643	7959	7959	7959	8146	8146	8146	8146	8343	8343	8343	8146	8146	8146	8146	8146	7959	8146	8146	8146	8146	8343	8343	8343	8343	8343	8343	8343	8146	8343	8343	8343	8343	8146	8146	7959	7959	7959	7959	7959	7959	7959	7959	8146	8146	8146	8146	8146	8343	8343	8343	8343	8343	8343	8343	8343	7779	7779	7959	7959	7959	7959	7959	7959	7959	8146	8146	8146	8146	8146	8146	7959	7959	7959	7959	7959	7779	7779	7959	7959	7959	7959	8550	8550	0	0	0	0	0	0	0	0	0	0	0	0	0	0	0	0	0	0	0	0	0	0	0	0	0	0	0	0	0	0	0	0	0	0	0	0	0	0	0
0	0	0	0	0	854	852	856	862	865	867	869	875	878	878	880	882	882	884	891	894	894	894	905	905	910	913	915	917	920	920	925	927	927	930	932	932	940	945	950	950	950	969	972	972	977	980	980	980	983	988	991	997	1000	1006	1006	1008	1008	1017	1026	1030	1033	1036	1039	1042	1042	1052	1055	1058	1058	1071	1071	1078	1081	1088	1085	1088	1095	1095	1098	1098	1095	1098	1098	0	0	0	0	0	0	0	0	0	5448	5448	5448	5448	5535	5626	5626	5626	5626	5626	5626	5626	5719	5719	5719	6018	6124	6124	6124	6235	6349	6349	6235	6235	6349	6349	6349	6349	6349	6468	6592	6720	6592	6720	6720	6853	6720	6720	6853	6992	7137	6992	6992	6992	7287	7137	7137	6992	7137	7137	7137	7137	7137	7137	7287	7287	7287	7444	7444	7444	7444	7444	7444	7444	7444	7444	7779	7779	7779	7779	7959	7959	7959	8146	8146	7959	8146	8146	8146	8146	7959	7959	7959	7959	7959	7959	8146	8343	8343	8343	8343	8343	8343	8343	8343	8343	8343	8343	8146	8146	8146	8146	8146	8146	8146	8146	8146	8343	8343	8146	8146	8146	8343	8343	8146	8146	8146	8146	8146	8146	8146	8146	8146	8146	8146	8146	8146	8146	8146	8146	8146	8146	8146	8146	7959	7959	7959	8146	7959	7959	7959	7959	7959	7959	7779	7779	7779	3998	4045	4045	3998	3998	3998	4045	4045	4045	4045	4045	4045	3998	3998	3998	3998	3952	3952	3907	3907	3907	3907	3864	3864	3864	3864	3864	3864	3864	3864	3864	3864	3864	3864	3864	3864	3864	3864	3864	3864	3864	3864	3864	3864	3864	3864	3864	3864	3864	3864	3864	3907	3907	3907	3907	3907	3907	3907	3998	3998	3998	3998	3998	3998	3952	3952	3952	3952	3952	3952	3952	3998	3998	0	8343	8343	8343	8550	8343	8343	8343	8343	8343	8343	8343	8343	8343	8343	8343	8343	8343	8343	8343	8343	4771	4771	4771	4771	4706	4706	4706	4706	4771	4771	4771	4771	4771	4771	4771	4771	4771	4771	4706	4706	4706	4771	4771	4771	4771	4771	4771	4771	4771	4771	4771	4771	4771	4771	4771	4771	4771	4771	4771	4771	4706	4706	4706	4706	4706	4643	4706	4706	4706	4706	4643	4838	4771	4771	4771	4771	4771	4706	4706	4771	4706	4706	4706	4643	4706	4706	4706	4706	4771	4771	4771	4771	4706	4643	4706	4706	4771	4771	4771	4771	4706	4706	4706	4643	4643	7959	7959	8146	4706	4706	4706	4706	4706	4643	4706	4643	4643	4643	4706	4771	4771	4771	4706	4706	4643	4643	4581	4581	4581	4581	4581	4581	4581	4643	4643	4643	4643	4643	4643	4643	4706	4706	4706	4706	4706	4706	4706	4706	4706	4643	4643	4706	4706	4706	4706	4706	4706	4706	4706	4706	4706	4706	4706	4643	4643	4706	4706	4706	4643	4643	4706	4643	4581	4706	4581	4581	4643	4643	4643	4643	4643	4643	4643	4706	4706	4706	4706	4706	4771	4706	4706	4706	4706	4706	4706	4706	4706	4706	4706	4706	4706	4643	4643	4643	7959	7959	8146	8146	8146	8146	8146	8343	8343	8343	8343	8343	8146	8146	8146	7959	8146	7959	8146	8343	8343	8343	8343	8343	8343	8343	8343	8146	8343	8343	8343	8343	8146	8146	7959	8146	7959	8146	8146	7959	7959	7959	8146	7959	7959	7959	8146	8343	8146	8146	8343	8343	8343	8343	8343	8146	8146	8146	7959	7959	7959	7959	8146	8146	8343	8343	8343	8146	8146	8146	7959	8146	7959	7959	7959	7779	7779	7959	7959	7959	7959	7959	8550	0	0	0	0	0	0	0	0	0	0	0	0	0	0	0	0	0	0	0	0	0	0	0	0	0	0	0	0	0	0	0	0	0	0	0	0	0	0	0
0	0	0	0	0	854	854	860	862	865	865	869	875	878	880	882	882	884	887	891	894	896	901	905	905	910	913	913	917	917	920	925	927	927	930	935	937	940	945	950	950	953	969	972	972	974	977	977	980	983	988	991	1000	1003	1003	1006	1008	1008	1014	1026	1030	1033	1036	1039	1045	1048	1052	1055	1058	1058	1064	1071	1078	1085	1088	1085	1091	1095	1095	1098	1098	1098	1098	1098	1098	1098	1098	0	0	0	0	0	0	5448	5448	4838	4838	4838	4838	5535	5535	5535	5535	5719	5719	5719	5815	5815	6124	6124	6124	6235	6235	6349	6349	6349	6235	6349	6349	6349	6349	6349	6853	6720	6720	6592	6720	6720	6853	6853	6853	6992	7137	7287	4581	4581	4581	4643	4643	7287	7137	7137	7137	7137	7287	7137	7287	7287	7287	7444	7444	7444	7608	7608	7608	7444	7444	7444	7444	7779	7779	7779	7779	7959	7959	7959	8146	8146	7959	8146	8146	8146	8146	7959	7959	7959	7959	7959	7959	8146	8146	8343	8146	8343	8343	8343	8343	8343	8343	8343	8343	8146	8146	8146	8146	8146	8146	8146	8343	8146	8343	8146	8146	8146	8146	8343	8343	8146	8343	8343	8146	8146	8146	8146	8146	8146	8146	8146	8146	8146	8146	8146	8146	8146	8146	8146	8146	7959	8146	7959	8146	8146	7959	7959	7959	7959	7959	7959	7959	7959	4093	4045	4045	4045	3998	3998	4045	4045	4045	4045	4045	4045	3998	3998	3998	3952	3952	3907	3907	3907	3907	3907	3864	3864	3907	3907	3864	3864	3864	3864	3864	3864	3864	3864	3864	3864	3864	3864	3864	3864	3864	3864	3864	3864	3864	3864	3864	3864	3864	3864	3864	3864	3864	3907	3907	3907	3907	3952	3952	3998	3998	3998	3998	3998	3952	3952	3952	3952	3952	3952	3907	3907	3907	0	8343	8343	8343	8550	8343	8343	8343	8343	8343	8343	8146	8343	8343	8343	8343	8343	8343	8343	4771	4771	4771	4771	4771	4771	4771	4706	4706	4706	4771	4771	4771	4771	4771	4771	4771	4771	4771	4771	4771	4771	4771	4771	4771	4771	4771	4771	4771	4771	4771	4771	4706	4771	4771	4706	4771	4706	4706	4706	4771	4706	4706	4706	4706	4706	4643	4643	4706	4771	4706	4706	4771	4838	4771	4771	4706	4706	4706	4706	4706	4706	4706	4706	4706	4643	4706	4706	4706	4706	4706	4771	4771	4771	4771	4771	4771	4838	4771	4771	4771	4771	4771	4706	4706	4706	4706	4706	4706	4706	4771	4771	4771	4706	4706	4706	4706	4706	4706	4706	4706	4706	4706	4706	4706	4643	4643	4643	4643	4643	4643	4581	4643	4643	4643	4643	4643	4643	4643	4643	4643	4643	4706	4706	4706	4706	4706	4706	4706	4706	4706	4643	4643	4706	4706	4706	4706	4706	4706	4706	4706	4706	4706	4706	4706	4706	4706	4706	4706	4643	4643	4643	4706	4643	4581	4643	4643	4643	4643	4643	4643	4643	4643	4643	4643	4706	4706	4706	4706	4706	4771	4706	4706	4706	4706	4706	4706	4706	4706	4706	4706	4643	4643	4643	4643	7608	7779	7779	8146	8146	8146	8146	8146	8343	8343	8343	8146	8146	7959	7959	8146	7959	8146	8146	8146	8146	8343	8343	8146	8146	8343	8146	8146	8146	8343	8343	8343	8343	8146	8146	8146	8146	7959	8146	7959	7959	7959	7959	8146	8146	8146	8146	8146	8146	8146	8343	8343	8343	8343	8343	8343	8343	8343	8146	8146	7959	7959	7959	8146	8146	8343	8343	8343	8146	8146	7959	7959	7959	7959	7959	7959	7959	7779	7959	7779	7779	7779	7959	0	0	0	0	0	0	0	0	0	0	0	0	0	0	0	0	0	0	0	0	0	0	0	0	0	0	0	0	0	0	0	0	0	0	0	0	0	0	0	0
0	0	0	0	0	854	856	860	862	865	865	869	873	878	878	880	882	882	887	891	896	898	901	905	905	910	910	913	917	917	920	925	930	930	932	935	937	942	945	950	950	955	969	972	972	974	977	980	980	983	991	991	1000	1000	1003	1006	1008	1008	1017	1026	1030	1033	1036	1039	1045	1045	1052	1055	1058	1058	1061	1071	1078	1081	1088	1088	1091	1091	1095	1095	1098	1095	1095	1098	1098	1098	1098	0	0	0	0	0	0	0	0	4838	4838	4838	4838	4771	4838	4838	4838	4771	4838	4838	4706	4906	4906	6124	6124	6124	6235	6235	6235	6235	6235	6349	6349	6349	6468	6853	6853	6992	6853	6720	6853	6853	6992	6853	6853	7137	7137	7287	4643	4643	4643	4706	4706	4706	4771	4771	7137	7137	7287	7137	7287	7287	7287	7444	7608	7444	4643	4643	4706	4771	4771	4771	4771	0	7779	4838	4838	4838	7959	7959	8146	8146	8146	8146	8146	8146	8146	7959	7959	7959	7959	7959	7959	8146	8146	8146	8146	8343	8146	8146	8343	8343	8343	8343	8343	8146	8146	8146	8146	8146	8146	8146	8146	8146	8146	8343	8146	8146	8146	8343	8343	8343	8343	8343	8146	8146	8146	8146	8146	8146	8146	8146	8146	8146	8146	8146	8146	8146	8146	8146	8146	7959	7959	7959	7959	8146	8146	8146	8146	7959	7959	7959	8146	4045	4045	4045	4045	4045	3998	3998	4045	4045	4045	4045	4045	4045	3998	3998	3952	3952	3952	3907	3907	3907	3907	3907	3864	3864	3907	3907	3864	3864	3864	3864	3864	3864	3864	3864	3864	3864	3864	3864	3864	3864	3864	3864	3864	3864	3864	3864	3864	3864	3864	3864	3864	3864	3907	3907	3907	3907	3907	3952	3952	3998	3998	3998	3998	3998	3952	3952	3952	3952	3952	3952	3907	3907	3907	0	8343	8343	8343	8343	8343	8343	8343	8343	8343	8343	8343	8343	8343	8343	8343	8343	8550	4771	4771	4771	4771	4771	4771	4771	4771	4706	4706	4706	4771	4771	4771	4771	4771	4771	4771	4771	4771	4771	4771	4771	4771	4771	4771	4771	4771	4771	4771	4771	4771	4771	4706	4771	4706	4706	4771	4706	4706	4706	4771	4706	4706	4706	4706	4706	4706	4643	4706	4706	4706	4706	4706	4771	4771	4771	4706	4706	4706	4706	4706	4706	4706	4706	4706	4643	4706	4706	4706	4706	4706	4706	4706	4771	4706	4771	4706	4771	4771	4771	4771	4771	4706	4706	4706	4706	4706	4706	4706	4706	4706	4706	4706	4706	4706	4643	4706	4706	4706	4706	4706	4706	4706	4706	4706	4643	4643	4643	4643	4643	4643	4643	4643	4643	4643	4643	4643	4643	4643	4643	4643	4643	4706	4706	4706	4706	4706	4706	4706	4706	4643	4643	4643	4643	4706	4706	4706	4706	4706	4706	4706	4706	4706	4706	4706	4643	4706	4706	4706	4643	4643	4643	4643	4643	4581	4706	4643	4643	4643	4643	4643	4643	4643	4643	4643	4706	4706	4706	4706	4706	4706	4706	4706	4706	4706	4706	4643	4643	4706	4706	4706	4643	4643	4643	4643	4643	7779	7779	8146	8146	8146	8146	8146	8343	8343	8343	8146	7959	7959	7959	7959	8146	8146	8146	8343	8343	8343	8343	8343	8146	8146	8146	8146	8146	8146	8146	8343	8343	8146	8146	8146	8146	8146	8146	7959	7959	7959	8146	8146	7959	7959	7959	8146	8146	8146	8146	8146	8343	8343	8343	8343	8146	8146	8146	8146	7959	7959	7959	8343	8343	8343	8343	8146	8343	8343	8146	8146	8146	7959	7959	7959	7779	7779	7959	7959	7779	7779	0	0	0	0	0	0	0	0	0	0	0	0	0	0	0	0	0	0	0	0	0	0	0	0	0	0	0	0	0	0	0	0	0	0	0	0	0	0	0	0	0
0	0	0	0	0	854	858	862	865	865	865	869	873	878	878	882	884	887	889	891	896	898	903	905	908	910	913	915	920	920	922	927	930	930	932	935	937	940	945	950	953	966	969	972	972	974	977	977	980	985	991	991	997	1000	1003	1006	1008	1011	1017	1026	1026	1033	1033	1039	1042	1045	1052	1055	1058	1061	1068	1074	1078	1081	1081	1088	1095	1095	1098	1098	1098	1098	1098	1098	1098	1098	1098	0	0	0	0	0	0	0	0	4838	4838	4838	4838	4771	4771	4838	4771	4771	4771	4706	4706	4906	4906	4906	4906	4838	4838	4838	4838	6235	6235	4643	4643	4643	4643	7287	7287	7137	6992	4771	4771	4771	4771	4771	4771	4771	4838	4771	4706	4706	4706	4706	4706	4771	4771	4771	4771	4771	4838	4838	4838	7287	7444	4706	4706	4706	4643	4643	4706	4771	4771	4771	4771	4771	4771	4838	4838	4838	7959	8767	8550	8343	8343	8146	8146	8146	8146	8146	7959	7959	7959	7959	7959	8146	8146	8146	8146	8146	8146	8146	8146	8146	8343	8343	8146	8146	8146	8146	8146	8146	8146	8146	8146	8146	8146	8343	8343	8146	8146	8343	8343	8343	8343	8343	8343	8343	8146	8146	8146	8146	8146	8146	8146	8146	8146	8146	8146	8146	8146	8146	8146	8146	8146	8146	8146	8146	8146	8146	8146	7959	8146	7959	8146	4045	4045	4045	4045	3998	3998	3998	4045	4045	4045	4045	4045	4045	3998	3952	3952	3952	3907	3907	3907	3907	3907	3907	3864	3864	3864	3907	3864	3864	3864	3864	3864	3864	3864	3864	3864	3864	3864	3864	3864	3864	3864	3864	3864	3864	3864	3864	3864	3864	3864	3864	3864	3864	3864	3907	3907	3907	3907	3952	3998	3998	3998	3998	3998	3998	3952	3952	3952	3952	3952	3907	3907	3907	3907	0	8343	8343	8343	8343	8343	8343	8343	8343	8343	8343	8343	8343	8343	8343	8343	8343	8343	4838	4771	4771	4771	4771	4771	4771	4771	4771	4771	4771	4771	4771	4771	4771	4771	4771	4771	4771	4771	4771	4771	4771	4771	4771	4771	4771	4771	4771	4771	4771	4771	4771	4706	4706	4706	4706	4706	4706	4706	4706	4706	4706	4706	4706	4706	4706	4706	4706	4706	4771	4706	4706	4771	4771	4771	4771	4771	4771	4706	4706	4706	4706	4706	4706	4706	4706	4706	4706	4706	4706	4643	4706	4706	4771	4706	4771	4771	4771	4771	4771	4706	4706	4706	4706	4706	4706	4706	4706	4706	4706	4643	4643	4643	4643	4643	4643	4643	4643	4643	4706	4643	4643	4643	4643	4643	4643	4643	4706	4643	4643	4643	4643	4643	4643	4643	4581	4581	4581	4643	4643	4643	4581	4706	4706	4706	4706	4706	4706	4706	4706	4643	4643	4643	4643	4706	4706	4706	4706	4706	4706	4706	4706	4706	4706	4706	4643	4643	4643	4643	4643	4643	4643	4643	4643	4581	4643	4643	4643	4643	4643	4643	4643	4643	4643	4643	4643	4706	4706	4706	4706	4706	4643	4706	4706	4706	4643	4643	4643	4643	4643	4643	4643	4643	4643	4643	7608	7779	7779	8146	8146	8146	8146	7959	8146	8146	8146	8146	8146	7959	8146	8146	8146	8343	8343	8343	8343	8343	8343	8343	8146	8146	8146	8343	8146	8146	8146	8146	8146	8146	8146	8146	8146	8146	8146	8146	7959	8146	8146	8146	8146	8146	8146	8146	8146	8146	8146	8146	8343	8343	8343	8343	8146	8146	8146	7959	7959	7959	7959	7959	8146	8146	8146	8146	8146	8343	8146	8146	8146	8146	8146	8146	7959	7779	7959	7959	0	0	0	0	0	0	0	0	0	0	0	0	0	0	0	0	0	0	0	0	0	0	0	0	0	0	0	0	0	0	0	0	0	0	0	0	0	0	0	0	0	0	0
0	0	0	0	0	856	860	865	865	865	867	869	871	875	880	884	884	887	889	889	898	901	903	908	908	910	915	917	922	922	925	927	930	930	932	935	937	940	942	950	953	966	969	972	972	974	977	980	983	988	991	991	994	997	1006	1006	1006	1011	1017	1017	1026	1030	1033	1033	1042	1048	1048	1055	1055	1064	1071	1074	1078	1081	1091	1091	1095	1095	1095	1098	1098	1098	1098	1098	1098	1098	0	0	0	0	0	0	0	0	0	4838	4838	4838	4838	4838	4838	4838	4838	4838	4838	4771	4771	4838	4906	4906	4906	4838	4838	4838	4838	4771	4771	4643	4643	4643	4643	4838	4838	4838	4771	4771	4771	4771	4771	4771	4771	4838	4838	4838	4771	4706	4706	4706	4706	4706	4771	4771	4771	4771	4771	4771	4771	4771	4706	4706	4706	4706	4706	4706	4838	4838	4838	4838	4771	4771	4838	4838	4838	4771	4771	8767	8767	8343	8343	8146	8146	8146	8146	8146	8146	7959	7959	7959	7959	8146	8146	8146	8146	8343	8146	8146	8343	8343	8343	8343	8343	8146	8146	8146	8146	8146	8146	8146	8146	8146	8146	8343	8146	8146	8146	8343	8343	8343	8343	8343	8343	8343	8343	8146	8146	8146	8146	8146	8146	8146	8146	8146	8343	8343	8146	8146	8146	8146	8146	8146	8146	8146	8146	8146	8146	8146	7959	7959	8146	4045	4045	4045	4045	4045	3998	3998	4045	4045	4045	4045	4045	4045	3952	3952	3952	3907	3907	3907	3907	3907	3907	3864	3864	3864	3864	3864	3864	3864	3864	3864	3864	3864	3864	3864	3864	3864	3864	3864	3864	3864	3864	3864	3864	3864	3864	3864	3864	3864	3864	3864	3864	3864	3864	3907	3907	3907	3907	3952	3952	3998	3998	3998	3998	3952	3952	3952	3907	3952	3952	3952	3907	3907	3907	0	8343	8343	8343	8343	8146	8343	8343	8343	8343	8343	8343	8343	8550	8550	8343	8343	4771	4771	4771	4771	4771	4771	4771	4771	4771	4771	4771	4771	4771	4771	4771	4771	4771	4771	4771	4771	4771	4771	4771	4771	4771	4771	4771	4771	4771	4771	4771	4771	4771	4706	4706	4706	4706	4706	4706	4706	4643	4706	4706	4706	4706	4706	4706	4706	4706	4706	4706	4706	4706	4706	4771	4838	4771	4771	4771	4771	4706	4706	4706	4706	4706	4706	4706	4706	4706	4706	4706	4706	4706	4706	4706	4771	4771	4771	4771	4771	4771	4706	4706	4706	4706	4706	4706	4706	4706	4643	4643	4706	4643	4643	4643	4643	4706	4643	4643	4643	4643	4643	4643	4643	4643	4643	4643	4643	4643	4706	4643	4643	4643	4706	4643	4643	4643	4643	4643	4643	4581	4581	4643	4581	4706	4706	4706	4706	4706	4706	4706	4706	4643	4643	4643	4643	4706	4706	4706	4706	4706	4706	4706	4643	4706	4643	4643	4643	4643	4643	4643	4643	4643	4643	4643	4643	4643	4643	4706	4706	4706	4706	4706	4706	4643	4643	4706	4643	4706	4706	4706	4706	4706	4643	4706	4706	4706	4643	4643	4643	4643	4643	4706	4706	4643	4643	4643	4643	7959	7959	8146	8146	8146	7959	7959	8146	8146	8146	8146	8146	7959	8146	8146	8146	8343	8343	8343	8343	8343	8343	8343	8343	8343	8343	8343	8343	8146	8146	8146	8146	8146	8146	8146	8343	8146	8146	8146	8146	8343	8343	8146	8146	7959	7959	7959	7959	8146	7959	8146	8343	8146	8146	8343	8146	7959	7959	7959	7959	7959	7959	8146	8146	8146	8343	8146	8146	8146	8146	8146	8146	8146	8146	8146	7959	7779	7779	8146	8146	0	0	0	0	0	0	0	0	0	0	0	0	0	0	0	0	0	0	0	0	0	0	0	0	0	0	0	0	0	0	0	0	0	0	0	0	0	0	0	0	0	0
0	0	0	0	0	854	860	862	865	865	865	869	871	878	882	884	887	887	889	889	891	894	901	905	908	910	915	917	922	922	925	930	930	932	935	937	937	940	942	948	950	966	969	969	972	972	974	980	985	991	994	994	1003	1003	1006	1006	1008	1011	1011	1020	1020	1033	1033	1039	1042	1045	1048	1055	1058	1064	1068	1074	1078	1081	1085	1091	1095	1095	1098	1098	1098	1098	1098	1102	1098	1098	0	0	0	0	0	0	0	0	0	4838	4838	4838	4838	4838	4838	4838	4838	4771	4771	4771	4771	4771	4906	4906	4838	4838	4838	4838	4838	4838	4838	4771	4838	4838	4838	4838	4838	4838	4838	4771	4838	4838	4838	4838	4838	4838	4838	4838	4771	4771	4706	4771	4771	4706	4771	4771	4771	4771	4771	4771	4706	4706	4706	4706	4771	4771	4771	4771	4771	4838	4771	4771	4771	4771	4771	4838	4771	4643	4643	8767	8550	8343	8343	8146	8146	8146	8146	8146	8146	8146	7959	7959	7959	8146	8146	8146	8146	8146	8146	8146	8343	8146	8146	8343	8146	8146	8146	8146	8146	8146	8146	8146	8146	8146	8146	8146	8146	8146	8146	8343	8343	8343	8343	8343	8343	8343	8343	8146	8146	8146	8146	8146	8146	8146	8146	8146	8343	8343	8343	8343	8146	8146	8146	8146	8146	8146	8146	8146	8146	8146	7959	7959	8343	4045	4045	4045	3998	3998	3998	3998	4045	4045	4045	4045	4045	4045	3998	3952	3952	3907	3907	3907	3864	3864	3864	3864	3864	3864	3864	3864	3864	3864	3864	3864	3864	3864	3864	3864	3864	3864	3864	3864	3864	3864	3864	3864	3864	3864	3864	3864	3864	3864	3864	3864	3864	3864	3864	3907	3907	3907	3907	3952	3952	3952	3998	3952	3952	3952	3952	3907	3907	3952	3952	3952	3907	3864	3864	0	8343	8343	8146	8343	8146	8343	8343	8146	8550	8550	8343	8343	8343	8550	8550	8343	4771	4771	4771	4771	4771	4771	4771	4771	4771	4771	4771	4771	4771	4771	4771	4771	4771	4771	4771	4771	4771	4771	4771	4771	4771	4771	4771	4771	4771	4771	4771	4771	4771	4706	4706	4706	4643	4643	4643	4643	4643	4643	4706	4706	4706	4706	4706	4706	4706	4706	4706	4706	4771	4771	4771	4838	4771	4771	4771	4771	4771	4706	4706	4706	4706	4706	4706	4706	4706	4706	4706	4706	4706	4706	4706	4771	4771	4771	4771	4771	4771	4771	4706	4706	4706	4706	4706	4706	4706	4643	4643	4643	4643	4643	4643	4643	4643	4643	4643	4643	4643	4643	4643	4643	4643	4643	4643	4643	4643	4706	4706	4643	4643	4643	4643	4643	4643	4643	4643	4643	4581	4581	4643	4581	4706	4706	4706	4706	4706	4706	4706	4706	4706	4643	4643	4643	4706	4706	4706	4706	4706	4706	4706	4643	4706	4643	4643	4643	4643	4643	4643	4643	4643	4643	4643	4643	4643	4643	4706	4706	4706	4706	4706	4706	4706	4706	4706	4643	4643	4706	4706	4706	4706	4706	4706	4643	4643	4643	4643	4643	4643	4643	4643	4643	4643	4643	4643	7779	7959	7779	8146	8146	8146	7959	7959	8146	8146	8146	8146	8146	8146	8146	8146	8146	8343	8343	8343	8343	8343	8343	8343	8343	8343	8343	8343	8343	8146	8146	8146	8146	8146	8146	8146	8146	8146	8146	8146	8146	8146	8343	8146	8146	7959	7779	7959	7959	7959	7959	7959	8146	8146	8146	8146	7959	7779	7959	7959	7959	7959	7959	8146	8146	8343	8343	8146	8146	8146	8146	8146	8146	7959	7959	7959	7959	7779	7959	7959	8146	8146	0	0	0	0	0	0	0	0	0	0	0	0	0	0	0	0	0	0	0	0	0	0	0	0	0	0	0	0	0	0	0	0	0	0	0	0	0	0	0	0	0
0	0	0	0	0	854	860	865	865	865	867	869	871	875	880	884	887	887	889	891	894	894	903	905	905	910	913	913	920	920	927	930	930	932	932	937	937	940	942	948	955	966	969	969	972	972	974	977	983	991	994	1000	1000	1003	1003	1003	1008	1011	1014	1017	1020	1036	1039	1039	1045	1048	1052	1055	1058	1064	1068	1074	1078	1081	1085	1091	1095	1098	1098	1098	1098	1098	1102	1105	1102	1102	0	0	0	0	0	0	0	0	0	4838	4838	4838	4838	4838	4838	4838	4838	4838	4838	4771	4771	4771	4838	4838	4838	4838	4838	4838	4838	4838	4838	4838	4838	4838	4838	4838	4838	4838	4838	4838	4838	4838	4838	4838	4838	4838	4838	4838	4771	4771	4771	4771	4771	4771	4771	4771	4771	4771	4771	4771	4706	4706	4706	4706	4771	4771	4771	4706	4771	4771	4771	4771	4706	4771	4771	4771	4706	4643	4643	0	8550	8550	8146	8146	8146	8146	8146	8146	7959	8146	8146	7959	8146	8343	8343	8343	8343	8343	8146	8146	8343	8146	8343	8343	8146	8146	8146	8146	8146	8146	8146	8146	8146	8146	8146	8146	8146	8146	8146	8146	8146	8343	8343	8343	8343	8343	8146	8146	8146	8146	8146	8146	8343	8343	8343	8343	8343	8343	8343	8343	8146	8146	8146	8146	8146	8146	8146	8146	8146	8146	8146	8343	8343	4045	4045	3998	3998	3998	3998	3998	4045	4045	4045	4045	4045	4045	3998	3952	3952	3907	3907	3907	3864	3864	3864	3864	3864	3864	3864	3864	3864	3864	3864	3864	3864	3864	3864	3864	3864	3864	3864	3864	3864	3864	3864	3864	3864	3864	3864	3864	3864	3864	3864	3864	3864	3864	3864	3864	3864	3907	3907	3907	3952	3952	3952	3952	3952	3952	3952	3952	3952	3952	3952	3952	3907	3907	3907	0	8343	8343	7959	8146	8146	8146	8343	8343	8343	8343	8343	8550	8550	8550	8343	8343	4771	4771	4771	4771	4771	4771	4771	4771	4771	4771	4771	4771	4771	4771	4771	4771	4771	4771	4771	4771	4771	4706	4706	4706	4771	4771	4771	4771	4771	4771	4771	4771	4771	4706	4706	4643	4643	4643	4643	4643	4643	4643	4643	4643	4706	4706	4706	4706	4706	4706	4706	4771	4771	4771	4771	4838	4771	4771	4706	4771	4706	4706	4706	4706	4706	4706	4706	4706	4706	4706	4706	4706	4706	4706	4706	4771	4771	4771	4706	4706	4771	4771	4706	4706	4706	4706	4706	4706	4706	4643	4643	4643	4643	4643	4643	4643	4643	4643	4643	4643	4643	4643	4643	4643	4643	4643	4643	4643	4643	4643	4643	4643	4643	4643	4643	4643	4643	4643	4643	4581	4581	4581	4581	4581	4706	4706	4706	4706	4706	4706	4706	4706	4706	4643	4643	4643	4706	4706	4706	4706	4706	4706	4706	4643	4643	4643	4643	4643	4643	4643	4643	4643	4643	4643	4643	4643	4643	4706	4706	4706	4706	4706	4706	4706	4706	4706	4643	4643	4643	4706	4706	4706	4706	4706	4706	4643	4643	4643	4643	4643	4643	4643	4643	4643	4643	4643	4643	7779	7779	7779	7959	7959	7959	7779	7779	7959	8146	8146	8146	8146	8146	8343	8343	8343	8343	8343	8343	8343	8343	8343	8343	8343	8343	8343	8343	8146	8146	8146	8146	8146	8146	8146	8146	8146	8146	8146	7959	7959	7959	8146	8146	8146	7959	7779	7779	7959	7959	7959	7959	7959	7959	7959	8146	7959	7959	7959	8146	8146	7959	8146	8146	8146	7959	7959	7959	7959	7959	7959	7959	7959	7959	7959	7959	7959	7779	7779	8146	8146	8343	8550	8550	0	0	0	0	0	0	0	0	0	0	0	0	0	0	0	0	0	0	0	0	0	0	0	0	0	0	0	0	0	0	0	0	0	0	0	0	0	0	0
0	0	0	0	0	854	860	862	862	865	867	869	869	871	873	884	887	887	889	891	896	898	903	905	905	910	913	913	920	922	927	930	930	932	932	935	937	940	942	948	953	966	969	969	972	972	974	980	980	991	994	1000	1000	1003	1003	1006	1008	1008	1014	1017	1020	1039	1039	1042	1045	1052	1052	1055	1058	1064	1064	1074	1074	1078	1085	1088	1091	1098	1098	1098	1098	1102	1102	1105	1102	1102	0	0	0	0	0	0	0	0	0	4838	4838	4838	4838	4838	4838	4838	4771	4771	4771	4771	4771	4771	4838	4838	4838	4838	4838	4838	4906	4906	4838	4838	4838	4838	4838	4838	4838	4838	4838	4838	4838	4838	4838	4838	4838	4838	4838	4838	4771	4771	4771	4771	4771	4771	4771	4771	4771	4706	4706	4706	4706	4706	4706	4706	4771	4771	4706	4706	4771	4771	4771	4771	4706	4771	4771	4771	4706	4643	4643	0	8767	8767	8343	8146	8146	8146	8146	8146	8146	8146	8146	8146	8146	8343	8343	8343	8343	8343	8146	8146	8343	8343	8343	8343	8146	8343	8343	8146	8146	8146	8146	8146	8146	8146	7959	7959	7959	8146	8146	8146	8343	8343	8343	8343	8343	8343	8343	8146	8146	8146	8146	8146	8146	8343	8343	8343	8343	8343	8146	8146	8146	8146	8146	8146	8146	8146	8146	8146	8343	8146	8343	8343	8343	4045	4045	4045	3998	3998	3998	3998	4045	4045	4045	3998	3998	4045	3998	3952	3907	3907	3907	3907	3864	3864	3864	3864	3864	3864	3864	3864	3864	3864	3864	3864	3864	3864	3864	3864	3864	3864	3864	3864	3864	3864	3864	3864	3864	3864	3864	3864	3864	3864	3864	3864	3864	3864	3864	3864	3864	3907	3907	3907	3907	3952	3952	3952	3952	3907	3952	3952	3952	3952	3952	3952	3907	3907	3907	0	8343	8146	8146	8146	8343	8146	8343	8343	8343	8343	8343	8550	8550	8550	8343	4838	4838	4771	4771	4771	4771	4771	4771	4771	4771	4771	4771	4771	4771	4771	4771	4771	4771	4771	4771	4771	4706	4706	4706	4706	4771	4771	4771	4771	4771	4771	4771	4771	4771	4706	4706	4643	4643	4643	4643	4643	4643	4706	4643	4706	4706	4706	4706	4706	4706	4706	4706	4706	4706	4706	4706	4838	4838	4771	4771	4838	4771	4706	4706	4706	4706	4706	4706	4706	4706	4706	4706	4706	4706	4706	4706	4706	4771	4706	4706	4706	4706	4771	4771	4706	4706	4706	4706	4706	4706	4643	4643	4643	4643	4643	4643	4643	4643	4706	4643	4643	4643	4643	4643	4643	4643	4643	4643	4643	4643	4643	4643	4643	4643	4643	4706	4643	4643	4581	4643	4581	4581	4581	4581	4581	4706	4706	4643	4706	4706	4706	4706	4706	4643	4643	4643	4643	4643	4706	4706	4706	4706	4643	4643	4643	4643	4643	4643	4643	4643	4643	4643	4643	4643	4643	4643	4643	4643	4706	4706	4706	4706	4706	4706	4706	4643	4643	4643	4643	4706	4706	4706	4706	4706	4706	4643	4643	4643	4643	4643	4643	4643	4643	4643	4643	4643	4643	4643	7779	7779	7779	7959	7779	7779	7608	7608	7959	7959	8146	8146	8146	8146	8343	8343	8343	8343	8343	8343	8343	8343	8343	8343	8343	8343	8343	8343	8146	8146	8146	8146	7959	8146	8146	8146	8146	8146	8146	8146	7959	7959	8146	8146	7959	7959	7959	7959	7959	7959	7779	7779	7779	7959	7959	7959	7959	7959	8146	7959	8146	7959	8146	8146	8146	8146	7959	7959	7959	7959	7959	7959	7959	7959	8146	7959	7959	7959	7959	8146	8146	8146	8343	8343	0	0	0	0	0	0	0	0	0	0	0	0	0	0	0	0	0	0	0	0	0	0	0	0	0	0	0	0	0	0	0	0	0	0	0	0	0	0	0
0	0	0	0	0	854	858	862	862	865	867	869	869	871	873	882	884	887	889	891	896	901	903	905	905	908	910	913	920	927	930	930	932	932	932	935	935	937	940	942	945	945	972	972	974	974	974	983	988	994	994	1000	1000	1003	1006	1006	1008	1011	1014	1017	1020	1039	1039	1039	1045	1048	1052	1055	1058	1061	1064	1074	1074	1078	1081	1085	1088	1098	1098	1098	1098	1102	1102	1105	1105	1102	0	0	0	0	0	0	0	0	4906	4838	4838	4838	4838	4771	4838	4838	4838	4838	4838	4771	4771	4771	4838	4838	4838	4838	4838	4906	4906	4906	4906	4838	4838	4838	4838	4838	4838	4838	4838	4838	4838	4838	4838	4838	4838	4838	4838	4838	4771	4771	4771	4771	4771	4771	4771	4771	4706	4706	4706	4706	4706	4706	4706	4706	4771	4771	4706	4706	4706	4706	4706	4706	4706	4706	4771	4771	4706	4771	4771	4771	8550	8550	8343	8146	8146	8146	8146	8146	8146	8146	8146	8146	8146	8343	8343	8343	8343	8146	8146	8146	8146	8343	8343	8343	8343	8343	8343	8343	8146	8146	8146	8146	8146	8146	7959	7959	7959	8146	8146	8146	8146	8343	8343	8343	8343	8343	8146	8146	8343	8146	8146	8146	8146	8343	8343	8146	8343	8343	8146	8146	8146	8146	8146	8146	8146	8146	8146	8146	8146	8146	7959	8146	8343	4045	4045	3998	3998	3998	3998	3998	3998	3998	4045	3998	3998	3998	3998	3907	3907	3907	3907	3864	3864	3864	3864	3864	3864	3864	3864	3864	3864	3864	3864	3864	3864	3864	3864	3864	3864	3864	3864	3864	3864	3864	3864	3864	3864	3864	3864	3864	3864	3864	3864	3864	3864	3864	3864	3864	3864	3907	3907	3907	3907	3952	3952	3952	3952	3952	3952	3952	3907	3952	3952	3907	3907	3907	3907	0	8146	7959	8146	8343	8343	8146	8343	8343	8343	8550	8550	8343	8343	8550	8550	8343	4838	4771	4771	4771	4771	4771	4771	4771	4771	4771	4771	4771	4771	4771	4771	4771	4771	4706	4771	4771	4706	4706	4706	4771	4771	4771	4771	4771	4771	4771	4771	4706	4706	4706	4706	4706	4706	4706	4706	4706	4706	4706	4706	4706	4706	4706	4706	4706	4706	4706	4706	4706	4706	4706	4706	4771	4771	4771	4771	4771	4771	4706	4706	4706	4706	4706	4706	4706	4706	4706	4706	4706	4643	4643	4706	4706	4706	4706	4643	4706	4706	4771	4643	4643	4643	4643	4643	4771	4771	4706	4643	4643	4643	4643	4643	4643	4643	4643	4643	4643	4643	4643	4643	4643	4643	4643	4643	4643	4643	4643	4643	4643	4643	4643	4643	4643	4643	4581	4643	4581	4581	4581	4581	4581	4706	4706	4706	4706	4706	4706	4706	4706	4643	4643	4643	4706	4706	4706	4706	4706	4643	4643	4643	4643	4706	4643	4643	4643	4643	4643	4643	4643	4643	4643	4643	4643	4643	4643	4706	4706	4706	4706	4706	4706	4643	4643	4643	4643	4643	4706	4706	4706	4706	4706	4643	4643	4643	4643	4643	4643	4643	4643	4643	4643	4643	4643	4643	7779	7779	7779	7959	7779	7779	7608	7608	7779	7779	7959	7959	8146	8146	8343	8343	8343	8343	8343	8343	8343	8343	8343	8343	8343	8343	8343	8343	8343	8343	8146	8146	7959	7959	7959	7959	8146	8146	8146	8146	7959	7959	8146	7959	7959	7959	7959	7779	7959	7779	7779	7779	7779	7779	7779	7779	7779	7959	7959	8146	8146	7959	8146	8146	8146	8146	7959	7959	7959	7959	7959	7959	7959	7959	8146	8146	7959	7959	7779	8146	8146	8146	8146	8146	8146	0	0	0	0	0	0	0	0	0	0	0	0	0	0	0	0	0	0	0	0	0	0	0	0	0	0	0	0	0	0	0	0	0	0	0	0	0	0
0	0	0	0	0	854	856	862	862	862	867	867	869	871	873	884	884	887	889	891	896	903	905	905	905	908	910	910	917	922	927	930	930	930	930	935	937	937	940	942	942	972	972	974	972	974	974	983	988	994	994	1003	1003	1003	1006	1006	1008	1011	1014	1017	1020	1039	1039	1042	1042	1048	1052	1055	1055	1058	1064	1074	1074	1078	1081	1085	1095	1098	1098	1098	1098	1098	1102	1102	1102	0	0	0	0	0	0	0	0	0	4906	4838	4771	4771	4771	4771	4771	4838	4771	4838	4771	4771	4771	4771	4838	4838	4838	4838	4838	4838	4906	4906	4906	4838	4838	4838	4838	4838	4838	4838	4838	4838	4838	4838	4838	4838	4838	4838	4771	4838	4771	4771	4771	4771	4706	4706	4706	4706	4706	4643	4706	4706	4706	4706	4706	4706	4771	4771	4706	4706	4706	4706	4706	4706	4706	4706	4706	4706	4706	4771	4771	4771	8767	8550	8343	8146	8146	8146	7959	8146	7959	7959	8146	8146	8146	8343	8343	8146	8146	8146	8146	8146	8146	8146	8343	8343	8146	8146	8343	8343	8146	8146	8146	8146	8146	8146	7959	7959	8146	8146	8146	8146	8146	8146	8343	8146	8146	8343	8146	8146	8343	8146	8146	8146	8146	8146	8343	8146	8343	8343	8146	8146	7959	8146	8146	8146	8146	8146	8146	8146	8146	8146	8146	8343	8146	3998	3998	3998	3998	3998	3998	3998	4045	3998	3998	3998	3998	3998	3998	3907	3907	3907	3864	3864	3864	3864	3864	3864	3864	3864	3864	3864	3864	3864	3864	3864	3821	3864	3864	3864	3864	3864	3864	3864	3864	3864	3864	3864	3864	3864	3864	3864	3864	3864	3864	3864	3864	3864	3864	3864	3864	3907	3907	3907	3907	3907	3952	3952	3952	3952	3952	3952	3952	3952	3952	3952	3907	3907	3907	0	8146	8146	8146	8343	8343	8343	8146	8343	8343	8343	8343	8343	8343	8343	8343	8146	4838	4771	4771	4771	4771	4771	4771	4771	4771	4771	4771	4771	4771	4771	4771	4706	4706	4706	4706	4706	4706	4643	4706	4706	4706	4706	4706	4706	4706	4706	4706	4706	4706	4706	4706	4706	4706	4706	4643	4643	4706	4706	4643	4706	4706	4706	4706	4706	4706	4706	4706	4706	4706	4706	4706	4771	4771	4771	4771	4771	4771	4771	4771	4706	4643	4706	4706	4643	4706	4706	4706	4706	4706	4643	4643	4706	4706	4706	4643	4643	4706	4771	4771	4706	4706	4706	4706	4706	4706	4706	4706	4643	4643	4643	4643	4643	4581	4706	4643	4643	4643	4643	4643	4643	4643	4643	4643	4643	4643	4643	4643	4643	4643	4643	4643	4643	4643	4581	4581	4581	4581	4581	4581	4581	4706	4706	4643	4643	4706	4706	4706	4706	4706	4706	4706	4706	4706	4706	4706	4706	4706	4643	4643	4643	4706	4643	4643	4643	4643	4581	4581	4643	4643	4643	4643	4643	4643	4643	4643	4706	4706	4706	4706	4706	4643	4643	4643	4643	4643	4643	4643	4706	4706	4706	4643	4643	4643	4643	4643	4643	4643	4643	4643	4706	4643	4643	4643	7779	7779	7779	7779	7779	7608	7608	7608	7779	7779	7959	7959	8146	8146	8146	8343	8343	8343	8343	8343	8343	8343	8343	8343	8343	8343	8343	8343	8343	8343	8146	7959	7959	7959	7959	7959	8146	8146	8146	8146	8146	8146	7959	8146	8146	7959	7959	7779	7779	7779	7779	7779	7779	7779	7779	7959	7959	7959	7959	8146	8343	8146	8146	8146	8146	8146	7959	7959	7959	7959	7959	7959	7959	7779	7779	7959	7779	7959	7779	7959	7959	7959	7959	7779	7779	0	0	0	0	0	0	0	0	0	0	0	0	0	0	0	0	0	0	0	0	0	0	0	0	0	0	0	0	0	0	0	0	0	0	0	0	0	0
0	0	0	0	0	854	856	862	862	862	867	867	867	869	873	884	884	887	887	889	891	898	903	903	905	908	908	910	913	925	927	930	930	930	932	932	935	937	937	940	940	940	974	974	974	974	977	985	988	994	1000	1003	1003	1003	1006	1008	1011	1014	1017	1017	1020	1039	1039	1042	1045	1052	1052	1055	1058	1058	1064	1071	1074	1078	1085	1085	1088	1095	1098	1098	1095	1098	1102	1102	1102	0	0	0	0	0	0	0	0	0	4906	4838	4838	4771	4838	4771	4771	4838	4771	4838	4771	4771	4771	4771	4838	4838	4838	4838	4838	4838	4838	4838	4838	4838	4838	4838	4838	4838	4838	4838	4838	4838	4838	4838	4838	4838	4838	4838	4771	4838	4771	4771	4771	4771	4771	4771	4771	4771	4706	4706	4706	4706	4706	4706	4706	4771	4838	4771	4771	4771	4771	4771	4706	4706	4706	4706	4706	4706	4771	4838	4838	8343	8550	8550	8343	8146	8146	8146	8146	7959	7959	7959	7959	7959	8146	8343	8343	8146	8343	8343	8343	8146	8146	8343	8343	8343	8146	8343	8343	8343	8146	8146	8146	8146	8146	8146	8146	8146	8146	8146	8146	8146	8146	8146	8146	8146	8343	8343	8146	8146	8343	8146	8146	8146	8146	8343	8343	8146	8343	8146	8146	7959	7959	8146	8146	8146	8146	8146	8146	8146	7959	7959	7959	8146	8343	4045	4045	3998	3998	3998	3952	3952	3952	3998	3998	4045	4045	3998	3998	3952	3907	3907	3907	3864	3864	3864	3864	3864	3864	3864	3864	3864	3864	3864	3864	3864	3821	3864	3864	3864	3864	3864	3864	3864	3864	3864	3864	3864	3864	3864	3864	3864	3864	3864	3864	3864	3864	3864	3864	3864	3864	3907	3907	3907	3907	3907	3907	3907	3907	3907	3952	3952	3952	3952	3952	3952	3952	3952	3952	0	8146	8146	8146	8343	8343	8343	8343	8343	8343	8343	8343	8343	8343	8343	8343	4771	4771	4771	4706	4771	4771	4771	4771	4771	4771	4771	4771	4706	4771	4706	4706	4706	4706	4706	4706	4706	4706	4643	4643	4643	4643	4643	4643	4643	4643	4706	4706	4643	4643	4706	4706	4643	4643	4706	4643	4706	4706	4706	4643	4706	4706	4706	4643	4706	4643	4706	4706	4706	4706	4706	4706	4771	4771	4771	4771	4771	4771	4771	4706	4706	4706	4706	4706	4706	4706	4706	4706	4706	4706	4706	4643	4643	4706	4706	4706	4706	4706	4771	4771	4706	4706	4706	4643	4771	4706	4706	4706	4643	4643	4643	4643	4643	4706	4706	4706	4643	4643	4643	4643	4643	4643	4643	4643	4643	4643	4643	4643	4643	4643	4643	4643	4643	4643	4581	4581	4581	4581	4581	4581	4581	4581	4706	4643	4706	4706	4706	4706	4706	4706	4706	4706	4706	4706	4706	4706	4706	4706	4706	4706	4643	4643	4643	4643	4643	4643	4643	4643	4643	4706	4706	4643	4643	4643	4643	4643	4706	4706	4706	4706	4706	4643	4643	4643	4643	4643	4643	4643	4706	4706	4706	4643	4643	4643	4643	4643	4643	4643	4643	4643	4706	4706	4706	4706	4706	7779	7779	7959	7779	7779	7608	7608	7779	7779	7959	7959	7959	8146	8146	8343	8343	8343	8343	8343	8343	8343	8343	8343	8343	8343	8343	8343	8343	8343	8146	8146	7959	7959	7959	8146	8146	8146	8146	8146	8146	8146	8146	8146	8146	7959	7779	7779	7779	7779	7779	7779	7959	7959	7959	7959	7959	8146	8146	8146	8343	8146	8146	8146	7959	8146	7959	7779	7959	7779	7959	7959	7959	7959	7959	7779	7779	7779	7779	7959	7959	7959	7959	7959	7959	0	0	0	0	0	0	0	0	0	0	0	0	0	0	0	0	0	0	0	0	0	0	0	0	0	0	0	0	0	0	0	0	0	0	0	0	0	0
0	0	0	0	0	852	854	860	860	862	865	865	865	869	873	884	884	884	887	889	891	898	903	905	903	908	908	908	910	925	927	930	930	930	932	935	935	937	937	950	950	950	972	972	972	974	980	988	988	994	997	1000	1003	1003	1006	1008	1011	1014	1014	1017	1017	1023	1039	1042	1048	1052	1055	1055	1055	1061	1064	1064	1074	1078	1085	1085	1088	1091	1091	1095	1095	1098	1102	1102	1102	0	0	0	0	0	0	0	0	0	4838	4838	4771	4771	4771	4771	4771	4838	4771	4838	4771	4771	4771	4771	4771	4838	4838	4838	4838	4838	4838	4838	4838	4838	4838	4838	4838	4771	4771	4838	4838	4838	4838	4771	4838	4838	4838	4838	4771	4771	4771	4771	4771	4771	4771	4771	4771	4771	4706	4706	4706	4706	4706	4706	4706	4771	4771	4838	4771	4771	4771	4771	4706	4706	4771	4706	4706	4771	4771	4838	4838	7959	8343	8343	8146	8146	8146	8146	7959	7959	7959	7959	7959	7959	8146	8146	8146	8343	8343	8343	8343	8343	8343	8343	8343	8146	8146	8343	8343	8343	8146	8146	8146	8146	8146	8146	8146	8146	8146	8146	8146	8146	8146	8146	8146	8146	8146	8146	8146	8146	8146	8146	8146	8146	8146	8343	8343	8146	8146	8146	8146	7959	7959	7959	7959	7959	8146	8146	8146	8146	7959	7779	7959	8343	8343	3998	3998	3998	3998	3998	3952	3952	3998	3998	3998	3998	3998	3998	3998	3952	3952	3907	3907	3864	3864	3864	3864	3864	3864	3864	3864	3864	3864	3864	3821	3821	3821	3864	3864	3864	3864	3864	3864	3864	3864	3864	3864	3864	3864	3864	3864	3864	3864	3864	3864	3864	3864	3864	3864	3864	3864	3864	3864	3864	3864	3907	3907	3907	3952	3952	3952	3952	3952	3952	3952	3952	3907	3907	3907	0	8343	8343	8343	8343	8343	8343	8146	8343	8343	8343	8343	8343	8343	8343	8146	4706	4706	4706	4706	4706	4771	4771	4771	4771	4771	4771	4771	4771	4771	4771	4706	4706	4706	4706	4706	4706	4706	4643	4643	4643	4643	4643	4643	4643	4706	4706	4706	4706	4706	4706	4706	4706	4706	4706	4706	4706	4706	4706	4643	4706	4643	4643	4643	4643	4643	4706	4706	4706	4706	4706	4706	4771	4838	4771	4771	4771	4771	4771	4706	4706	4643	4706	4706	4706	4706	4706	4706	4706	4706	4706	4643	4643	4706	4706	4706	4706	4706	4706	4771	4706	4706	4706	4706	4706	4706	4706	4706	4643	4643	4706	4706	4643	4706	4643	4643	4643	4643	4643	4643	4643	4643	4643	4643	4643	4643	4643	4643	4643	4643	4643	4643	4643	4643	4643	4643	4581	4581	4581	4581	4581	4643	4706	4643	4706	4706	4706	4706	4706	4706	4706	4706	4706	4706	4706	4706	4706	4706	4706	4706	4643	4643	4643	4643	4643	4643	4643	4643	4643	4643	4643	4643	4643	4643	4643	4643	4706	4706	4706	4706	4706	4643	4581	4581	4581	4643	4643	4643	4706	4706	4706	4706	4706	4643	4643	4643	4643	4643	4643	4643	4706	4706	4706	4706	4706	7779	7779	7959	7779	7779	7608	7608	7959	7779	7959	7959	8146	8146	8146	8146	8146	8146	8146	8146	8343	8146	8146	8146	8343	8343	8343	8343	8343	8343	8146	8146	7959	7959	7959	7959	8146	8146	8146	8146	8146	8146	8146	7959	7959	7959	7779	7779	7959	7779	7779	7959	7959	7959	7959	7959	7959	8146	8146	8146	8146	8146	8146	8343	8146	8146	8146	7959	8146	7959	7959	7959	7959	7959	7959	7959	7779	7779	7779	7959	7959	7959	7959	8146	7959	7959	0	0	0	0	0	0	0	0	0	0	0	0	0	0	0	0	0	0	0	0	0	0	0	0	0	0	0	0	0	0	0	0	0	0	0	0	0
0	0	0	0	0	852	854	858	860	862	862	862	862	865	865	882	884	884	887	889	894	901	903	903	903	908	908	910	913	925	930	930	932	932	935	937	937	937	948	950	950	955	955	974	974	974	980	988	988	994	997	1000	1000	1003	1006	1008	1011	1014	1017	1017	1020	1026	1039	1042	1048	1052	1055	1055	1055	1061	1064	1068	1071	1078	1081	1085	1088	1091	1095	1095	1095	1098	1098	1102	1102	0	0	0	0	0	0	0	0	0	4838	4838	4771	4771	4771	4771	4771	4771	4771	4771	4771	4771	4771	4771	4838	4838	4838	4838	4906	4838	4838	4838	4838	4838	4838	4838	4838	4838	4838	4838	4838	4838	4771	4771	4838	4838	4838	4838	4771	4838	4771	4838	4838	4771	4771	4771	4771	4771	4706	4706	4706	4706	4706	4706	4771	4771	4838	4838	4771	4771	4706	4706	4706	4706	4706	4706	4706	4771	4771	4838	4838	7959	8146	8146	8146	8146	8146	8146	8146	8146	7959	7959	8146	8146	8146	8343	8343	8343	8343	8343	8343	8146	8146	8343	8343	8343	8343	8343	8343	8343	8343	8146	8146	8343	8146	8146	8146	8146	8146	8146	8146	8146	8146	8146	8146	8146	8146	8146	8146	8146	8146	8146	8343	8146	8146	8343	8343	8343	8146	8146	8146	8146	8146	7959	7959	7959	8146	8146	8146	8146	7959	7959	8146	8146	8146	8146	4045	4045	3998	3998	3952	3952	3998	3998	3998	3998	3998	3998	3998	3907	3907	3907	3907	3864	3864	3864	3864	3864	3864	3864	3864	3864	3864	3864	3821	3821	3821	3864	3821	3864	3864	3864	3864	3864	3864	3864	3864	3864	3864	3864	3864	3864	3864	3864	3864	3864	3864	3864	3864	3864	3864	3864	3907	3864	3864	3907	3907	3952	3952	3952	3952	3952	3952	3952	3952	3952	3907	3907	3907	8146	8343	8343	8146	8343	8343	8343	8146	8343	8343	8343	8343	8343	8343	8343	8343	4771	4706	4706	4706	4706	4706	4706	4771	4706	4706	4706	4706	4706	4706	4771	4706	4706	4706	4706	4706	4706	4706	4706	4643	4643	4643	4643	4643	4643	4706	4706	4643	4643	4643	4706	4706	4706	4706	4706	4706	4706	4706	4706	4643	4706	4643	4643	4643	4643	4643	4706	4706	4706	4643	4643	4643	4771	4771	4706	4706	4706	4771	4706	4706	4706	4643	4643	4706	4706	4706	4706	4706	4706	4706	4706	4706	4706	4706	4706	4706	4706	4706	4706	4706	4706	4706	4706	4706	4706	4706	4706	4643	4643	4643	4706	4706	4706	4706	4643	4643	4643	4643	4643	4643	4643	4643	4643	4643	4643	4643	4643	4643	4643	4643	4643	4643	4643	4643	4643	4643	4581	4581	4581	4581	4581	4643	4643	4643	4706	4706	4706	4706	4706	4706	4706	4706	4706	4706	4706	4706	4706	4643	4706	4706	4643	4643	4643	4643	4643	4643	4643	4643	4643	4643	4643	4643	4643	4643	4643	4643	4643	4706	4706	4643	4706	4643	4581	4643	4581	4643	4643	4643	4706	4706	4706	4706	4706	4643	4643	4643	4643	4643	4643	4643	4643	4643	4706	4706	4706	7779	7779	7959	7779	7779	7608	7779	7959	7959	7959	7959	8146	8146	8146	8146	8146	8146	8146	8146	8146	8146	8146	8343	8343	8343	8343	8343	8343	8343	8343	8146	7959	7959	8146	8343	8146	8343	8146	8343	8343	8146	8146	7959	7779	7959	7779	7779	7959	7779	7779	7779	7959	8146	8146	8146	8146	8343	8343	8343	8343	8146	8343	8146	8146	8343	8146	7959	8146	7959	7959	7959	7959	7959	7959	7959	7959	7779	7779	7959	7959	7959	8146	8146	8146	8146	0	0	0	0	0	0	0	0	0	0	0	0	0	0	0	0	0	0	0	0	0	0	0	0	0	0	0	0	0	0	0	0	0	0	0	0	0
0	0	0	0	0	852	854	854	860	862	862	862	865	865	869	884	884	884	887	887	891	896	901	903	905	910	910	910	913	925	927	930	935	932	937	937	940	940	940	940	950	955	955	972	972	974	980	988	988	994	994	1000	1000	1003	1008	1011	1014	1014	1017	1020	1020	1026	1042	1045	1052	1052	1055	1055	1058	1061	1064	1068	1071	1078	1085	1085	1088	1091	1091	1091	1095	1098	1098	1098	1098	0	0	0	0	0	0	0	0	0	4838	4838	4771	4771	4771	4771	4771	4771	4771	4771	4771	4771	4771	4771	4838	4838	4838	4838	4906	4906	4838	4838	4838	4838	4838	4838	4838	4838	4838	4838	4838	4838	4838	4771	4838	4838	4838	4838	4771	4771	4771	4838	4838	4771	4771	4771	4771	4771	4771	4706	4706	4771	4706	4706	4706	4771	4771	4771	4771	4771	4706	4706	4706	4706	4706	4706	4706	4771	4838	4906	4906	4906	8146	8146	8146	8146	8146	8146	8146	8146	8146	7959	7959	8146	8146	8146	8343	8343	8146	8343	8343	8146	8146	8343	8343	8343	8343	8343	8343	8343	8343	8146	8343	8343	8343	8343	8146	8146	8146	8146	8146	8146	8146	8146	8146	8146	8146	8146	8146	8146	8146	8146	8146	8146	8146	8146	8343	8146	8146	8146	8146	8146	8146	8146	7959	7959	7959	7959	8146	8146	7959	7959	7959	8146	8146	8146	4045	4045	3998	3952	3952	3952	3998	3998	4045	4045	3998	3998	3998	3907	3907	3907	3907	3864	3864	3864	3864	3864	3864	3864	3864	3864	3864	3864	3821	3821	3821	3864	3864	3864	3864	3864	3864	3864	3864	3864	3864	3864	3864	3864	3821	3821	3821	3821	3821	3864	3864	3864	3864	3864	3864	3864	3907	3864	3864	3864	3907	3952	3998	3998	3952	3952	3907	3952	3907	3907	3907	3907	3907	8146	7959	8343	8343	8343	8343	8343	8146	8343	8343	8343	8343	8343	8343	8343	8343	8146	4771	4771	4771	4706	4706	4706	4706	4706	4706	4706	4706	4706	4706	4771	4771	4771	4706	4706	4706	4706	4706	4706	4643	4643	4706	4643	4643	4643	4706	4706	4643	4706	4643	4706	4706	4706	4706	4706	4706	4706	4706	4706	4706	4706	4706	4643	4643	4643	4581	4643	4643	4643	4643	4643	4643	4706	4771	4706	4706	4706	4706	4706	4706	4706	4706	4706	4706	4706	4706	4706	4706	4706	4706	4706	4706	4706	4706	4706	4706	4706	4706	4706	4706	4706	4706	4706	4706	4706	4706	4706	4706	4643	4643	4643	4706	4706	4643	4643	4643	4643	4643	4643	4643	4643	4643	4643	4643	4643	4581	4581	4643	4581	4581	4643	4643	4643	4643	4643	4643	4581	4581	4581	4581	4581	4643	4643	4643	4706	4706	4706	4706	4706	4706	4706	4706	4706	4706	4706	4706	4706	4643	4706	4706	4706	4706	4643	4643	4643	4643	4643	4643	4643	4643	4643	4643	4643	4643	4643	4643	4706	4706	4706	4643	4706	4643	4643	4643	4643	4643	4643	4643	4706	4706	4706	4706	4706	4643	4643	4643	4643	4643	4643	4643	4643	4643	4643	4643	4643	7959	7959	7959	7779	7779	7608	7779	7959	7959	7959	7959	7959	8146	8146	8146	8146	8146	7959	8146	8146	8146	8146	8343	8343	8343	8343	8550	8343	8343	8343	8146	8146	7959	8146	8343	8343	8343	8146	8146	8146	8146	7959	7959	7959	7779	7779	7779	7779	7779	7779	7779	7959	8146	8146	8146	8146	8343	8343	8343	8343	8343	8343	8146	8146	8146	8146	8146	8146	7959	8146	7959	8146	7959	8146	8146	8146	7959	7779	7959	7959	7959	7959	7959	8146	8146	0	0	0	0	0	0	0	0	0	0	0	0	0	0	0	0	0	0	0	0	0	0	0	0	0	0	0	0	0	0	0	0	0	0	0	0	0
0	0	0	0	0	852	854	858	860	862	862	862	865	869	875	882	884	884	887	887	889	891	898	901	905	910	910	913	917	925	927	930	935	935	940	940	940	940	940	942	950	958	961	969	972	974	974	977	980	991	994	997	1000	1006	1008	1008	1014	1014	1017	1020	1023	1030	1045	1048	1052	1052	1055	1055	1058	1061	1064	1068	1074	1081	1088	1088	1088	1091	1091	1091	1095	1095	1095	1095	1095	0	0	0	0	0	0	0	0	0	4906	4838	4838	4771	4771	4771	4771	4771	4771	4771	4771	4771	4771	4771	4838	4838	4838	4838	4838	4906	4838	4838	4838	4906	4838	4838	4838	4838	4838	4838	4838	4838	4838	4771	4838	4838	4771	4838	4771	4838	4838	4838	4838	4838	4838	4771	4771	4838	4771	4706	4706	4771	4706	4706	4706	4771	4771	4771	4771	4771	4771	4771	4771	4771	4771	4706	4771	4838	4838	4906	4906	4906	8146	8146	8146	8146	8146	8146	8146	7959	7959	7959	7959	7959	7959	8146	8343	8343	8343	8343	8343	8146	8146	8343	8146	8146	8146	8343	8343	8343	8343	8343	8343	8343	8343	8146	8146	8146	8146	8146	8146	8146	8146	8146	8146	8146	8146	8146	8146	8146	8146	8146	8146	8146	8146	8146	8146	8146	8146	8146	8146	7959	7959	7959	8146	7959	7959	7959	8146	8146	8146	8146	8146	8146	8146	8146	4045	3998	3998	3952	3952	3952	3998	3998	3998	3998	3998	3998	3998	3952	3907	3907	3907	3864	3864	3864	3864	3864	3864	3864	3864	3864	3864	3864	3864	3821	3821	3864	3864	3864	3864	3864	3864	3864	3864	3864	3864	3864	3864	3864	3821	3821	3821	3821	3821	3864	3864	3864	3864	3864	3864	3864	3864	3864	3864	3864	3907	3907	3952	3998	3907	3952	3907	3907	3907	3907	3907	3907	3907	8146	8343	8343	8146	8343	8343	8343	8146	8343	8146	8343	8146	8343	8343	8343	8146	8343	4771	4706	4706	4706	4706	4706	4706	4706	4706	4706	4706	4706	4706	4771	4771	4706	4706	4706	4771	4706	4706	4706	4706	4706	4706	4643	4643	4643	4643	4643	4643	4643	4643	4706	4706	4706	4706	4706	4706	4706	4706	4706	4706	4706	4706	4643	4643	4643	4581	4643	4643	4643	4643	4643	4643	4706	4771	4706	4706	4706	4706	4706	4706	4706	4706	4706	4771	4771	4706	4706	4706	4643	4643	4643	4706	4706	4706	4706	4706	4771	4706	4706	4706	4706	4706	4706	4706	4643	4643	4706	4706	4706	4643	4643	4643	4643	4643	4643	4643	4643	4643	4643	4643	4643	4643	4643	4643	4643	4643	4643	4643	4643	4643	4643	4643	4643	4643	4643	4581	4581	4581	4581	4643	4643	4706	4643	4643	4706	4706	4706	4706	4706	4706	4706	4706	4706	4706	4706	4706	4706	4643	4706	4643	4643	4706	4643	4643	4643	4643	4643	4643	4643	4643	4643	4643	4643	4643	4643	4643	4706	4706	4706	4706	4706	4643	4643	4643	4643	4643	4643	4643	4706	4706	4706	4706	4706	4643	4643	4643	4643	4643	4643	4643	4643	4643	4706	4706	4643	4643	7959	7959	7959	7779	7608	7608	8146	7779	7779	7959	7959	7959	8146	7959	8146	7959	7959	7959	7959	7959	7959	8146	8146	8343	8343	8343	8343	8343	8343	8146	8146	8146	8146	8343	8343	8343	8146	8343	8146	8146	7959	7959	7959	7779	7779	7779	7959	7779	7959	7959	7959	8146	8146	8343	8146	8146	8343	8343	8343	8343	8550	8343	7959	8146	8146	8146	8146	8146	8146	8146	8146	7959	8146	8146	8146	7959	7779	7959	7959	7959	8146	8343	8343	0	0	0	0	0	0	0	0	0	0	0	0	0	0	0	0	0	0	0	0	0	0	0	0	0	0	0	0	0	0	0	0	0	0	0	0	0	0
0	0	0	0	0	852	854	858	860	860	862	862	865	869	875	884	884	887	887	887	889	891	896	898	905	910	910	913	913	922	927	930	935	935	937	940	940	940	940	942	950	955	958	961	969	972	974	983	985	991	997	1000	1003	1006	1008	1011	1014	1017	1017	1020	1023	1030	1039	1048	1048	1052	1055	1055	1058	1064	1068	1071	1078	1081	1081	1085	1088	1088	1091	1091	1095	1095	1095	1095	1095	0	0	0	0	0	0	0	0	0	4906	4838	4838	4771	4771	4771	4771	4771	4771	4771	4771	4771	4771	4771	4838	4838	4838	4838	4838	4838	4838	4838	4838	4838	4838	4838	4838	4838	4838	4838	4838	4838	4771	4771	4838	4771	4771	4838	4771	4838	4838	4838	4838	4838	4838	4771	4771	4838	4771	4771	4706	4771	4771	4706	4706	4706	4706	4771	4771	4706	4706	4706	4706	4706	4771	4771	4771	4838	4906	4906	4906	4906	7959	8146	8146	8146	8146	8146	7959	7959	7959	7959	7959	8146	8146	8146	8343	8343	8343	8343	8146	8146	8146	8146	8146	8146	8146	8146	8146	8343	8343	8343	8343	8343	8343	8146	8146	8146	8146	8146	8146	8146	8146	8146	8146	8146	8146	8146	8146	8146	8146	8146	8146	8146	8146	8146	8146	8146	8146	8146	8146	8146	7959	8146	7959	7959	7959	8146	8146	8146	8146	8146	8146	8146	8343	8343	4045	4045	3998	3952	3952	3952	3998	3998	3998	3998	3998	3998	3952	3952	3907	3907	3907	3907	3864	3864	3864	3864	3864	3864	3864	3864	3864	3864	3864	3821	3864	3864	3864	3864	3864	3864	3864	3864	3864	3864	3864	3864	3864	3864	3864	3864	3864	3821	3821	3864	3864	3864	3864	3864	3864	3864	3864	3864	3864	3864	3907	3952	3952	3952	3952	3952	3952	3952	3907	3907	3907	3907	3907	8146	7959	8146	8146	8343	8146	8146	8146	8343	8343	8343	8343	8343	8343	8343	8343	8343	4706	4706	4706	4706	4706	4706	4706	4706	4706	4706	4706	4706	4706	4706	4706	4771	4771	4771	4771	4706	4706	4706	4706	4706	4706	4643	4643	4643	4643	4643	4643	4643	4643	4706	4706	4706	4706	4706	4706	4706	4706	4706	4706	4706	4706	4643	4643	4643	4581	4643	4643	4643	4643	4643	4643	4643	4706	4706	4706	4706	4706	4706	4706	4706	4706	4706	4706	4706	4706	4706	4643	4643	4706	4706	4706	4706	4706	4706	4771	4771	4771	4771	4771	4706	4706	4706	4643	4643	4643	4706	4706	4706	4643	4643	4643	4643	4643	4643	4643	4643	4643	4643	4643	4643	4643	4643	4643	4643	4643	4643	4643	4643	4643	4643	4643	4643	4581	4643	4643	4581	4581	4581	4643	4643	4706	4706	4643	4706	4706	4706	4706	4706	4706	4706	4706	4706	4706	4706	4706	4706	4643	4706	4643	4643	4706	4643	4643	4643	4643	4643	4643	4643	4643	4643	4643	4643	4643	4643	4643	4643	4643	4643	4643	4643	4643	4643	4643	4643	4643	4643	4643	4643	4706	4706	4706	4706	4643	4643	4643	4643	4643	4643	4643	4706	4706	4706	4706	4643	4643	7959	7959	7959	7959	7608	7959	7959	7779	7779	7959	8343	8146	8146	7959	8146	7959	7959	7959	7959	7959	7959	8146	8146	8343	8343	8343	8343	8343	8343	8146	8146	8146	8146	8343	8146	8343	8146	8146	8146	8146	7959	7959	7959	7779	7779	7779	7959	7779	7959	7959	7959	8146	8146	8343	8146	8343	8146	8343	8343	7959	8343	7959	7959	7959	8146	7959	7959	8146	8146	8146	8146	7959	8146	8146	8146	7959	7779	7959	8146	7959	8146	8146	8343	0	0	0	0	0	0	0	0	0	0	0	0	0	0	0	0	0	0	0	0	0	0	0	0	0	0	0	0	0	0	0	0	0	0	0	0	0	0
0	0	0	0	0	852	854	856	860	860	862	862	865	865	871	887	887	887	889	887	889	891	894	896	905	910	910	913	915	920	925	927	935	935	937	940	940	940	940	942	953	955	958	958	961	972	974	983	985	991	994	997	1000	1006	1008	1008	1014	1017	1017	1020	1023	1030	1039	1048	1052	1055	1055	1058	1061	1064	1068	1068	1081	1081	1088	1088	1088	1091	1091	1091	1095	1095	1098	1095	1095	0	0	0	0	0	0	0	0	0	4838	4838	4838	4771	4771	4771	4771	4771	4771	4771	4771	4771	4771	4771	4838	4838	4838	4906	4906	4838	4838	4838	4838	4838	4838	4838	4838	4838	4838	4838	4838	4838	4771	4771	4838	4771	4771	4838	4838	4838	4838	4838	4838	4838	4838	4838	4771	4838	4771	4771	4771	4771	4771	4771	4706	4706	4706	4706	4706	4771	4706	4706	4706	4771	4771	4771	4771	4838	4838	4906	4906	4906	8146	8146	8146	8146	8146	8146	7959	7959	7959	7959	7959	8146	8146	8146	8343	8343	8343	8146	8146	8146	8146	8146	8146	8146	8146	8146	8146	8146	8343	8343	8343	8343	8343	8343	8146	8146	8146	8146	8146	8146	8146	8146	8146	8146	8146	8146	8146	8146	7959	7959	8146	8146	8146	8146	8146	8146	8146	8146	8146	8146	8146	8146	7959	7959	7959	8146	8146	8146	8146	8146	8146	8146	8343	8343	4045	4045	3998	3952	3952	3952	3952	3998	3998	3998	3998	3998	3952	3907	3907	3907	3907	3864	3864	3864	3864	3864	3864	3864	3864	3864	3864	3864	3864	3864	3864	3864	3864	3864	3864	3864	3864	3864	3864	3864	3864	3864	3864	3864	3864	3864	3864	3864	3821	3864	3864	3864	3864	3864	3864	3864	3864	3864	3864	3864	3907	3952	3952	3952	3952	3952	3952	3952	3907	3907	3952	3952	8343	8146	8146	8146	8146	8343	8146	8146	8146	8343	8343	8343	8343	8343	8343	8343	8343	8343	4771	4771	4771	4771	4706	4706	4706	4706	4706	4706	4706	4706	4706	4706	4706	4771	4771	4771	4771	4771	4706	4771	4706	4706	4706	4706	4706	4706	4643	4706	4643	4643	4643	4706	4706	4706	4706	4706	4706	4706	4706	4706	4706	4706	4706	4643	4706	4643	4581	4643	4643	4643	4643	4643	4643	4706	4706	4706	4706	4706	4706	4706	4706	4706	4706	4706	4706	4706	4706	4643	4643	4643	4643	4706	4706	4706	4706	4706	4706	4706	4706	4706	4706	4706	4706	4643	4706	4643	4643	4706	4706	4706	4706	4643	4643	4643	4643	4643	4643	4643	4643	4643	4643	4643	4643	4643	4643	4643	4643	4643	4643	4643	4643	4643	4643	4643	4581	4643	4581	4643	4581	4581	4643	4643	4706	4643	4643	4706	4706	4706	4706	4706	4706	4706	4706	4706	4706	4706	4706	4706	4643	4706	4643	4643	4643	4643	4706	4643	4643	4643	4643	4643	4643	4643	4643	4643	4643	4643	4643	4643	4643	4643	4643	4643	4643	4643	4643	4643	4643	4643	4643	4643	4643	4706	4706	4706	4643	4643	4643	4643	4643	4643	4643	4643	4706	4706	4706	4643	4643	8146	8146	7959	7959	7608	8146	8343	8146	8343	8343	8343	8343	8146	8146	8146	8146	7959	7959	7959	7959	7959	8146	8146	8146	8343	8343	8343	8343	8343	8343	8146	8146	8146	8343	8146	8146	8146	8146	8146	7959	7959	7959	7779	7779	7779	7779	7779	7779	7779	7959	8146	8146	8146	8343	8146	8343	8146	7959	7959	7959	7959	7959	7959	7959	7959	7959	7959	8146	8146	8146	8146	7959	8146	8146	8146	7959	7779	7959	7959	7959	7959	7959	0	0	0	0	0	0	0	0	0	0	0	0	0	0	0	0	0	0	0	0	0	0	0	0	0	0	0	0	0	0	0	0	0	0	0	0	0	0	0
0	0	0	0	0	852	856	858	860	862	862	862	865	867	878	882	887	887	887	887	889	891	894	894	905	910	913	915	915	920	925	927	935	935	937	937	937	940	940	942	953	955	958	961	961	969	980	983	983	991	994	997	1000	1003	1008	1008	1014	1017	1020	1020	1023	1030	1036	1042	1052	1052	1055	1058	1061	1068	1071	1081	1081	1085	1088	1088	1088	1091	1091	1095	1095	1098	1098	1098	1098	0	0	0	0	0	0	0	0	0	4838	4838	4838	4838	4771	4771	4771	4771	4771	4771	4771	4771	4771	4771	4838	4838	4838	4906	4906	4838	4838	4838	4838	4771	4706	4838	4838	4838	4838	4838	4838	4838	4838	4838	4838	4838	4838	4838	4838	4838	4838	4838	4838	4838	4838	4838	4771	4838	4838	4771	4771	4771	4771	4771	4706	4706	4706	4706	4706	4706	4643	4706	4706	4706	4706	4706	4771	4771	4838	4838	4906	4906	8146	8146	8146	8146	8146	8146	8146	8146	8146	8146	8146	8146	8146	8146	8146	8343	8343	8146	8146	8146	8146	8146	8146	8146	8146	8146	8146	8146	8146	8343	8343	8343	8343	8343	8146	8146	8146	8146	8146	8146	8146	8146	8146	8146	8146	8146	8146	8146	7959	8146	8146	8146	8146	8146	8146	8146	8146	8146	8146	8146	8146	8146	8146	7959	7959	8146	8146	8146	8146	7959	8146	8146	8343	8343	8343	0	3998	3952	3952	3952	3952	3952	3998	3952	3952	3952	3907	3907	3907	3907	3907	3864	3864	3864	3864	3864	3864	3864	3864	3864	3864	3864	3864	3864	3864	3864	3864	3864	3864	3864	3864	3864	3864	3864	3864	3864	3864	3864	3821	3864	3864	3864	3864	3864	3864	3864	3864	3864	3864	3864	3864	3864	3864	3864	3907	3952	3952	3952	3952	3907	3907	3907	3907	3907	3907	3907	8343	8146	8146	8146	8146	8343	8146	8146	8343	8343	8343	8343	8343	8343	8343	8343	8343	8343	4771	4771	4771	4771	4771	4771	4706	4771	4706	4706	4706	4706	4706	4706	4706	4771	4771	4771	4771	4706	4706	4771	4706	4706	4706	4706	4706	4706	4643	4643	4643	4643	4643	4706	4706	4706	4706	4706	4706	4706	4706	4706	4706	4706	4706	4643	4643	4643	4643	4643	4643	4643	4643	4643	4581	4643	4706	4706	4706	4706	4706	4706	4706	4706	4706	4706	4706	4706	4643	4643	4643	4643	4643	4643	4643	4643	4643	4706	4706	4706	4706	4706	4706	4706	4706	4643	4643	4643	4643	4643	4643	4706	4643	4643	4643	4643	4643	4643	4643	4643	4643	4643	4643	4643	4643	4643	4643	4643	4643	4643	4643	4643	4643	4643	4643	4643	4581	4643	4643	4581	4581	4581	4581	4643	4706	4643	4643	4643	4643	4706	4706	4706	4706	4706	4706	4706	4706	4706	4706	4643	4643	4643	4643	4643	4706	4643	4643	4643	4643	4643	4643	4643	4643	4643	4643	4643	4643	4643	4643	4643	4643	4643	4643	4643	4643	4643	4643	4581	4581	4643	4643	4643	4643	4643	4706	4643	4643	4643	4643	4643	4643	4643	4643	4643	4643	4643	4643	4643	4643	8146	8146	7959	7959	7959	7959	8146	8146	8146	8343	8343	8146	8146	8146	8146	8146	7959	7959	7959	7959	7959	8146	8146	8146	8343	8343	8343	8343	8343	8343	8146	8146	8146	8146	8146	8146	8146	8146	8146	7959	7959	7779	7779	7779	7779	7779	7959	7959	7959	7959	8146	7959	7959	8343	7959	8146	7959	7959	7959	7959	7959	7959	7959	7959	7959	7959	7959	7959	8146	8146	8146	8146	8146	8146	8146	7959	7959	7959	7959	7959	7959	8343	8343	0	0	0	0	0	0	0	0	0	0	0	0	0	0	0	0	0	0	0	0	0	0	0	0	0	0	0	0	0	0	0	0	0	0	0	0	0	0
0	0	0	0	0	854	856	858	860	862	862	865	871	875	878	880	884	884	884	884	889	891	891	894	905	913	913	915	915	920	922	927	935	935	937	937	940	940	940	945	948	955	958	961	961	972	983	983	983	991	994	997	1000	1003	1003	1011	1014	1017	1017	1020	1023	1030	1033	1042	1048	1055	1055	1058	1064	1068	1071	1078	1081	1085	1088	1088	1091	1091	1091	1095	1098	1105	1105	1105	1105	0	0	0	0	0	0	0	0	0	4838	4906	4838	4838	4838	4838	4838	4838	4771	4771	4771	4771	4771	4771	4838	4838	4838	4906	4906	4838	4838	4838	4838	4838	4838	4838	4838	4838	4838	4838	4838	4838	4838	4838	4838	4838	4838	4838	4838	4838	4838	4838	4771	4771	4838	4771	4771	4838	4838	4771	4771	4771	4771	4771	4706	4706	4706	4706	4706	4706	4643	4643	4643	4706	4706	4706	4706	4771	4838	4838	4838	7959	7959	7959	8146	8146	7959	7959	8146	7959	8146	7959	7959	8146	8146	8146	8343	8343	8343	8146	8146	8146	8146	8146	8146	8146	8146	8146	8146	8146	8146	8146	8146	8343	8146	8146	8146	8146	8146	8146	8146	8146	8146	8146	8146	8146	8146	8146	7959	7959	7959	8146	8146	8146	8146	8146	8146	8146	8146	8146	8146	8146	8146	8146	8146	8146	8146	8146	8146	8146	8146	8146	8146	8146	8343	8343	8343	0	0	3907	3952	3952	3952	3952	3952	3952	3952	3952	3907	3907	3907	3907	3907	3864	3864	3864	3864	3864	3821	3821	3864	3864	3864	3864	3864	3864	3864	3864	3864	3864	3864	3864	3864	3864	3864	3864	3864	3864	3864	3864	3864	3864	3864	3864	3821	3864	3864	3864	3864	3864	3864	3864	3864	3864	3864	3907	3907	3952	3952	3952	3907	3907	3907	3907	3907	3907	3907	3907	8146	8146	8146	8146	8146	8146	8343	8343	8343	8550	8343	8343	8343	8550	8550	8550	8343	8343	8343	4771	4771	4771	4771	4771	4771	4706	4706	4706	4706	4706	4706	4706	4706	4771	4771	4771	4771	4706	4706	4706	4706	4706	4706	4706	4706	4706	4706	4706	4643	4643	4581	4643	4643	4643	4643	4706	4706	4706	4706	4706	4706	4706	4706	4643	4643	4643	4643	4643	4643	4643	4643	4643	4581	4706	4706	4706	4706	4706	4706	4706	4706	4706	4706	4706	4706	4643	4581	4581	4581	4581	4581	4581	4643	4643	4643	4643	4706	4706	4706	4706	4706	4706	4706	4643	4643	4643	4643	4643	4643	4643	4643	4643	4643	4643	4643	4643	4643	4643	4643	4643	4643	4643	4643	4643	4643	4643	4643	4706	4643	4643	4643	4643	4643	4643	4581	4581	4581	4581	4581	4581	4581	4643	4643	4643	4643	4643	4643	4706	4706	4706	4706	4706	4706	4706	4706	4706	4706	4643	4643	4643	4706	4643	4706	4706	4643	4643	4643	4643	4643	4643	4643	4643	4643	4643	4643	4643	4581	4643	4643	4643	4643	4643	4581	4581	4643	4581	4581	4643	4643	4643	4643	4643	4643	4643	4643	4643	4643	4643	4643	4643	4643	4643	4643	4643	4643	4643	4643	8146	8146	7959	7959	7959	7959	8343	8146	8146	8343	8343	8343	8146	8146	8146	8146	8146	8146	7959	8146	7959	8146	8146	8146	8343	8343	8343	8146	8343	8146	8146	8146	8146	8146	8146	8146	8146	8146	7959	7959	7779	7779	7779	7779	7959	7779	7959	7959	7959	7959	7959	7959	8146	8343	7959	8343	7959	7959	7959	7959	7959	7959	7779	7959	7959	7959	7959	7959	7959	7959	8146	8146	8146	8146	8146	7959	7779	8146	7959	7959	7959	8343	8343	0	0	0	0	0	0	0	0	0	0	0	0	0	0	0	0	0	0	0	0	0	0	0	0	0	0	0	0	0	0	0	0	0	0	0	0	0	0
0	0	0	0	0	854	852	860	860	862	862	865	878	878	878	880	882	882	882	882	887	891	891	896	908	913	913	915	915	920	920	927	932	932	935	937	940	940	940	945	948	950	955	958	961	974	980	980	980	988	991	994	994	1003	1011	1011	1017	1020	1020	1020	1023	1030	1033	1039	1048	1055	1055	1058	1061	1064	1068	1074	1081	1081	1088	1088	1091	1091	1091	1095	1095	1095	1095	1095	1105	0	0	0	0	0	0	0	0	4977	4977	4906	4838	4838	4838	4838	4838	4838	4771	4771	4771	4771	4706	4771	4771	4771	4838	4838	4838	4838	4838	4838	4838	4838	4771	4838	4838	4838	4838	4838	4838	4838	4838	4838	4838	4838	4838	4838	4838	4838	4771	4771	4771	4838	4771	4771	4771	4838	4838	4838	4771	4771	4771	4771	4706	4706	4706	4643	4706	4706	4643	4643	4643	4643	4706	4706	4706	4706	4838	4838	7779	7959	7959	7959	8146	8146	7959	8146	8146	7959	7959	7959	7959	8146	8146	8146	8146	8146	8343	8146	8146	8146	8146	8146	8146	8146	8146	8146	8146	8146	8146	8146	8146	8146	8146	8146	8146	8146	8146	8146	8146	8146	8146	8146	8146	8146	8146	8146	7959	7959	7959	8146	7959	7959	7959	7959	8146	8146	8146	8146	8146	8146	8146	8146	8146	8146	8146	8146	8146	8146	8146	8146	8146	7959	8343	8343	8343	0	0	3907	3952	3907	3952	3952	3952	3952	3907	3907	3907	3907	3907	3864	3864	3864	3864	3864	3864	3864	3864	3864	3864	3864	3864	3864	3864	3864	3864	3864	3864	3864	3864	3864	3864	3864	3864	3864	3864	3864	3864	3864	3864	3864	3864	3864	3821	3864	3864	3864	3864	3864	3864	3864	3864	3864	3864	3864	3907	3907	3907	3907	3907	3907	3907	3907	3907	3907	3952	3952	8146	7959	7959	8146	8146	8343	8343	8343	8550	8550	8550	8550	8343	8343	8550	8550	8343	8343	8343	4771	4771	4771	4771	4771	4771	4771	4706	4706	4706	4706	4706	4706	4706	4771	4771	4771	4771	4706	4706	4771	4706	4706	4706	4706	4706	4706	4706	4706	4643	4643	4643	4643	4643	4643	4643	4643	4706	4706	4706	4706	4706	4706	4706	4643	4643	4643	4643	4643	4643	4643	4643	4643	4643	4706	4706	4706	4706	4706	4706	4771	4706	4706	4643	4706	4643	4643	4581	4581	4521	4581	4581	4581	4643	4643	4643	4643	4706	4771	4706	4771	4706	4706	4706	4643	4643	4643	4643	4643	4706	4643	4643	4643	4643	4643	4643	4643	4643	4643	4643	4643	4643	4643	4643	4643	4643	4643	4643	4643	4643	4643	4643	4643	4643	4643	4581	4581	4581	4581	4581	4581	4581	4581	4643	4643	4643	4643	4643	4643	4706	4706	4706	4706	4643	4706	4706	4706	4706	4706	4643	4706	4706	4643	4643	4643	4643	4643	4643	4643	4643	4643	4643	4581	4581	4643	4643	4643	4643	4643	4643	4643	4581	4581	4581	4581	4581	4581	4581	4643	4643	4643	4643	4643	4643	4643	4643	4643	4643	4643	4643	4643	4643	4643	4643	4581	4643	4643	4643	7959	7959	7959	7959	7779	7959	8146	8146	8146	8146	8146	8146	8146	8146	8146	8146	8146	8146	7959	8146	7959	8146	8146	8146	8343	8343	8343	8146	8343	8146	8146	8146	8343	8146	8146	8146	8146	8146	7959	7959	7779	7779	7779	7779	7959	7779	7959	7959	7959	7959	7959	7959	7959	7959	7959	7959	7959	7959	7959	7959	7959	7959	7959	7959	7959	7779	7959	7779	7959	7959	7779	7959	7779	7779	7779	7779	7779	7959	7959	7779	7959	7959	8146	0	0	0	0	0	0	0	0	0	0	0	0	0	0	0	0	0	0	0	0	0	0	0	0	0	0	0	0	0	0	0	0	0	0	0	0	0	0
0	0	0	0	0	860	860	860	862	862	862	865	871	875	878	880	884	882	882	882	887	891	891	901	908	910	913	913	915	917	920	925	930	932	935	937	940	940	942	945	950	953	953	958	961	961	980	983	983	988	991	994	994	1000	1008	1011	1014	1020	1020	1020	1026	1033	1036	1036	1048	1055	1058	1061	1064	1068	1071	1078	1081	1081	1088	1088	1088	1091	1091	1095	1091	1091	1091	1095	0	0	0	0	0	0	0	0	4977	4906	4906	4906	4838	4838	4838	4771	4771	4771	4771	4771	4771	4771	4706	4771	4771	4771	4838	4838	4838	4838	4838	4838	4838	4838	4771	4771	4771	4771	4771	4771	4838	4838	4838	4838	4838	4838	4838	4838	4838	4838	4771	4771	4771	4838	4838	4771	4838	4838	4838	4771	4771	4771	4771	4771	4771	4706	4706	4706	4706	4706	4643	4643	4643	4643	4706	4706	4643	4706	4706	4706	8343	8343	8146	8146	8146	8146	7959	8146	8146	8146	7959	7959	7959	8146	8146	8146	8146	8146	8146	8146	8146	8146	8146	8146	8146	8146	8146	8146	8146	8146	8146	8146	8146	8146	8146	8146	8146	8146	8146	8146	8146	8146	8146	8146	8146	8146	8146	8146	7959	7959	7959	7959	7959	8146	7959	7959	8146	8146	8146	8146	7959	7959	7959	7959	8146	7959	8146	8146	8146	8146	8146	8146	8146	7959	8343	8343	0	0	0	3907	3952	3907	3952	3952	3952	3952	3907	3907	3907	3864	3864	3864	3864	3864	3864	3864	3864	3864	3864	3864	3864	3864	3864	3864	3907	3907	3864	3864	3864	3864	3864	3864	3864	3864	3864	3864	3864	3864	3864	3864	3864	3864	3864	3864	3821	3864	3864	3864	3864	3864	3864	3864	3864	3864	3864	3864	3907	3907	3907	3907	3907	3907	3907	3907	3907	3952	3952	3952	8146	8146	8146	8146	8343	8550	8550	8343	8550	8550	8550	8550	8343	8550	8550	8550	8343	8550	8550	4771	4771	4771	4771	4771	4771	4771	4771	4771	4771	4706	4706	4706	4706	4706	4706	4706	4706	4706	4706	4706	4706	4706	4706	4706	4706	4706	4706	4643	4643	4643	4581	4643	4643	4643	4643	4706	4706	4706	4706	4706	4706	4643	4643	4643	4643	4643	4643	4643	4643	4643	4643	4643	4581	4706	4706	4706	4706	4706	4706	4706	4643	4643	4643	4643	4643	4581	4521	4521	4521	4521	4581	4581	4581	4581	4581	4643	4643	4706	4706	4706	4706	4706	4706	4643	4643	4643	4643	4643	4643	4643	4643	4643	4643	4643	4643	4643	4643	4643	4643	4643	4643	4643	4643	4643	4643	4643	4643	4643	4643	4643	4643	4643	4643	4643	4581	4581	4581	4581	4581	4581	4581	4581	4643	4643	4643	4643	4643	4643	4706	4643	4643	4643	4706	4643	4643	4706	4706	4706	4643	4706	4706	4643	4643	4643	4643	4643	4643	4643	4643	4643	4643	4581	4581	4581	4643	4643	4643	4643	4581	4581	4581	4581	4521	4581	4581	4581	4581	4581	4643	4643	4643	4643	4643	4643	4643	4643	4643	4643	4643	4643	4643	4643	4643	4643	4643	4706	4706	7959	7959	7959	7959	7959	7959	8146	8146	7959	8146	7959	8146	8146	8146	7959	7959	7959	7959	7959	8146	8146	8146	8146	8146	8343	8146	8146	8146	8146	8146	8146	8146	8146	8146	8146	8146	8146	8146	7959	7959	7959	7959	7959	7959	7959	7959	7959	7959	7959	7959	7959	7959	8343	8343	8146	8146	8146	7959	7959	7959	7959	7779	7779	7959	7779	7779	7779	7779	7959	7779	7959	7779	7779	7779	7779	7779	7779	7779	7779	7779	7779	7959	8146	0	0	0	0	0	0	0	0	0	0	0	0	0	0	0	0	0	0	0	0	0	0	0	0	0	0	0	0	0	0	0	0	0	0	0	0	0	0
0	0	0	0	0	858	860	860	862	862	862	865	871	873	878	882	884	882	882	882	889	894	898	905	908	910	910	913	915	917	917	922	932	932	935	937	937	940	948	948	950	955	958	961	963	977	980	983	985	988	991	994	997	1000	1006	1008	1014	1020	1020	1026	1026	1033	1033	1036	1045	1055	1058	1061	1064	1071	1074	1078	1081	1081	1085	1088	1088	1088	1091	1091	1091	1091	1091	0	0	0	0	0	0	0	0	0	4977	4977	4906	4906	4838	4838	4838	4838	4838	4838	4771	4771	4771	4771	4706	4771	4771	4771	4838	4838	4838	4838	4838	4838	4838	4771	4771	4771	4771	4771	4771	4771	4838	4838	4838	4838	4838	4838	4838	4838	4771	4771	4771	4771	4771	4771	4771	4771	4838	4771	4838	4771	4771	4771	4771	4706	4706	4706	4706	4706	4706	4706	4643	4643	4643	4643	4706	4643	4643	4706	4706	4706	8343	8343	8146	8146	8146	8146	7959	7959	7959	8146	7959	7959	7959	8146	7959	8146	8146	8146	8146	8146	8146	8146	8146	8146	8146	8146	8146	8146	8146	8146	8146	8146	8146	8146	8146	8146	8146	8146	8146	8146	8146	8146	8146	8146	7959	8146	8146	8146	7959	7959	7959	8146	8146	8146	8146	8146	8146	8146	8146	8146	8146	8146	8146	8146	8146	8146	8146	8146	8146	8146	8146	7959	7959	7959	7959	8343	0	0	0	3907	3907	3907	3907	3952	3907	3907	3907	3907	3864	3864	3864	3864	3864	3864	3864	3864	3864	3864	3864	3864	3864	3864	3864	3864	3907	3907	3864	3864	3864	3864	3864	3864	3864	3864	3864	3864	3864	3864	3864	3864	3864	3864	3864	3864	3864	3864	3864	3864	3864	3864	3864	3864	3864	3864	3864	3864	3907	3907	3907	3907	3907	3907	3907	3907	3907	3952	3952	0	8343	8146	8343	8343	8343	8550	8550	8550	8550	8550	8550	8550	8550	8550	8550	8550	8550	8343	8343	4706	4771	4771	4771	4771	4771	4771	4771	4771	4771	4706	4706	4706	4706	4706	4706	4706	4706	4706	4706	4706	4706	4706	4706	4706	4706	4706	4706	4706	4643	4643	4581	4643	4643	4643	4643	4643	4706	4706	4706	4706	4706	4643	4643	4643	4643	4643	4643	4643	4643	4643	4643	4643	4581	4706	4706	4706	4706	4706	4706	4706	4643	4643	4643	4643	4581	4521	4521	4521	4521	4521	4521	4521	4521	4521	4521	4581	4581	4643	4706	4706	4706	4706	4643	4643	4643	4643	4643	4643	4643	4643	4643	4643	4643	4643	4643	4643	4643	4643	4643	4643	4581	4643	4643	4643	4643	4643	4643	4643	4643	4643	4643	4643	4643	4643	4581	4581	4581	4581	4581	4581	4581	4581	4581	4643	4643	4643	4643	4706	4643	4643	4643	4643	4643	4706	4643	4706	4706	4643	4643	4643	4706	4643	4643	4643	4643	4643	4581	4581	4581	4643	4581	4581	4643	4581	4643	4643	4643	4643	4643	4581	4581	4581	4581	4643	4643	4581	4581	4643	4643	4643	4643	4643	4643	4643	4643	4643	4643	4643	4643	4643	4643	4643	4643	4643	4643	4643	4643	4643	7959	7959	7959	7959	7959	8146	7959	7959	7959	8146	8146	8146	8146	8146	8146	8146	8146	8146	8146	8146	8343	8343	8343	8343	8146	8146	8146	8146	8146	8146	8146	8146	8146	8146	8146	8146	8146	8146	7959	7779	7959	7959	7959	7959	7959	7959	7959	7959	7959	8146	7959	8146	8146	7959	7959	7959	7959	7959	7959	7779	7779	7779	7779	7779	7779	7779	7779	7779	7779	7779	7779	7779	7779	7779	7779	7779	7959	7779	7779	7779	7779	0	0	0	0	0	0	0	0	0	0	0	0	0	0	0	0	0	0	0	0	0	0	0	0	0	0	0	0	0	0	0	0	0	0	0	0	0	0	0
0	0	0	0	0	860	860	860	862	862	862	865	871	873	875	882	884	882	882	882	891	894	898	903	908	910	910	913	915	915	920	925	930	932	935	937	940	942	948	950	950	953	955	958	961	974	980	980	983	988	991	994	994	1003	1006	1008	1014	1017	1020	1026	1030	1033	1033	1039	1042	1052	1055	1058	1061	1068	1071	1081	1081	1081	1085	1088	1088	1088	1091	1091	1091	1091	1091	0	0	0	0	0	0	0	0	0	4977	4906	4838	4838	4838	4838	4838	4771	4771	4771	4771	4771	4771	4771	4706	4771	4771	4771	4838	4838	4838	4838	4838	4838	4771	4771	4706	4771	4771	4771	4771	4771	4838	4838	4838	4838	4838	4838	4838	4838	4771	4771	4771	4771	4771	4771	4771	4771	4838	4838	4838	4838	4771	4706	4706	4706	4706	4706	4706	4706	4771	4771	4706	4706	4706	4706	4706	4706	4706	4706	4706	8343	8146	8146	8146	8146	8146	8146	8146	8146	8146	8146	7959	8146	8146	8146	7959	8146	8146	8146	8146	8146	8146	8146	8343	8343	8146	8146	8146	8146	8146	8146	8146	7959	7959	8146	8146	8146	8146	8146	8146	8146	8146	8146	8146	8146	7959	8146	7959	8146	7959	7959	7959	8146	8146	8146	8146	8146	8146	8146	7959	7959	7959	8146	8146	8146	8146	8146	8146	8146	8146	8146	8146	7959	7959	7959	7959	0	0	0	0	3907	3952	3907	3952	3907	3907	3907	3907	3864	3864	3864	3864	3864	3864	3864	3864	3864	3821	3864	3864	3864	3864	3864	3864	3864	3907	3907	3864	3864	3864	3864	3864	3864	3864	3864	3864	3864	3864	3864	3864	3864	3864	3864	3864	3864	3864	3864	3864	3864	3864	3864	3864	3864	3864	3864	3864	3864	3907	3907	3907	3907	3907	3907	3907	3907	3907	3907	3907	0	8343	8146	8343	8146	8146	8550	8550	8550	8550	8550	8550	8550	8343	8550	8550	8550	8343	8343	8343	4771	4771	4771	4771	4771	4771	4771	4771	4771	4771	4771	4771	4771	4706	4771	4706	4706	4706	4706	4706	4706	4706	4706	4706	4706	4706	4706	4706	4643	4643	4643	4581	4581	4643	4643	4643	4643	4643	4706	4643	4643	4643	4643	4643	4643	4643	4643	4643	4706	4643	4643	4643	4643	4581	4706	4706	4706	4643	4643	4643	4643	4581	4581	4581	4581	4521	4521	4463	4463	4463	4463	4463	4521	4521	4521	4521	4521	4581	4643	4643	4643	4706	4706	4643	4643	4643	4643	4643	4643	4643	4643	4643	4643	4643	4643	4643	4643	4643	4643	4643	4643	4581	4643	4581	4581	4643	4643	4643	4643	4643	4643	4643	4643	4643	4581	4581	4581	4581	4581	4581	4581	4581	4581	4643	4643	4643	4643	4706	4706	4643	4643	4643	4643	4643	4643	4643	4706	4706	4706	4706	4706	4643	4643	4643	4643	4581	4581	4581	4581	4581	4643	4581	4581	4643	4643	4643	4643	4643	4643	4643	4643	4581	4581	4643	4643	4643	4643	4643	4643	4643	4643	4643	4643	4643	4643	4643	4643	4643	4643	4643	4643	4643	4643	4643	4643	4643	4643	4643	4643	7959	7959	7959	7959	7959	7959	7959	7959	7959	7959	7959	8146	8146	7959	7959	7959	8146	7959	8146	8146	8146	8146	8146	7959	7959	7959	7959	8146	8146	8146	8146	8343	8146	8146	8146	8146	7959	7959	7959	7779	7959	7779	7959	7959	8146	7959	8146	7959	8146	8146	7959	8146	8146	7959	7959	7959	7959	7959	7959	7959	7959	7779	7779	7779	7779	7779	7779	7779	7779	7779	7779	7779	7779	7779	7779	7779	7959	7779	7608	7608	7779	0	0	0	0	0	0	0	0	0	0	0	0	0	0	0	0	0	0	0	0	0	0	0	0	0	0	0	0	0	0	0	0	0	0	0	0	0	0	0
0	0	0	0	0	860	860	860	862	862	862	865	869	873	878	882	887	882	882	884	889	894	898	905	908	908	910	915	917	920	922	930	932	932	935	937	940	942	948	950	950	953	961	963	969	974	977	980	983	985	988	994	994	1003	1006	1011	1017	1017	1023	1026	1030	1033	1036	1039	1042	1052	1052	1055	1055	1058	1064	1078	1081	1081	1085	1085	1088	1088	1088	1088	1091	1091	1091	0	0	0	0	0	0	0	0	5050	4906	4906	4838	4838	4838	4838	4838	4771	4771	4771	4771	4771	4771	4771	4771	4771	4771	4771	4771	4838	4838	4771	4771	4771	4771	4771	4771	4771	4771	4771	4771	4771	4838	4838	4838	4838	4838	4838	4838	4838	4771	4771	4771	4706	4706	4706	4771	4771	4838	4838	4838	4838	4771	4771	4706	4706	4771	4706	4706	4706	4706	4706	4706	4706	4706	4706	4706	4706	4706	4706	4706	4706	8146	8343	8146	8146	8146	8146	8146	8146	8146	8146	7959	7959	7959	7959	7959	8146	8146	8146	8146	8146	8146	8146	8146	8343	8343	8146	8146	8146	7959	8146	7959	7959	7959	8146	7959	7959	8146	8146	8146	8146	8146	8146	8146	8146	8146	8146	7959	7959	7959	7959	7959	7959	7959	7959	8146	8146	8146	7959	7959	7959	7959	8146	8146	8146	8146	8146	8146	8146	8146	8146	8146	7959	7959	8146	8343	8343	0	0	3952	3998	3998	3907	3952	3952	3907	3907	3864	3864	3864	3864	3864	3864	3864	3864	3864	3864	3864	3864	3864	3864	3864	3864	3864	3864	3864	3907	3864	3864	3864	3864	3864	3864	3864	3864	3864	3864	3864	3864	3864	3864	3864	3864	3864	3864	3821	3864	3864	3864	3864	3864	3864	3864	3864	3864	3864	3864	3907	3907	3907	3907	3907	3907	3907	3907	3907	3907	3907	8343	8343	8146	8146	8343	8343	8550	8550	8550	8550	8550	8550	8550	8343	8550	8550	8343	8343	8343	8343	4771	4771	4771	4771	4771	4771	4771	4771	4771	4771	4706	4706	4706	4706	4706	4706	4706	4706	4706	4706	4706	4706	4706	4706	4771	4771	4771	4706	4643	4643	4643	4643	4643	4643	4643	4643	4643	4643	4581	4581	4643	4643	4581	4643	4581	4581	4643	4643	4706	4706	4643	4643	4643	4643	4706	4706	4706	4643	4643	4581	4581	4581	4521	4521	4521	4463	4463	4406	4406	4463	4463	4521	4463	4463	4463	4463	4521	4581	4643	4643	4643	4643	4706	4643	4581	4581	4581	4581	4581	4581	4581	4581	4581	4643	4643	4643	4643	4643	4643	4581	4581	4581	4581	4581	4581	4581	4643	4643	4643	4643	4643	4643	4643	4643	4581	4581	4581	4643	4643	4581	4581	4581	4581	4643	4643	4643	4643	4706	4643	4643	4643	4643	4643	4643	4643	4643	4706	4706	4706	4706	4706	4706	4643	4643	4581	4581	4581	4521	4521	4581	4581	4581	4581	4581	4643	4581	4643	4643	4643	4581	4643	4581	4581	4643	4643	4643	4643	4643	4643	4643	4643	4643	4643	4643	4643	4643	4643	4643	4643	4643	4643	4643	4643	4643	4643	4643	4706	4706	4643	7959	7959	7959	7959	7779	7959	7959	7959	7959	7959	7959	7779	7959	8146	7959	8146	8146	8146	8146	8146	8146	8146	8146	8146	7959	7959	7959	7959	8146	8146	8146	8146	8146	8146	8146	8146	7959	7959	7959	7779	7779	7779	7959	7959	7959	7959	7959	7959	7959	7959	7959	8343	8146	7959	7959	7959	7959	7959	7959	7959	7959	7959	7959	7779	7779	7779	7779	7779	7779	7779	7779	7779	7779	7779	7779	7608	7779	7608	7444	7444	0	0	0	0	0	0	0	0	0	0	0	0	0	0	0	0	0	0	0	0	0	0	0	0	0	0	0	0	0	0	0	0	0	0	0	0	0	0	0	0
0	0	0	0	0	860	860	860	862	862	862	865	871	873	875	882	882	882	880	884	884	896	901	905	908	910	910	913	915	917	920	932	935	932	935	937	940	942	948	950	950	953	961	966	969	974	977	980	983	985	988	991	994	1000	1006	1011	1017	1020	1023	1026	1030	1036	1036	1042	1052	1052	1055	1055	1058	1061	1068	1078	1081	1081	1085	1088	1088	1088	1091	1091	1091	1091	0	0	0	0	0	0	0	0	0	4906	4906	4838	4838	4838	4838	4771	4771	4771	4771	4771	4771	4771	4771	4771	4771	4771	4838	4838	4838	4838	4838	4838	4838	4838	4771	4771	4771	4771	4771	4771	4771	4771	4838	4838	4838	4838	4838	4838	4838	4771	4771	4771	4771	4771	4771	4771	4771	4838	4838	4838	4838	4838	4771	4771	4771	4706	4771	4706	4771	4771	4771	4771	4771	4706	4706	4706	4706	4706	4706	4706	4706	8343	8146	8146	8146	8146	8146	8146	8146	8146	7959	8146	7959	8146	7959	7959	7959	8146	8146	8146	8146	8146	8146	8146	8146	8146	8146	8146	8146	8146	7959	7959	7959	7779	7959	7959	7959	7959	7959	8146	8146	8146	8146	8146	8146	8146	8146	8146	7959	8146	7959	8146	8146	8146	8146	8146	8146	8146	7959	7959	7959	7959	8146	8146	8146	8146	8146	8146	8146	8146	8146	8146	8146	7959	8146	8146	8146	8343	0	3952	3952	3998	3998	3907	3952	3952	3907	3907	3864	3907	3864	3864	3864	3864	3864	3864	3864	3864	3864	3864	3864	3864	3864	3864	3864	3864	3907	3864	3864	3864	3864	3864	3864	3821	3821	3821	3864	3864	3864	3864	3864	3864	3864	3864	3864	3864	3821	3821	3864	3864	3864	3864	3864	3864	3864	3864	3864	3907	3907	3907	3907	3907	3907	3907	3907	3907	3907	3907	0	8343	8343	8146	8146	8343	8146	8550	8550	8550	8550	8550	8550	8550	8550	8343	8550	8343	8146	8146	8146	4771	4771	4771	4771	4771	4771	4771	4771	4771	4771	4771	4771	4706	4706	4706	4706	4706	4706	4706	4706	4706	4706	4706	4771	4771	4771	4706	4706	4643	4643	4643	4643	4643	4643	4643	4643	4643	4581	4581	4581	4581	4581	4581	4581	4581	4581	4643	4643	4706	4706	4706	4643	4643	4581	4706	4706	4643	4643	4581	4521	4521	4521	4521	4463	4463	4463	4463	4406	4406	4463	4463	4463	4463	4463	4463	4463	4463	4521	4581	4581	4581	4643	4643	4643	4581	4581	4581	4581	4581	4581	4521	4581	4581	4581	4581	4581	4581	4581	4581	4581	4581	4581	4581	4581	4521	4581	4581	4581	4581	4521	4521	4521	4521	4581	4581	4581	4581	4581	4643	4581	4581	4581	4581	4643	4643	4706	4706	4706	4706	4706	4643	4643	4643	4643	4643	4643	4706	4706	4706	4706	4706	4643	4643	4521	4521	4581	4581	4521	4581	4581	4643	4643	4643	4643	4643	4643	4581	4581	4581	4581	4643	4643	4643	4643	4643	4643	4643	4643	4643	4643	4643	4643	4643	4643	4643	4643	4643	4643	4643	4581	4643	4643	4643	4643	4643	4706	4706	4706	0	7779	7779	7779	7779	7779	7959	7959	7959	7959	7959	7959	7779	7779	7959	8146	7959	7959	7959	7959	8146	8146	8146	8146	7959	7959	7959	7959	8146	8146	8146	8146	8343	8343	8343	8146	8146	8146	7959	7779	7779	7959	7959	7959	7959	7959	7959	7959	7959	7959	8343	8343	8343	7959	7959	7959	7959	7959	7959	7959	7779	7959	7959	7779	7779	7779	7779	7779	7779	7779	7779	7779	7779	7779	7608	7608	7608	7779	7779	7444	7444	0	0	0	0	0	0	0	0	0	0	0	0	0	0	0	0	0	0	0	0	0	0	0	0	0	0	0	0	0	0	0	0	0	0	0	0	0	0	0	0
0	0	0	0	0	860	860	860	862	862	865	867	871	871	873	882	884	882	882	887	894	896	903	905	908	910	910	913	915	917	920	930	935	932	935	937	940	942	948	950	950	958	961	963	966	972	974	977	980	983	985	988	994	1003	1008	1011	1014	1020	1023	1026	1030	1033	1036	1052	1052	1055	1055	1055	1055	1061	1068	1078	1081	1081	1085	1088	1088	1091	1091	1091	1091	1091	0	0	0	0	0	0	0	0	0	4838	4838	4838	4771	4771	4771	4771	4771	4771	4771	4771	4771	4771	4771	4771	4771	4771	4838	4838	4838	4838	4838	4838	4838	4838	4771	4771	4771	4771	4771	4838	4771	4838	4838	4838	4838	4838	4838	4838	4838	4771	4771	4771	4771	4771	4706	4771	4771	4838	4838	4838	4838	4838	4771	4706	4706	4706	4771	4771	4771	4771	4838	4838	4771	4706	4771	4643	4706	4706	4706	4706	4706	8343	8343	8146	8146	8146	8146	8146	8146	8146	8146	8146	8146	8146	7959	7959	7959	7959	8146	7959	8146	8146	8146	8146	8146	8146	8146	8146	7959	8146	7959	7959	7959	7959	7779	7959	7959	7959	7959	8146	8146	8146	8146	8146	8146	8146	8146	8146	8146	8146	7959	8146	8146	7959	7959	7959	7959	7959	7959	7959	7959	8146	8146	8146	8146	8146	8146	8146	8146	8146	8146	8146	8146	7959	8146	8146	8146	0	0	3952	3952	3952	3907	3907	3952	3952	3907	3907	3864	3907	3864	3864	3864	3864	3864	3864	3864	3864	3864	3864	3864	3864	3864	3864	3864	3864	3864	3864	3864	3864	3864	3864	3864	3821	3821	3864	3864	3864	3864	3864	3864	3864	3864	3864	3864	3864	3821	3864	3864	3864	3864	3864	3864	3864	3864	3864	3864	3864	3907	3907	3907	3864	3907	3907	3864	3864	3864	3864	0	8343	8343	8146	8146	8343	8343	8550	8550	8550	8550	8550	8550	8343	8343	8343	8343	8146	8146	8146	4643	4706	4706	4771	4771	4706	4706	4771	4771	4771	4771	4771	4706	4706	4706	4643	4643	4643	4706	4706	4706	4706	4706	4706	4771	4706	4706	4706	4643	4643	4643	4643	4643	4643	4643	4643	4581	4581	4581	4581	4581	4581	4581	4581	4581	4581	4581	4643	4643	4643	4706	4643	4643	4643	4581	4706	4581	4581	4581	4581	4521	4521	4521	4463	4463	4463	4463	4463	4463	4406	4463	4463	4463	4463	4463	4463	4463	4463	4521	4521	4521	4581	4581	4581	4581	4521	4521	4521	4581	4521	4581	4581	4581	4521	4521	4521	4581	4581	4581	4581	4521	4521	4521	4521	4521	4463	4406	4463	4463	4521	4463	4463	4463	4521	4581	4581	4581	4581	4643	4643	4643	4581	4581	4581	4643	4643	4706	4706	4706	4706	4706	4643	4643	4643	4643	4643	4643	4706	4706	4706	4706	4706	4706	4643	4463	4521	4521	4581	4521	4581	4643	4643	4643	4643	4643	4643	4643	4643	4643	4643	4643	4643	4643	4643	4706	4706	4706	4643	4643	4643	4643	4643	4643	4643	4643	4643	4643	4643	4643	4581	4581	4581	4643	4643	4643	4643	4643	4706	4706	0	7779	7779	7779	7959	7779	8146	7959	7959	7959	7959	7959	7959	7779	7779	7959	7959	7959	7959	8146	8146	8146	7779	8146	7959	7959	7959	7959	8146	8146	8146	8146	8343	8343	8343	8146	8146	8146	7959	7779	7779	7959	7959	7959	7959	7959	7959	7959	7959	7959	7959	7959	8146	7959	8146	7959	7959	7959	7959	7779	7779	7779	7779	7959	7779	7779	7779	7779	7779	7779	7779	7779	7779	7779	7608	7608	7608	7608	7779	0	0	0	0	0	0	0	0	0	0	0	0	0	0	0	0	0	0	0	0	0	0	0	0	0	0	0	0	0	0	0	0	0	0	0	0	0	0	0	0	0	0
0	0	0	0	0	860	860	862	862	865	867	869	871	873	875	880	884	882	884	887	896	896	901	905	905	908	908	913	915	917	920	925	932	932	935	937	940	942	948	950	950	958	961	963	966	969	974	974	980	983	985	991	994	1003	1006	1011	1017	1020	1023	1023	1026	1030	1036	1048	1052	1052	1055	1055	1055	1058	1061	1078	1081	1081	1085	1088	1091	1091	1091	1091	1091	1095	1095	0	0	0	0	0	0	0	0	4838	4838	4771	4771	4771	4771	4771	4771	4771	4771	4771	4771	4771	4771	4838	4771	4771	4838	4838	4906	4906	4906	4838	4838	4838	4838	4838	4771	4838	4838	4838	4838	4838	4838	4838	4838	4838	4838	4838	4838	4838	4771	4838	4838	4771	4771	4771	4771	4838	4838	4771	4838	4838	4838	4706	4706	4706	4771	4771	4771	4771	4838	4838	4771	4643	4643	4643	4643	4643	4706	4706	4706	8343	8343	8343	8146	8343	8146	8146	8146	8146	8146	8146	8146	7959	7959	7959	7959	8146	8146	8146	8146	8146	8146	8146	8146	8146	8146	8146	8146	8146	8146	8146	7959	7959	7779	7959	7959	7959	7959	8146	8146	8146	8146	8146	8146	8146	8146	8146	8146	8146	8146	8146	8146	8146	8146	8146	8146	7959	7959	7959	8146	7959	7959	8146	8146	8146	8146	8146	8146	8146	8146	8146	8146	7959	8146	8146	8146	0	3952	3952	3952	3952	3952	3907	3952	3952	3907	3907	3907	3907	3864	3864	3864	3864	3864	3864	3864	3864	3864	3864	3864	3864	3864	3864	3864	3864	3864	3864	3864	3864	3864	3864	3864	3821	3821	3821	3821	3864	3864	3821	3864	3821	3821	3821	3821	3821	3821	3821	3821	3864	3821	3864	3864	3864	3864	3864	3864	3864	3907	3907	3864	3907	3864	3907	3864	3864	3864	3864	0	8343	8343	8343	8146	8343	8343	8550	8550	8550	8550	8550	8343	8343	8343	8343	8343	8146	8146	8146	4643	4643	4706	4706	4771	4706	4771	4771	4771	4771	4771	4771	4706	4706	4706	4706	4706	4643	4706	4706	4706	4706	4706	4706	4771	4706	4706	4706	4643	4643	4643	4643	4643	4643	4581	4581	4521	4521	4521	4521	4521	4521	4521	4521	4581	4581	4521	4581	4581	4581	4581	4581	4521	4521	4521	4581	4581	4581	4521	4521	4463	4463	4463	4463	4406	4406	4463	4463	4406	4406	4463	4463	4463	4463	4463	4463	4463	4463	4463	4463	4463	4521	4521	4581	4581	4521	4521	4581	4581	4521	4521	4521	4521	4521	4521	4521	4521	4521	4521	4521	4521	4521	4406	4406	4406	4406	4406	4463	4406	4463	4406	4406	4406	4406	4463	4463	4581	4581	4643	4643	4643	4581	4581	4581	4643	4643	4706	4706	4706	4706	4706	4643	4643	4643	4643	4643	4643	4643	4706	4706	4706	4706	4643	4581	4463	4463	4463	4581	4521	4463	4581	4581	4581	4643	4643	4643	4643	4643	4581	4581	4643	4643	4643	4643	4706	4706	4706	4643	4643	4706	4643	4643	4643	4643	4643	4643	4643	4643	4643	4581	4581	4643	4643	4643	4643	4643	4643	4706	4706	0	7779	7779	7779	7779	7779	7959	7779	7779	7779	7779	7959	7959	7779	7779	7959	7959	7959	7959	7959	8146	8146	7959	7959	7959	7959	7959	7959	8146	8146	8146	8146	8146	8343	8343	8146	8146	8146	8146	8146	8146	8146	7959	7959	7959	7959	7959	7959	7779	7959	7959	7959	8146	7959	7959	7959	7959	7959	7779	7779	7779	7779	7779	7779	7779	7779	7959	7959	7779	7779	7779	7779	7779	7779	7608	7608	7608	7608	0	0	0	0	0	0	0	0	0	0	0	0	0	0	0	0	0	0	0	0	0	0	0	0	0	0	0	0	0	0	0	0	0	0	0	0	0	0	0	0	0	0	0
0	0	0	0	0	862	862	862	862	867	867	871	873	873	875	878	880	880	882	887	896	896	898	903	903	908	910	915	915	917	922	927	932	935	935	937	940	942	948	950	950	958	961	963	966	969	974	974	980	985	988	994	997	1000	1006	1011	1017	1020	1023	1026	1030	1033	1036	1042	1052	1052	1055	1055	1055	1058	1064	1078	1081	1081	1085	1088	1088	1091	1091	1095	1098	1098	1098	0	0	0	0	0	0	0	0	4838	4771	4771	4771	4771	4771	4771	4771	4771	4771	4771	4838	4838	4838	4838	4771	4838	4838	4838	4906	4906	4906	4838	4838	4838	4838	4838	4838	4838	4838	4906	4838	4838	4838	4838	4838	4838	4838	4838	4838	4838	4771	4838	4838	4771	4771	4771	4771	4771	4771	4771	4771	4771	4706	4643	4706	4706	4771	4706	4771	4706	4771	4771	4771	4643	4706	4706	4706	4706	4643	4706	4706	8343	8343	8146	8146	7959	8146	7959	8146	8146	8146	8146	8146	8146	7959	7959	7959	8146	8146	8146	8146	8146	8146	8146	8146	8146	8146	8146	8146	8146	7959	8146	7959	7959	7779	7779	7959	7779	7959	8146	8146	8146	8146	8146	8146	8146	8146	8146	7959	7959	8146	8146	8146	8146	8146	8146	8146	8146	8146	8146	8146	8146	8146	8146	8146	8146	8146	8146	8146	8146	8146	8146	8146	7959	8146	8146	8146	0	3952	3998	3998	3998	3952	3907	3952	3952	3907	3907	3864	3864	3864	3864	3864	3864	3864	3864	3864	3864	3864	3864	3864	3864	3864	3864	3864	3864	3864	3864	3864	3864	3864	3864	3864	3821	3821	3821	3864	3864	3864	3864	3864	3821	3821	3821	3821	3821	3821	3821	3821	3821	3821	3864	3864	3864	3864	3864	3864	3864	3907	3907	3907	3907	3907	3907	3864	3864	3864	3864	8343	8343	8343	8343	8343	8343	8343	8550	8550	8343	8550	8343	8343	8343	8343	8343	8343	8146	8146	8146	8146	4643	4706	4771	4771	4771	4771	4771	4771	4771	4771	4771	4771	4706	4706	4706	4706	4643	4643	4706	4706	4706	4706	4706	4706	4706	4706	4706	4581	4581	4643	4643	4643	4643	4643	4581	4521	4521	4521	4463	4463	4521	4521	4521	4521	4521	4521	4521	4521	4521	4521	4521	4521	4521	4521	4581	4581	4463	4463	4463	4463	4463	4463	4406	4406	4406	4406	4406	4406	4406	4463	4463	4463	4463	4406	4406	4406	4406	4463	4406	4406	4463	4463	4463	4463	4463	4463	4521	4521	4521	4521	4463	4521	4521	4463	4463	4521	4463	4463	4463	4463	4463	4406	4406	4406	4406	4406	4406	4406	4406	4406	4406	4350	4350	4406	4406	4521	4581	4581	4643	4643	4643	4581	4581	4643	4643	4706	4706	4706	4706	4643	4643	4643	4643	4643	4643	4643	4643	4706	4706	4706	4706	4643	4643	4463	4463	4521	4521	4463	4521	4521	4581	4643	4581	4643	4643	4643	4643	4581	4581	4643	4643	4643	4643	4706	4706	4706	4706	4643	4706	4643	4643	4643	4643	4643	4643	4643	4581	4643	4581	4581	4643	4643	4643	4643	4643	4706	4706	4706	4706	7779	7608	7779	7779	7779	7779	7959	7959	7959	7959	7959	7959	7959	7959	7959	7959	8146	8146	7959	8146	8146	7959	7959	7959	7959	8146	7959	8146	8146	8146	8146	8146	8146	8146	8146	8146	7959	8146	8146	8146	8146	8146	7959	7959	7959	7959	7779	7779	7779	7959	7959	7959	7959	7959	7959	7779	7959	7779	7779	7779	7779	7779	7959	7779	7959	7959	7959	7779	7779	7779	7779	7779	7779	7608	7608	7608	0	0	0	0	0	0	0	0	0	0	0	0	0	0	0	0	0	0	0	0	0	0	0	0	0	0	0	0	0	0	0	0	0	0	0	0	0	0	0	0	0	0	0	0
0	0	0	0	0	865	865	862	865	867	867	871	873	875	875	878	878	880	880	882	896	896	898	901	903	908	910	915	917	920	922	925	927	930	932	935	940	942	948	950	955	958	961	963	966	972	974	977	980	983	985	991	997	1000	1006	1011	1017	1020	1023	1026	1030	1030	1033	1042	1048	1052	1055	1055	1055	1058	1068	1078	1078	1081	1085	1088	1091	1091	1095	1095	1098	1098	1098	0	0	0	0	0	0	0	4771	4771	4771	4706	4706	4771	4771	4771	4771	4771	4771	4771	4771	4771	4771	4771	4771	4771	4838	4838	4906	4906	4906	4838	4838	4838	4838	4838	4838	4838	4906	4906	4838	4838	4838	4838	4838	4838	4838	4771	4838	4838	4771	4838	4838	4771	4771	4771	4771	4771	4771	4706	4771	4771	4771	4771	4643	4643	4706	4706	4771	4706	4771	4771	4706	4643	4643	4706	4643	4643	4643	4643	4643	4643	8146	8146	7959	7959	7959	7959	7959	8146	7959	8146	7959	8146	8146	8146	7959	8146	8146	8146	8146	8146	8146	8146	8146	7959	7959	8146	7959	8146	7959	7959	7959	7959	7959	7959	7959	7959	7959	8146	8146	8146	8146	8146	8146	8146	8146	8146	8146	8146	8146	8146	8146	8146	8146	8343	8146	8146	8146	8146	8146	8146	8146	8146	8146	8146	8146	8146	8146	8146	8146	8146	8146	8146	8146	8146	8146	0	0	3998	3998	3998	3907	3907	3907	3952	3907	3864	3864	3864	3864	3864	3864	3864	3864	3864	3864	3864	3864	3864	3864	3864	3864	3864	3864	3864	3864	3864	3864	3864	3864	3864	3864	3864	3864	3864	3864	3864	3821	3821	3821	3821	3821	3821	3821	3821	3821	3821	3821	3864	3821	3821	3864	3864	3864	3864	3864	3864	3907	3907	3907	3907	3907	3907	3907	3864	3864	0	8343	8343	8343	8343	8343	8343	8343	8550	8550	8146	8550	8550	8343	8343	8343	8146	8146	8146	7959	7959	7959	4643	4643	4706	4771	4771	4771	4771	4771	4771	4771	4771	4706	4706	4706	4706	4643	4643	4643	4706	4706	4706	4706	4706	4706	4643	4643	4643	4581	4581	4581	4581	4643	4643	4581	4521	4521	4521	4463	4463	4463	4521	4463	4463	4463	4463	4463	4463	4463	4521	4521	4463	4463	4463	4406	4463	4463	4463	4463	4463	4463	4406	4406	4406	4406	4406	4406	4406	4406	4406	4463	4463	4463	4406	4406	4406	4406	4406	4463	4406	4406	4463	4463	4463	4463	4406	4463	4463	4463	4463	4463	4463	4463	4463	4406	4406	4406	4463	4463	4463	4406	4406	4406	4406	4406	4406	4406	4406	4406	4406	4406	4350	4350	4350	4406	4406	4463	4521	4581	4643	4643	4643	4581	4643	4643	4643	4706	4706	4706	4706	4643	4643	4643	4643	4643	4643	4643	4643	4706	4706	4643	4643	4643	4643	4521	4521	4521	4521	4463	4521	4521	4581	4643	4581	4643	4643	4643	4643	4581	4581	4643	4643	4643	4643	4643	4706	4706	4643	4643	4643	4643	4643	4643	4643	4643	4643	4581	4581	4581	4521	4521	4581	4581	4581	4643	4643	4643	4706	4706	4706	7779	7779	7779	7779	7959	8146	8146	7959	7959	7959	7959	7959	7959	7959	7959	7959	8146	7959	7959	7959	8146	7959	7959	7959	7959	8146	8146	8146	8146	8343	8146	8343	8343	8343	8146	8146	8146	8146	8146	8146	8146	8146	7959	7959	7959	7959	7779	7779	7779	7779	7959	7959	7959	7959	7959	7959	7959	7779	7779	7779	7779	7779	7959	7779	7779	7959	7959	7779	7779	7779	7779	7779	7779	7608	7608	7608	0	0	0	0	0	0	0	0	0	0	0	0	0	0	0	0	0	0	0	0	0	0	0	0	0	0	0	0	0	0	0	0	0	0	0	0	0	0	0	0	0	0	0	0
0	0	0	0	0	865	865	865	865	867	867	871	875	875	875	878	878	880	880	884	894	896	898	901	903	908	910	915	917	917	922	925	927	930	932	935	940	942	950	950	955	958	961	963	966	972	974	974	980	983	985	991	997	1000	1008	1014	1020	1020	1023	1026	1026	1030	1036	1039	1048	1052	1052	1055	1058	1061	1068	1074	1081	1081	1081	1088	1091	1091	1095	1098	1098	1098	0	0	0	0	0	0	0	0	4771	4771	4771	4706	4706	4771	4771	4771	4771	4771	4838	4771	4838	4771	4771	4771	4771	4771	4838	4838	4906	4906	4906	4838	4838	4838	4838	4838	4838	4838	4838	4906	4838	4838	4838	4838	4771	4771	4771	4771	4838	4771	4771	4838	4771	4771	4771	4771	4771	4771	4771	4706	4706	4706	4771	4643	4643	4838	4838	4771	4771	4771	4771	4706	4643	4643	4643	4643	4643	4643	4643	4643	4643	4643	8146	8146	7959	7959	7959	7959	8146	7959	7959	7959	7959	7959	7959	7959	7959	8146	8146	8146	8146	8146	8146	8146	7959	7959	7959	7959	7959	7959	7959	7959	7959	7959	7779	7959	7959	7959	7959	8146	8146	8146	8146	8146	8146	8146	8146	8146	8146	8146	8146	8146	8146	8146	8146	8343	8146	8146	8146	8146	8146	8146	8146	8146	8146	8146	8146	8146	8146	8146	8146	8146	8146	8146	8146	8146	8146	8146	0	0	0	3998	3907	3864	3907	3952	3907	3907	3864	3864	3864	3864	3864	3864	3864	3864	3864	3864	3864	3864	3864	3864	3864	3864	3864	3864	3864	3864	3864	3864	3864	3864	3864	3864	3864	3864	3864	3864	3821	3864	3821	3821	3864	3821	3821	3821	3821	3821	3821	3864	3821	3864	3864	3864	3864	3864	3864	3864	3907	3907	3907	3907	3907	3907	3907	3907	3907	0	8550	8343	8343	8146	8146	8343	8343	8343	8550	8550	8550	8343	8343	8343	8343	8146	8146	8146	7959	7959	7959	4643	4643	4706	4771	4771	4771	4771	4771	4771	4771	4706	4706	4706	4706	4706	4643	4643	4643	4706	4706	4706	4706	4706	4706	4643	4643	4581	4581	4581	4581	4581	4643	4643	4581	4521	4521	4463	4463	4406	4406	4406	4406	4463	4463	4463	4406	4406	4406	4463	4406	4406	4406	4406	4350	4406	4406	4463	4406	4406	4406	4406	4406	4406	4406	4406	4406	4406	4406	4406	4463	4463	4406	4406	4406	4406	4406	4406	4406	4406	4406	4406	4463	4463	4406	4406	4406	4406	4406	4406	4406	4406	4406	4406	4406	4406	4406	4406	4406	4406	4406	4406	4406	4406	4406	4406	4406	4406	4350	4350	4350	4350	4350	4350	4406	4406	4463	4521	4581	4643	4643	4581	4581	4581	4643	4643	4706	4706	4706	4706	4706	4643	4643	4643	4643	4643	4643	4643	4643	4643	4643	4643	4581	4581	4463	4463	4463	4463	4463	4463	4463	4521	4581	4581	4581	4581	4581	4581	4581	4581	4643	4643	4643	4643	4643	4643	4643	4643	4581	4581	4581	4581	4581	4581	4643	4581	4581	4581	4521	4521	4521	4581	4581	4581	4581	4643	4643	4643	4706	4706	7779	7779	7959	7959	7959	8146	8146	8146	8146	7959	7959	7959	7959	7959	7959	8146	8146	8146	8146	8146	8146	8146	8146	8146	8146	8146	8146	8146	8146	8343	8146	8343	8343	8343	8343	8343	8146	8146	8146	8343	8146	8146	8146	8146	8146	7959	7779	7779	7779	7959	7959	7959	7959	8146	7959	7959	7959	7779	7779	7779	7779	7779	7779	7779	7779	7959	7959	7779	7779	7779	7779	7779	7779	7608	7608	7608	0	0	0	0	0	0	0	0	0	0	0	0	0	0	0	0	0	0	0	0	0	0	0	0	0	0	0	0	0	0	0	0	0	0	0	0	0	0	0	0	0	0	0	0
0	0	0	0	0	862	865	865	867	867	869	875	878	878	878	878	878	880	880	884	894	896	896	901	901	905	910	913	917	917	922	925	927	930	930	932	940	942	950	955	955	958	961	963	966	969	974	974	980	985	988	991	994	997	1006	1011	1017	1020	1023	1023	1026	1030	1033	1039	1045	1052	1055	1058	1061	1064	1068	1074	1078	1078	1081	1085	1091	1091	1095	1098	1102	1102	0	0	0	0	0	0	0	0	4771	4771	4771	4771	4771	4771	4771	4771	4838	4838	4838	4838	4771	4838	4771	4771	4771	4771	4838	4838	4906	4906	4906	4838	4838	4838	4838	4838	4838	4838	4906	4906	4838	4838	4838	4838	4838	4771	4771	4771	4771	4771	4706	4771	4771	4771	4771	4706	4706	4771	4706	4706	4706	4706	4771	4706	4706	4771	4771	4771	4771	4706	4706	4706	4643	4643	4643	4643	4643	4643	4643	4643	4643	4643	8146	8146	7959	8146	7959	8146	8146	8146	8146	8146	8146	8146	7959	8146	7959	8146	8146	8146	8146	8146	8146	8146	7959	7959	7959	7959	7959	7959	7959	7959	7959	8146	7959	7959	7959	7959	7959	7959	7959	8146	7959	7959	8146	7959	7959	7959	8146	8146	7959	8146	8146	8146	8146	8343	8146	8146	7959	8146	8146	8146	8146	8146	8146	8146	8146	8146	8146	8146	8146	8146	8146	8146	8146	8146	7959	7959	7959	0	0	3998	3952	3952	3907	3907	3907	3864	3864	3864	3864	3864	3864	3864	3864	3864	3864	3864	3864	3864	3864	3864	3864	3864	3864	3864	3864	3864	3864	3864	3864	3864	3864	3864	3864	3864	3864	3864	3864	3864	3864	3864	3864	3864	3864	3864	3864	3864	3864	3864	3864	3864	3864	3864	3864	3864	3864	3864	3907	3864	3864	3864	3907	3907	3907	3907	3907	8550	8550	8343	8146	8146	8146	8343	8343	8550	8550	8550	8550	8550	8343	8343	8343	8146	8146	8146	7959	7959	7959	4643	4643	4706	4771	4771	4771	4706	4771	4771	4706	4706	4706	4706	4706	4706	4643	4643	4706	4706	4706	4706	4706	4706	4706	4643	4643	4581	4581	4581	4581	4581	4643	4643	4581	4581	4463	4463	4463	4406	4406	4406	4350	4406	4350	4350	4350	4350	4406	4350	4350	4350	4350	4350	4350	4406	4406	4406	4406	4406	4406	4406	4406	4406	4406	4406	4406	4406	4463	4406	4463	4463	4406	4406	4406	4406	4406	4406	4406	4406	4406	4406	4463	4463	4406	4406	4406	4406	4406	4406	4406	4406	4406	4406	4406	4406	4406	4406	4406	4406	4406	4406	4406	4406	4406	4406	4350	4350	4350	4350	4350	4350	4350	4350	4350	4406	4406	4463	4521	4581	4581	4581	4581	4581	4643	4643	4643	4643	4643	4643	4643	4643	4643	4643	4643	4581	4581	4643	4643	4581	4581	4581	4581	4521	4463	4463	4463	4463	4463	4463	4463	4463	4521	4521	4581	4581	4581	4581	4581	4581	4581	4581	4581	4581	4581	4521	4581	4581	4521	4581	4581	4581	4581	4581	4581	4581	4521	4521	4521	4463	4463	4521	4581	4581	4581	4643	4643	4706	4706	4706	7779	7779	7959	7959	7959	8146	8343	8146	8146	8146	7959	7959	7959	7959	7959	8343	8146	7959	8146	8146	8146	8146	8146	8146	8146	8146	8146	8146	8146	8343	8146	8146	8146	8343	8343	8343	8146	8343	8343	8343	8343	8146	8146	8146	8146	8146	7959	7959	7959	7959	8146	8146	8146	8146	8146	7959	7959	7779	7779	7779	7779	7779	7779	7779	7959	8146	7959	7959	7959	7779	7959	7779	7779	7608	7779	7779	0	0	0	0	0	0	0	0	0	0	0	0	0	0	0	0	0	0	0	0	0	0	0	0	0	0	0	0	0	0	0	0	0	0	0	0	0	0	0	0	0	0	0	0
