0	0	0	0	0	0	0	0	0	0	0	0	0	0	0	0	0	0	0	4296	4296	4296	4350	4350	4406	4406	4463	4463	4463	4521	4521	4521	4521	4521	4521	4521	4521	4521	4521	4581	4581	4581	4643	4643	4643	4643	4581	4643	4643	4643	4706	4706	4706	4706	4771	4771	4771	4771	4771	4771	4771	4706	4643	4643	0	0	0	0	0	0	0	0	4838	4771	4771	4838	4771	4771	4771	4706	4771	4771	4771	0	0	0	0	0	0	0	0	4771	4771	4706	4706	4706	4706	4706	4706	0	0	0	0	0	0	0	0	4463	4463	4406	4406	4406	4406	4406	4406	4350	4406	4406	4463	4521	4521	4521	4463	4463	4463	4463	4463	4406	4406	4463	4521	4463	4463	4463	4521	4521	4521	4521	4581	4581	4581	4643	4643	4643	4643	4643	4643	4643	4706	4706	4771	4906	4906	4906	4906	4906	0	0	0	0	0	0	6349	6349	6349	6349	6349	6349	6235	6235	6235	6235	6349	6235	6235	6235	6235	6235	6235	6235	6235	6235	6235	0	0	0	0	0	0	0	0	0	0	0	0	0	0	0	0	0	0	0	0	0	0	7287	7137	6992	6992	6992	7137	7444	7444	7444	7608	7608	7608	7608	7608	7608	7779	7779	7608	7608	7608	7608	7444	7444	7444	7444	7444	7444	7444	7444	7779	7444	7444	7608	7779	7779	7779	7779	7779	7779	7779	7779	7779	7608	7779	7608	7608	7779	7608	7444	7608	7608	7608	7608	7608	7608	7608	7608	7608	7608	7608	7608	7779	7779	7779	7608	7608	7779	7608	3698	3698	3738	3698	3738	3738	3698	3698	3698	3698	3659	3659	3698	3698	3698	3698	3698	3738	3738	3738	3738	3738	3738	3738	3738	3738	3738	3738	3698	3698	3698	3698	3698	3698	3698	3698	3698	3698	3698	3698	3698	3738	3738	3738	3779	3779	3779	4296	4296	4296	4296	4296	4296	4296	4296	4296	4296	4296	4296	4296	4296	4296	4296	4296	4296	4296	4350	4406	4463	4521	4521	4581	4581	4581	4581	4581	4581	4581	4581	4581	4581	4581	4581	4581	4581	4581	4581	4581	4581	4581	4581	4581	4581	4581	4581	4521	4521	4521	4581	4581	4581	4581	4581	4581	4581	4581	4581	4581	4581	4581	4581	4581	4581	4581	4581	4581	4581	4581	4581	4581	4581	4521	4521	4581	4581	4643	4643	4581	4581	4581	4581	4581	4581	4581	4581	4581	4581	4581	4581	4581	4581	4581	4521	4521	4406	4406	4350	4350	4296	4296	4296	4296	4296	4296	4243	4192	4192	4192	4192	4243	4243	4243	4243	4243	4243	4192	4192	4243	4243	4243	4243	4243	4243	4243	4243	4192	4192	4192	4192	4243	4243	4296	4296	4350	4350	4350	4296	4296	4192	4192	4192	4142	4142	4142	4142	4142	4142	4192	4192	4192	4192	4192	4192	4192	4192	4243	4243	4243	4243	4243	4243	4243	4243	4243	4296	4243	4243	4243	4243	4243	4243	4243	4243	4243	4296	4296	4296	4296	4296	4296	4296	4296	4243	4243	0	0	0	0	2514	2496	2496	2496	2496	2496	2496	2478	2460	2460	2478	2443	2426	2443	2426	2426	2409	2409	2409	2392	2409	2392	2392	2392	2392	2409	2409	2392	2392	2392	2376	2376	2376	2359	2359	2359	2359	2376	2376	2376	2376	2376	2376	2376	2376	2376	2376	2392	2392	2392	2392	2409	2409	2409	2426	2426	2426	2426	2426	2426	2426	2426	2443	2443	2460	2460	2460	2443	2443	2443	2426	2426	2409	2392	2392	2376	2359	2359	2343	2327	2312	2297	2297	2281	2281	2281	2266	2266	2266	2252	2252	2237	2223	2223	0	0	0	0	0	0	0	0	0	0	0	0	0	0	0	0	0	0	0	0	0	0	0	0	0	0	0	0	0	0	0	0	0	0	0
0	0	0	0	0	0	0	0	0	0	0	0	0	0	0	0	0	0	0	4243	4243	4243	4296	4350	4350	4406	4406	4463	4463	4463	4521	4521	4521	4521	4521	4521	4521	4521	4521	4521	4581	4643	4643	4643	4643	4643	4581	4643	4643	4643	4706	4706	4706	4706	4771	4771	4771	4771	4771	4771	4771	4706	4643	4643	4643	0	0	0	0	0	0	0	0	4706	4771	4771	4771	4771	4706	4706	4706	4706	4771	0	0	0	0	0	0	0	4838	4771	4771	4706	4706	4706	4643	4643	4643	0	0	0	0	0	0	0	4406	4406	4406	4350	4350	4350	4350	4296	4350	4350	4350	4350	4406	4463	4463	4463	4406	4406	4406	4406	4406	4406	4406	4406	4406	4406	4406	4406	4406	4463	4463	4521	4581	4643	4643	4643	4643	4643	4643	4643	4643	4643	4706	4771	4838	4906	4906	4977	4906	4977	4977	0	0	0	0	6468	6349	6349	6349	6349	6349	6349	6349	6235	6235	6235	6235	6235	6235	6235	6235	6235	6235	6235	6124	6124	6235	0	0	0	0	0	0	0	0	0	0	0	0	0	0	0	0	0	0	0	0	0	0	7444	7444	6992	6992	6992	7137	7444	7444	7444	7608	7608	7608	7608	7608	7608	7779	7608	7608	7608	7608	7608	7959	7959	7959	7608	7608	7959	7608	7779	7779	7608	7444	7444	7444	7779	7779	7779	7779	7779	7779	7779	7608	7608	7608	7608	7608	7608	7608	7444	7608	7608	7608	7608	7608	7608	7608	7608	7608	7608	7608	7608	7608	7779	7608	7608	7608	7608	7608	3698	3698	3698	3698	3698	3738	3698	3698	3698	3698	3698	3698	3698	3698	3698	3698	3698	3738	3738	3738	3738	3738	3738	3738	3738	3738	3738	3738	3698	3698	3698	3698	3698	3698	3698	3698	3698	3698	3698	3738	3738	3738	3738	3738	3779	3821	3821	4243	4296	4296	4296	4296	4296	4296	4296	4350	4296	4350	4350	4296	4296	4296	4296	4350	4296	4296	4350	4406	4463	4521	4521	4581	4581	4581	4581	4581	4581	4581	4581	4581	4581	4581	4581	4581	4581	4581	4581	4581	4581	4581	4581	4581	4581	4581	4581	4521	4581	4581	4581	4581	4581	4581	4581	4581	4581	4521	4521	4521	4581	4581	4581	4581	4581	4581	4581	4581	4581	4581	4581	4581	4581	4521	4521	4581	4581	4581	4643	4581	4643	4643	4643	4581	4581	4581	4581	4581	4581	4581	4581	4581	4581	4581	4521	4521	4406	4406	4350	4350	4296	4296	4296	4296	4296	4296	4243	4192	4192	4192	4192	4192	4192	4192	4192	4192	4243	4243	4192	4243	4243	4243	4243	4243	4192	4192	4192	4192	4192	4192	4192	4243	4243	4192	4243	4243	4243	4296	4243	4192	4192	4192	4192	4142	4142	4192	4142	4142	4142	4142	4192	4192	4192	4192	4192	4192	4142	4192	4192	4192	4243	4243	4243	4243	4243	4243	4243	4243	4243	4243	4243	4243	4243	4243	4243	4243	4296	4296	4296	4296	4296	4296	4296	4296	4243	4243	0	0	0	0	2514	2496	2496	2496	2496	2478	2478	2460	2460	2460	2460	2443	2426	2443	2426	2426	2409	2409	2409	2409	2409	2392	2392	2392	2392	2409	2409	2392	2392	2392	2376	2376	2376	2376	2376	2376	2359	2376	2376	2376	2376	2376	2376	2376	2376	2376	2376	2392	2392	2392	2409	2409	2409	2426	2426	2426	2426	2426	2409	2426	2426	2426	2443	2460	2460	2460	2460	2443	2443	2443	2426	2426	2409	2392	2392	2392	2359	2359	2343	2327	2312	2297	2297	2281	2281	2266	2266	2266	2252	2252	2252	2237	2223	2223	0	0	0	0	0	0	0	0	0	0	0	0	0	0	0	0	0	0	0	0	0	0	0	0	0	0	0	0	0	0	0	0	0	0	0
0	0	0	0	0	0	0	0	0	0	0	0	0	0	0	0	0	0	0	4243	4243	4296	4296	4350	4350	4350	4406	4463	4463	4463	4521	4521	4521	4521	4521	4521	4521	4521	4521	4581	4581	4643	4581	4643	4643	4581	4581	4581	4463	4463	4521	4581	4706	4706	4771	4771	4771	4771	4771	4771	4771	4706	4643	4581	4581	0	0	0	0	0	0	0	0	4771	4771	4838	4771	4771	4706	4706	4643	4643	4643	0	0	0	0	0	0	4838	4838	4771	4706	4706	4643	4643	4643	4643	4643	0	0	0	0	0	0	4350	4350	4350	4350	4350	4296	4296	4243	4243	4296	4296	4350	4243	4296	4296	4350	4406	4406	4350	4350	4350	4350	4350	4350	4350	4350	4350	4350	4350	4406	4406	4463	4581	4643	4643	4643	4643	4643	4643	4643	4643	4643	4643	4706	4771	4838	4906	4906	4906	4906	4977	4977	0	0	0	0	6468	6349	6349	6349	6349	6235	6235	6235	6235	6235	6235	6235	6235	6235	6235	6235	6235	6235	6235	6124	6018	6018	0	0	0	0	0	0	0	0	0	0	0	0	0	0	0	0	0	0	0	0	0	7444	7444	7608	7444	7444	7444	7444	7608	7444	7444	7608	7608	7608	7608	7608	7608	7608	7608	7608	7608	7608	7608	7959	7959	7959	7959	7959	7959	7779	7779	7608	7444	7444	7444	7608	7608	7608	7779	7779	7779	7779	7608	7608	7608	7608	7608	7608	7608	7608	7779	7608	7608	7608	7608	7608	7608	7608	7608	7779	7608	7608	7608	7608	7608	7608	7608	7608	7608	7608	7608	3738	3738	3738	3738	3698	3698	3698	3698	3698	3659	3659	3659	3698	3698	3698	3698	3738	3738	3738	3738	3738	3738	3738	3738	3738	3738	3738	3738	3738	3698	3698	3698	3698	3698	3698	3698	3698	3698	3738	3738	3738	3738	3738	3779	3779	3779	4296	4296	4296	4296	4296	4350	4350	4350	4350	4350	4350	4350	4350	4350	4350	4296	4296	4296	4296	4350	4350	4463	4521	4581	4581	4581	4581	4581	4581	4643	4581	4581	4581	4581	4581	4581	4581	4581	4581	4581	4581	4581	4581	4581	4581	4581	4581	4581	4521	4581	4581	4581	4581	4521	4581	4581	4521	4521	4521	4521	4521	4581	4581	4581	4581	4581	4581	4581	4581	4581	4581	4581	4581	4581	4581	4581	4581	4581	4643	4643	4643	4643	4643	4643	4581	4581	4581	4581	4581	4581	4581	4581	4581	4581	4581	4581	4521	4463	4406	4350	4350	4350	4350	4296	4296	4296	4296	4243	4192	4192	4192	4192	4192	4192	4192	4192	4192	4243	4192	4192	4192	4243	4243	4243	4192	4192	4192	4192	4192	4192	4192	4192	4192	4192	4192	4192	4192	4192	4243	4192	4192	4192	4192	4192	4192	4142	4192	4192	4192	4142	4192	4192	4192	4192	4192	4192	4142	4142	4192	4192	4192	4192	4243	4243	4243	4243	4243	4243	4243	4243	4243	4243	4243	4243	4243	4243	4243	4296	4296	4296	4296	4296	4296	4296	4296	4243	4243	0	0	0	0	0	2496	2496	2496	2496	2478	2478	2460	2460	2460	2443	2443	2426	2426	2426	2426	2426	2426	2409	2409	2426	2409	2409	2409	2409	2409	2409	2392	2392	2392	2392	2376	2376	2376	2376	2376	2376	2376	2376	2376	2376	2392	2392	2376	2376	2376	2376	2392	2392	2392	2409	2409	2426	2426	2426	2426	2426	2426	2409	2426	2426	2426	2443	2443	2460	2460	2460	2460	2460	2443	2426	2426	2409	2392	2392	2392	2359	2359	2343	2327	2312	2297	2312	2281	2281	2266	2266	2266	2252	2252	2252	2237	2223	2223	0	0	0	0	0	0	0	0	0	0	0	0	0	0	0	0	0	0	0	0	0	0	0	0	0	0	0	0	0	0	0	0	0	0	0
0	0	0	0	0	0	0	0	0	0	0	0	0	0	0	0	0	0	0	4296	4296	4296	4296	4350	4350	4406	4406	4463	4463	4463	4463	4521	4521	4581	4581	4521	4521	4581	4581	4581	4581	4643	4643	4643	4643	4581	4581	4581	4463	4463	4521	4521	4771	4771	4771	4771	4771	4771	4771	4706	4706	4643	4643	4643	4643	0	0	0	0	0	0	0	0	4771	4771	4771	4706	4706	4706	4643	4643	4643	4643	0	0	0	0	0	0	4838	4838	4838	4706	4706	4643	4643	4643	4643	0	0	0	0	0	0	0	4350	4350	4350	4350	4350	4350	4296	4296	4243	4296	4296	4350	4243	4350	4296	4406	4350	4350	4350	4350	4350	4350	4350	4350	4350	4350	4350	4350	4350	4406	4463	4521	4581	4643	4643	4643	4643	4643	4643	4643	4643	4643	4643	4706	4771	4838	4906	4977	5050	5050	5050	5050	0	0	6468	6468	6468	6349	6349	6349	6235	6235	6235	6235	6235	6235	6235	6235	6235	6235	6235	6235	6235	6124	6124	6124	6124	6124	0	0	0	0	0	0	0	0	0	0	0	0	0	0	0	0	0	0	0	0	0	7444	7444	7608	7444	7444	7608	7608	7608	7608	7608	7608	7608	7608	7608	7608	7608	7608	7608	7608	7608	7608	7608	7959	7959	7959	7959	7959	7779	7779	7608	7608	7608	7444	7444	7608	7608	7608	7779	7779	7779	7779	7608	7608	7608	7608	7608	7608	7608	7779	7779	7608	7608	7608	7608	7608	7608	7608	7608	7608	7608	7608	7608	7608	7608	7608	7608	7608	7608	7608	7608	3738	3738	3698	3698	3698	3698	3698	3698	3698	3659	3659	3659	3698	3698	3698	3698	3698	3738	3738	3738	3738	3738	3738	3738	3738	3738	3738	3698	3698	3698	3698	3698	3698	3698	3698	3698	3698	3698	3738	3738	3738	3738	3738	3779	3821	3821	4296	4296	4296	4296	4296	4350	4350	4350	4350	4350	4350	4350	4350	4296	4296	4296	4296	4296	4350	4406	4463	4463	4521	4581	4581	4581	4581	4581	4581	4581	4581	4581	4581	4581	4581	4581	4581	4581	4581	4581	4581	4581	4581	4581	4581	4581	4581	4521	4521	4521	4521	4581	4581	4521	4581	4581	4521	4521	4521	4521	4521	4521	4521	4581	4581	4581	4581	4581	4581	4581	4521	4521	4581	4581	4581	4581	4581	4581	4643	4643	4643	4643	4643	4643	4581	4581	4581	4581	4581	4581	4581	4581	4581	4581	4581	4581	4521	4521	4406	4350	4350	4350	4350	4296	4296	4296	4243	4192	4192	4192	4192	4192	4192	4192	4192	4192	4243	4243	4243	4192	4192	4243	4243	4192	4192	4192	4192	4192	4192	4192	4192	4192	4192	4192	4192	4142	4192	4192	4192	4142	4192	4192	4192	4192	4142	4142	4192	4192	4192	4142	4142	4192	4142	4192	4142	4142	4142	4142	4192	4192	4192	4192	4192	4243	4243	4243	4243	4243	4243	4243	4243	4243	4243	4243	4296	4296	4296	4296	4296	4296	4296	4296	4296	4296	4296	4296	4296	0	0	0	0	0	2496	2478	2478	2478	2478	2478	2460	2460	2443	2443	2426	2426	2426	2426	2426	2426	2426	2426	2426	2426	2426	2409	2409	2409	2409	2409	2409	2392	2392	2392	2392	2392	2376	2376	2376	2376	2376	2376	2376	2376	2392	2392	2376	2376	2376	2376	2392	2392	2392	2409	2426	2426	2426	2426	2426	2426	2426	2426	2426	2426	2426	2443	2478	2478	2478	2460	2460	2460	2443	2426	2426	2426	2409	2392	2392	2376	2359	2343	2327	2312	2312	2297	2281	2281	2266	2266	2266	2252	2252	2252	2237	2223	2223	0	0	0	0	0	0	0	0	0	0	0	0	0	0	0	0	0	0	0	0	0	0	0	0	0	0	0	0	0	0	0	0	0	0	0
0	0	0	0	0	0	0	0	0	0	0	0	0	0	0	0	0	0	0	4296	4296	4296	4296	4350	4350	4406	4406	4406	4463	4463	4521	4521	4581	4581	4581	4521	4521	4581	4581	4643	4643	4643	4643	4643	4643	4643	4643	4643	4406	4406	4521	4581	4706	4706	4706	4771	4771	4771	4706	4643	4643	4643	4643	4581	4581	4581	0	0	0	0	0	0	0	4643	4706	4706	4706	4706	4706	4643	4643	4643	4643	4643	0	0	0	0	0	4838	4838	4838	4771	4706	4706	4643	4643	0	0	0	0	0	0	0	0	0	4350	4350	4350	4350	4350	4296	4296	4296	4350	4350	4296	4243	4243	4296	4296	4296	4296	4296	4350	4350	4350	4350	4350	4296	4350	4350	4350	4350	4406	4581	4581	4643	4643	4643	4643	4643	4643	4643	4643	4643	4643	4643	4706	4771	4838	4977	5050	5050	5050	5050	5050	0	0	6468	6349	6468	6349	6349	6349	6349	6235	6235	6235	6235	6235	6235	6235	6235	6235	6235	6235	6235	6235	6235	6124	6124	6018	6018	6018	0	0	0	0	0	0	0	0	0	0	0	0	0	0	0	0	0	0	0	0	7608	7608	7608	7608	7608	7608	7779	7608	7608	7608	7608	7608	7444	7444	7608	7608	7608	7608	7608	7608	7779	7779	7779	7779	7779	7779	7779	7779	7608	7608	7444	7444	7444	7608	7608	7608	7608	7779	7779	7608	7608	7608	7608	7608	7608	7608	7608	7779	7779	7608	7608	7608	7608	7608	7608	7608	7608	7608	7608	7608	7608	7608	7608	7608	7608	7608	7608	7608	7608	7608	0	3698	3698	3698	3698	3698	3698	3659	3659	3659	3659	3698	3698	3698	3698	3698	3698	3698	3738	3738	3738	3738	3738	3738	3738	3738	3698	3698	3698	3698	3698	3698	3698	3698	3698	3698	3698	3738	3738	3738	3738	3738	3779	3779	3779	4296	4296	4350	4350	4350	4350	4350	4350	4350	4350	4350	4350	4350	4350	4350	4350	4350	4350	4350	4406	4406	4463	4521	4581	4581	4581	4581	4581	4581	4581	4581	4581	4581	4581	4581	4521	4581	4581	4581	4581	4581	4581	4581	4581	4581	4581	4521	4521	4521	4521	4521	4581	4521	4521	4521	4521	4521	4521	4521	4521	4521	4521	4521	4521	4521	4521	4521	4521	4581	4521	4521	4581	4581	4581	4581	4581	4581	4581	4643	4643	4643	4643	4643	4643	4581	4581	4581	4581	4581	4581	4581	4581	4581	4581	4581	4521	4521	4521	4406	4406	4350	4350	4350	4350	4296	4296	4296	4243	4192	4192	4192	4192	4192	4192	4192	4192	4243	4243	4243	4243	4243	4192	4192	4192	4192	4192	4192	4192	4192	4192	4192	4192	4192	4192	4142	4142	4142	4192	4192	4142	4142	4192	4192	4192	4192	4192	4192	4192	4192	4192	4192	4192	4192	4192	4142	4192	4142	4142	4192	4192	4192	4192	4192	4192	4192	4192	4243	4243	4243	4243	4243	4243	4243	4243	4296	4296	4243	4296	4296	4296	4296	4350	4296	4350	4350	4296	4296	0	0	0	0	0	0	2478	2478	2478	2478	2460	2460	2443	2443	2426	2426	2426	2426	2426	2426	2426	2426	2426	2426	2426	2426	2409	2409	2409	2392	2409	2409	2409	2409	2392	2392	2392	2376	2376	2376	2376	2376	2376	2376	2392	2392	2392	2376	2376	2376	2376	2392	2392	2392	2409	2426	2426	2443	2443	2426	2426	2426	2426	2409	2409	2409	2496	2478	2478	2460	2460	2460	2460	2443	2426	2426	2426	2409	2392	2376	2343	2343	2327	2327	2312	2297	2312	2297	2281	2266	2266	2266	2252	2252	2252	2237	2223	2223	0	0	0	0	0	0	0	0	0	0	0	0	0	0	0	0	0	0	0	0	0	0	0	0	0	0	0	0	0	0	0	0	0	0	0
0	0	0	0	0	0	0	0	0	0	0	0	0	0	0	0	0	0	0	4296	4350	4350	4296	4350	4350	4463	4521	4521	4521	4521	4521	4521	4581	4581	4521	4581	4581	4581	4581	4643	4581	4643	4706	4706	4706	4706	4706	4706	4706	4706	4706	4771	4771	4771	4771	4771	4771	4771	4706	4706	4643	4643	4581	4581	4521	4521	0	0	0	0	0	0	0	4643	4706	4771	4706	4706	4706	4706	4643	4643	4643	4643	0	0	0	0	0	4838	4838	4838	4771	4706	4643	4643	4643	4643	0	0	0	0	0	0	0	0	4350	4350	4350	4350	4296	4296	4296	4243	4296	4350	4350	4243	4243	4296	4296	4296	4296	4296	4296	4350	4350	4350	4350	4296	4350	4350	4350	4350	4350	4581	4581	4643	4643	4643	4643	4643	4643	4643	4643	4643	4643	4643	4643	4706	4838	4906	5050	5050	5125	5125	5125	0	6468	6349	6349	6349	6349	6349	6349	6349	6235	6235	6235	6235	6235	6235	6235	6235	6235	6235	6235	6235	6235	6124	6124	6018	5915	5915	6018	0	0	0	0	0	0	0	0	0	0	0	0	0	0	0	0	0	0	0	7608	7608	7608	7608	7608	7608	7608	7779	7608	7608	7608	7608	7608	7608	7444	7444	7608	7608	7608	7779	7779	7779	7779	7779	7608	7779	7608	7608	7608	7608	7608	7444	7444	7444	7608	7608	7779	7608	7779	7779	7608	7608	7608	7608	7608	7608	7608	7608	7608	7779	7608	7608	7608	7608	7608	7608	7608	7608	7779	7608	7779	7608	7608	7608	7608	7608	7444	7287	7287	7444	7444	0	0	3698	3698	3698	3698	3698	3698	3659	3659	3659	3698	3698	3698	3698	3698	3738	3738	3738	3738	3738	3738	3738	3738	3738	3738	3698	3698	3698	3698	3698	3698	3698	3698	3698	3698	3698	3738	3698	3698	3738	3738	3779	3779	3779	4296	4296	4296	4350	4350	4350	4350	4350	4350	4350	4350	4350	4296	4296	4350	4350	4296	4296	4350	4350	4406	4463	4521	4581	4643	4581	4581	4643	4643	4581	4581	4581	4581	4581	4581	4521	4521	4521	4521	4581	4581	4581	4581	4521	4581	4581	4521	4521	4521	4521	4581	4521	4521	4521	4521	4521	4521	4521	4521	4521	4521	4521	4521	4521	4521	4521	4521	4521	4581	4521	4521	4581	4521	4581	4581	4581	4581	4581	4643	4643	4643	4643	4643	4643	4581	4643	4581	4581	4581	4581	4581	4581	4581	4581	4581	4521	4521	4521	4463	4406	4406	4350	4350	4350	4350	4296	4296	4243	4192	4192	4192	4192	4192	4192	4192	4192	4243	4243	4243	4243	4243	4243	4192	4192	4192	4192	4192	4192	4192	4192	4192	4192	4192	4192	4142	4142	4142	4142	4192	4142	4142	4192	4192	4192	4192	4192	4192	4192	4192	4192	4192	4192	4192	4192	4142	4192	4142	4142	4192	4192	4192	4192	4192	4192	4192	4192	4192	4192	4192	4192	4243	4243	4243	4243	4296	4296	4296	4296	4350	4350	4350	4350	4350	4350	4350	4350	4350	0	0	0	0	0	0	2478	2478	2478	2478	2460	2460	2443	2443	2426	2426	2426	2409	2426	2426	2426	2426	2426	2409	2426	2409	2409	2409	2409	2409	2409	2409	2409	2409	2392	2392	2392	2376	2376	2376	2376	2376	2376	2376	2376	2392	2392	2392	2376	2376	2376	2392	2392	2392	2409	2426	2443	2443	2426	2426	2426	2426	2426	2426	2426	2426	2496	2496	2478	2478	2460	2460	2460	2443	2426	2426	2426	2409	2392	2376	2343	2343	2327	2327	2312	2297	2297	2297	2281	2281	2266	2266	2266	2252	2252	2223	2208	2208	0	0	0	0	0	0	0	0	0	0	0	0	0	0	0	0	0	0	0	0	0	0	0	0	0	0	0	0	0	0	0	0	0	0	0
0	0	0	0	0	0	0	0	0	0	0	0	0	0	0	0	0	0	0	4296	4296	4350	4350	4350	4406	4463	4463	4521	4521	4521	4521	4581	4521	4581	4581	4581	4581	4581	4581	4581	4581	4706	4643	4643	4643	4643	4643	4643	4521	4521	4521	4706	4706	4706	4706	4706	4706	4706	4643	4706	4706	4643	4643	4581	4581	4581	0	0	0	0	0	0	0	4643	4706	4771	4771	4771	4706	4643	4643	4643	4643	4643	0	0	0	0	0	4838	4838	4838	4706	4706	4643	4643	4643	4643	4643	0	0	0	0	0	0	4406	4350	4350	4296	4350	4350	4296	4296	4243	4243	4243	4350	4243	4350	4296	4296	4350	4296	4296	4296	4296	4350	4350	4350	4296	4296	4350	4350	4350	4350	4350	4643	4706	4706	4706	4706	4643	4643	4643	4643	4643	4643	4643	4643	4706	4838	4906	5050	5050	5125	5125	5125	5125	6468	6349	6349	6349	6349	6349	6349	6349	6349	6349	6349	6235	6235	6235	6235	6235	6235	6235	6349	6235	6235	6124	6124	6018	5915	5915	0	0	0	0	0	0	0	0	0	0	0	0	0	0	0	0	0	0	0	0	7608	7608	7608	7608	7608	7608	7608	7608	7608	7608	7608	7608	7608	7444	7444	7608	7608	7608	7608	7608	7779	7779	7779	7779	7608	7779	7608	7608	7608	7608	7444	7444	7444	7608	7608	7608	7608	7608	7608	7779	7608	7608	7444	7608	7608	7608	7608	7608	7608	7608	7608	7608	7608	7608	7608	7608	7608	7608	7779	7779	7779	7779	7608	7608	7608	7608	7444	7444	7287	7287	7444	0	0	3698	3698	3698	3698	3698	3698	3698	3698	3698	3698	3698	3698	3698	3698	3698	3698	3738	3738	3738	3738	3738	3738	3738	3698	3698	3698	3698	3698	3698	3698	3698	3698	3698	3698	3698	3698	3698	3698	3698	3738	3738	3738	3779	4296	4350	4350	4350	4350	4350	4350	4350	4350	4350	4350	4296	4296	4296	4296	4296	4296	4296	4350	4350	4406	4463	4521	4581	4581	4581	4581	4581	4581	4521	4521	4521	4521	4521	4521	4521	4521	4521	4521	4521	4521	4521	4521	4521	4521	4521	4521	4521	4521	4521	4521	4521	4521	4521	4521	4521	4521	4521	4521	4521	4521	4521	4521	4521	4521	4521	4521	4521	4521	4521	4521	4521	4521	4521	4521	4581	4581	4581	4643	4643	4643	4643	4581	4581	4581	4581	4581	4581	4581	4581	4581	4581	4581	4581	4581	4521	4521	4521	4406	4406	4406	4406	4350	4350	4350	4296	4296	4243	4192	4192	4192	4192	4192	4192	4192	4192	4243	4243	4243	4243	4192	4192	4192	4192	4192	4192	4142	4192	4192	4192	4192	4192	4192	4192	4192	4142	4142	4142	4192	4142	4192	4192	4192	4192	4192	4192	4192	4192	4192	4142	4142	4192	4192	4192	4142	4192	4142	4192	4192	4243	4192	4192	4192	4192	4192	4192	4192	4192	4192	4192	4192	4243	4243	4243	4350	4296	4296	4350	4350	4350	4350	4350	4350	4350	4406	4350	4296	4296	0	0	0	0	0	2460	2478	2478	2460	2460	2460	2443	2443	2443	2426	2426	2426	2426	2426	2426	2426	2426	2409	2426	2426	2409	2409	2409	2409	2409	2409	2409	2409	2392	2392	2409	2392	2376	2392	2376	2376	2376	2376	2376	2392	2392	2392	2376	2376	2376	2409	2392	2409	2426	2426	2443	2443	2426	2426	2426	2426	2426	2426	2426	2426	2478	2478	2478	2460	2460	2460	2443	2443	2426	2426	2409	2392	2392	2376	2359	2343	2327	2312	2312	2297	2297	2281	2281	2281	2266	2266	2266	2252	2252	2223	2208	2208	0	0	0	0	0	0	0	0	0	0	0	0	0	0	0	0	0	0	0	0	0	0	0	0	0	0	0	0	0	0	0	0	0	0	0
0	0	0	0	0	0	0	0	0	0	0	0	0	0	0	0	0	0	0	4296	4350	4350	4350	4350	4463	4463	4463	4521	4521	4521	4581	4581	4581	4581	4581	4581	4521	4581	4581	4581	4581	4643	4643	4643	4643	4643	4643	4643	4521	4521	4581	4643	4643	4643	4643	4643	4706	4706	4643	4643	4643	4643	4643	4581	4581	4581	0	0	0	0	0	0	0	4643	4706	4771	4771	4771	4706	4706	4706	4643	4643	4643	0	0	0	0	0	4838	4838	4838	4771	4706	4706	4706	4643	4643	4643	0	0	0	0	0	0	4406	4350	4296	4296	4296	4296	4296	4243	4243	4243	4296	4350	4350	4350	4243	4296	4350	4296	4296	4296	4296	4296	4350	4296	4296	4296	4350	4350	4350	4350	4350	4643	4643	4706	4706	4706	4643	4643	4643	4643	4643	4643	4643	4643	4706	4838	4906	4977	5050	5125	5125	5125	5125	6349	6349	6349	6349	6349	6349	6349	6349	6349	6349	6349	6235	6235	6235	6235	6235	6235	6235	6235	6235	6235	6124	6018	6018	5915	5915	0	0	0	0	0	0	0	0	0	0	0	0	0	0	0	0	0	0	0	0	7608	7608	7608	7608	7608	7608	7608	7608	7779	7608	7608	7608	7608	7444	7444	7444	7444	7444	7444	7608	7608	7608	7608	7608	7608	7608	7608	7608	7444	7444	7444	7444	7444	7608	7608	7608	7608	7608	7779	7779	7608	7608	7608	7608	7608	7608	7608	7608	7608	7608	7608	7608	7608	7608	7608	7608	7608	7608	7608	7608	7779	7608	7608	7608	7608	7608	7444	7444	7444	7444	0	0	0	3698	3698	3698	3698	3698	3698	3698	3698	3698	3698	3698	3698	3698	3698	3698	3698	3738	3738	3738	3738	3738	3738	3738	3698	3698	3698	3698	3698	3698	3698	3698	3698	3698	3698	3698	3698	3698	3698	3698	3738	3738	3779	3779	3779	4350	4406	4350	4350	4350	4350	4350	4350	4350	4350	4296	4296	4296	4296	4296	4296	4296	4350	4350	4350	4463	4521	4581	4581	4581	4581	4581	4581	4521	4521	4521	4581	4581	4521	4521	4521	4521	4521	4521	4521	4521	4521	4521	4521	4521	4521	4521	4521	4521	4521	4521	4521	4521	4521	4521	4521	4521	4521	4521	4521	4521	4521	4521	4521	4521	4521	4521	4521	4521	4521	4521	4521	4521	4521	4581	4581	4581	4643	4581	4581	4581	4581	4581	4581	4581	4581	4581	4581	4581	4581	4581	4581	4581	4581	4521	4463	4463	4406	4406	4406	4350	4350	4350	4350	4296	4296	4243	4192	4192	4243	4192	4192	4243	4192	4243	4243	4243	4243	4243	4243	4192	4192	4192	4192	4192	4192	4192	4192	4192	4192	4192	4192	4192	4192	4142	4142	4142	4192	4142	4142	4142	4192	4192	4192	4142	4192	4192	4192	4192	4142	4192	4192	4192	4142	4192	4192	4192	4192	4243	4243	4192	4192	4192	4192	4192	4192	4192	4192	4192	4243	4243	4243	4243	4296	4296	4296	4296	4350	4350	4350	4350	4350	4350	4350	4350	4296	4296	0	0	0	0	0	2460	2478	2478	2478	2478	2460	2460	2443	2443	2443	2426	2426	2426	2426	2426	2426	2426	2409	2426	2426	2409	2409	2409	2409	2409	2409	2409	2409	2392	2392	2409	2392	2392	2392	2376	2376	2376	2376	2376	2392	2392	2392	2392	2392	2392	2409	2409	2409	2426	2426	2426	2443	2426	2426	2426	2426	2426	2426	2426	2426	2478	2478	2478	2460	2460	2460	2443	2443	2409	2409	2409	2392	2376	2376	2359	2327	2327	2312	2297	2297	2297	2297	2281	2281	2266	2266	2266	2252	2252	2223	2208	2208	0	0	0	0	0	0	0	0	0	0	0	0	0	0	0	0	0	0	0	0	0	0	0	0	0	0	0	0	0	0	0	0	0	0	0
0	0	0	0	0	0	0	0	0	0	0	0	0	0	0	0	0	0	0	4296	4350	4350	4350	4406	4406	4463	4463	4521	4463	4521	4521	4521	4581	4581	4581	4581	4581	4581	4581	4581	4581	4643	4643	4643	4643	4643	4643	4643	4643	4643	4643	4643	4643	4706	4706	4706	4706	4643	4643	4581	4581	4581	4706	4581	4581	4581	0	0	0	0	0	0	0	4706	4706	4771	4771	4771	4771	4706	4706	4706	4706	4643	0	0	0	0	0	4838	4838	4838	4771	4706	4643	4643	4581	4581	0	0	0	0	0	0	0	0	4350	4296	4296	4350	4350	4296	4243	4243	4243	4296	4296	4296	4350	4243	4406	4350	4296	4296	4243	4296	4296	4350	4296	4296	4296	4296	4296	4350	4350	4350	4581	4643	4643	4706	4706	4643	4643	4643	4643	4643	4643	4643	4706	4771	4906	4906	4977	5050	5125	5125	5125	5125	6349	6349	6349	6349	6349	6349	6349	6349	6349	6349	6349	6235	6235	6235	6235	6349	6235	6235	6235	6235	6235	6124	6124	6018	5915	5915	5915	0	0	0	0	0	0	0	0	0	0	0	0	0	0	0	0	0	0	7444	7608	7608	7608	7608	7444	7608	7608	7608	7608	7608	7608	7608	7608	7608	7444	7608	7608	7444	7608	7608	7608	7608	7608	7608	7608	7608	7444	7444	7444	7444	7287	7287	7287	7608	7608	7608	7779	7779	7779	7779	7779	7608	7608	7608	7608	7608	7608	7608	7608	7608	7608	7608	7608	7608	7608	7608	7608	7608	7608	7608	7608	7608	7444	7444	7444	7608	7444	7444	7287	7444	7444	0	0	3698	3698	3698	3698	3698	3698	3698	3698	3659	3698	3698	3698	3698	3698	3698	3698	3698	3738	3738	3738	3738	3698	3738	3698	3698	3698	3698	3698	3698	3698	3698	3698	3698	3698	3698	3698	3698	3698	3698	3698	3738	3738	3738	3738	4350	4406	4350	4350	4350	4350	4350	4350	4350	4350	4350	4350	4350	4350	4296	4296	4296	4350	4350	4350	4463	4521	4581	4581	4581	4521	4581	4581	4521	4521	4521	4581	4581	4521	4521	4521	4521	4521	4521	4521	4521	4521	4521	4521	4521	4521	4521	4521	4521	4521	4521	4521	4463	4521	4521	4521	4521	4521	4521	4521	4581	4521	4521	4521	4521	4521	4521	4521	4521	4521	4521	4521	4521	4521	4581	4581	4581	4581	4581	4581	4581	4581	4581	4581	4581	4581	4581	4581	4581	4581	4581	4581	4581	4521	4521	4521	4463	4463	4406	4406	4406	4350	4350	4350	4350	4296	4296	4192	4243	4243	4243	4243	4243	4243	4192	4243	4243	4243	4243	4192	4192	4192	4192	4192	4192	4192	4192	4192	4192	4192	4192	4192	4192	4192	4142	4192	4192	4192	4192	4142	4142	4192	4192	4192	4192	4192	4192	4192	4192	4142	4192	4192	4192	4142	4192	4192	4192	4192	4243	4243	4243	4243	4243	4243	4243	4243	4243	4243	4243	4243	4243	4243	4296	4350	4296	4296	4296	4296	4350	4296	4296	4296	4350	4350	4296	4296	4296	4296	0	0	0	0	0	2478	2478	2478	2478	2460	2478	2460	2443	2443	2443	2426	2426	2426	2426	2426	2426	2409	2426	2426	2409	2409	2409	2392	2409	2409	2409	2409	2392	2392	2392	2392	2392	2392	2376	2392	2392	2392	2376	2392	2392	2392	2392	2392	2392	2409	2409	2409	2426	2426	2426	2426	2426	2426	2426	2426	2426	2426	2426	2426	2478	2478	2478	2460	2460	2460	2443	2426	2409	2409	2392	2392	2376	2376	2359	2327	2327	2312	2297	2297	2297	2297	2281	2281	2266	2266	2266	2252	2252	2223	2208	2208	0	0	0	0	0	0	0	0	0	0	0	0	0	0	0	0	0	0	0	0	0	0	0	0	0	0	0	0	0	0	0	0	0	0	0
0	0	0	0	0	0	0	0	0	0	0	0	0	0	0	0	0	0	0	4296	4350	4350	4350	4406	4406	4406	4463	4463	4463	4521	4521	4521	4581	4581	4581	4581	4581	4581	4581	4581	4643	4643	4643	4643	4643	4643	4643	4643	4706	4643	4643	4706	4643	4706	4706	4706	4643	4706	4706	4643	4643	4643	4643	4643	4643	4643	0	0	0	0	0	0	0	4706	4706	4771	4771	4771	4771	4771	4706	4771	4771	0	0	0	0	0	0	4771	4838	4838	4838	4771	4643	4643	4643	4581	0	0	0	0	0	0	0	0	4350	4296	4296	4296	4296	4243	4243	4243	4243	4296	4296	4243	4243	4243	4350	4350	4296	4296	4296	4296	4350	4350	4296	4296	4296	4296	4350	4350	4350	4463	4581	4643	4643	4706	4706	4643	4643	4643	4643	4706	4706	4706	4771	4838	4906	4906	4977	4977	5125	5125	5125	5125	6349	6349	6349	6349	6349	6349	6349	6349	6235	6349	6349	6235	6235	6349	6349	6349	6349	6235	6235	6235	6124	6124	6124	6018	5915	5915	5915	0	0	0	0	0	0	0	0	0	0	0	0	0	0	0	0	0	0	7444	7608	7608	7608	7608	7608	7608	7608	7608	7608	7608	7608	7608	7608	7608	7608	7608	7608	7608	7608	7608	7608	7608	7608	7444	7444	7444	7444	7444	7444	7287	7287	7287	7287	7608	7608	7779	7779	7779	7779	7779	7608	7608	7444	7608	7608	7608	7608	7608	7608	7608	7608	7608	7444	7444	7608	7608	7608	7608	7608	7444	7608	7444	7444	7444	7444	7444	7444	7444	7444	7444	7444	0	0	3698	3698	3698	3698	3698	3698	3659	3698	3698	3698	3698	3698	3698	3698	3698	3698	3698	3698	3738	3738	3738	3738	3738	3738	3698	3698	3698	3698	3698	3698	3698	3698	3698	3698	3698	3698	3698	3738	3698	3698	3738	3738	3738	4350	4350	4350	4350	4350	4350	4350	4350	4350	4350	4350	4350	4350	4350	4350	4296	4296	4296	4350	4350	4350	4406	4581	4581	4643	4581	4521	4581	4581	4463	4521	4521	4521	4581	4521	4521	4521	4521	4521	4521	4521	4521	4521	4521	4521	4521	4521	4521	4521	4521	4521	4521	4521	4521	4521	4521	4521	4521	4521	4581	4521	4581	4521	4521	4521	4521	4521	4521	4521	4521	4521	4521	4521	4521	4521	4521	4521	4521	4581	4581	4581	4581	4581	4581	4581	4581	4581	4581	4581	4581	4581	4581	4581	4581	4521	4521	4463	4463	4463	4406	4406	4406	4350	4350	4350	4350	4296	4296	4296	4243	4243	4243	4243	4243	4243	4192	4243	4243	4192	4192	4192	4192	4192	4192	4192	4192	4192	4192	4192	4192	4192	4192	4192	4192	4192	4192	4192	4192	4192	4192	4142	4142	4142	4142	4142	4142	4142	4142	4192	4142	4142	4192	4192	4192	4142	4192	4192	4192	4192	4243	4243	4243	4243	4243	4243	4243	4243	4243	4243	4243	4296	4243	4296	4296	4296	4296	4296	4296	4350	4296	4296	4350	4296	4350	4296	4296	4296	4296	4243	4243	0	0	0	0	0	2496	2478	2478	2460	2478	2478	2460	2443	2443	2426	2426	2426	2426	2426	2426	2409	2426	2409	2409	2409	2409	2392	2392	2392	2392	2392	2376	2376	2392	2376	2376	2376	2376	2376	2376	2392	2376	2392	2392	2392	2392	2392	2392	2409	2409	2409	2409	2409	2426	2426	2426	2426	2443	2443	2443	2460	2460	2460	2478	2478	2478	2460	2460	2460	2443	2426	2409	2409	2392	2392	2376	2376	2376	2359	2327	2327	2312	2312	2297	2297	2281	2281	2266	2266	2266	2252	2237	2208	2208	2208	0	0	0	0	0	0	0	0	0	0	0	0	0	0	0	0	0	0	0	0	0	0	0	0	0	0	0	0	0	0	0	0	0	0	0
0	0	0	0	0	0	0	0	0	0	0	0	0	0	0	0	0	0	0	4296	4350	4350	4350	4406	4406	4406	4406	4463	4463	4521	4521	4521	4581	4581	4581	4581	4581	4581	4581	4581	4706	4706	4706	4643	4643	4643	4643	4643	4706	4706	4643	4706	4706	4706	4706	4706	4706	4643	4706	4643	4643	4706	4581	4581	4581	4581	0	0	0	0	0	0	0	4643	4643	4771	4771	4771	4706	4706	4771	4771	4771	0	0	0	0	0	0	4906	4838	4838	4838	4771	4643	4643	4581	4581	0	0	0	0	0	0	0	0	0	0	4243	4296	4296	4243	4243	4192	4192	4243	4243	4192	4243	4243	4350	4350	4296	4296	4296	4350	4350	4296	4296	4296	4296	4296	4296	4350	4350	4463	4581	4643	4643	4706	4706	4643	4643	4643	4643	4643	4706	4706	4771	4771	4977	4977	4977	5050	5050	5050	5050	6349	6349	6349	6349	6349	6349	6349	6349	6349	6235	6349	6349	6235	6235	6349	6349	6349	6349	6235	6235	6235	6124	6124	6124	6018	6018	6018	5915	0	0	0	0	0	0	0	0	0	0	0	0	0	0	0	0	0	0	7444	7608	7608	7608	7608	7608	7608	7608	7608	7608	7444	7608	7608	7608	7608	7608	7608	7608	7608	7608	7608	7608	7608	7608	7608	7444	7444	7444	7444	7287	7287	7287	7137	7137	7608	7779	7779	7779	7779	7608	7608	7608	7608	7444	7444	7608	7608	7608	7608	7608	7608	7608	7444	7608	7444	7608	7608	7608	7608	7608	7608	7608	7444	7444	7444	7444	7608	7444	7444	7444	7444	7444	0	0	0	3698	3698	3698	3698	3698	3659	3698	3698	3698	3698	3698	3698	3698	3698	3698	3698	3698	3698	3698	3738	3698	3698	3738	3738	3738	3698	3698	3698	3698	3698	3698	3698	3698	3698	3698	3698	3738	3698	3698	3738	3738	3738	4350	4350	4350	4350	4350	4350	4350	4350	4350	4350	4350	4350	4350	4350	4350	4296	4296	4296	4350	4350	4350	4463	4581	4643	4643	4581	4521	4521	4521	4406	4463	4406	4406	4521	4521	4521	4521	4521	4521	4521	4521	4521	4521	4521	4521	4521	4521	4521	4521	4521	4521	4521	4521	4521	4521	4521	4521	4521	4521	4521	4521	4521	4521	4521	4521	4521	4521	4521	4521	4521	4463	4521	4521	4521	4521	4521	4521	4521	4581	4581	4581	4581	4581	4581	4581	4581	4581	4581	4581	4581	4581	4581	4581	4581	4581	4521	4463	4463	4406	4406	4406	4350	4350	4350	4350	4296	4296	4296	4296	4243	4243	4243	4243	4243	4192	4192	4192	4192	4192	4192	4192	4192	4192	4192	4192	4192	4192	4192	4192	4192	4192	4192	4192	4192	4192	4192	4192	4192	4192	4192	4192	4142	4192	4192	4142	4142	4142	4142	4142	4142	4142	4142	4192	4192	4192	4192	4192	4192	4192	4243	4243	4243	4296	4243	4296	4296	4243	4243	4296	4296	4296	4296	4296	4296	4296	4243	4296	4296	4296	4296	4296	4350	4296	4350	4350	4296	4296	4296	4296	4296	0	0	0	0	0	2496	2496	2496	2478	2478	2478	2478	2443	2443	2426	2426	2426	2426	2426	2426	2409	2426	2409	2409	2409	2409	2392	2392	2392	2376	2376	2376	2376	2376	2376	2376	2376	2376	2376	2376	2392	2392	2392	2392	2392	2409	2392	2392	2392	2409	2409	2409	2409	2409	2426	2426	2426	2443	2443	2443	2460	2460	2460	2460	2460	2460	2460	2443	2443	2443	2426	2409	2409	2392	2392	2376	2376	2376	2359	2343	2312	2297	2297	2297	2281	2281	2281	2266	2266	2252	2252	2237	2208	2208	2208	0	0	0	0	0	0	0	0	0	0	0	0	0	0	0	0	0	0	0	0	0	0	0	0	0	0	0	0	0	0	0	0	0	0	0
0	0	0	0	0	0	0	0	0	0	0	0	0	0	0	0	0	0	0	4296	4350	4350	4350	4406	4406	4406	4406	4463	4406	4463	4463	4521	4521	4581	4581	4581	4581	4581	4581	4706	4706	4706	4706	4706	4706	4643	4643	4521	4521	4643	4643	4706	4706	4706	4706	4771	4771	4706	4706	4706	4706	4706	4581	4581	4581	4521	4521	0	0	0	0	0	4581	4581	4643	4771	4771	4771	4706	4771	4771	4771	4771	0	0	0	0	0	0	4706	4838	4838	4838	4771	4643	4643	4643	4581	4581	0	0	0	0	0	0	0	0	0	4243	4296	4243	4243	4243	4192	4192	4243	4243	4243	4243	4243	4296	4296	4296	4296	4243	4296	4296	4296	4296	4296	4296	4296	4296	4350	4350	4406	4521	4643	4643	4706	4706	4706	4643	4643	4643	4643	4643	4706	4771	4906	5050	4977	4977	5050	5050	6235	6235	6349	6349	6349	6235	6349	6349	6349	6349	6235	6235	6349	6349	6235	6235	6349	6349	6349	6349	6235	6235	6124	6124	6124	6124	6018	6018	6018	0	0	0	0	0	0	0	0	0	0	0	0	0	0	0	0	0	0	0	0	7444	7608	7608	7608	7608	7608	7608	7608	7608	7444	7608	7608	7608	7608	7608	7608	7608	7608	7608	7608	7608	7608	7608	7608	7444	7608	7444	7444	7287	7287	7137	7137	7137	7608	7608	7779	7779	7608	7444	7444	7444	7444	7608	7608	7608	7608	7608	7608	7608	7608	7608	7444	7444	7444	7608	7608	7608	7444	7608	7608	7608	7444	7444	7444	7444	7444	7444	7444	7444	7444	7444	0	0	0	3698	3698	3698	3698	3698	3659	3698	3659	3659	3659	3698	3698	3698	3698	3698	3698	3698	3698	3698	3738	3698	3738	3738	3738	3738	3698	3698	3698	3698	3698	3698	3698	3698	3698	3698	3698	3738	3698	3698	3779	3779	3779	4350	4350	4350	4350	4350	4350	4296	4296	4296	4350	4296	4296	4350	4350	4350	4350	4296	4296	4350	4350	4406	4463	4643	4643	4643	4581	4521	4521	4521	4406	4406	4406	4463	4521	4521	4463	4521	4463	4463	4463	4463	4463	4463	4521	4521	4521	4521	4521	4521	4521	4521	4521	4463	4463	4463	4463	4463	4463	4521	4521	4521	4521	4521	4521	4521	4521	4521	4521	4521	4463	4463	4463	4463	4463	4463	4521	4521	4521	4581	4581	4581	4521	4521	4463	4463	4463	4463	4521	4521	4521	4521	4521	4581	4581	4521	4521	4463	4406	4406	4350	4350	4350	4350	4350	4350	4296	4296	4243	4296	4243	4243	4243	4243	4243	4243	4192	4192	4192	4192	4192	4192	4192	4192	4192	4192	4192	4192	4192	4192	4192	4192	4192	4192	4192	4192	4192	4192	4192	4192	4192	4192	4192	4192	4192	4142	4142	4142	4142	4142	4142	4142	4142	4192	4192	4192	4192	4192	4192	4192	4243	4243	4243	4296	4243	4296	4296	4243	4243	4296	4296	4296	4296	4296	4296	4296	4243	4243	4243	4296	4296	4296	4296	4296	4350	4296	4296	4296	4296	4243	4296	4243	4243	0	0	0	2514	2496	2496	2496	2496	2496	2478	2460	2460	2443	2426	2426	2426	2426	2426	2426	2426	2426	2426	2426	2409	2409	2392	2392	2376	2376	2376	2376	2376	2376	2376	2376	2376	2376	2376	2392	2392	2392	2392	2409	2409	2409	2409	2409	2426	2409	2409	2409	2409	2409	2409	2426	2426	2426	2443	2460	2460	2460	2443	2460	2460	2443	2443	2443	2426	2409	2409	2392	2392	2392	2376	2376	2376	2376	2343	2327	2297	2297	2297	2281	2281	2281	2266	2266	2266	2252	2237	2223	2208	2208	0	0	0	0	0	0	0	0	0	0	0	0	0	0	0	0	0	0	0	0	0	0	0	0	0	0	0	0	0	0	0	0	0	0	0
0	0	0	0	0	0	0	0	0	0	0	0	0	0	0	0	0	0	0	4296	4296	4350	4406	4406	4406	4406	4406	4463	4406	4463	4463	4463	4521	4581	4581	4581	4581	4581	4581	4581	4706	4706	4643	4643	4643	4581	4521	4521	4581	4581	4581	4643	4706	4643	4643	4706	4706	4706	4706	4706	4643	4643	4643	4581	4581	4521	4521	0	0	0	0	0	4521	4581	4643	4771	4771	4771	4706	4771	4771	4771	4771	0	0	0	0	0	4706	4706	4838	4838	4838	4771	4771	4771	4706	4706	4581	0	0	0	0	0	0	0	0	0	0	4243	4243	4192	4192	4192	4192	4243	4243	4243	4243	4243	4350	4296	4296	4296	4243	4296	4296	4350	4350	4350	4350	4350	4350	4350	4406	4406	4463	4581	4581	4643	4643	4643	4643	4643	4643	4643	4643	4643	4643	4906	5050	4977	4977	0	0	6235	6235	6235	6349	6349	6235	6349	6235	6235	6235	6235	6235	6235	6235	6235	6235	6349	6349	6235	6235	6235	6235	6124	6124	6124	6124	6018	6018	6018	0	0	0	0	0	0	0	0	0	0	0	0	0	0	0	0	0	0	0	0	7444	7779	7608	7608	7608	7608	7608	7444	7444	7444	7444	7444	7608	7608	7608	7608	7608	7608	7608	7608	7608	7608	7608	7608	7444	7444	7444	7444	7287	7444	7137	7137	7137	7608	7287	7444	7444	7444	7287	7444	7444	7444	7444	7608	7608	7608	7608	7608	7608	7608	7608	7444	7444	7444	7608	7608	7444	7608	7608	7608	7608	7608	7608	7608	7608	7608	7444	7444	7444	7444	0	0	0	0	3698	3698	3698	3698	3698	3698	3698	3698	3698	3659	3659	3659	3698	3698	3698	3698	3698	3698	3698	3738	3738	3738	3738	3738	3738	3738	3738	3698	3698	3698	3698	3698	3698	3698	3698	3698	3738	3698	3698	3738	3738	3738	4406	4350	4350	4350	4350	4350	4350	4350	4350	4350	4296	4296	4296	4350	4350	4296	4296	4296	4350	4350	4406	4463	4581	4581	4581	4581	4521	4521	4463	4406	4406	4406	4463	4463	4463	4463	4463	4463	4463	4406	4406	4406	4463	4463	4463	4463	4521	4521	4521	4521	4521	4521	4463	4406	4406	4406	4463	4463	4463	4463	4463	4521	4521	4521	4521	4521	4463	4463	4463	4463	4463	4463	4463	4463	4463	4463	4463	4463	4463	4463	4463	4406	4406	4406	4406	4406	4406	4463	4463	4463	4521	4521	4521	4521	4521	4463	4406	4350	4350	4350	4350	4350	4350	4350	4350	4296	4296	4243	4243	4243	4243	4243	4243	4243	4243	4192	4192	4192	4192	4192	4192	4192	4192	4192	4192	4192	4192	4192	4192	4192	4192	4192	4192	4192	4192	4192	4192	4192	4192	4192	4192	4142	4142	4142	4142	4142	4142	4142	4142	4142	4142	4192	4192	4192	4192	4192	4192	4192	4192	4243	4243	4243	4296	4296	4296	4296	4243	4243	4296	4296	4296	4296	4296	4296	4296	4243	4243	4243	4243	4243	4296	4296	4296	4296	4296	4296	4296	4296	4243	4243	4192	4192	0	0	2514	2514	2496	2496	2478	2478	2478	2478	2460	2443	2443	2426	2426	2426	2426	2426	2426	2426	2426	2426	2426	2426	2409	2392	2392	2376	2376	2376	2376	2376	2376	2376	2376	2376	2392	2392	2392	2392	2392	2392	2409	2409	2409	2409	2409	2409	2409	2409	2409	2409	2409	2426	2426	2443	2443	2460	2460	2460	2460	2460	2460	2460	2460	2443	2426	2409	2409	2392	2392	2392	2392	2376	2376	2376	2376	2359	2327	2312	2312	2297	2297	2297	2281	2266	2266	2266	2252	2237	2223	2208	2208	0	0	0	0	0	0	0	0	0	0	0	0	0	0	0	0	0	0	0	0	0	0	0	0	0	0	0	0	0	0	0	0	0	0	0
0	0	0	0	0	0	0	0	0	0	0	0	0	0	0	0	0	0	0	4296	4296	4350	4406	4406	4406	4406	4406	4406	4406	4406	4406	4463	4521	4581	4581	4581	4581	4581	4643	4581	4643	4643	4643	4643	4581	4581	4521	4521	4581	4581	4581	4643	4706	4706	4706	4706	4706	4706	4706	4706	4706	4706	4706	4581	4581	4521	4521	0	0	0	0	0	4521	4581	4643	4771	4771	4771	4706	4771	4706	4643	4643	4643	4643	0	0	4706	4706	4706	4838	4838	4771	4771	4771	4771	4706	4706	0	0	0	0	0	0	0	0	0	0	0	4243	4243	4243	4243	4243	4243	4243	4243	4243	4243	4243	4350	4350	4350	4350	4296	4350	4350	4350	4350	4350	4350	4350	4350	4350	4406	4463	4463	4581	4643	4643	4643	4643	4643	4643	4643	4643	4643	4581	4581	4581	0	0	0	0	0	0	6235	6124	6235	6235	6235	6235	6235	6235	6235	6235	6235	6235	6235	6235	6235	6235	6235	6235	6235	6235	6235	6124	6124	6124	6124	6124	6018	0	0	0	0	0	0	0	0	0	0	0	0	0	0	0	0	0	0	0	0	0	0	7779	7779	7608	7608	7608	7608	7444	7444	7444	7444	7444	7608	7608	7608	7608	7608	7608	7608	7608	7608	7608	7608	7608	7608	7608	7608	7444	7287	7444	7137	7137	7137	7137	7287	7444	7444	7444	7287	7287	7287	7444	7444	7444	7608	7608	7608	7608	7608	7608	7608	7444	7444	7444	7444	7444	7444	7444	7444	7608	7608	7608	7608	7608	7608	7608	7608	7608	7608	0	0	0	0	0	3698	3698	3698	3698	3698	3659	3659	3659	3659	3659	3659	3698	3698	3698	3698	3698	3698	3698	3698	3738	3738	3738	3738	3738	3738	3738	3738	3698	3698	3659	3659	3698	3698	3698	3698	3698	3738	3738	3698	3738	3738	4406	4406	4350	4350	4350	4350	4350	4350	4350	4350	4350	4350	4350	4296	4350	4350	4350	4296	4296	4296	4350	4406	4521	4581	4643	4581	4581	4521	4521	4521	4463	4406	4406	4406	4406	4406	4406	4406	4406	4406	4406	4406	4406	4406	4406	4463	4463	4521	4521	4521	4521	4463	4463	4463	4406	4406	4406	4406	4406	4406	4406	4406	4463	4463	4463	4463	4463	4463	4406	4406	4406	4406	4406	4406	4350	4350	4406	4406	4350	4406	4406	4406	4406	4406	4406	4406	4406	4406	4406	4406	4463	4463	4463	4521	4463	4463	4406	4350	4296	4350	4350	4350	4350	4350	4350	4350	4296	4296	4296	4296	4243	4243	4243	4243	4243	4243	4192	4192	4192	4192	4192	4192	4192	4192	4192	4243	4192	4192	4243	4192	4192	4192	4192	4192	4192	4192	4192	4192	4192	4192	4192	4192	4142	4142	4142	4142	4142	4142	4142	4142	4142	4192	4192	4192	4192	4192	4192	4192	4192	4192	4243	4243	4243	4296	4243	4296	4296	4243	4243	4296	4296	4296	4296	4296	4296	4296	4243	4243	4243	4243	4243	4296	4350	4296	4296	4296	4296	4296	4296	4243	4243	4243	4243	0	0	2532	2514	2514	2496	2496	2496	2478	2460	2443	2443	2443	2426	2426	2426	2426	2426	2426	2426	2426	2426	2426	2426	2409	2409	2409	2392	2392	2376	2376	2376	2376	2376	2376	2376	2392	2392	2392	2392	2392	2392	2409	2409	2392	2409	2409	2409	2409	2409	2409	2409	2426	2426	2426	2443	2443	2460	2460	2514	2460	2460	2460	2460	2460	2426	2426	2409	2409	2392	2392	2392	2392	2376	2376	2376	2376	2376	2359	2327	2312	2312	2297	2297	2281	2281	2266	2266	2252	2237	2223	2208	2208	0	0	0	0	0	0	0	0	0	0	0	0	0	0	0	0	0	0	0	0	0	0	0	0	0	0	0	0	0	0	0	0	0	0	0
0	0	0	0	0	0	0	0	0	0	0	0	0	0	0	0	0	0	0	0	4296	4350	4406	4406	4406	4406	4406	4406	4406	4406	4406	4406	4463	4521	4521	4521	4581	4581	4581	4581	4643	4643	4643	4581	4581	4521	4521	4521	4521	4521	4581	4643	4706	4706	4706	4706	4706	4706	4706	4706	4706	4706	4643	4581	4581	4521	4581	4581	0	0	0	0	4521	4581	4643	4706	4771	4706	4706	4771	4771	4643	4643	4643	4643	0	0	4706	4706	4838	4771	4771	4771	4771	4771	4771	4771	4706	0	0	0	0	0	0	0	0	0	0	0	4296	4296	4243	4243	4243	4243	4243	4243	4192	4243	4243	4296	4296	4296	4296	4296	4350	4350	4350	4350	4350	4350	4350	4350	4350	4406	4521	4521	4581	4643	4643	4643	4643	4643	4643	4643	4643	4581	4643	4643	4643	0	0	0	0	0	0	6349	6235	6349	6235	6235	6235	6235	6235	6235	6235	6235	6235	6235	6235	6235	6349	6349	6235	6235	6235	6235	6124	6124	6124	6124	6124	0	0	0	0	0	0	0	0	0	0	0	0	0	0	0	0	0	0	0	0	0	0	0	0	7779	7608	7608	7608	7608	0	0	0	7444	7444	7608	7608	7608	7608	7608	7608	7608	7608	7608	7608	7608	7608	7608	7608	7608	7444	7444	7444	7287	7287	7287	7287	7444	7444	7287	7137	7137	7287	7287	7287	7444	7444	7444	7608	7608	7608	7608	7608	7608	7444	7444	7444	7444	7444	7444	7444	7444	7608	7608	7779	7608	7608	7608	7608	7608	7608	7608	0	0	0	0	0	0	3698	3698	3698	3698	3659	3659	3659	3659	3698	3659	3698	3698	3698	3698	3698	3698	3698	3698	3738	3698	3738	3738	3738	3738	3738	3738	3698	3698	3659	3659	3659	3698	3698	3698	3698	3698	3698	3698	3698	4406	4406	4406	4350	4350	4350	4350	4350	4350	4350	4350	4350	4350	4296	4296	4296	4296	4296	4350	4350	4350	4463	4521	4581	4581	4581	4581	4581	4581	4581	4521	4463	4406	4406	4406	4350	4350	4350	4406	4350	4350	4350	4350	4350	4350	4406	4406	4463	4463	4463	4463	4463	4463	4463	4406	4406	4406	4406	4406	4350	4350	4406	4406	4406	4406	4406	4406	4463	4406	4406	4350	4350	4350	4350	4350	4350	4350	4350	4350	4350	4406	4406	4406	4350	4406	4406	4350	4406	4350	4350	4406	4406	4406	4350	4350	4406	4406	4350	4296	4296	4296	4350	4350	4350	4350	4350	4350	4350	4350	4350	4350	4296	4296	4243	4243	4243	4243	4192	4192	4192	4192	4192	4192	4192	4192	4192	4243	4192	4243	4243	4243	4192	4192	4192	4192	4192	4192	4192	4192	4192	4192	4192	4192	4192	4192	4142	4142	4142	4142	4142	4192	4142	4192	4192	4192	4192	4192	4192	4192	4192	4192	4243	4243	4243	4243	4243	4243	4243	4243	4243	4296	4296	4296	4296	4296	4296	4296	4243	4296	4296	4296	4296	4350	4406	4350	4350	4350	4350	4296	4296	4243	4243	4243	4243	0	0	2532	2514	2514	2496	2496	2478	2478	2460	2443	2443	2443	2443	2443	2426	2426	2426	2426	2426	2426	2426	2426	2426	2409	2409	2392	2392	2392	2376	2376	2376	2376	2376	2376	2376	2392	2392	2392	2392	2392	2409	2409	2409	2392	2409	2409	2409	2409	2409	2409	2409	2426	2426	2426	2443	2443	2460	2478	2514	2514	2478	2460	2460	2460	2443	2426	2409	2409	2409	2392	2392	2392	2376	2376	2376	2376	2359	2359	2327	2312	2312	2297	2297	2281	2281	2266	2266	2252	2237	2237	2223	2208	2208	0	0	0	0	0	0	0	0	0	0	0	0	0	0	0	0	0	0	0	0	0	0	0	0	0	0	0	0	0	0	0	0	0	0
0	0	0	0	0	0	0	0	0	0	0	0	0	0	0	0	0	0	0	0	4350	4350	4350	4350	4350	4406	4406	4406	4406	4406	4406	4406	4463	4521	4521	4521	4521	4581	4581	4581	4581	4643	4581	4581	4581	4521	4521	4521	4521	4521	4521	4581	4643	4643	4643	4706	4706	4706	4706	4706	4706	4706	4706	4643	4581	4521	4581	4521	4521	4521	0	0	4521	4581	4643	4706	4771	4706	4771	4643	4643	4643	4643	4643	4643	0	0	4771	4838	4838	4838	4838	4771	4771	4771	4838	4838	0	0	0	0	0	0	0	0	0	0	0	4243	4296	4296	4243	4243	4243	4243	4243	4243	4192	4192	4243	4296	4296	4296	4350	4296	4350	4350	4350	4350	4350	4350	4350	4350	4406	4406	4521	4581	4643	4643	4643	4643	4643	4643	4643	4643	4643	4643	4643	5282	5282	0	0	0	0	0	6349	6235	6235	6349	6349	6235	6235	6235	6235	6235	6235	6235	6235	6235	6235	6235	6349	6235	6235	6235	6235	6124	6124	6124	6124	6124	6124	0	0	0	0	0	0	0	0	0	0	0	0	0	0	0	0	0	0	0	0	0	0	0	0	0	0	0	0	0	0	0	0	0	0	7608	7608	7608	7608	7608	7608	7608	7444	7608	7608	7608	7608	7608	7608	7608	7608	7444	7444	7444	7444	7444	7287	7287	7444	7137	7137	7137	7137	7137	7137	7287	7287	7444	7608	7608	7608	7608	7608	7608	7608	7444	7444	7608	7608	7608	7444	7444	7608	7608	7608	7608	7779	7608	7608	7608	7608	0	0	0	0	0	0	0	3698	3698	3698	3698	3698	3698	3698	3659	3698	3659	3698	3698	3698	3698	3698	3698	3698	3698	3698	3738	3738	3738	3738	3738	3738	3738	3698	3698	3659	3659	3659	3698	3698	3698	3698	3738	3698	3698	3698	4406	4350	4350	4350	4350	4350	4350	4350	4350	4350	4350	4350	4350	4296	4296	4296	4296	4350	4350	4350	4350	4406	4521	4521	4581	4581	4581	4581	4581	4581	4521	4521	4406	4350	4350	4350	4350	4350	4350	4350	4350	4350	4350	4350	4350	4350	4350	4406	4406	4406	4406	4406	4406	4406	4350	4350	4350	4350	4350	4350	4350	4350	4350	4350	4350	4296	4296	4296	4296	4296	4296	4296	4350	4350	4350	4350	4350	4296	4350	4296	4350	4350	4350	4350	4350	4350	4350	4350	4350	4350	4350	4350	4350	4296	4296	4296	4350	4296	4243	4243	4296	4296	4296	4296	4350	4350	4350	4296	4350	4296	4296	4243	4243	4243	4243	4243	4243	4192	4192	4192	4192	4192	4192	4192	4192	4192	4192	4243	4243	4243	4243	4243	4192	4192	4192	4192	4192	4192	4192	4192	4192	4192	4192	4192	4192	4192	4192	4142	4142	4142	4192	4142	4192	4192	4192	4192	4192	4192	4192	4192	4192	4243	4243	4243	4243	4243	4243	4243	4243	4243	4296	4243	4243	4243	4296	4296	4296	4296	4296	4296	4350	4350	4406	4406	4406	4406	4350	4350	4350	4296	4243	4243	4243	4243	0	0	2532	2514	2514	2496	2496	2478	2460	2460	2443	2443	2443	2443	2443	2443	2426	2426	2426	2426	2426	2426	2426	2426	2409	2409	2409	2392	2392	2376	2376	2376	2376	2376	2376	2376	2392	2392	2392	2392	2392	2392	2409	2409	2392	2409	2409	2409	2409	2409	2409	2409	2426	2426	2443	2443	2443	2478	2514	2514	2514	2460	2460	2460	2460	2443	2426	2426	2409	2409	2392	2392	2392	2376	2376	2376	2359	2359	2343	2327	2312	2297	2297	2297	2281	2266	2266	2252	2252	2237	2237	2223	2208	2208	0	0	0	0	0	0	0	0	0	0	0	0	0	0	0	0	0	0	0	0	0	0	0	0	0	0	0	0	0	0	0	0	0	0
0	0	0	0	0	0	0	0	0	0	0	0	0	0	0	0	0	0	0	0	4350	4406	4406	4406	4406	4406	4463	4463	4521	4463	4463	4463	4463	4521	4521	4521	4521	4521	4521	4581	4581	4581	4581	4581	4581	4581	4581	4521	4521	4521	4581	4581	4643	4643	4643	4643	4706	4706	4706	4706	4706	4643	4643	4643	4581	4581	4581	4521	4463	4463	4463	0	4521	4643	4643	4706	4706	4706	4643	4581	4581	4581	4581	4643	4643	0	0	4771	4838	4838	4771	4838	4771	4771	4771	4838	4838	0	0	0	0	0	0	0	0	0	0	0	4192	4243	4243	4243	4243	4243	4243	4192	4192	4192	4192	4243	4296	4296	4296	4296	4350	4350	4350	4350	4406	4350	4350	4350	4406	4406	4406	4463	4521	4643	4643	4643	4643	4643	4643	4643	4643	4643	4643	4643	5282	5364	5364	0	0	0	0	6349	6235	6235	6349	6235	6235	6235	6235	6235	6235	6235	6235	6235	6235	6235	6349	6349	6235	6124	6235	6235	6235	6235	6124	0	0	0	0	0	0	0	0	0	0	0	0	0	0	0	0	0	0	0	0	0	0	0	0	0	0	0	0	0	0	0	0	0	0	0	0	0	0	0	0	0	7608	7608	7444	7444	7608	7608	7608	7608	7608	7608	7608	7608	7608	7608	7444	7444	7444	7444	7444	7444	7137	7137	7137	7137	7137	7137	7287	7287	7444	7779	7779	7779	7779	7608	7608	7608	0	0	7608	7608	7608	0	0	0	7608	7608	7608	7779	7608	7608	7608	0	0	0	0	0	0	0	3698	3698	3698	3698	3698	3698	3698	3659	3659	3659	3659	3659	3698	3698	3698	3698	3698	3698	3698	3698	3738	3738	3738	3738	3738	3698	3698	3698	3698	3621	3621	3659	3659	3698	3698	3738	3738	3738	3738	4350	4406	4350	4350	4350	4350	4350	4350	4350	4350	4350	4350	4350	4350	4296	4296	4350	4350	4350	4350	4350	4350	4406	4521	4521	4581	4581	4581	4581	4581	4581	4581	4521	4406	4350	4350	4350	4350	4350	4350	4350	4296	4296	4296	4296	4296	4350	4350	4406	4406	4406	4406	4406	4406	4350	4350	4350	4350	4350	4350	4350	4296	4296	4296	4296	4296	4296	4296	4296	4243	4296	4296	4296	4296	4296	4296	4296	4296	4296	4296	4296	4350	4350	4350	4350	4350	4350	4350	4350	4350	4350	4350	4350	4350	4296	4243	4296	4296	4296	4243	4243	4243	4296	4296	4296	4296	4296	4296	4296	4296	4296	4296	4296	4296	4296	4243	4296	4243	4243	4243	4243	4192	4192	4192	4192	4192	4192	4243	4243	4243	4243	4243	4243	4243	4243	4192	4243	4192	4192	4192	4192	4192	4192	4192	4192	4192	4192	4192	4192	4142	4142	4192	4192	4192	4192	4192	4243	4192	4192	4192	4192	4192	4243	4243	4243	4243	4243	4243	4243	4243	4243	4243	4243	4243	4243	4243	4243	4296	4296	4296	4296	4350	4406	4406	4406	4406	4406	4350	4350	4350	4296	4296	4243	4243	4243	0	0	2532	2514	2514	2496	2496	2478	2460	2460	2443	2443	2443	2443	2443	2443	2426	2443	2426	2426	2426	2426	2426	2426	2409	2409	2409	2392	2392	2392	2376	2376	2376	2376	2376	2376	2392	2392	2392	2392	2392	2409	2409	2409	2392	2392	2409	2426	2409	2409	2409	2409	2426	2426	2426	2426	2426	2426	2426	2514	2514	2460	2460	2460	2460	2443	2443	2426	2409	2409	2392	2392	2376	2376	2376	2359	2359	2343	2343	2327	2312	2297	2297	2297	2281	2281	2266	2266	2252	2252	2237	2223	2208	2208	0	0	0	0	0	0	0	0	0	0	0	0	0	0	0	0	0	0	0	0	0	0	0	0	0	0	0	0	0	0	0	0	0	0
0	0	0	0	0	0	0	0	0	0	0	0	0	0	0	0	0	0	0	0	4350	4406	4406	4406	4406	4463	4521	4521	4521	4521	4521	4521	4521	4521	4521	4521	4521	4581	4581	4581	4521	4581	4581	4581	4581	4581	4581	4581	4581	4581	4581	4581	4643	4581	4643	4643	4643	4706	4706	4706	4706	4706	4643	4643	4581	4581	4521	4521	4521	4521	4406	4521	4521	4581	4643	4643	4706	4643	4643	4521	4521	4463	4463	4463	0	0	0	0	4838	4838	4771	4771	4771	4771	4838	4838	4838	0	0	0	0	0	0	0	0	0	0	0	4296	4296	4296	4296	4243	4243	4243	4192	4192	4192	4192	4243	4243	4296	4296	4350	4296	4350	4350	4350	4350	4350	4350	4350	4350	4406	4406	4463	4521	4581	4643	4643	4643	4643	4643	4643	4643	4706	4643	4706	5202	5282	5364	5364	5448	5448	0	6124	6124	6124	6235	6235	6235	6235	6235	6235	6235	6235	6235	6235	6235	6235	6124	6124	6124	6018	6018	6235	6235	6235	0	0	0	0	0	0	0	0	0	0	0	0	0	0	0	0	0	0	0	0	0	0	0	0	0	0	0	0	0	0	0	0	0	0	0	0	0	0	0	0	0	0	0	0	7444	7444	7608	7608	7608	7608	7608	7608	7608	7608	7608	7608	7444	7444	7444	7444	7444	7444	6992	6992	6992	7137	7137	7137	7137	7287	7444	7779	7779	7779	7779	7779	7779	7608	0	0	0	0	0	0	0	0	0	0	0	0	0	0	0	0	0	0	0	0	0	0	3698	3698	3698	3698	3698	3698	3698	3659	3659	3659	3659	3659	3698	3698	3698	3698	3698	3698	3738	3738	3738	3738	3738	3738	3698	3698	3698	3698	3659	3621	3621	3659	3659	3659	3698	3738	3738	3738	3738	4350	4350	4350	4350	4350	4350	4350	4350	4350	4350	4350	4350	4350	4350	4296	4350	4350	4350	4350	4350	4350	4350	4406	4521	4521	4521	4581	4581	4581	4581	4581	4581	4521	4463	4406	4350	4350	4350	4296	4350	4296	4296	4296	4296	4296	4296	4296	4350	4350	4350	4350	4350	4350	4350	4350	4296	4296	4296	4296	4296	4296	4296	4296	4296	4296	4296	4296	4296	4296	4243	4296	4243	4296	4296	4296	4296	4296	4296	4296	4296	4296	4350	4350	4350	4350	4350	4350	4350	4350	4350	4350	4350	4350	4296	4296	4243	4296	4296	4296	4243	4243	4243	4243	4296	4296	4296	4296	4350	4296	4296	4296	4296	4296	4296	4296	4243	4243	4296	4296	4296	4296	4243	4243	4243	4192	4192	4192	4243	4243	4243	4243	4243	4243	4243	4243	4192	4243	4192	4192	4192	4192	4192	4192	4192	4192	4192	4192	4192	4192	4192	4192	4192	4192	4192	4192	4192	4192	4192	4192	4192	4192	4192	4243	4243	4243	4243	4243	4243	4243	4243	4243	4243	4243	4243	4243	4243	4243	4243	4296	4296	4350	4406	4406	4463	4463	4406	4406	4350	4350	4350	4296	4296	4243	4243	4243	0	0	0	2514	2514	2496	2478	2460	2460	2443	2443	2443	2443	2443	2443	2443	2426	2426	2426	2426	2426	2426	2426	2426	2409	2426	2426	2409	2409	2392	2376	2376	2376	2376	2376	2392	2392	2409	2392	2392	2392	2409	2409	2409	2392	2392	2409	2426	2426	2409	2409	2409	2409	2409	2426	2409	2409	2409	2532	2532	2532	0	0	0	2460	2443	2443	2426	2426	2409	2409	2392	2376	2376	2376	2359	2343	2343	2327	2327	2312	2312	2297	2297	2281	2281	2266	2266	2252	2252	2237	2223	2208	2208	0	0	0	0	0	0	0	0	0	0	0	0	0	0	0	0	0	0	0	0	0	0	0	0	0	0	0	0	0	0	0	0	0	0
0	0	0	0	0	0	0	0	0	0	0	0	0	0	0	0	0	0	0	0	4350	4406	4406	4406	4406	4406	4521	4521	4521	4521	4521	4521	4521	4521	4521	4521	4521	4521	4521	4521	4521	4581	4581	4581	4581	4581	4643	4643	4643	4643	4581	4581	4581	4581	4706	4643	4706	4706	4706	4706	4706	4706	4706	4706	4706	4581	4581	4581	4521	4521	4463	4463	4643	4643	4706	4643	4706	4643	4643	4581	4521	4463	4463	4463	0	0	0	0	0	0	0	4771	4771	4771	4771	4771	4838	0	0	0	0	0	0	0	0	0	0	4296	4296	4296	4296	4296	4243	4296	4243	4243	4243	4243	4243	4243	4296	4296	4350	4350	4296	4350	4350	4350	4350	4350	4350	4350	4406	4406	4463	4521	4581	4643	4643	4643	4643	4643	4643	4643	4643	4643	4643	4706	5125	5202	5282	5364	5448	5535	5815	6018	6124	6124	6235	6124	6124	6124	6124	6018	6018	6235	6235	6235	6235	6235	6124	6124	6018	6018	6018	0	0	0	0	0	0	0	0	0	0	0	0	0	0	0	0	0	0	0	0	0	0	0	0	0	0	0	0	0	0	0	0	0	0	0	0	0	0	0	0	0	0	0	0	0	0	0	0	7444	7608	7444	7608	7608	7608	7608	7608	7608	7608	7444	7444	7444	7444	7444	7444	7444	6992	6992	6992	7137	7137	7137	7137	0	0	0	0	0	7779	7779	7779	0	0	0	0	0	0	0	0	0	0	0	0	0	0	0	0	0	0	0	0	0	0	0	3698	3698	3698	3698	3698	3698	3698	3659	3659	3659	3659	3659	3698	3698	3698	3698	3698	3698	3698	3698	3698	3698	3698	3698	3698	3698	3698	3698	3659	3659	3621	3659	3659	3659	3698	3698	3698	3698	4296	4350	4350	4350	4350	4350	4350	4350	4350	4350	4350	4350	4350	4350	4350	4350	4350	4350	4350	4350	4350	4350	4406	4406	4521	4521	4521	4581	4581	4581	4581	4581	4581	4581	4521	4406	4350	4350	4350	4296	4296	4296	4296	4296	4296	4296	4296	4296	4350	4350	4350	4350	4296	4296	4296	4296	4296	4296	4296	4296	4296	4296	4296	4296	4296	4296	4296	4296	4243	4243	4243	4243	4243	4243	4243	4296	4296	4296	4296	4296	4296	4296	4350	4350	4350	4350	4350	4350	4350	4350	4350	4350	4350	4350	4350	4296	4296	4350	4350	4350	4296	4296	4296	4296	4296	4296	4296	4296	4350	4296	4296	4296	4296	4296	4243	4296	4296	4296	4296	4296	4296	4243	4243	4243	4243	4192	4192	4192	4243	4243	4243	4243	4243	4243	4243	4243	4243	4243	4243	4192	4192	4192	4192	4192	4192	4192	4192	4192	4192	4243	4192	4192	4192	4192	4192	4192	4192	4192	4192	4192	4192	4192	4192	4243	4243	4243	4243	4243	4243	4243	4243	4243	4243	4243	4243	4243	4243	4243	4243	4350	4406	4463	4463	4463	4463	4463	4406	4406	4350	4350	4350	4296	4296	4243	4243	4243	0	0	0	2514	2514	2496	2460	2460	2460	2443	2443	2443	2443	2426	2443	2426	2426	2426	2426	2409	2426	2426	2409	2409	2409	2426	2426	2426	2409	2392	2392	2392	2376	2376	2376	2392	2392	2392	2392	2392	2392	2409	2392	2376	2376	2392	2409	2409	2426	2409	2409	2409	2409	2409	2409	2426	2426	2426	2532	2532	2532	0	0	0	0	2443	2443	2426	2426	2409	2409	2392	2376	2376	2359	2359	2343	2343	2327	2327	2312	2297	2297	2281	2266	2266	2266	2252	2237	2237	2237	2223	2208	2208	0	0	0	0	0	0	0	0	0	0	0	0	0	0	0	0	0	0	0	0	0	0	0	0	0	0	0	0	0	0	0	0	0	0
0	0	0	0	0	0	0	0	0	0	0	0	0	0	0	0	0	0	0	0	4350	4350	4350	4406	4406	4521	4521	4521	4521	4521	4521	4521	4521	4521	4521	4521	4581	4521	4521	4581	4581	4581	4581	4581	4581	4643	4643	4643	4643	4643	4581	4581	4706	4706	4706	4706	4706	4706	4706	4706	4706	4706	4643	4643	4643	4643	4581	4521	4463	4463	4463	4463	4706	4706	4706	4706	4706	4643	4643	4581	4581	4521	4521	4463	0	0	0	0	0	0	0	4706	4771	4771	4771	4771	0	0	0	0	0	0	0	0	0	0	0	4296	4296	4296	4296	4296	4243	4296	4296	4296	4296	4296	4243	4243	4296	4296	4296	4350	4296	4350	4350	4350	4350	4350	4350	4350	4406	4406	4463	4521	4581	4643	4643	4643	4643	4643	4643	4643	4643	4706	4706	4771	4906	5125	5282	5364	5448	5535	5626	5815	6018	6018	6124	6124	6018	6018	6235	6018	6018	0	0	0	0	0	0	0	6018	6018	6018	0	0	0	0	0	0	0	0	0	0	0	0	0	0	0	0	0	0	0	0	0	0	0	0	0	0	0	0	0	0	0	0	0	0	0	0	0	0	0	0	0	0	0	0	0	0	0	0	0	0	7444	7608	7608	7444	7608	7608	7608	7608	7444	7444	7444	7287	7287	0	0	0	6992	6992	0	0	0	0	0	0	0	0	0	0	0	0	0	0	0	0	0	0	0	0	0	0	0	0	0	0	0	0	0	0	0	0	0	0	0	3738	3698	3698	3698	3659	3659	3659	3621	3621	3621	3621	3659	3659	3659	3659	3698	3698	3698	3698	3698	3698	3698	3698	3698	3698	3698	3659	3659	3659	3659	3621	3621	3659	3659	3698	3698	3698	4296	4296	4350	4350	4350	4350	4350	4350	4296	4350	4350	4350	4350	4350	4350	4350	4296	4350	4350	4350	4350	4350	4350	4406	4463	4521	4521	4581	4581	4581	4581	4581	4581	4581	4581	4521	4406	4350	4350	4350	4296	4296	4296	4296	4296	4296	4296	4296	4296	4296	4350	4350	4296	4296	4296	4296	4296	4296	4296	4296	4296	4296	4296	4296	4296	4296	4296	4296	4296	4243	4243	4243	4243	4243	4243	4243	4296	4296	4296	4296	4296	4296	4296	4350	4350	4350	4350	4350	4350	4350	4350	4350	4350	4350	4350	4350	4350	4350	4350	4350	4350	4296	4296	4296	4296	4296	4296	4296	4296	4296	4296	4296	4296	4296	4296	4296	4296	4296	4296	4296	4296	4296	4296	4243	4243	4243	4192	4192	4192	4243	4243	4243	4296	4296	4296	4243	4243	4243	4243	4192	4192	4192	4192	4192	4192	4192	4192	4192	4192	4192	4243	4192	4192	4192	4192	4192	4192	4192	4192	4192	4192	4192	4192	4192	4243	4243	4243	4243	4243	4243	4243	4243	4243	4243	4243	4243	4243	4243	4243	4296	4350	4463	4463	4463	4463	4463	4463	4463	4406	4350	4350	4350	4350	4296	4243	4296	4296	4296	0	0	0	2496	2478	2478	2460	2460	2443	2443	2443	2443	2443	2443	2443	2426	2426	2426	2409	2409	2409	2409	2409	2409	2426	2426	2426	2409	2392	2392	2392	2376	2376	2376	2392	2376	2376	2376	2376	2376	2376	2376	2376	2376	2392	2409	2426	2426	2426	2409	2409	2392	2392	2392	2426	2426	2426	0	0	0	0	0	0	0	2443	2443	2443	2426	2426	2409	2392	2376	2376	2359	2343	2343	2327	2327	2327	2297	2297	2281	2266	2266	2266	2266	2252	2237	2237	2237	2223	2208	2208	0	0	0	0	0	0	0	0	0	0	0	0	0	0	0	0	0	0	0	0	0	0	0	0	0	0	0	0	0	0	0	0	0	0
0	0	0	0	0	0	0	0	0	0	0	0	0	0	0	0	0	0	0	0	4350	4350	4350	4350	4406	4521	4521	4521	4521	4521	4521	4521	4521	4521	4521	4521	4581	4581	4521	4521	4581	4581	4581	4581	4581	4643	4643	4643	4643	4643	4581	4581	4706	4706	4706	4706	4706	4706	4706	4706	4706	4706	4643	4643	4643	4581	4581	4581	4463	4521	4521	4463	4706	4706	4706	4643	4706	4643	4643	4643	4643	4581	4581	4581	0	0	0	0	0	0	0	4771	4771	4771	4771	4771	4771	0	0	0	0	0	0	0	0	0	0	4350	4350	4296	4350	4296	4243	4296	4296	4243	4296	4296	4243	4243	4296	4296	4296	4350	4350	4350	4350	4350	4350	4350	4350	4350	4406	4406	4463	4521	4581	4643	4643	4643	4643	4643	4643	4643	4643	4706	4706	4706	4838	5050	5202	5202	5448	5535	5626	5535	5815	5915	6124	6124	6018	6124	6124	6124	6018	0	0	0	0	0	0	0	0	0	0	0	0	0	0	0	0	0	0	0	0	0	0	0	0	0	0	0	0	0	0	0	0	0	0	0	0	0	0	0	0	0	0	0	0	0	0	0	0	0	0	0	0	0	0	0	0	0	0	0	0	0	7608	7444	7444	7608	7608	7608	7608	7444	7444	7444	7444	7287	0	0	0	0	0	0	0	0	0	0	0	0	0	0	0	0	0	0	0	0	0	0	0	0	0	0	0	0	0	0	0	0	0	0	0	0	0	0	0	0	3738	3698	3698	3698	3659	3698	3659	3621	3621	3659	3621	3621	3659	3621	3659	3659	3659	3698	3698	3698	3698	3698	3698	3698	3659	3659	3659	3659	3621	3659	3659	3659	3659	3659	3698	3698	3659	3659	4350	4350	4350	4350	4350	4296	4296	4296	4296	4296	4296	4350	4350	4350	4350	4350	4350	4350	4350	4350	4350	4350	4406	4463	4521	4581	4581	4581	4581	4581	4581	4581	4581	4581	4521	4406	4350	4350	4350	4296	4296	4296	4296	4296	4296	4296	4296	4296	4296	4296	4296	4296	4296	4296	4296	4296	4296	4296	4296	4296	4296	4296	4296	4296	4296	4296	4243	4243	4243	4243	4243	4243	4243	4243	4243	4296	4296	4296	4296	4296	4296	4296	4350	4350	4350	4350	4350	4350	4350	4350	4350	4350	4350	4350	4296	4296	4350	4350	4350	4350	4296	4296	4296	4296	4296	4296	4296	4296	4296	4296	4296	4296	4296	4296	4296	4296	4296	4296	4296	4296	4296	4296	4296	4243	4243	4192	4192	4192	4192	4243	4243	4296	4296	4243	4243	4243	4243	4243	4192	4192	4192	4192	4192	4192	4192	4192	4192	4192	4243	4243	4192	4192	4192	4243	4192	4192	4192	4192	4192	4192	4192	4192	4192	4192	4243	4243	4243	4243	4243	4243	4243	4243	4243	4243	4243	4243	4243	4243	4296	4350	4406	4463	4463	4463	4463	4463	4406	4406	4350	4406	4350	4350	4350	4296	4350	4350	4350	0	0	0	2496	2460	2478	2460	2460	2443	2443	2443	2443	2443	2443	2443	2426	2426	2426	2409	2409	2409	2409	2409	2409	2426	2426	2409	2392	2392	2376	2376	2359	2359	2359	2359	2376	2376	2376	2376	2376	2376	2376	2376	2392	2409	2409	2426	2426	2409	2392	2392	2392	2376	2392	2426	2426	2426	0	0	0	0	0	0	0	2443	2443	2443	2426	2409	2409	2392	2376	2376	2376	2359	2343	2327	2327	2327	2297	2297	2297	2281	2266	2266	2266	2252	2252	2252	2237	2223	2208	2208	0	0	0	0	0	0	0	0	0	0	0	0	0	0	0	0	0	0	0	0	0	0	0	0	0	0	0	0	0	0	0	0	0	0
0	0	0	0	0	0	0	0	0	0	0	0	0	0	0	0	0	0	0	0	4350	4350	4350	4350	4406	4521	4521	4521	4521	4521	4521	4521	4521	4521	4521	4581	4581	4581	4581	4521	4581	4581	4581	4643	4643	4643	4706	4643	4643	4643	4643	4643	4643	4706	4706	4643	4706	4706	4643	4643	4643	4643	4643	4643	4581	4581	4581	4521	4463	4521	4521	4521	0	0	4706	4706	4706	4643	4643	4643	4643	4643	4643	4581	0	0	0	0	0	0	0	4771	4771	4771	4771	4771	4771	0	0	0	0	0	0	0	0	4406	4350	4350	4296	4296	4296	4296	4296	4296	4296	4296	4296	4296	4243	4243	4296	4296	4296	4350	4350	4350	4350	4350	4350	4350	4350	4350	4406	4463	4521	4521	4581	4643	4643	4643	4643	4643	4643	4643	4643	4706	4706	4706	4706	4838	4906	4906	5448	5535	5535	5535	5626	5815	6018	6018	6018	6018	6124	6124	0	0	0	0	0	0	0	0	0	0	0	0	0	0	0	0	0	0	0	0	0	0	0	0	0	0	0	0	0	0	0	0	0	0	0	0	0	0	0	0	0	0	0	0	0	0	0	0	0	0	0	0	0	0	0	0	0	0	0	0	0	0	0	7444	7444	7608	7608	7608	7608	7444	7444	7444	7444	0	0	0	0	0	0	0	0	0	0	0	0	0	0	0	0	0	0	0	0	0	0	0	0	0	0	0	0	0	0	0	0	0	0	0	0	0	0	0	0	0	3738	3698	3698	3659	3659	3698	3698	3621	3621	3659	3659	3621	3659	3621	3621	3659	3659	3698	3698	3698	3698	3659	3659	3659	3621	3621	3621	3621	3621	3659	3659	3698	3659	3698	3698	3698	3659	3659	4350	4350	4296	4296	4296	4296	4296	4296	4296	4296	4296	4350	4350	4350	4350	4350	4350	4350	4350	4350	4350	4350	4406	4463	4521	4581	4581	4581	4581	4581	4581	4581	4581	4581	4521	4406	4350	4296	4296	4296	4296	4296	4296	4296	4296	4296	4296	4296	4296	4296	4350	4296	4296	4296	4296	4296	4296	4296	4296	4296	4296	4296	4296	4296	4296	4296	4243	4243	4192	4192	4192	4243	4243	4243	4243	4296	4296	4296	4296	4296	4296	4296	4350	4350	4350	4350	4350	4350	4350	4350	4350	4350	4350	4350	4296	4296	4296	4350	4296	4296	4296	4296	4296	4243	4243	4296	4296	4296	4296	4296	4296	4296	4243	4243	4243	4296	4296	4296	4296	4296	4296	4296	4243	4243	4243	4192	4192	4192	4192	4192	4243	4243	4243	4243	4243	4192	4192	4243	4192	4192	4192	4192	4192	4192	4192	4192	4243	4243	4243	4243	4243	4192	4192	4192	4243	4192	4192	4192	4243	4243	4243	4192	4192	4243	4243	4243	4243	4243	4243	4243	4243	4243	4243	4243	4243	4243	4243	4243	4296	4350	4406	4463	4463	4463	4463	4463	4406	4350	4350	4350	4350	4350	4350	4296	4350	4350	4350	0	0	0	2496	2478	2460	2460	2460	2460	2460	2443	2443	2443	2443	2443	2426	2426	2426	2409	2409	2409	2409	2409	2409	2426	2409	2409	2409	2392	2376	2376	2359	2359	2359	2376	2376	2359	2376	2376	2376	2392	2376	2392	2392	2409	2426	2443	2443	2426	2409	2409	2392	2392	2392	2426	2409	2409	0	0	0	0	0	0	0	2443	2443	2443	2426	2409	2392	2392	2376	2376	2376	2376	2343	2327	2327	2312	2297	2297	2281	2281	2266	2266	2266	2252	2252	2252	2237	2223	2208	2208	0	0	0	0	0	0	0	0	0	0	0	0	0	0	0	0	0	0	0	0	0	0	0	0	0	0	0	0	0	0	0	0	0	0
0	0	0	0	0	0	0	0	0	0	0	0	0	0	0	0	0	0	0	0	4350	4350	4350	4350	4350	4463	4521	4521	4521	4521	4521	4521	4521	4521	4581	4581	4581	4581	4581	4521	4581	4581	4643	4706	4643	4706	4706	4643	4643	4643	4643	4643	4643	4643	4643	4643	4643	4643	4643	4643	4643	4643	4643	4581	4581	4581	4521	4521	4406	4406	4243	4243	0	0	0	4706	4706	4706	4643	4706	4706	4706	4706	0	0	0	0	0	0	0	0	4771	4771	4771	4771	4771	4771	4771	0	0	0	0	0	0	0	4406	4350	4350	4296	4296	4296	4296	4296	4296	4296	4296	4296	4296	4296	4296	4296	4296	4296	4350	4350	4350	4350	4350	4350	4350	4350	4406	4406	4463	4521	4581	4581	4581	4643	4643	4643	4643	4643	4643	4643	4706	4706	4706	4706	4706	4706	4906	5448	5626	5535	5535	5535	5815	5915	5915	5915	6018	6018	6018	0	0	0	0	0	0	0	0	0	0	0	0	0	0	0	0	0	0	0	0	0	0	0	0	0	0	0	0	0	0	0	0	0	0	0	0	0	0	0	0	0	0	0	0	0	0	0	0	0	0	0	0	0	0	0	0	0	0	0	0	0	0	0	7444	7444	7608	7608	7608	7608	7608	7444	0	0	0	0	0	0	0	0	0	0	0	0	0	0	0	0	0	0	0	0	0	0	0	0	0	0	0	0	0	0	0	0	0	0	0	0	0	0	0	0	0	0	0	3738	3698	3659	3659	3659	3659	3659	3659	3621	3621	3621	3621	3621	3621	3621	3659	3659	3659	3659	3659	3659	3659	3659	3659	3621	3621	3621	3621	3621	3659	3659	3659	3698	3698	3698	3698	3659	3659	4350	4350	4350	4350	4350	4296	4296	4296	4350	4296	4296	4296	4350	4350	4350	4296	4350	4350	4350	4350	4350	4350	4406	4463	4521	4581	4581	4581	4581	4581	4581	4581	4581	4521	4521	4350	4350	4296	4296	4296	4296	4296	4296	4296	4296	4296	4296	4296	4296	4296	4296	4296	4296	4296	4296	4296	4296	4296	4296	4296	4296	4296	4296	4296	4296	4296	4243	4243	4243	4243	4243	4243	4243	4243	4243	4296	4296	4243	4243	4243	4296	4296	4350	4350	4350	4350	4350	4350	4350	4350	4350	4350	4350	4350	4296	4296	4296	4350	4296	4296	4296	4296	4296	4296	4243	4243	4296	4296	4296	4296	4296	4296	4296	4296	4296	4296	4296	4296	4296	4296	4296	4296	4243	4243	4192	4192	4192	4192	4192	4192	4243	4243	4243	4243	4192	4192	4192	4192	4192	4192	4192	4192	4192	4192	4192	4192	4192	4192	4243	4243	4243	4243	4243	4192	4243	4192	4192	4192	4192	4192	4192	4192	4192	4243	4243	4243	4243	4243	4243	4243	4243	4243	4243	4243	4243	4243	4243	4243	4296	4350	4406	4406	4463	4463	4406	4406	4406	4350	4350	4350	4350	4350	4350	4296	4350	4350	4350	0	0	0	2496	2478	2460	2460	2460	2460	2460	2443	2443	2443	2443	2426	2426	2426	2426	2409	2409	2409	2409	2409	2409	2426	2409	2409	2392	2376	2376	2376	2359	2359	2359	2376	2359	2359	2359	2376	2376	2392	2392	2392	2392	2409	2426	2443	2443	2426	2409	2409	2392	2392	2392	2409	2409	2426	2426	0	0	0	0	0	0	2426	2443	2426	2426	2409	2392	2392	2376	2376	2376	2376	2343	2327	2327	2312	2297	2297	2281	2281	2266	2266	2266	2266	2252	2252	2237	2223	2208	2208	0	0	0	0	0	0	0	0	0	0	0	0	0	0	0	0	0	0	0	0	0	0	0	0	0	0	0	0	0	0	0	0	0	0
0	0	0	0	0	0	0	0	0	0	0	0	0	0	0	0	0	0	0	0	4350	4350	4350	4350	4350	4350	4406	4463	4521	4521	4521	4521	4521	4521	4521	4581	4581	4581	4521	4521	4581	4581	4581	4581	4581	4706	4706	4706	4643	4771	4643	4706	4706	4706	4706	4706	4706	4706	4643	4581	4643	4643	4581	4581	4581	4521	4521	4463	4406	4406	4406	4243	0	0	0	0	4706	4706	4643	4706	4706	4706	4706	0	0	0	0	0	0	0	0	4771	4771	4771	4771	4771	4643	4643	0	0	0	0	0	0	0	0	0	4350	4296	4296	4296	4296	4296	4296	4296	4296	4350	4350	4296	4350	4350	4296	4296	4296	4296	4350	4350	4350	4350	4350	4350	4406	4406	4463	4521	4581	4581	4643	4643	4643	4643	4643	4643	4643	4643	4706	4706	4706	4706	4643	4643	0	0	5626	5535	5535	5535	5815	5915	5915	6018	6018	6018	6018	0	0	0	0	0	0	0	0	0	0	0	0	0	0	0	0	0	0	0	0	0	0	0	0	0	0	0	0	0	0	0	0	0	0	0	0	0	0	0	0	0	0	0	0	0	0	0	0	0	0	0	0	0	0	0	0	0	0	0	0	0	0	0	7444	7444	7608	7608	7608	7608	7608	0	0	0	0	0	0	0	0	0	0	0	0	0	0	0	0	0	0	0	0	0	0	0	0	0	0	0	0	0	0	0	0	0	0	0	0	0	0	0	0	0	0	0	0	3738	3698	3659	3659	3659	3659	3659	3659	3621	3659	3621	3621	3621	3621	3621	3659	3659	3659	3659	3659	3659	3621	3621	3621	3621	3621	3583	3621	3621	3659	3659	3659	3698	3698	3698	3698	3659	3659	3659	4350	4350	4350	4350	4296	4296	4296	4350	4296	4296	4296	4350	4350	4350	4350	4350	4350	4350	4350	4350	4350	4406	4521	4521	4581	4581	4581	4581	4581	4581	4581	4581	4521	4521	4350	4350	4296	4296	4296	4296	4296	4296	4296	4296	4296	4296	4296	4296	4296	4296	4296	4296	4296	4296	4296	4296	4296	4296	4296	4296	4296	4296	4296	4296	4296	4243	4243	4243	4243	4243	4243	4243	4243	4243	4296	4296	4296	4296	4296	4296	4296	4350	4350	4350	4350	4350	4350	4350	4350	4350	4350	4350	4350	4296	4296	4296	4296	4296	4296	4243	4243	4243	4243	4243	4243	4296	4296	4296	4296	4296	4296	4296	4296	4296	4296	4296	4296	4296	4296	4296	4296	4243	4243	4192	4192	4192	4192	4192	4192	4192	4243	4243	4243	4192	4192	4192	4192	4192	4192	4192	4192	4192	4192	4192	4192	4243	4243	4243	4243	4243	4243	4243	4243	4243	4192	4192	4192	4192	4192	4192	4192	4192	4243	4243	4243	4243	4243	4243	4243	4243	4243	4243	4243	4243	4243	4243	4296	4296	4350	4406	4463	4463	4463	4463	4406	4406	4350	4350	4350	4350	4350	4350	4350	4406	4350	4350	0	0	0	0	2478	2478	2460	2460	2443	2460	2443	2443	2443	2443	2426	2426	2426	2426	2409	2426	2426	2409	2409	2426	2426	2409	2392	2392	2376	2376	2376	2376	2359	2359	2359	2359	2359	2359	2359	2376	2376	2376	2392	2392	2409	2426	2443	2426	2409	2409	2409	2392	2392	2392	2426	2426	2426	2426	0	0	0	0	0	0	2443	2443	2443	2426	2409	2392	2392	2376	2376	2376	2359	2343	2327	2312	2312	2297	2297	2281	2281	2266	2266	2266	2266	2252	2252	2237	2237	2208	2208	0	0	0	0	0	0	0	0	0	0	0	0	0	0	0	0	0	0	0	0	0	0	0	0	0	0	0	0	0	0	0	0	0	0
0	0	0	0	0	0	0	0	0	0	0	0	0	0	0	0	0	0	0	0	4350	4350	4350	4350	4350	4350	4406	4463	4463	4521	4521	4521	4521	4521	4521	4581	4581	4581	4581	4581	4581	4581	4581	4581	4581	4706	4706	4706	4706	4706	4706	4706	4706	4706	4706	4581	4706	4643	4581	4581	4581	4581	4581	4581	4581	4521	4521	4463	4463	4406	4243	4243	0	0	0	0	4706	4706	4706	4706	4706	4706	4706	0	0	0	0	0	0	0	0	4771	4706	4706	4706	4706	4643	4643	0	0	0	0	0	0	0	0	4296	4296	4243	4243	4296	4296	4296	4296	4350	4350	4350	4350	4296	4350	4350	4296	4296	4296	4296	4350	4350	4296	4350	4350	4350	4406	4406	4463	4521	4581	4581	4643	4643	4643	4643	4643	4643	4643	4643	4706	4706	4706	4643	4643	4643	0	0	0	0	0	0	0	0	0	5915	6018	6018	6018	0	0	0	0	0	0	0	0	0	0	0	0	0	0	0	0	0	0	0	0	0	0	0	0	0	0	0	0	0	0	0	0	0	0	0	0	0	0	0	0	0	0	0	0	0	0	0	0	0	0	0	0	0	0	0	0	0	0	0	0	0	0	0	0	0	0	7608	7608	0	0	0	0	0	0	0	0	0	0	0	0	0	0	0	0	0	0	0	0	0	0	0	0	0	0	0	0	0	0	0	0	0	0	0	0	0	0	0	0	0	0	0	0	0	0	3738	3698	3621	3621	3621	3621	3621	3583	3583	3621	3621	3621	3621	3621	3621	3659	3659	3659	3659	3659	3659	3621	3621	3621	3621	3621	3583	3621	3621	3659	3659	3659	3659	3659	3659	3659	3621	3621	3621	4406	4350	4350	4350	4296	4296	4296	4296	4296	4296	4296	4350	4350	4350	4350	4350	4350	4350	4350	4350	4350	4406	4463	4463	4521	4521	4643	4643	4643	4643	4643	4581	4521	4463	4350	4296	4296	4296	4296	4296	4296	4243	4243	4296	4296	4296	4296	4296	4296	4296	4296	4296	4296	4296	4296	4296	4296	4296	4296	4296	4296	4350	4296	4296	4296	4296	4243	4243	4243	4243	4243	4243	4243	4243	4296	4296	4296	4296	4243	4243	4296	4296	4350	4350	4350	4350	4350	4350	4350	4350	4350	4350	4296	4296	4296	4296	4296	4296	4296	4243	4243	4243	4243	4243	4243	4296	4296	4296	4296	4296	4296	4296	4296	4243	4296	4296	4296	4296	4296	4243	4243	4243	4243	4192	4192	4192	4192	4192	4192	4192	4192	4243	4243	4192	4192	4192	4192	4192	4192	4192	4192	4192	4192	4192	4243	4243	4192	4243	4243	4243	4243	4243	4243	4243	4243	4192	4192	4192	4192	4192	4192	4192	4243	4243	4243	4243	4243	4243	4243	4243	4243	4243	4243	4243	4243	4243	4296	4296	4350	4406	4463	4463	4463	4406	4406	4406	4350	4350	4350	4350	4350	4350	4350	4406	4350	4350	0	0	0	0	2478	2478	2478	2460	2443	2443	2443	2443	2443	2443	2443	2426	2426	2426	2426	2426	2426	2409	2409	2426	2409	2409	2392	2392	2376	2376	2376	2359	2359	2359	2359	2359	2343	2343	2359	2359	2376	2376	2392	2409	2426	2426	2443	2443	2426	2426	2409	2409	2409	2409	2426	2426	2443	2443	0	0	0	0	0	0	2460	2460	2443	2426	2409	2392	2392	2376	2376	2376	2376	2343	2327	2312	2297	2297	2297	2281	2281	2266	2266	2266	2252	2252	2252	2237	2223	2223	2223	0	0	0	0	0	0	0	0	0	0	0	0	0	0	0	0	0	0	0	0	0	0	0	0	0	0	0	0	0	0	0	0	0	0
0	0	0	0	0	0	0	0	0	0	0	0	0	0	0	0	0	0	0	0	4350	4350	4350	4350	4350	4350	4406	4463	4521	4521	4521	4521	4521	4521	4521	4521	4581	4581	4581	4581	4581	4581	4581	4581	0	4706	4706	4706	4643	4643	4643	4643	4643	4643	4643	4643	4643	4643	4581	4581	4581	4581	4581	4581	4581	4581	4521	4521	4463	4463	4243	4243	0	0	0	0	4706	4706	4706	4706	4706	4706	4706	0	0	0	0	0	0	0	4771	4771	4771	4706	4706	4706	4643	4643	0	0	0	0	0	0	0	0	4296	4296	4243	4243	4296	4296	4296	4296	4350	4350	4350	4350	4350	4350	4350	4296	4296	4296	4296	4350	4350	4296	4350	4350	4350	4406	4406	4463	4463	4521	4581	4581	4643	4643	4643	4643	4643	4706	4706	4706	4706	4706	4643	4643	0	0	0	0	0	0	0	0	0	0	5915	6018	6124	6124	0	0	0	0	0	0	0	0	0	0	0	0	0	0	0	0	0	0	0	0	0	0	0	0	0	0	0	0	0	0	0	0	0	0	0	0	0	0	0	0	0	0	0	0	0	0	0	0	0	0	0	0	0	0	0	0	0	0	0	0	0	0	0	0	0	0	0	0	0	0	0	0	0	0	0	0	0	0	0	0	0	0	0	0	0	0	0	0	0	0	0	0	0	0	0	0	0	0	0	0	0	0	0	0	0	0	0	0	0	0	0	0	0	0	0	3698	3621	3583	3583	3621	3621	3621	3583	3659	3659	3621	3621	3621	3621	3659	3659	3659	3659	3698	3659	3621	3621	3621	3621	3621	3583	3621	3621	3621	3621	3621	3621	3659	3621	3621	3621	3583	3583	4350	4350	4350	4350	4296	4296	4296	4296	4296	4296	4296	4296	4350	4350	4350	4350	4350	4350	4350	4350	4350	4406	4463	4521	4521	4521	4706	4706	4706	4706	4643	4643	4521	4463	4350	4296	4296	4296	4296	4296	4243	4243	4243	4296	4296	4296	4296	4296	4296	4296	4296	4296	4296	4296	4296	4296	4296	4296	4296	4296	4296	4296	4296	4296	4296	4243	4243	4192	4192	4243	4243	4243	4243	4243	4243	4243	4243	4243	4296	4296	4296	4350	4350	4350	4350	4350	4350	4350	4350	4350	4296	4296	4296	4296	4296	4296	4296	4243	4243	4243	4243	4243	4243	4243	4243	4296	4296	4296	4296	4296	4296	4296	4296	4296	4296	4296	4296	4296	4296	4243	4243	4243	4243	4192	4192	4192	4192	4192	4192	4192	4243	4243	4243	4192	4192	4192	4192	4192	4192	4192	4192	4192	4243	4243	4243	4243	4243	4192	4243	4192	4192	4192	4243	4243	4243	4192	4192	4192	4192	4192	4192	4192	4243	4243	4243	4243	4243	4243	4243	4243	4243	4243	4243	4243	4243	4243	4296	4243	4296	4350	4406	4463	4463	4406	4406	4350	4296	4296	4350	4350	4350	4350	4350	4406	4406	4350	0	2532	2514	2514	2496	2496	2478	2478	2460	2460	2460	2443	2443	2443	2443	2426	2426	2426	2426	2426	2426	2426	2426	2426	2426	2409	2409	2392	2376	2376	2376	2376	2359	2359	2359	2359	2359	2359	2359	2359	2376	2392	2392	2426	2426	2426	2443	2443	2443	2426	2426	2409	2409	2426	2426	2426	2443	2443	2443	0	0	0	0	0	2460	2460	2443	2426	2409	2392	2392	2376	2376	2376	2359	2343	2327	2312	2297	2297	2281	2281	2281	2266	2266	2266	2252	2252	2252	2237	2223	2208	2208	0	0	0	0	0	0	0	0	0	0	0	0	0	0	0	0	0	0	0	0	0	0	0	0	0	0	0	0	0	0	0	0	0	0
0	0	0	0	0	0	0	0	0	0	0	0	0	0	0	0	0	0	0	0	4350	4350	4350	4350	4350	4350	4406	4406	4463	4521	4521	4521	4521	4521	4521	4521	4521	4521	4521	4521	4521	0	0	0	0	4706	4771	4771	4706	4706	4643	4643	4643	4643	4643	4643	4643	4643	4581	4581	4581	4581	4581	4581	4581	4643	4581	4581	4521	4521	0	0	0	0	0	0	4706	4706	4706	4706	4706	4706	4706	0	0	0	0	0	0	0	4838	4771	4771	4706	4706	4706	4643	4643	0	0	0	0	0	0	0	0	4296	4296	4243	4243	4296	4296	4296	4296	4350	4350	4350	4350	4296	4350	4296	4296	4296	4296	4350	4350	4350	4350	4350	4350	4350	4350	4350	4406	4463	4581	4643	4643	4643	4643	4643	4643	4706	4706	4706	4771	4706	4706	4643	4643	0	0	0	0	0	0	0	0	0	0	0	0	6124	6124	0	0	0	0	0	0	0	0	0	0	0	0	0	0	0	0	0	0	0	0	0	0	0	0	0	0	0	0	0	0	0	0	0	0	0	0	0	0	0	0	0	0	0	0	0	0	0	0	0	0	0	0	0	0	0	0	0	0	0	0	0	0	0	0	0	0	0	0	0	0	0	0	0	0	0	0	0	0	0	0	0	0	0	0	0	0	0	0	0	0	0	0	0	0	0	0	0	0	0	0	0	0	0	0	0	0	0	0	0	0	0	0	0	0	3659	3659	3583	3583	3659	3621	3621	3621	3583	3659	3659	3621	3621	3621	3621	3659	3659	3659	3659	3698	3659	3621	3621	3621	3621	3621	3583	3621	3621	3621	3621	3621	3621	3621	3621	3621	3621	3583	3583	3583	4350	4350	4350	4296	4296	4296	4296	4296	4296	4296	4350	4350	4350	4350	4350	4350	4350	4350	4350	4350	4406	4463	4521	4521	4581	4643	4643	4643	4643	4643	4581	4521	4406	4296	4296	4296	4296	4296	4296	4296	4243	4243	4296	4296	4296	4296	4296	4296	4296	4296	4296	4296	4296	4296	4296	4296	4296	4296	4296	4296	4296	4296	4296	4243	4243	4243	4192	4243	4243	4243	4243	4296	4296	4296	4296	4296	4296	4296	4296	4296	4296	4350	4350	4350	4350	4350	4350	4350	4350	4350	4350	4296	4296	4296	4296	4296	4243	4243	4243	4243	4243	4243	4243	4243	4296	4296	4243	4296	4296	4296	4296	4296	4296	4296	4296	4296	4296	4296	4243	4243	4243	4192	4192	4192	4192	4192	4192	4192	4192	4192	4192	4192	4192	4192	4192	4192	4192	4192	4192	4192	4192	4243	4243	4243	4243	4192	4192	4243	4192	4192	4192	4192	4192	4243	4192	4192	4192	4192	4192	4192	4192	4243	4243	4243	4243	4243	4243	4243	4243	4243	4243	4243	4243	4243	4243	4243	4243	4296	4296	4350	4406	4406	4406	4406	4350	4296	4296	4350	4350	4350	4350	4296	4296	4406	0	2514	2514	2514	2496	2496	2496	2496	2478	2478	2460	2460	2443	2443	2443	2443	2426	2426	2426	2426	2426	2426	2426	2426	2426	2426	2409	2392	2392	2392	2376	2376	2376	2376	2359	2376	2359	2359	2359	2359	2376	2376	2392	2409	2426	2426	2426	2443	2443	2443	2426	2426	2409	2426	2426	2426	2426	2443	2443	2443	2443	0	0	0	0	2460	2460	2443	2409	2409	2392	2392	2376	2376	2376	2359	2343	2343	2327	2327	2312	2312	2297	2297	2281	2266	2266	2266	2266	2252	2237	2223	2208	2208	0	0	0	0	0	0	0	0	0	0	0	0	0	0	0	0	0	0	0	0	0	0	0	0	0	0	0	0	0	0	0	0	0	0
0	0	0	0	0	0	0	0	0	0	0	0	0	0	0	0	0	0	0	0	4350	4350	4350	4296	4350	4296	4350	4406	4463	4463	4521	4521	4463	4463	4463	4521	4521	4581	4521	4521	4521	0	0	0	0	0	4838	4771	4706	4706	4706	4643	4643	4643	4643	4643	4643	4643	4643	4581	4643	4706	4581	4581	4643	4643	4643	4643	4581	4581	4581	0	0	0	0	0	4706	4706	4706	4706	4706	4706	4706	0	0	0	0	0	0	0	4838	4771	4771	4706	4706	4706	4706	4706	0	0	0	0	0	0	0	0	4296	4296	4243	4243	4296	4296	4296	4296	4350	4350	4350	4350	4350	4350	4296	4296	4296	4296	4296	4350	4296	4296	4296	4296	4350	4350	4406	4406	4463	4521	4643	4643	4643	4643	4643	4706	4706	4706	4771	4838	4771	4771	0	0	0	0	0	0	0	0	0	0	0	0	0	0	0	0	0	0	0	0	0	0	0	0	0	0	0	0	0	0	0	0	0	0	0	0	0	0	0	0	0	0	0	0	0	0	0	0	0	0	0	0	0	0	0	0	0	0	0	0	0	0	0	0	0	0	0	0	0	0	0	0	0	0	0	0	0	0	0	0	0	0	0	0	0	0	0	0	0	0	0	0	0	0	0	0	0	0	0	0	0	0	0	0	0	0	0	0	0	0	0	0	0	0	0	0	0	0	0	0	0	0	0	0	0	0	0	0	0	3583	3621	3621	3583	3546	3583	3621	3621	3546	3583	3583	3659	3621	3621	3621	3621	3659	3659	3698	3659	3698	3659	3621	3621	3621	3621	3583	3583	3583	3621	3621	3621	3583	3583	3583	3583	3583	3583	3583	3583	4350	4350	4350	4350	4350	4296	4350	4350	4296	4296	4296	4296	4350	4350	4350	4350	4350	4350	4350	4350	4406	4406	4463	4521	4521	4581	4706	4706	4771	4706	4643	4643	4521	4463	4296	4296	4296	4296	4243	4243	4243	4243	4243	4296	4296	4296	4296	4296	4296	4350	4350	4350	4296	4296	4296	4296	4296	4296	4296	4296	4296	4296	4296	4243	4243	4243	4192	4192	4243	4243	4243	4296	4296	4296	4296	4296	4296	4296	4296	4296	4296	4296	4350	4350	4350	4350	4350	4350	4350	4350	4350	4350	4350	4296	4296	4296	4296	4296	4243	4243	4243	4192	4243	4192	4243	4243	4243	4243	4243	4243	4243	4296	4243	4243	4296	4296	4296	4296	4243	4243	4243	4243	4243	4192	4192	4192	4192	4192	4192	4192	4192	4192	4243	4192	4192	4192	4192	4192	4192	4192	4192	4243	4243	4243	4243	4243	4192	4192	4192	4192	4192	4192	4192	4192	4192	4192	4192	4192	4192	4192	4192	4192	4243	4243	4243	4243	4243	4243	4243	4243	4243	4243	4243	4243	4243	4243	4243	4243	4243	4243	4296	4350	4350	4350	4406	4350	4296	4243	4296	4350	4243	4192	4192	4296	0	0	2514	2514	2514	2496	2496	2496	2496	2478	2460	2460	2443	2443	2443	2443	2443	2426	2426	2426	2426	2426	2426	2426	2426	2426	2409	2409	2392	2392	2392	2376	2376	2376	2376	2376	2376	2359	2359	2359	2376	2376	2376	2392	2409	2426	2426	2426	2443	2443	2443	2426	2426	2426	2426	2426	2426	2443	2443	2443	2443	2443	0	0	0	0	2478	2460	2460	2426	2426	2392	2392	2392	2376	2376	2376	2359	2343	2327	2327	2327	2312	2297	2297	2281	2266	2266	2252	2252	2252	2237	2223	2223	2223	0	0	0	0	0	0	0	0	0	0	0	0	0	0	0	0	0	0	0	0	0	0	0	0	0	0	0	0	0	0	0	0	0	0
0	0	0	0	0	0	0	0	0	0	0	0	0	0	0	0	0	0	0	0	4296	4296	4296	4296	4296	4296	4350	4350	4406	4463	4463	4521	4521	4463	4406	4406	4406	4463	4521	4521	4521	0	0	0	0	0	4838	4771	4643	4643	4643	4643	4643	4643	4643	4643	4643	4643	4643	4643	4643	4706	4643	4643	4643	4643	4581	4643	4581	4521	4521	0	0	0	0	0	4706	4771	4706	4706	4706	4706	4706	0	0	0	0	0	0	0	4838	4771	4706	4706	4706	4706	4706	4706	0	0	0	0	0	0	0	0	0	4192	4192	4192	4243	4243	4296	4296	4350	4350	4350	4350	4350	4350	4296	4296	4243	4243	4243	4243	4296	4296	4296	4296	4296	4350	4406	4406	4406	4521	4643	4643	4643	4643	4706	4706	4771	4771	4838	4906	4906	4771	0	0	0	0	0	0	0	0	0	0	0	0	0	0	0	0	0	0	0	0	0	0	0	0	0	0	0	0	0	0	0	0	0	0	0	0	0	0	0	0	0	0	0	0	0	0	0	0	0	0	0	0	0	0	0	0	0	0	0	0	0	0	0	0	0	0	0	0	0	0	0	0	0	0	0	0	0	0	0	0	0	0	0	0	0	0	0	0	0	0	0	0	0	0	0	0	0	0	0	0	0	0	0	0	0	0	0	0	0	0	0	0	0	0	0	0	0	0	0	0	0	0	0	0	0	0	0	0	3583	3583	3583	3583	3583	3546	3583	3621	3621	3546	3546	3546	3621	3583	3583	3583	3621	3659	3659	3698	3698	3698	3659	3659	3621	3621	3621	3583	3583	3583	3583	3583	3583	3583	3583	3583	3583	3583	3546	3546	3546	3546	4350	4350	4350	4350	4296	4296	4350	4350	4350	4350	4350	4350	4350	4350	4350	4350	4350	4350	4350	4406	4406	4463	4521	4521	0	4706	4706	4771	4706	4643	4643	4521	4406	4296	4296	4296	4296	4296	4296	4243	4243	4243	4243	4296	4296	4296	4296	4296	4350	4350	4350	4296	4350	4296	4296	4296	4296	4296	4296	4296	4296	4296	4243	4243	4243	4192	4192	4243	4243	4243	4243	4296	4296	4296	4296	4296	4296	4296	4296	4296	4296	4350	4350	4350	4350	4350	4350	4350	4350	4350	4296	4296	4296	4296	4296	4296	4296	4296	4243	4243	4243	4243	4243	4243	4243	4243	4243	4243	4243	4296	4296	4243	4243	4296	4296	4243	4243	4243	4243	4243	4192	4192	4192	4192	4192	4192	4192	4243	4192	4243	4243	4243	4243	4192	4192	4192	4192	4192	4192	4192	4243	4243	4243	4243	4243	4192	4192	4192	4142	4142	4142	4192	4192	4192	4192	4192	4192	4192	4142	4192	4192	4243	4243	4243	4243	4243	4243	4192	4243	4243	4243	4243	4243	4243	4243	4296	4243	4243	4243	4296	4350	4350	4350	0	0	0	4243	4296	4350	4243	4243	4192	0	0	0	0	2532	2514	2496	2496	2496	2496	2478	2460	2460	2443	2443	2443	2443	2443	2426	2426	2426	2443	2426	2426	2426	2426	2426	2409	2392	2392	2392	2376	2376	2376	2376	2376	2376	2376	2376	2376	2376	2376	2376	2376	2392	2409	2409	2409	2409	2443	2443	2443	2426	2426	2426	2426	2426	2443	2443	2443	2443	2443	2443	0	0	0	0	2478	2460	2460	2443	2426	2409	2409	2392	2392	2376	2359	2359	2343	2327	2327	2327	2312	2312	2281	2281	2266	2266	2252	2252	2252	2237	2223	2223	2223	0	0	0	0	0	0	0	0	0	0	0	0	0	0	0	0	0	0	0	0	0	0	0	0	0	0	0	0	0	0	0	0	0	0
0	0	0	0	0	0	0	0	0	0	0	0	0	0	0	0	0	0	0	0	4296	4296	4296	4296	4296	4296	4350	4350	4406	4406	4406	4406	4463	4463	4406	4406	4406	4463	0	0	0	0	0	0	0	0	0	4643	4643	4643	4706	4643	4643	4643	4643	4643	4643	4643	4643	4643	4643	4706	4643	4643	4643	4643	4581	4643	4581	4521	4521	0	0	0	0	0	4706	4706	4706	4706	4706	4706	0	0	0	0	0	0	0	0	4838	4838	4771	4706	4706	4706	0	0	0	0	0	0	0	0	0	0	0	4192	4192	4192	4192	4243	4243	4243	4296	4350	4350	4350	4350	4350	4296	4296	4350	4296	4296	4296	4350	4350	4296	4296	4296	4350	4350	4406	4350	4406	4581	4643	4643	4706	4706	4706	4771	4838	4906	4906	4906	0	0	0	0	0	0	0	0	0	0	0	0	0	0	0	0	0	0	0	0	0	0	0	0	0	0	0	0	0	0	0	0	0	0	0	0	0	0	0	0	0	0	0	0	0	0	0	0	0	0	0	0	0	0	0	0	0	0	0	0	0	0	0	0	0	0	0	0	0	0	0	0	0	0	0	0	0	0	0	0	0	0	0	0	0	0	0	0	0	0	0	0	0	0	0	0	0	0	0	0	0	0	0	0	0	0	0	0	0	0	0	0	0	0	0	0	0	0	0	0	0	0	0	0	0	0	0	0	3546	3546	3583	3583	3583	3583	3546	3583	3621	3583	3546	3546	3546	3583	3583	3583	3621	3621	3659	3698	3698	3698	3698	3659	3659	3659	3659	3659	3621	3583	3583	3583	3583	3546	3546	3546	3546	3546	3546	3546	3510	3475	3475	3475	4350	4350	4350	4296	4350	4350	4350	4350	4350	4350	4350	4406	4350	4350	4350	4350	4350	4350	4406	4406	0	0	0	0	0	0	0	0	0	0	4521	4406	4296	4296	4296	4296	4296	4296	4243	4243	4243	4243	4296	4296	4296	4296	4296	4350	4350	4350	4296	4296	4296	4296	4296	4296	4296	4296	4296	4296	4243	4243	4243	4192	4192	4192	4192	4192	4243	4243	4296	4296	4350	4296	4296	4296	4296	4296	4296	4243	4296	4296	4350	4296	4296	4350	4350	4350	4350	4350	4350	4350	4350	4296	4296	4296	4243	4243	4243	4192	4243	4243	4243	4296	4296	4243	4296	4296	4296	4296	4296	4296	4350	4350	4296	4192	4192	4192	4192	4192	4243	4192	4192	4192	4192	4192	4142	4192	4243	4243	4243	4243	4192	4192	4192	4192	4192	4192	4243	4243	4243	4243	4192	4192	4192	4142	4142	4093	4142	4142	4192	4192	4192	4192	4192	4192	4192	4142	4142	4142	4192	4243	4243	4243	4243	4243	4243	4243	4243	4243	4243	4243	4243	4243	4243	4243	4243	4243	4296	4296	4350	0	0	0	0	0	0	0	4243	4243	0	0	0	0	0	2532	2514	2496	2496	2496	2496	2496	2460	2460	2443	2443	2443	2443	2443	2426	2426	2426	2426	2426	2426	2409	2409	2409	2392	2392	2392	2392	2376	2376	2376	2392	2392	2376	2376	2376	2376	2376	2376	2376	2376	2376	2392	2409	2392	2392	2409	2409	2426	2426	2426	2426	2426	2426	2443	2443	2443	2443	2443	0	0	0	0	0	0	2460	2460	2443	2426	2409	2409	2392	2392	2376	2359	2359	2359	2343	2327	2327	2312	2312	2281	2266	2266	2252	2252	2252	2237	2237	2223	2208	2208	0	0	0	0	0	0	0	0	0	0	0	0	0	0	0	0	0	0	0	0	0	0	0	0	0	0	0	0	0	0	0	0	0	0
0	0	0	0	0	0	0	0	0	0	0	0	0	0	0	0	0	0	0	0	4350	4296	4350	4350	4350	4296	4350	4350	4350	4350	4406	4406	4463	4463	4463	0	0	0	0	0	0	0	0	0	0	0	0	4643	4581	4643	4643	4643	4643	4643	4643	4643	4643	4643	4643	4643	4643	4643	4643	4643	4643	4643	4581	4643	4581	4521	4521	0	0	0	0	0	4706	4706	4643	4643	4643	0	0	0	0	0	0	0	0	0	4838	4838	4771	4706	4706	0	0	0	0	0	0	0	0	0	0	0	0	0	4192	4192	4192	4192	4192	4192	4192	1649	1657	1657	4192	4350	4350	4296	4350	4350	4350	4350	4406	4350	4350	4350	4350	4350	4406	4406	4350	4350	4643	4643	4643	4706	4706	4706	4771	4838	4906	4906	4906	0	0	0	0	0	0	0	0	0	0	0	0	0	0	0	0	0	0	0	0	0	0	0	0	0	0	0	0	0	0	0	0	0	0	0	0	0	0	0	0	0	0	0	0	0	0	0	0	0	0	0	0	0	0	0	0	0	0	0	0	0	0	0	0	0	0	0	0	0	0	0	0	0	0	0	0	0	0	0	0	0	0	0	0	0	0	0	0	0	0	0	0	0	0	0	0	0	0	0	0	0	0	0	0	0	0	0	0	0	0	0	0	0	0	0	0	0	0	0	0	0	0	0	0	0	0	0	0	3546	3583	3583	3583	3583	3583	3546	3583	3621	3583	3583	3546	3510	3546	3546	3583	3583	3621	3659	3698	3698	3698	3698	3698	3659	3659	3659	3621	3583	3583	3583	3546	3583	3546	3546	3546	3546	3546	3546	3546	3510	3510	3510	3510	3510	3510	4350	4296	4350	4350	4350	4350	4350	4406	4463	4463	4406	4406	4406	4350	4350	4350	0	0	0	0	0	0	0	0	0	0	0	0	0	0	4296	4243	4296	4296	4296	4296	4296	4296	4296	4296	4296	4296	4296	4296	4296	4296	4350	4296	4296	4296	4296	4296	4296	4296	4296	4296	4296	4243	4243	4142	4192	4142	4142	4142	4142	4142	4192	4243	4350	4350	4350	4350	4296	4296	4296	4296	4296	4243	4243	4296	4350	4296	4296	0	4350	4350	4350	4350	4296	4350	4350	4350	4350	4350	4296	4243	4243	4243	4243	4243	4243	4243	4243	4243	4243	4243	4296	4296	4243	4243	4350	4350	4296	4192	4192	4192	4192	4192	4243	4192	4192	4192	4192	4192	4142	4192	4243	4243	4243	4243	4192	4192	4192	4192	4192	4192	4243	4350	4350	4243	4243	4192	4192	4142	4142	4093	4142	4142	4192	4192	4192	4192	4192	4192	4192	4142	4142	4093	4192	4192	4192	4192	4243	4192	4192	4243	4243	4243	4243	4243	4243	4243	4243	4243	4243	4243	4296	4296	0	0	0	0	0	0	0	0	0	0	0	0	0	0	0	0	2514	2514	2496	2496	2496	2478	2460	2460	2443	2443	2443	2443	2443	2426	2426	2426	2426	2426	2426	2409	2409	2409	2392	2392	2392	2392	2376	2376	2376	2392	2392	2376	2376	2376	2376	2376	2376	2376	2359	2376	2376	2392	2376	2376	2392	2392	2392	2426	2426	2426	2443	2443	2443	2443	2443	2443	0	0	0	0	0	0	0	2460	2443	2443	2426	2426	2409	2392	2392	2392	2376	2376	2359	2343	2327	2327	2312	2312	2281	2266	2252	2252	2237	2252	2237	2223	2208	2208	2208	0	0	0	0	0	0	0	0	0	0	0	0	0	0	0	0	0	0	0	0	0	0	0	0	0	0	0	0	0	0	0	0	0	0
0	0	0	0	0	0	0	0	0	0	0	0	0	0	0	0	0	0	0	0	4350	4296	4350	4350	4350	4296	4296	4350	4350	4350	4406	0	0	0	0	0	0	0	0	0	0	0	0	0	0	0	0	0	4581	4643	4643	4643	4643	4643	4643	4643	4706	4771	4706	4643	4643	4643	4643	4706	4706	4581	4581	4643	4581	4521	4521	0	0	0	0	0	0	0	4643	4581	4581	0	0	0	0	0	0	0	0	0	0	0	0	0	0	0	0	0	0	0	0	0	0	0	0	0	0	0	4192	4243	1634	1634	1611	1641	1649	1649	1657	1665	1665	1673	1673	1673	0	4350	4350	4350	4350	4350	4350	4296	4296	4296	4350	4350	4350	4350	4643	4643	4643	0	0	0	0	0	0	0	0	0	0	0	0	0	0	0	0	0	0	0	0	0	0	0	0	0	0	0	0	0	0	0	0	0	0	0	0	0	0	0	0	0	0	0	0	0	0	0	0	0	0	0	0	0	0	0	0	0	0	0	0	0	0	0	0	0	0	0	0	0	0	0	0	0	0	0	0	0	0	0	0	0	0	0	0	0	0	0	0	0	0	0	0	0	0	0	0	0	0	0	0	0	0	0	0	0	0	0	0	0	0	0	0	0	0	0	0	0	0	0	0	0	0	0	0	0	0	0	0	0	0	0	0	0	0	0	0	3583	3583	3583	3583	3583	3583	3583	3583	3621	3583	3583	3546	3546	3546	3546	3546	3583	3583	3621	3659	3698	3698	3698	3698	3698	3698	3659	3621	3583	3546	3546	3546	3546	3546	3546	3546	3546	3546	3546	3546	3546	3510	3546	3546	3546	3510	4350	4350	4406	4406	4350	4350	4350	4406	4463	4463	4463	4406	4406	0	0	0	0	0	0	0	0	0	0	0	0	0	0	0	0	0	0	4192	4243	4350	4350	4296	4296	4296	4296	4296	4296	4296	4296	4350	4350	4296	4350	4296	4296	4296	4296	4296	4296	4296	4296	4296	0	4243	4142	4142	4142	4142	4142	4142	4142	4142	4192	4296	4406	4350	4406	4350	4350	4350	4296	4296	4296	4296	4296	0	0	0	0	0	0	0	0	0	4296	4350	4350	4350	4350	4350	4296	4243	4243	4192	4296	4243	4243	4296	4243	4243	4243	4243	4296	4296	4243	4243	0	0	0	0	0	0	0	0	0	0	0	0	0	0	0	0	0	0	0	0	0	0	0	0	0	0	4243	4350	4350	4243	4243	0	0	0	0	0	0	0	0	0	0	4192	4192	4192	0	0	4142	4045	4142	4192	4192	4192	4243	4192	4192	4192	4243	4243	4243	4243	4243	4243	4243	4243	0	0	0	0	0	0	0	0	0	0	0	0	0	0	0	0	0	0	0	0	0	2496	2496	2496	2496	2478	2460	2443	2443	2443	2443	2443	2443	2443	2426	2443	2426	2426	2426	2392	2392	2392	2376	2376	2376	2392	2376	2376	2392	2392	2392	2376	2376	2376	2376	2376	2376	2376	2376	2359	2359	2359	2359	2359	2392	2392	2409	2426	2426	2426	2426	2443	2443	2460	2460	0	0	0	0	0	0	0	0	2460	2443	2443	2426	2426	2409	2392	2392	2376	2359	2359	2359	2343	2327	2327	2312	2312	2297	2266	2266	2252	2252	2252	2252	2237	2223	2208	2208	0	0	0	0	0	0	0	0	0	0	0	0	0	0	0	0	0	0	0	0	0	0	0	0	0	0	0	0	0	0	0	0	0	0
0	0	0	0	0	0	0	0	0	0	0	0	0	0	0	0	0	0	0	0	4350	4296	4296	4296	4296	4296	4350	4350	4350	0	0	0	0	0	0	0	0	0	0	0	0	0	0	0	0	0	0	0	0	0	0	0	0	0	4643	4643	4771	4771	4771	4581	4581	4581	4643	4643	4643	4581	4581	4581	4581	4521	4521	0	1385	1390	1390	1390	1390	0	4581	4581	4581	0	0	0	0	0	0	0	0	0	0	0	0	0	0	0	0	0	0	0	0	0	0	0	1567	1567	1574	1581	1589	1589	1611	1611	1611	1641	1641	1649	1665	1665	1673	1673	1673	1681	1681	1690	1698	1698	1706	1706	1706	1706	1706	4296	4350	4350	4350	4350	0	0	0	0	0	0	0	0	0	0	0	0	0	0	1741	1741	1741	1741	0	0	0	0	0	0	0	0	0	0	0	0	0	0	0	0	0	0	0	0	0	0	0	0	0	0	0	0	0	0	0	0	0	0	0	0	0	0	0	0	0	0	0	0	0	0	0	0	0	0	0	0	0	0	0	0	0	0	0	0	0	0	0	0	0	0	0	0	0	0	0	0	0	0	0	0	0	0	0	0	0	0	0	0	0	0	0	0	0	0	0	0	0	0	0	0	0	0	0	0	0	0	0	0	0	0	0	0	0	0	0	0	0	0	0	0	0	0	0	0	0	3583	3583	3583	3583	3583	3583	3583	3583	3621	3583	3583	3546	3546	3546	3546	3546	3583	3621	3621	3659	3698	3698	3738	3738	3698	3698	0	3621	3583	3546	3546	3546	3546	3510	3546	3546	3546	3546	3546	3546	3546	3510	3546	3583	3583	0	0	4350	4406	4406	0	0	0	0	0	4521	4463	4463	0	0	0	0	0	0	0	0	0	0	0	0	0	0	0	0	0	0	0	4192	4350	4406	4406	4350	4296	4350	4296	4296	4296	4296	4296	4350	4350	0	0	0	4296	4296	4296	0	0	0	0	0	0	0	4142	4142	4142	4142	4142	4142	4142	4142	4192	4296	4406	4350	4406	4406	4406	4350	4350	4350	4296	4296	4296	0	0	0	0	0	0	0	0	0	0	4350	4350	4350	4350	0	0	0	0	4192	4296	4243	4243	4296	4243	4243	0	0	0	0	0	0	0	0	0	0	0	0	0	0	0	0	0	0	0	0	0	0	0	0	0	0	0	0	0	0	0	0	0	0	0	0	0	0	0	0	0	0	0	0	0	0	0	0	0	0	0	0	0	4045	4142	4192	4192	4192	4192	4192	4192	4192	0	0	0	0	0	0	0	0	0	0	0	0	0	0	0	0	0	0	0	0	0	0	0	0	0	0	0	0	0	2496	2496	2478	2496	2478	2460	2443	2443	2443	2443	2443	2443	2443	2426	2443	2443	2426	2426	2392	2392	2392	2376	2376	2376	2392	2376	2376	2392	2392	2392	2392	2376	2376	2376	2376	2376	2376	2359	2359	2359	2359	2359	2359	2376	2376	2392	2409	2409	2426	2426	2443	2443	2460	2460	0	0	0	0	0	0	0	0	2460	2443	2443	2426	2426	2409	2392	2392	2376	2359	2359	2359	2343	2327	2327	2312	2312	2297	2266	2266	2266	2252	2252	2237	2223	2223	2208	2208	0	0	0	0	0	0	0	0	0	0	0	0	0	0	0	0	0	0	0	0	0	0	0	0	0	0	0	0	0	0	0	0	0	0
0	0	0	0	0	0	0	0	0	0	0	0	0	0	0	0	0	0	0	0	0	4296	4296	4296	4296	4296	4350	4350	0	0	0	0	0	0	0	0	0	0	0	0	0	0	0	0	0	0	0	0	0	0	0	0	0	0	0	0	4838	4838	4771	4771	4771	4771	4643	4643	4643	4581	4581	4581	4581	0	0	0	1379	1385	1390	1390	1396	1396	4581	4581	0	0	0	0	0	0	0	0	0	0	0	0	0	0	0	0	0	0	0	1525	1532	1546	1546	1560	1553	1560	1574	1581	1589	1589	1611	1611	1626	1634	1641	1649	1657	1665	1673	1673	1673	1681	1681	1690	1698	1706	1715	1715	1715	1715	1715	4296	0	0	0	0	0	0	0	0	0	0	0	0	0	0	0	0	0	1732	1741	1741	1741	1741	0	0	0	0	0	0	0	0	0	0	0	0	0	0	0	0	0	0	0	0	0	0	0	0	0	0	0	0	0	0	0	0	0	0	0	0	0	0	0	0	0	1732	1741	1732	1732	0	0	0	0	0	0	0	0	0	0	0	0	0	0	0	0	0	0	0	0	0	0	0	0	0	0	0	0	0	0	0	0	0	0	0	0	0	0	0	0	0	0	0	0	0	0	0	0	0	0	0	0	0	0	0	0	0	0	0	0	0	0	0	0	0	0	0	0	0	0	0	0	0	0	0	0	3546	3583	3546	3583	3583	3583	3583	3583	3583	3583	3583	3546	3546	3546	3546	3546	3546	3621	3621	0	0	0	3738	3738	0	0	0	3621	3546	3510	3546	3546	3546	3510	3510	3546	3546	3546	3546	3510	3546	3510	3583	3583	3583	0	0	0	0	0	0	0	0	0	0	4521	4463	4463	0	0	0	0	0	0	0	0	0	0	0	0	0	0	0	0	0	0	0	0	4350	4406	4406	4350	4296	4350	4296	4296	0	0	0	0	0	0	0	0	0	0	0	0	0	0	0	0	0	0	0	0	0	0	0	0	0	0	0	0	0	0	0	4406	4406	0	4350	4350	0	0	0	0	0	0	0	0	0	0	0	0	0	0	0	0	0	0	0	0	0	0	0	0	0	0	0	0	0	0	0	0	0	0	0	0	0	0	0	0	0	0	0	0	0	0	0	0	0	0	0	0	0	0	0	0	0	0	0	0	0	0	0	0	0	0	0	0	0	0	0	0	0	0	0	0	0	0	0	0	0	0	0	0	4192	4192	4192	4192	0	0	0	0	0	0	0	0	0	0	0	0	0	0	0	0	0	0	0	0	0	0	0	0	0	0	0	0	0	0	0	0	0	2478	2496	2478	2478	2443	2443	2443	2443	2443	2426	2426	2426	2443	2443	2426	2426	2392	2392	2392	2376	2376	2376	2376	2376	2376	2376	2392	2392	2392	2392	2392	2392	2392	2376	2376	2359	2359	2359	2359	2359	2359	2376	2376	2392	2409	2426	2426	2426	2443	2443	2443	2460	0	0	0	0	0	0	0	0	2460	2443	2443	2443	2426	2426	2392	2392	2376	2359	2359	2359	2343	2327	2327	2312	2297	2266	2266	2266	2252	2252	2252	2237	2223	2208	2208	2208	0	0	0	0	0	0	0	0	0	0	0	0	0	0	0	0	0	0	0	0	0	0	0	0	0	0	0	0	0	0	0	0	0	0
0	0	0	0	0	0	0	0	0	0	0	0	0	0	0	0	0	0	0	0	0	0	0	4296	4296	4296	4350	4350	0	0	0	0	0	0	0	0	0	0	0	0	0	0	0	0	0	0	0	0	0	0	0	0	0	0	0	0	4838	4838	4771	4771	4771	4771	0	0	0	0	0	0	0	0	0	1385	1379	1385	1379	1379	1390	1390	0	0	0	0	0	0	0	0	0	1499	1499	0	0	0	0	0	0	1506	1506	1512	1512	1525	1525	1546	1553	1560	1553	1560	1574	1574	1581	1589	1603	1611	1626	1634	1641	1649	1657	1665	1673	1673	1681	1690	1690	1698	1706	1715	1715	1723	1723	1723	1732	1732	0	0	0	0	0	0	0	0	0	1741	1741	0	0	0	0	0	1732	1732	1741	1741	1750	1750	0	0	0	0	0	0	0	0	0	0	0	0	0	0	0	0	0	0	0	0	0	0	0	0	0	0	0	0	0	0	0	0	0	0	0	0	0	0	1732	1732	1732	1732	1732	1732	1732	1732	0	0	0	0	0	0	0	0	0	0	0	0	0	0	0	0	0	0	0	0	0	0	0	0	0	0	0	0	0	0	0	0	0	0	0	0	0	0	0	0	0	0	0	0	0	0	0	0	0	0	0	0	0	0	0	0	0	0	0	0	0	0	0	0	0	0	0	0	0	0	0	0	0	0	0	3546	3546	3546	3583	3583	3546	3546	3583	3583	3583	3583	3546	3546	3546	3546	3546	3546	0	0	0	0	0	0	0	0	0	0	0	3546	3510	3510	3510	3510	3510	3510	3546	3546	3546	3546	3546	3546	3546	3583	3583	0	0	0	0	0	0	0	0	0	0	0	0	0	0	0	0	0	0	0	0	0	0	0	0	0	0	0	0	0	0	0	0	0	0	0	0	0	0	0	0	0	0	0	0	0	0	0	0	0	0	0	0	0	0	0	0	0	0	0	0	0	0	0	0	0	0	0	0	0	0	0	0	0	0	0	0	0	0	0	0	0	0	0	0	0	0	0	0	0	0	0	0	0	0	0	0	0	0	0	0	0	0	0	0	0	0	0	0	0	0	0	0	0	0	0	0	0	0	0	0	0	0	0	0	0	0	0	0	0	0	0	0	0	0	0	0	0	0	0	0	0	0	0	0	0	0	0	0	0	0	0	0	0	0	0	0	0	0	0	0	0	0	0	0	0	0	0	0	0	0	0	0	0	0	0	0	0	0	0	0	0	0	0	0	0	0	0	0	0	0	0	0	0	0	0	0	0	0	0	0	2496	2460	2460	2443	2443	2426	2426	2426	2426	2426	2426	2426	2426	2426	2409	2392	2392	2392	2376	2376	2376	2376	2376	2392	2392	2392	2392	2392	2409	2409	2409	2392	2376	2376	2359	2359	2359	2359	2359	2359	2376	2376	2392	2409	2426	2426	2443	2426	2443	2443	0	0	0	0	0	0	0	0	0	2460	2443	2443	2426	2426	2426	2392	2376	2376	2359	2359	2359	2359	2327	2312	2297	2297	2266	2266	2252	2252	2237	2237	2237	2223	2208	2208	2208	0	0	0	0	0	0	0	0	0	0	0	0	0	0	0	0	0	0	0	0	0	0	0	0	0	0	0	0	0	0	0	0	0	0
0	0	0	0	0	0	0	0	0	0	0	0	0	0	0	0	0	0	0	0	0	0	0	4296	4296	4296	4350	4350	0	0	0	0	0	0	0	0	0	0	0	0	0	0	0	0	0	0	0	0	0	0	0	0	0	0	0	0	0	0	0	0	0	0	0	0	0	0	0	0	0	0	0	1379	1379	1379	1379	1385	1390	1396	1396	1396	0	0	0	0	0	0	0	1486	1492	1486	1492	1499	1492	1499	1499	1506	1499	1512	1519	1525	1525	1546	1553	1560	1553	1560	1574	1574	1581	1589	1596	1603	1618	1626	1634	1641	1649	1673	1673	1673	1681	1690	1690	1690	1706	1715	1723	1723	1723	1723	1732	1732	1732	0	0	0	0	0	1750	1750	1741	1741	1732	1732	1732	1741	1732	1732	1732	1732	1741	1741	1741	1741	0	0	0	0	0	1741	1741	1741	1741	1732	1741	1741	0	1741	1741	1741	0	1750	1750	1750	1750	1750	1750	1750	0	0	0	0	0	1723	1723	1723	1723	0	1723	1723	1723	1723	1732	1732	1732	1732	1732	1732	1732	1732	1732	0	0	0	0	0	0	0	0	0	0	0	0	0	0	0	0	0	0	0	0	0	0	0	0	0	0	0	0	0	0	0	0	0	0	0	0	0	0	0	0	0	0	0	0	0	0	0	0	0	0	0	0	0	0	0	0	0	0	0	0	0	0	0	0	0	0	0	0	0	0	0	0	0	0	3546	3546	3546	3583	3583	3546	3546	3546	3546	3546	3546	3510	3546	3546	0	0	0	0	0	0	0	0	0	0	0	0	0	0	0	0	3510	3510	3510	3510	3546	3546	3546	3546	3546	3546	3546	3546	3583	3583	0	0	0	0	0	0	0	0	0	0	0	0	0	0	0	0	0	0	0	0	0	0	0	0	0	0	0	0	0	0	0	0	0	0	0	0	0	0	0	0	0	0	0	0	0	0	0	0	0	0	0	0	0	0	0	0	0	0	0	0	0	0	0	0	0	0	0	0	0	0	0	0	0	0	0	0	0	0	0	0	0	0	0	0	0	0	0	0	0	0	0	0	0	0	0	0	0	0	0	0	0	0	0	0	0	0	0	0	0	0	0	0	0	0	0	0	0	0	0	0	0	0	0	0	0	0	0	0	0	0	0	0	0	0	0	0	0	0	0	0	0	0	0	0	0	0	0	0	0	0	0	0	0	0	0	0	0	0	0	0	0	0	0	0	0	0	0	0	0	0	0	0	0	0	0	0	0	0	0	0	0	0	0	0	0	0	0	0	0	0	0	0	0	0	0	0	0	0	0	0	0	2460	2460	2443	2443	2443	2426	2426	2426	2426	2409	2426	2426	2426	2392	2392	2392	2392	2392	2392	2392	2392	2376	2392	2392	2392	2392	2392	2392	2392	2392	2376	2376	2376	2359	2359	2359	2359	2359	2359	2376	2376	2392	2409	2426	2426	2443	2426	2443	2443	0	0	0	0	0	0	0	0	0	0	2443	2443	2426	2426	2409	2392	2376	2359	2359	2359	2359	2343	2327	2312	2281	2281	2266	2266	2252	2252	2237	2237	2223	2223	2208	2208	2208	0	0	0	0	0	0	0	0	0	0	0	0	0	0	0	0	0	0	0	0	0	0	0	0	0	0	0	0	0	0	0	0	0	0
