0	0	0	0	0	0	0	0	0	0	0	0	0	0	0	0	0	0	0	0	0	0	0	0	0	0	0	0	0	0	0	0	0	0	0	0	0	0	0	0	0	0	0	0	0	0	0	0	0	0	0	0	0	2015	2027	2039	2039	2039	2039	2027	2039	2027	2027	2027	2027	2027	2015	2027	2027	2039	2039	2039	2039	2039	2039	2039	2039	2039	2039	2039	2039	2051	2051	2063	2051	2063	2076	2076	2076	2088	2088	2088	2076	2076	2076	2076	2327	2327	2327	2327	2327	2359	2359	2359	2376	0	4838	4838	4838	4838	4838	4838	4838	4838	4771	4771	4521	4406	4350	4296	4243	4243	4192	4192	4192	4192	4192	4192	4142	4243	4192	4192	4142	4142	4192	4192	4192	4142	4142	4142	4142	4142	4142	4142	4142	4192	4142	4142	4142	4142	4142	4142	4093	4093	4093	4093	4093	4142	4142	4142	4142	4142	4142	4142	4142	4142	4142	4192	4192	4192	4192	4192	0	7608	7608	7779	7779	7779	7959	7959	7959	0	0	0	0	0	0	0	0	0	0	0	7959	7959	7959	7959	7959	7959	7779	7779	7779	7779	7779	7779	7779	7779	7779	7779	7779	7608	7608	7779	7779	7779	7779	7779	7779	7779	7608	3864	3864	3821	3821	3821	3821	3821	3821	3821	3779	3779	3821	3821	3821	3821	3821	3821	3821	3821	3821	3821	3821	3821	3821	3864	3864	3864	3864	3864	3864	3864	3821	3821	3821	3821	3821	3821	3821	3821	3821	3821	3821	3864	3864	3907	3907	3907	3907	3907	3864	3864	3864	3864	8343	8343	8343	8343	8146	8146	8343	8343	8343	8343	8343	8343	8343	8343	8343	8343	8343	8343	8343	4771	4771	4706	4706	4706	4706	4706	4706	4643	4643	4643	4643	4643	4643	4643	4643	4643	4643	4643	4643	4581	4581	4643	4643	4643	4643	4706	4706	4643	4643	4581	4521	4521	4521	4521	4521	4581	4643	4643	4581	4581	4581	4581	4581	4581	4581	4581	4581	4581	4581	4581	4581	4581	4581	4581	4581	4581	4581	4581	4581	4581	4581	4521	4581	4581	4581	4581	4643	4643	4643	4581	4581	4581	4581	4581	4581	4521	4521	4581	4581	4581	4581	4521	4463	4463	4463	4406	4463	4406	4463	4463	4463	4521	4521	4521	4521	4581	4521	4581	4521	4521	4463	4406	4406	4463	4463	4521	4581	4581	4581	4643	4643	4581	4643	4643	4643	4643	4581	4581	4643	4643	4643	4643	4643	4643	4643	4581	4581	4581	4581	4581	4581	4643	4643	4643	4643	4643	4643	4581	4581	4581	4581	4581	4581	4581	4581	4581	4643	4643	4643	4643	4643	4643	4643	4581	4581	4581	4643	4643	4581	4581	4581	4581	4581	4581	4581	4581	4581	4521	4463	4406	4406	4350	4350	4350	4406	4406	4463	4463	4581	4643	4643	4643	4643	4581	4643	4643	4643	4643	4643	4643	7779	7779	7779	7779	7779	7959	7959	7959	7779	7779	7779	7779	7608	7608	7608	7779	7608	7779	7779	7779	7779	7608	7608	7608	7608	7608	7608	7608	7608	7608	7608	7608	7779	7779	7779	7779	7779	7959	7779	7779	7779	7779	7779	7608	7608	7608	7608	7608	0	0	0	0	0	0	0	2532	2514	2496	2496	2478	2478	2460	2460	2443	2426	2409	2409	2409	2392	2392	2376	2376	2359	2343	2327	2312	2297	2281	2281	2266	2266	2266	2252	2252	2237	2223	2223	2208	2208	2194	2181	2167	2167	2153	2153	2127	2114	2114	2101	2114	2114	2114	2088	2088	2076	2076	2076	2076	2063	2063	2039	2015	1980	1969	1958	1947	1936	1936	1936	1925	1925	0	0	0	0	0	0	0	0	0	0	0	0	0	0	0	0	0	0	0	0	0	0	0	0	0	0	0	0	0	0	0	0	0	0	0	0	0
0	0	0	0	0	0	0	0	0	0	0	0	0	0	0	0	0	0	0	0	0	0	0	0	0	0	0	0	0	0	0	0	0	0	0	0	0	0	0	0	0	0	0	0	0	0	0	0	0	0	0	0	0	2015	2015	2027	2039	2027	2027	2027	2027	2027	2027	2027	2015	2015	2015	2015	2015	2027	2027	2039	2039	2039	2039	2039	2039	2039	2039	2039	2039	2051	2051	2051	2051	2063	2063	2076	2076	2088	2076	2076	2076	2063	2063	2063	2327	2327	2327	2327	2327	2327	2359	2359	2359	0	0	4838	4838	4838	4838	4771	4838	4838	4771	4581	4521	4350	4350	4296	4296	4243	4192	4192	4192	4192	4192	4142	4142	4192	4142	4142	4142	4142	4142	4142	4192	4142	4142	4142	4142	4142	4142	4142	4142	4192	4142	4142	4142	4142	4142	4142	4093	4093	4093	4093	4093	4142	4142	4142	4142	4142	4142	4142	4142	4142	4142	4192	4192	4192	4192	4192	0	7608	7779	7779	7779	7779	7959	7959	0	0	0	0	0	0	0	0	0	0	0	0	0	7959	7779	7959	7959	7959	7779	7779	7779	7779	7779	7779	7779	7779	7779	7779	7779	7779	7608	7779	7779	7779	7608	7779	7608	7608	3864	3864	3864	3821	3821	3779	3779	3779	3779	3779	3779	3821	3821	3821	3821	3821	3821	3821	3821	3821	3821	3821	3821	3821	3864	3864	3864	3907	3907	3864	3864	3864	3821	3821	3821	3821	3821	3821	3821	3821	3821	3821	3821	3864	3864	3907	3907	3907	3907	3907	3907	3864	3864	3864	0	8146	8343	8343	8146	8146	8550	8550	8550	8343	8146	8146	8146	8343	8343	8343	8343	8343	8343	4771	4771	4706	4706	4706	4706	4706	4706	4643	4643	4643	4643	4643	4706	4706	4643	4643	4643	4643	4643	4581	4581	4581	4581	4581	4581	4643	4643	4643	4581	4521	4521	4521	4521	4521	4521	4581	4581	4581	4581	4581	4581	4581	4581	4581	4581	4581	4581	4581	4581	4581	4581	4581	4581	4581	4581	4581	4581	4581	4581	4581	4581	4521	4581	4581	4581	4581	4581	4581	4581	4581	4581	4581	4581	4581	4581	4521	4521	4581	4581	4581	4521	4521	4463	4406	4406	4406	4406	4406	4406	4406	4406	4463	4463	4463	4521	4521	4521	4521	4521	4463	4406	4406	4406	4463	4463	4521	4581	4581	4643	4643	4643	4643	4643	4581	4643	4643	4581	4581	4581	4643	4643	4643	4581	4643	4643	4581	4643	4581	4581	4581	4581	4643	4643	4643	4643	4643	4643	4643	4643	4643	4581	4581	4581	4581	4581	4643	4643	4643	4643	4643	4643	4581	4581	4581	4521	4521	4581	4643	4581	4581	4581	4581	4581	4581	4521	4521	4521	4463	4463	4350	4350	4350	4350	4350	4406	4406	4463	4521	4581	4643	4643	4643	4643	4643	4581	4643	4643	4643	4706	4706	7779	7779	7779	7779	7779	7779	7779	7779	7779	7779	7608	7608	7608	7608	7608	7779	7779	7779	7779	7779	7779	7779	7779	7608	7779	7608	7608	7608	7608	7608	7608	7608	7779	7779	7779	7779	7779	7959	7779	7779	7779	7779	7608	7608	7608	0	0	0	0	0	0	0	0	0	2551	2532	2514	2514	2496	2478	2478	2460	2460	2443	2426	2409	2409	2409	2392	2392	2376	2376	2359	2343	2327	2312	2297	2281	2266	2266	2266	2252	2237	2237	2223	2223	2223	2208	2208	2194	2181	2181	2167	2167	2153	2140	2127	2114	2101	2101	2114	2101	2088	2088	2088	2076	2076	2076	2063	2063	2051	2027	1980	1969	1958	1947	1936	1936	1936	1925	1925	0	0	0	0	0	0	0	0	0	0	0	0	0	0	0	0	0	0	0	0	0	0	0	0	0	0	0	0	0	0	0	0	0	0	0	0	0
0	0	0	0	0	0	0	0	0	0	0	0	0	0	0	0	0	0	0	0	0	0	0	0	0	0	0	0	0	0	0	0	0	0	0	0	0	0	0	0	0	0	0	0	0	0	0	0	0	0	0	0	0	2015	2027	2027	2027	2027	2027	2027	2027	2015	2015	2015	2015	2015	2015	2015	2015	2027	2027	2039	2039	2039	2039	2039	2051	2039	2039	2039	2039	2051	2051	2051	2051	2063	2063	2076	2076	2076	2076	2076	2076	2051	2051	2312	2312	2327	2327	2327	2327	2359	2359	2359	2359	0	0	4838	4838	4838	4771	4771	4771	4771	4706	4771	4406	4192	4243	4192	4243	4192	4192	4192	4192	4243	4192	4192	4192	4192	4192	4142	4142	4142	4142	4192	4192	4192	4142	4142	4192	4142	4142	4142	4142	4142	4142	4142	4142	4142	4142	4142	4093	4093	4093	4093	4093	4142	4142	4142	4142	4142	4142	4142	4142	4192	4192	4192	4192	4192	4192	0	0	0	7779	7779	7779	7779	0	0	0	0	0	0	0	0	0	0	0	0	0	0	0	0	7959	7959	7959	7959	7779	7779	7779	7779	7779	7779	7779	7779	7779	7779	7779	7608	7608	7779	7779	7779	7608	7779	7608	7608	3864	3864	3864	3821	3821	3779	3779	3821	3779	3779	3779	3779	3821	3821	3821	3821	3821	3821	3821	3821	3821	3821	3821	3821	3864	3864	3864	3907	3907	3907	3864	3821	3821	3821	3821	3821	3821	3821	3821	3821	3821	3821	3864	3864	3864	3907	3907	3907	3907	3907	3907	3907	3907	3907	3907	8146	8146	8146	7959	7959	8343	8343	8343	7959	7959	8146	8146	8146	8146	8146	8343	8343	8343	4771	4771	4706	4706	4706	4706	4706	4706	4706	4643	4643	4643	4643	4706	4706	4706	4706	4643	4643	4643	4581	4581	4581	4581	4643	4581	4643	4643	4643	4581	4521	4521	4521	4521	4521	4581	4581	4581	4581	4581	4581	4581	4581	4581	4581	4581	4581	4581	4581	4581	4581	4581	4581	4581	4581	4581	4581	4581	4581	4581	4581	4581	4521	4581	4581	4581	4581	4581	4581	4581	4581	4581	4581	4581	4581	4581	4521	4521	4581	4581	4521	4521	4463	4406	4406	4406	4406	4406	4406	4406	4406	4406	4406	4463	4463	4521	4581	4581	4581	4521	4521	4406	4406	4406	4463	4463	4521	4581	4581	4643	4643	4643	4643	4643	4581	4643	4643	4581	4581	4581	4581	4581	4643	4581	4643	4643	4643	4643	4643	4581	4581	4581	4643	4643	4643	4643	4643	4643	4643	4643	4643	4643	4643	4643	4581	4643	4643	4643	4643	4581	4581	4581	4581	4581	4581	4521	4521	4581	4581	4581	4581	4521	4581	4581	4581	4521	4521	4521	4463	4463	4406	4350	4350	4350	4350	4350	4406	4463	4521	4643	4643	4643	4643	4643	4643	4581	4643	4706	4706	4706	4771	5050	5050	5050	5050	5050	5125	5125	5125	5125	7779	7608	7608	7608	7608	7608	7608	7608	7779	7779	7779	7779	7779	7779	7779	7779	7608	7608	7608	7608	7608	7608	7608	7779	7779	7779	7779	7779	7779	7779	7779	7779	7779	7608	7608	0	0	0	0	0	0	0	0	0	0	2532	2514	2514	2496	2496	2478	2460	2460	2460	2443	2426	2409	2409	2409	2392	2392	2376	2376	2359	2343	2343	2327	2312	2281	2266	2266	2252	2252	2237	2237	2223	2223	2208	2208	2208	2194	2194	2181	2167	2153	2153	2127	2114	2114	2101	2114	2114	2101	2088	2088	2076	2076	2076	2076	2063	2063	2051	2051	1980	1969	1958	1947	1947	1936	1936	1925	1925	0	0	0	0	0	0	0	0	0	0	0	0	0	0	0	0	0	0	0	0	0	0	0	0	0	0	0	0	0	0	0	0	0	0	0	0	0
0	0	0	0	0	0	0	0	0	0	0	0	0	0	0	0	0	0	0	0	0	0	0	0	0	0	0	0	0	0	0	0	0	0	0	0	0	0	0	0	0	0	0	0	0	0	0	0	0	0	0	0	0	2015	2015	2015	2027	2015	2027	2015	2015	2015	2015	2015	2003	2003	2003	2003	2015	2015	2027	2039	2039	2039	2039	2039	2051	2051	2039	2039	2051	2051	2051	2063	2051	2063	2076	2076	2088	2076	2076	2063	2076	2076	2312	2327	2327	2327	2327	2327	2327	2359	2359	2359	2359	0	0	4838	4838	4838	4771	4771	4838	4771	4771	4706	4406	4192	4243	4192	4192	4192	4192	4192	4192	4243	4192	4192	4192	4192	4142	4142	4192	4192	4192	4192	4192	4192	4142	4192	4192	4192	4142	4142	4142	4142	4142	4142	4142	4142	4142	4142	4093	4093	4093	4093	4093	4142	4142	4142	4142	4142	4142	4142	4142	4192	4192	4192	4192	4192	4192	0	0	0	0	7779	7779	0	0	0	0	0	0	0	0	0	0	0	0	0	0	0	6720	6720	7287	7444	7779	7779	7779	7779	7779	7779	7779	7779	7608	7779	7608	7779	7608	7608	7608	7779	7779	7779	7779	7779	7608	7608	3864	3864	3864	3821	3821	3779	3779	3779	3779	3779	3779	3779	3779	3821	3821	3821	3821	3821	3821	3821	3821	3821	3821	3821	3864	3864	3864	3907	3907	3864	3864	3821	3821	3821	3821	3821	3821	3821	3821	3821	3821	3821	3821	3821	3821	3907	3864	3864	3907	3907	3907	3907	3907	3907	3907	3907	8146	8146	8146	7959	7959	7959	7959	7959	7959	7959	8146	8146	8146	8146	8146	8146	8343	8343	4706	4706	4706	4706	4706	4706	4706	4706	4643	4706	4706	4706	4706	4706	4706	4706	4706	4706	4706	4581	4581	4643	4643	4643	4643	4643	4643	4581	4581	4521	4521	4521	4521	4521	4581	4581	4581	4643	4581	4581	4581	4581	4581	4581	4581	4581	4581	4581	4581	4581	4581	4581	4581	4581	4581	4581	4581	4581	4581	4581	4581	4521	4581	4581	4581	4643	4581	4643	4643	4581	4581	4581	4581	4581	4581	4521	4581	4581	4581	4521	4521	4463	4406	4406	4406	4406	4406	4406	4406	4406	4406	4463	4463	4521	4521	4581	4581	4581	4521	4521	4463	4406	4406	4463	4521	4581	4581	4581	4643	4643	4643	4643	4643	4581	4643	4643	4581	4581	4581	4581	4581	4643	4581	4643	4643	4643	4643	4643	4581	4581	4581	4643	4643	4643	4643	4643	4643	4643	4643	4643	4643	4643	4643	4643	4643	4643	4643	4643	4581	4581	4581	4581	4581	4581	4521	4581	4581	4581	4581	4581	4581	4581	4581	4581	4521	4521	4521	4463	4463	4406	4350	4350	4350	4350	4350	4350	4406	4521	4643	4643	4643	4643	4643	4643	4643	4643	4706	4706	4706	4771	5050	5050	5050	5125	5125	5125	5125	5050	5050	5050	0	0	0	0	0	7608	7608	7779	7779	7779	7959	7779	7779	7779	7779	7608	7608	7608	7608	7608	7608	7608	7779	7779	7779	7779	7779	7779	7779	7779	7779	7608	7608	0	0	0	0	0	0	0	0	0	0	0	2532	2496	2496	2496	2478	2478	2460	2460	2460	2443	2426	2409	2392	2392	2392	2376	2359	2359	2359	2343	2327	2327	2312	2297	2266	2266	2252	2252	2237	2223	2223	2223	2208	2208	2208	2208	2194	2181	2167	2153	2153	2127	2114	2114	2101	2114	2114	2101	2088	2088	2076	2076	2076	2076	2063	2063	2063	2051	2015	1980	1969	1958	1947	1947	1936	1925	1925	0	0	0	0	0	0	0	0	0	0	0	0	0	0	0	0	0	0	0	0	0	0	0	0	0	0	0	0	0	0	0	0	0	0	0	0	0
0	0	0	0	0	0	0	0	0	0	0	0	0	0	0	0	0	0	0	0	0	0	0	0	0	0	0	0	0	0	0	0	0	0	0	0	0	0	0	0	0	0	0	0	0	0	0	0	0	0	0	0	0	0	2015	2015	2027	2015	2015	2015	2015	2015	2015	2015	2003	2003	2003	2003	2015	2015	2027	2039	2039	2039	2039	2051	2051	2051	2051	2039	2039	2039	2051	2051	2063	2063	2076	2076	2076	2076	2076	2076	2076	2327	2312	2327	2327	2327	2327	2327	2327	2359	2359	2359	2359	0	0	4838	4771	4838	4771	4771	4771	4771	4771	4706	4350	4192	4243	4192	4192	4243	4192	4243	4192	4243	4192	4192	4192	4192	4142	4192	4142	4142	4142	4142	4142	4142	4142	4142	4192	4192	4142	4142	4142	4142	4142	4142	4142	4142	4142	4142	4093	4093	4093	4093	4093	4142	4142	4142	4142	4142	4142	4142	4142	4192	4192	4192	4192	4192	0	0	0	0	0	0	0	0	0	0	0	0	0	0	0	0	0	0	0	0	0	0	6720	6853	7287	7444	7444	7608	7608	7608	7779	7608	7608	7608	7608	7608	7608	7779	7779	7779	7608	7608	7608	7959	7779	7779	7779	7779	7779	7779	3864	3821	3821	3779	3779	3779	3779	3779	3779	3779	3779	3821	3821	3821	3821	3821	3821	3821	3821	3821	3821	3821	3864	3864	3907	3907	3907	3864	3864	3821	3821	3821	3821	3821	3821	3821	3821	3821	3821	3821	3821	3821	3821	3864	3864	3864	3864	3864	3907	3907	3907	3907	3907	3907	0	8146	8146	7959	8146	8146	8146	7959	7959	7959	7959	8146	8146	7959	8146	8146	8146	8146	4706	4706	4706	4706	4706	4706	4706	4706	4706	4706	4706	4706	4706	4706	4706	4706	4706	4706	4706	4643	4643	4643	4581	4643	4643	4643	4643	4581	4521	4521	4521	4521	4581	4581	4643	4643	4643	4643	4643	4643	4581	4581	4581	4581	4581	4581	4581	4581	4581	4581	4581	4581	4581	4581	4581	4581	4581	4581	4581	4581	4581	4521	4581	4581	4581	4581	4581	4581	4581	4581	4581	4581	4581	4581	4581	4581	4581	4581	4581	4521	4463	4463	4463	4406	4406	4406	4406	4406	4406	4463	4406	4406	4463	4521	4521	4581	4581	4581	4581	4521	4406	4406	4406	4463	4521	4581	4581	4581	4643	4643	4643	4643	4643	4643	4643	4643	4581	4581	4581	4581	4581	4643	4581	4643	4643	4643	4643	4643	4581	4581	4581	4643	4643	4643	4643	4643	4643	4643	4643	4643	4643	4643	4643	4643	4643	4643	4643	4643	4581	4581	4643	4581	4581	4581	4581	4581	4581	4581	4581	4581	4581	4581	4581	4521	4521	4521	4521	4463	4463	4406	4350	4350	4350	4350	4350	4406	4406	4463	4581	4643	4643	4581	4581	4643	4581	4581	4643	4706	4771	4771	5050	5050	5050	5050	5050	5050	5050	5050	5050	5050	0	0	0	0	0	0	0	0	0	0	7959	7779	7779	7779	7779	7608	7608	7608	7608	7608	7608	7608	7779	7779	7779	7779	7779	7779	7779	7779	7779	7608	7608	0	0	0	0	0	0	0	0	0	0	0	2532	2532	2514	2496	2496	2478	2478	2460	2443	2443	2426	2409	2392	2392	2392	2376	2359	2343	2343	2343	2327	2327	2312	2297	2281	2266	2266	2252	2237	2237	2223	2208	2208	2208	2208	2181	2181	2167	2167	2153	2140	2127	2114	2114	2101	2114	2114	2101	2088	2088	2088	2076	2076	2076	2076	2063	2063	2051	2015	1980	1969	1958	1947	1936	1936	1925	1925	0	0	0	0	0	0	0	0	0	0	0	0	0	0	0	0	0	0	0	0	0	0	0	0	0	0	0	0	0	0	0	0	0	0	0	0	0
0	0	0	0	0	0	0	0	0	0	0	0	0	0	0	0	0	0	0	0	0	0	0	0	0	0	0	0	0	0	0	0	0	0	0	0	0	0	0	0	0	0	0	0	0	0	0	0	0	0	0	0	0	2027	2027	2015	2027	2015	2015	2015	2015	2015	2015	2015	2015	2015	2015	2015	2015	2015	2015	2039	2039	2039	2039	2039	2039	2039	2039	2039	2039	2063	2063	2063	2063	2063	2076	2076	2088	2076	2076	2076	2076	2327	2327	2327	2327	2327	2327	2327	2327	2359	2359	2359	2359	0	0	4838	4771	4838	4771	4771	4771	4771	4771	4706	4350	4192	4243	4192	4192	4192	4192	4243	4192	4192	4192	4192	4192	4192	4142	4142	4142	4142	4142	4142	4142	4142	4142	4142	4192	4192	4192	4192	4142	4142	4142	4142	4142	4142	4142	4142	4093	4093	4093	4093	4093	4142	4142	4142	4142	4142	4142	4142	4142	4192	4192	4192	4192	4192	0	0	0	0	0	0	0	0	0	0	0	0	0	0	0	0	0	0	0	0	0	0	6720	6992	7287	7287	7287	7608	7608	7608	7779	7779	7779	7779	7608	7608	7608	7779	7779	7779	7779	7608	7959	7959	7959	7959	7959	7779	7779	7779	3821	3821	3821	3779	3779	3779	3779	3779	3779	3779	3779	3821	3821	3821	3821	3821	3821	3821	3821	3821	3821	3821	3864	3864	3864	3907	3864	3864	3864	3821	3821	3821	3821	3821	3821	3821	3821	3821	3821	3821	3821	3821	3821	3864	3907	3907	3907	3907	3907	3907	3907	3907	3907	3907	0	8146	8146	8146	8146	8146	8146	8146	7959	7959	7959	7959	7959	7779	7959	7959	8146	8146	4706	4706	4706	4706	4706	4706	4706	4706	4706	4706	4706	4706	4706	4706	4706	4706	4706	4706	4706	4643	4643	4643	4643	4643	4643	4643	4581	4521	4521	4521	4521	4521	4581	4581	4643	4643	4643	4643	4643	4643	4643	4643	4643	4581	4643	4643	4581	4581	4581	4581	4581	4581	4581	4581	4581	4581	4581	4581	4581	4581	4581	4581	4581	4581	4581	4581	4581	4581	4581	4581	4581	4581	4581	4581	4581	4581	4581	4581	4581	4521	4521	4463	4463	4463	4463	4406	4406	4406	4406	4406	4406	4406	4463	4463	4521	4581	4581	4581	4581	4521	4406	4406	4406	4463	4521	4581	4581	4643	4643	4643	4643	4643	4643	4643	4643	4643	4643	4581	4581	4581	4581	4643	4581	4643	4581	4643	4643	4643	4581	4581	4581	4643	4643	4643	4643	4643	4643	4643	4643	4643	4643	4643	4643	4643	4643	4643	4643	4643	4581	4643	4581	4581	4581	4581	4581	4581	4581	4581	4581	4581	4521	4581	4521	4521	4521	4521	4521	4463	4463	4406	4350	4296	4296	4296	4350	4406	4406	4463	4521	4581	4581	4581	4643	4581	4581	4643	4643	4706	4771	4771	5125	5050	5125	5125	5125	5050	5050	5050	5050	5050	0	0	0	0	0	0	0	0	0	0	0	0	0	0	7779	7608	7608	7608	7608	7608	7608	7608	7779	7779	7779	7779	7779	7779	7779	7779	7779	7608	7608	0	0	0	0	0	0	0	0	0	0	0	0	2532	2496	2496	2478	2478	2460	2460	2443	2443	2426	2409	2392	2392	2392	2376	2359	2359	2359	2343	2327	2327	2327	2297	2281	2266	2266	2266	2237	2237	2223	2223	2208	2208	2194	2181	2167	2167	2153	2153	2153	2140	2127	2114	2114	2114	2101	2101	2088	2088	2088	2076	2076	2076	2076	2063	2063	2051	2027	1980	1969	1947	1947	1936	1936	1925	1925	0	0	0	0	0	0	0	0	0	0	0	0	0	0	0	0	0	0	0	0	0	0	0	0	0	0	0	0	0	0	0	0	0	0	0	0	0
0	0	0	0	0	0	0	0	0	0	0	0	0	0	0	0	0	0	0	0	0	0	0	0	0	0	0	0	0	0	0	0	0	0	0	0	0	0	0	0	0	0	0	0	0	0	0	0	0	0	0	0	0	2027	2027	2015	2015	2015	2015	2015	2015	2015	2015	2015	2015	2015	2015	2015	2015	2015	2015	2015	2039	2039	2039	2051	2051	2051	2051	2039	2051	2063	2063	2076	2076	2063	2076	2076	2076	2076	2063	2051	2051	2327	2327	2327	2327	2327	2327	2327	2327	2343	2359	2343	2343	0	0	4838	4771	4838	4771	4771	4771	4771	4706	4706	4350	4243	4243	4192	4243	4243	4192	4192	4192	4243	4192	4142	4192	4142	4142	4142	4142	4142	4142	4142	4142	4142	4142	4142	4142	4192	4192	4192	4192	4192	4142	4142	4142	4093	4093	4093	4093	4093	4093	4093	4093	4142	4142	4142	4142	4142	4142	4142	4192	4192	4192	4192	4192	4192	0	0	0	0	0	0	0	0	0	0	0	0	0	0	0	0	6720	6853	6853	6853	0	6992	6853	6992	7137	7137	6992	7444	7287	7608	7608	7779	7959	7959	7779	7779	7779	7959	7779	7779	7779	7779	7959	8146	8146	7959	7959	7959	7779	0	3864	3821	3821	3779	3779	3779	3779	3779	3779	3779	3779	3821	3821	3821	3821	3821	3821	3821	3821	3821	3821	3821	3864	3864	3864	3907	3864	3864	3864	3821	3821	3821	3821	3821	3821	3821	3821	3821	3821	3821	3821	3821	3864	3907	3907	3907	3907	3907	3907	3907	3907	3907	3907	3907	0	8146	8146	8146	8146	8146	8146	8146	7959	7959	7959	7959	7959	7779	7779	7779	0	0	4706	4706	4706	4706	4706	4706	4706	4706	4706	4706	4706	4706	4706	4706	4706	4706	4706	4706	4706	4706	4706	4643	4643	4643	4643	4706	4643	4581	4521	4521	4521	4581	4581	4581	4643	4643	4643	4643	4643	4643	4643	4643	4643	4581	4581	4581	4581	4581	4581	4581	4581	4581	4581	4581	4581	4581	4581	4581	4581	4581	4581	4521	4581	4521	4521	4581	4581	4581	4581	4581	4581	4581	4581	4581	4581	4581	4581	4581	4581	4521	4521	4521	4521	4463	4463	4463	4463	4406	4406	4463	4406	4406	4463	4463	4521	4521	4581	4581	4581	4463	4406	4350	4350	4406	4463	4521	4581	4643	4643	4643	4643	4643	4643	4581	4643	4643	4581	4581	4581	4581	4581	4581	4581	4581	4581	4581	4643	4643	4643	4643	4643	4706	4706	4643	4643	4643	4706	4706	4706	4706	4706	4706	4643	4643	4643	4643	4643	4643	4643	4643	4643	4643	4581	4581	4581	4581	4581	4581	4581	4581	4581	4581	4581	4521	4521	4521	4521	4463	4463	4296	4296	4243	4296	4296	4350	4350	4406	4463	4463	4521	4581	4581	4581	4581	4581	4581	4643	4706	4771	4771	5050	5050	5125	5050	5050	5050	5050	5050	5050	5050	0	0	0	0	0	0	0	0	0	0	0	0	0	0	0	7608	7608	7779	7608	7608	7608	7608	7779	7779	7779	7779	7779	7779	7779	7779	7779	7608	7608	0	0	0	0	0	0	0	0	0	0	0	2551	2532	2514	2496	2478	2478	2478	2460	2460	2443	2426	2426	2409	2392	2392	2376	2359	2359	2359	2343	2327	2327	2327	2297	2281	2281	2266	2266	2252	2237	2223	2223	2208	2208	2194	2194	2167	2167	2153	2153	2153	2140	2127	2114	2101	2114	2101	2101	2088	2088	2076	2076	2076	2076	2076	2063	2063	2063	2051	1992	1969	1958	1958	1947	1936	1936	1936	0	0	0	0	0	0	0	0	0	0	0	0	0	0	0	0	0	0	0	0	0	0	0	0	0	0	0	0	0	0	0	0	0	0	0	0	0
0	0	0	0	0	0	0	0	0	0	0	0	0	0	0	0	0	0	0	0	0	0	0	0	0	0	0	0	0	0	0	0	0	0	0	0	0	0	0	0	0	0	0	0	0	0	0	0	0	0	0	0	0	0	2015	2015	2015	2015	2015	2015	2015	2015	2015	2015	2015	2015	2015	2015	2015	2015	2015	2015	2039	2039	2039	2051	2039	2051	2039	2051	2051	2063	2063	2063	2076	2063	2076	2076	2076	2076	2063	2051	2051	2312	2312	2312	2327	2327	2327	2327	2327	2343	2343	2343	2343	0	0	4771	4771	4771	4771	4771	4771	4706	4706	4643	4350	4192	4192	4192	4192	4192	4192	4192	4192	4243	4192	4142	4142	4142	4142	4142	4142	4142	4142	4142	4142	4142	4192	4142	4192	4243	4192	4192	4192	4142	4142	4142	4142	4093	4093	4093	4093	4093	4093	4093	4093	4142	4142	4142	4142	4142	4142	4142	4192	4192	4192	4192	4192	4192	0	0	0	0	0	0	0	0	0	0	0	0	0	0	0	0	6853	6853	6853	6853	6992	6992	6853	6853	6853	6720	6720	6992	6992	7444	7779	7779	7959	7779	7779	7779	7779	7779	7779	7779	7779	7779	7959	8146	8146	7959	7959	7959	0	0	3864	3864	3821	3821	3779	3779	3779	3779	3779	3779	3779	3821	3821	3821	3821	3864	3864	3864	3864	3864	3864	3864	3864	3907	3907	3907	3864	3864	3864	3821	3821	3821	3821	3821	3821	3821	3821	3821	3821	3821	3821	3864	3864	3907	3907	3907	3907	3907	3907	3907	3907	3907	3907	3907	0	8146	8146	8146	8146	8146	8146	8146	7959	7959	7959	7959	7959	7779	7779	7779	0	0	4706	4706	4706	4706	4706	4706	4706	4706	4706	4706	4706	4706	4706	4706	4706	4706	4706	4706	4706	4706	4706	4643	4643	4643	4643	4706	4643	4581	4521	4521	4521	4521	4581	4581	4643	4643	4706	4643	4643	4643	4643	4643	4643	4643	4643	4643	4643	4581	4581	4581	4581	4581	4581	4581	4581	4581	4643	4581	4581	4581	4521	4521	4581	4581	4581	4581	4581	4581	4581	4581	4581	4581	4581	4581	4581	4581	4581	4581	4581	4521	4521	4521	4463	4463	4463	4463	4463	4406	4406	4406	4406	4406	4463	4463	4521	4521	4581	4581	4581	4463	4406	4350	4350	4406	4463	4521	4581	4643	4643	4643	4643	4643	4643	4581	4581	4643	4581	4581	4581	4581	4581	4581	4581	4581	4581	4581	4581	4581	4581	4643	4643	4706	4706	4643	4643	4706	4706	4706	4706	4706	4706	4706	4643	4643	4643	4643	4643	4643	4643	4643	4643	4581	4581	4581	4581	4581	4581	4581	4581	4581	4581	4581	4581	4581	4521	4581	4521	4521	4463	4296	4296	4296	4350	4350	4350	4406	4463	4463	4521	4581	4581	4581	4581	4581	4581	4643	4643	4706	4771	4771	5050	5050	5125	5050	5050	5050	5050	5050	5050	0	0	0	0	0	0	0	0	0	0	0	0	0	0	0	0	0	7608	7608	7608	7608	7608	7608	7608	7779	7779	7779	7779	7779	7779	7608	7608	7608	7608	0	0	0	0	0	0	0	0	0	0	0	2551	2532	2496	2496	2478	2478	2478	2460	2443	2443	2426	2426	2409	2392	2392	2376	2376	2376	2359	2359	2343	2327	2327	2297	2297	2281	2281	2266	2252	2252	2223	2223	2208	2208	2194	2181	2167	2167	2153	2153	2153	2140	2127	2114	2101	2114	2101	2101	2101	2088	2076	2076	2076	2076	2076	2063	2063	2063	2051	2015	1980	1969	1958	1947	1936	1936	1936	0	0	0	0	0	0	0	0	0	0	0	0	0	0	0	0	0	0	0	0	0	0	0	0	0	0	0	0	0	0	0	0	0	0	0	0	0
0	0	0	0	0	0	0	0	0	0	0	0	0	0	0	0	0	0	0	0	0	0	0	0	0	0	0	0	0	0	0	0	0	0	0	0	0	0	0	0	0	0	0	0	0	0	0	0	0	0	0	0	0	0	2015	2015	2015	2015	2015	2015	2015	2015	2015	2015	2015	2015	2027	2027	2027	2027	2039	2039	2039	2027	2027	2039	2039	2039	2051	2051	2051	2063	2063	2076	2076	2076	2076	2076	2076	2076	2063	2051	2051	2343	2327	2312	2327	2327	2327	2327	2327	2343	2343	2343	2343	0	4771	4771	4771	4771	4771	4771	4706	4643	4643	4581	4192	4192	4192	4142	4192	4192	4192	4192	4192	4192	4192	4142	4142	4142	4142	4142	4142	4142	4093	4142	4142	4142	4192	4192	4192	4243	4192	4192	4192	4142	4142	4142	4142	4142	4093	4093	4093	4093	4093	4142	4093	4142	4142	4142	4192	4142	4142	4192	4192	4192	4192	4192	4192	4192	0	0	0	0	0	0	0	0	0	0	0	0	0	0	0	0	6853	6853	6853	6853	6853	6853	6853	6853	6853	6853	6853	6992	7137	7444	7608	7779	7779	7779	7779	7779	7779	7779	7779	7779	7779	7779	7959	8146	8146	8146	8146	0	0	0	3864	3864	3864	3821	3779	3779	3779	3779	3779	3779	3821	3821	3821	3821	3821	3864	3864	3864	3864	3864	3864	3864	3864	3864	3864	3864	3864	3864	3864	3821	3821	3821	3821	3821	3821	3821	3821	3821	3821	3821	3821	3864	3864	3907	3907	3907	3907	3907	3907	3907	3907	3907	3907	3907	0	8146	8146	8146	7959	7959	7959	8146	8146	8146	7959	8146	7959	7959	7959	7959	0	0	4706	4706	4706	4706	4706	4706	4706	4706	4706	4706	4706	4706	4706	4706	4706	4706	4706	4706	4706	4706	4706	4643	4706	4643	4643	4706	4643	4581	4581	4521	4521	4581	4581	4581	4643	4643	4643	4643	4643	4643	4643	4643	4643	4643	4643	4643	4643	4643	4581	4581	4581	4581	4581	4581	4581	4581	4643	4581	4581	4581	4521	4521	4521	4581	4521	4521	4521	4581	4581	4581	4581	4581	4581	4581	4581	4581	4581	4581	4581	4521	4521	4521	4521	4463	4463	4463	4463	4463	4406	4463	4406	4406	4463	4463	4521	4581	4581	4581	4581	4521	4463	4406	4406	4463	4521	4581	4581	4643	4643	4643	4643	4643	4581	4581	4581	4581	4581	4581	4581	4581	4581	4581	4581	4581	4581	4581	4581	4581	4581	4643	4643	4706	4706	4643	4643	4643	4706	4706	4706	4706	4643	4643	4643	4643	4643	4643	4643	4643	4643	4643	4581	4581	4581	4581	4581	4581	4581	4581	4581	4581	4521	4581	4581	4581	4463	4463	4521	4463	4463	4463	4406	4350	4350	4406	4406	4463	4463	4463	4521	4521	4581	4581	4581	4581	4581	4581	4643	4706	4771	4771	4771	5125	5125	5050	5050	5050	5050	0	0	0	0	0	0	0	0	0	0	0	0	0	0	0	0	0	0	0	0	7608	7608	7608	7608	7779	7779	7779	7779	7779	7779	7779	7779	7608	7608	7608	7608	0	0	0	0	0	0	0	0	0	0	0	0	2532	2496	2496	2478	2478	2460	2460	2443	2443	2426	2426	2409	2392	2392	2376	2376	2359	2343	2343	2327	2327	2312	2297	2297	2281	2281	2266	2266	2252	2223	2208	2208	2194	2194	2181	2167	2153	2153	2153	2140	2140	2127	2114	2101	2114	2101	2101	2101	2076	2076	2076	2076	2076	2063	2063	2063	2063	2063	2051	2015	1980	1980	1980	1947	1947	1947	0	0	0	0	0	0	0	0	0	0	0	0	0	0	0	0	0	0	0	0	0	0	0	0	0	0	0	0	0	0	0	0	0	0	0	0	0
0	0	0	0	0	0	0	0	0	0	0	0	0	0	0	0	0	0	0	0	0	0	0	0	0	0	0	0	0	0	0	0	0	0	0	0	0	0	0	0	0	0	0	0	0	0	0	0	0	0	0	0	0	0	2015	2015	2015	2015	2015	2015	2015	2027	2027	2027	2015	2015	2039	2039	2039	2039	2039	2039	2039	2027	2039	2039	2039	2051	2051	2051	2051	2063	2063	2076	2076	2076	2076	2076	2076	2063	2051	2039	2039	2312	2312	2312	2327	2327	2327	2327	2327	2343	2343	2343	0	0	4771	4771	4771	4771	4706	4771	4706	4643	4581	4192	4192	4192	4192	4192	4192	4192	4142	4142	4142	4142	4142	4142	4142	4142	4142	4142	4142	4142	4093	4142	4142	4142	4192	4192	4192	4243	4243	4243	4192	4192	4142	4142	4142	4142	4093	4093	4093	4093	4142	4142	4142	4192	4192	4142	4192	4142	4142	4192	4192	4192	4192	4192	4192	4192	0	0	0	0	0	0	0	0	0	0	0	0	0	0	0	0	6853	6853	6853	6853	6853	6853	6853	6853	6853	6853	6853	6853	6992	7287	7444	7608	7779	7779	7608	7608	7608	7608	7608	7608	7608	7779	7959	7959	8146	8146	8146	0	0	3998	3998	3864	3864	3821	3779	3779	3779	3779	3779	3779	3821	3821	3821	3821	3821	3864	3864	3864	3864	3864	3864	3864	3864	3864	3864	3864	3864	3864	3864	3864	3821	3821	3821	3821	3821	3821	3821	3821	3821	3821	3821	3864	3864	3907	3907	3907	3907	3907	3907	3907	3907	3907	3907	3907	0	8146	8146	8146	8146	8146	8146	8146	8146	8146	8146	8146	7959	7959	7959	7959	4706	4706	4706	4706	4706	4706	4706	4706	4706	4706	4706	4706	4706	4706	4643	4706	4706	4643	4643	4643	4706	4706	4706	4643	4706	4643	4643	4706	4643	4581	4581	4581	4581	4581	4581	4581	4643	4643	4643	4643	4643	4643	4643	4643	4643	4643	4643	4643	4643	4643	4581	4581	4581	4643	4581	4581	4581	4581	4581	4581	4581	4581	4521	4581	4581	4581	4581	4521	4521	4521	4581	4521	4581	4581	4581	4581	4581	4581	4581	4581	4581	4581	4581	4521	4521	4521	4463	4463	4463	4406	4406	4406	4406	4406	4463	4463	4521	4521	4581	4581	4581	4581	4463	4406	4463	4521	4521	4581	4581	4643	4643	4643	4643	4643	4581	4581	4581	4643	4643	4643	4581	4581	4581	4581	4581	4581	4581	4581	4581	4581	4581	4581	4581	4643	4643	4643	4643	4643	4643	4706	4706	4706	4643	4643	4643	4643	4581	4581	4581	4581	4643	4643	4643	4643	4643	4643	4581	4581	4581	4581	4521	4521	4521	4521	4521	4521	4463	4521	4521	4463	4463	4463	4463	4350	4406	4406	4406	4463	4463	4521	4521	4581	4581	4581	4581	4581	4521	4581	4643	4643	4771	4771	4771	5125	5125	5125	5125	5050	5050	0	0	0	0	0	0	0	0	0	0	0	0	0	0	0	0	0	0	0	0	7608	7608	7608	7608	7779	7779	7779	7779	7779	7779	7779	7779	7608	7608	7608	7608	0	0	0	0	0	0	0	0	0	0	0	0	2532	2478	2478	2478	2478	2460	2460	2460	2443	2443	2426	2409	2392	2376	2376	2359	2343	2343	2343	2327	2312	2312	2297	2297	2281	2281	2266	2266	2252	2223	2208	2194	2194	2181	2167	2167	2153	2153	2153	2140	2140	2127	2114	2101	2114	2101	2101	2101	2076	2076	2076	2076	2076	2063	2063	2063	2063	2063	2051	2027	2003	1980	1980	1969	1958	1958	0	0	0	0	0	0	0	0	0	0	0	0	0	0	0	0	0	0	0	0	0	0	0	0	0	0	0	0	0	0	0	0	0	0	0	0	0
0	0	0	0	0	0	0	0	0	0	0	0	0	0	0	0	0	0	0	0	0	0	0	0	0	0	0	0	0	0	0	0	0	0	0	0	0	0	0	0	2027	2027	2015	2015	0	0	0	0	0	0	0	0	0	0	2015	2015	2027	2027	2015	2015	2015	2015	2027	2015	2015	2015	2027	2027	2027	2039	2039	2039	2039	2027	2039	2039	2039	2051	2051	2051	2051	2063	2063	2076	2076	2063	2076	2076	2076	2063	2051	2039	2039	2327	2327	2327	2327	2327	2327	2327	2327	2359	2359	2359	2359	0	4771	4771	4771	4771	4706	4771	4706	4643	4581	4192	4243	4192	4192	4142	4142	4142	4142	4142	4142	4142	4142	4142	4142	4142	4142	4142	4142	4142	4093	4142	4142	4142	4192	4192	4192	4243	4243	4243	4192	4192	4142	4142	4142	4142	4142	4093	4093	4093	4142	4142	4142	4192	4192	4142	4192	4142	4192	4192	4192	4192	4192	4192	4192	4192	0	0	0	0	0	0	0	0	0	0	0	0	0	0	0	0	6992	6992	6992	6992	6992	6992	6853	6853	6853	6853	6853	6853	6992	7137	7444	7608	7779	7779	7608	7608	7779	7608	7608	7608	7608	7779	7959	7959	8146	8146	0	0	0	3998	3998	3907	3864	3821	3821	3821	3821	3779	3779	3779	3821	3821	3821	3821	3821	3821	3864	3864	3864	3864	3864	3864	3864	3864	3864	3864	3864	3864	3864	3864	3821	3821	3821	3821	3821	3821	3821	3821	3821	3821	3864	3864	3864	3907	3907	3907	3907	3907	3907	3907	3907	3907	3907	3907	0	8146	8146	8146	8146	8146	8146	8146	8146	8146	8146	8146	8146	7959	7959	7959	4706	4706	4706	4706	4706	4771	4706	4706	4706	4706	4706	4706	4643	4643	4643	4643	4706	4643	4706	4643	4706	4706	4706	4643	4643	4643	4643	4706	4643	4581	4581	4581	4521	4581	4581	4581	4581	4643	4643	4643	4581	4643	4643	4643	4643	4643	4643	4643	4643	4643	4643	4581	4581	4643	4581	4581	4581	4581	4521	4521	4581	4521	4521	4521	4581	4581	4581	4521	4521	4521	4521	4521	4521	4521	4581	4581	4581	4581	4581	4581	4581	4581	4521	4521	4521	4521	4463	4463	4463	4406	4406	4406	4406	4406	4463	4463	4463	4521	4521	4581	4581	4581	4463	4406	4521	4521	4521	4521	4581	4581	4643	4643	4643	4643	4643	4643	4643	4643	4643	4643	4581	4581	4581	4581	4581	4581	4581	4581	4581	4581	4581	4581	4581	4643	4643	4643	4643	4643	4643	4643	4643	4643	4643	4643	4643	4581	4581	4581	4581	4581	4581	4643	4643	4643	4581	4581	4581	4521	4521	4521	4463	4463	4463	4463	4463	4463	4463	4406	4406	4463	4463	4463	4406	4406	4406	4406	4406	4463	4463	4521	4521	4521	4521	4521	4581	4521	4521	4581	4581	4643	4771	4771	5050	5125	5125	5050	5050	4977	4977	0	0	0	0	0	0	0	0	0	0	0	0	0	0	0	0	0	0	0	7444	7608	7608	7608	7779	7779	7779	7779	7779	7779	7779	7779	7779	7608	7608	7608	7608	7608	0	0	0	0	0	0	0	0	0	0	0	0	2478	2478	2478	2478	2460	2460	2460	2443	2426	2426	2409	2392	2392	2376	2359	2359	2343	2343	2327	2312	2312	2297	2297	2281	2266	2266	2266	2252	2223	2208	2194	2181	2181	2167	2167	2153	2153	2153	2153	2140	2127	2114	2114	2114	2114	2101	2101	2076	2076	2076	2076	2076	2076	2063	2063	2063	2063	2051	2027	1980	1980	1980	1969	1958	1958	0	0	0	0	0	0	0	0	0	0	0	0	0	0	0	0	0	0	0	0	0	0	0	0	0	0	0	0	0	0	0	0	0	0	0	0	0
0	0	0	0	0	0	0	0	0	0	0	0	0	0	0	0	0	0	0	0	0	0	0	0	0	0	0	0	0	0	0	0	0	0	0	0	0	0	0	2039	2027	2027	2027	2027	2015	2015	2015	0	0	0	0	0	0	0	0	0	2027	2027	2015	2015	2015	2015	2015	2015	2015	2015	2039	2039	2027	2039	2039	2039	2039	2039	2039	2039	2039	2051	2051	2051	2051	2063	2063	2063	2076	2063	2076	2063	2063	2051	2051	2039	2039	2327	2327	2327	2327	2327	2327	2327	2327	2359	2359	2359	2359	0	4706	4771	4771	4706	4706	4706	4706	4643	4521	4192	4192	4192	4192	4142	4142	4142	4142	4142	4142	4142	4142	4142	4142	4142	4142	4142	4142	4142	4093	4142	4142	4142	4192	4192	4243	4243	4243	4243	4192	4192	4142	4142	4142	4142	4142	4093	4093	4093	4142	4142	4142	4192	4192	4192	4192	4192	4192	4192	4192	4192	4192	4192	4192	4192	0	0	0	0	0	0	0	0	0	0	0	0	0	0	0	0	6992	6992	6992	6992	6853	6853	6853	6853	6853	6853	6853	6853	6853	6992	7287	7444	7608	7608	7608	7608	7608	7608	7608	7608	7608	7608	7779	7779	7779	8146	0	0	0	0	0	3907	3864	3864	3821	3821	3821	3821	3779	3779	3821	3821	3821	3821	3821	3864	3864	3864	3864	3864	3864	3864	3864	3864	3864	3864	3864	3864	3864	3864	3864	3864	3864	3864	3821	3821	3821	3821	3821	3821	3864	3864	3864	3907	3907	3907	3907	3907	3907	3907	3907	3907	3907	3907	8146	8146	8146	8146	8146	8146	8146	8146	8146	8146	8146	7959	7959	7959	7959	7959	7959	4771	4771	4706	4706	4706	4706	4706	4706	4706	4706	4643	4643	4643	4643	4643	4643	4643	4706	4643	4706	4643	4706	4643	4643	4643	4643	4706	4643	4581	4581	4581	4521	4521	4521	4581	4581	4581	4581	4581	4581	4581	4581	4581	4581	4581	4643	4643	4643	4643	4643	4643	4643	4643	4581	4581	4581	4521	4521	4521	4521	4521	4521	4521	4521	4581	4521	4463	4463	4463	4463	4521	4521	4521	4581	4581	4581	4581	4581	4521	4581	4521	4521	4521	4521	4521	4463	4463	4463	4463	4406	4463	4406	4406	4463	4463	4463	4463	4521	4463	4521	4463	4406	4406	4406	4521	4521	4521	4581	4581	4643	4643	4643	4643	4581	4581	4581	4643	4643	4643	4581	4581	4581	4581	4581	4581	4581	4581	4581	4581	4581	4581	4581	4643	4643	4643	4643	4581	4643	4643	4643	4643	4643	4643	4581	4581	4581	4581	4521	4581	4581	4581	4521	4521	4521	4521	4463	4463	4463	4521	4463	4463	4463	4463	4463	4463	4406	4406	4406	4406	4406	4406	4350	4406	4406	4463	4463	4463	4463	4521	4521	4521	4521	4521	4521	4521	4521	4581	4581	4643	4706	4977	5050	5125	5050	5050	5050	5050	5050	0	0	0	0	0	0	0	0	0	0	0	0	0	0	0	0	0	0	0	7444	7608	7608	7779	7779	7779	7779	7779	7779	7779	7779	7779	7779	7608	7608	7608	7608	7608	0	0	0	0	0	0	0	0	0	0	0	0	2478	2478	2478	2478	2460	2460	2460	2443	2426	2426	2409	2392	2392	2376	2376	2359	2343	2343	2327	2312	2312	2297	2281	2266	2266	2266	2252	2252	2223	2208	2194	2181	2167	2167	2167	2153	2153	2153	2153	2140	2127	2127	2114	2114	2114	2101	2101	2076	2076	2063	2063	2063	2063	2063	2063	2063	2051	2051	2015	1980	1969	1969	1958	1958	1958	0	0	0	0	0	0	0	0	0	0	0	0	0	0	0	0	0	0	0	0	0	0	0	0	0	0	0	0	0	0	0	0	0	0	0	0	0
0	0	0	0	0	0	0	0	0	0	0	0	0	0	0	0	0	0	0	0	0	0	0	0	0	0	0	0	0	0	0	0	0	0	0	0	0	0	2027	2027	2027	2027	2015	2015	2003	2003	2003	0	0	0	0	0	0	0	0	0	2015	2027	2015	2015	2015	2015	2015	2015	2015	2015	2027	2027	2027	2027	2027	2027	2039	2039	2039	2051	2051	2051	2051	2051	2051	2063	2063	2076	2076	2076	2076	2076	2063	2063	2039	2039	2327	2343	2327	2343	2327	2327	2327	2343	2343	2359	2359	2359	2359	2359	4581	4706	4706	4706	4706	4706	4643	4581	4521	4243	4192	4192	4192	4142	4142	4142	4142	4142	4142	4142	4142	4142	4142	4142	4142	4142	4142	4142	4142	4142	4142	4142	4192	4192	4243	4243	4296	4243	4243	4192	4192	4142	4142	4142	4142	4093	4093	4142	4142	4142	4142	4192	4192	4192	4192	4192	4192	4192	4192	4192	4192	4192	4192	4192	0	0	0	0	0	0	0	0	0	0	0	0	0	0	0	0	0	0	0	0	6853	6853	6853	6853	6853	6853	6853	6853	6853	6992	6992	7137	7287	7444	7444	7444	7608	7444	7444	7608	7444	7608	7608	7608	7608	7608	0	0	0	0	3907	3907	3864	3864	3821	3821	3821	3821	3779	3779	3821	3821	3821	3821	3821	3864	3864	3864	3864	3864	3864	3864	3864	3864	3864	3864	3864	3864	3864	3864	3864	3864	3864	3864	3821	3821	3821	3821	3821	3821	3821	3864	3864	3907	3907	3907	3907	3907	3907	3907	3907	3907	3907	3907	8146	8146	8146	8146	8146	8146	8146	8146	8146	8146	7959	7959	7959	7959	7959	7959	7959	4706	4706	4706	4706	4706	4706	4706	4706	4643	4643	4643	4643	4643	4643	4643	4643	4643	4706	4643	4706	4643	4643	4643	4643	4643	4643	4706	4643	4581	4581	4581	4521	4521	4521	4521	4521	4581	4581	4581	4581	4581	4581	4581	4521	4581	4581	4581	4581	4581	4581	4581	4581	4581	4581	4581	4521	4521	4463	4406	4406	4406	4521	4521	4521	4521	4521	4463	4463	4463	4463	4521	4521	4581	4581	4581	4581	4581	4581	4521	4581	4521	4521	4463	4463	4463	4463	4463	4463	4463	4406	4463	4463	4463	4463	4406	4406	4406	4406	4350	4350	4463	4406	4406	4463	4521	4521	4521	4581	4581	4643	4581	4643	4643	4581	4581	4581	4643	4643	4643	4581	4581	4581	4581	4581	4581	4581	4581	4581	4581	4581	4581	4581	4643	4643	4643	4643	4581	4581	4643	4643	4643	4643	4581	4581	4581	4581	4581	4521	4521	4521	4521	4521	4463	4463	4463	4463	4463	4463	4463	4463	4463	4463	4406	4463	4406	4406	4350	4350	4406	4406	4406	4350	4406	4406	4463	4463	4463	4463	4463	4521	4521	4521	4521	4521	4521	4521	4521	4581	4643	4771	4838	4977	5050	5050	5050	5050	5050	5050	0	0	0	0	0	0	0	0	0	0	0	0	0	0	0	0	0	0	0	0	0	7608	7779	7779	7779	7779	7779	7779	7779	7779	7779	7779	7608	7608	7608	7608	7608	7608	0	0	0	0	0	0	0	0	0	0	0	2478	2478	2478	2478	2460	2460	2460	2443	2426	2426	2409	2392	2392	2376	2359	2359	2343	2343	2327	2312	2312	2297	2281	2266	2266	2252	2252	2252	2223	2208	2194	2181	2167	2167	2167	2153	2153	2153	2153	2153	2140	2127	2114	2114	2114	2101	2101	2076	2063	2063	2063	2063	2063	2063	2063	2063	2051	2051	2015	1992	1969	1969	1958	1947	1947	0	0	0	0	0	0	0	0	0	0	0	0	0	0	0	0	0	0	0	0	0	0	0	0	0	0	0	0	0	0	0	0	0	0	0	0	0
0	0	0	0	0	0	0	0	0	0	0	0	0	0	0	0	0	0	0	0	0	0	0	0	0	0	0	0	0	0	0	0	0	0	0	0	0	2027	2039	2027	2015	2027	2015	2015	2003	2003	2003	0	0	0	0	0	0	0	0	0	2039	2039	2015	2015	2027	2027	2027	2015	2015	2015	2027	2027	2027	2027	2027	2039	2039	2039	2039	2051	2051	2051	2051	2051	2063	2063	2063	2063	2076	2076	2063	2063	2063	2051	2051	2312	2327	2327	2343	2343	2327	2327	2343	2343	2343	2343	2359	2359	2359	2359	4643	4706	4706	4706	4706	4706	4581	4521	4463	4350	4192	4192	4142	4142	4142	4142	4142	4142	4142	4142	4142	4142	4142	4142	4142	4142	4142	4142	4142	4142	4142	4142	4192	4192	4243	4243	4243	4243	4243	4192	4192	4192	4142	4142	4142	4142	4142	4142	4142	4142	4142	4192	4192	4192	4192	4192	4192	4192	4192	4192	4192	4192	4192	4192	0	0	0	0	0	0	0	0	0	0	0	0	0	0	0	0	0	0	0	0	6720	6853	6720	6853	6853	6853	6853	6853	6853	6992	6992	6992	7137	7137	7287	7287	7444	7444	7444	7444	7444	7444	7608	7608	7608	7608	0	0	0	0	3907	3864	3864	3864	3821	3821	3821	3821	3821	3821	3821	3821	3779	3821	3821	3821	3821	3864	3864	3864	3864	3864	3864	3864	3864	3864	3864	3864	3864	3864	3864	3864	3864	3864	3864	3821	3821	3821	3821	3821	3821	3864	3864	3907	3907	3907	3907	3864	3864	3864	3864	3864	3864	7959	8146	7959	7959	8146	8146	8146	8146	8343	8146	8146	8146	8146	8146	7959	7959	7959	7959	4706	4706	4706	4706	4706	4706	4706	4706	4643	4643	4581	4643	4643	4643	4643	4643	4643	4706	4643	4643	4643	4643	4643	4643	4643	4643	4706	4643	4643	4581	4581	4521	4521	4521	4521	4521	4521	4521	4521	4521	4521	4521	4521	4521	4521	4521	4521	4521	4521	4581	4581	4581	4581	4581	4581	4521	4521	4463	4406	4463	4463	4521	4521	4521	4521	4521	4463	4463	4406	4406	4521	4521	4581	4581	4581	4581	4581	4521	4521	4581	4521	4521	4463	4463	4463	4463	4406	4463	4463	4406	4463	4406	4406	4406	4406	4406	4406	4406	4350	4350	4406	4406	4406	4463	4521	4521	4521	4581	4581	4581	4581	4581	4643	4581	4581	4581	4643	4643	4643	4643	4581	4581	4581	4581	4581	4581	4581	4581	4581	4581	4581	4581	4643	4643	4643	4643	4643	4643	4643	4643	4643	4581	4581	4581	4521	4521	4521	4521	4521	4521	4521	4463	4463	4463	4406	4406	4406	4406	4406	4406	4406	4406	4406	4406	4406	4406	4350	4350	4406	4406	4406	4406	4406	4406	4406	4406	4463	4463	4463	4521	4521	4521	4521	4521	4521	4521	4581	4581	4706	4771	4838	4977	5050	5050	5050	5050	0	0	0	0	0	0	0	0	0	0	0	0	0	0	0	0	0	0	0	0	0	0	0	7608	7779	7779	7779	7779	7779	7779	7779	7779	7779	7779	7608	7608	7608	7608	7608	7608	0	0	0	0	0	0	0	0	0	0	0	2496	2478	2478	2478	2478	2460	2443	2443	2409	2409	2409	2392	2392	2376	2376	2359	2343	2343	2327	2327	2312	2297	2297	2266	2252	2252	2252	2237	2223	2208	2194	2181	2181	2167	2167	2153	2153	2153	2140	2140	2127	2114	2101	2114	2114	2101	2101	2088	2063	2063	2063	2063	2063	2063	2063	2063	2051	2051	2015	1969	1958	1958	1947	1936	1936	0	0	0	0	0	0	0	0	0	0	0	0	0	0	0	0	0	0	0	0	0	0	0	0	0	0	0	0	0	0	0	0	0	0	0	0	0
0	0	0	0	0	0	0	0	0	0	0	0	0	0	0	0	0	0	0	0	0	0	0	0	0	0	0	0	0	0	0	0	0	0	0	0	0	2027	2027	2027	2015	2015	2003	2015	2003	2003	0	0	0	0	0	0	0	0	0	0	2027	2027	2015	2015	2015	2027	2027	2015	2015	2027	2027	2027	2039	2039	2039	2039	2039	2039	2039	2051	2051	2051	2051	2051	2063	2063	2063	2063	2063	2076	2076	2063	2063	2051	2051	2312	2312	2327	2343	2343	2327	2343	2343	2343	2359	2359	2376	2359	2359	0	4581	4706	4706	4706	4706	4706	4581	4521	4406	4296	4243	4192	4192	4142	4142	4142	4142	4142	4142	4142	4142	4142	4142	4142	4142	4142	4142	4142	4142	4142	4142	4142	4192	4192	4243	4243	4243	4243	4243	4192	4192	4192	4192	4142	4142	4142	4142	4142	4142	4142	4142	4142	4192	4192	4192	4192	4192	4192	4192	4192	4192	4243	4243	4192	0	0	0	0	0	0	0	0	0	0	0	0	0	0	0	0	0	0	0	0	6720	6853	6720	6853	6853	6853	6853	6853	6853	6853	6853	6992	6992	7137	7137	7137	7287	7444	7444	7444	7444	7444	7608	7444	7444	7444	0	0	0	0	3907	3864	3864	3821	3821	3821	3821	3821	3821	3821	3821	3821	3821	3821	3821	3821	3821	3821	3864	3864	3864	3864	3821	3864	3864	3864	3864	3864	3864	3864	3864	3864	3864	3864	3864	3864	3864	3864	3821	3821	3821	3864	3864	3907	3907	3907	3907	3864	3864	3864	3864	3864	3864	7779	7779	7959	7959	7959	8146	8146	8146	8343	8146	8146	8146	8146	7959	7959	7959	7959	7959	4706	4706	4706	4706	4706	4706	4706	4706	4643	4643	4643	4643	4643	4643	4643	4706	4643	4706	4643	4706	4643	4643	4643	4706	4643	4643	4706	4643	4643	4581	4581	4521	4521	4406	4406	4463	4463	4521	4463	4521	4463	4463	4463	4463	4463	4463	4463	4463	4463	4463	4463	4521	4463	4521	4463	4463	4463	4406	4406	4406	4406	4463	4521	4521	4521	4463	4406	4406	4406	4296	4521	4521	4521	4581	4581	4581	4521	4521	4463	4521	4463	4463	4463	4406	4406	4406	4406	4406	4406	4406	4406	4406	4406	4406	4406	4350	4350	4350	4296	4296	4350	4350	4406	4406	4521	4521	4521	4521	4581	4581	4581	4581	4581	4581	4581	4581	4581	4643	4643	4581	4581	4581	4581	4581	4581	4581	4581	4581	4581	4581	4581	4581	4643	4643	4643	4581	4581	4581	4581	4581	4581	4581	4521	4581	4521	4521	4521	4521	4521	4521	4463	4463	4463	4406	4406	4406	4406	4406	4350	4406	4406	4406	4406	4406	4406	4350	4350	4350	4350	4350	4406	4350	4350	4350	4406	4406	4406	4463	4463	4521	4521	4521	4521	4521	4521	4521	4581	4581	4706	4771	4838	4906	4906	5050	5050	5050	0	0	0	0	0	0	0	0	0	0	0	0	0	0	0	0	0	0	0	0	0	0	0	7608	7779	7779	7779	7779	7779	7779	7779	7779	7779	7779	7608	7608	7779	7608	7608	7608	0	0	0	0	0	0	0	0	0	0	0	2478	2478	2478	2478	2478	2460	2460	2443	2426	2426	2409	2392	2392	2376	2359	2343	2343	2327	2327	2327	2312	2297	2297	2266	2266	2252	2252	2237	2223	2208	2194	2181	2167	2167	2167	2153	2153	2153	2140	2140	2127	2114	2114	2114	2114	2114	2101	2088	2063	2051	2063	2063	2063	2063	2051	2051	2039	2039	2003	1969	1958	1958	1947	1936	1936	0	0	0	0	0	0	0	0	0	0	0	0	0	0	0	0	0	0	0	0	0	0	0	0	0	0	0	0	0	0	0	0	0	0	0	0	0
0	0	0	0	0	0	0	0	0	0	0	0	0	0	0	0	0	0	0	0	0	0	0	0	0	0	0	0	0	0	0	0	0	0	0	0	2003	2015	2015	2015	2003	2003	2003	2003	2003	2015	2015	0	0	0	0	0	0	0	0	0	2039	2027	2015	2015	2015	2015	2015	2015	2015	2015	2027	2027	2027	2027	2039	2039	2039	2039	2039	2051	2051	2051	2051	2051	2051	2063	2063	2063	2063	2051	2051	2051	2051	2039	2039	2312	2327	2327	2343	2343	2343	2327	2343	2343	2343	2359	2376	2359	2359	2359	4581	4706	4706	4706	4706	4706	4581	4521	4406	4296	4243	4192	4192	4142	4142	4142	4142	4142	4142	4142	4142	4142	4142	4142	4142	4142	4142	4142	4142	4142	4142	4142	4192	4192	4243	4243	4243	4243	4243	4243	4192	4192	4192	4142	4142	4142	4142	4142	4142	4142	4142	4192	4192	4142	4192	4142	4192	4192	4192	4192	4192	4243	4243	0	0	0	0	0	0	0	0	0	0	0	0	0	0	0	0	0	0	0	0	0	6720	6853	6720	6853	6853	6853	6853	6853	6853	6853	6853	6853	6853	6992	7137	7137	7287	7287	7444	7444	7444	7444	7444	7444	7444	7444	7444	0	0	0	3907	3864	3864	3864	3821	3821	3821	3821	3821	3821	3821	3821	3779	3821	3821	3821	3821	3821	3821	3864	3864	3864	3864	3864	3864	3864	3864	3864	3864	3864	3864	3864	3864	3864	3864	3821	3821	3821	3821	3821	3821	3821	3821	3864	3864	3864	3864	3864	3864	3864	3864	3864	7959	7779	7959	7959	7959	7959	8146	8146	8146	8343	8146	8146	7959	7959	7959	7959	7959	7959	7959	4706	4706	4706	4706	4706	4706	4706	4706	4643	4643	4643	4643	4643	4643	4643	4706	4706	4706	4706	4706	4643	4706	4643	4643	4643	4643	4706	4643	4581	4581	4521	4521	4463	4406	4406	4406	4463	4463	4463	4463	4463	4463	4463	4463	4406	4406	4406	4406	4406	4406	4406	4463	4406	4406	4406	4406	4406	4350	4350	4350	4406	4406	4463	4463	4406	4406	4350	4350	4350	4296	4350	4406	4406	4521	4521	4521	4521	4521	4463	4521	4463	4463	4406	4406	4406	4406	4406	4406	4406	4406	4406	4406	4406	4406	4350	4350	4350	4296	4243	4243	4296	4350	4350	4406	4521	4521	4521	4581	4581	4581	4581	4581	4581	4581	4581	4581	4643	4643	4643	4643	4581	4581	4581	4581	4581	4581	4581	4581	4581	4581	4581	4581	4643	4581	4581	4581	4581	4581	4581	4581	4581	4521	4521	4521	4521	4521	4463	4463	4463	4463	4463	4463	4406	4406	4406	4350	4350	4350	4350	4350	4406	4406	4406	4406	4406	4350	4350	4350	4350	4350	4350	4350	4350	4350	4406	4406	4406	4463	4463	4463	4521	4521	4521	4521	4521	4521	4521	4581	4643	4771	4838	4906	5050	5125	5125	0	0	0	0	0	0	0	0	0	0	0	0	0	0	0	0	0	0	0	0	0	0	0	0	7779	7779	7779	7779	7779	7779	7779	7779	7779	7779	7779	7608	7608	7779	7779	7608	7608	7608	0	0	0	0	0	0	0	0	0	0	2478	2478	2478	2460	2460	2460	2460	2443	2426	2426	2409	2409	2392	2376	2376	2359	2343	2343	2327	2327	2327	2312	2297	2281	2266	2252	2252	2237	2223	2208	2194	2181	2167	2167	2167	2153	2153	2153	2140	2140	2127	2114	2114	2114	2114	2101	2101	2088	2063	2051	2063	2063	2063	2063	2051	2051	2027	1992	1980	1958	1947	1947	1947	1936	1936	0	0	0	0	0	0	0	0	0	0	0	0	0	0	0	0	0	0	0	0	0	0	0	0	0	0	0	0	0	0	0	0	0	0	0	0	0
0	0	0	0	0	0	0	0	0	0	0	0	0	0	0	0	0	0	0	0	0	0	0	0	0	0	0	0	0	0	0	0	0	0	0	0	2003	2003	2003	2015	2003	2003	2003	2003	2003	2015	2015	0	0	0	0	0	0	0	0	2015	2027	2027	2015	2015	2015	2015	2015	2015	2015	2027	2027	2027	2027	2039	2039	2039	2039	2039	2039	2051	2051	2039	2039	2039	2051	2051	2051	2051	2051	2051	2051	2266	2281	2281	2312	2297	2312	2327	2327	2327	2327	2327	2327	2343	2359	2359	2376	2359	2359	2359	0	4706	4771	4771	4771	4706	4581	4463	4350	4296	4243	4192	4192	4142	4142	4142	4142	4142	4142	4142	4142	4142	4142	4142	4142	4142	4142	4142	4142	4142	4192	4192	4192	4192	4243	4243	4296	4243	4296	4243	4192	4192	4192	4142	4142	4142	4142	4142	4142	4142	4142	4192	4192	4142	4142	4142	4192	4192	4192	4192	4243	4243	4243	0	0	0	0	0	0	0	0	0	0	0	0	0	0	0	0	0	0	0	0	7444	6853	6853	6720	6853	6853	6853	6853	6853	6853	6853	6853	6853	6853	6853	6853	6853	6992	7137	7137	7444	7444	7444	7608	7444	7444	7444	7444	0	0	0	3907	3864	3864	3864	3821	3821	3821	3821	3821	3779	3821	3821	3779	3821	3821	3821	3821	3821	3821	3864	3864	3864	3864	3864	3864	3864	3864	3864	3864	3864	3864	3864	3864	3864	3864	3821	3864	3864	3821	3821	3821	3821	3821	3864	3864	3864	3864	3864	3864	3864	3864	3864	7959	7779	7959	7959	7959	7959	7959	8146	8146	8343	8146	8146	7959	8146	7959	7959	7959	7959	7959	4643	4706	4706	4706	4706	4706	4706	4706	4643	4643	4581	4643	4643	4643	4643	4706	4706	4706	4706	4706	4706	4706	4643	4643	4643	4643	4643	4643	4581	4581	4521	4463	4406	4350	4350	4350	4406	4406	4463	4463	4406	4406	4406	4406	4406	4406	4406	4406	4406	4406	4406	4406	4406	4406	4406	4406	4406	4406	4350	4406	4406	4406	4463	4406	4406	4406	4350	4350	4350	4296	4350	4406	4406	4463	4521	4521	4521	4463	4406	4463	4463	4406	4406	4406	4406	4406	4406	4406	4406	4350	4406	4406	4406	4406	4350	4350	4296	4296	4243	4243	4243	4296	4350	4406	4521	4521	4521	4581	4581	4581	4581	4581	4581	4581	4581	4643	4643	4643	4643	4643	4581	4581	4581	4581	4581	4581	4581	4581	4581	4581	4581	4581	4581	4643	4643	4643	4581	4581	4581	4581	4581	4521	4521	4521	4521	4521	4463	4463	4463	4463	4463	4406	4406	4406	4350	4350	4350	4350	4350	4350	4406	4406	4350	4350	4350	4350	4350	4296	4296	4296	4296	4296	4296	4350	4350	4406	4406	4463	4463	4463	4463	4463	4463	4463	4521	4521	4581	4581	4643	4706	4771	4838	4838	5125	5125	0	0	0	0	0	0	0	0	0	0	0	0	0	0	0	0	0	0	0	0	0	0	0	0	7779	7779	7779	7779	7779	7779	7779	7779	7779	7779	7779	7779	7779	7608	7608	7608	7608	7608	0	0	0	0	0	0	0	0	0	0	2478	2478	2460	2460	2460	2460	2443	2443	2426	2426	2409	2409	2392	2376	2359	2343	2343	2327	2327	2327	2327	2312	2297	2281	2252	2252	2237	2237	2223	2208	2194	2181	2167	2167	2167	2153	2153	2153	2140	2140	2127	2114	2114	2114	2114	2101	2101	2088	2076	2063	2063	2063	2063	2063	2051	2051	2015	1980	1980	1958	1947	1947	1936	1936	1936	0	0	0	0	0	0	0	0	0	0	0	0	0	0	0	0	0	0	0	0	0	0	0	0	0	0	0	0	0	0	0	0	0	0	0	0	0
0	0	0	0	0	0	0	0	0	0	0	0	0	0	0	0	0	0	0	0	0	0	0	0	0	0	0	0	0	0	0	0	0	0	0	0	2003	2003	2003	2003	2003	2015	2003	2015	2003	2003	2015	0	0	0	0	0	0	0	0	2015	2027	2027	2015	2015	2015	2015	2015	2003	2015	2015	2027	2015	2027	2027	2039	2039	2039	2039	2039	2039	2039	2039	2039	2039	2051	2051	2051	2039	2039	2039	2039	2266	2312	2281	2312	2297	2312	2312	2312	2327	2327	2327	2327	2343	2343	2359	2359	2343	2343	0	0	4706	4771	4771	4771	4706	4643	4521	4350	4296	4296	4192	4142	4142	4142	4142	4093	4093	4142	4093	4142	4093	4142	4142	4142	4142	4142	4142	4142	4142	4142	4192	4192	4192	4192	4243	4243	4243	4243	4192	4192	4192	4192	4142	4142	4142	4142	4142	4142	4142	4142	4192	4192	4142	4142	4142	4142	4192	4192	4192	4192	4192	0	0	0	0	0	0	0	0	0	0	0	0	0	0	0	0	0	0	0	0	0	7287	6853	6853	6720	6720	6853	6853	6853	6853	6853	6853	6853	6853	6853	6720	6853	6853	6992	7137	7287	7444	7444	7444	7608	7444	7444	7444	7444	0	0	0	3907	3864	3864	3864	3821	3821	3821	3821	3821	3779	3779	3821	3779	3821	3821	3821	3821	3821	3864	3864	3864	3864	3864	3864	3864	3864	3864	3864	3864	3864	3864	3864	3864	3864	3864	3821	3864	3864	3821	3821	3821	3821	3821	3864	3864	3864	3864	3864	3864	3864	3864	3864	3864	7779	7779	7779	7779	7959	7959	7959	8146	8146	8146	8146	7959	8146	7959	7959	7959	0	0	4643	4643	4706	4706	4706	4706	4706	4706	4706	4643	4643	4643	4643	4643	4706	4706	4706	4706	4706	4706	4706	4706	4706	4643	4643	4643	4643	4643	4581	4581	4521	4463	4463	4350	4350	4350	4406	4406	4406	4406	4406	4406	4406	4406	4406	4406	4350	4406	4350	4350	4406	4406	4406	4406	4406	4406	4463	4406	4406	4406	4406	4406	4463	4406	4350	4350	4350	4350	4296	4296	4296	4350	4350	4350	4406	4406	4463	4463	4406	4521	4463	4406	4406	4406	4406	4406	4406	4406	4406	4406	4406	4406	4406	4406	4350	4350	4350	4296	4296	4243	4296	4350	4350	4406	4463	4521	4521	4581	4581	4581	4581	4643	4643	4581	4581	4643	4643	4643	4643	4643	4643	4581	4581	4581	4581	4581	4581	4581	4581	4581	4581	4581	4643	4643	4643	4643	4643	4643	4643	4581	4581	4521	4521	4463	4463	4463	4463	4463	4463	4463	4406	4406	4406	4350	4350	4350	4350	4350	4350	4350	4350	4350	4350	4350	4350	4350	4296	4296	4296	4296	4296	4296	4296	4296	4296	4350	4350	4350	4406	4463	4463	4463	4463	4521	4521	4521	4581	4643	4706	4771	4771	4771	4838	0	0	0	0	0	0	0	0	0	0	0	0	0	0	0	0	0	0	0	0	0	0	0	0	0	0	0	7779	7779	7779	7779	7779	7779	7779	7779	7779	7779	7608	7608	7608	7608	7608	7608	7608	0	0	0	0	0	0	0	0	0	0	2496	2496	2460	2460	2460	2460	2443	2443	2426	2409	2409	2409	2392	2392	2359	2343	2343	2327	2327	2327	2327	2312	2297	2281	2252	2252	2237	2237	2223	2208	2208	2194	2181	2167	2167	2167	2153	2153	2140	2140	2127	2114	2101	2114	2101	2088	2088	2076	2076	2063	2063	2063	2063	2063	2051	2039	2003	1980	1969	1947	1936	1936	1936	1925	1925	0	0	0	0	0	0	0	0	0	0	0	0	0	0	0	0	0	0	0	0	0	0	0	0	0	0	0	0	0	0	0	0	0	0	0	0	0
0	0	0	0	0	0	0	0	0	0	0	0	0	0	0	0	0	0	0	0	0	0	0	0	0	0	0	0	0	0	0	0	0	0	0	0	2003	2003	2003	2003	2003	2003	2003	2015	2015	2015	0	0	0	0	0	0	0	0	2015	2015	2015	2015	2015	2015	2015	2015	2015	2015	2015	2027	2027	2027	2027	2027	2039	2039	2039	2039	2039	2039	2051	2039	2039	2039	2051	2051	2051	2039	2039	2039	2281	2266	2281	2281	2281	2281	2297	2312	2312	2312	2327	2327	2327	2343	2343	2359	2343	2343	2343	0	0	4706	4771	4838	4771	4771	4643	4643	4350	4296	4243	4192	4142	4142	4142	4142	4093	4093	4142	4093	4142	4093	4142	4142	4142	4142	4142	4142	4142	4142	4142	4192	4192	4192	4192	4243	4243	4243	4192	4192	4192	4192	4192	4142	4142	4142	4142	4142	4142	4142	4142	4192	4192	4142	4142	4142	4142	4142	4192	4192	4192	4192	0	0	0	0	0	0	0	0	0	0	0	0	0	0	0	0	0	0	0	0	0	6853	6720	6720	6720	6720	6720	6720	6853	6853	6853	6853	6853	6853	6853	6853	6853	6853	6853	6992	7137	7444	7444	7444	7608	7444	7444	7444	7444	0	0	0	3864	3864	3864	3821	3821	3821	3821	3821	3821	3779	3779	3821	3779	3821	3821	3821	3821	3864	3864	3864	3864	3864	3864	3864	3864	3864	3864	3864	3864	3864	3864	3864	3864	3864	3864	3821	3864	3821	3821	3821	3821	3821	3821	3864	3864	3864	3864	3864	3864	3864	3864	3864	3864	7779	7779	7779	7779	7779	7779	7779	7959	7959	7959	7959	7959	7959	7959	7959	0	0	0	4643	4643	4643	4706	4706	4706	4706	4706	4706	4706	4643	4643	4643	4643	4643	4643	4643	4706	4706	4706	4706	4706	4706	4643	4643	4643	4643	4643	4581	4581	4521	4521	4463	4350	4350	4350	4406	4406	4406	4463	4463	4406	4406	4406	4406	4350	4350	4350	4350	4350	4350	4406	4406	4406	4406	4406	4463	4406	4406	4406	4406	4406	4463	4406	4406	4350	4350	4350	4296	4296	4296	4350	4350	4350	4406	4406	4406	4406	4406	4521	4463	4406	4406	4406	4406	4463	4406	4406	4406	4406	4406	4406	4406	4406	4406	4350	4350	4350	4296	4296	4296	4296	4350	4406	4406	4463	4521	4521	4581	4581	4581	4581	4581	4581	4581	4643	4643	4643	4643	4643	4643	4643	4581	4581	4581	4581	4521	4581	4581	4581	4581	4581	4643	4643	4643	4643	4643	4643	4643	4581	4581	4521	4463	4463	4463	4463	4463	4406	4463	4406	4406	4406	4350	4350	4350	4350	4350	4296	4296	4296	4350	4350	4350	4350	4350	4296	4296	4296	4296	4296	4296	4296	4296	4296	4243	4296	4350	4350	4406	4463	4463	4521	4521	4521	4521	4521	4643	4643	4706	4706	4771	4771	0	0	0	0	0	0	0	0	0	0	0	0	0	0	0	0	0	0	0	0	0	0	0	0	0	0	0	7779	7779	7779	7779	7779	7608	7608	7608	7608	7779	7779	7608	7608	7608	7608	7608	7608	7608	0	0	0	0	0	0	0	0	0	0	2496	2496	2460	2460	2460	2460	2443	2443	2426	2409	2409	2409	2392	2392	2359	2343	2327	2327	2327	2327	2327	2312	2297	2281	2266	2252	2252	2237	2223	2208	2208	2194	2181	2181	2167	2167	2153	2153	2140	2140	2127	2114	2114	2114	2114	2101	2101	2088	2076	2063	2063	2063	2063	2063	2051	2027	1992	1980	1969	1947	1936	1936	1936	1925	1925	0	0	0	0	0	0	0	0	0	0	0	0	0	0	0	0	0	0	0	0	0	0	0	0	0	0	0	0	0	0	0	0	0	0	0	0	0
0	0	0	0	0	0	0	0	0	0	0	0	0	0	0	0	0	0	0	0	0	0	0	0	0	0	0	0	0	0	0	0	0	0	0	0	2003	2003	2003	2003	1992	1992	2003	2003	2003	2015	0	0	0	0	0	0	0	2027	2015	2015	2015	2015	2015	2015	2015	2015	2027	2015	2027	2027	2027	2027	2027	2027	2039	2039	2039	2039	2039	2039	2039	2039	2039	2039	2051	2051	2051	2039	2039	2281	2266	2266	2266	2281	2281	2281	2297	2297	2312	2312	2312	2327	2327	2327	2343	2359	2343	2343	2343	0	0	4771	4771	4838	4771	4706	4581	4581	4350	4243	4192	4192	4142	4142	4142	4142	4142	4142	4142	4142	4142	4142	4142	4142	4142	4142	4142	4142	4142	4142	4192	4192	4192	4192	4192	4243	4243	4192	4192	4142	4142	4142	4142	4142	4142	4142	4142	4142	4142	4142	4142	4192	4192	4142	4142	4142	4142	4142	4142	4142	4142	0	0	0	0	0	0	0	0	0	0	0	0	0	0	0	0	0	0	0	0	6853	6720	6720	6720	6720	6720	6720	6720	6720	6853	6853	6853	6853	6853	6853	6853	6853	6853	6853	6853	6992	7137	7287	7287	7444	7608	7444	7287	7287	7287	0	0	0	3864	3864	3864	3821	3821	3821	3821	3779	3779	3779	3779	3821	3779	3821	3821	3821	3821	3864	3864	3864	3864	3864	3864	3864	3864	3864	3864	3907	3864	3864	3864	3864	3864	3821	3821	3821	3821	3821	3821	3821	3821	3821	3821	3864	3864	3864	3864	3864	3864	3864	3864	3864	3864	7779	7608	7608	7608	7779	7779	7779	7779	7779	7779	7779	7779	7779	0	0	0	0	0	0	4643	4706	4706	4706	4706	4706	4706	4706	4706	4643	4643	4643	4643	4643	4643	4706	4706	4706	4706	4706	4706	4706	4706	4706	4643	4643	4643	4643	4581	4581	4521	4521	4406	4406	4406	4463	4463	4463	4463	4463	4463	4463	4463	4406	4406	4350	4350	4350	4350	4350	4406	4406	4406	4406	4463	4463	4463	4406	4406	4406	4463	4463	4463	4406	4406	4350	4350	4350	4350	4350	4350	4350	4406	4406	4406	4463	4406	4406	4521	4521	4463	4463	4463	4463	4521	4463	4463	4463	4406	4406	4406	4406	4406	4406	4406	4350	4350	4350	4350	4350	4350	4350	4406	4406	4521	4521	4521	4581	4581	4581	4643	4581	4581	4643	4643	4643	4643	4643	4643	4643	4643	4581	4581	4581	4581	4521	4521	4581	4581	4581	4581	4643	4643	4643	4643	4643	4643	4643	4581	4521	4463	4463	4463	4463	4406	4406	4406	4406	4406	4406	4406	4350	4350	4350	4296	4296	4296	4296	4296	4296	4296	4296	4296	4296	4296	4296	4296	4296	4296	4296	4296	4296	4243	4243	4243	4296	4296	4350	4463	4521	4581	4581	4581	4581	4581	4643	4706	4706	4771	4838	4838	0	0	0	0	0	0	0	0	0	0	0	0	0	0	0	0	0	0	0	0	0	0	0	0	0	0	0	7779	7779	7779	7779	7779	7608	7779	7779	7608	7608	7779	7608	7779	7608	7608	7444	7444	7608	0	0	0	0	0	0	0	0	0	0	2496	2496	2478	2460	2460	2460	2443	2443	2426	2409	2409	2409	2392	2359	2359	2343	2327	2327	2327	2327	2327	2312	2297	2297	2281	2266	2266	2252	2223	2208	2208	2194	2181	2181	2167	2167	2153	2153	2140	2140	2127	2114	2114	2114	2114	2101	2101	2088	2076	2076	2076	2076	2063	2063	2051	2039	2003	1980	1969	1947	1947	1936	1936	1925	1925	0	0	0	0	0	0	0	0	0	0	0	0	0	0	0	0	0	0	0	0	0	0	0	0	0	0	0	0	0	0	0	0	0	0	0	0	0
0	0	0	0	0	0	0	0	0	0	0	0	0	0	0	0	0	0	0	0	0	0	0	0	0	0	0	0	0	0	0	0	0	0	0	2015	2003	2003	2003	2003	1992	1992	2003	2003	2003	0	0	0	0	0	0	0	0	2015	2015	2015	2015	2015	2015	2003	2003	2015	2015	2015	2027	2027	2027	2027	2027	2027	2039	2039	2039	2039	2039	2039	2039	2039	2051	2051	2051	2051	2051	2051	2051	2281	2266	2266	2266	2281	2281	2281	2297	2297	2312	2312	2312	2327	2327	2327	2327	2343	2343	2343	2343	0	4771	4771	4771	4771	4771	4706	4581	4581	4296	4192	4192	4142	4142	4142	4142	4142	4142	4142	4142	4142	4142	4142	4142	4142	4142	4142	4142	4142	4142	4142	4192	4192	4192	4192	4192	4192	4243	4192	4142	4142	4142	4142	4142	4142	4142	4142	4142	4142	4142	4142	4142	4192	4192	4142	4192	4142	4192	4192	4192	4192	4192	0	0	0	0	0	0	0	0	0	0	0	0	0	0	0	0	0	0	0	6853	6720	6720	6720	6720	6720	6720	6720	6720	6720	6853	6853	6853	6853	6853	6853	6853	6853	6853	6853	6853	6853	6992	7137	7137	7137	7444	7287	7287	7137	7137	0	0	0	0	3864	3864	3821	3821	3821	3821	3779	3779	3779	3779	3821	3821	3821	3821	3821	3864	3864	3864	3864	3864	3864	3864	3864	3907	3907	3952	3952	3907	3907	3864	3864	3864	3821	3821	3821	3821	3821	3821	3821	3821	3821	3821	3864	3864	3907	3864	3864	3864	3864	3864	3864	3864	7608	7608	7608	7444	7608	7608	7608	7608	7608	7287	7287	7779	7779	0	0	0	0	0	0	4581	4643	4643	4706	4706	4706	4706	4706	4706	4643	4643	4643	4643	4643	4643	4706	4706	4706	4706	4706	4706	4706	4706	4706	4643	4706	4643	4643	4581	4521	4521	4521	4463	4406	4463	4463	4521	4521	4521	4521	4521	4521	4521	4463	4406	4406	4350	4350	4350	4350	4406	4406	4463	4521	4521	4521	4521	4463	4463	4463	4521	4521	4463	4521	4406	4463	4406	4406	4406	4406	4350	4406	4406	4406	4463	4463	4463	4463	4581	4521	4521	4521	4521	4521	4521	4521	4521	4521	4521	4521	4463	4463	4406	4406	4406	4406	4406	4350	4350	4350	4296	4350	4350	4406	4463	4521	4521	4581	4581	4581	4643	4643	4643	4643	4643	4643	4643	4643	4643	4581	4581	4581	4581	4581	4581	4521	4521	4581	4581	4581	4581	4643	4643	4643	4643	4643	4643	4643	4581	4521	4463	4463	4463	4463	4406	4406	4406	4463	4406	4406	4406	4350	4350	4350	4296	4296	4243	4243	4296	4296	4243	4243	4243	4243	4296	4243	4243	4243	4296	4243	4296	4296	4243	4243	4243	4243	4296	4350	4463	4581	4581	4581	4581	4581	4581	4643	4643	4706	4706	4771	4771	0	0	0	0	0	0	0	0	0	0	0	0	0	0	0	0	0	0	0	0	0	0	0	0	0	0	0	0	7779	7779	7779	7608	7608	7608	7608	7608	7608	7608	7608	7779	7608	7608	7608	7608	7608	0	0	0	0	0	0	0	0	0	0	2514	2496	2496	2478	2478	2460	2443	2443	2426	2409	2409	2392	2392	2359	2343	2343	2327	2327	2327	2327	2312	2312	2297	2297	2281	2266	2266	2252	2223	2223	2208	2194	2181	2181	2181	2167	2167	2153	2153	2140	2127	2114	2114	2114	2114	2101	2088	2088	2076	2076	2063	2063	2063	2063	2051	2039	2015	1980	1980	1969	1947	1936	1936	1925	1925	0	0	0	0	0	0	0	0	0	0	0	0	0	0	0	0	0	0	0	0	0	0	0	0	0	0	0	0	0	0	0	0	0	0	0	0	0
0	0	0	0	0	0	0	0	0	0	0	0	0	0	0	0	0	0	0	0	0	0	0	0	0	0	0	0	0	0	0	0	0	0	1992	2015	2003	2003	1992	1992	2003	1992	2003	2003	2003	0	0	0	0	0	0	0	0	2003	2003	2003	2003	2003	2003	2003	2015	2015	2015	2015	2015	2027	2027	2027	2027	2027	2039	2039	2039	2039	2039	2039	2039	2051	2051	2051	2051	2051	2063	2063	2063	2266	2266	2266	2281	2281	2281	2281	2297	2297	2312	2312	2312	2327	2327	2327	2327	2343	2343	2343	0	4771	4771	4771	4771	4771	4771	4706	4581	4581	4243	4192	4192	4142	4142	4142	4142	4142	4093	4142	4142	4142	4142	4142	4142	4142	4142	4142	4142	4142	4142	4142	4192	4192	4192	4192	4192	4192	4192	4142	4142	4142	4142	4142	4142	4142	4142	4142	4142	4142	4142	4142	4142	4142	4142	4192	4192	4192	4192	4192	4192	4192	4192	0	0	0	0	0	0	0	0	0	0	0	6720	6720	6720	6720	6720	6720	6720	6853	6853	6853	6720	6853	6853	6720	6720	6720	6720	6720	6720	6720	6720	6853	6853	6853	6853	6853	6853	6853	6853	6853	6992	6992	7137	7137	7444	7287	7137	6992	6992	6992	0	0	3907	3864	3864	3821	3821	3821	3779	3779	3779	3779	3779	3821	3821	3821	3821	3821	3821	3864	3864	3864	3864	3864	3864	3864	3907	3907	3952	3952	3907	3907	3864	3864	3864	3821	3821	3821	3821	3821	3821	3821	3821	3821	3821	3864	3864	3864	3864	3864	3864	3864	3864	3864	3864	3864	7608	7608	7444	7608	7608	7608	7608	7608	7287	7287	0	0	0	0	0	0	0	0	4581	4643	4706	4706	4706	4706	4706	4706	4706	4643	4643	4643	4643	4643	4643	4706	4706	4706	4706	4706	4706	4706	4706	4643	4643	4643	4643	4581	4581	4521	4521	4521	4463	4463	4463	4521	4521	4521	4521	4521	4581	4581	4521	4521	4521	4463	4463	4463	4406	4463	4521	4521	4521	4581	4581	4521	4521	4521	4521	4521	4521	4521	4521	4581	4521	4521	4521	4463	4463	4463	4406	4406	4463	4463	4521	4521	4521	4521	4581	4581	4581	4581	4581	4581	4581	4581	4581	4581	4581	4521	4521	4521	4463	4463	4463	4406	4406	4406	4406	4350	4296	4350	4350	4406	4463	4521	4521	4581	4643	4643	4643	4643	4643	4643	4706	4643	4643	4643	4581	4581	4581	4581	4581	4581	4521	4521	4521	4521	4581	4581	4581	4643	4643	4643	4643	4643	4643	4643	4581	4521	4521	4463	4463	4463	4406	4406	4406	4406	4406	4406	4350	4350	4350	4350	4296	4296	4243	4243	4243	4296	4243	4243	4243	4243	4243	4243	4243	4243	4243	4243	4296	4243	4243	4192	4243	4243	4243	4296	4521	4581	4581	4581	4581	4581	4581	4643	4643	4706	4706	4706	4771	0	0	0	0	0	0	0	0	0	0	0	0	0	0	0	0	0	0	0	0	0	0	0	0	0	0	0	0	7779	7779	7779	7779	7779	7779	7779	7608	7608	7608	7608	7608	7608	7608	7608	7608	7608	0	0	0	0	0	0	0	0	0	0	2514	2496	2496	2478	2478	2460	2460	2443	2426	2409	2409	2392	2392	2376	2343	2343	2327	2327	2327	2327	2312	2297	2281	2281	2281	2266	2252	2237	2223	2223	2208	2208	2194	2181	2181	2167	2167	2153	2153	2140	2127	2127	2114	2114	2101	2101	2088	2088	2088	2076	2076	2076	2076	2063	2063	2039	2015	1992	1980	1969	1947	1936	1936	1925	1925	0	0	0	0	0	0	0	0	0	0	0	0	0	0	0	0	0	0	0	0	0	0	0	0	0	0	0	0	0	0	0	0	0	0	0	0	0
0	0	0	0	0	0	0	0	0	0	0	0	0	0	0	0	0	0	0	0	0	0	0	0	0	0	0	0	0	0	0	0	0	0	1992	2015	1992	1992	1992	1992	1992	1992	1992	2003	2003	2003	0	0	0	0	0	0	0	2003	2003	2003	2003	2003	2003	2003	2003	2015	2015	2027	2015	2027	2027	2027	2027	2027	2027	2039	2039	2039	2039	2051	2051	2051	2051	2051	2063	2063	2076	2076	2076	2266	2266	2266	2266	2281	2281	2281	2297	2297	2312	2312	2312	2327	2327	2327	2327	2343	2343	0	0	4771	4771	4771	4771	4771	4706	4706	4581	4581	4243	4192	4142	4142	4142	4142	4093	4093	4093	4142	4093	4093	4142	4142	4142	4142	4142	4142	4142	4142	4142	4142	4142	4142	4142	4142	4142	4142	4142	4142	4142	4142	4142	4142	4142	4142	4142	4142	4142	4142	4142	4142	4142	4142	4192	4192	4192	4192	4192	4192	4192	4192	4192	4192	0	0	0	0	0	0	0	6720	6720	6720	6720	6720	6720	6720	6720	6720	6720	6853	6853	6720	6720	6853	6853	6853	6720	6720	6720	6720	6720	6720	6720	6720	6853	6853	6853	6720	6720	6720	6853	6853	6853	6853	6853	7137	7287	7137	7137	6992	6992	6992	0	0	3907	3864	3864	3821	3821	3821	3779	3779	3779	3779	3779	3779	3779	3821	3821	3864	3864	3864	3864	3864	3864	3864	3864	3864	3864	3998	3998	3998	3952	3907	3907	3864	3864	3821	3821	3821	3821	3821	3821	3821	3821	3821	3821	3864	3864	3907	3907	3907	3864	3907	3907	3907	3864	3864	0	0	0	0	0	0	0	0	0	0	0	0	0	0	0	0	0	0	4643	4643	4706	4706	4706	4706	4706	4706	4706	4643	4706	4643	4643	4643	4643	4643	4643	4643	4643	4643	4643	4706	4706	4706	4643	4706	4643	4643	4581	4581	4581	4521	4521	4521	4521	4581	4581	4581	4581	4581	4581	4581	4581	4521	4521	4521	4521	4521	4521	4521	4581	4581	4643	4643	4643	4643	4581	4581	4581	4581	4581	4581	4581	4581	4581	4581	4581	4581	4521	4521	4521	4521	4521	4521	4521	4521	4581	4581	4643	4643	4643	4581	4581	4581	4581	4581	4581	4581	4581	4581	4581	4521	4521	4521	4521	4463	4463	4463	4463	4406	4350	4350	4350	4463	4521	4581	4581	4581	4643	4643	4643	4643	4643	4706	4706	4643	4643	4643	4581	4581	4581	4581	4581	4581	4581	4581	4521	4521	4581	4581	4581	4643	4643	4643	4643	4643	4643	4643	4581	4521	4463	4463	4463	4406	4406	4406	4406	4406	4406	4350	4350	4296	4296	4296	4296	4243	4243	4296	4296	4296	4243	4243	4243	4243	4243	4243	4243	4243	4243	4243	4296	4243	4243	4243	4243	4243	4243	4296	4463	4581	4581	4581	4581	4581	4581	4706	4706	4706	4771	4771	4771	0	0	0	0	0	0	0	0	0	0	0	0	0	0	0	0	0	0	0	0	0	0	0	0	0	0	0	0	7779	7779	7779	7779	7779	7779	7779	7779	7779	7779	7779	7779	7779	7779	7779	7779	7608	0	0	0	0	0	0	0	0	0	0	2514	2514	2496	2478	2478	2460	2443	2443	2426	2409	2392	2392	2392	2376	2343	2343	2327	2327	2327	2312	2297	2297	2281	2281	2281	2266	2252	2237	2223	2223	2223	2208	2194	2194	2194	2181	2167	2153	2153	2140	2127	2114	2114	2114	2101	2088	2088	2076	2076	2076	2076	2076	2076	2063	2063	2051	2039	2003	1980	1969	1947	1936	1936	1925	1925	0	0	0	0	0	0	0	0	0	0	0	0	0	0	0	0	0	0	0	0	0	0	0	0	0	0	0	0	0	0	0	0	0	0	0	0	0
0	0	0	0	0	0	0	0	0	0	0	0	0	0	0	0	0	0	0	0	0	0	0	0	0	0	0	0	0	0	0	0	0	0	0	0	2003	1992	1992	1992	1992	1992	2003	2003	2003	2003	0	0	0	0	0	0	0	0	2003	2003	2003	2003	2003	2003	2003	2015	2015	2015	2015	2027	2027	2027	2039	2027	2027	2039	2039	2039	2051	2051	2051	2051	2051	2063	2063	2076	2088	2088	2088	2266	2266	2266	2266	2281	2266	2281	2281	2297	2312	2312	2327	2327	2327	2327	2327	2343	2343	0	0	4771	4771	4771	4771	4771	4706	4706	4521	4521	4243	4142	4142	4142	4093	4142	4093	4142	4093	4142	4142	4142	4142	4142	4142	4142	4142	4142	4142	4142	4142	4142	4142	4142	4142	4142	4142	4142	4142	4142	4142	4142	4142	4142	4142	4142	4142	4142	4142	4142	4142	4142	4142	4142	4192	4192	4192	4192	4192	4192	4142	4142	4142	4142	5626	5626	5719	5815	5815	0	0	6720	6720	6720	6720	6720	6720	6720	6720	6720	6720	6720	6720	6720	6720	6720	6720	6853	6720	6720	6720	6853	6853	6853	6853	6720	6853	6853	6853	6853	6853	6720	6853	6853	6853	6853	6853	7137	7287	7137	7137	6992	6992	6992	0	0	0	3864	3864	3821	3779	3779	3779	3779	3779	3738	3779	3779	3779	3821	3821	3864	3864	3864	3864	3864	3864	3864	3864	3907	3907	3998	3998	3998	3907	3907	3907	3864	3864	3821	3821	3821	3821	3821	3821	3821	3821	3821	3821	3864	3864	3907	3907	3907	3907	3907	3907	3907	3907	3864	0	0	0	0	0	0	0	0	7959	7959	0	0	0	0	0	0	0	0	4643	4643	4706	4706	4706	4706	4706	4706	4706	4706	4706	4706	4706	4643	4643	4643	4643	4643	4643	4643	4643	4706	4706	4706	4643	4706	4643	4643	4581	4581	4581	4581	4521	4521	4521	4581	4581	4581	4581	4581	4581	4581	4581	4581	4581	4581	4581	4581	4581	4581	4581	4581	4643	4643	4643	4643	4581	4581	4581	4581	4581	4581	4581	4581	4581	4581	4581	4581	4581	4521	4521	4521	4521	4521	4581	4581	4581	4581	4643	4643	4643	4643	4643	4643	4643	4581	4643	4581	4581	4581	4581	4581	4581	4581	4581	4521	4521	4521	4463	4463	4406	4350	4463	4521	4521	4581	4581	4581	4643	4643	4643	4643	4706	4706	4706	4643	4643	4581	4581	4581	4581	4581	4581	4581	4581	4581	4521	4521	4581	4581	4581	4643	4643	4643	4643	4643	4643	4643	4581	4581	4521	4521	4463	4463	4406	4406	4406	4406	4406	4350	4296	4296	4296	4296	4296	4243	4243	4243	4243	4296	4243	4243	4243	4243	4243	4243	4243	4243	4243	4243	4243	4243	4243	4192	4243	4243	4243	4296	4463	4581	4581	4643	4643	4643	4643	4706	4706	4706	4771	4771	4771	0	0	0	0	0	0	0	0	0	0	0	0	0	0	0	0	0	0	0	0	0	0	0	0	0	0	0	0	7779	7779	7779	7779	7779	7779	7779	7779	7779	7608	7779	7608	7608	7608	7608	7608	0	0	0	0	0	0	0	0	0	0	0	2514	2514	2496	2496	2478	2478	2460	2443	2409	2409	2392	2392	2392	2376	2359	2343	2343	2327	2327	2312	2297	2297	2281	2281	2281	2266	2252	2237	2223	2223	2223	2208	2208	2194	2181	2167	2167	2153	2153	2140	2127	2114	2114	2114	2101	2088	2076	2076	2076	2076	2063	2076	2063	2063	2063	2051	2051	2027	2003	1980	1958	1936	1936	1925	1925	0	0	0	0	0	0	0	0	0	0	0	0	0	0	0	0	0	0	0	0	0	0	0	0	0	0	0	0	0	0	0	0	0	0	0	0	0
0	0	0	0	0	0	0	0	0	0	0	0	0	0	0	0	0	0	0	0	0	0	0	0	0	0	0	0	0	0	0	0	0	0	0	2003	1992	1992	1992	1992	1992	1980	1992	1992	1992	2003	0	0	0	0	0	0	0	2027	2003	2003	1992	2003	1992	2003	2003	2015	2027	2027	2027	2027	2027	2039	2039	2039	2039	2039	2039	2051	2051	2051	2051	2051	2063	2063	2076	2076	2088	2101	2101	2101	2252	2266	2266	2281	2266	2281	2281	2297	2312	2312	2327	2327	2327	2327	2327	2327	2343	0	4771	4771	4771	4771	4771	4706	4643	4643	4521	4521	4243	4142	4142	4142	4093	4142	4142	4142	4142	4142	4142	4142	4142	4142	4142	4142	4142	4192	4142	4142	4142	4142	4142	4142	4142	4142	4142	4142	0	4142	4142	4192	4192	4142	4142	4142	4142	4142	4142	4142	4142	4142	4142	4142	4192	4192	4192	4192	4192	4192	4142	4142	4093	5719	5626	5719	5719	5815	5815	0	0	6720	6720	6720	6720	6720	6720	6720	6720	6720	6720	6720	6720	6720	6720	6720	6720	6720	6720	6720	6720	6720	6720	6720	6720	6720	6853	6853	6853	6853	6853	6853	6853	6720	6720	6720	0	0	0	0	0	0	0	0	0	0	0	0	3821	3779	3779	3779	3779	3779	3779	3779	3779	3821	3821	3821	3821	3864	3864	3864	3864	3864	3864	3864	3864	3907	3998	3998	3998	3998	3952	3907	3907	3864	3864	3864	3821	3821	3821	3821	3821	3821	3821	3821	3821	3864	3907	3907	3907	3907	3907	3907	3907	3907	3907	0	0	0	0	0	0	7959	7959	8146	8146	8146	8146	8146	8146	8146	0	0	0	0	4643	4643	4706	4706	4706	4706	4706	4706	4706	4706	4706	4706	4706	4643	4643	4643	4643	4643	4643	4643	4643	4706	4706	4706	4643	4706	4643	4643	4581	4581	4581	4581	4521	4521	4521	4581	4581	4581	4581	4581	4581	4581	4581	4581	4581	4581	4581	4581	4581	4581	4581	4581	4581	4643	4643	4643	4581	4581	4581	4581	4581	4581	4581	4581	4581	4581	4581	4581	4581	4581	4521	4521	4581	4581	4581	4581	4581	4581	4643	4643	4643	4643	4643	4643	4643	4643	4643	4581	4643	4581	4581	4581	4581	4581	4581	4521	4521	4521	4521	4463	4406	4350	4463	4521	4521	4581	4581	4581	4643	4643	4643	4643	4706	4706	4706	4643	4643	4581	4581	4581	4581	4581	4581	4521	4521	4521	4521	4521	4581	4581	4581	4643	4643	4643	4643	4643	4643	4643	4581	4581	4581	4521	4463	4463	4406	4406	4406	4406	4406	4350	4296	4243	4296	4296	4243	4243	4243	4243	4243	4296	4243	4243	4243	4243	4243	4243	4243	4243	4243	4243	4243	4243	4243	4243	4243	4243	4243	4296	4463	4581	4581	4643	4643	4643	4643	4706	4706	4706	4771	4771	4771	0	0	0	0	0	0	0	0	0	0	0	0	0	0	0	0	0	0	0	0	0	0	0	0	0	0	0	0	7779	7779	7779	7779	7779	7779	7779	7779	7779	7608	7779	7779	7779	7608	7608	7608	0	0	0	0	0	0	0	0	0	0	0	2514	2514	2514	2514	2496	2478	2460	2443	2426	2409	2409	2392	2392	2376	2376	2343	2343	2327	2327	2312	2297	2281	2281	2281	2281	2266	2252	2237	2223	2223	2223	2208	2208	2194	2194	2181	2167	2167	2153	2140	2127	2114	2114	2114	2101	2088	2088	2076	2076	2076	2076	2076	2063	2063	2063	2051	2051	2039	2003	1980	1969	1936	1936	1925	1925	0	0	0	0	0	0	0	0	0	0	0	0	0	0	0	0	0	0	0	0	0	0	0	0	0	0	0	0	0	0	0	0	0	0	0	0	0
0	0	0	0	0	0	0	0	0	0	0	0	0	0	0	0	0	0	0	0	0	0	0	0	0	0	0	0	0	0	0	0	0	0	2015	2003	1992	1992	1992	1992	1992	1980	1992	1992	1992	0	0	0	0	0	0	0	0	2027	1992	1992	1992	1992	1992	1992	2003	2003	2015	2027	2027	2027	2027	2039	2039	2039	2039	2039	2051	2051	2051	2051	2051	2063	2063	2063	2076	2088	2088	2101	2101	2101	2252	2266	2281	2281	2281	2281	2297	2312	2312	2297	2312	2312	2327	2327	2327	2327	0	4706	4771	4771	4771	4771	4771	4706	4706	4643	4581	4581	4243	4142	4142	4093	4093	4142	4093	4093	4093	4142	4093	4142	4142	4142	4142	4142	4192	4192	4192	4192	4192	4192	4142	4142	4142	4142	0	0	0	0	4142	4142	4192	4142	4142	4142	4142	4142	4142	4142	4142	4142	4142	4142	4142	4192	4192	4192	4192	4142	4142	4142	4142	5815	5719	5719	5719	5815	5815	5815	6720	6720	6720	6853	6853	6720	6720	6720	6720	6720	6720	6720	6720	6720	6720	6720	6720	6720	6720	6720	6720	6720	6720	6720	6720	6720	6720	6853	6853	6720	6720	6720	6720	6720	6720	6720	0	0	0	0	0	0	0	0	0	0	0	0	3821	3779	3779	3779	3779	3779	3779	3779	3779	3821	3821	3821	3821	3864	3864	3864	3864	3864	3864	3864	3864	3864	3864	3864	3907	3907	3907	3907	3907	3864	3864	3864	3821	3821	3821	3821	3821	3821	3821	3821	3821	3864	3864	3864	3907	3907	3907	3907	3952	3952	3998	0	0	0	0	0	0	7959	8146	8146	8146	8146	8146	8146	7959	8146	7959	7959	0	0	0	4643	4706	4706	4706	4706	4706	4706	4706	4706	4706	4706	4706	4706	4643	4643	4643	4643	4643	4643	4643	4706	4706	4706	4643	4706	4706	4643	4581	4581	4581	4581	4581	4521	4581	4581	4581	4581	4581	4581	4581	4643	4581	4581	4581	4581	4581	4581	4581	4581	4581	4581	4581	4581	4581	4581	4581	4581	4581	4581	4581	4581	4581	4581	4581	4581	4581	4581	4581	4581	4581	4581	4581	4581	4581	4581	4581	4581	4643	4643	4643	4643	4643	4643	4643	4643	4643	4581	4643	4581	4581	4581	4581	4581	4581	4521	4521	4521	4521	4521	4463	4350	4406	4521	4521	4521	4581	4581	4643	4643	4643	4643	4643	4706	4706	4643	4581	4581	4581	4521	4521	4521	4521	4521	4521	4521	4521	4521	4581	4581	4581	4643	4643	4643	4643	4643	4643	4643	4581	4521	4521	4463	4463	4463	4406	4406	4406	4406	4406	4350	4296	4296	4296	4296	4243	4243	4243	4243	4296	4296	4243	4243	4243	4243	4243	4243	4243	4243	4243	4243	4243	4243	4243	4243	4243	4243	4243	4350	4521	4581	4581	4643	4643	4643	4643	4706	4706	4771	4771	4838	4838	0	0	0	0	0	0	0	0	0	0	0	0	0	0	0	0	0	0	0	0	0	0	0	0	0	0	0	0	7959	7779	7779	7779	7779	7779	7779	7779	7779	7608	7779	7779	7779	7779	7779	7608	0	0	0	0	0	0	0	0	0	0	0	2514	2514	2496	2514	2496	2478	2460	2443	2409	2409	2409	2392	2392	2376	2376	2343	2343	2327	2327	2297	2297	2281	2281	2281	2281	2266	2266	2237	2223	2223	2223	2208	2208	2194	2194	2181	2167	2167	2153	2140	2127	2127	2114	2114	2101	2101	2088	2076	2076	2076	2063	2063	2063	2063	2063	2063	2051	2051	2027	1992	1969	1936	1936	1925	1925	0	0	0	0	0	0	0	0	0	0	0	0	0	0	0	0	0	0	0	0	0	0	0	0	0	0	0	0	0	0	0	0	0	0	0	0	0
0	0	0	0	0	0	0	0	0	0	0	0	0	0	0	0	0	0	0	0	0	0	0	0	0	0	0	0	0	0	0	0	0	0	2015	2003	1992	1992	1992	1992	1992	1980	1980	1980	1980	0	0	0	0	0	0	0	0	0	1992	1992	1992	1992	1992	1992	1992	2003	2015	2027	2015	2027	2039	2039	2039	2039	2039	2039	2051	2051	2051	2051	2051	2063	2063	2063	2076	2088	2088	2101	2088	2088	2266	2281	2281	2281	2281	2297	2297	2297	2297	2297	2312	2327	2327	2327	2327	4643	4706	4706	4771	4771	4771	4771	4771	4706	4706	4706	4581	4581	4243	4192	4142	4142	4142	4142	4093	4142	4093	4142	4093	4142	4142	4142	4142	4142	4192	4192	4192	4192	4192	4192	4142	4142	4142	0	0	0	0	0	4243	4192	4192	4142	4142	4142	4142	4142	4142	4142	4142	4142	4142	4142	4192	4192	4192	4192	4192	4142	4142	4142	5626	5626	5626	5626	5719	5719	5719	5719	6720	6720	6720	6853	6720	6720	6720	6720	6720	6720	6720	6720	6720	6720	6720	6720	6720	6720	6720	6720	6720	6720	6720	6720	6720	6720	6720	6853	6853	6720	6720	6720	6720	6720	6720	0	0	0	0	0	0	0	0	0	0	0	0	0	3821	3821	3821	3779	3779	3779	3779	3779	3779	3821	3821	3821	3821	3821	3821	3864	3864	3864	3864	3864	3864	3864	3864	3864	3907	3907	3952	3907	3907	3864	3864	3864	3864	3821	3821	3821	3821	3821	3821	3821	3821	3821	3821	3864	3864	3864	3907	3907	3907	3952	3998	0	0	0	0	0	0	7959	8146	8146	8146	8146	8146	8146	8146	8146	7959	7959	0	0	0	4706	4706	4706	4706	4706	4706	4706	4706	4706	4706	4706	4706	4706	4706	4643	4643	4706	4643	4643	4706	4706	4706	4706	4643	4706	4706	4643	4581	4581	4581	4581	4581	4521	4581	4581	4581	4581	4581	4581	4581	4581	4581	4581	4581	4581	4581	4581	4581	4581	4581	4581	4581	4581	4581	4581	4581	4581	4581	4581	4581	4581	4581	4581	4581	4581	4581	4581	4581	4581	4581	4581	4581	4581	4581	4581	4581	4581	4643	4643	4643	4643	4643	4643	4643	4643	4643	4643	4643	4581	4581	4581	4581	4581	4581	4521	4521	4521	4521	4463	4406	4350	4406	4521	4521	4521	4521	4581	4581	4581	4643	4643	4643	4643	4643	4643	4581	4521	4521	4521	4521	4521	4521	4521	4521	4521	4521	4521	4521	4521	4521	4643	4643	4581	4581	4581	4581	4581	4581	4521	4463	4463	4463	4463	4406	4406	4406	4406	4350	4350	4296	4296	4296	4296	4296	4296	4296	4296	4296	4296	4296	4243	4243	4243	4243	4243	4243	4243	4243	4243	4243	4243	4243	4243	4243	4243	4243	4296	4463	4581	4581	4581	4643	4643	4643	4706	4706	4706	4771	4771	4838	4838	0	0	0	0	0	0	0	0	0	0	0	0	0	0	0	0	0	0	0	0	0	0	0	0	0	0	0	7779	7779	7779	7779	7779	7779	7779	7779	7779	7608	7779	7779	7779	7779	7779	0	0	0	0	0	0	0	0	0	0	0	0	2514	2496	2496	2496	2496	2478	2460	2443	2426	2409	2409	2392	2392	2376	2376	2359	2343	2327	2327	2312	2297	2281	2281	2281	2266	2266	2266	2237	2223	2223	2208	2208	2194	2194	2181	2167	2167	2167	2153	2140	2140	2114	2114	2114	2101	2101	2088	2076	2076	2076	2063	2063	2063	2063	2063	2063	2063	2051	2027	1992	1969	1947	1925	1925	1925	0	0	0	0	0	0	0	0	0	0	0	0	0	0	0	0	0	0	0	0	0	0	0	0	0	0	0	0	0	0	0	0	0	0	0	0	0
0	0	0	0	0	0	0	0	0	0	0	0	0	0	0	0	0	0	0	0	0	0	0	0	0	0	0	0	0	0	0	0	2003	2015	2003	1992	1992	1992	1992	1992	1980	1980	1980	1980	1980	1980	0	0	0	0	0	0	0	0	1992	1992	1980	1992	1992	1992	1992	2003	2015	2015	2015	2027	2039	2039	2039	2039	2039	2051	2051	2051	2051	2051	2063	2063	2076	2076	2076	2088	2088	2088	2088	2088	2297	2297	2297	2297	2297	2312	2312	2312	2297	2297	2297	2297	2327	0	4643	4643	4643	4706	4771	4771	4771	4771	4771	4706	4706	4706	4581	4581	4243	4192	4142	4142	4142	4142	4142	4142	4093	4142	4093	4142	4142	4142	4142	4142	4192	4192	4192	4192	4192	4192	4142	4142	4142	0	0	0	0	0	4142	4142	4192	4142	4142	4142	4142	4142	4142	4142	4142	4142	4142	4142	4192	4192	4192	4142	4142	4142	4142	5815	5535	5626	5626	5626	5719	5626	5626	5626	5626	6720	6720	6853	6853	6720	6720	6720	6720	6720	6720	6720	6720	6720	6720	6720	6720	6720	6720	6720	6720	6853	6720	6720	6720	6720	6720	6853	6853	6720	6720	6720	6720	6720	0	0	0	0	0	0	0	0	0	0	0	0	0	0	3821	3821	3821	3779	3779	3779	3779	3779	3821	3821	3821	3821	3821	3821	3821	3821	3821	3864	3864	3864	3864	3864	3864	0	0	0	3952	3907	3907	3864	3864	3864	3864	3864	3821	3821	3821	3821	3821	3821	3821	3821	3864	3864	3864	3864	3907	3907	3907	0	0	0	0	0	0	0	8146	7959	8146	8146	8146	8146	8146	8146	8146	8146	7959	7959	7959	0	0	4706	4706	4706	4706	4706	4706	4706	4706	4706	4706	4706	4706	4706	4706	4643	4643	4643	4643	4643	4643	4643	4643	4643	4643	4643	4643	4643	4581	4581	4581	4521	4581	4521	4521	4581	4581	4581	4581	4581	4581	4581	4581	4581	4581	4581	4581	4581	4581	4581	4581	4581	4581	4581	4581	4581	4581	4581	4581	4581	4581	4581	4581	4521	4521	4581	4581	4521	4581	4581	4581	4521	4581	4521	4581	4581	4581	4581	4581	4643	4643	4643	4643	4643	4643	4643	4643	4643	4643	4581	4581	4581	4581	4581	4581	4581	4521	4521	4521	4463	4406	4350	4406	4463	4521	4463	4463	4521	4581	4581	4581	4581	4643	4643	4706	4581	4581	4521	4521	4463	4521	4463	4463	4463	4463	4521	4521	4521	4521	4521	4521	4521	4581	4581	4581	4581	4581	4521	4521	4463	4463	4463	4463	4463	4406	4406	4406	4350	4350	4296	4243	4243	4243	4296	4296	4296	4350	4350	4350	4350	4296	4243	4243	4243	4243	4243	4243	4243	4243	4243	4243	4243	4243	4243	4243	4243	4296	4350	4406	4521	4521	4521	4581	4581	4581	4706	4706	4706	4771	4771	4771	4838	0	0	0	0	0	0	0	0	0	0	0	0	0	0	0	0	0	0	0	0	0	0	0	0	0	0	0	7779	7608	7779	7779	7779	7779	7779	7779	7779	7779	7779	7779	7779	0	0	0	0	0	0	0	0	0	0	0	0	0	0	2496	2496	2478	2478	2478	2460	2460	2443	2426	2409	2409	2392	2392	2376	2376	2343	2343	2327	2327	2297	2297	2281	2281	2281	2266	2266	2252	2237	2223	2223	2208	2208	2194	2194	2181	2167	2167	2153	2140	2127	2127	2114	2114	2114	2114	2101	2088	2076	2076	2076	2063	2076	2063	2063	2063	2063	2063	2051	2015	1980	1958	1925	1925	1925	1925	0	0	0	0	0	0	0	0	0	0	0	0	0	0	0	0	0	0	0	0	0	0	0	0	0	0	0	0	0	0	0	0	0	0	0	0	0
0	0	0	0	0	0	0	0	0	0	0	0	0	0	0	0	0	0	0	0	0	0	0	0	0	0	0	0	0	0	0	0	2003	2003	2003	1992	1992	1992	1992	1980	1980	1980	1980	1980	1980	1980	0	0	0	0	0	0	0	0	1992	1992	1980	1980	1992	1992	1992	2003	2015	2015	2015	2027	2039	2039	2039	2039	2039	2051	2051	2051	2051	2051	2063	2063	2076	2076	2076	2076	2076	2088	2088	2088	2297	2312	2297	2312	2312	2312	2312	2312	2297	2297	2297	2297	4463	4581	4643	4706	4706	4706	4771	4771	4771	4771	4771	4706	4706	4706	4581	4581	4192	4192	4142	4142	4142	4142	4142	4142	4142	4142	4142	4142	4142	4142	4142	4142	4142	4192	4192	4192	4243	4243	4243	4142	0	0	0	0	0	0	4192	4142	4142	4142	4142	4142	4142	4142	4142	4142	4142	4142	4142	4142	4192	4192	4192	4142	4142	4142	4142	4142	5535	5626	5626	5626	5626	5626	5626	5626	5626	6592	6720	6720	6720	6720	6720	6720	6720	6720	6720	6720	6720	6720	6720	6720	6720	6720	6720	6720	6720	6720	6720	6853	6720	6720	6720	6853	6853	6720	6720	6720	6720	6720	0	0	0	0	0	0	0	0	0	0	0	0	0	0	3821	3821	3821	3779	3779	3779	3779	3779	3821	3821	3821	3821	3821	3821	3821	3821	3821	3821	3821	3821	3821	3821	3821	0	0	0	3952	3952	3907	3907	3864	3864	3821	3821	3821	3821	3821	3821	3821	3821	3821	3821	3864	3864	3864	3907	3907	3907	3907	0	0	7444	7444	7444	7608	7779	7959	7959	8146	8146	8146	8146	8146	8146	8146	8146	7959	7959	7959	7959	0	4706	4706	4706	4706	4706	4706	4706	4706	4706	4706	4706	4706	4706	4706	4643	4643	4643	4643	4643	4643	4643	4643	4643	4643	4643	4643	4643	4581	4581	4581	4521	4521	4581	4521	4581	4581	4581	4581	4581	4581	4581	4581	4581	4581	4581	4581	4581	4581	4581	4581	4581	4581	4581	4581	4581	4581	4581	4581	4581	4581	4581	4521	4521	4521	4521	4521	4521	4521	4521	4521	4521	4521	4521	4581	4521	4581	4581	4643	4643	4643	4643	4643	4643	4643	4643	4643	4643	4581	4581	4581	4581	4581	4581	4581	4581	4521	4521	4521	4463	4406	4350	4350	4406	4463	4463	4463	4463	4521	4581	4581	4581	4581	4643	4643	4581	4581	4521	4521	4463	4521	4463	4463	4521	4521	4521	4521	4521	4521	4521	4521	4581	4581	4521	4521	4521	4521	4521	4463	4463	4463	4463	4463	4463	4463	4406	4406	4406	4406	4296	4296	4296	4350	4350	4350	4350	4406	4406	4463	4406	4350	4296	4296	4243	4243	4243	4243	4243	4243	4243	4243	4243	4243	4243	4243	4296	4296	4350	4406	4406	4521	4581	4581	4581	4643	4706	4643	4706	4771	4771	4771	0	0	0	0	0	0	0	0	0	0	0	0	0	0	0	0	0	0	0	0	0	0	0	0	0	0	0	0	7779	7779	7779	7779	7779	7779	7779	7779	7779	7779	7959	7959	0	0	0	0	0	0	0	0	0	0	0	0	0	0	0	2478	2478	2478	2478	2478	2460	2460	2443	2426	2409	2409	2392	2392	2392	2376	2343	2343	2327	2327	2297	2297	2281	2281	2281	2266	2266	2252	2237	2223	2208	2208	2208	2194	2194	2181	2167	2167	2153	2140	2127	2127	2114	2114	2114	2114	2101	2088	2076	2076	2076	2063	2063	2063	2063	2063	2063	2051	2051	2003	1980	1958	1925	1925	1925	1925	0	0	0	0	0	0	0	0	0	0	0	0	0	0	0	0	0	0	0	0	0	0	0	0	0	0	0	0	0	0	0	0	0	0	0	0	0
0	0	0	0	0	0	0	0	0	0	0	0	0	0	0	0	0	0	0	0	0	0	0	0	0	0	0	0	0	0	0	2003	2003	2003	2003	1992	1992	1992	1992	1992	1980	1980	1980	1980	1980	0	0	0	0	0	0	0	0	0	1992	1992	1980	1992	1992	2003	1992	1992	2003	2015	2027	2027	2039	2039	2039	2039	2039	2039	2051	2051	2051	2051	2063	2063	2063	2063	2076	2076	2076	2076	2076	2266	2281	2297	2297	2312	2312	2312	2312	2312	2297	2297	0	0	4581	4581	4581	4643	4643	4706	4771	4771	4771	4771	4771	4706	4706	4706	4706	4192	4192	4192	4142	4142	4142	4142	4142	4142	4142	4142	4142	4142	4142	4142	4142	4142	4142	4142	4192	4192	4243	4243	4243	0	0	0	0	0	0	0	4192	4142	4142	4142	4142	4093	4142	4142	4142	4142	4093	4142	4142	4142	4192	4192	4142	4142	4142	4142	4142	5626	5626	5626	5626	5626	5535	5535	5535	5535	5448	5448	5448	6853	6853	6853	6853	6720	6720	6720	6720	6720	6720	6720	6720	6720	6720	6720	6720	6720	6720	6720	6720	6720	6853	6853	6853	6853	6853	6853	6853	6853	0	0	0	0	0	0	0	0	0	0	0	0	0	0	0	0	3821	3821	3821	3779	3779	3779	3779	3779	3821	3821	3821	3821	3821	3821	3821	3821	3821	3821	3821	3821	3821	3821	3821	0	0	0	0	3952	3907	3864	3864	3864	3821	3864	3821	3821	3821	3821	3821	3821	3821	3821	3864	3864	3864	3864	3907	3907	3864	3864	0	7287	7287	7444	7444	7608	7779	7779	7959	8146	8146	8146	8146	8146	8146	8146	7959	7959	8146	8146	8146	0	4706	4706	4706	4706	4706	4706	4706	4706	4706	4706	4706	4706	4643	4643	4706	4706	4706	4643	4643	4643	4643	4643	4581	4643	4643	4581	4581	4581	4521	4521	4521	4521	4521	4581	4581	4581	4581	4581	4581	4643	4581	4581	4581	4581	4581	4581	4581	4581	4581	4581	4581	4581	4581	4581	4581	4581	4581	4581	4581	4581	4521	4521	4521	4521	4521	4521	4521	4521	4521	4521	4521	4521	4581	4521	4521	4581	4643	4643	4643	4643	4643	4643	4643	4643	4643	4581	4581	4581	4581	4581	4581	4581	4581	4581	4581	4521	4521	4463	4406	4350	4350	4406	4406	4406	4406	4463	4521	4581	4581	4581	4581	4581	4643	4581	4581	4521	4521	4521	4521	4521	4463	4463	4521	4521	4521	4521	4521	4463	4521	4581	4581	4521	4521	4521	4521	4521	4581	4521	4521	4521	4581	4521	4521	4463	4463	4521	4521	4463	4463	4406	4406	4406	4406	4406	4406	4406	4463	4463	4406	4406	4350	4350	4296	4243	4243	4243	4243	4296	4296	4296	4296	4296	4296	4296	4350	4406	4406	4521	4521	4521	4581	4581	4581	4643	4643	4706	4706	4706	4706	0	0	0	0	0	0	0	0	0	0	0	0	0	0	0	0	0	0	0	0	0	0	0	0	0	0	0	0	7779	7779	7779	7779	7779	7779	7779	7779	7779	7779	7779	7779	7779	0	0	0	0	0	0	0	0	0	0	0	0	0	0	2478	2478	2478	2478	2478	2460	2460	2443	2426	2426	2409	2392	2392	2392	2376	2343	2343	2327	2327	2312	2297	2281	2281	2281	2266	2266	2252	2237	2223	2223	2208	2194	2194	2181	2181	2167	2167	2153	2140	2140	2127	2114	2114	2114	2114	2101	2088	2076	2076	2076	2063	2063	2063	2063	2063	2063	2051	2039	1980	1969	1947	1925	1925	1925	1925	0	0	0	0	0	0	0	0	0	0	0	0	0	0	0	0	0	0	0	0	0	0	0	0	0	0	0	0	0	0	0	0	0	0	0	0	0
0	0	0	0	0	0	0	0	0	0	0	0	0	0	0	0	0	0	0	0	0	0	0	0	0	0	0	0	0	0	0	2003	2003	2003	1992	1992	1992	1992	1992	1980	1980	1969	1969	1969	1980	0	0	0	0	0	0	0	0	0	1992	1992	1992	1992	1992	2003	1992	1992	2003	2015	2027	2027	2039	2039	2039	2039	2039	2039	2039	2051	2051	2051	2063	2063	2063	2076	2076	2076	2076	2076	2281	2281	2297	2297	2297	2312	2312	2312	2312	2312	2297	2297	0	0	4521	4581	4581	4706	4643	4643	4771	4771	4771	4771	4771	4771	4706	4771	4771	4192	4192	4192	4142	4142	4142	4142	4142	4142	4142	4142	4142	4142	4142	4142	4142	4142	4142	4142	4142	4192	4192	4243	0	0	0	0	0	0	0	4192	4142	4142	4142	4093	4093	4093	4093	4142	4142	4093	4093	4142	4142	4142	4142	4142	4142	4142	4093	4093	4093	5535	5535	5626	5626	5535	5535	5535	5535	5535	5448	5448	5448	6853	6853	6853	6853	6720	6853	6853	6720	6720	6720	6720	6720	6720	6720	6720	6720	6720	6720	6720	6720	6853	6853	6853	6853	6853	6853	6853	6853	6853	0	0	0	0	0	0	0	0	0	0	0	0	0	0	0	0	3821	3821	3821	3779	3779	3779	3779	3779	3821	3821	3821	3821	3821	3821	3821	3821	3821	3821	3821	3821	3821	3821	0	0	0	0	0	0	3864	3864	3864	3864	3821	3821	3821	3821	3821	3821	3821	3821	3821	3821	3864	3864	3864	3864	3864	3864	3864	3864	0	7287	7287	7287	7287	7444	7608	7608	7779	7779	7959	7959	8146	8146	8146	8146	7959	8146	8146	8146	8146	0	4706	4706	4706	4706	4706	4706	4706	4706	4706	4706	4706	4706	4706	4706	4706	4706	4706	4706	4643	4643	4643	4643	4581	4643	4643	4581	4581	4581	4581	4521	4521	4581	4521	4581	4581	4581	4581	4581	4581	4581	4581	4581	4581	4581	4581	4581	4581	4581	4581	4581	4581	4581	4581	4581	4581	4581	4581	4581	4581	4581	4581	4521	4521	4581	4521	4521	4521	4521	4521	4521	4521	4521	4521	4521	4521	4521	4581	4581	4643	4643	4643	4643	4643	4643	4643	4581	4581	4581	4581	4581	4581	4581	4581	4581	4581	4581	4581	4521	4463	4406	4350	4406	4406	4406	4406	4463	4521	4581	4581	4581	4581	4581	4581	4581	4521	4521	4521	4521	4521	4521	4521	4521	4521	4521	4521	4521	4521	4463	4463	4581	4581	4521	4521	4521	4521	4521	4581	4521	4581	4581	4643	4581	4581	4581	4581	4581	4581	4581	4521	4406	4463	4406	4406	4406	4406	4463	4463	4521	4521	4463	4463	4463	4406	4296	4296	4296	4296	4350	4296	4350	4350	4350	4350	4350	4350	4406	4406	4521	4581	4581	4581	4581	4581	4643	4581	4706	4706	4706	4706	0	0	0	0	0	0	0	0	0	0	0	0	0	0	0	0	0	0	0	0	0	0	0	0	0	0	0	0	0	7779	7779	7779	7779	7779	7779	7608	7779	7608	7779	7959	7959	0	0	0	0	0	0	0	0	0	0	0	0	0	0	2478	2478	2478	2478	2478	2460	2460	2443	2443	2426	2409	2392	2392	2392	2376	2343	2343	2327	2327	2312	2297	2297	2297	2281	2281	2266	2252	2237	2223	2223	2208	2208	2194	2181	2181	2167	2167	2153	2153	2140	2127	2114	2114	2114	2114	2101	2088	2076	2076	2076	2076	2076	2063	2063	2063	2063	2051	2027	1980	1958	1947	1936	1925	1925	1925	0	0	0	0	0	0	0	0	0	0	0	0	0	0	0	0	0	0	0	0	0	0	0	0	0	0	0	0	0	0	0	0	0	0	0	0	0
0	0	0	0	0	0	0	0	0	0	0	0	0	0	0	0	0	0	0	0	0	0	0	0	0	0	0	0	0	0	0	2003	2003	2003	1992	1992	1992	1992	1980	1980	1980	1980	1980	1980	1980	0	0	0	0	0	0	0	0	0	1992	1992	1992	1992	1992	2003	2003	1992	2003	2015	2027	2027	2027	2039	2039	2039	2039	2039	2051	2051	2063	2063	2063	2063	2063	2063	2063	2063	2063	2266	2281	2297	2297	2297	2312	2312	2312	2312	2312	2312	2297	2297	0	0	4521	4581	4581	4706	4643	4643	4706	4771	4771	4771	4771	4771	4771	4771	4142	4142	4142	4142	4142	4142	4142	4142	4142	4142	4142	4142	4142	4142	4142	4142	4142	4142	4142	4142	4142	4142	4142	4243	0	0	0	0	0	0	0	4192	4142	4142	4142	4093	4093	4093	4093	4093	4142	4093	4142	4142	4142	4142	4142	4142	4142	4093	4142	4142	4142	5535	5535	5535	5535	5535	5535	5535	5535	5448	5448	5448	5448	6853	6853	6853	6853	6853	6853	6853	6853	6720	6720	6592	6592	6592	6720	6720	6720	6720	6720	6720	6720	6853	6853	6853	6853	6853	6853	6853	6720	6720	0	0	0	0	0	0	0	0	0	0	0	0	0	0	0	3864	3821	3821	3821	3821	3779	3779	3779	3779	3821	3821	3821	3821	3821	3821	3821	3821	3821	3821	3821	3821	3821	3821	0	0	0	0	0	0	3864	3864	3864	3864	3821	3864	3821	3821	3821	3821	3821	3821	3821	3821	3864	3864	3864	3864	3864	3864	3864	3864	0	7137	7137	7137	7287	7287	7444	7608	7608	7779	7779	7959	7959	7959	8146	8146	8146	8146	8146	8146	8146	0	4643	4643	4706	4706	4706	4706	4706	4706	4706	4706	4706	4706	4706	4706	4706	4706	4706	4706	4643	4643	4643	4643	4643	4643	4643	4643	4581	4581	4581	4521	4521	4521	4521	4581	4581	4581	4581	4581	4581	4581	4581	4643	4581	4581	4581	4581	4581	4581	4581	4581	4581	4581	4581	4581	4581	4581	4581	4581	4581	4581	4581	4581	4581	4521	4521	4521	4521	4521	4521	4521	4521	4521	4521	4521	4521	4521	4581	4643	4643	4643	4643	4643	4643	4643	4643	4643	4581	4581	4581	4581	4581	4581	4581	4581	4581	4581	4581	4521	4463	4406	4350	4406	4406	4406	4406	4463	4463	4463	4521	4521	4521	4581	4581	4581	4521	4521	4521	4521	4521	4521	4521	4521	4521	4521	4521	4521	4521	4521	4521	4581	4581	4521	4521	4521	4521	4521	4581	4521	4581	4581	4643	4643	4581	4581	4643	4643	4643	4643	4581	4521	4521	4463	4463	4463	4463	4521	4521	4581	4581	4581	4521	4521	4463	4350	4406	4463	4406	4463	4406	4350	4350	4350	4350	4350	4406	4406	4463	4521	4581	4581	4581	4581	4581	4643	4581	4643	4643	4706	4706	0	0	0	0	0	0	0	0	0	0	0	0	0	0	0	0	0	0	0	0	0	0	0	0	0	0	0	0	0	0	0	7779	7779	7779	7608	7608	7608	7608	7608	7608	7608	0	0	0	0	0	0	0	0	0	0	0	0	0	0	0	2478	2478	2478	2478	2460	2460	2443	2443	2426	2409	2409	2392	2392	2376	2343	2343	2327	2327	2312	2297	2297	2297	2281	2281	2266	2252	2252	2237	2223	2208	2208	2194	2181	2181	2167	2167	2153	2153	2140	2127	2114	2114	2114	2114	2101	2088	2076	2076	2076	2063	2063	2063	2063	2063	2051	2051	2015	1980	1958	1947	1936	1925	1925	1925	0	0	0	0	0	0	0	0	0	0	0	0	0	0	0	0	0	0	0	0	0	0	0	0	0	0	0	0	0	0	0	0	0	0	0	0	0
0	0	0	0	0	0	0	0	0	0	0	0	0	0	0	0	0	0	0	0	0	0	0	0	0	0	0	0	0	0	0	2003	2003	2003	1992	1992	1980	1992	1980	1980	1980	1980	1980	1980	1980	0	0	0	0	0	0	0	0	0	1992	1992	1992	1992	1992	2003	2003	1992	2003	2015	2015	2027	2027	2039	2039	2039	2039	2039	2051	2051	2051	2051	2063	2063	2063	2063	2063	2063	2063	2266	2281	2281	2297	2297	2297	2312	2312	2312	2312	2312	2297	2297	0	0	4581	4581	4581	4643	4706	4706	4706	4771	4771	4771	4771	4771	4771	4771	4142	4142	4142	4142	4142	4142	4142	4142	4142	4142	4142	4142	4142	4142	4142	4142	4142	4142	4093	4093	4142	4142	4142	0	0	0	0	0	0	0	0	0	4142	4142	4142	4093	4093	4093	4142	4142	4142	4142	4142	4142	4142	4142	4142	4142	4142	4142	4093	4093	4093	5535	5535	5535	5535	5535	5535	5535	5448	5448	5448	5448	0	0	6853	6992	6992	6853	6853	6853	6720	6720	6592	6592	6592	6592	6720	6720	6720	6720	6720	6720	6720	6853	6853	6853	6853	6853	6992	6853	6853	6720	0	0	0	0	0	0	0	0	0	0	0	0	0	0	0	3864	3821	3821	3821	3821	3779	3779	3779	3779	3821	3821	3821	3821	3821	3821	3821	3821	3821	3821	3821	3821	3821	3821	0	0	0	0	0	0	3864	3864	3864	3864	3821	3864	3821	3821	3821	3821	3821	3821	3821	3821	3864	3864	3864	3864	3864	3864	3864	3864	0	7137	7137	7137	7287	7287	7444	7608	7608	7779	7779	7959	7959	7959	8146	8146	8146	8146	8146	8146	0	0	4643	4706	4706	4706	4706	4706	4706	4706	4706	4706	4706	4706	4706	4706	4706	4706	4706	4706	4706	4643	4643	4643	4581	4643	4643	4581	4581	4581	4521	4521	4521	4521	4521	4581	4581	4581	4581	4581	4581	4581	4581	4581	4581	4581	4581	4581	4581	4581	4581	4581	4581	4581	4581	4581	4581	4581	4581	4581	4581	4581	4581	4581	4521	4521	4521	4521	4521	4581	4581	4521	4521	4521	4521	4521	4521	4521	4581	4581	4581	4643	4643	4643	4643	4643	4643	4643	4581	4581	4581	4581	4581	4581	4581	4581	4581	4581	4581	4521	4463	4406	4350	4350	4350	4350	4350	4406	4521	4581	4581	4581	4581	4581	4581	4581	4581	4581	4581	4581	4521	4521	4521	4521	4581	4521	4521	4521	4521	4581	4521	4581	4581	4581	4581	4521	4521	4581	4581	4581	4643	4643	4643	4643	4643	4643	4643	4643	4643	4643	4643	4581	4581	4521	4521	4521	4521	4521	4521	4521	4581	4581	4581	4581	4581	4521	4521	4463	4463	4463	4406	4406	4406	4406	4350	4350	4406	4406	4463	4463	4521	4581	4581	4581	4581	4581	4581	4643	4643	4643	4643	0	0	0	0	0	0	0	0	0	0	0	0	0	0	0	0	0	0	0	0	0	0	0	0	0	0	0	0	0	0	0	0	7608	7779	7608	7608	7608	7608	7608	7608	7608	0	0	0	0	0	0	0	0	0	0	0	0	0	0	0	2496	2478	2478	2478	2460	2443	2443	2443	2426	2409	2409	2392	2392	2376	2359	2343	2327	2327	2312	2312	2297	2297	2281	2266	2266	2252	2252	2237	2223	2223	2208	2194	2181	2181	2167	2167	2153	2153	2140	2127	2114	2114	2114	2114	2101	2088	2076	2076	2076	2063	2063	2063	2063	2063	2051	2051	1992	1969	1947	1936	1936	1925	1925	1925	0	0	0	0	0	0	0	0	0	0	0	0	0	0	0	0	0	0	0	0	0	0	0	0	0	0	0	0	0	0	0	0	0	0	0	0	0
0	0	0	0	0	0	0	0	0	0	0	0	0	0	0	0	0	0	0	0	0	0	0	0	0	0	0	0	0	0	0	0	2003	1992	1992	1980	1980	1980	1980	1980	1980	1980	1980	1980	1980	0	0	0	0	0	0	0	0	0	2003	2003	1992	1992	1992	2003	2003	2003	2003	2003	2015	2015	2027	2027	2039	2039	2039	2039	2051	2051	2051	2051	2051	2051	2063	2063	2063	2076	2281	2281	2281	2281	2297	2297	2297	2297	2312	2312	2312	2312	2312	2312	0	0	4581	4643	4643	4706	4706	4706	4771	4771	4771	4771	4771	4771	4771	4771	4192	4142	4142	4142	4142	4142	4142	4142	4142	4192	4192	4192	4142	4142	4142	4142	4142	4142	4093	4093	4093	4142	4142	0	0	0	0	0	0	0	0	0	4142	4142	4142	4093	4093	4093	4142	4142	4142	4142	4142	4142	4142	4142	4142	4142	4142	4142	4142	4142	4142	5535	5535	5535	5535	5535	5535	5535	5535	5448	5448	5535	0	0	0	6992	7444	7287	7287	6992	6720	6720	6592	6468	6592	6592	6720	6720	6720	6720	6720	6720	6720	6853	6853	6853	6853	6853	6992	6992	6853	0	0	0	0	0	0	0	0	0	0	0	0	0	0	0	0	3864	3821	3821	3821	3821	3821	3779	3779	3779	3779	3821	3821	3821	3821	3821	3821	3821	3821	3821	3821	3821	3821	0	0	0	0	0	0	0	3864	3864	3864	3864	3821	3864	3821	3821	3821	3821	3821	3821	3821	3821	3864	3864	3864	3907	3907	3864	3907	3907	0	7137	7137	7287	7287	7287	7444	7608	7608	7779	7779	7779	7959	7959	7959	7959	7959	7959	8146	0	0	0	4643	4643	4643	4706	4706	4706	4706	4706	4706	4706	4706	4706	4706	4706	4706	4706	4706	4706	4706	4706	4643	4643	4643	4643	4643	4581	4581	4521	4521	4521	4521	4521	4521	4581	4581	4581	4581	4581	4581	4581	4581	4581	4581	4581	4581	4581	4581	4581	4581	4581	4581	4581	4581	4581	4581	4581	4581	4581	4581	4581	4581	4581	4521	4521	4521	4521	4521	4521	4521	4521	4521	4521	4521	4521	4521	4521	4581	4581	4581	4643	4643	4643	4643	4643	4643	4643	4581	4581	4581	4643	4643	4643	4581	4581	4581	4581	4581	4521	4406	4406	4350	4350	4406	4406	4406	4521	4581	4581	4581	4581	4581	4581	4581	4581	4581	4581	4581	4581	4581	4581	4581	4581	4581	4581	4581	4581	4581	4581	4581	4643	4643	4643	4643	4581	4581	4581	4643	4643	4643	4643	4643	4643	4643	4643	4643	4643	4643	4643	4643	4581	4581	4521	4521	4521	4521	4521	4521	4581	4581	4581	4581	4581	4581	4581	4581	4521	4521	4521	4463	4463	4406	4406	4350	4406	4406	4406	4463	4463	4521	4581	4581	4581	4581	4581	4581	4581	4643	4643	4643	0	0	0	0	0	0	0	0	0	0	0	0	0	0	0	0	0	0	0	0	0	0	0	0	0	0	0	0	0	0	0	0	7608	7779	7608	7608	7608	7608	7608	7779	7779	7608	7444	7608	7608	7444	7444	0	0	0	0	0	0	0	0	0	2496	2496	2478	2478	2460	2460	2460	2443	2426	2409	2409	2392	2392	2376	2359	2343	2327	2327	2312	2312	2297	2297	2281	2266	2266	2252	2252	2237	2223	2223	2208	2194	2181	2167	2167	2167	2153	2153	2127	2127	2114	2114	2114	2114	2101	2088	2076	2076	2076	2063	2063	2063	2063	2063	2051	2051	1980	1969	1947	1936	1936	1936	1925	1925	0	0	0	0	0	0	0	0	0	0	0	0	0	0	0	0	0	0	0	0	0	0	0	0	0	0	0	0	0	0	0	0	0	0	0	0	0
