0	0	0	0	784	786	786	789	791	791	793	793	800	800	806	810	812	814	815	817	819	821	823	825	831	833	835	837	837	839	839	850	854	856	858	862	865	865	865	867	869	869	871	873	887	891	894	901	901	908	910	913	917	920	922	927	930	930	937	940	945	948	953	953	955	955	969	974	977	980	983	985	994	997	1000	1008	1017	1017	1020	1023	1030	1030	1033	1036	1045	1045	1058	1058	1068	1068	1078	1085	1088	1091	1095	1095	1095	1095	1098	1098	1098	1098	1098	1098	0	0	0	0	0	0	0	0	4838	4838	4838	4838	4838	4771	4771	4771	4771	4706	4706	4643	4643	4643	0	0	0	0	0	0	0	0	4643	4643	4643	4706	4706	4643	4643	4643	4643	4643	4581	4581	0	0	0	0	0	0	4771	4706	4706	4706	4706	4706	4706	4706	4771	4771	8146	8146	8146	8146	8146	8146	8146	8146	8146	8146	8146	8146	8146	8146	8146	8146	8146	8146	8146	8146	8146	7959	8146	8146	8146	8146	8146	8146	8146	8146	8146	8343	8146	8146	8146	8146	8146	8146	7959	7959	7959	7959	7959	7959	7959	7959	7959	7959	8146	8146	8146	8146	8146	8146	8146	8146	8146	8146	8146	8146	8146	8146	8146	7959	7959	7959	7959	7959	7959	7959	7959	8146	8146	7959	7959	7959	7959	7959	8146	8146	8343	8343	8343	8343	8343	8343	8343	8343	8343	8343	8343	8343	8146	8146	8146	0	0	0	0	0	3186	3186	3186	3186	3157	3157	3157	3157	3186	3186	3186	3186	3186	3186	3186	3186	3186	3186	3157	3157	3186	3157	3157	3157	3157	3157	3157	3157	3186	3186	3186	3186	3186	3186	3186	3186	3186	3186	3157	3157	3186	3186	3186	3186	3157	3157	3157	3157	3157	3157	3157	3157	3186	3186	3186	3186	3186	3186	3186	3186	3186	3186	3186	3186	3186	3186	3186	3186	3186	3186	3186	3186	3186	3186	3216	3186	3186	0	4838	4771	4771	4771	4771	4771	4771	4771	4771	4706	4706	4706	4706	4706	4706	4706	4706	4771	4706	4771	4706	4771	4706	4771	4706	4706	4771	4771	4706	4706	4706	4706	4706	4706	4706	4643	4643	4643	4643	4706	4706	4706	4706	4706	4643	4643	4581	4521	4521	4463	4463	4463	4463	4463	4463	4521	4463	4463	4463	4463	4521	4521	4521	4521	4521	4521	4521	4521	4521	4521	4521	4521	4521	4521	4521	4521	4521	4463	4521	4521	4463	4463	4463	4406	4406	4406	4406	4406	4406	4463	4463	4463	4463	4463	4463	4406	4406	4406	4350	4350	4350	4350	4406	4406	4406	4406	4406	4406	4463	4463	4463	4463	4463	4463	4463	4406	4406	4406	4406	4406	4406	4406	4406	4406	4406	4406	4406	4406	4463	4406	4463	4463	4521	4521	4521	4463	4463	4463	4463	4463	4463	4463	4463	4463	4463	4463	4463	4463	4463	4581	4643	4706	4706	4706	4706	4706	4706	4706	4706	4706	4706	4706	4706	4643	4643	4643	4643	4643	4643	4643	4643	4643	4706	4643	4643	4643	7779	7779	7779	7959	7959	7959	7959	7959	8146	8146	7959	7959	7959	7959	7959	7959	7959	7959	8146	8146	8146	8146	8146	8146	8146	8146	8146	8146	8146	8146	8146	8146	8146	8146	8146	8146	8343	8343	8343	8343	8343	8343	8343	8343	8343	8343	8146	8343	8146	8146	8146	8343	8343	8343	8343	8343	8343	8343	8343	8343	8343	8343	8146	7959	8146	8146	8146	8146	8146	8146	8146	7959	7779	7779	6720	6592	6592	6468	6468	6468	6468	6468	6468	6468	6468	6468	6468	0	0	0	0	0	0	0	0	0	0	0	0	0	0	0	0	0	0	0	0	0	0	0	0	0	0	0	0	0	0	0	0	0	0	0	0	0
0	0	0	0	784	784	784	788	793	793	793	800	802	802	802	815	815	815	817	817	819	819	821	823	829	831	833	837	839	839	845	850	852	854	854	860	865	865	865	867	869	871	873	878	887	889	891	898	898	908	908	913	917	920	920	925	930	930	937	940	945	948	950	955	961	961	969	974	977	980	983	985	991	997	1000	1000	1014	1014	1020	1026	1026	1030	1033	1039	1045	1055	1058	1064	1068	1068	1078	1085	1091	1095	1095	1095	1095	1095	1098	1098	1095	1095	1095	1095	0	0	0	0	0	0	0	0	4838	4838	4838	4838	4771	4771	4771	4771	4706	4643	4706	4643	4643	4643	4643	0	0	0	0	0	0	0	4581	4643	4643	4643	4643	4643	4643	4643	4643	4643	4643	4581	0	0	0	0	0	0	4771	4643	4706	4706	4706	4706	4706	4706	4771	4977	4977	4977	8146	8146	8146	8146	8146	8146	8146	8146	7959	8146	8146	8146	8146	8146	8146	8146	8146	8146	7959	7959	8146	8146	8146	8146	8146	8146	8146	8343	8343	8343	8343	8146	8146	8146	8146	8146	8146	7959	7959	8146	8146	7959	7959	7959	7959	7959	7959	7959	8146	8146	8146	8146	8146	8146	8146	8146	8146	8146	8146	8146	8146	7959	7959	7959	7959	7959	7959	7959	8146	8146	8146	8146	7959	7959	7959	7959	8146	8146	8343	8343	8343	8343	8343	8343	8343	8343	8343	8343	8343	8343	8146	8146	8146	8146	0	0	0	0	3216	3186	3186	3186	3186	3157	3157	3186	3186	3186	3186	3186	3186	3186	3186	3186	3157	3157	3157	3157	3157	3157	3157	3157	3157	3157	3157	3157	3186	3186	3186	3186	3186	3186	3186	3186	3186	3157	3157	3157	3186	3186	3186	3157	3157	3157	3157	3157	3157	3157	3157	3129	3186	3186	3186	3186	3186	3186	3186	3186	3186	3186	3186	3186	3186	3186	3186	3186	3186	3186	3186	3186	3186	3186	3186	3186	3186	4838	4771	4771	4771	4771	4771	4771	4771	4771	4771	4771	4771	4771	4706	4706	4706	4706	4706	4706	4706	4706	4706	4706	4706	4771	4706	4771	4706	4771	4706	4706	4706	4706	4643	4643	4643	4643	4643	4643	4643	4706	4706	4706	4706	4643	4643	4581	4581	4521	4463	4463	4463	4463	4463	4406	4463	4463	4463	4463	4463	4463	4463	4463	4463	4463	4521	4521	4521	4521	4521	4521	4521	4521	4521	4521	4521	4521	4521	4463	4521	4521	4463	4463	4463	4406	4406	4406	4406	4406	4406	4463	4463	4463	4463	4463	4463	4406	4406	4406	4406	4350	4406	4406	4406	4406	4406	4406	4406	4406	4406	4463	4463	4463	4463	4463	4463	4406	4406	4406	4406	4406	4406	4406	4406	4406	4406	4406	4406	4406	4406	4406	4406	4406	4463	4463	4463	4463	4463	4463	4463	4463	4463	4463	4463	4463	4463	4463	4463	4463	4521	4581	4643	4706	4706	4706	4706	4706	4706	4706	4643	4643	4643	4706	4643	4643	4643	4643	4643	4643	4643	4643	4643	4706	4706	4643	4643	4643	7608	7779	7779	7959	7959	7959	8146	7959	8146	8146	7959	7959	7959	7959	7959	7959	8146	8146	8146	8146	8146	8146	8146	8146	8146	8146	8146	8146	8146	8146	8146	8146	8146	8146	8146	8146	8343	8343	8343	8343	8343	8343	8343	8343	8343	8343	8146	8146	8146	8146	8146	8146	8343	8343	8343	8343	8343	8343	8343	8343	8343	8146	8146	8146	8146	8146	8146	8343	8343	8343	8146	7959	7779	7779	6592	6592	6468	6468	6468	6468	6349	6468	6349	6468	6468	6349	6349	0	0	0	0	0	0	0	0	0	0	0	0	0	0	0	0	0	0	0	0	0	0	0	0	0	0	0	0	0	0	0	0	0	0	0	0	0
0	0	0	0	782	784	784	788	788	788	788	800	800	804	806	806	817	815	817	817	819	819	819	821	827	829	833	833	843	843	845	850	852	856	856	860	862	865	865	865	869	871	875	880	887	887	889	901	905	908	908	913	913	917	925	925	930	935	935	940	945	948	953	958	961	961	966	972	974	974	983	988	991	997	1000	1000	1008	1014	1020	1026	1030	1033	1039	1039	1042	1052	1058	1058	1071	1074	1078	1085	1088	1091	1095	1095	1095	1095	1098	1095	1095	1091	1091	1091	0	0	0	0	0	0	0	0	4838	4838	4838	4771	4771	4771	4771	4771	4706	4643	4643	4643	4643	4643	4643	0	0	0	0	0	0	0	4581	4643	4643	4706	4706	4706	4643	4643	4643	4643	4581	4581	0	0	0	0	0	0	4771	4706	4706	4706	4706	4706	4706	4706	4771	4977	4977	4977	8146	8146	8146	8146	8146	8146	8146	8146	8146	8343	8343	8343	8550	8550	8343	8343	8146	8146	7959	7959	8146	7959	7959	7959	7959	8146	8146	8146	8146	8343	8343	8343	8343	8146	8146	8146	8146	8146	8146	8146	8146	8146	7959	7959	7959	7959	7959	7959	7959	7959	8146	8146	8146	8146	8146	8146	8146	8146	8146	8146	8146	7959	7959	7959	7959	7959	7959	7959	7959	8146	8146	8146	8146	7959	8146	8146	8343	8343	8343	8343	8343	8343	8343	8343	8343	8343	8343	8343	8343	8343	8146	8146	8146	8146	0	0	0	0	3216	3216	3216	3186	3186	3157	3186	3186	3186	3186	3186	3186	3186	3186	3186	3186	3157	3186	3157	3157	3157	3157	3157	3157	3157	3186	3157	3157	3186	3186	3186	3186	3186	3186	3186	3186	3186	3157	3157	3157	3186	3157	3157	3157	3157	3157	3157	3157	3157	3157	3157	3157	3186	3186	3186	3186	3186	3186	3186	3186	3186	3186	3186	3186	3186	3186	3186	3186	3186	3186	3186	3186	3186	3186	3216	3216	4906	4771	4771	4771	4838	4771	4771	4771	4771	4771	4771	4771	4771	4771	4706	4706	4771	4706	4706	4771	4706	4706	4706	4706	4706	4706	4706	4706	4706	4771	4706	4706	4706	4706	4643	4643	4643	4643	4643	4643	4643	4706	4706	4643	4643	4643	4581	4581	4521	4463	4463	4463	4463	4463	4463	4406	4463	4463	4463	4406	4463	4406	4463	4463	4463	4463	4521	4521	4521	4521	4521	4463	4463	4463	4463	4463	4463	4463	4463	4463	4463	4463	4463	4406	4406	4406	4406	4406	4406	4406	4406	4406	4406	4406	4406	4406	4406	4406	4406	4406	4350	4350	4406	4406	4406	4406	4350	4406	4406	4406	4406	4463	4463	4463	4463	4463	4463	4406	4406	4350	4406	4350	4406	4406	4406	4406	4406	4406	4406	4406	4406	4406	4406	4406	4463	4463	4463	4463	4463	4463	4463	4463	4463	4463	4463	4463	4463	4463	4521	4521	4521	4521	4643	4643	4706	4706	4706	4706	4706	4706	4643	4643	4643	4643	4643	4581	4581	4581	4643	4643	4643	4643	4643	4706	4706	4643	4643	4643	7779	7608	7959	7959	7959	7959	8146	7959	8146	8146	7959	7959	7959	8146	7959	8146	8146	8146	8146	8146	8146	8146	8146	8146	8146	8146	8146	7959	8146	8146	8146	8146	7959	8146	8146	8146	8343	8343	8343	8343	8343	8343	8343	8343	8343	8343	8146	8343	8146	8343	8146	8146	8146	8146	8343	8343	8343	8343	8343	8343	8343	8146	8146	8146	8343	8343	8146	8343	8343	8343	8343	8146	8146	8146	8146	6468	6468	6468	6349	6468	6349	6349	6349	6468	6468	6349	6468	6018	6018	0	0	0	0	0	0	0	0	0	0	0	0	0	0	0	0	0	0	0	0	0	0	0	0	0	0	0	0	0	0	0	0	0	0	0
0	0	0	0	782	784	786	786	786	786	788	804	804	808	815	815	815	815	815	817	819	819	819	821	825	827	833	833	845	845	845	848	850	856	856	860	865	865	865	865	869	871	875	880	884	884	887	887	898	905	905	910	913	913	925	925	930	932	935	935	945	945	950	955	958	958	966	972	974	974	983	988	991	997	997	997	1014	1017	1020	1026	1026	1033	1033	1042	1045	1055	1058	1058	1071	1074	1081	1085	1088	1095	1095	1095	1095	1095	1098	1095	1095	1095	1095	1091	0	0	0	0	0	0	0	0	4838	4838	4838	4838	4771	4771	4706	4838	4706	4706	4643	4643	4581	4581	4643	0	0	0	0	0	0	0	4643	4643	4643	4706	4706	4643	4643	4643	4643	4581	4521	4521	0	0	0	0	0	0	4771	4706	4643	4706	4643	4706	4706	4706	4771	4838	4838	4838	4838	4838	6592	6592	8146	6468	6349	6468	6468	8995	8995	8995	8995	6349	6349	6349	6349	7959	7959	6468	7959	7959	7959	7608	7608	6468	6468	6349	6349	6235	6235	6235	6235	8146	8146	8146	8146	8146	8146	8146	8146	8146	7959	7959	7959	7959	7959	7959	7959	7959	7959	7959	7959	8146	8146	8146	8146	8146	8146	8146	7959	7959	7959	7779	7959	7959	7959	7959	7959	8146	7959	7959	8146	7959	7959	8146	8343	8146	8146	8146	8343	8343	8343	8343	8343	8343	8343	8343	8343	8343	8146	8146	8146	7959	7959	0	0	0	3216	3216	3216	3186	3186	3186	3186	3186	3186	3186	3186	3186	3186	3186	3186	3186	3186	3186	3157	3157	3157	3157	3157	3157	3157	3186	3157	3186	3186	3186	3186	3186	3186	3186	3186	3186	3186	3157	3157	3157	3157	3157	3157	3157	3157	3157	3157	3157	3157	3157	3157	3157	3186	3186	3186	3186	3186	3186	3186	3186	3186	3186	3186	3186	3186	3186	3186	3186	3186	3186	3186	3186	3186	3186	3216	3216	4838	4771	4771	4771	4771	4771	4771	4771	4771	4771	4771	4771	4706	4771	4706	4706	4771	4706	4706	4706	4643	4643	4643	4706	4706	4706	4706	4771	4706	4771	4706	4706	4643	4643	4581	4581	4643	4581	4581	4581	4581	4581	4643	4581	4581	4581	4581	4581	4521	4463	4463	4463	4463	4463	4463	4406	4463	4463	4463	4406	4406	4406	4463	4463	4463	4463	4463	4463	4463	4463	4463	4463	4463	4463	4463	4463	4463	4463	4463	4463	4463	4463	4463	4406	4406	4406	4406	4406	4406	4406	4406	4406	4406	4406	4406	4406	4406	4406	4406	4406	4350	4350	4406	4406	4406	4406	4406	4406	4406	4406	4406	4463	4463	4463	4463	4463	4463	4406	4406	4350	4406	4350	4406	4406	4406	4406	4406	4406	4406	4406	4406	4406	4406	4406	4463	4463	4463	4463	4463	4463	4463	4463	4463	4463	4463	4463	4463	4463	4521	4521	4521	4581	4706	4706	4706	4706	4706	4706	4706	4706	4643	4581	4581	4643	4581	4521	4521	4521	4521	4581	4581	4581	4643	4643	4706	4643	4643	0	7608	7608	7779	7779	7959	7959	7959	7959	8146	8146	7959	7959	8146	8146	8146	8146	8146	8146	8146	8146	8146	8146	8146	8146	8146	8146	8146	7959	8146	8146	8146	7959	7959	7959	8146	8146	8343	8343	8343	8343	8343	8343	8343	8343	8343	8343	8146	8146	8146	8146	8146	7959	8146	8146	8146	8146	8343	8146	8343	8343	8343	8146	8146	8146	8343	8343	8343	8343	8343	8343	8343	8343	8343	8343	8343	6468	6468	6349	6349	6349	6349	6349	6349	6349	6349	6349	6468	6124	6124	0	0	0	0	0	0	0	0	0	0	0	0	0	0	0	0	0	0	0	0	0	0	0	0	0	0	0	0	0	0	0	0	0	0	0
0	0	0	0	0	784	784	786	786	786	797	804	804	808	806	810	812	812	814	817	819	819	819	821	825	823	829	829	845	845	845	848	850	856	856	860	860	865	865	867	869	873	878	882	887	887	894	894	898	905	905	910	913	917	917	925	925	930	932	932	945	945	948	948	958	963	963	969	974	974	983	985	988	994	997	1000	1017	1020	1023	1023	1026	1030	1033	1042	1045	1045	1055	1058	1058	1068	1074	1081	1085	1091	1095	1095	1095	1095	1098	1095	1095	1095	1095	1095	0	0	0	0	0	0	0	0	4838	4838	4838	4838	4771	4771	4706	4706	4706	4706	4643	4643	4643	4581	4581	0	0	0	0	0	0	4581	4643	4643	4643	4643	4643	4643	4643	4581	4581	4581	4463	4463	0	0	0	0	0	0	0	4643	4643	4643	4643	4643	4643	4643	4706	4771	4771	4771	4771	4838	6592	6592	0	6468	6349	6468	6468	6468	6468	6468	6468	6349	6349	6349	6349	6592	6592	6468	6468	6468	6468	6468	6468	6468	6468	6349	6349	6235	6235	6235	6235	8146	6235	8146	8146	8146	8146	8146	8146	8146	8146	7959	7779	7779	7779	7779	7959	7959	7959	7959	8146	8146	8146	8146	8146	8146	8146	8146	7959	7959	7779	7779	7959	7959	7959	7959	7959	8146	7959	7959	8146	7959	8146	8146	8343	8343	8146	8146	8343	8146	8146	8343	8146	8343	8343	8343	8343	8343	8146	8146	7959	7959	7959	0	0	0	0	3216	3216	3216	3216	3186	3216	3216	3216	3186	3186	3186	3186	3186	3186	3186	3186	3186	3186	3157	3157	3157	3157	3157	3157	3186	3186	3186	3186	3186	3186	3186	3186	3186	3186	3186	3186	3186	3157	3157	3157	3186	3186	3157	3186	3157	3157	3157	3157	3157	3157	3157	3186	3186	3186	3186	3186	3186	3186	3186	3186	3186	3186	3186	3186	3186	3186	3186	3186	3186	3186	3186	3186	3186	3186	4838	4838	4771	4771	4771	4771	4771	4771	4771	4771	4771	4771	4771	4771	4771	4771	4706	4706	4706	4706	4706	4643	4643	4581	4643	4643	4706	4706	4706	4706	4771	4706	4643	4581	4581	4521	4521	4521	4581	4581	4581	4581	4581	4581	4581	4581	4581	4581	4521	4521	4463	4463	4463	4463	4406	4406	4406	4463	4463	4463	4406	4406	4406	4463	4463	4463	4463	4463	4463	4463	4463	4463	4406	4406	4406	4406	4406	4406	4406	4463	4463	4463	4463	4463	4463	4463	4406	4406	4406	4406	4406	4406	4406	4406	4406	4406	4350	4350	4350	4350	4350	4350	4296	4350	4406	4406	4406	4406	4406	4406	4406	4463	4463	4521	4463	4463	4463	4463	4463	4406	4350	4406	4350	4350	4350	4406	4406	4406	4406	4406	4406	4406	4406	4406	4406	4463	4463	4463	4463	4463	4463	4406	4406	4406	4406	4406	4463	4463	4521	4581	4581	4643	4643	4706	4706	4706	4706	4706	4643	4706	4706	4581	4581	4581	4581	4521	4463	4463	4463	4463	4463	4521	4521	4581	4643	4706	4643	4643	0	7608	7608	7608	7779	7959	7959	7959	8146	8146	8146	8146	8146	8146	8146	8146	8146	8146	8146	8146	8146	8146	8146	7959	7959	8146	8146	8146	7959	8146	8146	8146	8146	7959	7959	8146	8146	8343	8343	8343	8343	8343	8343	8343	8343	8343	8343	8146	8146	8146	8146	8146	8146	8146	8146	8146	8146	8146	8146	8343	8343	8343	8343	8146	8343	8343	8343	8343	8343	8343	8343	8343	8343	8343	8343	8343	6468	6468	6349	6349	6349	6349	6349	6349	6468	6468	6349	6468	6468	6468	0	0	0	0	0	0	0	0	0	0	0	0	0	0	0	0	0	0	0	0	0	0	0	0	0	0	0	0	0	0	0	0	0	0	0
0	0	0	0	782	784	784	786	786	786	797	802	804	806	806	812	812	812	814	817	819	819	821	823	827	829	831	831	845	845	845	848	850	856	856	862	862	865	865	867	871	873	878	880	880	884	891	891	898	908	908	915	915	917	920	925	927	927	932	940	945	948	950	953	961	958	963	972	972	977	985	988	988	994	997	1000	1017	1017	1020	1023	1023	1030	1033	1042	1045	1045	1055	1058	1061	1071	1074	1074	1085	1091	1095	1095	1095	1098	1098	1098	1098	1098	1098	1095	0	0	0	0	0	0	0	0	4838	4838	4838	4771	4771	4706	4706	4706	4706	4706	4643	4643	4643	4643	4643	0	0	0	0	0	0	4643	4643	4643	4643	4706	4643	4643	4643	4581	4581	4521	4463	4350	4350	0	0	0	0	0	0	4643	4643	4643	4643	4643	4643	4643	4706	4706	4706	4706	4706	6468	6592	6592	0	6468	6349	6235	6468	6468	6468	6349	6468	6468	6468	6468	6349	6468	6468	6468	6468	6468	6468	6468	6468	6468	6468	6349	6349	6235	6235	6235	6235	6235	6235	8146	8146	8146	8146	8146	8146	8146	7959	7959	7779	7779	7779	7779	7959	7959	7959	7959	7959	8146	8146	8146	8146	8146	8146	8146	7959	7959	7959	7779	7959	7959	7959	7959	7959	7959	7959	7959	7959	7959	7959	8146	8343	8146	8146	8146	8146	8146	8146	8343	8343	8343	8343	8343	8343	8343	8146	8146	8146	7959	7959	0	0	0	0	3216	3246	3246	3246	3246	3216	3216	3216	3216	3216	3186	3186	3186	3186	3186	3186	3186	3186	3157	3157	3157	3157	3157	3157	3186	3186	3186	3186	3186	3186	3186	3186	3186	3186	3186	3186	3186	3157	3157	3157	3186	3157	3157	3157	3157	3157	3157	3157	3157	3157	3157	3186	3186	3186	3186	3186	3186	3186	3186	3186	3186	3186	3186	3216	3186	3186	3186	3186	3186	3216	3186	3186	3186	4906	4838	4838	4771	4771	4771	4771	4771	4771	4771	4771	4706	4771	4771	4706	4771	4771	4706	4771	4706	4706	4706	4643	4581	4581	4581	4581	4581	4643	4643	4706	4581	4521	4521	4521	4521	4463	4463	4521	4521	4521	4521	4521	4581	4581	4581	4581	4581	4521	4521	4521	4463	4463	4463	4463	4406	4406	4406	4463	4463	4463	4463	4463	4406	4521	4521	4521	4521	4521	4463	4463	4463	4463	4406	4406	4406	4463	4463	4406	4463	4463	4463	4463	4463	4463	4406	4406	4406	4406	4406	4406	4406	4406	4406	4406	4406	4406	4406	4406	4406	4406	4406	4350	4350	4350	4406	4406	4463	4463	4406	4406	4406	4406	4463	4463	4463	4463	4406	4463	4463	4406	4350	4350	4350	4350	4350	4350	4406	4406	4406	4406	4406	4406	4406	4406	4406	4521	4521	4521	4521	4463	4463	4463	4406	4406	4406	4463	4463	4463	4521	4643	4581	4643	4643	4706	4706	4706	4706	4643	4643	4643	4643	4581	4521	4521	4521	4521	4463	4406	4406	4463	4463	4463	4463	4521	4643	4706	4643	4643	4643	7608	7608	7779	7959	7959	7959	7959	8146	8146	8146	8146	8146	8146	8146	8146	8146	8146	8146	8146	8146	8146	8146	7959	7959	7959	7959	7959	7959	8146	8146	8146	8146	8146	8146	8146	8146	8343	8343	8343	8343	8343	8343	8146	8146	8146	8146	8146	8146	8146	8146	8146	8146	8146	8146	8146	8146	8146	8146	8343	8343	8343	8343	8343	8343	8343	8343	8343	8343	8343	8343	8343	8343	8343	8343	8343	6468	6468	6349	6349	6235	6235	6349	6349	6349	6349	6349	6349	6349	6468	0	0	0	0	0	0	0	0	0	0	0	0	0	0	0	0	0	0	0	0	0	0	0	0	0	0	0	0	0	0	0	0	0	0	0
0	0	0	0	784	784	784	788	789	789	797	804	804	806	808	812	810	814	815	817	817	819	821	823	825	829	831	831	843	843	845	848	850	852	856	862	862	865	867	867	869	873	875	878	882	884	884	894	903	903	908	910	913	917	920	925	927	930	937	942	945	948	950	953	958	961	963	972	977	980	985	988	988	994	1000	1003	1014	1017	1020	1020	1023	1030	1033	1042	1045	1045	1055	1058	1058	1068	1068	1078	1085	1088	1095	1095	1095	1098	1098	1095	1091	1091	1095	1095	0	0	0	0	0	0	0	0	4838	4838	4838	4771	4771	4771	4706	4706	4706	4706	4706	4643	4643	4643	4643	4643	0	0	0	0	0	4643	4643	4643	4706	4706	4706	4706	4643	4581	4581	4581	4406	4406	4406	0	0	0	0	0	0	4643	4643	4643	4643	4643	4643	4643	4706	4706	4706	6592	6592	6468	6592	6468	6468	6468	6349	6235	6349	6349	6349	6349	6349	6349	6349	6349	6349	6468	6468	6468	6349	6468	6468	6468	6468	6349	6349	6349	6349	6235	6349	6235	6235	6235	6235	8146	8146	8146	8146	8146	8146	8146	8146	7959	7959	7779	7959	7959	7959	7959	7959	7959	7959	8146	7959	7959	8146	8146	8146	8146	7959	7959	7779	7779	7779	7779	7779	7779	7959	7959	7959	7959	7959	7959	7959	7959	8146	8146	8146	8146	8146	8146	8146	8343	8343	8343	8343	8343	8146	8343	8146	8146	8146	7959	8343	8343	0	0	0	0	3246	3277	3246	3246	3246	3216	3216	3216	3216	3186	3216	3216	3186	3186	3186	3186	3186	3157	3157	3157	3157	3157	3157	3186	3186	3186	3186	3186	3186	3186	3157	3186	3186	3186	3186	3186	3186	3157	3157	3157	3186	3157	3157	3157	3186	3157	3157	3157	3157	3157	3186	3186	3186	3186	3186	3186	3186	3186	3186	3186	3186	3216	3216	3216	3216	3216	3186	3216	3216	3216	3216	4771	4838	4838	4771	4771	4771	4706	4771	4771	4771	4771	4771	4706	4706	4706	4771	4771	4771	4706	4706	4706	4706	4706	4581	4581	4581	4581	4521	4581	4581	4581	0	4581	4521	4521	4406	4406	4350	4350	4406	4463	4463	4521	4521	4581	4581	4521	4521	4521	4521	4521	4521	4463	4463	4463	4463	4406	4406	4350	4406	4406	4406	4406	4406	4406	4521	4521	4521	4521	4521	4463	4463	4463	4463	4406	4406	4406	4406	4406	4406	4463	4463	4463	4463	4463	4463	4463	4463	4406	4406	4406	4406	4406	4463	4406	4406	4406	4406	4350	4406	4406	4406	4406	4350	4350	4463	4463	4463	4463	4463	4406	4406	4406	4406	4463	4463	4463	4463	4463	4463	4463	4406	4350	4350	4350	4350	4350	4406	4406	4406	4463	4463	4406	4406	4406	4406	4463	4581	4521	4521	4521	4463	4463	4406	4406	4406	4463	4463	4463	4521	4581	4643	4643	4643	4643	4706	4706	4706	4706	4643	4581	4643	4643	4521	4521	4463	4463	4463	4406	4406	4406	4406	4406	4406	4463	4521	4521	4706	4706	4706	4706	4706	7608	7608	8146	7959	7959	8146	8146	8146	8146	8146	8146	8146	8146	8146	8146	8146	8146	8146	8146	8146	8146	7959	7959	7959	7959	7959	7959	8146	8146	8146	8146	7959	8146	8146	8146	8343	8343	8343	8343	8343	8343	8343	8146	8146	8146	8146	8146	8146	8146	8343	8343	8343	8343	8343	8343	8343	8146	8343	8343	8343	8343	8343	8343	8343	8343	8343	8343	8343	8343	8343	8343	8343	8343	8343	6349	6349	6349	6349	6235	6235	6235	6235	6235	6235	6235	6235	6349	0	0	0	0	0	0	0	0	0	0	0	0	0	0	0	0	0	0	0	0	0	0	0	0	0	0	0	0	0	0	0	0	0	0	0	0
0	0	0	0	784	784	784	788	788	791	797	800	802	804	804	806	810	812	815	819	819	819	821	821	825	827	833	833	837	843	845	848	850	852	856	860	862	865	867	869	871	871	878	878	882	884	884	891	903	910	910	913	915	915	917	922	927	930	937	942	945	948	948	953	955	958	963	972	977	980	985	988	988	994	997	1000	1014	1017	1020	1020	1023	1030	1036	1042	1045	1045	1052	1058	1064	1068	1074	1074	1085	1088	1095	1095	1095	1098	1098	1095	1095	1095	1098	1098	1098	0	0	0	0	0	0	0	0	4838	4838	4838	4771	4771	4771	4706	4706	4706	4706	4706	4706	4706	4706	4706	0	0	0	0	0	4771	4643	4643	4706	4706	4706	4706	4643	4643	4581	4581	4406	4406	4406	0	0	0	0	0	0	4643	4643	4706	4706	4643	4643	4643	4706	4706	6468	6468	6468	6468	6468	6468	6468	6349	6349	6235	6349	6349	6349	6349	6349	6349	6349	6349	6349	6349	6349	6349	6349	6468	6468	6468	6468	6349	6349	6349	6349	6235	6235	6235	6235	6235	6235	8146	8146	8146	8146	8146	8146	8146	8146	7959	7959	7959	7959	7959	7959	7779	7779	7779	7779	7959	7959	7959	8146	7959	8146	8146	7959	7959	7959	7959	7959	7959	7959	7959	7959	7959	7779	7959	7959	7959	7959	7959	8146	8146	8146	8146	8146	8146	8146	8343	8343	8343	8343	8343	8343	8343	8146	8146	8146	8146	8343	8343	8343	0	0	0	0	3277	3277	3277	3277	3246	3216	3216	3216	3186	3186	3186	3186	3186	3186	3186	3186	3186	3186	3186	3186	3157	3157	3186	3186	3157	3186	3157	3157	3157	3157	3157	3186	3186	3186	3186	3157	3157	3157	3157	3157	3157	3157	3157	3186	3157	3157	3157	3157	3157	3186	3186	3186	3186	3186	3186	3186	3186	3186	3186	3186	3186	3216	3216	3216	3216	3216	3216	3216	3216	3216	4706	4771	4771	4771	4771	4771	4706	4771	4771	4771	4771	4771	4706	4706	4706	4706	4771	4771	4706	4706	4706	4643	4581	4581	4581	4521	4521	4521	4581	4581	4581	0	0	0	4581	4521	4521	4350	4350	4406	4406	4521	4521	4581	4643	4521	4521	4463	4521	4521	4521	4521	4521	4463	4463	4463	4406	4350	4350	4463	4463	4463	4463	4463	4463	4521	4521	4521	4521	4521	4463	4463	4463	4463	4406	4406	4406	4463	4463	4463	4463	4463	4521	4463	4463	4463	4463	4463	4406	4406	4463	4463	4463	4463	4406	4406	4406	4406	4350	4406	4406	4406	4406	4350	4350	4643	4521	4521	4581	4521	4463	4463	4463	4463	4521	4521	4521	4521	4521	4521	4521	4521	4406	4406	4463	4521	4581	4581	4581	4521	4521	4521	4463	4463	4406	4521	4581	4521	4581	4581	4643	4643	4463	4463	4463	4643	4521	4521	4581	4581	4643	4643	4643	4643	4643	0	0	0	0	0	4521	4581	4581	4463	4463	4463	4463	4406	4406	4406	4406	4406	4406	4463	4521	4581	4706	4706	4706	4706	4706	4838	4838	7608	7959	8146	8146	8146	8146	8146	8146	8146	8146	8146	8146	8146	8146	8146	8146	8146	8146	8146	7959	7959	7959	8146	8146	8146	7959	8146	8146	8146	8146	8146	8146	8146	8146	8146	8343	8343	8343	8343	8343	8343	8146	8146	8146	8146	8146	8146	8146	8146	8146	8343	8146	8343	8343	8146	8146	8343	8343	8343	8343	8343	8343	8343	8343	8343	8343	8343	8343	8343	8343	8343	8343	8343	6349	6349	6235	6235	6235	6235	6349	6235	6349	6468	6468	6235	0	0	0	0	0	0	0	0	0	0	0	0	0	0	0	0	0	0	0	0	0	0	0	0	0	0	0	0	0	0	0	0	0	0	0	0	0
0	0	0	0	0	784	786	788	788	791	793	795	798	798	808	808	810	810	814	815	817	817	819	821	823	829	829	837	837	841	845	845	852	854	858	860	862	865	865	869	871	875	878	880	882	884	887	887	905	908	908	915	917	917	920	922	925	927	930	942	945	948	948	950	953	958	966	972	974	980	985	988	988	991	997	1000	1017	1017	1020	1020	1023	1033	1036	1045	1045	1045	1055	1055	1058	1058	1071	1078	1085	1088	1091	1095	1095	1098	1098	1098	1095	1098	1102	1102	1102	0	0	0	0	0	0	0	0	4771	4838	4838	4771	4771	4771	4706	4706	4706	4706	4706	4706	4706	4706	4706	0	0	0	0	0	4771	4706	4706	4706	4706	4706	4706	4643	4643	4643	4581	4406	4406	0	0	0	0	0	0	0	4643	4643	4643	4643	4643	4643	4643	4706	4706	6468	6468	6349	6468	6468	6468	6349	6349	6349	6235	6349	6349	6349	6349	6349	6349	6349	6349	6349	6349	6349	6349	6349	6349	6349	6349	6349	6349	6349	6349	6349	6235	6235	6235	6349	6235	6235	8146	8146	8146	8146	8146	8146	8146	8146	8146	7959	7959	7959	7959	7959	7959	7779	7779	7779	7959	7959	7959	8146	8146	8146	8146	7959	7959	7959	7959	7959	7959	7959	7959	7959	7959	7959	7959	7959	7959	7959	7959	8146	8146	8146	8146	8146	8146	8146	8146	8146	8146	8343	8343	8343	8343	8343	8343	8343	8343	8343	8343	8343	8343	0	0	0	3309	3309	3277	3277	3277	3216	3216	3216	3186	3216	3186	3186	3216	3186	3186	3186	3186	3186	3186	3186	3157	3157	3186	3186	3186	3157	3157	3157	3157	3157	3186	3186	3186	3186	3186	3186	3157	3157	3157	3186	3186	3186	3186	3186	3157	3157	3157	3157	3157	3157	3186	3186	3186	3186	3186	3186	3186	3186	3186	3186	3186	3216	3216	3216	3216	3216	3216	3246	3246	4771	4771	4771	4771	4771	4706	4771	4706	4771	4771	4771	4771	4771	4706	4706	4706	4706	4771	4771	4706	4706	4643	4581	4581	4581	4521	4521	4463	4463	0	0	0	0	0	0	4581	4581	4581	4521	4350	4406	4521	4521	4521	4581	4581	4581	4521	4463	4521	4521	4521	4521	4521	0	0	4350	4350	4350	4350	4463	4463	4463	4463	4463	4463	4581	4581	4581	4581	4521	4521	4521	4463	4463	4463	4463	4463	4463	4463	4463	4463	4521	4521	4581	4521	4521	4581	4581	4463	4463	4463	4463	4406	4463	4406	4406	4406	4406	4406	4463	4463	4463	4521	4463	4463	4643	4643	4581	4643	4643	4581	4581	4521	4521	4521	4521	4581	4643	4581	4521	4521	4521	4581	4581	4521	4521	4581	4581	4581	4581	4581	4581	4581	4581	4581	4581	4581	4581	4706	4706	4706	4706	4643	4581	4581	4643	4643	4581	4643	4643	4643	4643	4643	4643	4643	0	0	0	0	4521	4521	4581	4521	4463	4463	4463	4463	4463	4463	4463	4463	4463	4463	4463	4521	4581	4643	4706	4706	4706	4706	4838	4838	0	7959	8146	8146	8146	8146	8146	8146	8146	8146	8146	8146	8146	8146	8146	8146	8146	8146	8146	8146	7959	7959	8146	8146	8146	8146	8146	8146	8146	8146	8146	8146	8146	8146	8343	8343	8343	8343	8343	8343	8343	8146	8146	8146	8146	8343	8343	8343	8343	8343	8343	8343	8343	8343	8343	8146	8343	8343	8343	8343	8343	8343	8343	8343	8343	8343	8343	8343	8343	8343	8343	8343	8343	6349	6349	6235	6349	6349	6349	6349	6235	6468	6468	6468	0	0	0	0	0	0	0	0	0	0	0	0	0	0	0	0	0	0	0	0	0	0	0	0	0	0	0	0	0	0	0	0	0	0	0	0	0	0
0	0	0	0	784	784	786	788	788	789	793	795	797	797	806	806	808	810	814	815	817	817	821	821	825	825	831	831	837	837	837	848	852	856	860	860	862	865	867	871	871	875	878	878	882	882	889	891	901	908	908	915	917	917	920	920	925	927	930	942	945	945	948	950	953	953	966	974	974	980	985	988	988	991	997	1000	1017	1017	1017	1017	1020	1030	1033	1042	1048	1048	1055	1058	1058	1061	1061	1074	1088	1088	1091	1095	1098	1098	1102	1098	1098	1102	1102	1102	1109	1109	0	0	0	0	0	0	0	4771	4771	4771	4771	4706	4706	4706	4706	4706	4706	4706	4706	4706	4706	0	0	0	0	0	0	4706	4706	4706	4706	4706	4706	4706	4643	4643	4643	0	0	0	0	0	0	0	0	0	0	4643	4581	4706	4706	4643	4643	4643	4706	4706	6468	6468	6468	6349	6468	6349	6349	6349	6235	6235	6349	6349	6349	6349	6349	6349	6468	6349	6349	6349	6349	6349	6349	6349	6349	6349	6349	6349	6349	6349	6349	6349	6235	6235	6349	6235	6235	8146	8146	8146	8146	8146	8146	8146	8146	8146	7959	7959	7959	7959	7959	7959	7959	7959	7959	7959	7959	7959	8146	7959	8146	8146	7959	7959	7959	7959	7959	7959	7959	7959	7959	7959	7959	7959	7959	7959	7959	8146	8146	8146	8343	8146	8146	8146	8146	8343	8146	8343	8343	8343	8343	8343	8343	8343	8343	8343	8343	8550	8343	8343	0	0	0	3309	3309	3309	3277	3277	3216	3216	3216	3216	3216	3186	3186	3186	3186	3186	3186	3186	3186	3186	3157	3157	3157	3186	3157	3186	3186	3157	3157	3157	3157	3157	3157	3186	3186	3186	3186	3186	3157	3186	3186	3186	3186	3157	3157	3157	3157	3157	3157	3157	3157	3186	3186	3186	3186	3186	3186	3186	3186	3186	3186	3186	3216	3216	3216	3216	3216	3246	3246	4838	4771	4771	4771	4771	4771	4771	4771	4771	4771	4771	4771	4706	4706	4706	4706	4643	4643	4643	4643	4643	4643	4643	4581	4581	4581	4521	4521	4521	4463	0	0	0	0	0	4581	4581	4581	4521	4521	4521	4521	4521	4521	4581	4581	4581	4581	4581	4521	4521	4521	4521	4521	4521	0	0	4350	4350	4706	4706	4521	4521	4521	4581	4581	4643	4643	4643	4643	4643	4643	4581	4581	4521	4581	4521	4521	4521	4521	4521	4581	4581	4581	4581	4581	4581	4581	4581	4581	4581	4521	4521	4521	4521	4463	4406	4406	0	4406	4406	4463	4521	4581	4581	4581	4643	4706	4706	4643	4643	4643	4643	4643	4581	4581	4581	4581	4581	4643	4643	4643	4643	4643	4581	4581	4581	4581	4581	4581	4581	4581	4581	4581	4643	4643	4643	4643	4643	4643	4706	4706	4706	4706	4643	4643	4706	4706	4706	4706	4706	4706	4706	4706	4643	4643	4643	0	0	0	0	4581	4581	4581	4581	4463	4521	4521	4521	4463	4463	4463	4463	4463	4463	4463	4521	4581	4643	4706	4706	4706	4706	4771	4771	0	7959	8146	8146	8146	8146	8146	8146	8146	8146	8146	8146	8146	8146	8146	8146	8146	8146	8146	8146	7959	7959	7959	8146	8146	8146	8146	8146	8146	8146	8146	8146	8146	8146	8343	8343	8343	8343	8343	8343	8146	8146	8146	8146	8146	8343	8146	8146	8343	8343	8343	8343	8343	8343	8343	8343	8343	8343	8343	8343	8343	8343	8343	8343	8343	8343	8343	8343	8343	8343	8146	8146	8146	0	6349	6235	6349	6349	6349	6349	6235	6235	6235	6468	0	0	0	0	0	0	0	0	0	0	0	0	0	0	0	0	0	0	0	0	0	0	0	0	0	0	0	0	0	0	0	0	0	0	0	0	0	0
0	0	0	0	782	784	786	786	788	789	793	795	797	797	806	808	808	810	815	815	817	817	819	821	821	825	831	835	837	837	845	852	852	856	860	862	862	865	869	869	871	875	878	880	880	884	887	889	896	903	905	913	915	917	920	922	925	930	932	942	942	945	948	953	955	961	969	972	974	977	983	985	985	991	997	1000	1017	1017	1017	1017	1020	1023	1036	1045	1052	1052	1055	1055	1058	1058	1058	1098	1091	1091	1091	1095	1095	1098	1098	1098	1098	1102	1109	1109	1109	1109	0	0	0	0	0	0	0	0	4706	4771	4771	4706	4706	4706	4706	4706	4706	4706	4706	4706	0	0	0	0	0	0	0	4706	4706	4706	4706	4706	4706	4706	4643	4643	4643	0	0	0	0	0	0	0	0	0	0	0	4581	4706	4706	4643	4643	4643	4706	4706	6468	6468	6349	6349	6349	6349	6349	6349	6349	6235	6349	6349	6235	6235	6349	6349	6349	6468	6349	6349	6349	6349	6349	6349	6349	6349	6349	6349	6349	6349	6349	6349	6235	6235	6349	6235	6235	8146	8146	8146	8146	8146	8146	8146	8146	8146	7959	7959	7959	7959	7959	7959	7959	7959	7959	7959	7959	8146	8146	8146	8146	8146	7959	7959	7959	7959	7959	7959	7959	7959	7959	7959	7959	7959	7959	7959	7959	7959	8146	8343	8146	8146	8146	8146	8146	8343	8146	8343	8343	8343	8343	8343	8343	8343	8343	8343	8550	8550	8550	8343	8343	0	0	3309	3309	3277	3277	3277	3216	3216	3216	3216	3186	3186	3186	3186	3186	3186	3186	3186	3186	3186	3186	3186	3186	3186	3157	3186	3186	3186	3186	3186	3186	3186	3186	3186	3186	3186	3186	3186	3157	3186	3186	3186	3186	3157	3186	3157	3157	3157	3157	3157	3157	3186	3186	3186	3186	3186	3186	3186	3186	3186	3186	3186	3216	3216	3216	3216	3216	3246	3246	4771	4771	4771	4771	4771	4771	4771	4771	4771	4771	4771	4771	4706	4706	4706	4706	4643	4643	4771	4643	4643	4643	4643	4581	4581	4581	4521	4521	4521	0	0	0	0	0	0	4581	4581	4581	4581	4521	4521	4581	4521	4521	4581	4581	4581	4581	4521	4521	4521	4706	4706	4706	4521	0	0	0	4771	4706	4706	4706	4643	4643	4643	4643	4643	4706	4643	4643	4643	4643	4643	4581	4581	4581	4581	4581	4581	4581	4581	4643	4643	4643	4643	4581	4643	4581	4581	4581	4581	4521	4521	4521	4521	4521	0	0	0	0	0	0	4581	4581	4581	4643	4706	4706	4706	4706	4643	4643	4643	4643	4643	4581	4643	4643	4581	4643	4581	4643	4643	4643	4643	4581	4581	4581	4581	4581	4643	4581	4581	4643	4643	4706	4643	4643	4643	4643	4706	4706	4706	4706	4706	4643	4706	4706	4706	4706	4706	4706	4706	4706	4643	4643	4643	0	0	0	0	4581	4581	4643	4581	4521	4521	4521	4521	4463	4463	4463	4463	4463	4463	4521	4521	4581	4706	4706	4706	4706	4706	4838	4838	4838	7959	8146	8146	8146	8146	8146	8146	8146	8146	8146	8146	8146	8146	8146	8146	8146	8146	8146	7959	7959	7959	7959	7959	7959	8146	8146	8146	8146	8146	8146	8146	8146	8146	8343	8343	8343	8343	8343	8343	8343	8343	8146	8146	8343	8343	8343	8343	8343	8343	8550	8343	8343	8343	8343	8343	8343	8343	8343	8343	8343	8343	8343	8343	8343	8146	8343	8146	7779	7779	7779	7779	7779	0	6349	6235	6349	6349	6235	6235	6235	6235	6235	0	0	0	0	0	0	0	0	0	0	0	0	0	0	0	0	0	0	0	0	0	0	0	0	0	0	0	0	0	0	0	0	0	0	0	0	0	0	0
0	0	0	0	782	786	786	788	789	789	793	795	798	798	798	806	806	810	814	814	817	817	817	819	823	827	833	837	837	835	841	845	852	856	860	862	862	865	867	869	871	873	875	878	878	882	889	891	898	903	905	910	913	915	917	925	927	930	930	937	940	945	948	953	955	961	969	972	974	977	983	983	985	991	994	997	1017	1017	1017	1017	1020	1026	1033	1039	1052	1052	1055	1055	1058	1058	1058	1074	1088	1088	1091	1091	1095	1098	1098	1098	1098	1098	1105	1105	1105	1105	0	0	0	0	0	0	0	0	4706	4771	4706	4706	4706	4706	4706	4706	4643	4643	4706	0	0	0	0	0	0	0	0	0	0	4706	4771	4771	4771	4771	4643	4643	0	0	0	0	0	0	0	0	0	0	0	0	0	4771	4706	4643	4643	4643	4643	6468	6468	6349	6349	6349	6468	6349	6349	6349	6349	6349	6349	6349	6349	6349	6349	6349	6349	6468	6349	6349	6349	6349	6349	6349	6349	6349	6349	6349	6349	6349	6349	6235	6235	6235	6235	6235	8146	8146	7959	8146	7959	8146	8146	8146	8146	8146	8146	8146	8146	7959	7959	7959	7959	7959	7959	8146	8146	8146	8146	8146	8146	8146	8146	8146	7959	7959	8146	8146	8146	8146	8146	8146	7959	7959	7959	7959	7959	7959	8146	8146	8146	8146	8146	8146	8146	8343	8146	8343	8343	8343	8343	8343	8343	8343	8343	8343	8550	8550	8550	8550	8550	0	0	3309	3277	3277	3277	3277	3216	3216	3216	3216	3216	3186	3186	3186	3186	3186	3186	3186	3186	3186	3186	3186	3186	3186	3157	3157	3157	3186	3186	3186	3186	3186	3186	3186	3186	3186	3186	3186	3186	3186	3186	3186	3157	3157	3157	3157	3157	3157	3157	3157	3157	3186	3186	3186	3186	3186	3186	3186	3186	3186	3186	3186	3186	3216	3216	3216	3216	3246	3246	4771	4771	4706	4771	4706	4706	4706	4706	4706	4706	4706	4706	4706	4706	4706	4706	4643	4643	4643	4643	4643	4643	4581	4581	4581	4521	4521	4521	0	0	0	0	0	0	4581	4581	4581	4581	4581	4581	4581	4581	4581	4521	4581	4581	4581	4581	4581	4581	4706	4706	4706	4706	0	0	0	4706	4706	4706	4643	4706	4771	4771	4706	4706	4706	4706	4643	4643	4643	4643	4643	4643	4643	4643	4643	4643	4643	4643	4643	4643	4643	4643	4643	4643	4643	4581	4581	4581	4581	4581	4581	4521	4521	4581	4581	4581	0	0	0	4581	4581	4643	4643	4643	4643	4643	4643	4643	4643	4643	4643	4643	4643	4643	4643	4581	4581	4581	4581	4581	4581	4581	4581	4581	4581	4581	4581	4581	4581	4581	4581	4643	4581	4643	4643	4581	4643	4643	4706	4706	4706	4706	4706	4706	4706	4706	4706	4706	4706	4706	4706	4706	4581	4521	4521	4521	4581	4521	4581	4521	4581	4581	4581	4521	4521	4521	4521	4521	4521	4463	4463	4521	4521	4521	4521	4643	4706	4706	4706	4706	4706	4706	4771	4771	0	8146	8146	8146	8146	8146	8146	8146	8146	8146	8146	8146	8146	8146	8146	8146	8146	8146	7959	7959	7959	7959	7959	8146	8146	8146	8146	8146	8146	8146	8146	8146	8343	8343	8343	8343	8343	8343	8343	8343	8343	8146	8146	8343	8343	8343	8343	8343	8550	8550	8550	8550	8550	8550	8550	8550	8550	8343	8343	8343	8343	8343	8146	8146	7959	8146	7959	7959	7959	7959	7779	7779	0	6235	6235	6235	6235	6235	6235	6124	6124	6124	0	0	0	0	0	0	0	0	0	0	0	0	0	0	0	0	0	0	0	0	0	0	0	0	0	0	0	0	0	0	0	0	0	0	0	0	0	0	0
0	0	0	0	782	784	784	786	791	791	793	795	795	795	808	808	808	810	814	815	817	817	817	821	823	827	835	837	837	835	839	843	850	858	860	862	862	862	865	869	871	873	878	880	882	889	891	894	896	901	903	908	908	913	917	925	927	930	932	937	945	945	948	950	953	966	969	974	974	980	983	985	985	988	994	1000	1017	1017	1017	1017	1020	1033	1033	1039	1042	1045	1045	1048	1048	1061	1061	1078	1088	1091	1091	1095	1095	1095	1098	1098	1098	1098	1102	1102	1102	1102	0	0	0	0	0	0	0	0	4643	4706	4706	4643	4643	4643	4643	4643	4643	4643	0	0	0	0	0	0	0	0	0	0	0	0	4771	4771	4771	4771	0	0	0	0	0	0	0	0	0	0	0	0	0	0	0	4771	4706	4643	4643	4643	4643	6468	6468	6349	6349	6349	6349	6349	6349	6349	6349	6349	6349	6349	6349	6349	6349	6349	6349	6349	6349	6349	6349	6349	6235	6235	6235	6235	6349	6349	6349	6349	6235	6235	6235	6235	6349	6349	8146	8146	7959	7959	7959	7959	8146	8146	8146	8146	8146	8146	8146	7959	7959	7959	7959	7959	7959	8146	8146	8146	8146	8146	8146	8146	8146	8146	7959	7959	7959	8146	8146	8146	8146	8146	8146	7959	7959	7959	7959	7959	8146	8146	8146	8146	8146	8146	8146	8146	8146	8146	8343	8343	8343	8343	8343	8343	8343	8343	8550	8550	8550	8767	8767	0	3309	3309	3277	3277	3277	3277	3216	3216	3186	3216	3216	3186	3186	3186	3186	3186	3186	3186	3186	3186	3186	3186	3186	3186	3157	3157	3186	3186	3186	3186	3186	3186	3186	3186	3186	3186	3186	3186	3186	3186	3186	3186	3186	3157	3157	3157	3157	3157	3157	3157	3157	3186	3186	3186	3186	3186	3186	3186	3186	3186	3186	3186	3216	3216	3216	3216	3216	3216	3216	4771	4771	4706	4706	4706	4706	4706	4706	4706	4706	4706	4706	4706	4706	4706	4706	4771	4771	4771	4643	4643	4581	4581	4581	4581	4521	4521	0	0	0	0	0	0	4581	4581	4643	4643	4643	4581	4581	4581	4581	4581	4581	4581	4581	4581	4643	4581	4581	4706	4706	4643	4643	4706	4706	4706	4706	4706	4706	4706	4771	4771	4771	4706	4706	4706	4706	4643	4643	4643	4643	4643	4643	4643	4643	4643	4643	4643	4643	4643	4643	4706	4643	4643	4643	4643	4643	4643	4581	4643	4643	4581	4581	4581	4581	4581	4581	0	0	0	4581	4581	4581	4581	4643	4643	4643	4643	4643	4643	4643	4643	4643	4643	4643	4643	4643	4643	4643	4643	4643	4581	4643	4643	4581	4581	4581	4581	4581	4581	4581	4581	4581	4643	4643	4643	4643	4643	4643	4706	4706	4706	4706	4706	4706	4706	4706	4706	4706	4706	4706	4706	4643	4581	4581	4581	4581	4581	4581	4581	4581	4581	4581	4581	4581	4521	4521	4521	4521	4463	4463	4463	4463	4521	4521	4521	4581	4643	4706	4706	4706	4706	4706	4771	4771	0	8146	8146	8146	8146	8146	8146	8146	8146	8146	8146	8146	8146	8146	8146	8146	8146	8146	8146	8146	7959	7959	7959	8146	8146	8146	8146	8146	8146	8146	8146	8146	8146	8343	8343	8343	8343	8343	8343	8343	8343	8343	8146	8343	8343	8343	8343	8343	8550	8550	8550	8550	8550	8550	8550	8343	8343	8343	8343	8146	8146	8146	8146	8146	7959	7959	7779	7779	7779	7779	7779	7779	0	6235	6124	6235	6235	6235	6235	6235	6124	6124	0	0	0	0	0	0	0	0	0	0	0	0	0	0	0	0	0	0	0	0	0	0	0	0	0	0	0	0	0	0	0	0	0	0	0	0	0	0	0
0	0	0	0	780	782	782	784	793	793	795	795	795	795	810	810	810	812	814	815	815	817	817	821	825	829	835	837	837	837	839	843	848	856	860	862	862	865	869	869	871	873	878	884	884	889	891	891	896	901	905	905	908	915	917	922	927	930	932	945	945	945	948	950	953	958	969	974	977	980	983	983	985	985	997	1006	1017	1017	1017	1020	1023	1030	1033	1039	1039	1045	1045	1048	1061	1068	1071	1078	1085	1088	1091	1091	1095	1095	1098	1098	1098	1098	1102	1102	1102	1102	0	0	0	0	0	0	0	0	4643	4706	4643	4643	4643	4643	4643	4643	4643	4643	0	0	0	0	0	0	0	0	0	0	0	0	0	0	0	0	0	0	0	0	0	0	0	0	0	0	0	0	0	0	0	0	4706	4643	4643	0	0	6468	6349	6349	6349	6349	6349	6349	6349	6349	6349	6349	6349	6349	6349	6468	6349	6349	6349	6349	6349	6349	6349	6235	6235	6235	6235	6235	6235	6349	6349	6349	6235	6235	6235	6124	6124	6124	6124	8343	8146	8146	7959	7959	8146	8146	8146	8146	8146	8146	8146	8146	7959	7959	7959	8146	8146	8146	8146	8146	8146	8146	8146	8146	7959	8146	7959	7959	8146	8146	8146	8146	8146	8146	7959	7959	7959	7959	7959	7959	8146	8146	8146	8146	8146	8146	8146	8146	8146	8343	8343	8343	8343	8343	8343	8343	8343	8343	8550	8550	8550	8550	8550	0	3309	3309	3277	3277	3277	3246	3216	3216	3186	3186	3186	3186	3186	3186	3186	3186	3186	3186	3186	3186	3186	3186	3186	3186	3186	3186	3186	3186	3186	3186	3186	3186	3186	3186	3186	3186	3186	3186	3186	3157	3186	3186	3186	3157	3157	3157	3157	3157	3157	3129	3157	3186	3186	3186	3186	3186	3186	3186	3186	3216	3186	3186	3216	3216	3216	3216	3216	3216	3216	3216	4771	4706	4771	4771	4706	4706	4706	4706	4706	4706	4706	4706	4771	4771	4771	4771	4771	4771	4706	4706	4643	4643	4643	4581	4521	4521	0	0	0	0	0	0	4643	4643	4643	4643	4643	4643	4581	4581	4581	4581	4581	4643	4581	4643	4643	4581	4581	4581	4643	4643	4643	4706	4706	4706	4643	4706	4706	4706	4706	4771	4771	4706	4706	4706	4706	4706	4643	4643	4706	4643	4643	4643	4643	4643	4706	4706	4643	4706	4706	4706	4706	4706	4706	4706	4706	4706	4706	4706	4643	4643	4581	4581	4643	4643	4643	0	0	4581	4581	4581	4581	4643	4643	4643	4643	4643	4643	4643	4643	4643	4643	4643	4643	4643	4643	4643	4643	4643	4643	4643	4643	4643	4643	4643	4643	4581	4581	4581	4581	4581	4643	4643	4643	4643	4643	4643	4643	4706	4706	4706	4706	4643	4643	4643	4643	4643	4643	4706	4643	4643	4643	4581	4521	4521	4521	4581	4581	4643	4581	4643	4581	4581	4581	4581	4521	4521	4521	4521	4463	4463	4463	4521	4521	4521	4581	4643	4706	4706	4706	4706	4706	4771	4771	0	8146	8146	8146	8146	8146	8146	8146	7959	8146	8146	8146	7959	7959	7959	8146	8146	8146	8146	8146	8146	8146	8146	8146	8146	8146	8146	8146	8146	8146	8146	8146	8146	8343	8343	8343	8343	8343	8343	8343	8343	8343	8343	8343	8550	8550	8550	8343	8343	8550	8550	8550	8550	8550	8550	8343	8343	8343	8146	8146	8146	7959	7959	7959	7779	7779	7779	7779	7779	7959	7959	7779	0	6124	6235	6235	6235	6124	6235	6124	6124	6124	0	0	0	0	0	0	0	0	0	0	0	0	0	0	0	0	0	0	0	0	0	0	0	0	0	0	0	0	0	0	0	0	0	0	0	0	0	0	0
0	0	0	0	780	782	784	791	793	793	797	797	797	802	810	810	810	812	812	815	815	815	815	827	827	829	833	837	837	837	839	841	845	856	860	862	862	862	867	869	871	875	880	880	887	891	891	891	896	898	901	905	908	917	920	925	925	930	932	940	945	948	950	950	953	961	969	972	974	977	983	985	988	994	997	1003	1014	1014	1017	1020	1023	1033	1039	1039	1042	1045	1045	1048	1048	1068	1071	1081	1085	1088	1091	1091	1095	1095	1098	1098	1098	1098	1098	1098	1098	0	0	0	0	0	0	0	0	0	0	0	4643	4643	4643	0	0	0	0	0	0	0	1804	1814	1814	1814	0	0	0	0	0	0	0	0	0	0	0	0	0	0	0	0	0	0	0	0	0	0	0	0	0	0	0	0	0	0	0	0	6349	6349	6349	6349	6349	6349	6349	6235	6349	6349	6349	6349	6468	6468	6349	6349	6349	6349	6349	6235	6235	6235	6235	6235	6124	6235	6235	6349	6349	6349	6349	6349	6235	6235	6235	6235	6235	8146	7959	7959	7959	7959	7959	8146	7959	8146	8146	8146	8146	8146	7959	7959	7959	8146	8146	8146	8146	8146	8146	8146	8146	8146	7959	8146	7959	7959	7959	7959	7959	7959	8146	8146	8146	7959	7959	7959	8146	8146	8146	8343	8146	8343	8343	8146	8146	8343	8146	8343	8343	8343	8343	8343	8343	8343	8343	8343	8550	8550	8550	8995	8995	8995	3277	3277	3277	3277	3277	3246	3216	3216	3186	3186	3186	3186	3186	3186	3186	3186	3186	3186	3186	3186	3186	3186	3186	3186	3186	3186	3186	3186	3186	3186	3186	3186	3186	3186	3186	3186	3186	3186	3186	3186	3186	3186	3186	3157	3157	3157	3157	3157	3157	3129	3129	3157	3186	3186	3186	3186	3186	3186	3186	3216	3186	3186	3186	3216	3216	3216	3216	3216	3246	3246	4771	4706	4706	4706	4706	4706	4706	4706	4706	4706	4643	4643	4706	4706	4706	4706	4706	4706	4706	4706	4643	4643	4643	0	0	0	0	0	0	0	0	4581	4581	4643	4643	4643	4643	4581	4581	4581	4643	4581	4581	4643	4643	4643	4643	4643	4643	4643	4643	4643	4643	4643	4643	4643	4643	4706	4706	4643	4706	4706	4706	4706	4706	4706	4706	4706	4643	4643	4706	4706	4643	4643	4643	4643	4706	4706	4706	4706	4643	4706	4643	4643	4643	4643	4643	4643	4643	4706	4643	4643	4581	4581	4581	4581	4581	4581	4581	4581	4581	4581	4581	4581	4643	4643	4643	4643	4643	4643	4643	4643	4643	4643	4643	4643	4643	4643	4643	4643	4643	4581	4581	4581	4581	4581	4581	4581	4581	4581	4581	4643	4643	4643	4643	4643	4643	4643	4643	4706	4706	4706	4706	4643	4643	4643	4643	4643	4706	4706	4643	4643	4643	4643	4581	4581	4521	4521	4521	4521	4521	4521	4581	4581	4581	4521	4521	4521	4521	4463	4463	4463	4463	4463	4521	4521	4581	4643	4706	4706	4706	4706	4706	4706	4706	0	7959	7959	7959	8146	8146	7959	7959	7959	8146	8146	8146	7959	8146	8146	8146	8146	8146	8146	8146	8146	7959	7959	7959	7959	7959	8146	8146	8146	8146	8146	8146	8146	8146	8343	8146	8343	8343	8343	8343	8343	8343	8343	8550	8550	8550	8550	8550	8343	0	0	0	0	8343	8343	8343	8343	8343	8146	8146	8146	7959	8146	7959	7779	7779	7779	7779	7779	7779	7959	0	0	6235	6349	6349	6349	6349	6235	6235	6235	6235	6235	0	0	0	0	0	0	0	0	0	0	0	0	0	0	0	0	0	0	0	0	0	0	0	0	0	0	0	0	0	0	0	0	0	0	0	0	0	0
0	0	0	0	780	782	784	793	795	798	798	797	800	802	808	810	810	812	814	814	814	814	814	831	829	831	831	835	837	839	841	845	848	856	858	860	860	862	865	871	873	875	880	880	889	891	891	894	891	898	898	903	908	922	922	925	925	927	930	937	948	948	950	950	953	961	966	972	972	974	983	983	991	994	997	1000	1011	1014	1017	1020	1023	1036	1039	1042	1042	1045	1045	1048	1048	1068	1071	1078	1085	1091	1091	1095	1095	1095	1098	1098	1098	1098	1098	1098	1098	0	0	0	0	0	0	0	0	0	0	0	0	0	0	0	1786	1786	1777	1777	0	1814	1814	1814	1814	1824	1833	1833	0	0	0	0	0	0	0	0	0	0	0	0	0	0	0	0	0	0	0	0	0	0	0	0	0	0	0	0	0	0	0	0	6349	6349	6349	6235	6235	6349	6468	6468	6349	6349	6468	6468	6349	6468	6468	6349	6349	6349	6235	6235	6235	6235	6124	6235	6235	6349	6349	6349	6349	6349	6235	6235	6349	6349	7608	7608	7608	7779	7779	7779	7959	7959	7959	7959	7959	7959	7959	7959	7959	8146	8146	8146	8146	8146	8146	8146	8146	8146	8146	8146	7959	8146	7959	7959	7959	7959	7959	7959	8146	7959	8146	7959	7959	8146	8146	8146	8146	8343	8146	8343	8343	8343	8146	8343	8146	8343	8343	8343	8343	8343	8343	8343	8343	8343	8550	8550	9235	9235	9235	9235	3246	3246	3277	3246	3246	3216	3216	3216	3216	3216	3186	3186	3186	3186	3186	3186	3186	3186	3186	3186	3186	3186	3186	3186	3186	3186	3186	3186	3186	3186	3186	3186	3186	3186	3186	3186	3186	3186	3186	3157	3186	3186	3186	3186	3157	3157	3157	3157	3157	3129	3129	3157	3186	3186	3186	3186	3186	3186	3186	3216	3186	3186	3216	3216	3216	3216	3216	3246	3246	3246	3246	4643	4706	4706	4706	4706	4771	4706	4643	4643	4643	4643	4706	4706	4706	4706	4706	4706	4706	4706	0	0	0	0	0	0	0	0	0	0	0	4643	4643	4643	4643	4643	4643	4643	4643	4643	4643	4643	4643	4581	4581	4643	4643	4581	4581	4643	4643	4643	4706	4643	4706	4643	4643	4706	4643	4643	4706	4706	4706	4706	4706	4706	4706	4706	4643	4643	4706	4643	4643	4643	4643	4643	4706	4706	4706	4643	4643	4643	4643	4643	4643	4643	4643	4643	4643	4643	4643	4643	4643	4643	4643	4643	4581	4581	4581	4581	4581	4581	4581	4581	4581	4643	4643	4643	4643	4643	4643	4643	4643	4643	4643	4643	4643	4581	4643	4581	4643	4581	4581	4581	4581	4581	4643	4581	4581	4581	4643	4643	4643	4643	4643	4643	4643	4643	4643	4643	4706	4706	4706	4643	4643	4643	4643	4643	4643	4643	4643	4643	4643	4581	4521	4521	4521	4521	4463	4521	4463	4521	4521	4521	4521	4521	4521	4521	4463	4463	4463	4406	4406	4463	4463	4521	4581	4643	4706	4706	4706	4706	4706	4771	4771	0	7959	7959	7959	7959	7959	8146	8146	8146	8146	8146	8146	8146	8146	8146	8146	8343	8146	7959	7959	7959	7959	7959	7959	7959	7959	8146	7959	8146	7959	7959	7959	7959	8146	8343	8146	8343	8343	8343	8343	8343	8343	8343	8343	8550	8767	8767	8550	0	0	0	0	0	8343	8343	8343	8343	8146	8146	8146	8146	8146	8146	7959	7779	7779	7779	7779	7779	7779	0	0	0	6235	6235	6235	6349	6235	6235	6235	6124	6235	6235	0	0	0	0	0	0	0	0	0	0	0	0	0	0	0	0	0	0	0	0	0	0	0	0	0	0	0	0	0	0	0	0	0	0	0	0	0	0
0	0	0	0	779	782	782	786	797	800	800	800	802	804	810	810	810	810	812	814	814	814	815	827	829	829	831	833	837	839	843	845	848	856	858	860	860	862	871	873	875	878	880	882	884	891	889	889	891	901	901	903	908	922	925	925	927	930	935	940	948	948	950	950	953	958	966	972	977	980	985	988	991	994	1000	1000	1008	1011	1017	1020	1030	1033	1039	1042	1045	1045	1048	1048	1048	1071	1074	1078	1081	1088	1088	1091	1091	1095	1098	1098	1102	1102	1105	1105	0	0	0	0	0	0	0	0	0	0	0	0	0	0	0	0	1786	1786	1795	1795	1814	1814	1814	1814	1814	1824	1833	1833	0	0	0	0	0	0	0	0	0	0	0	0	0	0	0	1843	1843	0	0	0	0	0	0	0	0	1947	1936	1936	1936	1936	0	0	0	0	0	6468	6468	6349	6468	6349	6349	6349	6349	6349	6349	6349	6349	6349	6349	6235	6235	6235	6235	6235	6235	6235	6235	6349	6349	6349	6349	6349	6235	6235	6235	6235	6235	7608	7779	7779	7608	7779	7779	7779	7959	7959	7959	7959	7959	7959	7959	8146	8146	8146	8146	8146	8146	8343	8146	8146	8146	8146	7959	7959	7959	7959	7959	7959	7959	7959	7959	7959	7959	7959	7959	8146	8146	8146	8146	8343	8343	8343	8343	8343	8343	8343	8343	8343	8343	8343	8343	8343	8343	8343	8343	8343	8550	8550	9235	9235	9235	8550	3246	3246	3246	3216	3246	3216	3216	3216	3216	3216	3186	3186	3186	3216	3186	3186	3186	3186	3186	3186	3186	3186	3186	3186	3186	3186	3186	3186	3186	3157	3186	3186	3186	3186	3186	3186	3186	3186	3186	3186	3186	3186	3186	3157	3157	3157	3157	3129	3129	3129	3129	3157	3157	3186	3186	3186	3186	3186	3186	3216	3186	3186	3216	3216	3216	3216	3216	3246	3246	3246	3246	4706	4706	4706	4706	4771	4771	4706	4706	4643	4581	4581	4581	4706	4643	4706	4706	4706	4706	0	0	0	0	0	0	0	0	0	0	0	0	4643	4643	4643	4643	4643	4643	4643	4643	4643	4643	4643	4643	4581	4581	4643	4643	4581	4581	4643	4643	4643	4643	4643	4643	4643	4643	4643	4643	4643	4706	4706	4706	4706	4706	4706	4706	4706	4643	4643	4643	4643	4643	4643	4643	4643	4706	4706	4706	4643	4643	4643	4643	4643	4581	4581	4581	4581	4643	4643	4643	4643	4643	4643	4643	4643	4581	4581	4581	4581	4521	4581	4581	4581	4581	4581	4581	4643	4643	4643	4643	4643	4643	4643	4643	4643	4643	4643	4643	4643	4643	4581	4581	4581	4581	4581	4643	4643	4643	4643	4643	4643	4643	4581	4581	4581	4581	4581	4581	4643	4643	4706	4643	4643	4643	4643	4643	4643	4643	4643	4643	4643	4643	4643	4581	4521	4521	4521	4463	4463	4463	4521	4521	4521	4521	4521	4463	4463	4463	4406	4406	4406	4406	4406	4463	4521	4581	4643	4706	4706	4706	4706	4771	4771	4838	4838	7959	7959	7959	7959	7959	7959	8146	8146	8146	8146	8146	8146	8146	8146	8343	8343	8146	8146	8146	7959	7959	7959	7959	7959	7959	8146	8146	8146	7959	7959	7959	7959	8146	8146	8146	8343	8343	8343	8343	8343	8550	8550	8343	0	8767	8767	0	0	0	0	0	0	0	0	8343	8343	8146	8146	8146	8146	8146	8146	7959	7959	7779	7779	7779	7779	0	0	0	0	6235	6235	6235	6349	6235	6235	6235	6235	6235	6235	0	0	0	0	0	0	0	0	0	0	0	0	0	0	0	0	0	0	0	0	0	0	0	0	0	0	0	0	0	0	0	0	0	0	0	0	0	0
0	0	0	0	779	782	784	784	798	800	800	800	802	806	812	812	810	814	814	814	814	815	815	827	829	829	831	833	835	839	843	845	848	854	856	858	860	860	869	873	875	880	882	887	887	891	891	891	894	901	894	905	908	915	917	920	922	930	937	937	948	948	950	950	953	958	966	974	974	977	985	988	991	997	1000	1000	1006	1011	1017	1020	1026	1033	1039	1042	1042	1045	1045	1048	1048	1068	1071	1074	1081	1085	1088	1091	1095	1095	1098	1098	1098	1095	1098	1098	0	0	0	0	0	0	0	0	0	0	0	0	0	1777	1786	1786	1786	1786	1795	1804	1804	1814	1804	1814	1814	1814	1814	1814	0	0	0	0	0	0	0	0	0	0	0	0	0	0	0	1833	1833	0	0	0	0	0	0	0	0	1936	1936	1936	1936	1936	1936	0	0	0	0	6468	6468	0	6468	6349	6349	6349	6349	6349	6235	6235	6235	6349	6349	6235	6235	6235	6235	6235	6235	6235	6235	6235	6235	6349	6349	6349	6235	6235	6235	6235	6235	6235	7608	7608	7608	7779	7779	7779	7959	7959	7959	7959	7959	7959	7959	7959	8146	8146	8146	8146	8146	8146	8146	8146	8146	8146	7959	7959	7959	7959	7779	7779	7779	7959	7959	7959	7959	8146	8146	8146	8146	8146	8343	8146	8146	8146	8343	8343	8343	8343	8343	8343	8343	8343	8343	8343	8343	8343	8343	8343	8343	8550	8550	9235	9235	8550	3246	3246	3246	3216	3246	3216	3216	3216	3216	3216	3216	3186	3186	3186	3216	3216	3186	3186	3186	3186	3186	3186	3186	3186	3186	3186	3186	3186	3186	3157	3186	3186	3186	3186	3186	3186	3186	3186	3186	3186	3186	3186	3186	3186	3157	3157	3157	3157	3157	3129	3129	3157	3157	3186	3186	3186	3186	3186	3186	3216	3186	3186	3216	3216	3216	3216	3216	3216	3216	3216	3246	3246	3246	4706	4706	4771	4706	4706	4706	4706	4643	4581	4581	4581	4643	4643	4643	0	0	0	0	0	0	0	0	0	0	0	0	0	0	4643	4643	4643	4643	4643	4643	4643	4643	4643	4643	4643	4643	4643	4581	4643	4643	4643	4581	4643	4643	4643	4643	4643	4643	4643	4581	4643	4643	4643	4706	4706	4706	4706	4706	4706	4706	4706	4643	4643	4643	4706	4643	4706	4643	4643	4706	4706	4706	4643	4643	4643	4643	4581	4581	4581	4581	4581	4581	4581	4581	4643	4581	4643	4643	4643	4581	4581	4581	4581	4581	4581	4581	4581	4581	4581	4581	4643	4643	4643	4643	4643	4643	4643	4643	4643	4643	4643	4643	4643	4643	4581	4643	4581	4643	4643	4643	4643	4643	4643	4643	4643	4581	4581	4581	4581	4581	4581	4581	4643	4643	4643	4643	4643	4643	4643	4643	4643	4643	4643	4643	4643	4643	4643	4521	4521	4521	4463	4463	4463	4463	4463	4521	4463	4463	4463	4463	4463	4463	4406	4406	4406	4406	4406	4463	4581	4581	4643	4643	4706	4706	4771	4771	4838	4838	4838	0	7959	7959	8146	8146	8146	8146	8146	8146	8146	8146	8146	8146	8146	8146	8343	8146	7959	7959	7959	7959	7959	7959	7959	7959	8146	8146	8146	8146	7959	7959	7959	8146	8146	8146	8343	8343	8343	8146	8146	8550	8550	0	0	0	0	0	0	0	0	0	0	0	0	8146	8343	8146	8146	8146	7959	8146	7959	7959	7959	7959	7959	7779	7779	0	0	0	0	6235	6235	6349	6349	6349	6349	6349	6349	6235	6235	0	0	0	0	0	0	0	0	0	0	0	0	0	0	0	0	0	0	0	0	0	0	0	0	0	0	0	0	0	0	0	0	0	0	0	0	0	0
0	0	0	0	0	782	788	798	798	800	800	800	802	802	812	812	812	814	814	814	814	815	817	827	829	829	831	833	833	839	843	848	848	852	854	856	862	862	871	875	878	880	882	884	884	889	889	889	894	894	891	908	910	915	917	920	925	930	940	942	945	948	950	950	953	958	969	972	974	977	985	988	994	997	1000	1003	1006	1008	1017	1020	1026	1036	1039	1042	1045	1048	1048	1052	1061	1064	1071	1074	1078	1081	1085	1091	1091	1095	1098	1098	1098	1095	1095	1095	0	0	0	0	0	0	0	0	0	0	0	0	0	1786	1795	1795	1795	1795	1795	1804	1804	1804	1804	1804	1804	1814	1814	1814	0	0	0	0	0	0	0	0	0	0	0	0	0	0	1833	1833	1824	1824	1824	1833	1833	0	0	0	0	1925	1925	1925	1936	1936	1936	0	0	0	0	0	0	0	6468	6468	6349	6349	6349	6349	6235	6235	6235	6235	6235	6235	6235	6235	6235	6235	6235	6235	6235	6235	6235	6349	6349	6349	6235	6235	6349	6235	6349	6349	7608	7779	7779	7779	7779	7779	7779	7779	7779	7779	7959	7959	7959	7959	7959	8146	8146	8146	8146	8146	8146	8146	8146	7959	7959	7959	7959	7959	7959	7779	7779	7959	7959	7959	7959	7959	8146	8146	8146	8146	8146	8146	8146	8146	8343	8343	8343	8343	8343	8343	8343	8343	8343	8343	8343	8343	8343	8343	8343	8550	8550	0	0	0	3246	3246	3246	3246	3246	3216	3216	3216	3216	3216	3216	3216	3216	3186	3216	3216	3186	3186	3186	3186	3186	3186	3186	3186	3186	3186	3186	3186	3186	3186	3186	3186	3186	3186	3186	3186	3186	3186	3186	3186	3186	3186	3186	3186	3157	3157	3157	3157	3157	3129	3129	3157	3157	3186	3186	3186	3186	3186	3186	3186	3186	3186	3216	3216	3216	3216	3216	3216	3216	3216	3246	3246	3246	4706	4706	4771	4771	4771	4706	4706	4643	4581	4581	4643	4643	4643	4643	0	0	0	0	0	0	0	0	0	0	0	0	0	4643	4581	4581	4643	4643	4643	4643	4643	4643	4643	4643	4643	4643	4643	4581	4643	4581	4643	4643	4643	4581	4581	4643	4643	4643	4581	4581	4581	4643	4643	4706	4706	4706	4706	4706	4706	4643	4643	4643	4643	4643	4706	4706	4706	4643	4643	4643	4643	4643	4643	4581	4581	4581	4581	4521	4521	4521	4521	4521	4581	4581	4581	4581	4581	4643	4643	4581	4581	4521	4581	4521	4581	4581	4581	4581	4581	4643	4643	4643	4643	4643	4643	4643	4643	4643	4643	4643	4643	4643	4643	4643	4643	4643	4643	4643	4643	4643	4643	4643	4643	4643	4643	4581	4581	4581	4581	4581	4581	4581	4643	4643	4643	4643	4643	4643	4643	4643	4643	4643	4643	4643	4643	4643	4581	4521	4521	4521	4463	4463	4463	4463	4463	4463	4463	4463	4463	4463	4463	4463	4406	4406	4406	4406	4406	4406	4406	4521	4643	4706	4706	4706	4706	4771	4838	4838	4838	7959	7959	7959	8146	8146	8146	8146	8146	8146	8146	8146	7959	7959	8146	8146	8146	7959	7959	7959	7959	7959	7959	7959	7959	7959	8146	8146	8146	7959	7959	7959	7959	7959	7959	7959	7959	7959	8146	8146	8146	0	0	0	0	0	0	0	0	0	0	0	0	0	0	8146	8343	8146	8146	8146	7959	7959	7959	7959	7959	7959	7959	0	0	0	0	0	0	0	0	6349	6349	6349	6349	6349	6349	6349	6349	0	0	0	0	0	0	0	0	0	0	0	0	0	0	0	0	0	0	0	0	0	0	0	0	0	0	0	0	0	0	0	0	0	0	0	0	0	0
0	0	0	0	777	784	788	797	798	800	800	800	802	802	810	812	812	814	814	815	814	815	817	827	829	829	831	833	835	843	845	848	850	852	854	856	858	865	873	878	880	882	882	882	884	884	889	889	894	898	901	908	913	915	915	920	922	927	935	940	945	948	950	950	955	963	969	972	972	977	985	991	994	997	1000	1003	1006	1008	1014	1017	1026	1036	1042	1045	1045	1052	1052	1055	1061	1064	1071	1071	1078	1081	1088	1091	1091	1095	1098	1098	1102	1095	1098	1098	0	0	0	0	0	0	0	0	0	0	0	0	1777	1786	1786	1795	1795	1795	1804	1804	1804	1804	1814	1814	1804	1795	1795	0	0	0	0	0	0	0	0	0	0	0	0	0	0	0	1833	1824	1824	1824	1824	1824	1824	0	0	0	1904	1915	1915	1915	1925	1936	1936	0	0	0	0	0	0	0	6468	6468	6349	6349	6235	6235	6235	6235	6235	6235	6235	6235	6235	6235	6349	6235	6124	6235	6124	6235	6235	6235	6349	6349	6349	6349	6349	6235	6349	6349	7608	7779	7608	7779	7779	7779	7779	7779	7779	7779	7959	7959	7959	7959	7959	8146	8146	8146	8146	8146	8146	8146	7959	7959	7959	7959	7959	7959	7779	7779	7959	7959	7959	7959	7959	8146	8146	8146	8146	8146	8343	8146	8146	8343	8343	8343	8343	8343	8343	8343	8343	8343	8343	8343	8343	8343	8343	8343	8343	8550	8550	0	0	3216	3246	3246	3216	3216	3246	3216	3216	3216	3246	3216	3216	3216	3216	3186	3186	3186	3186	3186	3186	3186	3186	3186	3186	3186	3186	3186	3186	3186	3186	3186	3186	3186	3186	3186	3186	3186	3186	3186	3186	3157	3186	3186	3186	3186	3157	3157	3157	3157	3157	3157	3129	3157	3157	3157	3157	3157	3186	3186	3186	3186	3186	3186	3216	3216	3216	3216	3216	3216	3216	3216	3216	3216	3216	3216	4771	4771	4771	4771	4771	4771	4643	4581	4581	4643	4581	4581	4581	4581	0	0	0	0	0	0	0	0	0	0	0	0	4643	4581	4643	4643	4643	4643	4643	4643	4643	4643	4643	4643	4643	4581	4581	4581	4581	4581	4581	4643	4581	4581	4581	4581	4581	4581	4581	4581	4581	4581	4643	4643	4706	4643	4706	4643	4643	4643	4643	4643	4643	4643	4643	4643	4643	4643	4643	4643	4643	4643	4581	4581	4581	4581	4521	4521	4521	4521	4521	4581	4581	4581	4581	4643	4643	4643	4643	4581	4581	4581	4521	4581	4581	4581	4581	4643	4643	4643	4643	4643	4643	4643	4643	4643	4643	4643	4643	4643	4643	4643	4643	4643	4643	4643	4643	4643	4643	4643	4643	4643	4643	4643	4581	4581	4581	4581	4581	4581	4581	4643	4643	4643	4643	4643	4643	4643	4643	4643	4643	4581	4643	4643	4643	4581	4521	4521	4521	4521	4463	4463	4463	4463	4463	4463	4463	4463	4463	4463	4463	4406	4406	4406	4406	4406	4406	4521	4521	4581	4643	4706	4706	4706	4771	4771	4838	4838	7959	7779	7959	7959	7959	7959	7959	7959	8146	8146	8146	7959	8146	8146	8146	8146	7959	7959	7959	7959	7959	7959	7959	7959	7959	8146	8146	8146	7959	7959	7959	7959	7959	7959	7779	7959	7959	8146	8146	0	0	0	0	0	0	0	0	0	0	0	0	0	0	0	0	8343	8146	8146	8146	7959	7959	7959	0	0	0	0	0	0	0	0	0	0	0	6235	6349	6349	6349	6349	6349	6349	6349	6349	0	0	0	0	0	0	0	0	0	0	0	0	0	0	0	0	0	0	0	0	0	0	0	0	0	0	0	0	0	0	0	0	0	0	0	0	0	0
0	0	0	0	777	786	788	793	797	798	798	800	802	802	806	812	812	814	814	815	815	815	817	827	829	829	831	833	837	845	848	850	850	852	854	854	856	860	860	878	878	880	882	884	887	889	889	891	894	898	905	908	913	913	915	920	927	927	935	940	945	945	948	950	958	963	969	972	972	977	985	991	994	997	1000	1003	1003	1008	1008	1020	1030	1033	1042	1045	1048	1055	1055	1058	1061	1068	1071	1071	1078	1078	1085	1095	1095	1098	1098	1098	1102	1098	1098	1098	0	0	0	0	0	0	0	0	0	1777	1777	1777	1777	1786	1786	1795	1804	1804	1804	1804	1804	1814	1814	1814	1804	1804	1804	0	0	0	0	0	0	0	0	0	0	0	0	0	0	0	1824	1824	1814	1814	1814	1814	1814	1814	1814	1814	1915	1915	1915	1915	1925	1925	1925	1925	0	0	0	0	0	0	0	6468	6349	6349	6235	6235	6235	6235	6235	6235	6235	6235	6235	6235	6235	6235	6235	6235	6235	6235	6235	6349	6349	6349	6349	6349	6349	6349	6349	6349	7608	7608	7608	7608	7608	7608	7779	7779	7779	7779	7959	7959	7959	7959	7959	7959	7959	8146	8146	7959	7959	8146	7959	7959	7959	7959	7959	8146	7959	7779	7779	7959	7959	7959	7959	8146	8146	8146	8146	8146	8343	8343	8343	8146	8146	8343	8343	8343	8343	8343	8343	8343	8343	8343	8343	8343	8343	8343	8343	8550	8550	0	3216	3246	3246	3246	3246	3246	3246	3246	3246	3246	3246	3246	3216	3216	3216	3216	3216	3186	3186	3186	3186	3186	3186	3186	3186	3186	3186	3186	3186	3186	3186	3157	3186	3186	3186	3186	3186	3186	3186	3186	3186	3186	3186	3186	3186	3157	3157	3157	3157	3157	3157	3157	3129	3157	3157	3157	3157	3157	3157	3186	3186	3186	3186	3186	3216	3216	3216	3216	3216	3246	3216	3216	3216	3216	3216	3216	4706	4706	4771	4771	4706	4771	4643	4581	4581	4581	4581	4581	4581	4581	0	0	0	0	0	0	0	0	0	0	0	0	0	4581	4643	4643	4643	4643	4643	4643	4643	4643	4643	4643	4643	4581	4581	4581	4581	4581	4581	4643	4581	4581	4581	4581	4581	4581	4581	4581	4581	4581	4643	4643	4706	4706	4706	4643	4643	4643	4643	4643	4643	4643	4643	4643	4643	4643	4643	4643	4643	4581	4581	4581	4581	4581	4521	4521	4521	4521	4521	4581	4581	4581	4581	4643	4643	4643	4643	4581	4521	4521	4521	4521	4581	4581	4643	4643	4643	4643	4643	4643	4643	4643	4643	4643	4643	4643	4643	4643	4643	4643	4643	4643	4643	4643	4643	4643	4643	4643	4643	4643	4643	4643	4581	4581	4581	4581	4581	4581	4581	4643	4643	4643	4643	4643	4643	4643	4643	4643	4581	4581	4581	4643	4581	4581	4521	4521	4521	4521	4463	4463	4463	4463	4463	4463	4463	4463	4463	4463	4463	4463	4463	4406	4406	4463	4463	4521	4521	4581	4643	4643	4706	4706	4771	4771	4771	7959	7959	7779	7959	7959	7959	7959	8146	8146	8146	8146	8146	7959	8146	8146	8146	8146	7959	7959	7959	7959	7959	7959	7959	7959	7959	8146	8146	8146	7959	7959	7959	8146	8146	7959	7959	7959	7959	0	0	0	0	0	0	0	0	0	0	0	0	0	0	0	0	0	0	0	0	0	0	0	0	0	0	0	0	0	0	0	0	0	0	0	0	6349	6235	6349	6349	6349	6349	6349	6349	6349	0	0	0	0	0	0	0	0	0	0	0	0	0	0	0	0	0	0	0	0	0	0	0	0	0	0	0	0	0	0	0	0	0	0	0	0	0	0
0	0	0	0	0	786	788	789	791	798	798	800	802	802	806	810	812	812	814	815	815	815	819	825	827	829	831	831	835	845	848	848	850	854	854	854	858	862	871	875	878	880	882	882	884	889	889	891	894	898	905	908	910	913	920	922	927	927	932	937	945	945	950	950	958	961	969	974	974	977	985	991	994	1000	1000	1003	1006	1008	1008	1017	1033	1033	1039	1045	1052	1055	1058	1061	1061	1068	1068	1071	1074	1085	1091	1095	1095	1098	1098	1098	1105	1102	1105	1105	1105	0	0	0	0	0	0	0	0	1777	1777	1777	1786	1786	1795	1804	1804	1804	1804	1804	1804	1814	1804	1804	1804	1795	1795	1786	1786	0	0	0	0	0	0	0	0	0	0	0	1814	1814	1814	1814	1814	1814	1814	1814	1814	1814	1814	1824	1904	1904	1915	1915	1925	1915	1915	1925	1925	0	0	0	0	0	0	6468	6349	6349	6235	6235	6235	6124	6124	6124	6235	6235	6349	6349	6349	6349	6235	6349	6235	6349	6349	6349	6349	6349	6349	6349	6349	6235	6235	6235	7608	7608	7608	7608	7608	7608	7608	7779	7779	7779	7779	7959	7779	7959	7779	7959	7959	7959	7959	7959	7959	7959	7959	7959	7959	7959	7959	8146	7959	7959	7959	7959	7959	7959	7959	8146	8146	8146	8146	8146	8343	8343	8146	8146	8343	8343	8343	8343	8343	8343	8343	8343	8343	8343	8343	8343	8343	8343	8343	8550	8550	0	3216	3246	3246	3246	3246	3246	3246	3246	3246	3246	3246	3246	3216	3216	3216	3186	3186	3186	3186	3186	3186	3186	3186	3186	3186	3186	3186	3186	3186	3186	3186	3157	3186	3186	3186	3186	3186	3186	3186	3186	3186	3186	3186	3157	3186	3157	3157	3157	3157	3157	3157	3157	3129	3157	3157	3157	3157	3157	3157	3186	3186	3186	3186	3186	3186	3216	3216	3216	3216	3246	3246	3246	3246	3246	3246	3246	3246	4771	4771	4771	4771	4771	4643	4643	4581	4581	4581	4581	4581	0	0	0	0	0	0	0	0	0	0	0	0	0	0	4581	4643	4643	4643	4643	4643	4643	4643	4643	4643	4643	4643	4581	4581	4581	4581	4643	4643	4643	4581	4581	4643	4581	4581	4581	4581	4581	4581	4581	4643	4643	4706	4706	4706	4706	4643	4643	4643	4643	4643	4643	4643	4643	4643	4643	4643	4581	4581	4581	4581	4581	4581	4521	4521	4581	4521	4521	4521	4521	4521	4581	4581	4643	4643	4643	4581	4581	4521	4521	4521	4521	4581	4581	4643	4643	4643	4643	4643	4643	4643	4643	4643	4643	4643	4643	4643	4643	4643	4643	4643	4643	4643	4643	4643	4643	4643	4643	4643	4581	4581	4581	4581	4581	4581	4581	4581	4581	4581	4643	4643	4643	4643	4643	4643	4643	4643	4643	4581	4581	4581	4643	4581	4581	4521	4521	4521	4521	4463	4463	4463	4463	4463	4463	4463	4463	4463	4521	4463	4463	4463	4463	4463	4463	4463	4521	4521	4581	4643	4643	4706	4706	4706	4706	8146	7959	7959	7779	7779	7959	7959	7959	7959	8146	8146	8146	8146	8146	8146	8146	8146	8146	7959	7959	7959	7959	7959	7779	7959	7959	7959	7959	8146	8146	8146	8146	8146	8146	8146	7959	7959	7959	0	0	0	0	0	0	0	0	0	0	0	0	0	0	0	0	0	0	0	0	0	0	0	0	0	0	0	0	0	0	0	0	0	0	0	0	6124	6124	6235	6235	6349	6235	6235	6349	6349	6349	0	0	0	0	0	0	0	0	0	0	0	0	0	0	0	0	0	0	0	0	0	0	0	0	0	0	0	0	0	0	0	0	0	0	0	0	0	0
0	0	0	0	0	0	789	788	791	797	798	800	802	802	806	812	812	812	814	815	815	817	819	823	825	827	827	831	839	839	848	850	854	854	856	856	860	862	869	873	875	880	882	882	884	889	889	891	894	898	905	908	910	913	920	922	927	927	932	937	945	948	950	953	958	961	969	972	974	977	985	988	994	997	1003	1006	1006	1008	1011	1017	1023	1026	1033	1042	1048	1055	1058	1061	1061	1064	1068	1068	1071	1078	1091	1095	1088	1098	1098	1102	1102	1105	1105	1105	1105	0	0	0	0	0	0	0	1777	1777	1777	1777	1777	1786	1786	1795	1804	1804	1804	1804	1804	1814	1804	1804	1795	1795	1795	1786	1786	0	0	0	0	0	0	0	0	0	0	0	1814	1814	1814	1814	1804	1804	1814	1804	1814	1814	1824	1824	1853	1915	1915	1915	1925	1925	1925	1925	1925	0	0	0	1980	1992	1992	1992	6235	6235	6235	6235	6124	6124	6124	6124	6124	6235	6235	6235	6349	6235	6235	6235	6235	6349	6349	6349	6349	6349	6349	6349	6349	6349	6235	6235	7608	7608	7608	7608	7608	7608	7608	7779	7608	7608	7779	7779	7779	7779	7779	7959	7959	7959	7959	7959	7959	7959	7959	7959	7959	7959	7959	8146	7959	7779	7779	7779	7959	7959	7959	7959	7959	7959	8146	8146	8343	8146	8146	8146	8343	8343	8343	8343	8343	8343	8343	8343	8343	8343	8343	8343	8343	8343	8343	8550	8550	0	3216	3246	3277	3246	3246	3277	3246	3246	3246	3246	3246	3246	3216	3216	3216	3216	3186	3186	3186	3186	3186	3186	3186	3186	3186	3186	3186	3186	3186	3186	3186	3186	3186	3186	3186	3186	3186	3186	3186	3186	3186	3186	3157	3157	3157	3157	3157	3157	3157	3157	3157	3157	3129	3157	3157	3157	3157	3157	3186	3186	3186	3186	3186	3186	3216	3216	3216	3216	3216	3216	3246	3216	3216	3216	3216	3216	3216	4771	4771	4771	4771	4771	4771	4643	4581	4581	4581	0	0	0	0	0	0	0	0	0	0	0	0	0	0	0	0	0	4643	4643	4643	4643	4643	4643	4643	4643	4643	4643	4643	4581	4581	4581	4581	4643	4643	4643	4581	4643	4581	4581	4581	4581	4581	4581	4581	4643	4643	4771	4771	4771	4771	4706	4643	4643	4643	4643	4643	4643	4643	4643	4643	4643	4581	4581	4581	4581	4581	4581	4581	4581	4581	4581	4521	4521	4521	4521	4521	4521	4521	4581	4581	4581	4521	4521	4463	4521	4521	4463	4521	4581	4643	4643	4643	4643	4643	4643	4643	4643	4643	4643	4643	4643	4643	4643	4643	4643	4643	4643	4643	4643	4643	4643	4643	4643	4643	4581	4581	4581	4581	4581	4581	4581	4581	4581	4581	4643	4643	4643	4643	4643	4643	4643	4643	4643	4581	4581	4581	4581	4581	4581	4581	4521	4521	4521	4463	4463	4463	4463	4463	4463	4463	4463	4463	4463	4463	4463	4463	4406	4406	4463	4463	4521	4521	4643	4643	4643	4706	4643	4643	4706	4706	7959	7959	7779	7959	7959	7959	7959	8146	8146	8146	8146	8146	8146	7959	8146	8146	7959	7959	7779	7959	7959	7959	7779	7779	7959	7959	7959	8146	8146	8146	8146	8146	8146	8146	7959	7959	0	0	0	0	0	0	0	0	0	0	0	0	0	0	0	0	0	0	0	0	0	0	0	0	0	0	0	0	0	0	0	0	0	0	0	0	0	6124	6124	6235	6349	6349	6349	6349	6349	6349	6349	0	0	0	0	0	0	0	0	0	0	0	0	0	0	0	0	0	0	0	0	0	0	0	0	0	0	0	0	0	0	0	0	0	0	0	0	0	0
0	0	0	0	0	0	789	788	789	791	793	798	800	800	804	808	810	812	814	815	815	817	821	821	827	827	833	833	837	843	848	848	854	856	858	858	860	862	867	871	873	878	882	884	887	889	891	891	894	898	905	908	915	917	920	922	922	927	927	937	942	945	950	953	955	961	966	969	972	974	983	988	991	994	997	1006	1008	1008	1011	1017	1020	1023	1026	1045	1052	1055	1058	1061	1061	1064	1068	1071	1074	1081	1085	1088	1088	1095	1098	1098	1102	1102	1102	1105	0	0	0	0	0	0	0	0	1768	1777	1777	1777	1777	1777	1786	1795	1795	1804	1804	1804	1804	1804	1795	1795	1795	1777	1777	1786	1777	1786	1795	1804	1804	0	0	0	0	0	0	0	1814	1814	1804	1804	1804	1804	1814	1804	1804	1814	1824	1843	1853	1853	1904	1894	1904	1904	1904	1915	1915	1915	1947	1947	1980	1980	1980	1969	1969	6235	6235	6235	6124	6124	6124	6124	6124	6235	6235	6235	6349	6235	6235	6235	6235	6349	6349	6349	6349	6349	6349	6349	6349	6349	6349	6349	7608	7608	7608	7608	7608	7608	7608	7608	7608	7608	7608	7779	7779	7779	7608	7959	7779	7959	7959	7959	7779	7959	7959	7959	7959	8146	7959	7959	7959	7779	7779	7959	7959	7959	7959	7959	7959	7959	7959	7959	8146	8146	8146	8146	8146	8343	8146	8343	8343	8343	8343	8343	8343	8343	8343	8343	8343	8343	8343	8343	8343	0	3277	3277	3277	3246	3246	3246	3246	3246	3246	3246	3246	3246	3216	3216	3216	3186	3216	3186	3186	3186	3186	3186	3186	3186	3186	3186	3186	3186	3186	3186	3186	3186	3186	3186	3186	3186	3186	3186	3186	3186	3186	3186	3186	3157	3157	3157	3157	3157	3157	3157	3157	3157	3157	3157	3157	3157	3157	3157	3186	3186	3186	3186	3186	3186	3186	3216	3216	3216	3216	3216	3216	3216	3216	3216	3216	3186	3186	4771	4771	4771	4771	4771	4771	0	0	0	0	0	0	0	0	0	0	0	0	0	0	0	0	0	0	0	0	0	4581	4643	4643	4643	4643	4643	4643	4643	4643	4643	4643	4581	4581	4581	4643	4643	4643	4643	4581	4581	4581	4581	4581	4581	4581	4581	4581	4643	4771	4771	4771	4771	4706	4643	4643	4581	4581	4581	4581	4581	4581	4643	4581	4581	4581	4581	4581	4581	4521	4521	4581	4521	4581	4581	4521	4521	4521	4521	4521	4521	4521	4581	4581	4581	4521	4521	4463	4463	4463	4463	4521	4581	4581	4581	4643	4643	4643	4643	4643	4643	4643	4643	4643	4643	4643	4643	4581	4643	4643	4643	4643	4643	4643	4643	4643	4643	4643	4581	4581	4581	4581	4581	4581	4581	4581	4581	4581	4643	4643	4643	4643	4643	4643	4643	4643	4643	4581	4581	4581	4581	4581	4521	4521	4521	4521	4521	4463	4463	4463	4463	4463	4463	4463	4463	4463	4521	4463	4463	4463	4406	4406	4463	4463	4521	4521	4581	4643	4706	4706	4643	4643	4643	7959	7959	7959	7779	7959	7959	7959	7959	8146	8146	8146	8146	8146	7959	7959	8146	8146	7959	7959	7959	7959	7959	7779	7779	7779	7779	7959	0	0	0	0	8146	8146	8146	8146	7959	7959	0	0	0	0	0	0	0	0	0	0	0	0	0	0	0	0	0	0	0	0	0	0	0	0	0	0	0	0	0	0	0	0	0	0	0	0	0	6124	6235	6235	6349	6349	6349	6235	6349	6349	6349	6349	0	0	0	0	0	0	0	0	0	0	0	0	0	0	0	0	0	0	0	0	0	0	0	0	0	0	0	0	0	0	0	0	0	0	0	0	0
0	0	0	0	0	0	789	791	789	791	793	793	791	793	808	808	810	810	814	815	817	817	821	825	827	829	831	831	837	843	850	850	852	854	858	860	862	862	867	871	873	875	882	884	887	889	894	894	896	901	903	910	913	917	920	922	922	930	927	937	945	948	950	953	958	961	966	969	972	974	980	985	991	997	997	1003	1008	1011	1014	1017	1020	1020	1023	1052	1052	1055	1055	1055	1058	1061	1068	1071	1074	1081	1085	1095	1095	1098	1102	1098	1102	1102	1102	0	0	0	0	0	0	0	0	0	1768	1777	1777	1777	1777	1777	1777	1795	1795	1804	1804	1804	1804	1804	1795	1804	1777	1777	1777	1786	1777	1786	1795	1804	1804	0	0	0	0	0	0	0	1814	1814	1804	1804	1804	1804	1804	1804	1804	1814	1824	1843	1853	1853	1853	1894	1894	1894	1904	1904	1915	1915	1947	1947	1947	1969	1969	1958	1969	1969	0	0	0	6124	6124	6124	6124	6235	6235	6235	6235	6235	6235	6235	6235	6349	6349	6349	6349	6349	6349	6349	6349	6349	6349	6349	0	7608	7608	7608	7608	7608	7608	7608	7608	7608	7608	7608	7608	7779	7608	7779	7779	7779	7779	7959	7959	7959	7959	7959	8146	8146	8146	8146	7959	7959	7959	7959	7959	7959	7959	7959	7959	7959	7959	7959	8146	8146	8146	8146	8343	8343	8146	8343	8343	8343	8343	8343	8343	8343	8343	8343	8146	8343	8146	8146	8343	0	3309	3277	3277	3277	3246	3246	3277	3246	3246	3246	3246	3246	3216	3216	3216	3186	3186	3186	3186	3186	3186	3186	3186	3216	3186	3186	3186	3186	3186	3186	3186	3186	3186	3186	3186	3186	3186	3186	3186	3186	3186	3186	3186	3157	3157	3157	3157	3157	3157	3157	3157	3157	3157	3157	3157	3157	3186	3186	3186	3186	3186	3186	3186	3186	3186	3216	3216	3216	3216	3216	3246	3216	3216	3216	3216	3216	3216	0	0	0	0	0	0	0	0	0	0	0	0	0	0	0	0	0	0	0	0	0	0	0	0	0	0	0	4643	4643	4643	4643	4643	4643	4643	4643	4643	4643	4643	4643	4581	4643	4643	4643	4643	4643	4643	4643	4643	4581	4581	4581	4581	4581	4643	4706	4838	4838	4838	4771	4771	4706	4643	4581	4581	4581	4581	4581	4581	4581	4581	4581	4581	4581	4581	4581	4521	4521	4521	4521	4521	4521	4463	4463	4463	4521	4521	4521	4521	4581	4581	4581	4521	4521	4463	4463	4463	4463	4521	4581	4581	4643	4643	4643	4643	4643	4643	4643	4581	4643	4643	4643	4581	4581	4581	4643	4643	4643	4643	4643	4643	4643	4643	4643	4643	4581	4581	4581	4581	4581	4581	4581	4581	4581	4581	4581	4643	4643	4643	4643	4643	4643	4643	4581	4521	4521	4521	4521	4521	4521	4521	4521	4521	4521	4521	4463	4463	4463	4463	4463	4463	4463	4521	4521	4521	4463	4463	4463	4463	4463	4463	4521	4581	4643	4643	4643	4706	4643	4581	4581	7959	7959	7959	7779	7779	7779	7959	7959	7959	8146	8146	8146	8146	8146	7959	7959	7959	7959	7959	7959	7959	7959	7959	7779	7779	7779	0	0	0	0	0	0	0	0	0	0	0	0	0	0	0	0	0	0	7137	7137	0	0	0	0	0	0	0	0	0	0	0	0	0	0	0	0	0	0	0	0	0	0	0	0	0	0	0	0	6124	6235	6349	6349	6349	6349	6235	6349	6235	6349	6349	0	0	0	0	0	0	0	0	0	0	0	0	0	0	0	0	0	0	0	0	0	0	0	0	0	0	0	0	0	0	0	0	0	0	0	0	0
0	0	0	0	0	0	789	789	789	789	789	791	793	806	808	810	810	812	814	814	817	817	819	823	829	829	833	833	837	841	850	852	854	856	856	858	858	862	862	871	873	875	880	884	887	891	894	896	898	901	905	910	913	915	920	922	927	932	935	940	942	945	948	953	958	963	966	969	974	977	983	985	991	997	1000	1006	1008	1011	1014	1017	1017	1020	1023	1042	1052	1052	1055	1058	1058	1064	1068	1071	1074	1081	1085	1095	1098	1102	1102	1102	1102	1102	0	0	0	0	0	0	0	0	0	1777	1777	1777	1777	1777	1777	1777	1777	1786	1786	1795	1795	1804	1804	1814	1804	1804	1777	1777	1786	1786	1786	1786	1786	1795	1795	0	0	0	0	0	0	0	1814	1804	1804	1804	1814	1814	1814	1814	1814	1824	1843	1843	1853	1863	1863	1894	1894	1904	1894	1904	1904	1904	1936	1936	1947	1958	1947	1947	1958	1947	1936	1936	0	0	6124	6124	6124	6124	6124	6235	6235	6235	6235	6235	6235	6349	6349	6349	6349	6349	6349	6349	6235	6349	6349	0	0	0	7608	7608	7608	7608	7608	7608	7608	7608	7608	7608	7608	7779	7608	7608	7608	7608	7779	7959	7959	7959	8146	8146	8146	8146	7959	7959	7959	7959	7959	7959	7959	7959	7959	7959	7959	7959	7959	7959	8146	8146	8146	8146	8146	8343	8146	8146	8146	8343	8343	8343	8343	8343	8343	8146	8146	8146	8146	8146	0	0	3277	3277	3277	3277	3246	3246	3246	3246	3246	3246	3216	3246	3216	3216	3216	3186	3186	3186	3186	3186	3186	3186	3186	3186	3186	3186	3186	3186	3186	3186	3186	3186	3186	3186	3186	3186	3186	3186	3186	3186	3186	3186	3186	3157	3157	3157	3157	3157	3157	3157	3157	3157	3157	3186	3186	3186	3186	3186	3186	3186	3216	3186	3186	3186	3186	3216	3216	3216	3216	3246	3246	3246	3246	3216	3216	3216	3216	0	0	0	0	0	0	0	0	0	0	0	0	0	0	0	0	0	0	0	0	0	0	0	0	0	0	0	4643	4643	4643	4643	4643	4643	4643	4643	4643	4643	4643	4643	4581	4581	4643	4643	4643	4706	4643	4643	4643	4581	4581	4581	4581	4643	4643	4771	4838	4771	4771	4771	4706	4643	4643	4643	4581	4643	4643	4581	4581	4581	4581	4581	4581	4581	4581	4581	4521	4521	4521	4521	4521	4521	4463	4463	4463	4521	4521	4521	4521	4521	4521	4581	4521	4521	4521	4521	4521	4521	4581	4581	4581	4643	4643	4643	4643	4643	4643	4643	4643	4643	4643	4643	4643	4581	4581	4643	4643	4643	4581	4581	4643	4643	4643	4643	4643	4581	4581	4581	4581	4521	4521	4521	4581	4581	4581	4581	4643	4643	4643	4581	4581	4581	4581	4581	4521	4521	4521	4521	4521	4463	4521	4521	4521	4463	4463	4463	4463	4463	4463	4463	4463	4521	4521	4521	4521	4463	4463	4463	4406	4406	4463	4521	4581	4643	4706	4706	4706	4706	4643	4643	7959	7779	7779	7779	7779	7779	7779	7779	7959	7959	7959	7959	7959	7959	7959	7959	7959	7959	7959	7959	7959	7959	7959	7608	7608	0	0	0	0	0	0	0	0	0	0	0	0	0	0	0	0	0	7137	7137	7137	7137	6720	6720	0	0	0	0	0	0	0	0	0	0	0	0	0	0	0	0	0	0	0	0	0	0	0	0	0	0	6235	6235	6349	6349	6349	6349	6349	6349	6235	6235	6349	6349	0	0	0	0	0	0	0	0	0	0	0	0	0	0	0	0	0	0	0	0	0	0	0	0	0	0	0	0	0	0	0	0	0	0	0	0
0	0	0	0	0	791	789	788	789	789	791	791	789	808	808	810	810	812	814	814	815	817	819	821	823	829	833	833	835	837	839	839	852	856	858	860	860	862	862	865	871	873	875	884	887	891	894	896	898	901	908	910	915	917	920	922	930	930	935	940	945	948	948	953	955	958	963	972	977	977	983	985	988	991	994	1006	1006	1014	1017	1020	1023	1023	1023	1045	1045	1048	1055	1058	1058	1064	1068	1071	1074	1081	1085	1088	1098	1102	1102	1102	1102	1102	0	0	0	0	0	0	0	0	1777	1777	1777	1777	1777	1777	1777	1777	1777	1786	1786	1795	1786	1804	1804	1814	1804	1804	1795	1777	1786	1786	1786	1786	1786	1786	1795	0	0	0	0	0	0	0	1814	1804	1804	1804	1814	1824	1814	1814	1824	1833	1833	1843	1853	1853	1863	1894	1894	1894	1894	1904	1904	1904	1904	1915	1925	1947	1947	1947	1947	1936	1925	1925	1925	0	0	0	6124	6124	6124	6235	6235	6235	6235	6235	6235	6235	6235	6235	6235	6349	6349	6349	6235	6349	6349	0	0	0	0	0	0	7608	7608	7608	0	0	0	0	0	0	7608	7608	7779	7779	7779	7959	7959	8146	8146	8146	8146	8146	7959	7959	7959	7959	7959	7959	7959	7959	7959	7959	7959	7959	7959	7959	8146	8343	8146	8146	8343	8343	8146	8146	8146	8343	8343	8343	8343	8343	8146	8146	8146	8146	8146	8146	0	0	3277	3277	3277	3277	3246	3246	3246	3246	3246	3246	3216	3246	3216	3216	3216	3216	3216	3186	3186	3186	3186	3186	3186	3186	3186	3186	3186	3186	3186	3186	3186	3186	3186	3186	3186	3186	3186	3186	3186	3186	3186	3186	3157	3157	3157	3157	3157	3157	3157	3157	3157	3157	3157	3186	3186	3186	3186	3186	3186	3216	3216	3216	3216	3216	3216	3216	3216	3216	3216	3246	3246	3246	3246	3246	3246	3246	3246	0	0	0	0	0	0	0	0	0	0	0	0	0	0	0	0	0	0	0	0	0	0	0	0	0	0	0	0	4643	4643	4643	4643	4643	4643	4643	4643	4643	4643	4643	4643	4643	4643	4706	4643	4706	4643	4706	4643	4643	4643	4643	4581	4581	4581	4771	4771	4771	4771	4771	4706	4643	4643	4643	4581	4643	4643	4581	4581	4581	4581	4581	4581	4581	4521	4581	4521	4521	4521	4521	4521	4521	4521	4521	4521	4521	4521	4521	4521	4521	4521	4521	4521	4521	4521	4521	4521	4521	4521	4581	4581	4581	4581	4643	4643	4643	4643	4643	4643	4643	4643	4643	4643	4643	4643	4643	4643	4643	4643	4581	4643	4643	4643	4643	4643	4643	4643	4581	4581	4581	4521	4521	4581	4521	4521	4521	4581	4581	4581	4521	4521	4581	4581	4521	4521	4521	4521	4521	4521	4463	4521	4521	4463	4463	4463	4463	4463	4463	4463	4463	4463	4521	4521	4521	4463	4463	4463	4406	4406	4463	4463	4581	4581	4643	4706	4706	4706	4706	4706	4706	7959	7959	7959	7779	7779	7779	7779	7779	7779	7959	7959	7959	7959	7959	7959	7959	7959	7959	7959	7959	7959	7959	7779	7779	7608	0	0	0	0	0	0	0	0	0	0	0	0	0	0	0	0	6992	6992	7137	7137	6992	6720	6853	6853	0	0	0	0	0	0	0	0	0	0	0	0	0	0	0	0	0	0	0	0	0	0	0	0	0	6124	6235	6349	6349	6468	6349	6349	6349	6235	6349	6235	6235	0	0	0	0	0	0	0	0	0	0	0	0	0	0	0	0	0	0	0	0	0	0	0	0	0	0	0	0	0	0	0	0	0	0	0	0
0	0	0	0	775	780	784	786	789	789	791	791	791	806	808	808	810	812	812	814	817	819	821	825	825	829	833	833	835	837	839	845	850	856	860	860	860	862	862	871	871	873	875	887	887	891	894	898	901	903	908	910	913	917	922	927	932	932	935	940	945	948	950	953	955	961	966	972	977	980	983	983	985	991	994	1006	1014	1014	1017	1020	1023	1026	1030	1039	1042	1045	1052	1055	1055	1061	1068	1074	1078	1081	1085	1088	1088	1098	1098	1102	1102	1102	0	0	0	0	0	0	1768	1768	1777	1777	1777	1777	1777	1777	1777	1777	1777	1768	1768	1768	1786	1786	1795	1814	1804	1804	1804	1795	1786	1777	1777	1777	1777	1777	0	0	0	0	0	0	0	0	0	1814	1814	1814	1824	1824	1824	1814	1824	1833	1843	1853	1853	1863	1863	1883	1883	1894	1894	1904	1904	1904	1904	1904	1915	1925	1936	1936	1936	1936	1925	1936	1925	1925	0	0	6124	6124	6124	6124	6235	6235	6235	6235	6235	6235	6235	6235	6235	6235	6349	6349	6235	6235	6349	0	0	0	0	0	0	0	0	0	0	0	0	0	0	0	0	7608	7779	7779	7779	7959	7959	7959	8146	8146	8146	8146	7959	7959	7959	7959	7959	7959	8146	7959	7959	7959	7959	7959	7959	7959	8146	8146	8146	8146	8146	8343	8146	8146	8146	8146	8343	8343	8343	8343	8343	8146	8343	8146	8146	8146	0	0	0	3277	3277	3277	3246	3246	3246	3246	3246	3246	3246	3216	3216	3216	3216	3216	3186	3186	3216	3186	3186	3186	3216	3186	3186	3186	3216	3186	3186	3186	3186	3186	3186	3186	3186	3186	3186	3186	3186	3186	3186	3186	3186	3186	3157	3157	3157	3157	3157	3157	3157	3157	3157	3157	3186	3186	3186	3186	3186	3216	3216	3216	3216	3216	3216	3216	3216	3216	3246	3246	3246	3277	3246	3246	3246	3246	3246	0	0	0	0	0	0	0	0	0	0	0	0	0	0	0	0	0	0	0	0	0	0	0	0	0	0	0	0	4643	4643	4643	4643	4643	4643	4643	4643	4643	4643	4643	4643	4643	4643	4643	4643	4643	4643	4643	4643	4643	4643	4581	4581	4581	4581	4771	4771	4771	4706	4706	4643	4643	4643	4581	4581	4643	4643	4643	4643	4581	4643	4581	4581	4581	4521	4581	4521	4521	4521	4521	4463	4463	4463	4463	4463	4463	4463	4521	4463	4521	4521	4521	4521	4521	4463	4463	4521	4521	4521	4521	4581	4581	4581	4643	4643	4643	4643	4643	4643	4643	4643	4643	4581	4581	4581	4643	4643	4643	4581	4581	4581	4581	4643	4643	4643	4643	4643	4643	4581	4581	4521	4521	4521	4463	4406	4463	4521	4521	4521	4521	4521	4521	4521	4521	4521	4521	4521	4521	4521	4463	4521	4463	4463	4463	4463	4463	4463	4463	4463	4463	4463	4521	4521	4521	4463	4463	4463	4406	4406	4406	4463	4521	4581	4643	4706	4706	4706	4706	4706	4706	8146	7959	7959	7959	7779	7779	7779	7779	7959	7779	7959	7959	7959	7959	7959	7959	7959	7959	7959	7959	7959	7779	7779	7608	7608	0	0	0	0	0	0	0	0	0	0	0	0	0	0	0	0	6992	6992	6992	7137	7137	6853	6992	6992	6992	6992	0	0	0	0	0	0	0	0	0	0	0	0	0	0	0	0	0	0	0	0	0	0	0	6124	6349	6349	6349	6468	6349	6349	6349	6235	6235	6235	6235	6235	0	0	0	0	0	0	0	0	0	0	0	0	0	0	0	0	0	0	0	0	0	0	0	0	0	0	0	0	0	0	0	0	0	0	0
0	0	0	0	773	779	782	786	789	791	791	793	793	806	808	808	810	812	812	814	817	819	821	825	829	829	833	835	837	839	841	845	848	854	858	858	860	862	865	871	873	873	880	887	889	891	894	898	901	903	903	910	913	917	922	927	932	932	935	940	945	945	948	953	958	963	963	972	974	977	983	985	985	988	994	1003	1014	1014	1017	1023	1026	1030	1033	1039	1042	1045	1048	1055	1055	1058	1068	1078	1078	1085	1085	1088	1091	1091	1095	1098	1098	1098	1098	0	0	0	0	1768	1768	1768	1777	1777	1768	1777	1777	1777	1777	1768	1768	1768	1768	1768	1777	1786	1795	1814	1804	1804	1804	1795	1777	1777	1768	1759	1759	1759	0	0	0	0	0	0	0	0	0	1814	1814	1824	1824	1833	1824	1824	1833	1833	1843	1843	1863	1863	1863	1883	1883	1894	1894	1904	1904	1904	1915	1904	1904	1915	1925	1925	1904	1925	1915	1925	1925	1925	1925	0	0	6124	6124	6124	6235	6235	6235	6235	6235	6235	6235	6235	6235	6235	6235	6235	6124	6235	6235	0	0	0	0	0	0	0	0	0	0	0	0	0	0	0	0	0	0	7779	7779	7959	8146	8146	8146	8146	7959	8146	7959	7959	7959	7959	7959	7959	8146	7959	7959	7959	7959	7959	7959	8146	8343	8343	8146	8146	8146	8343	8146	8146	8146	8146	8146	8343	8146	8343	8343	8146	8343	8343	8146	8146	0	0	0	0	3277	3277	3246	3246	3246	3246	3246	3246	3246	3246	3216	3246	3246	3216	3216	3216	3216	3186	3216	3186	3186	3186	3186	3186	3216	3186	3216	3186	3186	3186	3186	3186	3186	3186	3186	3186	3186	3186	3186	3186	3186	3186	3186	3186	3157	3157	3157	3157	3157	3157	3157	3186	3186	3186	3186	3186	3216	3216	3216	3216	3216	3216	3216	3216	3246	3246	3246	3246	3246	3246	3246	3246	3246	3246	3246	0	0	0	0	0	0	0	0	0	0	0	0	0	0	0	0	0	0	0	0	0	0	0	0	0	0	0	0	4706	4706	4643	4643	4643	4643	4643	4643	4643	4643	4643	4706	4643	4643	4643	4643	4643	4643	4643	4643	4581	4581	4581	4581	4581	0	0	0	0	4643	4643	4643	4581	4643	4581	4581	4581	4643	4643	4643	4643	4643	4581	4581	4581	4521	4521	4521	4521	4521	4521	4521	4521	4463	4521	4463	4463	4463	4463	4463	4463	4521	4521	4521	4521	4463	4521	4521	4521	4521	4521	4521	4581	4581	4581	4643	4643	4643	4643	4581	4643	4643	4581	4581	4581	4581	4643	4581	4643	4581	4581	4581	4581	4581	4581	4643	4643	4643	4581	4581	4581	4521	4521	4521	4463	4406	4463	4463	4463	4463	4463	4463	4463	4463	4463	4463	4463	4463	4463	4463	4463	4463	4463	4463	4463	4463	4463	4463	4463	4463	4463	4463	4521	4521	4463	4463	4463	4406	4406	4406	4406	4406	4521	4581	4643	4706	4706	4706	4706	4706	4771	4706	4706	8146	7959	7959	7779	7779	7779	7959	7779	7779	7959	7959	7959	7959	7959	7959	7959	7959	7779	7779	7779	7779	7779	7779	0	0	0	0	0	0	0	0	0	0	0	0	0	0	0	0	6992	6992	6992	6992	7137	7137	6992	6992	7137	7137	7137	7137	7137	7137	0	0	0	0	0	0	0	0	0	0	0	0	0	0	0	0	0	0	0	0	6349	6468	6468	6468	6349	6349	6349	6349	6235	6235	6235	6235	0	0	0	0	0	0	0	0	0	0	0	0	0	0	0	0	0	0	0	0	0	0	0	0	0	0	0	0	0	0	0	0	0	0	0
0	0	0	0	773	777	782	786	791	791	791	793	793	795	806	808	810	812	814	815	817	819	821	825	829	833	833	837	837	839	841	845	848	852	856	858	860	862	865	869	871	873	887	889	889	891	894	898	901	903	903	908	910	920	925	930	930	932	935	937	937	942	942	955	958	966	969	972	974	974	980	980	988	991	997	1003	1014	1017	1017	1023	1023	1030	1033	1039	1042	1045	1052	1055	1055	1058	1068	1078	1078	1085	1088	1088	1091	1091	1095	1098	1098	1098	1098	0	0	0	0	1768	1768	1768	1768	1768	1768	1768	1768	1768	1768	1768	1768	1768	1768	1768	1777	1777	1786	1804	1814	1814	1804	1795	1777	1777	1768	1750	1750	1750	0	0	0	0	0	0	0	0	0	0	1833	1833	1843	1843	1833	1843	1843	1843	1853	1853	1873	1873	1863	1873	1873	1894	1904	1904	1904	1904	1915	1904	1904	1904	1915	1915	1904	1915	1915	1925	1925	1925	1925	1925	0	0	6124	6124	6235	6349	6349	6349	6235	6235	6349	6235	6235	6235	6235	6235	6235	6349	6349	0	0	0	0	0	0	0	0	0	0	0	0	0	0	0	0	0	0	7779	7779	7779	8146	8146	8146	8146	8146	7959	7959	7959	7959	7959	7959	8146	8146	8146	8146	8146	7959	7959	7959	8146	8343	8343	8146	8146	8146	8343	8146	8146	8146	8146	8146	8343	8343	8343	8343	8343	8343	8343	8343	8343	0	0	0	0	0	3277	3277	3277	3277	3277	3277	3277	3246	3277	3246	3246	3246	3216	3216	3216	3216	3186	3216	3186	3186	3186	3186	3186	3216	3216	3216	3216	3216	3216	3216	3186	3186	3186	3186	3186	3186	3186	3186	3186	3186	3186	3186	3186	3186	3186	3186	3186	3186	3186	3186	3186	3186	3186	3186	3186	3186	3186	3216	3216	3216	3216	3216	3216	3246	3246	3246	3246	3246	3246	3277	3216	3277	3277	3246	0	0	0	0	0	0	0	0	0	0	0	0	0	0	0	0	0	0	0	0	0	0	0	0	0	0	0	0	4643	4643	4643	4643	4643	4643	4581	4581	4643	4643	4643	4643	4643	4643	4643	4643	4643	4643	4643	4643	4581	4581	4581	4581	4581	0	0	0	0	4643	4643	4581	4643	4643	4581	4581	4581	4643	4643	4643	4643	4581	4581	4581	4581	4521	4521	4521	4521	4521	4463	4463	4463	4463	4463	4463	4463	4463	4463	4463	4521	4521	4581	4521	4521	4463	4463	4463	4521	4521	4521	4581	4581	4581	4643	4643	4643	4643	4643	4581	4643	4581	4581	4581	4581	4581	4643	4581	4581	4581	4581	4581	4581	4581	4581	4643	4643	4643	4643	4581	4581	4521	4521	4521	4463	4406	4463	4463	4463	4463	4463	4463	4463	4463	4463	4463	4463	4463	4463	4463	4463	4463	4463	4463	4463	4463	4463	4463	4463	4463	4463	4463	4463	4463	4463	4463	4406	4406	4406	4406	4406	4463	4581	4581	4643	4643	4706	4706	4706	4706	4706	4706	4706	7959	7959	7959	7779	7779	7779	7779	7779	7779	7959	7959	7959	7959	7959	7959	7959	7959	7959	7959	7779	7779	7779	7779	0	0	0	0	0	0	0	0	0	0	0	0	0	0	0	7137	6992	6992	6992	6992	6992	6992	6992	6992	7137	7137	7137	7137	7137	7137	0	0	0	0	0	0	0	0	0	0	0	0	0	0	0	0	0	0	0	0	6468	6468	6468	6468	6468	6468	6349	6349	6235	6235	6124	6124	0	0	0	0	0	0	0	0	0	0	0	0	0	0	0	0	0	0	0	0	0	0	0	0	0	0	0	0	0	0	0	0	0	0	0
0	0	0	0	773	777	780	786	791	791	791	791	793	793	806	808	812	812	814	815	817	819	819	823	829	831	833	835	839	839	843	845	848	852	854	856	860	862	865	869	871	873	887	889	891	891	894	896	901	901	901	903	905	910	910	935	935	935	937	937	940	940	940	955	961	966	969	972	974	974	980	980	985	997	1003	1008	1014	1014	1017	1020	1023	1026	1033	1039	1042	1045	1052	1055	1058	1061	1071	1078	1081	1085	1088	1088	1091	1095	1098	1098	1098	1098	1098	0	0	0	0	1768	1768	1759	1759	1768	1759	1768	1768	1759	1768	1768	1768	1768	1768	1768	1768	1777	1786	1795	1804	1795	1795	1786	1777	1768	1759	1741	1741	1741	0	0	0	0	0	0	0	0	0	0	1814	1833	1843	1843	1843	1843	1853	1853	1853	1863	1873	1883	1883	1883	1883	1904	1904	1904	1904	1904	1904	1904	1904	1904	1904	1915	1915	1915	1915	1925	1936	1925	1925	1925	1925	0	0	0	6235	6349	6349	6349	6235	6235	6235	6235	6235	6235	6235	6349	6235	6349	6349	0	0	0	0	0	0	0	0	0	0	0	0	0	0	0	0	0	0	7779	7779	7779	7779	8146	8146	8146	7959	7959	7959	7959	7959	7959	8146	8146	8146	8146	8146	8146	7959	7959	7959	7959	8146	7959	7959	8146	8146	8146	8146	8146	8146	8146	8343	8343	8343	8343	8343	8343	8550	8550	8343	8343	8343	0	0	0	0	3277	3277	3277	3277	3277	3277	3277	3277	3277	3246	3246	3246	3246	3216	3216	3216	3216	3216	3186	3186	3216	3216	3216	3216	3216	3216	3216	3216	3216	3216	3186	3186	3186	3186	3157	3157	3186	3186	3186	3216	3186	3186	3186	3186	3186	3186	3186	3186	3186	3186	3186	3186	3186	3186	3186	3186	3216	3216	3216	3216	3216	3246	3246	3246	3246	3246	3246	3309	3309	3309	3277	3309	3309	0	0	0	0	0	0	0	0	0	0	0	0	0	0	0	0	0	0	0	0	0	0	0	0	0	0	0	0	0	4706	4706	4643	4643	4643	4581	4581	4581	4643	4643	4643	4643	4643	4643	4643	4643	4643	4643	4643	4643	4643	4643	4643	4581	4581	4581	0	0	0	0	4643	4581	4581	4581	4581	4581	4581	4643	4643	4643	4643	4643	4581	4581	4581	4521	4521	4521	4521	4521	4463	4463	4521	4463	4463	4463	4463	4463	4521	4463	4463	4521	4521	4521	4463	4463	4463	4463	4521	4521	4521	4581	4581	4643	4643	4643	4643	4643	4643	4643	4643	4643	4643	4581	4581	4581	4581	4581	4581	4581	4581	4581	4581	4643	4643	4643	4581	4643	4643	4581	4581	4521	4521	4521	4463	4406	4406	4463	4463	4463	4463	4406	4463	4463	4406	4406	4406	4463	4406	4463	4406	4463	4463	4463	4406	4463	4406	4406	4406	4406	4463	4463	4463	4463	4463	4463	4406	4406	4406	4406	4406	4406	4581	4643	4643	4706	4706	4706	4706	4706	4706	4706	4706	7959	7959	7779	7779	7779	7779	7779	7779	7779	7959	7959	7959	7959	7959	7959	7959	7959	7959	7779	7779	7608	7608	7779	0	0	0	0	0	0	0	0	0	0	0	0	0	7137	6992	6992	6992	6992	6992	6992	6992	6992	6992	6992	6992	7137	7137	7137	7137	7137	7137	0	0	0	0	0	0	0	0	0	0	0	0	0	0	0	0	0	0	0	6349	6468	6468	6468	6349	6349	6349	6349	6235	6235	6235	6235	0	0	0	0	0	0	0	0	0	0	0	0	0	0	0	0	0	0	0	0	0	0	0	0	0	0	0	0	0	0	0	0	0	0	0
0	0	0	0	777	777	780	784	786	791	789	791	793	795	806	808	810	812	814	815	819	819	821	821	823	823	831	833	839	841	843	845	848	850	854	856	858	862	865	867	871	873	884	889	889	891	894	894	898	898	903	905	908	930	930	932	935	935	935	937	940	942	940	955	958	963	966	969	972	972	977	983	991	1000	1003	1008	1011	1014	1017	1020	1033	1033	1036	1039	1042	1045	1048	1055	1058	1061	1071	1078	1081	1085	1085	1088	1091	1095	1095	1095	1098	1102	1105	1105	1105	0	0	1768	1759	1759	1759	1759	1759	1759	1759	1759	1768	1768	1750	1759	1759	1768	1768	1777	1786	1786	1804	1795	1795	1786	1768	1741	1741	1741	1741	1741	1741	0	0	0	0	0	0	0	0	1804	1804	1804	1843	1853	1853	1863	1873	1863	1873	1863	1883	1883	1883	1894	1894	1915	1915	1904	1904	1904	1904	1904	1904	1904	1904	1904	1904	1915	1904	1915	1925	1925	1915	1915	1915	0	0	0	0	6349	6349	6349	6235	6349	6235	6235	6235	6349	6235	6235	6235	6349	6349	0	0	0	0	0	0	0	0	0	0	0	0	0	0	0	0	0	0	7608	7779	7779	7779	7779	8146	8146	8146	8146	8146	7959	8146	8146	8146	8146	8146	8146	8146	8146	7959	7959	7959	7959	8146	7959	7959	7959	7959	8146	8146	8146	8146	8146	8343	8343	8343	8343	8343	8343	8550	8550	8550	8343	8343	0	0	0	0	0	3277	3277	3277	3277	3277	3309	3309	3309	3277	3277	3277	3246	3216	3216	3216	3216	3216	3186	3186	3186	3216	3216	3216	3216	3216	3216	3216	3216	3216	3216	3186	3186	3186	3186	3186	3216	3186	3186	3216	3216	3216	3186	3186	3186	3186	3186	3186	3186	3186	3216	3186	3186	3186	3186	3186	3216	3216	3216	3246	3246	3246	3246	3277	3277	3246	3246	3309	3309	3309	3277	3309	3309	0	0	0	0	0	0	0	0	0	0	0	0	0	0	0	0	0	0	0	0	0	0	0	0	0	0	0	0	0	4706	4643	4643	4643	4581	4581	4581	4581	4581	4581	4643	4581	4581	4643	4581	4581	4643	4643	4643	4643	4643	4643	4643	4581	4581	4581	0	0	0	0	4643	4581	4581	4581	4581	4581	4643	4643	4643	4643	4643	4643	4643	4581	4581	4521	4521	4521	4463	4463	4463	4463	4463	4463	4463	4463	4463	4463	4463	4463	4463	4463	4463	4463	4463	4406	4463	4463	4463	4521	4521	4521	4581	4581	4643	4643	4643	4643	4643	4643	4643	4643	4643	4581	4581	4581	4581	4581	4581	4581	4581	4581	4581	4643	4643	4643	4643	4643	4643	4581	4581	4521	4521	4521	4463	4406	4463	4463	4463	4463	4406	4406	4406	4406	4406	4406	4406	4406	4406	4463	4406	4406	4463	4406	4406	4406	4406	4406	4406	4406	4463	4463	4463	4463	4463	4463	4406	4406	4406	4406	4406	4463	4581	4643	4643	4706	4706	4706	4706	4706	4706	4643	4643	7959	7959	7779	7779	7779	7779	7779	7608	7608	7779	7779	7779	7779	7959	7959	7959	7959	7959	7779	7779	7779	7779	7779	0	0	0	0	0	0	0	0	0	0	0	7287	7137	7137	7137	7137	6992	6992	6992	6992	6992	6992	6992	6992	7137	7137	7137	7137	7137	7137	7137	7137	0	0	0	0	0	0	0	0	0	0	0	0	0	0	0	0	0	0	6349	6468	6349	6468	6468	6349	6349	6349	6235	6235	6349	6349	0	0	0	0	0	0	0	0	0	0	0	0	0	0	0	0	0	0	0	0	0	0	0	0	0	0	0	0	0	0	0	0	0	0	0
0	0	0	0	775	777	780	784	786	788	791	793	793	795	806	810	812	812	812	815	817	819	821	821	823	823	829	833	839	841	843	845	848	850	854	856	858	862	865	867	869	873	875	875	889	891	894	894	898	901	901	903	908	917	930	932	935	935	935	937	940	942	942	958	958	966	966	969	969	972	977	980	988	1000	1003	1008	1011	1014	1017	1020	1033	1033	1033	1036	1039	1042	1045	1052	1058	1061	1071	1078	1081	1085	1085	1088	1088	1088	1091	1095	1098	1102	1105	1109	1109	0	0	0	1759	1750	1750	1750	1759	1759	1759	1759	1759	1768	1759	1768	1768	1768	1777	1777	1777	1786	1804	1804	1795	1786	1759	1741	1741	1741	1741	1732	1732	0	0	0	0	0	0	0	0	1804	1804	1814	1824	1843	1853	1873	1873	1873	1873	1873	1894	1894	1894	1894	1894	1925	1925	1904	1904	1904	1904	1904	1894	1894	1904	1894	1894	1904	1904	1904	1904	1904	1904	1904	1904	1904	0	0	0	6349	6349	6235	6235	6235	6349	6349	6349	6349	6235	6235	6235	6235	6235	0	0	0	0	0	0	0	0	0	0	0	0	0	0	0	0	0	0	7608	7779	7779	7779	7779	8146	8146	8146	8146	8146	7959	8146	7959	8146	8146	8146	8146	8146	8146	7959	7959	7959	7959	8146	7959	7959	7959	8146	8146	8146	8343	8343	8343	8343	8343	8343	8343	8343	8343	8550	8550	8550	8343	8343	8343	0	0	0	0	0	0	3277	3277	3341	3341	3341	3309	3277	3277	3277	3246	3216	3216	3216	3216	3216	3186	3186	3216	3216	3216	3216	3216	3216	3246	3246	3246	3246	3246	3216	3186	3186	3186	3186	3216	3186	3186	3216	3216	3216	3216	3186	3186	3216	3186	3186	3186	3186	3216	3216	3216	3186	3216	3216	3216	3216	3216	3246	3246	3246	3246	3277	3277	3277	3246	3309	3309	0	0	0	0	0	0	0	0	0	0	0	0	0	0	0	0	0	0	0	0	0	0	0	0	0	0	0	0	0	0	0	0	0	0	4643	4643	4581	4581	4581	4581	4581	4581	4581	4581	4581	4581	4581	4581	4581	4581	4643	4643	4643	4643	4643	4643	4581	4521	4521	4521	4521	0	4581	4581	4581	4581	4581	4643	4643	4643	4706	4706	4706	4706	4643	4643	4643	4581	4521	4521	4521	4463	4463	4463	4463	4463	4463	4463	4463	4463	4463	4463	4463	4463	4463	4463	4463	4463	4406	4463	4463	4463	4463	4463	4521	4581	4581	4643	4643	4643	4643	4643	4643	4521	4521	4521	4521	4463	4463	4521	4521	4521	4521	4581	4581	4581	4581	4581	4581	4643	4643	4643	4581	4581	4521	4521	4463	4406	4406	4463	4463	4463	4463	4463	4406	4463	4406	4406	4406	4406	4406	4406	4406	4406	4406	4463	4406	4406	4406	4406	4406	4406	4406	4406	4406	4406	4406	4406	4406	4406	4406	4406	4406	4406	4463	4581	4643	4643	4706	4706	4706	4706	4706	4706	4643	4643	7959	7959	7959	7959	7959	7779	7779	7779	7779	7779	7779	7959	7959	7959	7779	7959	7959	7779	7608	7779	7779	7779	7779	0	0	0	0	0	0	0	0	7444	7444	0	7287	7137	7137	6992	6992	6992	6992	6992	6992	6992	6992	6992	7137	7137	7137	7137	7137	7137	7137	7137	7137	7137	7137	0	0	0	0	0	0	0	0	0	0	0	0	0	0	0	0	0	6349	6349	6349	6349	6349	6349	6349	6349	6349	6349	6349	0	0	0	0	0	0	0	0	0	0	0	0	0	0	0	0	0	0	0	0	0	0	0	0	0	0	0	0	0	0	0	0	0	0	0
0	0	0	0	777	779	780	784	786	788	791	793	795	798	800	806	812	812	810	815	815	817	821	821	823	823	823	833	839	843	843	848	848	850	850	854	858	858	865	867	871	875	882	887	889	891	894	894	898	901	901	908	910	913	927	932	932	935	937	937	940	942	948	958	961	966	966	969	969	972	977	980	991	1000	1003	1006	1008	1011	1014	1030	1033	1033	1036	1036	1042	1042	1045	1055	1058	1068	1071	1078	1081	1081	1085	1085	1088	1088	1091	1095	1098	1098	1102	1102	1109	0	0	1750	1750	1750	1750	1759	1750	1750	1759	1759	1759	1768	1759	1768	1768	1768	1777	1786	1786	1795	1804	1795	1795	1795	1750	1741	1741	1741	1741	1732	1732	0	0	0	0	0	0	0	0	1804	1804	1804	1824	1833	1843	1873	1873	1873	1883	1873	1894	1894	1894	1904	1904	1925	1925	1915	1904	1904	1904	1904	1894	1894	1894	1894	1894	1904	1894	1894	1904	1904	1904	1904	1904	1904	0	0	0	0	6349	6349	6235	6349	6349	6349	6349	6349	6349	6235	6235	6235	6235	6235	0	0	0	0	0	0	0	0	0	0	0	0	0	0	0	0	0	7608	7779	7779	7779	0	0	0	8146	7959	7959	7959	7959	7959	8146	8146	8146	8146	8146	8146	8146	7959	7959	7959	8146	7959	7959	7959	8146	8146	8146	8343	8343	8343	8343	8343	8343	8343	8343	8343	8343	8550	8550	8343	8343	8343	8343	0	0	0	0	0	0	0	3341	3373	3373	3341	3309	3309	3277	3246	3246	3216	3216	3216	3216	3216	3216	3216	3216	3216	3216	3216	3246	3246	3246	3246	3246	3246	3246	3246	3246	3246	0	0	3186	3186	3216	3216	3246	3216	3216	3216	3216	3216	3216	3186	3186	3216	3216	3216	3186	3216	3216	3216	3216	3216	3246	3246	3246	3246	3277	3277	3277	0	0	0	0	0	0	0	0	0	0	0	0	0	0	0	0	0	0	0	0	0	0	0	0	0	0	0	0	0	0	0	0	0	0	0	0	0	4521	4521	4521	4521	4521	4521	4521	4521	4521	4521	4521	4521	4521	4521	4521	4521	4581	4581	4643	4643	4643	4581	4581	4521	4521	4521	4463	4463	4463	4581	4581	4581	4581	4581	4643	4643	4706	4706	4706	4706	4706	4643	4643	4581	4581	4521	4521	4463	4463	4463	4406	4463	4463	4463	4463	4463	4463	4463	4463	4406	4406	4463	4406	4406	4406	4406	4406	4406	4406	4406	4463	4521	4521	4581	4463	4463	4521	4521	4463	4463	4463	4463	4463	4406	4406	4406	4463	4463	4463	4521	4521	4581	4581	4581	4581	4643	4643	4643	4643	4581	4521	4521	4463	4406	4406	4463	4463	4406	4406	4406	4406	4406	4406	4406	4406	4406	4406	4406	4406	4406	4406	4463	4463	4406	4406	4406	4350	4350	4296	4296	4243	4192	4192	4406	4406	4406	4406	4406	4406	4406	4463	4581	4643	4706	4706	4706	4706	4706	4706	4643	4643	4643	7959	7959	7959	7959	7959	7959	7779	7779	7779	7959	7959	7959	7959	7959	7959	8146	7959	7779	7779	7779	7779	7779	7779	0	0	0	0	0	0	0	0	7287	7287	7287	7287	7137	7137	7137	7137	7137	7137	7137	6992	6992	7137	7137	7137	7137	7137	7137	7137	7137	7137	7137	7137	7137	7137	0	0	0	0	0	0	0	0	0	0	0	0	0	0	0	0	0	6235	6235	6349	6349	6349	6349	6349	6235	6349	6349	6349	0	0	0	0	0	0	0	0	0	0	0	0	0	0	0	0	0	0	0	0	0	0	0	0	0	0	0	0	0	0	0	0	0	0	0
