0	0	0	0	0	0	0	0	0	0	0	0	1358	1358	1358	1358	1358	1358	1352	1352	1352	1352	1352	1347	1347	1347	1347	1347	1347	1347	1347	1347	1347	1347	1347	1347	1352	1352	1352	1347	1347	1347	1347	1352	1352	1358	1358	1358	1358	1358	1358	1358	1363	1368	1374	1385	1390	1402	1402	1407	1413	1419	1425	1437	1431	1443	1461	1467	1467	1473	1480	1486	1486	1499	1506	1519	1519	1525	1539	1539	1539	1546	1560	1567	1574	1589	1589	1603	1603	1611	1626	1634	1634	1649	1657	1657	1673	1681	1698	1698	1706	1723	1732	1741	1750	1750	1759	1759	1768	1777	1786	1795	1795	1833	1843	1873	1873	1883	1883	1883	1883	1894	1894	1894	0	0	0	5448	5448	5448	5535	5535	5535	5535	5626	5535	5535	5535	5535	5535	5448	5448	5448	5448	5535	5448	5448	5448	5448	5448	5448	5448	5448	5448	5448	5448	5448	5448	5448	5448	5448	5448	4350	4350	4463	4463	4463	4463	4406	4406	4406	4406	4406	4406	4406	4406	4406	4406	4350	4406	4350	4350	4350	4350	4350	4350	4350	4350	4350	4350	4350	4350	4350	4350	4350	4350	4350	4350	4350	4350	4350	4350	4350	4406	4406	4406	4406	4406	4406	4350	4350	4350	4350	4350	4406	4406	4406	4350	4350	4406	4350	4350	4406	4350	4350	4350	4350	4350	4350	4350	4350	4350	4463	4463	4406	4406	4406	4406	4406	4406	4350	4406	4406	4463	4406	4463	4406	4406	4350	4406	4350	4350	4350	4350	4406	4406	4406	4463	4463	4463	4463	4463	4463	4463	4406	4406	4406	4406	4406	4406	4406	4406	4406	4406	4463	4463	4463	4463	4463	4406	4406	4406	4406	4350	4350	4350	4350	4350	4350	4406	4406	4406	4463	4463	4406	4406	4406	4350	4350	4350	4406	4406	4406	4463	4463	4463	4406	4406	4406	4406	4350	3341	3309	3309	3309	3309	3309	3277	3277	3246	3277	3277	3277	3277	3277	3309	3309	3309	3309	3309	3309	4350	4350	4296	4296	4296	4296	4296	4296	4296	3186	3277	3277	3277	3277	3277	3246	3246	3246	3216	3216	3216	3216	3246	3246	3216	3246	3246	3216	3216	3216	3216	4296	4296	4296	4296	4296	4296	4296	4296	4296	4350	4350	4350	4296	4296	4296	4296	4296	4296	4296	4296	4296	4296	4296	4296	4296	4296	4243	4243	4243	4243	4243	4243	4243	4296	4296	4296	4296	4296	4296	4296	4296	4296	4296	4296	4296	4296	4350	4350	4350	4296	4296	4296	4296	4296	4296	4296	4296	4243	4243	4243	4243	4296	4296	4296	4296	4296	4296	4296	4296	4296	4296	4296	4296	4296	4296	4296	4296	4296	4243	4243	4243	4243	4243	4243	4243	4243	4296	4296	4296	4296	4296	4243	4243	4243	4243	4243	4243	4243	4243	4243	4243	4243	4243	4243	4243	4243	4243	4243	4243	4243	4243	4243	4243	4243	4243	4296	4296	4243	4243	4243	4243	4243	4243	4243	4296	4243	4243	4243	4243	4243	4243	4243	4350	4463	4521	4521	4521	4521	0	0	0	0	0	0	7608	7608	7444	7444	7444	7444	7444	7444	7444	7444	7287	7287	7287	7287	7287	7137	7137	7137	6992	6992	6992	6992	6992	6992	6853	6992	6992	6992	6853	6853	6720	6720	6592	6592	6592	6592	6468	6468	0	0	0	0	0	0	0	0	0	0	0	0	0	0	0	0	0	0	0	0	0	0	0	0	0	0	0	0	0	0	0	0	0	0	0	0	0	0	0	0	0	0	0	0	0	0	0	0	0	0	0	0	0	0	0	0	0	0	0	0	0	0	0	0	0	0	0	0	0	0	0	0	0	0	0	0	0	0	0	0	0	0	0	0	0	0	0	0	0	0	0	0	0	0	0	0
0	0	0	0	0	0	0	0	0	0	0	0	1358	1358	1358	1358	1358	1358	1352	1352	1352	1352	1352	1347	1347	1347	1347	1347	1347	1347	1347	1347	1347	1347	1347	1347	1347	1352	1347	1347	1347	1347	1352	1347	1352	1352	1358	1358	1358	1358	1358	1363	1368	1374	1374	1385	1396	1402	1407	1413	1419	1425	1431	1437	1437	1443	1461	1467	1467	1467	1473	1486	1486	1499	1499	1512	1519	1532	1539	1546	1546	1553	1560	1567	1574	1581	1589	1603	1603	1611	1611	1641	1649	1657	1665	1665	1673	1681	1698	1698	1706	1723	1732	1741	1750	1750	1750	1759	1768	1786	1786	1795	1804	1833	1853	1863	1883	1883	1883	1894	1894	1894	1894	1894	0	0	5448	5448	5448	5448	5448	5448	5535	5535	5626	5626	5626	5535	5535	5535	5535	5448	5448	5448	5448	5448	5535	5448	5448	5535	5448	5448	5448	5448	5448	5448	5448	5448	5448	5448	5448	5448	4521	4521	4463	4463	4463	4406	4406	4406	4406	4406	4406	4463	4463	4463	4463	4463	4350	4406	4350	4350	4350	4350	4350	4406	4350	4350	4406	4350	4350	4350	4350	4350	4350	4350	4350	4350	4350	4350	4350	4350	4350	4406	4406	4350	4406	4406	4406	4406	4406	4406	4406	4406	4406	4406	4406	4350	4350	4350	4350	4350	4350	4350	4350	4350	4350	4350	4350	4350	4350	4406	4463	4406	4406	4406	4406	4406	4406	4406	4406	4406	4406	4463	4406	4463	4406	4406	4350	4350	4350	4350	4350	4406	4406	4406	4463	4463	4463	4463	4463	4463	4463	4463	4463	4406	4406	4406	4406	4406	4406	4406	4406	4463	4463	4463	4463	4463	4463	4463	4406	4406	4406	4406	4350	4350	4350	4350	4406	4406	4463	4463	4463	4463	4406	4406	4406	4350	4350	4350	4406	4406	4406	4406	4406	4406	4406	4406	4406	4406	4350	3341	3309	3309	3309	3309	3309	3309	3309	3277	3277	3277	3277	3277	3277	3309	3309	3309	3309	3309	3309	4350	4296	4296	4296	4296	4296	4296	4296	4296	4350	4350	3277	3277	3277	3277	3246	3246	3246	3216	3216	3246	3246	3246	3246	3216	3216	3246	3216	3246	3246	3246	4296	4296	4296	4296	4296	4296	4296	4296	4296	4350	4350	4350	4350	4296	4296	4296	4296	4296	4296	4296	4296	4296	4296	4296	4296	4296	4296	4243	4243	4243	4243	4243	4243	4296	4296	4296	4296	4296	4296	4296	4296	4296	4296	4296	4296	4296	4296	4296	4296	4296	4296	4296	4296	4296	4296	4296	4296	4243	4296	4243	4296	4296	4296	4296	4296	4296	4296	4296	4296	4296	4296	4296	4296	4296	4296	4243	4296	4296	4296	4243	4243	4243	4243	4243	4296	4243	4296	4296	4296	4296	4296	4243	4243	4243	4243	4243	4243	4243	4243	4243	4243	4243	4243	4243	4243	4243	4243	4243	4243	4243	4243	4243	4296	4243	4296	4296	4296	4296	4243	4243	4243	4243	4243	4243	4296	4243	4243	4243	4243	4243	4243	4243	4296	4521	4521	4521	4521	4521	0	0	0	0	0	0	0	0	7444	7444	7444	7444	7444	7444	7444	7444	7287	7287	7287	7287	7287	7137	7137	7137	7137	6992	6992	6992	6992	6992	6992	6992	6992	6992	6853	6853	6720	6720	6592	6592	6592	6592	0	0	0	0	0	0	0	0	0	0	0	0	0	0	0	0	0	0	0	0	0	0	0	0	0	0	0	0	0	0	0	0	0	0	0	0	0	0	0	0	0	0	0	0	0	0	0	0	0	0	0	0	0	0	0	0	0	0	0	0	0	0	0	0	0	0	0	0	0	0	0	0	0	0	0	0	0	0	0	0	0	0	0	0	0	0	0	0	0	0	0	0	0	0	0	0	0	0
0	0	0	0	0	0	0	0	0	0	0	0	1358	1358	1358	1358	1352	1352	1352	1352	1352	1352	1352	1347	1352	1347	1347	1347	1347	1347	1347	1347	1352	1352	1352	1352	1352	1347	1352	1347	1347	1347	1352	1352	1347	1352	1352	1358	1358	1358	1358	1363	1368	1374	1379	1390	1396	1402	1402	1413	1419	1419	1425	1431	1437	1443	1455	1461	1467	1467	1473	1486	1492	1499	1506	1512	1519	1532	1546	1546	1546	1560	1560	1567	1574	1581	1581	1596	1603	1611	1634	1626	1649	1657	1665	1673	1681	1690	1698	1698	1706	1723	1732	1750	1750	1759	1759	1768	1768	1786	1786	1795	1804	1833	1843	1863	1883	1894	1894	1904	1904	1925	1925	1925	0	0	5448	5364	5364	5448	5535	5535	5535	5535	5626	5626	5626	5626	5535	5535	5535	5448	5448	5448	5448	5448	5535	5448	5448	5535	5448	5448	5448	5448	5448	5448	5448	5448	5448	5448	5448	5448	4521	4521	4463	4463	4463	4406	4463	4406	4406	4406	4406	4463	4463	4463	4406	4406	4350	4406	4350	4350	4350	4350	4350	4406	4350	4406	4406	4406	4350	4350	4350	4350	4350	4350	4350	4406	4350	4350	4350	4350	4350	4350	4350	4350	4350	4406	4406	4350	4406	4406	4350	4406	4406	4406	4406	4350	4350	4350	4350	4350	4350	4350	4350	4350	4350	4350	4350	4350	4350	4406	4406	4406	4406	4406	4350	4350	4406	4406	4406	4406	4406	4463	4406	4406	4406	4406	4350	4350	4350	4406	4406	4406	4406	4406	4463	4463	4463	4463	4463	4463	4463	4463	4463	4406	4406	4406	4406	4406	4406	4406	4406	4463	4463	4463	4463	4463	4463	4463	4463	4406	4406	4406	4406	4406	4406	4406	4406	4463	4463	4463	4463	4463	4406	4406	4406	4350	4350	4350	4406	4406	4406	4406	4406	4406	4406	4406	4406	4406	4350	3341	3309	3309	3309	3309	3309	3309	3309	3277	3277	3277	3277	3277	3277	3309	3309	3309	3309	3309	3309	4350	4296	4296	4296	4296	4296	4296	4296	4296	4296	4350	3309	3309	3309	3277	3277	3277	3277	3246	3246	3246	3246	3246	3216	3216	3246	3246	3216	3246	3246	3246	4296	4296	4296	4296	4296	4296	4296	4296	4296	4350	4296	4296	4296	4296	4296	4296	4296	4296	4296	4296	4296	4296	4296	4296	4296	4296	4296	4296	4243	4243	4243	4243	4243	4296	4296	4296	4296	4296	4296	4296	4296	4296	4296	4296	4296	4296	4296	4296	4296	4296	4296	4296	4296	4296	4296	4296	4296	4243	4296	4243	4296	4296	4296	4296	4296	4296	4296	4296	4296	4296	4296	4296	4296	4296	4243	4243	4296	4296	4296	4243	4243	4243	4243	4296	4296	4296	4296	4296	4296	4296	4243	4243	4243	4243	4243	4243	4243	4243	4243	4296	4243	4243	4243	4243	4243	4243	4243	4243	4243	4243	4243	4296	4296	4296	4296	4296	4296	4296	4243	4243	4243	4243	4243	4243	4296	4243	4243	4243	4243	4243	4243	4243	4296	4521	4643	4581	4521	4521	0	0	0	0	0	0	0	0	0	7444	7444	7608	7608	7444	7444	7287	7287	7287	7287	7287	7137	7137	7137	7137	7137	7137	6992	6992	6992	6992	6992	6992	6992	6992	6853	6853	6720	6720	6720	6720	6592	6720	6720	0	0	0	0	0	0	0	0	0	0	0	0	0	0	0	0	0	0	0	0	0	0	0	0	0	0	0	0	0	0	0	0	0	0	0	0	0	0	0	0	0	0	0	0	0	0	0	0	0	0	0	0	0	0	0	0	0	0	0	0	0	0	0	0	0	0	0	0	0	0	0	0	0	0	0	0	0	0	0	0	0	0	0	0	0	0	0	0	0	0	0	0	0	0	0	0	0
0	0	0	0	0	0	0	0	0	0	0	0	1358	1358	1358	1358	1358	1358	1358	1352	1352	1352	1347	1347	1347	1347	1347	1347	1347	1352	1352	1347	1352	1352	1347	1347	1347	1347	1347	1347	1347	1347	1352	1352	1347	1347	1352	1358	1358	1358	1358	1363	1368	1379	1379	1390	1390	1396	1402	1407	1419	1419	1425	1431	1437	1455	1461	1467	1467	1473	1473	1492	1492	1499	1499	1512	1519	1532	1546	1546	1546	1560	1567	1574	1574	1581	1589	1596	1603	1611	1626	1626	1649	1657	1665	1681	1681	1690	1698	1698	1706	1715	1732	1750	1750	1759	1759	1768	1768	1777	1786	1795	1814	1814	1833	1853	1873	1894	1904	1904	1915	1915	1915	1915	0	0	0	5448	5448	5535	5535	5535	5535	5448	5626	5626	5626	5535	5535	5448	5448	5448	5448	5448	5448	5448	5448	5448	5448	5448	5448	5448	5448	5448	5448	5448	5448	5448	5448	5448	5448	5448	4521	4521	4521	4463	4463	4406	4463	4406	4463	4406	4406	4463	4463	4463	4406	4406	4350	4350	4406	4350	4350	4350	4350	4350	4350	4350	4350	4350	4350	4350	4350	4350	4350	4350	4350	4406	4350	4406	4350	4350	4350	4350	4350	4350	4350	4350	4350	4350	4406	4406	4406	4406	4350	4406	4406	4350	4350	4350	4350	4350	4350	4350	4350	4350	4350	4350	4350	4350	4350	4350	4406	4406	4406	4350	4350	4350	4350	4350	4350	4350	4406	4463	4463	4463	4406	4406	4350	4350	4350	4350	4406	4406	4406	4406	4406	4463	4463	4463	4463	4463	4463	4463	4463	4406	4406	4406	4406	4406	4406	4406	4406	4406	4463	4463	4463	4521	4463	4463	4463	4406	4406	4406	4406	4406	4406	4463	4406	4463	4463	4463	4463	4463	4406	4406	4406	4406	4406	4406	4406	4406	4406	4406	4406	4406	4406	4406	4406	4406	4350	3341	3309	3309	3309	3309	3309	3309	3309	3246	3277	3277	3277	3277	3277	3309	3309	3309	3309	3309	3309	4350	4296	4296	4296	4296	4296	4296	4296	4296	4296	4296	4296	3309	3309	3277	3277	3277	3277	3246	3246	3246	3246	3246	3246	3246	3246	3246	3246	3246	3246	3246	4296	4296	4296	4243	4243	4296	4296	4296	4296	4296	4296	4296	4296	4296	4296	4296	4296	4296	4296	4296	4296	4296	4296	4296	4296	4296	4296	4296	4296	4243	4243	4243	4296	4296	4296	4296	4296	4296	4296	4296	4296	4296	4296	4296	4296	4296	4296	4296	4296	4296	4296	4296	4296	4296	4296	4243	4296	4243	4243	4296	4296	4296	4296	4296	4296	4296	4296	4296	4296	4296	4296	4296	4296	4296	4243	4243	4296	4296	4296	4296	4243	4243	4243	4296	4296	4243	4296	4243	4296	4296	4243	4243	4243	4243	4243	4243	4243	4243	4243	4243	4296	4296	4296	4296	4243	4243	4243	4243	4243	4243	4243	4243	4296	4296	4296	4296	4296	4296	4243	4243	4243	4243	4243	4243	4296	4296	4296	4243	4243	4243	4243	4243	4296	4296	4643	4643	4643	4643	0	0	0	0	0	0	0	0	0	7444	7608	7608	7444	7444	7444	7287	7287	7137	7137	7137	7137	7137	7137	7137	7137	7137	7137	7137	6992	6992	6992	6992	6992	6992	6853	6853	6853	6853	6853	6853	6720	6720	6720	6720	6720	0	0	0	0	0	0	0	0	0	0	0	0	0	0	0	0	0	0	0	0	0	0	0	0	0	0	0	0	0	0	0	0	0	0	0	0	0	0	0	0	0	0	0	0	0	0	0	0	0	0	0	0	0	0	0	0	0	0	0	0	0	0	0	0	0	0	0	0	0	0	0	0	0	0	0	0	0	0	0	0	0	0	0	0	0	0	0	0	0	0	0	0	0	0	0
0	0	0	0	0	0	0	0	0	0	0	0	1358	1352	1358	1358	1352	1352	1358	1352	1352	1352	1347	1347	1352	1352	1352	1352	1352	1352	1352	1347	1352	1352	1347	1347	1347	1347	1347	1352	1347	1347	1352	1352	1347	1347	1347	1352	1352	1352	1358	1363	1368	1379	1379	1390	1390	1396	1402	1407	1413	1419	1419	1425	1437	1449	1455	1467	1467	1467	1480	1492	1499	1499	1506	1512	1512	1525	1525	1546	1553	1567	1567	1574	1574	1589	1589	1596	1603	1603	1611	1634	1641	1657	1673	1681	1681	1690	1698	1698	1706	1715	1732	1741	1759	1759	1768	1768	1777	1786	1795	1804	1814	1833	1843	1863	1883	1894	1894	1894	1894	1904	1904	1915	0	0	5448	5448	5448	5535	5535	5535	5535	5535	5535	5626	5626	5535	5535	5535	5448	5448	5448	5448	5448	5448	5448	5448	5448	5448	5448	5448	5448	5448	5448	5448	5448	5448	5448	5364	5364	5364	4581	4581	4521	4521	4463	4406	4463	4406	4406	4406	4406	4463	4463	4406	4406	4406	4350	4350	4350	4350	4350	4350	4350	4350	4350	4350	4350	4350	4350	4350	4350	4350	4350	4350	4350	4350	4350	4406	4350	4350	4350	4350	4350	4350	4350	4350	4406	4406	4406	4406	4350	4350	4350	4350	4350	4350	4350	4350	4350	4350	4350	4350	4350	4350	4350	4350	4350	4350	4350	4350	4406	4406	4406	4350	4350	4350	4350	4350	4350	4350	4406	4350	4406	4406	4406	4350	4350	4350	4350	4350	4406	4350	4406	4406	4406	4406	4406	4406	4463	4406	4463	4406	4406	4406	4406	4406	4406	4406	4406	4406	4406	4463	4463	4463	4463	4521	4521	4463	4463	4463	4406	4406	4406	4406	4406	4406	4406	4406	4406	4463	4463	4463	4463	4463	4406	4463	4406	4406	4406	4406	4406	4406	4406	4406	4406	4406	4406	4406	4350	3341	3341	3309	3309	3309	3309	3309	3309	3246	3277	3277	3277	3277	3277	3277	3277	3277	3277	3277	3277	4296	4296	4296	4296	4296	4296	4296	4296	4296	4296	4296	4296	3277	3277	3277	3277	3277	3277	3246	3246	3246	3246	3246	3246	3246	3246	3246	3246	3277	3277	3277	4296	4296	4243	4243	4243	4243	4243	4296	4296	4296	4296	4296	4296	4296	4296	4296	4296	4296	4296	4296	4296	4296	4296	4296	4296	4296	4296	4296	4296	4243	4296	4296	4296	4296	4296	4296	4296	4296	4296	4296	4296	4296	4296	4296	4296	4296	4296	4296	4296	4296	4296	4296	4296	4296	4296	4243	4243	4243	4243	4296	4296	4296	4296	4296	4296	4296	4296	4296	4296	4296	4296	4296	4296	4296	4243	4243	4296	4296	4296	4296	4296	4296	4296	4296	4296	4243	4243	4243	4243	4296	4243	4243	4243	4243	4243	4243	4243	4243	4296	4296	4296	4296	4296	4296	4243	4243	4243	4243	4243	4243	4296	4296	4296	4296	4296	4296	4296	4296	4243	4296	4296	4296	4243	4243	4296	4296	4243	4243	4243	4243	4243	4243	4296	4296	4706	4706	4706	4706	0	0	0	0	0	0	0	0	0	0	7444	7444	7444	7444	7287	7287	7287	7137	7137	7137	7137	7137	7137	7137	7137	7137	7137	7137	6992	6992	6992	6992	6992	6992	6992	6853	6853	6992	6992	6992	6853	6853	6853	6853	6720	0	0	0	0	0	0	0	0	0	0	0	0	0	0	0	0	0	0	0	0	0	0	0	0	0	0	0	0	0	0	0	0	0	0	0	0	0	0	0	0	0	0	0	0	0	0	0	0	0	0	0	0	0	0	0	0	0	0	0	0	0	0	0	0	0	0	0	0	0	0	0	0	0	0	0	0	0	0	0	0	0	0	0	0	0	0	0	0	0	0	0	0	0	0	0
0	0	0	0	0	0	0	0	0	0	0	0	1358	1358	1358	1358	1352	1352	1358	1352	1352	1352	1347	1352	1352	1352	1352	1352	1352	1352	1352	1352	1352	1352	1352	1347	1347	1347	1352	1352	1347	1347	1347	1347	1347	1347	1347	1352	1352	1352	1358	1358	1368	1374	1379	1390	1390	1396	1402	1407	1413	1419	1419	1431	1437	1449	1455	1461	1461	1473	1480	1492	1492	1499	1506	1512	1519	1532	1539	1546	1553	1560	1567	1574	1574	1581	1589	1596	1603	1603	1611	1618	1649	1657	1665	1681	1681	1681	1690	1698	1706	1706	1715	1741	1759	1768	1768	1768	1777	1786	1795	1804	1833	1833	1843	1853	1873	1883	1883	1883	1883	1894	1894	0	0	0	5448	5364	5448	5448	5448	5448	5535	5535	5626	5626	5626	5626	5626	5535	5535	5535	5448	5448	5535	5448	5448	5448	5448	5448	5448	5448	5448	5448	5448	5448	5448	5448	5448	5364	5364	5364	5282	4643	4581	4521	4521	4406	4463	4406	4406	4350	4406	4463	4463	4406	4406	4350	4350	4350	4350	4350	4350	4350	4406	4350	4350	4350	4350	4350	4350	4350	4350	4350	4350	4350	4406	4406	4350	4350	4350	4350	4350	4350	4350	4350	4406	4350	4406	4350	4350	4350	4350	4350	4350	4350	4350	4350	4350	4350	4350	4350	4350	4350	4350	4350	4350	4350	4350	4350	4350	4350	4350	4350	4350	4350	4350	4350	4350	4350	4350	4350	4406	4350	4406	4406	4406	4350	4350	4350	4350	4406	4406	4406	4406	4406	4406	4406	4406	4406	4406	4406	4463	4406	4406	4406	4406	4406	4406	4406	4406	4406	4406	4406	4463	4463	4521	4463	4463	4463	4463	4463	4406	4406	4406	4406	4406	4406	4406	4406	4463	4406	4463	4463	4406	4463	4406	4463	4406	4406	4406	4406	4406	4406	4406	4406	4406	4406	4406	4406	4350	3373	3341	3341	3309	3309	3309	3309	3309	3277	3277	3277	3277	3277	3277	3277	3277	3277	3277	3277	3277	4350	4296	4296	4296	4296	4296	4296	4296	4296	4296	4296	4296	4296	3309	3309	3277	3277	3277	3246	3246	3246	3246	3246	3246	3246	3246	3246	3246	3246	4243	4296	4296	4243	4243	4243	4243	4243	4243	4296	4296	4296	4296	4296	4296	4296	4296	4296	4296	4296	4296	4296	4296	4296	4296	4296	4296	4296	4296	4296	4296	4296	4296	4296	4296	4296	4296	4296	4296	4296	4296	4296	4296	4296	4296	4296	4296	4296	4296	4296	4296	4296	4296	4296	4296	4296	4296	4243	4243	4243	4243	4296	4296	4296	4296	4296	4296	4296	4296	4296	4296	4296	4296	4296	4296	4296	4243	4243	4296	4296	4296	4296	4296	4296	4243	4243	4243	4243	4243	4243	4243	4296	4296	4243	4243	4243	4243	4243	4243	4243	4296	4296	4296	4296	4296	4296	4243	4243	4243	4243	4243	4243	4296	4296	4296	4296	4296	4296	4296	4296	4243	4243	4296	4296	4243	4243	4296	4296	4296	4243	4243	4243	4243	4243	4243	4296	4706	4706	4706	4706	0	0	0	0	0	0	0	0	0	0	7444	7608	7608	7444	7444	7287	7287	7137	7137	7137	7137	7137	7137	7137	7137	7137	7137	7137	6992	6992	6992	6992	6992	6992	6853	6853	6992	6992	6992	6992	6992	6853	6853	6853	0	0	0	0	0	0	0	0	0	0	0	0	0	0	0	0	0	0	0	0	0	0	0	0	0	0	0	0	0	0	0	0	0	0	0	0	0	0	0	0	0	0	0	0	0	0	0	0	0	0	0	0	0	0	0	0	0	0	0	0	0	0	0	0	0	0	0	0	0	0	0	0	0	0	0	0	0	0	0	0	0	0	0	0	0	0	0	0	0	0	0	0	0	0	0	0
0	0	0	0	0	0	0	0	0	0	0	0	1358	1358	1358	1358	1352	1352	1352	1352	1347	1347	1347	1347	1352	1352	1352	1352	1352	1352	1352	1352	1352	1352	1352	1347	1347	1347	1347	1347	1347	1347	1347	1347	1347	1347	1347	1347	1352	1352	1352	1358	1363	1379	1385	1390	1396	1396	1402	1407	1413	1419	1419	1425	1437	1443	1455	1461	1467	1467	1480	1486	1492	1499	1506	1519	1525	1539	1539	1546	1553	1560	1560	1567	1574	1581	1589	1596	1603	1611	1618	1634	1649	1657	1665	1681	1681	1690	1698	1698	1706	1715	1732	1741	1750	1768	1768	1768	1777	1786	1795	1833	1843	1843	1853	1863	1873	1883	1883	1883	1883	1883	1894	0	0	0	5364	5448	5448	5535	5535	5535	5535	5535	5626	5626	5626	5626	5626	5535	5535	5535	5535	5535	5535	5535	5535	5535	5448	5448	5448	5448	5448	5448	5448	5448	5448	5448	5364	5364	5364	5364	5282	4521	4521	4521	4406	4406	4350	4406	4350	4350	4350	4406	4406	4406	4406	4350	4350	4350	4350	4350	4350	4350	4350	4350	4350	4350	4350	4350	4350	4350	4350	4406	4350	4350	4350	4350	4350	4406	4350	4350	4350	4350	4350	4350	4406	4406	4406	4350	4350	4350	4350	4350	4350	4350	4350	4350	4350	4350	4350	4350	4350	4350	4350	4350	4350	4350	4350	4350	4350	4296	4350	4350	4350	4350	4350	4350	4350	4350	4350	4350	4350	4350	4406	4406	4350	4350	4350	4350	4350	4350	4406	4350	4406	4406	4406	4406	4350	4406	4350	4350	4350	4406	4406	4406	4406	4406	4406	4406	4406	4406	4406	4406	4463	4463	4463	4463	4463	4463	4463	4406	4406	4406	4406	4406	4406	4406	4406	4406	4406	4406	4406	4463	4406	4463	4406	4463	4406	4406	4406	4406	4406	4463	4406	4406	4463	4406	4406	4406	4350	3373	3341	3341	3309	3309	3309	3309	3309	3277	3277	3277	3277	3277	3309	3277	3277	3277	3277	3277	3277	4350	4296	4296	4296	4296	4296	4296	4296	4296	4296	4296	4296	4296	3309	3309	3277	3277	3277	3246	3246	3246	3246	3246	3246	3246	3246	3246	3246	3246	4243	4243	4296	4296	4243	4243	4243	4243	4296	4296	4296	4296	4296	4296	4296	4296	4296	4296	4296	4296	4296	4296	4296	4296	4296	4296	4296	4296	4296	4296	4296	4296	4296	4296	4296	4296	4296	4296	4296	4296	4296	4296	4243	4243	4296	4296	4296	4296	4296	4296	4296	4296	4296	4296	4296	4296	4296	4243	4296	4243	4243	4296	4296	4296	4296	4243	4296	4296	4296	4296	4296	4296	4296	4296	4296	4296	4243	4243	4243	4296	4296	4296	4296	4296	4296	4243	4296	4243	4296	4296	4296	4296	4296	4243	4243	4243	4243	4243	4243	4243	4296	4296	4296	4296	4296	4296	4243	4243	4243	4243	4296	4296	4296	4296	4296	4296	4296	4296	4296	4296	4243	4243	4296	4243	4243	4243	4243	4243	4243	4243	4243	4243	4243	4243	4243	4243	4771	4771	4706	4706	0	0	0	0	0	0	0	0	0	0	0	7608	7608	7444	7444	7287	7287	7137	7137	7137	7137	7137	7137	7137	7137	6992	7137	6992	6992	6992	6992	6992	6992	6992	6853	6853	6853	6992	6992	6992	6853	6853	6853	6853	0	0	0	0	0	0	0	0	0	0	0	0	0	0	0	0	0	0	0	0	0	0	0	0	0	0	0	0	0	0	0	0	0	0	0	0	0	0	0	0	0	0	0	0	0	0	0	0	0	0	0	0	0	0	0	0	0	0	0	0	0	0	0	0	0	0	0	0	0	0	0	0	0	0	0	0	0	0	0	0	0	0	0	0	0	0	0	0	0	0	0	0	0	0	0	0
0	0	0	0	0	0	0	0	0	0	0	0	1352	1352	1352	1352	1352	1352	1352	1352	1347	1347	1347	1347	1352	1352	1352	1352	1352	1352	1352	1352	1352	1352	1352	1352	1352	1352	1352	1352	1352	1352	1352	1352	1347	1347	1347	1352	1352	1352	1358	1358	1368	1379	1385	1390	1396	1396	1402	1413	1413	1419	1419	1425	1425	1443	1449	1461	1467	1473	1480	1480	1486	1492	1512	1519	1532	1539	1539	1546	1546	1553	1560	1567	1567	1581	1589	1596	1603	1611	1618	1626	1626	1649	1665	1681	1681	1690	1698	1706	1706	1706	1715	1723	1750	1768	1768	1777	1786	1795	1795	1833	1843	1843	1853	1873	1873	1883	1883	1873	1873	1883	1883	0	0	0	5448	5535	5535	5535	5535	5535	5535	5535	5626	5626	5626	5535	5626	5535	5535	5626	5535	5535	5535	5535	5535	5535	5535	5448	5448	5448	5448	5448	5448	5448	5448	5448	5448	5364	5364	5364	5282	4581	4521	4521	4406	4406	4350	4350	4350	4350	4350	4350	4350	4350	4350	4350	4350	4406	4350	4350	4350	4350	4296	4296	4350	4350	4350	4350	4350	4406	4350	4406	4406	4406	4406	4406	4350	4406	4350	4350	4350	4350	4350	4350	4406	4350	4350	4350	4350	4350	4350	4350	4350	4350	4350	4350	4350	4350	4350	4350	4350	4350	4350	4350	4350	4350	4350	4350	4350	4350	4350	4350	4350	4350	4350	4350	4350	4350	4350	4350	4350	4350	4406	4406	4350	4350	4350	4350	4350	4350	4350	4350	4350	4406	4406	4350	4350	4350	4406	4350	4406	4406	4406	4406	4406	4406	4406	4406	4406	4406	4406	4406	4463	4463	4463	4463	4463	4463	4463	4406	4406	4406	4406	4406	4406	4406	4406	4406	4406	4406	4406	4406	4406	4406	4406	4463	4406	4406	4406	4406	4406	4463	4406	4406	4406	4406	4406	4350	4350	4350	3341	3341	3341	3309	3309	3309	3309	3277	3277	3277	3277	3309	3277	3277	3277	3277	3246	3246	4350	4350	4296	4296	4296	4296	4296	4296	4296	4296	4296	4296	4296	4296	3309	3309	3277	3277	3277	3277	3246	3246	3246	3246	3246	3277	3277	3277	3277	3277	4243	4243	4296	4296	4243	4243	4243	4243	4296	4296	4296	4296	4296	4296	4296	4296	4296	4296	4296	4296	4296	4296	4243	4243	4296	4296	4296	4296	4296	4296	4296	4296	4296	4296	4296	4296	4296	4296	4296	4296	4296	4243	4243	4243	4243	4243	4296	4296	4296	4296	4296	4296	4296	4296	4296	4296	4296	4243	4296	4243	4243	4296	4243	4243	4243	4243	4243	4296	4296	4296	4296	4296	4296	4296	4296	4296	4296	4243	4243	4296	4296	4296	4296	4296	4296	4296	4296	4296	4296	4296	4296	4296	4296	4243	4243	4243	4243	4243	4243	4243	4296	4296	4296	4296	4296	4243	4243	4243	4243	4243	4243	4243	4243	4296	4296	4296	4296	4296	4296	4296	4243	4243	4296	4243	4243	4243	4243	4243	4243	4243	4192	4192	4243	4192	4192	4192	4192	4643	4643	4643	0	0	0	0	0	0	0	0	0	0	0	7608	7608	7444	7444	7287	7287	7137	7137	7137	7137	7137	7137	6992	7137	6992	6992	6992	6992	6992	6992	6992	6853	6853	6992	6853	6853	6853	6992	6853	6853	6720	6720	6592	6592	0	0	0	0	0	0	0	0	0	0	0	0	0	0	0	0	0	0	0	0	0	0	0	0	0	0	0	0	0	0	0	0	0	0	0	0	0	0	0	0	0	0	0	0	0	0	0	0	0	0	0	0	0	0	0	0	0	0	0	0	0	0	0	0	0	0	0	0	0	0	0	0	0	0	0	0	0	0	0	0	0	0	0	0	0	0	0	0	0	0	0	0	0	0	0
0	0	0	0	0	0	0	0	0	0	0	0	1352	1352	1352	1352	1352	1352	1352	1352	1347	1347	1347	1347	1352	1352	1352	1352	1352	1352	1352	1352	1352	1352	1352	1347	1347	1352	1352	1352	1347	1352	1352	1352	1347	1347	1347	1352	1352	1352	1358	1363	1368	1379	1385	1390	1396	1396	1402	1407	1407	1419	1419	1425	1437	1443	1461	1467	1473	1480	1480	1486	1492	1499	1506	1512	1525	1539	1539	1546	1553	1560	1560	1567	1574	1581	1589	1603	1611	1618	1618	1626	1626	1649	1665	1681	1690	1690	1698	1706	1715	1706	1723	1741	1750	1768	1777	1777	1786	1786	1795	1814	1814	1863	1873	1873	1883	1883	1873	1873	1873	1883	1883	0	0	0	5535	5535	5535	5535	5535	5535	5535	5535	5626	5626	5535	5535	5535	5535	5535	5535	5535	5535	5626	5535	5535	5535	5535	5448	5448	5448	5448	5448	5448	5448	5448	5448	5448	5448	5448	5364	5364	4521	4521	4521	4521	4406	4350	4350	4350	4350	4350	4350	4350	4350	4350	4350	4463	4406	4406	4350	4350	4350	4350	4350	4350	4350	4350	4350	4350	4350	4350	4406	4350	4350	4406	4350	4350	4350	4350	4350	4350	4350	4350	4350	4350	4350	4406	4406	4350	4406	4350	4350	4350	4350	4350	4350	4350	4350	4350	4350	4350	4350	4350	4350	4350	4350	4350	4350	4350	4350	4350	4350	4350	4350	4350	4350	4350	4296	4350	4350	4350	4350	4406	4406	4350	4350	4350	4350	4350	4350	4350	4350	4350	4350	4350	4406	4350	4350	4350	4350	4350	4350	4406	4406	4406	4406	4350	4350	4350	4350	4406	4406	4463	4463	4463	4463	4463	4463	4463	4406	4406	4406	4406	4406	4406	4406	4406	4406	4406	4350	4406	4406	4406	4406	4406	4406	4406	4406	4406	4406	4406	4463	4406	4406	4463	4406	4406	4406	4350	3406	3373	3341	3341	3341	3309	3309	3309	3277	3277	3277	3277	3277	3277	3277	3277	3277	3216	3216	4406	4350	4350	4296	4296	4296	4296	4296	4296	4296	4296	4296	4296	4296	3309	3309	3309	3277	3277	3277	3246	3246	3246	3246	3246	3277	3277	3277	3277	3277	3277	4296	4296	4296	4296	4296	4296	4296	4296	4296	4296	4296	4296	4296	4296	4296	4296	4296	4296	4296	4296	4296	4243	4296	4296	4296	4296	4296	4296	4296	4296	4296	4296	4296	4296	4296	4296	4296	4296	4296	4296	4296	4243	4243	4243	4243	4296	4296	4296	4296	4296	4296	4296	4296	4296	4296	4243	4243	4243	4243	4243	4243	4243	4243	4243	4243	4243	4296	4296	4296	4296	4296	4296	4296	4296	4296	4296	4296	4296	4296	4296	4296	4296	4296	4296	4296	4296	4296	4296	4296	4296	4296	4296	4243	4243	4243	4243	4243	4243	4243	4296	4296	4296	4296	4296	4243	4243	4243	4243	4243	4243	4243	4243	4243	4243	4243	4243	4296	4243	4243	4243	4243	4243	4243	4243	4243	4243	4243	4243	4243	4192	4192	4192	4243	4243	4243	4521	4706	4706	4643	4706	4706	4706	0	0	0	0	0	0	0	0	7608	7444	7287	7444	7287	7137	7137	7137	7137	7137	7137	6992	6992	6992	6992	6992	6992	6853	6853	6992	6853	6853	6853	6720	6853	6853	6720	6720	6853	6592	6720	6592	6592	6592	6592	0	0	0	0	0	0	0	0	0	0	0	0	0	0	0	0	0	0	0	0	0	0	0	0	0	0	0	0	0	0	0	0	0	0	0	0	0	0	0	0	0	0	0	0	0	0	0	0	0	0	0	0	0	0	0	0	0	0	0	0	0	0	0	0	0	0	0	0	0	0	0	0	0	0	0	0	0	0	0	0	0	0	0	0	0	0	0	0	0	0	0	0	0	0
0	0	0	0	0	0	0	0	0	0	0	0	1347	1352	1352	1352	1352	1352	1352	1347	1347	1347	1347	1347	1347	1347	1352	1352	1352	1352	1352	1352	1352	1352	1347	1347	1347	1347	1347	1347	1342	1342	1347	1347	1347	1347	1347	1352	1352	1352	1358	1358	1368	1374	1374	1390	1390	1402	1413	1413	1413	1419	1419	1431	1437	1449	1461	1467	1473	1480	1480	1486	1492	1499	1512	1512	1525	1539	1539	1546	1553	1560	1567	1567	1567	1581	1589	1603	1603	1611	1618	1626	1641	1649	1665	1681	1690	1698	1698	1706	1715	1715	1723	1741	1750	1750	1768	1777	1777	1795	1795	1814	1853	1863	1873	1873	1873	1883	1873	1873	1873	1873	1883	0	0	0	5535	5535	5535	5535	5535	5448	5535	5535	5535	5535	5535	5448	5535	5448	5448	5448	5448	5448	5448	5535	5535	5535	5535	5448	5448	5448	5448	5448	5448	5448	5448	5448	5448	5448	5364	5364	5364	4521	4521	4521	4463	4350	4350	4350	4350	4350	4350	4406	4350	4350	4350	4350	4406	4406	4406	4350	4350	4350	4350	4350	4350	4350	4350	4350	4350	4350	4350	4406	4350	4350	4406	4350	4350	4406	4350	4350	4350	4350	4350	4406	4350	4406	4406	4350	4350	4406	4350	4406	4350	4406	4350	4350	4350	4350	4350	4350	4350	4350	4406	4350	4350	4350	4350	4350	4350	4350	4350	4350	4350	4350	4350	4350	4350	4296	4350	4350	4350	4350	4350	4350	4350	4350	4350	4350	4350	4350	4350	4350	4350	4350	4350	4350	4350	4350	4350	4350	4350	4350	4350	4350	4350	4406	4350	4350	4350	4406	4350	4406	4406	4406	4463	4406	4463	4463	4406	4406	4406	4406	4406	4406	4406	4350	4406	4350	4406	4350	4406	4406	4406	4406	4350	4406	4406	4406	4406	4406	4463	4463	4406	4406	4406	4406	4406	4350	4350	3406	3373	3341	3341	3341	3341	3309	3309	3277	3277	3277	3277	3277	3277	3277	3277	3246	3246	3246	4406	4350	4296	4296	4296	4296	4296	4296	4296	4296	4296	4296	4296	4296	3309	3309	3309	3277	3277	3277	3246	3246	3246	3246	3246	3246	3277	3277	3277	3277	3277	4243	4243	4296	4296	4296	4296	4296	4296	4296	4296	4296	4296	4296	4296	4296	4296	4296	4296	4296	4296	4296	4243	4296	4296	4243	4296	4243	4243	4296	4296	4296	4296	4296	4296	4296	4296	4296	4296	4296	4296	4296	4243	4243	4296	4243	4296	4296	4296	4296	4296	4296	4296	4296	4296	4296	4243	4243	4243	4243	4243	4243	4243	4243	4243	4243	4243	4243	4243	4243	4243	4243	4296	4296	4296	4296	4296	4296	4296	4296	4296	4296	4296	4296	4296	4296	4296	4296	4296	4296	4296	4296	4296	4243	4243	4243	4243	4243	4243	4243	4243	4296	4296	4296	4243	4243	4243	4243	4243	4243	4243	4243	4243	4243	4243	4243	4243	4243	4243	4243	4243	4243	4243	4243	4243	4192	4243	4243	4243	4192	4192	4192	4243	4243	4296	4406	4521	4581	4581	4643	4643	4706	4706	0	0	0	0	0	0	0	0	7608	7444	7287	7287	7287	7137	7137	7137	7137	7137	7137	6992	6992	6992	6992	6992	6992	6853	6992	6992	6992	6853	6853	6853	6853	6720	6720	6720	6592	6592	6592	6468	6468	6349	6349	0	0	0	0	0	0	0	0	0	0	0	0	0	0	0	0	0	0	0	0	0	0	0	0	0	0	0	0	0	0	0	0	0	0	0	0	0	0	0	0	0	0	0	0	0	0	0	0	0	0	0	0	0	0	0	0	0	0	0	0	0	0	0	0	0	0	0	0	0	0	0	0	0	0	0	0	0	0	0	0	0	0	0	0	0	0	0	0	0	0	0	0	0	0
0	0	0	0	0	0	0	0	0	0	0	0	1352	1352	1352	1352	1352	1352	1352	1352	1352	1347	1347	1352	1352	1352	1352	1352	1352	1352	1347	1347	1347	1347	1347	1347	1347	1347	1342	1342	1342	1342	1342	1347	1347	1347	1347	1352	1352	1352	1352	1358	1358	1374	1390	1396	1402	1402	1407	1413	1413	1419	1425	1437	1437	1443	1455	1467	1467	1480	1480	1486	1486	1499	1512	1519	1532	1539	1539	1546	1553	1560	1567	1567	1574	1581	1596	1603	1611	1618	1626	1626	1626	1649	1665	1681	1690	1698	1698	1690	1715	1715	1723	1723	1750	1768	1777	1786	1786	1795	1804	1814	1843	1863	1873	1873	1873	1883	1873	1873	1873	1873	0	0	0	0	5535	5535	5535	5535	5535	5535	5535	5535	5535	5535	5535	5448	5448	5448	5448	5448	5448	5448	5448	5448	5535	5535	5535	5448	5448	5535	5448	5448	5448	5448	5448	5448	5448	5448	5364	5448	5448	4521	4521	4521	4463	4350	4350	4350	4350	4350	4350	4350	4350	4406	4350	4406	4406	4406	4406	4350	4350	4350	4350	4350	4350	4350	4350	4350	4350	4350	4350	4406	4406	4350	4350	4350	4350	4406	4350	4350	4350	4350	4350	4350	4350	4350	4350	4350	4406	4463	4406	4463	4463	4406	4406	4350	4350	4350	4350	4350	4350	4350	4406	4350	4350	4350	4350	4350	4350	4350	4350	4350	4350	4350	4350	4350	4350	4296	4350	4350	4350	4350	4350	4350	4350	4296	4350	4350	4350	4350	4350	4350	4350	4350	4350	4350	4350	4350	4350	4350	4350	4350	4350	4350	4350	4350	4350	4350	4350	4406	4350	4406	4406	4406	4406	4406	4406	4463	4406	4406	4406	4406	4406	4406	4406	4350	4406	4406	4406	4350	4406	4406	4406	4350	4350	4350	4350	4350	4350	4406	4406	4463	4406	4406	4406	4406	4406	4350	4350	4350	3373	3341	3341	3341	3309	3309	3309	3277	3277	3277	3277	3277	3277	3277	3246	3246	3216	3216	4406	4350	4296	4296	4296	4296	4296	4296	4296	4296	4296	4243	4296	4296	3277	3277	3277	3277	3277	3246	3246	3246	3246	3246	3246	3246	3277	3277	3277	3277	4243	4243	4296	4296	4296	4296	4296	4296	4296	4296	4296	4296	4296	4296	4296	4296	4296	4296	4296	4296	4296	4296	4296	4296	4296	4296	4296	4296	4296	4296	4296	4296	4296	4296	4296	4296	4296	4296	4296	4296	4296	4296	4296	4296	4296	4296	4296	4296	4296	4296	4296	4296	4296	4296	4296	4296	4243	4243	4243	4243	4243	4243	4243	4243	4243	4243	4243	4243	4243	4243	4243	4243	4243	4243	4243	4296	4296	4296	4296	4296	4296	4296	4296	4296	4296	4296	4296	4296	4296	4296	4296	4296	4296	4296	4243	4243	4243	4243	4296	4243	4243	4296	4296	4243	4243	4243	4243	4243	4243	4296	4243	4243	4243	4243	4243	4243	4243	4243	4243	4243	4243	4243	4243	4243	4243	4192	4243	4243	4192	4192	4192	4192	4243	4296	4350	4406	4521	4521	4581	4581	4581	4706	4706	0	0	0	0	0	0	0	0	7444	7444	7287	7287	7287	7287	7137	7137	7137	7137	7137	7137	6992	6992	6992	6992	6992	6992	6992	6992	6992	6853	6853	6853	6853	6720	6720	6720	6720	6592	6592	6468	6468	6349	6349	6349	0	0	0	0	0	0	0	0	0	0	0	0	0	0	0	0	0	0	0	0	0	0	0	0	0	0	0	0	0	0	0	0	0	0	0	0	0	0	0	0	0	0	0	0	0	0	0	0	0	0	0	0	0	0	0	0	0	0	0	0	0	0	0	0	0	0	0	0	0	0	0	0	0	0	0	0	0	0	0	0	0	0	0	0	0	0	0	0	0	0	0	0	0
0	0	0	0	0	0	0	0	0	0	0	0	1347	1352	1352	1352	1352	1352	1352	1352	1347	1352	1347	1352	1352	1352	1352	1352	1347	1347	1347	1347	1347	1347	1347	1347	1347	1347	1342	1342	1342	1342	1342	1347	1347	1347	1347	1347	1352	1352	1358	1363	1368	1374	1390	1396	1396	1402	1407	1413	1413	1425	1431	1437	1443	1449	1455	1467	1467	1473	1480	1480	1486	1499	1512	1519	1532	1539	1546	1546	1546	1553	1560	1567	1574	1581	1596	1603	1611	1618	1626	1634	1641	1657	1665	1681	1690	1690	1690	1690	1715	1723	1732	1741	1750	1768	1777	1786	1786	1795	1795	1814	1833	1863	1873	1873	1883	1883	1873	1873	1873	1873	0	0	0	5448	5626	5626	5535	5535	5535	5535	5535	5535	5535	5535	5448	5448	5448	5626	5448	5448	5448	5448	5448	5448	5448	5535	5535	5535	5448	5535	5448	5448	5448	5448	5448	5448	5448	5448	5364	5364	5364	4521	4521	4521	4406	4350	4350	4350	4350	4350	4350	4406	4406	4406	4406	4406	4406	4406	4350	4350	4350	4350	4350	4350	4350	4350	4350	4350	4350	4350	4350	4350	4406	4350	4350	4350	4350	4350	4350	4350	4350	4350	4350	4350	4350	4350	4350	4406	4406	4463	4406	4463	4463	4406	4350	4350	4350	4350	4350	4350	4350	4406	4406	4350	4350	4350	4350	4350	4350	4350	4350	4350	4350	4350	4350	4350	4350	4296	4350	4350	4296	4350	4350	4350	4350	4296	4350	4350	4350	4350	4350	4350	4350	4350	4350	4350	4350	4350	4350	4350	4350	4350	4350	4350	4350	4350	4350	4350	4350	4350	4350	4406	4406	4406	4406	4406	4406	4406	4406	4406	4406	4406	4406	4406	4406	4350	4406	4406	4406	4350	4350	4350	4406	4350	4350	4350	4350	4350	4350	4406	4406	4406	4406	4406	4406	4406	4406	4350	4350	4350	4350	3341	3341	3341	3309	3309	3309	3277	3277	3277	3277	3277	3277	3277	3246	3246	3246	4406	4406	4350	4350	4350	4350	4296	4296	4296	4296	4296	4296	4296	4296	4296	3309	3309	3277	3277	3277	3246	3246	3246	3246	3246	3246	3246	3277	3277	3277	3277	4243	4243	4243	4243	4243	4296	4296	4296	4296	4296	4296	4296	4296	4296	4296	4296	4296	4296	4296	4296	4296	4296	4243	4296	4296	4296	4296	4296	4296	4296	4296	4296	4296	4296	4296	4296	4296	4296	4296	4296	4296	4296	4296	4296	4296	4296	4296	4296	4296	4296	4296	4296	4296	4296	4296	4243	4243	4243	4243	4243	4243	4243	4243	4243	4243	4243	4243	4243	4243	4243	4243	4243	4243	4243	4243	4243	4296	4296	4296	4296	4296	4296	4296	4296	4296	4296	4296	4296	4296	4296	4296	4296	4296	4296	4243	4243	4243	4243	4296	4243	4243	4243	4243	4243	4243	4243	4243	4243	4243	4243	4243	4243	4243	4243	4243	4243	4243	4243	4243	4243	4243	4243	4243	4243	4243	4243	4243	4243	4243	4243	4192	4192	4243	4296	4350	4463	4521	4521	4581	4521	4463	4463	0	0	0	0	0	0	0	0	0	7444	7444	7287	7287	7287	7137	7137	7137	7137	7137	7137	7137	7137	6992	6992	6992	6992	6992	6992	6992	6992	6853	6853	6853	6853	6853	6720	6720	6592	6592	6592	6468	6468	6349	6349	6349	0	0	0	0	0	0	0	0	0	0	0	0	0	0	0	0	0	0	0	0	0	0	0	0	0	0	0	0	0	0	0	0	0	0	0	0	0	0	0	0	0	0	0	0	0	0	0	0	0	0	0	0	0	0	0	0	0	0	0	0	0	0	0	0	0	0	0	0	0	0	0	0	0	0	0	0	0	0	0	0	0	0	0	0	0	0	0	0	0	0	0	0	0
0	0	0	0	0	0	0	0	0	0	0	0	1352	1352	1352	1352	1352	1352	1352	1352	1352	1352	1347	1347	1347	1352	1352	1347	1347	1347	1347	1347	1347	1347	1347	1347	1342	1342	1342	1342	1342	1336	1336	1342	1342	1347	1347	1347	1352	1352	1363	1374	1374	1385	1390	1396	1402	1402	1407	1413	1413	1419	1431	1437	1443	1455	1461	1467	1473	1480	1480	1486	1492	1499	1506	1512	1532	1539	1539	1546	1546	1553	1560	1567	1574	1581	1596	1596	1603	1611	1626	1634	1634	1649	1657	1673	1673	1698	1698	1715	1715	1723	1732	1741	1750	1759	1777	1777	1786	1795	1804	1814	1824	1863	1873	1873	1883	1883	1883	1883	1883	1883	0	0	0	5448	5448	5626	5535	5535	5535	5535	5535	5535	5535	5535	5448	5448	5448	5448	5448	5448	5448	5448	5448	5626	5535	5535	5535	5535	5448	5448	5448	5448	5535	5448	5448	5448	5448	5448	5364	5364	5364	4521	4521	4463	4406	4406	4350	4350	4350	4350	4406	4406	4406	4406	4406	4406	4406	4350	4350	4350	4350	4350	4350	4350	4350	4350	4350	4350	4350	4406	4350	4350	4406	4350	4350	4350	4350	4350	4350	4350	4350	4350	4350	4350	4350	4350	4350	4350	4406	4406	4406	4406	4406	4406	4406	4350	4350	4406	4406	4406	4350	4350	4406	4350	4350	4350	4350	4350	4350	4350	4350	4406	4350	4350	4350	4350	4350	4296	4296	4350	4296	4350	4350	4350	4350	4296	4296	4350	4350	4350	4350	4350	4350	4350	4350	4350	4350	4350	4350	4350	4350	4350	4350	4350	4350	4350	4350	4350	4350	4350	4406	4406	4406	4406	4406	4406	4406	4406	4406	4406	4406	4406	4406	4406	4406	4406	4406	4406	4406	4350	4350	4350	4350	4350	4350	4350	4350	4350	4350	4406	4463	4463	4406	4406	4406	4406	4406	4350	4350	4296	4350	3341	3341	3341	3341	3309	3309	3277	3277	3277	3277	3277	3277	3277	3246	3246	3246	4406	4406	4350	4296	4296	4296	4296	4296	4296	4296	4296	4296	4296	4296	4296	3277	3277	3277	3277	3277	3246	3246	3246	3246	3246	3277	3246	3246	3277	3277	3309	4243	4296	4296	4296	4296	4296	4296	4296	4296	4296	4296	4296	4296	4296	4296	4296	4296	4296	4296	4296	4296	4296	4296	4296	4296	4296	4296	4296	4296	4296	4296	4296	4296	4296	4296	4296	4296	4296	4296	4296	4296	4296	4296	4296	4296	4296	4296	4296	4296	4296	4296	4296	4296	4296	4296	4243	4243	4243	4243	4243	4243	4243	4243	4243	4243	4243	4243	4243	4243	4243	4243	4243	4243	4243	4243	4243	4296	4296	4296	4296	4296	4296	4296	4296	4296	4296	4296	4296	4296	4296	4296	4296	4296	4296	4243	4243	4243	4243	4243	4243	4243	4243	4243	4243	4243	4243	4243	4243	4243	4243	4243	4243	4243	4243	4243	4243	4243	4243	4243	4243	4243	4243	4243	4243	4243	4243	4243	4243	4243	4243	4192	4243	4243	4296	4350	4463	4521	4521	4581	4521	4521	4521	0	0	0	0	0	0	0	0	0	7444	7444	7287	7287	7287	7287	7137	7137	7137	7137	7137	7137	6992	6992	6992	6992	6992	6853	6992	6992	6853	6853	6853	6853	6853	6853	6592	6592	6592	6592	6592	6468	6468	6349	6235	6124	6018	6018	0	0	0	0	0	0	0	0	0	0	0	0	0	0	0	0	0	0	0	0	0	0	0	0	0	0	0	0	0	0	0	0	0	0	0	0	0	0	0	0	0	0	0	0	0	0	0	0	0	0	0	0	0	0	0	0	0	0	0	0	0	0	0	0	0	0	0	0	0	0	0	0	0	0	0	0	0	0	0	0	0	0	0	0	0	0	0	0	0	0	0
0	0	0	0	0	0	0	0	0	0	0	0	1352	1352	1352	1352	1352	1352	1352	1352	1352	1352	1347	1347	1347	1347	1347	1347	1347	1347	1347	1347	1347	1347	1347	1342	1342	1336	1336	1336	1336	1336	1336	1342	1342	1347	1347	1347	1352	1358	1363	1368	1385	1385	1390	1396	1396	1402	1407	1413	1419	1425	1431	1437	1443	1449	1455	1467	1467	1473	1480	1486	1492	1499	1506	1512	1532	1539	1553	1546	1546	1553	1560	1567	1574	1574	1589	1603	1611	1611	1611	1626	1634	1634	1657	1665	1690	1698	1698	1715	1715	1723	1732	1732	1750	1768	1768	1786	1795	1795	1804	1814	1814	1853	1873	1883	1883	1883	1883	1883	1883	1883	0	0	0	5448	5448	5535	5535	5535	5535	5535	5535	5535	5535	5535	5535	5448	5448	5448	5448	5448	5448	5448	5448	5535	5535	5448	5535	5448	5448	5535	5448	5448	5448	5448	5448	5448	5448	5448	5364	5364	5364	4521	4521	4463	4406	4406	4350	4350	4406	4350	4406	4406	4406	4463	4406	4463	4406	4406	4350	4350	4350	4350	4350	4350	4350	4350	4350	4350	4350	4350	4350	4350	4350	4350	4350	4350	4406	4406	4350	4350	4350	4350	4350	4350	4296	4350	4350	4350	4406	4406	4406	4406	4406	4406	4406	4350	4350	4406	4350	4350	4350	4350	4350	4350	4350	4350	4350	4350	4350	4350	4406	4406	4350	4350	4350	4350	4350	4296	4296	4296	4296	4350	4350	4350	4350	4296	4350	4350	4350	4350	4350	4350	4350	4350	4350	4350	4350	4350	4350	4350	4350	4350	4350	4350	4350	4350	4350	4350	4350	4350	4406	4406	4406	4406	4406	4406	4406	4463	4406	4406	4406	4406	4463	4406	4406	4406	4406	4406	4406	4350	4350	4350	4350	4350	4350	4350	4350	4350	4350	4350	4463	4406	4406	4406	4406	4406	4406	4350	4350	4350	4350	4350	3341	3341	3341	3341	3309	3277	3277	3277	3277	3277	3277	3246	3246	3309	3309	4463	4406	4350	4296	4296	4296	4296	4296	4296	4296	4296	4296	4296	4296	4296	4296	3277	3277	3277	3277	3246	3246	3246	3246	3246	3246	3246	3277	3277	3309	3309	4296	4296	4296	4296	4296	4296	4296	4296	4296	4296	4296	4296	4296	4243	4243	4296	4296	4296	4296	4296	4296	4296	4296	4296	4296	4296	4296	4296	4296	4296	4296	4296	4296	4296	4296	4296	4296	4296	4296	4296	4296	4296	4296	4296	4296	4296	4296	4296	4296	4296	4296	4296	4296	4296	4296	4243	4243	4243	4243	4243	4243	4243	4243	4243	4243	4243	4243	4243	4243	4243	4243	4243	4243	4243	4243	4243	4296	4296	4296	4296	4296	4296	4296	4296	4296	4296	4296	4296	4296	4296	4296	4243	4296	4296	4243	4243	4243	4243	4243	4243	4243	4243	4243	4243	4243	4243	4243	4243	4243	4243	4243	4243	4243	4243	4243	4243	4243	4243	4243	4243	4243	4243	4243	4243	4243	4243	4243	4243	4243	4243	4192	4243	4243	4296	4350	4463	4521	4521	4581	4643	4521	4706	4706	0	0	0	0	0	0	0	0	7287	7444	7287	7137	6992	7287	7137	7137	7287	7287	7137	7137	7137	6992	6992	6992	6853	6853	6992	6992	6853	6853	6853	6853	6853	6720	6592	6592	6592	6468	6468	6468	6468	6349	6349	6235	6124	6124	0	0	0	0	0	0	0	0	0	0	0	0	0	0	0	0	0	0	0	0	0	0	0	0	0	0	0	0	0	0	0	0	0	0	0	0	0	0	0	0	0	0	0	0	0	0	0	0	0	0	0	0	0	0	0	0	0	0	0	0	0	0	0	0	0	0	0	0	0	0	0	0	0	0	0	0	0	0	0	0	0	0	0	0	0	0	0	0	0	0	0
0	0	0	0	0	0	0	0	0	0	0	0	1352	1352	1352	1352	1352	1358	1358	1358	1358	1352	1352	1352	1347	1347	1347	1347	1347	1347	1347	1347	1347	1347	1342	1336	1336	1336	1336	1336	1336	1336	1336	1342	1342	1342	1347	1347	1352	1363	1368	1368	1385	1385	1390	1396	1396	1402	1413	1413	1419	1425	1431	1437	1443	1449	1455	1467	1467	1473	1473	1480	1480	1499	1506	1512	1532	1539	1546	1553	1546	1553	1567	1567	1574	1574	1596	1596	1611	1611	1618	1626	1634	1634	1657	1665	1681	1690	1698	1715	1715	1723	1732	1732	1741	1759	1768	1786	1795	1795	1804	1804	1814	1833	1873	1873	1883	1883	1883	1883	1883	0	0	0	0	5448	5448	5535	5535	5535	5535	5535	5535	5535	5535	5535	5535	5535	5535	5535	5448	5448	5448	5535	5535	5535	5535	5535	5535	5535	5448	5535	5535	5448	5448	5448	5448	5448	5448	5448	5364	5364	5364	4521	4521	4463	4463	4406	4350	4350	4406	4350	4406	4406	4406	4406	4406	4350	4406	4406	4350	4350	4350	4350	4350	4350	4350	4350	4350	4350	4350	4350	4350	4350	4350	4350	4350	4350	4350	4350	4350	4350	4350	4350	4350	4350	4296	4350	4350	4350	4350	4406	4406	4406	4406	4406	4406	4350	4406	4406	4350	4350	4350	4350	4350	4350	4350	4350	4350	4350	4350	4350	4406	4406	4350	4350	4350	4350	4350	4296	4296	4350	4296	4350	4350	4296	4296	4350	4350	4350	4350	4350	4350	4350	4350	4350	4350	4350	4350	4350	4350	4350	4350	4350	4350	4350	4350	4350	4350	4350	4350	4350	4350	4350	4406	4406	4406	4406	4406	4463	4463	4406	4406	4463	4463	4463	4406	4406	4406	4406	4406	4406	4350	4350	4350	4350	4350	4350	4350	4350	4350	4350	4406	4406	4406	4406	4406	4406	4406	4350	4350	4350	4350	3341	3341	3341	3341	3341	3309	3277	3277	3277	3277	3277	3277	3246	3246	3246	3246	4406	4350	4350	4296	4296	4296	4296	4296	4296	4296	4296	4296	4296	4296	4296	3277	3277	3246	3246	3246	3246	3246	3246	3216	3216	3246	3246	3246	3277	3309	3309	4296	4296	4296	4296	4296	4296	4296	4296	4296	4296	4296	4243	4243	4243	4243	4296	4243	4296	4296	4296	4296	4296	4296	4296	4296	4296	4296	4296	4296	4296	4296	4296	4296	4296	4296	4296	4296	4296	4296	4296	4296	4296	4296	4296	4296	4296	4296	4296	4296	4296	4296	4296	4296	4296	4296	4296	4296	4243	4243	4243	4243	4243	4243	4243	4243	4243	4296	4243	4296	4243	4296	4296	4243	4243	4243	4243	4296	4296	4296	4296	4296	4296	4296	4296	4296	4296	4296	4296	4296	4296	4296	4296	4296	4296	4296	4243	4296	4243	4243	4243	4243	4243	4243	4243	4243	4243	4243	4243	4243	4243	4243	4243	4243	4243	4243	4243	4243	4243	4243	4243	4243	4243	4243	4243	4243	4243	4243	4243	4243	4243	4243	4243	4243	4296	4296	4406	4521	4521	4581	4643	4521	4706	4706	4706	0	0	0	0	0	0	0	7137	7287	7287	7287	7137	7287	7137	7137	7137	7137	7137	7137	7137	6992	6992	6992	6992	6992	6992	6992	6853	6853	6853	6853	6853	6720	6592	6592	6592	6468	6468	6468	6468	6349	6349	6349	6349	6235	6235	0	0	0	0	0	0	0	0	0	0	0	0	0	0	0	0	0	0	0	0	0	0	0	0	0	0	0	0	0	0	0	0	0	0	0	0	0	0	0	0	0	0	0	0	0	0	0	0	0	0	0	0	0	0	0	0	0	0	0	0	0	0	0	0	0	0	0	0	0	0	0	0	0	0	0	0	0	0	0	0	0	0	0	0	0	0	0	0	0	0
0	0	0	0	0	0	0	0	0	0	0	0	1352	1352	1352	1352	1352	1352	1352	1352	1358	1352	1352	1352	1352	1347	1347	1347	1347	1347	1347	1347	1347	1347	1347	1342	1336	1336	1336	1336	1336	1336	1336	1342	1336	1342	1347	1347	1352	1358	1368	1374	1390	1390	1396	1396	1402	1407	1413	1419	1425	1431	1431	1437	1443	1449	1461	1461	1467	1473	1473	1486	1486	1499	1506	1512	1525	1539	1546	1553	1546	1553	1553	1553	1574	1581	1596	1603	1611	1611	1618	1618	1626	1626	1657	1665	1681	1690	1698	1715	1723	1723	1732	1732	1741	1759	1768	1777	1795	1804	1804	1804	1804	1824	1863	1873	1883	1883	1883	1883	1883	0	0	0	0	5448	5448	5535	5448	5535	5535	5535	5535	5535	5535	5535	5535	5535	5535	5626	5626	5535	5535	5535	5535	5535	5535	5448	5448	5448	5448	5448	5448	5448	5448	5448	5448	5448	5448	5448	5364	5364	5364	4521	4521	4463	4463	4406	4350	4350	4406	4350	4406	4406	4406	4463	4463	4463	4406	4406	4350	4350	4350	4350	4350	4350	4350	4350	4350	4350	4350	4350	4350	4350	4350	4350	4350	4350	4350	4350	4350	4350	4350	4350	4350	4350	4296	4350	4350	4350	4350	4350	4350	4350	4350	4406	4406	4406	4406	4406	4350	4350	4350	4350	4350	4350	4350	4350	4350	4350	4350	4350	4406	4406	4350	4350	4350	4350	4350	4296	4350	4350	4350	4350	4350	4350	4296	4296	4296	4350	4350	4406	4350	4350	4350	4350	4350	4350	4350	4350	4350	4350	4350	4350	4350	4350	4350	4350	4350	4350	4350	4350	4350	4350	4406	4406	4406	4406	4406	4406	4406	4406	4406	4406	4406	4406	4406	4406	4406	4406	4406	4406	4350	4350	4350	4350	4350	4350	4350	4350	4350	4406	4406	4406	4406	4406	4406	4406	4406	4350	4350	4350	4350	3341	3309	3309	3309	3341	3309	3277	3277	3277	3277	3277	3277	3277	3246	3246	3246	4350	4350	4296	4296	4296	4296	4296	4296	4296	4296	4296	4296	4296	4296	4296	3277	3277	3277	3277	3246	3246	3246	3246	3216	3216	3246	3246	3246	3277	3277	4296	4296	4296	4296	4296	4296	4296	4296	4296	4296	4243	4296	4296	4243	4243	4243	4296	4243	4296	4296	4296	4296	4296	4296	4296	4296	4296	4296	4296	4296	4296	4296	4296	4296	4296	4296	4296	4296	4296	4296	4296	4296	4296	4296	4296	4296	4296	4296	4296	4296	4296	4296	4296	4296	4296	4296	4296	4296	4296	4243	4296	4296	4243	4243	4243	4243	4243	4296	4243	4243	4243	4243	4296	4243	4243	4243	4243	4296	4296	4296	4296	4296	4296	4296	4296	4296	4296	4296	4296	4296	4296	4296	4296	4296	4296	4296	4296	4296	4296	4243	4243	4243	4243	4243	4243	4243	4243	4243	4243	4243	4243	4243	4243	4243	4296	4243	4243	4243	4243	4243	4243	4243	4243	4243	4243	4243	4243	4243	4243	4243	4243	4243	4243	4243	4243	4296	4296	4296	4643	4643	4643	4706	4706	4706	4706	4643	4643	0	0	0	0	0	7137	7287	7137	7137	7137	7137	7137	7137	7137	7137	7137	7137	7137	6992	6992	6992	6992	6992	6992	6992	6992	6992	6992	6853	6853	6720	6592	6592	6592	6468	6468	6468	6468	6349	6349	6468	6349	6349	6124	6124	6124	0	0	0	0	0	0	0	0	0	0	0	0	0	0	0	0	0	0	0	0	0	0	0	0	0	0	0	0	0	0	0	0	0	0	0	0	0	0	0	0	0	0	0	0	0	0	0	0	0	0	0	0	0	0	0	0	0	0	0	0	0	0	0	0	0	0	0	0	0	0	0	0	0	0	0	0	0	0	0	0	0	0	0	0	0	0	0	0
0	0	0	0	0	0	0	0	0	0	0	0	1352	1352	1352	1347	1352	1352	1347	1352	1352	1352	1352	1352	1352	1347	1347	1347	1347	1347	1347	1347	1347	1347	1342	1336	1336	1336	1336	1336	1336	1336	1336	1342	1342	1342	1342	1347	1352	1368	1379	1385	1385	1390	1396	1396	1402	1407	1413	1419	1419	1425	1431	1437	1443	1449	1455	1461	1467	1473	1473	1480	1486	1499	1512	1512	1525	1532	1532	1546	1546	1546	1553	1560	1574	1581	1596	1603	1611	1611	1611	1618	1626	1626	1657	1665	1673	1681	1698	1715	1715	1723	1732	1732	1741	1759	1768	1777	1795	1804	1804	1804	1804	1824	1873	1883	1894	1894	1883	1883	1883	0	0	0	0	5448	5448	5448	5448	5535	5535	5535	5535	5626	5626	5626	5626	5626	5535	5626	5626	5535	5535	5535	5535	5535	5448	5448	5448	5448	5448	5448	5448	5448	5448	5448	5448	5448	5448	5448	5364	5364	4463	4521	4521	4463	4463	4406	4406	4406	4406	4406	4406	4406	4406	4463	4406	4406	4350	4406	4350	4350	4350	4350	4406	4350	4350	4350	4350	4350	4350	4350	4350	4350	4350	4350	4296	4350	4350	4350	4350	4350	4350	4350	4350	4350	4296	4350	4350	4350	4350	4350	4350	4350	4350	4350	4350	4350	4406	4350	4350	4350	4350	4350	4350	4350	4350	4296	4296	4350	4296	4296	4350	4350	4350	4350	4350	4350	4350	4296	4296	4350	4350	4296	4296	4296	4296	4296	4296	4350	4350	4350	4350	4350	4350	4350	4350	4350	4350	4350	4350	4350	4350	4350	4350	4350	4350	4350	4350	4350	4350	4350	4350	4350	4350	4406	4350	4406	4463	4463	4463	4406	4406	4406	4406	4406	4406	4406	4406	4406	4406	4350	4350	4350	4350	4350	4350	4350	4350	4350	4350	4406	4406	4406	4406	4406	4406	4406	4406	4350	4350	4350	4350	3309	3309	3309	3309	3341	3309	3277	3277	3277	3277	3277	3277	3277	3246	3246	3246	4296	4296	4296	4296	4296	4296	4296	4296	4296	4296	4296	4296	4296	4296	4296	4296	3277	3277	3246	3246	3246	3216	3216	3216	3216	3216	3216	3246	3246	3246	4296	4296	4296	4296	4296	4296	4296	4296	4296	4296	4243	4243	4296	4243	4243	4243	4243	4243	4296	4296	4296	4296	4296	4296	4296	4296	4296	4296	4296	4296	4296	4296	4296	4296	4296	4296	4296	4296	4296	4296	4296	4296	4296	4296	4296	4296	4296	4296	4296	4296	4296	4296	4296	4296	4296	4296	4296	4296	4296	4243	4296	4296	4243	4243	4243	4243	4243	4296	4296	4243	4243	4243	4243	4243	4243	4243	4243	4296	4296	4243	4296	4296	4296	4296	4296	4296	4296	4296	4296	4296	4243	4243	4243	4243	4243	4296	4243	4296	4296	4296	4243	4243	4243	4243	4243	4243	4243	4243	4243	4243	4243	4243	4243	4243	4296	4296	4296	4296	4243	4243	4243	4243	4243	4243	4243	4192	4243	4243	4243	4243	4243	4243	4243	4243	4243	4243	4243	4243	4706	4706	4706	4706	4706	4643	4643	4643	4643	0	0	0	0	0	7287	7287	7137	7287	7287	7287	7444	7444	7287	7287	7137	7137	7137	6992	6992	6992	6992	6992	6992	6992	6853	6853	6853	6853	6853	6720	6592	6592	6592	6468	6468	6468	6468	6468	6468	6468	6468	6349	6235	6235	6235	0	0	0	0	0	0	0	0	0	0	0	0	0	0	0	0	0	0	0	0	0	0	0	0	0	0	0	0	0	0	0	0	0	0	0	0	0	0	0	0	0	0	0	0	0	0	0	0	0	0	0	0	0	0	0	0	0	0	0	0	0	0	0	0	0	0	0	0	0	0	0	0	0	0	0	0	0	0	0	0	0	0	0	0	0	0	0	0
0	0	0	0	0	0	0	0	0	0	0	0	1352	1352	1352	1352	1352	1352	1358	1358	1358	1352	1352	1352	1352	1347	1347	1342	1347	1347	1342	1342	1342	1342	1342	1336	1336	1336	1336	1336	1336	1342	1342	1342	1342	1342	1342	1347	1352	1358	1368	1374	1374	1390	1396	1396	1402	1407	1413	1419	1419	1419	1425	1431	1443	1449	1455	1461	1467	1467	1473	1486	1486	1499	1499	1512	1519	1532	1539	1546	1539	1546	1553	1560	1567	1574	1596	1603	1611	1611	1618	1618	1626	1634	1641	1657	1665	1681	1690	1698	1715	1723	1732	1732	1741	1759	1768	1777	1795	1804	1804	1804	1804	1824	1853	1883	1894	1894	1883	1883	1883	0	0	0	0	5535	5535	5535	5448	5448	5626	5626	5626	5626	5626	5626	5626	5535	5535	5535	5535	5535	5535	5535	5535	5535	5448	5448	5448	5448	5448	5448	5448	5448	5448	5448	5448	5448	5364	5364	5364	4521	4463	4463	4463	4463	4463	4406	4406	4406	4406	4406	4406	4406	4406	4406	4406	4406	4350	4350	4350	4406	4350	4406	4406	4350	4350	4350	4350	4350	4350	4350	4350	4350	4350	4296	4296	4350	4350	4350	4350	4350	4350	4350	4350	4350	4350	4350	4350	4350	4350	4350	4350	4350	4350	4350	4350	4350	4350	4350	4350	4350	4350	4350	4296	4350	4296	4296	4296	4296	4296	4350	4350	4350	4350	4350	4350	4350	4350	4296	4296	4350	4350	4296	4296	4296	4296	4296	4296	4350	4350	4406	4406	4350	4350	4350	4406	4406	4350	4350	4350	4350	4350	4350	4350	4350	4350	4350	4350	4350	4350	4350	4350	4350	4350	4406	4406	4406	4406	4406	4406	4406	4406	4406	4406	4406	4406	4406	4406	4406	4350	4350	4350	4350	4350	4350	4350	4350	4350	4350	4350	4406	4406	4406	4406	4406	4406	4406	4406	4350	4350	4406	4406	4406	3309	3309	3309	3341	3309	3277	3277	3277	3277	3277	3277	3277	3246	3246	4296	4296	4296	4296	4296	4296	4296	4296	4296	4296	4296	4296	4296	4296	4296	4296	4296	3277	3277	3277	3246	3246	3246	3216	3216	3216	3216	3216	3216	3246	3246	4296	4296	4296	4296	4296	4296	4296	4296	4296	4296	4296	4296	4243	4243	4243	4243	4243	4243	4296	4296	4296	4296	4296	4296	4296	4296	4296	4296	4296	4296	4296	4296	4296	4296	4296	4296	4296	4296	4296	4296	4296	4296	4296	4296	4296	4243	4296	4296	4296	4296	4296	4296	4296	4296	4296	4296	4296	4296	4296	4296	4296	4296	4296	4296	4243	4243	4243	4296	4296	4243	4243	4243	4243	4243	4243	4243	4243	4296	4243	4243	4243	4243	4243	4243	4243	4296	4243	4243	4243	4243	4243	4243	4243	4243	4243	4243	4243	4296	4243	4243	4243	4243	4243	4243	4243	4192	4192	4243	4243	4243	4243	4243	4243	4296	4296	4296	4296	4296	4296	4296	4243	4243	4192	4243	4243	4192	4243	4243	4243	4243	4243	4243	4243	4243	4243	4243	4243	4243	4296	4706	4706	4706	4706	4643	4643	4643	0	0	0	0	0	0	7287	7287	7287	7444	7444	7444	7444	7444	7287	7137	7137	6992	6992	6992	6992	6992	6992	6992	6992	6992	6853	6992	6992	6853	6853	6853	6720	6720	6592	6592	6592	6468	6468	6468	6468	6468	6468	6349	6235	6349	6349	0	0	0	0	0	0	0	0	0	0	0	0	0	0	0	0	0	0	0	0	0	0	0	0	0	0	0	0	0	0	0	0	0	0	0	0	0	0	0	0	0	0	0	0	0	0	0	0	0	0	0	0	0	0	0	0	0	0	0	0	0	0	0	0	0	0	0	0	0	0	0	0	0	0	0	0	0	0	0	0	0	0	0	0	0	0	0	0
0	0	0	0	0	0	0	0	0	0	0	0	1352	1352	1352	1352	1352	1352	1352	1352	1352	1352	1352	1352	1352	1347	1347	1342	1342	1342	1342	1342	1342	1342	1342	1336	1336	1331	1336	1336	1336	1336	1336	1342	1342	1342	1342	1347	1352	1358	1368	1374	1379	1390	1396	1396	1396	1407	1413	1419	1419	1419	1425	1431	1443	1449	1455	1461	1461	1467	1467	1486	1492	1506	1512	1512	1519	1532	1539	1546	1539	1546	1553	1560	1574	1581	1596	1603	1611	1618	1618	1626	1634	1634	1649	1657	1665	1681	1690	1698	1715	1723	1732	1732	1741	1759	1768	1777	1795	1795	1795	1804	1804	1833	1873	1883	1894	1894	1883	1883	1883	0	0	0	0	5535	5626	5626	5626	5535	5626	5626	5626	5626	5626	5626	5626	5535	5535	5535	5535	5535	5448	5535	5535	5535	5448	5448	5448	5448	5535	5535	5448	5448	5448	5448	5364	5448	5364	5364	4581	4521	4463	4463	4463	4406	4463	4406	4406	4406	4406	4406	4406	4406	4406	4406	4406	4406	4350	4350	4350	4406	4350	4350	4406	4350	4350	4350	4406	4406	4406	4350	4350	4350	4350	4350	4350	4350	4350	4406	4406	4406	4406	4350	4350	4350	4350	4350	4350	4350	4350	4296	4296	4350	4350	4350	4350	4350	4350	4350	4350	4350	4350	4296	4296	4296	4296	4296	4296	4296	4350	4350	4350	4350	4406	4350	4350	4350	4350	4350	4296	4350	4350	4350	4296	4350	4350	4350	4350	4350	4406	4406	4406	4350	4350	4350	4350	4350	4350	4350	4350	4350	4350	4350	4350	4350	4350	4350	4350	4350	4350	4350	4350	4350	4350	4350	4350	4350	4350	4406	4406	4406	4406	4406	4406	4406	4406	4406	4406	4350	4350	4350	4350	4350	4350	4350	4350	4350	4350	4350	4350	4350	4406	4406	4406	4406	4406	4406	4406	4350	4350	4406	4406	4463	4521	3309	3309	3341	3309	3277	3277	3277	3277	3277	3277	3277	3277	3246	3246	4296	4296	4296	4296	4296	4296	4296	4296	4296	4296	4296	4296	4296	4296	4296	4296	3277	3277	3277	3246	3246	3246	3246	3216	3216	3216	3216	3216	3216	4243	4296	4296	4296	4350	4296	4296	4296	4296	4296	4296	4296	4243	4296	4243	4243	4296	4296	4243	4296	4296	4296	4296	4296	4296	4296	4296	4296	4296	4296	4296	4296	4296	4296	4296	4296	4296	4296	4296	4296	4296	4296	4296	4296	4296	4243	4243	4296	4296	4296	4296	4296	4296	4296	4296	4296	4296	4296	4296	4296	4296	4296	4296	4296	4296	4243	4243	4243	4243	4243	4243	4243	4243	4243	4243	4243	4243	4243	4243	4243	4243	4243	4243	4243	4243	4243	4243	4243	4243	4243	4243	4243	4243	4243	4243	4296	4243	4243	4296	4243	4243	4243	4243	4243	4243	4192	4192	4192	4243	4243	4243	4243	4296	4243	4296	4296	4296	4296	4296	4296	4296	4243	4243	4243	4243	4243	4192	4192	4192	4243	4243	4243	4243	4243	4243	4296	4296	4296	4296	4296	4706	4706	4706	4643	4643	4643	4643	0	0	0	7444	7444	7287	7444	7287	7444	7444	7444	7444	7608	7444	7287	7287	7137	7137	6992	6992	6992	6992	6992	6992	6992	6992	6992	6992	6992	6992	6992	6853	6720	6720	6592	6592	6592	6592	6592	6592	6592	6592	6592	6468	6592	6468	6468	0	0	0	0	0	0	0	0	0	0	0	0	0	0	0	0	0	0	0	0	0	0	0	0	0	0	0	0	0	0	0	0	0	0	0	0	0	0	0	0	0	0	0	0	0	0	0	0	0	0	0	0	0	0	0	0	0	0	0	0	0	0	0	0	0	0	0	0	0	0	0	0	0	0	0	0	0	0	0	0	0	0	0	0	0	0	0	0
0	0	0	0	0	0	0	0	0	0	0	0	1352	1352	1352	1352	1347	1347	1352	1352	1352	1352	1352	1352	1352	1347	1342	1342	1342	1342	1342	1336	1342	1336	1342	1336	1336	1336	1336	1336	1336	1336	1336	1347	1347	1347	1342	1347	1347	1358	1368	1374	1379	1390	1396	1396	1396	1407	1413	1413	1419	1419	1425	1443	1449	1455	1455	1455	1461	1461	1473	1486	1492	1512	1512	1512	1519	1532	1539	1546	1539	1546	1553	1567	1581	1589	1603	1603	1611	1611	1618	1626	1634	1641	1649	1657	1657	1673	1698	1698	1715	1723	1732	1732	1741	1750	1768	1786	1786	1795	1795	1795	1814	1843	1843	1863	1863	1883	1883	1883	1883	0	0	0	5719	5626	5626	5626	5626	5535	5626	5626	5719	5719	5626	5719	5626	5626	5535	5626	5535	5535	5535	5535	5448	5535	5448	5448	5448	5535	5535	5535	5448	5448	5448	5448	5364	5364	5364	5448	4581	4521	4463	4463	4406	4406	4406	4406	4406	4406	4406	4406	4463	4406	4406	4406	4406	4406	4406	4350	4350	4406	4406	4406	4406	4350	4350	4406	4406	4406	4406	4350	4350	4350	4350	4350	4350	4350	4350	4350	4350	4406	4350	4350	4350	4350	4350	4350	4350	4350	4350	4350	4350	4350	4350	4350	4350	4350	4350	4296	4350	4350	4350	4350	4350	4350	4350	4350	4296	4350	4350	4350	4350	4406	4406	4406	4350	4350	4350	4350	4350	4350	4350	4350	4350	4406	4350	4406	4406	4406	4406	4406	4406	4406	4406	4406	4406	4406	4350	4350	4350	4406	4350	4350	4350	4350	4406	4350	4350	4350	4350	4350	4350	4350	4350	4350	4350	4350	4406	4406	4406	4350	4350	4350	4350	4406	4350	4406	4350	4350	4350	4350	4350	4350	4350	4350	4350	4350	4350	4350	4350	4350	4406	4406	4350	4406	4406	4406	4406	4350	4350	4406	4463	4463	3309	3309	3309	3341	3309	3277	3277	3277	3277	3277	3277	3277	3277	3277	3277	4243	4296	4296	4296	4296	4296	4296	4296	4296	4296	4296	4296	4296	4296	4296	4296	3277	3277	3277	3246	3246	3246	3246	3216	3216	3216	3216	3246	3246	4243	4296	4296	4296	4350	4296	4296	4296	4296	4296	4296	4296	4296	4296	4296	4296	4296	4296	4243	4243	4296	4296	4296	4296	4296	4296	4296	4296	4296	4296	4296	4296	4296	4296	4296	4296	4296	4296	4296	4296	4296	4296	4243	4296	4296	4243	4243	4296	4296	4296	4296	4296	4296	4296	4296	4296	4296	4296	4296	4296	4296	4296	4296	4296	4243	4243	4243	4243	4243	4243	4243	4243	4243	4243	4243	4243	4243	4243	4243	4243	4243	4296	4296	4243	4243	4243	4243	4192	4243	4192	4243	4243	4243	4243	4243	4243	4243	4243	4243	4243	4243	4243	4243	4243	4243	4192	4192	4192	4243	4243	4243	4243	4243	4243	4296	4296	4296	4296	4296	4296	4296	4243	4192	4192	4192	4192	4192	4192	4192	4243	4243	4243	4243	4243	4243	4296	4243	4243	4243	4296	4838	4838	4906	4643	4643	0	0	0	0	7444	7444	7444	7287	7444	7444	7444	7444	7444	7444	7444	7444	7287	7287	7137	7137	7137	7137	6992	6992	6992	6992	6992	6992	6992	6992	6992	6992	6992	6853	6592	6853	6592	6720	6592	6592	6592	6592	6592	6592	6592	6468	6592	6468	6468	0	0	0	0	0	0	0	0	0	0	0	0	0	0	0	0	0	0	0	0	0	0	0	0	0	0	0	0	0	0	0	0	0	0	0	0	0	0	0	0	0	0	0	0	0	0	0	0	0	0	0	0	0	0	0	0	0	0	0	0	0	0	0	0	0	0	0	0	0	0	0	0	0	0	0	0	0	0	0	0	0	0	0	0	0	0	0	0
0	0	0	0	0	0	0	0	0	0	0	0	1352	1352	1352	1352	1352	1347	1352	1352	1352	1352	1352	1352	1352	1347	1347	1342	1342	1342	1336	1336	1336	1342	1342	1342	1336	1336	1336	1336	1336	1342	1347	1347	1347	1347	1352	1347	1352	1352	1363	1368	1379	1390	1396	1396	1396	1407	1413	1413	1413	1413	1419	1443	1449	1455	1461	1461	1461	1467	1473	1486	1492	1499	1506	1512	1519	1525	1539	1539	1539	1546	1553	1567	1581	1589	1603	1603	1611	1611	1618	1626	1641	1657	1657	1665	1665	1673	1690	1698	1723	1723	1732	1732	1741	1750	1768	1786	1786	1795	1795	1795	1804	1843	1863	1873	1883	1883	1883	1873	1873	0	0	0	5719	5626	5626	5626	5626	5448	5626	5626	5626	5626	5626	5626	5626	5626	5535	5535	5535	5535	5535	5535	5535	5535	5448	5448	5448	5535	5535	5535	5448	5448	5448	5364	5364	5364	5282	5282	4581	4521	4463	4463	4463	4406	4406	4406	4406	4406	4406	4406	4463	4406	4406	4406	4406	4406	4406	4406	4350	4406	4406	4406	4406	4350	4350	4406	4406	4406	4406	4350	4350	4350	4350	4350	4350	4350	4350	4350	4350	4350	4406	4350	4350	4350	4350	4350	4350	4350	4350	4350	4350	4350	4350	4350	4350	4406	4406	4350	4296	4350	4296	4296	4296	4350	4350	4350	4296	4350	4350	4350	4350	4350	4406	4406	4350	4350	4350	4350	4350	4350	4350	4350	4350	4350	4350	4406	4350	4350	4350	4350	4350	4406	4406	4406	4406	4406	4406	4406	4406	4406	4406	4350	4350	4350	4350	4350	4350	4350	4350	4350	4350	4350	4350	4350	4350	4350	4350	4350	4350	4350	4350	4350	4350	4350	4350	4350	4350	4350	4350	4350	4350	4350	4350	4350	4350	4406	4350	4350	4350	4406	4406	4406	4406	4406	4406	4350	4406	4350	4406	4406	4463	4406	3277	3277	3277	3277	3309	3277	3277	3277	3277	3277	3277	3277	3277	3277	3277	4296	4296	4296	4350	4296	4350	4296	4296	4296	4296	4296	4296	4296	4296	4296	4243	4243	3246	3246	3246	3246	3246	3216	3216	3216	3216	3216	3246	3246	4243	4296	4296	4296	4350	4296	4296	4296	4296	4296	4296	4296	4296	4296	4296	4296	4296	4296	4243	4296	4296	4296	4296	4296	4296	4296	4296	4296	4296	4296	4296	4350	4296	4296	4296	4296	4296	4296	4296	4296	4296	4296	4243	4296	4296	4243	4243	4243	4296	4296	4296	4296	4296	4296	4296	4296	4296	4296	4296	4296	4296	4350	4296	4296	4243	4243	4243	4243	4243	4243	4243	4243	4243	4243	4243	4243	4243	4243	4243	4243	4243	4243	4243	4243	4243	4243	4243	4192	4192	4192	4192	4243	4243	4243	4243	4243	4243	4243	4243	4243	4243	4243	4243	4243	4243	4243	4192	4243	4243	4243	4243	4243	4243	4243	4243	4296	4243	4296	4296	4296	4243	4192	4192	4192	4192	4192	4192	4192	4192	4243	4243	4243	4243	4243	4243	4243	4296	4296	4296	4838	4838	4906	4771	4838	4838	0	0	0	0	7444	7444	7444	7287	7444	7444	7444	7444	7444	7444	7444	7444	7287	7137	7137	7137	7137	7137	6992	6992	6992	6992	6992	6992	6992	6992	6853	6853	6853	6853	6468	6592	6468	6592	6592	6592	6592	6592	6592	6592	6592	6468	6468	6592	6592	0	0	0	0	0	0	0	0	0	0	0	0	0	0	0	0	0	0	0	0	0	0	0	0	0	0	0	0	0	0	0	0	0	0	0	0	0	0	0	0	0	0	0	0	0	0	0	0	0	0	0	0	0	0	0	0	0	0	0	0	0	0	0	0	0	0	0	0	0	0	0	0	0	0	0	0	0	0	0	0	0	0	0	0	0	0	0	0
0	0	0	0	0	0	0	0	0	0	0	0	1352	1352	1347	1347	1347	1347	1347	1352	1352	1352	1352	1352	1352	1347	1347	1342	1342	1342	1342	1336	1336	1336	1342	1342	1336	1336	1336	1336	1336	1342	1347	1347	1347	1347	1347	1347	1352	1358	1363	1368	1374	1385	1390	1390	1390	1402	1407	1413	1413	1413	1425	1431	1437	1449	1461	1461	1461	1467	1473	1486	1492	1499	1512	1512	1519	1532	1539	1539	1546	1546	1560	1567	1581	1589	1596	1603	1603	1611	1618	1626	1634	1657	1657	1657	1657	1673	1690	1698	1715	1723	1732	1732	1741	1759	1768	1777	1777	1786	1795	1795	1804	1843	1863	1853	1883	1883	1883	1883	1883	0	0	0	0	5626	5626	5626	5626	5535	5626	5626	5626	5535	5535	5626	5535	5626	5535	5535	5626	5535	5535	5535	5535	5535	5448	5448	5448	5535	5535	5448	5448	5448	5448	5448	5364	5364	5282	5282	4581	4521	4463	4463	4406	4406	4406	4350	4350	4406	4406	4406	4463	4406	4406	4463	4406	4406	4406	4406	4406	4406	4406	4406	4406	4350	4350	4350	4406	4350	4406	4350	4350	4350	4350	4350	4350	4350	4350	4350	4350	4350	4350	4350	4350	4350	4350	4406	4350	4350	4350	4350	4350	4350	4350	4350	4350	4406	4406	4296	4296	4350	4296	4296	4296	4350	4350	4350	4350	4406	4406	4350	4296	4350	4406	4406	4350	4350	4350	4350	4350	4350	4350	4350	4350	4350	4350	4296	4350	4296	4350	4350	4350	4350	4406	4350	4406	4406	4406	4350	4350	4350	4350	4350	4350	4350	4350	4350	4350	4350	4350	4350	4350	4350	4350	4350	4350	4350	4350	4406	4406	4350	4350	4350	4350	4350	4350	4350	4350	4350	4350	4350	4406	4406	4350	4406	4406	4406	4406	4406	4406	4406	4406	4406	4350	4406	4406	4350	4406	4350	4406	4406	4406	4406	3277	3277	3277	3309	3309	3277	3277	3277	3277	3277	3277	3277	3277	3277	3277	4296	4296	4296	4350	4350	4350	4296	4296	4296	4296	4296	4296	4296	4296	4296	4296	4296	3246	3246	3246	3246	3246	3216	3216	3216	3216	3216	3246	3246	4243	4296	4296	4296	4296	4296	4296	4296	4296	4296	4296	4296	4296	4296	4296	4296	4296	4296	4243	4296	4296	4296	4296	4296	4296	4296	4296	4296	4296	4296	4296	4296	4296	4296	4296	4296	4296	4296	4296	4296	4296	4296	4243	4296	4243	4243	4243	4243	4296	4296	4296	4296	4296	4296	4243	4243	4243	4296	4243	4296	4296	4350	4296	4296	4296	4296	4243	4243	4243	4243	4243	4243	4243	4243	4243	4243	4243	4243	4243	4243	4243	4243	4243	4243	4243	4243	4243	4192	4192	4192	4192	4192	4192	4192	4243	4243	4243	4243	4243	4243	4243	4243	4243	4243	4243	4243	4192	4243	4243	4243	4243	4243	4243	4243	4296	4296	4296	4296	4296	4296	4243	4192	4192	4192	4192	4192	4192	4192	4192	4192	4192	4192	4243	4243	4243	4243	4243	4243	4243	4243	4906	4906	4838	4838	4838	0	0	0	0	7608	7608	7608	7444	7444	7444	7444	7444	7444	7444	7608	7444	7287	7287	7137	7137	7137	7137	7137	6992	7137	7137	6992	6992	6992	6992	6853	6853	6853	6853	6592	6592	6592	6720	6592	6592	6592	6592	6592	6592	6592	6468	6468	6592	6592	6592	6592	0	0	0	0	0	0	0	0	0	0	0	0	0	0	0	0	0	0	0	0	0	0	0	0	0	0	0	0	0	0	0	0	0	0	0	0	0	0	0	0	0	0	0	0	0	0	0	0	0	0	0	0	0	0	0	0	0	0	0	0	0	0	0	0	0	0	0	0	0	0	0	0	0	0	0	0	0	0	0	0	0	0	0	0	0	0
0	0	0	0	0	0	0	0	0	0	0	0	1352	1352	1352	1352	1352	1347	1352	1352	1352	1352	1352	1352	1347	1347	1342	1336	1336	1336	1336	1336	1336	1336	1336	1336	1336	1336	1336	1336	1342	1342	1347	1342	1342	1342	1347	1347	1352	1352	1363	1368	1374	1379	1379	1390	1390	1402	1402	1407	1413	1413	1425	1431	1437	1449	1461	1461	1461	1461	1473	1480	1486	1492	1512	1512	1519	1532	1546	1546	1546	1553	1567	1574	1574	1596	1596	1596	1603	1603	1618	1618	1634	1657	1657	1657	1665	1681	1690	1690	1698	1715	1732	1732	1750	1759	1768	1768	1777	1786	1786	1804	1824	1843	1863	1853	1883	1883	1883	1883	1883	0	0	0	0	5719	5719	5719	5626	5535	5626	5626	5626	5535	5535	5626	5626	5626	5626	5626	5626	5626	5535	5535	5535	5448	5448	5448	5448	5535	5448	5448	5448	5448	5448	5448	5364	5364	5364	5364	4581	4521	4463	4350	4350	4350	4350	4350	4350	4406	4406	4406	4406	4406	4406	4406	4406	4406	4406	4406	4406	4406	4463	4406	4406	4350	4350	4350	4350	4350	4350	4350	4350	4350	4350	4350	4350	4350	4350	4350	4350	4406	4350	4350	4350	4350	4350	4350	4350	4350	4350	4350	4350	4296	4296	4350	4350	4350	4350	4296	4296	4296	4296	4350	4350	4350	4350	4296	4296	4350	4406	4406	4406	4350	4406	4350	4350	4350	4350	4350	4350	4350	4350	4350	4350	4350	4350	4350	4350	4350	4350	4350	4350	4350	4406	4350	4350	4406	4406	4406	4350	4406	4350	4350	4350	4350	4350	4350	4350	4350	4350	4350	4350	4350	4350	4350	4350	4350	4350	4350	4350	4350	4350	4350	4350	4350	4350	4350	4350	4350	4350	4350	4406	4406	4406	4406	4406	4406	4406	4406	4406	4406	4406	4406	4350	4406	4406	4350	4350	4350	4350	4350	4350	4350	4350	3309	3309	3309	3309	3277	3277	3277	3277	3277	3277	3277	3277	3277	3277	4296	4350	4350	4406	4350	4350	4296	4296	4296	4296	4296	4296	4296	4296	4296	4350	4296	3277	3277	3246	3246	3246	3216	3216	3216	3216	3246	3277	3277	4296	4296	4296	4296	4296	4296	4296	4296	4296	4296	4296	4296	4296	4296	4296	4296	4296	4243	4243	4243	4243	4243	4243	4296	4296	4296	4296	4296	4296	4296	4296	4296	4296	4296	4296	4296	4296	4296	4296	4296	4296	4296	4243	4296	4296	4243	4243	4243	4296	4296	4243	4296	4296	4296	4243	4243	4243	4243	4243	4243	4296	4296	4296	4296	4296	4243	4243	4243	4243	4243	4243	4243	4243	4192	4243	4243	4243	4243	4243	4243	4243	4296	4296	4243	4243	4243	4243	4192	4192	4192	4192	4192	4243	4243	4243	4243	4243	4243	4243	4243	4243	4243	4243	4243	4243	4243	4243	4243	4243	4243	4243	4243	4243	4243	4296	4243	4243	4296	4243	4243	4243	4192	4192	4192	4192	4192	4192	4192	4192	4192	4192	4243	4243	4243	4243	4243	4296	4296	4296	4243	4906	4906	4906	4906	4906	0	0	0	7608	7444	7608	7608	7444	7444	7444	7444	7444	7444	7444	7444	7444	7444	7287	7137	7137	7137	7137	7137	7137	7137	7137	6992	6992	6992	6853	6853	6853	6853	6853	6720	6853	6720	6720	6720	6592	6592	6592	6592	6592	6592	6592	6468	6468	6468	6592	6592	0	0	0	0	0	0	0	0	0	0	0	0	0	0	0	0	0	0	0	0	0	0	0	0	0	0	0	0	0	0	0	0	0	0	0	0	0	0	0	0	0	0	0	0	0	0	0	0	0	0	0	0	0	0	0	0	0	0	0	0	0	0	0	0	0	0	0	0	0	0	0	0	0	0	0	0	0	0	0	0	0	0	0	0	0	0
0	0	0	0	0	0	0	0	0	0	0	0	1352	1352	1352	1352	1352	1347	1352	1352	1352	1352	1352	1352	1347	1347	1347	1336	1336	1336	1336	1331	1331	1331	1336	1336	1336	1331	1336	1336	1342	1342	1342	1342	1347	1347	1347	1352	1352	1358	1363	1363	1374	1379	1385	1390	1396	1402	1407	1413	1413	1419	1437	1437	1443	1455	1461	1461	1461	1467	1473	1480	1492	1499	1519	1512	1519	1539	1546	1546	1553	1560	1567	1574	1581	1589	1596	1596	1596	1603	1611	1618	1634	1649	1649	1665	1673	1690	1690	1698	1698	1706	1706	1750	1759	1768	1768	1777	1777	1777	1786	1804	1814	1843	1853	1853	1873	1883	1883	1883	1883	0	0	0	0	5815	5719	5719	5626	5448	5626	5626	5626	5535	5535	5626	5535	5535	5535	5626	5535	5535	5535	5535	5535	5448	5448	5448	5448	5448	5535	5448	5448	5535	5535	5535	5448	5364	5364	5364	4521	4521	4463	4350	4350	4350	4350	4350	4406	4406	4406	4406	4463	4463	4463	4463	4406	4406	4406	4406	4406	4406	4406	4406	4406	4350	4350	4350	4350	4350	4350	4296	4350	4350	4350	4350	4350	4350	4350	4350	4350	4350	4350	4350	4350	4350	4350	4350	4350	4350	4350	4296	4296	4296	4296	4296	4406	4406	4406	4350	4296	4296	4296	4296	4296	4296	4296	4296	4296	4406	4406	4350	4350	4350	4406	4350	4350	4350	4350	4350	4350	4350	4350	4350	4350	4350	4350	4350	4350	4350	4350	4350	4350	4350	4406	4406	4463	4406	4406	4406	4406	4406	4350	4350	4350	4350	4350	4350	4350	4350	4350	4350	4350	4350	4350	4350	4350	4350	4350	4350	4350	4350	4350	4350	4350	4350	4350	4350	4350	4350	4350	4350	4406	4406	4406	4406	4406	4406	4406	4406	4406	4406	4406	4406	4350	4406	4406	4350	4350	4350	4350	4350	4350	4296	4350	4350	3309	3309	3309	3277	3277	3277	3277	3277	3277	3277	3277	3277	3277	4296	4350	4350	4406	4350	4350	4296	4296	4296	4296	4296	4296	4296	4296	4296	4350	4296	3246	3246	3246	3246	3246	3216	3216	3216	3216	3246	3277	3277	4296	4296	4296	4296	4296	4296	4296	4296	4296	4296	4296	4296	4296	4296	4296	4296	4296	4243	4243	4243	4243	4243	4243	4296	4296	4296	4296	4296	4296	4296	4296	4296	4296	4296	4296	4296	4296	4350	4296	4350	4296	4296	4296	4296	4243	4243	4243	4243	4296	4296	4243	4296	4243	4296	4243	4243	4243	4243	4243	4243	4296	4296	4296	4296	4296	4243	4243	4243	4243	4243	4243	4243	4243	4192	4243	4243	4243	4243	4243	4243	4243	4296	4243	4243	4243	4243	4243	4243	4243	4243	4243	4243	4243	4243	4243	4243	4243	4243	4243	4192	4243	4243	4243	4243	4243	4243	4243	4243	4243	4243	4243	4243	4243	4243	4243	4243	4243	4243	4243	4243	4243	4192	4192	4192	4192	4192	4192	4192	4192	4192	4243	4243	4243	4243	4243	4243	4243	4296	4296	4906	4906	4906	4906	4906	4906	4977	4977	0	7608	7444	7608	7608	7444	7608	7608	7608	7444	7444	7444	7444	7287	7287	7137	7137	7137	7137	7137	7137	7137	6992	6992	6992	6992	6992	6853	6853	6720	6853	6853	6720	6853	6853	6720	6720	6592	6592	6592	6592	6592	6468	6468	6468	6468	6592	6592	6592	0	0	0	0	0	0	0	0	0	0	0	0	0	0	0	0	0	0	0	0	0	0	0	0	0	0	0	0	0	0	0	0	0	0	0	0	0	0	0	0	0	0	0	0	0	0	0	0	0	0	0	0	0	0	0	0	0	0	0	0	0	0	0	0	0	0	0	0	0	0	0	0	0	0	0	0	0	0	0	0	0	0	0	0	0	0
0	0	0	0	0	0	0	0	0	0	0	0	1352	1352	1352	1352	1352	1347	1352	1352	1352	1347	1352	1347	1347	1347	1342	1336	1336	1336	1336	1336	1336	1336	1336	1336	1336	1331	1336	1336	1342	1342	1342	1347	1347	1347	1347	1347	1358	1363	1363	1368	1374	1379	1385	1390	1396	1402	1407	1407	1413	1419	1437	1443	1449	1455	1461	1461	1467	1467	1473	1486	1492	1506	1519	1519	1519	1539	1539	1546	1546	1567	1574	1574	1581	1589	1596	1596	1596	1596	1603	1603	1634	1657	1665	1665	1690	1698	1698	1698	1698	1706	1706	1706	1759	1768	1768	1768	1768	1777	1795	1804	1814	1833	1883	1883	1883	1883	1883	1883	1883	0	0	0	0	5815	5815	5719	5626	5448	5626	5535	5626	5535	5535	5535	5535	5626	5535	5535	5535	5535	5535	5535	5535	5448	5448	5448	5448	5535	5535	5535	5535	5535	5535	5535	5448	5364	5364	5364	4406	4406	4406	4350	4350	4350	4350	4350	4350	4406	4406	4406	4463	4463	4463	4463	4406	4406	4463	4406	4406	4406	4406	4350	4406	4350	4350	4350	4350	4350	4350	4350	4350	4350	4350	4350	4350	4350	4350	4350	4350	4350	4350	4350	4350	4350	4350	4350	4350	4350	4350	4350	4350	4350	4350	4350	4350	4350	4350	4350	4296	4296	4296	4296	4350	4296	4243	4350	4350	4406	4406	4350	4296	4350	4406	4350	4350	4350	4350	4350	4350	4350	4350	4350	4350	4350	4350	4350	4350	4350	4350	4350	4406	4406	4406	4406	4406	4406	4406	4406	4406	4350	4350	4350	4406	4350	4350	4350	4350	4350	4350	4350	4350	4350	4350	4350	4350	4350	4350	4350	4350	4350	4350	4350	4350	4350	4350	4350	4350	4350	4350	4350	4406	4406	4406	4406	4406	4406	4350	4350	4406	4406	4406	4406	4406	4406	4406	4350	4350	4350	4350	4350	4350	4296	4350	4350	3277	3277	3309	3277	3277	3277	3277	3277	3277	3277	3277	3277	3277	4296	4350	4350	4406	4350	4350	4296	4296	4296	4296	4296	4296	4296	4296	4296	4296	4296	3277	3246	3246	3246	3216	3216	3216	3216	3216	3216	4296	4296	4296	4296	4296	4243	4296	4296	4296	4296	4296	4296	4296	4296	4296	4296	4296	4296	4296	4296	4296	4296	4243	4243	4243	4296	4296	4296	4296	4296	4296	4296	4296	4296	4296	4296	4296	4296	4296	4296	4296	4296	4296	4296	4243	4296	4243	4243	4243	4243	4296	4296	4296	4243	4243	4296	4243	4243	4243	4243	4243	4243	4296	4296	4296	4296	4243	4243	4243	4243	4243	4243	4243	4243	4243	4243	4243	4243	4243	4243	4243	4243	4243	4243	4243	4243	4243	4243	4243	4243	4243	4243	4243	4243	4243	4243	4243	4243	4243	4243	4243	4243	4243	4243	4243	4243	4243	4243	4243	4243	4243	4243	4243	4243	4243	4243	4243	4243	4243	4243	4243	4243	4243	4243	4192	4192	4192	4192	4192	4192	4192	4192	4192	4192	4192	4192	4192	4192	4243	4243	4243	4906	4906	4906	4906	4977	4977	4977	4977	4977	0	0	7608	7608	7444	7608	7608	7608	7444	7444	7287	7444	7287	7287	7137	7137	7137	7137	7137	7137	7137	7137	6992	6992	6992	6992	6853	6853	6720	6720	6720	6720	6720	6720	6592	6592	6592	6592	6468	6468	6468	6468	6468	6468	6468	6592	6592	6592	0	0	0	0	0	0	0	0	0	0	0	0	0	0	0	0	0	0	0	0	0	0	0	0	0	0	0	0	0	0	0	0	0	0	0	0	0	0	0	0	0	0	0	0	0	0	0	0	0	0	0	0	0	0	0	0	0	0	0	0	0	0	0	0	0	0	0	0	0	0	0	0	0	0	0	0	0	0	0	0	0	0	0	0	0	0
0	0	0	0	0	0	0	0	0	0	0	0	1347	1352	1352	1352	1352	1347	1347	1347	1347	1347	1347	1347	1347	1342	1342	1342	1342	1342	1342	1336	1336	1336	1336	1336	1336	1336	1336	1336	1342	1342	1342	1347	1347	1347	1347	1352	1358	1363	1363	1368	1374	1379	1385	1385	1390	1402	1402	1407	1413	1437	1443	1443	1449	1455	1461	1461	1467	1467	1473	1480	1492	1499	1519	1519	1525	1539	1539	1546	1553	1560	1574	1574	1581	1589	1589	1589	1596	1596	1596	1589	1581	1581	1715	1715	1715	1706	1698	1698	1698	1706	1715	1715	1759	1768	1768	1768	1768	1777	1795	1804	1814	1814	1824	1843	1873	1883	1883	1883	1883	0	0	0	5915	5915	5815	5719	5626	5535	5535	5535	5535	5535	5535	5535	5535	5535	5535	5535	5535	5535	5535	5535	5535	5448	5535	5535	5535	5535	5535	5535	5535	5626	5535	5535	5535	5448	5448	5448	4350	4350	4350	4350	4350	4350	4350	4350	4350	4406	4406	4406	4463	4463	4463	4463	4463	4406	4406	4406	4406	4406	4406	4350	4350	4350	4350	4350	4350	4350	4350	4350	4350	4350	4350	4350	4350	4350	4350	4350	4350	4350	4350	4350	4350	4350	4350	4350	4350	4350	4350	4350	4350	4350	4350	4350	4406	4350	4350	4350	4296	4296	4296	4296	4296	4296	4296	4350	4350	4463	4463	4243	4296	4350	4350	4350	4350	4350	4350	4350	4350	4350	4350	4350	4350	4350	4296	4350	4350	4350	4350	4350	4406	4406	4406	4406	4406	4406	4406	4350	4350	4350	4350	4350	4350	4350	4350	4350	4350	4350	4350	4406	4406	4406	4406	4406	4406	4350	4350	4350	4350	4350	4350	4350	4350	4350	4350	4350	4350	4350	4350	4350	4350	4350	4406	4406	4350	4350	4350	4406	4406	4406	4406	4406	4406	4406	4406	4350	4350	4350	4350	4350	4350	4350	4350	4350	4350	3309	3309	3246	3277	3277	3277	3277	3277	3277	3277	3277	3277	4296	4350	4350	4350	4350	4296	4296	4296	4296	4296	4296	4296	4296	4296	4296	4350	4296	3277	3246	3246	3216	3216	3216	3186	3186	3216	3216	4296	4296	4296	4296	4296	4243	4243	4243	4296	4296	4296	4296	4296	4296	4296	4296	4296	4296	4296	4296	4296	4296	4296	4296	4296	4296	4296	4296	4296	4296	4296	4296	4296	4296	4296	4296	4296	4296	4296	4296	4296	4296	4296	4243	4243	4243	4243	4243	4243	4243	4243	4296	4296	4243	4296	4296	4243	4243	4243	4243	4243	4243	4296	4296	4296	4296	4243	4243	4243	4243	4243	4243	4243	4243	4243	4243	4243	4243	4243	4243	4243	4243	4243	4243	4243	4243	4243	4243	4243	4243	4243	4243	4243	4243	4243	4243	4243	4243	4243	4243	4243	4243	4243	4243	4243	4243	4243	4243	4243	4243	4243	4243	4243	4243	4243	4243	4243	4243	4243	4243	4243	4243	4243	4192	4192	4192	4192	4192	4192	4192	4192	4192	4192	4192	4192	4192	4192	4192	4243	4243	4243	4906	4906	4906	4906	4906	4906	4977	4906	4906	0	0	0	7608	7444	7608	7608	7608	7608	7444	7444	7444	7287	7287	7287	7137	7137	6992	6992	6992	7137	7137	6992	6992	6853	6853	6720	6720	6592	6592	6592	6592	6592	6592	6592	6592	6468	6468	6468	6468	6468	6468	6468	6468	6468	6468	6468	6592	0	0	0	0	0	0	0	0	0	0	0	0	0	0	0	0	0	0	0	0	0	0	0	0	0	0	0	0	0	0	0	0	0	0	0	0	0	0	0	0	0	0	0	0	0	0	0	0	0	0	0	0	0	0	0	0	0	0	0	0	0	0	0	0	0	0	0	0	0	0	0	0	0	0	0	0	0	0	0	0	0	0	0	0	0	0
0	0	0	0	0	0	0	0	0	0	0	0	1347	1352	1352	1347	1352	1347	1347	1347	1347	1347	1347	1342	1342	1342	1342	1342	1342	1342	1342	1342	1336	1336	1336	1342	1336	1336	1336	1342	1342	1347	1347	1342	1347	1347	1352	1358	1358	1363	1363	1368	1368	1374	1379	1385	1390	1402	1402	1407	1413	1419	1437	1443	1449	1455	1461	1461	1467	1467	1473	1486	1499	1506	1512	1519	1525	1539	1546	1553	1560	1567	1574	1574	1581	1581	1581	1589	1589	1596	1596	1581	1581	1596	1596	1706	1706	1698	1698	1698	1706	1706	1715	1715	1759	1759	1768	1768	1768	1786	1795	1795	1804	1814	1814	1843	1873	1873	1873	1873	0	0	0	0	5915	5915	5815	5719	5626	5535	5535	5535	5535	5535	5448	5448	5535	5535	5535	5535	5535	5535	5535	5535	5535	5535	5448	5535	5535	5535	5535	5535	5626	5626	5626	5535	5535	5448	5535	5448	4350	4350	4350	4350	4350	4350	4350	4350	4350	4406	4406	4406	4406	4406	4463	4463	4463	4406	4406	4406	4406	4406	4406	4350	4350	4350	4350	4350	4350	4350	4350	4350	4350	4350	4350	4350	4350	4350	4350	4350	4350	4350	4350	4350	4350	4350	4350	4350	4350	4350	4350	4350	4350	4350	4350	4350	4350	4350	4350	4350	4350	4296	4350	4350	4350	4350	4350	4296	4296	4296	4296	4243	4243	4243	4350	4350	4350	4350	4350	4350	4350	4350	4350	4350	4350	4350	4350	4350	4350	4350	4350	4350	4406	4406	4406	4406	4406	4406	4406	4350	4350	4350	4350	4350	4350	4350	4350	4350	4350	4350	4350	4406	4406	4406	4406	4406	4406	4350	4350	4350	4350	4350	4350	4350	4350	4350	4350	4350	4350	4350	4350	4350	4350	4350	4406	4350	4350	4350	4350	4406	4406	4406	4350	4350	4406	4406	4350	4350	4350	4350	4350	4350	4350	4350	4350	4350	4406	3309	3309	3246	3277	3277	3277	3277	3277	3246	3277	3277	4296	4296	4350	4350	4350	4350	4296	4296	4296	4296	4296	4296	4296	4296	4296	4296	4296	4296	4243	3246	3216	3216	3216	3216	3186	3186	3216	3216	4296	4296	4296	4296	4296	4243	4243	4296	4243	4296	4296	4296	4296	4296	4296	4296	4296	4296	4296	4296	4296	4296	4296	4296	4296	4296	4296	4296	4296	4296	4296	4296	4296	4296	4296	4296	4296	4296	4296	4296	4296	4296	4296	4243	4243	4243	4243	4243	4243	4243	4243	4243	4243	4243	4243	4243	4243	4243	4243	4243	4243	4243	4243	4243	4243	4243	4243	4243	4243	4243	4243	4243	4243	4243	4243	4243	4243	4243	4243	4243	4243	4243	4243	4243	4243	4243	4296	4243	4243	4243	4243	4243	4243	4243	4243	4243	4243	4243	4243	4243	4243	4243	4243	4243	4243	4243	4243	4243	4243	4243	4243	4243	4243	4243	4243	4243	4243	4243	4243	4243	4243	4243	4243	4243	4192	4192	4192	4192	4192	4192	4192	4192	4192	4192	4192	4192	4192	4192	4192	4192	4192	4906	4906	4906	4838	4906	4906	4906	4906	4906	0	0	0	0	0	7608	7608	7608	7608	7444	7444	7287	7287	7287	7137	7137	7137	7137	6992	6992	7137	6992	6992	6853	6853	6720	6720	6592	6592	6592	6468	6468	6592	6592	6592	6592	6468	6468	6468	6468	6468	6468	6468	6468	6468	6468	6468	6468	0	0	0	0	0	0	0	0	0	0	0	0	0	0	0	0	0	0	0	0	0	0	0	0	0	0	0	0	0	0	0	0	0	0	0	0	0	0	0	0	0	0	0	0	0	0	0	0	0	0	0	0	0	0	0	0	0	0	0	0	0	0	0	0	0	0	0	0	0	0	0	0	0	0	0	0	0	0	0	0	0	0	0	0	0	0
0	0	0	0	0	0	0	0	0	0	0	0	1347	1347	1352	1347	1347	1347	1347	1347	1347	1342	1342	1342	1342	1342	1342	1342	1342	1342	1342	1342	1342	1336	1336	1336	1342	1342	1342	1342	1347	1347	1347	1347	1347	1347	1347	1358	1358	1363	1363	1368	1368	1374	1379	1385	1390	1407	1407	1413	1413	1419	1431	1437	1449	1455	1455	1461	1467	1467	1473	1480	1492	1499	1512	1519	1525	1532	1546	1553	1560	1560	1567	1574	1574	1581	1589	1589	1589	1596	1589	1581	1596	1596	1596	1706	1706	1706	1698	1698	1706	1706	1715	1715	1759	1759	1768	1768	1777	1786	1795	1795	1804	1814	1814	1843	1843	1863	1863	1863	0	0	0	0	5815	5815	5815	5719	5626	5626	5535	5535	5535	5535	5448	5448	5535	5535	5626	5626	5535	5535	5535	5535	5448	5448	5448	5448	5535	5535	5535	5535	5535	5535	5535	5535	5535	5535	5626	5626	4350	4350	4350	4350	4350	4350	4350	4350	4350	4350	4350	4406	4406	4406	4406	4406	4406	4406	4406	4406	4406	4406	4350	4350	4350	4350	4350	4350	4350	4350	4350	4350	4350	4350	4350	4350	4350	4350	4350	4350	4350	4350	4350	4350	4350	4350	4350	4350	4350	4350	4350	4350	4350	4350	4350	4350	4350	4350	4350	4350	4350	4350	4350	4350	4350	4350	4296	4243	4192	4192	4243	4243	4243	4243	4243	4350	4350	4350	4350	4350	4406	4350	4350	4350	4296	4296	4350	4350	4350	4350	4350	4406	4406	4350	4406	4406	4406	4406	4350	4350	4350	4350	4350	4350	4350	4350	4350	4350	4350	4350	4350	4350	4406	4406	4406	4406	4406	4350	4350	4350	4350	4350	4350	4350	4350	4350	4350	4350	4350	4350	4350	4350	4350	4350	4350	4350	4350	4350	4350	4350	4350	4350	4350	4350	4350	4350	4350	4350	4350	4350	4350	4350	4350	4350	4350	4406	4406	4643	3309	3246	3277	3277	3277	3277	3277	3277	3277	3277	4296	4296	4350	4350	4350	4350	4296	4296	4296	4296	4296	4296	4296	4296	4350	4350	4350	4296	4243	3246	3246	3216	3216	3216	3216	3186	3216	3216	4296	4296	4296	4296	4296	4243	4243	4243	4243	4296	4243	4243	4243	4296	4296	4296	4296	4296	4296	4296	4296	4296	4296	4296	4296	4296	4296	4296	4296	4296	4296	4296	4296	4296	4296	4296	4296	4296	4296	4296	4296	4296	4296	4243	4243	4243	4243	4243	4243	4243	4243	4243	4243	4243	4296	4243	4243	4243	4243	4243	4296	4296	4243	4243	4243	4243	4243	4243	4243	4243	4243	4243	4243	4243	4243	4243	4243	4243	4243	4243	4243	4243	4243	4243	4243	4243	4296	4243	4243	4243	4243	4243	4243	4243	4243	4243	4243	4243	4243	4243	4243	4192	4243	4243	4243	4243	4243	4243	4243	4243	4243	4243	4243	4243	4243	4243	4243	4243	4243	4243	4243	4243	4243	4243	4192	4192	4192	4192	4192	4142	4142	4142	4192	4192	4192	4192	4192	4192	4192	4243	4243	4838	4838	4838	4838	4906	4906	4906	4906	4906	0	0	0	0	0	0	7608	7608	7608	7444	7444	7444	7287	7287	7287	7137	7137	6992	6992	7137	7137	7137	6992	6853	6853	6720	6720	6592	6592	6592	6468	6592	6592	6592	6592	6592	6468	6468	6468	6468	6468	6468	6349	6468	6468	6468	6468	6468	0	0	0	0	0	0	0	0	0	0	0	0	0	0	0	0	0	0	0	0	0	0	0	0	0	0	0	0	0	0	0	0	0	0	0	0	0	0	0	0	0	0	0	0	0	0	0	0	0	0	0	0	0	0	0	0	0	0	0	0	0	0	0	0	0	0	0	0	0	0	0	0	0	0	0	0	0	0	0	0	0	0	0	0	0	0
0	0	0	0	0	0	0	0	0	0	0	0	0	1347	1347	1347	1347	1347	1347	1347	1342	1336	1336	1342	1342	1342	1342	1342	1342	1342	1336	1336	1336	1336	1336	1342	1342	1347	1342	1347	1347	1347	1347	1347	1347	1347	1347	1352	1352	1358	1358	1363	1368	1374	1379	1385	1396	1407	1407	1413	1413	1419	1431	1437	1449	1449	1455	1455	1461	1467	1473	1486	1492	1499	1506	1512	1525	1539	1539	1546	1553	1560	1567	1574	1581	1581	1581	1581	1589	1589	1574	1581	1581	1581	1581	1715	1715	1706	1698	1698	1706	1706	1715	1715	1759	1759	1768	1768	1777	1777	1795	1804	1814	1814	1824	1853	1863	1863	1863	1863	0	0	0	0	5815	5815	5719	5719	5626	5626	5626	5535	5626	5626	5626	5626	5626	5626	5626	5626	5448	5448	5448	5448	5448	5448	5448	5535	5535	5535	5535	5535	5535	5535	5535	5535	5535	5448	5448	5448	4350	4350	4350	4350	4350	4350	4350	4350	4350	4406	4406	4406	4406	4406	4406	4406	4406	4406	4406	4350	4350	4350	4350	4350	4350	4350	4350	4350	4350	4350	4350	4350	4350	4350	4296	4296	4350	4350	4296	4296	4350	4350	4350	4350	4350	4350	4350	4350	4350	4350	4350	4350	4350	4406	4350	4350	4350	4350	4350	4350	4350	4350	4350	4350	4350	4350	4296	4243	4192	4192	4192	4243	4243	4243	4350	4350	4350	4350	4350	4350	4406	4350	4350	4350	4296	4296	4350	4350	4350	4350	4406	4406	4350	4350	4350	4406	4406	4350	4350	4350	4350	4350	4296	4350	4350	4350	4350	4350	4350	4350	4350	4350	4350	4406	4406	4350	4406	4350	4350	4350	4296	4296	4350	4406	4406	4406	4406	4350	4350	4350	4350	4350	4350	4350	4350	4350	4350	4350	4350	4350	4350	4406	4350	4350	4350	4350	4350	4350	4350	4350	4350	4350	4350	4350	4350	4406	4463	3309	3309	3246	3277	3277	3277	3277	3277	3277	3277	3277	4296	4296	4296	4296	4296	4296	4296	4296	4296	4296	4296	4296	4296	4296	4296	4350	4350	4296	4296	3246	3246	3216	3216	3216	3216	3216	3216	3216	4296	4296	4296	4296	4296	4243	4243	4243	4243	4243	4243	4243	4243	4296	4296	4296	4296	4296	4296	4296	4296	4296	4296	4296	4296	4296	4296	4296	4296	4296	4296	4296	4296	4296	4296	4296	4296	4296	4296	4296	4296	4296	4243	4243	4243	4243	4243	4243	4243	4243	4296	4243	4296	4296	4296	4296	4296	4296	4296	4296	4296	4296	4296	4243	4243	4243	4243	4243	4243	4243	4243	4243	4243	4243	4243	4243	4243	4243	4243	4243	4243	4243	4243	4243	4243	4243	4243	4243	4243	4243	4243	4243	4243	4296	4296	4243	4243	4243	4243	4243	4243	4192	4243	4243	4243	4243	4243	4243	4243	4243	4243	4243	4192	4243	4243	4243	4243	4243	4243	4243	4243	4243	4243	4243	4192	4192	4192	4192	4192	4192	4142	4192	4192	4192	4192	4192	4192	4192	4192	4243	4243	4838	4838	4838	4838	4838	4838	4838	4838	4838	0	0	0	0	0	0	0	7608	7608	7444	7444	7444	7287	7444	7287	7287	7287	6992	6992	7137	7137	7137	6992	6853	6720	6720	6720	6592	6592	6592	6468	6592	6592	6592	6592	6592	6468	6468	6468	6468	6468	6349	6349	6349	6349	6349	6349	6468	0	0	0	0	0	0	0	0	0	0	0	0	0	0	0	0	0	0	0	0	0	0	0	0	0	0	0	0	0	0	0	0	0	0	0	0	0	0	0	0	0	0	0	0	0	0	0	0	0	0	0	0	0	0	0	0	0	0	0	0	0	0	0	0	0	0	0	0	0	0	0	0	0	0	0	0	0	0	0	0	0	0	0	0	0	0
0	0	0	0	0	0	0	0	0	0	0	0	0	1347	1347	1347	1347	1347	1342	1342	1342	1336	1336	1336	1336	1336	1336	1336	1336	1342	1342	1342	1342	1342	1342	1347	1347	1347	1342	1347	1347	1347	1347	1342	1342	1342	1347	1352	1352	1358	1358	1363	1368	1374	1385	1385	1396	1396	1407	1413	1413	1419	1437	1437	1443	1449	1455	1455	1461	1467	1486	1486	1492	1499	1499	1512	1519	1532	1539	1546	1553	1553	1567	1581	1581	1581	1581	1589	1589	1589	1574	1574	1581	1581	1581	1706	1706	1698	1698	1698	1698	1706	1723	1723	1759	1759	1768	1768	1777	1777	1786	1795	1804	1814	1814	1863	1853	1863	1863	1863	0	0	0	0	5719	5719	5626	5626	5626	5626	5626	5535	5626	5626	5626	5626	5535	5535	5535	5535	5448	5448	5448	5448	5448	5448	5448	5448	5535	5535	5535	5535	5535	5535	5535	5535	5364	5448	5364	5364	4350	4350	4350	4350	4350	4350	4350	4350	4350	4350	4350	4406	4350	4350	4350	4406	4406	4406	4350	4406	4350	4406	4350	4350	4350	4350	4350	4350	4350	4350	4350	4350	4350	4350	4350	4350	4350	4350	4296	4296	4350	4350	4350	4350	4350	4350	4350	4350	4350	4350	4406	4350	4406	4406	4350	4350	4350	4350	4350	4350	4350	4350	4350	4350	4350	4350	4296	4243	4142	4142	4142	4192	4243	4192	4296	4350	4350	4350	4350	4350	4406	4350	4350	4296	4296	4296	4350	4350	4350	4350	4350	4350	4350	4350	4350	4350	4350	4350	4350	4350	4350	4350	4350	4350	4350	4350	4350	4350	4350	4350	4350	4350	4350	4350	4350	4350	4350	4350	4350	4350	4350	4350	4350	4350	4350	4350	4406	4350	4350	4350	4350	4350	4350	4350	4350	4350	4350	4350	4350	4350	4350	4350	4350	4350	4350	4350	4350	4350	4350	4350	4350	4350	4350	4350	4406	4406	4406	3309	3309	3246	3277	3277	3277	3277	3277	3246	3246	3277	3277	4296	4296	4296	4296	4296	4296	4296	4296	4296	4296	4296	4296	4296	4296	4350	4350	4296	3216	3216	3216	3216	3216	3216	3186	3186	3216	3216	4296	4296	4296	4296	4296	4243	4243	4296	4243	4296	4243	4243	4243	4243	4296	4296	4296	4296	4296	4296	4296	4296	4296	4296	4296	4296	4296	4296	4296	4296	4296	4296	4296	4296	4296	4296	4296	4296	4296	4296	4296	4243	4243	4243	4243	4243	4243	4243	4243	4243	4296	4243	4296	4296	4296	4296	4296	4296	4296	4296	4296	4296	4296	4243	4243	4243	4243	4243	4243	4243	4243	4243	4243	4243	4243	4243	4243	4243	4243	4243	4243	4243	4243	4243	4243	4243	4243	4243	4243	4243	4243	4243	4296	4296	4296	4243	4243	4243	4243	4243	4243	4192	4243	4243	4243	4243	4243	4192	4192	4192	4243	4243	4192	4192	4243	4243	4243	4243	4243	4243	4243	4243	4243	4243	4192	4192	4192	4192	4142	4142	4142	4192	4192	4192	4192	4192	4192	4192	4243	4243	4296	4296	4906	4838	4838	4838	4771	4771	4771	4771	0	0	0	0	0	0	0	7608	7608	7444	7287	7287	7287	7287	7287	7287	7287	6992	6992	0	0	0	6992	6853	6720	6720	6720	6592	6468	6468	6468	6592	6592	6592	6592	6592	6468	6468	6349	6349	6349	6235	6235	6349	6235	6124	6124	6124	0	0	0	0	0	0	0	0	0	0	0	0	0	0	0	0	0	0	0	0	0	0	0	0	0	0	0	0	0	0	0	0	0	0	0	0	0	0	0	0	0	0	0	0	0	0	0	0	0	0	0	0	0	0	0	0	0	0	0	0	0	0	0	0	0	0	0	0	0	0	0	0	0	0	0	0	0	0	0	0	0	0	0	0	0	0
0	0	0	0	0	0	0	0	0	0	0	0	1342	1347	1347	1342	1342	1342	1336	1336	1336	1331	1331	1331	1331	1331	1336	1342	1342	1342	1342	1342	1342	1342	1342	1347	1347	1347	1347	1347	1347	1347	1347	1342	1342	1342	1342	1347	1352	1352	1358	1368	1368	1374	1385	1385	1390	1402	1407	1413	1413	1419	1425	1431	1443	1449	1449	1461	1461	1473	1473	1486	1492	1499	1506	1512	1519	1525	1539	1539	1553	1553	1574	1581	1581	1589	1581	1589	1589	1589	1581	1581	1581	1581	1581	1581	1698	1698	1698	1690	1698	1698	1723	1723	1759	1768	1768	1777	1777	1777	1786	1795	1804	1804	1814	1863	1853	1843	1843	1843	0	0	0	0	5626	5626	5626	5626	5626	5626	5626	5626	5626	5626	5626	5626	5626	5626	5626	5626	5448	5448	5448	5448	5448	5448	5448	5535	5535	5535	5535	5448	5535	5535	5535	5448	5364	5364	5364	5364	4350	4350	4406	4406	4350	4350	4350	4350	4350	4406	4350	4350	4350	4406	4406	4406	4406	4406	4406	4406	4406	4406	4350	4350	4350	4350	4406	4350	4350	4350	4350	4350	4350	4350	4350	4296	4350	4350	4296	4296	4296	4350	4350	4350	4350	4350	4350	4350	4350	4350	4350	4350	4406	4406	4350	4406	4350	4350	4350	4350	4350	4406	4350	4350	4296	4296	4296	4243	4142	4142	4142	4192	4192	4243	4296	4350	4350	4350	4350	4350	4350	4350	4296	4296	4296	4296	4296	4350	4350	4350	4350	4350	4350	4350	4350	4350	4350	4350	4350	4350	4350	4350	4350	4350	4350	4350	4350	4350	4350	4350	4350	4350	4350	4350	4350	4350	4350	4350	4350	4350	4350	4350	4350	4350	4350	4350	4350	4350	4350	4350	4350	4350	4350	4350	4350	4350	4350	4350	4350	4350	4350	4350	4350	4350	4350	4350	4350	4350	4350	4350	4350	4350	4350	4406	4406	4463	4463	4463	3309	3186	3277	3277	3246	3246	3246	3246	3246	3246	3246	4296	4296	4296	4296	4296	4296	4296	4296	4296	4296	4296	4296	4296	4296	4296	4350	4296	3216	3216	3216	3216	3216	3216	3216	3186	3186	3186	4243	4243	4296	4296	4296	4243	4243	4296	4243	4243	4243	4243	4243	4243	4296	4296	4296	4296	4296	4296	4296	4296	4243	4243	4243	4243	4243	4296	4296	4296	4296	4296	4296	4296	4296	4296	4296	4296	4296	4243	4296	4243	4243	4243	4243	4243	4243	4243	4243	4243	4296	4296	4296	4296	4296	4296	4296	4296	4296	4243	4243	4243	4243	4243	4243	4243	4243	4243	4243	4243	4243	4243	4243	4243	4243	4243	4243	4243	4243	4243	4243	4243	4243	4243	4243	4243	4243	4243	4243	4243	4243	4243	4296	4296	4243	4243	4243	4243	4243	4243	4243	4243	4243	4243	4243	4243	4243	4192	4192	4192	4192	4243	4192	4192	4192	4243	4243	4243	4243	4243	4243	4243	4243	4243	4192	4192	4192	4192	4142	4142	4142	4192	4192	4192	4192	4192	4192	4192	4243	4243	4296	4296	4771	4771	4771	4771	4771	4771	4706	4643	4643	4643	0	0	0	0	0	0	0	7444	7287	7287	7287	7287	0	0	0	0	0	0	0	0	0	0	0	0	0	6592	6468	6468	0	0	0	6592	6468	6468	6468	6349	6349	6349	6349	6235	6235	6349	6235	6124	6124	6124	0	0	0	0	0	0	0	0	0	0	0	0	0	0	0	0	0	0	0	0	0	0	0	0	0	0	0	0	0	0	0	0	0	0	0	0	0	0	0	0	0	0	0	0	0	0	0	0	0	0	0	0	0	0	0	0	0	0	0	0	0	0	0	0	0	0	0	0	0	0	0	0	0	0	0	0	0	0	0	0	0	0	0	0	0	0
0	0	0	0	0	0	0	0	0	0	0	0	1342	1342	1342	1342	1342	1342	1336	1336	1336	1331	1331	1331	1331	1331	1336	1347	1342	1347	1342	1342	1342	1342	1342	1342	1347	1347	1347	1347	1347	1347	1347	1342	1342	1336	1336	1336	1347	1352	1358	1368	1368	1374	1374	1385	1390	1402	1407	1413	1413	1419	1419	1431	1443	1443	1443	1449	1461	1473	1486	1486	1492	1499	1506	1512	1519	1525	1539	1539	1546	1553	1560	1589	1574	1589	1589	1589	1589	1589	1589	1581	1581	1589	1596	1596	1690	1690	1690	1690	1698	1698	1723	1723	1741	1759	1759	1777	1786	1786	1795	1804	1795	1804	1804	1833	1833	1843	1843	1843	0	0	0	0	5626	5626	5626	5626	5626	5626	5626	5626	5626	5626	5626	5626	5626	5626	5626	5626	5535	5535	5535	5448	5448	5448	5448	5448	5448	5448	5448	5448	5448	5448	5448	5448	5364	5448	5448	5364	5448	4350	4350	4350	4350	4350	4350	4350	4350	4406	4406	4406	4406	4406	4406	4406	4406	4406	4406	4406	4406	4406	4406	4350	4350	4350	4350	4350	4350	4350	4350	4350	4350	4350	4350	4296	4350	4350	4296	4296	4350	4350	4350	4350	4350	4350	4350	4350	4350	4350	4406	4350	4406	4350	4350	4350	4350	4350	4350	4350	4406	4350	4350	4350	4296	4296	4243	4243	4142	4142	4142	4192	4243	4243	4296	4350	4350	4350	4350	4350	4350	4350	4296	4296	4296	4296	4296	4350	4350	4350	4350	4350	4350	4350	4350	4350	4350	4350	4350	4350	4350	4350	4350	4350	4350	4350	4350	4350	4350	4350	4350	4350	4350	4350	4350	4350	4350	4350	4350	4350	4350	4350	4350	4350	4350	4350	4350	4350	4350	4350	4350	4350	4350	4350	4350	4350	4350	4350	4350	4350	4350	4350	4350	4350	4350	4350	4350	4350	4350	4350	4350	4406	4406	4406	4406	4463	4463	4463	3216	3186	3186	3246	3246	3246	3246	3246	3246	3246	3246	3246	4296	4296	4296	4296	4296	4296	4296	4243	4243	4296	4243	4296	4296	4296	4350	4350	3216	3216	3216	3216	3216	3216	3216	3216	3216	3216	4296	4296	4296	4296	4296	4243	4243	4243	4243	4243	4243	4243	4243	4243	4243	4243	4243	4296	4296	4296	4296	4296	4296	4243	4243	4243	4243	4243	4243	4296	4296	4296	4296	4296	4296	4296	4296	4296	4243	4243	4243	4243	4243	4243	4243	4243	4243	4243	4243	4243	4296	4296	4296	4296	4296	4296	4296	4296	4296	4243	4243	4243	4243	4243	4243	4243	4243	4243	4243	4243	4243	4243	4243	4243	4243	4243	4243	4243	4243	4243	4243	4243	4243	4243	4243	4243	4243	4243	4243	4243	4243	4243	4296	4296	4243	4243	4243	4243	4243	4192	4192	4192	4243	4243	4243	4243	4243	4243	4192	4192	4192	4192	4192	4192	4192	4192	4243	4243	4243	4243	4243	4243	4243	4243	4192	4192	4192	4142	4142	4142	4142	4142	4192	4192	4192	4192	4192	4192	4243	4243	4243	4243	4296	4296	4838	4771	4706	4706	4706	4706	4643	4643	4643	0	0	0	0	0	0	0	7287	7287	7287	0	0	0	0	0	0	0	0	0	0	0	0	0	0	0	0	0	0	0	0	6235	6468	6468	6349	6349	6349	6235	6235	6235	6124	6235	6124	6018	6018	6018	6018	0	0	0	0	0	0	0	0	0	0	0	0	0	0	0	0	0	0	0	0	0	0	0	0	0	0	0	0	0	0	0	0	0	0	0	0	0	0	0	0	0	0	0	0	0	0	0	0	0	0	0	0	0	0	0	0	0	0	0	0	0	0	0	0	0	0	0	0	0	0	0	0	0	0	0	0	0	0	0	0	0	0	0	0	0
0	0	0	0	0	0	0	0	0	0	0	0	1342	1342	1336	1336	1336	1336	1336	1336	1336	1336	1336	1336	1336	1331	1342	1347	1342	1347	1347	1347	1347	1336	1336	1342	1342	1347	1347	1347	1347	1347	1342	1342	1336	1336	1336	1336	1347	1352	1363	1368	1368	1374	1374	1385	1390	1402	1407	1413	1413	1419	1419	1431	1431	1443	1449	1461	1461	1480	1486	1486	1492	1499	1506	1512	1519	1525	1539	1539	1546	1553	1567	1574	1581	1581	1589	1589	1589	1589	1589	1589	1596	1596	1611	1618	1690	1690	1690	1690	1698	1698	1706	1715	1732	1768	1768	1768	1786	1786	1795	1795	1804	1824	1824	1843	1853	1853	1863	1863	0	0	0	0	5626	5626	5626	5626	5626	5626	5626	5626	5626	5626	5626	5626	5626	5626	5626	5626	5535	5535	5535	5448	5448	5448	5448	5448	5448	5448	5448	5448	5448	5448	5448	5448	5448	5364	5364	5364	5448	4350	4406	4406	4350	4350	4350	4350	4406	4406	4406	4406	4406	4406	4406	4406	4406	4463	4406	4406	4406	4350	4406	4406	4350	4350	4350	4350	4350	4350	4350	4350	4350	4296	4296	4296	4350	4350	4296	4296	4350	4350	4350	4350	4350	4350	4350	4350	4350	4350	4406	4350	4350	4350	4350	4350	4350	4350	4350	4350	4350	4350	4350	4296	4296	4296	4243	4192	4142	4192	4192	4243	4296	4296	4296	4350	4350	4350	4296	4296	4350	4296	4296	4296	4296	4296	4350	4350	4350	4350	4350	4350	4350	4350	4350	4350	4350	4350	4350	4350	4350	4350	4350	4350	4350	4350	4296	4350	4350	4350	4350	4350	4350	4350	4350	4350	4350	4350	4350	4350	4350	4350	4350	4350	4350	4350	4350	4350	4350	4350	4350	4350	4350	4350	4350	4350	4350	4350	4350	4350	4350	4350	4350	4350	4350	4350	4350	4350	4350	4350	4406	4406	4406	4406	4406	4406	4463	4463	3157	3157	3277	3277	3277	3246	3277	3246	3246	3246	3246	3246	4296	4296	4296	4296	4296	4296	4296	4243	4243	4243	4243	4243	4243	4296	4296	3216	3216	3216	3216	3216	3216	3216	3216	3216	3216	3216	4296	4296	4296	4296	4296	4296	4296	4296	4296	4296	4243	4243	4243	4243	4243	4243	4243	4296	4296	4296	4296	4296	4243	4243	4243	4243	4243	4243	4243	4296	4296	4296	4296	4296	4296	4296	4296	4243	4243	4243	4243	4243	4243	4296	4296	4243	4243	4243	4243	4296	4243	4243	4296	4296	4296	4243	4296	4296	4243	4243	4243	4243	4243	4243	4243	4243	4243	4243	4243	4243	4243	4243	4243	4243	4243	4243	4243	4243	4243	4243	4243	4243	4243	4243	4243	4243	4243	4243	4243	4243	4243	4243	4243	4243	4243	4243	4243	4243	4192	4192	4192	4192	4192	4243	4243	4243	4243	4192	4192	4192	4192	4192	4142	4192	4192	4192	4243	4243	4243	4243	4243	4192	4192	4243	4192	4142	4142	4142	4142	4142	4142	4142	4192	4192	4192	4243	4243	4243	4243	4243	4243	4243	4243	4296	4838	4771	4706	4706	4706	4706	4643	4643	4643	0	0	0	0	0	0	0	0	0	0	0	0	0	0	0	0	0	0	0	0	0	0	0	0	0	0	0	0	0	0	6235	6235	6349	6349	6349	6349	6235	6349	6235	6235	6235	6124	6018	6018	6018	6018	0	0	0	0	0	0	0	0	0	0	0	0	0	0	0	0	0	0	0	0	0	0	0	0	0	0	0	0	0	0	0	0	0	0	0	0	0	0	0	0	0	0	0	0	0	0	0	0	0	0	0	0	0	0	0	0	0	0	0	0	0	0	0	0	0	0	0	0	0	0	0	0	0	0	0	0	0	0	0	0	0	0	0	0	0
