0	0	0	0	0	0	0	0	0	0	700	701	700	700	701	701	703	704	704	705	708	710	713	717	726	726	728	729	729	731	734	740	742	742	743	745	747	750	755	756	760	761	761	763	773	779	779	782	782	782	784	788	793	797	802	802	804	806	806	810	814	815	817	819	821	831	833	835	841	843	845	848	852	852	852	908	908	905	905	908	908	913	913	905	908	908	908	908	910	913	915	917	920	920	922	925	927	932	935	937	940	942	945	961	969	969	972	969	966	966	966	1109	1105	1105	1113	1113	1116	1120	1120	1120	1116	1116	1120	1116	1116	1116	1116	1116	1116	1116	1116	1116	1120	1123	1123	1123	1123	0	1245	1245	1240	1236	1236	1232	1236	1236	1232	1236	1236	1245	1249	1254	1268	1263	1268	1263	1268	1272	1272	0	0	0	0	0	0	0	6349	6349	6468	6592	6468	6468	6468	6468	6468	6468	6468	6468	6468	6468	6349	6349	6468	6592	6592	6592	6592	6592	6592	6468	6468	6468	6349	6349	6349	6349	6349	6349	6349	6349	6468	6468	6468	6468	6468	6468	6468	6468	6468	6468	6468	6468	6468	6468	6468	6468	6468	6468	6468	6468	6468	6468	6349	6349	6349	6349	6349	6349	6235	6349	6349	6349	6349	6468	6349	6349	6468	6349	6349	6235	6235	6235	6124	6124	6018	6124	6124	6124	6124	6124	6235	6124	6235	6235	6235	6235	6235	6235	6235	6124	6124	6235	6235	6124	6124	6124	6124	6235	6235	6235	6235	6235	6235	6235	6235	6349	6349	6349	6235	6235	6349	6468	6468	6468	6468	6468	6468	6468	6468	6349	6349	6349	6349	6468	6468	6349	6468	6468	6468	6468	6468	6468	0	0	0	3546	3546	3546	3546	3546	3546	3510	3510	3546	3546	3510	3510	3475	3510	3475	3510	3510	3510	3546	3546	3546	3546	3546	3510	3546	3546	0	6124	6124	6124	6235	6235	6235	6235	6349	6349	6349	6349	6235	6349	6235	6235	6235	6235	6235	6235	6235	6235	6235	6349	6349	6349	6349	6349	6349	6468	6468	6468	6349	6349	6349	6235	6235	6349	6349	6349	6349	6349	6349	6349	6235	6235	6235	6235	6349	6349	6235	6235	6235	6235	6235	6235	6235	6235	6235	6235	6349	6349	6349	6349	6235	6235	6349	6235	6235	6349	6235	6235	6235	6235	6124	6124	6124	6124	6235	6235	6235	6349	6349	6349	6349	6349	6235	6235	6235	6235	6235	6235	6235	6235	6124	6124	6124	6124	6235	6235	6235	6235	6349	6468	6468	6468	6349	6468	6468	6349	6235	6235	6235	6235	6235	6235	6235	6235	6235	6235	6235	6235	6235	6235	6349	6235	6235	6235	6235	6235	6235	6235	6349	6349	6349	6349	6349	6349	6349	6349	6349	6349	6349	6349	6468	6349	6468	6468	6468	6349	6349	6349	6349	6349	6235	6235	6235	6235	6235	6349	6349	6349	6468	6349	6349	6349	6349	6349	6349	6349	6349	6349	6349	6349	6349	6349	6468	6468	6592	6468	6592	6468	6720	6720	6720	6720	6349	6349	6349	6349	6349	6349	6349	6349	6349	6349	6349	6349	6468	6349	6349	6349	6349	6349	6349	6349	6349	6349	6349	6349	6349	6349	6349	6468	6468	6468	6468	6349	6349	6349	6349	6349	6235	6235	6235	6235	6235	6235	6235	6235	6235	6235	6124	6124	6349	6349	6349	6349	6235	6235	6235	6235	6124	6124	6124	6124	6124	6124	6124	0	0	0	0	0	0	0	0	0	0	0	0	0	0	0	0	0	0	0	0	0	0	0	0	0	0	0	0	0	0	0	0	0	0	0	0	0	0	0	0	0	0	0	0	0	0	0	0	0	0	0	0	0	0	0	0	0	0	0	0
0	0	0	0	0	0	0	0	0	0	700	701	700	701	701	703	703	704	704	705	710	711	714	717	717	726	728	728	729	731	732	740	742	742	743	743	747	753	755	756	760	760	761	761	775	775	779	780	780	782	784	789	793	798	800	802	802	804	810	810	815	817	819	821	827	831	833	837	843	843	845	850	852	852	856	858	860	860	908	915	915	917	915	915	915	913	910	910	913	915	917	920	922	922	925	925	927	932	935	937	940	942	948	961	972	974	974	972	972	972	972	1091	1091	1091	1109	1113	1116	1116	1120	1120	1116	1116	1116	1116	1116	1116	1116	1116	1116	1116	1116	1120	1120	1123	1123	1123	1127	1127	1245	1245	1249	1240	1236	1236	1236	1240	1236	1240	1240	1245	1249	1263	1268	1268	1272	1268	1272	1277	1272	1272	0	0	0	0	0	0	0	6349	6468	6468	6468	6468	6468	6468	6468	6468	6468	6468	6468	6468	6468	6468	6468	6468	6592	6592	6592	6592	6592	6468	6468	6468	6468	6468	6468	6468	6349	6349	6468	6468	6468	6468	6468	6468	6468	6468	6468	6468	6468	6468	6468	6468	6468	6468	6468	6468	6468	6468	6468	6468	6468	6468	6468	6468	6468	6468	6468	6349	6349	6349	6349	6349	6349	6349	6349	6349	6349	6349	6349	6349	6349	6349	6349	6235	6124	6124	6124	6235	6124	6235	6235	6235	6235	6235	6235	6124	6124	6124	6235	6235	6124	6124	6124	6235	6124	6124	6124	6235	6235	6235	6235	6468	6349	6468	6349	6349	6349	6349	6235	6235	6349	6468	6468	6468	6468	6468	6468	6468	6468	6468	6468	6468	6468	6468	6468	6468	6468	6468	6468	6468	6468	6468	6468	0	0	3546	3546	3546	3546	3546	3546	3546	3510	3546	3546	3510	3510	3475	3510	3475	3510	3510	3510	3510	3510	3510	3510	3546	3546	3546	3583	3583	6124	6124	6124	6235	6235	6235	6235	6349	6349	6349	6349	6349	6468	6235	6468	6468	6468	6235	6235	6235	6235	6235	6235	6235	6235	6349	6349	6349	6349	6468	6468	6468	6349	6468	6349	6349	6349	6349	6349	6349	6349	6349	6235	6235	6235	6235	6349	6349	6349	6235	6235	6235	6235	6235	6235	6235	6235	6235	6235	6349	6349	6349	6349	6349	6349	6349	6468	6349	6349	6349	6349	6235	6235	6235	6124	6235	6235	6235	6235	6235	6349	6349	6349	6349	6349	6349	6349	6349	6349	6349	6235	6235	6235	6124	6124	6124	6235	6235	6235	6235	6235	6468	6468	6468	6468	6349	6349	6349	6235	6235	6235	6235	6235	6235	6235	6235	6235	6235	6235	6235	6235	6349	6349	6349	6235	6235	6235	6235	6235	6235	6235	6349	6349	6349	6349	6349	6349	6349	6349	6349	6468	6468	6349	6592	6592	6468	6592	6468	6468	6349	6349	6349	6349	0	0	0	0	0	0	6349	6349	6349	6349	6349	6349	6349	6349	6349	0	0	6349	6349	6349	6468	6468	6468	6468	6592	6592	6720	6468	6720	6720	6720	6720	0	0	0	0	0	0	0	0	0	0	0	6349	6468	6468	6468	6468	6349	6468	6468	6468	6468	6349	6349	6468	6349	6349	6349	6468	6468	6468	6468	6468	6468	6349	6349	6349	6349	6235	6235	6235	6235	6235	6235	6235	6235	6235	6235	6349	6349	6349	6349	6349	6349	6349	6349	6235	6235	6235	6235	6124	0	0	0	0	0	0	0	0	0	0	0	0	0	0	0	0	0	0	0	0	0	0	0	0	0	0	0	0	0	0	0	0	0	0	0	0	0	0	0	0	0	0	0	0	0	0	0	0	0	0	0	0	0	0	0	0	0	0	0	0	0	0	0
0	0	0	0	0	0	0	0	0	0	0	700	700	701	701	703	703	704	705	707	707	713	716	717	717	722	725	726	729	729	731	742	743	742	743	743	747	753	755	756	760	758	761	761	779	779	779	780	782	784	786	791	795	798	800	802	802	806	810	810	812	815	819	821	829	833	835	839	843	845	845	848	852	852	852	858	860	860	925	922	920	922	922	922	920	915	915	915	917	917	917	920	922	922	925	927	927	932	937	935	940	942	948	961	972	974	974	974	974	974	974	1088	1088	1088	1105	1113	1116	1116	1120	1120	1120	1116	1116	1116	1116	1116	1116	1116	1116	1116	1116	1120	1120	1123	1123	1127	1127	1127	1127	1254	1254	1245	1240	1236	1240	1240	1240	1240	1245	1254	1259	1263	1268	1272	1272	1272	1272	1282	1287	1301	1301	0	0	0	0	0	0	0	6468	6468	6468	6468	6468	6468	6468	6468	6468	6468	6468	6468	6468	6468	6468	6592	6592	6592	6592	6592	6592	6592	6592	6468	6468	6468	6468	6468	6468	6468	6468	6468	6468	6468	6468	6468	6468	6468	6592	6592	6592	6592	6468	6468	6468	6468	6468	6468	6468	6468	6468	6468	6468	6468	6468	6468	6468	6468	6468	6349	6349	6349	6349	6349	6349	6349	6349	6349	6468	6468	6468	6349	6349	6349	6468	6468	6349	6235	6349	6468	6349	6349	6349	6349	6349	6349	6235	6349	6349	6349	6349	6349	6124	6124	6235	6235	6124	6124	6124	6235	6235	6349	6468	6468	6468	6468	6468	6468	6468	6349	6235	6349	6349	6468	6468	6468	6468	6468	6468	6468	6468	6468	6468	6468	6468	6468	6468	6468	6468	6468	6468	6468	6468	6468	6468	0	0	3546	3546	3546	3546	3546	3510	3510	3510	3510	3510	3510	3475	3475	3475	3475	3475	3510	3510	3510	3510	3510	3510	3546	3583	3583	3583	3583	3583	6124	6124	6235	6235	6235	6349	6349	6349	6468	6349	6468	6468	6468	6468	6468	6468	6468	6235	6235	6235	6235	6235	6235	6235	6349	6349	6468	6468	6468	6468	6468	6468	6468	6349	6349	6349	6349	6349	6349	6349	6349	6349	6349	6235	6235	6349	6349	6349	6349	6349	6349	6349	6349	6235	6235	6235	6349	6349	6349	6349	6349	6349	6349	6349	6349	6468	6349	6468	6349	6349	6349	6349	6235	6235	6349	6235	6235	6349	6349	6349	6349	6349	6349	6349	6349	6349	6349	6349	6349	6235	6235	6235	6235	6124	6235	6235	6235	6235	6235	6235	6468	6468	6468	6468	6349	6349	6349	6235	6235	6235	6235	6235	6235	6235	6235	6349	6349	6349	6349	6349	6349	6349	6349	6235	6235	6235	6235	6235	6235	6235	6349	6349	6349	6468	6468	6468	6468	6468	6349	6468	6468	6468	6592	6592	6592	6592	6592	6592	6592	6349	6349	0	0	0	0	0	0	0	6349	6349	6592	6349	6349	6349	6349	0	0	0	0	0	0	6349	6468	6468	6468	6592	6720	6592	6720	6720	6720	6720	6720	0	0	0	0	0	0	0	0	0	0	0	0	0	6468	6468	6349	6468	6468	6592	6468	6468	6468	6468	6468	6468	6468	6468	6468	6468	6468	6592	6592	6468	6468	6349	6349	6349	6349	6235	6235	6235	6349	6235	6349	6349	6235	6235	6235	6349	6349	6349	6349	6349	6349	6349	6349	6349	6235	6235	6235	0	0	0	0	0	0	0	0	0	0	0	0	0	0	0	0	0	0	0	0	0	0	0	0	0	0	0	0	0	0	0	0	0	0	0	0	0	0	0	0	0	0	0	0	0	0	0	0	0	0	0	0	0	0	0	0	0	0	0	0	0	0	0	0
0	0	0	0	0	0	0	0	0	0	0	704	704	704	704	704	704	705	707	708	711	713	719	717	717	722	723	723	723	737	740	742	743	742	742	743	747	750	755	753	758	758	761	761	779	777	777	780	784	786	791	791	797	800	800	802	802	806	808	808	810	814	817	823	827	835	837	841	843	845	845	848	852	852	852	860	865	862	867	867	922	925	925	925	925	920	922	917	925	925	922	922	925	925	925	927	932	935	937	937	942	945	950	955	966	972	974	974	974	974	974	1085	1085	1085	1085	1113	1116	1120	1120	1120	1120	1116	1116	1116	1116	1116	1116	1116	1116	1116	1116	1120	1120	1123	1123	1127	1127	1127	1127	1259	1259	1249	1240	1240	1240	1240	1245	1245	1245	1249	1259	1263	1272	1277	1277	1277	1277	1287	1291	1301	1306	1306	0	0	0	0	0	0	0	6468	6468	6468	6468	6468	6468	6592	6468	6468	6468	6468	6468	6468	6592	6592	6592	6592	6720	6720	6720	6720	6592	6468	6468	6468	6468	6468	6468	6468	6592	6592	6468	6468	6468	6468	6468	6468	6468	6592	6592	6592	6592	6468	6468	6592	6592	6592	6468	6468	6468	6468	6468	6468	6468	6468	6468	6468	6468	6349	6349	6468	6468	6468	6468	6349	6349	6468	6468	6468	6468	6468	6468	6468	6468	6468	6468	6349	6468	6468	6349	6349	6349	6468	6349	6349	6349	6349	6349	6349	6349	6349	6349	6349	6349	6349	6235	6235	6235	6235	6235	6349	6468	6468	6468	6468	6468	6468	6468	6468	6349	6349	6349	6349	6468	6468	6468	6468	6468	6468	6468	6468	6468	6468	6468	6468	6468	6468	6468	6468	6468	6468	6468	6468	6468	6468	0	3546	3546	3546	3546	3546	3510	3510	3510	3510	3510	3510	3475	3475	3475	3475	3475	3475	3510	3510	3510	3510	3510	3510	3546	3583	3583	3583	3583	0	6235	6235	6235	6235	6349	6468	6468	6468	6468	6468	6468	6468	6468	6468	6468	6468	6468	6235	6235	6235	6235	6235	6349	6349	6349	6468	6592	6592	6468	6468	6468	6468	6349	6349	6468	6468	6592	6592	6468	6468	6349	6349	6235	6235	6235	6235	6349	6349	6349	6349	6349	6468	6349	6349	6349	6349	6349	6349	6468	6349	6349	6349	6349	6468	6468	6468	6468	6468	6468	6349	6349	6235	6349	6235	6235	6349	6235	6235	6235	6235	6235	6235	6235	6349	6349	6349	6349	6349	6235	6349	6235	6235	6235	6349	6349	6349	6349	6349	6349	6468	6468	6468	6468	6349	6468	6468	6349	6235	6235	6235	6235	6235	6235	6349	6349	6349	6349	6349	6349	6468	6349	6349	6349	6349	6235	6235	6235	6235	6235	6349	6349	6468	6468	6468	6468	6468	6468	6468	6592	6468	6592	6592	6592	6592	6592	6592	6592	6592	0	0	0	0	0	0	0	0	0	0	0	6592	6349	6349	0	0	0	0	0	0	0	0	0	0	6468	6720	6720	6720	6720	6720	6720	6720	6720	0	0	0	0	0	0	0	0	0	0	0	0	0	0	6720	6720	6468	6592	6592	6592	6468	6468	6468	6468	6468	6592	6468	6468	6592	6592	6592	6592	6592	6592	6468	6349	6349	6349	6349	6235	6235	6235	6349	6349	6349	6349	6349	6349	6349	0	6349	6349	6349	6349	6349	6349	6349	6349	6235	6235	6235	6235	0	0	0	0	0	0	0	0	0	0	0	0	0	0	0	0	0	0	0	0	0	0	0	0	0	0	0	0	0	0	0	0	0	0	0	0	0	0	0	0	0	0	0	0	0	0	0	0	0	0	0	0	0	0	0	0	0	0	0	0	0	0	0
0	0	0	0	0	0	0	0	0	0	0	704	704	704	704	704	704	705	707	707	708	711	719	717	719	722	725	725	725	737	740	742	743	742	743	743	747	750	750	753	755	756	756	756	779	779	779	780	782	786	786	791	797	800	800	802	802	806	808	808	812	817	819	821	827	837	837	841	843	845	845	848	852	852	854	865	865	865	867	867	925	927	927	927	927	925	930	932	930	930	930	927	927	927	927	932	932	935	937	937	945	945	953	955	966	972	974	974	974	977	977	977	988	988	1085	1120	1120	1120	1120	1120	1120	1116	1116	1116	1116	1116	1116	1116	1116	1116	1116	1116	1120	1120	1123	1123	1127	1127	1127	1263	1259	1254	1249	1245	1245	1245	1249	1249	1254	1254	1259	1263	1268	1277	1277	1277	1277	1291	1296	1301	1306	1306	0	0	0	0	0	0	0	0	6349	6468	6468	6468	6468	6468	6468	6468	6468	6468	6468	6592	6592	6592	6720	6720	6720	6720	6853	6853	6592	6468	6468	6468	6468	6592	6592	6592	6592	6592	6592	6592	6468	6468	6468	6592	6592	6468	6468	6592	6468	6468	6468	6468	6592	6468	6468	6468	6468	6468	6468	6468	6468	6468	6468	6468	6468	6349	6349	6468	6468	6468	6468	6468	6468	6468	6468	6468	6468	6468	6468	6468	6468	6468	6468	6349	6468	6468	6468	6468	6468	6349	6349	6349	6349	6349	6349	6349	6468	6468	6468	6468	6468	6349	6349	6349	6349	6349	6349	6349	6468	6468	6468	6468	6468	6468	6468	6468	6468	6468	6468	6468	6468	6468	6468	6468	6468	6468	6468	6468	6468	6468	6468	6468	6468	6468	6468	6468	6468	6468	6468	6468	6468	6592	6592	3583	3583	3546	3546	3510	3510	3510	3510	3510	3510	3510	3510	3475	3475	3475	3510	3475	3475	3510	3510	3510	3510	3510	3583	3583	3621	3583	3583	0	6235	6235	6235	6235	6235	6349	6349	6468	6468	6468	6468	6468	6468	6468	6592	6592	6592	6468	6468	6349	6349	6349	6349	6592	6349	6468	6468	6468	6592	6468	6468	6468	6468	6592	6592	6592	6592	6468	6468	6468	6349	6235	6235	6235	6235	6235	6349	6349	6349	6349	6349	6468	6349	6349	6349	6349	6349	6468	6468	6468	6349	6468	6468	6468	6592	6468	6468	6468	6468	6468	6468	6349	6349	6349	6349	6349	6349	6349	6349	6349	6235	6235	6235	6235	6349	6349	6235	6235	6235	6349	6349	6235	6235	6349	6349	6349	6349	6349	6349	6468	6468	6468	6468	6468	6468	6468	6349	6235	6235	6235	6349	6349	6349	6349	6349	6468	6468	6468	6468	6468	6349	6349	6349	6349	6349	6349	6349	6349	6349	6592	6592	6468	6592	6592	6592	6592	6592	6592	6468	6592	6592	6592	6592	6592	6592	6720	6720	0	0	0	0	0	0	0	0	0	0	0	0	0	0	0	0	0	0	0	0	0	0	0	0	0	0	6720	6720	6720	6720	6720	6720	0	0	0	0	0	0	0	0	0	0	0	0	0	0	0	6720	6720	6720	6592	6592	6592	6592	6468	6468	6468	6468	6468	6468	6468	6592	6592	6592	6592	6720	6720	6720	0	6349	6349	0	0	0	0	0	6349	6349	6349	6349	6349	6349	6349	0	0	0	6349	6349	6349	6349	6349	6349	6235	6235	6235	6235	0	0	0	0	0	0	0	0	0	0	0	0	0	0	0	0	0	0	0	0	0	0	0	0	0	0	0	0	0	0	0	0	0	0	0	0	0	0	0	0	0	0	0	0	0	0	0	0	0	0	0	0	0	0	0	0	0	0	0	0	0	0	0
0	0	0	0	0	0	0	0	0	0	0	704	704	704	704	704	704	705	707	708	710	711	714	717	719	722	725	725	725	740	740	742	743	743	743	743	747	750	752	753	755	755	755	755	772	773	773	775	784	788	793	795	795	798	798	800	802	804	808	808	812	817	817	819	827	835	837	841	843	845	845	850	852	854	856	862	865	865	867	867	867	932	930	930	930	930	932	935	935	932	935	932	930	930	930	932	935	937	937	942	945	948	953	958	966	972	974	974	977	977	977	988	988	988	0	1120	1120	1120	1120	1120	1116	1116	1120	1116	1116	1116	1116	1116	1116	1116	1116	1116	1120	1120	1123	1127	1127	1123	1123	1123	1263	1259	1259	1259	1259	1249	1254	1259	1259	1263	1263	1268	1272	1277	1277	1277	1277	1291	1296	1296	1306	1316	1321	1321	1321	0	0	0	0	0	6349	6468	6592	6592	6468	6592	6592	6592	6468	6592	6592	6720	6720	6720	6720	6720	6720	6720	6720	6720	6592	6468	6468	6468	6468	6592	6592	6592	6592	6592	6720	6592	6592	6592	6592	6592	6592	6592	6592	6592	6468	6468	6468	6468	6468	6468	6468	6468	6468	6468	6468	6468	6349	6349	6349	6468	6468	6349	6349	6349	6468	6468	6468	6468	6468	6468	6468	6468	6468	6468	6468	6468	6468	6468	6468	6468	6468	6468	6468	6468	6468	6349	6349	6349	6349	6468	6468	6468	6468	6468	6468	6468	6468	6468	6468	6468	6468	6468	6468	6468	6468	6468	6468	6592	6468	6468	6468	6468	6468	6468	6468	6468	6468	6468	6468	6468	6468	6468	6468	6468	6468	6468	6468	6468	6468	6468	6468	6468	6468	6468	6468	6468	6468	6592	3659	3659	3621	3583	3546	3546	3510	3510	3510	3546	3510	3510	3510	3475	3510	3510	3510	3475	3510	3510	3510	3510	3510	3546	3583	3583	3583	3583	3583	0	6349	6349	6235	6349	6349	6349	6349	6468	6468	6592	6592	6592	6592	6592	6592	6592	6592	6468	6468	6468	6349	6349	6349	6349	6349	6468	6468	6468	6468	6468	6468	6468	6468	6468	6468	6468	6592	6468	6468	6468	6349	6349	6349	6235	6235	6235	6349	6349	6349	6349	6468	6468	6468	6468	6468	6468	6468	6468	6468	6468	6468	6468	6468	6468	6592	6468	6592	6468	6468	6468	6468	6468	6468	6468	6468	6468	6468	6349	6349	6349	6349	6349	6349	6349	6349	6349	6349	6349	6349	6349	6349	6349	6349	6349	6468	6468	6468	6468	6468	6468	6592	6468	6468	6468	6349	6468	6349	6235	6235	6349	6349	6349	6349	6468	6468	6468	6468	6468	6468	6468	6468	6349	6349	6468	6468	6349	6349	6349	6349	6592	6468	6592	6592	6592	6592	6592	6592	6468	6468	6592	6468	6592	6720	6592	6592	6592	6720	0	0	0	0	0	0	0	0	0	0	0	0	0	0	0	0	0	0	0	0	0	0	0	0	0	0	6720	6720	6720	6720	6720	0	0	0	0	0	0	0	0	0	0	0	0	0	0	0	0	6720	6592	6592	6592	6468	6468	6592	6592	6468	6468	6720	6720	6720	6720	6720	6592	6468	6592	6592	6592	6720	0	0	0	0	0	0	0	0	6349	6349	6349	6349	6349	6349	6349	0	0	0	0	6349	6349	6349	6349	6349	6349	6349	6349	6349	0	0	0	0	0	0	0	0	0	0	0	0	0	0	0	0	0	0	0	0	0	0	0	0	0	0	0	0	0	0	0	0	0	0	0	0	0	0	0	0	0	0	0	0	0	0	0	0	0	0	0	0	0	0	0	0	0	0	0	0	0	0	0
0	0	0	0	0	0	0	0	0	0	0	704	704	704	704	704	704	705	707	708	710	713	716	717	720	722	726	726	726	732	732	740	743	743	743	745	747	750	752	752	755	755	755	755	772	772	775	773	775	786	789	791	795	800	797	798	802	804	806	808	810	814	817	821	827	833	835	841	843	845	848	850	852	854	854	862	942	942	942	942	940	937	935	932	932	935	935	937	937	937	937	937	932	932	932	935	937	940	942	948	950	950	953	958	966	974	974	977	980	983	985	988	988	988	0	1006	1006	1116	1116	1116	1116	1116	1116	1116	1116	1116	1116	1116	1113	1116	1116	1116	1116	1120	1123	1127	1127	1123	1123	1123	1277	1277	1277	1268	1268	1272	1277	1263	1282	1282	1268	1282	1268	1268	1277	1277	1282	1282	1301	1306	1311	1316	1321	1321	1321	0	0	0	0	0	6349	6468	6592	6592	6592	6592	6592	6592	6468	6592	6592	6720	6720	6720	6720	6720	6720	6720	6720	6720	6592	6468	6468	6592	6592	6592	6592	6592	6720	6592	6592	6720	6592	6720	6592	6592	6592	6592	6592	6592	6468	6468	6468	6468	6468	6468	6468	6468	6468	6468	6468	6468	6349	6349	6349	6349	6468	6468	6349	6349	6468	6592	6592	6468	6468	6468	6468	6468	6468	6468	6468	6468	6468	6592	6592	6468	6468	6468	6468	6468	6468	6468	6468	6349	6349	6349	6468	6468	6468	6468	6468	6592	6592	6592	6592	6592	6468	6592	6592	6592	6592	6592	6592	6592	6468	6468	6468	6468	6468	6468	6468	6468	6468	6468	6468	6468	6468	6468	6468	6468	6592	6468	6592	6468	6468	6468	6468	6468	6468	6468	6468	6468	6468	6592	6592	3621	3621	3583	3546	3546	3510	3510	3510	3546	3546	3510	3510	3475	3510	3510	3510	3475	3510	3546	3546	3546	3546	3583	3621	3621	3621	3621	3621	0	6468	6468	6349	6349	6468	6468	6349	6468	6468	6592	6592	6592	6592	6592	6592	6592	6592	6592	6468	6468	6468	6468	6468	6592	6592	6592	6592	6592	6592	6468	6468	6468	6468	6468	6468	6592	6592	6468	6592	6349	6349	6468	6349	6235	6235	6235	6349	6349	6349	6468	6468	6468	6468	6468	6349	6468	6468	6468	6468	6468	6468	6468	6468	6468	6468	6468	6592	6592	6592	6592	6468	6592	6592	6468	6592	6592	6468	6468	6468	6468	6349	6349	6349	6349	6349	6349	6349	6349	6349	6349	6349	6349	6349	6349	6468	6468	6468	6468	6468	6468	6468	6468	6468	6349	6349	6349	6349	6235	6235	6349	6349	6468	6468	6468	6468	6468	6468	6468	6468	6468	6349	6349	6349	6468	6468	6468	6468	6468	6468	6592	6592	6592	6720	6720	6592	6720	6592	6592	6592	6592	6592	6720	6720	6720	6720	6720	0	0	0	0	0	0	0	0	0	0	0	0	0	0	0	0	0	0	0	0	0	0	0	0	0	0	0	6720	6720	6349	6349	6349	6349	0	0	0	0	0	0	0	0	0	0	0	0	0	6720	6720	6720	6720	6720	6592	6592	6592	6592	6592	6592	6720	6720	6720	6720	6592	6592	6592	6592	6592	6592	6592	0	0	0	0	0	0	0	0	0	0	0	6349	6349	6349	6349	6349	0	0	0	0	6349	6349	6468	6468	6349	6349	6349	6349	6349	0	0	0	0	0	0	0	0	0	0	0	0	0	0	0	0	0	0	0	0	0	0	0	0	0	0	0	0	0	0	0	0	0	0	0	0	0	0	0	0	0	0	0	0	0	0	0	0	0	0	0	0	0	0	0	0	0	0	0	0	0	0	0
0	0	0	0	0	0	0	0	0	0	0	703	703	704	704	704	703	704	705	708	710	711	719	720	722	723	726	728	729	731	734	736	740	742	743	745	747	750	752	753	755	755	755	772	773	773	773	773	775	786	788	791	795	800	797	800	802	804	804	808	810	814	817	823	829	831	833	839	843	845	848	852	852	852	854	854	867	867	942	942	940	940	935	935	935	937	937	940	940	940	940	940	937	937	937	937	940	945	948	950	950	950	953	955	963	972	974	977	980	983	988	997	997	997	0	1006	1006	1116	1116	1120	1120	1120	1116	1116	1116	1116	1116	1116	1113	1116	1116	1116	1116	1120	1123	1127	1123	1123	1123	0	1296	1291	1287	1277	1291	1282	1277	1272	1272	1277	1272	1272	1272	1282	1282	1282	1282	1296	1301	1306	1311	1321	1321	1306	1306	1306	0	0	0	0	0	0	6592	6592	6592	6592	6592	6592	6592	6592	6592	6720	6720	6720	6720	6720	6720	6720	6720	6592	6592	6468	6592	6592	6592	6592	6592	6592	6592	6592	6592	6720	6592	6720	6592	6592	6592	6592	6592	6592	6592	6592	0	0	6468	6468	6468	6468	6468	6468	6468	6468	6349	6349	6468	6468	6468	6468	0	0	6468	6592	6592	6592	6592	6468	6468	6468	6468	6468	6468	6468	6468	6592	6592	6592	6592	6592	6468	6468	6468	6468	6468	6468	6468	6468	6468	6468	6468	6592	6592	6592	6592	6592	6592	6592	6592	6592	6592	6592	6592	6592	6592	6592	6468	6468	6468	6468	6468	6468	6468	6468	6468	6468	6468	6468	6468	6468	6468	6592	6592	6592	6592	6592	6468	6468	6468	6349	6468	6349	6468	6468	6468	6468	6592	6592	6592	3583	3546	3546	3510	3510	3510	3546	3546	3510	3510	3510	3510	3510	3510	3475	3510	3546	3546	3546	3546	3583	3621	3621	3621	3621	3621	6592	6592	6592	6468	6468	6468	6468	6349	6468	6468	6468	6592	6592	6592	6592	6592	6592	6592	6592	6468	6468	6592	6468	6468	6592	6468	6592	6592	6592	6592	6592	6592	6468	6468	6468	6468	6592	6592	6592	6592	6468	6468	6468	6592	6592	6235	0	0	6468	6468	6468	6592	6592	6468	6468	6468	6468	6468	6468	6468	6468	6468	6468	6468	6468	6468	6468	6592	6592	6592	6592	6592	6592	6592	6592	6592	6592	6592	6468	6468	6468	6349	6349	6349	6349	6349	6468	6349	6349	6349	6349	6349	6349	6349	6468	6468	6592	6592	6592	6468	6468	6468	6468	6468	6349	6349	6349	6349	6349	6468	6468	6468	6468	6468	6592	6592	6592	6468	6468	6468	6468	6349	6349	6349	6468	6468	6468	6468	6468	6468	6592	6592	6720	6592	6720	6720	6592	6592	6592	6720	6720	6720	6720	6720	6720	6720	6720	0	0	0	0	0	0	0	0	0	0	0	0	0	0	0	0	0	0	0	0	0	0	0	0	0	0	0	0	6720	6349	6349	6349	6349	0	0	0	0	0	0	0	0	0	0	0	0	6853	6720	6720	6720	6720	6720	6720	6592	6720	6720	6720	6720	6720	6720	6592	6592	6720	6720	6592	6592	6592	6592	6592	0	0	0	0	0	0	0	0	0	0	0	6349	6349	6349	6349	6468	6468	0	0	0	6349	6468	6468	6468	6468	6468	6468	6468	6468	0	0	0	0	0	0	0	0	0	0	0	0	0	0	0	0	0	0	0	0	0	0	0	0	0	0	0	0	0	0	0	0	0	0	0	0	0	0	0	0	0	0	0	0	0	0	0	0	0	0	0	0	0	0	0	0	0	0	0	0	0	0	0
0	0	0	0	0	0	0	0	0	0	0	703	703	704	703	704	703	704	707	708	710	710	714	722	723	725	725	729	729	732	734	736	739	740	743	745	747	748	750	752	753	753	753	772	772	773	773	773	775	784	788	789	793	798	797	800	802	804	804	808	812	814	817	821	829	831	833	839	841	843	845	850	852	858	862	862	869	869	875	875	875	884	887	887	942	942	940	942	942	942	942	942	942	940	942	942	942	945	948	953	953	953	955	958	961	969	974	977	983	985	991	997	1000	1003	1006	1006	1006	1014	1014	1120	1120	1116	1116	1113	1113	1116	1116	1113	1113	1113	1116	1116	1116	1120	1123	1127	1127	1127	1127	0	1296	1287	1287	1277	1296	1291	1282	1282	1282	1287	1291	1287	1282	1282	1287	1287	1291	1296	1301	1306	1311	1321	1326	1311	1311	1311	0	0	0	0	0	0	0	6592	6592	6592	6592	6592	6592	6592	6720	6853	6853	6853	6853	6853	6853	6853	6720	6592	6592	6592	6592	6592	6592	6592	6592	6592	6592	0	0	0	0	6720	6592	6592	6592	6592	6592	6592	6592	6592	0	0	0	0	0	6468	6468	6468	6592	6592	6468	6468	6468	6468	6468	6468	6468	0	0	0	6720	6592	6592	6468	6468	6468	6592	6592	6592	6592	6592	6592	6592	6592	6592	6592	6592	6592	6592	6592	6592	6592	6592	6592	6592	6592	6468	6592	6592	6592	6592	6592	6592	6592	6468	6592	6592	6592	6592	6592	6468	6592	6468	6468	6468	6468	6468	6468	6468	6468	6468	6468	6468	6468	6468	6592	6592	6592	6592	6592	6592	6592	6468	6468	6468	6349	6468	6468	6468	6468	6592	6592	6592	6592	6592	3583	3546	3546	3510	3510	3510	3546	3546	3510	3510	3510	3510	3546	3546	3510	3546	3546	3546	3546	3583	3583	3583	3621	3621	3621	6592	6592	6592	6592	6592	6592	6592	6592	6468	6468	6468	6468	6592	6592	6592	6592	6592	6592	6592	6592	6592	6592	6592	6592	6592	6720	6720	6592	6592	6592	6592	6592	6468	6468	6468	6468	6592	6592	6592	6592	6592	6592	6592	6592	6592	6592	0	0	0	6468	6468	6468	6592	6592	6468	6592	6468	6468	6468	6468	6468	6468	6468	6468	6468	6468	6592	6592	6592	6592	6592	6592	6592	6592	6592	6592	6592	6592	6468	6468	6468	6468	6349	6468	6349	6349	6349	6468	6349	6349	6349	6349	6349	6468	6349	6468	6592	6592	6592	6592	6468	6468	6592	6468	6468	6349	6349	6468	6468	6468	6468	6468	6468	6468	6468	6468	6468	6468	6468	6468	6468	6468	6468	6349	6468	6592	6468	6468	6468	6468	6468	6592	6592	6720	6720	6720	6720	6720	6720	6720	6720	6720	6720	6720	6720	6720	6720	6720	0	0	0	0	0	0	0	0	0	0	0	0	0	0	0	0	0	0	0	0	0	0	0	0	0	0	0	0	0	0	0	0	0	0	0	0	0	0	0	0	0	0	0	0	0	6720	6720	6720	6720	6720	6720	6720	6720	6720	6720	6720	6592	6592	6592	6592	6592	6592	6720	6720	6720	6720	6720	6592	0	0	6592	6720	6720	0	0	0	0	0	6468	6468	6468	6468	6468	6468	6468	6468	6592	6592	6468	6468	6468	6468	6468	6468	6349	6468	6468	0	0	0	0	0	0	0	0	0	0	0	0	0	0	0	0	0	0	0	0	0	0	0	0	0	0	0	0	0	0	0	0	0	0	0	0	0	0	0	0	0	0	0	0	0	0	0	0	0	0	0	0	0	0	0	0	0	0	0	0	0	0	0
0	0	0	0	0	0	0	0	0	0	0	0	703	703	703	703	703	704	705	708	710	713	716	717	722	723	725	728	731	732	734	736	739	740	743	745	747	748	752	753	755	758	761	767	772	773	773	773	775	777	782	789	795	797	797	800	802	804	806	808	810	812	814	819	827	831	833	839	841	843	845	848	850	856	860	860	869	871	871	875	882	884	884	887	887	887	942	945	942	945	945	948	948	945	948	945	948	948	950	953	953	955	955	958	963	969	972	977	983	991	997	1003	1000	1003	1008	1011	1014	1014	1014	1116	1116	1116	1116	1113	1113	1113	1113	1113	1113	1113	1113	1113	1116	1116	1116	1127	1127	1127	1127	0	1301	1301	1296	1296	1301	1291	1287	1287	1287	1296	1296	1291	1287	1287	1287	1287	1291	1296	1301	1311	1321	1326	1331	1331	1336	1336	1336	1336	0	0	0	0	0	6592	6592	6720	6592	6592	6720	6720	6853	6853	6720	6853	6720	6853	6853	6853	0	0	0	6592	6592	6592	6592	6592	6592	6592	6592	0	0	0	0	0	6592	6592	6720	6720	6720	6720	6592	6592	0	0	0	0	0	0	0	6468	6592	6592	6468	6592	6592	6592	6468	6468	6468	0	0	0	6720	6720	6592	6592	6592	6592	6592	6592	6592	6592	6592	6592	6592	6592	6592	6592	6592	6592	6592	6592	6592	6592	6592	6592	6592	6592	6592	6592	6592	6592	6592	6592	6592	6592	6592	6592	6592	6592	6592	6592	6468	6592	6468	6468	6468	6468	6468	6468	6468	6468	6468	6468	6468	6468	6592	6592	6592	6592	6592	6592	6592	6592	6468	6468	6349	6349	6468	6468	6468	6468	6468	6468	6468	6468	6468	0	3546	3546	3546	3546	3510	3546	3546	3546	3546	3546	3546	3546	3546	3546	3546	3583	3583	3583	3583	3583	3621	3621	3621	3621	6592	6592	6592	6592	6592	6592	6592	6592	6592	6592	6592	6592	6592	6592	6592	6592	6592	6592	6592	6592	6592	6592	6592	6592	6592	6592	6720	6592	6592	6592	6592	6468	6468	6468	6592	6592	6592	6592	6592	6592	6592	6592	6592	6592	6592	0	0	0	0	6468	6592	6592	6592	6592	6592	6592	6592	6468	6468	6468	6468	6468	6468	6468	6592	6592	6592	6592	6592	6592	6592	6592	6592	6592	6592	6592	6592	6592	6592	6592	6592	6468	6468	6468	6468	6468	6349	6468	6349	6349	6349	6349	6349	6468	6468	6468	6592	6592	6592	6592	6592	6592	6592	6468	6468	6468	6468	6468	6592	6468	6468	6592	6468	6468	6468	6592	6468	6468	6468	6468	6468	6468	6468	6349	6592	6592	6468	6349	6468	6468	6468	6592	6592	6720	6720	6720	6720	6720	6720	6720	6720	6720	6720	6720	6720	6720	6720	0	0	0	0	0	0	0	0	0	0	0	0	0	0	0	0	0	0	0	0	0	0	0	0	0	0	0	0	0	0	0	0	0	0	0	0	0	0	0	0	0	0	0	0	0	6720	6720	6720	6720	6720	6720	6720	6720	6720	6720	6720	6720	6592	6592	6592	6720	6720	6592	6720	6720	6720	6720	6720	0	0	6720	6720	6720	6720	6720	0	0	0	0	6468	6468	6468	6592	6468	6592	6592	6592	6592	6592	6468	6468	6592	6468	6468	6468	6349	6468	6468	0	0	0	0	0	0	0	0	0	0	0	0	0	0	0	0	0	0	0	0	0	0	0	0	0	0	0	0	0	0	0	0	0	0	0	0	0	0	0	0	0	0	0	0	0	0	0	0	0	0	0	0	0	0	0	0	0	0	0	0	0	0	0
0	0	0	0	0	0	0	0	0	0	0	0	703	703	703	703	703	704	705	708	710	710	713	714	720	723	725	726	729	731	734	734	737	739	743	743	743	748	753	753	755	758	758	772	773	773	773	775	775	775	780	789	793	795	797	800	802	806	806	808	812	814	814	819	825	829	833	839	843	843	845	845	850	852	852	860	873	871	873	878	884	884	884	889	889	882	882	948	945	948	948	950	953	950	950	950	953	953	955	955	955	955	958	961	966	969	972	977	988	994	997	1000	1000	1003	1008	1014	1017	1023	1023	1023	1023	1116	1116	1113	1113	1113	1113	1113	1113	1113	1113	1116	1116	1116	1123	1127	1123	1127	1127	0	1306	1306	1301	1301	1301	1296	1296	1301	1301	1301	1301	1296	1291	1291	1291	1296	1301	1301	1311	1321	1321	1326	1331	1331	1336	1336	1336	1336	0	0	0	0	0	0	0	6853	6592	6592	6592	6720	6853	6853	6853	6853	6853	6853	6853	0	0	0	0	0	6592	6592	6592	6592	6592	6592	6592	0	0	0	0	0	0	0	6720	6720	6720	6720	6592	6592	0	0	0	0	0	0	0	0	0	0	0	6592	6592	6592	0	0	0	0	0	0	0	6720	6720	6592	6592	6592	6592	6592	6592	6592	6592	6592	6592	6592	6720	6592	6592	6592	6592	6592	6592	6592	6592	6592	6592	6592	6592	6592	6592	6592	6592	6592	6592	6592	6592	6592	6592	6592	6592	6592	6468	6592	6468	6468	6468	6468	6468	6468	6468	6468	6468	6468	6592	6592	6592	6592	6592	6592	6592	6592	6592	6592	6592	6468	6468	6468	6468	6468	6468	6468	6468	6468	6468	6468	6468	0	3546	3546	3546	3546	3510	3546	3546	3546	3546	3546	3546	3546	3546	3546	3546	3583	3583	3583	3583	3583	3583	3583	3583	3621	6720	6720	6720	6720	6720	6720	6720	6592	6592	6720	6720	6720	6720	6592	6592	6720	6592	6720	6720	6720	6720	6592	6592	6720	6592	6592	6720	6592	6720	6592	6592	6592	6592	6468	6592	6592	6592	6592	6592	6720	6720	6592	6592	6592	6592	6592	0	0	0	6720	6592	6720	6720	6592	6592	6592	6592	6468	6468	6592	6592	6592	6592	6592	6592	6592	6592	6592	6592	6592	6720	6720	6592	6592	6592	6592	6592	6592	6592	6592	6592	6592	6468	6468	6468	6468	6349	6468	6468	6349	6349	6349	6349	6592	6468	6592	6592	6592	6592	6592	6592	6592	6592	6592	6592	6592	6468	6468	6592	6468	6592	6592	6592	6592	6592	6592	6592	6592	6468	6468	6468	6468	6468	6468	6468	6720	6468	6468	6468	6592	6468	6720	6720	6720	6720	6853	6720	6720	6720	6720	6720	6853	6853	6853	0	0	0	0	0	0	0	0	0	0	0	0	0	0	0	0	0	0	0	0	0	0	0	0	0	0	0	0	0	0	0	0	0	0	0	0	0	0	0	0	0	0	0	0	0	0	6720	6853	6720	6720	6720	6720	6720	6720	6720	6720	6720	6720	6720	6720	6720	6720	6720	6720	6720	0	0	0	0	0	0	0	0	6853	6853	6853	6720	6720	6720	6720	6720	6592	6468	6592	6592	6592	6592	6592	6592	6592	6592	6592	0	6468	6592	6720	6592	6592	6592	6468	6468	0	0	0	0	0	0	0	0	0	0	0	0	0	0	0	0	0	0	0	0	0	0	0	0	0	0	0	0	0	0	0	0	0	0	0	0	0	0	0	0	0	0	0	0	0	0	0	0	0	0	0	0	0	0	0	0	0	0	0	0	0	0	0
0	0	0	0	0	0	0	0	0	0	0	0	698	700	701	701	703	704	704	708	708	711	717	719	722	723	726	729	729	731	732	734	737	739	745	743	743	747	752	753	755	758	772	772	773	773	775	775	775	777	782	784	788	795	795	798	804	808	808	810	812	814	814	814	825	825	831	831	839	841	845	845	850	852	852	860	869	871	875	880	884	884	884	889	889	887	887	887	948	953	953	955	961	958	955	955	955	958	958	958	958	958	961	963	969	972	974	977	985	994	994	994	1000	1003	1011	1011	1020	1020	1023	1023	1023	1116	1116	1113	1113	1113	1113	1113	1113	1113	1113	1116	1116	1116	1123	1131	1123	1131	1134	1134	1306	1306	1301	1306	1301	1301	1301	1306	1296	1301	1306	1301	1296	1296	1296	1306	1306	1306	1311	1311	1326	1331	1331	1331	1336	1336	1342	1342	1342	1342	0	0	0	0	0	6853	6592	6992	6853	6853	6853	6853	6853	6853	6853	6720	6592	6592	0	0	0	0	6592	6592	6592	6592	6592	6592	0	0	0	0	0	0	0	0	0	0	0	0	0	0	0	0	0	0	0	0	0	0	0	0	6853	6720	6720	6720	6992	7137	7137	7137	7137	7137	7137	6853	6853	6720	6592	6592	6592	6592	6592	6592	6720	6720	6592	6720	6720	6592	6592	6592	6720	6720	6720	6592	6592	6592	6592	6592	6592	6592	6592	6592	6592	6592	6592	6592	6592	6592	6592	6720	6592	6592	6468	6592	6468	6468	6468	6468	6468	6468	6468	6592	6592	6592	6592	6592	6592	6592	6592	6592	6592	6592	6592	6592	6592	6468	6592	6592	6592	6468	6468	6468	6468	6468	6468	6468	6468	0	0	3546	3546	3546	3510	3546	3546	3546	3546	3510	3546	3546	3546	3546	3546	3583	3583	3583	3583	3583	3583	3583	3583	0	6853	6720	6720	6720	6720	6720	6720	6720	6720	6720	6720	6720	6720	6720	6720	6720	6720	6720	6720	6720	6720	6592	6592	6592	6592	6592	6592	6592	6720	6720	6720	6720	6592	6592	6592	6592	6592	6592	6592	6720	6592	6592	6592	6592	6592	6592	6720	6720	6720	6720	6592	6720	6592	6592	6592	6592	6592	6592	6592	6592	6592	6592	6592	6592	6720	6592	6592	6592	6592	6720	6720	6720	6592	6592	6592	6592	6592	6592	6592	6592	6592	6592	6468	6592	6592	6468	6468	6468	6468	6468	6468	6349	6349	6468	6468	6468	6592	6592	6720	6592	6720	6720	6720	6720	6720	6720	6592	6592	6592	6468	6592	6592	6592	6592	6592	6592	6592	6592	6592	6468	6468	6468	6468	6468	6468	6592	6468	6468	6468	6592	6592	6720	6720	6720	6720	6720	6720	6720	6720	6720	6853	6853	6853	6853	0	0	0	0	0	0	0	0	0	0	0	0	0	0	0	0	0	0	0	0	0	0	0	0	0	0	0	0	0	0	0	0	0	0	0	0	0	0	0	0	0	0	0	0	0	0	6853	6853	6720	6720	6720	6720	6720	6720	6720	6720	6720	6720	6720	6720	6720	6720	6720	6720	6720	6720	6853	6853	0	0	6853	6853	6992	6853	6853	6853	6853	6853	6853	6853	6720	6720	6720	6720	6720	6592	6592	6592	6592	0	0	0	0	0	0	6720	6592	6592	6592	0	0	0	0	0	0	0	0	0	0	0	0	0	0	0	0	0	0	0	0	0	0	0	0	0	0	0	0	0	0	0	0	0	0	0	0	0	0	0	0	0	0	0	0	0	0	0	0	0	0	0	0	0	0	0	0	0	0	0	0	0	0	0	0	0
0	0	0	0	0	0	0	0	0	0	0	0	698	700	701	701	701	703	704	708	710	711	714	716	722	723	726	728	728	728	732	732	736	739	743	743	743	745	752	753	753	753	753	773	773	775	775	775	775	777	782	789	789	791	795	797	798	808	808	810	812	814	812	814	827	827	831	831	839	841	845	848	852	854	854	860	860	871	875	880	884	884	887	889	889	889	894	894	894	958	961	961	963	961	961	961	958	961	961	961	958	961	963	966	969	972	974	974	983	983	994	997	1000	1003	1011	1017	1020	1020	1023	1023	1023	1023	1113	1113	1113	1113	1113	1113	1113	1113	1113	1116	1116	1113	1116	1131	1123	1134	1138	1138	0	1316	1306	1316	1316	1306	1311	1301	1301	1311	1301	1296	1296	1301	1306	1311	1311	1306	1311	1316	1321	1326	1336	1331	1342	1336	1347	1347	1347	1342	0	0	0	0	0	0	7137	6992	6992	6853	6992	6992	6853	6853	6853	6853	6720	6720	6720	6720	0	0	0	0	6592	6592	6592	6592	0	0	0	0	0	0	0	0	0	0	6853	6853	6720	6720	0	6592	6592	0	0	0	0	0	0	0	6992	6853	6720	6720	6992	6992	7137	7137	7137	7137	7137	6853	6853	6720	6592	6592	6592	6592	6592	6592	6720	6720	6720	6720	6720	6720	6592	6720	6853	6853	6720	6720	6720	6720	6720	6592	6592	6592	6592	6592	6720	6592	6592	6592	6592	6592	6720	6720	6592	6592	6592	6592	6468	6468	6468	6468	6468	6468	6468	6468	6468	6592	6592	6592	6720	6720	6720	6720	6592	6592	6592	6592	6468	6468	6592	6592	6592	6592	6592	6592	6592	6592	6592	6468	6468	0	0	3546	3546	3546	3510	3583	3583	3546	3546	3546	3546	3546	3546	3583	3583	3583	3583	3583	3583	3583	3583	0	0	0	6853	6853	6720	6720	6720	6720	6720	6720	6720	6720	6720	6720	6720	6592	6592	6592	6592	6720	6720	6720	6720	6720	6720	6720	6720	6720	6720	6720	6720	6720	6720	6592	6592	6592	6720	6720	6592	6720	6592	6720	6592	6592	6592	6592	6592	6720	6720	6720	6720	6720	6720	6720	6720	6592	6592	6592	6592	6592	6592	6592	6592	6592	6592	6720	6720	6720	6592	6720	6720	6720	6720	6720	6720	6592	6592	6592	6592	6592	6592	6592	6592	6592	6592	6592	6592	6592	6468	6592	6592	6592	6468	6468	6468	6592	6592	6592	6592	6720	6720	6720	6720	6720	6720	6720	6720	6720	6592	6592	6592	6592	6592	6592	6592	6592	6592	6592	6592	6592	6592	6468	6468	6468	6468	6468	6592	6592	6592	6468	6468	6468	6468	6720	6720	6720	6720	6720	6853	6853	6853	6853	6853	6720	6720	6853	0	0	0	0	0	0	0	0	0	0	0	0	0	0	0	0	0	0	0	0	0	0	0	0	0	0	0	0	0	0	0	0	0	0	0	0	0	0	0	0	0	0	0	0	0	6853	6853	6853	6853	6853	6720	6720	6720	6720	6720	6720	6720	6720	6720	6720	6853	6853	6720	6720	6720	6720	6720	6720	0	0	6853	6853	6853	6853	6853	6853	6853	6853	6853	6853	6853	6853	6720	6720	6720	6720	6592	6592	0	0	0	0	0	0	0	0	0	0	0	0	0	0	0	0	0	0	0	0	0	0	0	0	0	0	0	0	0	0	0	0	6018	6018	0	0	0	0	0	0	0	0	0	0	0	0	0	0	0	0	0	0	0	0	0	0	0	0	0	0	0	0	0	0	0	0	0	0	0	0	0	0	0	0	0	0
0	0	0	0	0	0	0	0	0	0	0	697	698	698	700	700	701	703	704	708	710	711	714	716	717	722	723	726	728	728	732	732	737	739	743	743	743	745	750	752	748	748	748	772	773	773	775	777	777	779	784	788	789	793	797	800	802	802	808	810	812	814	814	814	825	829	831	831	837	837	843	845	850	852	854	860	862	873	875	880	882	884	887	889	891	891	894	894	894	894	963	963	966	963	963	963	961	963	963	963	961	963	966	969	969	972	977	983	983	991	997	997	1000	1003	1008	1014	1017	1020	1020	1020	1033	1033	1113	1109	1113	1113	1113	1113	1113	1113	1116	1116	1116	1116	1116	1123	1131	1138	1138	1146	1142	1142	1306	1331	1326	1316	1321	1316	1316	1321	1311	1301	1301	1311	1316	1316	1316	1316	1321	1321	1326	1331	1342	1342	1342	1336	1347	1347	1347	0	0	0	0	0	0	0	7137	7137	6992	6992	6992	6992	6992	6992	6853	6853	6853	6720	6720	6720	0	0	0	0	0	6853	6853	6853	6853	0	0	0	0	0	0	0	0	6992	6853	6853	6720	6592	6592	6720	6720	0	0	7137	7137	7137	0	7137	6992	6853	6720	6720	6992	6992	6992	7137	7137	7137	6992	6992	6853	6853	6592	6592	6592	6592	6592	6720	6720	6720	6720	6853	6853	6853	6720	6720	6853	6853	6853	6853	6853	6853	6720	6720	6720	6720	6720	6720	6720	6720	6592	6592	6592	6592	6720	6720	6720	6720	6592	6592	6592	6468	6468	6468	6468	6592	6468	6468	6592	6720	6592	6720	6720	6720	6720	6720	6592	6592	6592	6592	6592	6592	6592	6592	6592	6592	6592	6592	6592	6592	6592	6592	6468	0	0	3546	3546	3546	3510	3583	3546	3546	3546	3510	3546	3546	3546	3583	3583	3583	3583	3583	3583	3583	3583	0	0	0	6853	6853	6720	6720	6720	6720	6720	6720	6720	6720	6720	6720	6720	6592	6592	6592	6592	6720	6720	6720	6720	6720	6720	6720	6720	6720	6720	6720	6853	6720	6720	6720	6592	6592	6720	6720	6720	6720	6720	6720	6720	6720	6592	6720	6720	6853	6853	6853	6853	6720	6720	6720	6720	6720	6720	6720	6720	6720	6720	6592	6592	6592	6592	6720	6720	6720	6720	6720	6720	6853	6720	6720	6720	6592	6592	6592	6592	6592	6592	6592	6592	6592	6592	6592	6592	6592	6592	6592	6592	6592	6592	6592	6592	6592	6592	6592	6592	6720	6720	6720	6720	6720	6720	6720	6720	6720	6720	6720	6592	6592	6592	6592	6592	6592	6592	6592	6592	6592	6592	6468	6468	6592	6592	6592	6592	6592	6592	6592	6592	6592	6592	6720	6720	6720	6720	6720	6853	6853	6853	6853	6853	6853	6720	0	0	0	0	0	0	0	0	0	0	0	0	0	0	0	0	0	0	0	0	0	0	0	0	0	0	0	0	0	0	0	0	0	0	0	0	0	0	0	0	0	0	0	0	0	0	6853	6853	6853	6853	6853	6853	6720	6720	6720	6720	6720	6720	6853	6720	6720	6853	6853	6720	6720	6853	6853	6853	6853	6853	6853	6853	6853	6853	6853	6853	6853	6853	6853	6853	6853	6853	6853	6853	6853	6853	6853	0	0	0	0	6992	6992	0	0	0	0	0	0	0	0	6349	6468	6468	0	6720	6720	6720	6720	0	0	0	0	0	0	0	0	6468	6468	6124	6018	6018	6018	0	0	0	0	0	0	0	0	0	0	0	0	0	0	0	0	0	0	0	0	0	0	0	0	0	0	0	0	0	0	0	0	0	0	0	0	0	0	0	0	0	0
0	0	0	0	0	0	0	0	0	0	0	698	698	698	700	700	701	701	704	711	713	714	716	717	717	722	723	726	728	729	732	734	737	740	743	743	745	745	750	755	755	755	772	772	772	773	775	777	777	780	784	789	793	793	795	798	798	804	808	810	814	815	814	817	817	827	829	831	837	839	841	841	850	854	856	860	862	871	875	878	880	882	884	887	889	889	894	894	894	894	966	972	972	972	972	969	966	966	966	966	966	969	972	972	974	977	980	985	985	991	994	997	1000	1000	1011	1014	1017	1017	1020	1036	1033	1033	0	1109	1113	1113	1113	1113	1113	1113	1116	1116	1116	1116	1116	1123	1127	1138	1138	1146	1146	1146	0	1336	1331	1331	1326	1321	1321	1321	1316	1311	1316	1316	1316	1321	1321	1321	1321	1326	1336	1342	1342	1342	1342	1342	1347	1352	1352	1352	0	0	0	0	0	0	7137	7137	7137	6992	6992	6992	6992	6992	6992	6992	6853	6853	6853	0	6853	6853	6853	6853	6992	6992	6992	6853	6992	6992	6992	0	0	0	0	0	6992	6992	6992	6992	6853	6853	6853	6853	6853	6992	7137	7137	7137	7137	7137	7137	6992	6853	6853	6720	6992	6992	6992	6992	7137	7137	6992	6992	6992	6853	6592	6592	6592	6592	6592	6592	6720	6720	6853	6853	6853	6853	6720	6720	6720	6720	6720	6720	6853	6853	6853	6720	6720	6720	6720	6720	6720	6720	6720	6592	6592	6592	6720	6720	6720	6720	6592	6720	6592	6468	6468	6592	6592	6592	6592	6592	6592	6592	6592	6720	6720	6720	6720	6592	6592	6592	6592	6592	6592	6592	6592	6592	6592	6720	6720	6720	6592	6592	6592	6592	6592	0	0	3546	3546	3546	3546	3583	3583	3583	3583	3583	3583	3583	3583	3583	3583	3583	3583	3583	3583	3583	3583	0	0	0	6992	6853	6853	6720	6720	6720	6720	6720	6720	6720	6720	6720	6720	6720	6720	6720	6720	6720	6720	6720	6720	6720	6720	6720	6720	6720	6720	6720	6853	6853	6720	6720	6720	6720	6853	6720	6720	6720	6720	6720	6592	6592	6592	6720	6720	6853	6853	6853	6853	6720	6720	6853	6720	6720	6720	6720	6720	6720	6592	6592	6592	6592	6592	6720	6720	6720	6720	6853	6853	6853	6720	6720	6720	6592	6592	6592	6592	6592	6592	6592	6592	6592	6592	6592	6592	6592	6592	6592	6592	6592	6592	6592	6592	6592	6592	6592	6592	6720	6720	6720	6720	6720	6720	6853	6720	6720	6720	6720	6592	6720	6592	6592	6592	6592	6592	6592	6592	6592	6592	6592	6592	6720	6720	6720	6720	6720	6720	6720	6720	6592	6468	6720	6720	6720	6720	6720	6853	6853	6853	6853	6853	6853	0	0	0	0	0	0	0	0	0	0	0	0	0	0	0	0	0	0	0	0	0	0	0	0	0	0	0	0	0	0	0	0	0	0	0	0	0	0	0	0	0	0	0	0	0	0	6853	6853	6853	6853	6853	6853	6853	6853	6853	6853	6853	6853	6853	6853	6853	6853	6853	6853	6720	6720	6720	6853	6853	6853	6853	6853	6853	6853	6853	6853	6853	6853	6853	6853	6853	6853	6853	6853	6853	6853	6853	6853	0	0	0	6853	6853	6592	6468	6468	6468	0	0	0	0	0	6349	6349	6349	0	6720	6720	6720	6720	0	0	0	0	0	0	0	6720	6592	6468	6235	6235	6235	6235	0	0	0	0	0	0	0	0	0	0	0	0	0	0	0	0	0	0	0	0	0	0	0	0	0	0	0	0	0	0	0	0	0	0	0	0	0	0	0	0	0	0
0	0	0	0	0	0	0	0	0	0	0	698	698	700	700	700	701	704	707	711	713	716	717	719	717	722	723	726	728	729	732	732	739	740	743	743	745	748	752	755	755	758	758	758	772	773	775	777	777	782	784	788	788	793	795	797	797	797	808	810	812	814	815	819	819	825	825	831	837	839	839	845	850	854	854	858	860	862	875	875	880	880	882	884	889	891	894	896	908	913	913	974	974	974	974	974	969	969	972	972	972	974	977	977	980	980	985	985	985	991	994	997	997	1000	1006	1011	1017	1020	1023	1023	1033	1033	0	0	1113	1113	1113	1113	1113	1113	1116	1116	1116	1116	1120	1123	1127	1131	1131	1131	1146	1342	1342	1342	1336	1336	1336	1331	1331	1326	1316	1316	1321	1321	1321	1321	1326	1326	1331	1336	1342	1342	1342	1342	1342	1342	1347	1352	1352	1352	0	0	0	0	0	0	0	7287	7137	6992	6992	6992	6992	6992	6992	6992	6853	6853	6853	6853	6853	6992	6992	6992	6992	6992	6992	6992	6992	6992	6720	6992	6992	7137	7137	7137	7137	7137	6992	6992	6853	6853	6853	6853	6853	6992	6992	6992	6992	6992	7137	6992	6992	6853	6720	6720	6992	6992	6992	6992	6992	6992	6992	6992	6853	6853	6592	6592	6592	6592	6720	6720	6720	6853	6992	6992	6992	6853	6853	6853	6720	6720	6720	6720	6853	6853	6853	6720	6853	6853	6853	6720	6720	6720	6720	6720	6720	6720	6853	6853	6853	6853	6853	6853	6720	6592	6592	6592	6592	6720	6720	6592	6720	6592	6592	6592	6592	6592	6853	6592	6592	6592	6720	6720	6720	6720	6592	6592	6720	6720	6720	6720	6592	6592	6592	6592	6592	0	0	3583	3546	3546	3546	3583	3583	3583	3583	3583	3583	3583	3583	3583	3583	3583	3583	3583	3583	3583	3583	0	0	0	6992	6992	6992	6853	6720	6720	6720	6720	6720	6720	6720	6720	6720	6720	6720	6720	6720	6720	6853	6853	6853	6720	6853	6720	6720	6720	6720	6853	6853	6992	6992	6853	6853	6992	6992	6720	6720	6720	6720	6720	6720	6592	6592	6720	6853	6853	6853	6853	6853	6853	6853	6853	6853	6853	6853	6720	6720	6720	6720	6592	6592	6592	6720	6720	6720	6853	6853	6853	6853	6853	6853	6720	6720	6720	6720	6720	6592	6592	6592	6592	6592	6592	6720	6592	6720	6720	6720	6720	6720	6720	6720	6720	6720	6720	6720	6720	6720	6720	6720	6720	6720	6853	6853	6853	6853	6853	6853	6853	6720	6720	6720	6720	6720	6720	6720	6592	6592	6592	6592	6592	6592	6720	6720	6720	6853	6853	6853	6720	6720	6720	6592	6853	6720	6720	6720	6720	6853	6853	6853	6853	6853	6853	0	0	0	0	0	0	0	0	0	0	0	0	0	0	0	0	0	0	0	0	0	0	0	0	0	0	0	0	0	0	0	0	0	0	0	0	0	0	0	0	0	0	0	0	0	0	6992	7137	6992	6992	6992	6853	6853	6853	6853	6853	6853	6853	6853	6853	6853	6853	6853	6853	6720	6720	6720	6720	6720	6720	6720	6853	6853	6853	6853	6992	6992	6992	6853	6853	6853	6853	6853	6853	6853	6853	6853	0	0	0	0	6853	6853	6720	6592	6592	6592	0	0	0	0	0	6468	6468	6468	6468	6592	6720	6720	6592	6592	0	0	0	0	0	6720	6720	6592	6592	6349	6592	6592	6592	0	0	0	0	0	0	0	0	0	0	0	0	0	0	0	0	0	0	0	0	0	0	0	0	0	0	0	0	0	0	0	0	0	0	0	0	0	0	0	0	0	0
0	0	0	0	0	0	0	0	0	0	0	698	698	698	700	700	701	703	708	711	713	714	716	716	720	723	723	728	728	729	731	740	740	742	743	745	748	752	753	755	756	760	761	767	772	770	770	777	780	780	784	784	789	793	797	797	797	798	806	806	810	815	817	817	819	819	827	831	835	839	841	845	850	852	854	858	860	862	873	878	880	880	882	884	889	894	894	898	905	913	913	913	974	974	977	977	977	974	977	980	980	983	983	980	983	985	988	988	988	991	994	997	997	1000	1006	1011	1017	1020	1023	1023	1033	1033	0	0	0	0	1113	1113	1113	1113	1116	1116	1116	1116	1116	1120	1123	1127	1131	1131	0	1347	1347	1342	1342	1342	1342	1336	1347	1336	1336	1326	1326	1326	1326	1326	1331	1336	1336	1342	1342	1347	1342	1342	1347	1347	1347	1358	1358	1358	0	0	0	0	0	0	0	7287	7137	7137	7137	6992	6992	6992	6992	6992	6992	6992	6992	6992	6992	6992	6992	6992	6992	6992	6992	6992	6992	6992	6992	6853	7287	7137	7137	6992	6992	6992	6992	6853	6853	6992	6853	6853	6853	6992	6992	6992	6992	6992	7137	6992	6992	6853	6853	6853	6992	6992	6992	6992	6992	6992	6992	6992	6992	6992	6720	6720	6720	6720	6720	6720	6853	6853	6853	6853	6992	6853	6853	6853	6720	6720	6720	6720	6853	6853	6853	6853	6853	6853	6853	6853	6853	6853	6853	6853	6720	6853	6853	6853	6853	6853	6720	6720	6720	6720	6720	6720	6720	6720	6720	6720	6720	6720	6592	6592	6592	6720	6853	6592	6592	6592	6720	6720	6720	6592	6592	6720	6720	6720	6853	6720	6592	6592	6592	6592	6592	0	0	3583	3583	3583	3546	3621	3583	3583	3583	3583	3583	3583	3583	3583	3583	3583	3583	3583	3583	3583	3583	3621	3621	0	0	7137	7137	6992	6853	6853	6853	6720	6853	6853	6853	6853	6720	6720	6720	6720	6720	6720	6853	6853	6720	6720	6853	6720	6720	6720	6720	6853	6853	6992	6992	6992	7137	7137	7137	6853	6720	6720	6720	6720	6720	6720	6720	6853	6853	6992	6853	6853	6853	6853	6720	6853	6853	6853	6720	6720	6720	6720	6720	6720	6720	6720	6720	6853	6853	6992	6853	6992	6992	6992	6853	6853	6720	6720	6853	6720	6720	6720	6720	6720	6720	6720	6720	6720	6720	6720	6720	6720	6720	6720	6720	6720	6720	6720	6720	6720	6720	6853	6720	6720	6720	6853	6853	6853	6853	6853	6853	6853	6853	6720	6720	6720	6720	6720	6720	6720	6720	6592	6592	6592	6592	6592	6720	6853	6853	6853	6853	6853	6853	6720	6720	6853	6853	6853	6853	6720	6853	6853	6853	6853	6853	6853	0	0	0	0	0	0	0	0	0	0	0	0	0	0	0	0	0	0	0	0	0	0	0	7444	7287	7287	7137	7137	0	0	0	0	0	0	6992	6853	6853	0	0	0	0	0	0	0	0	6992	6992	6992	6992	6992	6992	6992	6853	6853	6992	6992	6992	6992	6853	6853	6853	6853	6853	6853	6853	6853	6853	6720	6720	6720	6720	6853	6853	6853	6853	6853	6853	6853	6853	6853	6853	6853	6853	6853	6853	6853	6853	0	0	0	0	6853	6853	6720	6720	6720	6592	6592	0	0	0	6592	6468	6468	6720	6720	6720	6720	6720	6720	6720	6720	6720	0	6720	6720	6720	6720	6592	6720	6720	6720	6720	6720	6720	0	0	0	0	0	0	0	0	0	0	0	0	0	0	0	0	0	0	0	0	0	0	0	0	0	0	0	0	0	0	0	0	0	0	0	0	0	0	0	0	0
0	0	0	0	0	0	0	0	0	0	0	695	695	698	700	701	701	703	704	711	714	716	719	722	722	723	725	728	728	729	731	740	742	743	745	747	748	750	752	755	756	760	761	761	768	768	770	779	779	782	782	784	784	791	791	795	797	798	802	806	806	815	817	817	821	823	825	831	835	837	841	845	850	852	854	858	862	867	875	878	880	880	882	884	889	894	896	898	905	913	913	913	913	980	980	983	983	980	983	985	985	988	988	988	988	988	988	988	988	991	994	997	1000	1003	1008	1011	1014	1020	1020	1030	1033	1033	0	0	0	0	0	1113	1113	1113	1116	1116	1116	1116	1120	1123	1127	1127	1131	1131	0	1358	1352	1347	1347	1352	1347	1358	1358	1358	1363	1363	1358	1358	1347	1336	1342	1342	1342	1342	1347	1347	1347	1347	1352	1347	1363	1368	1368	1368	0	0	0	0	0	0	0	0	7287	7137	7287	7137	7137	7137	7137	6992	6992	6992	6992	6992	6992	6992	6992	7137	7137	7137	6992	7137	7137	7137	7137	6992	7137	7137	7137	6992	6992	7137	7137	6992	6853	6992	6992	6853	6853	6992	6992	6992	6992	6853	6992	6992	6992	6853	6853	6992	6853	6992	6992	6992	6992	6992	6992	6992	6992	6992	6992	6720	6853	6853	6720	6720	6853	6853	6853	6853	6853	6853	6853	6853	6720	6720	6720	6853	6853	6853	6992	6853	6853	6992	6853	6853	6853	6992	6992	6992	6992	6992	6992	6853	6853	6853	6853	6853	6853	6853	6720	6853	6720	6853	6720	6720	6720	6720	6720	6720	6720	6720	6720	6720	6592	6592	6720	6592	6592	6592	6592	6592	6720	6720	6853	6720	6592	6592	6592	6592	0	0	0	3583	3583	3583	3583	3621	3583	3583	3583	3583	3583	3583	3583	3583	3583	3583	3583	3583	3621	3621	3621	3621	3621	0	0	7137	6992	6853	6720	6720	6720	6720	6720	6720	6720	6853	6720	6720	6720	6720	6720	6720	6720	6853	6853	6853	6853	6853	6853	6720	6720	6720	6853	6992	6992	6992	7137	7137	7137	6720	6720	6720	6720	6592	6592	6720	6853	6853	6853	6853	6853	6853	6853	6853	6853	6853	6853	6853	6853	6720	6853	6853	6720	6720	6720	6720	6720	6853	6853	6992	6992	6992	6992	6992	6853	6853	6853	6720	6720	6720	6720	6720	6720	6720	6720	6720	6720	6720	6853	6853	6720	6720	6720	6720	6720	6720	6720	6720	6720	6720	6720	6720	6720	6853	6720	6853	6853	6853	6853	6853	6853	6720	6853	6720	6720	6853	6720	6720	6720	6720	6720	6720	6720	6592	6592	6592	6592	6720	6853	6992	6992	6992	6992	6853	6853	6992	6992	6992	6853	6720	6720	6853	6853	6853	6853	0	0	0	0	0	0	0	0	0	0	0	0	0	0	0	0	0	0	0	0	0	0	0	7287	7444	7287	7287	7287	7137	7137	7137	7137	0	0	7137	6992	6992	6992	0	0	0	0	0	0	0	0	6992	6992	7137	6992	6992	6992	6992	6992	6992	7137	7137	6992	6992	6992	6992	6992	6992	6853	6853	6853	6853	6853	6853	6720	6720	6720	6720	6853	6853	6853	6992	6992	6992	6853	6853	6853	6853	6853	6853	6853	6853	6853	0	6992	6992	6853	6853	6853	6720	6720	6720	6468	6349	6349	0	6592	6720	6592	6720	6853	6853	6720	6720	6720	6720	6853	6853	6720	6720	6720	6720	6720	6720	6720	6720	6720	6720	6720	6720	6720	6720	0	0	0	0	6592	6592	6592	0	0	0	0	0	0	0	0	0	0	0	0	0	0	0	0	0	0	0	0	0	0	0	0	0	0	0	0	0	0	0	0	0
0	0	0	0	0	0	0	0	0	697	695	694	694	694	700	700	701	703	703	713	713	719	720	722	723	725	725	725	729	731	734	736	736	742	745	745	750	752	753	756	756	760	761	767	767	770	770	779	782	782	784	788	789	791	793	795	797	800	800	804	804	817	817	819	823	823	825	829	835	839	841	845	850	850	852	858	865	869	875	878	878	880	884	887	894	896	898	905	910	915	915	922	922	922	980	983	985	983	985	991	988	997	994	994	991	994	991	991	991	991	997	1000	1003	1006	1011	1011	1014	1017	1020	1033	1036	1036	0	1052	1052	0	0	0	1113	1113	1116	1113	1116	1120	1123	1127	1127	1127	1131	1131	0	1363	1363	1358	1363	1363	1363	1368	1368	1363	1368	1368	1352	1358	1352	1347	1347	1347	1347	1347	1352	1352	1352	1352	1358	1358	1363	1368	1368	1368	0	0	0	0	0	0	0	0	7779	7287	7137	7137	7137	7137	7137	7137	7137	7137	7137	7137	6992	6992	7137	7137	7137	7137	7137	7137	7137	6992	7137	7137	6992	6992	6992	6992	6992	6992	6992	6853	6992	6992	6992	6992	6992	6992	6992	6992	6992	6853	6992	6992	6992	6992	6853	6992	6853	6992	6992	6992	6992	6992	6992	7137	6992	6992	6992	6720	6853	6853	6992	6992	6992	6853	6853	6853	6853	6992	6992	6992	6853	6853	6853	6853	6992	6992	6992	6992	6853	6853	6992	6992	6992	6992	6992	6992	6992	6992	6992	6853	6853	6853	6853	6853	6853	6853	6853	6992	6853	6853	6853	6853	6853	6853	6853	6720	6720	6853	6853	6853	6720	6720	6720	6592	6720	6592	6592	6592	6720	6720	0	0	0	0	0	0	0	0	0	3583	3621	3583	3583	3583	3583	3583	3621	3621	3583	3583	3583	3583	3583	3583	3583	3583	3583	3583	3621	3621	3621	3621	3621	7137	6992	6853	6720	6720	6720	6720	6720	6720	6720	0	0	6720	6720	6720	6720	6720	6720	0	6853	6853	6853	6853	6853	6720	6720	6720	0	0	0	0	0	7137	7137	6720	6992	6992	6853	6720	6720	6853	6992	6992	6853	6853	6853	6853	6853	6853	6853	6992	6853	6992	6853	6853	6853	6853	6720	6720	6720	6720	6720	6853	6853	6992	6992	6992	6992	6992	6992	6992	6853	6853	6992	6853	6720	6720	6720	6720	6720	6720	6853	6853	6853	6853	6720	6853	6720	6720	6720	6720	6720	6720	6720	6720	6720	6853	6853	6853	6720	6853	6853	6853	6720	6720	6853	6720	6853	6720	6853	6853	6720	6720	6720	6720	6720	6720	6720	6592	6592	6592	6720	6720	6853	6992	6992	6992	6992	6853	6853	6992	6992	6992	6853	6853	6853	6853	6992	6992	7137	7137	0	0	0	0	0	0	0	0	0	0	0	0	0	0	0	0	0	0	0	0	0	0	7444	7444	7444	7287	7287	7287	7287	7287	7137	0	0	6992	6992	6992	6992	0	0	0	0	0	0	0	0	0	6992	7137	7137	7137	6992	6992	6992	7137	7287	7137	7137	7137	7137	7137	6992	6992	6853	6853	6853	6853	6853	6853	6853	6853	6853	6853	6853	6853	6853	6992	6992	6853	6853	6853	6853	6853	6853	6853	6853	6853	6853	6853	6992	6853	6853	6853	6853	6720	6720	6720	6592	6592	6720	6720	6853	6853	6853	6853	6992	6853	6853	6853	6853	6720	6853	6720	6720	6720	6720	6720	6720	6720	6720	6720	6720	6853	6853	6853	6720	6720	6720	6720	0	0	6592	6592	6592	0	0	0	0	0	0	0	0	0	0	0	0	0	0	0	0	0	0	0	0	0	0	0	0	0	0	0	0	0	0	0	0	0
0	0	0	0	0	0	0	0	0	698	697	697	694	694	694	700	700	700	701	701	701	719	720	720	723	725	728	731	731	731	732	734	734	742	745	745	750	750	752	756	756	760	761	761	765	768	768	779	782	784	784	789	791	793	795	795	797	798	800	804	804	817	817	819	823	823	823	827	835	839	843	850	850	850	852	862	869	869	873	875	878	880	884	887	894	898	903	910	913	915	917	925	925	927	927	935	983	983	988	994	997	997	997	997	997	997	997	997	997	1003	1000	1003	1003	1006	1011	1011	1014	1017	1020	1036	1039	1045	1052	1052	1052	0	0	0	1113	1113	1113	1113	1120	1120	1123	1127	1127	1127	1131	1131	0	1368	1368	1374	1368	1368	1368	1374	1368	1368	1368	1368	1368	1358	1358	1358	1358	1358	1358	1358	1368	1363	1363	1363	1363	1363	1363	1363	1368	1368	0	1379	1379	0	0	0	0	0	7779	8146	7287	7287	7287	7287	7137	7137	7137	7137	7137	7137	6992	7137	7137	6992	6992	6992	6992	6992	6992	6992	6992	7137	6992	6992	6992	6992	7137	7137	7137	6992	7137	6992	6992	6992	6992	6992	7137	6992	6992	6853	6853	6853	6992	6992	0	0	0	6992	6992	6992	6992	6992	6992	6992	6992	6992	6992	6853	6853	6853	6992	6992	6720	6853	6853	6853	6853	6992	6992	6992	6992	6992	6992	6992	6992	6992	6992	6992	6853	6853	6992	6992	6992	6992	6992	7137	6992	6992	6992	6992	6853	6992	6853	6853	6992	6992	6992	6992	6992	6992	6992	6992	6992	6992	6853	6853	6720	6853	6992	6853	6720	6720	6720	6720	6853	6720	6720	6720	0	0	0	0	0	0	0	0	0	0	0	3621	3621	3583	3583	3621	3621	3621	3583	3583	3583	3583	3583	3583	3583	3583	3583	3583	3583	3583	3583	3621	3621	3621	3621	3621	0	0	0	0	0	0	0	0	0	0	0	0	0	0	0	0	0	0	0	0	0	0	0	0	0	0	0	0	0	0	0	0	7137	7137	6992	7137	7137	6853	6853	6992	6992	6992	6853	6853	6853	6992	6853	6853	6853	6992	6992	6992	6992	6992	6992	6992	6853	6853	6720	6853	6853	6853	6853	6992	6992	6992	7137	6992	6992	6992	6853	6853	6853	6853	6853	6853	6720	6720	6720	6720	6853	6853	6853	6853	6853	6853	6853	6720	6720	6720	6720	6720	6853	6853	6720	6853	6853	6853	6853	6853	6853	6853	6853	6853	6853	6853	6853	6853	6853	6853	6853	6853	6853	6853	6853	6853	6853	6853	6720	6720	6720	6992	6992	6992	6992	6992	6992	6992	6992	6992	7137	7137	7137	6992	6992	6992	7137	6992	7137	7137	0	0	0	0	0	0	0	0	0	0	0	0	0	0	0	0	0	0	0	0	7287	7287	7287	7444	7287	7287	7287	7287	7137	7137	6992	6992	0	6853	6853	6853	7287	7287	0	0	0	0	0	0	0	0	0	7287	7137	7137	7137	7137	6992	7137	7287	7287	7137	7287	7137	7137	7137	6992	6992	6992	6853	6853	6853	6853	6853	6992	6853	6853	6992	6853	6853	6853	6992	6992	6992	6853	6853	6853	6853	6853	6853	6853	6992	6992	6992	6853	6853	6992	6853	6853	6720	6720	6853	6720	6720	6853	6853	6853	6853	6992	6992	6853	6853	6720	6720	6720	6853	6720	6720	6720	6853	6720	6853	6720	6853	6853	6720	6853	6853	6853	6853	6720	6720	6720	6720	6720	6592	6592	6592	0	0	0	0	0	0	0	0	0	0	0	0	0	0	0	0	0	0	0	0	0	0	0	0	0	0	0	0	0	0	0	0	0
0	0	0	0	0	0	0	0	0	698	697	697	695	695	700	700	701	704	704	704	704	722	722	723	725	726	726	726	731	731	732	736	736	736	743	745	748	750	752	756	756	760	760	763	765	768	768	773	780	782	784	789	791	793	795	795	797	798	798	802	802	817	817	819	823	823	825	827	835	839	845	850	850	850	852	860	873	873	873	875	878	880	882	884	884	903	903	908	910	915	915	922	925	932	935	935	935	1023	1023	1006	1000	1000	1000	1000	1000	1000	1000	1003	1006	1008	1006	1006	1006	1008	1011	1011	1014	1017	1023	1036	1042	1045	1052	1052	0	1055	1055	0	1113	1113	1113	1113	1120	1116	1123	1123	1123	1127	1131	1134	1134	1368	1379	1379	1374	1374	1374	1374	1374	1374	1374	1368	1374	1358	1358	1358	1363	1363	1363	1358	1374	1368	1368	1363	1368	1368	1368	1368	1374	1374	1379	1379	1379	1379	0	0	0	0	7779	8146	7287	7444	7444	7287	7287	7137	7137	7137	7137	7137	7137	7137	6992	6992	6992	6992	6992	6992	6992	6992	6992	7287	6992	6992	6992	6992	7137	7137	7137	6992	6992	7137	7137	7137	7137	7137	7137	6992	6992	6853	6853	6853	0	0	0	0	0	0	0	0	0	6992	6992	6992	6992	7137	7137	6992	6992	6992	6992	6992	6853	6992	6992	6853	6992	6992	6992	6992	7137	7137	7137	7137	6992	7137	6992	6853	6853	6992	6992	6992	6992	6992	7137	7137	6992	6992	6992	6992	6992	6992	6992	6992	6992	6992	6992	6992	6992	6992	6992	6992	6992	6992	6992	6853	6853	6992	6992	6992	6853	6853	6853	6992	6992	6992	6992	6992	6992	0	0	0	0	0	0	0	3621	3621	3659	3659	3659	3621	3583	3621	3621	3621	3621	3583	3583	3583	3583	3583	3583	3583	3583	3583	3621	3621	3621	3621	3621	3621	3621	3621	0	0	0	0	0	0	0	0	0	0	0	0	0	0	0	0	0	0	0	0	0	0	0	0	0	0	0	0	7137	7137	7137	7137	7137	7137	0	7287	7137	7137	7137	7137	7137	6992	6853	6853	6853	6992	6853	6853	6853	6992	6992	6992	6992	6992	6992	6992	6853	6853	6853	6853	6853	6992	6853	6992	6992	6992	6992	6992	6992	6992	6853	6853	6853	6853	6853	6853	6853	6853	6720	6720	6853	6992	6992	6992	6853	6853	6853	6853	6720	6720	6720	6853	6853	6853	6853	6992	6992	6992	6853	6992	6992	6992	6992	6992	6992	6853	6992	6853	6853	6853	6853	6853	6853	6853	6853	6992	6992	7137	7137	7137	6992	6992	7137	6992	6992	6992	6992	6992	6992	7137	7137	7137	6992	6853	6992	6992	7137	7137	7137	7137	7287	7137	7137	7287	7287	0	0	0	0	0	0	0	0	0	0	0	0	0	7287	7287	7444	7287	7287	7444	7287	7287	7287	7137	7137	7137	6992	7137	7137	6992	6992	7137	7287	7287	0	0	0	0	0	0	0	7287	7287	7287	7287	7287	7137	7137	7137	7287	7287	7287	7287	7287	7287	7287	7137	7137	6992	7137	6992	6992	6992	6992	6992	6992	7137	7287	6992	6992	6853	6992	6992	6992	6992	6853	6853	6992	6992	6992	6853	6992	6992	6992	6992	6853	6853	6992	6853	6853	6853	6853	6853	6853	6853	6992	6992	6992	6992	7137	7137	6992	6853	6853	6853	6853	6853	6853	6853	6853	6853	6853	6853	6853	6853	6853	6853	6853	6853	6853	6720	6720	6592	6720	6592	6592	6592	6592	6592	0	0	0	0	0	0	0	0	0	0	0	0	0	0	0	0	0	0	0	0	0	0	0	0	0	0	0	0	0	0	0	0	0
0	0	0	0	0	0	0	0	0	0	697	697	693	693	703	703	703	704	704	704	704	725	725	723	723	726	726	726	731	729	732	734	734	740	742	745	747	747	752	753	760	760	760	763	765	765	768	779	782	782	784	786	786	793	793	795	797	798	798	802	802	817	817	819	823	823	823	827	835	841	845	850	850	850	852	862	871	873	873	875	878	880	882	887	896	901	903	910	910	915	913	913	1026	932	932	937	937	1023	1023	1023	1008	1008	1003	1008	1008	1008	1008	1006	1011	1011	1011	1011	1008	1011	1017	1017	1020	1023	1026	1036	1039	1042	1048	1052	1052	1055	1055	0	1088	1113	1113	1113	1116	1116	1120	1123	1123	1127	1127	1127	1134	0	1402	1390	1379	1379	1379	1379	1379	1374	1374	1374	1374	1374	1379	1374	1379	1379	1379	1379	1385	1385	1385	1385	1374	1374	1385	1374	1374	1374	1390	1390	1402	1402	1437	1437	1437	0	0	0	0	7444	7444	7137	7137	7137	7287	7287	7287	7287	7287	7137	6992	6992	6992	7137	7137	7137	7137	7287	7287	7287	7287	7287	6992	6992	7137	7137	7137	0	6992	6992	7137	7137	7137	7137	7137	6992	6992	6853	6853	0	0	0	0	0	0	0	0	0	0	0	0	0	0	7137	7137	6992	6992	6992	6992	6992	6853	6992	6992	6992	6992	6992	6992	7137	7137	7137	7137	6992	6992	6853	6853	6853	6992	6992	6992	6992	6992	6992	7137	7137	7137	6992	6992	6992	6992	6992	6992	6992	6992	6992	6992	6992	6992	6992	6992	6992	6992	6992	6992	6853	6853	6992	6992	6992	6992	6992	6992	6992	6992	6992	6992	6992	6992	6992	0	0	0	0	0	3621	3621	3659	3659	3659	3659	3583	3583	3621	3621	3621	3621	3621	3583	3621	3583	3621	3621	3583	3583	3583	3583	3583	3583	3621	3621	3621	3621	3659	3659	3659	3659	0	0	0	0	0	0	0	0	0	0	7137	7137	0	0	0	0	0	0	0	0	0	0	0	0	0	7137	7137	7137	7137	7137	7137	0	7287	7137	7287	7137	7137	7137	7137	6992	6853	6992	6992	6992	6853	6992	7137	6992	6992	6992	6992	6992	6992	6992	6853	6853	6853	6853	6992	6853	6992	6992	6992	6992	6992	6992	7137	6992	6992	6853	6992	6853	6853	6853	6853	6853	6720	6853	6992	6992	6992	6853	6853	6853	6853	6720	6720	6853	6853	6853	6853	6853	6992	6992	6992	6853	6992	6992	6992	6992	6992	6992	6992	6992	6992	6992	6853	6992	6992	6992	6992	6992	7137	7137	7137	7137	7137	6992	6992	6992	6992	6992	6992	6992	6992	6992	7137	7287	7287	7287	7137	7137	7137	7137	7137	7287	7287	7287	7287	7287	7287	7137	7137	7137	7137	0	0	0	0	0	0	0	0	0	7287	7287	7137	7287	7287	7287	7287	7287	7287	7287	7287	7287	7287	7137	7137	7137	7137	7137	7137	7287	7287	7287	0	0	0	0	0	7287	7287	7287	7287	7287	7287	7137	7287	7287	7287	7287	7287	7287	7287	7287	7137	7137	7137	6992	7137	7137	6992	6992	6992	6992	6853	7137	7287	7287	7137	6992	7137	7137	7137	6992	6992	6992	6992	6992	6992	6853	6853	6992	6992	6992	6992	6992	7137	7137	7137	7137	7137	6992	6992	6992	6992	6992	6992	6992	7287	7137	6992	6853	6853	6853	6853	6853	6853	6853	6853	6853	6853	6853	6853	6853	6853	6853	6853	6853	6853	6853	6720	6720	6720	6720	6720	6592	6592	6592	0	0	0	0	0	0	0	0	0	0	0	0	0	0	0	0	0	0	0	0	0	0	0	0	0	0	0	0	0	0	0	0	0
0	0	0	0	0	0	0	0	0	0	0	0	693	693	703	703	703	704	704	705	705	705	726	723	723	725	726	726	731	732	732	736	737	740	742	742	747	748	750	750	758	760	760	761	763	767	768	775	780	782	784	786	786	793	795	797	797	798	800	802	804	815	815	817	821	823	821	825	837	841	848	850	850	850	852	860	871	871	873	875	880	882	884	889	896	901	901	910	913	913	913	913	1026	932	935	937	937	937	1026	1023	1017	1014	1011	1008	1011	1011	1011	1011	1017	1014	1014	1014	1011	1014	1017	1020	1020	1023	1030	1036	1039	1042	1045	1048	1061	1058	1058	1078	1088	1091	1113	1113	1116	1116	1120	1123	1123	1127	1127	1127	0	0	1402	1396	1385	1379	1379	1379	1379	1379	1379	1385	1385	1385	1385	1385	1385	1385	1385	1385	1390	1385	1385	1390	1390	1379	1385	1379	1379	1385	1396	1396	1402	1402	1437	1437	1437	0	0	0	0	0	0	7137	7137	7137	7287	7287	7287	7444	7287	7137	7137	7137	7137	7137	7137	7137	7137	7287	7287	7287	7287	7287	7287	0	0	0	0	0	7137	7137	7137	7137	7137	7137	7137	6992	6992	6853	6853	0	0	0	0	0	0	0	0	0	0	0	0	0	0	0	7137	6992	7137	6992	6992	6992	6992	6992	6992	6992	6992	7137	7137	7137	7137	7137	7137	7137	6992	6992	6992	6853	6992	6992	6992	6992	6992	6992	6992	7137	6992	6992	6992	6992	6992	6992	6992	6992	6992	6992	6992	6992	6992	6992	6992	7137	6992	6992	6992	6992	6853	6992	6992	6992	6992	6992	6992	6992	6992	6992	6992	6992	6992	6992	0	0	0	3583	3583	3583	3621	3621	3621	3621	3621	3583	3583	3621	3621	3621	3621	3621	3583	3583	3621	3621	3621	3621	3583	3583	3583	3621	3583	3583	3583	3621	3621	3621	3621	3659	3659	0	0	0	0	0	0	0	7444	7444	7444	7287	7287	7287	0	0	0	0	0	0	0	0	0	0	0	0	7137	7137	7137	7137	7137	7137	7137	7287	7287	7287	7287	7137	7137	7137	6992	6992	6992	6992	6992	6992	6992	7137	7137	7137	6992	6992	7137	7137	6992	6992	6992	6992	6992	6853	6992	6992	7137	7137	7137	6992	6992	6992	6992	6992	6992	6992	6992	6853	6853	6853	6853	6992	6992	6992	6853	6853	6853	6853	6853	6853	6720	6853	6853	7137	7137	6992	6992	7137	6992	6992	6992	6992	6992	6992	7137	7137	7137	7137	7137	6992	6992	6992	6853	6853	6992	6992	6992	6992	6992	6992	7137	7137	7137	6992	6992	6992	6992	6992	6992	6992	7137	7287	7287	7287	7287	7287	7287	7287	7287	7287	7287	7287	7444	7287	7287	7287	7137	7137	7137	7137	7137	7137	7287	7444	7287	7287	0	7444	7287	7287	7287	7137	7287	7287	7287	7287	7287	7287	7287	7287	7287	7287	7287	7287	7287	7287	7287	7287	7287	7287	7287	0	7287	7287	7287	7444	7444	7287	7287	7287	7287	7287	7287	7287	7287	7287	7287	7287	7287	7287	7287	7287	7137	7137	7137	7287	7287	7137	7137	7137	6992	6992	6992	6992	6992	6992	6992	6992	7287	7137	7137	7137	7137	7137	7137	6992	6992	6992	6992	6992	6992	6992	6992	7137	7287	7287	7287	7137	7137	7137	7137	7137	6992	6992	6992	7137	7137	6992	6853	6853	6853	6853	6853	6853	6853	6853	6853	6853	6853	6853	6853	6853	6853	6853	6853	6853	6853	6853	6720	6720	6720	6720	6720	6720	6720	0	0	0	0	0	0	0	0	0	0	0	0	0	0	0	0	0	0	0	0	0	0	0	0	0	0	0	0	0	0	0	0	0
0	0	0	0	0	0	0	0	0	0	0	0	693	694	703	703	703	704	704	705	705	705	705	722	723	725	725	725	728	731	731	734	734	737	739	739	745	747	750	750	760	760	761	763	767	767	768	777	779	780	782	788	789	791	793	795	797	800	800	802	804	815	812	815	815	821	821	821	839	841	845	848	850	852	858	862	869	871	873	873	878	882	884	887	894	898	901	910	910	913	913	913	930	935	937	940	937	940	945	945	937	937	1008	1011	1014	1017	1017	1017	1023	1020	1017	1017	1014	1017	1020	1023	1023	1026	1030	1033	1036	1039	1042	1048	1064	1061	1078	1081	1088	1091	1095	1113	1116	1116	1120	1120	1123	1123	1123	1123	0	1402	1402	1396	1385	1390	1385	1385	1385	1385	1385	1385	1390	1390	1390	1390	1390	1390	1390	1390	1390	1390	1390	1390	1390	1385	1390	1385	1390	1390	1413	1419	1419	1431	1437	1437	1437	0	0	0	0	0	0	0	7287	7287	7287	7444	7444	7444	7287	7287	7137	7137	7137	7137	7137	7137	7287	7287	7287	7287	7287	7287	7287	7287	0	0	0	7287	7287	7287	7287	7137	7137	7137	7137	7137	6992	6853	6853	0	0	0	0	0	0	0	0	0	0	0	0	0	0	0	7137	6992	7137	7137	7137	6992	6992	6992	6992	6992	6992	7137	7137	7137	7137	7137	7137	7137	6992	6992	6992	6853	6992	6992	6992	6992	6992	6992	6992	7137	7137	7137	7137	7137	7137	6992	6992	6992	6992	6992	7137	6992	6992	6992	6992	6992	6992	6992	6992	6992	6992	6992	6992	6992	6992	6992	6992	7137	6992	6992	6992	6992	0	0	0	3546	3546	3583	3583	3583	3583	3621	3583	3583	3621	3583	3583	3621	3621	3583	3583	3583	3583	3621	3621	3621	3621	3621	3621	3583	3583	3621	3621	3583	3621	3621	3621	3621	3621	3621	3621	3621	3621	0	0	7287	7287	7444	7444	7444	7444	7287	7287	7287	7287	7287	7287	0	0	0	0	0	0	0	0	7287	7287	7137	7137	7137	7137	7137	7137	7137	7137	7287	7287	7137	7137	7137	6992	6992	6992	6992	6992	6992	6992	7137	6992	6992	6992	6992	6992	6992	6992	6992	7137	6992	6992	7137	6992	7137	7137	7137	7137	6992	6992	6992	6992	6992	6853	6992	6992	6853	6853	6853	6853	6992	6992	6992	6992	6992	6853	6992	6992	6992	6992	6992	6992	7137	7137	7137	6992	7137	7137	6992	6992	6992	6992	6992	7137	7137	7137	7137	7137	7137	7137	6992	6992	6992	6992	6992	6992	7137	7137	7137	7137	7137	7137	7137	6992	6992	6992	6992	6992	7137	7137	7287	7287	7287	7287	7137	7287	7287	7287	7287	7287	7287	7444	7287	7287	7137	7137	6992	6992	6992	7137	7137	7287	7287	7287	7444	7444	7444	7444	7287	7287	7287	7287	7287	7287	7287	7287	7287	7287	7287	7287	7287	7287	7287	7287	7287	7287	7287	7287	7444	7444	0	7287	7444	7444	7444	7444	7444	7444	7444	7444	7444	7287	7444	7444	7444	7287	7287	7287	7287	7287	7287	7137	7137	7137	7137	7287	7137	7137	7137	7137	7137	6992	6992	6992	6992	7137	7287	7287	7287	7137	7137	7137	7287	7287	7137	7137	7137	7137	6992	6992	6992	7137	7137	7287	7444	7287	7287	7137	7137	7137	7137	7287	7137	7137	7137	7137	6992	6853	6853	6853	6853	6853	6720	6720	6720	6853	6853	6853	6853	6853	6853	6853	6853	6853	6853	6853	6720	6720	6720	6720	6720	6720	6592	6592	0	0	0	0	0	0	0	0	0	0	0	0	0	0	0	0	0	0	0	0	0	0	0	0	0	0	0	0	0	0	0	0	0
0	0	0	0	0	0	0	0	0	0	0	0	693	694	701	703	704	705	705	705	707	707	717	720	723	723	725	725	728	731	732	734	734	736	737	742	742	747	748	750	758	760	761	767	768	768	770	775	777	780	782	786	788	791	793	795	798	800	802	804	804	815	815	817	821	823	827	831	837	839	843	848	852	854	858	862	867	869	871	873	875	880	882	889	896	898	905	910	910	913	913	913	930	935	937	940	940	940	942	945	945	945	945	945	1017	1017	1020	1026	1026	1023	1020	1020	1017	1020	1023	1026	1026	1030	1033	1036	1036	1039	1042	1052	1058	1061	1078	1085	1085	1088	1091	1109	1113	1113	1116	1116	1120	1120	1120	1123	0	1407	1407	1402	1402	1396	1390	1390	1390	1385	1390	1390	1396	1396	1396	1396	1396	1396	1402	1402	1402	1402	1402	1402	1407	1390	1396	1390	1402	1419	1419	1425	1431	1437	1437	1437	1437	1437	0	0	0	0	0	0	7287	7444	7444	7444	7444	7444	7287	7287	7137	7287	7287	7137	7137	7137	7137	7137	7287	7137	7137	7137	7287	7287	0	0	0	7287	7287	7287	7287	7287	7287	7287	6992	6992	6992	6992	6992	6992	0	0	0	0	0	0	0	0	0	0	0	0	0	0	0	7137	7137	7137	7137	6992	6992	6992	6992	7137	7137	7137	7137	7137	7137	7137	7287	7287	7137	7137	7137	6992	6992	6992	6992	6992	6992	6992	7137	7137	7137	7137	7137	7137	7137	7137	7137	7137	7137	7137	7137	7137	7137	6992	6992	6992	6992	6992	6992	6992	6992	6992	6992	6992	6992	7137	7137	7137	7137	6992	6992	6992	0	0	0	3583	3546	3583	3583	3583	3621	3583	3583	3583	3583	3583	3583	3621	3583	3583	3583	3583	3621	3621	3621	3621	3621	3583	3583	3583	3583	3583	3583	3583	3621	3621	3621	3621	3621	3621	3621	3583	3583	3583	3621	3621	7137	7287	7287	7287	7287	7287	7287	7287	7287	7287	7287	7444	7444	7959	7959	0	0	0	7444	7287	7287	7287	7287	7137	7137	7137	7137	7137	7137	7137	7137	7137	7137	7137	7137	6992	6992	7137	7137	6992	7137	7137	7137	6992	6992	7137	7137	7137	6992	6992	7137	7137	7137	7137	7137	7137	7137	7137	7137	6992	6992	7137	7137	6992	6992	6992	6992	6992	6853	6992	6992	6992	6992	6992	6992	6992	6992	6992	6992	7137	7137	7137	7137	7137	7137	7137	7137	7137	7137	7137	6992	6992	6992	7137	7137	7287	7287	7287	7287	7287	7137	7137	6992	6992	6992	6992	7137	7137	7137	7137	7137	7137	7137	7137	6992	6992	6992	7137	7137	7137	7137	7287	7287	7287	7287	7287	7287	7287	7287	7287	7287	7287	7444	7287	7287	7287	7137	7137	7137	7137	7137	7287	7444	7444	7444	7444	7444	7444	7444	7444	7287	7287	7287	7287	7287	7287	7287	7287	7287	7444	7444	7444	7444	7444	7444	7444	7444	7444	7444	7444	7444	0	7444	7444	7608	7608	7444	7444	7444	7444	7444	7444	7287	7287	7444	7444	7287	7287	7137	7287	7287	7287	7137	7137	7137	7287	7287	7287	7287	7287	7287	7287	7287	7287	7287	7287	7287	7287	7287	7287	7287	7287	7287	7287	7287	7287	7287	7137	7287	7137	7137	7137	7137	7287	7287	7444	7287	7287	7287	7287	7287	7287	7287	7137	7137	0	0	0	0	0	0	6853	6853	6720	6720	6853	6992	6853	6992	6992	6992	6853	6853	6853	6853	6853	6720	6720	6720	6720	6720	6720	6720	6720	6720	0	0	0	0	0	0	0	0	0	0	0	0	0	0	0	0	0	0	0	0	0	0	0	0	0	0	0	0	0	0	0	0	0
0	0	0	0	0	0	0	0	0	0	0	0	695	698	701	703	704	705	705	707	707	713	713	720	722	723	725	725	728	729	729	732	734	736	737	737	745	747	748	748	756	760	763	765	767	768	772	775	779	782	782	786	788	791	793	795	800	802	802	806	806	817	815	817	825	827	829	831	835	835	841	845	852	854	858	862	865	869	869	871	875	880	884	894	901	901	903	913	910	915	913	917	927	935	937	940	940	942	945	945	948	948	963	963	1020	1020	1023	1026	1030	1030	1026	1023	1023	1026	1030	1030	1030	1033	1033	1036	1036	1039	1042	1048	1052	1052	1074	1085	1088	1091	1098	1105	1113	1113	1113	1116	1120	1120	1120	1120	0	1407	1407	1407	1402	1396	1396	1407	1390	1390	1402	1402	1402	1402	1402	1402	1407	1407	1407	1407	1407	1413	1413	1413	1413	1413	1407	1402	1413	1419	1419	1425	1425	1431	1437	1437	1437	1437	0	0	0	0	0	0	0	7608	7608	7608	7608	7608	7287	7287	7137	7137	7137	7137	7137	7137	7137	7137	7137	7137	7137	7137	7137	7137	0	0	0	0	7287	7287	7287	7287	7287	7137	7137	7137	7137	7137	7137	6992	6992	6992	6992	7137	7137	7137	0	7137	7137	0	0	0	0	0	0	7137	7137	7137	7137	7137	7137	7137	7137	7137	7137	7137	7137	7137	7137	7137	7287	7287	7137	7137	7287	7137	6992	7137	7137	7137	7137	7137	7137	7137	7137	7137	7137	7137	7137	7137	7137	7137	7137	7137	7137	7137	7137	7137	6992	6992	6992	6992	6992	6992	6992	6992	6992	7137	7137	7137	7137	7137	7137	7137	6992	6992	0	0	3583	3583	3546	3583	3583	3583	3583	3583	3583	3583	3583	3583	3583	3583	3583	3583	3583	3583	3583	3621	3621	3621	3583	3583	3583	3583	3583	3583	3583	3583	3583	3583	3583	3621	3583	3621	3621	3583	3583	3583	3583	3621	3621	7287	7137	7287	7287	7287	7287	7287	7287	7287	7444	7444	7444	7779	7779	0	0	7287	7287	7287	7137	7287	7287	7287	7137	7137	7137	7137	7137	7137	7137	7287	7287	7137	7137	7137	7137	7137	7137	7137	7137	7137	6992	6992	6992	7137	7137	7137	7137	7137	7137	7137	7137	7137	7137	7137	7137	7137	7137	7137	7137	7137	7137	7137	6992	6992	6992	6992	6853	6992	6992	6992	6992	6992	6992	6992	6992	7137	7137	7137	7137	7137	7287	7287	7137	7137	7137	7137	7137	7137	7287	7287	7287	7287	7137	7287	7287	7287	7137	7137	7287	7137	7137	7137	7137	7137	7137	7137	7137	7137	7137	7137	7137	7137	6992	6992	6992	7137	7137	7137	7137	7287	7287	7287	7287	7287	7287	7287	7287	7444	7287	7444	7444	7444	7287	7287	7287	7137	7137	7137	7137	7287	7444	7444	7444	7287	7444	7444	7444	7444	7287	7287	7287	7287	7287	7287	7287	7287	7287	7444	7444	7444	7444	7444	7444	7444	7444	7444	7444	0	0	0	7444	7608	7608	7608	7444	7444	7444	7444	7444	7444	7444	7444	7444	7444	7287	7287	7137	7287	7137	7137	7137	7137	7137	7287	7287	7287	7287	7444	7287	7287	7287	7287	7287	7287	7287	7287	7287	7287	7444	7287	7444	7287	7287	7287	7287	7287	7287	7137	7137	7137	7287	7287	7444	7444	7287	7287	7287	7287	7287	7287	7287	7137	7137	0	0	0	0	0	0	0	0	0	0	7137	7137	6992	7137	7137	6992	6992	6992	6992	6992	6853	6853	6853	6720	6720	6720	6720	6720	6720	6720	0	0	0	0	0	0	0	0	0	0	0	0	0	0	0	0	0	0	0	0	0	0	0	0	0	0	0	0	0	0	0	0	0
0	0	0	0	0	0	0	0	0	0	0	0	695	697	700	703	704	704	705	707	708	711	711	716	720	722	723	725	726	729	731	732	732	736	736	740	745	747	748	750	755	758	761	763	765	768	770	775	779	780	780	784	786	789	793	795	798	800	802	810	814	817	817	819	823	825	829	829	835	837	841	845	854	856	858	860	865	867	869	871	871	880	880	882	901	901	903	913	910	915	913	920	927	932	937	940	940	942	945	948	950	955	963	966	966	966	1030	1033	1033	1033	1033	1036	1039	1039	1036	1036	1036	1036	1039	1039	1039	1039	1042	1048	1058	1061	1071	1078	1088	1091	1098	1102	1109	1109	1109	1113	1113	1113	1131	1131	0	0	1431	1419	1419	1425	1413	1407	1407	1419	1419	1407	1407	1407	1407	1407	1407	1407	1413	1413	1413	1419	1419	1419	1419	1419	1419	1419	1425	1425	1425	1425	1431	1437	1437	1437	1437	1437	0	0	0	0	0	0	0	7608	7779	7779	7608	7608	7444	7287	7137	7287	7137	7137	7137	7137	7137	7137	7137	7137	7137	7137	7137	7137	0	0	7608	7287	7287	7287	7287	7287	7287	7137	7137	7137	7137	7137	7137	7137	7137	7137	7137	7287	7137	7137	7137	7287	7444	7444	7287	7287	7287	7287	7444	7287	7137	7137	7137	7137	7137	7137	7137	7137	7137	7137	7137	7137	7137	7137	7137	7287	7287	7287	7287	7287	7287	7137	7137	7137	7137	7137	7137	7137	7137	7137	7137	7137	7137	7137	7137	7137	7137	7137	7137	7137	7137	7137	7137	6992	6992	6992	6992	6992	6992	6992	7137	7137	7137	7137	7137	7137	7137	7137	0	0	0	3583	3583	3583	3546	3583	3583	3583	3583	3583	3583	3583	3583	3546	3546	3583	3583	3583	3583	3583	3583	3621	3621	3621	3583	3583	3583	3583	3583	3583	3583	3583	3621	3621	3621	3621	3621	3621	3621	3583	3583	3583	3583	3583	3621	7137	7137	7137	7137	7137	7287	7287	7287	7444	7444	7444	7444	7608	7608	7608	0	7444	7287	7287	7287	7287	7287	7287	7137	7137	7137	7137	7137	7137	7287	7287	7287	7137	7137	7137	7137	7137	7137	7137	7137	7137	7137	7137	6992	7137	7137	7137	7137	7137	7137	7137	7137	7287	7287	7287	7287	7137	7137	6992	7137	7137	7137	7137	6992	6992	6992	6992	6992	7137	6992	7137	7137	7137	6992	6992	6992	6992	6992	7137	7137	7137	7287	7287	7287	7287	7287	7287	7287	7287	7287	7287	7137	7287	7137	7137	7287	7287	7137	7137	7137	7137	7137	7137	7137	7137	7137	7137	7137	6992	7137	7137	6992	7137	6992	6992	6992	7137	7287	7287	7287	7287	7444	7444	7287	7287	7287	7287	7444	7444	7444	7287	7608	7444	7444	7287	7287	7137	7287	7137	7287	7287	7444	7444	7444	7444	7444	7444	7444	7444	7287	7137	7287	7444	7287	7287	7287	7287	7444	7444	7444	7444	7444	7444	7444	7444	7608	7444	7444	0	7444	7444	7608	7608	7608	7608	7608	7444	7444	7444	7444	7444	7444	7444	7444	7444	7287	7287	7287	7287	7287	7287	7137	7137	7137	7137	7137	7287	7444	7444	7444	7444	7287	7444	7287	7287	7287	7287	7287	7287	7444	7287	7444	7444	7287	7287	7287	7287	7287	7287	7137	7137	7137	7287	7287	7287	7287	7287	7287	7287	7287	7287	7287	7137	7137	0	0	0	0	0	0	0	0	0	7444	7287	7287	7137	7287	7287	7137	6992	7137	7137	6992	6853	6853	6853	6720	6853	6853	6853	6720	6720	0	0	0	0	0	0	0	0	0	0	0	0	0	0	0	0	0	0	0	0	0	0	0	0	0	0	0	0	0	0	0	0	0	0
0	0	0	0	0	0	0	0	0	0	0	0	0	698	700	700	700	705	705	707	708	708	713	716	719	720	723	725	726	729	731	732	732	736	736	740	742	748	748	748	752	756	761	763	768	772	770	775	779	779	780	782	782	789	793	795	798	800	800	810	815	817	817	819	823	827	829	831	835	837	839	843	854	856	858	860	862	867	869	869	875	878	880	878	896	901	903	908	910	913	913	920	925	930	937	940	942	942	948	948	953	955	955	966	966	969	969	1036	1036	1036	1039	1042	1045	1045	1042	1042	1042	1042	1042	1042	1042	1042	1045	1052	1058	1061	1071	1078	1088	1088	1095	1098	1105	1105	1109	1113	1113	1131	1131	1131	0	1455	1431	1431	1431	1431	1425	1425	1425	1425	1425	1419	1413	1413	1413	1419	1419	1419	1419	1425	1425	1425	1425	1425	1425	1425	1425	1425	1431	1431	1431	1431	1437	1437	1443	1443	1443	1455	1455	1455	0	0	0	0	0	0	7779	7779	7779	7608	7444	7444	7287	7287	7287	7287	7287	7287	7287	7137	7287	7137	7137	7137	7137	7287	7287	7608	7444	7287	7287	7287	7287	7287	7287	7137	7287	7287	7137	7137	7287	7137	7137	7137	7287	7287	7287	7137	7287	7287	7287	7444	7287	7287	7444	7287	7444	7287	7287	7137	7137	7137	7137	7137	7137	7137	7137	7137	7137	7137	7137	7137	7137	7287	7287	7287	7287	7287	7287	7287	7137	7137	7137	7137	7287	7287	7287	7287	7137	7287	7137	7137	7137	7137	7137	7137	7287	7137	7137	7137	7137	7137	7137	6992	6992	7137	7137	6992	7137	7137	7137	7137	0	0	0	0	0	0	3583	3583	3583	3583	3546	3546	3583	3546	3583	3583	3583	3546	3546	3546	3546	3583	3583	3583	3583	3583	3583	3621	3583	3621	3621	3583	3583	3583	3583	3583	3583	3583	3621	3583	3583	3583	3583	3621	3583	3583	3583	3583	3583	3583	3583	3583	7137	7287	7137	7137	7287	7287	7287	7444	7444	7444	7444	7608	7608	7608	7444	7444	7444	7287	7287	7287	7287	7287	7137	7137	7137	7137	7287	7287	7287	7287	7287	7287	7287	7137	7137	7137	7137	7137	7137	7137	7137	7137	7137	7137	7137	7137	7137	7137	7137	7137	7137	7287	7287	7287	7287	7137	7137	7137	7137	7137	7137	7137	7137	7137	7137	7137	7137	7137	7137	7137	7137	7137	6992	6992	7137	7137	7137	6992	7137	7137	7287	7287	7287	7287	7287	7287	7287	7287	7287	7137	7137	7137	7137	7137	7137	7137	7137	7137	7137	7137	7137	7137	7137	7137	7137	7137	7137	7137	7137	7137	6992	7137	6992	7137	7137	7137	7137	7287	7137	7287	7287	7287	7287	7287	7287	7287	7287	7444	7444	7608	7608	7444	7444	7444	7287	7287	7287	7287	7287	7444	7444	7444	7444	7444	7444	7444	7444	7287	7287	7287	7444	7444	7444	7287	7287	7287	7444	7444	7444	7444	7444	7444	7444	7444	7608	7779	7779	0	7444	7444	7608	7779	7608	7608	7608	7444	7444	7444	7444	7444	7444	7608	7779	7444	7444	7444	7608	7608	7608	7287	7287	7287	7444	7287	7287	0	7444	7444	7444	7444	7444	7444	7444	7444	7287	7444	7444	7444	7444	7444	7444	7444	7444	7444	7287	7287	7287	7287	7287	7287	7287	7287	7287	7287	7287	7287	7287	7287	7287	7287	7287	7137	7137	7137	0	0	0	0	0	0	0	0	7444	7287	7444	7287	7287	7287	7137	6992	7137	7137	6853	6853	6853	6853	6720	6853	6853	6853	6853	6720	0	0	0	0	0	0	0	0	0	0	0	0	0	0	0	0	0	0	0	0	0	0	0	0	0	0	0	0	0	0	0	0	0	0
0	0	0	0	0	0	0	0	0	0	0	0	0	698	698	700	703	705	705	707	710	710	713	716	717	720	723	725	728	729	731	732	732	736	736	740	747	748	748	748	750	755	760	775	773	775	773	775	780	779	780	782	784	788	793	795	798	800	800	804	804	815	817	817	821	823	827	831	837	837	841	843	848	854	858	860	862	865	871	873	875	878	880	878	898	901	901	905	913	917	920	927	927	930	935	935	942	945	945	953	958	958	966	969	969	969	969	1039	1039	1039	1039	1045	1045	1048	1045	1045	1045	1045	1045	1042	1045	1045	1052	1055	1058	1061	1071	1078	1085	1091	1095	1095	1102	1105	1105	1113	1131	1131	1131	1131	0	1455	1449	1443	1443	1443	1431	1437	1431	1437	1431	1425	1425	1425	1425	1425	1425	1425	1431	1431	1431	1431	1431	1425	1431	1431	1431	1431	1431	1431	1431	1437	1437	1437	1449	1449	1449	1455	1455	1455	1455	0	0	0	0	0	7779	7779	7608	7608	7608	7444	7287	7287	7287	7287	7287	7287	7287	7287	7287	7137	7287	7287	7287	7444	7444	7608	7608	7444	7444	7444	7444	7287	7287	7287	7287	7287	7137	7137	7287	7137	7137	7137	7287	7444	7287	7287	7287	7287	7287	7444	7444	7287	7444	7287	7444	7444	7444	7137	7287	7287	7287	7137	7137	7137	7137	7137	7137	7137	7137	7137	7137	7137	7287	7287	7287	7287	7287	7137	7287	7137	7287	7287	7287	7287	7287	7287	7287	7287	7287	7287	7137	7287	7137	7287	7287	7287	7287	7287	7137	7137	7137	7137	7137	7137	7137	7137	7137	7137	7137	7137	0	0	0	0	3583	3583	3583	3583	3583	3583	3546	3546	3546	3546	3546	3546	3546	3546	3546	3546	3546	3583	3583	3583	3583	3583	3583	3621	3583	3583	3621	3583	3583	3583	3583	3583	3583	3583	3621	3583	3583	3621	3621	3583	3583	3546	3546	3583	3583	3738	3698	3698	3659	3659	7137	7444	7444	7444	7608	7608	7444	7444	7608	7608	7608	7608	7444	7444	7444	7444	7287	7287	7287	7287	7137	7137	7287	7287	7287	7287	7287	7287	7287	7287	7287	7287	7137	7137	7287	7137	7137	7137	7137	7137	7137	7137	7137	7137	7287	7137	7137	7137	7137	7287	7287	7287	7287	7287	7287	7137	7137	7137	7137	7137	7137	7137	7137	7137	7137	7137	7137	7137	7137	7137	7137	6992	6992	7137	7137	7137	7137	7137	7287	7287	7287	7287	7287	7287	7287	7287	7287	7287	7287	7137	7137	7137	7137	7137	7137	7137	7137	7137	7137	7137	7137	7137	7137	6992	7137	7137	7137	6992	6992	6992	7137	7137	7137	7137	7137	7287	7137	7287	7287	7287	7287	7287	7287	7287	7444	7444	7444	7608	7608	7608	7444	7444	7444	7444	7444	7444	7444	7608	7608	7608	7608	7444	7444	7444	7444	7444	7287	7287	7287	7444	7444	7287	7287	7287	7444	7444	7444	7444	7444	7444	7444	7608	7779	7779	7779	0	0	7608	7779	7779	7608	7608	7608	7444	7444	7444	7444	7444	7444	7608	7779	7959	7779	7779	7779	7779	7608	7444	7287	7287	7287	7287	7287	0	0	7444	7444	7444	7444	7444	7444	7444	7444	7444	7444	7444	7444	7444	7444	7444	7444	7444	7444	7287	7444	7444	7287	7287	7287	7287	7287	7287	7287	7287	7287	7287	7287	7287	7287	7287	7287	7287	0	0	0	0	0	0	0	0	0	7287	7444	7287	7287	7287	7137	7137	7137	7137	6992	6992	6992	6992	6853	6853	6853	6853	6853	0	0	0	0	0	0	0	0	0	0	0	0	0	0	0	0	0	0	0	0	0	0	0	0	0	0	0	0	0	0	0	0	0	0	0
0	0	0	0	0	0	0	0	0	0	0	0	0	0	698	698	701	703	705	707	707	710	713	716	717	720	723	726	728	729	731	732	732	737	737	739	742	745	747	748	752	753	755	772	773	775	773	777	780	780	780	782	786	788	793	795	800	800	800	804	806	815	815	817	819	825	829	835	837	837	841	843	852	856	856	858	860	862	867	871	873	871	871	898	898	901	901	908	910	910	915	920	930	930	935	942	942	945	950	953	955	961	966	972	974	974	974	1039	1036	1039	1039	1045	1048	1048	1045	1048	1048	1048	1048	1048	1048	1048	1055	1058	1058	1061	1064	1074	1085	1088	1091	1095	1102	1105	1109	1113	1113	1113	1131	1131	1461	1455	1449	1449	1449	1449	1443	1443	1443	1443	1443	1437	1437	1443	1437	1437	1431	1431	1431	1431	1431	1437	1437	1431	1431	1431	1431	1437	1437	1437	1437	1443	1449	1449	1449	1455	1455	1461	1455	1461	1480	1480	0	0	0	0	0	0	7608	7287	7287	7287	7287	7287	7287	7287	7444	7287	7444	7287	7287	7137	7287	7287	7444	7608	7608	7608	7608	7608	7444	7444	7444	7444	7444	7287	7444	7444	7137	7287	7287	7287	7287	7287	7287	7444	7287	7287	7287	7287	7287	7287	7287	7287	7287	7444	7444	7444	7444	7444	7137	7137	7444	7444	7287	7287	7287	7287	7137	7137	7137	7137	7287	7287	7287	7444	7444	7444	7287	7137	7137	7287	7287	7287	7444	7444	7287	7287	7287	7287	7287	7287	7287	7287	7287	7287	7287	7287	7137	7287	7137	7137	7137	7137	7137	7137	7137	7137	7137	7137	7137	7137	0	3583	3583	3583	3583	3583	3583	3546	3583	3583	3546	3546	3546	3546	3546	3546	3546	3546	3546	3546	3546	3583	3583	3583	3583	3583	3583	3583	3583	3621	3583	3583	3583	3546	3583	3583	3583	3583	3621	3583	3583	3583	3583	3583	3583	3546	3546	3546	3546	3659	3621	3659	3659	3583	3583	3583	7444	7608	7608	7287	7444	7444	7608	7444	7608	7608	7608	7608	7608	7444	7444	7287	7287	7287	7287	7137	7137	7287	7287	7287	7287	7287	7444	7287	7287	7287	7287	7287	7287	7287	7287	7137	7287	7137	7137	7137	7137	7137	7287	7137	7137	7137	7287	7287	7287	7287	7287	7287	7287	7287	7287	7287	7137	7137	7137	7137	7137	7137	7137	7287	7137	7287	7137	7137	7137	7137	7137	7137	7137	7137	7287	7287	7287	7287	7287	7287	7287	7287	7287	7287	7287	7287	7287	7137	7287	7137	7137	7137	7137	7137	7137	7137	7137	7137	7137	7137	7137	7137	7137	7137	7137	7137	7137	7287	7137	7137	7287	7137	7137	7137	7137	7444	7444	7444	7444	7444	7287	7444	7444	7444	7444	7608	7608	7608	7608	7608	7608	7444	7608	7608	7608	7608	7608	7779	7608	7608	7444	7444	7444	7444	7444	7444	7444	7444	7444	7444	7287	7444	7444	7444	7444	7444	7444	7608	7444	7608	7779	7779	7779	7779	7779	7779	7779	7779	7608	7608	7608	7444	7444	7444	7608	7608	7779	7779	7959	7959	7959	7779	7959	7779	7779	7779	7779	7779	7287	7287	7287	0	0	0	0	0	0	0	0	7444	7444	7444	7444	7444	7444	7444	7444	7444	7444	7444	7444	7444	7444	7444	7444	7287	7444	7444	7287	7287	7444	7444	7444	7444	7287	7444	7287	7287	7287	7287	7287	0	0	0	0	0	0	0	0	7444	7444	7444	7444	7287	7287	7137	7137	7137	6992	6992	6992	6992	6853	6853	0	0	0	0	0	0	0	0	0	0	0	0	0	0	0	0	0	0	0	0	0	0	0	0	0	0	0	0	0	0	0	0	0	0	0	0	0	0
0	0	0	0	0	0	0	0	0	0	0	0	0	0	700	698	700	705	705	705	708	710	713	716	717	720	723	725	728	729	731	732	734	736	737	739	742	745	747	752	755	758	760	761	773	777	775	779	780	780	782	784	786	788	789	791	798	800	800	804	806	815	817	819	821	825	827	833	837	837	837	841	841	854	856	858	858	860	865	865	871	875	896	896	901	901	903	905	910	915	915	920	925	930	935	942	942	945	950	955	955	961	963	972	974	974	977	977	1036	1042	1036	1048	1048	1048	1048	1048	1052	1052	1052	1052	1055	1055	1058	1061	1061	1064	1064	1074	1085	1088	1091	1095	1098	1109	1113	1113	1116	1116	0	0	1467	1449	1449	1443	1449	1449	1449	1449	1449	1449	1449	1449	1449	1449	1443	1443	1443	1437	1437	1437	1431	1437	1437	1437	1437	1437	1437	1443	1443	1443	1443	1449	1449	1449	1455	1455	1455	1461	1455	1461	1480	1486	1486	0	0	0	0	0	0	7287	7444	7444	7444	7287	7444	7444	7444	7444	7608	7608	7608	7608	7608	7608	7608	7779	7608	7779	7608	7608	7608	7444	7444	7444	7444	7444	7444	7608	7444	7444	7444	7444	7444	7287	7287	7444	7287	7287	7287	7287	7444	7444	7444	7444	7444	7444	7444	7444	7287	7137	7137	7444	7444	7287	7287	7287	7287	7287	7137	7137	7137	7137	7137	7137	7287	7287	7287	7444	7444	7444	7444	7444	7444	7444	7444	7444	7444	7287	7287	7444	7444	7444	7287	7287	7287	7287	7287	7287	7287	7444	7444	7287	7287	7287	7137	7137	7137	7137	7137	7137	7137	7137	3546	3546	3546	3583	3583	3546	3546	3546	3583	3583	3546	3546	3546	3546	3546	3546	3546	3546	3546	3546	3546	3583	3583	3583	3583	3583	3583	3583	3583	3583	3583	3583	3583	3546	3546	3546	3546	3583	3583	3583	3583	3583	3583	3583	3583	3546	3546	3546	3546	3621	3583	3583	3583	3583	3583	3583	3583	3583	7608	7444	7444	7444	7608	7444	7608	7608	7608	7608	7608	7608	7444	7444	7444	7444	7287	7287	7287	7287	7287	7287	7287	7444	7608	7444	7444	7287	7287	7287	7287	7287	7287	7287	7444	7444	7287	7137	7137	7137	7287	7137	7137	7287	7287	7287	7287	7287	7444	7444	7444	7287	7287	7287	7287	7287	7137	7137	7137	7287	7137	7287	7287	7287	7137	7137	7137	7137	7287	7287	7287	7287	7287	7287	7287	7287	7287	7444	7287	7444	7444	7444	7444	7287	7287	7287	7287	7287	7137	7287	7137	7287	7287	7287	7287	7287	7287	7287	7287	7287	7287	7137	7137	7137	7287	7287	7287	7137	7287	7137	7287	7137	7137	7444	7444	7444	7444	7444	7287	7444	7444	7444	7608	7608	7608	7608	7608	7779	7779	7779	7608	7608	7608	7608	7608	7608	7608	7608	7608	7444	7608	7444	7608	7608	7444	7608	7444	7444	7444	7444	7444	7444	7608	7608	7608	7779	7779	7779	7779	7779	7779	7779	7779	7779	7608	7779	7608	7608	7444	7444	7444	7444	7444	7444	7779	7779	7959	7959	7959	7959	7959	7959	7959	7959	7779	7779	7779	0	0	0	0	0	0	0	0	0	7444	7444	7444	7444	7444	7444	7444	7444	7444	7444	7444	7444	7444	7444	7444	7444	7444	7444	7444	7444	7444	7287	7444	7444	7444	7444	7444	7444	7287	7444	7287	7287	7287	7287	0	0	0	0	0	0	0	7444	7444	7444	7444	7444	7287	7137	7137	7137	0	0	0	0	0	0	0	0	0	0	0	0	0	0	0	0	0	0	0	0	0	0	0	0	0	0	0	0	0	0	0	0	0	0	0	0	0	0	0	0	0	0	0	0
0	0	0	0	0	0	0	0	0	0	0	0	0	0	698	698	700	701	704	707	710	711	713	714	716	717	722	723	726	729	731	734	736	737	737	739	742	750	752	755	756	758	758	760	772	775	777	779	780	780	782	786	786	788	791	793	800	802	802	804	806	812	817	819	823	823	831	833	835	835	839	845	852	854	858	858	860	860	862	871	871	875	894	894	898	901	901	905	913	915	915	920	925	927	932	942	942	945	948	955	958	963	963	974	977	977	977	977	985	985	1064	1064	1061	1061	1061	1061	1061	1058	1058	1061	1061	1058	1061	1064	1064	1068	1071	1085	1088	1088	1095	1095	1098	1105	1109	1113	1127	1131	1131	1131	1467	1455	1455	1455	1449	1455	1449	1449	1449	1455	1455	1455	1455	1455	1455	1449	1449	1449	1449	1449	1449	1443	1443	1443	1443	1443	1449	1461	1455	1449	1455	1455	1455	1455	1455	1455	1455	1455	1461	1461	1473	1480	1480	1492	1492	0	0	0	0	0	7444	7444	7779	7608	7608	7608	7608	7779	7779	7608	7608	7608	7779	7779	7779	7779	7779	7779	7779	7608	7608	7608	7608	7608	7444	7444	7608	7608	7608	7608	7608	7444	7444	7287	7287	7287	7287	7287	7287	7137	7287	7287	7444	7444	7444	7444	7608	7608	7287	7287	7444	7444	7444	7287	7608	7287	7287	7287	7287	7137	7137	7137	7287	7287	7287	7287	7287	7444	7444	7444	7444	7444	7608	7608	7608	7444	7444	7444	7287	7444	7444	7444	7444	7287	7287	7287	7287	7137	7137	7287	7287	7287	7287	7137	7137	7137	7137	7137	3546	3546	3546	3546	3546	3546	3546	3583	3583	3546	3546	3583	3583	3583	3546	3546	3546	3546	3546	3546	3546	3546	3546	3546	3546	3583	3583	3583	3583	3583	3546	3546	3583	3583	3583	3583	3583	3583	3583	3546	3546	3583	3583	3583	3583	3583	3583	3583	3583	3546	3546	3546	3546	3546	3546	3546	3583	3583	3583	3583	3583	3583	0	7444	7608	7608	7608	7608	7608	7608	7608	7608	7608	7608	7608	7608	7444	7444	7287	7287	7287	7287	7444	7287	7287	7608	7608	7608	7444	7287	7287	7287	7287	7287	7608	7608	7608	7287	7287	7137	7137	7137	7287	7137	7137	7287	7287	7287	7444	7444	7444	7444	7444	7287	7287	7287	7287	7287	7287	7287	7287	7287	7287	7287	7287	7287	7287	7287	7137	7287	7287	7287	7287	7287	7287	7287	7287	7444	7444	7444	7444	7444	7444	7444	7287	7287	7287	7287	7287	7287	7137	7287	7137	7287	7287	7444	7287	7287	7287	7287	7287	7287	7287	7287	7444	7287	7287	7444	7444	7287	7287	7287	7287	7287	7287	7444	7444	7444	7444	7444	7444	7444	7444	7444	7608	7608	7608	7444	7779	7779	7779	7779	7608	7608	7608	7608	7779	7779	7608	7608	7608	7608	7608	7444	7608	7608	7779	7779	7779	7779	7608	7608	7444	7608	7608	7608	7608	7779	7959	7779	7779	7779	7779	7779	7779	7779	7779	7779	7608	7779	7444	7444	7444	7444	7444	7444	7779	7608	7779	7959	7959	7959	7959	7959	7959	7959	7959	7779	7608	7608	7608	0	0	0	0	0	0	0	7444	7444	7444	7444	7444	7444	7444	7444	7444	7444	0	7444	7444	7444	7444	7444	7444	7444	7444	7444	7444	0	7444	7444	7444	7444	7444	7444	7444	7444	7287	7287	7287	7287	7287	7287	0	0	0	0	0	0	7444	7444	7444	7444	7287	7137	7137	7137	0	0	0	0	0	0	0	0	0	0	0	0	0	0	0	0	0	0	0	0	0	0	0	0	0	0	0	0	0	0	0	0	0	0	0	0	0	0	0	0	0	0	0	0
0	0	0	0	0	678	678	0	0	0	0	0	0	0	697	698	700	700	704	705	708	711	714	717	717	719	720	722	723	729	731	734	736	737	737	739	743	747	753	756	756	758	758	761	772	775	777	779	780	780	782	782	786	788	789	791	800	800	802	802	806	808	812	819	823	827	829	837	839	839	841	850	852	852	856	858	860	862	869	873	875	878	891	891	896	898	903	908	915	915	915	917	922	925	932	945	945	948	953	955	955	961	963	974	977	977	980	985	985	997	997	1061	1061	1061	1061	1064	1061	1061	1061	1064	1064	1064	1064	1064	1068	1071	1074	1081	1085	1088	1091	1095	1095	1102	1105	1113	1127	1131	1131	1131	1131	1455	1455	1455	1455	1455	1455	1455	1455	1455	1455	1461	1461	1455	1455	1455	1455	1449	1449	1449	1449	1449	1455	1449	1449	1449	1449	1455	1461	1461	1461	1461	1461	1461	1461	1461	1455	1461	1467	1473	1480	1480	1486	1492	1492	0	0	0	0	0	0	9235	8146	7959	7779	7779	7779	7959	7779	7608	7608	7608	7779	7779	7779	7779	7779	7779	7779	7779	7608	7608	7608	7608	7608	7608	7608	7608	7608	7608	7608	7608	7444	7444	7444	7444	7287	7287	7287	7137	7287	7287	7287	7444	7444	7444	7608	7608	7608	7608	7608	7608	7608	7608	7608	7287	7287	7287	7287	7287	7287	7137	7287	7287	7287	7287	7137	7287	7444	7444	7444	7608	7608	7608	7608	7608	7608	7444	7287	7608	7608	7608	7444	7444	7444	7444	7444	7287	7287	7287	7287	7287	7287	7287	7137	7137	7137	7137	3546	3546	3546	3546	3546	3546	3546	3583	3583	3583	3583	3583	3583	3583	3546	3546	3546	3546	3546	3546	3546	3546	3546	3546	3546	3546	3583	3583	3583	3583	3546	3546	3583	3583	3546	3583	3583	3546	3546	3546	3546	3583	3583	3583	3583	3583	3583	3583	3583	3583	3583	3546	3546	3546	3583	3546	3546	3583	3583	3583	3583	3583	0	3583	3583	7608	7608	7608	7608	7608	7608	7608	7779	7608	7608	7608	7444	7444	7287	7287	7287	7287	7287	7287	7287	7444	7608	7608	7444	7287	7287	7608	7779	7779	7608	7779	7779	7608	7287	7287	7287	7137	7287	7287	7287	7287	7287	7444	7444	7444	7608	7608	7608	7287	7287	7287	7287	7287	7287	7287	7287	7287	7287	7287	7287	7287	7287	7287	7287	7287	7287	7287	7287	7287	7287	7444	7444	7444	7444	7608	7608	7444	7444	7444	7444	7287	7287	7287	7287	7287	7137	7287	7137	7287	7287	7287	7608	7287	7287	7287	7287	7287	7287	7287	7287	7287	7608	7608	7608	7444	7444	7287	7287	7287	7287	7444	7444	7444	7444	7444	7444	7444	7444	7444	7444	7444	7444	7444	7779	7779	7779	7779	7779	7608	7608	7608	7779	7959	7779	7779	7779	7608	7608	7608	7608	7779	7779	7779	7779	7779	7608	7608	7608	7608	7779	7779	7959	7959	7959	7779	7779	7779	7779	7608	7608	7608	7608	7608	7608	7779	7608	7444	7444	7608	7608	7608	7779	7608	7608	7959	7959	7959	7959	7959	7959	7959	7959	7959	7608	7608	7608	7444	7444	7444	7444	7444	7444	0	7444	7444	7444	7444	7444	7444	7444	7444	7444	7444	0	0	0	7444	7444	7444	7444	7444	0	0	0	0	0	7444	7444	7444	7444	7444	7444	7444	7287	7287	7287	7287	7287	7287	0	0	0	0	0	0	7444	7444	7444	7444	7287	7287	7137	7137	0	0	0	0	0	0	0	0	0	0	0	0	0	0	0	0	0	0	0	0	0	0	0	0	0	0	0	0	0	0	0	0	0	0	0	0	0	0	0	0	0	0	0	0
0	669	667	667	666	675	675	0	0	0	0	0	0	0	695	697	698	700	704	704	705	710	713	716	716	717	719	723	725	728	731	732	734	736	737	739	739	745	755	756	756	758	756	763	768	772	773	777	777	782	784	786	788	788	791	791	800	802	804	804	806	808	812	814	819	831	831	837	837	839	839	850	852	852	856	858	860	860	867	873	875	880	891	891	896	896	901	905	915	915	915	915	917	925	932	948	950	950	953	955	958	961	963	972	974	977	988	994	994	997	997	1000	1000	1064	1064	1064	1068	1064	1068	1071	1071	1071	1071	1071	1071	1081	1081	1085	1085	1088	1091	1095	1098	1102	1109	1113	1127	1131	1131	1131	1131	0	1473	1467	1461	1461	1455	1461	1455	1461	1461	1461	1467	1461	1461	1461	1467	1467	1467	1467	1461	1461	1461	1473	1455	1455	1455	1461	1461	1461	1467	1467	1467	1467	1467	1467	1467	1467	1480	1480	1486	1486	1486	1492	1492	0	0	0	0	0	0	9235	8343	8146	7959	7959	7779	7959	7779	7779	7779	7779	7779	7779	7779	7779	7779	7779	7779	7779	7779	7608	7608	7608	7608	7608	7779	7779	7779	7779	7608	7608	7608	7444	7444	7444	7444	7287	7287	7287	7287	7287	7444	7444	7608	7608	7608	7608	7608	7779	7608	7608	7608	7608	7608	7608	7608	7608	7287	7287	7287	7287	7287	7444	7444	7287	7444	7444	7444	7444	7444	7608	7608	7608	7608	7608	7608	7444	7608	7608	7608	7608	7444	7444	7444	7444	7444	7287	7287	7444	7444	7444	7444	7287	7137	7137	3546	3583	3546	3546	3546	3583	3583	3546	3546	3583	3583	3546	3583	3583	3583	3583	3546	3546	3546	3546	3546	3546	3546	3546	3546	3546	3546	3583	3583	3583	3583	3583	3546	3546	3546	3583	3546	3583	3583	3546	3546	3546	3546	3583	3583	3583	3583	3583	3583	3583	3546	3546	3546	3546	3546	3546	3583	3583	3583	3583	3583	3583	3583	3583	3583	3583	3583	3583	0	7608	7779	7779	7779	7779	7779	7779	7608	7608	7608	7608	7444	7287	7287	7444	7287	7287	7287	7444	7608	7608	7608	7608	7608	7608	7779	7779	7608	7608	7779	7608	7444	7287	7287	7287	7287	7287	7287	7287	7444	7444	7444	7608	7608	7608	7608	7608	7608	7608	7608	7287	7444	7444	7287	7444	7444	7287	7287	7444	7287	7287	7287	7287	7287	7287	7287	7287	7287	7444	7444	7444	7444	7444	7444	7444	7444	7444	7444	7287	7287	7287	7287	7287	7287	7287	7287	7287	7287	7287	7608	7608	7779	7444	7444	7444	7444	7287	7444	7444	7608	7608	7608	7287	7287	7287	7287	7287	7287	7444	7444	7444	7444	7444	7444	7444	7444	7444	7444	7444	7779	7779	7779	7779	7779	7779	7779	7608	7608	7608	7608	7779	7779	7608	7779	7779	7608	7608	7779	7779	7779	7779	7779	7779	7779	7608	7608	7779	7779	7779	7779	7959	7959	7959	7959	7779	7779	7608	7608	7608	7608	7608	7608	7608	7608	7444	7608	7608	7608	7608	7779	7779	7959	7959	8146	8146	8146	7959	7959	7959	7959	7959	7779	7608	7608	7608	7608	7608	7444	7444	7608	7608	7608	7444	7444	7444	7608	7444	7608	7608	7608	0	0	0	0	0	0	0	0	0	0	0	0	0	0	0	7608	7608	7608	7444	7444	7444	7287	7287	7287	7287	7287	7287	0	0	0	0	0	0	0	7444	7444	7287	7287	7137	7137	7137	0	0	0	0	0	0	0	0	0	0	0	0	0	0	0	0	0	0	0	0	0	0	0	0	0	0	0	0	0	0	0	0	0	0	0	0	0	0	0	0	0	0	0	0
