0	0	0	0	0	0	0	0	0	0	0	0	0	0	0	0	698	700	705	705	704	705	711	717	720	722	723	723	725	728	729	731	731	740	740	740	745	748	750	752	755	755	756	756	756	756	773	773	777	780	782	784	784	784	789	793	797	800	804	804	806	810	821	825	827	829	829	829	837	837	841	843	845	856	856	862	865	865	869	873	878	880	887	887	891	898	903	903	908	913	917	922	925	930	935	937	940	945	950	953	955	958	963	969	969	983	985	991	994	997	1000	1008	1011	1014	1020	1026	1030	1042	1045	1052	1058	1061	1061	1068	1068	1068	1116	1116	1113	1113	1113	1113	1113	1113	1116	1116	1116	1116	0	0	0	0	0	0	0	1560	1560	1553	1581	1574	1574	1581	1581	1581	1574	1574	1581	1574	1574	1574	1567	1574	1581	1567	1567	1581	1581	1581	1574	1574	1581	1581	1574	1567	1567	1567	1567	1567	1560	1560	1567	1574	1574	1574	1567	1574	1581	1589	1596	1603	1589	1589	1596	1611	1596	1596	1596	0	0	0	0	0	7959	8146	8146	8146	8146	8146	8146	0	0	0	7959	8343	8146	8343	8343	8343	8146	8343	8343	8343	8146	8146	8343	8146	7959	7959	7959	7959	7959	7959	7959	7959	7959	7959	7779	7959	7959	7959	7959	7959	7779	7959	8146	8146	8343	8343	8343	8343	8343	8343	8146	8146	7959	7959	7959	8146	8146	8146	7959	7959	7959	7959	7959	8146	8146	8343	8343	8343	8343	8343	8343	8146	8146	7959	0	0	0	0	0	0	3583	3583	3583	3583	3583	3583	3583	3583	3546	3546	3546	3546	3546	3510	3510	3510	3510	3510	3475	3475	3440	3475	3475	3475	3475	3475	3475	3440	3475	3440	3440	3440	3510	3510	3510	3510	3510	3475	3475	3475	3475	3475	3475	3475	3475	3475	3475	3475	3475	3475	3475	3475	3475	3475	3475	3510	3546	3546	3546	3546	3546	3546	3583	3583	3583	3583	3583	3583	3546	3583	3583	3583	3583	3583	3583	3583	3583	0	8343	8343	8343	8146	7959	7959	8146	8146	8146	8146	8146	7959	8146	8146	8146	7959	7959	8146	8343	8343	8146	8146	8146	7959	7959	7959	7959	7779	7959	7959	7959	7959	7959	7959	7959	7959	7959	7959	7959	7959	7959	8146	8146	7959	7959	7959	7959	7959	7959	7959	7959	7959	7959	7959	8146	8146	8146	7959	7959	7959	7959	7959	7779	7779	7779	7779	7779	7779	7779	7779	7779	7779	7779	7779	7779	7779	7959	7959	7959	7959	7959	7959	7779	7779	7959	7959	7959	7959	7959	7959	7959	7959	7959	7779	7779	7959	7779	7959	7779	7959	7779	7779	7959	8146	8146	8146	8146	8146	8146	8146	8146	8146	8146	8146	8146	8146	7959	7959	7959	7959	7959	8146	8146	8146	8146	8343	8146	8146	8146	8146	7959	7959	8146	8146	8146	8146	8146	8146	7959	8146	8146	8146	8146	8146	8146	8146	8146	8146	7959	7959	7959	7959	7959	7959	8146	7959	7959	7959	8146	8146	8146	8146	8146	8146	8146	7959	7959	7959	7959	7959	8146	8146	8146	8146	8146	8146	8146	8146	7959	8146	7959	8146	8146	8146	8146	7959	7959	7959	7959	8146	8146	8146	8146	8146	8146	8146	8146	8146	7959	8146	8146	8146	8146	8146	8146	7959	7959	7959	7959	7959	7959	7959	7959	7959	7779	7779	7959	7779	7779	7779	7779	7779	7779	7779	7779	7779	7779	7608	7608	7608	7608	7608	7608	7608	7608	7608	7608	7608	7608	7779	7779	7779	7608	7779	7608	7444	7444	0	0	0	0	0	0	0	0	0	0	0	0	0	0	0	0	0	0	0	0	0	0	0	0	0	0	0	0	0	0	0	0	0
0	0	0	0	0	0	0	0	0	0	0	0	0	0	0	0	698	700	701	705	705	705	713	717	720	720	722	723	725	728	731	731	736	736	740	740	745	747	748	750	752	755	755	755	755	755	775	775	777	782	784	786	786	788	789	791	791	800	800	804	806	812	823	823	827	829	831	835	837	841	843	845	852	856	858	862	862	865	867	871	873	878	884	887	889	896	901	903	908	913	917	920	925	927	932	937	937	950	950	953	955	958	961	966	966	983	985	991	994	997	1000	1006	1011	1014	1020	1030	1033	1042	1045	1055	1058	1061	1061	1068	1071	1074	1074	1074	1113	1113	1113	1113	1113	1113	1116	1116	1116	1116	0	0	0	0	0	0	0	0	0	0	1581	1574	1581	1581	1574	1581	1574	1581	1581	1581	1581	1581	1581	1581	1589	1581	1581	1589	1589	1589	1589	1589	1589	1589	1589	1589	1596	1596	1596	1596	1596	1611	1618	1589	1589	1589	1589	1589	1589	1596	1596	1603	1596	1596	1603	1611	1596	1596	1596	0	0	0	0	0	0	8146	8146	8146	8146	8343	8343	8343	8343	8343	0	8343	8146	8146	8146	8343	8343	8343	8343	8343	8343	8343	8343	8146	7959	7959	7959	7959	7959	7779	7959	7959	7959	7959	7779	7959	7959	8146	8146	8146	8146	8343	8146	8146	8146	8343	8343	8343	8343	8343	8343	8146	7959	8146	8343	8146	8146	8146	8146	8146	7959	8146	8146	8146	8146	8146	8343	8343	8343	8343	8343	8146	8146	0	0	0	0	0	0	0	3583	3583	3583	3583	3583	3546	3583	3546	3546	3546	3546	3546	3546	3546	3546	3546	3510	3510	3510	3475	3440	3475	3440	3440	3440	3440	3440	3440	3475	3440	3475	3475	3510	3510	3510	3510	3510	3475	3475	3475	3475	3475	3475	3475	3475	3475	3475	3475	3475	3475	3475	3475	3510	3510	3510	3510	3546	3546	3546	3546	3546	3546	3546	3546	3583	3583	3583	3583	3583	3546	3583	3583	3583	3583	3583	3583	3583	0	8146	8146	8146	8146	8146	8146	8146	8146	8343	8146	8146	8146	8146	8343	8146	8146	8146	8146	8343	8146	8146	8146	8146	7959	7959	7959	7959	7959	7779	7779	7779	7959	7959	7959	7959	7959	8146	7959	8146	8146	7959	8146	8146	7959	7959	7959	7959	7959	7959	7959	7959	7959	7959	7959	7959	7959	7959	7959	7959	7959	7959	7959	7779	7779	7779	7779	7779	7779	7779	7779	7779	7779	7779	7779	7959	7959	7959	7959	7779	7779	7779	7779	7779	7779	7779	7779	7779	7959	7959	7959	7959	7959	7959	7959	7959	7959	7959	7959	7959	7959	7959	7779	7959	8146	8146	8146	8146	8146	8146	8146	8146	8146	8146	8146	8146	7959	7959	7959	7959	7959	8146	8146	8146	8146	7959	8146	8146	8146	8146	7959	7959	8146	8146	8146	8146	8146	8146	7959	7959	7959	7959	7959	8146	7959	8146	8146	8146	8146	8146	7959	7959	7959	8146	8146	8146	8146	8146	7959	8343	8343	8146	8146	8146	8146	8146	8146	7959	7959	7959	7959	7959	7959	8146	8146	8146	8146	8146	8146	8146	8146	8146	8146	8146	8146	8146	7959	7959	7959	7959	7959	8146	8146	8146	8146	8146	8146	8146	8146	7959	8146	8146	7959	7959	7959	8146	8146	7959	7959	7959	7959	7959	7959	7959	7959	7779	7959	7959	7959	7779	7779	7959	7959	7779	7959	7779	7779	7779	7608	7608	7608	7608	7608	7608	7608	7779	7608	7608	7608	7608	7779	7779	7608	7608	7608	7444	7444	7444	0	0	0	0	0	0	0	0	0	0	0	0	0	0	0	0	0	0	0	0	0	0	0	0	0	0	0	0	0	0	0	0	0
0	0	0	0	0	0	0	0	0	0	0	0	0	0	0	698	700	700	701	704	705	705	714	717	720	720	722	723	723	726	729	729	732	732	742	742	745	748	748	748	752	753	755	755	755	772	772	775	777	780	782	784	784	786	786	789	791	800	808	806	808	812	812	829	829	831	833	837	839	841	843	845	852	856	858	862	862	865	869	873	875	878	882	884	887	896	903	905	908	915	917	922	925	930	932	937	937	937	948	953	955	958	963	969	969	985	988	994	997	1000	1000	1006	1008	1014	1020	1030	1033	1033	1042	1042	1055	1058	1061	1068	1071	1074	1074	1074	1113	1113	1113	1113	1113	1113	1116	1113	1113	1113	0	0	0	0	0	0	0	0	0	0	1589	1581	1589	1589	1589	1589	1581	1581	1589	1589	1589	1589	1581	1589	1589	1589	1589	1596	1596	1596	1596	1603	1603	1603	1596	1596	1603	1611	1611	1618	1611	1618	1618	1618	1611	1603	1596	1603	1603	1603	1596	1611	1611	1611	1611	1618	1618	1618	1618	0	0	0	0	0	8343	8343	8343	8343	8343	8343	8343	8343	8343	8343	0	8343	8343	8343	8343	8343	8343	8343	8343	8343	8343	8343	8343	8343	8146	8146	7959	8146	7959	7959	7959	7959	7959	7959	7959	7959	8146	8146	8146	8146	8146	8146	8146	8146	8343	8343	8343	8343	8343	8343	8343	8146	7959	8146	8343	8343	8343	8343	8343	8146	8146	8146	8146	8146	8146	8146	8343	8343	8343	8343	8343	8343	8146	8146	0	0	0	0	0	3583	3583	3583	3583	3583	3583	3546	3583	3546	3546	3546	3546	3546	3546	3546	3546	3546	3546	3510	3510	3475	3440	3440	3440	3440	3440	3440	3440	3440	3440	3440	3440	3475	3510	3510	3510	3510	3510	3475	3475	3475	3475	3475	3475	3475	3475	3475	3475	3475	3475	3475	3510	3475	3510	3510	3510	3510	3546	3546	3546	3546	3546	3546	3546	3546	3546	3546	3583	3583	3583	3583	3583	3583	3583	3583	3583	3583	3583	0	7959	7959	7959	8146	7959	7959	8146	8146	8146	8146	8146	8146	8146	8343	8146	8146	8146	8146	8146	8146	8146	8146	8146	7959	7959	7959	7959	7959	7959	7959	7959	7959	7959	8146	8146	8146	8343	8146	8146	8146	8146	8146	8146	7959	7959	7959	7959	7959	7959	7959	7959	7959	7959	7959	7959	7959	7959	7959	7959	7959	7959	7959	7959	7779	7779	7959	7779	7779	7779	7779	7779	7779	7779	7779	7779	7959	7779	7779	7779	7779	7779	7779	7779	7779	7779	7779	7779	7779	7959	7959	7959	7959	7959	7959	7959	7959	7959	7959	7779	7779	7779	7779	7959	8146	8146	8146	8146	8146	8146	8146	8146	8146	8146	8146	8146	7959	7959	8146	8146	8146	8146	8146	8146	8146	8146	8146	8146	8146	8146	8146	8146	8146	8146	8146	8146	8146	8146	8146	8146	8146	8146	8146	8146	8146	8146	8146	8146	8146	8146	7959	7959	7959	7959	8146	8146	8146	8146	8343	8343	8343	8343	8146	8146	8146	8146	8146	7959	7959	7959	7959	7959	8146	8146	8146	8146	8146	8146	8146	8146	7959	7959	8146	8146	7959	7959	7959	7959	7779	7959	7959	7959	7959	8146	8146	8146	8146	8146	7959	7959	7959	7959	8146	8146	8146	8146	7959	7959	7959	7959	7959	7959	7959	7959	7959	7959	8146	7959	7959	7779	7959	7959	7959	7959	7959	7779	7779	7779	7608	7444	7608	7444	7444	7608	7608	7608	7608	7608	7608	7608	7779	7779	7608	7608	7608	7444	7444	7444	0	0	0	0	0	0	0	0	0	0	0	0	0	0	0	0	0	0	0	0	0	0	0	0	0	0	0	0	0	0	0	0	0
0	0	0	0	0	0	0	0	0	0	0	0	0	0	695	698	698	700	703	704	704	705	711	717	720	720	720	723	723	725	726	729	731	731	732	732	745	747	747	748	750	753	753	755	755	772	773	773	775	779	782	786	786	788	789	789	791	789	806	804	812	817	823	827	829	831	833	837	839	841	845	845	852	856	858	862	862	865	869	871	873	875	882	884	887	896	903	905	910	913	915	917	922	927	932	935	937	942	950	953	955	958	966	972	972	983	985	988	994	997	1000	1006	1008	1011	1020	1030	1036	1036	1042	1042	1055	1058	1061	1068	1071	1074	1078	1078	1113	1113	1113	1113	1116	1116	1116	1113	1113	1113	0	0	0	0	0	0	0	0	0	0	1596	1589	1589	1589	1589	1589	1589	1589	1589	1589	1589	1589	1589	1589	1603	1596	1611	1618	1611	1618	1618	1618	1618	1611	1611	1611	1611	1618	1618	1618	1618	1618	1618	1618	1611	1611	1611	1611	1611	1611	1596	1618	1618	1618	1618	1618	1618	1641	1641	1641	0	0	0	0	8343	8146	8146	8343	8343	8343	8343	8343	8146	8146	8146	0	8146	8146	8343	8343	8343	8343	8343	8343	8343	8343	8343	8343	8146	8146	8146	8146	8146	8146	8146	8146	8146	8146	8146	8146	8146	8146	8146	8146	7959	8343	8146	8343	8343	8343	8343	8343	8343	8343	8146	8146	8146	8146	8343	8343	8343	8343	8343	8343	8146	8146	8146	8146	8146	8146	8343	8343	8343	8343	8343	8343	8343	8343	0	0	0	0	0	3583	3546	3583	3583	3583	3583	3546	3583	3546	3546	3546	3546	3546	3546	3546	3510	3510	3546	3510	3510	3475	3475	3440	3440	3440	3440	3440	3440	3440	3440	3440	3440	3475	3475	3510	3510	3475	3475	3475	3475	3475	3475	3475	3475	3475	3475	3475	3475	3475	3475	3475	3510	3475	3475	3510	3510	3510	3546	3546	3546	3546	3546	3546	3546	3546	3546	3546	3583	3583	3583	3583	3583	3583	3583	3583	3583	3583	3583	0	7959	7959	8146	8146	7959	8146	8146	8146	8146	8343	8146	8146	8343	8343	8343	8146	8146	8146	8343	8146	8146	8146	8146	8146	8146	8146	8146	7959	7959	7959	7959	8146	8146	8146	8146	8343	8343	8146	8343	8146	8146	8146	8146	7959	8146	7959	7959	7959	7959	7959	7959	7959	7959	7959	7959	7959	7959	7959	7959	7959	7959	7959	7779	7779	7779	7779	7779	7779	7779	7779	7779	7779	7779	7779	7959	7959	7779	7779	7779	7779	7779	7779	7779	7779	7779	7779	7959	7959	7959	7959	7959	7959	7959	7959	7959	7959	7959	7779	7779	7779	7779	7779	7959	8146	8146	8146	8146	8146	8146	8146	8146	8146	8146	8146	8146	7959	7959	8146	8146	8146	8146	8343	7959	7959	7959	8146	8146	8146	8146	8146	8146	8146	8146	8146	8146	8146	8146	8146	8146	8146	8146	8146	8146	8146	8146	8146	8146	8146	8146	8146	8146	8146	8146	8146	8146	8146	8146	8146	8146	8343	8343	8146	8146	8146	8146	8146	8146	7959	7959	7959	8146	8146	8146	8146	8146	8146	8146	8146	8146	8146	8146	8146	8146	8146	8146	7959	7959	7779	7959	7959	7959	7959	8146	8146	8146	8146	8146	7959	7959	8146	8146	8146	8146	8146	8146	7959	7959	7959	7959	7959	7959	7959	7959	7959	7959	8146	7959	7959	7959	7959	7959	7959	7959	7959	7779	7779	7779	7444	7444	7608	7444	7444	7608	7608	7608	7608	7608	7608	7608	7608	7779	7608	7608	7608	7608	7444	7444	0	0	0	0	0	0	0	0	0	0	0	0	0	0	0	0	0	0	0	0	0	0	0	0	0	0	0	0	0	0	0	0	0
0	0	0	0	0	0	0	0	0	0	693	693	694	694	697	698	700	700	704	704	705	705	710	717	717	720	722	722	723	725	726	728	729	729	732	745	745	747	747	750	752	753	753	760	765	768	772	772	773	775	779	786	786	788	789	789	791	791	804	806	812	817	819	825	827	829	831	835	839	843	848	848	850	854	858	860	860	865	867	869	871	878	882	884	887	887	901	905	905	913	917	917	922	927	932	937	937	942	950	953	955	961	966	972	972	980	985	991	997	997	1000	1006	1008	1014	1020	1030	1033	1039	1039	1048	1055	1061	1064	1071	1074	1074	1078	1078	1078	1109	1113	1116	1116	1116	1116	1113	1113	1113	1113	0	0	0	0	0	0	0	0	0	1596	1589	1596	1589	1589	1581	1581	1589	1603	1596	1596	1603	1603	1603	1611	1603	1611	1618	1618	1618	1618	1618	1618	1618	1618	1618	1618	1626	1626	1626	1626	1626	1626	1626	1618	1618	1611	1618	1618	1618	1618	1626	1618	1618	1618	1626	1641	1641	1641	1641	0	0	0	0	0	8146	8146	8343	8343	8343	8343	8343	8343	8343	8343	8343	8146	8343	8343	8343	8343	8550	8343	8343	8343	8343	8343	8343	8146	8146	8146	8146	8146	8146	8146	8146	8146	8146	8146	8146	8146	8146	8146	8146	8146	8343	8146	8146	8343	8343	8343	8343	8343	8343	8343	8146	8146	8343	8343	8343	8343	8343	8343	8343	8146	8146	8146	8146	8146	8343	8343	8343	8343	8343	8343	8343	8343	8343	0	0	0	0	0	3583	3546	3583	3583	3583	3546	3546	3583	3546	3546	3546	3546	3546	3546	3546	3546	3510	3546	3510	3510	3475	3475	3475	3440	3440	3440	3440	3440	3440	3475	3440	3475	3440	3475	3510	3475	3475	3475	3475	3475	3475	3475	3475	3475	3475	3475	3475	3475	3475	3475	3510	3510	3510	3510	3475	3510	3475	3510	3510	3546	3546	3546	3583	3583	3583	3583	3583	3583	3583	3583	3583	3583	3583	3583	3583	3583	3583	3583	3583	7959	8146	8146	8146	7959	7959	7959	8146	8146	8146	8146	8146	8343	8343	8343	8343	8343	8343	8146	8146	7959	8146	8146	8146	8146	8146	8146	8146	7959	7959	8146	8146	8146	8343	8146	8343	8343	8146	8343	8343	8146	8146	8146	8146	8146	7959	7959	7959	7959	7959	7959	7959	7959	7959	7959	7959	7959	7959	7959	7959	7779	7959	7779	7959	7779	7779	7779	7779	7779	7779	7779	7779	7779	7959	7959	7959	7779	7959	7779	7779	7779	7779	7779	7779	7779	7779	7779	7779	7959	7959	7959	7959	7959	7959	7959	7959	7959	7779	7779	7779	7779	7779	7959	7959	8146	8146	8146	8146	8146	8146	7959	8146	8146	8146	7959	7959	7959	8146	8146	8146	8146	7959	7959	7959	7959	8146	8146	8146	7959	8146	7959	8146	8146	8146	8146	8146	8146	8146	8146	8146	8146	8146	8146	8146	8146	8146	8146	8146	8146	8146	8146	7959	8146	8146	8146	8146	8146	8146	7959	7959	8146	8146	8146	8146	8146	8146	8146	8146	8146	8146	8146	8146	8146	8146	8146	8146	8146	8146	8146	8146	8146	8146	8146	8146	8146	8146	7959	7959	7959	7959	7959	7959	7959	8146	8146	8146	8146	8146	8146	8146	7959	8146	8146	8146	8146	7959	7959	7959	7959	7959	7959	7959	7959	7959	7959	7959	7959	7959	7959	7959	7959	7959	7959	7959	7959	7959	7959	7608	7608	7608	7608	7608	7608	7608	7608	7608	7608	7608	7608	7608	7608	7608	7608	7608	7444	7444	7444	0	0	0	0	0	0	0	0	0	0	0	0	0	0	0	0	0	0	0	0	0	0	0	0	0	0	0	0	0	0	0	0	0
0	0	0	0	0	0	0	0	0	0	694	693	693	694	694	698	700	701	701	704	704	705	705	719	720	720	722	723	725	726	728	729	729	732	734	739	743	747	747	752	752	753	755	765	767	768	770	770	770	773	779	786	788	788	789	789	791	791	808	808	812	815	819	823	825	829	833	837	841	843	848	848	850	854	856	858	860	865	867	871	871	882	884	884	887	894	896	896	908	915	917	917	922	922	935	932	942	948	948	950	955	961	966	972	972	980	988	991	997	997	1000	1006	1011	1014	1020	1026	1026	1033	1045	1048	1055	1058	1064	1071	1074	1078	1081	1088	1088	1102	1113	1113	1116	1116	1116	1113	1116	1116	1116	1116	0	0	0	0	0	0	0	0	0	0	1603	1596	1596	1589	1596	1603	1611	1611	1611	1611	1618	1618	1618	1618	1618	1626	1626	1634	1626	1626	1626	1626	1626	1626	1634	1634	1634	1634	1626	1626	1626	1626	1626	1626	1634	1626	1626	1626	1626	1634	1634	1634	1641	1641	1649	1649	1657	1657	1665	1665	0	0	0	8146	8146	8343	8343	8343	8550	8550	8343	8343	8343	8343	8146	8343	8343	8343	8343	8550	8343	8343	8550	8343	8343	8343	8343	8343	8343	8343	8343	8343	8146	8343	8146	8343	8146	8343	8146	8146	8146	8146	8146	8343	8146	8343	8343	8343	8343	8343	8343	8343	8343	8146	8343	8343	8343	8343	8343	8343	8343	8343	8146	8146	8146	8146	8146	8343	8343	8343	8343	8343	8343	8343	8343	8343	0	0	0	0	0	3583	3583	3583	3583	3583	3583	3546	3583	3546	3546	3546	3546	3546	3546	3510	3546	3510	3546	3510	3510	3510	3475	3475	3475	3440	3475	3475	3440	3475	3475	3440	3475	3440	3475	3475	3475	3475	3475	3475	3475	3475	3475	3475	3475	3475	3475	3475	3510	3475	3475	3510	3510	3510	3510	3475	3475	3475	3475	3475	3510	3546	3546	3583	3583	3583	3583	3583	3583	3583	3583	3583	3583	3583	3583	3583	3583	3583	3583	3583	3583	8146	8343	8146	7959	8146	7959	8146	8146	8146	8146	8146	8343	8343	8343	8343	8343	8343	8343	8343	8146	8343	8146	8146	8146	8343	8146	8146	8146	8146	8146	8146	8146	8146	8146	8343	8343	8343	8343	8343	8146	8146	8146	8146	8146	8146	8146	8146	8146	8146	8146	7959	7959	7959	7959	7959	7959	7959	7959	7959	7779	7959	7959	7959	7779	7779	7779	7779	7779	7779	7779	7779	7779	7779	7779	7779	7779	7779	7779	7779	7779	7779	7779	7779	7779	7779	7779	7779	7959	7959	7959	7959	7959	7959	7959	7959	7959	7779	7779	7959	7959	7959	7959	7959	7959	8146	8146	8146	8146	8146	7959	8146	8146	8146	7959	7959	7959	8146	8146	8146	8146	8146	7959	8146	7959	7959	7959	8146	7959	8146	7959	7959	7959	7959	8146	8146	7959	7959	8146	8146	8146	8146	8146	8146	8146	8146	8146	8146	8146	8146	8146	8146	8146	8146	7959	7959	7959	7959	7959	8146	8146	8146	8146	8343	8146	8343	8146	8146	8146	8146	8146	8146	8146	8146	8146	8146	8146	8146	8146	8146	8343	8343	8343	8343	8343	8146	7959	7959	7959	7959	7959	7959	7959	7959	7959	7959	7959	7959	7959	7779	7959	7959	7959	8146	8146	7959	7959	7959	7959	7959	7959	7959	7959	7959	7959	7959	7959	7959	7959	7959	7959	7959	7959	7959	7959	7959	7959	7959	7959	7959	7959	7608	7608	7608	7608	7608	7608	7608	7608	7608	7608	7608	7608	7608	7444	7444	7444	0	0	0	0	0	0	0	0	0	0	0	0	0	0	0	0	0	0	0	0	0	0	0	0	0	0	0	0	0	0	0	0	0
0	0	0	0	0	0	0	0	0	0	694	691	691	694	698	700	701	701	704	704	704	707	711	717	720	720	722	723	725	725	728	729	729	731	734	734	743	748	748	753	753	753	755	765	767	768	770	770	772	773	777	782	786	788	789	789	797	802	806	810	812	815	819	823	823	827	831	835	835	841	848	850	850	852	854	858	858	865	869	873	873	880	882	884	887	894	896	896	910	915	917	917	922	922	930	932	940	945	948	950	953	958	958	966	972	977	988	994	997	997	1000	1008	1008	1014	1020	1023	1023	1033	1039	1048	1055	1058	1064	1068	1071	1078	1081	1088	1088	1102	1109	1113	1113	1113	1116	1113	1116	1116	1116	1116	0	0	0	0	0	0	0	0	0	0	1603	1596	1596	1589	1596	1603	1611	1611	1611	1618	1626	1626	1626	1626	1634	1634	1641	1641	1634	1634	1634	1634	1634	1649	1641	1641	1634	1641	1634	1634	1634	1641	1634	1641	1641	1649	1641	1641	1641	1649	1641	1649	1649	1649	1657	1657	1657	1657	1665	1665	1665	0	0	0	0	8343	8343	8343	8550	8550	8550	8343	8343	8343	8146	8343	8343	8343	8343	8550	8343	8343	8550	8343	8343	8343	8343	8343	8343	8343	8343	8343	8343	8343	8146	8146	8146	8343	8343	8343	8343	8343	8146	8343	8343	8343	8343	8343	8343	8343	8343	8343	8343	8146	8146	8343	8343	8343	8343	8343	8343	8343	8343	8146	8343	8343	8343	8343	8343	8343	8343	8343	8343	8343	8146	8146	0	0	0	0	0	3583	3583	3583	3583	3583	3546	3546	3546	3546	3546	3546	3546	3546	3546	3546	3546	3546	3546	3546	3510	3510	3475	3475	3475	3475	3475	3475	3440	3475	3475	3440	3440	3440	3475	3475	3475	3475	3475	3475	3475	3475	3475	3475	3475	3475	3475	3510	3510	3510	3510	3510	3510	3510	3475	3475	3475	3510	3510	3475	3510	3546	3546	3583	3583	3583	3583	3583	3583	3583	3583	3583	3583	3583	3583	3583	3583	3583	3621	3583	3583	3583	8343	8146	7959	7959	7959	8146	8146	8343	8146	8343	8343	8343	8343	8343	8343	8343	8343	8343	8343	8343	8146	8146	8146	8146	8146	8146	8146	8146	7959	8146	8146	8146	8146	8343	8550	8343	8343	8146	8146	8146	7959	7959	8146	7959	8146	8146	8146	8146	8146	7959	7959	7959	7959	7959	7959	7959	7959	7959	7959	7959	7959	7959	7779	7779	7779	7779	7779	7779	7779	7779	7779	7779	7779	7779	7779	7779	7779	7779	7779	7779	7779	7779	7779	7959	7959	7959	7959	7959	7959	7959	7959	7959	7959	7959	7959	7779	7779	7959	7959	7959	8146	8146	8146	8146	8146	8146	8146	8146	7959	8146	7959	7959	7959	7959	8146	8146	8146	8146	8146	8146	7959	8146	7959	8146	8146	8146	8146	8146	7959	7959	7959	7959	8146	8146	8146	7959	8146	8146	8146	8146	8146	8146	8146	8146	8146	8146	8146	8146	8146	8146	8146	8146	7959	7959	7959	7959	8146	8146	8146	8343	8343	8343	8146	8343	8146	8146	8146	8146	8146	8146	8146	7959	7959	7959	8146	8146	8146	8146	8343	8343	8343	8343	8146	8146	7959	7959	7959	7959	7959	7959	7959	7959	7959	7959	7959	7959	7959	7779	7779	7959	7959	7959	8146	7959	7959	7959	7959	7959	7959	7959	7959	7959	7959	7959	7959	7779	7779	7959	7959	7959	7959	7779	7779	7779	7959	7444	7959	7959	7959	7608	7779	7779	7608	7779	7779	7608	7608	7444	7608	7444	7444	7444	7444	7444	7444	0	0	0	0	0	0	0	0	0	0	0	0	0	0	0	0	0	0	0	0	0	0	0	0	0	0	0	0	0	0	0	0	0
0	0	0	0	0	0	0	0	0	0	0	691	691	700	700	701	701	703	704	704	705	707	713	717	719	720	722	723	725	726	729	731	731	732	734	739	742	748	748	753	755	755	758	765	768	770	770	772	773	775	775	780	784	788	789	793	797	802	806	810	814	815	817	821	823	827	831	835	839	839	850	850	850	852	854	856	858	869	871	875	875	880	882	884	894	894	896	896	910	915	917	917	922	922	930	935	940	948	950	953	955	958	961	961	969	977	991	991	994	997	1000	1003	1006	1014	1020	1023	1023	1033	1039	1048	1055	1058	1064	1068	1068	1074	1078	1085	1085	1102	1102	1105	1113	1116	1116	1116	1120	1120	1120	0	0	0	1673	1673	1673	1673	0	0	0	0	0	1596	1596	1589	1589	1603	1611	1611	1618	1626	1634	1641	1649	1641	1641	1649	1649	1649	1641	1641	1641	1641	1649	1641	1641	1641	1641	1641	1641	1641	1641	1649	1649	1649	1657	1657	1657	1649	1649	1649	1649	1649	1657	1657	1665	1657	1657	1657	1665	1681	1681	0	0	0	0	0	8550	8550	8550	8767	8767	8343	8343	0	0	0	0	0	8343	8550	8550	8343	8343	8550	8550	8550	8343	8343	8343	8343	8343	8343	8146	8146	8146	8343	8146	8343	8343	8343	8343	8343	8343	8343	8343	8343	8343	8343	8146	8146	8343	8343	8343	8146	8146	8343	8343	8343	8343	8343	8343	8146	8146	8146	8146	8343	8343	8343	8343	8343	8343	8343	8343	8343	8343	8343	0	0	0	0	3621	3583	3546	3546	3546	3546	3546	3546	3546	3546	3546	3546	3546	3546	3546	3546	3546	3546	3546	3546	3510	3510	3510	3475	3475	3475	3475	3440	3440	3440	3475	3440	3440	3440	3440	3475	3475	3475	3475	3475	3475	3475	3475	3475	3475	3475	3475	3510	3510	3510	3510	3510	3510	3510	3475	3475	3475	3475	3510	3510	3510	3546	3546	3583	3583	3583	3583	3583	3583	3583	3583	3583	3583	3583	3583	3583	3583	3621	3621	3621	3621	3621	0	8146	8146	7959	7959	8146	8146	8343	8343	8343	8343	8550	8343	8343	8343	8343	8343	8343	8343	8343	8146	8146	8146	8146	8146	8146	8146	8146	8146	8146	8146	8146	8146	8146	8550	8343	8343	8146	8146	8146	7959	7959	8146	7959	8146	8146	8146	8146	8146	7959	7959	7959	7959	7959	7959	7959	7959	7959	7959	7959	7959	7959	7959	7779	7779	7779	7779	7779	7779	7779	7779	7779	7779	7959	7779	7779	7779	7779	7779	7779	7779	7959	7779	7779	7959	7959	7959	7959	7959	7959	7959	7959	7959	7959	7959	7779	7959	7959	7959	7959	8146	8146	8146	8146	8146	8146	7959	7959	7959	7959	7959	7959	7959	7959	8146	8146	8146	8146	8146	8146	8146	8146	8146	8146	8146	8146	8146	8146	8146	7959	7959	8146	8146	8146	7959	8146	8146	8146	8146	8146	8146	8146	8146	8146	8146	8146	8146	8146	8146	8146	8146	7959	7959	7959	7959	7959	8146	8146	8146	8343	8343	8146	8146	8343	8146	8146	8146	8146	8146	8146	8146	7959	7959	7959	8146	8146	8146	8146	8343	8146	8343	8146	8146	8146	7959	7959	7959	7959	7959	7959	7959	7959	7779	7959	7959	7959	7959	7779	7959	7959	7959	7959	7959	7959	7959	7959	7959	7959	7959	7959	7959	7959	7959	7959	7959	7959	7959	7959	7959	7608	7608	7779	7608	7608	7608	7444	7444	7608	7608	7608	7779	7779	7779	7779	7779	7779	7608	7608	7608	7444	7444	7444	7444	7287	7287	0	0	0	0	0	0	0	0	0	0	0	0	0	0	0	0	0	0	0	0	0	0	0	0	0	0	0	0	0	0	0	0	0
0	0	0	0	0	0	0	0	0	0	0	689	689	689	698	700	700	703	705	704	705	710	711	714	717	720	722	723	725	725	729	731	731	734	736	740	743	748	750	753	755	756	758	765	767	768	772	772	772	773	775	779	784	788	791	795	797	802	808	810	812	815	817	819	821	827	831	833	833	841	848	850	850	852	854	856	860	860	873	875	875	880	880	884	884	894	896	896	910	915	917	920	922	925	930	935	940	948	950	953	955	955	961	961	969	977	991	991	994	997	1003	1006	1008	1017	1020	1023	1023	1030	1030	1052	1055	1058	1061	1064	1068	1074	1088	1085	1098	1102	1102	1105	1113	1116	1116	1116	1123	1123	1123	0	0	0	1681	1681	1673	1673	0	0	0	0	0	0	0	1589	1589	0	1618	1618	1626	1641	1641	1649	1649	1665	1649	1657	1657	1657	1657	1657	1649	1657	1657	1657	1657	1657	1649	1657	1649	1649	1649	1657	1657	1657	1657	1657	1657	1657	1657	1657	1657	1657	1657	1657	1665	1657	1665	1665	1665	1681	1681	0	0	0	0	0	8767	8767	8767	8767	8767	0	0	0	0	0	0	0	0	8550	8767	8550	8343	8550	8550	8550	8343	8343	8343	8343	8343	8343	8343	8146	8146	8343	8343	8343	8343	8343	8343	8343	8343	8343	8343	8343	8343	8343	8146	8146	8146	8146	8146	8146	8146	8343	8343	8343	8343	8343	8343	8343	8343	8146	8343	8343	8343	8343	8343	8343	8343	8343	8343	8343	8343	8343	0	3698	3698	3621	3583	3583	3546	3546	3546	3546	3546	3546	3546	3546	3546	3546	3546	3546	3546	3546	3510	3510	3510	3510	3510	3510	3475	3475	3475	3475	3475	3475	3440	3440	3475	3440	3440	3440	3440	3475	3475	3475	3475	3475	3475	3475	3475	3475	3475	3475	3475	3510	3510	3510	3510	3510	3510	3475	3475	3475	3475	3475	3475	3475	3510	3546	3546	3583	3583	3583	3583	3583	3583	3583	3583	3583	3583	3621	3583	3621	3583	3621	3621	3621	3621	3621	0	8146	7959	8146	7959	8146	8343	8146	8146	8343	8343	8343	8343	8343	8343	8343	8343	8343	8343	8343	8343	8343	8343	8343	8343	8146	8146	8146	8146	8146	8343	8146	8146	8343	8343	8146	8343	8146	7959	8146	8146	8146	8146	8146	8146	8146	8146	8146	8146	7959	7959	7959	7959	7959	7959	7959	7959	7959	7959	7959	7959	7959	7959	7779	7779	7779	7779	7779	7779	7779	7779	7779	7779	7959	7779	7779	7779	7779	7779	7779	7779	7959	7779	7959	7959	7779	7959	7959	7959	7959	7959	7959	7959	7959	7959	7779	7779	7779	7959	7959	8146	8146	8146	8146	8146	8146	7959	7959	7959	7959	7959	7959	7959	7959	7959	8146	8146	8146	8146	8146	8146	8146	8146	8146	8146	8146	8146	8146	8146	8146	8146	8146	8146	8146	8146	8146	8146	8146	8146	8146	8146	8146	8146	8146	8146	8146	8146	8146	8146	7959	7959	7959	7959	7959	7959	7959	7959	7959	7959	8146	8343	8146	8146	8343	8343	8146	8146	8146	8146	8146	8146	7959	7959	7959	8146	8146	8146	8146	8343	8146	8146	8146	8146	8146	7959	7959	7959	7959	7959	7959	7959	7959	7779	7959	7959	7959	7959	7959	7959	7959	7959	7959	7959	7959	7959	7959	7959	7959	7779	7959	7959	7959	7959	7959	7959	7959	7959	7959	7779	7779	7779	7779	7779	7608	7959	7608	7444	7608	7608	7608	7779	7779	7608	7779	7779	7779	7779	7779	7608	7608	7444	7444	7287	7287	7287	0	0	0	0	0	0	0	0	0	0	0	0	0	0	0	0	0	0	0	0	0	0	0	0	0	0	0	0	0	0	0	0	0
0	0	0	0	0	0	0	0	0	0	0	689	689	698	698	700	700	701	705	704	705	708	711	713	714	722	722	723	723	726	731	732	734	736	736	740	742	745	747	755	756	758	760	765	767	768	770	772	773	775	775	780	786	788	791	795	797	800	806	810	814	815	819	821	823	827	831	833	833	837	845	848	848	850	854	854	860	860	875	878	878	878	882	884	891	894	896	905	908	915	917	917	922	925	935	940	942	945	948	950	955	958	963	966	972	977	988	991	988	994	1000	1003	1008	1017	1020	1020	1026	1045	1052	1055	1058	1058	1061	1064	1064	1071	1081	1088	1098	1102	1105	1109	1113	1113	1116	1116	1123	1123	1131	1131	0	0	1681	1690	1673	1673	0	0	0	0	0	0	0	0	0	0	1618	1618	1626	1657	1649	1673	1665	1673	1665	1665	1665	1673	1673	1673	1665	1673	1665	1665	1665	1665	1665	1673	1673	1673	1673	1673	1665	1673	1665	1665	1665	1665	1665	1665	1665	1673	1673	1673	1673	1665	1673	1681	1681	1681	1690	1690	1698	1690	1690	0	8767	8767	8767	8767	8767	0	0	0	0	0	0	0	0	0	8767	8550	8343	8550	8550	8550	8343	8343	8343	8343	8343	8343	8343	8343	8146	8343	8343	8146	8343	8343	8343	8343	8343	8343	8343	8146	8343	8343	8146	8146	8146	8146	8146	8146	8146	8146	8146	8343	8343	8146	8146	8343	8343	8146	8146	8343	8343	8343	8343	8343	8343	8343	8343	8343	8343	8343	3738	3698	3698	3659	3621	3583	3583	3546	3546	3546	3546	3546	3546	3546	3546	3546	3546	3546	3546	3546	3546	3510	3546	3510	3510	3510	3475	3475	3475	3475	3475	3475	3440	3440	3440	3440	3440	3440	3440	3475	3475	3475	3475	3475	3475	3475	3475	3475	3475	3475	3475	3475	3475	3510	3510	3510	3510	3510	3475	3475	3475	3475	3475	3510	3510	3510	3546	3546	3546	3546	3583	3583	3583	3583	3583	3583	3583	3621	3583	3621	3621	3621	3621	3621	3621	3621	3621	8146	7959	7959	7959	8146	8146	8146	8146	8343	8343	8343	8343	8343	8343	8343	8343	8343	8343	8343	8343	8343	8146	8343	8146	8146	8146	8146	8146	8146	8146	8146	8146	8146	8146	8146	8146	8146	7959	8146	7959	7959	8146	8146	8146	8146	8146	8146	8146	7959	7959	7959	7959	7959	7959	7959	7959	7959	7959	7959	7959	7959	7959	7779	7779	7779	7779	7779	7779	7779	7779	7779	7779	7959	7779	7959	7779	7779	7779	7779	7779	7959	7959	7959	7959	7779	7779	7959	7959	7959	7959	7959	7959	7959	7959	7779	7959	7959	7959	7959	8146	8146	8146	8146	8146	7959	7959	7959	7959	7959	7959	7959	7959	7959	7959	8146	8146	8146	8146	8146	8146	8146	8146	8146	8146	8146	8146	8146	7959	7959	7959	8146	8146	8146	8146	8146	8146	8146	8146	8146	8146	8146	8146	8146	8146	8146	8146	8146	8146	7959	7959	7959	7959	7959	7959	7959	7959	7959	8146	7959	7959	8146	8343	8343	8343	8343	8146	8146	8146	8146	8146	8146	8146	8146	8146	8146	8146	8146	8146	8146	8146	8146	8146	8146	8146	8146	7959	8146	7959	7959	7959	7959	7959	7959	7959	7959	7959	7959	7959	7959	7959	7959	7959	7959	7959	7959	7959	7959	7959	7959	7959	7959	7959	7959	7959	7959	7959	7959	7779	7608	7608	7779	7608	7444	7444	7444	7444	7608	7608	7608	7608	7779	7608	7779	7779	7779	7779	7608	7608	7608	7444	7444	7287	7287	7287	0	0	0	0	0	0	0	0	0	0	0	0	0	0	0	0	0	0	0	0	0	0	0	0	0	0	0	0	0	0	0	0	0
0	0	0	0	0	0	0	0	0	0	0	0	0	697	700	700	700	701	704	704	707	710	711	713	714	722	722	723	726	728	731	732	734	736	736	739	742	740	745	753	756	760	761	767	767	768	770	772	773	775	777	780	784	788	789	793	793	795	804	804	815	815	817	819	823	825	827	827	835	835	843	848	848	850	852	854	854	854	875	878	878	878	884	887	891	896	901	903	905	910	913	915	920	930	937	940	942	948	948	950	953	955	963	966	966	977	985	985	988	991	997	1006	1011	1020	1023	1026	1026	1042	1052	1058	1058	1058	1061	1064	1064	1068	1078	1078	1102	1105	1105	1109	1113	1113	1113	1116	1123	1123	1123	1131	0	0	1706	1690	1681	1681	1681	0	0	0	0	0	0	0	0	0	0	0	0	1665	1657	1673	1673	1673	1673	1681	1681	1681	1681	1681	1673	1673	1673	1673	1673	1681	1673	1690	1690	1681	1681	1681	1681	1681	1681	1673	1673	1681	1681	1673	1673	1681	1681	1681	1681	1673	1681	1673	1690	1690	1698	1698	1698	1690	1690	0	0	0	0	0	0	0	0	0	0	0	0	0	0	0	0	8550	8550	8550	8550	8550	8343	8343	8343	8343	8343	8343	8343	8343	8146	8343	8146	8146	8146	8146	8343	8343	8343	8343	8343	8146	8343	8343	8146	8146	8146	8146	8146	8146	8146	8146	8146	8343	8146	8146	8146	8146	8146	8146	8146	8343	8343	8343	8343	8343	8343	8343	8343	8550	8550	8343	3738	3698	3698	3621	3583	3583	3583	3546	3546	3546	3546	3546	3546	3546	3546	3546	3546	3546	3546	3546	3546	3546	3546	3510	3510	3510	3475	3475	3475	3475	3475	3440	3440	3440	3440	3440	3440	3440	3440	3475	3475	3475	3475	3475	3475	3475	3475	3475	3475	3475	3475	3475	3475	3475	3475	3475	3475	3475	3475	3475	3475	3475	3475	3510	3510	3510	3510	3546	3546	3583	3583	3583	3583	3583	3583	3583	3583	3583	3583	3621	3621	3621	3621	3621	3621	3621	3621	0	7959	7959	7959	8146	8146	8146	8343	8343	8343	8343	8343	8343	8343	8343	8343	8343	8343	8343	8146	8146	8146	8146	8146	8146	8146	8146	8146	8146	8146	8146	8146	8146	7959	7959	7959	7959	7959	8146	7959	7959	8146	8146	8146	8146	8146	8146	8146	7959	7959	7959	7959	7959	7959	7959	8146	7959	7959	7959	7959	7959	7959	7959	7959	7779	7779	7779	7779	7779	7779	7779	7779	7779	7779	7959	7779	7959	7779	7959	7959	7959	7959	7959	7779	7779	7779	7959	7779	7779	7779	7779	7959	7959	7959	7959	7959	7779	7959	7959	7959	8146	8146	8146	8146	7959	7959	7959	7959	7959	7779	7779	7959	7959	7959	7959	7959	7959	7959	8146	8146	8146	7959	7959	7959	8146	8146	8146	7959	7959	7959	8146	8146	8146	8146	8146	8146	7959	8146	8146	8146	8146	8146	8146	8146	8146	8146	8146	8146	7959	7959	7959	7959	7959	7959	7959	8146	8146	8146	8146	8343	8146	8146	8146	8343	8343	8146	8146	8146	8146	8146	8146	8146	8146	8146	7959	7959	7959	8146	8146	8146	8146	8146	8146	8146	8146	8146	8146	8146	7959	7959	7959	7959	7959	7959	7959	7779	7959	7959	7959	7959	7959	7959	8146	8146	7959	7959	7959	7959	7959	7959	7959	7959	7959	7959	7959	7959	7959	7779	7608	7608	7779	7608	7608	7608	7608	7608	7608	7608	7779	7779	7779	7779	7959	7959	7959	7779	7779	7779	7608	7444	7444	7287	7287	7287	0	0	0	0	0	0	0	0	0	0	0	0	0	0	0	0	0	0	0	0	0	0	0	0	0	0	0	0	0	0	0	0	0
0	0	0	0	0	0	0	0	0	0	0	0	0	698	700	700	700	701	703	703	705	710	711	714	716	722	722	723	726	728	731	731	732	734	736	739	740	742	743	752	756	760	761	767	767	768	768	770	773	775	777	782	786	788	789	791	793	797	797	819	815	815	817	819	823	825	829	831	833	833	841	848	848	852	854	856	858	858	878	878	878	880	887	889	891	894	901	903	905	910	915	915	922	927	935	940	942	945	948	948	953	955	961	966	974	980	983	985	988	991	994	1006	1014	1017	1020	1026	1030	1039	1048	1055	1058	1058	1061	1064	1064	1068	1078	1078	1098	1102	1105	1109	1109	1113	1113	1116	1116	1116	1123	0	0	0	1715	1706	1698	1690	1690	0	0	0	0	0	0	0	0	0	0	0	0	1665	1657	1665	1673	1681	1681	1681	1698	1690	1690	1690	1690	1681	1690	1681	1690	1690	1681	1698	1698	1690	1690	1690	1690	1690	1690	1690	1690	1690	1690	1690	1681	1681	1690	1690	1690	1690	1690	1690	1690	1690	1698	1706	1698	1690	1690	0	0	0	0	0	0	0	0	0	0	0	0	0	0	0	0	8550	8550	8550	8550	8550	8550	8343	8343	8343	8343	8343	8343	8343	8343	8343	8343	8146	8343	8343	8343	8343	8343	8343	8343	8146	8343	8343	8146	8146	8146	8146	8146	8146	8146	8146	8146	8146	8146	8146	8146	8146	8146	8146	8146	8146	8146	8146	8343	8343	8343	8343	8550	8550	8550	8550	3738	3698	3659	3621	3583	3583	3583	3546	3546	3546	3546	3546	3546	3546	3546	3546	3546	3546	3546	3546	3546	3546	3546	3510	3510	3510	3475	3475	3475	3475	3475	3440	3440	3440	3440	3440	3440	3440	3440	3475	3475	3475	3475	3475	3475	3475	3475	3475	3475	3475	3475	3475	3475	3475	3475	3475	3475	3475	3475	3475	3475	3475	3510	3510	3510	3510	3546	3546	3546	3546	3583	3583	3583	3583	3583	3583	3583	3621	3621	3621	3621	3621	3621	3621	3621	3621	3621	0	7959	7959	7959	7959	8146	8146	8146	8146	8146	8343	8343	8343	8343	8343	8343	8343	8343	8343	8343	8146	8146	8146	8146	8146	8146	8146	8146	8146	7959	8146	8146	8146	7959	7959	7959	7959	7959	7959	7959	7959	8146	8146	8146	8146	8146	8146	8146	7959	7959	7959	7959	7959	7959	7959	7959	7959	7959	7959	7959	7959	7959	7959	7959	7779	7959	7779	7779	7779	7779	7779	7779	7959	7959	7959	7779	7779	7779	7779	7779	7959	7959	7959	7959	7779	7779	7779	7959	7779	7779	7779	7959	7959	7959	7779	7779	7959	7959	7959	8146	8146	8146	8146	8146	7959	7959	7959	7959	7959	7959	7779	7959	7959	7959	7959	7959	7959	7959	7959	7959	8146	7959	7959	7959	7959	8146	7959	7959	7959	7959	8146	8146	7959	7959	8146	8146	8146	8146	8146	8146	8146	8146	8146	8146	8146	8146	8146	8146	7959	7959	7959	7959	7959	7959	7959	8146	8146	8146	8146	8343	8146	8146	8146	8343	8343	8146	8146	8146	8146	8146	8146	7959	7959	7959	7959	7959	7959	7959	8146	8146	8146	8146	8146	8146	8146	8146	8146	7959	7959	7959	7959	7959	7959	7959	7959	7959	7959	7959	7959	7959	7959	7959	7959	8146	8146	7959	7959	7959	7959	7959	7959	7959	7959	7959	7959	7959	7959	7779	7608	7608	7608	7608	7608	7608	7444	7608	7608	7608	7608	7608	7779	7608	7779	7959	7959	7779	7779	7779	7608	7444	7444	7444	7287	7287	0	0	0	0	0	0	0	0	0	0	0	0	0	0	0	0	0	0	0	0	0	0	0	0	0	0	0	0	0	0	0	0	0
0	0	0	0	0	0	0	0	0	0	0	0	0	698	700	700	700	700	701	704	704	711	713	713	716	722	722	725	726	728	731	731	732	734	736	740	742	742	742	753	756	761	763	767	767	767	768	770	772	775	779	782	788	789	789	793	793	797	797	815	815	815	817	821	823	825	829	829	831	831	837	848	848	848	852	856	858	858	875	878	878	880	884	887	889	896	896	901	905	910	913	913	922	927	935	940	942	945	945	948	950	955	963	966	974	980	983	985	988	994	997	1011	1017	1020	1023	1026	1033	1036	1042	1058	1058	1061	1061	1068	1068	1071	1078	1078	1098	1102	1105	1109	1113	1113	1113	1113	1113	1116	0	0	0	1732	1723	1706	1698	1698	1698	1706	1706	1706	1706	0	0	0	0	0	0	0	0	0	1657	1665	1681	1681	1690	1698	1706	1706	1706	1698	1698	1698	1706	1706	1690	1698	1698	1706	1706	1698	1706	1706	1698	1698	1698	1698	1698	1715	1715	1715	1706	1715	1706	1698	1698	1698	1698	1698	1706	1706	1715	1715	1706	1698	1698	0	0	0	0	0	0	0	0	0	0	0	0	0	0	0	0	0	8550	8550	8550	8550	8550	8343	8343	8343	8343	8343	8343	8343	8343	8343	8343	8146	8343	8343	8343	8343	8343	8343	8343	8343	8343	8343	8343	8343	8343	8343	8146	8146	8146	8146	8146	8146	8146	8146	8146	8146	8146	8146	8146	8146	8146	8146	8146	8343	8343	8343	8343	8550	8550	8550	3738	3698	3621	3583	3583	3583	3583	3546	3546	3546	3546	3546	3546	3546	3546	3546	3546	3546	3546	3546	3546	3546	3546	3510	3510	3510	3475	3440	3440	3440	3440	3440	3440	3440	3440	3440	3440	3440	3440	3440	3475	3475	3475	3475	3475	3475	3475	3475	3475	3475	3475	3475	3475	3475	3475	3475	3475	3475	3475	3475	3475	3475	3475	3510	3510	3546	3546	3546	3546	3583	3583	3583	3583	3583	3583	3583	3583	3583	3621	3621	3621	3621	3621	3621	3621	3621	3621	0	7959	7959	7959	7959	7959	8146	8146	8343	8343	8343	8343	8343	8343	8343	8146	8146	8146	8343	8146	8146	8146	8146	8146	8146	8146	7959	7959	8146	7959	8146	8146	8146	7959	7959	8146	8146	7959	8146	7959	7959	7959	8146	8146	8146	8146	8146	8146	7959	7959	7959	7959	7959	7959	7959	7959	7959	7959	7959	7959	7959	7959	7959	7959	7959	7959	7959	7959	7779	7779	7779	7959	7959	7959	7959	7959	7779	7779	7959	7779	7959	7959	7959	7959	7779	7779	7959	7959	7779	7779	7779	7779	7779	7779	7779	7779	7779	7959	7959	8146	8146	8146	7959	7959	7959	7959	7959	7959	7959	7959	7959	7959	7779	7959	7959	7959	8146	7959	8146	8146	8146	8146	8146	7959	8146	8146	8146	8146	7959	8146	8146	8146	8146	8146	8146	7959	7959	8146	8146	8146	8146	8146	8146	8146	8146	8146	8146	7959	7959	7959	7959	7959	7959	7959	8146	8146	8146	8146	8146	8146	8146	8146	8146	8146	8146	8146	8146	8146	8146	8146	7959	7959	7959	8146	7959	8146	7959	7959	8146	8146	8146	8146	8146	8146	8146	8146	8146	7959	7959	7959	7959	7959	7959	7959	7959	7959	7959	7959	7959	7959	8146	7959	7959	8146	8146	8146	7959	7959	7959	7959	7959	7959	7959	7959	7959	7779	7959	7779	7608	7608	7779	7779	7608	7959	7608	7608	7608	7959	7608	7608	7608	7608	7779	7779	7959	7779	7959	7959	7608	7444	7444	7444	7287	7287	0	0	0	0	0	0	0	0	0	0	0	0	0	0	0	0	0	0	0	0	0	0	0	0	0	0	0	0	0	0	0	0	0
0	0	0	0	0	0	0	0	0	0	0	0	698	698	700	700	700	700	701	701	703	710	711	713	716	719	719	720	725	728	732	734	736	737	737	740	742	742	740	752	758	761	763	767	767	767	768	768	770	770	770	793	789	789	791	791	793	793	793	817	817	817	817	817	819	823	823	829	831	835	835	848	848	850	854	858	862	865	875	875	875	878	880	884	889	896	901	901	903	908	908	913	922	930	935	940	942	945	945	945	950	958	963	969	974	980	980	985	988	994	1006	1011	1017	1017	1023	1026	1033	1039	1042	1058	1058	1061	1061	1068	1071	1071	1074	1074	1095	1102	1105	1109	1113	1113	1113	1113	1113	0	0	0	0	1750	1750	1723	1715	1715	1715	1715	1715	1715	1715	0	0	0	0	0	0	0	0	0	0	0	1690	1690	1706	1715	1723	1706	1706	1698	1706	1706	1715	1706	1706	1706	1715	1715	1715	1715	1706	1715	1715	1715	1715	1715	1723	1723	1723	1723	1723	1723	1715	1715	1715	1715	1706	1706	1715	1715	1723	1715	1715	1715	1715	0	0	0	0	0	0	0	0	0	0	0	0	0	0	0	0	0	0	0	8550	8550	8550	8343	8343	8343	8343	8343	8343	8343	8343	8343	8343	8343	8343	8343	8343	8343	8343	8343	8343	8146	8146	8343	8343	8343	8343	8146	8146	8146	8146	8146	8146	8146	8146	8146	8343	8343	8146	8146	8146	8146	8146	8146	8146	8343	8343	8343	8343	8343	8343	8550	0	0	3621	3583	3583	3583	3546	3546	3546	3546	3546	3546	3546	3546	3546	3546	3546	3546	3546	3546	3546	3546	3546	3510	3510	3475	3475	3440	3440	3440	3440	3440	3440	3440	3440	3440	3440	3440	3440	3475	3475	3475	3475	3475	3475	3475	3475	3475	3475	3475	3475	3475	3475	3475	3475	3475	3475	3475	3475	3475	3475	3510	3510	3475	3510	3510	3546	3546	3546	3583	3583	3583	3583	3583	3583	3583	3583	3583	3621	3621	3621	3621	3621	3583	3583	3583	3583	3583	7959	7959	7959	7959	8146	8146	8146	8343	8343	8343	8343	8343	8343	8343	8343	8146	8146	8146	8146	8146	8146	8146	8146	8146	7959	7959	7959	7959	8146	8146	7959	8146	7959	8146	8146	8146	7959	8146	7959	7959	7959	8146	8146	8146	8146	7959	7959	7959	7959	7959	7959	7959	7959	7959	7959	7959	7959	7959	7959	7959	7959	7959	7959	7959	7959	7959	7959	7779	7779	7779	7779	7959	7959	7779	7779	7779	7779	7779	7779	7779	7959	7959	7959	7779	7779	7959	7779	7779	7779	7779	7779	7779	7779	7779	7779	7779	7779	7779	7959	7959	8146	7959	7959	7959	7959	7959	7959	7959	7959	7959	7959	7959	7959	7959	7959	7959	7959	8146	8146	8146	7959	8146	8146	8146	8146	8146	8146	8146	8146	8146	8146	8146	8146	8146	7959	8146	8146	8146	8146	8146	8146	8146	8146	8146	8146	8146	7959	7959	7959	7959	7959	7959	8146	8146	8146	8146	8146	8146	8146	8146	8146	8146	8146	8146	8146	8146	7959	7959	8146	8146	8146	8146	8146	8146	8146	8146	7959	8146	8146	8146	8146	8146	8146	8146	8146	8146	8146	7959	7959	8146	7959	7959	7959	7959	7959	7959	7959	7959	7959	7959	7959	7959	8146	8146	8146	8146	8146	8146	8146	7959	7959	7959	7959	7959	7959	7959	7779	7779	7608	7779	7608	7959	7959	7959	7959	7959	7959	7779	7608	7608	7608	7779	7608	7779	7779	7779	7959	7608	7608	7444	7444	7444	7444	0	0	0	0	0	0	0	0	0	0	0	0	0	0	0	0	0	0	0	0	0	0	0	0	0	0	0	0	0	0	0	0	0
0	0	0	0	0	0	0	0	0	0	0	0	700	700	701	701	700	700	701	701	703	710	711	713	716	719	719	720	726	726	734	734	736	737	739	740	742	743	748	752	755	761	763	767	767	767	768	768	768	768	768	793	793	791	793	793	795	797	797	817	819	819	817	817	819	823	823	829	833	833	837	841	843	845	845	860	862	862	873	873	875	878	880	884	889	898	901	903	905	908	908	920	927	930	935	940	942	945	945	945	948	953	963	969	974	980	983	985	988	1006	1008	1011	1014	1020	1023	1026	1036	1039	1042	1052	1058	1061	1061	1068	1071	1071	1074	1074	1098	1105	1109	1109	1113	1113	1113	1113	1113	0	0	0	0	1750	1750	1750	1723	1723	1723	1723	1715	1715	1723	1723	0	0	0	0	0	0	0	0	0	0	1706	1706	1715	1723	1723	1723	1706	1706	1706	1715	1715	1715	1715	1723	1732	1732	1732	1732	1732	1732	1732	1723	1723	1723	1732	1732	1732	1732	1723	1723	1715	1715	1715	1715	1715	1715	1723	1723	1732	1723	1723	1723	1732	1732	0	0	0	0	0	0	0	0	0	0	0	0	0	0	0	0	0	0	0	8550	8550	8343	8343	8343	8343	8343	8343	8343	8343	8343	8343	8343	8343	8343	8343	8343	8343	8343	8343	8146	8146	8146	8343	8343	8343	8343	8343	8146	8146	8146	8146	8146	8343	8343	8343	8343	8146	8146	8146	8146	8146	8146	8146	8343	8343	8146	8343	8343	8343	0	0	0	0	3583	3583	3583	3583	3546	3546	3546	3546	3546	3546	3546	3546	3546	3546	3546	3546	3546	3546	3546	3510	3510	3510	3475	3475	3440	3440	3440	3440	3440	3440	3440	3440	3440	3440	3440	3440	3475	3475	3475	3475	3475	3475	3475	3475	3475	3475	3475	3475	3475	3475	3475	3475	3475	3475	3475	3475	3475	3475	3475	3510	3510	3510	3546	3546	3546	3583	3583	3583	3583	3583	3583	3583	3583	3583	3583	3621	3583	3583	3583	3621	3621	3621	3621	3583	3583	0	7959	7959	7959	8146	8146	8146	8146	8343	8343	8343	8343	8146	8146	8343	8343	8146	8343	8146	8146	8146	8146	8146	7959	7959	7959	7959	8146	8146	7959	7959	7959	7959	7959	7959	8146	7959	8146	7959	7959	7959	7959	7959	7959	7959	7959	7959	7959	7959	7959	7959	7959	7959	7959	7959	7959	7959	7959	7959	7959	7959	7959	7959	7959	7959	7779	7779	7959	7779	7959	7959	7959	7959	7779	7779	7779	7779	7779	7779	7959	7959	7959	7779	7779	7779	7779	7779	7779	7779	7779	7779	7779	7779	7779	7779	7779	7779	7779	7959	7959	8146	7959	8146	8146	7959	7959	7959	7959	7959	7959	7959	7959	7959	8146	7959	7959	8146	8146	8146	8146	7959	8146	8146	8146	8146	8146	8146	8146	8146	8146	8146	8146	8146	7959	7959	7959	8146	8146	8146	8146	8146	8146	8146	8146	8146	8146	8146	7959	7959	7959	8146	8146	8146	8146	8146	8146	8146	8146	8146	8146	8146	8146	8146	8146	8146	8146	8146	8146	8146	8146	8146	7959	8146	8146	8146	8146	8146	8146	8146	8146	8146	8146	8146	8146	8146	8146	8146	7959	7959	7959	7959	7959	7959	7959	7959	7959	7959	7959	7959	8146	7959	8146	8146	8146	8146	8146	8146	7959	7959	7959	7959	7959	7959	7959	7779	7959	7779	7779	7959	7779	7959	7959	7959	8146	7959	7959	7779	7779	7608	7608	7608	7444	7444	7608	7608	7608	7608	7608	7444	7608	7444	7444	7444	0	0	0	0	0	0	0	0	0	0	0	0	0	0	0	0	0	0	0	0	0	0	0	0	0	0	0	0	0	0	0	0	0
0	0	0	0	0	0	0	0	0	0	0	0	700	697	701	701	700	700	700	701	701	710	711	713	716	719	719	719	726	726	734	734	736	737	739	740	742	742	742	752	753	758	761	761	765	765	767	767	768	768	768	791	791	791	789	791	793	793	793	817	817	817	817	817	819	821	821	831	833	835	837	843	845	850	858	860	860	865	873	873	875	875	880	884	891	898	901	901	903	908	908	925	930	932	935	940	942	945	945	945	948	953	961	977	977	980	980	983	988	1008	1011	1011	1014	1017	1020	1030	1036	1039	1042	1048	1058	1058	1061	1068	1071	1074	1078	1078	1102	1102	1105	1109	1113	1116	1116	1116	1116	0	0	0	0	1750	1759	1750	1741	1732	1732	1732	1723	1723	1723	1750	1750	1750	0	0	0	0	0	0	0	0	1706	1706	1723	1732	1732	1732	1723	1732	1732	1732	1732	1732	1732	1732	1741	1741	1741	1741	1741	1741	1741	1750	1750	1750	1750	1750	1741	1741	1723	1723	1723	1723	1723	1723	1723	1723	1723	1723	1732	1732	1732	1732	1741	1741	1741	0	0	0	0	0	0	0	0	0	0	0	0	0	0	0	0	0	0	8550	8550	8343	8343	8343	8343	8343	8343	8343	8343	8343	8343	8343	8343	8343	8343	8343	8343	8343	8343	8146	8146	8343	8343	8343	8343	8343	8343	8343	8343	8343	8343	8343	8343	8343	8343	8343	8343	8343	8343	8146	8146	8146	8146	8146	8343	8146	8343	8343	8343	0	0	0	3583	3583	3583	3583	3583	3546	3583	3583	3546	3546	3546	3546	3546	3546	3583	3583	3546	3546	3546	3546	3510	3510	3510	3475	3440	3440	3440	3440	3440	3440	3440	3440	3440	3440	3440	3440	3440	3475	3475	3475	3475	3475	3475	3475	3475	3475	3475	3475	3475	3475	3475	3475	3475	3475	3475	3475	3475	3475	3475	3475	3510	3510	3546	3546	3546	3546	3583	3583	3583	3583	3583	3583	3583	3583	3583	3583	3583	3583	3583	3583	3583	3583	3621	3583	3583	3583	0	7959	7959	7959	8146	8343	8146	8343	8343	8343	8343	8343	8343	8343	8343	8343	8146	8146	8146	7959	8146	7959	7959	7959	7959	7959	7959	8146	8146	7959	8146	7959	7959	7959	8146	8146	8146	8146	8146	7959	7959	7959	7959	7959	7959	7959	7959	7959	7959	7959	7959	7959	7959	7959	7959	7959	7959	7959	7959	7959	7959	7959	7959	7959	7959	7959	7959	7959	7959	7959	7959	7959	7959	7959	7779	7779	7779	7779	7959	7959	7959	7959	7779	7779	7779	7779	7959	7779	7779	7779	7779	7779	7779	7779	7779	7779	7779	7779	7959	7959	8146	7959	7959	7959	7959	7959	7959	7959	7959	7959	7959	7959	7959	8146	8146	8146	8146	8146	8146	8146	8146	7959	7959	7959	8146	8146	8146	8146	8146	8146	8146	8146	8146	7959	7959	7959	8146	8146	8146	8146	8146	8146	8146	8146	8146	8146	8146	8146	7959	8146	8146	8146	8146	8146	8146	8146	8146	8146	8146	8146	8146	8146	8146	8146	8146	8146	8146	8146	8146	8146	8146	8146	8146	8146	8146	8146	7959	8146	8146	8146	8146	8146	8146	8146	8146	8146	7959	7959	7959	7959	7959	7959	7959	7959	7959	7959	7959	7959	7959	7959	7959	7959	7959	7959	8146	7959	8146	7959	7959	7959	7959	7959	7959	7959	7779	7959	7959	7959	7959	7779	7959	7959	7959	8146	8146	7959	7959	7779	7779	7608	7608	7608	7444	7608	7444	7608	7444	7608	7444	7608	7444	7444	7444	0	0	0	0	0	0	0	0	0	0	0	0	0	0	0	0	0	0	0	0	0	0	0	0	0	0	0	0	0	0	0	0	0
0	0	0	0	0	0	0	0	0	0	0	0	0	697	701	701	700	701	700	701	703	708	710	711	714	719	719	723	729	731	734	734	736	737	739	740	740	740	740	753	755	758	761	761	765	763	765	767	767	770	770	789	789	789	789	789	795	795	800	817	817	817	817	817	819	821	821	831	835	837	837	845	845	845	856	860	860	865	873	873	875	875	878	882	889	901	901	901	903	908	908	925	930	932	935	937	942	945	945	945	950	955	958	974	977	977	977	980	988	1006	1008	1011	1014	1017	1026	1030	1033	1036	1039	1042	1048	1058	1061	1068	1071	1074	1078	1078	1102	1109	1109	1109	1113	1113	1113	1113	1113	0	0	0	0	1750	1741	1750	1732	1741	1732	1732	1732	1732	1741	1741	1759	1759	1759	1759	0	0	0	0	0	0	0	0	1723	1732	1759	1750	1741	1741	1741	1750	1741	1732	1741	1750	1750	1741	1750	1750	1750	1750	1759	1759	1750	1759	1759	1759	1759	1750	1750	1750	1750	1732	1732	1732	1732	1732	1732	1732	1741	1741	1741	1741	1750	1759	1759	0	0	0	0	0	0	0	0	0	0	0	0	0	0	0	0	0	0	0	8550	8343	8343	8343	8343	8343	8343	8343	8343	8343	8343	8343	8343	8343	8343	8343	8343	8343	8343	8343	8343	8343	8343	8343	8343	8343	8343	8343	8343	8343	8343	8343	8343	8343	8343	8343	8343	8343	8343	8343	8146	8146	8146	8146	8343	8146	8343	8343	0	0	0	3583	3583	3583	3583	3583	3583	3583	3583	3583	3546	3583	3546	3546	3546	3546	3583	3583	3546	3546	3546	3546	3510	3510	3510	3475	3440	3440	3440	3440	3440	3440	3440	3440	3440	3440	3440	3440	3440	3475	3475	3475	3475	3475	3475	3475	3475	3475	3475	3475	3475	3475	3475	3475	3475	3475	3440	3475	3475	3475	3510	3510	3510	3510	3546	3546	3546	3546	3583	3583	3583	3583	3583	3583	3583	3583	3583	3583	3583	3583	3583	3583	3583	3583	3621	3621	3621	3621	0	7959	7959	7959	8146	8343	8146	8343	8343	8343	8343	8343	8343	8343	8343	8343	8146	8343	8146	7959	8146	8146	8146	8146	8146	7959	8146	8146	8146	8146	7959	8146	7959	7959	7959	7959	7959	8146	8146	7959	7959	7959	7959	7959	7959	7959	7959	7959	7959	7959	7959	7959	7959	7959	7959	7959	7959	7959	7959	7959	7959	7959	7959	7959	7959	7959	7959	7959	7959	7959	7959	7959	7959	7959	7959	7959	7959	7779	7779	7779	7959	7959	7959	7959	7779	7779	7959	7779	7779	7779	7779	7779	7779	7779	7779	7779	7779	7779	7959	7959	7959	7959	7959	7959	7959	7959	7959	7959	7959	7959	7959	7959	7959	8146	8146	8146	8146	8146	8146	7959	7959	7959	7959	8146	8146	8146	8146	8146	8146	8146	8146	8146	8146	8146	7959	7959	8146	8146	8146	8146	8146	8146	8146	8146	8146	8146	8146	8146	8146	8146	8146	8146	8146	8146	8146	8146	8146	8146	8146	8146	8146	8146	8146	8146	8146	8146	8146	8146	8146	8146	8146	7959	7959	7959	8146	8146	8146	8146	8146	8146	8146	8146	8146	8146	8146	8146	7959	7959	7959	7959	7959	7959	7959	7959	7959	7959	7959	7959	7959	7959	7959	7959	7959	7959	8146	7959	7959	7959	7959	7959	7959	7959	7959	7779	7779	7959	7779	7779	7959	7779	7959	7959	7959	8146	8146	7959	7959	7779	7779	7779	7608	7608	7608	7608	7444	7608	7444	7444	7608	7608	7444	7444	7444	0	0	0	0	0	0	0	0	0	0	0	0	0	0	0	0	0	0	0	0	0	0	0	0	0	0	0	0	0	0	0	0	0
0	0	0	0	672	672	676	676	676	678	676	676	0	700	701	701	700	701	701	701	704	707	708	710	713	719	720	729	729	731	732	734	736	737	742	742	742	745	745	752	755	756	756	761	763	763	767	767	767	767	780	791	791	791	791	795	797	798	800	804	808	812	814	815	819	823	825	833	835	837	837	843	843	845	856	860	860	867	873	873	875	875	878	880	882	901	903	903	905	908	908	922	927	932	935	940	942	945	945	945	950	955	955	961	974	974	977	985	994	1006	1008	1011	1014	1020	1026	1030	1033	1036	1036	1039	1048	1058	1061	1068	1071	1074	1078	1081	1091	1098	1109	1109	1113	1116	1116	1116	1116	0	0	0	0	1768	1768	1768	1750	1750	1750	1750	1759	1759	1759	1768	1768	1777	1777	1777	1777	1777	0	0	0	0	0	0	0	0	1759	1750	1741	1741	1795	1759	1750	1750	1759	1759	1759	1750	1759	1759	1768	1759	1768	1777	1768	1768	1768	1768	1768	1759	1768	1768	1768	1759	1750	1741	1750	1750	1741	1750	1750	1750	1759	1750	1759	1768	1777	1777	0	0	0	0	0	0	0	0	0	0	0	0	0	0	0	0	0	0	8343	8343	8343	8343	8343	8343	8343	8343	8343	8343	8343	8343	8343	8343	8550	8343	8343	8343	8343	8343	8343	8343	8343	8343	8343	8343	8343	8343	8343	8343	8343	8343	8343	8343	8343	8343	8343	8343	8343	8343	8146	8146	8146	8146	8343	8343	8343	8343	0	0	0	3583	3546	3583	3583	3583	3546	3546	3546	3583	3546	3546	3546	3546	3583	3546	3546	3546	3546	3546	3546	3510	3510	3510	3475	3475	3475	3440	3440	3440	3440	3440	3440	3440	3440	3440	3440	3440	3440	3475	3475	3475	3475	3475	3475	3475	3475	3475	3475	3475	3475	3440	3440	3475	3475	3475	3475	3475	3475	3475	3475	3475	3475	3475	3510	3546	3546	3546	3546	3583	3583	3583	3583	3583	3583	3583	3583	3583	3583	3583	3583	3621	3621	3621	3621	3621	3621	3621	0	7959	7959	7959	8146	8146	8146	8343	8343	8343	8343	8343	8343	8146	8146	8146	8146	8146	8146	7959	8343	8343	8343	8343	7959	7959	8146	8146	8146	7959	7959	8146	7959	8146	8146	8146	8146	8146	8146	7959	7959	7959	7959	7959	7959	7959	7959	7959	7959	7959	7959	7779	7959	7959	7959	7959	7959	7959	7959	7959	7959	7959	7959	7959	7959	7959	7959	7959	7959	7959	8146	7959	7959	7959	7959	7959	7959	7959	7779	7779	7779	7779	7779	7779	7779	7779	7779	7779	7779	7779	7779	7959	7779	7959	7959	7959	7779	7779	7959	7959	7959	7959	7959	7959	7959	7959	7959	7959	8146	7959	8146	7959	8146	8146	8146	8146	8146	8146	8146	8146	8146	7959	8146	8146	8146	8146	8146	8146	8146	8146	8146	8146	7959	8146	8146	8146	8146	8146	8146	8146	8146	8146	8146	8146	7959	8146	7959	8146	8146	8146	8146	8146	8146	8146	8146	8146	8146	8146	8146	8146	8146	8146	8146	8146	8146	8146	8146	8146	8146	8146	8146	7959	8146	8146	8146	8146	8146	8146	8146	8146	8146	8146	8146	8146	8146	7959	7959	7959	7959	7959	7959	8146	8146	8146	8146	8146	8146	7959	7959	7959	7959	7959	7959	7959	8146	7959	7959	7959	7959	7959	7959	7959	7779	7959	7779	7959	7779	7779	7959	7779	7959	7959	7959	8146	8146	8146	7959	7779	7779	7779	7608	7608	7444	7608	7608	7608	7608	7608	7608	7608	7444	7608	7608	0	0	0	0	0	0	0	0	0	0	0	0	0	0	0	0	0	0	0	0	0	0	0	0	0	0	0	0	0	0	0	0	0
0	0	672	672	672	671	678	678	678	679	678	678	678	700	700	701	700	701	701	703	704	705	708	710	713	717	719	726	728	728	728	734	736	737	740	740	743	745	745	753	753	755	758	760	763	767	768	768	768	779	780	784	786	788	789	795	798	798	802	804	806	810	812	815	819	825	823	831	835	837	839	843	843	845	854	860	862	869	873	873	875	875	878	880	880	903	903	903	905	908	908	917	927	932	935	940	942	948	945	948	953	955	955	958	972	974	977	980	997	1006	1008	1011	1014	1017	1030	1030	1033	1036	1036	1039	1045	1061	1064	1064	1071	1074	1074	1078	1091	1102	1109	1109	1113	1113	1113	1116	1116	0	0	0	1750	1750	1759	1777	1759	1750	1759	1768	1768	1777	1777	1777	1786	1786	1786	1786	1786	1786	0	0	0	0	0	0	0	0	0	0	0	0	1795	1795	1768	1759	1768	1768	1768	1768	1768	1777	1777	1777	1786	1786	1777	1777	1777	1777	1777	1777	1777	1777	1777	1777	1759	1759	1777	1768	1759	1777	1768	1777	1777	1768	1786	1777	1786	1786	0	0	0	0	0	0	0	0	0	0	0	0	0	0	0	0	0	0	8343	8343	8343	8343	8343	8343	8343	8343	8343	8343	8343	8343	8343	8550	8550	8550	8343	8343	8343	8343	8343	8343	8343	8343	8343	8343	8343	8343	8343	8343	8343	8343	8343	8343	8343	8343	8343	8343	8343	8343	8343	8146	8146	8146	8146	8146	8146	8146	0	0	3583	3583	3583	3583	3583	3583	3583	3546	3546	3583	3546	3546	3583	3583	3583	3583	3546	3546	3546	3546	3546	3510	3510	3475	3475	3475	3440	3440	3440	3440	3440	3440	3440	3440	3440	3440	3440	3440	3440	3475	3475	3475	3475	3475	3440	3475	3475	3475	3475	3475	3475	3475	3440	3475	3475	3475	3475	3475	3475	3475	3510	3475	3475	3475	3475	3475	3546	3546	3583	3583	3583	3583	3583	3583	3583	3583	3583	3546	3583	3583	3583	3621	3621	3621	3621	3621	3621	3621	0	7959	7959	7959	8146	8343	8343	8343	8550	8343	8343	8343	8343	8146	8343	8146	8146	8343	8343	8343	8343	8343	8550	8343	8146	7959	8343	8146	8146	8146	8146	8343	8146	8146	8146	8146	8146	8146	8146	7959	7959	7959	7959	7959	7959	7959	7959	7959	7959	7959	7959	7959	7959	7959	7959	7959	7959	7959	7959	7959	7959	7959	7959	7959	7959	7959	7959	7959	7959	7959	7959	7959	7959	7779	7779	7779	7959	7779	7779	7779	7779	7779	7779	7779	7779	7779	7779	7779	7779	7779	7779	7779	7779	7779	7779	7779	7779	7779	7959	7959	7959	7959	8146	7959	8146	7959	7959	7959	8146	8146	8146	8146	8146	8146	8146	8146	8146	8146	8146	8146	8146	8146	8146	8146	8146	8146	8146	8146	8146	8146	8146	8146	7959	8146	8146	8146	8146	8146	8146	8146	8146	8146	8146	8146	8146	8146	8146	8146	8146	8146	8146	8146	8146	8146	8146	8146	8146	8146	8146	8146	8146	8146	8146	8146	8146	8146	8146	8146	8146	8146	8146	8146	8146	8146	8146	8146	8146	8146	8146	8146	8146	8146	8146	8146	8146	7959	8146	8146	8146	8146	8146	8146	8146	8146	8146	8146	8146	7959	7959	7959	7959	7959	7959	7959	7959	7959	7959	7779	7779	7779	7779	7959	7779	7779	7779	7959	7959	7779	7959	7779	7959	7959	7959	7959	7959	7959	7959	7608	7959	7779	7608	7608	7444	7444	7444	7608	7608	7608	7608	7608	7608	7444	7444	0	0	0	0	0	0	0	0	0	0	0	0	0	0	0	0	0	0	0	0	0	0	0	0	0	0	0	0	0	0	0	0	0
0	672	672	671	671	670	672	672	676	676	676	676	698	698	700	700	700	701	701	704	705	707	707	711	713	714	717	726	728	728	728	734	736	737	739	740	745	745	747	752	752	753	755	760	760	767	767	770	770	780	780	782	784	784	784	795	800	800	802	804	806	808	812	817	819	825	825	831	837	839	841	843	843	845	850	858	862	869	871	871	873	875	878	878	878	903	903	903	905	908	915	917	927	932	935	942	942	945	945	948	953	955	955	958	974	974	977	988	1000	1006	1008	1011	1011	1014	1026	1030	1033	1036	1036	1039	1045	1061	1068	1068	1071	1074	1074	1081	1091	1095	1109	1109	1113	1113	1113	1113	1116	1116	0	0	1750	1777	1777	1777	1777	1777	1786	1786	1786	1786	1786	1786	1786	1786	1795	1786	1786	1786	0	0	0	0	0	0	0	0	0	0	0	1804	1804	1804	1795	1786	1777	1777	1795	1786	1786	1786	1786	1786	1786	1786	1786	1786	1786	1786	1786	1786	1795	1786	1786	1786	1786	1786	1786	1777	1777	1786	1786	1786	1786	1786	1786	1786	1786	1786	1804	1804	0	0	0	0	0	0	0	0	0	0	0	0	0	0	0	0	0	8343	8343	8343	8343	8343	8343	8343	8343	8343	8343	8343	8343	8343	8343	8343	8343	8343	8343	8343	8343	8343	8343	8343	8343	8343	8343	8343	8343	8343	8343	8343	8343	8343	8343	8343	8343	8343	8343	8343	8343	8343	8146	8146	8146	8146	8146	8146	0	0	3583	3583	3583	3583	3583	3583	3583	3583	3583	3583	3546	3546	3546	3583	3583	3583	3546	3546	3546	3546	3510	3510	3510	3475	3475	3475	3475	3440	3440	3440	3440	3440	3440	3440	3440	3440	3440	3440	3440	3475	3475	3475	3440	3475	3440	3475	3475	3475	3475	3475	3475	3475	3475	3475	3475	3475	3475	3475	3475	3475	3475	3475	3475	3510	3510	3510	3546	3546	3583	3583	3583	3583	3583	3583	3583	3583	3583	3583	3583	3583	3583	3621	3621	3621	3659	3621	3621	3621	0	7959	7959	8146	8146	8343	8343	8343	8343	8343	8343	8146	8146	8146	8146	8146	8146	8146	8146	8146	8343	8343	8550	8343	8343	8343	8343	8146	8146	8146	8146	8343	8146	8146	8146	8146	8146	8146	7959	7959	7959	7959	7959	7959	7959	7959	7959	7959	7959	7959	7959	7959	7959	7959	7959	7959	7959	7959	7959	7959	7959	7959	7959	7779	7779	7779	7779	7959	7779	7779	7959	7959	7959	7959	7959	7959	7959	7959	7779	7779	7779	7779	7779	7779	7779	7959	7959	7779	7779	7959	7779	7779	7779	7779	7779	7779	7779	7779	7959	7959	7959	7959	8146	8146	8146	8146	7959	7959	8146	7959	7959	8146	8146	8146	8146	7959	8146	7959	7959	8146	8146	8146	7959	8146	8146	8146	8146	8146	8146	8146	8146	8146	7959	8146	8146	8146	8146	8146	8146	8146	8146	8146	8146	8146	8146	8146	8146	8146	8146	8146	8146	8146	8146	8146	8146	8146	8146	8146	8146	8146	8146	8146	8146	8146	8146	8146	8146	8146	8146	8146	8146	8146	8146	8146	8146	8146	8146	8146	8146	8146	8146	8146	8146	8146	7959	7959	7959	7959	7959	8146	8146	8146	8146	8146	8146	7959	7959	7959	7959	7959	7959	7959	7959	7959	7959	7959	7959	7779	7779	7959	7779	7959	7779	7779	7779	7959	7959	7959	7959	7959	7959	7959	7959	7959	7959	7959	7608	7608	7608	7608	7444	7444	7444	7444	7608	7608	7444	7608	7608	7608	7444	7444	7444	0	0	0	0	0	0	0	0	0	0	0	0	0	0	0	0	0	0	0	0	0	0	0	0	0	0	0	0	0	0	0	0	0
0	672	671	671	671	670	671	671	671	671	693	693	693	697	697	700	700	703	703	705	707	708	710	711	713	717	719	719	723	725	729	729	734	737	740	740	740	745	747	752	752	753	753	755	760	760	767	767	780	780	780	782	782	782	784	793	800	800	802	804	804	806	808	817	821	827	827	833	839	839	841	843	845	848	850	856	860	867	871	871	873	875	878	882	898	901	903	903	905	908	915	920	925	930	935	940	942	948	945	953	953	955	963	972	974	974	977	988	1000	1008	1011	1011	1011	1014	1023	1026	1033	1036	1039	1042	1045	1061	1064	1068	1071	1074	1074	1085	1085	1098	1098	1109	1109	1113	1113	1116	1116	1116	0	0	0	1777	1786	1786	1786	1786	1795	1795	1795	1795	1795	1795	1795	1795	1804	1795	1795	1804	1804	0	0	0	0	0	0	0	0	0	0	1804	1804	1795	1795	1786	1786	1786	1795	1795	1795	1795	1786	1795	1795	1795	1795	1795	1795	1795	1795	1795	1795	1795	1804	1804	1804	1804	1795	1795	1795	1795	1786	1795	1795	1795	1795	1795	1795	1795	1804	1814	1814	0	0	0	0	0	0	0	0	0	0	0	0	0	0	0	0	0	8343	8146	8343	8343	8343	8343	8343	8550	8343	8343	8343	8343	8343	8343	8343	8343	8343	8343	8343	8343	8343	8343	8343	8343	8343	8343	8343	8343	8343	8343	8343	8343	8343	8343	8343	8343	8343	8343	8343	8146	8146	8146	8146	8146	8146	8146	0	0	3621	3621	3583	3583	3583	3583	3583	3583	3583	3583	3583	3583	3583	3583	3546	3583	3546	3546	3546	3510	3510	3510	3510	3475	3475	3475	3475	3475	3475	3440	3440	3440	3440	3440	3440	3440	3440	3440	3440	3475	3440	3440	3440	3475	3440	3475	3475	3475	3475	3475	3475	3475	3475	3475	3475	3475	3475	3475	3475	3475	3475	3475	3510	3510	3475	3510	3546	3546	3583	3583	3583	3583	3583	3583	3583	3583	3583	3546	3583	3583	3621	3621	3621	3621	3659	3659	3659	3659	0	8343	8146	8146	8343	8343	8343	8343	8343	8343	8343	8146	8146	8146	8146	8146	8146	8146	8146	8146	8343	8343	8343	8343	8343	8343	8343	8343	8146	8146	8146	8146	8146	8146	8146	7959	7959	7959	7959	7959	7959	7959	7959	7959	7959	7959	7959	7959	7959	7959	7959	7959	7959	7959	7959	7959	7779	7779	7959	7959	7959	7959	7779	7779	7779	7779	7779	7779	7779	7779	7959	7959	7959	7959	7779	7959	7959	7779	7779	7779	7959	7959	7959	7959	7959	7959	7959	7779	7779	7959	7779	7779	7779	7959	7779	7779	7779	7779	7959	7959	7959	7959	7959	8146	8146	8146	7959	7959	8146	7959	8146	8146	8146	8146	8146	7959	8146	7959	7959	7959	7959	8146	8146	8146	8146	8146	8146	8146	8146	8146	8146	8146	7959	8146	8146	8146	8146	8146	8146	8146	8146	8146	8146	8146	8146	8146	8146	8146	8146	8146	8146	8146	8146	8146	8146	8146	8146	8146	8146	8146	8146	8146	8146	8146	8146	8146	8146	8146	8146	8146	8146	8146	8146	8146	8146	8146	8146	8146	8146	8146	8146	8146	8146	8146	7959	7959	7959	7959	7959	8146	8146	8146	8146	8146	8146	8146	8146	7959	7959	7959	7959	7959	7959	7959	7959	7959	7959	7779	7779	7959	7959	7959	7959	7959	7959	7959	7959	7779	7779	7959	7959	7779	7779	7959	7959	7959	7959	7608	7959	7959	7444	7444	7444	7608	7608	7779	7608	7608	7608	7608	7444	7444	7444	0	0	0	0	0	0	0	0	0	0	0	0	0	0	0	0	0	0	0	0	0	0	0	0	0	0	0	0	0	0	0	0	0
667	667	671	671	671	670	670	672	672	691	691	693	690	689	697	700	701	703	703	705	707	710	711	713	716	717	719	719	722	723	729	732	732	732	740	740	742	745	747	752	752	752	753	755	755	763	763	763	780	780	782	782	782	782	782	782	800	802	802	804	804	806	808	812	823	827	827	831	835	837	839	843	845	848	850	854	858	867	871	871	873	875	878	878	896	901	901	903	905	908	915	922	922	930	940	942	942	945	945	950	953	955	966	972	974	974	980	994	1006	1006	1011	1011	1011	1014	1023	1026	1033	1036	1036	1036	1045	1058	1058	1064	1064	1078	1078	1095	1098	1102	1105	1109	1109	1109	1113	1109	1109	1116	0	0	0	1843	1814	1814	1824	1824	1814	1814	1824	1804	1804	1804	1804	1804	1814	1804	1814	1814	1814	0	0	0	0	0	0	0	0	0	0	1814	1814	1795	1795	1795	1786	1786	1786	1804	1804	1804	1795	1804	1814	1804	1804	1804	1804	1804	1804	1814	1814	1814	1814	1814	1814	1814	1814	1814	1804	1804	1795	1795	1795	1795	1795	1795	1795	1804	1833	1833	1824	1833	1853	1853	0	0	0	0	0	0	0	0	0	0	0	0	0	8550	8343	8343	8343	8343	8343	8343	8343	8550	8343	8343	8343	8343	8343	8343	8343	8343	8343	8343	8343	8343	8343	8146	8343	8343	8343	8343	8343	8343	8343	8343	8343	8343	8343	8343	8343	8343	8343	8343	8343	8146	8146	8146	8146	8146	8146	8146	8343	8343	3621	3621	3583	3583	3583	3583	3583	3583	3583	3583	3546	3546	3546	3546	3546	3546	3546	3546	3546	3546	3510	3510	3475	3475	3475	3475	3475	3475	3475	3440	3440	3440	3440	3440	3440	3440	3440	3440	3440	3475	3440	3440	3440	3440	3440	3475	3475	3475	3475	3475	3475	3440	3440	3440	3440	3475	3475	3475	3475	3475	3475	3475	3510	3510	3510	3510	3546	3546	3583	3583	3583	3583	3583	3583	3583	3583	3583	3583	3583	3583	3621	3621	3621	3659	3659	3659	8146	7959	8146	8343	8146	8146	8343	8146	8343	8343	8343	8343	8343	8343	8343	8146	8146	8146	8146	8146	8146	8343	8343	8343	8343	8343	8343	8343	8343	8343	8146	8146	8146	8343	8146	8146	8146	7959	7959	7959	7959	7959	7959	7959	7959	7959	7959	7959	7959	7959	7959	7959	7959	7959	7959	7959	7959	7959	7779	7779	7779	7959	7959	7779	7779	7779	7779	7779	7779	7779	7779	7779	7779	7959	7959	7959	7779	7959	7959	7779	7779	7779	7959	7959	7959	7779	7779	7959	7779	7779	7779	7779	7779	7779	7779	7959	7779	7779	7779	7779	7959	7959	7959	7959	7959	7959	7959	8146	7959	8146	8146	7959	8146	8146	8146	8146	8146	7959	8146	7959	7959	7959	7959	7959	8146	8146	8146	8146	8146	8146	8146	8146	8146	8146	8146	8146	8146	8146	8146	8146	8146	8146	8146	8146	8146	8146	8146	8146	8146	8146	8146	8146	8146	8146	8146	8146	8146	8146	8146	8146	8146	8146	8146	8146	8146	8146	8146	8146	8146	8146	8146	8146	8146	8146	7959	7959	8146	7959	7959	7959	7959	7959	8146	7959	7959	7959	7959	8146	8146	7959	7959	7959	7959	8146	8146	8146	8146	8146	8146	7959	7959	7959	8146	7959	7959	7959	7959	7959	7959	7959	7959	7959	7959	7959	7959	7959	7959	7959	7959	7779	7608	7608	7608	7608	7608	7959	7959	7959	7608	7444	7959	7608	7444	7444	7444	7608	7779	7779	7608	7608	7608	7608	7444	7444	7444	0	0	0	0	0	0	0	0	0	0	0	0	0	0	0	0	0	0	0	0	0	0	0	0	0	0	0	0	0	0	0	0	0
670	670	670	671	671	670	671	672	672	672	693	693	691	693	697	698	701	703	703	705	705	710	711	713	716	719	719	720	722	728	729	729	732	734	736	736	742	742	745	750	750	753	755	755	758	758	767	767	780	780	782	782	782	782	784	784	800	802	802	804	804	804	806	812	825	827	829	831	835	837	837	843	845	850	850	854	858	867	869	871	878	875	878	878	891	898	898	903	905	908	910	915	917	927	940	942	942	945	948	953	955	958	966	969	972	974	980	991	1006	1006	1008	1008	1011	1020	1026	1030	1030	1036	1036	1052	1048	1058	1064	1064	1071	1074	1074	1088	1098	1102	1105	1105	1109	1109	1109	1105	1105	0	0	0	0	1843	1843	1833	1833	1833	1824	1824	1824	1814	1814	1814	1814	1814	1814	1814	1824	1824	1863	1863	1863	0	0	0	0	0	0	0	0	1814	1814	1795	1795	1795	1786	1786	1786	1833	1824	1824	1814	1814	1814	1814	1814	1814	1814	1804	1824	1824	1824	1814	1824	1824	1824	1814	1824	1824	1814	1814	1804	1814	1824	1824	1824	1824	1824	1824	1833	1833	1833	1833	1853	1853	1853	0	0	0	0	0	0	0	0	0	0	0	0	8550	8343	8343	8550	8550	8550	8343	8343	8550	8343	8343	8343	8343	8343	8343	8343	8343	8343	8343	8343	8343	8146	8146	8343	8146	8343	8343	8343	8343	8343	8343	8343	8343	8343	8343	8343	8343	8343	8343	8343	8146	8146	8146	8146	8146	8146	8146	8343	8343	8146	7959	3583	3583	3583	3583	3583	3583	3583	3583	3546	3546	3546	3546	3546	3546	3546	3546	3546	3546	3510	3510	3510	3475	3475	3475	3475	3475	3475	3475	3440	3440	3440	3440	3440	3440	3440	3440	3440	3475	3440	3440	3440	3440	3440	3440	3440	3440	3440	3440	3475	3440	3440	3440	3440	3440	3475	3475	3475	3475	3475	3475	3475	3510	3510	3510	3546	3546	3583	3583	3583	3583	3583	3583	3583	3583	3583	3583	3583	3583	3621	3621	3621	3621	3659	8146	8146	7959	8146	8146	8146	8146	8343	8146	8343	8343	8343	8343	8343	8146	8146	8146	8146	8146	8146	8146	8146	8343	8343	8343	8343	8343	8343	8343	8343	8146	8146	8146	8146	8343	8146	8146	7959	7959	7959	7959	7959	7959	7959	7959	7959	7959	7959	7959	7959	7959	7959	7959	7959	7959	7959	7959	7959	7959	7779	7959	7959	7959	7959	7779	7779	7779	7779	7779	7779	7779	7779	7779	7779	7959	7959	7959	7779	7959	7959	7959	7779	7779	7959	7959	7959	7779	7779	7779	7779	7779	7779	7779	7779	7779	7959	7959	7779	7779	7779	7779	7959	7959	7959	7959	7959	8146	8146	8146	7959	8146	8146	7959	8146	8146	8146	8146	8146	8146	8146	7959	7959	7959	7959	7959	7959	8146	8146	8146	8146	8146	8146	8146	8146	8146	7959	8146	8146	8146	8146	8146	8146	8146	8146	8146	8146	8146	8146	8146	8146	8146	8146	8146	8146	8146	8146	8146	8146	8146	8146	8146	8146	7959	8146	8146	8146	8146	8146	7959	8146	8146	8146	8146	8146	8146	7959	7959	7959	7959	7959	7959	7959	7959	7959	7959	7959	7959	8146	8146	8146	7959	7959	7959	7959	7959	7959	8146	8146	8146	8146	7959	7959	7959	8146	7959	7959	8146	7959	7959	7959	7959	7959	7959	7959	7959	7959	7959	7959	7959	7779	7608	7608	7779	7608	7608	7608	7608	7959	7608	7444	7444	7444	7444	7444	7444	7444	7608	7779	7779	7608	7608	7608	7608	7444	7608	7608	0	0	0	0	0	0	0	0	0	0	0	0	0	0	0	0	0	0	0	0	0	0	0	0	0	0	0	0	0	0	0	0	0
670	671	671	671	671	671	675	674	674	674	693	694	694	694	697	698	701	703	704	705	707	710	710	713	717	719	719	719	720	726	729	731	731	734	736	736	740	742	745	750	750	752	755	756	758	758	767	768	768	780	782	782	782	782	782	784	800	802	804	804	804	806	808	814	825	827	827	831	833	835	837	843	845	848	852	856	860	865	869	875	873	875	878	880	887	896	898	903	905	908	908	915	915	925	945	942	942	945	945	950	955	958	963	969	974	977	980	988	988	1003	1008	1008	1011	1017	1023	1030	1033	1036	1039	1052	1052	1058	1064	1064	1071	1074	1074	1078	1095	1095	1102	1105	1105	1105	1109	1105	1105	1105	0	0	0	1843	1833	1833	1843	1833	1833	1824	1824	1824	1814	1814	1824	1824	1824	1824	1824	1833	1873	1873	1863	1863	0	0	0	0	0	0	0	0	0	0	0	0	0	0	0	1833	1833	1833	1833	1833	1824	1824	1824	1824	1824	1824	1824	1833	1824	1824	1824	1824	1824	1824	1824	1833	1824	1824	1833	1824	1824	1824	1824	1833	1833	1833	1833	1833	1833	1833	1853	1853	1853	0	0	0	0	0	0	0	0	0	0	0	0	8550	8343	8146	8146	8343	8343	8343	8343	8343	8343	8343	8343	8343	8343	8343	8343	8343	8343	8343	8343	8343	8343	8146	8343	8343	8343	8343	8343	8343	8343	8343	8343	8343	8343	8343	8343	8343	8343	8343	8343	8146	8146	8146	8146	8146	8146	8146	8343	8343	8146	7959	8146	3583	3583	3583	3546	3583	3583	3583	3546	3546	3546	3546	3546	3546	3546	3546	3546	3546	3510	3510	3475	3475	3475	3475	3475	3475	3475	3475	3475	3440	3440	3475	3440	3440	3440	3440	3406	3440	3440	3440	3440	3440	3440	3440	3440	3440	3440	3440	3475	3440	3440	3440	3475	3475	3475	3475	3475	3475	3475	3475	3475	3510	3510	3510	3546	3546	3583	3583	3583	3583	3583	3583	3583	3583	3583	3583	3583	3583	3583	3621	3621	3621	0	8343	8146	8146	8146	8146	8146	8146	8146	8146	8343	8146	8146	8146	8146	8146	8146	8146	8146	8146	7959	7959	8146	8146	8146	8146	8343	8343	8343	8343	8343	8343	8146	8146	8146	8146	7959	7959	7959	7959	7959	7959	7959	7959	7959	7959	7959	7959	7959	7959	7959	7959	7959	7959	7959	7959	7959	7959	7959	7959	7959	7959	7959	7959	7959	7779	7959	7779	7779	7779	7779	7779	7779	7959	7779	7959	7959	7959	7959	7959	7779	7779	7779	7779	7959	7959	7959	7779	7779	7779	7779	7779	7779	7779	7779	7779	7959	7959	7959	7779	7779	7779	7779	7959	7959	7959	8146	8146	8146	8146	7959	8146	8146	7959	8146	8146	8146	8146	8146	8146	8146	7959	7959	7959	7959	7959	7959	8146	8146	8146	8146	8146	8146	7959	7959	7959	7959	7959	7959	8146	8146	8146	8146	8146	8146	8146	8146	8146	8146	8146	8146	8146	8146	8146	8146	8146	8146	8146	8146	8146	8146	7959	7959	7959	7959	7959	8146	7959	7959	7959	7959	8146	7959	7959	7959	7959	7959	7959	7959	7959	7959	7959	7959	7959	7959	7959	7959	7959	8146	8146	8146	8146	7959	8146	7959	7959	7959	8146	8146	8146	8146	7959	7959	7959	8146	7959	7959	7959	7959	7959	7959	7959	7959	7959	7959	7959	7959	7959	7959	7959	7779	7779	7608	7779	7608	7608	7608	7608	7779	7608	7444	7444	7444	7444	7444	7608	7444	7608	7779	7608	7608	7608	7608	7608	7608	7608	7608	0	0	0	0	0	0	0	0	0	0	0	0	0	0	0	0	0	0	0	0	0	0	0	0	0	0	0	0	0	0	0	0	0
0	671	670	671	671	670	674	674	674	674	693	693	693	693	697	697	701	701	704	705	707	708	708	714	716	717	719	719	720	726	729	729	732	732	734	736	736	743	745	750	752	752	755	755	758	758	763	767	780	780	782	782	782	782	782	784	800	802	804	804	804	806	808	815	823	825	827	831	833	835	837	841	845	850	852	858	860	862	867	875	878	878	880	884	887	894	898	903	905	908	910	913	915	925	925	940	942	942	945	948	953	953	972	974	977	980	983	991	1000	1003	1006	1008	1008	1017	1020	1030	1036	1039	1042	1045	1048	1061	1068	1071	1074	1078	1078	1081	1095	1098	1102	1102	1105	1105	1109	1105	1105	1105	0	0	0	1853	1843	1843	1843	1833	1833	1833	1824	1833	1824	1824	1824	1824	1833	1833	1833	1843	1853	1863	1863	1863	1863	0	0	0	0	0	0	0	0	0	0	0	0	0	0	1833	1843	1853	1843	1843	1833	1833	1833	1843	1843	1833	1843	1853	1843	1853	1843	1843	1843	1843	1833	1833	1833	1833	1843	1833	1833	1833	1833	1833	1843	1833	1843	1843	1843	1853	1853	1853	1853	0	0	0	0	0	0	0	0	0	0	0	0	8146	8146	8146	8146	8146	8343	8343	8343	8343	8343	8343	8343	8343	8146	8343	8343	8343	8343	8343	8343	8343	8343	8343	8343	8343	8343	8343	8343	8343	8343	8343	8343	8343	8343	8343	8343	8343	8343	8343	8146	8146	8146	8146	7959	8146	8146	8146	8146	8146	8146	8146	8146	3583	3583	3583	3546	3583	3583	3583	3546	3546	3546	3546	3546	3546	3546	3546	3546	3546	3510	3510	3475	3475	3475	3475	3475	3475	3475	3475	3475	3440	3440	3440	3440	3440	3440	3440	3406	3406	3440	3440	3440	3440	3440	3440	3440	3440	3440	3440	3440	3440	3440	3440	3440	3475	3475	3475	3475	3475	3475	3475	3475	3475	3510	3510	3546	3546	3583	3583	3583	3583	3583	3583	3583	3583	3583	3583	3583	3583	3583	3621	3621	3621	0	8343	8146	8146	8146	8146	8146	8146	8146	8146	8146	7959	8146	8146	8146	8146	7959	7959	7959	7959	7959	7959	7959	8146	8146	8146	8146	8146	8343	8343	8146	8146	8146	8146	8146	8146	7959	7959	7959	7959	7959	7959	7959	7959	7959	7959	7959	7959	7959	7959	7959	7959	7959	7959	7959	7959	7959	7959	7959	7959	7959	7959	7959	7959	7959	7959	7959	7959	7779	7779	7779	7959	7779	7779	7779	7779	7959	7959	7959	7959	7779	7959	7779	7779	7959	7959	7959	7779	7779	7779	7779	7779	7779	7779	7779	7779	7779	7779	7779	7779	7779	7779	7959	7959	7959	8146	8146	8146	8146	8146	8146	8146	8146	7959	8146	8146	8146	8146	8146	8146	8146	7959	7959	7959	7959	7959	7959	8146	8146	8146	8146	8146	8146	7959	7959	7959	7959	7959	7959	8146	8146	8146	8146	8146	8146	8146	8146	8146	8146	8146	8146	8146	8146	8146	8146	8146	7959	7959	7959	8146	7959	7959	7959	7959	7959	7959	7959	7959	7959	7959	7959	7959	7959	7959	7959	7959	7959	7959	7959	7959	7959	7959	7959	7959	7959	7959	7959	7959	8146	8146	8146	8146	8146	8146	8146	7959	7959	8146	8146	8146	8146	7959	8146	8146	8146	7959	7959	7959	7959	7959	7959	7959	7959	7959	8146	7959	7959	7959	7959	7959	7779	7608	7608	7779	7608	7608	7608	7779	7779	7779	7779	7444	7444	7444	7444	7444	7444	7608	7779	7779	7608	7608	7608	7608	7608	7608	7608	0	0	0	0	0	0	0	0	0	0	0	0	0	0	0	0	0	0	0	0	0	0	0	0	0	0	0	0	0	0	0	0	0
0	671	670	671	671	671	675	674	674	674	690	691	693	693	695	698	701	701	703	704	705	707	707	714	714	717	719	720	722	726	726	729	732	732	736	736	740	742	742	752	752	753	755	756	758	758	763	767	768	780	782	782	782	782	782	782	797	802	802	804	804	806	810	819	823	827	827	831	833	835	837	841	845	850	854	858	858	860	862	871	873	878	880	887	887	894	896	901	905	908	913	913	920	920	922	942	945	953	950	953	955	972	974	980	977	980	983	991	994	1000	1006	1008	1008	1014	1020	1030	1036	1039	1042	1045	1048	1052	1068	1074	1074	1078	1085	1091	1095	1098	1102	1105	1105	1109	1109	1109	1109	1109	0	0	0	1853	1853	1853	1853	1853	1853	1853	1843	1843	1843	1843	1843	1833	1843	1843	1843	1853	1863	1863	1863	1863	1863	1863	0	0	0	0	0	0	0	0	0	0	0	0	0	1853	1853	1853	1853	1853	1853	1843	1853	1863	1863	1863	1863	1863	1863	1853	1853	1853	1843	1843	1843	1843	1843	1853	1853	1853	1853	1853	1853	1853	1853	1853	1853	1853	1853	1863	1863	1863	1863	0	0	0	0	0	0	0	0	0	0	0	8146	8146	8146	8146	8146	8146	8146	8343	8343	8343	8343	8343	8343	8343	8146	8343	8343	8146	8343	8343	8343	8343	8343	8343	8343	8343	8343	8146	8146	8146	8146	8343	8343	8343	8343	8343	8343	8343	8343	8343	8146	8146	8146	8146	8146	8146	8146	8146	8343	8343	8146	8146	8343	3583	3583	3583	3583	3583	3583	3583	3546	3546	3546	3546	3546	3546	3546	3546	3546	3546	3546	3510	3510	3510	3475	3475	3475	3475	3475	3475	3475	3440	3440	3440	3440	3440	3406	3406	3406	3440	3440	3440	3440	3440	3440	3440	3440	3440	3440	3440	3440	3440	3440	3440	3440	3440	3475	3475	3440	3475	3475	3475	3475	3510	3510	3510	3546	3546	3583	3583	3583	3583	3583	3583	3583	3583	3583	3583	3583	3583	3583	3583	3583	3621	8550	8550	8343	8146	8146	8146	8146	8146	8146	8146	8146	7959	7959	7959	7959	7959	7959	7959	7959	7959	7959	7959	7959	7959	7959	8146	8146	8146	8146	8146	8146	8146	8146	8146	8146	7959	7959	7959	7959	7779	7779	7779	7959	7959	7959	7959	7959	7959	7959	7959	8146	8146	8146	7959	8146	7959	7959	7959	7959	7959	7959	7959	7779	7959	7959	7779	7959	7959	7959	7779	7779	7959	7779	7779	7779	7779	7779	7959	7959	7959	7779	7779	7959	7959	7959	7959	7959	7959	7959	7779	7779	7779	7779	7779	7779	7779	7779	7779	7779	7779	7779	7959	8146	8146	7959	8146	8146	8146	8146	8146	8146	8146	7959	7959	8146	7959	8146	8146	8146	8146	8146	7959	7959	7959	7959	7959	8146	8146	8146	7959	8146	8146	8146	7959	7959	7959	7959	7959	7959	7959	7959	8146	8146	7959	7959	8146	8146	8146	8146	8146	8146	8146	8146	8146	8146	7959	7959	7959	7959	7959	7959	7959	7959	7959	7959	7959	7959	7959	7959	7959	7959	7959	7959	7959	7959	7959	7959	7959	7959	7959	7959	7959	7959	7959	7959	7959	7959	7959	7959	7959	7959	8146	7959	7959	7959	7959	7959	8146	8146	8146	8146	7959	7959	7959	7959	7959	7959	7959	7959	7959	7959	7959	7959	7959	8146	7959	7959	7959	7959	7959	7779	7608	7608	7779	7779	7608	7779	7779	7779	7779	7779	7444	7444	7608	7444	7608	7444	7608	7608	7779	7608	7608	7608	7608	7608	7779	7779	0	0	0	0	0	0	0	0	0	0	0	0	0	0	0	0	0	0	0	0	0	0	0	0	0	0	0	0	0	0	0	0	0
0	0	670	671	671	671	676	676	676	676	689	689	691	691	695	695	695	701	703	703	705	707	707	713	714	717	719	720	720	723	728	731	732	734	736	737	739	740	742	747	750	753	755	756	758	760	763	767	768	779	780	782	782	782	782	784	795	802	804	804	804	806	812	819	823	827	829	831	833	835	835	839	843	848	854	858	858	860	862	862	875	875	884	887	889	889	896	901	908	908	913	917	920	922	922	925	948	953	953	955	955	966	972	977	977	980	983	988	991	997	1006	1008	1008	1017	1020	1030	1036	1039	1042	1045	1045	1048	1068	1074	1078	1078	1088	1095	1095	1098	1102	1105	1105	1109	1109	1109	1113	1113	1113	0	0	1853	1863	1853	1863	1853	1863	1863	1863	1853	1853	1853	1843	1843	1853	1853	1853	1853	1863	1863	1863	1863	1863	1863	0	0	0	0	0	0	0	0	0	0	0	0	0	1863	1863	1863	1863	1873	1863	1863	1863	1863	1863	1863	1863	1863	1863	1853	1853	1853	1853	1853	1853	1853	1843	1853	1863	1863	1863	1863	1863	1873	1873	1863	1863	1863	1863	1873	1873	1873	1863	0	0	0	0	0	0	0	0	0	0	7959	8343	8146	8146	8146	8146	8146	8146	8146	8343	8343	8343	8343	8343	8343	8343	8343	8343	8343	8343	8343	8343	8343	8343	8343	8343	8343	8343	8343	8343	8146	8343	8343	8343	8343	8343	8343	8343	8343	8343	8343	8146	8146	8146	8146	8146	8146	8146	8146	8146	8146	8146	8146	8343	8343	3583	3546	3546	3583	3583	3546	3546	3546	3546	3546	3546	3546	3546	3546	3546	3546	3546	3510	3510	3510	3475	3475	3475	3475	3475	3475	3440	3440	3440	3440	3440	3440	3406	3406	3406	3440	3440	3440	3440	3440	3440	3440	3440	3440	3440	3440	3440	3440	3440	3440	3440	3440	3440	3440	3440	3475	3475	3475	3475	3475	3510	3510	3510	3546	3583	3583	3583	3583	3583	3583	3583	3583	3583	3583	3583	3546	3546	3546	3546	0	8550	8343	8146	8146	8146	8343	8146	8146	8146	8146	8146	7959	7959	7959	7959	7959	7959	7959	7959	8146	7959	7959	7959	7959	7959	7959	7959	8146	8146	8146	8146	8146	8146	8146	8146	8146	7959	7959	7959	7959	7959	7959	7959	7959	7959	7959	7959	7959	7959	8146	8146	8146	8146	8146	8146	7959	7959	7959	7959	7959	7959	7959	7779	7959	7959	7959	7959	7959	7959	7959	7959	7959	7959	7959	7779	7779	7779	7959	7959	7959	7779	7959	7959	7959	7959	7959	7959	7959	7959	7779	7779	7779	7779	7779	7779	7779	7779	7779	7779	7959	7959	7959	8146	8146	8146	8146	8146	8146	8146	8146	8146	8146	8146	7959	8146	7959	7959	8146	8146	8146	8146	7959	7959	7959	8146	7959	8146	7959	7959	8146	8146	7959	7959	7959	7959	7959	7959	7959	7959	7959	7959	8146	8146	7959	7959	8146	8146	7959	8146	8146	8146	8146	8146	7959	7959	7959	7959	7959	7959	7959	7959	7959	7959	7959	7959	7959	7959	7959	7959	7959	7959	7959	7959	7959	7779	7959	7779	7959	7959	7959	7959	7959	7959	7959	8146	7959	7959	7959	7959	7959	7959	7959	7959	7959	7959	7959	7959	8146	8146	8146	8146	7959	8146	8146	8146	7959	7959	7959	7959	7959	7959	7959	8146	8146	8146	7959	7959	7959	7959	7779	7779	7608	7608	7779	7779	7779	7779	7779	7779	7779	7779	7779	7444	7608	7608	7608	7608	7608	7779	7779	7608	7608	7608	7608	7779	7779	7779	0	0	0	0	0	0	0	0	0	0	0	0	0	0	0	0	0	0	0	0	0	0	0	0	0	0	0	0	0	0	0	0	0
0	0	670	671	671	674	676	676	678	678	678	678	691	697	697	695	703	703	703	703	704	705	705	713	713	720	720	720	722	726	728	731	732	734	736	737	739	740	742	742	747	755	756	758	758	760	763	767	768	775	780	780	782	782	782	784	788	802	804	806	806	810	814	819	823	827	829	831	833	835	835	839	843	845	854	854	858	860	862	873	875	880	882	887	887	894	896	903	908	910	913	917	920	922	922	930	942	953	953	955	963	966	966	972	974	977	983	988	994	997	1003	1006	1008	1011	1017	1030	1036	1039	1042	1045	1048	1052	1068	1074	1078	1078	1081	1095	1098	1102	1102	1105	1105	1109	1109	1109	1109	1109	1113	0	0	1863	1863	1863	1863	1853	1863	1863	1863	1863	1863	1863	0	1853	1853	1863	1863	1863	1863	1863	1863	1863	1863	1863	1873	1873	0	1883	1883	0	0	0	0	0	0	0	0	1863	1863	1863	1873	1873	1873	1873	1873	1873	1873	1873	1873	1873	1863	1863	1853	1863	1853	1853	1853	1853	1853	1863	1863	1863	1873	1873	1883	1883	1883	1883	1883	1873	1883	1894	1883	1894	1894	0	0	0	0	0	0	0	0	0	7959	7959	8146	8146	8146	8146	8146	8146	8146	8146	8146	8146	8146	8343	8343	8343	8343	8343	8343	8343	8343	8343	8343	8343	8343	8343	8343	8343	8343	8343	8343	8146	8343	8343	8343	8343	8343	8343	8343	8343	8343	8343	8343	8146	8146	8343	8146	8146	8146	8146	8146	8146	8146	8146	8343	8343	0	3546	3546	3546	3583	3546	3546	3546	3546	3546	3546	3546	3546	3546	3546	3546	3546	3546	3510	3510	3510	3475	3475	3475	3440	3475	3440	3440	3440	3440	3440	3440	3406	3406	3406	3440	3440	3440	3440	3440	3440	3440	3440	3440	3440	3440	3440	3440	3440	3440	3440	3440	3440	3440	3440	3475	3475	3475	3475	3475	3510	3510	3510	3546	3546	3546	3583	3583	3583	3583	3583	3583	3583	3583	3546	3510	3546	3583	3583	0	8550	8343	8343	8343	8146	8343	8146	8146	8146	8146	8146	7959	8146	7959	7959	7959	7959	7959	7959	7959	7959	7959	7959	7959	7959	7959	8146	8146	8146	8146	8146	8146	8146	8146	8146	8146	7959	8146	7959	7959	7959	7959	7959	7959	7959	7959	8146	7959	8146	8146	8146	7959	8146	7959	8146	8146	7959	7959	7959	7959	7959	7959	7959	7959	7959	7959	7959	7959	7959	7959	7959	7959	7959	7959	7779	7779	7779	7959	7959	7779	7779	7779	7959	7779	7959	7959	7959	7779	7779	7779	7779	7779	7779	7779	7779	7779	7779	7779	7779	7779	7779	7959	8146	8146	8146	8146	8343	8343	8146	8343	8146	8146	8146	7959	7959	7959	7959	7959	7959	7959	7959	7959	7959	7959	7959	7959	8146	7959	7959	7959	7959	7959	7959	7959	7959	7959	7959	7959	7959	8146	7959	8146	7959	7959	7959	8146	8146	8146	8146	8146	8146	8146	8146	8146	7959	7959	7959	7959	7959	7959	7959	7959	7959	7959	7959	7959	7959	7959	7959	7959	7959	7779	7779	7779	7779	7779	7779	7959	7959	7959	7959	7959	7959	7959	8146	7959	8146	7959	7959	7959	7959	7959	7959	7959	7959	7959	7959	8146	8146	8146	8146	7959	8146	8146	7959	7959	7959	7959	7959	7959	7959	7959	8146	8146	8146	7959	7959	7959	7959	7779	7779	7779	7779	7779	7779	7779	7779	7959	7779	7779	7779	7779	7779	7608	7608	7779	7608	7779	7779	7608	7608	7608	7608	7608	7444	7608	7608	0	0	0	0	0	0	0	0	0	0	0	0	0	0	0	0	0	0	0	0	0	0	0	0	0	0	0	0	0	0	0	0	0
0	0	671	674	674	674	678	676	679	679	678	678	0	697	697	0	703	703	703	703	704	705	705	713	714	719	722	722	726	728	729	731	732	734	734	736	739	739	739	742	752	755	756	758	760	760	763	767	768	773	780	780	780	782	782	784	786	802	804	806	806	810	817	821	823	825	827	831	831	833	837	839	843	843	852	856	860	860	862	873	875	878	880	884	887	896	901	905	910	910	910	915	920	925	927	935	945	953	953	955	963	966	969	972	977	977	980	985	991	997	1006	1008	1011	1014	1017	1030	1036	1039	1039	1042	1048	1048	1068	1074	1078	1078	1091	1095	1098	1102	1102	1105	1105	1109	1109	1113	1113	1116	1116	1116	0	1863	1863	1863	1863	1853	1863	1863	1863	1863	1863	1863	0	1853	1853	1863	1863	1863	1873	1873	1863	1863	1863	1863	1863	1863	1863	1883	1883	0	0	0	0	0	0	0	0	1863	1863	1863	1873	1873	1873	1873	1873	1873	1873	1873	1873	1873	1873	1873	1863	1863	1863	1863	1863	1853	1853	1863	1863	1863	1873	1873	1873	1883	1883	1894	1894	1883	1894	1894	1894	1904	1915	1904	1904	0	0	0	0	0	0	0	7959	7959	8343	8146	8146	8146	7959	8146	8146	8146	8146	8146	8146	8343	8343	8343	8343	8343	8343	8343	8343	8343	8343	8343	8343	8343	8343	8343	8343	8343	8343	8343	8343	8343	8343	8343	8343	8343	8343	8343	8343	8343	8146	8146	8146	8343	8146	8146	8146	8343	8343	8146	8146	8146	8146	8146	0	3510	3546	3546	3583	3546	3546	3546	3546	3546	3546	3546	3546	3546	3546	3546	3546	3510	3510	3510	3475	3475	3475	3440	3440	3475	3440	3440	3440	3440	3406	3406	3406	3406	3406	3440	3440	3440	3440	3440	3440	3440	3440	3440	3440	3440	3440	3440	3440	3440	3440	3440	3475	3475	3440	3475	3475	3475	3475	3475	3475	3475	3510	3510	3546	3546	3583	3583	3583	3583	3583	3583	3546	3546	3510	3510	3546	3546	3583	0	8343	8343	8343	8343	8146	8146	8146	8146	8146	8146	7959	7959	7959	7959	7959	7959	7959	7959	7959	7959	7959	7959	7959	7959	8146	8146	8146	7959	8146	8146	7959	8146	8146	7959	8146	8146	7959	8146	7959	7959	7959	7959	7959	7959	7959	7959	8146	7959	8146	8146	8146	7959	7959	7959	7959	7959	7959	7959	7959	7959	7959	7959	7959	7959	7959	7959	7959	7959	7959	7959	7959	7959	7959	7959	7959	7779	7779	7959	7959	7779	7779	7779	7959	7779	7959	7959	7959	7959	7959	7779	7779	7779	7779	7779	7779	7779	7779	7779	7779	7779	7779	7959	8146	8146	8146	8146	8343	8343	8146	8146	8146	8146	8146	7959	7959	7959	7959	7959	7959	7959	7959	7959	7959	7959	7959	7959	7959	7959	8146	7959	7959	7959	7959	7959	7959	7959	7959	7959	7959	7959	7959	7959	7959	7959	7959	8146	8146	8146	7959	8146	8146	8146	8146	7959	7959	7959	7959	7959	7959	7959	7959	7959	7959	7959	7959	7959	7959	7959	7959	7959	7959	7779	7779	7779	7779	7779	7779	7959	7959	7959	7959	8146	8146	8146	8146	7959	8146	7959	7959	7959	7959	7959	7959	7959	7959	7959	7959	8146	7959	8146	8146	7959	8146	7959	7959	7959	7959	7959	7959	7959	7959	7959	8146	7959	7959	7959	7959	7959	7959	7779	7779	7779	7779	7779	7779	7779	7779	7779	7779	7779	7779	7444	7444	7608	7608	7608	7444	7608	7608	7608	7608	7608	7608	7608	7444	7608	7608	0	0	0	0	0	0	0	0	0	0	0	0	0	0	0	0	0	0	0	0	0	0	0	0	0	0	0	0	0	0	0	0	0
657	0	671	671	674	674	676	678	679	679	0	0	0	0	0	697	701	703	703	704	704	705	705	710	711	714	722	722	728	728	729	731	732	734	736	736	739	740	740	740	753	755	756	758	760	760	763	767	768	773	780	782	782	782	784	784	791	800	802	802	802	810	817	821	823	827	827	831	833	835	837	839	841	843	852	858	862	862	867	873	875	880	880	884	889	898	901	905	910	910	913	920	925	927	927	932	940	950	950	955	963	966	969	974	977	977	980	980	988	991	1006	1008	1011	1014	1014	1026	1033	1039	1039	1042	1052	1058	1068	1074	1078	1078	1088	1085	1095	1098	1102	1102	1105	1105	1109	1113	1116	1116	1116	1116	0	0	0	1883	1863	1863	1863	1863	0	0	0	0	0	0	0	1863	1863	1863	1873	1863	1873	1873	1873	1873	1873	1873	1873	1883	1883	1873	1873	0	0	0	0	0	0	0	1863	1863	1863	1873	1873	1873	1873	1873	1873	1873	1873	1873	1873	1873	1863	1863	1863	1863	1863	1853	1853	1863	1863	1863	1873	1873	1883	1894	1894	1894	1894	1894	1894	1894	1894	1904	1915	1904	1904	0	0	0	0	0	0	7959	8343	8146	8343	8146	8146	8146	8146	8146	8146	8146	8146	8146	8343	8343	8343	8343	8343	8343	8343	8343	8343	8343	8343	8343	8343	8343	8343	8343	8343	8343	8343	8343	8343	8343	8343	8343	8343	8343	8343	8343	8343	8343	8343	8146	8146	8146	8146	8146	8146	8146	8146	8146	8146	8146	8146	8146	0	3546	3546	3546	3583	3546	3546	3546	3546	3546	3546	3546	3546	3546	3546	3546	3546	3510	3510	3475	3475	3475	3475	3440	3440	3440	3440	3406	3406	3406	3406	3406	3406	3406	3406	3440	3440	3440	3440	3440	3440	3440	3440	3440	3440	3440	3440	3440	3440	3440	3440	3440	3440	3440	3440	3475	3475	3475	3475	3475	3475	3475	3510	3510	3510	3546	3546	3583	3583	3583	3583	3583	3546	3546	3510	3510	3546	3546	0	8343	8343	8343	8343	8343	8343	8343	8146	8146	8146	8146	8146	7959	8146	7959	7959	7959	7959	7959	7959	7959	7959	7959	7959	7959	8146	7959	8146	8146	8146	8146	7959	8343	7959	7959	8146	8146	8146	8146	8146	7959	8146	8146	8146	7959	8146	7959	7959	7959	7959	7959	7959	7959	7959	7959	8146	7959	7959	7959	7959	7959	7959	7959	7959	7959	7959	7959	8146	7959	7959	7959	7959	7959	7959	7959	7959	7779	7779	7959	7959	7779	7779	7779	7779	7959	7959	7959	7959	7959	7779	7779	7779	7779	7779	7779	7779	7779	7779	7779	7779	7959	7959	7959	8146	8146	8146	8146	8146	8146	8146	8146	8146	7959	7959	7959	7959	7959	7959	7959	7959	7959	8146	8146	8146	7959	7959	7959	8146	7959	7959	7959	7959	7959	7959	7959	7959	7959	7959	7959	7959	8146	7959	8146	7959	7959	8146	8146	8146	8146	7959	8146	8146	8146	7959	7959	7959	7959	7959	7959	7779	7959	7959	7959	7959	7959	7959	8146	8146	7959	7959	7959	7959	7959	7779	7779	7779	7779	7779	7959	7959	7959	8146	8146	8146	8146	8146	8146	8146	8146	8146	7959	7959	7959	7959	7959	7959	7959	7959	8146	8146	7959	8146	7959	7779	7959	7959	7959	7959	7959	7959	7959	7959	7959	8146	8146	8146	7959	7959	7959	7959	7779	7779	7779	7779	7779	7779	7779	7779	7779	7779	7779	7608	7608	7608	7779	7608	7608	7608	7608	7608	7608	7608	7608	7779	7608	7608	7779	7779	0	0	0	0	0	0	0	0	0	0	0	0	0	0	0	0	0	0	0	0	0	0	0	0	0	0	0	0	0	0	0	0	0
658	658	671	671	674	674	676	678	678	678	0	0	0	0	0	695	700	703	703	704	704	705	707	711	711	714	719	720	726	728	729	731	732	734	736	737	739	742	742	742	755	755	756	758	760	761	763	768	772	773	775	777	779	780	788	793	797	800	802	802	802	808	815	819	825	829	829	833	833	837	839	841	843	845	852	858	862	865	867	871	875	880	882	887	889	901	903	905	910	913	920	925	927	930	930	935	937	945	950	953	961	963	966	974	977	977	980	983	988	994	1011	1008	1011	1011	1014	1023	1030	1036	1039	1045	1048	1068	1071	1071	1074	1074	1081	1088	1098	1102	1102	1105	1105	1109	1113	1113	1116	1120	1120	1116	1116	0	0	1883	1863	1863	1863	1863	0	0	0	0	0	0	0	0	0	0	0	1873	1873	1873	1873	1873	1863	1873	1863	1873	1883	1863	1863	0	0	0	0	0	0	0	1863	1863	1863	1863	1873	1873	1873	1873	1873	1873	1873	1873	1873	1863	1863	1863	1863	1863	1863	1853	1853	1863	1863	1873	1873	1873	1883	1894	1894	1894	1904	1904	1904	1894	1894	0	4581	4581	4581	0	8343	8343	0	0	8343	8343	8343	8343	8343	8146	8146	8146	7959	8146	8146	8343	8343	8343	8343	8343	8343	8343	8343	8343	8343	8343	8343	8343	8343	8343	8343	8343	8343	8343	8343	8343	8343	8343	8343	8343	8343	8343	8343	8343	8343	8343	8343	8343	8146	8146	8146	8343	8343	8146	8146	8146	8146	8146	8146	8146	8146	8146	0	3546	3546	3546	3546	3546	3546	3546	3546	3546	3546	3546	3546	3546	3546	3546	3546	3510	3475	3475	3475	3475	3475	3440	3440	3440	3440	3406	3406	3406	3406	3406	3406	3406	3406	3440	3440	3440	3440	3440	3440	3440	3440	3440	3440	3440	3440	3440	3440	3440	3440	3440	3440	3440	3440	3440	3475	3475	3475	3475	3475	3475	3475	3510	3510	3546	3546	3546	3583	3583	3583	3583	3546	3546	3510	3510	3546	3546	0	8343	8343	8343	8343	8343	8343	8343	8146	8343	8146	8146	8146	8146	8146	8146	8146	8146	7959	7959	8146	8146	7959	7959	7959	7959	8146	7959	8146	7959	8146	8146	7959	7959	8343	7959	8146	8146	8146	8146	8146	8146	8146	8146	8146	8146	8146	7959	7959	7959	7959	7959	7959	7959	7959	7959	8146	7959	7959	7959	7779	7779	7959	7959	7959	7959	7959	7959	8146	7959	7959	7959	7959	7959	7959	7959	7959	7779	7779	7779	7779	7779	7779	7959	7959	7959	7959	7959	7959	7959	7959	7779	7779	7779	7779	7779	7779	7779	7779	7779	7779	7779	7779	7959	7959	8146	8146	8146	8146	8146	8146	8146	8146	7959	7959	7959	7959	7959	7959	7959	7959	7959	7959	7959	8146	8146	7959	7959	8146	7959	7959	7959	7959	7959	7959	7959	7959	7959	7959	7959	7959	8146	7959	8146	7959	7959	8146	8146	8146	8146	8146	8146	8146	8146	7959	7959	7959	7959	7779	7779	7779	7779	7779	7959	8146	8146	8146	8146	8146	8146	7959	7959	7959	7959	7779	7779	7779	7959	7959	7959	7959	7959	8146	8146	8146	8146	8146	8146	8146	8146	8146	8146	7959	7959	7959	7959	8146	7959	8146	8146	7959	7959	7959	7779	7779	7779	7779	7779	7959	7959	7959	7959	7959	7959	7959	7959	7959	7959	7959	7959	7779	7779	7779	7779	7779	7959	7959	7959	7779	7959	7779	7779	7779	7608	7608	7779	7779	7779	7608	7959	7779	7779	7779	7779	7779	7779	7608	7779	7779	0	0	0	0	0	0	0	0	0	0	0	0	0	0	0	0	0	0	0	0	0	0	0	0	0	0	0	0	0	0	0	0	0
660	665	669	671	671	672	675	676	678	678	0	0	0	0	0	701	703	704	704	705	705	707	708	713	713	716	719	720	726	728	729	731	734	736	736	737	740	742	745	747	748	755	755	755	761	763	767	772	772	773	773	775	777	779	786	793	793	798	802	802	802	806	810	819	827	831	831	833	835	837	839	839	841	843	850	852	867	871	871	873	878	880	882	887	891	898	901	903	910	913	917	922	927	930	930	935	937	942	945	955	961	963	966	974	977	977	980	983	988	988	1006	1008	1011	1014	1014	1020	1023	1033	1045	1048	1052	1064	1068	1071	1074	1078	1081	1085	1095	1098	1102	1105	1105	1109	1113	1113	1116	1116	1116	1116	1116	0	0	0	1863	1863	1863	0	0	0	0	0	0	0	0	0	0	0	0	1873	1873	1883	1883	1873	1873	1873	1873	1883	1883	1873	1863	1863	0	1863	1863	1863	0	0	1873	1863	1863	1863	1873	1873	1873	1873	1873	1873	1873	1863	1873	1873	1863	1853	1863	1863	1863	1853	1863	1863	1863	1873	1873	1873	1894	1904	1904	1904	1904	1904	1904	4706	4706	4706	4581	4581	4581	0	8343	8343	8343	8343	8343	8343	8343	8343	8343	8343	8146	8146	8146	8146	8146	8343	8343	8343	8343	8343	8343	8343	8343	8343	8343	8343	8343	8343	8343	8343	8343	8343	8343	8343	8343	8343	8343	8343	8146	8146	8343	8343	8146	8146	8146	8343	8343	8343	8146	8146	8146	8146	8343	8146	8146	8146	8146	7959	8146	8146	8146	0	0	0	3583	3583	3583	3546	3546	3546	3546	3546	3546	3546	3546	3546	3546	3546	3546	3475	3475	3475	3475	3475	3440	3440	3440	3440	3440	3406	3406	3406	3406	3406	3406	3406	3406	3440	3440	3440	3440	3440	3440	3440	3440	3440	3440	3440	3440	3440	3440	3440	3440	3440	3440	3440	3440	3440	3440	3440	3440	3475	3475	3475	3510	3510	3546	3546	3546	3546	3546	3546	3546	3546	3510	3510	3510	3510	3510	3510	0	8343	8343	8343	8343	8343	8343	8343	8343	8343	8343	8343	8343	8146	8343	8146	8146	8146	8146	8146	8146	8146	7959	8146	7959	7959	8146	7959	7959	7959	7959	8146	8343	8343	8343	8343	8343	8146	8146	8146	8146	8146	8146	8146	8146	8146	8146	8146	7959	7959	7959	7959	7959	7959	7959	8146	8146	8146	8146	7779	7779	7959	7959	7959	7959	7959	7959	7959	7959	7959	7959	7959	7959	7959	7959	7959	7959	7959	7959	7959	7959	7779	7779	7779	7959	7959	7959	7959	7959	7959	7959	7779	7779	7959	7779	7959	7779	7779	7779	7779	7779	7779	7779	7779	7959	7959	7959	8146	8146	7959	8146	8146	8146	7959	7959	7959	7959	7959	7959	7959	7959	7959	7959	7959	8146	8146	7959	7959	8146	7959	7959	7959	7959	7959	7959	8146	7959	7959	7959	7959	7959	8146	7959	7959	7959	7959	8146	8146	8146	7959	8146	8146	8146	8146	7959	7959	7959	7959	7779	7779	7779	7959	7959	7959	8146	8146	8146	8146	8146	8146	8146	7959	7959	7959	7959	7959	7959	7959	7959	7959	7959	7959	8146	8146	8146	8146	8146	8146	8146	8146	8146	8146	8146	8146	8146	8146	8146	8146	8146	7959	7959	7959	7959	7779	7779	7779	7779	7779	7959	7959	7959	7959	7959	8146	7959	7959	7959	7959	7959	7959	7959	7779	7779	7779	7959	7959	7959	7959	7959	7959	7959	7959	7779	7608	7779	7779	7779	7779	7959	7959	7779	7779	7779	7779	7779	7779	7779	7608	7608	0	0	0	0	0	0	0	0	0	0	0	0	0	0	0	0	0	0	0	0	0	0	0	0	0	0	0	0	0	0	0	0	0
661	663	666	670	671	672	675	676	676	682	682	0	0	0	0	703	704	704	705	705	705	707	710	713	710	710	722	722	723	728	728	729	731	734	736	736	740	743	747	748	750	755	755	756	760	761	763	772	773	773	773	775	777	777	786	795	800	800	804	804	804	806	810	814	825	831	831	833	833	835	839	839	841	843	848	848	869	873	873	873	878	880	882	887	891	896	901	901	905	913	920	922	927	930	932	935	937	942	948	955	961	963	966	974	974	977	983	985	988	991	1008	1011	1014	1014	1017	1020	1023	1030	1045	1048	1055	1061	1071	1074	1074	1078	1078	1085	1095	1098	1102	1105	1105	1109	1109	1109	1113	1116	1116	1116	1116	0	0	0	1863	1863	1863	0	0	0	0	0	0	0	0	0	0	0	0	0	1873	1883	1883	1883	1873	1873	1873	1883	1883	1873	1863	1863	1863	1863	1853	1853	0	0	1863	1863	1863	1863	1863	1863	1863	1873	1873	1863	1863	1863	1873	1873	1853	1853	1863	1863	1863	1863	1863	1863	1863	1873	1873	1873	1883	1894	1904	1904	0	0	0	4706	4706	4581	4581	4581	4643	4643	0	0	8343	8146	8343	8343	8343	8343	8343	8343	8146	8146	8146	8146	8146	8146	8343	8343	8343	8343	8343	8343	8146	8146	8146	8343	8343	8343	8146	8343	8343	8343	8146	8146	8146	8343	8343	8343	8146	8146	8343	8146	8146	8146	8146	8146	8343	8343	8146	8343	8343	8343	8343	8146	8146	8146	8146	8146	8146	8146	8146	8146	0	0	3546	3546	3546	3546	3546	3546	3546	3546	3546	3546	3546	3546	3546	3546	3510	3475	3475	3475	3475	3440	3440	3440	3440	3440	3440	3406	3406	3406	3406	3406	3406	3406	3406	3440	3440	3440	3440	3440	3440	3440	3440	3440	3440	3440	3440	3440	3440	3440	3440	3440	3440	3440	3440	3440	3440	3440	3440	3475	3475	3475	3475	3510	3510	3546	3546	3546	3546	3546	3546	3546	3546	3546	3510	3510	3510	3510	0	8343	8343	8343	8343	8343	8343	8343	8146	8146	8146	8146	8146	8146	8146	8146	8146	8146	8146	8146	8146	8146	8146	8146	8146	8146	8146	7959	7959	8146	8146	8343	8343	8343	8343	8343	8343	8146	8146	8146	8146	8146	8146	8146	8146	8146	8146	7959	7959	7959	7959	7959	7959	7959	7959	7959	7959	8146	7959	7779	7959	7959	7959	7959	7959	7959	7959	7959	7959	7959	7959	7959	7959	7959	7959	7959	7959	7959	7959	7959	7959	7779	7779	7959	7959	7959	7959	7959	7959	7959	7959	7959	7959	7959	7959	7959	7779	7779	7779	7779	7779	7779	7608	7779	7959	7959	7959	7959	8146	7959	7959	7959	8146	7959	7959	7959	7959	7959	7959	7959	7959	7959	7959	7959	8146	8146	7959	7959	7959	7959	7959	7959	7959	7959	7959	8146	7959	7959	7959	7959	7959	7959	7959	7959	7959	7959	7959	7959	7959	7959	7959	8146	8146	8146	8146	7959	7959	7959	7959	7959	7959	7959	7959	7959	7959	7959	8146	8146	8146	8146	8146	7959	7959	7959	7959	7959	7959	7959	7959	7959	7959	8146	8146	8146	8146	8343	8146	8146	8146	8146	8146	8146	8146	7959	7959	7959	7959	7959	7959	7959	7959	7959	7959	7959	7779	7779	7779	7959	7959	7959	7959	7959	7959	7959	7959	7959	7959	7959	7959	7959	7959	7959	7959	7959	7959	7959	7959	7959	7779	7959	7779	7779	7779	7779	7779	7779	7779	7959	7959	7959	7959	7779	7779	7779	7779	7779	7608	7608	7608	0	0	0	0	0	0	0	0	0	0	0	0	0	0	0	0	0	0	0	0	0	0	0	0	0	0	0	0	0	0	0	0	0
