0	0	0	0	0	0	0	0	0	0	1532	1525	1525	1525	1525	1525	1525	1525	1525	1525	1525	1525	1525	1525	1519	1525	1519	1519	1512	1519	1519	1525	1519	1519	1525	1519	1519	1519	1519	1519	1525	1525	1525	1532	1539	1539	1539	1532	1525	1532	1532	1532	1525	1525	1519	1519	1525	1519	1519	1519	1519	1519	1519	1525	1525	1525	1519	1519	1519	1512	1519	1512	1512	1512	1512	1512	1519	1525	1532	1532	1539	1539	1546	1546	1546	1546	1546	2039	2063	2051	2051	2039	2039	2039	2039	2027	2027	2039	2039	2039	2027	2039	2051	2039	2039	2051	2039	2051	2051	2051	2039	2039	2027	2027	2027	2027	2027	2027	2027	2027	2027	2027	2027	2027	2039	2027	2051	2051	2039	2027	2027	2015	2003	2003	2003	2003	0	0	0	0	2076	2076	2076	2088	2101	2114	2101	2101	2101	2114	2114	2114	2127	2127	2127	2140	2127	2140	2140	2127	2140	2167	2167	2181	2181	2181	2194	2194	2194	2194	2194	2629	2629	2629	2609	2609	2609	2609	2609	2609	2609	2589	2570	2570	2589	2589	2589	2589	2589	2609	2609	0	3475	3475	3510	3510	3510	3510	3510	3510	3510	3510	3510	3510	3546	3546	3583	3583	3621	3621	3659	3659	3659	3659	3698	3659	3659	3698	3698	3698	3659	3659	3659	3659	3659	3659	3659	3659	3659	3659	3659	3698	3698	3698	3738	3698	3698	3698	3698	3698	3698	3698	3698	3698	3698	3698	3698	3698	3698	3698	3698	3698	3698	3698	3698	3698	3698	3698	3698	3738	3738	3738	3738	3738	3738	3738	3738	3738	3738	3738	3738	3738	3738	3738	3738	3738	3738	3738	3738	3738	3738	3698	3698	3698	3698	3698	3738	3738	3738	3738	3738	3738	3738	3738	3738	3738	3738	3738	3738	3738	3738	3738	3698	3698	3698	3698	3698	3698	3698	3698	3698	3698	3698	3698	3698	3738	3738	3738	3738	3738	3738	3738	3738	3738	3738	3738	3738	3738	3779	3738	3738	3738	3738	3738	3738	3738	3738	3738	3738	3738	3738	3738	3738	3738	3738	3738	3738	3738	3738	3738	3698	3698	3698	3698	3698	3698	3157	3157	3157	3129	3129	3129	3129	3129	3101	3101	3101	3101	3101	3129	3129	3129	3101	3101	3101	3101	3101	3101	3101	3101	3101	3101	3101	3101	3101	3101	3046	3046	3738	3738	3738	3738	3738	3738	3738	3738	3738	3698	3659	3659	3659	3659	3698	3659	3659	3659	3698	3659	3659	3659	3698	3659	3659	3659	3659	3659	3659	3659	3659	3659	3659	3659	3659	3659	3659	3659	3698	3698	3698	3698	3698	3698	3698	3698	3698	3659	3659	3698	3659	3698	3698	3698	3698	3698	3698	3659	3659	3659	3659	3659	3659	3659	3698	3659	3698	3659	3659	3659	3659	3659	3659	3659	3621	3621	3659	3621	3621	3659	3659	3659	3659	3659	3621	3621	3659	3659	3659	3659	3621	3659	3621	3698	3698	3698	3659	3659	3659	3659	3659	3659	3659	3659	3659	3659	3659	3659	3659	3659	3659	3659	3659	3659	3621	3621	3621	3659	3659	3621	3659	3659	3659	3659	3659	3659	3659	3659	3698	3698	3698	3698	3698	3698	3659	3659	3659	3621	3621	3659	3621	3659	3621	3659	3659	3659	3621	3621	3621	3659	3659	3659	3659	3659	3659	3659	3659	3659	3659	3659	3659	3659	3621	3621	3621	3621	3621	3621	3621	3621	3659	3621	3621	3621	3621	3621	3621	3621	3621	3621	3621	3621	3583	3583	3583	3583	3583	3583	3583	3583	3583	3583	3583	3583	3583	3583	3583	3546	3583	3546	3583	3583	3583	3583	3546	3546	3621	3583	3583	3621	3583	3583	3583	3546	3583	3546	3546	0	0	0	0	0	0	0	0	0	0	0	0	0	0	0	0	0	0	0	0	0	0	0	0	0	0	0	0	0	0	0	0	0	0	0
0	0	0	0	0	0	0	0	0	0	1525	1532	1519	1519	1525	1525	1525	1525	1519	1525	1525	1525	1525	1525	1525	1525	1519	1519	1512	1519	1519	1525	1519	1519	1525	1525	1519	1519	1519	1519	1519	1525	1519	1525	1532	1539	1539	1532	1525	1525	1525	1525	1525	1525	1519	1525	1525	1525	1525	1519	1519	1519	1519	1519	1519	1519	1519	1512	1512	1512	1512	1512	1512	1512	1512	1512	1519	1525	1525	1532	1539	1539	1546	1539	1546	1546	1546	0	2076	2063	2063	2051	2051	2051	2051	2039	2039	2051	2039	2051	2039	2051	2051	2051	2051	2051	2051	2051	2063	2051	2051	2051	2039	2039	2039	2039	2039	2039	2063	2051	2051	2051	2051	2051	2051	2051	2063	2051	2039	2039	2027	2015	2003	2003	2003	2003	0	0	0	0	2076	2076	2076	2088	2101	2114	2114	2101	2114	2114	2114	2114	2127	2127	2127	2140	2127	2140	2140	2140	2140	2140	2140	2167	2167	2181	2194	2194	2194	2208	2208	2609	2629	2609	2609	2609	2609	2589	2609	2589	2589	2570	2570	2570	2570	2589	2589	2589	2589	2589	2589	0	3510	3510	3510	3510	3510	3510	3510	3510	3510	3510	3510	3510	3510	3546	3546	3546	3583	3621	3659	3659	3698	3698	3698	3659	3659	3698	3659	3659	3659	3659	3659	3659	3659	3659	3659	3659	3659	3659	3659	3698	3698	3698	3698	3698	3698	3698	3698	3698	3659	3698	3698	3698	3698	3698	3698	3698	3698	3698	3698	3698	3698	3698	3698	3698	3698	3698	3698	3738	3738	3738	3738	3738	3738	3738	3738	3738	3738	3738	3738	3738	3738	3738	3738	3738	3738	3738	3738	3738	3738	3698	3698	3698	3698	3698	3698	3698	3738	3738	3738	3738	3738	3738	3738	3738	3738	3738	3738	3738	3738	3698	3698	3698	3698	3698	3698	3698	3698	3698	3698	3698	3698	3698	3698	3738	3738	3738	3738	3738	3738	3738	3698	3738	3738	3738	3738	3738	3738	3738	3738	3738	3738	3738	3738	3738	3738	3738	3738	3738	3738	3738	3738	3698	3738	3698	3698	3698	3698	3698	3698	3698	3698	3698	3698	3698	3698	3129	3129	3129	3129	3129	3129	3129	3101	3101	3101	3101	3101	3129	3129	3101	3101	3101	3101	3101	3101	3101	3101	3101	3101	3101	3101	3101	3101	3101	3101	3779	3738	3738	3738	3738	3698	3738	3738	3698	3738	3659	3659	3659	3659	3659	3659	3659	3659	3659	3698	3659	3698	3659	3659	3659	3659	3659	3659	3659	3659	3659	3659	3659	3659	3659	3659	3659	3659	3698	3698	3698	3698	3698	3698	3698	3698	3659	3659	3659	3659	3698	3659	3698	3698	3698	3698	3698	3698	3698	3659	3659	3698	3659	3659	3698	3698	3698	3698	3698	3659	3659	3659	3659	3659	3659	3621	3621	3659	3659	3659	3659	3659	3659	3659	3659	3621	3621	3659	3659	3659	3621	3621	3621	3621	3698	3698	3659	3659	3698	3659	3698	3659	3659	3659	3659	3659	3659	3659	3659	3659	3659	3659	3659	3659	3659	3659	3659	3659	3659	3659	3659	3659	3659	3659	3659	3659	3659	3659	3659	3659	3659	3659	3659	3659	3659	3659	3659	3621	3621	3621	3659	3621	3659	3621	3659	3659	3621	3621	3621	3621	3659	3659	3698	3659	3659	3659	3659	3659	3659	3621	3659	3659	3621	3621	3621	3621	3621	3621	3621	3621	3621	3659	3659	3621	3621	3621	3621	3621	3621	3621	3583	3583	3583	3583	3583	3583	3583	3583	3583	3583	3583	3583	3583	3583	3583	3583	3583	3583	3546	3583	3546	3546	3546	3583	3583	3546	3546	3621	3583	3583	3621	3621	3583	3583	3546	3546	3546	3546	0	0	0	0	0	0	0	0	0	0	0	0	0	0	0	0	0	0	0	0	0	0	0	0	0	0	0	0	0	0	0	0	0	0	0
0	0	0	0	0	0	0	0	0	0	1532	1532	1532	1532	1519	1525	1525	1525	1519	1519	1525	1525	1525	1525	1519	1519	1525	1519	1519	1525	1519	1525	1525	1525	1525	1519	1519	1519	1519	1519	1519	1519	1519	1532	1532	1539	1539	1532	1525	1525	1525	1525	1525	1525	1519	1525	1525	1525	1525	1519	1519	1525	1519	1525	1519	1519	1519	1519	1512	1512	1519	1512	1512	1512	1512	1512	1519	1519	1525	1525	1532	1539	1539	1546	1546	1546	1546	0	2076	2063	2063	2051	2051	2051	2051	2051	2051	2051	2051	2051	2051	2051	2051	2051	2051	2051	2051	2051	2063	2063	2063	2063	2063	2063	2063	2063	2076	2063	2063	2063	2063	2063	2063	2063	2063	2063	2076	2063	2063	2039	2039	2027	2015	2015	2003	0	0	0	0	0	2088	2076	2088	2088	2101	2114	2114	2114	2114	2114	2114	2114	2114	2127	2127	2127	2127	2140	2140	2127	2140	2140	2140	2167	2167	2167	2181	2194	2194	2223	2223	2223	2609	2609	2609	2609	2609	2589	2609	2589	2589	2570	2570	2570	2570	2589	2589	2589	2589	2589	2589	3510	3510	3510	3510	3510	3510	3510	3510	3510	3510	3510	3510	3510	3546	3546	3546	3546	3583	3621	3659	3659	3698	3698	3698	3659	3659	3698	3659	3659	3659	3659	3659	3659	3659	3659	3659	3659	3659	3659	3659	3698	3698	3698	3698	3698	3698	3698	3698	3659	3659	3659	3698	3698	3698	3698	3698	3698	3698	3698	3698	3698	3698	3698	3698	3698	3698	3698	3698	3738	3738	3738	3738	3738	3738	3738	3738	3738	3738	3738	3738	3738	3738	3738	3738	3738	3738	3738	3738	3738	3698	3698	3698	3698	3738	3698	3738	3738	3738	3738	3738	3738	3738	3738	3738	3738	3738	3738	3738	3738	3698	3698	3698	3698	3698	3698	3698	3698	3698	3698	3698	3698	3698	3698	3698	3738	3738	3738	3738	3738	3738	3698	3698	3698	3698	3738	3738	3738	3738	3738	3738	3738	3738	3738	3738	3738	3738	3738	3738	3738	3738	3738	3738	3738	3738	3738	3698	3698	3698	3698	3698	3698	3698	3698	3698	3698	3698	3129	3129	3129	3129	3129	3129	3129	3101	3101	3101	3101	3101	3101	3129	3101	3101	3101	3101	3101	3101	3101	3101	3101	3101	3101	3101	3101	3129	3101	3101	3738	3738	3738	3698	3738	3698	3698	3698	3698	3698	3698	3659	3698	3659	3659	3698	3659	3659	3659	3698	3659	3659	3659	3659	3659	3659	3659	3659	3659	3659	3659	3621	3621	3621	3659	3659	3659	3621	3698	3698	3698	3698	3698	3698	3698	3659	3659	3659	3659	3659	3659	3659	3698	3659	3659	3659	3659	3659	3659	3659	3659	3659	3659	3659	3659	3659	3659	3659	3659	3659	3659	3659	3659	3659	3659	3659	3659	3659	3659	3659	3659	3621	3621	3621	3621	3621	3621	3659	3659	3659	3659	3659	3659	3659	3698	3698	3698	3698	3698	3698	3698	3659	3659	3659	3659	3659	3659	3659	3659	3659	3698	3659	3659	3659	3659	3659	3659	3659	3659	3659	3659	3659	3659	3659	3659	3659	3659	3659	3659	3659	3659	3659	3659	3659	3659	3659	3659	3621	3621	3659	3659	3659	3621	3621	3621	3659	3621	3621	3621	3659	3698	3698	3698	3659	3659	3659	3659	3659	3621	3659	3659	3659	3621	3621	3621	3621	3621	3621	3621	3621	3659	3659	3659	3621	3621	3621	3621	3621	3621	3621	3583	3583	3583	3583	3583	3583	3583	3583	3583	3583	3583	3583	3583	3621	3583	3583	3583	3583	3583	3583	3546	3583	3546	3583	3583	3546	3546	3621	3583	3583	3621	3583	3583	3583	3546	3546	3546	3546	0	0	0	0	0	0	0	0	0	0	0	0	0	0	0	0	0	0	0	0	0	0	0	0	0	0	0	0	0	0	0	0	0	0	0
0	0	0	0	0	0	0	0	0	0	1532	1532	1532	1519	1525	1525	1525	1525	1525	1525	1525	1525	1525	1525	1525	1525	1525	1525	1519	1519	1525	1525	1525	1525	1525	1525	1525	1525	1525	1525	1525	1525	1519	1532	1532	1532	1532	1525	1525	1525	1525	1525	1525	1519	1519	1519	1519	1519	1525	1519	1519	1519	1519	1525	1519	1519	1519	1519	1512	1512	1519	1512	1512	1512	1512	1512	1519	1519	1525	1525	1532	1539	1539	1546	1539	1539	1539	0	2076	2063	2063	2063	2063	2063	2063	2063	2051	2051	2051	2063	2051	2063	2076	2063	2063	2076	2076	2076	2076	2076	2063	2076	2076	2076	2076	2076	2088	2088	2076	2076	2076	2076	2076	2076	2076	2076	2088	2076	2076	2063	2051	2051	2015	2015	0	0	0	2051	2063	2076	2088	2088	2101	2101	2101	2114	2114	2114	2114	2114	2114	2114	2114	2114	2127	2127	2127	2127	2140	2140	2140	2140	2140	2167	2167	2167	2167	2181	2194	2223	2237	2237	2237	2609	2609	2609	2609	2589	2609	2589	2589	2570	2570	2570	2570	2589	2589	2589	2570	2570	0	3510	3510	3510	3510	3510	3475	3475	3510	3510	3510	3475	3510	3475	3546	3546	3546	3546	3583	3621	3659	3659	3659	3659	3659	3659	3659	3659	3659	3698	3659	3659	3698	3659	3659	3659	3659	3659	3659	3659	3659	3698	3698	3698	3698	3698	3698	3698	3698	3659	3659	3659	3698	3698	3698	3698	3698	3698	3698	3698	3698	3698	3698	3698	3698	3698	3698	3698	3698	3738	3738	3738	3738	3738	3738	3738	3738	3738	3738	3738	3738	3738	3738	3738	3738	3738	3698	3698	3698	3698	3698	3698	3698	3738	3738	3738	3738	3738	3738	3738	3738	3738	3738	3698	3738	3738	3738	3738	3698	3698	3698	3698	3698	3698	3698	3698	3698	3698	3698	3698	3698	3698	3698	3698	3698	3738	3738	3738	3738	3738	3738	3698	3698	3698	3738	3738	3738	3738	3738	3738	3738	3738	3738	3738	3738	3738	3738	3738	3738	3738	3738	3738	3738	3738	3738	3698	3698	3698	3698	3698	3659	3659	3659	3659	3698	3698	3698	3101	3129	3129	3129	3129	3129	3129	3101	3101	3101	3101	3101	3101	3101	3101	3101	3101	3101	3101	3101	3101	3101	3101	3101	3101	3101	3129	3129	3129	3129	3738	3738	3698	3698	3698	3698	3698	3698	3659	3698	3659	3659	3659	3659	3659	3698	3659	3659	3659	3698	3659	3659	3659	3659	3659	3659	3659	3659	3659	3621	3659	3621	3621	3621	3621	3659	3621	3621	3698	3698	3698	3698	3698	3698	3698	3659	3659	3659	3659	3659	3659	3659	3659	3659	3659	3659	3659	3659	3659	3659	3659	3659	3659	3659	3659	3659	3659	3659	3698	3659	3659	3659	3659	3659	3659	3659	3659	3659	3659	3659	3659	3659	3659	3621	3659	3621	3621	3659	3659	3659	3659	3659	3659	3659	3698	3698	3698	3698	3698	3698	3698	3698	3659	3698	3698	3659	3659	3659	3659	3659	3659	3659	3659	3659	3659	3659	3659	3659	3659	3659	3659	3659	3659	3659	3659	3659	3659	3659	3659	3659	3621	3659	3659	3659	3659	3621	3621	3621	3659	3659	3659	3659	3659	3621	3659	3659	3659	3621	3659	3659	3698	3698	3698	3659	3659	3659	3659	3621	3621	3621	3659	3659	3621	3621	3621	3621	3621	3621	3621	3621	3621	3659	3659	3621	3621	3621	3621	3621	3621	3583	3583	3583	3583	3583	3583	3583	3583	3583	3583	3583	3583	3583	3583	3583	3583	3583	3583	3583	3546	3583	3546	3546	3546	3546	3546	3546	3546	3583	3583	3583	3583	3621	3583	3583	3546	3546	3546	3546	0	0	0	0	0	0	0	0	0	0	0	0	0	0	0	0	0	0	0	0	0	0	0	0	0	0	0	0	0	0	0	0	0	0	0
0	0	0	0	0	0	0	0	0	0	1532	1532	1532	1519	1525	1525	1525	1525	1525	1525	1525	1525	1525	1532	1525	1525	1519	1525	1519	1525	1525	1532	1532	1532	1532	1525	1525	1525	1525	1525	1525	1525	1525	1532	1532	1532	1525	1519	1519	1519	1519	1519	1519	1512	1512	1512	1519	1519	1519	1519	1519	1519	1519	1525	1525	1519	1519	1519	1519	1512	1519	1512	1512	1512	1512	1512	1519	1519	1525	1525	1532	1539	1546	1539	1539	1539	1539	0	2076	2076	2076	2063	2063	2063	2076	2076	2076	2076	2063	2076	2076	2076	2076	2076	2076	2076	2088	2088	2076	2088	2076	2088	2088	2088	2088	2101	2101	2101	2088	2088	2088	2088	2088	2088	2088	2088	2101	2088	2088	2076	2063	2063	0	0	0	0	0	2051	2063	2088	2088	2088	2101	2101	2101	2114	2114	2114	2114	2114	2114	2114	2114	2114	2127	2127	2127	2127	2127	2127	2127	2140	2140	2153	2140	2153	2167	2167	2181	2208	2237	2223	2223	2609	2609	2609	2589	2589	2589	2589	2570	2570	2570	2570	2570	2570	2589	2589	2570	2570	0	3510	3510	3510	3510	3510	3510	3510	3510	3510	3510	3475	3475	3475	3546	3546	3546	3546	3583	3621	3659	3659	3659	3659	3659	3659	3659	3698	3698	3698	3659	3659	3659	3659	3659	3659	3659	3659	3659	3659	3698	3698	3698	3698	3698	3698	3698	3698	3698	3659	3659	3659	3698	3698	3698	3698	3698	3698	3698	3698	3698	3698	3698	3698	3698	3698	3698	3698	3698	3698	3738	3738	3738	3738	3738	3738	3738	3738	3738	3738	3738	3738	3738	3738	3698	3738	3698	3698	3698	3698	3698	3698	3698	3738	3738	3738	3738	3738	3738	3738	3738	3738	3738	3738	3738	3738	3738	3738	3738	3698	3698	3698	3698	3698	3698	3698	3698	3698	3698	3698	3698	3698	3698	3698	3698	3698	3738	3738	3738	3738	3738	3698	3698	3698	3698	3698	3738	3738	3698	3738	3738	3738	3738	3738	3738	3738	3738	3738	3738	3738	3738	3738	3738	3738	3738	3738	3738	3698	3698	3698	3659	3659	3659	3659	3659	3659	3698	3129	3129	3129	3129	3129	3129	3129	3101	3101	3101	3101	3101	3101	3101	3101	3101	3101	3101	3101	3101	3101	3101	3101	3101	3129	3129	3129	3129	3129	3129	3738	3738	3698	3698	3698	3698	3698	3698	3659	3698	3659	3659	3698	3659	3659	3698	3659	3659	3659	3698	3659	3659	3659	3659	3659	3659	3659	3659	3659	3659	3659	3621	3621	3621	3621	3659	3621	3621	3698	3698	3659	3698	3659	3659	3659	3659	3659	3659	3659	3621	3659	3659	3659	3659	3659	3659	3659	3659	3659	3659	3659	3659	3659	3659	3659	3659	3659	3659	3659	3659	3659	3659	3659	3659	3659	3659	3659	3659	3659	3659	3659	3659	3659	3659	3659	3621	3621	3659	3659	3659	3659	3659	3659	3659	3698	3698	3698	3698	3698	3698	3698	3698	3659	3698	3698	3659	3659	3659	3659	3659	3659	3659	3659	3659	3659	3659	3659	3659	3659	3659	3659	3659	3659	3659	3659	3659	3621	3621	3621	3621	3621	3621	3621	3659	3659	3621	3659	3659	3659	3659	3659	3659	3659	3659	3621	3659	3621	3621	3659	3659	3698	3698	3698	3698	3659	3659	3659	3659	3621	3621	3621	3621	3621	3621	3621	3621	3621	3621	3621	3621	3621	3659	3659	3621	3621	3621	3621	3621	3583	3583	3583	3583	3583	3583	3583	3583	3583	3583	3583	3583	3583	3583	3583	3621	3583	3583	3583	3583	3583	3583	3546	3546	3546	3583	3583	3583	3546	3621	3583	3621	3621	3621	3583	3583	3546	3546	3546	3546	0	0	0	0	0	0	0	0	0	0	0	0	0	0	0	0	0	0	0	0	0	0	0	0	0	0	0	0	0	0	0	0	0	0	0
0	0	0	0	0	0	0	0	0	0	1525	1525	1532	1519	1525	1525	1525	1525	1525	1525	1525	1525	1525	1532	1525	1519	1519	1525	1519	1525	1525	1532	1532	1532	1532	1525	1525	1525	1525	1525	1525	1525	1525	1532	1532	1532	1525	1525	1519	1519	1512	1519	1519	1519	1512	1519	1519	1519	1525	1519	1519	1519	1519	1525	1525	1519	1519	1519	1519	1519	1519	1512	1512	1512	1512	1512	1512	1519	1519	1525	1532	1532	1546	1539	1539	1539	1539	0	2088	2088	2101	2101	2101	2088	2088	2088	2088	2076	2076	2076	2076	2076	2076	2076	2076	2076	2088	2088	2088	2088	2088	2101	2101	2101	2101	2101	2101	2101	2101	2101	2101	2101	2101	2088	2101	2101	2101	2101	2088	2088	2063	2063	0	0	0	0	0	2051	2051	2088	2101	2101	2101	2101	2114	2127	2114	2114	2114	2114	2114	2114	2127	2114	2127	2127	2127	2127	2127	2127	2127	2140	2140	2140	2140	2153	2153	2167	2181	2194	2223	2223	2223	2609	2609	2609	2589	2589	2589	2589	2589	2570	2570	2570	2589	2609	2609	2609	2609	2609	3510	3510	3510	3510	3510	3510	3510	3510	3510	3510	3510	3510	3510	3475	3546	3546	3546	3583	3621	3659	3659	3659	3659	3659	3659	3659	3659	3698	3698	3698	3698	3659	3698	3659	3659	3659	3659	3659	3659	3698	3698	3698	3698	3738	3738	3698	3698	3698	3698	3659	3659	3659	3659	3698	3698	3698	3698	3698	3698	3698	3698	3698	3698	3698	3698	3698	3698	3698	3698	3738	3738	3738	3738	3738	3738	3738	3738	3738	3738	3738	3738	3738	3738	3738	3698	3738	3698	3698	3698	3698	3698	3698	3698	3738	3738	3738	3738	3738	3738	3738	3738	3738	3738	3738	3738	3738	3738	3738	3738	3698	3698	3698	3698	3698	3698	3698	3698	3698	3698	3698	3698	3698	3698	3698	3698	3738	3738	3738	3738	3738	3738	3698	3698	3698	3698	3698	3738	3698	3698	3738	3738	3738	3738	3738	3738	3738	3738	3738	3738	3738	3738	3738	3738	3738	3738	3738	3738	3698	3698	3698	3659	3659	3659	3659	3659	3659	3101	3101	3129	3129	3129	3129	3129	3129	3129	3101	3101	3101	3101	3129	3129	3101	3101	3101	3101	3101	3101	3101	3101	3101	3101	3101	3101	3129	3129	3101	3101	3698	3698	3698	3698	3698	3698	3659	3659	3659	3659	3659	3659	3698	3659	3659	3698	3659	3659	3659	3659	3659	3659	3659	3659	3659	3659	3659	3659	3659	3659	3659	3621	3659	3659	3659	3659	3621	3621	3698	3698	3659	3698	3659	3659	3659	3659	3659	3659	3659	3659	3659	3659	3659	3659	3659	3659	3659	3659	3659	3659	3659	3659	3659	3659	3659	3659	3659	3659	3659	3659	3659	3659	3659	3621	3659	3659	3659	3659	3659	3659	3659	3659	3659	3659	3659	3659	3659	3659	3659	3659	3659	3659	3659	3659	3698	3698	3698	3698	3698	3698	3698	3698	3659	3659	3659	3659	3659	3659	3659	3659	3659	3659	3698	3659	3659	3659	3659	3659	3659	3659	3659	3659	3698	3698	3659	3659	3659	3621	3621	3621	3621	3621	3621	3621	3659	3621	3659	3659	3659	3659	3659	3659	3659	3659	3621	3621	3621	3621	3621	3621	3659	3698	3698	3659	3659	3659	3621	3621	3621	3621	3621	3621	3621	3621	3621	3621	3621	3621	3621	3621	3621	3659	3621	3621	3621	3621	3621	3621	3583	3583	3583	3583	3583	3583	3583	3583	3583	3583	3583	3583	3583	3583	3583	3621	3583	3583	3583	3583	3583	3583	3583	3546	3546	3583	3583	3583	3583	3621	3621	3583	3583	3583	3546	3546	3546	3510	3546	3546	0	0	0	0	0	0	0	0	0	0	0	0	0	0	0	0	0	0	0	0	0	0	0	0	0	0	0	0	0	0	0	0	0	0	0
0	0	0	0	0	0	0	0	0	0	1512	1519	1519	1519	1519	1519	1519	1525	1525	1525	1525	1525	1525	1532	1525	1525	1519	1525	1525	1525	1525	1532	1532	1532	1525	1525	1525	1525	1525	1525	1525	1525	1525	1525	1525	1532	1525	1525	1525	1519	1519	1519	1519	1519	1519	1519	1519	1519	1519	1519	1519	1519	1519	1525	1525	1519	1519	1519	1519	1512	1512	1512	1512	1512	1512	1512	1519	1519	1519	1519	1532	1539	1546	1539	1539	1539	1539	0	2088	2088	2101	2101	2101	2101	2101	2101	2088	2088	2101	2088	2088	2088	2088	2088	2088	2088	2088	2088	2101	2101	2088	2101	2101	2101	2101	2114	2114	2114	2101	2101	2101	2101	2101	2101	2101	2101	2101	2101	2101	2101	2076	2076	0	0	0	0	0	2051	2051	2101	2101	2114	2114	2127	2127	2127	2127	2114	2114	2114	2127	2127	2127	2114	2114	2127	2114	2114	2114	2114	2127	2127	2127	2140	2140	2153	2167	2167	2167	2181	2208	2181	2181	2223	2609	2609	2609	2589	2589	2589	2589	2589	2589	2589	2589	2609	2609	2609	2609	2589	2589	3510	3510	3510	3510	3510	3510	3510	3510	3510	3510	3510	3510	3510	3546	3546	3546	3546	3583	3621	3659	3659	3659	3659	3659	3659	3659	3698	3698	3659	3698	3659	3698	3659	3659	3659	3659	3659	3659	3698	3698	3698	3698	3738	3738	3698	3698	3698	3698	3659	3659	3659	3698	3698	3698	3698	3698	3698	3698	3698	3698	3698	3698	3698	3698	3698	3698	3698	3698	3738	3738	3738	3738	3738	3738	3738	3738	3738	3738	3738	3738	3738	3738	3698	3698	3738	3738	3698	3698	3698	3698	3738	3698	3738	3738	3738	3738	3738	3738	3738	3738	3738	3738	3738	3738	3738	3738	3738	3738	3698	3698	3698	3698	3698	3698	3698	3698	3698	3698	3698	3698	3698	3698	3698	3698	3738	3738	3738	3738	3738	3738	3698	3698	3698	3698	3698	3698	3698	3698	3738	3738	3738	3738	3738	3738	3738	3738	3738	3738	3738	3738	3738	3738	3738	3738	3738	3738	3698	3698	3698	3698	3659	3659	3659	3698	3698	3073	3101	3101	3101	3101	3101	3129	3101	3129	3101	3101	3101	3101	3129	3129	3101	3101	3101	3101	3101	3101	3101	3101	3101	3101	3101	3101	3129	3101	3101	3101	3698	3698	3698	3698	3698	3659	3659	3659	3659	3659	3659	3659	3698	3659	3659	3698	3659	3659	3659	3659	3659	3659	3659	3659	3659	3659	3659	3659	3659	3659	3659	3621	3659	3621	3659	3621	3621	3621	3698	3659	3659	3659	3659	3659	3659	3659	3659	3659	3621	3621	3659	3659	3659	3659	3659	3659	3659	3659	3659	3659	3659	3659	3659	3659	3659	3659	3659	3659	3659	3659	3659	3659	3659	3659	3659	3659	3659	3659	3659	3659	3659	3659	3659	3659	3659	3659	3659	3659	3659	3659	3659	3659	3659	3659	3698	3698	3698	3698	3698	3698	3698	3698	3698	3698	3698	3659	3659	3659	3659	3659	3659	3659	3659	3659	3659	3659	3659	3698	3659	3659	3659	3659	3698	3698	3698	3659	3659	3659	3659	3659	3621	3621	3621	3621	3621	3621	3621	3621	3659	3659	3659	3621	3659	3621	3621	3621	3621	3621	3621	3621	3659	3659	3698	3659	3698	3659	3659	3621	3621	3621	3621	3621	3621	3621	3621	3621	3621	3621	3621	3621	3621	3659	3659	3621	3621	3659	3621	3621	3621	3583	3583	3583	3583	3583	3583	3583	3583	3583	3583	3583	3583	3583	3583	3583	3583	3583	3583	3546	3546	3546	3546	3546	3546	3583	3546	3583	3546	3546	3621	3583	3583	3583	3546	3546	3510	3510	3510	3510	0	0	0	0	0	0	0	0	0	0	0	0	0	0	0	0	0	0	0	0	0	0	0	0	0	0	0	0	0	0	0	0	0	0	0
0	0	0	0	0	0	0	0	0	0	1525	1519	1519	1519	1519	1512	1519	1525	1525	1525	1532	1532	1525	1532	1525	1525	1519	1519	1519	1525	1519	1525	1525	1532	1525	1525	1525	1525	1525	1525	1519	1519	1525	1525	1525	1525	1525	1525	1519	1519	1519	1519	1519	1519	1519	1519	1519	1519	1519	1519	1519	1519	1519	1519	1519	1519	1519	1512	1512	1512	1512	1512	1512	1512	1512	1512	1519	1525	1519	1525	1532	1532	1546	1560	1560	1539	1539	2076	2076	2101	2101	2114	2114	2114	2114	2114	2101	2101	2101	2101	2101	2101	2101	2101	2101	2101	2101	2101	2101	2114	2114	2114	2114	2114	2114	2114	2114	2114	2114	2114	2114	2114	2101	2101	2114	2114	2114	2114	2114	2114	2101	2101	0	0	0	0	0	0	0	2088	2101	2114	2153	2140	2140	2140	2140	2127	2127	2127	2127	2127	2127	2114	2114	2114	2114	2114	2114	2114	2127	2127	2127	2127	2127	2140	2140	2140	2140	2153	2167	2167	2167	2167	2609	2609	2609	2609	2589	2589	2589	2589	2589	2589	2589	2589	2609	2609	2609	2589	2589	3510	3510	3510	3510	3510	3510	3475	3510	3510	3510	3475	3510	3510	3546	3510	3546	3546	3621	3621	3659	3659	3659	3659	3659	3659	3659	3698	3698	3659	3659	3659	3698	3659	3659	3659	3659	3659	3659	3698	3698	3698	3698	3698	3698	3698	3698	3698	3698	3698	3659	3659	3659	3698	3698	3698	3698	3698	3698	3698	3698	3698	3698	3698	3698	3698	3698	3698	3698	3698	3738	3738	3738	3738	3738	3738	3738	3738	3738	3738	3698	3738	3738	3698	3698	3698	3738	3738	3738	3698	3698	3738	3738	3738	3738	3738	3738	3738	3738	3738	3738	3738	3738	3738	3738	3738	3738	3738	3738	3698	3738	3698	3698	3698	3698	3698	3738	3698	3698	3698	3698	3698	3698	3698	3698	3738	3738	3738	3738	3738	3738	3698	3698	3698	3698	3698	3698	3698	3698	3738	3738	3738	3738	3738	3738	3738	3738	3738	3738	3738	3738	3738	3738	3738	3738	3738	3738	3738	3698	3698	3698	3698	3698	3659	3659	3073	3073	3101	3101	3129	3101	3101	3129	3101	3129	3101	3101	3101	3101	3129	3129	3101	3101	3129	3101	3101	3101	3101	3101	3101	3101	3101	3101	3129	3129	3129	3129	3698	3698	3698	3698	3698	3698	3698	3659	3659	3659	3698	3659	3698	3659	3659	3659	3659	3659	3659	3659	3659	3659	3659	3659	3659	3659	3659	3659	3621	3621	3621	3621	3621	3621	3621	3621	3621	3621	3698	3659	3659	3659	3659	3659	3659	3659	3659	3659	3621	3659	3659	3659	3659	3659	3659	3659	3659	3659	3659	3659	3621	3621	3659	3659	3659	3659	3659	3659	3659	3659	3659	3659	3659	3659	3659	3659	3659	3659	3659	3659	3659	3659	3659	3659	3659	3659	3659	3659	3659	3659	3659	3659	3659	3659	3698	3698	3659	3659	3659	3698	3698	3698	3698	3698	3698	3659	3659	3659	3659	3659	3621	3659	3659	3659	3659	3659	3659	3659	3659	3659	3659	3659	3698	3698	3698	3659	3659	3659	3659	3659	3621	3621	3621	3621	3621	3583	3583	3621	3659	3621	3621	3621	3659	3621	3621	3621	3621	3621	3659	3621	3659	3659	3698	3659	3659	3659	3621	3621	3621	3621	3621	3621	3621	3621	3621	3621	3621	3621	3621	3621	3621	3659	3659	3659	3659	3659	3621	3621	3621	3583	3583	3583	3583	3583	3583	3583	3546	3546	3546	3583	3583	3583	3583	3583	3583	3583	3583	3583	3583	3583	3583	3546	3546	3583	3546	3546	3546	3583	3583	3583	3583	3583	3546	3546	3546	3510	3510	3510	0	0	0	0	0	0	0	0	0	0	0	0	0	0	0	0	0	0	0	0	0	0	0	0	0	0	0	0	0	0	0	0	0	0	0
0	0	0	0	0	0	0	0	0	0	1519	1519	1519	1519	1519	1519	1519	1525	1525	1525	1532	1532	1532	1532	1525	1525	1519	1519	1512	1519	1519	1519	1525	1525	1525	1525	1525	1525	1525	1525	1525	1519	1525	1525	1525	1525	1519	1525	1519	1519	1519	1519	1519	1519	1519	1512	1519	1519	1519	1519	1519	1519	1519	1519	1519	1519	1519	1519	1519	1512	1512	1512	1512	1512	1512	1512	1519	1519	1525	1519	1525	1525	1546	1560	1560	0	0	2088	2088	2101	2114	2127	2127	2127	2127	2114	2114	2114	2114	2114	2114	2114	2114	2114	2114	2114	2114	2114	2114	2114	2114	2114	2127	2127	2127	2127	2127	2114	2114	2114	2114	2114	2114	2114	2114	2114	2127	2127	2127	2127	2114	2114	0	0	0	0	0	0	0	2114	2127	2127	2140	2140	2140	2153	2140	2140	2140	2140	2140	2127	2127	2127	2127	2127	2114	2114	2101	2114	2114	2114	2114	2127	2127	2127	2140	2140	2140	2140	2140	2167	2167	2181	2181	2609	2609	2609	2609	2609	2589	2589	2589	2589	2589	2589	2609	2609	2609	2609	3546	3510	3510	3510	3510	3475	3475	3475	3510	3475	3475	3475	3475	3475	3546	3510	3510	3546	3621	3621	3659	3659	3659	3659	3659	3659	3659	3698	3698	3698	3698	3659	3698	3659	3659	3659	3659	3659	3698	3698	3698	3698	3698	3698	3698	3698	3698	3698	3698	3698	3698	3698	3698	3698	3698	3698	3698	3698	3698	3698	3698	3698	3698	3698	3698	3698	3698	3698	3698	3698	3738	3698	3698	3698	3698	3698	3738	3738	3738	3738	3698	3738	3738	3698	3698	3738	3738	3738	3738	3738	3698	3738	3738	3738	3738	3738	3698	3738	3738	3738	3738	3738	3738	3738	3738	3738	3738	3738	3738	3698	3698	3698	3698	3698	3698	3698	3738	3738	3738	3738	3698	3698	3698	3698	3698	3738	3738	3738	3738	3738	3738	3698	3698	3698	3698	3698	3738	3738	3698	3738	3738	3738	3738	3738	3738	3738	3738	3738	3738	3738	3738	3738	3738	3738	3738	3738	3738	3738	3698	3698	3698	3659	3659	3659	3659	3073	3073	3101	3101	3129	3129	3101	3101	3101	3129	3101	3101	3101	3101	3129	3129	3129	3101	3129	3129	3129	3101	3101	3101	3101	3101	3101	3101	3101	3101	3101	3101	3698	3698	3698	3698	3698	3698	3698	3659	3659	3659	3659	3659	3659	3659	3659	3698	3659	3659	3659	3659	3659	3659	3659	3659	3659	3659	3659	3659	3621	3621	3621	3621	3621	3621	3621	3621	3621	3621	3659	3659	3659	3659	3659	3659	3659	3659	3659	3621	3621	3621	3659	3659	3659	3659	3659	3659	3659	3659	3659	3659	3621	3659	3621	3659	3659	3659	3659	3659	3659	3659	3659	3659	3659	3659	3659	3659	3659	3659	3659	3659	3659	3659	3659	3659	3659	3659	3659	3659	3659	3659	3659	3659	3659	3659	3659	3698	3659	3659	3659	3698	3659	3659	3659	3659	3659	3659	3659	3659	3659	3659	3659	3659	3659	3659	3659	3659	3659	3659	3659	3659	3659	3659	3659	3698	3698	3659	3659	3621	3659	3621	3621	3621	3621	3621	3621	3621	3621	3621	3659	3621	3621	3621	3621	3621	3621	3621	3621	3621	3659	3621	3698	3698	3698	3659	3698	3659	3659	3621	3621	3621	3621	3621	3621	3621	3621	3621	3621	3621	3621	3621	3621	3659	3621	3659	3621	3621	3621	3621	3621	3621	3621	3583	3583	3583	3583	3583	3546	3546	3546	3583	3583	3583	3583	3583	3583	3583	3583	3583	3583	3583	3583	3546	3546	3546	3583	3583	3546	3621	3583	3583	3583	3583	3510	3546	3546	3510	3510	3510	0	0	0	0	0	0	0	0	0	0	0	0	0	0	0	0	0	0	0	0	0	0	0	0	0	0	0	0	0	0	0	0	0	0	0
0	0	0	0	0	0	0	0	0	0	1525	1525	1519	1519	1525	1519	1525	1525	1525	1525	1525	1525	1525	1525	1525	1519	1512	1512	1512	1512	1519	1519	1525	1525	1519	1519	1519	1519	1519	1519	1519	1519	1519	1525	1525	1525	1525	1525	1519	1519	1519	1519	1519	1519	1519	1519	1519	1519	1519	1519	1519	1519	1519	1519	1519	1519	1519	1512	1512	1512	1512	1512	1512	1512	1512	1512	1519	1525	1525	1525	1525	1539	1553	1560	1560	1560	0	2088	2088	2101	2127	2127	2140	2140	2140	2127	2140	2127	2127	2127	2127	2127	2127	2127	2127	2114	2127	2114	2127	2127	2127	2127	2140	2127	2127	2140	2127	2127	2127	2127	2114	2114	2114	2114	2114	2114	2127	2127	2127	2127	2153	2153	0	0	0	0	0	0	0	2140	2140	2153	2153	2153	2140	2153	2153	2153	2140	2140	2153	2140	2140	2127	2127	2127	2127	2114	2114	2114	2114	2114	2114	2114	2127	2127	2127	2127	2127	2140	2140	2153	2167	2167	2167	2167	2167	2609	2589	2589	2589	2589	2589	2589	2589	2589	2609	2609	2629	2609	2609	3510	3510	3510	3510	3475	3475	3475	3510	3475	3475	3475	3475	3475	3510	3510	3510	3546	3621	3621	3659	3659	3659	3659	3659	3659	3659	3659	3698	3698	3698	3698	3698	3659	3659	3659	3659	3659	3698	3698	3698	3698	3698	3698	3698	3698	3698	3698	3698	3698	3698	3698	3698	3698	3698	3698	3698	3698	3698	3698	3698	3698	3698	3698	3698	3698	3698	3698	3698	3698	3738	3738	3738	3738	3698	3698	3738	3738	3738	3738	3738	3738	3738	3698	3698	3738	3698	3698	3698	3698	3698	3698	3698	3738	3738	3738	3698	3738	3738	3738	3698	3738	3738	3738	3738	3738	3738	3738	3738	3738	3698	3698	3698	3698	3698	3698	3698	3698	3738	3738	3698	3698	3698	3698	3698	3738	3738	3738	3738	3738	3738	3738	3738	3738	3738	3738	3738	3738	3738	3738	3738	3738	3738	3738	3738	3738	3738	3738	3738	3738	3738	3738	3738	3738	3738	3738	3738	3738	3698	3698	3698	3698	3698	3698	3698	3101	3101	3101	3101	3129	3129	3129	3129	3129	3129	3129	3101	3101	3101	3129	3129	3129	3101	3129	3101	3101	3101	3101	3101	3101	3101	3101	3101	3101	3101	3101	3101	3698	3698	3698	3698	3698	3698	3698	3659	3659	3659	3659	3659	3698	3698	3659	3698	3659	3659	3659	3659	3659	3659	3659	3659	3659	3659	3659	3659	3621	3621	3621	3621	3621	3621	3621	3621	3621	3621	3698	3659	3659	3659	3659	3659	3659	3659	3659	3659	3621	3621	3621	3621	3621	3659	3659	3659	3659	3659	3659	3659	3659	3659	3659	3659	3659	3659	3659	3659	3659	3659	3659	3659	3659	3621	3659	3659	3659	3659	3659	3659	3659	3659	3659	3659	3659	3659	3659	3659	3659	3659	3659	3621	3621	3621	3698	3659	3659	3659	3659	3659	3659	3659	3659	3659	3659	3659	3659	3659	3659	3659	3621	3659	3659	3659	3659	3659	3659	3659	3659	3659	3659	3659	3698	3698	3698	3698	3659	3659	3621	3621	3621	3621	3583	3583	3621	3583	3583	3621	3621	3621	3621	3621	3621	3621	3621	3621	3621	3621	3659	3621	3698	3659	3659	3659	3698	3659	3659	3621	3621	3621	3621	3621	3621	3621	3621	3621	3621	3621	3621	3621	3621	3621	3621	3621	3621	3621	3621	3621	3621	3621	3621	3583	3583	3583	3583	3583	3583	3546	3546	3583	3583	3583	3583	3583	3583	3583	3546	3510	3546	3546	3546	3546	3546	3546	3546	3583	3546	3583	3510	3621	3583	3510	3510	3510	3510	3510	3510	3510	0	0	0	0	0	0	0	0	0	0	0	0	0	0	0	0	0	0	0	0	0	0	0	0	0	0	0	0	0	0	0	0	0	0	0
0	0	0	0	0	0	0	0	0	0	1519	1519	1519	1519	1519	1519	1519	1525	1525	1525	1525	1525	1525	1525	1525	1519	1512	1512	1506	1506	1512	1519	1519	1525	1519	1525	1519	1519	1519	1519	1519	1519	1525	1525	1525	1525	1525	1525	1519	1519	1525	1519	1519	1519	1519	1512	1519	1519	1512	1512	1519	1512	1512	1519	1519	1519	1519	1512	1512	1512	1512	1512	1512	1512	1512	1512	1519	1525	1525	1525	1532	1539	1546	1553	1560	1560	0	0	2114	2127	2140	2153	2153	2153	2153	2140	2140	2140	2140	2140	2140	2140	2140	2140	2140	2140	2140	2140	2127	2140	2140	2140	2140	2140	2127	2140	2127	2127	2127	2127	2114	2114	2114	2114	2114	2127	2127	2140	2140	2140	2153	2153	0	0	0	0	0	0	0	2153	2153	2153	2153	2153	2153	2153	2153	2167	2153	2153	2153	2140	2140	2127	2127	2127	2127	2114	2114	2114	2127	2127	2127	2127	2127	2127	2127	2127	2127	2127	2140	2140	2153	2167	2167	2167	2167	2167	2589	2589	2589	2589	2589	2589	2589	2589	2609	2609	2629	2629	3546	3510	3510	3510	3510	3475	3475	3475	3510	3475	3475	3475	3475	3510	3510	3510	3546	3583	3621	3659	3659	3659	3659	3659	3659	3659	3659	3698	3698	3698	3698	3698	3698	3659	3659	3659	3659	3659	3659	3659	3659	3698	3698	3698	3698	3698	3698	3698	3698	3698	3698	3698	3698	3698	3698	3698	3698	3698	3698	3698	3698	3698	3698	3698	3698	3698	3698	3698	3698	3698	3738	3738	3738	3738	3738	3698	3698	3738	3738	3738	3738	3738	3738	3698	3698	3738	3698	3738	3738	3698	3698	3738	3698	3738	3698	3738	3698	3738	3698	3698	3698	3698	3738	3738	3738	3738	3738	3738	3738	3738	3698	3698	3698	3698	3698	3698	3698	3698	3698	3698	3698	3698	3698	3698	3698	3738	3738	3738	3738	3738	3738	3738	3738	3738	3738	3738	3738	3738	3738	3738	3738	3738	3738	3738	3738	3738	3738	3738	3738	3738	3738	3738	3738	3738	3738	3698	3698	3698	3698	3698	3698	3698	3698	3738	3738	3101	3101	3101	3101	3129	3129	3129	3129	3129	3157	3157	3129	3129	3101	3129	3129	3129	3129	3129	3129	3129	3101	3101	3101	3101	3101	3101	3101	3101	3101	3101	0	3698	3738	3698	3698	3698	3698	3698	3698	3659	3659	3659	3659	3698	3698	3659	3659	3659	3659	3659	3659	3659	3659	3659	3659	3659	3659	3659	3659	3659	3621	3621	3621	3659	3621	3659	3621	3659	3659	3698	3659	3659	3659	3659	3659	3659	3659	3659	3659	3621	3659	3621	3621	3659	3659	3659	3659	3659	3659	3659	3659	3659	3659	3621	3621	3659	3659	3659	3659	3659	3659	3659	3659	3659	3621	3659	3621	3659	3659	3659	3659	3659	3659	3659	3659	3659	3659	3659	3659	3621	3621	3621	3621	3621	3621	3659	3659	3659	3659	3659	3659	3659	3659	3659	3659	3698	3659	3698	3659	3698	3659	3659	3659	3659	3659	3659	3621	3659	3659	3659	3659	3659	3659	3659	3659	3659	3659	3659	3621	3621	3659	3621	3621	3583	3583	3621	3583	3583	3583	3621	3621	3621	3621	3621	3621	3621	3621	3621	3621	3621	3621	3659	3659	3659	3659	3698	3659	3659	3621	3621	3621	3621	3621	3621	3621	3621	3621	3621	3621	3621	3621	3621	3621	3621	3621	3621	3621	3621	3621	3621	3621	3621	3583	3583	3583	3583	3583	3583	3546	3583	3583	3583	3583	3583	3583	3583	3583	3546	3546	3546	3583	3583	3546	3546	3546	3583	3546	3546	3510	3510	3546	3546	3510	3546	3546	3546	3546	3510	3510	0	0	0	0	0	0	0	0	0	0	0	0	0	0	0	0	0	0	0	0	0	0	0	0	0	0	0	0	0	0	0	0	0	0	0
0	0	0	0	0	0	0	0	0	0	1519	1519	1512	1512	1512	1512	1512	1512	1512	1519	1519	1519	1519	1519	1519	1512	1512	1512	1506	1512	1519	1519	1519	1519	1519	1519	1519	1519	1519	1519	1519	1519	1519	1525	1525	1525	1525	1532	1525	1525	1525	1525	1519	1525	1519	1512	1519	1512	1512	1512	1512	1512	1512	1519	1519	1519	1519	1512	1512	1512	1512	1512	1506	1512	1506	1512	1519	1525	1525	1525	1532	1539	1546	1546	1560	1560	1560	0	2114	2140	2167	2153	2167	2153	2153	2153	2153	2153	2153	2153	2153	2153	2153	2153	2153	2153	2153	2153	2140	2140	2140	2140	2140	2140	2140	2140	2127	2127	2140	2127	2127	2127	2114	2127	2127	2127	2140	2153	2153	2153	2167	2167	0	0	0	0	0	0	0	2153	2153	2153	2153	2153	2153	2167	2167	2167	2167	2153	2153	2140	2140	2127	2127	2127	2127	2127	2114	2127	2127	2127	2127	2127	2127	2127	2127	2140	2127	2140	2140	2153	2153	2167	2153	2153	2167	2167	2609	2609	2589	2589	2589	2589	2589	2589	2609	2609	2629	2629	3510	3510	3510	3510	3475	3475	3475	3510	3510	3475	3475	3475	3475	3510	3546	3546	3546	3583	3621	3659	3659	3659	3659	3659	3659	3659	3659	3698	3698	3698	3698	3698	3698	3698	3659	3659	3659	3659	3659	3659	3659	3659	3659	3659	3659	3698	3698	3698	3698	3698	3698	3698	3698	3698	3698	3698	3698	3659	3698	3698	3698	3698	3698	3698	3698	3698	3698	3698	3698	3698	3738	3698	3698	3698	3698	3698	3698	3738	3738	3738	3738	3738	3738	3698	3698	3738	3738	3738	3738	3738	3698	3738	3738	3698	3698	3698	3698	3698	3698	3698	3698	3698	3698	3738	3738	3738	3738	3738	3698	3738	3698	3698	3698	3698	3698	3698	3698	3698	3698	3698	3698	3698	3698	3698	3698	3738	3738	3738	3738	3738	3738	3738	3738	3738	3738	3738	3738	3738	3738	3738	3738	3738	3738	3738	3738	3738	3738	3738	3738	3738	3738	3738	3738	3738	3738	3698	3698	3698	3698	3698	3698	3738	3738	3738	3738	0	3101	3101	3101	3157	3129	3157	3157	3157	3186	3157	3157	3129	3129	3129	3129	3129	3129	3129	3129	3129	3101	3129	3101	3101	3101	3101	3101	3101	3101	3101	3101	3698	3698	3698	3698	3738	3698	3698	3698	3659	3659	3659	3659	3698	3698	3698	3659	3659	3659	3659	3659	3659	3659	3659	3659	3659	3659	3659	3659	3659	3621	3621	3621	3621	3621	3659	3621	3621	3659	3698	3698	3698	3659	3659	3659	3659	3659	3659	3659	3621	3659	3621	3659	3659	3659	3659	3659	3659	3659	3659	3659	3659	3621	3621	3621	3659	3659	3659	3659	3659	3659	3659	3659	3659	3659	3659	3621	3621	3621	3659	3621	3659	3659	3659	3659	3659	3659	3621	3621	3621	3621	3621	3621	3621	3621	3698	3659	3659	3659	3659	3659	3659	3659	3659	3698	3698	3698	3698	3698	3698	3698	3659	3659	3659	3659	3659	3621	3621	3621	3621	3621	3621	3621	3659	3659	3659	3659	3659	3621	3621	3659	3621	3621	3583	3583	3583	3583	3583	3583	3583	3621	3621	3621	3621	3621	3621	3621	3621	3621	3621	3621	3659	3659	3659	3659	3698	3621	3621	3621	3621	3621	3621	3621	3621	3621	3621	3621	3621	3621	3621	3621	3621	3621	3621	3621	3621	3621	3621	3621	3621	3621	3621	3583	3583	3583	3583	3583	3546	3546	3583	3583	3583	3583	3583	3583	3583	3583	3583	3583	3583	3583	3583	3546	3546	3546	3546	3546	3510	3510	3510	3546	3546	3546	3546	3546	3546	3546	3546	3546	0	0	0	0	0	0	0	0	0	0	0	0	0	0	0	0	0	0	0	0	0	0	0	0	0	0	0	0	0	0	0	0	0	0	0
0	0	0	0	0	0	0	0	0	0	1519	1519	1512	1512	1512	1512	1512	1512	1512	1512	1519	1519	1519	1519	1519	1512	1519	1512	1506	1512	1512	1512	1519	1519	1519	1519	1519	1525	1519	1519	1519	1519	1525	1525	1525	1532	1532	1532	1525	1525	1525	1525	1519	1519	1512	1512	1512	1512	1512	1512	1519	1512	1512	1519	1519	1519	1512	1512	1512	1512	1512	1512	1512	1512	1512	1512	1519	1519	1525	1525	1532	1539	1546	1553	1560	1560	1560	0	0	2153	2167	2167	2167	2167	2167	2153	2167	2153	2153	2153	2167	2167	2167	2167	2167	2167	2167	2167	2153	2153	2153	2153	2153	2153	2153	2140	2140	2140	2140	2140	2140	2140	2140	2140	2140	2153	2153	2167	2153	2167	2167	2167	2167	0	0	0	0	0	2167	2167	2167	2167	2167	2167	2167	2181	2167	2167	2167	2167	2153	2153	2140	2140	2127	2127	2127	2127	2127	2127	2127	2127	2127	2127	2127	2127	2127	2127	2127	2140	2140	2140	2153	2153	2153	2153	2167	2167	2589	2589	2589	2589	2589	2589	2589	2589	2609	2609	2629	2629	3510	3510	3510	3475	3475	3475	3475	3475	3475	3475	3475	3475	3475	3510	3546	3546	3546	3583	3621	3659	3659	3659	3659	3659	3659	3659	3659	3659	3659	3659	3659	3698	3698	3659	3659	3659	3659	3659	3659	3659	3659	3659	3659	3659	3659	3698	3698	3698	3698	3698	3698	3698	3698	3698	3698	3698	3698	3698	3698	3698	3698	3698	3698	3698	3698	3698	3698	3698	3698	3698	3738	3698	3698	3698	3738	3698	3698	3738	3738	3738	3738	3738	3738	3738	3738	3738	3738	3738	3738	3738	3738	3738	3738	3698	3698	3698	3698	3698	3698	3698	3698	3698	3698	3698	3698	3698	3698	3698	3698	3698	3698	3698	3698	3698	3698	3698	3698	3698	3698	3698	3698	3698	3698	3698	3698	3738	3738	3738	3738	3738	3738	3738	3738	3738	3738	3738	3738	3738	3738	3738	3738	3738	3738	3738	3738	3738	3738	3738	3738	3738	3738	3738	3738	3698	3698	3698	3698	3698	3698	3698	3698	3738	3779	3779	3821	3821	3101	3101	3101	3157	3129	3157	3157	3186	3186	3186	3157	3129	3129	3157	3129	3129	3129	3129	3129	3129	3129	3129	3101	3101	3101	3101	3101	3101	3101	3101	3101	3698	3738	3698	3698	3698	3698	3698	3698	3659	3659	3659	3659	3659	3698	3659	3659	3659	3659	3659	3659	3659	3659	3659	3659	3659	3659	3659	3659	3621	3621	3621	3621	3621	3621	3659	3621	3621	3659	3698	3698	3698	3659	3659	3659	3659	3659	3659	3659	3659	3621	3621	3659	3659	3659	3659	3659	3659	3659	3659	3659	3659	3621	3621	3621	3621	3659	3659	3659	3659	3659	3659	3659	3659	3659	3659	3621	3621	3621	3621	3621	3659	3659	3659	3659	3659	3621	3621	3621	3621	3621	3621	3621	3621	3659	3698	3659	3659	3659	3659	3659	3659	3659	3659	3698	3698	3698	3698	3698	3698	3698	3659	3659	3659	3659	3621	3621	3621	3621	3621	3621	3621	3621	3621	3621	3621	3659	3659	3659	3621	3659	3621	3583	3583	3583	3583	3583	3546	3546	3583	3583	3621	3621	3621	3621	3621	3659	3621	3659	3659	3659	3659	3659	3659	3621	3659	3621	3659	3621	3621	3621	3621	3621	3621	3621	3621	3621	3621	3621	3621	3621	3621	3621	3621	3621	3621	3621	3621	3621	3621	3621	3621	3583	3583	3583	3583	3583	3583	3583	3583	3583	3583	3583	3583	3583	3583	3583	3583	3583	3583	3583	3583	3546	3546	3546	3546	3546	3510	3546	3510	3546	3546	3546	3546	3546	3546	3546	3546	3546	0	0	0	0	0	0	0	0	0	0	0	0	0	0	0	0	0	0	0	0	0	0	0	0	0	0	0	0	0	0	0	0	0	0	0
0	0	0	0	0	0	0	0	0	0	1519	1519	1512	1512	1512	1512	1512	1512	1512	1512	1519	1519	1519	1519	1519	1512	1519	1512	1506	1506	1512	1512	1519	1512	1519	1519	1519	1525	1519	1519	1519	1519	1519	1525	1525	1525	1525	1525	1519	1519	1519	1519	1512	1519	1512	1512	1512	1512	1512	1512	1519	1512	1512	1512	1512	1512	1512	1512	1512	1512	1512	1512	1512	1512	1512	1512	1512	1519	1525	1519	1525	1539	1546	1546	1553	1560	1560	0	0	2167	2167	2167	2167	2167	2167	2167	2167	2167	2167	2167	2167	2167	2167	2167	2167	2181	2181	2181	2181	2167	2167	2167	2167	2153	2153	2153	2153	2153	2153	2153	2153	2153	2153	2153	2153	2153	2167	2167	2167	2167	2167	2181	2181	0	0	0	0	0	2167	2167	2167	2167	2167	2167	2167	2181	2181	2181	2167	2167	2167	2153	2167	2167	2140	2140	2140	2140	2127	2140	2140	2140	2127	2127	2127	2127	2127	2127	2127	2140	2140	2140	2140	2153	2153	2153	2167	2167	2589	2589	2589	2589	2570	2589	2570	2570	2589	2589	2589	2589	3510	3475	3475	3475	3475	3475	3475	3475	3475	3475	3475	3510	3475	3510	3546	3546	3546	3583	3621	3621	3621	3659	3659	3659	3659	3659	3659	3659	3659	3659	3659	3698	3698	3698	3659	3659	3659	3659	3659	3659	3659	3659	3659	3659	3659	3698	3698	3698	3698	3698	3698	3698	3698	3698	3698	3698	3698	3698	3698	3698	3698	3698	3698	3698	3698	3698	3698	3659	3659	3698	3698	3698	3698	3698	3698	3698	3698	3738	3738	3738	3738	3738	3738	3738	3738	3738	3738	3738	3738	3738	3738	3738	3698	3698	3698	3698	3698	3698	3698	3698	3698	3698	3698	3698	3698	3698	3698	3698	3698	3698	3698	3698	3698	3698	3698	3698	3698	3698	3698	3698	3698	3698	3698	3698	3698	3738	3738	3738	3738	3738	3738	3738	3738	3738	3738	3738	3738	3738	3738	3738	3738	3738	3738	3738	3738	3738	3738	3738	3738	3738	3738	3738	3698	3698	3698	3698	3698	3698	3698	3698	3698	3738	3738	3738	3821	3821	3101	3101	3101	3157	3129	3129	3129	3186	3186	3186	3186	3157	3157	3157	3157	3157	3129	3129	3129	3129	3129	3129	3129	3129	3129	3129	3129	3129	3129	3129	3129	0	3698	3698	3698	3698	3698	3659	3659	3659	3659	3659	3698	3698	3698	3698	3659	3659	3659	3659	3659	3659	3659	3659	3659	3659	3659	3659	3659	3621	3621	3621	3621	3621	3621	3659	3621	3621	3659	3659	3698	3659	3659	3659	3659	3659	3659	3659	3659	3659	3659	3659	3659	3659	3659	3659	3659	3659	3659	3659	3659	3659	3659	3621	3621	3621	3659	3659	3659	3659	3659	3659	3659	3659	3659	3621	3621	3621	3621	3621	3621	3621	3621	3659	3659	3659	3659	3621	3621	3621	3621	3621	3621	3621	3659	3659	3659	3659	3659	3659	3659	3659	3621	3659	3659	3659	3698	3698	3698	3698	3698	3698	3659	3659	3659	3659	3621	3621	3621	3621	3621	3621	3621	3621	3621	3621	3621	3621	3621	3621	3621	3621	3621	3583	3583	3583	3583	3583	3546	3583	3583	3583	3583	3583	3621	3659	3659	3659	3621	3621	3621	3659	3659	3621	3621	3659	3621	3621	3621	3621	3621	3621	3621	3621	3621	3621	3621	3621	3621	3621	3621	3621	3621	3621	3621	3621	3621	3621	3621	3621	3621	3583	3583	3583	3583	3583	3583	3583	3583	3583	3583	3583	3583	3583	3583	3621	3583	3583	3583	3583	3583	3583	3546	3546	3546	3546	3510	3510	3546	3510	3510	3546	3546	3583	3583	3583	3583	3546	3546	0	0	0	0	0	0	0	0	0	0	0	0	0	0	0	0	0	0	0	0	0	0	0	0	0	0	0	0	0	0	0	0	0	0	0
0	0	0	0	0	0	0	0	0	0	1519	1519	1512	1512	1512	1512	1512	1512	1512	1512	1519	1519	1519	1519	1519	1512	1519	1512	1506	1506	1512	1512	1519	1512	1519	1519	1519	1525	1519	1512	1512	1512	1519	1519	1519	1519	1519	1525	1519	1519	1519	1519	1512	1519	1512	1512	1519	1512	1512	1519	1519	1512	1512	1512	1512	1512	1512	1512	1512	1512	1512	1512	1512	1512	1512	1512	1512	1519	1525	1525	1525	1532	1539	1546	1546	1546	1560	0	2181	2181	2181	2181	2181	2181	2181	2181	2181	2181	2181	2181	2181	2181	2181	2181	2181	2181	2194	2194	2194	2181	2167	2167	2167	2167	2167	2167	2167	2167	2167	2167	2167	2167	2153	2167	2167	2181	2181	2181	2181	2181	2181	2181	2181	0	1969	1958	1958	0	2181	2181	2194	2181	2181	2181	2181	2181	2181	2181	2167	2167	2167	2167	2167	2167	2153	2153	2140	2140	2140	2140	2140	2140	2127	2127	2140	2127	2140	2140	2140	2140	2140	2153	2153	2167	2153	2167	2153	2153	2153	2589	2589	2570	2570	2589	2570	2570	2570	2589	2589	2589	3510	3475	3475	3475	3475	3475	3475	3475	3475	3475	3475	3475	3475	3510	3510	3546	3546	3583	3583	3659	3659	3659	3659	3659	3659	3659	3659	3659	3659	3698	3698	3698	3698	3698	3659	3659	3659	3659	3659	3659	3659	3659	3659	3659	3698	3698	3698	3698	3698	3698	3698	3698	3698	3698	3698	3698	3698	3698	3698	3698	3698	3698	3698	3698	3698	3698	3698	3698	3659	3698	3698	3738	3738	3698	3738	3698	3698	3738	3738	3698	3698	3738	3738	3738	3738	3738	3738	3738	3738	3738	3738	3738	3738	3698	3698	3698	3698	3698	3698	3698	3698	3698	3698	3698	3698	3698	3698	3698	3698	3698	3698	3698	3698	3698	3698	3698	3698	3698	3698	3698	3698	3698	3698	3698	3698	3738	3738	3738	3738	3738	3738	3738	3738	3738	3738	3738	3738	3738	3738	3738	3738	3738	3738	3738	3738	3738	3738	3738	3738	3738	3738	3738	3698	3698	3698	3659	3659	3659	3698	3698	3698	3738	3738	3738	3738	3821	3101	3101	3101	3157	3129	3157	3157	3186	3216	3186	3186	3186	3157	3186	3157	3157	3157	3157	3129	3129	3129	3129	3129	3129	3129	3129	3129	3129	3129	3129	3129	0	3698	3698	3698	3698	3659	3659	3659	3659	3659	3659	3698	3698	3698	3698	3659	3659	3659	3659	3659	3659	3659	3659	3659	3659	3659	3659	3659	3621	3621	3621	3621	3621	3621	3621	3621	3621	3659	3698	3698	3659	3659	3659	3659	3659	3659	3659	3659	3659	3621	3659	3659	3659	3659	3659	3659	3659	3659	3659	3659	3659	3659	3621	3621	3621	3659	3659	3659	3659	3659	3659	3659	3659	3659	3621	3621	3583	3583	3621	3621	3621	3621	3621	3659	3659	3659	3621	3621	3621	3621	3621	3621	3621	3621	3659	3659	3659	3621	3659	3659	3659	3621	3659	3659	3659	3698	3659	3659	3659	3698	3659	3659	3659	3621	3659	3621	3621	3621	3621	3621	3621	3621	3621	3621	3621	3621	3621	3621	3621	3621	3621	3621	3583	3583	3583	3583	3583	3583	3583	3583	3583	3583	3583	3621	3659	3659	3621	3659	3621	3621	3659	3621	3621	3621	3621	3621	3659	3621	3621	3621	3621	3621	3621	3621	3621	3621	3621	3621	3621	3621	3621	3621	3621	3621	3621	3583	3621	3621	3621	3583	3583	3583	3583	3583	3583	3583	3583	3583	3583	3583	3583	3583	3583	3583	3583	3583	3583	3546	3546	3546	3583	3546	3546	3546	3546	3546	3510	3546	3546	3510	3546	3546	3546	3583	3583	3583	3546	3546	0	0	0	0	0	0	0	0	0	0	0	0	0	0	0	0	0	0	0	0	0	0	0	0	0	0	0	0	0	0	0	0	0	0	0
0	0	0	0	0	0	0	0	1219	1219	1219	1219	1512	1519	1512	1519	1519	1519	1519	1519	1519	1519	1519	1519	1512	1512	1512	1506	1506	1506	1506	1512	1519	1519	1525	1519	1519	1525	1512	1512	1512	1512	1512	1512	1519	1519	1519	1525	1519	1512	1519	1512	1512	1512	1512	1512	1512	1512	1512	1519	1519	1512	1512	1512	1512	1512	1512	1512	1512	1512	1512	1512	1506	1512	1506	1512	1512	1512	1519	1519	1525	1532	1539	1539	1546	1546	0	0	2194	2194	2194	2194	2194	2181	2181	2181	2194	2181	2181	2181	2181	2194	2194	2194	2194	2194	2194	2194	2194	2194	2181	2194	2181	2167	2181	2194	2194	2194	2181	2181	2181	2181	2167	2167	2167	2181	2181	2181	2194	2194	2194	2194	2181	0	1969	1958	1958	1958	2181	2194	2194	2181	2181	2181	2194	2208	2194	2194	2194	2194	2181	2181	2181	2181	2181	2167	2153	2140	2140	2140	2140	2140	2140	2140	2140	2127	2140	2140	2140	2153	2153	2153	2153	2167	2167	2167	2167	2167	2167	2589	2589	2570	2570	2570	2570	2570	2570	2570	2570	2570	3475	3475	3475	3475	3475	3475	3475	3475	3475	3475	3475	3475	3475	3510	3546	3546	3546	3583	3621	3621	3659	3659	3659	3659	3659	3659	3659	3659	3659	3698	3698	3698	3659	3659	3659	3659	3659	3659	3659	3659	3659	3659	3659	3698	3698	3698	3698	3698	3659	3698	3659	3659	3698	3698	3698	3698	3698	3698	3698	3698	3698	3698	3698	3698	3698	3698	3698	3659	3698	3698	3738	3738	3738	3698	3738	3698	3698	3698	3698	3698	3738	3738	3738	3738	3738	3738	3738	3738	3738	3738	3738	3738	3738	3738	3698	3738	3698	3698	3698	3698	3698	3698	3698	3698	3698	3698	3698	3698	3698	3698	3698	3698	3698	3698	3698	3698	3698	3698	3698	3698	3698	3698	3698	3698	3698	3738	3738	3738	3738	3738	3738	3738	3738	3738	3738	3779	3738	3738	3738	3738	3738	3738	3738	3738	3738	3738	3738	3738	3738	3738	3738	3698	3698	3698	3659	3659	3659	3659	3698	3698	3698	3738	3738	3738	3779	3779	3101	3101	3101	3157	3129	3157	3157	3186	3216	3216	3216	3186	3157	3186	3186	3157	3157	3157	3157	3157	3129	3157	3129	3129	3129	3129	3129	3129	3129	3157	3157	0	3659	3659	3659	3659	3659	3659	3659	3659	3621	3621	3621	3659	3659	3698	3659	3659	3659	3659	3659	3659	3659	3659	3659	3659	3659	3659	3659	3659	3621	3621	3659	3621	3659	3659	3659	3659	3621	3659	3659	3659	3659	3659	3659	3659	3659	3659	3659	3659	3659	3621	3621	3621	3659	3621	3659	3659	3698	3659	3659	3621	3621	3621	3621	3621	3659	3659	3659	3659	3659	3659	3659	3659	3621	3621	3621	3583	3621	3621	3621	3621	3659	3621	3659	3659	3659	3621	3621	3621	3583	3583	3583	3621	3621	3659	3659	3621	3659	3659	3659	3659	3659	3659	3659	3659	3698	3659	3659	3659	3698	3659	3659	3621	3621	3621	3583	3583	3621	3621	3621	3621	3621	3621	3621	3621	3621	3621	3621	3621	3621	3621	3621	3583	3583	3583	3583	3583	3583	3583	3583	3583	3583	3583	3621	3621	3659	3621	3621	3621	3621	3621	3659	3659	3621	3621	3621	3621	3621	3621	3621	3621	3621	3621	3621	3621	3621	3621	3621	3621	3621	3621	3621	3621	3621	3621	3621	3621	3621	3621	3621	3583	3583	3583	3583	3583	3583	3583	3583	3583	3583	3583	3583	3583	3583	3583	3583	3583	3546	3546	3546	3546	3546	3546	3546	3546	3546	3546	3583	3583	3546	3546	3546	3546	3546	3546	3583	3546	3546	0	0	0	0	0	0	0	0	0	0	0	0	0	0	0	0	0	0	0	0	0	0	0	0	0	0	0	0	0	0	0	0	0	0	0
0	0	0	0	0	0	0	0	1219	1223	1219	1223	1227	1227	1227	1519	1519	1519	1519	1519	1525	1525	1519	1519	1519	1519	1519	1512	1506	1506	1506	1512	1512	1512	1519	1519	1519	1519	1512	1512	1512	1506	1512	1512	1512	1512	1519	1519	1519	1512	1512	1512	1512	1512	1512	1519	1519	1519	1519	1519	1525	1519	1512	1512	1512	1512	1512	1512	1512	1512	1512	1512	1506	1512	1506	1506	1512	1512	1519	1519	1525	1532	1539	1539	1546	1546	1546	0	2194	2208	2194	2194	2194	2194	2194	2194	2194	2194	2194	2181	2181	2194	2194	2194	2194	2194	2208	2194	2208	2208	2208	2208	2208	2208	2208	2208	2208	2208	2194	2194	2194	2194	2181	2181	2181	2194	2194	2181	2194	2208	2194	2194	0	2312	1969	1958	1958	1958	1958	2208	2208	2194	2194	2194	2194	2208	2208	2208	2208	2223	2194	2194	2194	2208	2194	2181	2167	2153	2167	2153	2140	2140	2140	2140	2140	2140	2140	2153	2153	2153	2153	2153	2153	2167	2167	2167	2167	2167	2153	2153	2589	2570	2570	2570	2570	2570	2570	2570	2570	2589	2589	3475	3475	3475	3475	3475	3475	3475	3475	3475	3475	3510	3510	3510	3546	3546	3546	3546	3583	3621	3621	3659	3659	3659	3659	3659	3659	3659	3659	3698	3698	3698	3659	3659	3659	3659	3659	3659	3659	3659	3659	3659	3659	3698	3698	3698	3698	3698	3698	3698	3659	3659	3698	3698	3698	3698	3698	3698	3698	3698	3698	3698	3698	3698	3698	3698	3698	3659	3698	3698	3698	3738	3698	3698	3738	3738	3738	3738	3698	3698	3738	3738	3738	3738	3738	3738	3738	3738	3738	3738	3738	3738	3738	3738	3738	3738	3698	3698	3698	3698	3698	3698	3698	3698	3698	3698	3698	3698	3698	3698	3698	3698	3698	3698	3698	3698	3698	3698	3698	3698	3698	3698	3698	3698	3698	3738	3738	3738	3738	3738	3738	3738	3738	3738	3738	3738	3738	3738	3738	3698	3738	3738	3738	3738	3738	3738	3738	3738	3738	3738	3738	3698	3698	3698	3659	3659	3659	3659	3659	3659	3698	3698	3738	3698	3698	3779	0	3101	3129	3157	3157	3186	3186	3216	3216	3216	3216	3186	3157	3157	3186	3186	3186	3157	3157	3157	3157	3157	3157	3157	3157	3157	3129	3157	3157	3157	3157	3157	3659	3659	3698	3659	3659	3659	3659	3659	3659	3659	3659	3659	3659	3659	3659	3659	3659	3659	3659	3659	3659	3659	3659	3659	3659	3659	3659	3659	3659	3659	3659	3659	3659	3659	3659	3659	3659	3659	3659	3659	3659	3659	3659	3659	3659	3659	3659	3659	3659	3659	3659	3659	3659	3659	3659	3659	3659	3659	3659	3621	3621	3659	3659	3621	3621	3621	3659	3659	3659	3621	3621	3659	3659	3621	3621	3621	3621	3621	3621	3621	3659	3659	3659	3659	3659	3621	3621	3583	3583	3583	3583	3583	3621	3621	3621	3621	3659	3621	3621	3659	3659	3659	3659	3659	3698	3659	3659	3659	3659	3659	3621	3621	3583	3583	3583	3583	3621	3621	3621	3621	3621	3621	3621	3621	3583	3583	3621	3621	3621	3621	3583	3583	3583	3583	3583	3583	3583	3583	3583	3583	3583	3583	3621	3659	3659	3621	3621	3621	3621	3659	3659	3621	3621	3621	3621	3621	3621	3621	3621	3621	3621	3621	3621	3621	3621	3621	3621	3621	3621	3621	3621	3621	3621	3621	3621	3621	3621	3621	3583	3583	3583	3583	3583	3583	3583	3583	3583	3583	3583	3583	3583	3583	3583	3583	3583	3583	3546	3546	3546	3546	3546	3546	3546	3546	3546	3546	3546	3583	3546	3546	3546	3546	3583	3583	3621	3583	3583	0	0	0	0	0	0	0	0	0	0	0	0	0	0	0	0	0	0	0	0	0	0	0	0	0	0	0	0	0	0	0	0	0	0	0
0	0	0	0	0	0	0	0	1219	1219	1219	1219	1223	1223	1223	1223	1519	1525	1525	1525	1525	1525	1525	1519	1519	1519	1519	1512	1506	1506	1512	1512	1512	1519	1519	1519	1519	1519	1512	1512	1512	1506	1506	1512	1512	1512	1519	1519	1519	1512	1512	1512	1512	1512	1512	1512	1519	1512	1512	1519	1525	1519	1512	1512	1512	1512	1512	1512	1512	1512	1512	1512	1512	1512	1506	1506	1512	1512	1519	1519	1525	1532	1539	1539	1539	1539	1546	0	2194	2208	2194	2194	2194	2194	2208	2194	2208	2194	2194	2194	2194	2208	2208	2208	2208	2208	2208	2208	2208	2208	2208	2223	2208	2208	2223	2223	2223	2208	2194	2208	2208	2208	2194	2194	2181	2223	2194	2194	2194	2208	2208	2194	0	2327	2327	1958	1958	2297	2281	2266	2208	2208	2208	2208	2208	2223	2223	2237	2223	2237	2223	2208	2223	2223	2194	2194	2194	2181	2167	2153	2153	2140	2140	2140	2140	2140	2140	2153	2153	2153	2153	2153	2153	2167	2167	2167	2167	2167	2167	2167	2570	2570	2570	2570	2570	2570	2551	2551	2570	2570	2570	3475	3475	3475	3475	3475	3475	3475	3475	3475	3475	3510	3510	3510	3546	3546	3546	3546	3583	3583	3621	3659	3659	3659	3659	3659	3659	3659	3659	3698	3698	3698	3659	3659	3659	3659	3659	3659	3659	3659	3659	3659	3698	3698	3698	3698	3698	3698	3659	3659	3659	3659	3698	3698	3698	3698	3698	3698	3698	3698	3698	3698	3698	3698	3698	3698	3698	3698	3698	3698	3738	3738	3738	3698	3738	3738	3698	3738	3738	3698	3738	3738	3738	3738	3738	3738	3738	3738	3738	3738	3738	3738	3738	3738	3738	3738	3738	3738	3698	3698	3698	3698	3698	3698	3698	3698	3698	3698	3698	3698	3698	3698	3698	3698	3698	3698	3698	3698	3698	3698	3698	3698	3698	3659	3698	3698	3738	3738	3738	3738	3738	3738	3738	3738	3738	3698	3698	3738	3738	3698	3738	3738	3738	3738	3738	3698	3698	3698	3659	3698	3698	3698	3698	3698	3698	3698	3698	3698	3698	3659	3698	3698	3698	3698	3698	0	0	0	3129	3157	3157	3186	3186	3186	3216	3216	3186	3186	3186	3157	3186	3186	3186	3186	3186	3157	3157	3157	3157	3157	3157	3157	3129	3157	3157	3157	3157	3157	3698	3698	3698	3659	3659	3659	3659	3659	3659	3659	3659	3659	3659	3659	3659	3659	3659	3659	3659	3659	3659	3659	3659	3659	3659	3659	3659	3659	3659	3659	3659	3659	3659	3659	3659	3659	3659	3659	3659	3659	3659	3659	3659	3659	3659	3659	3659	3659	3659	3698	3659	3659	3659	3659	3659	3659	3659	3659	3659	3621	3621	3659	3659	3621	3621	3621	3621	3659	3659	3659	3659	3659	3659	3659	3659	3621	3621	3621	3621	3621	3659	3659	3621	3659	3659	3621	3621	3583	3583	3583	3583	3583	3621	3659	3621	3621	3659	3659	3621	3659	3621	3659	3659	3659	3698	3659	3659	3659	3659	3621	3621	3621	3583	3621	3583	3583	3621	3621	3621	3621	3621	3621	3621	3621	3621	3583	3621	3621	3621	3621	3621	3621	3621	3583	3583	3583	3583	3583	3583	3583	3583	3621	3621	3659	3621	3621	3583	3621	3621	3659	3621	3621	3621	3621	3621	3621	3621	3621	3621	3621	3621	3621	3621	3621	3621	3621	3621	3621	3621	3621	3621	3621	3621	3621	3621	3621	3621	3621	3583	3583	3583	3583	3583	3583	3583	3583	3583	3583	3583	3583	3583	3583	3583	3583	3583	3546	3546	3546	3546	3510	3510	3510	3546	3546	3546	3546	3583	3583	3546	3546	3546	3546	3546	3546	3546	3583	3583	0	0	0	0	0	0	0	0	0	0	0	0	0	0	0	0	0	0	0	0	0	0	0	0	0	0	0	0	0	0	0	0	0	0	0
0	0	0	0	0	0	0	0	1219	1219	1219	1219	1223	1223	1223	1223	1223	1525	1525	1525	1525	1525	1525	1519	1519	1519	1512	1506	1506	1506	1506	1512	1512	1512	1519	1512	1519	1519	1512	1512	1506	1506	1506	1506	1512	1512	1519	1519	1519	1519	1512	1519	1512	1512	1519	1519	1519	1519	1519	1519	1525	1519	1512	1512	1512	1512	1512	1512	1512	1512	1512	1512	1512	1512	1506	1506	1512	1512	1519	1519	1525	1532	1539	1539	1539	1546	1546	2194	2194	2194	2194	2208	2223	2223	2223	2223	2223	2223	2223	2208	2208	2208	2208	2208	2208	2208	2208	2208	2208	2208	2208	2208	2223	2223	2223	2223	2223	2223	2208	2223	2208	2208	2208	2208	2194	2237	2208	2194	2208	2208	2208	0	1958	1958	1969	1958	1958	1958	2281	2266	2208	2208	2208	2208	2208	2223	2237	2237	2223	2223	2223	2223	2208	2223	2194	2208	2208	2208	2181	2167	2167	2153	2140	2153	2153	2140	2140	2153	2153	2167	2153	2167	2167	2167	2167	2167	2167	2167	2153	2153	2570	2570	2570	2570	2570	2570	2551	2570	2570	2570	3475	3475	3475	3475	3475	3475	3475	3475	3475	3475	3475	3510	3510	3510	3546	3546	3546	3546	3546	3583	3583	3621	3621	3659	3659	3659	3659	3659	3659	3659	3659	3659	3659	3659	3659	3659	3659	3659	3659	3659	3659	3698	3698	3698	3698	3698	3698	3698	3698	3659	3659	3659	3698	3698	3698	3698	3698	3698	3698	3698	3698	3698	3698	3698	3698	3698	3698	3698	3698	3698	3738	3738	3738	3738	3738	3738	3738	3738	3738	3738	3738	3738	3738	3698	3698	3698	3698	3738	3738	3738	3738	3738	3738	3738	3738	3738	3738	3698	3698	3698	3698	3698	3698	3698	3698	3698	3698	3698	3698	3698	3698	3698	3698	3698	3698	3698	3698	3698	3698	3698	3698	3698	3698	3698	3698	3738	3738	3738	3738	3738	3738	3738	3738	3738	3698	3698	3698	3698	3738	3738	3738	3738	3738	3698	3698	3698	3698	3698	3659	3698	3698	3659	3698	3698	3698	3659	3698	3698	3698	3659	3698	3698	3659	3659	3698	0	0	0	0	3129	3101	3101	3186	3186	3186	3186	3186	3186	3186	3157	3186	3186	3157	3157	3186	3157	3157	3157	3157	3186	3157	3157	3157	3186	3157	3157	3157	3157	3698	3698	3698	3659	3659	3659	3659	3659	3659	3659	3659	3659	3659	3659	3659	3659	3659	3659	3659	3659	3659	3659	3659	3659	3659	3659	3659	3659	3659	3621	3659	3659	3659	3659	3659	3659	3659	3659	3659	3659	3659	3659	3659	3659	3659	3659	3659	3659	3659	3659	3659	3659	3659	3659	3621	3659	3659	3659	3659	3659	3659	3659	3659	3621	3621	3659	3659	3659	3659	3621	3659	3659	3659	3659	3659	3621	3659	3621	3621	3621	3659	3621	3621	3621	3621	3621	3621	3583	3583	3583	3583	3621	3621	3659	3621	3621	3659	3621	3621	3621	3621	3659	3659	3659	3659	3659	3659	3621	3621	3621	3621	3621	3583	3583	3583	3583	3621	3621	3621	3621	3659	3659	3659	3621	3621	3621	3621	3621	3621	3621	3583	3621	3621	3583	3583	3583	3583	3583	3583	3583	3583	3583	3583	3621	3621	3621	3583	3621	3583	3621	3659	3659	3621	3621	3621	3621	3621	3621	3621	3621	3621	3621	3621	3621	3621	3621	3621	3621	3583	3621	3621	3621	3621	3621	3621	3621	3621	3583	3583	3583	3583	3583	3583	3583	3583	3583	3583	3583	3583	3583	3583	3583	3583	3583	3546	3546	3510	3546	3510	3510	3510	3510	3546	3546	3546	3583	3583	3583	3546	3546	3546	3546	3546	3546	3546	3583	3583	0	0	0	0	0	0	0	0	0	0	0	0	0	0	0	0	0	0	0	0	0	0	0	0	0	0	0	0	0	0	0	0	0	0	0
0	0	0	0	0	0	0	0	1219	1219	1219	1219	1223	1223	1223	1227	1227	1227	1525	1525	1525	1525	1525	1519	1519	1519	1519	1512	1506	1506	1506	1512	1512	1512	1519	1512	1512	1512	1512	1506	1506	1499	1499	1506	1512	1512	1512	1512	1519	1512	1512	1519	1519	1519	1519	1525	1525	1519	1519	1519	1525	1519	1512	1512	1512	1512	1512	1512	1512	1512	1512	1512	1506	1512	1506	1506	1506	1512	1512	1519	1519	1532	1539	1539	1546	1546	1546	2194	2208	2237	2237	2252	2252	2252	2223	2223	2223	2223	2223	2223	2223	2223	2208	2208	2208	2208	2208	2208	2208	2208	2208	2223	2223	2223	2237	2237	2237	2237	2266	2266	2223	2223	2252	2208	2208	2237	2208	2208	2208	2208	0	0	1958	1958	1958	1958	1958	1958	2281	2266	2223	2208	2208	2208	2208	2223	2237	2237	2223	2223	2223	2223	2223	2223	2194	2208	2208	2223	2223	2181	2181	2153	2153	2153	2153	2140	2153	2153	2153	2167	2167	2167	2167	2167	2167	2167	2167	2181	2181	2167	2194	2194	2570	2570	2570	2570	2551	2551	2551	2551	3440	3475	3475	3475	3475	3510	3510	3510	3475	3475	3475	3475	3475	3475	3510	3510	3546	3546	3546	3546	3583	3583	3621	3621	3659	3659	3698	3698	3698	3698	3698	3698	3659	3659	3659	3659	3659	3659	3659	3659	3659	3698	3698	3698	3698	3698	3698	3698	3659	3659	3659	3659	3698	3698	3698	3698	3698	3698	3698	3698	3698	3698	3698	3698	3698	3698	3698	3698	3698	3698	3738	3738	3738	3738	3738	3738	3738	3738	3738	3738	3738	3738	3738	3698	3698	3698	3698	3698	3698	3698	3698	3738	3738	3738	3738	3698	3698	3698	3698	3698	3698	3698	3698	3698	3738	3738	3698	3698	3698	3698	3698	3698	3698	3698	3698	3698	3698	3698	3698	3698	3698	3698	3698	3698	3698	3738	3738	3738	3738	3738	3738	3738	3738	3698	3698	3738	3738	3738	3738	3738	3738	3738	3738	3698	3698	3698	3698	3698	3698	3698	3698	3698	3698	3698	3698	3698	3698	3698	3698	3698	3698	3698	3698	3659	3698	3698	0	0	0	3129	3101	3129	3129	3186	3186	3186	3186	3186	3186	3157	3186	3186	3186	3157	3186	3157	3157	3157	3157	3186	3157	3157	3186	3186	3157	3186	3186	3157	3157	3698	3698	3659	3659	3659	3659	3659	3659	3659	3659	3659	3659	3659	3659	3659	3659	3659	3659	3659	3659	3659	3659	3659	3659	3659	3659	3659	3659	3621	3659	3621	3659	3659	3659	3659	3659	3659	3659	3659	3659	3659	3659	3659	3659	3659	3659	3659	3659	3659	3659	3659	3659	3659	3621	3621	3659	3659	3659	3659	3659	3659	3659	3659	3621	3659	3659	3659	3659	3621	3659	3659	3659	3659	3659	3621	3659	3621	3621	3621	3621	3621	3621	3621	3621	3621	3621	3583	3583	3621	3583	3583	3621	3621	3621	3621	3659	3621	3621	3659	3621	3659	3621	3659	3659	3659	3621	3621	3621	3621	3621	3621	3583	3583	3583	3583	3621	3621	3621	3621	3621	3659	3621	3621	3621	3621	3621	3621	3583	3583	3583	3621	3621	3583	3583	3583	3583	3583	3583	3583	3583	3583	3583	3621	3583	3583	3583	3583	3583	3621	3659	3659	3659	3659	3621	3621	3621	3621	3583	3583	3583	3583	3621	3621	3621	3621	3621	3621	3621	3621	3621	3621	3621	3621	3583	3583	3583	3583	3583	3583	3583	3583	3583	3583	3583	3583	3583	3546	3583	3583	3583	3583	3583	3583	3546	3546	3546	3510	3510	3510	3510	3510	3510	3510	3546	3546	3583	3583	3583	3546	3546	3546	3510	3510	0	0	0	0	0	0	0	0	0	0	0	0	0	0	0	0	0	0	0	0	0	0	0	0	0	0	0	0	0	0	0	0	0	0	0	0	0	0
0	0	0	0	0	0	0	0	1219	1219	1223	1223	1227	1227	1227	1227	1223	1219	1223	1219	1219	1525	1525	1519	1519	1525	1519	1512	1512	1506	1512	1519	1512	1519	1519	1512	1512	1512	1512	1506	1499	1499	1499	1506	1506	1512	1512	1512	1519	1512	1512	1519	1519	1512	1519	1525	1519	1519	1519	1519	1525	1519	1512	1512	1512	1512	1512	1512	1512	1512	1506	1506	1506	1506	1506	1506	1512	1519	1519	1519	1532	1546	1546	1546	1546	1546	1546	0	2252	2252	2252	2266	2266	2266	2266	2252	2252	2252	2266	2252	2252	2223	2223	2223	2208	2208	2223	2223	2223	2223	2223	2223	2237	2252	2252	2252	2266	2266	2266	2266	2266	2266	2266	2266	2266	2237	2208	2208	2208	0	0	1969	1969	1958	1958	1958	1958	1958	2281	2281	2252	2252	2252	2252	2223	2237	2237	2237	2223	2223	2223	2208	2223	2237	2223	2223	2223	2237	2223	2181	2181	2167	2153	2153	2153	2140	2153	2153	2167	2167	2181	2181	2181	2181	2181	2194	2194	2208	2194	2208	2208	2194	2194	2609	2570	2589	2551	2570	2570	3440	3475	3475	3475	3475	3475	3475	3475	3475	3475	3475	3475	3475	3475	3475	3510	3510	3546	3546	3546	3546	3583	3621	3621	3659	3659	3698	3698	3698	3698	3698	3698	3698	3698	3659	3659	3659	3659	3659	3659	3659	3659	3698	3698	3698	3698	3698	3698	3698	3659	3659	3659	3659	3659	3659	3698	3698	3698	3698	3698	3698	3698	3698	3698	3698	3698	3698	3698	3698	3698	3698	3738	3738	3738	3738	3738	3738	3738	3738	3738	3738	3738	3738	3738	3698	3698	3698	3698	3698	3698	3698	3698	3738	3738	3738	3738	3698	3698	3698	3698	3698	3738	3698	3698	3698	3738	3738	3698	3698	3698	3698	3698	3698	3698	3698	3698	3698	3698	3698	3698	3698	3698	3698	3698	3698	3698	3738	3738	3738	3738	3738	3738	3738	3698	3698	3698	3698	3698	3738	3738	3738	3738	3738	3698	3698	3698	3698	3698	3659	3698	3698	3698	3698	3698	3698	3698	3698	3698	3698	3698	3698	3698	3698	3698	3698	3698	3698	0	3157	3129	3129	3101	3129	3101	3129	3129	3157	3157	3157	3157	3157	3186	3157	3157	3157	3186	3157	3157	3157	3157	3186	3157	3157	3186	3157	3157	3186	3157	3157	3157	3698	3698	3659	3659	3659	3659	3659	3659	3659	3659	3659	3659	3659	3659	3659	3659	3659	3659	3659	3659	3659	3659	3659	3659	3659	3659	3659	3659	3621	3659	3621	3659	3659	3659	3659	3659	3659	3659	3659	3659	3659	3659	3659	3659	3659	3659	3659	3659	3659	3659	3659	3659	3659	3621	3621	3621	3659	3621	3659	3659	3659	3659	3659	3659	3621	3621	3621	3659	3621	3621	3621	3659	3659	3659	3621	3659	3621	3621	3621	3621	3621	3621	3621	3621	3621	3583	3583	3583	3621	3621	3621	3621	3621	3621	3621	3621	3621	3621	3621	3621	3621	3621	3621	3659	3659	3621	3621	3621	3621	3583	3583	3583	3583	3583	3583	3583	3621	3621	3621	3621	3621	3621	3621	3621	3621	3621	3621	3621	3621	3583	3621	3583	3583	3583	3583	3583	3583	3583	3583	3583	3583	3583	3621	3583	3583	3583	3621	3583	3621	3659	3659	3659	3659	3621	3621	3621	3621	3621	3621	3621	3621	3621	3621	3621	3621	3621	3621	3621	3621	3621	3621	3621	3583	3583	3621	3621	3583	3583	3583	3583	3583	3583	3583	3583	3583	3583	3546	3546	3583	3546	3583	3583	3583	3583	3546	3546	3546	3510	3510	3510	3510	3546	3510	3546	3546	3583	3583	3583	3583	3583	3546	3510	3510	0	0	0	0	0	0	0	0	0	0	0	0	0	0	0	0	0	0	0	0	0	0	0	0	0	0	0	0	0	0	0	0	0	0	0	0	0	0
0	0	0	0	0	0	0	0	1219	1223	1223	1223	1227	1227	1227	1232	1223	1223	1223	1223	1223	1240	1240	1519	1532	1525	1519	1512	1506	1506	1519	1519	1519	1519	1519	1512	1512	1512	1506	1506	1499	1499	1499	1519	1506	1512	1512	1519	1519	1519	1519	1519	1519	1519	1519	1519	1519	1512	1512	1512	1512	1512	1512	1512	1506	1512	1512	1512	1512	1506	1506	1506	1506	1506	1506	1506	1506	1512	1519	1519	1539	1546	1546	1546	1546	1560	1560	1560	1560	2252	2252	2266	2266	2266	2266	2266	2266	2266	2266	2266	2266	2266	2266	2266	2266	2266	2266	2252	2252	2237	2252	2237	2252	2252	2252	2252	2266	2266	2266	2266	2266	2266	2266	2266	2266	0	0	0	0	0	0	1969	1969	1958	1969	1958	1958	2281	2281	2266	2252	2252	2266	2266	2266	2281	2281	2281	2237	2237	2223	2208	2223	2237	2237	2237	2237	2252	2237	2223	2208	2167	2140	2153	2167	2153	2167	2167	2181	2181	2181	2181	2181	2194	2194	2194	2208	2208	2208	2208	2223	2208	2194	2181	2181	2181	2551	2551	2551	3440	3440	3475	3475	3475	3475	3475	3475	3475	3475	3475	3475	3475	3475	3475	3510	3546	3546	3546	3583	3583	3621	3621	3621	3659	3659	3698	3698	3698	3698	3698	3698	3698	3698	3659	3659	3659	3659	3659	3659	3659	3659	3698	3698	3698	3698	3698	3698	3659	3659	3659	3659	3659	3698	3698	3698	3698	3698	3698	3698	3698	3698	3698	3698	3698	3698	3698	3698	3698	3698	3698	3738	3738	3738	3738	3738	3738	3738	3738	3738	3738	3738	3738	3738	3698	3698	3698	3698	3698	3698	3698	3698	3738	3738	3738	3738	3698	3698	3698	3738	3738	3738	3698	3698	3698	3738	3738	3698	3698	3698	3698	3698	3698	3698	3698	3698	3698	3698	3698	3698	3698	3698	3698	3698	3698	3698	3738	3738	3738	3738	3738	3738	3738	3698	3698	3698	3738	3738	3738	3738	3738	3738	3738	3738	3698	3698	3698	3698	3659	3659	3659	3659	3659	3659	3698	3698	3698	3698	3698	3698	3659	3659	3698	3659	3659	3698	3698	3698	3157	3129	3129	3129	3101	3101	3129	3129	3129	3129	3129	3129	3186	3157	3157	3157	3157	3186	3157	3157	3157	3157	3186	3157	3157	3157	3157	3157	3157	3157	3157	3157	3698	3698	3659	3659	3659	3659	3659	3659	3659	3659	3659	3659	3659	3659	3659	3659	3659	3659	3659	3659	3659	3659	3659	3659	3659	3621	3621	3621	3621	3621	3621	3621	3621	3621	3659	3621	3659	3659	3659	3659	3659	3659	3659	3659	3659	3659	3659	3659	3659	3659	3659	3659	3621	3621	3621	3621	3621	3621	3621	3659	3659	3659	3659	3659	3621	3621	3621	3659	3621	3621	3621	3621	3621	3621	3621	3659	3621	3621	3621	3621	3621	3621	3621	3583	3583	3583	3583	3583	3583	3621	3621	3621	3621	3659	3659	3659	3659	3621	3621	3621	3621	3621	3621	3621	3621	3621	3621	3621	3621	3621	3583	3583	3583	3583	3583	3583	3583	3583	3621	3621	3621	3621	3621	3621	3621	3621	3621	3583	3583	3583	3583	3583	3583	3583	3583	3583	3583	3583	3583	3583	3583	3583	3583	3583	3583	3583	3583	3583	3621	3659	3659	3659	3659	3621	3621	3621	3621	3621	3583	3621	3621	3621	3621	3621	3621	3621	3621	3583	3583	3583	3621	3621	3583	3621	3621	3621	3583	3583	3583	3583	3583	3583	3583	3583	3583	3583	3546	3546	3546	3546	3546	3583	3583	3583	3546	3546	3546	3546	3510	3510	3546	3546	3546	3510	3546	3546	3583	3583	3583	3621	3621	3510	3510	0	0	0	0	0	0	0	0	0	0	0	0	0	0	0	0	0	0	0	0	0	0	0	0	0	0	0	0	0	0	0	0	0	0	0	0	0	0
0	0	0	0	0	0	0	0	1214	1219	1223	1223	1227	1227	1232	1236	1232	1236	1236	1236	1236	1236	1236	0	1539	1525	1519	1512	1512	1512	1519	1525	1519	1519	1512	1512	1512	1512	1506	1506	1499	1492	1492	1519	1519	1519	1512	1512	1519	1519	1519	1512	1512	1512	1512	1512	1512	1512	1512	1512	1512	1512	1512	1512	1512	1512	1512	1506	1506	1506	1506	1506	1512	1506	1512	1512	1519	1519	1519	1525	1539	1546	1546	1546	1546	1560	1560	1560	1560	2266	2266	2281	2266	2266	2266	2266	2266	2266	2266	2266	2266	2266	2266	2266	2266	2266	2266	2266	2266	2252	2266	2252	2266	2266	2266	2266	2266	2266	2266	2266	2266	2266	2266	2266	0	0	0	0	0	0	0	0	1969	1969	1969	1958	1969	1969	2281	2266	2266	2266	2266	2266	2266	2281	2281	2281	2281	2281	0	0	0	0	2223	2223	2252	2252	2266	2266	2266	2297	2194	2181	2181	2167	2181	2181	2181	2194	2194	2194	2194	2194	2208	2208	2208	2208	2208	2208	2208	2194	2194	2194	2181	2181	2589	2589	3475	3440	3440	3440	3475	3475	3475	3475	3475	3475	3475	3475	3475	3475	3475	3475	3510	3546	3546	3546	3583	3621	3621	3621	3659	3659	3659	3698	3698	3698	3698	3698	3698	3698	3698	3659	3659	3659	3659	3659	3659	3659	3659	3659	3659	3659	3698	3698	3698	3659	3659	3659	3698	3698	3698	3698	3698	3698	3698	3698	3698	3698	3698	3698	3698	3698	3698	3698	3698	3698	3698	3698	3738	3738	3738	3738	3738	3738	3738	3738	3738	3738	3738	3738	3738	3698	3698	3698	3698	3698	3698	3698	3698	3738	3738	3738	3738	3738	3738	3698	3738	3738	3738	3698	3698	3698	3738	3738	3698	3698	3698	3698	3698	3698	3698	3698	3698	3698	3698	3698	3698	3698	3698	3698	3698	3698	3698	3738	3738	3738	3698	3738	3738	3698	3698	3738	3738	3738	3738	3738	3738	3738	3738	3738	3698	3698	3698	3698	3659	3659	3659	3659	3659	3659	3659	3659	3659	3659	3659	3698	3698	3659	3698	3698	3698	3698	3698	3738	3738	0	3129	3129	3129	3129	3101	3129	3129	3129	3129	3129	3129	3129	3157	3157	3157	3157	3157	3157	3157	3157	3157	3157	3157	3157	3186	3157	3157	3186	3186	3186	3186	0	3698	3659	3659	3659	3659	3659	3659	3659	3659	3659	3659	3659	3659	3659	3659	3659	3659	3659	3621	3621	3659	3621	3621	3621	3621	3621	3621	3621	3621	3621	3621	3621	3621	3659	3621	3659	3659	3659	3659	3659	3659	3659	3659	3659	3659	3659	3659	3659	3659	3659	3621	3621	3621	3621	3621	3621	3621	3621	3621	3621	3621	3621	3621	3621	3621	3621	3621	3621	3621	3621	3621	3621	3621	3621	3621	3621	3621	3621	3621	3621	3583	3583	3583	3583	3583	3583	3583	3583	3583	3621	3621	3659	3659	3659	3659	3659	3621	3621	3583	3583	3583	3621	3621	3621	3621	3621	3621	3621	3621	3583	3583	3583	3583	3583	3583	3583	3583	3621	3621	3621	3621	3621	3621	3621	3621	3621	3583	3583	3583	3621	3583	3583	3583	3583	3583	3583	3583	3583	3583	3583	3583	3583	3583	3583	3583	3583	3583	3621	3659	3659	3659	3659	3621	3621	3621	3621	3621	3583	3621	3621	3621	3621	3621	3621	3621	3621	3621	3621	3621	3621	3621	3583	3583	3621	3583	3583	3583	3583	3583	3583	3583	3583	3583	3583	3583	3546	3546	3546	3546	3546	3583	3583	3583	3583	3546	3546	3546	3510	3510	3510	3510	3510	3510	3510	3546	3546	3546	3583	3583	3621	0	0	0	0	0	0	0	0	0	0	0	0	0	0	0	0	0	0	0	0	0	0	0	0	0	0	0	0	0	0	0	0	0	0	0	0	0	0	0	0
0	0	0	0	0	0	0	0	1214	1219	1223	1227	1227	1232	1236	1236	1236	1240	1240	1240	1245	1245	1240	1240	1539	1525	1525	1519	1512	1512	1519	1525	1519	1519	1512	1512	1512	1512	1506	1506	1499	1499	1519	1519	1512	1512	1512	1512	1519	1519	1519	1512	1519	1519	1519	1512	1512	1512	1512	1512	1512	1512	1512	1512	1506	1506	1512	1506	1506	1506	1506	1506	1506	1506	1512	1512	1519	1525	1525	1532	1539	1546	1546	1546	1546	1553	1560	1560	0	2281	2281	2281	2281	2281	2266	2281	2281	2266	2281	2266	2266	2266	2266	2266	2266	2266	2266	2266	2266	2266	2281	2281	2281	2281	2281	2281	2281	2281	2281	2266	2281	2281	2281	2266	0	0	0	0	0	0	2015	2015	1969	1969	1969	1958	1969	1958	1958	2281	2266	2266	2266	2266	2266	2281	2281	2281	2281	2281	0	0	0	0	2223	2281	2281	2281	2281	2281	2281	2281	2281	2281	2181	2181	2194	2237	2194	2194	2208	2208	2208	2208	2208	2208	2208	2208	2208	2208	2223	2208	2194	2194	2194	2194	2589	3475	3475	3475	3475	3475	3475	3475	3475	3475	3475	3475	3475	3475	3475	3475	3475	3475	3510	3546	3546	3546	3583	3621	3621	3621	3659	3659	3659	3698	3698	3698	3698	3698	3659	3659	3659	3659	3659	3659	3659	3659	3659	3659	3659	3659	3659	3659	3698	3698	3698	3659	3659	3659	3698	3659	3698	3698	3698	3698	3698	3698	3698	3698	3698	3698	3698	3698	3698	3698	3698	3698	3698	3698	3738	3738	3738	3738	3738	3738	3738	3738	3738	3738	3738	3738	3698	3698	3698	3698	3698	3698	3698	3698	3698	3738	3738	3738	3738	3698	3698	3698	3698	3738	3738	3738	3738	3738	3738	3738	3698	3698	3698	3698	3698	3698	3698	3698	3698	3698	3698	3698	3698	3698	3698	3698	3698	3698	3698	3738	3738	3738	3698	3738	3738	3738	3738	3738	3738	3738	3738	3738	3738	3738	3738	3738	3738	3698	3698	3698	3698	3659	3659	3659	3659	3659	3659	3659	3698	3698	3698	3698	3698	3659	3698	3698	3698	3698	3738	3738	3738	0	3129	3129	3101	3101	3101	3101	3129	3129	3129	3129	3129	3129	3157	3157	3157	3157	3157	3157	3157	3129	3129	3157	3157	3157	3157	3157	3157	3157	3157	3157	3157	0	3698	3659	3659	3659	3659	3659	3659	3659	3659	3659	3659	3659	3659	3659	3659	3659	3659	3659	3621	3621	3621	3621	3621	3621	3621	3621	3621	3621	3621	3621	3621	3621	3659	3621	3621	3621	3659	3659	3659	3659	3659	3659	3659	3659	3659	3659	3659	3659	3621	3621	3621	3583	3621	3621	3621	3621	3583	3583	3621	3621	3621	3621	3621	3621	3621	3659	3659	3621	3621	3621	3621	3621	3621	3621	3621	3621	3621	3621	3621	3583	3583	3583	3583	3583	3583	3583	3583	3621	3621	3621	3621	3659	3659	3659	3659	3659	3621	3621	3621	3621	3583	3621	3621	3621	3621	3621	3621	3621	3621	3583	3583	3583	3583	3583	3583	3583	3583	3621	3621	3621	3621	3621	3621	3621	3621	3621	3583	3621	3583	3583	3583	3583	3583	3583	3583	3583	3583	3583	3583	3583	3583	3583	3583	3583	3583	3583	3583	3621	3621	3621	3659	3621	3621	3621	3621	3621	3621	3621	3621	3621	3621	3621	3621	3621	3621	3621	3621	3621	3621	3621	3621	3583	3583	3621	3583	3583	3583	3583	3583	3583	3583	3583	3583	3583	3546	3546	3546	3546	3546	3546	3583	3583	3583	3546	3546	3546	3546	3510	3510	3510	3510	3510	3510	3510	3510	3510	3510	3583	3583	0	0	0	0	0	0	0	0	0	0	0	0	0	0	0	0	0	0	0	0	0	0	0	0	0	0	0	0	0	0	0	0	0	0	0	0	0	0	0	0	0
0	0	0	0	0	0	0	0	1214	1214	1223	1223	1227	1227	1236	1236	1236	1240	1240	1240	1245	1245	1240	1240	0	1519	1512	1512	1506	1512	1519	1519	1519	1519	1519	1519	1512	1519	1519	1512	1512	1519	1519	1519	1519	1512	1519	1512	1519	1512	1519	1512	1512	1512	1512	1512	1512	1512	1512	1512	1512	1512	1506	1506	1506	1506	1506	1506	1506	1506	1506	1506	1506	1506	1506	1512	1519	1525	1525	1532	1539	1546	1539	1546	1539	1553	1546	1546	0	2297	2297	2297	2297	2281	2281	2281	2281	2281	2281	2281	2281	2281	2281	2281	2281	2281	2281	2281	2281	2281	2297	2297	2281	2281	2281	2281	2281	2281	2281	2281	2281	2281	2297	2297	0	0	0	2027	2027	2027	2015	2003	1969	1969	1969	1958	1969	1958	1958	1958	2281	2281	2281	2281	2281	2281	2297	2297	2281	2281	0	0	0	0	0	2297	2297	2297	2297	2297	2297	2297	2297	2297	2281	2281	2266	2266	2237	2266	2223	2223	2223	2223	2208	2208	2208	2208	2208	2208	2208	2208	2194	2194	2194	2194	0	3475	3510	3475	3475	3475	3475	3475	3475	3475	3475	3475	3475	3475	3475	3475	3475	3475	3510	3546	3546	3546	3583	3621	3621	3621	3659	3659	3659	3698	3698	3659	3659	3659	3659	3659	3659	3659	3659	3659	3659	3659	3621	3659	3659	3659	3659	3659	3698	3698	3698	3659	3659	3659	3698	3698	3698	3698	3698	3698	3698	3698	3698	3698	3698	3698	3698	3698	3698	3698	3698	3698	3698	3698	3738	3738	3738	3738	3738	3738	3738	3738	3738	3738	3738	3738	3738	3698	3698	3698	3698	3698	3698	3698	3698	3698	3698	3698	3698	3698	3698	3698	3738	3738	3738	3738	3738	3738	3738	3738	3698	3698	3698	3698	3698	3698	3698	3698	3698	3698	3698	3698	3698	3698	3698	3698	3698	3698	3698	3738	3738	3738	3698	3738	3738	3738	3738	3738	3738	3738	3738	3738	3738	3738	3738	3738	3738	3698	3698	3698	3698	3659	3698	3659	3698	3659	3659	3659	3659	3659	3659	3659	3659	3659	3659	3659	3659	3659	3659	3738	3738	3129	3129	3129	3129	3101	3101	3101	3129	3129	3157	3129	3129	3129	3157	3157	3157	3157	3157	3157	3157	3157	3129	3129	3129	3157	3157	3157	3157	3157	3157	3157	3157	0	0	0	0	0	3659	3659	3659	3659	3698	3659	3659	3659	3659	3659	3659	3659	3659	3621	3621	3621	3621	3621	3621	3621	3621	3621	3621	3621	3621	3621	3621	3621	3621	3621	3621	3621	3659	3659	3659	3621	3621	3659	3621	3621	3659	3621	3621	3621	3621	3621	3621	3583	3621	3621	3621	3621	3583	3583	3621	3621	3621	3621	3621	3621	3621	3621	3621	3621	3621	3621	3621	3621	3621	3621	3621	3583	3621	3583	3583	3583	3583	3583	3583	3583	3583	3583	3583	3583	3621	3621	3621	3659	3659	3659	3659	3659	3621	3621	3583	3583	3583	3583	3621	3621	3621	3621	3621	3621	3621	3621	3621	3621	3583	3621	3621	3621	3583	3621	3621	3621	3621	3621	3583	3583	3621	3621	3621	3583	3583	3583	3583	3583	3583	3583	3583	3583	3583	3583	3583	3583	3583	3583	3583	3583	3583	3583	3583	3621	3621	3621	3621	3621	3621	3621	3621	3621	3621	3621	3621	3621	3621	3621	3621	3621	3621	3621	3621	3621	3621	3621	3583	3583	3583	3583	3583	3583	3583	3583	3583	3583	3583	3583	3583	3583	3583	3546	3546	3546	3546	3546	3583	3583	3583	3583	3583	3546	3546	3546	3510	3510	3510	3510	3510	3510	3510	3510	3510	0	0	0	0	0	0	0	0	0	0	0	0	0	0	0	0	0	0	0	0	0	0	0	0	0	0	0	0	0	0	0	0	0	0	0	0	0	0	0	0	0	0	0
0	0	0	0	0	0	0	0	1214	1219	1223	1227	1227	1232	1236	1240	1240	1240	1240	1245	1245	1245	1249	1249	1254	1254	1254	1254	1254	1512	1519	1519	1519	1525	1519	1519	1525	1525	1519	1519	1512	1519	1519	1525	1519	1512	1512	1519	1519	1519	1519	1512	1512	1512	1512	1512	1512	1512	1512	1512	1512	1512	1506	1506	1506	1506	1506	1506	1506	1506	1506	1506	1506	1506	1512	1512	1519	1519	1525	1532	1532	1539	1539	1539	1539	1546	1546	1546	0	2297	2312	2312	2312	2297	2297	2297	2297	2281	2281	2281	2281	2281	2281	2281	2281	2281	2297	2281	2281	2297	2312	2297	2281	2281	2281	2297	2281	2281	2281	2281	2297	2297	2327	2327	0	0	0	2027	2027	2027	2015	2003	1969	1969	1969	1958	1958	1958	1958	2327	2312	2312	2312	2297	2297	2297	2297	2297	0	0	0	0	0	2376	2359	2359	2327	2327	2312	2312	2312	2312	2312	2312	2297	2297	2281	2281	2266	2266	2237	2223	2223	2223	2223	2223	2208	2208	2223	2223	2223	2208	2208	2208	2208	2208	0	0	3510	3475	3475	3475	3475	3475	3475	3475	3475	3475	3475	3475	3475	3475	3475	3475	3546	3546	3546	3546	3583	3621	3621	3621	3659	3659	3659	3659	3659	3659	3659	3659	3621	3659	3659	3659	3659	3621	3659	3659	3621	3659	3659	3659	3659	3659	3698	3698	3698	3659	3659	3659	3659	3659	3659	3698	3698	3698	3698	3698	3698	3698	3698	3698	3698	3698	3698	3698	3698	3698	3698	3698	3779	3738	3779	3738	3738	3738	3738	3738	3738	3698	3738	3738	3698	3698	3698	3698	3698	3698	3698	3698	3698	3698	3698	3698	3698	3698	3698	3698	3698	3698	3698	3698	3698	3698	3698	3738	3698	3698	3698	3698	3698	3698	3698	3698	3698	3698	3698	3698	3698	3698	3698	3698	3698	3698	3698	3738	3698	3738	3698	3738	3738	3738	3738	3738	3738	3738	3738	3738	3738	3738	3738	3738	3738	3698	3738	3698	3698	3698	3698	3698	3698	3698	3659	3659	3659	3659	3659	3659	3659	3659	3659	3698	3698	3698	3659	0	0	3129	3129	3129	3129	3101	3101	3101	3129	3129	3157	3129	3129	3129	3157	3157	3157	3157	3157	3157	3157	3157	3129	3129	3129	3129	3129	3157	3157	3157	3157	3157	0	0	0	0	0	0	3186	3186	3129	3129	3129	3129	3129	3659	3698	3659	3659	3659	3659	3621	3621	3621	3621	3621	3621	3621	3621	3621	3621	3621	3621	3621	3621	3621	3621	3621	3621	3621	3659	3659	3659	3659	3659	3659	3659	3659	3659	3621	3621	3621	3621	3621	3583	3583	3583	3621	3621	3583	3583	3583	3583	3583	3621	3621	3621	3621	3621	3621	3621	3621	3621	3621	3621	3621	3621	3621	3583	3583	3583	3583	3583	3583	3583	3583	3583	3583	3583	3583	3583	3583	3583	3621	3621	3659	3659	3659	3659	3659	3621	3621	3583	3583	3583	3583	3621	3621	3583	3621	3621	3621	3621	3583	3583	3621	3621	3621	3621	3621	3621	3621	3621	3621	3621	3621	3621	3621	3621	3621	3621	3583	3583	3583	3583	3583	3583	3583	3583	3583	3583	3583	3583	3583	3583	3583	3583	3583	3583	3583	3583	3621	3621	3621	3621	3621	3621	3621	3621	3621	3621	3583	3621	3621	3621	3621	3621	3621	3621	3621	3621	3621	3621	3621	3583	3583	3583	3583	3583	3583	3583	3583	3583	3583	3583	3583	3583	3583	3583	3546	3546	3546	3583	3583	3583	3583	3583	3583	3583	3546	3546	3546	3546	3510	3510	3510	3475	3475	3510	3510	0	0	0	1641	1641	0	0	0	0	0	0	0	0	0	0	0	0	0	0	0	0	0	0	0	0	0	0	0	0	0	0	0	0	0	0	0	0	0	0	0	0	0	0	0
0	0	0	0	0	0	0	0	1214	1214	1223	1227	1227	1232	1236	1236	1240	1245	1245	1245	1245	1249	1249	1254	1259	1259	1259	1263	1263	1263	1519	1525	1525	1525	1519	1519	1519	1519	1519	1519	1519	1519	1519	1525	1525	1519	1519	1519	1519	1512	1512	1512	1512	1512	1512	1512	1512	1506	1512	1512	1512	1506	1506	1506	1506	1506	1506	1506	1506	1506	1506	1506	1506	1506	1512	1512	1519	1519	1519	1525	1532	1539	1539	1532	1532	1532	1546	1546	2312	2312	2327	2312	2312	2312	2297	2312	2297	2297	2297	2297	2297	2297	2297	2297	2297	2297	2297	2297	2297	2312	2312	2312	2297	2281	2297	2297	2297	2297	2297	2297	2327	2327	2343	2343	0	0	0	0	2027	2027	2003	2003	1969	1969	1969	1958	1958	1958	1958	2343	2327	2327	2312	2312	2297	2297	2312	2312	0	0	0	0	0	2376	2376	2359	2343	2327	2327	2327	2327	2312	2312	2312	2312	2297	2297	2281	2281	2266	2266	2237	2237	2237	2223	2223	2223	2223	2223	2223	2223	2208	2208	2208	2208	2208	0	3475	3475	3475	3475	3475	3475	3475	3475	3475	3475	3475	3475	3475	3475	3475	3475	3475	3546	3546	3546	3546	3583	3583	3621	3621	3659	3659	3659	3659	3659	3621	3621	3621	3621	3659	3659	3659	3659	3621	3659	3621	3621	3659	3659	3659	3659	3659	3698	3698	3659	3659	3659	3659	3659	3659	3659	3659	3698	3698	3698	3698	3698	3698	3698	3698	3698	3698	3698	3698	3698	3698	3698	3698	3738	3738	3779	3738	3738	3738	3738	3738	3738	3698	3738	3738	3738	3698	3698	3738	3698	3698	3698	3698	3698	3698	3698	3698	3698	3698	3698	3698	3698	3738	3698	3698	3698	3698	3698	3698	3698	3698	3698	3698	3698	3698	3698	3698	3698	3698	3698	3698	3698	3698	3698	3698	3698	3698	3698	3738	3738	3738	3698	3738	3738	3738	3738	3738	3738	3738	3698	3698	3698	3698	3698	3738	3698	3698	3698	3698	3698	3659	3659	3659	3698	3659	3659	3659	3659	3659	3659	3659	3659	3659	3659	3698	3698	3698	0	0	0	3129	3129	3129	3129	3129	3129	3129	3157	3157	3157	3129	3129	3129	3186	3157	3157	3157	3157	3157	3157	3157	3129	3129	3129	3129	3157	3157	3157	3157	0	0	0	0	0	0	0	0	3186	3186	3186	3129	3157	3129	3129	3129	3129	3129	3129	3129	3621	3621	3621	3621	3621	3621	3621	3621	3621	3621	3621	3621	3621	3621	3621	3621	3621	3621	3621	3621	3659	3659	3659	3659	3659	3659	3659	3659	3659	3621	3621	3621	3583	3621	3583	3583	3621	3621	3621	3583	3583	3583	3583	3583	3583	3621	3621	3621	3621	3621	3621	3621	3621	3621	3621	3621	3621	3621	3583	3583	3583	3621	3583	3583	3621	3583	3621	3621	3583	3583	3583	3583	3583	3621	3621	3659	3659	3659	3659	3659	3621	3583	3583	3583	3583	3583	3621	3621	3583	3583	3583	3583	3621	3583	3583	3583	3583	3621	3621	3583	3583	3621	3621	3621	3621	3621	3621	3621	3621	3621	3621	3621	3621	3583	3583	3583	3583	3583	3583	3583	3583	3583	3583	3583	3583	3583	3583	3583	3583	3583	3583	3621	3621	3621	3621	3621	3621	3621	3621	3621	3621	3621	3621	3621	3621	3621	3621	3621	3621	3621	3621	3621	3621	3621	3621	3583	3583	3621	3583	3583	3583	3583	3583	3583	3583	3583	3583	3583	3583	3546	3546	3583	3583	3583	3583	3583	3583	3583	3583	3583	3583	3583	3546	3546	3510	3510	3475	3475	0	0	0	0	1641	1649	1649	0	0	0	0	0	0	0	0	0	0	0	0	0	0	0	0	0	0	0	0	0	0	0	0	0	0	0	0	0	0	0	0	0	0	0	0	0	0	0
0	0	0	0	0	0	0	0	0	1236	1232	1232	1236	1236	1236	1245	1245	1245	1245	1245	1245	1249	1249	1254	1259	1263	1263	1268	1282	1287	1287	1287	1525	1525	1519	1519	1519	1525	1525	1519	1519	1525	1525	1525	1525	1519	1519	1519	1519	1512	1512	1512	1506	1506	1512	1506	1506	1506	1506	1506	1512	1506	1506	1506	1506	1506	1506	1506	1506	1506	1506	1506	1506	1506	1506	1512	1512	1519	1525	1525	1532	1539	1539	1539	1539	1532	0	2327	2312	2312	2327	2327	2327	2327	2327	2327	2312	2312	2312	2312	2312	2312	2312	2312	2312	2312	2312	2312	2312	2327	2327	2312	2312	2297	2297	2297	2297	2297	2312	2297	2312	2327	2343	2343	0	0	0	0	2027	2015	2003	1992	1969	1969	1969	1969	1969	1969	1969	2343	2327	2343	2327	2327	2312	2312	2327	2327	0	0	0	0	0	0	2359	2343	2343	2343	2343	2343	2343	2327	2312	2312	2312	2297	2297	2281	2281	2281	2266	2252	2237	2237	2223	2223	2223	2223	2223	2223	2223	2208	2194	2194	2194	0	0	3475	3475	3475	3475	3475	3475	3475	3475	3475	3475	3475	3475	3475	3475	3475	3475	3475	3510	3546	3546	3546	3583	3621	3659	3659	3659	3659	3659	3621	3621	3621	3583	3583	3621	3621	3621	3659	3659	3621	3659	3621	3621	3659	3659	3659	3659	3659	3698	3698	3659	3659	3659	3659	3698	3698	3659	3698	3698	3698	3698	3698	3698	3698	3698	3698	3698	3698	3698	3698	3698	3698	3698	3698	3738	3738	3779	3738	3738	3738	3738	3738	3738	3738	3738	3738	3738	3738	3738	3698	3698	3698	3698	3698	3698	3698	3698	3698	3698	3698	3698	3698	3698	3698	3698	3698	3698	3698	3698	3698	3698	3698	3698	3698	3698	3698	3698	3698	3698	3698	3698	3698	3698	3698	3698	3698	3698	3698	3698	3738	3738	3738	3698	3738	3738	3738	3738	3738	3738	3738	3738	3738	3698	3698	3738	3698	3698	3698	3698	3698	3698	3659	3659	3659	3659	3659	3659	3621	3659	3659	3659	3659	3659	3659	3659	3659	3659	0	0	0	0	3129	3129	3157	3129	3129	3129	3157	3157	3157	3157	3129	3129	3129	3157	3157	3157	3157	3157	3157	3157	3157	3157	3157	3157	3157	3157	3157	3157	0	0	0	0	0	0	0	0	3216	3186	3186	3186	3157	3157	3157	3129	3129	3129	3129	3129	3129	3129	3621	3621	3621	3621	3621	3621	3621	3621	3621	3621	3621	3621	3621	3621	3621	3621	3621	3621	3621	3659	3659	3659	3659	3659	3659	3659	3659	3659	3621	3583	3583	3583	3583	3583	3583	3583	3621	3583	3583	3583	3583	3583	3583	3583	3583	3621	3621	3621	3621	3621	3621	3621	3621	3621	3621	3621	3621	3621	3583	3621	3621	3621	3621	3621	3583	3621	3621	3583	3583	3583	3583	3621	3621	3621	3659	3659	3659	3659	3621	3621	3583	3583	3583	3583	3621	3621	3621	3621	3583	3583	3583	3621	3583	3583	3621	3621	3583	3583	3583	3621	3621	3621	3621	3621	3621	3621	3621	3583	3583	3583	3583	3583	3583	3583	3583	3583	3583	3583	3583	3583	3583	3583	3583	3583	3583	3583	3583	3583	3583	3583	3621	3621	3621	3621	3621	3621	3621	3621	3621	3621	3621	3621	3621	3621	3621	3621	3621	3621	3621	3621	3621	3621	3621	3621	3583	3621	3621	3583	3583	3583	3583	3583	3583	3583	3583	3583	3583	3583	3546	3546	3583	3583	3583	3583	3583	3583	3583	3583	3546	3546	3546	3546	3510	3475	3475	3475	3475	0	0	0	0	1649	1649	1649	0	0	0	0	0	0	0	0	0	0	0	0	0	0	0	0	0	0	0	0	0	0	0	0	0	0	0	0	0	0	0	0	0	0	0	0	0	0	0
0	0	0	0	0	0	0	0	0	1240	1240	1240	1240	1240	1240	1245	1245	1245	1245	1245	1249	1249	1249	1249	1259	1263	1268	1272	1282	1282	1287	1287	0	1525	1519	1519	1519	1519	1525	1519	1519	1525	1525	1525	1525	1519	1519	1519	1512	1512	1512	1512	1506	1506	1506	1506	1506	1506	1506	1506	1506	1506	1506	1506	1499	1506	1506	1506	1506	1506	1512	1506	1506	1506	1512	1512	1512	1519	1525	1532	1532	1539	1539	1539	1539	0	2327	2327	2327	2327	2343	2327	2327	2327	2327	2327	2327	2327	2327	2327	2327	2327	2327	2327	2327	2327	2327	2312	2327	2327	2327	2327	2312	2312	2312	2312	2312	2312	2327	2327	2343	2343	2343	2343	0	0	0	0	2027	2015	2015	2003	1969	1969	1969	1969	1969	1969	2359	2343	2343	2343	2343	2327	2327	2327	2343	2343	0	0	0	0	0	2376	2359	2359	2359	2359	2343	2343	2343	2327	2312	2312	2312	2297	2297	2297	2281	2281	2281	2266	2252	2237	2223	2223	2223	2223	2223	2223	2208	2194	2194	2181	2181	0	0	3406	3406	3475	3475	3475	3475	3475	3475	3475	3475	3475	3475	3475	3475	3475	3475	3475	3510	3510	3546	3546	3583	3621	3659	3659	3659	3659	3659	3621	3621	3621	3583	3621	3621	3621	3621	3659	3659	3621	3621	3621	3621	3621	3659	3659	3659	3659	3698	3698	3698	3698	3698	3698	3698	3698	3659	3659	3698	3698	3659	3659	3698	3698	3698	3698	3698	3698	3698	3698	3698	3698	3698	3698	3738	3738	3738	3738	3738	3738	3738	3738	3738	3738	3738	3738	3738	3738	3738	3738	3738	3698	3698	3698	3698	3698	3698	3698	3738	3738	3698	3698	3698	3698	3698	3698	3698	3698	3698	3698	3698	3698	3698	3698	3698	3698	3698	3698	3698	3698	3698	3698	3698	3698	3698	3698	3698	3659	3659	3698	3698	3698	3698	3698	3698	3698	3738	3738	3698	3698	3698	3698	3698	3698	3698	3698	3698	3698	3698	3698	3698	3659	3659	3659	3698	3659	3659	3621	3621	3659	3659	3621	3659	3659	3659	3659	3659	0	0	0	0	3129	3129	3157	3157	3129	3157	3157	3157	3157	3157	3157	3129	3129	3129	3157	3157	3129	3129	3129	3129	3129	3129	3129	3129	3129	3157	0	0	0	0	0	0	0	0	0	3186	3186	3186	3186	3186	3157	3157	3129	3129	3129	3129	3129	3129	3157	3157	3583	3621	3621	3621	3621	3621	3621	3621	3621	3621	3621	3621	3621	3621	3621	3621	3621	3621	3621	3659	3659	3659	3659	3659	3659	3621	3659	3659	3621	3583	3583	3583	3583	3583	3583	3583	3621	3583	3583	3583	3583	3583	3583	3583	3621	3621	3621	3621	3621	3621	3621	3621	3621	3621	3621	3621	3621	3621	3583	3621	3621	3621	3621	3621	3583	3583	3583	3583	3583	3583	3583	3621	3621	3621	3659	3621	3621	3621	3621	3583	3583	3583	3583	3583	3621	3621	3621	3583	3583	3583	3583	3583	3583	3583	3621	3621	3621	3621	3621	3621	3621	3621	3621	3621	3621	3621	3583	3583	3583	3583	3583	3583	3583	3583	3583	3583	3583	3583	3583	3583	3583	3583	3583	3583	3583	3583	3583	3583	3583	3583	3621	3621	3621	3621	3621	3621	3621	3621	3621	3621	3621	3621	3621	3621	3621	3621	3621	3621	3621	3621	3621	3621	3621	3621	3621	3621	3583	3583	3583	3583	3583	3583	3583	3583	3583	3583	3583	3583	3546	3546	3583	3583	3583	3583	3583	3583	3583	3583	3546	3546	3546	3546	3510	3475	3475	0	0	0	0	0	1649	1649	1649	1649	0	0	0	0	0	0	0	0	0	0	0	0	0	0	0	0	0	0	0	0	0	0	0	0	0	0	0	0	0	0	0	0	0	0	0	0	0	0	0
0	0	0	0	0	0	0	0	0	1254	1249	1245	1245	1245	1245	1249	1249	1249	1249	1249	1249	1254	1254	1259	1259	1268	1272	1277	1282	1287	1291	1291	1291	1525	1519	1519	1519	1519	1525	1519	1525	1525	1525	1525	1525	1525	1519	1519	1512	1512	1512	1512	1506	1506	1506	1506	1506	1506	1506	1506	1506	1506	1506	1499	1499	1499	1506	1506	1506	1506	1512	1512	1512	1506	1512	1512	1512	1519	1532	1532	1539	1539	1539	1539	0	0	2327	2327	2327	2327	2343	2343	2343	2343	2343	2343	2343	2327	2343	2343	2343	2343	2327	2327	2343	2343	2343	2327	2327	2343	2359	2359	2343	2343	2343	2343	2343	2327	2327	2327	2343	2343	2359	2359	0	0	0	0	0	2027	2027	2015	1969	1969	1969	1969	1969	1969	2359	2359	2343	2343	2343	2343	2327	2327	2343	2359	2359	0	0	0	2376	2376	2376	2359	2376	2376	2359	2359	2359	2343	2327	2312	2312	2297	2297	2297	2281	2281	2281	2266	2252	2237	2237	2223	2223	2223	2208	2208	2208	2194	2181	2181	2181	0	0	3406	3475	3475	3475	3475	3475	3475	3475	3475	3475	3475	3475	3475	3475	3475	3475	3475	3510	3510	3510	3546	3583	3621	3659	3659	3659	3659	3659	3621	3621	3583	3583	3583	3583	3621	3621	3659	3659	3621	3621	3621	3621	3659	3659	3659	3659	3698	3698	3698	3698	3698	3698	3698	3698	3659	3659	3659	3659	3659	3659	3659	3698	3698	3698	3698	3698	3698	3698	3698	3698	3698	3698	3698	3698	3738	3738	3738	3738	3738	3698	3738	3698	3698	3698	3698	3738	3738	3738	3738	3738	3738	3698	3698	3698	3698	3698	3698	3698	3698	3698	3698	3698	3698	3698	3698	3698	3698	3698	3698	3698	3698	3698	3698	3698	3698	3698	3698	3698	3698	3698	3698	3698	3698	3698	3659	3659	3659	3659	3659	3698	3698	3698	3698	3698	3738	3738	3698	3698	3698	3698	3698	3698	3698	3698	3698	3698	3698	3698	3698	3698	3698	3698	3659	3698	3659	3659	3621	3621	3621	3621	3157	3186	3157	3157	0	0	0	0	0	0	0	0	3157	3157	3157	3186	3157	3186	3157	3157	3157	3129	3129	3157	3157	3157	3157	3157	3129	3157	3129	3129	3129	3129	3129	0	0	0	0	0	0	0	0	0	0	3186	3186	3186	3157	3186	3157	3157	3157	3129	3129	3129	3129	3129	3129	3157	3157	3621	3621	3621	3621	3621	3621	3621	3621	3621	3621	3621	3621	3621	3621	3621	3583	3583	3583	3621	3621	3621	3621	3621	3621	3621	3621	3621	3621	3583	3583	3583	3583	3583	3583	3583	3621	3583	3583	3583	3583	3583	3583	3583	3621	3621	3621	3621	3621	3583	3583	3621	3621	3583	3583	3583	3621	3621	3583	3621	3621	3621	3621	3621	3621	3621	3621	3583	3583	3583	3583	3583	3583	3583	3621	3621	3621	3621	3583	3583	3583	3583	3583	3621	3621	3621	3621	3621	3621	3583	3583	3583	3583	3583	3621	3621	3583	3621	3583	3621	3621	3583	3621	3621	3621	3621	3583	3583	3583	3583	3583	3583	3583	3583	3583	3583	3583	3583	3583	3583	3583	3583	3621	3621	3621	3583	3583	3583	3546	3546	3621	3621	3621	3621	3621	3659	3621	3621	3621	3621	3621	3621	3621	3621	3621	3621	3621	3621	3621	3621	3621	3621	3621	3621	3621	3621	3583	3583	3583	3583	3583	3583	3583	3583	3583	3583	3583	3583	3583	3583	3583	3583	3583	3583	3583	3583	3583	3546	3546	3546	3546	3546	3510	3510	3475	0	0	0	0	1649	1649	1649	1649	1649	0	0	0	0	0	0	0	0	0	0	0	0	0	0	0	0	0	0	0	0	0	0	0	0	0	0	0	0	0	0	0	0	0	0	0	0	0	0	0
0	0	0	0	0	0	0	0	0	1249	1240	1240	1245	1249	1245	1249	1249	1249	1249	1249	1249	1254	1254	1259	1263	1272	1272	1277	1287	1287	1291	1296	1306	1306	1519	1519	1519	1519	1525	1519	1525	1525	1525	1525	1525	1519	1519	1519	1512	1512	1512	1512	1506	1506	1506	1506	1506	1506	1506	1506	1506	1506	1506	1499	1499	1499	1506	1506	1506	1506	1512	1512	1512	1506	1506	1512	1512	1519	1525	1532	1539	1539	1539	1539	0	0	2343	2343	2327	2327	2343	2343	2343	2343	2343	2359	2343	2343	2343	2359	2359	2343	2343	2359	2359	2359	2359	2359	2359	2376	2376	2376	2376	2376	2359	2359	2359	2343	2343	2343	2343	2343	2343	2343	0	0	0	0	0	2039	2039	2015	1969	1969	1969	1969	1969	1969	2359	2359	2359	2359	2343	2343	2343	2343	2359	2359	2359	0	0	0	2376	2376	2376	2376	2376	2376	2376	2376	2359	2359	2327	2312	2312	2297	2297	2297	2281	2281	2281	2266	2252	2237	2237	2223	2223	2223	2208	2208	2208	2194	2181	2181	2181	0	0	0	3440	3475	3475	3475	3475	3475	3440	3475	3475	3440	3475	3475	3475	3475	3475	3475	3510	3510	3510	3510	3546	3621	3659	3659	3659	3659	3659	3621	3621	3621	3583	3583	3621	3621	3621	3659	3659	3659	3659	3621	3621	3659	3659	3659	3659	3698	3698	3698	3698	3698	3698	3698	3698	3659	3659	3659	3659	3659	3659	3659	3659	3698	3698	3698	3698	3698	3698	3698	3698	3698	3698	3698	3738	3738	3738	3738	3738	3738	3698	3738	3698	3698	3698	3698	3738	3738	3738	3698	3698	3698	3698	3698	3698	3698	3698	3698	3698	3698	3698	3698	3698	3698	3698	3698	3698	3698	3698	3698	3698	3698	3698	3698	3698	3698	3698	3698	3698	3698	3698	3698	3698	3698	3698	3698	3659	3659	3659	3698	3698	3698	3698	3698	3698	3698	3698	3698	3698	3698	3698	3698	3698	3698	3698	3698	3698	3698	3698	3698	3698	3659	3659	3659	3659	3659	3659	3621	3621	3621	3157	3157	3186	3157	3186	3186	3186	0	0	0	0	0	0	3157	3186	3186	3186	3186	3186	3157	3157	3157	3129	3129	3157	3157	3157	3129	3129	3129	3129	3129	3129	3129	3129	0	0	0	0	0	0	0	0	0	0	0	0	3186	3157	3157	3157	3157	3129	3129	3129	3129	3129	3129	3129	3129	3129	3129	3129	3659	3621	3659	3621	3621	3621	3621	3621	3621	3621	3621	3621	3621	3621	3583	3583	3583	3621	3621	3621	3621	3621	3621	3621	3621	3621	3621	3621	3583	3583	3583	3583	3583	3583	3583	3583	3583	3583	3583	3583	3583	3583	3583	3583	3583	3621	3583	3583	3621	3583	3621	3583	3583	3583	3583	3621	3583	3621	3621	3621	3621	3621	3621	3621	3621	3621	3621	3583	3583	3621	3621	3583	3621	3621	3621	3621	3583	3583	3583	3583	3583	3621	3621	3621	3583	3583	3583	3583	3583	3583	3583	3583	3583	3583	3583	3621	3583	3621	3621	3583	3621	3621	3621	3583	3583	3583	3583	3583	3583	3583	3583	3583	3583	3583	3583	3583	3583	3583	3583	3583	3621	3621	3621	3583	3583	3583	3583	3583	3621	3621	3621	3621	3621	3621	3621	3621	3621	3621	3621	3621	3621	3621	3621	3621	3621	3621	3621	3621	3621	3621	3621	3583	3621	3583	3583	3583	3583	3583	3583	3583	3583	3583	3583	3583	3583	3583	3546	3583	3583	3583	3583	3583	3583	3583	3583	3583	3546	3546	3546	3546	3546	3510	0	0	0	1657	1657	1649	1649	1649	1649	1649	0	0	0	0	0	0	0	0	0	0	0	0	0	0	0	0	0	0	0	0	0	0	0	0	0	0	0	0	0	0	0	0	0	0	0	0	0	0	0
