0	0	0	0	0	0	0	0	0	1272	1272	1268	1272	1272	1272	1777	1777	1786	1786	1786	1795	1795	1804	1814	1824	1833	1814	1814	1786	1786	1786	1786	1786	1786	1786	1786	1777	1777	1777	1768	1768	1768	1768	1768	1759	1759	1750	1750	1750	1750	1750	1759	1759	1768	1768	1759	1759	1750	1741	1723	1723	1741	1741	1759	1759	1768	1759	1759	1750	1750	1741	1768	1768	1768	1750	1768	1777	1768	1786	1786	1786	1759	1768	1750	1750	1750	1759	1759	1759	1759	1768	1525	1519	1519	1519	1519	1777	1777	1539	1539	1546	1553	1553	1553	1567	1567	1574	1574	1581	1581	1589	1596	1596	1603	1618	1626	1626	1626	1641	1641	1649	1649	1649	1657	1657	1665	1665	1681	1690	1706	1706	1706	1715	1723	1723	1732	1741	1741	1750	1759	1786	1795	1795	1804	1804	0	0	0	0	0	5719	5626	5535	5535	5535	5535	5535	5535	5535	5535	5535	5626	5535	5535	5535	5535	5535	5535	5535	5535	5535	5535	5535	5535	5535	5535	5535	5535	5535	5535	5448	5364	5364	5364	5364	4350	4406	4406	4350	4350	4350	4350	4406	4406	4406	4406	4350	4350	4350	4350	4350	4350	4350	4350	4406	4406	4406	4350	4350	4350	4350	4350	4350	4350	4350	4350	4350	4350	4350	4350	4350	4350	4350	4350	4350	4350	4350	4350	4350	4350	4350	4350	4296	4350	4350	4350	4350	4350	4350	4350	4350	4350	4350	4296	4296	4296	4296	4350	4350	4350	4350	4350	4350	4350	4350	4350	4350	4350	4350	4350	4350	4350	4350	4350	4350	4350	4350	4350	4350	4350	4350	4350	4406	4350	4350	4350	4296	4296	4296	4296	4296	4296	4350	4350	4350	4350	4350	4350	4350	4350	4350	4350	4350	4350	4350	4350	4350	4350	4350	4350	4350	4350	4350	4350	4296	4296	4296	4296	4296	4296	4296	4296	4296	4296	4296	4243	4296	4296	4243	4243	4243	4192	3046	3046	3046	3046	3046	3019	3019	3019	3019	3019	3046	3046	3046	3046	3046	3046	3046	3046	3046	3046	3046	3046	3046	3019	3019	3019	3019	3019	2993	2993	2993	2967	2967	2967	2967	2967	2967	2967	2967	2967	2942	2942	2942	2942	2942	2942	2942	2942	2942	2967	2967	2967	2967	2967	2967	2967	2967	2967	2967	2967	2967	2967	2967	2967	2967	2967	2967	2967	2967	2967	2993	2993	3019	3019	3046	3046	3046	3019	3046	3046	3046	3046	3046	0	3073	3046	3019	2993	2993	2993	2967	2967	2967	2967	4296	4296	4243	4243	4243	4243	4192	4192	4192	4192	4192	4192	4243	4243	4243	4243	4243	4243	4243	4243	4192	4192	4243	4192	4192	4192	4243	4243	4243	4243	4296	4296	4296	4243	4192	4192	4192	4192	4142	4142	4142	4142	4093	4093	4142	4142	4142	4142	4142	4192	4192	4192	4192	4142	4142	4142	4142	4142	4142	4142	4192	4192	4142	4142	4142	4142	4192	4192	4192	4192	4142	4192	4192	4192	4192	4192	4192	4192	4192	4192	4142	4142	4142	4142	4142	4142	4192	4142	4192	4192	4192	4192	4142	4142	4142	4142	4142	4142	4142	4142	4142	4142	4142	4093	4093	4093	4093	4093	4093	7287	7287	7444	7608	7608	7608	7608	7608	7608	7608	7608	7608	7608	7608	7608	7608	7608	7608	7608	7608	7608	7608	7444	7444	7444	7287	7137	6992	6992	6992	5202	5202	5202	5202	5202	5202	5202	5202	5202	5202	5202	5202	5202	5202	5202	5202	5050	4906	4771	4706	4643	4643	4643	4581	4581	4581	4463	4463	4463	4463	4463	4406	4406	4406	4406	4406	4406	4350	4350	4350	4350	4350	4296	4296	4296	4296	4243	4243	4243	4243	4243	0	0	0	0	0	0	0	0	0	0	0	0	0	0	0	0	0	0	0	0	0	0	0	0	0	0	0	0	0	0	0	0	0	0
0	0	0	0	0	0	0	0	0	1263	1268	1263	1268	1268	1268	0	0	1263	1263	1786	1786	1795	1804	1814	1824	1843	1814	1804	1795	1786	1786	1786	1786	1786	1786	1786	1795	1786	1786	1777	1768	1777	1777	1777	1768	1768	1759	1750	1750	1741	1741	1750	1750	1759	1263	1259	1259	1259	1259	1259	1768	1759	1768	1768	1777	1777	1768	1768	1759	1759	1750	1750	1750	1786	1759	1777	1786	1795	1795	1786	1786	1777	1777	1768	1759	1768	1768	1768	1768	1768	1768	1777	1777	1777	1777	1786	1786	1786	1795	1795	1546	1553	1546	1553	1560	1567	1574	1574	1581	1581	1589	1596	1596	1603	1618	1626	1626	1634	1641	1641	1641	1649	1649	1657	1657	1665	1665	1681	1690	1706	1706	1706	1715	1723	1723	1732	1732	1741	1759	1768	1786	1795	1795	1804	1804	0	0	0	0	0	5626	5626	5535	5535	5535	5535	5535	5535	5535	5535	5535	5626	5626	5535	5535	5535	5535	5535	5535	5535	5535	5535	5535	5535	5535	5535	5448	5448	5448	5448	5448	5364	5364	5364	5364	4350	4350	4350	4350	4350	4350	4350	4350	4350	4350	4406	4350	4406	4350	4350	4350	4350	4350	4350	4350	4350	4350	4350	4350	4350	4350	4350	4350	4350	4350	4350	4350	4350	4350	4350	4350	4350	4350	4350	4350	4350	4350	4350	4350	4350	4296	4296	4296	4350	4350	4350	4350	4350	4350	4350	4350	4350	4350	4350	4296	4296	4296	4350	4350	4350	4350	4350	4350	4350	4350	4350	4350	4350	4350	4350	4350	4350	4350	4350	4350	4350	4350	4350	4350	4350	4350	4350	4350	4350	4350	4350	4296	4296	4296	4296	4296	4296	4350	4350	4350	4350	4350	4350	4350	4350	4350	4350	4350	4350	4350	4350	4350	4350	4350	4350	4350	4350	4350	4296	4296	4296	4296	4296	4296	4296	4296	4296	4296	4296	4296	4243	4243	4243	4243	4243	4243	4192	4192	3019	3046	3046	3046	3019	3019	3019	3019	3019	3046	3046	3046	3046	3046	3046	3046	3019	3046	3019	3046	3019	3019	3019	3019	3019	3019	3019	2993	2993	2993	2993	2967	2967	2967	2967	2967	2967	2942	2942	2942	2942	2942	2942	2942	2942	2942	2942	2942	2967	2967	2967	2967	2967	2967	2967	2967	2967	2967	2967	2967	2967	2967	2967	2967	2967	2967	2967	2967	2967	2993	2993	3019	2993	3019	3046	3046	3019	3019	3046	3046	3046	3046	2993	2993	2993	2993	2993	2993	2967	2967	2967	2967	2967	4350	4350	4296	4243	4243	4243	4192	4192	4192	4192	4192	4192	4192	4192	4243	4192	4192	4192	4192	4243	4192	4243	4243	4192	4192	4192	4192	4243	4243	4243	4243	4296	4296	4243	4192	4192	4192	4192	4142	4142	4142	4142	4142	4142	4142	4142	4142	4142	4142	4142	4142	4142	4142	4142	4142	4142	4142	4142	4142	4142	4142	4192	4142	4142	4142	4142	4192	4192	4192	4192	4142	4142	4192	4192	4192	4142	4142	4192	4192	4192	4142	4142	4142	4142	4142	4142	4192	4142	4192	4192	4192	4192	4142	4142	4142	4142	4142	4142	4142	4142	4142	4142	4142	4142	4142	4093	4142	4093	4045	4045	7444	7444	7444	7608	7608	7608	7608	7608	7608	7608	7608	7608	7608	7608	7608	7608	7608	7608	7444	7608	7444	7444	7287	7287	7287	7287	7137	7137	7137	5202	5202	5202	5202	5202	5202	5202	5202	5202	5202	5202	5202	5202	5202	5202	5202	5050	4977	4771	4706	4643	4643	4643	4581	4581	4581	4521	4463	4463	4463	4463	4463	4350	4406	4406	4406	4406	4350	4350	4350	4350	4296	4296	4296	4296	4296	4243	4243	4243	4243	4243	0	0	0	0	0	0	0	0	0	0	0	0	0	0	0	0	0	0	0	0	0	0	0	0	0	0	0	0	0	0	0	0	0	0
0	0	0	0	0	0	0	0	0	1268	1268	1268	1268	1263	1263	1268	1263	1263	1263	1263	1263	1263	1263	1263	1263	1843	1814	1814	1804	1795	1263	1263	1259	1259	1259	1786	1795	1795	1786	1777	1777	1777	1777	1777	1254	1254	1254	1259	1259	1259	1259	1759	1268	1263	1263	1259	1259	1259	1259	1259	1254	1254	1768	1768	1777	1777	1768	1768	1759	1759	1750	1759	1768	1786	1777	1786	1786	1786	1795	1777	1777	1777	1777	1777	1768	1768	1768	1768	1768	1768	1768	1777	1768	1777	1786	1795	1795	1795	1795	1795	1553	1553	1560	1560	1567	1567	1574	1574	1581	1581	1589	1596	1596	1618	1626	1634	1634	1634	1641	1641	1641	1649	1649	1657	1657	1665	1665	1673	1690	1706	1706	1706	1715	1723	1723	1732	1741	1741	1750	1777	1786	1786	1795	1795	1804	0	0	0	0	5815	5626	5626	5626	5535	5535	5535	5535	5535	5535	5535	5535	5626	5535	5535	5535	5535	5535	5535	5535	5535	5535	5535	5535	5535	5535	5535	5448	5448	5535	5535	5448	5364	5364	5364	5364	4350	4350	4406	4350	4350	4350	4350	4350	4350	4406	4350	4350	4406	4406	4350	4350	4350	4350	4350	4350	4350	4350	4350	4350	4350	4350	4350	4350	4350	4350	4350	4350	4350	4350	4350	4350	4350	4350	4350	4350	4350	4350	4350	4350	4350	4296	4296	4296	4350	4350	4350	4350	4350	4350	4350	4350	4350	4350	4296	4296	4296	4296	4296	4296	4296	4296	4350	4350	4350	4350	4350	4350	4350	4350	4350	4350	4350	4350	4350	4350	4350	4350	4350	4350	4350	4350	4350	4350	4350	4350	4350	4296	4296	4296	4350	4350	4350	4350	4350	4350	4350	4350	4350	4350	4350	4350	4350	4350	4350	4350	4350	4350	4350	4350	4350	4350	4350	4350	4296	4296	4296	4296	4296	4296	4296	4296	4350	4296	4296	4350	4243	4243	4243	4243	4243	4243	4243	4243	4243	3019	3019	3046	3019	3019	3019	3019	3046	3046	3046	3046	3046	3046	3046	3046	3019	3046	3019	3019	3019	3019	3019	3019	3019	2993	2993	2993	2993	2967	2967	2967	2967	2967	2967	2967	2967	2942	2942	2942	2942	2942	2942	2942	2942	2942	2942	2942	2967	2967	2967	2967	2967	2967	2967	2967	2967	2967	2967	2967	2967	2967	2967	2967	2967	2967	2967	2967	2967	2993	2993	3019	3019	3019	3046	3046	3019	3019	3019	3046	3046	3046	2993	2993	2993	2993	2967	2967	2967	2967	2942	2942	2942	4350	4350	4243	4243	4243	4243	4192	4192	4192	4192	4192	4192	4192	4192	4192	4192	4192	4192	4192	4192	4192	4243	4243	4192	4192	4192	4243	4243	4243	4243	4243	4296	4243	4243	4192	4192	4192	4142	4142	4142	4142	4142	4093	4093	4142	4142	4142	4142	4142	4192	4192	4192	4192	4142	4142	4142	4093	4093	4142	4192	4192	4192	4192	4142	4142	4142	4142	4142	4142	4192	4142	4142	4192	4192	4192	4142	4142	4192	4142	4142	4142	4142	4142	4093	4093	4142	4142	4142	4142	4142	4142	4142	4142	4142	4142	4142	4142	4142	4142	4142	4142	4142	4142	4142	4142	4142	4142	4093	4045	4045	7444	7444	7444	7608	7608	7779	7608	7608	7608	7608	7608	7608	7608	7608	7608	7608	7608	7444	7444	7444	7444	7444	7287	7287	7287	7287	7137	7137	7137	5125	5125	5202	5282	5282	5282	5202	5202	5202	5202	5202	5202	5202	5202	5282	5202	4977	4906	4771	4706	4643	4643	4643	4581	4581	4581	4521	4463	4463	4463	4463	4463	4350	4406	4406	4406	4406	4350	4350	4350	4350	4296	4296	4296	4296	4296	4243	4243	4243	4243	4243	0	0	0	0	0	0	0	0	0	0	0	0	0	0	0	0	0	0	0	0	0	0	0	0	0	0	0	0	0	0	0	0	0	0
0	0	0	0	0	0	0	0	0	1263	1263	1263	1263	1263	1263	1263	1263	1263	1263	1263	1263	1263	1263	1263	1263	1259	1259	1814	1804	1795	1263	1263	1259	1259	1254	1254	0	1795	1786	1777	1245	1245	1249	1249	1249	1249	1254	1254	1259	1259	1259	1263	1263	1263	1263	1259	1259	1259	1259	1259	1254	1259	1259	1259	1777	1777	1768	1768	1759	1750	1750	1750	1777	1795	1786	1795	1795	1804	1804	1795	1795	1786	1786	1777	1777	1777	1768	1768	1768	1768	1777	1777	1777	1777	1786	1795	1795	1795	1795	1795	1560	1560	1560	1560	1567	1567	1574	1574	1581	1581	1626	1626	1596	1626	1634	1641	1641	1641	1641	1649	1649	1649	1649	1657	1657	1665	1665	1690	1698	1706	1706	1706	1715	1723	1732	1732	1732	1741	1741	1777	1786	1795	1804	1804	1804	0	0	0	0	5815	5815	5626	5626	5626	5535	5535	5535	5535	5535	5535	5535	5535	5535	5535	5535	5535	5535	5535	5535	5535	5535	5535	5535	5535	5535	5535	5535	5535	5535	5535	5535	5364	5364	5364	5364	4350	4350	4350	4350	4350	4350	4350	4350	4350	4350	4350	4350	4350	4350	4350	4350	4350	4350	4350	4350	4350	4350	4350	4350	4350	4350	4350	4350	4350	4350	4350	4350	4350	4350	4350	4350	4350	4350	4350	4350	4350	4350	4350	4350	4350	4296	4350	4350	4350	4350	4350	4350	4350	4350	4350	4350	4350	4350	4296	4296	4296	4296	4296	4296	4296	4296	4350	4350	4350	4350	4350	4350	4296	4296	4350	4296	4350	4350	4350	4350	4350	4350	4350	4350	4350	4350	4350	4350	4350	4350	4350	4350	4350	4350	4350	4350	4350	4350	4350	4350	4350	4350	4350	4350	4350	4350	4350	4350	4350	4350	4350	4350	4350	4350	4350	4350	4350	4350	4350	4296	4296	4296	4296	4296	4350	4350	4350	4350	4350	4350	4296	4296	4243	4243	4296	4296	4243	4243	4243	3019	3046	3019	3019	3046	3019	3019	3046	3046	3046	3046	3046	3046	3046	3046	3046	3046	3019	3019	3019	3019	3019	3019	3019	2993	2993	2993	2993	2993	2993	2967	2967	2967	2967	2967	2967	2942	2942	2942	2942	2942	2967	2967	2942	2942	2942	2942	2967	2967	2967	2967	2967	2967	2967	2967	2967	2967	2967	2967	2967	2967	2967	2967	2967	2967	2967	2967	2967	2993	3019	3019	3019	3046	3046	3046	3019	3019	3019	2993	2993	2993	2967	2967	2967	2993	2967	2967	2967	2942	2942	2942	2942	4406	4406	4350	4296	4296	4243	4243	4192	4192	4192	4192	4192	4192	4192	4192	4192	4192	4192	4192	4192	4192	4192	4243	4192	4192	4192	4243	4243	4243	4243	4243	4243	4243	4243	4192	4192	4192	4192	4142	4142	4142	4142	4142	4142	4142	4192	4142	4142	4192	4192	4192	4192	4142	4142	4142	4192	4192	4142	4142	4192	4192	4192	4192	4142	4192	4142	4142	4142	4142	4192	4142	4142	4142	4142	4192	4142	4142	4142	4142	4142	4142	4142	4093	4045	4045	4093	4093	4142	4142	4142	4142	4142	4142	4142	4142	4142	4142	4142	4142	4142	4142	4142	4142	4142	4142	4142	4142	4142	4045	4045	7608	7608	7608	7608	7608	7608	7608	7608	7608	7608	7608	7608	7608	7608	7444	7608	7608	7444	7444	7444	7444	7287	7287	7137	7137	7137	7137	5050	5125	5125	5202	5202	5282	5282	5202	5202	5202	5202	5202	5202	5202	5202	5202	5282	5202	4977	4906	4771	4706	4643	4643	4643	4643	4581	4581	4581	4521	4463	4463	4463	4463	4406	4406	4406	4406	4406	4350	4350	4350	4350	4350	4350	4296	4296	4296	4243	4243	4192	4192	4192	0	0	0	0	0	0	0	0	0	0	0	0	0	0	0	0	0	0	0	0	0	0	0	0	0	0	0	0	0	0	0	0	0	0
0	0	0	0	0	0	0	0	0	1259	1263	1263	1259	1259	1259	1259	1259	1263	1259	1259	1259	1263	1263	1263	1263	1263	1263	1263	1259	1259	1259	1259	1259	1259	1259	1259	1254	1249	1245	1249	1254	1249	1245	1249	1245	1249	1249	1254	1254	1254	1259	1259	1263	1259	1263	1259	1259	1259	1259	1259	1254	1259	1259	1268	1268	1272	1277	1277	1277	1750	1750	1795	1795	1795	1804	1804	1804	1804	1804	1804	1804	1804	1795	1786	1777	1777	1777	1777	1777	1777	1804	1777	1777	1786	1795	1795	1795	1795	1795	1804	1804	1804	1804	1804	1814	1824	1824	1824	1804	1804	1626	1626	0	1626	1641	1641	1641	1649	1641	1649	1649	1657	1665	1665	1665	1665	1673	1681	1690	1690	1723	1732	1732	1732	1732	1732	1741	1750	1750	1768	1786	1795	1795	1804	1804	0	0	0	0	5815	5815	5626	5626	5626	5626	5535	5535	5535	5535	5535	5535	5535	5535	5535	5535	5535	5535	5535	5535	5535	5535	5535	5535	5535	5535	5535	5535	5535	5535	5535	5535	5364	5364	5364	5364	4350	4350	4350	4350	4350	4350	4350	4350	4350	4350	4350	4350	4350	4350	4350	4350	4350	4350	4350	4350	4350	4350	4350	4350	4350	4350	4350	4350	4350	4350	4350	4350	4350	4350	4350	4350	4350	4350	4350	4350	4350	4350	4350	4350	4350	4350	4350	4350	4350	4350	4350	4350	4350	4350	4350	4350	4350	4296	4296	4296	4296	4296	4296	4296	4296	4296	4296	4350	4350	4296	4350	4350	4350	4350	4350	4296	4350	4350	4350	4350	4350	4350	4350	4350	4350	4350	4350	4350	4350	4350	4350	4350	4350	4350	4350	4350	4350	4350	4350	4350	4350	4350	4350	4350	4350	4350	4350	4350	4350	4350	4350	4350	4350	4350	4350	4350	4350	4350	4350	4296	4296	4350	4350	4350	4350	4350	4350	4350	4350	4350	4296	4296	4243	4243	4296	4296	4243	4243	4243	3046	3046	3019	3046	3019	3019	3019	3046	3046	3046	3046	3046	3046	3046	3046	3019	3046	3019	3019	3019	3019	3019	3019	3019	2993	2993	2993	2993	2993	2993	2993	2967	2967	2967	2967	2967	2942	2942	2942	2942	2942	2942	2942	2942	2942	2942	2967	2967	2967	2967	2967	2967	2967	2967	2967	2967	2967	2967	2967	2967	2967	2967	2967	2967	2967	2967	2967	2967	2993	2993	3019	3019	3019	3046	3019	3019	3019	3019	2993	2993	2993	2967	2967	2967	2967	2967	2967	2942	2942	2917	2917	2917	4350	4350	4296	4296	4296	4296	4243	4192	4243	4243	4192	4192	4192	4192	4192	4192	4192	4192	4192	4192	4192	4192	4192	4192	4192	4192	4243	4243	4243	4243	4243	4243	4243	4243	4192	4192	4192	4192	4142	4142	4142	4093	4142	4142	4142	4142	4142	4142	4142	4192	4192	4142	4142	4142	4192	4192	4142	4142	4142	4142	4192	4192	4142	4142	4192	4192	4192	4192	4192	4192	4142	4142	4142	4142	4142	4142	4142	4142	4142	4142	4093	4093	4093	4093	4045	4093	4093	4093	4142	4142	4142	4142	4142	4142	4142	4142	4142	4142	4142	4142	4142	4192	4142	4142	4142	4142	4142	4142	4045	4045	4045	7608	7779	7608	7608	7608	7608	7608	7779	7779	7608	7608	7608	7608	7608	7608	7608	7444	7444	7444	7444	7287	7287	7137	7137	7137	7287	5050	5125	5125	5202	5202	5282	5282	5202	5202	5202	5202	5202	5202	5202	5202	5202	5202	5202	4977	4906	4706	4706	4643	4643	4643	4643	4643	4643	4581	4581	4463	4463	4463	4463	4406	4406	4406	4406	4406	4350	4350	4350	4350	4350	4350	4296	4296	4243	4243	4243	4243	4243	4243	0	0	0	0	0	0	0	0	0	0	0	0	0	0	0	0	0	0	0	0	0	0	0	0	0	0	0	0	0	0	0	0	0	0
0	0	0	0	0	0	0	0	0	1259	1263	1263	1259	1263	1268	1263	1263	1263	1263	1263	1263	1263	1263	1263	1263	1263	1263	1259	1259	1259	1259	1259	1254	1254	1259	1259	1254	1254	1254	1254	1254	1254	1249	1249	1249	1249	1254	1254	1254	1254	1259	1259	1259	1259	1259	1259	1259	1259	1259	1259	1259	1259	1259	1263	1268	1272	1277	1277	1277	0	0	1804	1804	1804	1804	1804	1804	1804	1814	1814	1804	1804	1804	1804	1804	1777	1777	1777	1804	1804	1804	1804	1804	1795	1795	1795	1795	1795	1804	1804	1804	1804	1814	1804	1814	1814	1814	1804	1804	1824	1824	0	0	0	1641	1649	1641	1649	1649	1649	1657	1657	1665	1673	1673	1673	1673	1690	1698	1706	1732	1732	1732	1741	1741	1741	1741	1750	1750	1768	1777	1795	1795	1804	1804	0	0	0	0	5815	5815	5535	5626	5626	5626	5535	5535	5535	5535	5535	5535	5535	5535	5448	5448	5448	5535	5535	5535	5535	5535	5535	5535	5535	5535	5535	5535	5535	5535	5535	5535	5364	5364	5364	5364	5364	4350	4350	4350	4350	4350	4350	4350	4350	4406	4406	4406	4350	4406	4406	4350	4350	4350	4350	4350	4350	4350	4350	4350	4350	4350	4350	4350	4350	4350	4350	4350	4350	4350	4350	4350	4350	4350	4350	4350	4350	4350	4350	4350	4350	4350	4350	4350	4350	4350	4350	4350	4350	4350	4350	4350	4296	4296	4296	4296	4296	4296	4296	4296	4296	4296	4296	4350	4296	4296	4350	4350	4350	4350	4350	4350	4350	4350	4296	4296	4350	4350	4350	4350	4350	4350	4350	4350	4350	4350	4350	4350	4350	4350	4350	4350	4350	4350	4350	4350	4350	4350	4350	4350	4350	4350	4350	4350	4350	4350	4350	4350	4350	4350	4350	4350	4350	4350	4350	4296	4350	4350	4350	4350	4350	4350	4350	4350	4350	4350	4296	4296	4296	4243	4296	4296	4296	4243	4243	3046	3046	3019	3019	3019	3019	3046	3046	3046	3046	3046	3046	3046	3046	3046	3019	3019	3019	3019	3019	2993	2993	2993	2993	2967	2993	2993	2967	2967	2967	2967	2967	2967	2967	2967	2967	2942	2942	2942	2942	2942	2942	2942	2942	2942	2942	2967	2967	2967	2967	2967	2967	2967	2967	2967	2967	2967	2967	2967	2967	2967	2967	2967	2967	2967	2967	2967	2967	2967	2993	3019	3019	3019	3046	3019	3019	3019	3019	2993	2993	2993	2967	2967	2967	2967	2967	2967	2942	2942	2917	2942	2942	4350	4350	4296	4296	4296	4296	4243	4243	4243	4243	4192	4192	4192	4192	4192	4192	4192	4192	4243	4192	4192	4192	4192	4192	4192	4243	4192	4243	4243	4192	4243	4243	4243	4243	4192	4192	4192	4192	4142	4142	4142	4142	4142	4142	4142	4192	4142	4192	4192	4192	4192	4142	4142	4142	4192	4192	4142	4142	4142	4142	4142	4142	4142	4142	4142	4142	4192	4142	4142	4192	4142	4142	4142	4142	4192	4142	4142	4142	4142	4142	4093	4093	4045	4093	4093	4093	4093	4093	4093	4093	4093	4093	4093	4142	4142	4142	4142	4142	4142	4142	4192	4192	4192	4192	4192	4142	4192	4142	4093	4093	4093	7779	7779	7608	7608	7608	7608	7779	7779	7779	7779	7779	7779	7779	7608	7608	7608	7444	7444	7444	7444	7287	7287	7287	7137	7287	7287	7287	5125	5202	5202	5202	5202	5202	5202	5202	5202	5202	5202	5202	5202	5202	5202	5202	5125	4977	4977	4838	4706	4643	4643	4643	4643	4643	4643	4643	4581	4521	4521	4463	4463	4406	4406	4406	4406	4406	4350	4350	4350	4350	4350	4350	4296	4296	4296	4296	4243	4243	4243	4243	0	0	0	0	0	0	0	0	0	0	0	0	0	0	0	0	0	0	0	0	0	0	0	0	0	0	0	0	0	0	0	0	0	0
0	0	0	0	0	0	0	0	0	1259	1259	1263	1263	1263	1268	1263	1263	1263	1263	1263	1263	1263	1263	1263	1263	1263	1268	1263	1263	1259	1259	1254	1254	1254	1254	1254	1254	1254	1254	1254	1254	1254	1249	1249	1249	1249	1254	1254	1254	1254	1254	1254	1254	1254	1254	1254	1254	1254	1254	1259	1259	1259	1263	1268	1268	1272	1272	1282	1282	1282	0	1804	1804	1804	1804	1804	1804	1814	1814	1804	1814	1814	1804	1804	1804	1804	1777	1804	1804	1804	1804	1804	1804	1804	1795	1804	1795	1795	1795	1804	1804	1804	1804	1814	1814	1814	1814	1814	1824	1824	1814	1814	0	1649	1649	1649	1641	1649	1649	1657	1657	1665	1673	1681	1681	1690	1690	1698	1715	1723	1732	1732	1741	1741	1741	1732	1741	1750	1750	1768	1786	1795	1804	1804	1804	0	0	0	0	5815	5626	5535	5626	5626	5626	5535	5535	5535	5535	5535	5535	5535	5535	5448	5535	5448	5535	5535	5448	5535	5535	5535	5535	5535	5535	5535	5535	5535	5535	5535	5535	5364	5364	5364	5364	4406	4406	4406	4350	4350	4350	4350	4350	4350	4350	4350	4350	4406	4406	4406	4406	4406	4350	4350	4350	4350	4350	4350	4350	4350	4350	4350	4350	4350	4350	4350	4350	4350	4350	4350	4350	4350	4350	4350	4350	4350	4350	4350	4350	4350	4350	4350	4350	4350	4350	4350	4350	4350	4350	4350	4350	4296	4296	4296	4296	4296	4296	4296	4296	4296	4350	4296	4296	4296	4296	4350	4350	4296	4350	4350	4350	4350	4296	4296	4296	4296	4296	4350	4350	4350	4350	4350	4350	4350	4350	4350	4350	4350	4350	4350	4350	4350	4350	4350	4350	4350	4350	4350	4350	4350	4350	4350	4350	4350	4350	4350	4350	4350	4350	4350	4350	4350	4350	4350	4350	4350	4350	4350	4350	4350	4350	4350	4350	4350	4350	4296	4296	4296	4296	4296	4296	4296	4243	4243	3046	3046	3019	3019	3019	3046	3046	3046	3046	3046	3046	3046	3046	3046	3046	3019	3019	3019	3019	3019	2993	2993	2993	2993	2967	2967	2967	2967	2967	2967	2967	2967	2967	2967	2967	2967	2967	2942	2942	2942	2942	2942	2942	2942	2942	2942	2967	2942	2967	2967	2967	2967	2967	2967	2967	2967	2967	2967	2967	2967	2967	2967	2967	2967	2967	2967	2967	2993	2967	2993	3019	3019	3019	3046	3046	3019	3019	3019	2993	2993	2993	2967	2967	2967	2967	2967	2967	2967	2942	2942	2942	2942	4350	4296	4296	4296	4296	4296	4243	4243	4243	4243	4243	4192	4243	4243	4243	4243	4243	4243	4243	4243	4243	4192	4243	4243	4243	4192	4192	4192	4243	4192	4192	4243	4243	4243	4192	4192	4192	4192	4142	4192	4142	4142	4142	4142	4192	4192	4142	4192	4192	4192	4192	4142	4142	4142	4142	4142	4093	4142	4093	4142	4142	4142	4142	4142	4192	4192	4142	4142	4142	4192	4142	4142	4142	4142	4142	4142	4142	4142	4142	4142	4142	4093	4093	4093	4093	4093	4093	4093	4142	4142	4093	4093	4093	4093	4142	4142	4142	4142	4142	4142	4192	4192	4192	4192	4192	4142	4192	4142	4142	4093	4093	7779	7779	7608	7608	7608	7608	7779	7779	7779	7779	7779	7779	7779	7608	7444	7444	7444	7287	7287	7287	7287	7287	7287	7287	7287	7287	5050	5202	5202	5202	5202	5202	5202	5202	5202	5202	5202	5202	5202	5202	5202	5202	5202	5125	4977	4977	4771	4706	4643	4643	4643	4643	4643	4643	4643	4643	4643	4581	4521	4521	4406	4406	4406	4406	4406	4350	4350	4350	4350	4296	4296	4243	4243	4243	4243	4243	4243	4243	4243	0	0	0	0	0	0	0	0	0	0	0	0	0	0	0	0	0	0	0	0	0	0	0	0	0	0	0	0	0	0	0	0	0	0
0	0	0	0	0	0	0	0	0	1259	1259	1259	1259	1259	1263	1263	1263	1263	1263	1263	1263	1263	1263	1263	1263	1263	1263	1263	1263	1259	1259	1259	1254	1254	1259	1259	1254	1254	1254	1254	1254	1254	1249	1249	1249	1249	1249	1254	1254	1254	1254	1259	1254	1254	1254	1254	1254	1254	1259	1254	1259	1259	1259	1263	1268	1272	1272	1282	1282	1282	0	0	1804	1804	1804	1804	1804	1814	1814	1804	1804	1804	1804	1804	1804	1804	1814	1804	1814	1814	1814	1804	1804	1804	1804	1804	1804	1795	1804	1804	1804	1804	1804	1804	1814	1814	1814	1814	1814	1804	1804	1804	1804	1804	1804	1814	1814	1649	1649	1649	1665	1665	1673	1690	1681	1690	1698	1698	1715	1723	1732	1732	1741	1741	1741	1741	1741	1750	1750	1768	1768	1768	1814	1814	1814	0	0	0	0	5815	5626	5535	5626	5626	5626	5535	5535	5535	5535	5535	5535	5535	5448	5448	5448	5448	5448	5448	5448	5535	5535	5535	5535	5535	5535	5535	5535	5535	5535	5535	5535	5448	5364	5364	5364	4406	4350	4350	4350	4350	4350	4350	4350	4350	4350	4350	4350	4406	4406	4350	4406	4406	4350	4350	4350	4350	4350	4350	4350	4350	4350	4350	4350	4350	4350	4350	4350	4350	4350	4350	4350	4350	4350	4350	4350	4350	4350	4406	4350	4350	4350	4350	4350	4350	4350	4350	4350	4350	4350	4406	4350	4350	4350	4350	4350	4350	4296	4296	4296	4296	4296	4296	4296	4296	4350	4350	4350	4350	4350	4350	4350	4350	4296	4296	4296	4296	4296	4296	4350	4350	4350	4350	4350	4350	4350	4350	4350	4350	4350	4350	4350	4350	4350	4350	4350	4350	4350	4350	4350	4350	4350	4350	4350	4350	4350	4350	4350	4350	4350	4350	4350	4350	4350	4350	4350	4350	4350	4350	4350	4350	4350	4350	4350	4296	4350	4296	4296	4296	4296	4296	4296	4296	4243	4243	3073	3046	3019	3019	3046	3046	3019	3046	3046	3046	3046	3046	3019	3046	3019	3019	3019	3019	3019	3019	2993	2993	2993	2993	2967	2967	2967	2967	2967	2967	2967	2967	2967	2967	2967	2967	2967	2967	2942	2942	2942	2942	2942	2942	2942	2967	2967	2967	2967	2967	2967	2967	2967	2967	2967	2967	2967	2967	2967	2967	2967	2967	2967	2967	2967	2967	2967	2993	2993	3019	3019	3019	3019	3046	3046	3019	3019	3019	2993	2993	2967	2967	2967	2967	2967	2967	2967	2942	2942	2942	2942	2893	2893	4296	4296	4296	4296	4296	4243	4243	4192	4192	4192	4192	4192	4192	4192	4192	4192	4243	4243	4243	4243	4243	4243	4243	4243	4192	4192	4192	4192	4192	4192	4243	4243	4243	4192	4192	4192	4192	4192	4142	4142	4142	4192	4192	4192	4192	4142	4142	4192	4192	4142	4142	4142	4142	4142	4142	4093	4142	4142	4142	4142	4142	4142	4142	4192	4192	4192	4142	4142	4142	4142	4142	4093	4142	4142	4142	4142	4142	4142	4142	4142	4093	4093	4093	4093	4093	4093	4093	4093	4142	4093	4093	4093	4093	4142	4142	4142	4142	4142	4192	4192	4192	4192	4192	4192	4142	4142	4142	4142	4093	4093	7959	7779	7608	7608	7608	7608	7779	7779	7608	7779	7779	7779	7608	7608	7444	7444	7287	7287	7287	7137	7137	7137	7287	7137	7287	7287	5125	5202	5202	5202	5202	5282	5202	5202	5202	5202	5202	5202	5202	5202	5202	5202	5202	5125	4977	4906	4771	4706	4706	4643	4643	4643	4643	4643	4643	4643	4643	4581	4521	4521	4406	4406	4406	4406	4406	4350	4350	4350	4350	4296	4296	4296	4243	4243	4296	4243	4296	4243	4243	0	0	0	0	0	0	0	0	0	0	0	0	0	0	0	0	0	0	0	0	0	0	0	0	0	0	0	0	0	0	0	0	0	0
0	0	0	0	0	0	0	0	0	0	1259	1263	1263	1263	1263	1263	1259	1259	1263	1259	1263	1263	1263	1263	1263	1268	1263	1259	1263	1259	1254	1254	1254	1254	1259	1259	1254	1254	1254	1254	1254	1254	1249	1254	1254	1254	1254	1254	1254	1254	1254	1254	1254	1254	1254	1254	1254	1254	1254	1254	1254	1254	1259	1259	1268	1272	1272	1282	1282	1287	1287	0	1804	1804	1814	1814	1814	1814	1814	1804	1804	1804	1804	1804	1814	1804	1804	1814	1814	1814	1814	1804	1804	1804	1804	1804	1804	1804	1795	1795	1804	1804	1804	1804	1814	1814	1814	1814	1814	1804	1804	1795	1804	1804	1804	1814	1814	1824	1824	1833	1804	1804	1681	1690	1690	1698	1706	1706	1715	1732	1732	1741	1741	1741	1750	1741	1741	1750	1750	1759	1768	1768	1768	1814	1814	0	0	5815	5815	5719	5626	5626	5535	5626	5626	5535	5535	5535	5535	5535	5448	5535	5448	5448	5448	5448	5535	5535	5535	5535	5535	5535	5535	5535	5535	5535	5535	5535	5535	5535	5535	5448	5364	5364	5448	4406	4406	4350	4350	4350	4350	4350	4350	4350	4350	4350	4350	4350	4350	4350	4350	4350	4350	4406	4406	4350	4350	4350	4350	4350	4350	4350	4350	4350	4350	4350	4350	4350	4350	4296	4350	4350	4350	4350	4350	4350	4350	4350	4350	4350	4350	4350	4350	4350	4350	4350	4350	4350	4350	4350	4350	4350	4350	4350	4350	4350	4350	4350	4296	4296	4350	4296	4296	4350	4350	4350	4350	4350	4350	4350	4350	4350	4296	4296	4296	4296	4296	4296	4296	4350	4350	4350	4350	4350	4350	4350	4350	4350	4350	4350	4350	4350	4350	4350	4350	4350	4350	4350	4350	4350	4350	4350	4350	4350	4350	4350	4350	4350	4296	4350	4350	4350	4350	4350	4350	4350	4350	4350	4350	4350	4350	4350	4350	4296	4350	4296	4296	4296	4296	4296	4296	4296	4243	4243	3073	3046	3019	3019	3046	3019	3019	3019	3019	3019	3019	3019	3019	3046	3046	3019	3019	2993	3019	2993	2993	2993	2993	2993	2967	2967	2967	2967	2967	2967	2967	2967	2967	2967	2967	2967	2967	2967	2967	2967	2967	2967	2967	2942	2967	2967	2967	2967	2967	2967	2967	2967	2967	2967	2967	2967	2967	2967	2967	2967	2967	2967	2967	2967	2967	2967	2993	2993	2993	2993	3019	3019	3019	3019	3019	3019	3019	3019	2993	2993	2967	2967	2967	2967	2967	2967	2967	2942	2942	2942	2942	2893	2893	2893	4296	4243	4243	4243	4243	4243	4243	4243	4192	4243	4192	4192	4192	4192	4243	4243	4243	4243	4243	4243	4243	4243	4243	4192	4192	4192	4192	4142	4142	4192	4192	4243	4192	4192	4192	4192	4192	4192	4192	4192	4192	4192	4192	4142	4142	4142	4192	4192	4192	4142	4142	4142	4142	4142	4142	4142	4142	4142	4142	4142	4142	4142	4192	4192	4142	4142	4142	4142	4142	4142	4093	4093	4093	4093	4093	4093	4093	4093	4093	4142	4142	4142	4142	4142	4093	4093	4093	4093	4093	4093	4093	4093	4142	4142	4142	4142	4192	4192	4192	4192	4192	4192	4142	4142	4142	4142	4093	4093	4093	7779	7779	7608	7608	7608	7608	7608	7779	7608	7608	7608	7608	7608	7608	7444	7444	7444	7287	7287	7287	7287	7287	7137	7137	7137	5202	5202	5202	5202	5282	5282	5282	5282	5202	5282	5202	5202	5202	5202	5202	5202	5202	5125	5125	4906	4906	4771	4706	4706	4706	4643	4643	4643	4643	4643	4643	4643	4581	4581	4521	4406	4406	4406	4406	4406	4350	4350	4350	4350	4296	4350	4296	4243	4243	4243	4243	4243	4192	4192	0	0	0	0	0	0	0	0	0	0	0	0	0	0	0	0	0	0	0	0	0	0	0	0	0	0	0	0	0	0	0	0	0	0
0	0	0	0	0	0	0	0	0	0	1263	1263	1263	1263	1263	1263	1263	1263	1263	1263	1263	1263	1263	1263	1263	1263	1263	1263	1263	1259	1254	1259	1254	1254	1259	1259	1254	1254	1254	1254	1254	1254	1254	1254	1254	1254	1259	1254	1254	1254	1254	1249	1254	1249	1249	1254	1254	1254	1254	1254	1254	1254	1259	1259	1263	1272	1272	1282	1287	1291	1291	1291	0	1804	1824	1814	1814	1814	1814	1814	1814	1804	1804	1804	1804	1804	1814	1814	1814	1814	1804	1804	1804	1804	1804	1804	1804	1795	1804	1804	1814	1814	1814	1814	1814	1814	1814	1814	1804	1804	1795	1795	1804	1795	1804	1814	1814	1814	1814	1814	1804	1804	1814	1814	1706	1706	1706	1706	1732	1741	1741	1750	1750	1750	1750	1759	1759	1759	1759	1768	1768	1777	1777	0	0	0	0	5915	5915	5815	5626	5626	5535	5626	5626	5626	5535	5535	5535	5535	5448	5448	5448	5448	5448	5448	5448	5535	5535	5535	5535	5535	5535	5535	5535	5535	5535	5535	5535	5535	5535	5448	5448	5364	5448	4406	4406	4350	4350	4350	4350	4350	4350	4350	4350	4350	4350	4350	4350	4350	4350	4350	4406	4406	4406	4350	4350	4350	4350	4350	4350	4350	4350	4350	4350	4350	4350	4350	4350	4350	4350	4350	4350	4350	4350	4350	4350	4350	4350	4350	4350	4350	4350	4350	4350	4350	4350	4350	4350	4350	4350	4350	4350	4350	4350	4350	4350	4350	4350	4296	4350	4296	4296	4350	4350	4350	4350	4350	4350	4350	4350	4350	4350	4296	4296	4296	4296	4296	4350	4350	4350	4350	4350	4350	4350	4350	4350	4350	4350	4350	4350	4350	4350	4350	4350	4350	4350	4350	4350	4350	4350	4350	4350	4350	4350	4350	4350	4350	4350	4350	4350	4350	4350	4350	4350	4350	4350	4350	4350	4350	4350	4296	4350	4296	4350	4296	4296	4296	4296	4296	4296	4296	4243	3073	3073	3046	3019	3019	3019	3019	3019	3019	3019	3019	3019	3019	3019	3019	3046	3019	3019	2993	2993	2967	2967	2967	2967	2967	2967	2967	2967	2967	2967	2967	2967	2967	2967	2967	2967	2967	2967	2967	2967	2967	2967	2967	2967	2967	2967	2967	2967	2967	2967	2967	2967	2967	2967	2967	2967	2967	2967	2967	2967	2967	2967	2967	2967	2967	2967	2967	2993	2993	2993	2993	3019	3019	3019	3019	3019	3019	2993	2993	2993	2967	2967	2967	2967	2967	2967	2967	2967	2942	2942	2942	2942	2917	2917	4296	4296	4296	4243	4243	4243	4243	4243	4243	4243	4243	4192	4192	4243	4243	4243	4243	4243	4243	4243	4243	4243	4243	4243	4243	4243	4192	4192	4192	4192	4192	4243	4243	4192	4192	4192	4192	4192	4192	4192	4192	4192	4142	4192	4192	4142	4142	4142	4192	4142	4142	4142	4142	4142	4142	4093	4093	4093	4093	4142	4142	4142	4142	4192	4142	4142	4142	4142	4142	4142	4093	4093	4093	4093	4093	4093	4142	4142	4142	4142	4142	4142	4142	4142	4142	4093	4142	4093	4093	4093	4093	4093	4093	4142	4093	4142	4142	4142	4142	4142	4192	4142	4142	4142	4142	4142	4142	4093	4093	4045	4045	7608	7608	7608	7608	7608	7608	7608	7608	7608	7608	7779	7608	7444	7444	7287	7444	7444	7444	7287	7287	7287	7287	7287	7287	5282	5282	5282	5202	5282	5282	5282	5202	5202	5282	5202	5202	5202	5202	5202	5202	5202	5125	5125	4977	4906	4706	4706	4706	4643	4643	4643	4643	4643	4643	4643	4643	4643	4581	4521	4463	4406	4406	4406	4406	4350	4350	4350	4296	4296	4296	4296	4243	4243	4243	4243	4243	4192	4192	0	0	0	0	0	0	0	0	0	0	0	0	0	0	0	0	0	0	0	0	0	0	0	0	0	0	0	0	0	0	0	0	0	0
0	0	0	0	0	0	0	0	0	0	1263	1263	1263	1263	1263	1263	1259	1259	1259	1259	1263	1263	1263	1263	1263	1263	1263	1263	1263	1259	1259	1259	1254	1254	1259	1254	1249	1254	1254	1249	1254	1254	1249	1254	1254	1254	1254	1254	1249	1254	1249	1254	1249	1249	1249	1254	1254	1254	1254	1254	1254	1254	1259	1259	1259	1263	1272	1272	1282	1287	1291	1296	1296	0	1824	1824	1824	1824	1814	1814	1814	1814	1814	1804	1804	1804	1814	1814	1814	1814	1814	1804	1804	1804	1804	1804	1804	1804	1804	1804	1804	1814	1814	1814	1814	1814	1814	1814	1804	1804	1795	1795	1804	1795	1804	1804	1814	1814	1814	1814	1804	1814	1814	1814	1804	1715	1715	1706	1732	1741	1759	1759	1750	1759	1759	1768	1768	1768	1768	1768	1777	1777	1777	0	0	0	0	5626	5626	5626	5626	5535	5535	5626	5626	5535	5535	5535	5535	5535	5535	5448	5448	5448	5448	5448	5448	5535	5448	5448	5535	5535	5535	5535	5535	5535	5535	5535	5535	5535	5535	5448	5364	5364	5364	4521	4406	4406	4350	4350	4350	4350	4350	4350	4350	4350	4350	4350	4350	4350	4350	4350	4350	4350	4406	4406	4406	4350	4350	4350	4350	4350	4350	4350	4350	4350	4350	4350	4350	4350	4350	4350	4350	4350	4350	4350	4350	4350	4350	4350	4350	4350	4350	4350	4350	4350	4350	4296	4296	4296	4296	4296	4350	4350	4350	4350	4350	4350	4350	4296	4350	4296	4296	4350	4350	4350	4350	4350	4350	4350	4350	4350	4350	4296	4296	4296	4296	4296	4350	4350	4350	4350	4350	4350	4350	4350	4350	4350	4350	4350	4350	4350	4350	4350	4350	4350	4350	4350	4350	4350	4350	4350	4350	4350	4350	4296	4350	4296	4350	4350	4350	4350	4350	4350	4350	4350	4350	4350	4350	4350	4350	4296	4350	4296	4350	4296	4296	4296	4296	4296	4296	4243	4243	3073	3046	3046	3019	3019	2993	3019	3019	2993	2993	3019	2993	3019	3019	3019	3019	3019	2967	2967	2967	2967	2942	2942	2942	2967	2967	2967	2967	2967	2967	2967	2967	2967	2967	2967	2967	2967	2967	2967	2967	2967	2967	2967	2967	2967	2967	2967	2967	2942	2942	2942	2967	2967	2967	2967	2967	2967	2967	2967	2967	2967	2967	2993	2967	2993	2993	2993	2993	2993	2993	2993	3019	2993	2993	3019	3019	3019	3019	3019	2993	2993	2967	2967	2967	2942	2942	2942	2942	2942	2942	2942	2942	2942	4350	4296	4296	4243	4243	4243	4243	4243	4243	4243	4243	4243	4243	4243	4243	4243	4243	4243	4192	4243	4243	4243	4243	4243	4243	4243	4243	4243	4192	4243	4243	4243	4243	4243	4192	4192	4192	4192	4192	4192	4192	4192	4192	4142	4142	4142	4142	4142	4142	4192	4192	4142	4142	4142	4142	4142	4142	4093	4093	4093	4093	4093	4142	4142	4142	4142	4142	4142	4142	4142	4093	4045	4093	4093	4093	4093	4093	4142	4142	4142	4142	4142	4142	4142	4142	4142	4142	4142	4142	4142	4093	4093	4142	4093	4142	4142	4142	4142	4142	4142	4142	4192	4192	4142	4142	4142	4142	4093	4093	4045	4045	4045	7608	7608	7608	7608	7608	7608	7779	7608	7608	7608	7608	7608	7444	7444	7444	7444	7444	7444	7444	7287	7287	7444	7444	7444	5282	5282	5282	5202	5282	5282	5282	5282	5202	5282	5202	5202	5202	5202	5202	5202	5202	5125	5050	4838	4771	4706	4706	4643	4643	4581	4581	4643	4643	4643	4643	4643	4643	4581	4581	4463	4406	4406	4406	4350	4350	4350	4350	4350	4296	4296	4296	4243	4243	4243	4243	4243	4192	4192	0	0	0	0	0	0	0	0	0	0	0	0	0	0	0	0	0	0	0	0	0	0	0	0	0	0	0	0	0	0	0	0	0	0
0	0	0	0	0	0	0	0	0	0	1263	1263	1259	1259	1263	1259	1259	1259	1259	1259	1263	1263	1263	1263	1263	1263	1263	1263	1263	1259	1259	1259	1259	1254	1254	1254	1249	1254	1254	1249	1254	1254	1249	1254	1254	1254	1259	1254	1254	1254	1249	1249	1249	1249	1249	1249	1254	1254	1254	1254	1254	1254	1259	1259	1259	1263	1268	1272	1282	1291	1296	1296	1301	1301	1311	1311	1833	1824	1824	1814	1814	1358	1363	1363	1804	1804	1814	1814	1824	1814	1814	1814	1804	1804	1804	1814	1804	1804	1804	1814	1814	1814	1814	1814	1814	1814	1814	1814	1804	1804	1795	1795	1804	1804	1804	1804	1814	1814	1814	1814	1804	1804	1814	1804	1804	1804	1804	1804	1804	1759	1759	1759	1759	1759	1768	1768	1768	1768	1777	1777	1786	1786	1777	0	0	0	5719	5626	5626	5626	5626	5535	5535	5535	5535	5535	5535	5535	5535	5535	5535	5535	5448	5448	5448	5448	5448	5535	5448	5535	5535	5448	5535	5448	5535	5535	5535	5535	5535	5535	5535	5448	5364	5364	5364	4581	4406	4406	4350	4350	4350	4350	4350	4350	4350	4350	4350	4350	4350	4350	4350	4350	4350	4406	4406	4406	4406	4406	4406	4350	4350	4350	4350	4350	4350	4350	4350	4350	4350	4350	4350	4350	4350	4350	4350	4350	4350	4350	4350	4350	4350	4350	4350	4350	4350	4350	4296	4296	4296	4296	4296	4296	4296	4350	4350	4350	4350	4350	4350	4350	4350	4350	4350	4350	4350	4350	4350	4350	4350	4350	4350	4350	4350	4296	4296	4296	4296	4296	4350	4350	4350	4350	4350	4350	4350	4350	4350	4350	4350	4350	4350	4350	4350	4350	4350	4350	4350	4350	4350	4350	4350	4350	4350	4350	4350	4350	4350	4296	4296	4296	4296	4350	4350	4350	4350	4350	4350	4350	4350	4350	4350	4296	4350	4350	4350	4296	4296	4296	4296	4296	4296	4296	3046	3046	3046	3046	2993	3019	2993	2993	3019	2993	2993	2993	2993	2993	3019	3019	3019	2993	2993	2967	2967	2967	2942	2942	2993	2993	2993	2967	2967	2967	2967	2967	2967	2967	2967	2967	2967	2967	2967	2967	2967	2967	2967	2967	2967	2967	2967	2942	2967	2942	2942	2967	2967	2967	2967	2967	2967	2967	2967	2967	2967	2967	2967	2993	2993	2993	2993	2993	2993	2993	2993	2993	2993	2993	3019	3019	3019	3019	3019	3019	2993	2993	2967	2967	2967	2967	2942	2942	2942	2942	2942	2942	2942	2942	2942	4296	4243	4243	4243	4243	4243	4243	4243	4243	4243	4243	4243	4243	4243	4243	4243	4243	4243	4243	4243	4243	4243	4243	4243	4243	4243	4243	4192	4243	4243	4243	4243	4243	4192	4142	4192	4192	4192	4192	4142	4142	4142	4142	4142	4142	4142	4142	4142	4142	4142	4142	4142	4142	4142	4142	4142	4093	4093	4093	4142	4142	4142	4142	4142	4142	4142	4142	4093	4093	4093	4045	4045	4093	4093	4093	4093	4142	4142	4142	4142	4142	4142	4192	4142	4142	4142	4142	4142	4142	4093	4093	4142	4142	4142	4093	4142	4142	4142	4142	4142	4142	4142	4142	4142	4142	4142	4093	4093	4093	4093	4093	7608	7608	7608	7608	7608	7608	7608	7608	7608	7608	7608	7608	7608	7444	7444	7444	7444	7444	7287	7287	7287	7287	7287	7287	5364	5364	5282	5282	5282	5282	5282	5282	5282	5282	5202	5202	5202	5202	5125	5125	5125	5050	5050	4838	4706	4706	4643	4643	4643	4581	4581	4643	4581	4643	4581	4581	4643	4581	4521	4406	4406	4406	4350	4350	4350	4350	4350	4350	4296	4296	4296	4243	4243	4243	4192	4243	4192	4192	0	0	0	0	0	0	0	0	0	0	0	0	0	0	0	0	0	0	0	0	0	0	0	0	0	0	0	0	0	0	0	0	0	0
0	0	0	0	0	0	0	0	0	0	1259	1263	1263	1259	1259	1259	1259	1259	1259	1259	1259	1263	1259	1263	1263	1263	1263	1263	1263	1259	1259	1259	1254	1254	1254	1254	1249	1249	1249	1249	1249	1249	1254	1254	1254	1254	1254	1254	1254	1254	1254	1249	1249	1249	1249	1249	1254	1254	1254	1254	1254	1254	1254	1254	1259	1259	1268	1272	1287	1291	1296	1296	1296	1306	1316	1321	1321	1326	1342	1347	1352	1358	1358	1363	1363	0	1814	1824	1824	1814	1814	1814	1814	1804	1804	1814	1804	1804	1804	1804	1814	1814	1814	1814	1814	1814	1814	1814	1804	1804	1804	1804	1804	1804	1814	1814	1814	1814	1804	1814	1804	1814	1814	1814	1804	1804	1804	1804	1804	1768	1768	1768	1768	1768	1768	1768	1768	1768	1777	1777	1786	1786	0	0	0	0	5719	5626	5626	5626	5626	5626	5535	5535	5626	5535	5535	5535	5535	5535	5535	5535	5535	5448	5535	5535	5535	5535	5448	5535	5535	5448	5535	5448	5535	5535	5535	5535	5535	5535	5535	5448	5364	5364	5448	4521	4463	4406	4406	4350	4350	4350	4350	4350	4350	4350	4350	4350	4350	4350	4350	4350	4350	4406	4406	4406	4406	4406	4406	4406	4350	4350	4350	4350	4350	4350	4350	4350	4350	4350	4350	4350	4350	4350	4350	4406	4350	4350	4350	4350	4350	4350	4350	4350	4350	4350	4296	4296	4296	4296	4296	4296	4296	4350	4350	4350	4350	4350	4350	4350	4350	4350	4350	4350	4350	4350	4350	4350	4350	4350	4350	4350	4350	4296	4296	4296	4296	4350	4350	4350	4350	4350	4350	4350	4350	4350	4350	4350	4350	4350	4350	4350	4350	4350	4350	4350	4350	4350	4350	4350	4350	4350	4350	4350	4296	4296	4296	4296	4296	4296	4350	4350	4350	4350	4350	4350	4350	4350	4350	4350	4350	4350	4350	4350	4350	4296	4296	4296	4296	4296	4296	4296	4243	3046	3019	3019	2993	2993	2993	2993	3019	2993	2993	2993	2993	2993	2993	2993	2993	2993	2993	3019	2993	2993	2993	2993	2993	2993	2967	2967	2967	2967	2967	2967	2967	2967	2967	2993	2967	2967	2967	2967	2967	2967	2967	2967	2967	2967	2967	2942	2942	2942	2942	2942	2967	2967	2967	2967	2967	2967	2967	2967	2967	2967	2967	2993	2993	2993	2993	2993	2993	2993	2993	2993	2993	2993	3019	3019	3046	3019	3019	3019	2993	2993	2967	2967	2967	2967	2942	2942	2942	2942	2942	2942	2942	2942	4296	4243	4243	4243	4243	4243	4243	4243	4243	4243	4243	4243	4243	4243	4243	4243	4243	4243	4192	4192	4192	4243	4243	4243	4243	4243	4243	4243	4192	4192	4192	4243	4243	4243	4192	4142	4142	4142	4142	4142	4142	4142	4142	4142	4142	4142	4142	4142	4142	4142	4142	4142	4142	4142	4142	4142	4142	4093	4093	4142	4142	4142	4142	4142	4142	4142	4093	4093	4093	4093	4093	4093	4045	4093	4093	4093	4093	4093	4093	4142	4142	4142	4192	4192	4192	4142	4142	4142	4142	4142	4142	4093	4142	4142	4142	4093	4142	4142	4142	4142	4142	4142	4142	4142	4142	4093	4093	4093	4093	4093	4045	4045	7608	7444	7608	7608	7608	7608	7608	7608	7608	7608	7608	7608	7608	7444	7444	7444	7444	7444	7287	7137	7137	7137	7137	7137	5364	5364	5364	5282	5282	5282	5282	5282	5202	5282	5202	5202	5202	5202	5125	5125	5125	5050	4977	4771	4706	4643	4643	4643	4581	4581	4581	4581	4581	4581	4521	4521	4581	4521	4521	4406	4406	4406	4350	4350	4350	4350	4350	4350	4296	4296	4296	4296	4243	4243	4192	4192	4192	4192	0	0	0	0	0	0	0	0	0	0	0	0	0	0	0	0	0	0	0	0	0	0	0	0	0	0	0	0	0	0	0	0	0	0
0	0	0	0	0	0	0	0	0	0	1259	1259	1259	1259	1259	1259	1259	1259	1263	1259	1263	1263	1259	1259	1259	1259	1259	1259	1263	1263	1259	1254	1254	1254	1254	1254	1249	1249	1249	1254	1249	1254	1249	1254	1254	1249	1254	1254	1254	1254	1254	1254	1254	1249	1249	1249	1254	1254	1254	1254	1254	1254	1254	1254	1254	1259	1263	1272	1287	1291	1296	1296	1301	1306	1316	1316	1321	1326	1336	1352	1352	1358	1363	1368	1368	1374	1374	1824	1824	1824	1814	1814	1814	1814	1814	1814	1814	1804	1814	1814	1814	1814	1814	1814	1814	1814	1804	1804	1804	1804	1804	1804	1804	1804	1804	1804	1814	1814	1804	1814	1804	1814	1814	1814	1804	1814	1814	1804	1804	1804	1777	1777	1777	1777	1777	1777	1777	1777	1777	1777	1786	1786	0	0	0	0	5719	5626	5626	5626	5626	5626	5535	5535	5535	5535	5535	5535	5535	5535	5535	5535	5535	5535	5535	5535	5535	5535	5448	5535	5535	5535	5535	5448	5535	5535	5535	5535	5535	5535	5535	5448	5364	5364	5364	4521	4463	4406	4406	4350	4350	4350	4350	4350	4350	4350	4350	4350	4350	4350	4350	4350	4406	4350	4406	4406	4406	4406	4406	4406	4350	4350	4350	4350	4350	4350	4350	4350	4350	4350	4350	4350	4350	4350	4406	4406	4350	4350	4350	4350	4350	4350	4296	4296	4296	4296	4296	4296	4296	4296	4296	4296	4296	4350	4350	4350	4350	4350	4350	4350	4350	4350	4350	4296	4350	4350	4350	4350	4350	4350	4350	4350	4350	4350	4296	4296	4350	4350	4350	4406	4406	4350	4350	4350	4350	4350	4350	4350	4350	4350	4350	4350	4406	4406	4406	4350	4350	4350	4350	4350	4350	4350	4350	4350	4350	4350	4350	4350	4350	4350	4350	4350	4350	4350	4350	4350	4350	4350	4350	4350	4350	4350	4350	4350	4350	4296	4296	4243	4296	4296	4296	4296	4243	3073	3046	3019	2993	2993	2993	2993	2993	2993	2967	2967	2967	2993	2993	2993	2993	2993	2993	2993	2993	2993	2967	2993	2993	2993	2967	2967	2967	2967	2967	2967	2967	2967	2967	2967	2967	2967	2967	2967	2967	2967	2967	2967	2967	2967	2967	2942	2942	2942	2942	2942	2967	2967	2967	2967	2967	2967	2967	2967	2967	2967	2967	2993	2993	2993	2993	2993	2993	2993	2993	2993	2993	2993	3019	3019	3019	3019	3019	2993	2993	2993	2967	2967	2967	2967	2942	2942	2942	2942	2942	2942	2942	2942	4243	4243	4243	4243	4243	4243	4243	4243	4243	4243	4243	4243	4192	4192	4192	4192	4192	4192	4192	4192	4192	4192	4192	4243	4243	4243	4243	4243	4243	4192	4192	4192	4192	4243	4243	4142	4142	4142	4142	4142	4142	4142	4142	4142	4142	4142	4142	4142	4142	4142	4142	4142	4142	4142	4142	4142	4093	4142	4142	4142	4142	4142	4142	4142	4142	4142	4093	4093	4093	4093	4093	4093	4093	4093	4093	4093	4093	4093	4093	4142	4192	4192	4192	4192	4192	4142	4142	4142	4142	4093	4093	4093	4142	4142	4142	4142	4142	4142	4142	4142	4142	4142	4142	4142	4142	4093	4093	4093	4093	4045	4045	4045	7444	7444	7444	7608	7608	7608	7608	7608	7608	7608	7608	7779	7779	7444	7608	7444	7444	7444	7444	7137	6992	6992	7137	7137	0	5364	5282	5282	5282	5282	5202	5282	5202	5202	5202	5202	5202	5202	5125	5125	5125	5050	4977	4771	4706	4643	4643	4581	4581	4521	4521	4581	4521	4521	4521	4521	4521	4521	4463	4406	4406	4406	4406	4350	4350	4350	4350	4350	4350	4350	4296	4296	4243	4243	4243	4243	4192	4192	0	0	0	0	0	0	0	0	0	0	0	0	0	0	0	0	0	0	0	0	0	0	0	0	0	0	0	0	0	0	0	0	0	0
0	0	0	0	0	0	0	0	0	0	1254	1254	1259	1259	1259	1259	1259	1259	1259	1263	1259	1263	1259	1259	1259	1259	1259	1259	1263	1259	1259	1259	1254	1254	1254	1249	1249	1249	1249	1249	1249	1249	1249	1249	1254	1249	1254	1254	1254	1254	1249	1249	1254	1249	1249	1249	1249	1254	1254	1254	1254	1254	1254	1254	1254	1259	1268	1291	1291	1296	1296	1296	1301	1311	1311	1321	1326	1331	1336	1352	1358	1363	1368	1368	1374	1379	1379	1385	1385	1824	1814	1814	1814	1814	1804	1814	1814	1804	1814	1814	1814	1814	1814	1814	1804	1814	1814	1804	1804	1814	1814	1804	1814	1814	1804	1804	1814	1814	1804	1814	1804	1814	1814	1814	1804	1804	1804	1804	1804	1804	1777	1777	1777	1777	1777	1777	1777	1777	1777	1777	1777	1777	1777	0	0	0	5815	5719	5626	5719	5626	5626	5535	5535	5535	5535	5535	5535	5535	5535	5535	5535	5535	5535	5535	5535	5448	5535	5448	5535	5535	5448	5535	5448	5535	5535	5535	5535	5448	5448	5535	5364	5364	5364	5364	5364	4463	4406	4406	4350	4350	4350	4350	4296	4296	4350	4350	4350	4350	4350	4350	4350	4406	4350	4406	4406	4406	4406	4406	4406	4350	4350	4350	4350	4296	4296	4350	4350	4350	4350	4350	4350	4350	4350	4350	4350	4350	4350	4350	4350	4350	4350	4296	4296	4296	4296	4296	4296	4296	4296	4296	4296	4296	4350	4350	4350	4350	4350	4350	4350	4350	4350	4350	4296	4350	4350	4350	4350	4350	4350	4350	4350	4350	4350	4350	4350	4350	4350	4350	4350	4350	4350	4350	4350	4350	4350	4350	4350	4350	4350	4350	4406	4406	4406	4350	4350	4350	4350	4350	4350	4350	4350	4350	4350	4296	4350	4350	4296	4350	4350	4350	4350	4350	4350	4350	4350	4350	4350	4350	4350	4350	4350	4350	4350	4350	4296	4296	4296	4296	4296	4296	4296	4296	3073	3046	3019	2993	2967	2967	2967	2993	2993	2993	2993	2993	2993	2993	2993	2993	2993	2993	2993	2993	2993	2967	2993	2993	2993	2967	2967	2967	2967	2967	2967	2967	2967	2967	2967	2967	2967	2967	2967	2967	2967	2967	2967	2967	2967	2967	2942	2967	2942	2942	2942	2967	2967	2967	2967	2967	2967	2967	2967	2942	2967	2967	2967	2967	2993	2993	2993	2993	2993	2993	2993	2993	2993	3019	3019	3046	3019	3019	3019	2993	2993	2967	2967	2967	2967	2942	2942	2942	2942	2942	2942	2942	2942	4243	4243	4243	4243	4243	4243	4243	4243	4243	4243	4243	4243	4192	4243	4243	4243	4243	4243	4243	4243	4243	4243	4243	4243	4243	4243	4243	4243	4243	4243	4192	4243	4243	4243	4142	4142	4142	4142	4142	4142	4142	4142	4142	4192	4192	4192	4192	4142	4142	4142	4142	4142	4142	4142	4142	4142	4142	4142	4142	4142	4142	4142	4142	4142	4142	4093	4093	4045	4045	4093	4093	4093	4093	4093	4142	4142	4093	4045	4093	4142	4192	4192	4192	4192	4192	4142	4142	4142	4142	4142	4142	4142	4142	4142	4142	4142	4142	4142	4142	4142	4142	4142	4142	4142	4093	4093	4093	4093	4045	4045	4045	4045	7608	7444	7608	7608	7608	7608	7608	7608	7779	7779	7779	7779	7779	7608	7444	7444	7444	7444	7287	7287	7137	6853	6853	0	0	5364	5282	5282	5282	5282	5202	5282	5282	5202	5202	5202	5202	5202	5125	5125	5050	5050	4977	4706	4643	4581	4581	4581	4521	4521	4521	4521	4521	4521	4463	4463	4463	4463	4463	4406	4406	4406	4406	4406	4350	4406	4350	4350	4350	4350	4350	4296	4243	4243	4243	4243	4192	4192	0	0	0	0	0	0	0	0	0	0	0	0	0	0	0	0	0	0	0	0	0	0	0	0	0	0	0	0	0	0	0	0	0	0
0	0	0	0	0	0	0	0	0	0	1254	1254	1249	1254	1259	1259	1259	1254	1259	1259	1259	1259	1259	1259	1259	1259	1263	1259	1263	1259	1259	1259	1254	1254	1254	1249	1249	1249	1249	1249	1249	1249	1249	1254	1254	1249	1254	1254	1254	1249	1249	1249	1254	1254	1249	1249	1254	1254	1254	1254	1254	1254	1254	1254	1259	1263	1272	1282	1291	1296	1296	1296	1301	1301	1311	1316	1316	1331	1336	1347	1358	1363	1368	1374	1374	1379	1379	1385	1396	1402	1407	1413	1413	1814	1804	1804	1804	1804	1814	1814	1814	1814	1814	1804	1804	1814	1814	1814	1814	1814	1814	1814	1814	1814	1814	1814	1814	1814	1804	1804	1804	1814	1814	1814	1804	1804	1804	1804	1804	1804	1786	1786	1786	1786	1777	1777	1777	1777	1786	1786	1786	1786	1786	0	0	0	5815	5626	5626	5626	5626	5535	5535	5535	5535	5535	5535	5535	5535	5535	5535	5535	5535	5535	5535	5535	5535	5535	5448	5535	5535	5535	5535	5535	5535	5535	5535	5535	5448	5448	5535	5364	5364	5364	5364	4350	4350	4406	4350	4350	4350	4350	4350	4296	4296	4296	4296	4350	4350	4350	4350	4350	4406	4350	4406	4350	4350	4350	4350	4350	4350	4350	4350	4350	4296	4350	4350	4350	4350	4350	4350	4350	4350	4350	4350	4350	4350	4350	4350	4350	4350	4350	4296	4296	4296	4296	4296	4296	4296	4296	4296	4296	4296	4296	4296	4350	4350	4350	4350	4350	4350	4350	4350	4296	4350	4350	4350	4350	4350	4350	4350	4350	4350	4350	4350	4350	4350	4350	4350	4350	4350	4350	4350	4350	4350	4350	4350	4350	4350	4350	4350	4350	4350	4350	4350	4350	4350	4350	4350	4350	4350	4350	4350	4350	4350	4350	4350	4350	4350	4350	4350	4350	4350	4350	4350	4350	4350	4350	4350	4350	4350	4350	4350	4350	4350	4296	4296	4296	4296	4296	4296	4350	4296	3019	2993	2993	2993	2993	2967	2993	2993	2993	2967	2993	2993	2993	3019	2993	2993	2993	3019	2993	2993	2993	2967	2967	2967	2967	2967	2967	2967	2967	2967	2967	2967	2993	2993	2967	2967	2993	2993	2967	2967	2967	2967	2967	2967	2967	2967	2942	2967	2942	2967	2967	2967	2967	2967	2967	2967	2942	2967	2967	2942	2942	2967	2967	2967	2967	2967	2993	2993	2993	2993	2993	2993	3019	3019	3019	3046	3046	3019	3019	2993	2993	2967	2967	2967	2967	2942	2942	2942	2942	2942	2942	2942	2942	4243	4243	4243	4243	4243	4243	4243	4243	4243	4243	4243	4243	4243	4243	4243	4243	4243	4243	4243	4243	4243	4243	4243	4243	4243	4243	4243	4243	4243	4243	4192	4243	4243	4192	4142	4142	4142	4142	4142	4093	4142	4142	4142	4192	4192	4192	4192	4192	4142	4192	4142	4142	4142	4142	4142	4093	4093	4093	4093	4093	4142	4142	4142	4142	4142	4093	4093	4045	4045	4093	4093	4142	4142	4142	4142	4142	4093	4142	4142	4142	4192	4192	4192	4192	4192	4142	4142	4142	4142	4142	4142	4142	4142	4142	4142	4142	4142	4142	4142	4142	4142	4142	4142	4142	4142	4093	4093	4093	4045	4045	4045	4045	7608	7608	7608	7608	7608	7608	7608	7608	7779	7779	7779	7779	7779	7779	7444	7444	7444	7444	7444	7287	7137	6992	6992	0	0	5364	5282	5282	5282	5282	5282	5282	5202	5202	5202	5202	5202	5125	5125	5125	5050	5050	4977	4643	4581	4521	4521	4521	4463	4463	4463	4463	4463	4463	4463	4463	4463	4406	4406	4350	4350	4406	4406	4406	4350	4406	4350	4350	4350	4350	4350	4296	4296	4243	4243	4243	4243	4243	0	0	0	0	0	0	0	0	0	0	0	0	0	0	0	0	0	0	0	0	0	0	0	0	0	0	0	0	0	0	0	0	0	0
0	0	0	0	0	0	0	0	0	0	1249	1254	1249	1254	1254	1259	1254	1254	1259	1259	1259	1259	1259	1259	1259	1259	1263	1263	1263	1263	1259	1259	1254	1254	1254	1254	1249	1249	1249	1249	1249	1249	1249	1249	1249	1249	1249	1249	1254	1254	1254	1254	1254	1254	1254	1254	1254	1254	1254	1254	1254	1254	1254	1259	1259	1263	1272	1277	1282	1291	1296	1296	1301	1306	1316	1316	1326	1331	1336	1347	1358	1363	1368	1374	1374	1379	1379	1396	1402	1407	1407	1413	1419	1419	1419	1804	1814	1814	1814	1814	1814	1814	1814	1804	1804	1804	1804	1804	1804	1814	1824	1824	1824	1824	1824	1824	1824	1814	1804	1804	1804	1804	1804	1804	1804	1804	1795	1795	1795	1795	1786	1777	1795	1795	1795	1795	1786	1786	1795	1786	1786	1786	1786	0	0	0	0	5535	5626	5626	5535	5535	5535	5535	5535	5535	5535	5535	5535	5535	5535	5535	5535	5448	5535	5448	5448	5535	5448	5535	5448	5448	5448	5448	5448	5448	5535	5448	5448	5448	5448	5364	5364	5364	5364	4350	4350	4406	4406	4350	4350	4350	4350	4296	4296	4296	4296	4350	4350	4350	4350	4350	4350	4350	4350	4350	4350	4350	4350	4350	4350	4350	4350	4350	4350	4350	4350	4350	4350	4350	4350	4350	4350	4350	4350	4350	4350	4350	4350	4350	4350	4350	4296	4296	4296	4296	4296	4296	4296	4296	4296	4296	4296	4296	4296	4350	4350	4350	4350	4350	4350	4350	4296	4296	4296	4296	4350	4350	4350	4350	4350	4350	4350	4350	4350	4350	4350	4350	4350	4350	4350	4350	4350	4350	4350	4350	4350	4350	4350	4350	4350	4350	4350	4350	4350	4350	4350	4350	4350	4350	4350	4350	4350	4350	4350	4350	4350	4296	4350	4350	4350	4350	4350	4350	4350	4350	4350	4350	4350	4350	4406	4350	4350	4350	4350	4296	4296	4296	4296	4296	4296	4296	4296	2993	2967	2967	2993	2993	2967	2967	2967	2967	2967	2967	2993	2993	3019	2993	2993	2993	2993	2993	2993	2967	2967	2967	2967	2967	2967	2967	2967	2993	2993	2967	2993	2993	2993	2993	2967	2967	2993	2967	2967	2967	2967	2967	2967	2967	2967	2967	2967	2967	2967	2967	2967	2967	2967	2967	2967	2967	2967	2967	2942	2942	2942	2967	2967	2967	2967	2993	2993	2993	2993	2993	2993	2993	3019	3019	3019	3019	3019	3019	2993	2993	2967	2967	2967	2967	2942	2942	2942	2942	2942	2942	2942	2942	4192	4192	4192	4192	4243	4243	4243	4243	4243	4243	4243	4243	4243	4243	4243	4243	4243	4243	4243	4243	4243	4243	4243	4243	4243	4243	4243	4243	4243	4243	4192	4243	4243	4192	4142	4142	4142	4142	4142	4142	4142	4142	4142	4192	4192	4192	4192	4142	4142	4142	4142	4142	4142	4142	4142	4093	4093	4142	4093	4093	4142	4142	4142	4142	4093	4093	4093	4045	4045	4093	4093	4093	4093	4093	4142	4142	4093	4142	4142	4142	4192	4142	4142	4142	4142	4142	4142	4142	4142	4142	4142	4142	4142	4142	4142	4142	4142	4142	4142	4142	4142	4142	4142	4142	4142	4142	4093	4093	4093	4045	4045	7608	7608	7608	7608	7608	7608	7608	7608	7779	7779	7779	7779	7608	7779	7608	7444	7444	7444	7444	7444	7287	7137	7137	6992	0	0	5364	5282	5282	5282	5282	5282	5282	5282	5202	5202	5202	5202	5202	5125	5125	5125	5050	5050	5050	4581	4521	4521	4521	4463	4463	4463	4463	4406	4463	4406	4406	4406	4406	4406	4406	4350	4406	4406	4406	4350	4406	4350	4350	4350	4350	4350	4296	4243	4192	4243	4243	4243	4243	0	0	0	0	0	0	0	0	0	0	0	0	0	0	0	0	0	0	0	0	0	0	0	0	0	0	0	0	0	0	0	0	0	0
0	0	0	0	0	0	0	0	0	0	1249	1249	1245	1249	1254	1254	1254	1254	1254	1259	1259	1259	1259	1259	1259	1263	1263	1263	1263	1259	1263	1259	1254	1254	1249	1249	1249	1245	1245	1249	1249	1249	1249	1249	1254	1254	1254	1249	1254	1254	1254	1254	1254	1254	1254	1249	1254	1254	1254	1254	1254	1254	1259	1259	1259	1263	1272	1277	1282	1291	1296	1301	1306	1311	1316	1321	1326	1331	1336	1352	1358	1358	1374	1374	1379	1385	1385	1396	1402	1407	1407	1413	1419	1431	1431	1431	1814	1804	1804	1804	1814	1804	1804	1804	1804	1804	1804	1804	1804	1814	1824	1824	1824	1824	1824	1824	1824	1814	1804	1804	1804	1804	1804	1804	1804	1804	1795	1795	1795	1795	1786	1777	1795	1795	1804	1795	1795	1786	1786	1786	1777	1777	1777	1777	0	0	0	5535	5626	5626	5535	5535	5535	5535	5535	5535	5535	5535	5535	5535	5535	5535	5535	5448	5448	5535	5448	5448	5448	5448	5448	5448	5448	5448	5448	5448	5535	5448	5448	5448	5448	5364	5364	5364	5364	4350	4350	4463	4406	4406	4350	4350	4350	4350	4296	4296	4296	4350	4350	4350	4350	4406	4350	4350	4350	4350	4350	4350	4350	4350	4350	4350	4350	4296	4296	4296	4350	4350	4350	4350	4350	4350	4350	4350	4350	4350	4350	4350	4350	4350	4350	4350	4296	4296	4296	4296	4296	4296	4296	4296	4296	4296	4296	4296	4350	4350	4350	4350	4350	4350	4350	4350	4350	4296	4296	4296	4350	4350	4350	4350	4350	4350	4350	4350	4350	4350	4350	4350	4350	4350	4350	4350	4296	4296	4296	4350	4296	4350	4350	4350	4350	4350	4350	4350	4350	4350	4350	4350	4350	4350	4350	4350	4350	4350	4350	4350	4350	4350	4350	4350	4350	4350	4350	4350	4350	4350	4350	4350	4350	4350	4350	4350	4350	4350	4350	4296	4296	4296	4296	4296	4296	4296	4296	2967	2967	2967	2993	2967	2967	2967	2967	2967	2967	2967	2993	2993	3019	3019	2993	2993	3019	2993	2993	2967	2967	2967	2967	2967	2967	2967	2967	2993	2993	2967	2993	2993	2993	2993	2967	2967	2967	2967	2967	2967	2967	2967	2967	2967	2967	2967	2967	2967	2967	2967	2967	2967	2967	2967	2967	2967	2967	2967	2942	2942	2942	2967	2967	2967	2967	2993	2993	2993	2993	2993	2993	2993	3019	3019	3019	3019	3019	3019	2993	2993	2967	2967	2967	2967	2942	2942	2942	2967	2967	2942	2942	2942	4192	4192	4243	4243	4243	4243	4243	4192	4243	4243	4243	4243	4243	4243	4243	4243	4243	4243	4243	4243	4243	4243	4243	4243	4243	4243	4243	4243	4243	4192	4243	4243	4192	4192	4142	4142	4142	4142	4142	4142	4142	4142	4142	4192	4192	4192	4192	4142	4142	4142	4142	4142	4142	4142	4142	4093	4093	4142	4142	4142	4142	4142	4142	4142	4093	4093	4093	4045	4045	4093	4093	4093	4093	4093	4142	4142	4093	4142	4142	4192	4192	4142	4142	4142	4142	4142	4142	4142	4142	4142	4142	4142	4142	4142	4142	4093	4142	4142	4142	4142	4142	4142	4142	4142	4142	4142	4142	4142	4142	4093	4045	4045	7779	7608	7608	7608	7608	7608	7608	7608	7779	7608	7779	7608	7608	7608	7444	7444	7608	7608	7444	7287	7137	6992	6992	0	0	0	5364	5282	5364	5364	5282	5202	5282	5202	5202	5202	5202	5202	5202	5202	5202	5050	5050	5050	4581	4521	4521	4521	4463	4463	4463	4463	4406	4406	4406	4406	4406	4406	4406	4350	4350	4406	4406	4406	4350	4350	4350	4350	4350	4350	4350	4296	4243	4243	4243	4243	4243	4243	0	0	0	0	0	0	0	0	0	0	0	0	0	0	0	0	0	0	0	0	0	0	0	0	0	0	0	0	0	0	0	0	0	0
0	0	0	0	0	0	0	0	0	0	1249	1249	1249	1249	1254	1254	1254	1254	1254	1259	1259	1263	1263	1263	1263	1263	1263	1263	1263	1259	1259	1259	1254	1249	1249	1249	1249	1249	1249	1249	1249	1249	1249	1249	1254	1254	1254	1249	1254	1254	1254	1254	1254	1254	1254	1254	1254	1254	1254	1254	1254	1254	1254	1259	1259	1263	1272	1277	1277	1291	1296	1301	1306	1311	1316	1321	1326	1331	1336	1342	1352	1358	1368	1374	1379	1385	1390	1396	1402	1413	1413	1413	1419	1431	1431	1443	1443	1443	1804	1814	1814	1814	1804	1804	1499	1499	1804	1804	1804	0	1824	1833	1833	1824	1824	1824	0	0	0	0	0	0	0	1804	1804	0	0	0	0	0	0	0	0	1795	1804	1804	1804	1804	1795	1786	1777	1777	1777	1777	0	0	0	0	5535	5626	5535	5535	5535	5535	5535	5535	5535	5448	5535	5535	5535	5535	5448	5448	5448	5535	5448	5535	5448	5535	5535	5448	5535	5535	5535	5448	5535	5535	5448	5448	5448	5448	5364	5364	5364	4463	4406	4406	4406	4350	4350	4350	4350	4350	4296	4296	4296	4350	4350	4350	4350	4406	4350	4350	4350	4350	4350	4350	4350	4350	4350	4350	4350	4350	4350	4350	4350	4296	4296	4350	4350	4350	4350	4350	4350	4350	4350	4350	4350	4350	4296	4296	4296	4296	4296	4296	4296	4296	4296	4296	4296	4296	4296	4350	4350	4350	4350	4350	4350	4350	4350	4350	4350	4350	4350	4296	4350	4350	4350	4350	4350	4350	4350	4350	4350	4350	4350	4350	4350	4350	4350	4350	4296	4350	4296	4350	4350	4350	4350	4350	4350	4350	4350	4350	4350	4350	4350	4350	4296	4350	4296	4296	4350	4350	4296	4350	4350	4350	4350	4350	4350	4350	4350	4350	4350	4350	4350	4350	4350	4350	4350	4350	4350	4350	4350	4296	4296	4296	4296	4296	4296	4296	4296	2993	2967	2967	2967	2967	2967	2967	2967	2967	2967	2967	2993	2993	2993	2993	2993	2993	2993	2993	2993	2967	2967	2967	2967	2967	2967	2967	2967	2967	2993	2967	2993	2993	2993	2993	2967	2967	2967	2967	2967	2967	2967	2967	2967	2967	2967	2967	2967	2967	2967	2967	2967	2967	2967	2967	2967	2967	2967	2967	2942	2942	2942	2967	2967	2967	2967	2993	2993	2993	2993	2993	3019	3019	3019	3019	3019	3019	3019	2993	2967	2967	2967	2967	2967	2967	2967	2967	2967	2967	2967	2967	2967	2942	2942	4243	4243	4243	4243	4243	4243	4243	4243	4243	4243	4243	4243	4243	4243	4243	4243	4243	4243	4243	4243	4243	4243	4243	4243	4243	4243	4243	4243	4192	4192	4192	4192	4192	4192	4142	4142	4142	4142	4142	4142	4142	4142	4142	4192	4142	4142	4142	4142	4142	4142	4142	4142	4142	4142	4093	4142	4142	4142	4142	4093	4093	4093	4093	4093	4093	4093	4045	4045	4093	4093	4093	4093	4142	4142	4142	4093	4093	4093	4142	4192	4142	4093	4142	4142	4142	4142	4142	4142	4142	4142	4142	4142	4142	4142	4142	4142	4192	4192	4192	4142	4142	4192	4192	4142	4142	4142	4142	4142	4093	4045	4045	7779	7608	7608	7608	7608	7608	7608	7608	7779	7608	7608	7608	7608	7608	7444	7444	7444	7444	7444	7287	7137	6992	6992	7287	7287	7287	5364	5282	5282	5282	5282	5202	5202	5202	5202	5202	5202	5202	5202	5202	5202	0	0	0	4581	4521	4521	4463	4463	4463	4463	4463	4463	4406	4406	4406	4406	4406	4406	4406	4406	4406	4406	4406	4406	4406	4350	4350	4350	4350	4350	4350	4192	4243	4243	4243	4243	4243	0	0	0	0	0	0	0	0	0	0	0	0	0	0	0	0	0	0	0	0	0	0	0	0	0	0	0	0	0	0	0	0	0	0
0	0	0	0	0	0	0	0	0	0	1254	1254	1254	1254	1254	1259	1254	1254	1254	1254	1254	1259	1259	1259	1259	1259	1259	1259	1259	1254	1254	1254	1249	1249	1249	1249	1249	1249	1249	1249	1249	1249	1249	1249	1254	1254	1254	1249	1254	1254	1254	1254	1254	1254	1254	1254	1254	1254	1254	1254	1254	1254	1254	1259	1259	1263	1272	1277	1282	1291	1291	1301	1306	1311	1316	1326	1331	1336	1336	1342	1352	1358	1363	1374	1379	1390	1390	1396	1402	1413	1413	1413	1419	1431	1437	1443	1449	1449	1461	1461	1461	1480	1486	1492	1492	1499	1499	0	0	0	0	1824	1824	1824	1824	1824	0	0	0	0	0	0	0	0	0	0	0	0	0	0	0	0	0	1786	1804	1795	1795	1795	1795	1786	1777	1777	1777	1777	0	0	0	5448	5448	5535	5535	5535	5535	5535	5535	5535	5535	5535	5535	5535	5535	5535	5448	5448	5448	5448	5448	5448	5448	5448	5448	5448	5535	5535	5535	5448	5535	5448	5448	5448	5535	5448	5364	5364	5364	4406	4406	4406	4406	4350	4350	4350	4350	4350	4296	4296	4296	4296	4350	4350	4350	4406	4350	4350	4350	4350	4350	4350	4350	4350	4350	4350	4350	4350	4350	4350	4350	4350	4350	4350	4296	4296	4296	4296	4296	4296	4296	4350	4350	4296	4296	4296	4296	4296	4296	4296	4296	4296	4296	4296	4296	4296	4296	4296	4350	4350	4350	4350	4350	4350	4350	4350	4296	4296	4350	4350	4350	4350	4350	4350	4350	4350	4350	4350	4350	4350	4350	4350	4296	4350	4296	4296	4296	4296	4296	4350	4350	4350	4350	4350	4350	4350	4350	4350	4350	4350	4350	4296	4296	4296	4296	4296	4296	4296	4296	4350	4350	4350	4350	4350	4350	4350	4350	4350	4350	4350	4350	4350	4350	4350	4350	4350	4350	4350	4350	4296	4296	4296	4296	4296	4296	4243	4243	3019	2993	2967	2967	2967	2967	2967	2967	2967	2967	2967	2967	2967	2993	2993	2993	2993	2993	2993	2993	2967	2967	2967	2967	2967	2967	2967	2967	2967	2993	2967	2967	2967	2967	2967	2967	2967	2967	2967	2967	2967	2967	2967	2967	2967	2967	2967	2967	2967	2993	2967	2967	2967	2967	2967	2967	2942	2967	2967	2942	2942	2942	2967	2967	2967	2967	2967	2993	2993	2993	2993	3019	3019	3019	3019	3019	3019	2993	2993	2967	2967	2967	2967	2967	2967	2967	2967	2967	2942	2967	2967	2942	2893	2893	4243	4243	4243	4243	4243	4192	4192	4243	4243	4243	4243	4243	4243	4243	4243	4243	4243	4243	4243	4243	4243	4243	4243	4243	4243	4192	4192	4192	4192	4192	4192	4192	4192	4192	4142	4142	4142	4142	4142	4142	4142	4142	4142	4142	4142	4142	4142	4142	4142	4142	4142	4142	4142	4142	4142	4142	4142	4142	4142	4142	4093	4142	4142	4093	4093	4093	4045	4093	4093	4093	4093	4093	4142	4142	4142	4093	4093	4093	4142	4142	4142	4093	4093	4142	4142	4142	4142	4142	4142	4142	4142	4142	4142	4093	4093	4045	4192	4192	4142	4142	4142	4192	4192	4142	4142	4142	4142	4142	4093	4093	4093	7779	7608	7608	7608	7608	7608	7608	7608	7608	7608	7608	7608	7608	7444	7444	7444	7444	7444	7444	7444	7137	7137	7287	7287	7287	7287	5364	5282	5282	5282	5282	5282	5202	5202	5202	5202	5202	5202	5202	5202	0	0	0	0	0	0	4521	4406	4463	4463	4406	4406	4406	4406	4350	4350	4406	4406	4406	4406	4406	4406	4406	4406	4406	4406	4350	4350	4350	4350	4350	4350	4192	4192	4243	4243	4243	4243	0	0	0	0	0	0	0	0	0	0	0	0	0	0	0	0	0	0	0	0	0	0	0	0	0	0	0	0	0	0	0	0	0	0
0	0	0	0	0	0	0	0	0	0	1254	1254	1254	1249	1254	1254	1254	1249	1254	1254	1254	1259	1259	1259	1259	1259	1259	1259	1259	1259	1249	1249	1249	1249	1254	1254	1249	1249	1249	1254	1249	1249	1249	1254	1254	1254	1254	1249	1254	1254	1254	1254	1254	1254	1254	1254	1254	1249	1249	1249	1249	1254	1254	1259	1259	1268	1272	1277	1282	1287	1291	1301	1306	1311	1321	1326	1331	1336	1342	1347	1352	1358	1358	1374	1385	1390	1396	1402	1407	1413	1413	1413	1419	1431	1437	1443	1455	1455	1461	1467	1473	1473	1486	1492	1492	1499	1499	1499	0	0	0	1824	1824	1824	0	0	0	0	0	0	0	0	0	0	0	0	0	0	0	0	0	0	1786	1795	1804	1795	1804	1795	1795	1786	1777	1777	1777	0	0	0	0	5364	5448	5535	5535	5535	5448	5535	5535	5535	5535	5448	5535	5535	5448	5448	5448	5448	5535	5535	5535	5448	5448	5448	5448	5448	5448	5535	5535	5448	5535	5448	5448	5448	5448	5448	5364	5364	5364	4406	4406	4406	4406	4350	4350	4350	4350	4350	4296	4296	4296	4296	4296	4350	4350	4350	4350	4350	4350	4350	4350	4350	4350	4350	4350	4350	4350	4350	4350	4350	4350	4350	4350	4296	4296	4296	4350	4350	4350	4350	4296	4350	4350	4296	4296	4296	4296	4296	4296	4296	4296	4296	4296	4296	4296	4296	4296	4296	4296	4350	4350	4350	4350	4350	4350	4350	4296	4296	4350	4350	4350	4350	4350	4350	4350	4350	4350	4350	4350	4350	4350	4350	4296	4296	4296	4296	4296	4296	4350	4350	4350	4350	4350	4350	4350	4350	4350	4350	4350	4350	4350	4350	4296	4296	4296	4350	4296	4296	4296	4350	4350	4350	4350	4350	4296	4296	4350	4350	4350	4350	4350	4350	4350	4350	4350	4350	4350	4350	4350	4296	4296	4296	4296	4296	4296	4243	4243	3019	2993	2993	2967	2967	2967	2967	2967	2967	2993	2993	2993	2993	2993	2993	2993	2993	2993	2967	2967	2967	2967	2967	2967	2967	2967	2967	2967	2967	2967	2967	2993	2967	2993	2967	2967	2967	2967	2967	2967	2967	2967	2967	2993	2967	2967	2967	2993	2993	2993	2967	2967	2967	2967	2967	2967	2942	2967	2967	2942	2942	2942	2942	2967	2967	2967	2967	2993	2993	2993	2993	2993	2993	2993	2993	2993	3019	2993	2993	2967	2967	2993	2967	2967	2967	2967	2967	2967	2967	2967	2967	2967	2967	4243	4243	4243	4243	4243	4243	4192	4192	4192	4192	4243	4243	4243	4243	4243	4243	4243	4243	4243	4243	4243	4243	4243	4192	4243	4243	4192	4192	4192	4192	4192	4192	4192	4192	4192	4142	4142	4142	4142	4142	4142	4142	4142	4142	4142	4142	4142	4093	4142	4142	4142	4142	4142	4192	4142	4142	4142	4142	4142	4142	4142	4093	4142	4093	4093	4093	4093	4093	4093	4093	4093	4093	4093	4093	4142	4142	4093	4093	4093	4093	4142	4142	4142	4093	4142	4142	4142	4142	4142	4142	4142	4142	4142	4142	4142	4093	4045	4045	4045	4142	4142	4142	4142	4142	4142	4142	4142	4142	4142	4192	4142	4142	7779	7779	7779	7608	7608	7608	7608	7608	7608	7608	7608	7444	7444	7444	7444	7444	7444	7444	7444	7444	7287	7137	6992	7137	7287	7287	5364	5364	5282	5364	5282	5282	5202	5202	5202	5202	5125	5125	0	0	0	0	0	0	0	0	0	4406	4463	4463	4406	4406	4406	4406	4350	4406	4406	4406	4406	4406	4406	4406	4406	4406	4350	4350	4350	4350	4350	4350	4350	4350	4350	4296	4296	4296	4296	4296	0	0	0	0	0	0	0	0	0	0	0	0	0	0	0	0	0	0	0	0	0	0	0	0	0	0	0	0	0	0	0	0	0	0
0	0	0	0	0	0	0	0	0	0	1259	1259	1259	1259	1259	1259	1259	1254	1254	1254	1254	1259	1259	1259	1259	1254	1254	1259	1259	1254	1254	1254	1249	1249	1254	1254	1249	1254	1254	1254	1249	1249	1249	1254	1254	1254	1254	1249	1249	1254	1254	1254	1254	1254	1254	1254	1254	1249	1249	1249	1249	1259	1259	1259	1259	1268	1277	1282	1282	1291	1296	1306	1311	1316	1321	1326	1331	1336	1342	1347	1352	1358	1363	1363	1363	1390	1402	1402	1407	1413	1413	1413	1425	1431	1431	1443	1443	1461	1467	1473	1473	1486	1492	1492	1492	1499	1499	1499	0	0	0	0	0	0	0	0	0	0	0	0	0	0	0	0	0	0	0	0	0	0	0	0	1777	1786	1795	1795	1804	1795	1795	1795	1786	1786	1777	0	0	0	5282	5202	5448	5448	5535	5535	5448	5535	5535	5535	5535	5448	5448	5448	5448	5448	5448	5535	5535	5535	5535	5448	5448	5448	5448	5448	5448	5448	5448	5448	5448	5448	5448	5535	5448	5448	5364	5364	5364	4406	4406	4406	4406	4350	4350	4350	4350	4350	4350	4296	4296	4296	4296	4296	4296	4350	4350	4350	4350	4350	4350	4350	4350	4350	4350	4350	4350	4350	4350	4350	4350	4296	4296	4296	4296	4296	4296	4296	4350	4350	4350	4350	4350	4350	4296	4296	4296	4296	4296	4296	4296	4296	4296	4296	4296	4296	4296	4296	4350	4350	4350	4350	4350	4296	4350	4350	4296	4296	4350	4350	4350	4350	4350	4350	4350	4350	4350	4350	4350	4350	4350	4296	4296	4296	4296	4296	4296	4296	4296	4350	4350	4350	4350	4350	4350	4350	4350	4350	4350	4350	4350	4350	4296	4296	4296	4350	4296	4296	4296	4296	4350	4350	4350	4350	4296	4296	4350	4296	4296	4350	4350	4350	4350	4350	4350	4350	4350	4350	4350	4296	4296	4296	4296	4296	4243	4296	4243	3019	2993	2993	2993	2993	2967	2967	2967	2967	2993	2993	2993	2993	2993	2993	2993	2993	2993	2967	2967	2967	2967	2967	2967	2967	2967	2967	2967	2967	2967	2993	2993	2967	2993	2967	2967	2967	2967	2967	2967	2967	2967	2967	2993	2993	2967	2993	3019	2993	2993	2967	2967	2967	2967	2967	2967	2942	2967	2967	2967	2967	2967	2967	2967	2967	2967	2967	2967	2967	2967	2967	2993	2993	2967	2967	2993	2993	2993	2993	2993	2993	2993	2967	2967	2967	2967	2967	2967	2967	2967	2942	2942	4192	4192	4243	4192	4192	4192	4192	4192	4192	4192	4192	4243	4243	4243	4243	4243	4243	4243	4243	4243	4243	4243	4243	4243	4192	4192	4192	4192	4192	4142	4142	4192	4192	4192	4192	4192	4142	4142	4142	4142	4142	4142	4142	4142	4142	4142	4142	4093	4093	4093	4142	4142	4142	4192	4192	4142	4142	4142	4142	4142	4142	4142	4142	4142	4142	4093	4093	4093	4093	4093	4093	4093	4093	4093	4093	4093	4093	4142	4093	4093	4093	4142	4093	4093	4093	4142	4142	4142	4142	4142	4142	4142	4142	4142	4142	4142	4142	4142	4142	4142	4142	4142	4142	4142	4142	4142	4142	4142	4142	4142	4192	4142	4142	7779	7779	7779	7608	7608	7608	7444	7444	7444	7444	7444	7444	7444	7444	7444	7444	7444	7444	7444	7287	7287	7137	7137	7137	7137	5364	5364	5364	5282	5282	5282	5282	5202	5202	5202	5202	5125	5125	0	0	0	0	0	0	0	0	0	0	4463	4463	4463	4406	4406	4350	4350	4350	4406	4406	4406	4406	4406	4406	4350	4350	4350	4350	4350	4350	4350	4350	4350	4350	4350	4350	4350	4350	4296	4296	0	0	0	0	0	0	0	0	0	0	0	0	0	0	0	0	0	0	0	0	0	0	0	0	0	0	0	0	0	0	0	0	0	0
0	0	0	0	0	0	0	0	0	0	1259	1263	1263	1263	1259	1263	1259	1259	1254	1254	1254	1254	1259	1259	1259	1254	1254	1259	1254	1254	1254	1254	1254	1249	1249	1254	1249	1249	1249	1249	1249	1245	1249	1249	1245	1249	1249	1249	1249	1254	1254	1249	1254	1254	1254	1249	1249	1249	1249	1249	1249	1254	1259	1259	1259	1268	1272	1277	1282	1287	1296	1306	1306	1316	1321	1326	1331	1331	1336	1342	1352	1358	1358	1374	1379	1390	1396	1402	1407	1413	1413	1419	1425	1437	1443	1449	1455	1467	1467	1473	1473	1486	1486	1492	1492	1499	1499	1499	0	0	0	0	0	0	0	0	0	0	0	0	0	0	0	0	0	0	0	0	0	0	0	0	1777	1795	1795	1795	1804	1795	1795	1795	1786	1786	0	0	0	0	5282	5364	5448	5535	5535	5535	5448	5535	5535	5535	5535	5448	5448	5448	5448	5448	5448	5448	5535	5535	5535	5448	5448	5448	5448	5448	5448	5535	5535	5448	5535	5448	5448	5535	5448	5448	5364	5364	5364	4406	4406	4406	4406	4350	4350	4350	4350	4350	4350	4350	4296	4296	4350	4350	4350	4350	4350	4350	4350	4350	4350	4350	4350	4350	4350	4350	4350	4350	4350	4350	4350	4296	4296	4296	4296	4296	4296	4296	4296	4296	4296	4296	4296	4296	4296	4296	4296	4296	4296	4296	4296	4296	4296	4350	4296	4350	4350	4296	4350	4350	4350	4350	4296	4296	4350	4350	4296	4296	4296	4296	4350	4350	4350	4350	4350	4350	4350	4350	4350	4350	4296	4296	4296	4296	4296	4296	4296	4296	4296	4296	4296	4350	4350	4350	4350	4350	4350	4350	4350	4350	4350	4350	4350	4350	4350	4350	4350	4350	4296	4350	4350	4350	4350	4350	4350	4296	4350	4296	4296	4296	4350	4350	4350	4350	4350	4350	4350	4350	4350	4296	4296	4296	4296	4243	4243	4243	4243	3019	3019	2993	2993	2993	2967	2967	2967	2967	2993	2993	2993	2993	2993	2993	2993	2993	2993	2967	2967	2967	2967	2967	2967	2967	2967	2967	2967	2967	2967	2967	2967	2967	2967	2993	2967	2967	2967	2967	2967	2967	2967	2967	2993	2993	2993	2993	2993	2993	2993	2993	2967	2967	2967	2967	2967	2967	2967	2967	2967	2967	2967	2967	2967	2967	2967	2967	2967	2967	2967	2967	2967	2967	2967	2967	2967	2993	2967	2993	2993	2993	2993	2993	2993	2967	2993	2967	2967	2967	2993	2942	2942	4192	4192	4192	4192	4192	4192	4192	4192	4192	4192	4192	4192	4192	4192	4243	4243	4243	4243	4243	4243	4243	4243	4243	4192	4192	4192	4192	4142	4142	4142	4142	4192	4192	4192	4192	4192	4142	4142	4142	4142	4142	4093	4142	4142	4142	4142	4093	4093	4093	4093	4142	4142	4142	4192	4192	4142	4142	4142	4142	4142	4142	4142	4093	4093	4093	4093	4093	4093	4093	4045	4093	4045	4045	4093	4093	4093	4142	4142	4142	4093	4093	4093	4093	4093	4093	4093	4093	4142	4142	4142	4142	4142	4142	4192	4142	4142	4142	4142	4142	4142	4142	4045	4045	4045	4142	4142	4192	4192	4192	4192	4192	4192	4192	7779	7779	7779	7608	7608	7608	7444	7444	7444	7444	7444	7444	7444	7444	7444	7444	7444	7287	7287	7287	7137	7137	6992	6992	7137	7137	5282	5282	5282	5282	5282	5282	5202	5202	5125	5125	0	0	0	0	0	0	0	0	0	5364	5282	5202	5202	4463	4463	4406	4406	4406	4350	4406	4406	4406	4406	4406	4406	4350	4350	4350	4350	4350	4350	4296	4350	4350	4350	4350	4350	4350	4296	4296	4296	4296	0	0	0	0	0	0	0	0	0	0	0	0	0	0	0	0	0	0	0	0	0	0	0	0	0	0	0	0	0	0	0	0	0	0
0	0	0	0	0	0	0	0	0	0	1263	1263	1263	1263	1263	1263	1263	1259	1254	1259	1259	1254	1259	1259	1259	1254	1254	1259	1259	1249	1249	1249	1249	1249	1249	1254	1249	1254	1249	1249	1249	1245	1245	1245	1245	1245	1249	1245	1249	1249	1245	1249	1245	1249	1249	1249	1249	1245	1249	1249	1249	1254	1259	1259	1259	1268	1268	1277	1277	1287	1296	1311	1311	1316	1321	1326	1326	1331	1336	1342	1347	1352	1358	1358	1374	1374	1396	1402	1407	1407	1413	1413	1425	1437	1449	1449	1461	1467	1467	1473	1480	1486	1492	1492	1492	1499	1499	1499	0	0	0	0	0	0	0	1581	1581	0	0	0	0	0	0	0	0	0	0	0	0	0	0	0	1777	1795	1786	1786	1795	1795	1795	1786	1777	1777	0	0	0	0	5364	5364	5448	5535	5535	5535	5535	5535	5535	5535	5535	5448	5448	5448	5448	5448	5448	5448	5535	5535	5448	5448	5448	5535	5448	5535	5448	5535	5448	5448	5535	5535	5535	5535	5535	5448	5364	5364	5364	5448	4406	4406	4406	4350	4350	4350	4350	4350	4350	4350	4296	4350	4350	4350	4350	4350	4350	4350	4350	4350	4350	4350	4350	4350	4350	4350	4350	4350	4350	4350	4350	4296	4296	4296	4296	4296	4296	4296	4296	4296	4296	4296	4296	4296	4296	4296	4296	4296	4296	4296	4296	4296	4296	4350	4350	4350	4350	4350	4350	4350	4350	4350	4350	4350	4350	4350	4350	4350	4350	4350	4350	4296	4350	4350	4350	4350	4350	4350	4350	4350	4350	4296	4296	4296	4296	4296	4296	4296	4296	4296	4296	4296	4350	4350	4350	4296	4350	4350	4350	4350	4350	4350	4350	4350	4350	4350	4350	4350	4296	4350	4350	4350	4350	4350	4350	4296	4350	4296	4296	4296	4296	4350	4350	4296	4350	4350	4350	4350	4350	4296	4296	4296	4296	4296	4243	4296	4243	3019	3019	2993	2993	2993	2967	2967	2967	2967	2993	2993	2993	2993	2993	2993	2993	2967	2967	2967	2967	2967	2967	2967	2967	2967	2967	2967	2967	2967	2967	2993	2967	2967	2993	2993	2993	2967	2967	2967	2967	2967	2967	2967	2967	2967	2967	2993	2993	2993	2993	2967	2967	2967	2967	2967	2967	2967	2967	2967	2967	2967	2967	2967	2967	2967	2967	2967	2967	2967	2967	2967	2967	2967	2967	2967	2993	2993	2993	2993	2993	2993	2993	2993	2967	2967	2967	2967	2967	2967	2967	2967	2942	4192	4192	4192	4192	4192	4192	4192	4192	4192	4192	4192	4192	4192	4192	4192	4192	4243	4243	4243	4243	4243	4243	4243	4192	4192	4192	4142	4142	4142	4142	4192	4192	4192	4192	4192	4192	4142	4142	4142	4142	4142	4142	4142	4142	4142	4142	4093	4093	4142	4142	4142	4192	4192	4192	4192	4192	4192	4142	4142	4142	4142	4142	4093	4093	4093	4093	4093	4093	4093	4045	4093	4093	4093	4093	4093	4093	4142	4142	4142	4093	4093	4093	4093	4093	4093	4093	4093	4142	4142	4142	4142	4142	4142	4192	4142	4142	4142	4142	4142	4192	4142	4093	4045	4045	4142	4142	4192	4192	4192	4192	4192	4192	4192	7779	7779	7779	7608	7608	7608	7608	7608	7608	7444	7444	7444	7444	7444	7287	7444	7444	7287	7287	7287	7137	6992	6992	6853	6992	6992	5282	5282	5282	5282	5282	5282	5202	5202	5202	5202	0	0	0	0	0	0	0	0	0	5282	5202	5125	5125	5125	4463	4463	4406	4406	4406	4406	4406	4406	4463	4406	4406	4406	4406	4350	4406	4350	4350	4350	4350	4350	4350	4350	4350	4350	4296	4296	4296	4296	0	0	0	0	0	0	0	0	0	0	0	0	0	0	0	0	0	0	0	0	0	0	0	0	0	0	0	0	0	0	0	0	0	0
0	0	0	0	0	0	0	0	0	0	1263	1263	1263	1263	1263	1268	1263	1259	1254	1254	1254	1259	1259	1254	1254	1254	1249	1254	1254	1249	1249	1249	1249	1249	1249	1254	1249	1249	1249	1249	1249	1249	1245	1245	1240	1245	1245	1245	1245	1249	1249	1249	1245	1245	1249	1245	1249	1245	1245	1249	1249	1254	1254	1259	1263	1268	1268	1277	1282	1291	1301	1311	1311	1311	1316	1321	1326	1326	1336	1342	1347	1358	1358	1363	1368	1379	1396	1402	1402	1407	1413	1413	1419	1437	1449	1449	1461	1467	1473	1480	1480	1486	1492	1499	1499	1499	1506	1506	0	0	1560	1560	1567	1567	1567	1574	1581	1581	0	0	0	0	0	0	0	0	0	0	0	0	0	1768	1777	1786	1786	1786	1786	1786	1786	1786	1777	1777	1777	0	0	0	5364	5448	5535	5535	5535	5535	5535	5535	5535	5535	5535	5448	5448	5448	5448	5448	5448	5535	5535	5535	5535	5535	5535	5535	5535	5535	5448	5535	5535	5535	5535	5535	5535	5535	5535	5448	5364	5364	5364	5448	4406	4350	4350	4350	4350	4350	4350	4350	4350	4296	4296	4296	4296	4296	4350	4350	4350	4350	4350	4350	4350	4350	4350	4350	4350	4350	4350	4350	4350	4350	4296	4296	4296	4296	4296	4296	4296	4296	4296	4296	4296	4296	4296	4296	4296	4296	4296	4350	4296	4296	4296	4296	4350	4350	4350	4350	4350	4350	4350	4350	4350	4350	4350	4296	4350	4350	4350	4350	4350	4350	4350	4296	4350	4350	4350	4350	4350	4350	4350	4350	4350	4350	4350	4350	4296	4296	4296	4296	4350	4350	4350	4350	4350	4350	4350	4350	4350	4350	4350	4350	4350	4350	4350	4350	4350	4350	4350	4350	4296	4350	4350	4350	4350	4350	4350	4296	4296	4296	4296	4296	4350	4350	4350	4350	4296	4350	4350	4350	4350	4296	4296	4296	4296	4296	4296	4296	4243	4243	3046	3019	2993	2993	2993	2967	2967	2967	2967	2993	2993	2967	2993	2993	2993	2993	2967	2967	2967	2967	2967	2967	2967	2967	2967	2967	2967	2967	2967	2993	2967	2967	2967	2993	2993	2967	2967	2967	2967	2967	2993	2993	2993	2993	2967	2993	2993	2993	2993	2967	2967	2967	2967	2967	2967	2967	2967	2967	2967	2967	2967	2967	2967	2967	2967	2967	2967	2967	2967	2967	2967	2967	2967	2967	2993	2993	2993	2993	3019	3019	3019	2993	2993	2993	2967	2967	2967	2967	2967	2967	4192	4142	4192	4192	4192	4192	4192	4192	4192	4192	4192	4192	4192	4192	4192	4192	4192	4192	4243	4192	4192	4243	4243	4243	4192	4192	4192	4142	4142	4142	4142	4192	4192	4192	4192	4192	4192	4142	4142	4142	4142	4142	4142	4142	4142	4142	4142	4142	4142	4142	4142	4142	4192	4192	4192	4192	4192	4192	4142	4142	4142	4142	4142	4093	4093	4093	4093	4093	4093	4093	4093	4093	4093	4093	4093	4093	4093	4142	4093	4142	4093	4093	4093	4093	4093	4093	4093	4093	4192	4142	4142	4142	4142	4142	4142	4093	4093	4142	4142	4142	4142	4142	4142	4142	4142	4142	4142	4142	4142	4142	4192	4243	4243	4192	7779	7608	7779	7608	7608	7608	7608	7608	7608	7608	7444	7444	7444	7444	7444	7444	7444	7287	7287	7287	7137	6992	6853	6853	6853	6853	5282	5282	5282	5282	5282	5282	5202	5202	5125	5125	0	0	0	0	0	0	0	0	0	5282	5202	5125	5125	5125	5125	4406	4406	4406	4406	4406	4406	4406	4463	4406	4406	4406	4350	4350	4406	4350	4350	4350	4350	4350	4350	4350	4350	4350	4350	4296	4296	4296	0	0	0	0	0	0	0	0	0	0	0	0	0	0	0	0	0	0	0	0	0	0	0	0	0	0	0	0	0	0	0	0	0	0
0	0	0	0	0	0	0	0	0	0	1263	1263	1263	1263	1263	1263	1263	1259	1259	1254	1259	1259	1254	1254	1254	1254	1254	1254	1254	1249	1249	1249	1249	1249	1249	1254	1254	1254	1254	1249	1249	1249	1245	1245	1240	1245	1245	1245	1245	1245	1245	1245	1245	1245	1245	1245	1249	1245	1245	1245	1249	1254	1254	1259	1259	1268	1272	1277	1282	1291	1306	1306	1311	1316	1316	1321	1331	1336	1336	1336	1347	1358	1358	1368	1374	1379	1396	1396	1402	1407	1413	1413	1425	1443	1449	1449	1461	1467	1473	1473	1480	1486	1499	1499	1506	1506	1512	1512	1539	1546	1553	1560	1560	1560	1560	1581	1589	1589	0	0	0	0	0	0	0	0	0	0	0	0	0	1777	1786	1786	1786	1786	1786	1786	1786	1777	1777	1777	1777	0	0	0	0	5535	5535	5535	5535	5535	5535	5535	5535	5535	5535	5535	5535	5535	5448	5448	5535	5535	5535	5535	5535	5535	5535	5535	5448	5448	5535	5535	5535	5535	5535	5535	5535	5535	5535	5448	5364	5364	5364	5364	4406	4350	4350	4350	4350	4350	4350	4350	4350	4350	4296	4296	4296	4296	4296	4296	4350	4350	4350	4350	4350	4350	4350	4350	4350	4350	4350	4350	4350	4350	4350	4296	4296	4350	4296	4296	4296	4296	4296	4296	4296	4296	4296	4350	4296	4350	4296	4350	4296	4296	4296	4350	4350	4350	4350	4350	4350	4350	4350	4350	4350	4350	4350	4350	4350	4350	4350	4350	4350	4350	4350	4296	4350	4350	4350	4350	4296	4350	4350	4350	4350	4350	4350	4350	4350	4350	4350	4350	4350	4350	4350	4350	4350	4350	4350	4296	4296	4296	4350	4350	4350	4350	4350	4350	4350	4350	4350	4350	4350	4350	4350	4350	4350	4350	4296	4296	4296	4296	4296	4296	4296	4350	4350	4350	4296	4350	4350	4350	4350	4296	4296	4296	4296	4296	4296	4296	4243	4243	4243	3046	3019	3019	2993	2967	2967	2967	2993	2993	2993	2967	2993	2993	2993	2993	2967	2967	2967	2967	2967	2967	2967	2967	2967	2967	2967	2967	2967	2993	2993	2967	2993	2993	2993	2993	2967	2967	2993	2993	2993	2993	2993	2993	2993	2993	2993	2993	2967	2967	2967	2967	2967	2967	2967	2967	2967	2967	2967	2967	2967	2967	2967	2967	2967	2967	2967	2967	2967	2967	2967	2967	2967	2967	2993	2993	3019	3019	3019	3019	3019	2993	2993	2993	2967	2967	2967	2967	2967	0	4192	4192	4192	4192	4192	4192	4192	4192	4192	4192	4192	4192	4192	4192	4192	4192	4192	4192	4192	4192	4192	4243	4192	4192	4192	4192	4192	4142	4142	4192	4142	4192	4192	4192	4192	4192	4192	4142	4142	4142	4142	4142	4142	4142	4142	4142	4093	4142	4142	4142	4142	4142	4192	4192	4192	4192	4192	4192	4142	4142	4142	4142	4142	4142	4093	4093	4045	4093	4093	4093	4093	4093	4093	4045	4093	4093	4093	4142	4142	4142	4093	4093	4093	4093	4093	4093	4093	4093	4142	4142	4142	4142	4142	4142	4142	4093	4093	4093	4093	4093	4142	4142	4045	4142	4045	4093	4093	4093	4192	4192	4192	4192	4192	4192	7779	7608	7608	7608	7608	7608	7608	7608	7608	7608	7444	7444	7444	7444	7444	7444	7444	7287	7287	7287	7137	6992	6992	6853	6853	6853	5282	5282	5282	5282	5282	5282	5282	5202	5202	5125	0	0	0	0	0	0	0	0	0	0	0	4977	5050	5050	4977	4977	4406	4406	4406	4406	4406	4406	4463	4406	4406	4350	4350	4350	4406	4406	4350	4350	4350	4350	4350	4350	4350	4350	4350	4296	4296	4296	0	0	0	0	0	0	0	0	0	0	0	0	0	0	0	0	0	0	0	0	0	0	0	0	0	0	0	0	0	0	0	0	0	0
0	0	0	0	0	0	0	0	0	0	1263	1263	1263	1263	1263	1263	1263	1259	1259	1259	1259	1259	1259	1259	1254	1254	1254	1254	1254	1249	1249	1249	1249	1249	1249	1254	1249	1254	1254	1249	1249	1254	1249	1245	1245	1245	1245	1245	1245	1245	1245	1245	1249	1249	1249	1245	1245	1245	1245	1249	1249	1254	1254	1259	1259	1272	1272	1277	1282	1287	1306	1311	1311	1316	1316	1321	1331	1336	1336	1336	1347	1358	1363	1368	1368	1379	1396	1396	1402	1402	1407	1419	1425	1443	1449	1455	1461	1467	1473	1480	1486	1499	1499	1506	1506	1512	1512	1519	1546	1553	1553	1560	1567	1567	1574	1581	1589	1596	1603	1596	1596	0	0	0	0	0	0	0	0	0	0	1777	1786	1795	1786	1786	1786	1786	1786	1777	1777	1777	1777	0	0	0	0	5535	5535	5535	5535	5535	5535	5535	5535	5535	5535	5535	5535	5535	5448	5535	5535	5535	5535	5535	5535	5535	5535	5535	5535	5535	5535	5535	5535	5535	5535	5535	5535	5535	5535	5448	5364	5364	5364	4350	4350	4350	4350	4350	4350	4350	4350	4350	4350	4350	4296	4296	4296	4296	4296	4296	4296	4296	4350	4350	4350	4350	4350	4350	4350	4350	4350	4350	4350	4296	4296	4296	4350	4296	4296	4296	4350	4296	4296	4350	4350	4350	4350	4350	4296	4350	4296	4350	4296	4296	4296	4350	4350	4350	4350	4350	4350	4350	4350	4350	4350	4350	4350	4350	4350	4350	4350	4350	4350	4350	4350	4296	4350	4350	4350	4350	4296	4350	4350	4350	4350	4350	4350	4350	4350	4350	4350	4350	4350	4350	4350	4350	4350	4350	4350	4296	4296	4296	4350	4350	4350	4350	4350	4350	4350	4350	4350	4350	4350	4350	4350	4350	4350	4350	4350	4296	4296	4296	4296	4296	4350	4350	4350	4350	4296	4350	4350	4296	4350	4243	4296	4296	4296	4243	4243	4296	4243	4243	4192	4243	3046	3046	3019	2993	2967	2967	2993	2993	2993	2967	2993	2993	2993	2993	2993	2967	2967	2967	2967	2967	2967	2967	2967	2967	2967	2967	2967	2993	2967	2993	2993	2967	2967	2967	2967	2967	2967	2993	2993	2993	2993	2993	2993	2993	2993	2993	2993	2967	2967	2967	2967	2967	2967	2967	2967	2967	2967	2967	2967	2967	2967	2967	2967	2967	2967	2967	2967	2967	2967	2967	2967	2967	2993	2993	3019	3019	3019	3019	3019	3019	2993	2993	2967	2967	2967	2967	2967	4243	4192	4192	4192	4192	4192	4192	4192	4192	4192	4192	4192	4192	4192	4192	4192	4192	4142	4192	4192	4192	4192	4192	4192	4192	4192	4192	4192	4192	4192	4192	4192	4192	4243	4192	4192	4243	4243	4192	4192	4142	4142	4142	4142	4142	4142	4142	4142	4142	4142	4142	4142	4142	4192	4192	4192	4192	4192	4192	4142	4142	4142	4142	4093	4093	4093	4093	4093	4093	4045	4045	4093	4093	4045	4045	4045	4093	4142	4142	4142	4142	4142	4093	4093	4093	4093	4093	4093	4093	4142	4142	4093	4142	4142	4093	4142	4093	4093	4093	4093	4093	4093	4093	4093	4142	4045	4093	4142	4093	4142	4142	4045	4192	4192	4192	7608	7608	7608	7608	7779	7779	7779	7779	7779	7608	7444	7444	7444	7444	7444	7444	7444	7444	7444	7444	7287	6992	6853	6720	6853	5202	5282	5282	5282	5282	5282	5282	5282	5202	5202	5125	5125	0	0	0	0	0	0	0	0	0	0	4977	4977	4977	4977	4977	4977	4463	4463	4406	4463	4406	4406	4350	4350	4350	4350	4350	4406	4406	4406	4350	4350	4350	4350	4350	4350	4350	4350	4296	4296	4296	0	0	0	0	0	0	0	0	0	0	0	0	0	0	0	0	0	0	0	0	0	0	0	0	0	0	0	0	0	0	0	0	0	0
0	0	0	0	0	0	0	0	0	0	1263	1263	1263	1259	1263	1263	1259	1259	1259	1259	1259	1259	1259	1259	1254	1259	1254	1259	1259	1249	1249	1249	1249	1249	1254	1254	1254	1254	1254	1254	1254	1249	1249	1245	1245	1245	1245	1245	1245	1245	1245	1249	1249	1249	1249	1249	1245	1245	1245	1254	1254	1254	1259	1263	1263	1272	1272	1277	1282	1287	1296	1311	1311	1316	1316	1321	1321	1331	1336	1336	1347	1358	1363	1368	1368	1374	1390	1396	1402	1402	1419	1425	1425	1443	1449	1449	1461	1467	1473	1480	1486	1499	1499	1506	1512	1512	1519	1525	1546	1553	1553	1560	1567	1574	1574	1589	1596	1603	1603	1603	1611	1611	1611	1611	0	0	0	0	0	0	0	1786	1786	1786	1786	1786	1786	1786	1786	1777	1777	1777	1777	0	0	0	0	5535	5535	5535	5535	5535	5535	5535	5535	5535	5535	5535	5535	5535	5448	5535	5448	5535	5535	5535	5535	5535	5535	5535	5535	5535	5535	5535	5535	5535	5535	5535	5535	5535	5535	5364	5364	5364	5364	4350	4350	4350	4350	4350	4350	4350	4350	4350	4350	4350	4350	4296	4296	4296	4296	4296	4296	4296	4296	4350	4350	4350	4350	4350	4350	4350	4350	4350	4296	4296	4350	4296	4350	4296	4296	4296	4296	4296	4296	4296	4296	4296	4350	4350	4350	4350	4350	4350	4296	4296	4296	4296	4350	4350	4350	4350	4350	4350	4350	4350	4350	4350	4350	4350	4350	4350	4350	4350	4350	4350	4350	4296	4296	4296	4350	4296	4296	4350	4350	4350	4350	4350	4350	4350	4350	4350	4350	4350	4350	4350	4350	4350	4350	4296	4350	4350	4296	4296	4350	4350	4350	4350	4350	4350	4350	4350	4350	4350	4350	4350	4350	4350	4350	4350	4350	4296	4296	4296	4296	4296	4296	4350	4350	4350	4350	4350	4350	4296	4296	4243	4296	4296	4296	4243	4243	4243	4243	4243	4243	4192	3073	3073	3046	3019	2993	2993	2993	2993	2993	2993	2993	2993	3019	2993	2993	2967	2967	2967	2967	2967	2967	2967	2967	2967	2967	2967	2967	2993	2967	2993	2993	2967	2967	2967	2967	2967	2967	2993	2993	2993	2993	2993	2993	2993	2993	2993	2967	2967	2967	2967	2967	2967	2967	2967	2993	2967	2967	2967	2967	2967	2967	2967	2967	2967	2967	2967	2967	2967	2967	2967	2967	2967	2993	2993	3019	3019	3019	3019	3019	3019	2993	2993	2993	2967	2967	2993	2993	4192	4192	4192	4192	4192	4192	4192	4192	4192	4192	4192	4192	4243	4243	4243	4142	4142	4142	4192	4192	4192	4192	4192	4192	4192	4192	4192	4192	4192	4192	4192	4192	4243	4243	4243	4192	4192	4192	4142	4142	4093	4093	4142	4142	4142	4142	4142	4142	4142	4142	4142	4142	4142	4192	4142	4142	4192	4192	4142	4142	4142	4142	4142	4093	4093	4093	4093	4093	4093	4093	4093	4093	4093	4093	4045	4045	4093	4142	4142	4142	4142	4142	4142	4093	4093	4093	4093	4093	4093	4093	4142	4093	4093	4093	4093	4142	4142	4142	4142	4142	4142	4142	4142	4093	4093	4093	4093	4093	4093	4142	4142	4142	4192	4192	0	7608	7608	7608	7608	7779	7779	7779	7779	7779	7608	7608	7444	7444	7444	7444	7444	7444	7444	7444	7444	7287	7287	6992	6992	6992	5202	5202	5202	5202	5202	5202	5282	5282	5202	5202	5125	5125	0	0	0	0	0	0	0	0	0	0	5050	5125	5050	5050	4977	4977	4906	4771	4463	4463	4406	4463	4350	4350	4350	4350	4350	4296	4406	4406	4350	4350	4350	4350	4296	4296	4296	4350	4296	4296	4296	0	0	0	0	0	0	0	0	0	0	0	0	0	0	0	0	0	0	0	0	0	0	0	0	0	0	0	0	0	0	0	0	0	0
0	0	0	0	0	0	0	0	0	0	1263	1263	1263	1263	1263	1263	1263	1259	1259	1259	1259	1259	1259	1259	1259	1259	1259	1254	1254	1254	1249	1249	1249	1249	1249	1254	1249	1249	1254	1249	1249	1249	1249	1249	1245	1245	1245	1245	1249	1249	1245	1249	1254	1249	1249	1254	1245	1245	1245	1254	1254	1259	1259	1263	1263	1272	1272	1277	1282	1291	1296	1306	1306	1316	1316	1321	1326	1331	1331	1336	1347	1358	1363	1368	1368	1374	1379	1390	1396	1402	1407	1407	1425	1425	1443	1449	1461	1467	1473	1480	1486	1499	1499	1506	1506	1512	1519	1525	1546	1553	1553	1560	1560	1574	1574	1589	1596	1603	1611	1603	1611	1611	1618	1626	1626	1611	1611	0	0	0	0	1786	1786	1795	1786	1786	1777	1777	1786	1777	1777	1777	1777	0	0	0	0	5448	5448	5535	5535	5535	5535	5535	5535	5535	5535	5535	5535	5535	5535	5535	5535	5535	5535	5535	5535	5535	5535	5535	5535	5535	5535	5535	5535	5535	5535	5535	5535	5535	5535	5364	5364	5364	5364	4350	4350	4350	4350	4350	4350	4350	4350	4350	4350	4350	4350	4296	4296	4296	4296	4296	4296	4296	4350	4350	4350	4350	4350	4350	4350	4350	4350	4350	4296	4350	4350	4350	4350	4350	4350	4350	4350	4296	4296	4296	4296	4296	4296	4296	4350	4350	4350	4350	4350	4296	4296	4296	4350	4350	4350	4350	4350	4350	4350	4350	4350	4350	4350	4350	4350	4350	4350	4350	4350	4350	4296	4296	4296	4296	4296	4296	4296	4350	4350	4350	4350	4350	4350	4350	4350	4350	4350	4350	4350	4350	4350	4350	4350	4350	4350	4350	4350	4350	4350	4350	4350	4350	4350	4350	4350	4350	4350	4350	4350	4350	4350	4350	4350	4350	4350	4296	4296	4296	4296	4296	4350	4350	4350	4350	4350	4350	4296	4296	4296	4243	4243	4243	4243	4296	4296	4296	4296	4243	4243	4243	4192	3073	3073	3046	3019	2993	2993	2993	2993	2993	2993	2993	2993	2993	2993	2967	2967	2967	2967	2967	2967	2967	2967	2967	2967	2967	2967	2993	2967	2967	2967	2967	2967	2967	2967	2967	2967	2993	2993	3019	3019	3019	2993	2993	2993	2993	2993	2967	2993	2993	2967	2967	2967	2967	2993	2967	2967	2967	2967	2967	2967	2967	2967	2967	2967	2967	2967	2967	2967	2967	2993	2993	2993	2993	3019	3019	3019	3019	3019	3019	3019	2993	2967	2967	2967	2967	4192	4192	4192	4192	4192	4192	4192	4243	4243	4243	4243	4192	4192	4192	4243	4192	4142	4192	4142	4192	4192	4192	4192	4192	4192	4192	4192	4192	4192	4192	4192	4243	4243	4243	4243	4243	4192	4192	4192	4142	4142	4093	4093	4142	4093	4142	4142	4142	4093	4142	4142	4142	4142	4142	4142	4142	4192	4192	4192	4192	4142	4142	4142	4142	4093	4093	4093	4093	4093	4093	4093	4093	4093	4093	4093	4045	4045	4093	4142	4142	4142	4142	4142	4142	4142	4093	4093	4093	4093	4093	4142	4142	4093	4142	4093	4093	4093	4142	4093	4093	4142	4142	4142	4093	4093	4093	4093	4093	4093	4093	4142	4142	4142	4192	4192	0	7608	7608	7608	7608	7779	7608	7779	7779	7779	7608	7608	7444	7444	7444	7444	7444	7444	7444	7444	7444	7444	7287	7137	6992	6992	6992	5202	5202	5202	5202	5202	5202	5202	5202	5202	5202	5202	0	0	0	0	0	0	0	0	0	0	5282	5202	5125	5125	5125	5050	5050	4977	4463	4463	4406	4463	4350	4350	4350	4406	4350	4406	4350	4350	4350	4350	4350	4350	4350	4350	4350	4296	4296	4296	4296	0	0	0	0	0	0	0	0	0	0	0	0	0	0	0	0	0	0	0	0	0	0	0	0	0	0	0	0	0	0	0	0	0	0
0	0	0	0	0	0	0	0	0	0	1259	1263	1263	1263	1263	1263	1263	1259	1259	1259	1259	1259	1259	1259	1259	1259	1254	1254	1254	1254	1249	1249	1249	1254	1254	1249	1249	1245	1254	1249	1249	1249	1249	1245	1245	1245	1245	1249	1249	1249	1249	1249	1249	1249	1245	1245	1245	1245	1245	1254	1259	1259	1259	1263	1263	1272	1272	1277	1282	1291	1291	1301	1306	1311	1316	1321	1326	1331	1336	1336	1342	1352	1358	1363	1368	1379	1385	1390	1396	1402	1407	1407	1425	1425	1443	1449	1455	1467	1473	1480	1486	1486	1499	1499	1506	1512	1519	1546	1546	1560	1553	1560	1560	1574	1574	1581	1596	1611	1611	1611	1611	1618	1618	1626	1626	1634	1634	0	0	0	0	1786	1786	1786	1786	1786	1777	1777	1777	1777	1777	1777	1777	0	0	0	0	5448	5448	5535	5535	5535	5535	5535	5535	5535	5535	5535	5535	5535	5535	5535	5535	5535	5535	5535	5535	5535	5535	5535	5535	5535	5535	5535	5535	5448	5535	5535	5535	5535	5535	5535	5364	5364	5364	5364	4350	4350	4350	4350	4350	4350	4350	4350	4350	4350	4350	4296	4296	4296	4350	4350	4350	4296	4350	4350	4350	4350	4350	4350	4350	4350	4350	4350	4350	4296	4350	4350	4350	4350	4350	4350	4350	4296	4296	4296	4296	4296	4296	4296	4296	4350	4350	4350	4350	4296	4296	4296	4350	4350	4350	4350	4350	4350	4350	4350	4350	4350	4350	4350	4350	4350	4350	4350	4350	4296	4296	4296	4296	4296	4296	4296	4296	4350	4350	4350	4350	4350	4350	4350	4350	4350	4350	4350	4350	4350	4350	4350	4350	4350	4350	4350	4350	4350	4350	4350	4350	4350	4350	4350	4350	4350	4350	4350	4350	4350	4350	4350	4350	4350	4350	4350	4296	4296	4296	4296	4296	4350	4350	4350	4350	4350	4350	4296	4296	4243	4243	4296	4296	4296	4296	4296	4296	4296	4296	4243	4243	4243	3046	3046	3019	2993	2993	2993	2993	2993	2993	2993	2993	2993	2993	2967	2967	2967	2967	2967	2967	2967	2967	2967	2967	2967	2967	2993	2967	2993	2993	2967	2967	2967	2967	2967	2967	2967	2993	3019	3019	3019	3019	3019	3019	3019	2993	2993	2967	2967	2967	2967	2967	2967	2967	2967	2993	2993	2993	2967	2967	2967	2967	2967	2967	2967	2967	2993	2993	2993	2993	2993	2993	2993	3019	3019	3019	3019	3019	3019	3019	2993	2967	2967	2967	4192	4192	4192	4192	4192	4192	4192	4192	4243	4243	4243	4243	4243	4192	4192	4243	4192	4142	4192	4142	4243	4192	4192	4192	4192	4192	4192	4243	4192	4243	4243	4243	4243	4243	4243	4243	4243	4192	4243	4192	4142	4142	4093	4093	4142	4093	4093	4093	4142	4093	4142	4142	4142	4142	4142	4142	4142	4142	4142	4192	4142	4142	4142	4142	4142	4093	4142	4142	4093	4093	4093	4093	4093	4093	4093	4093	4045	4093	4093	4142	4142	4093	4142	4142	4142	4142	4093	4093	4093	4093	4093	4093	4093	4093	4093	4093	4093	4142	4142	4093	4093	4142	4142	4142	4093	4093	4093	4093	4093	4093	4045	4045	4142	4142	4142	4093	4093	7608	7608	7608	7608	7608	7608	7779	7779	7779	7608	7608	7444	7444	7444	7444	7444	7444	7444	7444	7444	7444	7287	7287	7137	7137	7444	5202	5202	5202	5202	5202	5202	5202	5282	5202	5202	5202	0	0	0	0	0	0	0	0	0	0	5282	5282	5202	5202	5202	5125	5125	5050	4838	4521	4463	4463	4350	4406	4406	4406	4406	4350	4406	4350	4406	4406	4406	4406	4350	4350	4350	4350	4296	4243	4243	0	0	0	0	0	0	0	0	0	0	0	0	0	0	0	0	0	0	0	0	0	0	0	0	0	0	0	0	0	0	0	0	0	0
0	0	0	0	0	0	0	0	0	0	1259	1259	1259	1259	1263	1263	1263	1259	1259	1259	1259	1259	1254	1254	1254	1259	1254	1254	1254	1254	1249	1249	1254	1254	1254	1254	1249	1249	1249	1249	1249	1249	1249	1249	1245	1245	1249	1249	1249	1249	1249	1249	1249	1249	1249	1254	1249	1249	1245	1254	1259	1259	1259	1263	1263	1272	1272	1282	1287	1291	1291	1301	1306	1311	1316	1321	1326	1326	1336	1342	1347	1358	1358	1363	1374	1379	1385	1396	1396	1402	1407	1407	1425	1425	1443	1449	1461	1467	1473	1480	1486	1486	1492	1499	1506	1512	1525	1546	1546	1553	1553	1553	1560	1560	1574	1589	1603	1603	1611	1618	1611	1618	1634	1634	1641	1641	1641	1641	0	0	1786	1786	1786	1786	1786	1777	1777	1777	1777	1777	1777	1777	1777	0	0	0	0	5535	5535	5535	5535	5535	5535	5535	5535	5535	5535	5535	5535	5535	5535	5535	5535	5535	5535	5535	5535	5448	5535	5535	5535	5448	5448	5448	5535	5448	5448	5535	5448	5535	5535	5535	5364	5364	5364	5364	4350	4350	4350	4350	4350	4350	4350	4350	4350	4350	4350	4296	4296	4296	4350	4350	4350	4350	4350	4350	4350	4350	4350	4350	4350	4350	4350	4350	4350	4350	4350	4350	4350	4350	4350	4350	4350	4296	4296	4296	4350	4296	4296	4296	4296	4296	4350	4296	4296	4296	4296	4296	4296	4296	4350	4296	4350	4350	4350	4350	4350	4350	4350	4350	4350	4350	4350	4350	4350	4350	4350	4350	4350	4350	4350	4350	4350	4350	4350	4350	4350	4350	4350	4350	4350	4350	4350	4350	4350	4350	4350	4350	4350	4350	4350	4350	4350	4350	4350	4350	4350	4296	4350	4350	4350	4350	4350	4350	4350	4350	4350	4350	4350	4350	4350	4296	4296	4296	4296	4350	4350	4350	4350	4350	4350	4350	4350	4350	4296	4243	4243	4296	4296	4296	4243	4296	4296	4296	4296	4243	4243	4192	4192	3046	3046	3019	3019	3019	3019	2993	2993	2993	2993	2993	2993	2967	2967	2967	2967	2967	2967	2967	2967	2967	2967	2967	2967	2967	2967	2967	2967	2967	2967	2967	2967	2967	2967	2993	2993	3019	3019	3019	3019	3019	3019	3019	2993	2993	2993	2967	2967	2967	2967	2967	2967	2967	2967	2967	2993	2967	2967	2967	2967	2967	2967	2967	2967	2993	2993	2993	2993	2993	2993	2993	3019	3019	3046	3019	3019	3019	2993	2967	2967	2967	4192	4243	4243	4243	4243	4192	4192	4243	4243	4243	4243	4243	4243	4243	4192	4192	4192	4192	4142	4142	4142	4192	4192	4192	4192	4192	4192	4243	4243	4243	4243	4243	4243	4243	4243	4243	4243	4243	4243	4243	4192	4142	4142	4093	4093	4093	4093	4093	4142	4142	4142	4142	4142	4142	4142	4142	4142	4142	4142	4142	4142	4142	4142	4142	4142	4142	4093	4093	4093	4093	4093	4093	4093	4093	4093	4093	4093	4093	4093	4093	4093	4142	4142	4142	4142	4142	4142	4142	4093	4142	4093	4093	4093	4093	4093	4093	4093	4093	4093	4142	4142	4093	4142	4142	4142	4093	4093	4093	4093	4093	4093	4045	4045	4045	4045	4093	4093	4093	0	7608	7608	7608	7608	7608	7608	7608	7779	7608	7608	7444	7444	7444	7444	7444	7444	7444	7444	7444	7444	7444	7287	7287	7287	7287	7287	5202	5202	5202	5202	5202	5202	5202	5125	5125	5050	5050	0	0	0	0	0	0	0	0	0	5282	5282	5282	5202	5202	5202	5125	5125	4977	4643	4521	4521	4463	4406	4406	4406	4406	4350	4350	4350	4406	4350	4350	4350	4350	4350	4350	4350	4296	4243	4243	0	0	0	0	0	0	0	0	0	0	0	0	0	0	0	0	0	0	0	0	0	0	0	0	0	0	0	0	0	0	0	0	0	0
