0	0	0	0	0	0	0	0	0	1437	1437	1443	1449	1455	1467	1467	1486	1499	1499	1506	1512	1525	1532	1532	1532	1532	1532	1539	1539	1539	1539	1539	1546	1546	1553	1553	1560	1567	1567	1574	1581	1581	1581	1581	1589	1589	1589	1589	2359	2443	2426	2409	2409	2409	2409	2409	2392	2392	2392	2392	2409	2409	2409	2409	2409	2409	2409	2409	2409	2409	2409	2409	2409	2409	2409	2409	2409	2409	2426	2409	2409	2409	0	0	1883	1873	1873	1873	1883	0	0	0	0	0	0	2392	2392	2392	2409	2426	2426	2409	2409	2426	2426	2409	2409	2409	2409	2409	2409	2409	2409	2409	2409	2409	2409	2409	2027	2039	2039	2039	2051	2063	2027	2027	0	2426	2426	2426	2426	2426	2426	2426	2426	2443	2443	2460	2460	2460	2460	2460	2967	2917	2893	2893	2893	2893	2893	2893	2869	2893	2869	2869	2869	2893	2893	2893	2893	2893	2893	2869	2893	2893	2893	2917	2917	3475	3475	3475	3475	3475	3475	3475	3440	3440	3440	3440	3475	3475	3475	3475	3440	3440	3440	3440	3440	3440	3440	3475	3475	3475	3510	3510	3510	3510	3510	3546	3546	3546	3546	3546	3546	3546	3583	3583	3583	3583	3583	3583	3583	3583	3546	3546	3546	3546	3546	3546	3546	3546	3510	3510	3546	3546	3546	3546	3510	3546	3546	3510	3510	3510	3510	3510	3510	3510	3510	3510	3510	3510	3510	3510	3510	3510	3475	3510	3510	3510	3510	3510	3510	3510	3546	3546	3546	3546	3546	3546	3546	3546	3546	3546	3546	3546	3546	3546	3546	3546	3546	3546	3546	3546	3546	3546	3546	3546	3546	3546	3546	3546	3546	3546	3546	3546	3546	3546	3546	3546	3546	3546	3510	3510	3440	3341	3309	3246	3246	3216	3186	3186	3157	3129	3129	3101	3101	3101	3101	3101	3101	3129	3129	3101	3101	3101	3129	3101	3101	3101	3101	3101	3101	3101	3101	3101	3073	3073	3073	3073	3073	3073	3073	3073	3073	3073	3073	3073	3073	3073	3073	3073	3073	3073	3073	3101	3101	3101	3101	3101	3101	3101	3101	3101	3157	3186	3186	3186	3186	3186	3186	3186	3157	3157	3510	3510	3546	3546	3546	3510	3510	3510	3510	3510	3510	3510	3546	3546	3546	3583	3583	3546	3546	3546	3546	3546	3546	3546	3546	3546	3546	3546	3546	3510	3546	3546	3546	3546	3546	3583	3583	3583	3583	3583	3583	3583	3583	3546	3546	3546	3546	3546	3546	3546	3583	3546	3546	3546	3546	3546	3546	3546	3546	3510	3510	3546	3510	3510	3510	3510	3546	3546	3546	3546	3510	3510	3510	3510	3510	3546	3510	3510	3583	3621	3583	3583	3583	3583	3583	3583	3583	3583	3583	3583	3583	3583	3583	3583	3583	3583	3546	3546	3546	3546	3546	3546	3546	3546	3546	3583	3546	3546	3546	3546	3546	3546	3546	3546	3546	3546	3546	3546	3546	3583	3583	3583	3583	3546	3583	3546	3546	3546	3510	3510	3510	3510	3546	3546	3546	3546	3546	3546	3546	3546	0	0	0	0	2051	2039	2039	2027	2015	2015	2003	2003	2003	2003	1992	1992	1980	1969	1947	1936	1936	1936	1925	1915	1915	1915	1904	1894	1873	1863	1863	1853	1843	1833	1824	1814	1804	1795	1786	1777	1777	1768	1759	1759	1750	1741	1723	1723	1715	1706	1698	1681	1681	1673	1665	1657	1649	1649	1641	1641	1634	1634	1626	1618	1611	1603	1603	1596	1596	1589	1574	1567	1567	1560	1553	1546	1546	1539	1532	1532	1525	1506	1499	1499	1492	1492	1486	1480	1473	1467	1461	1461	1461	1455	1455	0	0	0	0	0	0	0	0	0	0	0	0	0	0	0	0	0	0	0	0	0	0	0	0	0	0	0	0	0	0	0	0	0	0	0	0	0	0	0	0	0	0	0
0	0	0	0	0	0	0	0	0	1437	1437	1443	1449	1449	1461	1467	1480	1492	1506	1512	1525	1525	1532	1532	1532	1532	1532	1539	1539	1539	1539	1539	1546	1546	1553	1560	1560	1567	1567	1574	1581	1589	1581	1589	1589	1596	1596	1596	1596	0	2426	2409	2409	2409	2409	2392	2392	2392	2392	2392	2409	2409	2409	2409	2409	2409	2409	2409	2409	2409	2409	2409	2409	2409	2409	2409	2409	2409	2409	2426	2426	2409	0	0	1873	1873	1873	1873	0	0	0	0	0	0	0	0	2392	2409	2409	2409	2443	2426	2426	2426	2426	2426	2409	2409	2409	2409	2426	2426	2409	2409	2409	2409	2409	2409	2039	2039	2039	2039	2051	2051	2051	2051	2426	2426	2426	2426	2426	2426	2426	2426	2426	2443	2443	2443	2443	2460	2460	2460	2967	2942	2917	2917	2917	2942	2942	2942	2917	2917	2967	2917	2893	2893	2893	2893	2893	2893	2893	2893	2917	2893	2917	2917	2917	3475	3475	3475	3475	3475	3475	3475	3440	3440	3475	3440	3475	3475	3475	3475	3475	3440	3440	3440	3406	3406	3440	3475	3475	3510	3510	3510	3510	3510	3510	3546	3546	3546	3546	3546	3546	3546	3583	3583	3583	3583	3583	3583	3583	3583	3546	3546	3546	3546	3546	3510	3510	3510	3510	3546	3546	3546	3546	3546	3510	3546	3546	3510	3510	3510	3510	3510	3510	3510	3510	3510	3510	3510	3510	3510	3510	3510	3510	3510	3510	3510	3510	3510	3510	3510	3546	3546	3546	3546	3546	3546	3546	3546	3546	3546	3546	3546	3546	3546	3546	3546	3546	3546	3546	3546	3546	3546	3546	3546	3546	3546	3546	3546	3546	3546	3546	3546	3546	3546	3546	3546	3546	3546	3510	3510	3510	3373	3341	3277	3246	3216	3186	3186	3157	3129	3129	3101	3101	3101	3101	3129	3129	3129	3129	3101	3101	3101	3101	3101	3101	3101	3101	3101	3101	3073	3073	3073	3073	3073	3073	3073	3073	3073	3073	3073	3073	3073	3073	3073	3073	3073	3073	3073	3073	3073	3073	3073	3073	3073	3101	3101	3101	3101	3101	3101	3157	3186	3186	3186	3157	3186	3186	3157	3129	3101	3101	3510	3546	3546	3546	3510	3510	3510	3510	3510	3510	3510	3546	3546	3546	3583	3583	3583	3583	3546	3546	3583	3546	3546	3583	3583	3546	3546	3546	3510	3546	3546	3546	3546	3546	3583	3583	3583	3583	3583	3583	3583	3583	3546	3546	3546	3546	3546	3546	3546	3546	3546	3546	3546	3546	3546	3546	3546	3546	3546	3546	3546	3510	3510	3546	3546	3546	3546	3546	3546	3546	3510	3510	3546	3510	3546	3546	3510	3583	3621	3583	3583	3583	3583	3583	3583	3546	3583	3583	3583	3583	3583	3583	3583	3583	3583	3583	3546	3546	3546	3546	3546	3546	3546	3546	3583	3546	3546	3546	3546	3546	3546	3546	3546	3546	3546	3546	3546	3546	3546	3546	3583	3583	3583	3546	3546	3546	3546	3546	3546	3546	3546	3546	3546	3546	3546	3546	3546	3546	3546	0	0	0	2051	2051	2039	2039	2027	2027	2015	2003	2003	2003	2003	1992	1992	1980	1980	1958	1947	1947	1936	1936	1925	1915	1915	1904	1894	1883	1863	1863	1853	1833	1824	1814	1804	1795	1795	1786	1777	1777	1768	1759	1759	1750	1741	1732	1723	1715	1698	1698	1690	1681	1681	1673	1657	1649	1649	1634	1641	1634	1634	1626	1618	1611	1611	1603	1603	1596	1574	1567	1560	1553	1553	1546	1546	1539	1539	1532	1525	1519	1512	1499	1499	1492	1492	1486	1480	1473	1467	1461	1455	1449	1461	1461	0	0	0	0	0	0	0	0	0	0	0	0	0	0	0	0	0	0	0	0	0	0	0	0	0	0	0	0	0	0	0	0	0	0	0	0	0	0	0	0	0	0	0
0	0	0	0	0	0	0	0	0	1437	1437	1443	1449	1455	1461	1461	1467	1486	1499	1512	1525	1532	1532	1532	1532	1532	1532	1539	1532	1539	1539	1546	1546	1553	1560	1560	1567	1567	1574	1581	1589	1589	1589	1596	1596	1611	1603	1611	1611	1611	0	2409	2392	2392	2392	2392	2392	2392	2392	2392	2409	2426	2409	2409	2409	2409	2409	2409	2409	2409	2409	2426	2409	2409	2409	2409	2409	2409	2426	2409	2409	0	0	0	1873	1873	1873	1873	0	0	0	0	0	0	0	0	2392	2409	2409	2443	2409	2392	2426	2426	2426	2409	2409	2409	2409	2409	2409	2409	2409	2409	2392	2409	2409	2426	2027	2039	2039	2039	2039	2039	2039	2426	2426	2443	2426	2426	2426	2426	2426	2426	2426	2443	2443	2443	2443	2460	2460	2460	2967	2942	2942	2942	2942	2967	2967	2967	2942	2967	2993	2967	2967	2917	2917	2917	2917	2917	2917	2917	2942	2942	2942	2917	2917	2967	3475	3475	3475	3475	3475	3440	3440	3440	3440	3440	3475	3475	3475	3475	3440	3440	3440	3440	3440	3440	3440	3510	3510	3510	3510	3510	3510	3510	3510	3546	3546	3546	3546	3546	3546	3546	3583	3583	3583	3621	3583	3583	3583	3583	3546	3546	3546	3546	3546	3546	3546	3546	3546	3546	3546	3546	3546	3546	3510	3546	3546	3510	3510	3510	3510	3546	3510	3510	3510	3510	3510	3510	3510	3510	3510	3510	3510	3510	3510	3510	3510	3510	3510	3546	3546	3546	3546	3583	3546	3583	3546	3546	3546	3546	3546	3546	3546	3546	3546	3546	3546	3546	3546	3546	3546	3546	3546	3546	3546	3546	3546	3546	3546	3546	3546	3546	3546	3546	3546	3546	3546	3546	3546	3510	3510	3440	3341	3309	3246	3216	3186	3186	3157	3157	3129	3101	3101	3101	3129	3101	3129	3101	3101	3101	3101	3073	3101	3101	3101	3101	3101	3101	3073	3073	3073	3073	3073	3073	3073	3073	3073	3073	3073	3073	3073	3073	3073	3073	3073	3073	3073	3073	3073	3073	3073	3073	3073	3073	3073	3101	3073	3073	3101	3101	3157	3186	3186	3186	3186	3186	3186	3157	3129	3101	3101	3101	3546	3546	3546	3546	3510	3510	3510	3510	3510	3510	3546	3546	3546	3583	3583	3583	3583	3583	3583	3583	3583	3583	3583	3583	3583	3546	3546	3546	3546	3546	3546	3546	3546	3583	3583	3583	3583	3583	3583	3583	3583	3546	3546	3546	3546	3546	3546	3546	3546	3546	3546	3546	3510	3510	3510	3510	3510	3510	3546	3546	3510	3546	3546	3546	3546	3546	3546	3546	3510	3510	3510	3510	3510	3510	3510	3510	3583	3583	3583	3583	3583	3546	3583	3583	3546	3546	3546	3583	3583	3583	3583	3583	3583	3583	3583	3546	3546	3546	3546	3546	3546	3546	3546	3583	3546	3546	3546	3546	3546	3546	3546	3546	3546	3546	3546	3546	3546	3546	3546	3546	3583	3546	3546	3546	3546	3546	3546	3546	3510	3510	3510	3546	3510	3546	3546	3546	3546	3546	0	0	2051	2051	2051	2051	2039	2039	2027	2027	2015	2015	2003	2003	1992	1992	1992	1980	1958	1958	1947	1936	1936	1915	1915	1904	1904	1894	1883	1863	1863	1843	1833	1824	1814	1804	1804	1795	1786	1786	1777	1768	1759	1759	1750	1741	1723	1706	1698	1690	1690	1681	1681	1673	1673	1665	1657	1649	1649	1641	1634	1634	1626	1618	1618	1611	1603	1596	1596	1574	1574	1553	1546	1546	1546	1539	1539	1532	1532	1525	1519	1512	1499	1499	1492	1486	1486	1480	1473	1467	1461	1455	1449	1449	1449	1449	0	0	0	0	0	0	0	0	0	0	0	0	0	0	0	0	0	0	0	0	0	0	0	0	0	0	0	0	0	0	0	0	0	0	0	0	0	0	0	0	0	0
0	0	0	0	0	0	0	0	0	1437	1437	1443	1449	1449	1455	1461	1461	1473	1492	1492	1512	1525	1532	1525	1532	1532	1532	1539	1539	1539	1546	1546	1560	1560	1560	1567	1567	1574	1581	1581	1596	1596	1596	1603	1603	1611	1611	1618	1626	1626	1641	1649	1649	1649	1649	2392	2392	2392	2392	2392	2392	2426	2426	2426	2426	2426	2426	2426	2409	2409	2409	2409	2409	2409	2409	2409	2409	2409	2426	2409	2409	0	0	0	0	0	0	0	0	0	0	0	0	0	0	0	2426	2409	2409	2409	2409	2392	2426	2426	2426	2409	2409	2409	2409	2409	2409	2409	2409	2409	2409	2409	2409	2426	2039	2039	2039	2039	2039	2443	2443	2426	2426	2426	2426	2426	2426	2426	2426	2426	2426	2443	2443	2460	2460	2460	2460	2460	2967	2967	2967	2967	2967	2967	2967	2993	2967	2993	2993	2993	2993	2993	2967	2967	2967	2942	2942	2942	2967	2967	2967	2967	2967	2967	3019	3019	3019	3019	3019	3046	3046	3046	3475	3475	3475	3475	3475	3440	3440	3440	3440	3440	3440	3440	3475	3510	3510	3510	3510	3510	3510	3510	3510	3546	3510	3546	3546	3546	3546	3546	3583	3583	3583	3583	3583	3583	3583	3546	3546	3546	3546	3546	3546	3546	3546	3546	3546	3546	3546	3546	3546	3546	3510	3546	3546	3510	3510	3510	3510	3546	3510	3510	3510	3510	3510	3510	3510	3510	3510	3510	3510	3510	3510	3510	3510	3510	3510	3546	3583	3546	3546	3583	3583	3583	3546	3546	3546	3546	3546	3510	3546	3546	3546	3546	3546	3546	3546	3546	3546	3546	3546	3546	3546	3546	3546	3546	3546	3546	3546	3546	3546	3546	3546	3546	3546	3546	3546	3510	3510	3475	3406	3309	3246	3216	3186	3186	3186	3157	3157	3129	3101	3101	3129	3101	3129	3101	3073	3073	3101	3073	3101	3101	3101	3101	3101	3073	3073	3073	3073	3073	3073	3073	3073	3073	3073	3073	3073	3073	3073	3073	3073	3073	3073	3073	3073	3073	3073	3073	3073	3073	3073	3073	3073	3073	3073	3073	3101	3101	3157	3186	3186	3186	3186	3186	3186	3157	3129	3101	3101	3546	3546	3546	3546	3510	3510	3510	3510	3510	3510	3510	3546	3546	3546	3621	3583	3583	3583	3583	3583	3583	3583	3583	3583	3583	3583	3546	3546	3546	3546	3546	3546	3583	3583	3583	3583	3583	3583	3583	3546	3546	3546	3546	3546	3546	3546	3546	3510	3546	3546	3510	3546	3510	3510	3510	3510	3510	3546	3510	3546	3546	3546	3546	3546	3546	3546	3546	3546	3546	3510	3510	3510	3510	3510	3510	3510	3510	3583	3583	3583	3583	3583	3546	3546	3546	3583	3583	3546	3583	3583	3583	3583	3583	3583	3583	3583	3583	3546	3546	3546	3546	3546	3546	3546	3546	3546	3546	3546	3546	3546	3546	3546	3546	3546	3546	3546	3546	3546	3546	3546	3546	3546	3546	3546	3546	3546	3546	3546	3546	3510	3510	3510	3546	3510	3546	3546	3546	3546	3546	0	0	2051	2051	2051	2051	2051	2039	2027	2027	2027	2015	2003	2003	2003	1992	1992	1980	1958	1947	1947	1936	1925	1915	1915	1904	1904	1894	1883	1863	1863	1843	1833	1824	1814	1804	1804	1795	1786	1786	1777	1768	1759	1759	1750	1741	1723	1715	1698	1698	1690	1681	1681	1681	1673	1665	1657	1657	1649	1641	1634	1634	1626	1618	1618	1611	1603	1603	1596	1567	1567	1553	1553	1546	1546	1539	1539	1532	1525	1519	1519	1506	1499	1492	1492	1486	1486	1480	1473	1467	1461	1455	1449	1449	1443	1443	1443	0	0	0	0	0	0	0	0	0	0	0	0	0	0	0	0	0	0	0	0	0	0	0	0	0	0	0	0	0	0	0	0	0	0	0	0	0	0	0	0	0
0	0	0	0	0	0	0	0	0	1437	1437	1443	1449	1449	1455	1461	1461	1467	1473	1506	1512	1525	1525	1525	1525	1532	1532	1539	1539	1546	1553	1560	1560	1567	1567	1567	1567	1574	1574	1589	1589	1596	1596	1596	1611	1618	1618	1618	1626	1641	1649	1649	1649	1649	1649	0	2392	2392	2392	2392	2426	2426	2426	2426	2426	2426	2426	2426	2409	2409	2409	2409	2409	2409	2409	2409	2409	2409	2409	2409	2409	2409	0	0	0	0	0	0	0	0	0	0	0	0	0	0	2426	2409	2409	2409	0	0	0	0	2426	2409	2409	2409	2409	2426	2426	2409	2409	2392	2392	0	0	2426	2409	2409	2460	2443	2443	2443	2443	2443	2443	2443	2443	2426	2426	2426	2426	2426	2426	2443	2443	2443	2460	2460	2460	2460	2460	2967	2967	2967	2993	2993	2993	2993	2993	2993	2993	2993	2993	2993	2967	2993	2993	2993	2993	2993	2993	2993	3019	2993	2993	2993	3019	3019	3019	3019	3046	3046	3019	3019	3019	3019	3475	3475	3475	3440	3440	3440	3440	3440	3440	3440	3440	3510	3510	3510	3510	3510	3510	3510	3510	3546	3510	3546	3546	3546	3546	3546	3583	3583	3583	3583	3583	3583	3546	3546	3546	3546	3546	3546	3546	3546	3546	3510	3546	3546	3546	3546	3546	3546	3510	3546	3546	3510	3510	3510	3510	3546	3510	3510	3510	3510	3510	3510	3546	3510	3510	3510	3510	3510	3510	3510	3510	3510	3510	3546	3583	3546	3546	3583	3583	3583	3546	3546	3546	3546	3546	3546	3546	3546	3546	3546	3546	3546	3546	3546	3546	3546	3546	3546	3546	3546	3546	3546	3546	3546	3546	3546	3546	3546	3546	3546	3546	3546	3546	3510	3510	3475	3406	3341	3277	3246	3216	3186	3186	3157	3157	3129	3101	3129	3129	3129	3129	3101	3073	3073	3073	3101	3101	3101	3101	3101	3101	3073	3073	3073	3073	3073	3073	3073	3073	3073	3073	3073	3073	3046	3073	3073	3073	3073	3073	3073	3073	3073	3073	3073	3073	3073	3073	3073	3073	3073	3073	3073	3101	3101	3157	3186	3186	3186	3157	3157	3186	3157	3129	3101	3101	3546	3546	3546	3546	3510	3510	3510	3510	3510	3546	3510	3546	3546	3546	3583	3583	3583	3583	3583	3583	3583	3583	3583	3583	3583	3583	3546	3546	3546	3546	3546	3546	3583	3546	3583	3583	3583	3546	3546	3546	3546	3546	3546	3546	3546	3546	3546	3546	3546	3546	3546	3546	3546	3510	3510	3510	3510	3510	3510	3546	3546	3546	3546	3546	3546	3546	3546	3546	3546	3510	3510	3510	3510	3510	3510	3510	3510	3583	3583	3583	3583	3583	3583	3583	3583	3583	3583	3546	3583	3583	3583	3583	3583	3583	3583	3583	3583	3583	3546	3546	3546	3546	3546	3546	3546	3546	3546	3546	3546	3546	3546	3546	3546	3546	3546	3546	3546	3546	3583	3546	3546	3546	3546	3546	3546	3546	3546	3546	3546	3546	3546	3546	3546	3546	3546	3546	3546	3546	0	0	2063	2063	2063	2063	2051	2051	2051	2039	2039	2027	2027	2003	2003	2003	1992	1992	1980	1958	1958	1947	1936	1925	1915	1915	1904	1904	1894	1894	1863	1853	1843	1833	1824	1814	1814	1804	1795	1786	1786	1777	1768	1759	1750	1741	1732	1723	1715	1698	1698	1690	1690	1681	1681	1673	1665	1657	1649	1649	1641	1641	1634	1626	1618	1618	1611	1603	1603	1596	1574	1567	1553	1546	1546	1539	1539	1532	1525	1525	1519	1519	1506	1499	1492	1492	1486	1486	1480	1467	1467	1461	1455	1443	1443	1443	1437	1437	0	0	0	0	0	0	0	0	0	0	0	0	0	0	0	0	0	0	0	0	0	0	0	0	0	0	0	0	0	0	0	0	0	0	0	0	0	0	0	0	0
0	0	0	0	0	0	0	0	0	0	1437	1443	1443	1449	1455	1461	1461	1467	1473	1492	1506	1506	1512	1519	1519	1525	1532	1539	1546	1553	1553	1560	1560	1567	1567	1567	1574	1574	1589	1589	1596	1596	1603	1611	1618	1618	1618	1618	1626	1634	1641	1641	1649	1649	1649	1649	0	2392	2392	2392	2426	2426	2426	2426	2426	2443	2426	2426	2409	2409	2426	2426	2409	2426	2409	2409	2409	2409	2409	2409	2426	2426	0	0	0	0	0	0	0	0	0	0	0	0	0	0	0	0	0	0	0	0	0	0	0	2409	2409	2409	2409	2426	2426	2426	2409	2392	2392	0	0	2426	2409	2409	2460	2460	2443	2443	2443	2443	2443	2443	2426	2426	2426	2426	2426	2426	2426	2426	2426	2443	2443	2443	2460	2460	2460	2993	2993	2993	2993	2993	2993	2993	2993	2993	2993	2993	2993	2993	2993	2993	2993	2993	2993	2993	3019	3019	3019	3019	3019	3019	3019	3019	3019	3046	3019	3019	3019	3019	3019	3019	3019	3475	3475	3440	3440	3440	3440	3440	3440	3440	3440	3510	3510	3510	3510	3510	3546	3546	3546	3546	3510	3546	3546	3546	3546	3583	3583	3583	3621	3583	3583	3583	3546	3546	3546	3546	3546	3546	3546	3546	3546	3510	3546	3546	3546	3546	3546	3546	3546	3546	3546	3510	3510	3510	3510	3510	3510	3510	3510	3510	3510	3510	3510	3510	3510	3510	3510	3510	3510	3510	3510	3510	3510	3510	3546	3546	3546	3583	3583	3583	3546	3546	3546	3546	3546	3546	3546	3546	3546	3546	3546	3546	3546	3546	3546	3546	3546	3546	3546	3546	3546	3546	3546	3546	3546	3546	3546	3546	3546	3546	3546	3546	3546	3510	3510	3440	3373	3341	3277	3277	3216	3186	3186	3157	3157	3157	3157	3129	3129	3129	3129	3101	3101	3073	3073	3073	3101	3101	3101	3101	3101	3073	3073	3073	3073	3073	3073	3073	3073	3073	3073	3073	3073	3073	3073	3073	3073	3073	3073	3073	3073	3073	3073	3073	3073	3073	3073	3073	3073	3073	3073	3101	3101	3101	3129	3129	3186	3186	3186	3157	3186	3157	3129	3129	3546	3546	3546	3546	3546	3510	3510	3510	3510	3510	3546	3510	3546	3546	3546	3583	3583	3583	3583	3583	3583	3546	3546	3583	3583	3583	3546	3546	3546	3546	3546	3546	3546	3546	3546	3546	3583	3583	3583	3583	3583	3546	3546	3546	3546	3546	3546	3546	3546	3546	3546	3510	3510	3510	3510	3510	3510	3546	3546	3546	3546	3546	3546	3546	3546	3546	3546	3546	3546	3546	3510	3510	3510	3510	3510	3510	3546	3546	3546	3583	3583	3583	3583	3583	3583	3583	3583	3583	3546	3546	3583	3583	3583	3546	3583	3583	3583	3583	3583	3546	3583	3583	3546	3546	3546	3546	3546	3546	3546	3546	3546	3546	3546	3583	3546	3546	3546	3546	3546	3546	3546	3546	3546	3546	3546	3546	3546	3546	3546	3546	3546	3546	3546	3546	3546	3546	3546	3546	3546	0	2076	2076	2063	2063	2063	2063	2051	2051	2039	2039	2027	2027	2003	2015	2003	1992	1992	1980	1969	1947	1947	1925	1925	1915	1904	1904	1904	1894	1894	1863	1863	1843	1833	1824	1814	1814	1804	1795	1786	1786	1777	1768	1750	1750	1741	1732	1723	1715	1698	1698	1690	1690	1690	1681	1673	1657	1657	1649	1649	1641	1634	1634	1626	1618	1611	1611	1603	1603	1596	1581	1567	1553	1546	1539	1539	1539	1532	1532	1525	1519	1519	1499	1492	1492	1486	1486	1480	1480	1467	1467	1461	1461	1443	1443	1443	1437	1437	0	0	0	0	0	0	0	0	0	0	0	0	0	0	0	0	0	0	0	0	0	0	0	0	0	0	0	0	0	0	0	0	0	0	0	0	0	0	0	0	0
0	0	0	0	0	0	0	0	0	1431	1431	1437	1443	1449	1455	1455	1461	1467	1467	1492	1506	1506	1512	1512	1519	1519	1525	1532	1539	1546	1553	1560	1567	1567	1574	1567	1574	1581	1589	1596	1596	1596	1611	1618	1618	1618	1626	1626	1634	1634	1641	1649	1649	1649	1657	1657	1657	2392	2392	2392	2409	2409	2426	2426	2426	2443	2443	2426	2409	2409	2426	2426	2409	2409	2409	2409	2409	2409	2409	2409	2409	2409	0	0	0	0	0	0	0	0	0	0	0	0	0	0	0	0	0	0	0	0	0	0	0	2409	2409	2409	2409	2426	2426	2426	0	0	0	0	0	2426	2426	2426	2426	2443	2426	2426	2443	2443	2443	2426	2443	2426	2426	2426	2426	2426	2426	2426	2426	2443	2443	2443	2443	2460	2460	2993	2993	2993	2993	2993	2993	2993	2993	2993	3019	3019	3019	3019	3019	3019	3046	3019	3019	3019	3019	3019	3046	3046	3046	3046	3046	3046	3046	3046	3019	3019	3019	3019	3019	3019	3019	3019	3475	3440	3440	3440	3440	3440	3440	3440	3440	3510	3510	3510	3510	3546	3546	3546	3546	3546	3510	3510	3546	3546	3546	3583	3583	3583	3621	3583	3621	3583	3546	3546	3546	3546	3546	3546	3546	3546	3546	3510	3546	3546	3546	3546	3546	3546	3510	3546	3546	3510	3510	3510	3510	3510	3510	3510	3510	3510	3510	3510	3510	3510	3510	3546	3546	3510	3510	3510	3510	3510	3510	3510	3546	3546	3546	3583	3546	3583	3546	3546	3546	3546	3546	3546	3546	3546	3546	3546	3546	3546	3546	3546	3546	3546	3546	3546	3546	3546	3546	3546	3546	3546	3546	3546	3546	3546	3546	3546	3546	3546	3546	3510	3510	3475	3406	3341	3277	3246	3216	3186	3186	3186	3157	3157	3157	3129	3129	3129	3129	3101	3101	3073	3073	3073	3101	3101	3101	3101	3073	3073	3073	3073	3073	3073	3073	3073	3073	3073	3073	3073	3073	3046	3046	3073	3073	3073	3073	3073	3073	3073	3073	3073	3073	3073	3073	3073	3073	3073	3073	3073	3101	3101	3129	3157	3186	3186	3186	3186	3186	3157	3129	3101	3101	3546	3546	3546	3546	3510	3510	3510	3510	3546	3546	3546	3546	3546	3546	3583	3583	3583	3546	3546	3546	3583	3583	3583	3583	3583	3583	3546	3546	3546	3510	3510	3546	3546	3546	3583	3583	3583	3583	3583	3583	3546	3583	3546	3546	3546	3546	3546	3546	3546	3546	3510	3546	3546	3510	3510	3510	3546	3546	3546	3546	3546	3546	3546	3546	3546	3546	3546	3546	3546	3510	3510	3546	3546	3510	3510	3546	3546	3583	3583	3583	3583	3583	3583	3583	3583	3583	3583	3546	3546	3546	3546	3546	3546	3546	3583	3583	3583	3583	3583	3583	3583	3546	3546	3546	3546	3546	3546	3546	3546	3583	3546	3546	3583	3583	3546	3546	3546	3546	3546	3546	3546	3546	3546	3546	3546	3546	3546	3546	3546	3546	3546	3546	3546	3546	3546	3546	3546	0	0	2088	2076	2076	2063	2063	2063	2051	2051	2039	2039	2039	2027	2027	2015	2003	1992	1980	1969	1969	1947	1947	1936	1925	1915	1915	1904	1904	1894	1894	1863	1853	1843	1833	1824	1824	1814	1804	1804	1795	1786	1777	1759	1750	1741	1732	1732	1723	1715	1698	1698	1690	1690	1690	1681	1673	1665	1657	1649	1649	1641	1634	1634	1626	1618	1611	1611	1611	1603	1596	1589	1567	1560	1553	1546	1539	1532	1532	1525	1519	1519	1512	1499	1492	1486	1486	1486	1480	1480	1473	1467	1467	1461	1449	1443	1443	1437	1437	0	0	0	0	0	0	0	0	0	0	0	0	0	0	0	0	0	0	0	0	0	0	0	0	0	0	0	0	0	0	0	0	0	0	0	0	0	0	0	0	0
0	0	0	0	0	0	0	0	0	1431	1431	1437	1437	1443	1455	1461	1461	1467	1473	1492	1499	1499	1506	1512	1512	1512	1519	1525	1532	1532	1553	1553	1567	1567	1574	1567	1574	1589	1596	1596	1611	1618	1618	1618	1618	1626	1626	1626	1626	1634	1641	1649	1649	1649	1657	1657	1665	1665	0	2392	2426	2426	2426	2426	2443	2443	2443	2426	2409	2409	2409	2409	2409	2409	2409	2409	2409	2409	2409	2409	2409	2409	0	0	0	0	0	0	0	0	0	0	0	0	0	0	0	0	0	0	0	0	0	0	0	0	0	0	0	0	0	0	0	0	0	0	0	0	2426	2443	2426	2443	2443	2443	2443	2443	2443	2443	2443	2426	2426	2426	2426	2426	2426	2426	2426	2443	2443	2443	2443	2443	2443	2443	2443	2993	2993	2993	2993	3046	3046	3046	3046	3046	3046	3046	3046	3046	3046	3046	3046	3046	3046	3046	3046	3046	3046	3046	3046	3073	3046	3046	3019	3019	3019	3019	3019	3046	3019	3019	3019	3440	3440	3440	3440	3440	3440	3440	3440	3475	3510	3510	3510	3546	3546	3546	3546	3546	3510	3546	3546	3546	3546	3546	3583	3583	3583	3583	3583	3546	3546	3546	3546	3546	3510	3510	3510	3546	3546	3510	3546	3546	3546	3546	3546	3546	3546	3546	3546	3510	3510	3510	3510	3510	3510	3510	3510	3510	3510	3510	3510	3546	3546	3546	3546	3546	3510	3510	3510	3510	3510	3510	3546	3546	3546	3546	3546	3546	3546	3546	3546	3546	3546	3546	3546	3546	3546	3546	3546	3546	3546	3546	3546	3546	3546	3546	3546	3546	3546	3546	3546	3546	3546	3546	3546	3546	3546	3546	3546	3546	3546	3510	3510	3475	3406	3341	3309	3277	3246	3216	3216	3186	3186	3157	3157	3157	3157	3157	3129	3101	3073	3073	3073	3073	3101	3101	3101	3073	3073	3073	3073	3073	3073	3073	3073	3073	3073	3073	3073	3073	3073	3046	3046	3073	3073	3073	3073	3073	3073	3073	3073	3073	3073	3073	3073	3073	3073	3073	3073	3073	3101	3101	3129	3157	3186	3186	3186	3186	3157	3157	3129	3129	3129	3546	3546	3510	3546	3510	3510	3510	3510	3510	3546	3510	3546	3546	3546	3583	3583	3583	3546	3546	3546	3546	3583	3583	3583	3583	3583	3546	3546	3546	3546	3546	3546	3546	3546	3583	3546	3583	3546	3546	3546	3546	3546	3546	3546	3546	3546	3546	3546	3546	3546	3546	3546	3546	3510	3510	3546	3510	3546	3546	3546	3546	3546	3510	3546	3510	3510	3510	3510	3546	3510	3510	3510	3510	3510	3510	3510	3510	3546	3546	3546	3583	3583	3583	3583	3546	3546	3546	3546	3546	3546	3546	3546	3546	3546	3583	3583	3583	3583	3583	3583	3583	3583	3583	3583	3546	3546	3546	3546	3546	3583	3546	3546	3583	3546	3546	3546	3546	3546	3546	3546	3546	3546	3546	3546	3546	3546	3546	3546	3546	3546	3546	3546	3546	3546	3510	3510	3546	0	0	2088	2076	2076	2076	2076	2063	2063	2051	2051	2051	2039	2039	2027	2027	2003	1992	1980	1969	1969	1958	1947	1936	1925	1915	1915	1904	1904	1894	1894	1863	1853	1833	1833	1824	1814	1814	1804	1795	1786	1777	1777	1759	1750	1741	1732	1732	1723	1715	1698	1698	1690	1690	1690	1690	1681	1673	1657	1657	1649	1641	1634	1634	1626	1618	1618	1611	1611	1603	1596	1581	1574	1560	1560	1546	1539	1532	1532	1525	1519	1519	1512	1499	1492	1486	1486	1486	1486	1480	1473	1467	1467	1461	1455	1443	1443	1437	1437	0	0	0	0	0	0	0	0	0	0	0	0	0	0	0	0	0	0	0	0	0	0	0	0	0	0	0	0	0	0	0	0	0	0	0	0	0	0	0	0	0
0	0	0	0	0	0	0	0	0	0	1431	1437	1443	1443	1443	1455	1461	1467	1473	1486	1492	1492	1499	1506	1506	1512	1512	1519	1525	1525	1553	1553	1560	1574	1574	1574	1581	1589	1596	1596	1618	1618	1618	1618	1618	1626	1626	1618	1626	1634	1641	1649	1649	1649	1657	1657	1665	1673	1690	1698	1698	1723	1732	1732	2443	2443	2443	2409	2409	2409	2409	2426	2409	2409	2426	2426	2426	2426	2409	2409	2409	0	0	0	0	0	0	0	0	0	0	0	0	0	0	0	0	0	0	0	0	0	0	0	0	0	0	0	0	0	0	0	0	0	0	0	0	0	2426	2443	2426	2443	2443	2443	2443	2460	2443	2443	2443	2443	2426	2426	2426	2426	2426	2426	2426	2426	2426	2426	2426	2426	2426	2409	2376	2376	2376	2376	3101	3101	3073	3073	3073	3073	3073	3073	3046	3046	3046	3046	3046	3046	3046	3046	3046	3046	3073	3073	3101	3101	3073	3046	3019	3019	3019	3019	3019	3019	3046	3046	3073	3440	3440	3440	3440	3440	3440	3440	3440	3510	3510	3510	3510	3546	3546	3546	3546	3546	3510	3546	3546	3546	3546	3546	3546	3546	3546	3546	3546	3546	3546	3546	3546	3546	3510	3510	3510	3546	3546	3510	3510	3546	3546	3546	3546	3546	3546	3546	3546	3546	3510	3510	3510	3510	3510	3510	3510	3510	3510	3510	3510	3510	3546	3546	3546	3546	3510	3510	3510	3510	3510	3510	3546	3546	3546	3546	3546	3546	3546	3546	3546	3546	3546	3546	3546	3546	3546	3546	3546	3546	3546	3546	3546	3546	3546	3546	3546	3546	3546	3546	3546	3546	3546	3546	3546	3546	3546	3546	3546	3510	3510	3510	3546	3440	3406	3373	3309	3277	3246	3216	3216	3186	3186	3186	3186	3157	3157	3157	3129	3101	3101	3073	3073	3073	3101	3101	3101	3073	3101	3101	3073	3073	3073	3073	3073	3073	3073	3073	3073	3073	3073	3073	3073	3073	3073	3073	3073	3073	3073	3073	3073	3073	3073	3073	3073	3073	3073	3073	3073	3101	3101	3101	3129	3157	3186	3186	3186	3186	3157	3157	3129	3129	3546	3546	3546	3510	3510	3510	3510	3546	3546	3546	3546	3546	3546	3546	3546	3583	3583	3583	3546	3583	3583	3583	3583	3583	3583	3583	3583	3546	3546	3583	3546	3546	3546	3546	3546	3583	3546	3546	3546	3546	3546	3546	3546	3546	3546	3546	3546	3546	3546	3546	3546	3510	3510	3510	3510	3510	3546	3510	3546	3546	3546	3546	3546	3546	3546	3510	3510	3510	3510	3510	3510	3510	3510	3510	3510	3510	3510	3510	3583	3546	3583	3583	3583	3583	3546	3546	3546	3546	3546	3546	3546	3546	3546	3546	3546	3546	3583	3583	3583	3583	3583	3583	3583	3546	3546	3546	3546	3546	3546	3546	3546	3546	3546	3583	3546	3583	3583	3583	3546	3583	3546	3546	3546	3546	3546	3546	3546	3546	3546	3546	3546	3546	3546	3546	3510	3510	3510	0	0	2114	2101	2088	2088	2088	2088	2076	2076	2063	2051	2051	2051	2039	2027	2027	2003	1992	1980	1969	1958	1947	1947	1936	1925	1915	1915	1904	1904	1894	1894	1863	1843	1833	1833	1824	1814	1814	1814	1804	1795	1777	1768	1759	1750	1741	1732	1723	1723	1715	1706	1698	1698	1690	1690	1690	1681	1673	1657	1649	1649	1641	1634	1634	1626	1626	1618	1618	1611	1603	1589	1581	1574	1567	1560	1553	1546	1539	1539	1525	1519	1519	1512	1499	1492	1486	1486	1486	1486	1480	1473	1467	1467	1461	1455	1443	1443	1437	1437	0	0	0	0	0	0	0	0	0	0	0	0	0	0	0	0	0	0	0	0	0	0	0	0	0	0	0	0	0	0	0	0	0	0	0	0	0	0	0	0	0
0	0	0	0	0	0	0	0	0	0	1431	1437	1443	1443	1455	1455	1455	1467	1473	1486	1492	1492	1499	1499	1506	1506	1512	1519	1525	1525	1553	1553	1560	1567	1574	1567	1574	1574	1596	1611	1618	1626	1626	1618	1626	1626	1634	1626	1634	1641	1641	1649	1649	1657	1657	1665	1665	1673	1698	1706	1706	1723	1732	1732	0	0	2443	2426	2409	2409	2409	2409	2426	2426	2426	2426	2426	2426	2409	2409	2409	2426	2409	2409	0	0	0	0	0	0	0	0	0	0	0	0	0	0	0	0	0	0	0	0	0	0	0	0	2409	2409	2409	0	0	0	0	0	0	2426	2426	2443	2426	2426	2426	2426	2443	2460	2443	2443	2443	2443	2426	2426	2426	2426	2426	2426	2426	2426	2443	2426	2443	2426	2426	2376	2376	2359	2359	2376	3216	3129	3101	3101	3101	3101	3101	3073	3073	3073	3073	3073	3073	3073	3073	3073	3073	3073	3101	3101	3129	3101	3101	3073	3046	3019	3019	3019	3019	3046	3046	3046	3073	3073	3440	3440	3440	3440	3440	3440	3440	3510	3510	3510	3510	3546	3546	3546	3546	3546	3510	3546	3546	3546	3546	3546	3546	3546	3546	3546	3546	3546	3546	3546	3546	3546	3546	3510	3510	3510	3510	3510	3510	3546	3546	3546	3546	3546	3546	3546	3546	3510	3510	3510	3510	3510	3510	3510	3510	3510	3510	3510	3510	3510	3510	3546	3546	3546	3510	3510	3510	3510	3510	3510	3546	3546	3546	3546	3546	3546	3546	3546	3546	3546	3546	3546	3546	3546	3546	3583	3583	3583	3546	3546	3546	3546	3546	3546	3546	3546	3546	3546	3546	3546	3546	3546	3546	3546	3546	3546	3546	3546	3510	3510	3510	3475	3406	3373	3341	3277	3246	3216	3216	3186	3186	3186	3186	3157	3157	3129	3129	3101	3073	3073	3073	3073	3101	3073	3101	3101	3101	3101	3073	3073	3073	3073	3101	3073	3073	3073	3073	3073	3073	3073	3073	3073	3073	3073	3073	3073	3073	3101	3101	3073	3073	3073	3073	3073	3073	3073	3101	3101	3101	3101	3129	3157	3157	3186	3186	3186	3186	3157	3157	3157	3546	3546	3546	3546	3546	3510	3510	3546	3546	3546	3546	3546	3546	3546	3510	3546	3546	3546	3546	3546	3546	3546	3546	3583	3583	3583	3583	3583	3546	3583	3546	3546	3546	3546	3546	3583	3546	3546	3546	3546	3546	3546	3546	3546	3583	3546	3546	3546	3546	3546	3546	3510	3510	3546	3510	3546	3546	3546	3546	3546	3546	3546	3510	3510	3510	3510	3510	3510	3510	3510	3510	3510	3510	3510	3510	3546	3510	3546	3583	3583	3583	3583	3583	3583	3583	3546	3546	3546	3546	3546	3546	3546	3546	3546	3546	3583	3583	3583	3583	3583	3583	3583	3583	3546	3546	3546	3546	3546	3546	3546	3546	3546	3546	3583	3583	3583	3583	3583	3583	3583	3546	3546	3546	3546	3546	3546	3546	3546	3546	3546	3546	3546	3546	3546	3546	3510	0	0	2127	2114	2101	2088	2088	2088	2076	2076	2063	2051	2039	2039	2039	2039	2027	2027	2003	1992	1980	1969	1958	1947	1947	1936	1925	1915	1915	1904	1904	1894	1883	1863	1853	1843	1833	1824	1824	1824	1814	1804	1804	1786	1777	1759	1750	1741	1732	1732	1723	1715	1715	1706	1698	1690	1690	1690	1681	1673	1657	1649	1649	1641	1634	1634	1626	1618	1611	1611	1603	1596	1589	1581	1574	1574	1567	1553	1546	1539	1539	1532	1519	1519	1512	1499	1492	1486	1486	1486	1486	1480	1467	1467	1467	1461	1455	1443	1443	1437	1437	0	0	0	0	0	0	0	0	0	0	0	0	0	0	0	0	0	0	0	0	0	0	0	0	0	0	0	0	0	0	0	0	0	0	0	0	0	0	0	0	0
0	0	0	0	0	0	0	0	0	0	1437	1437	1443	1449	1455	1461	1467	1467	1473	1473	1486	1492	1499	1499	1506	1506	1512	1519	1519	1525	1546	1553	1553	1560	1567	1560	1567	1574	1596	1611	1618	1626	1626	1626	1626	1626	1634	1626	1634	1634	1649	1649	1657	1657	1657	1665	1673	1681	1698	1698	1706	1715	1723	1732	1732	1732	2443	2426	2392	2409	2409	2426	2426	2426	2426	2426	2426	2426	2409	2409	2426	2409	2409	2426	2443	2443	0	0	0	0	0	0	0	0	0	0	0	0	0	0	0	0	0	0	0	0	0	2409	2409	2409	2426	2426	0	0	0	0	2426	2409	2409	2409	2409	2409	2426	2426	2443	2443	2460	2443	2443	2443	2426	2426	2426	2426	2426	2426	2426	2426	2426	2426	2426	2426	2443	2443	3216	3186	3186	3186	3186	3157	3129	3129	3129	3129	3101	3101	3101	3101	3101	3101	3101	3073	3101	3101	3101	3101	3101	3129	3157	3129	3101	3073	3073	3019	3019	3019	3019	3019	3046	3046	3073	3073	3440	3440	3440	3440	3440	3440	3440	3475	3510	3510	3510	3546	3546	3546	3546	3546	3546	3546	3546	3546	3546	3546	3546	3546	3546	3546	3546	3546	3510	3546	3546	3546	3546	3510	3510	3546	3546	3510	3510	3546	3546	3546	3546	3546	3546	3546	3546	3510	3510	3510	3510	3510	3510	3510	3510	3510	3510	3510	3510	3510	3510	3546	3546	3546	3510	3510	3510	3510	3510	3510	3546	3546	3546	3546	3546	3546	3546	3546	3546	3546	3546	3546	3546	3546	3546	3583	3583	3546	3546	3546	3546	3546	3546	3546	3546	3546	3546	3546	3546	3546	3546	3546	3546	3546	3546	3546	3546	3546	3546	3510	3510	3475	3440	3373	3341	3277	3246	3246	3216	3186	3186	3186	3186	3157	3157	3129	3101	3073	3073	3073	3073	3046	3101	3073	3101	3073	3073	3073	3073	3073	3073	3073	3073	3073	3073	3073	3073	3073	3073	3073	3046	3046	3073	3073	3073	3073	3101	3101	3101	3073	3073	3073	3073	3073	3073	3073	3073	3101	3101	3101	3129	3157	3157	3186	3186	3157	3186	3157	3157	3157	3546	3546	3546	3510	3510	3510	3510	3510	3546	3546	3546	3546	3546	3546	3510	3546	3546	3546	3546	3546	3546	3546	3583	3583	3583	3583	3583	3583	3546	3583	3583	3546	3546	3546	3583	3583	3546	3546	3583	3583	3583	3546	3583	3583	3583	3546	3583	3546	3546	3546	3546	3546	3546	3546	3546	3546	3546	3546	3546	3546	3546	3546	3546	3510	3510	3510	3510	3510	3510	3510	3510	3510	3510	3510	3510	3546	3546	3546	3583	3583	3583	3583	3583	3546	3546	3546	3546	3546	3546	3546	3546	3546	3546	3546	3546	3546	3583	3583	3583	3583	3583	3583	3583	3546	3546	3583	3546	3546	3546	3546	3546	3546	3583	3583	3583	3583	3583	3583	3583	3583	3546	3546	3546	3546	3546	3546	3546	3583	3546	3583	3546	3583	3546	3546	3546	0	0	2127	2127	2114	2114	2101	2101	2088	2088	2076	2063	2051	2051	2039	2039	2039	2027	2027	2003	1992	1980	1969	1958	1947	1947	1936	1925	1915	1915	1904	1904	1894	1883	1873	1863	1833	1833	1824	1824	1824	1814	1814	1804	1786	1777	1768	1750	1741	1741	1732	1723	1715	1715	1706	1698	1690	1690	1690	1681	1673	1657	1641	1634	1634	1634	1626	1626	1618	1611	1611	1603	1596	1596	1589	1581	1574	1567	1553	1546	1539	1539	1532	1532	1519	1519	1499	1492	1486	1486	1486	1486	1473	1467	1467	1467	1461	1455	1443	1437	1437	1437	0	0	0	0	0	0	0	0	0	0	0	0	0	0	0	0	0	0	0	0	0	0	0	0	0	0	0	0	0	0	0	0	0	0	0	0	0	0	0	0	0
0	0	0	0	0	0	0	0	0	0	1431	1437	1443	1449	1455	1461	1467	1473	1473	1480	1486	1492	1499	1499	1506	1506	1512	1512	1519	1519	1532	1539	1546	1560	1560	1567	1567	1574	1589	1603	1618	1626	1626	1626	1626	1634	1641	1641	1649	1649	1649	1657	1657	1665	1673	1673	1681	1681	1698	1698	1706	1706	1715	1723	1723	1706	1706	1706	2392	2409	2409	2443	2426	2409	2443	2443	2426	2426	2426	2409	2409	2409	2409	2426	2426	2409	2409	2409	0	0	0	0	0	0	0	0	0	0	0	0	0	0	0	0	0	0	0	2409	2409	2409	2426	2426	2426	2426	2409	2409	2426	2409	2409	2409	2426	2426	2426	2426	2443	2460	2443	2443	2426	2426	2426	2426	2426	2426	2426	2426	2443	2426	2443	2426	2426	2426	2426	3246	3216	3216	3216	3186	3216	3186	3157	3157	3129	3129	3129	3101	3101	3129	3101	3101	3101	3101	3101	3129	3129	3101	3129	3129	3157	3129	3129	3101	3073	3019	3019	3019	3019	3019	3019	3046	3046	3046	3046	3406	3406	3406	3440	3440	3440	3475	3510	3510	3510	3546	3546	3546	3546	3546	3546	3546	3546	3510	3546	3546	3546	3546	3546	3546	3546	3546	3546	3546	3546	3546	3546	3546	3510	3546	3546	3510	3510	3546	3546	3546	3546	3546	3546	3546	3546	3546	3510	3510	3510	3510	3510	3510	3510	3510	3510	3510	3510	3510	3510	3510	3510	3546	3510	3510	3510	3510	3510	3510	3546	3546	3546	3546	3546	3546	3546	3546	3546	3546	3546	3546	3546	3546	3546	3546	3546	3546	3546	3546	3546	3546	3546	3546	3546	3546	3546	3546	3546	3546	3546	3546	3546	3546	3546	3546	3546	3546	3546	3546	3510	3510	3440	3373	3309	3277	3246	3246	3216	3186	3186	3186	3186	3157	3157	3129	3101	3101	3101	3073	3073	3073	3101	3101	3101	3073	3073	3073	3073	3073	3073	3073	3073	3073	3073	3073	3073	3073	3073	3073	3046	3046	3073	3073	3073	3073	3101	3101	3101	3073	3073	3073	3073	3073	3073	3073	3073	3101	3101	3101	3129	3157	3157	3186	3157	3157	3157	3157	3129	3129	3546	3546	3546	3546	3546	3510	3510	3546	3546	3546	3546	3546	3546	3546	3510	3546	3546	3546	3546	3546	3546	3583	3583	3621	3583	3583	3583	3583	3583	3583	3583	3546	3546	3583	3583	3583	3583	3546	3583	3583	3583	3583	3583	3583	3583	3583	3583	3583	3583	3546	3546	3546	3546	3546	3546	3546	3546	3546	3583	3546	3546	3510	3546	3510	3510	3510	3510	3546	3510	3510	3546	3510	3546	3510	3510	3510	3510	3510	3583	3583	3583	3583	3583	3546	3546	3546	3546	3546	3546	3546	3546	3546	3546	3546	3546	3546	3583	3583	3583	3583	3583	3583	3583	3583	3583	3583	3546	3546	3546	3546	3546	3546	3546	3546	3546	3546	3583	3583	3546	3546	3546	3546	3546	3546	3546	3546	3546	3546	3546	3546	3583	3621	3621	3546	0	0	2140	2140	2140	2140	2140	2114	2101	2101	2088	2076	2063	2051	2051	2039	2039	2039	2039	2027	2015	2003	1980	1969	1958	1947	1947	1936	1925	1915	1915	1904	1904	1894	1883	1873	1863	1843	1833	1833	1824	1824	1824	1814	1804	1786	1777	1768	1759	1750	1741	1732	1732	1723	1715	1698	1698	1690	1690	1681	1673	1665	1657	1649	1634	1626	1634	1626	1626	1618	1611	1611	1603	1596	1596	1589	1581	1574	1567	1560	1546	1546	1539	1539	1532	1525	1519	1499	1492	1486	1486	1486	1480	1473	1467	1467	1461	1461	1455	1443	1437	1437	1437	0	0	0	0	0	0	0	0	0	0	0	0	0	0	0	0	0	0	0	0	0	0	0	0	0	0	0	0	0	0	0	0	0	0	0	0	0	0	0	0	0
0	0	0	0	0	0	0	0	0	0	1431	1437	1443	1449	1455	1461	1467	1473	1473	1480	1486	1492	1492	1506	1506	1512	1512	1519	1519	1525	1525	1532	1539	1553	1560	1560	1567	1574	1596	1596	1611	1626	1626	1626	1634	1634	1649	1657	1657	1657	1657	1665	1673	1673	1673	1673	1681	1681	1698	1698	1706	1715	1723	1732	1732	1732	1750	1750	0	2409	2409	2426	2426	2426	2426	2426	2426	2426	2426	2409	2409	2409	2409	2409	2409	2409	2409	2409	2426	2426	0	0	0	0	0	0	0	0	0	0	0	0	2392	2376	2392	2392	2409	2426	2409	2409	2426	2426	2426	2426	2409	2443	2426	2409	2409	2409	2409	2409	2409	2409	2443	2443	2443	2443	2426	2426	2426	2426	2426	2426	2426	2426	2443	2426	2426	2426	2426	2426	2426	3246	3216	3186	3216	3186	3186	3186	3157	3157	3157	3157	3129	3129	3129	3129	3129	3101	3129	3101	3129	3129	3129	3129	3129	3157	3157	3157	3129	3129	3101	3046	3019	3019	3019	3019	3019	3046	3046	3046	3046	3019	3019	3406	3440	3440	3440	3475	3510	3510	3510	3546	3546	3546	3546	3510	3510	3510	3510	3510	3510	3546	3546	3546	3546	3546	3546	3546	3546	3546	3546	3546	3546	3546	3546	3546	3510	3510	3510	3546	3546	3546	3546	3546	3546	3546	3546	3546	3546	3510	3510	3510	3510	3510	3510	3510	3510	3510	3510	3510	3510	3510	3510	3546	3510	3510	3510	3510	3510	3510	3546	3546	3546	3546	3546	3546	3546	3546	3546	3546	3546	3546	3546	3583	3546	3546	3546	3546	3546	3546	3546	3546	3546	3546	3546	3546	3546	3546	3546	3546	3546	3546	3546	3546	3546	3546	3546	3546	3546	3510	3510	3475	3440	3373	3309	3277	3246	3246	3216	3216	3216	3186	3186	3157	3157	3129	3101	3101	3073	3073	3073	3073	3101	3101	3073	3073	3073	3073	3073	3073	3073	3073	3073	3073	3073	3073	3073	3073	3073	3073	3046	3046	3073	3073	3073	3073	3101	3101	3101	3073	3073	3073	3073	3073	3073	3073	3073	3101	3101	3101	3129	3157	3157	3186	3186	3157	3157	3157	3157	3583	3583	3583	3583	3546	3546	3546	3510	3546	3546	3546	3546	3546	3546	3546	3546	3546	3546	3546	3583	3546	3583	3583	3583	3583	3583	3583	3583	3583	3546	3583	3583	3546	3583	3583	3583	3583	3546	3546	3583	3583	3583	3583	3546	3546	3583	3583	3583	3583	3583	3583	3583	3546	3546	3546	3546	3546	3546	3546	3546	3510	3510	3510	3510	3510	3510	3510	3510	3546	3510	3510	3475	3510	3510	3510	3475	3475	3510	3510	3546	3546	3546	3583	3546	3546	3546	3546	3546	3546	3546	3546	3546	3546	3546	3546	3546	3546	3546	3546	3583	3546	3583	3546	3583	3546	3583	3583	3583	3546	3546	3546	3546	3546	3546	3546	3546	3546	3546	3546	3546	3546	3546	3546	3546	3546	3546	3546	3546	3546	3546	3583	3583	3583	3621	0	0	2153	2140	2140	2153	2153	2140	2127	2127	2101	2088	2076	2063	2063	2051	2039	2039	2039	2039	2027	2003	1992	1980	1969	1958	1947	1947	1947	1925	1925	1915	1904	1904	1894	1883	1863	1853	1843	1843	1833	1833	1824	1824	1814	1804	1786	1777	1759	1759	1750	1750	1741	1732	1723	1715	1706	1698	1690	1681	1681	1673	1665	1649	1649	1641	1626	1634	1626	1618	1618	1611	1611	1603	1596	1589	1589	1581	1574	1567	1560	1553	1546	1539	1532	1532	1519	1512	1492	1492	1486	1486	1486	1486	1473	1467	1467	1467	1461	1455	1443	1443	1437	1437	0	0	0	0	0	0	0	0	0	0	0	0	0	0	0	0	0	0	0	0	0	0	0	0	0	0	0	0	0	0	0	0	0	0	0	0	0	0	0	0	0
0	0	0	0	0	0	0	0	0	0	1431	1437	1443	1449	1461	1467	1467	1473	1473	1480	1486	1499	1499	1506	1506	1512	1512	1519	1519	1519	1525	1539	1546	1560	1560	1560	1567	1567	1581	1589	1603	1618	1618	1618	1626	1626	1641	1649	1657	1649	1665	1673	1681	1681	1681	1681	1681	1690	1698	1698	1706	1715	1715	1723	1732	1732	1741	1750	1750	1750	2409	2409	2409	2409	2426	2426	2426	2443	2443	2426	2443	2426	2426	2426	2426	2409	2409	2409	2409	2409	2409	0	0	0	0	0	0	0	0	0	0	0	2426	2409	2409	2409	2426	2426	2409	2409	2409	2409	2426	2426	2426	2426	2409	2409	2409	2409	2409	2409	2409	2409	2443	2443	2443	2443	2426	2426	2426	2426	2426	2426	2426	2426	2426	2426	2426	2426	2426	2426	2426	3246	3246	3216	3186	3186	3216	3216	3186	3186	3186	3186	3157	3129	3129	3129	3129	3129	3129	3129	3129	3157	3157	3157	3157	3157	3157	3157	3157	3129	3129	3073	3046	3019	3019	3019	3019	3046	3046	3046	3046	3019	3019	3440	3440	3440	3440	3475	3510	3510	3510	3510	3510	3546	3546	3546	3546	3546	3546	3546	3546	3546	3546	3546	3546	3546	3546	3546	3546	3546	3546	3546	3546	3546	3546	3546	3546	3510	3510	3546	3546	3546	3546	3546	3546	3546	3546	3546	3510	3510	3510	3510	3510	3510	3510	3510	3510	3510	3510	3510	3510	3510	3510	3546	3546	3510	3510	3510	3510	3510	3546	3546	3546	3546	3546	3546	3546	3546	3546	3546	3546	3546	3546	3546	3546	3546	3546	3546	3546	3546	3546	3546	3546	3546	3546	3546	3546	3546	3546	3546	3546	3546	3546	3546	3546	3546	3546	3546	3546	3546	3510	3475	3406	3341	3309	3277	3246	3246	3216	3186	3186	3186	3157	3157	3129	3129	3101	3073	3073	3073	3073	3073	3101	3073	3073	3073	3073	3073	3073	3073	3073	3073	3073	3073	3073	3073	3073	3073	3073	3073	3073	3073	3073	3073	3073	3073	3101	3101	3101	3101	3101	3101	3101	3073	3073	3073	3073	3101	3101	3101	3129	3157	3157	3186	3157	3157	3157	3157	3157	3186	3583	3583	3583	3546	3546	3546	3510	3546	3546	3546	3546	3546	3546	3546	3546	3583	3583	3583	3583	3583	3583	3583	3583	3621	3583	3546	3546	3583	3583	3583	3583	3583	3583	3583	3583	3546	3546	3510	3510	3510	3510	3546	3546	3546	3583	3583	3583	3546	3546	3546	3546	3546	3546	3546	3546	3546	3546	3546	3546	3510	3510	3510	3510	3510	3510	3510	3510	3510	3510	3475	3475	3510	3510	3510	3475	3475	3510	3510	3546	3546	3546	3583	3546	3546	3546	3546	3546	3546	3546	3546	3546	3546	3546	3546	3546	3546	3546	3546	3546	3546	3546	3546	3546	3546	3546	3546	3546	3546	3546	3546	3546	3546	3546	3546	3546	3546	3546	3546	3546	3546	3546	3546	3546	3546	3546	3546	3546	3546	3546	3583	3583	3583	0	2194	2181	2153	2140	2140	2140	2140	2127	2127	2114	2101	2101	2088	2076	2063	2063	2039	2039	2039	2039	2027	2003	1992	1992	1980	1969	1947	1947	1936	1925	1915	1915	1904	1904	1883	1873	1863	1853	1843	1843	1833	1833	1824	1824	1814	1804	1786	1777	1768	1759	1750	1750	1741	1732	1723	1715	1706	1698	1690	1681	1681	1673	1665	1649	1649	1641	1626	1626	1626	1618	1611	1611	1603	1603	1596	1596	1589	1581	1574	1567	1560	1553	1546	1539	1532	1532	1519	1512	1499	1492	1486	1486	1486	1486	1480	1473	1467	1467	1461	1455	1443	1437	1437	1437	0	0	0	0	0	0	0	0	0	0	0	0	0	0	0	0	0	0	0	0	0	0	0	0	0	0	0	0	0	0	0	0	0	0	0	0	0	0	0	0	0
0	0	0	0	0	0	0	0	0	0	1437	1437	1443	1449	1461	1467	1467	1473	1480	1486	1486	1492	1499	1506	1506	1512	1512	1519	1525	1525	1532	1539	1546	1560	1560	1560	1567	1567	1574	1581	1596	1611	1611	1618	1626	1626	1634	1641	1649	1657	1657	1673	1681	1681	1681	1681	1681	1690	1706	1706	1706	1715	1723	1723	1732	1732	1741	1750	1750	1750	1750	2409	2409	2409	2443	2443	2443	2443	2443	2443	2443	2443	2426	2443	2426	2409	2409	2409	2409	2392	2392	0	0	0	0	0	0	0	2359	2376	2376	2392	2392	2409	2409	2409	2409	2409	2409	2409	2409	2409	2426	2426	2426	2426	2426	2409	2409	2409	2409	2409	2409	2409	2426	2443	2443	2426	2426	2426	2443	2426	2426	2426	2426	2426	2426	2426	2426	2409	2426	2426	2426	3216	3246	3216	3216	3216	3246	3246	3157	3186	3186	3157	3157	3157	3129	3157	3157	3129	3129	3129	3157	3157	3157	3157	3186	3186	3186	3186	3157	3157	3157	3129	3046	3046	3019	3019	3019	3019	3046	3046	3046	3046	3440	3406	3406	3440	3440	3475	3475	3510	3510	3510	3546	3546	3510	3546	3546	3546	3546	3546	3546	3546	3583	3583	3546	3546	3546	3546	3546	3546	3546	3546	3546	3546	3546	3546	3546	3510	3510	3546	3546	3546	3546	3546	3546	3546	3546	3510	3510	3510	3510	3510	3510	3510	3510	3510	3510	3510	3510	3510	3510	3510	3510	3510	3510	3510	3510	3510	3510	3510	3546	3546	3546	3546	3546	3546	3546	3546	3546	3546	3546	3546	3546	3546	3546	3546	3546	3546	3546	3546	3546	3546	3546	3546	3546	3546	3546	3546	3546	3546	3546	3546	3546	3510	3546	3510	3546	3546	3546	3510	3510	3475	3406	3341	3309	3309	3277	3246	3216	3216	3186	3186	3157	3157	3129	3101	3073	3073	3073	3073	3046	3046	3046	3073	3073	3073	3073	3073	3073	3073	3073	3073	3073	3073	3073	3073	3073	3073	3073	3073	3073	3046	3073	3073	3073	3073	3101	3101	3101	3101	3101	3101	3101	3073	3073	3073	3073	3101	3129	3101	3129	3129	3157	3157	3157	3157	3157	3157	3186	3186	3621	3583	3583	3583	3546	3546	3583	3583	3583	3583	3546	3546	3546	3546	3546	3583	3583	3583	3583	3583	3583	3583	3583	3621	3583	3621	3546	3583	3546	3583	3583	3583	3583	3583	3583	3583	3546	3510	3546	3546	3546	3546	3546	3546	3546	3583	3546	3583	3546	3546	3546	3546	3546	3546	3546	3546	3546	3546	3546	3546	3546	3510	3510	3510	3510	3510	3510	3510	3510	3510	3475	3510	3510	3510	3510	3510	3510	3510	3546	3546	3546	3546	3546	3546	3546	3546	3546	3546	3546	3546	3546	3546	3546	3546	3546	3546	3546	3546	3546	3546	3546	3546	3546	3546	3546	3583	3583	3583	3546	3546	3546	3546	3546	3546	3546	3546	3546	3546	3546	3546	3546	3546	3546	3546	3546	3546	3546	3546	3546	0	0	0	2194	2194	2181	2153	2140	2140	2140	2153	2127	2127	2114	2101	2101	2088	2076	2063	2063	2039	2039	2039	2039	2003	2003	1992	1992	1980	1958	1947	1947	1936	1925	1915	1915	1904	1894	1894	1873	1863	1853	1843	1843	1833	1833	1824	1814	1814	1804	1795	1777	1768	1759	1759	1750	1741	1741	1732	1723	1706	1698	1690	1681	1673	1673	1657	1649	1649	1641	1634	1634	1626	1618	1611	1611	1603	1603	1596	1596	1589	1581	1567	1567	1560	1553	1539	1539	1532	1532	1519	1506	1499	1492	1492	1492	1486	1486	1486	1473	1467	1467	1461	1449	1449	1437	1437	1437	0	0	0	0	0	0	0	0	0	0	0	0	0	0	0	0	0	0	0	0	0	0	0	0	0	0	0	0	0	0	0	0	0	0	0	0	0	0	0	0	0
0	0	0	0	0	0	0	0	0	0	1431	1437	1443	1455	1461	1467	1467	1473	1473	1480	1486	1492	1492	1499	1506	1506	1512	1519	1525	1525	1532	1539	1546	1560	1560	1560	1567	1567	1574	1574	1589	1589	1596	1618	1618	1618	1626	1634	1673	1673	1673	1681	1690	1690	1690	1690	1690	1690	1706	1706	1715	1715	1723	1723	1732	1732	1741	1750	1750	1750	1777	1777	2409	2443	2460	2460	2443	2443	2443	2443	2443	2443	2426	2426	2426	2409	2409	2409	2409	2392	2392	0	0	0	0	0	0	0	2359	2376	2409	2426	2409	2409	2409	2409	2409	2409	2409	2409	2409	2409	2426	2426	2426	2426	2426	2409	2409	2409	2409	2409	2409	2409	2426	2443	2426	2426	2426	2426	2426	2443	2426	2426	2426	2426	2426	2426	2426	2409	2409	2409	3246	3246	3216	3216	3216	3216	3216	3246	3246	3246	3216	3216	3186	3186	3157	3186	3186	3157	3157	3186	3186	3186	3186	3186	3186	3186	3216	3186	3216	3216	3216	3157	3129	3046	3019	3019	3019	3019	3019	3019	3019	3373	3373	3406	3440	3440	3440	3475	3510	3510	3510	3510	3546	3546	3546	3546	3546	3546	3546	3546	3546	3546	3583	3583	3583	3583	3546	3546	3546	3546	3546	3546	3546	3546	3546	3546	3546	3546	3510	3546	3546	3546	3546	3546	3546	3510	3546	3510	3510	3510	3510	3510	3510	3510	3510	3510	3510	3475	3510	3510	3475	3510	3510	3510	3510	3510	3510	3510	3510	3510	3510	3510	3510	3510	3546	3546	3546	3546	3546	3546	3546	3546	3546	3546	3546	3546	3546	3546	3546	3546	3546	3546	3546	3546	3546	3546	3546	3546	3546	3546	3546	3546	3546	3510	3546	3510	3510	3546	3546	3510	3510	3475	3440	3406	3309	3309	3246	3246	3186	3186	3157	3157	3129	3129	3101	3101	3073	3073	3073	3073	3046	3046	3073	3101	3073	3073	3073	3073	3073	3073	3073	3073	3073	3046	3046	3073	3073	3046	3046	3046	3046	3073	3073	3073	3073	3073	3101	3101	3101	3101	3101	3101	3101	3073	3101	3101	3129	3129	3129	3129	3129	3129	3157	3157	3186	3157	3157	3157	3157	3186	3583	3583	3583	3583	3583	3546	3546	3583	3583	3546	3546	3546	3546	3546	3546	3583	3583	3583	3583	3583	3583	3583	3583	3583	3583	3583	3583	3583	3583	3583	3583	3583	3583	3583	3583	3583	3546	3546	3546	3546	3546	3546	3546	3546	3546	3583	3546	3546	3546	3546	3546	3546	3546	3546	3546	3546	3546	3546	3546	3510	3510	3510	3510	3510	3510	3510	3510	3510	3510	3510	3510	3510	3510	3510	3510	3510	3510	3510	3546	3546	3546	3546	3546	3546	3546	3583	3583	3546	3583	3583	3583	3583	3546	3546	3546	3546	3546	3546	3546	3546	3546	3546	3546	3546	3546	3546	3546	3546	3546	3546	3546	3546	3546	3546	3546	3546	3546	3546	3546	3546	3546	3546	3546	3546	3546	3546	3546	3546	0	2223	2208	2208	2208	2194	2181	2167	2140	2140	2153	2153	2140	2127	2114	2101	2101	2088	2088	2076	2063	2051	2039	2039	2039	2003	2003	1992	1992	1980	1958	1947	1947	1936	1925	1915	1915	1904	1894	1894	1873	1863	1853	1843	1843	1833	1833	1824	1824	1814	1795	1777	1777	1759	1759	1759	1750	1750	1741	1732	1723	1706	1698	1690	1690	1681	1673	1665	1649	1649	1641	1626	1626	1626	1618	1611	1611	1603	1603	1596	1596	1589	1589	1574	1567	1560	1553	1546	1539	1532	1532	1519	1506	1492	1492	1492	1486	1486	1486	1480	1473	1467	1461	1455	1449	1437	1437	1437	1437	0	0	0	0	0	0	0	0	0	0	0	0	0	0	0	0	0	0	0	0	0	0	0	0	0	0	0	0	0	0	0	0	0	0	0	0	0	0	0	0	0
0	0	0	0	0	0	0	0	0	0	1431	1437	1437	1449	1455	1461	1467	1473	1473	1480	1486	1492	1492	1499	1499	1506	1512	1519	1525	1525	1532	1539	1546	1560	1560	1560	1567	1567	1574	1574	1581	1596	1603	1603	1618	1618	1626	1634	1673	1681	1673	1681	1690	1690	1690	1690	1698	1698	1715	1715	1723	1723	1723	1732	1741	1732	1741	1741	1750	1750	1768	1768	1786	1786	2460	2460	2443	2443	2443	2443	2443	2443	2426	2426	2409	2409	2409	2409	2409	2392	2392	0	0	0	0	0	0	2376	2376	2376	2409	2426	2409	2409	2409	2409	2409	2409	2409	2409	2409	2409	2426	2426	2426	2426	2426	2409	2409	2409	2409	2409	2409	2409	2426	2426	2426	2426	2426	2426	2426	2426	2426	2426	2426	2426	2426	2426	2409	2409	2426	2426	3216	3216	3216	3157	3157	3157	3186	3246	3246	3277	3216	3246	3216	3216	3216	3216	3216	3216	3216	3216	3216	3216	3246	3216	3216	3216	3216	3216	3216	3246	3216	3186	3186	3101	3046	3019	3046	3046	3019	3186	3186	3373	3373	3440	3475	3440	3475	3510	3510	3510	3510	3546	3546	3546	3510	3546	3546	3546	3546	3546	3546	3583	3621	3583	3583	3583	3546	3546	3546	3546	3546	3546	3546	3546	3546	3546	3546	3546	3546	3546	3546	3546	3546	3546	3546	3510	3510	3510	3510	3510	3510	3510	3510	3510	3510	3510	3510	3510	3510	3475	3475	3510	3510	3510	3510	3510	3475	3475	3475	3510	3510	3546	3510	3546	3546	3546	3546	3546	3546	3546	3546	3546	3546	3546	3546	3546	3546	3546	3546	3546	3546	3546	3546	3546	3546	3546	3546	3546	3546	3546	3546	3546	3546	3510	3546	3510	3546	3546	3546	3546	3475	3475	3440	3406	3309	3277	3246	3216	3186	3186	3157	3129	3129	3129	3129	3101	3073	3101	3073	3073	3073	3073	3073	3101	3073	3073	3073	3073	3073	3073	3046	3046	3046	3046	3046	3046	3046	3046	3046	3046	3046	3046	3046	3046	3046	3073	3073	3101	3101	3101	3101	3101	3101	3101	3101	3101	3129	3129	3129	3129	3129	3129	3157	3157	3157	3157	3157	3157	3186	3186	3583	3583	3583	3583	3583	3546	3546	3546	3583	3546	3546	3546	3583	3583	3546	3621	3583	3583	3583	3583	3583	3583	3583	3583	3583	3583	3583	3583	3583	3583	3583	3583	3583	3583	3583	3583	3583	3583	3546	3546	3546	3546	3546	3546	3546	3546	3546	3546	3546	3546	3546	3546	3546	3546	3546	3546	3546	3546	3546	3510	3546	3546	3510	3546	3510	3510	3510	3510	3510	3475	3475	3510	3510	3510	3510	3510	3510	3510	3546	3546	3546	3546	3546	3546	3546	3546	3583	3583	3583	3583	3583	3583	3546	3546	3546	3546	3546	3546	3546	3546	3546	3546	3546	3546	3546	3583	3583	3583	3546	3546	3546	3546	3546	3546	3546	3546	3546	3546	3546	3546	3546	3546	3546	3510	3510	3510	3510	0	0	2237	2223	2208	2208	2194	2181	2167	2153	2140	2153	2153	2140	2127	2127	2114	2101	2088	2088	2076	2063	2051	2039	2039	2039	2027	2015	2003	1992	1980	1958	1947	1947	1936	1925	1915	1915	1904	1894	1894	1883	1863	1843	1843	1833	1833	1824	1824	1814	1804	1795	1777	1768	1759	1759	1759	1750	1750	1741	1732	1723	1715	1698	1690	1690	1681	1673	1665	1649	1649	1641	1634	1626	1626	1618	1611	1611	1603	1603	1603	1596	1589	1589	1574	1567	1560	1553	1546	1539	1532	1525	1512	1506	1492	1492	1492	1486	1486	1486	1480	1480	1473	1461	1455	1443	1437	1437	1431	1431	0	0	0	0	0	0	0	0	0	0	0	0	0	0	0	0	0	0	0	0	0	0	0	0	0	0	0	0	0	0	0	0	0	0	0	0	0	0	0	0	0
0	0	0	0	0	0	0	0	0	0	1431	1437	1443	1449	1455	1461	1467	1473	1473	1480	1480	1492	1492	1492	1492	1506	1512	1519	1525	1525	1525	1539	1546	1560	1560	1567	1567	1567	1574	1574	1574	1596	1596	1603	1618	1618	1618	1626	1673	1673	1673	1681	1690	1690	1690	1698	1698	1706	1706	1723	1723	1723	1732	1732	1732	1732	1741	1741	1750	1777	1777	1786	1795	1804	1814	1814	2443	2460	2460	2460	2443	2443	2443	2426	2409	2409	2409	2392	2392	2376	2409	2359	2359	2359	2359	2359	2376	2392	2376	2392	2392	2392	2409	2409	2409	2409	2409	2409	2392	2409	2409	2409	2409	2426	2426	2409	2409	2409	2409	2409	2409	2409	2409	2409	2426	2426	2426	2426	2426	2426	2426	2426	2426	2426	2426	2426	2426	2426	2409	2426	2426	2409	2409	3246	3246	3246	3246	3186	3186	3186	3246	3246	3216	3277	3246	3246	3216	3246	3246	3246	3246	3246	3216	3216	3246	3246	3246	3246	3246	3246	3246	3246	3216	3246	3246	3216	3246	3246	3101	3101	3101	3277	3277	3373	3373	3440	3475	3440	3440	3510	3510	3510	3510	3510	3510	3546	3510	3546	3546	3546	3546	3546	3546	3583	3583	3583	3583	3583	3546	3546	3546	3546	3546	3546	3546	3546	3546	3546	3546	3546	3546	3546	3546	3546	3546	3546	3546	3510	3510	3510	3510	3510	3510	3510	3510	3510	3510	3510	3510	3510	3510	3475	3510	3475	3510	3510	3510	3510	3475	3510	3475	3475	3510	3546	3546	3546	3546	3546	3546	3546	3546	3546	3546	3546	3546	3546	3546	3546	3546	3546	3546	3546	3546	3546	3546	3546	3546	3546	3546	3546	3546	3546	3546	3546	3510	3510	3510	3510	3546	3546	3546	3510	3475	3440	3440	3406	3373	3277	3277	3216	3186	3157	3157	3129	3129	3129	3129	3129	3101	3101	3073	3073	3046	3073	3073	3101	3101	3101	3073	3073	3073	3073	3046	3046	3046	3046	3046	3046	3046	3046	3073	3073	3073	3073	3073	3073	3073	3073	3073	3073	3073	3073	3073	3101	3101	3101	3101	3101	3101	3101	3129	3129	3129	3129	3129	3157	3157	3157	3157	3186	3186	3186	3583	3583	3583	3583	3583	3546	3546	3583	3546	3546	3546	3583	3583	3583	3583	3621	3583	3583	3583	3583	3546	3546	3546	3583	3583	3583	3546	3583	3583	3583	3583	3583	3583	3583	3621	3583	3583	3583	3546	3546	3546	3546	3546	3546	3546	3546	3546	3546	3546	3546	3546	3546	3546	3546	3546	3546	3546	3546	3510	3510	3510	3510	3546	3546	3510	3510	3510	3510	3510	3510	3475	3510	3510	3510	3510	3510	3510	3510	3546	3546	3546	3546	3546	3546	3546	3546	3546	3583	3583	3583	3583	3546	3546	3546	3546	3546	3546	3546	3546	3546	3546	3546	3546	3546	3546	3546	3546	3546	3546	3546	3546	3546	3546	3546	3546	3546	3546	3546	3546	3546	3546	3546	3510	3510	3510	3510	3510	3510	3510	2252	2223	2223	2223	2208	2194	2181	2167	2153	2153	2153	2127	2127	2114	2101	2101	2088	2088	2076	2076	2051	2039	2039	2039	2015	2003	1992	1992	1969	1958	1958	1947	1936	1936	1915	1915	1904	1894	1883	1873	1853	1843	1833	1833	1824	1824	1814	1814	1804	1795	1786	1777	1759	1759	1759	1750	1750	1741	1732	1723	1715	1690	1690	1690	1681	1673	1665	1657	1649	1641	1626	1626	1626	1618	1611	1611	1603	1603	1596	1596	1589	1581	1574	1567	1553	1553	1546	1539	1532	1525	1519	1506	1499	1492	1492	1486	1486	1486	1486	1480	1473	1461	1455	1449	1443	1437	1431	1431	0	0	0	0	0	0	0	0	0	0	0	0	0	0	0	0	0	0	0	0	0	0	0	0	0	0	0	0	0	0	0	0	0	0	0	0	0	0	0	0	0
0	0	0	0	0	0	0	0	0	0	1431	1437	1437	1443	1455	1455	1461	1473	1473	1480	1480	1486	1492	1492	1492	1506	1512	1512	1525	1525	1525	1532	1539	1546	1560	1567	1567	1567	1574	1574	1574	1589	1596	1603	1611	1618	1618	1618	1626	1649	1657	1673	1681	1681	1690	1698	1706	1715	1723	1723	1732	1732	1741	1741	1750	1741	1750	1750	1750	1768	1786	1795	1795	1804	1804	1804	1804	2460	2443	2443	2443	2426	2426	2409	2409	2409	2392	2392	2392	2376	2392	2376	2376	2376	2376	2376	2392	2392	2376	2392	2392	2409	2409	2409	2409	2409	2409	2409	2409	2409	2409	2409	2409	2409	2409	2426	2426	2409	2426	2426	2409	2409	2409	2409	2426	2426	2426	2426	2426	2426	2426	2426	2426	2426	2426	2443	2426	2426	2426	2426	2409	2409	2409	3246	3246	3246	3246	3277	3277	3277	3277	3309	3277	3309	3277	3277	3309	3309	3309	3309	3309	3309	3277	3277	3277	3246	3246	3277	3277	3277	3277	3277	3246	3246	3277	3246	3309	3309	3309	3246	3246	3309	3309	3341	3406	3440	3475	3440	3475	3510	3510	3510	3510	3510	3510	3546	3546	3546	3546	3546	3546	3546	3546	3546	3546	3546	3546	3546	3546	3546	3546	3546	3546	3546	3546	3546	3546	3546	3546	3546	3546	3546	3546	3546	3546	3546	3546	3510	3510	3510	3510	3510	3510	3510	3510	3510	3510	3510	3510	3510	3510	3510	3510	3510	3510	3510	3510	3510	3475	3475	3475	3475	3510	3546	3546	3546	3546	3546	3546	3546	3546	3546	3546	3546	3546	3546	3546	3546	3546	3546	3546	3546	3546	3546	3546	3546	3546	3546	3546	3546	3546	3546	3546	3510	3510	3510	3546	3546	3546	3546	3546	3510	3475	3440	3440	3406	3406	3277	3277	3216	3186	3186	3157	3129	3129	3129	3101	3073	3073	3073	3073	3073	3046	3073	3101	3101	3073	3073	3073	3073	3046	3073	3046	3046	3046	3046	3046	3046	3046	3046	3046	3073	3073	3073	3073	3073	3073	3073	3073	3073	3073	3073	3073	3101	3101	3101	3101	3129	3129	3101	3101	3101	3101	3101	3129	3157	3157	3157	3157	3186	3186	3186	3621	3583	3583	3583	3583	3546	3546	3583	3546	3546	3546	3583	3583	3583	3583	3621	3583	3583	3583	3546	3546	3546	3546	3583	3546	3583	3546	3583	3583	3583	3583	3583	3583	3583	3583	3583	3583	3546	3546	3546	3546	3546	3546	3546	3546	3546	3546	3546	3510	3510	3546	3546	3546	3546	3546	3546	3546	3546	3510	3510	3510	3510	3510	3546	3510	3510	3510	3510	3510	3510	3510	3510	3510	3510	3510	3510	3510	3510	3546	3546	3546	3546	3546	3546	3546	3546	3546	3546	3546	3546	3546	3546	3546	3546	3546	3546	3546	3546	3546	3546	3546	3546	3546	3546	3546	3546	3546	3546	3546	3546	3546	3546	3546	3546	3546	3546	3546	3546	3546	3546	3546	3546	3510	3510	3510	3510	3510	3510	3510	2252	2223	2223	2223	2208	2194	2181	2167	2167	2167	2153	2140	2127	2114	2101	2101	2088	2088	2076	2063	2051	2039	2027	2027	2015	2003	1992	1992	1969	1958	1958	1947	1936	1925	1915	1904	1904	1894	1894	1873	1853	1843	1833	1833	1824	1824	1814	1804	1804	1795	1786	1777	1759	1759	1759	1759	1750	1750	1732	1723	1715	1690	1690	1690	1681	1681	1665	1657	1649	1641	1626	1626	1618	1618	1611	1603	1603	1596	1596	1596	1589	1581	1574	1560	1553	1546	1539	1539	1532	1525	1519	1506	1499	1492	1492	1486	1486	1480	1486	1486	1473	1467	1455	1449	1449	1437	1437	1437	0	0	0	0	0	0	0	0	0	0	0	0	0	0	0	0	0	0	0	0	0	0	0	0	0	0	0	0	0	0	0	0	0	0	0	0	0	0	0	0	0
0	0	0	0	0	0	0	0	0	0	1431	1431	1437	1443	1449	1455	1461	1473	1480	1480	1480	1492	1492	1492	1492	1499	1519	1525	1525	1525	1525	1532	1539	1553	1553	1560	1560	1567	1567	1567	1574	1574	1611	1611	1618	1618	1618	1626	1626	1634	1641	1649	1673	1681	1698	1698	1706	1706	1723	1723	1732	1732	1741	1741	1750	1750	1750	1759	1759	1777	1786	1795	1795	1804	1814	1804	1814	1824	1833	1833	2443	2426	2426	2409	2409	2392	2392	2392	2392	2392	2392	2376	2376	2376	2376	2392	2392	2392	2392	2392	2409	2409	2409	2409	2409	2409	2409	2409	2409	2409	2409	2409	2409	2409	2409	2409	2409	2426	2409	2409	2409	2409	2409	2409	2426	2426	2426	2426	2426	2443	2426	2443	2426	2426	2443	2426	2426	2426	2426	2426	2409	2409	2409	3277	3277	3277	3277	3309	3309	3309	3309	3309	3341	3341	3309	3309	3341	3341	3341	3341	3373	3373	3373	3373	3341	3341	3309	3277	3277	3277	3277	3277	3277	3277	3309	3309	3341	3309	3309	3277	3309	3341	3341	3373	3406	3440	3475	3475	3475	3510	3510	3510	3510	3510	3546	3546	3546	3546	3546	3546	3546	3546	3546	3546	3546	3546	3546	3546	3546	3546	3546	3546	3546	3546	3546	3546	3546	3546	3546	3546	3546	3546	3546	3546	3546	3546	3546	3510	3510	3510	3510	3510	3510	3510	3510	3510	3510	3510	3510	3510	3475	3510	3510	3510	3510	3510	3475	3510	3510	3510	3475	3475	3510	3546	3546	3546	3546	3546	3546	3546	3546	3546	3546	3546	3546	3546	3546	3546	3546	3546	3546	3546	3546	3546	3546	3546	3546	3546	3546	3546	3546	3546	3546	3546	3510	3510	3546	3546	3546	3510	3510	3510	3475	3475	3440	3440	3440	3406	3373	3186	3186	3157	3157	3129	3129	3129	3101	3101	3073	3073	3073	3073	3073	3073	3073	3101	3073	3073	3073	3073	3073	3073	3046	3046	3046	3046	3046	3046	3046	3073	3046	3073	3073	3073	3073	3073	3073	3073	3073	3073	3073	3073	3073	3073	3073	3101	3101	3101	3101	3101	3101	3129	3129	3129	3157	3157	3186	3186	3186	3186	3186	3186	3583	3583	3583	3583	3583	3583	3546	3583	3546	3546	3546	3546	3583	3583	3546	3621	3583	3583	3583	3546	3546	3546	3546	3583	3583	3583	3546	3583	3583	3583	3583	3546	3546	3583	3583	3583	3583	3583	3583	3546	3546	3546	3546	3546	3546	3546	3546	3546	3546	3546	3546	3546	3546	3546	3546	3546	3546	3546	3510	3510	3510	3510	3510	3510	3510	3510	3510	3510	3510	3510	3510	3510	3510	3510	3510	3510	3510	3510	3546	3546	3546	3546	3546	3546	3546	3546	3546	3546	3546	3546	3546	3546	3546	3546	3546	3546	3546	3546	3546	3546	3546	3546	3546	3546	3546	3546	3546	3546	3546	3546	3546	3546	3546	3546	3546	3546	3546	3546	3546	3546	3546	3546	3546	3510	3510	3510	3510	3510	3546	2252	2252	2237	2223	2208	2194	2181	2167	2167	2153	2153	2140	2114	2114	2101	2101	2088	2088	2076	2076	2051	2039	2039	2027	2015	2015	1992	1992	1980	1958	1958	1947	1936	1925	1915	1904	1904	1894	1894	1873	1853	1843	1833	1833	1824	1824	1814	1814	1804	1795	1786	1786	1759	1759	1759	1750	1750	1741	1732	1723	1715	1690	1690	1690	1681	1681	1673	1657	1657	1641	1626	1626	1618	1618	1611	1603	1603	1596	1596	1596	1589	1581	1574	1560	1546	1546	1539	1539	1532	1525	1519	1512	1512	1499	1492	1486	1486	1486	1486	1486	1480	1467	1455	1455	1449	1443	1437	1437	0	0	0	0	0	0	0	0	0	0	0	0	0	0	0	0	0	0	0	0	0	0	0	0	0	0	0	0	0	0	0	0	0	0	0	0	0	0	0	0	0
0	0	0	0	0	0	0	0	0	0	1431	1431	1437	1437	1443	1449	1455	1467	1473	1486	1492	1492	1492	1492	1499	1506	1512	1519	1519	1525	1525	1532	1539	1546	1553	1560	1567	1567	1574	1574	1596	1603	1611	1611	1618	1618	1618	1626	1626	1641	1649	1649	1673	1681	1690	1690	1690	1698	1723	1723	1732	1741	1750	1750	1759	1750	1759	1759	1768	1768	1777	1786	1795	1804	1814	1804	1814	1833	1833	1833	1833	2426	2409	2409	2409	2409	2409	2409	2392	2392	2392	2376	2376	2376	2376	2392	2392	2392	2392	2409	2409	2409	2409	2409	2409	2409	2409	2409	2409	2409	2409	2409	2409	2409	2409	2409	2409	2426	2409	2409	2409	2409	2409	2409	2426	2426	2426	2426	2426	2443	2426	2443	2426	2426	2443	2426	2426	2426	2426	2426	2409	2409	2409	3309	3277	3309	3309	3309	3309	3309	3309	3309	3341	3341	3341	3341	3373	3373	3406	3373	3406	3406	3406	3373	3341	3341	3309	3309	3277	3309	3309	3309	3309	3309	3341	3341	3341	3341	3341	3309	3341	3341	3341	3373	3406	3440	3475	3475	3475	3510	3510	3510	3510	3510	3510	3546	3546	3546	3546	3546	3546	3546	3546	3546	3546	3546	3546	3546	3546	3546	3546	3546	3546	3546	3546	3546	3546	3546	3546	3546	3546	3546	3546	3546	3546	3546	3546	3510	3510	3510	3510	3510	3510	3510	3510	3510	3510	3510	3510	3510	3510	3510	3510	3510	3510	3510	3475	3510	3475	3475	3475	3475	3510	3546	3546	3546	3546	3546	3546	3546	3546	3546	3546	3546	3546	3546	3546	3546	3546	3546	3546	3546	3546	3546	3546	3546	3546	3546	3546	3546	3546	3546	3546	3546	3510	3510	3546	3546	3546	3546	3510	3546	3510	3510	3510	3475	3440	3406	3373	3186	3157	3157	3157	3129	3129	3129	3101	3101	3101	3073	3073	3073	3073	3073	3073	3101	3073	3073	3073	3073	3073	3073	3073	3073	3073	3046	3046	3073	3046	3046	3046	3073	3073	3073	3073	3073	3073	3073	3073	3073	3073	3073	3101	3101	3073	3073	3101	3101	3101	3101	3101	3129	3129	3129	3157	3157	3186	3186	3186	3186	3186	3186	3186	3583	3583	3583	3583	3583	3583	3583	3546	3546	3583	3546	3583	3583	3583	3621	3583	3583	3583	3583	3546	3546	3546	3583	3583	3583	3546	3583	3583	3583	3583	3546	3583	3546	3583	3583	3583	3583	3583	3546	3583	3546	3546	3583	3546	3546	3546	3546	3546	3546	3546	3546	3546	3546	3546	3546	3546	3546	3546	3510	3546	3546	3546	3546	3510	3510	3510	3510	3510	3510	3510	3510	3510	3510	3510	3510	3510	3510	3546	3546	3546	3546	3546	3546	3546	3546	3546	3546	3546	3546	3546	3546	3546	3546	3546	3546	3546	3546	3546	3546	3546	3546	3546	3546	3546	3546	3546	3546	3546	3546	3546	3546	3546	3546	3546	3546	3546	3546	3546	3546	3546	3546	3546	3546	3510	3510	3510	3546	2297	2266	2252	2237	2223	2208	2194	2181	2167	2153	2153	2153	2140	2114	2101	2101	2101	2088	2088	2076	2076	2051	2039	2027	2027	2015	2015	2003	1992	1969	1958	1958	1947	1936	1936	1925	1904	1904	1894	1883	1873	1853	1843	1833	1833	1824	1824	1814	1814	1804	1795	1777	1768	1759	1759	1759	1750	1750	1750	1732	1723	1715	1690	1690	1690	1681	1681	1673	1657	1657	1641	1626	1626	1618	1618	1611	1603	1603	1596	1596	1596	1589	1581	1560	1553	1553	1546	1546	1539	1532	1525	1525	1519	1512	1499	1492	1486	1486	1480	1486	1480	1473	1467	1455	1449	1449	1443	1437	1437	0	0	0	0	0	0	0	0	0	0	0	0	0	0	0	0	0	0	0	0	0	0	0	0	0	0	0	0	0	0	0	0	0	0	0	0	0	0	0	0	0
0	0	0	0	0	0	0	0	0	0	1431	1431	1431	1437	1437	1443	1449	1461	1467	1480	1486	1486	1499	1499	1499	1506	1512	1519	1525	1525	1532	1532	1539	1546	1553	1560	1567	1567	1574	1574	1596	1603	1611	1611	1618	1626	1626	1626	1626	1641	1649	1641	1657	1673	1681	1690	1690	1698	1715	1723	1732	1741	1750	1750	1759	1759	1759	1759	1768	1768	1777	1795	1804	1814	1814	1814	1824	1833	1843	1843	1853	1853	1873	1873	2409	2392	2392	2392	2392	2392	2392	2392	2392	2392	2392	2392	2392	2392	2392	2409	2409	2409	2409	2409	2409	2426	2409	2409	2409	2409	2409	2409	2409	2409	2409	2409	2426	2409	2409	2409	2409	2409	2409	2409	2426	2426	2426	2426	2426	2443	2443	2443	2426	2426	2443	2443	2426	2426	2426	2426	2409	2409	2409	3309	3309	3309	3341	3341	3341	3341	3341	3373	3373	3373	3373	3373	3373	3406	3406	3373	3406	3406	3440	3406	3373	3373	3341	3341	3309	3341	3341	3341	3341	3341	3341	3309	3373	3341	3341	3341	3341	3373	3341	3373	3406	3440	3475	3475	3510	3546	3546	3546	3546	3546	3546	3546	3546	3546	3546	3546	3546	3546	3510	3546	3546	3546	3546	3546	3546	3546	3546	3546	3546	3546	3546	3546	3546	3546	3546	3546	3546	3546	3546	3546	3546	3546	3546	3510	3510	3510	3510	3510	3510	3510	3510	3510	3510	3510	3510	3510	3510	3510	3510	3510	3510	3510	3475	3510	3510	3510	3475	3475	3510	3546	3546	3546	3546	3546	3546	3546	3546	3546	3546	3546	3546	3546	3546	3546	3546	3510	3546	3546	3546	3546	3546	3546	3546	3546	3546	3546	3546	3546	3546	3546	3546	3546	3546	3546	3546	3546	3546	3546	3546	3510	3510	3510	3440	3440	3186	3157	3157	3157	3129	3129	3129	3129	3101	3101	3073	3073	3073	3073	3073	3073	3073	3101	3073	3073	3073	3073	3073	3073	3073	3073	3073	3073	3073	3073	3073	3046	3073	3073	3073	3073	3073	3073	3073	3073	3073	3073	3073	3101	3101	3101	3073	3073	3101	3101	3101	3101	3101	3129	3129	3129	3157	3157	3186	3186	3186	3186	3186	3186	3583	3583	3583	3583	3583	3546	3546	3546	3546	3546	3546	3546	3583	3583	3546	3621	3583	3583	3583	3583	3546	3546	3546	3583	3546	3546	3546	3583	3583	3583	3583	3546	3583	3583	3583	3546	3546	3583	3583	3583	3583	3583	3583	3583	3583	3546	3546	3546	3546	3546	3546	3546	3546	3546	3546	3546	3546	3546	3546	3510	3546	3546	3546	3546	3510	3510	3510	3510	3510	3510	3510	3510	3510	3510	3510	3510	3510	3510	3546	3546	3546	3546	3546	3546	3546	3546	3546	3546	3546	3546	3546	3546	3546	3546	3546	3546	3546	3546	3546	3546	3546	3546	3546	3546	3546	3546	3546	3546	3546	3546	3546	3546	3546	3546	3546	3546	3546	3546	3546	3546	3546	3546	3546	3510	3510	3510	3510	3510	2281	2266	2252	2237	2237	2223	2194	2181	2167	2167	2153	2153	2140	2127	2114	2101	2101	2088	2088	2076	2063	2051	2039	2039	2027	2015	2027	2003	1992	1969	1958	1958	1947	1936	1925	1925	1904	1904	1894	1883	1873	1853	1843	1833	1833	1824	1824	1804	1804	1795	1795	1786	1768	1768	1759	1750	1750	1741	1741	1732	1723	1715	1690	1690	1690	1681	1681	1673	1657	1657	1649	1634	1634	1626	1618	1611	1611	1603	1596	1596	1596	1589	1581	1574	1560	1553	1546	1546	1539	1539	1532	1525	1519	1512	1499	1492	1486	1486	1480	1480	1473	1473	1467	1455	1455	1449	1443	1437	1437	0	0	0	0	0	0	0	0	0	0	0	0	0	0	0	0	0	0	0	0	0	0	0	0	0	0	0	0	0	0	0	0	0	0	0	0	0	0	0	0	0
0	0	0	0	0	0	0	0	0	0	1431	1431	1437	1443	1443	1449	1455	1461	1467	1480	1480	1486	1492	1492	1499	1506	1512	1519	1519	1525	1532	1532	1539	1546	1553	1560	1567	1567	1567	1574	1589	1596	1603	1611	1618	1626	1626	1626	1626	1634	1641	1641	1649	1665	1681	1681	1690	1698	1715	1723	1732	1741	1750	1750	1759	1759	1759	1759	1768	1786	1786	1795	1804	1814	1814	1824	1833	1843	1843	1843	1853	1863	1873	1883	1883	1883	2392	2409	2392	2392	2392	2376	2376	2376	2376	2392	2392	2392	2392	2426	2426	2409	2426	2426	2426	2426	2426	2409	2409	2409	2409	2409	2409	2409	2409	2409	2426	2409	2409	2409	2409	2409	2409	2409	2426	2426	2426	2426	2443	2443	2443	2443	2426	2426	2426	2426	2426	2426	2426	2426	2409	2409	2409	3373	3373	3373	3373	3373	3373	3373	3373	3373	3406	3373	3373	3373	3373	3406	3406	3406	3440	3406	3440	3406	3406	3406	3373	3373	3373	3373	3406	3373	3406	3373	3373	3341	3341	3341	3373	3373	3373	3373	3373	3406	3440	3475	3475	3475	3510	3546	3546	3546	3546	3546	3546	3546	3546	3546	3546	3546	3546	3546	3510	3546	3546	3546	3546	3546	3546	3546	3546	3546	3546	3546	3510	3510	3546	3546	3510	3510	3510	3546	3546	3546	3546	3510	3510	3510	3510	3510	3510	3510	3510	3510	3510	3510	3510	3510	3510	3510	3510	3510	3510	3510	3510	3510	3475	3510	3510	3510	3475	3475	3546	3546	3546	3546	3546	3546	3546	3546	3546	3546	3546	3546	3546	3546	3546	3546	3546	3546	3546	3546	3546	3546	3546	3546	3546	3546	3546	3546	3546	3546	3546	3546	3546	3546	3546	3546	3546	3546	3546	3546	3546	3510	3510	3510	3440	3440	3246	3186	3157	3157	3157	3129	3129	3129	3101	3101	3073	3073	3073	3073	3073	3073	3073	3073	3073	3073	3073	3046	3073	3073	3073	3073	3073	3073	3073	3073	3073	3073	3073	3073	3073	3073	3073	3073	3073	3073	3101	3073	3073	3073	3073	3073	3073	3073	3101	3101	3101	3101	3101	3129	3129	3157	3157	3157	3186	3186	3186	3186	3186	3186	3546	3583	3546	3583	3583	3546	3546	3546	3546	3546	3546	3546	3583	3546	3546	3621	3583	3583	3583	3583	3546	3546	3583	3546	3546	3583	3583	3583	3583	3583	3583	3583	3583	3583	3583	3546	3546	3583	3583	3546	3583	3583	3583	3583	3583	3546	3546	3546	3546	3510	3546	3546	3546	3546	3546	3546	3546	3546	3546	3510	3546	3546	3546	3546	3510	3510	3510	3510	3510	3510	3510	3510	3510	3510	3510	3510	3510	3510	3546	3546	3546	3546	3546	3546	3546	3546	3546	3546	3546	3546	3546	3546	3546	3546	3546	3546	3546	3546	3546	3546	3546	3546	3546	3546	3546	3546	3546	3546	3546	3546	3546	3546	3546	3546	3546	3546	3546	3546	3546	3546	3510	3546	3510	3510	3510	3510	3510	3510	2281	2252	2252	2237	2237	2223	2194	2181	2167	2181	2153	2153	2140	2127	2114	2101	2101	2088	2088	2076	2063	2063	2051	2039	2027	2015	2015	2003	1992	1980	1958	1958	1947	1936	1925	1925	1904	1904	1883	1883	1873	1863	1853	1843	1833	1833	1824	1804	1804	1795	1795	1786	1768	1759	1759	1750	1750	1741	1741	1732	1723	1715	1690	1690	1690	1681	1681	1673	1657	1657	1641	1634	1634	1626	1618	1611	1611	1603	1603	1596	1596	1589	1581	1574	1567	1553	1553	1546	1539	1539	1532	1532	1525	1519	1499	1492	1486	1486	1486	1486	1480	1473	1473	1467	1461	1449	1443	1437	1437	0	0	0	0	0	0	0	0	0	0	0	0	0	0	0	0	0	0	0	0	0	0	0	0	0	0	0	0	0	0	0	0	0	0	0	0	0	0	0	0	0
0	0	0	0	0	0	0	0	0	0	1431	1431	1437	1437	1443	1443	1449	1461	1467	1480	1480	1486	1492	1499	1499	1506	1512	1519	1519	1525	1525	1532	1539	1546	1553	1560	1567	1567	1574	1574	1589	1596	1611	1618	1618	1626	1626	1626	1626	1634	1634	1634	1641	1649	1673	1673	1681	1690	1706	1715	1732	1741	1750	1750	1759	1759	1768	1768	1786	1795	1795	1804	1814	1814	1824	1824	1833	1843	1843	1853	1853	1863	1873	1883	1883	1883	1883	1883	2392	2376	2376	2359	2359	1958	1958	2376	2376	2376	2392	2409	2409	2409	2426	2426	2426	2426	2409	2409	2409	2409	2409	2409	2409	2426	2426	2426	2426	2409	2409	2426	2409	2409	2409	2409	2409	2443	2426	2426	2443	2443	2426	2426	2426	2426	2426	2426	2426	2426	2426	2426	2409	2409	2409	3373	3406	3406	3406	3406	3406	3373	3373	3406	3406	3406	3406	3373	3406	3406	3406	3440	3440	3440	3440	3440	3440	3406	3406	3406	3373	3373	3406	3440	3440	3440	3440	3440	3406	3406	3406	3373	3373	3373	3373	3406	3440	3475	3475	3510	3510	3546	3546	3546	3546	3546	3546	3546	3546	3510	3546	3546	3546	3546	3510	3546	3546	3546	3546	3546	3546	3546	3546	3546	3546	3546	3510	3546	3546	3546	3546	3546	3546	3546	3546	3546	3510	3510	3510	3510	3510	3510	3510	3510	3510	3510	3510	3510	3510	3510	3510	3510	3510	3510	3510	3510	3510	3510	3475	3510	3510	3510	3510	3510	3546	3546	3546	3546	3546	3546	3546	3546	3546	3583	3546	3546	3546	3546	3546	3546	3546	3546	3546	3546	3546	3546	3546	3546	3546	3546	3546	3546	3546	3546	3546	3546	3546	3546	3546	3546	3546	3546	3546	3546	3546	3546	3510	3510	3475	3406	3277	3186	3157	3157	3157	3129	3129	3129	3101	3101	3073	3073	3073	3073	3073	3073	3073	3101	3073	3073	3073	3073	3073	3101	3073	3073	3073	3073	3073	3073	3073	3073	3073	3073	3073	3073	3073	3073	3073	3073	3101	3073	3073	3073	3073	3073	3073	3073	3101	3101	3101	3101	3101	3129	3129	3157	3157	3157	3157	3186	3186	3186	3186	3186	3186	3583	3546	3583	3583	3583	3546	3546	3546	3510	3546	3546	3546	3546	3546	3621	3583	3583	3583	3583	3583	3583	3583	3583	3583	3583	3583	3583	3583	3583	3583	3583	3583	3583	3583	3546	3546	3583	3583	3546	3583	3546	3546	3583	3546	3546	3546	3510	3510	3510	3510	3510	3546	3510	3510	3546	3546	3583	3546	3510	3546	3546	3546	3510	3510	3510	3510	3510	3510	3510	3510	3510	3510	3510	3510	3510	3510	3510	3546	3546	3546	3546	3546	3546	3546	3546	3546	3546	3546	3546	3546	3546	3546	3546	3546	3546	3546	3546	3546	3546	3546	3546	3546	3546	3546	3546	3546	3546	3546	3546	3546	3546	3546	3546	3546	3546	3546	3546	3546	3546	3546	3546	3510	3546	3510	3510	3510	3510	3510	2252	2252	2252	2223	2208	2194	2181	2167	2181	2153	2153	2140	2127	2114	2114	2101	2088	2076	2076	2076	2063	2051	2039	2027	2015	2015	2003	1992	1980	1958	1958	1947	1925	1925	1915	1904	1904	1894	1873	1873	1863	1853	1843	1833	1833	1824	1814	1804	1795	1795	1786	1768	1759	1759	1750	1750	1741	1732	1732	1723	1715	1690	1690	1690	1681	1681	1673	1657	1649	1641	1626	1634	1626	1626	1618	1611	1603	1603	1596	1596	1589	1581	1574	1574	1560	1553	1546	1539	1539	1539	1532	1525	1519	1512	1499	1492	1486	1486	1486	1480	1473	1467	1461	1455	1449	1443	1437	1437	0	0	0	0	0	0	0	0	0	0	0	0	0	0	0	0	0	0	0	0	0	0	0	0	0	0	0	0	0	0	0	0	0	0	0	0	0	0	0	0	0
0	0	0	0	0	0	0	0	0	0	1431	1431	1437	1437	1443	1443	1449	1461	1473	1480	1486	1486	1492	1499	1506	1506	1512	1519	1519	1525	1525	1532	1539	1539	1546	1560	1567	1567	1567	1574	1589	1596	1611	1611	1611	1618	1618	1626	1626	1634	1634	1634	1641	1649	1665	1673	1681	1690	1706	1715	1723	1741	1741	1750	1750	1759	1768	1768	1786	1795	1795	1804	1814	1814	1824	1824	1833	1843	1843	1853	1853	1873	1873	1883	1883	1883	1883	1883	1883	2376	2376	2359	1958	1958	1958	1958	1958	1958	2409	2409	2409	2409	2409	2426	2426	2426	2426	2409	2426	2426	2426	2409	2409	2426	2426	2426	2426	2409	2426	2409	2409	2409	2409	2409	2443	2443	2443	2443	2443	2443	2426	2426	2426	2426	2426	2426	2426	2426	2426	2426	2409	2409	2409	0	3440	3440	3406	3440	3440	3406	3406	3406	3406	3406	3406	3406	3406	3406	3440	3440	3440	3440	3440	3440	3440	3440	3406	3406	3406	3406	3406	3440	3440	3440	3440	3440	3406	3406	3406	3406	3406	3406	3406	3406	3440	3475	3475	3475	3510	3546	3546	3546	3546	3546	3546	3546	3546	3546	3546	3546	3546	3546	3510	3510	3510	3546	3546	3546	3510	3546	3546	3510	3510	3510	3510	3510	3510	3546	3510	3546	3546	3546	3546	3546	3546	3546	3546	3510	3510	3510	3510	3510	3510	3510	3510	3510	3510	3510	3510	3510	3510	3510	3510	3510	3510	3510	3510	3510	3510	3510	3510	3510	3546	3546	3546	3546	3546	3546	3546	3546	3546	3546	3546	3546	3546	3546	3546	3546	3546	3510	3510	3546	3546	3546	3546	3546	3546	3546	3546	3546	3546	3546	3546	3546	3546	3546	3546	3546	3546	3546	3546	3546	3546	3546	3510	3510	3475	3341	3277	3186	3157	3157	3157	3129	3129	3101	3101	3101	3073	3073	3073	3073	3073	3073	3073	3073	3073	3073	3073	3073	3073	3101	3101	3101	3073	3073	3073	3073	3073	3073	3073	3073	3073	3073	3073	3073	3073	3073	3101	3073	3073	3073	3073	3073	3073	3073	3101	3101	3101	3101	3101	3129	3129	3157	3157	3157	3157	3186	3186	3186	3186	3216	3216	3583	3546	3583	3583	3583	3546	3546	3546	3510	3546	3546	3546	3546	3546	3546	3583	3583	3583	3583	3583	3583	3583	3583	3583	3583	3583	3583	3583	3583	3583	3546	3583	3583	3583	3546	3546	3546	3546	3546	3546	3546	3546	3546	3546	3546	3546	3546	3546	3510	3510	3510	3546	3510	3510	3546	3546	3546	3546	3510	3510	3546	3546	3510	3510	3510	3510	3510	3510	3510	3510	3510	3510	3510	3510	3510	3510	3510	3546	3546	3546	3546	3546	3546	3546	3546	3546	3546	3546	3546	3546	3546	3546	3546	3546	3546	3546	3546	3546	3546	3546	3546	3546	3546	3546	3546	3546	3546	3546	3546	3546	3546	3546	3546	3546	3546	3546	3546	3546	3546	3546	3546	3510	3546	3546	3546	3546	3510	3510	3510	2252	2252	2223	2194	2181	2181	2153	2153	2153	2153	2140	2140	2114	2114	2101	2088	2088	2088	2076	2063	2063	2039	2027	2003	2003	1992	1992	1969	1958	1958	1947	1936	1925	1915	1904	1894	1894	1873	1863	1863	1853	1843	1833	1833	1824	1814	1814	1804	1795	1786	1768	1759	1759	1750	1750	1750	1741	1732	1723	1715	1690	1690	1690	1681	1681	1673	1657	1649	1641	1634	1634	1626	1626	1618	1611	1603	1603	1596	1596	1581	1574	1574	1574	1560	1553	1546	1546	1539	1539	1532	1525	1519	1512	1499	1492	1486	1486	1480	1480	1473	1467	1461	1455	1449	1443	1437	1437	0	0	0	0	0	0	0	0	0	0	0	0	0	0	0	0	0	0	0	0	0	0	0	0	0	0	0	0	0	0	0	0	0	0	0	0	0	0	0	0	0
0	0	0	0	0	0	0	0	0	0	1431	1431	1437	1437	1443	1443	1449	1461	1473	1480	1480	1486	1499	1499	1506	1506	1512	1519	1519	1525	1525	1532	1539	1546	1553	1560	1567	1567	1567	1574	1589	1589	1603	1611	1611	1618	1618	1618	1626	1626	1634	1634	1634	1649	1665	1673	1681	1690	1698	1706	1723	1732	1750	1750	1750	1759	1768	1768	1786	1795	1795	1804	1804	1814	1824	1833	1833	1843	1843	1853	1853	1863	1873	1873	1883	1883	1894	1894	1915	1925	1936	1947	1947	1958	1958	1958	1958	2409	2409	2426	2409	2409	2426	2426	2426	2426	2426	2426	2426	2426	2426	2426	2426	2409	2426	2426	2426	2409	2426	2426	2409	2426	2426	2426	2460	2443	2443	2443	2443	2443	2426	2426	2426	2426	2409	2409	2426	2426	2426	2426	2426	2426	2409	3475	3475	3440	3440	3440	3440	3440	3440	3406	3406	3406	3406	3406	3440	3440	3440	3440	3440	3440	3440	3440	3440	3440	3406	3406	3406	3406	3440	3440	3475	3475	3475	3475	3475	3406	3406	3406	3406	3406	3406	3406	3440	3440	3475	3475	3510	3546	3546	3546	3546	3546	3546	3546	3546	3510	3510	3546	3546	3510	3510	3510	3546	3546	3546	3546	3510	3510	3546	3546	3510	3510	3510	3510	3546	3546	3510	3510	3546	3546	3546	3546	3510	3510	3546	3510	3510	3510	3546	3510	3510	3510	3510	3510	3510	3510	3510	3510	3510	3510	3510	3510	3510	3510	3510	3510	3510	3510	3510	3510	3546	3546	3546	3546	3546	3546	3546	3546	3546	3583	3546	3546	3546	3546	3546	3546	3510	3510	3546	3546	3546	3546	3546	3546	3546	3546	3546	3546	3546	3546	3546	3546	3546	3546	3546	3546	3546	3546	3546	3546	3546	3546	3510	3510	3510	3277	3246	3186	3157	3129	3129	3101	3129	3101	3101	3073	3073	3073	3073	3073	3073	3046	3073	3073	3073	3073	3073	3101	3073	3073	3101	3101	3073	3073	3073	3073	3073	3073	3073	3073	3073	3073	3073	3073	3073	3073	3073	3073	3073	3073	3073	3073	3073	3073	3101	3101	3101	3101	3101	3101	3129	3157	3157	3157	3186	3186	3186	3216	3216	3216	3216	3583	3546	3546	3583	3546	3546	3546	3510	3510	3510	3510	3510	3546	3546	3583	3583	3621	3583	3583	3583	3583	3583	3583	3583	3583	3583	3583	3583	3583	3583	3583	3583	3583	3583	3546	3546	3583	3546	3546	3546	3546	3546	3583	3583	3546	3546	3546	3546	3546	3546	3510	3546	3546	3546	3546	3546	3546	3546	3546	3546	3546	3546	3510	3510	3510	3510	3510	3510	3510	3510	3510	3510	3510	3510	3510	3510	3510	3546	3546	3546	3546	3546	3546	3546	3546	3546	3546	3546	3546	3546	3546	3546	3546	3546	3546	3546	3546	3546	3546	3546	3546	3546	3546	3546	3546	3546	3546	3546	3546	3546	3546	3546	3546	3546	3546	3546	3546	3546	3546	3546	3546	3510	3546	3546	3546	3510	3510	3510	3510	3475	2237	2208	2194	2181	2167	2153	2153	2153	2153	2140	2127	2114	2101	2101	2088	2088	2088	2076	2076	2051	2039	2027	2015	2015	2003	1992	1969	1958	1958	1947	1925	1925	1915	1904	1904	1894	1873	1873	1873	1863	1843	1833	1833	1824	1814	1814	1804	1795	1786	1768	1759	1759	1750	1750	1741	1732	1732	1723	1715	1690	1690	1690	1681	1681	1673	1657	1649	1641	1634	1634	1626	1626	1618	1611	1603	1603	1596	1589	1581	1581	1574	1567	1560	1553	1553	1546	1546	1539	1539	1532	1519	1512	1499	1492	1486	1486	1480	1480	1473	1467	1461	1461	1449	1443	1437	1437	0	0	0	0	0	0	0	0	0	0	0	0	0	0	0	0	0	0	0	0	0	0	0	0	0	0	0	0	0	0	0	0	0	0	0	0	0	0	0	0	0
0	0	0	0	0	0	0	0	0	0	1431	1437	1437	1437	1443	1443	1455	1461	1473	1480	1486	1486	1499	1499	1506	1506	1512	1519	1519	1525	1525	1532	1539	1546	1553	1560	1567	1567	1567	1574	1589	1589	1596	1611	1611	1611	1618	1618	1626	1626	1634	1641	1641	1649	1657	1681	1681	1690	1706	1723	1732	1732	1741	1750	1750	1750	1759	1768	1777	1786	1795	1804	1824	1833	1833	1833	1843	1843	1853	1853	1853	1863	1873	1883	1894	1894	1904	1915	1925	1925	1936	1936	1936	1958	1947	1958	1958	1958	2443	2443	2426	2426	2409	2409	2426	2426	2409	2409	2409	2426	2426	2409	2426	2426	2426	2443	2426	2409	2426	2426	2409	2426	2426	2426	2460	2443	2443	2443	2443	2443	2426	2426	2426	2409	2409	2409	2426	2426	2426	2426	2426	2426	0	3510	3510	3510	3475	3475	3475	3475	3440	3440	3440	3406	3440	3406	3440	3440	3440	3440	3440	3440	3440	3440	3440	3440	3406	3406	3406	3440	3440	3440	3475	3475	3475	3475	3475	3440	3440	3440	3406	3406	3406	3406	3440	3440	3475	3475	3510	3546	3546	3546	3546	3546	3546	3546	3510	3510	3510	3510	3546	3546	3510	3510	3546	3546	3546	3546	3510	3546	3546	3546	3546	3546	3546	3546	3546	3546	3546	3546	3546	3546	3546	3546	3510	3510	3546	3510	3510	3510	3546	3510	3510	3510	3510	3510	3510	3510	3510	3510	3510	3510	3510	3510	3510	3510	3510	3510	3510	3510	3510	3510	3546	3546	3546	3546	3546	3546	3546	3546	3546	3546	3546	3546	3546	3546	3546	3510	3546	3510	3546	3546	3546	3546	3546	3546	3546	3546	3546	3546	3546	3546	3546	3546	3546	3546	3546	3546	3546	3546	3546	3546	3546	3546	3510	3510	3510	3246	3186	3157	3157	3129	3129	3101	3101	3101	3101	3073	3073	3073	3073	3046	3073	3046	3073	3073	3073	3073	3073	3073	3073	3101	3101	3073	3073	3073	3073	3073	3073	3073	3073	3073	3073	3073	3073	3073	3073	3073	3101	3101	3073	3073	3073	3073	3073	3073	3101	3101	3101	3101	3101	3129	3129	3157	3186	3186	3186	3186	3216	3216	3216	3216	3216	3475	3475	3546	3546	3546	3546	3546	3546	3510	3510	3510	3510	3546	3546	3583	3583	3583	3583	3583	3583	3583	3583	3583	3583	3583	3621	3583	3583	3583	3583	3583	3583	3583	3546	3546	3546	3583	3546	3546	3546	3546	3546	3546	3583	3546	3546	3546	3546	3546	3546	3510	3510	3546	3546	3546	3546	3583	3546	3546	3546	3546	3546	3510	3510	3510	3510	3510	3510	3510	3510	3510	3510	3510	3510	3510	3510	3510	3546	3546	3546	3546	3546	3546	3546	3546	3546	3546	3546	3546	3546	3546	3546	3583	3546	3546	3546	3546	3546	3546	3546	3546	3546	3546	3546	3546	3546	3546	3546	3546	3546	3546	3546	3546	3546	3546	3546	3546	3546	3546	3546	3546	3546	3546	3546	3546	3546	3510	3510	3510	2223	2223	2194	2181	2181	2181	2167	2167	2167	2153	2140	2140	2114	2114	2101	2088	2088	2076	2076	2076	2051	2039	2027	2015	2003	1992	1980	1969	1958	1958	1947	1925	1925	1915	1904	1904	1894	1873	1873	1863	1853	1843	1833	1833	1833	1814	1804	1795	1786	1786	1768	1759	1750	1750	1741	1741	1732	1732	1723	1715	1706	1690	1690	1681	1681	1673	1657	1649	1649	1634	1641	1634	1626	1618	1611	1603	1596	1596	1596	1589	1581	1574	1574	1560	1560	1553	1546	1546	1539	1539	1539	1525	1519	1499	1492	1486	1486	1480	1480	1473	1467	1461	1455	1443	1437	1437	1437	0	0	0	0	0	0	0	0	0	0	0	0	0	0	0	0	0	0	0	0	0	0	0	0	0	0	0	0	0	0	0	0	0	0	0	0	0	0	0	0	0
0	0	0	0	0	0	0	0	0	0	1431	1437	1437	1437	1443	1449	1461	1467	1473	1480	1480	1486	1492	1499	1506	1506	1506	1519	1519	1519	1525	1532	1539	1546	1553	1560	1560	1567	1567	1574	1581	1589	1596	1611	1611	1618	1618	1618	1626	1626	1634	1634	1641	1657	1665	1673	1681	1681	1706	1715	1723	1732	1741	1741	1750	1750	1759	1768	1768	1777	1786	1804	1833	1833	1833	1833	1843	1843	1843	1863	1853	1873	1873	1883	1894	1904	1904	1915	1925	1936	1936	1947	1936	1936	1947	1958	1958	1958	1969	2426	2426	2426	2426	2426	2426	2426	2409	2409	2409	2409	2409	2409	2409	2426	2426	2443	2426	2426	2426	2426	2409	2426	2426	2426	2443	2443	2443	2443	2443	2426	2426	2426	2426	2426	2409	2426	2426	2426	2426	2426	2426	2426	3546	3546	3510	3510	3475	3475	3475	3475	3440	3440	3440	3440	3440	3440	3440	3440	3440	3440	3440	3440	3440	3440	3440	3440	3440	3406	3406	3440	3440	3440	3475	3475	3475	3475	3475	3440	3440	3440	3406	3406	3406	3406	3440	3440	3440	3440	3475	3475	3546	3546	3546	3546	3546	3546	3546	3510	3510	3510	3546	3546	3510	3510	3546	3546	3546	3546	3510	3510	3510	3510	3510	3510	3510	3510	3510	3546	3546	3546	3546	3546	3546	3510	3510	3510	3510	3510	3510	3510	3546	3510	3510	3510	3510	3510	3510	3510	3510	3510	3510	3510	3510	3510	3510	3510	3475	3510	3510	3510	3510	3510	3546	3546	3546	3546	3546	3546	3546	3546	3546	3546	3546	3546	3546	3583	3546	3546	3546	3546	3546	3546	3583	3583	3583	3546	3546	3546	3546	3546	3546	3546	3546	3546	3546	3546	3546	3546	3546	3546	3546	3546	3546	3546	3510	3510	3510	3186	3186	3157	3129	3129	3129	3101	3101	3101	3101	3101	3101	3073	3073	3046	3046	3046	3046	3073	3073	3073	3073	3073	3073	3073	3101	3073	3073	3073	3073	3073	3073	3073	3073	3073	3073	3073	3073	3073	3073	3073	3073	3073	3073	3073	3073	3073	3101	3101	3101	3101	3101	3101	3101	3129	3129	3186	3186	3186	3186	3186	3216	3186	3216	3216	3216	3440	3475	3475	3546	3546	3546	3546	3510	3510	3510	3510	3510	3546	3510	3583	3583	3583	3583	3583	3583	3583	3583	3546	3583	3583	3583	3583	3583	3583	3583	3583	3583	3546	3546	3546	3546	3583	3546	3546	3546	3546	3546	3546	3546	3510	3546	3546	3510	3510	3510	3546	3546	3546	3546	3546	3583	3583	3546	3546	3546	3546	3546	3510	3510	3510	3546	3510	3510	3510	3510	3510	3510	3510	3510	3510	3510	3510	3546	3546	3546	3546	3546	3546	3546	3546	3546	3546	3546	3546	3546	3546	3546	3546	3546	3546	3546	3546	3546	3546	3546	3546	3546	3546	3546	3546	3546	3546	3546	3546	3546	3546	3546	3546	3546	3546	3546	3546	3546	3546	3546	3510	3510	3546	3510	3510	3510	3510	3510	3475	2194	2208	2194	2181	2181	2181	2167	2153	2153	2153	2140	2140	2127	2114	2114	2101	2088	2076	2088	2076	2051	2039	2027	2015	2003	1992	1980	1969	1958	1958	1947	1936	1925	1915	1915	1904	1894	1883	1873	1873	1853	1843	1833	1833	1833	1824	1804	1795	1786	1786	1777	1759	1750	1750	1741	1741	1732	1723	1723	1715	1706	1698	1690	1690	1681	1673	1657	1649	1649	1634	1634	1626	1626	1618	1611	1603	1603	1596	1596	1589	1581	1574	1574	1560	1553	1553	1546	1539	1539	1539	1532	1532	1519	1499	1492	1486	1480	1480	1480	1473	1467	1461	1443	1443	1437	1437	1437	0	0	0	0	0	0	0	0	0	0	0	0	0	0	0	0	0	0	0	0	0	0	0	0	0	0	0	0	0	0	0	0	0	0	0	0	0	0	0	0	0
0	0	0	0	0	0	0	0	0	0	1431	1437	1437	1443	1449	1455	1461	1473	1480	1480	1486	1486	1492	1492	1492	1499	1512	1512	1512	1519	1525	1532	1539	1546	1553	1560	1560	1560	1567	1574	1581	1589	1596	1611	1611	1611	1618	1618	1626	1626	1649	1641	1641	1657	1665	1673	1673	1681	1706	1715	1723	1723	1741	1741	1750	1750	1759	1768	1768	1786	1795	1804	1804	1833	1833	1833	1843	1843	1843	1853	1863	1873	1873	1894	1894	1904	1915	1915	1925	1936	1936	1936	1936	1947	1947	1958	1969	1992	1992	1992	2426	2426	2409	2409	2426	2426	2409	2409	2409	2409	2409	2409	2409	2426	2426	2443	2426	2426	2426	2426	2409	2409	2409	2426	2443	2443	2443	2443	2443	2426	2426	2426	2426	2426	2409	2426	2426	2426	2426	2426	2426	0	3510	3510	3510	3475	3475	3475	3475	3475	3440	3440	3440	3440	3440	3440	3440	3440	3440	3440	3440	3440	3440	3440	3440	3440	3440	3406	3440	3440	3440	3475	3440	3475	3475	3475	3475	3440	3440	3440	3406	3406	3406	3406	3440	3440	3475	3475	3475	3510	3510	3510	3546	3510	3546	3546	3510	3510	3510	3510	3546	3546	3510	3510	3510	3510	3546	3510	3510	3510	3510	3510	3510	3510	3510	3510	3510	3510	3546	3546	3546	3546	3546	3510	3510	3510	3510	3510	3510	3510	3546	3510	3510	3546	3510	3510	3510	3510	3510	3510	3510	3510	3510	3510	3510	3510	3510	3510	3510	3510	3510	3510	3510	3546	3546	3546	3546	3546	3546	3546	3546	3546	3546	3546	3546	3546	3546	3546	3546	3546	3546	3546	3583	3583	3583	3546	3583	3546	3546	3546	3546	3546	3546	3546	3546	3546	3546	3546	3546	3546	3546	3546	3546	3546	3510	3510	3510	3277	3186	3157	3129	3129	3129	3101	3101	3101	3101	3073	3073	3073	3073	3046	3073	3046	3073	3073	3073	3073	3073	3073	3073	3073	3073	3073	3073	3046	3046	3046	3046	3073	3073	3073	3073	3073	3073	3073	3073	3073	3073	3073	3073	3073	3073	3101	3101	3101	3101	3101	3101	3101	3101	3129	3129	3157	3186	3186	3186	3186	3216	3216	3216	3216	3216	3475	3475	3510	3510	3546	3510	3546	3546	3546	3546	3546	3546	3546	3546	3583	3583	3583	3583	3583	3583	3583	3583	3583	3583	3583	3583	3583	3583	3583	3583	3583	3583	3583	3546	3546	3546	3546	3546	3546	3546	3546	3546	3546	3546	3510	3510	3510	3510	3546	3546	3546	3546	3546	3546	3546	3546	3583	3546	3546	3546	3546	3546	3510	3510	3510	3510	3510	3510	3510	3510	3510	3510	3510	3510	3510	3510	3510	3546	3546	3546	3546	3546	3546	3546	3546	3546	3546	3546	3546	3546	3546	3546	3546	3546	3546	3546	3546	3546	3546	3546	3546	3546	3546	3546	3546	3546	3546	3546	3546	3546	3546	3546	3546	3546	3546	3546	3546	3546	3546	3546	3546	3510	3546	3510	3510	3510	3510	3510	3475	2194	2194	2194	2181	2181	2181	2167	2153	2167	2153	2140	2140	2127	2114	2114	2101	2088	2076	2088	2076	2051	2039	2027	2015	2003	1992	1980	1969	1958	1958	1947	1936	1925	1925	1915	1904	1894	1883	1873	1863	1843	1843	1833	1833	1833	1824	1814	1795	1795	1786	1777	1759	1759	1750	1741	1741	1732	1723	1723	1715	1706	1698	1690	1690	1681	1673	1657	1657	1641	1634	1641	1634	1626	1611	1611	1603	1596	1596	1596	1589	1581	1574	1567	1560	1553	1553	1546	1539	1539	1539	1532	1525	1519	1499	1492	1486	1480	1480	1480	1473	1467	1461	1455	1437	1437	1437	1437	0	0	0	0	0	0	0	0	0	0	0	0	0	0	0	0	0	0	0	0	0	0	0	0	0	0	0	0	0	0	0	0	0	0	0	0	0	0	0	0	0
0	0	0	0	0	0	0	0	0	0	1431	1437	1437	1437	1449	1455	1467	1467	1473	1480	1486	1486	1492	1492	1492	1499	1512	1506	1512	1512	1525	1532	1539	1553	1560	1560	1560	1567	1567	1574	1581	1589	1596	1603	1611	1611	1618	1618	1626	1626	1649	1641	1649	1657	1665	1673	1673	1681	1706	1715	1723	1732	1741	1741	1750	1750	1759	1768	1768	1786	1786	1795	1804	1804	1833	1824	1824	1843	1843	1843	1863	1873	1873	1904	1915	1915	1925	1925	1936	1936	1936	1936	1936	1947	1947	1958	1969	1992	1992	1992	2426	2409	2409	2426	2426	2426	2426	2409	2409	2426	2409	2409	2409	2426	2426	2443	2443	2426	2426	2409	2409	2409	2409	2409	2443	2443	2443	2443	2443	2426	2426	2426	2426	2426	2409	2426	2426	2426	2426	2426	2426	0	3510	3510	3510	3510	3510	3475	3475	3475	3440	3440	3440	3440	3475	3440	3440	3440	3475	3475	3440	3440	3440	3440	3440	3440	3440	3406	3406	3440	3440	3440	3440	3440	3440	3440	3440	3406	3406	3440	3406	3406	3440	3440	3440	3440	3440	3475	3475	3510	3510	3510	3510	3510	3510	3546	3510	3510	3510	3510	3546	3510	3510	3510	3510	3510	3510	3510	3510	3510	3510	3510	3510	3510	3510	3510	3510	3510	3546	3546	3546	3510	3510	3510	3510	3510	3510	3510	3510	3510	3510	3510	3510	3546	3510	3510	3510	3510	3510	3510	3510	3510	3510	3510	3510	3510	3510	3510	3510	3510	3510	3510	3546	3546	3546	3546	3546	3546	3546	3546	3546	3546	3546	3583	3546	3546	3546	3546	3546	3546	3546	3546	3583	3583	3546	3546	3546	3546	3546	3546	3546	3546	3546	3546	3546	3546	3546	3546	3546	3546	3546	3546	3546	3546	3510	3510	3510	3309	3246	3186	3157	3129	3129	3101	3101	3101	3073	3073	3073	3073	3073	3046	3046	3046	3073	3073	3073	3073	3073	3073	3073	3073	3073	3073	3073	3046	3046	3046	3073	3073	3073	3073	3073	3073	3073	3073	3073	3073	3073	3073	3073	3073	3073	3073	3101	3101	3101	3101	3101	3101	3101	3101	3129	3129	3157	3157	3157	3157	3186	3216	3216	3216	3216	3475	3475	3510	3510	3546	3510	3546	3546	3546	3546	3546	3546	3583	3546	3583	3583	3583	3583	3583	3583	3583	3583	3583	3583	3583	3583	3583	3583	3583	3583	3583	3583	3546	3546	3546	3546	3546	3546	3546	3546	3546	3510	3510	3546	3510	3510	3546	3546	3546	3546	3546	3546	3546	3546	3546	3546	3546	3546	3546	3546	3546	3510	3510	3510	3510	3510	3510	3510	3510	3510	3510	3510	3510	3510	3510	3510	3510	3546	3546	3546	3546	3546	3546	3546	3546	3546	3546	3546	3546	3546	3546	3546	3546	3546	3546	3546	3546	3546	3546	3546	3546	3546	3546	3546	3546	3546	3546	3546	3546	3546	3546	3546	3546	3583	3546	3546	3546	3546	3546	3546	3546	3510	3546	3510	3510	3510	3510	3510	3475	2194	2194	2194	2181	2181	2181	2167	2167	2167	2153	2153	2140	2127	2101	2101	2101	2088	2088	2088	2088	2051	2039	2027	2015	2003	2003	1992	1969	1958	1958	1947	1936	1925	1915	1904	1904	1894	1873	1863	1863	1863	1843	1833	1833	1833	1824	1814	1804	1795	1786	1777	1759	1759	1750	1750	1741	1732	1723	1723	1715	1706	1706	1698	1690	1681	1673	1657	1649	1641	1634	1641	1634	1626	1618	1611	1603	1603	1596	1596	1581	1574	1574	1567	1560	1553	1546	1546	1539	1539	1532	1525	1525	1512	1499	1492	1486	1480	1480	1480	1473	1467	1461	1455	1449	1443	1437	1437	0	0	0	0	0	0	0	0	0	0	0	0	0	0	0	0	0	0	0	0	0	0	0	0	0	0	0	0	0	0	0	0	0	0	0	0	0	0	0	0	0
0	0	0	0	0	0	0	0	0	0	1431	1437	1437	1437	1443	1455	1473	1473	1473	1480	1486	1486	1492	1499	1499	1506	1512	1519	1519	1519	1519	1532	1539	1546	1553	1560	1560	1560	1567	1567	1581	1589	1596	1603	1611	1611	1618	1618	1626	1626	1634	1641	1649	1657	1665	1673	1673	1673	1690	1706	1706	1723	1741	1750	1750	1750	1759	1759	1759	1768	1786	1786	1795	1804	1804	1814	1833	1843	1853	1853	1853	1873	1894	1904	1915	1925	1925	1925	1936	1936	1936	1936	1936	1936	1936	1947	1969	1992	1992	2443	2443	2443	2426	2426	2443	2426	2426	2409	2409	2409	2409	2409	2409	2426	2426	2443	2443	2426	2426	2409	2409	2409	2426	2426	2443	2443	2443	2443	2443	2443	2443	2426	2426	2426	2426	2426	2426	2426	2443	2443	2426	3373	3406	3510	3510	3475	3475	3475	3475	3475	3440	3440	3440	3440	3475	3475	3475	3475	3475	3475	3440	3440	3440	3440	3440	3440	3440	3440	3440	3440	3440	3440	3440	3440	3440	3440	3440	3406	3440	3440	3440	3440	3440	3440	3440	3440	3440	3440	3475	3510	3510	3510	3510	3510	3510	3546	3546	3546	3510	3510	3546	3510	3510	3510	3510	3510	3510	3510	3510	3510	3510	3510	3510	3510	3546	3510	3510	3510	3546	3546	3546	3510	3510	3510	3510	3510	3510	3510	3510	3510	3510	3510	3510	3510	3510	3510	3510	3510	3510	3510	3510	3510	3510	3510	3510	3510	3510	3510	3510	3510	3475	3510	3510	3546	3546	3546	3546	3546	3546	3546	3546	3546	3546	3546	3546	3546	3546	3546	3546	3546	3546	3546	3583	3583	3546	3546	3546	3546	3546	3546	3510	3546	3546	3546	3546	3546	3546	3546	3546	3546	3546	3546	3546	3546	3510	3510	3510	3186	3157	3157	3129	3129	3101	3101	3073	3073	3073	3073	3073	3073	3073	3046	3046	3046	3073	3073	3073	3073	3073	3073	3073	3073	3073	3073	3046	3046	3046	3046	3073	3073	3073	3073	3073	3073	3073	3073	3073	3073	3073	3073	3073	3073	3073	3073	3101	3101	3101	3101	3101	3101	3101	3101	3101	3129	3129	3157	3157	3186	3216	3216	3216	3216	3246	3475	3510	3510	3510	3546	3546	3546	3546	3546	3546	3546	3583	3546	3510	3583	3583	3583	3583	3583	3583	3583	3583	3583	3583	3583	3583	3583	3583	3583	3583	3583	3546	3546	3546	3546	3546	3546	3546	3546	3546	3546	3510	3510	3546	3510	3546	3546	3546	3546	3583	3546	3546	3546	3546	3546	3546	3546	3546	3546	3546	3510	3510	3510	3510	3510	3510	3510	3510	3510	3510	3510	3510	3510	3510	3510	3510	3510	3546	3546	3546	3546	3546	3546	3546	3546	3546	3546	3546	3546	3546	3546	3546	3546	3546	3546	3546	3546	3546	3546	3546	3546	3546	3546	3546	3546	3546	3546	3546	3546	3546	3546	3546	3546	3546	3546	3546	3546	3546	3546	3546	3546	3510	3510	3510	3510	3510	3510	3510	3546	3546	2194	2194	2181	2181	2181	2167	2167	2181	2153	2153	2140	2114	2114	2101	2101	2088	2088	2088	2076	2051	2039	2027	2027	2003	1992	1992	1958	1958	1958	1947	1925	1925	1915	1904	1904	1894	1883	1873	1863	1863	1843	1833	1833	1833	1824	1814	1804	1795	1786	1777	1768	1759	1750	1750	1741	1732	1723	1715	1715	1706	1706	1698	1690	1681	1665	1657	1641	1641	1634	1641	1634	1626	1618	1603	1603	1603	1596	1589	1581	1574	1567	1567	1553	1553	1546	1546	1539	1532	1532	1525	1519	1512	1506	1486	1486	1480	1480	1473	1467	1467	1461	1455	1449	1443	1437	1437	0	0	0	0	0	0	0	0	0	0	0	0	0	0	0	0	0	0	0	0	0	0	0	0	0	0	0	0	0	0	0	0	0	0	0	0	0	0	0	0	0
