0	0	0	0	0	0	0	0	0	0	0	1291	1291	1296	1296	1296	1296	0	0	0	0	0	0	0	0	0	0	0	0	0	0	0	0	0	0	0	0	0	0	0	0	0	0	0	0	0	0	0	0	0	0	0	0	0	0	0	0	0	0	0	0	0	0	0	0	0	0	0	0	2039	2015	1992	1980	1969	1969	1969	1992	1992	0	0	0	0	0	0	0	0	0	0	0	0	0	0	0	0	0	0	0	0	0	0	0	0	0	0	0	0	0	0	0	0	0	0	0	0	0	0	0	2003	2015	2027	2027	0	2027	2051	2063	2088	2076	2076	2076	0	0	0	0	0	0	0	0	0	0	0	0	0	0	0	0	0	0	0	0	0	2711	2711	2690	2690	2690	2690	2690	2690	2690	2669	2669	2690	2690	2690	2690	2690	2690	2669	2669	2690	2690	2669	2669	2669	2669	2669	2669	2690	2690	2690	2733	2754	2733	2733	2733	2754	2754	2754	2754	2754	2799	2777	2822	2799	2799	2777	2777	2777	2754	2754	2754	2777	2777	2799	2799	2799	2799	2799	2799	2799	2822	2822	2845	2845	2845	2869	2893	2917	2942	2967	2967	2967	2942	2942	3998	3998	3998	3998	4045	4045	4045	4093	4093	4192	4243	4296	4350	4406	4463	4463	4521	4521	0	0	0	0	0	0	0	0	0	0	0	0	0	0	6018	6018	6018	6018	6018	5915	5915	5815	5915	5915	5815	5719	5719	5719	5719	0	0	0	0	0	0	0	0	0	0	0	0	0	0	0	0	0	0	0	5364	5364	5364	5364	5364	5364	5364	5282	5202	5202	5050	5050	5050	5050	4977	4977	4977	3698	3698	3698	3659	3659	3659	3659	3659	3659	3659	3698	3698	3698	3738	3738	3738	3738	3698	3738	3738	3698	3698	3698	3698	3659	3659	3621	3621	3621	3621	3621	3621	3621	3621	3659	3659	3659	3659	3659	3659	4906	4906	4838	4838	4906	4906	4906	7959	7959	8146	8146	8146	7959	8146	8146	8146	7959	7959	7959	8146	7959	7959	7959	7959	7959	7959	7959	7959	7779	7779	7779	6235	6235	6235	6349	6235	6235	6235	6235	6235	6235	6235	6235	6235	6349	6349	6468	6468	6468	6592	6468	6468	6468	6349	6349	6349	6349	6349	6349	8146	8146	8146	8146	8146	8146	8146	8146	8146	8146	8343	8146	8146	8146	8146	8146	8146	8146	8146	8146	8146	8146	8146	8146	7959	7959	7959	7959	7959	7959	7959	7959	7959	7959	7959	8146	7959	7959	7959	7959	7959	7959	7959	7959	7959	7959	7959	7959	7959	7959	7959	7959	7959	7959	8146	8146	0	0	0	0	0	0	0	4350	4296	4296	4243	4350	4350	4350	4350	4350	0	0	3998	3952	3998	4045	4045	0	4350	4350	4350	4350	4406	4406	0	0	0	0	0	0	0	0	0	0	0	0	0	0	0	0	0	0	0	0	0	0	0	0	0	3186	3157	3157	3186	3186	3157	3157	3216	0	0	0	0	0	0	0	0	0	0	0	0	3186	3157	3186	3157	3186	3157	3157	0	0	0	0	0	0	0	0	0	2297	2297	2297	2312	2312	2312	2312	2312	2343	3186	3186	3186	3216	3216	3216	3246	3246	0	0	0	0	0	0	0	0	1596	1589	1574	1574	1574	1574	1574	1574	1574	1567	1567	1567	1553	1560	1553	1553	1553	1553	1553	1553	1553	1553	1567	1567	0	0	0	0	0	0	0	0	0	0	0	0	0	0	0	0	0	0	0	0	0	0	0	0	0	0	0	0	0	0	0	0	0	0	0	0	0	0
0	0	0	0	0	0	0	0	0	0	0	1291	1291	1296	1291	1291	1291	0	0	0	0	0	0	0	0	0	0	0	0	0	0	0	0	0	0	0	0	0	0	0	0	0	0	0	0	0	0	0	0	0	0	0	0	0	0	0	0	0	0	0	0	0	0	2015	2027	2039	2039	0	0	2039	2027	2027	1980	1980	1980	1980	2003	2003	0	0	0	0	0	0	0	0	0	0	0	0	0	0	0	0	0	0	0	0	0	0	0	0	0	0	0	0	0	0	0	0	0	0	0	0	0	0	0	1992	2015	2027	2027	2015	2027	2051	2063	2076	2063	2076	2063	2063	0	0	0	0	0	0	0	0	0	0	0	0	0	0	0	0	0	0	0	2711	2711	2711	2669	2669	2669	2690	2690	2690	2669	2669	2669	2690	2669	2669	2669	2669	2669	2669	2669	2669	2669	2669	2669	2669	2669	2669	2669	2669	2690	2733	2754	2754	2733	2733	2733	2754	2754	2754	2754	2754	2777	2777	2777	2777	2777	2754	2754	2754	2754	2754	2754	2777	2777	2777	2777	2777	2799	2799	2799	2799	2822	2822	2845	2845	2845	2869	2893	2917	2917	2942	2942	2942	2967	2967	3998	3998	3998	3998	4045	4045	4045	4093	4045	4192	4243	4296	4296	4406	4406	4463	4463	4521	0	0	0	0	0	0	0	0	0	0	0	0	0	0	6018	6018	6018	6018	5915	5915	5915	5915	5915	5915	5915	5915	5719	5719	0	0	0	0	0	0	0	0	0	0	0	0	0	0	0	0	0	0	0	0	5364	5364	5364	5364	5364	5364	5364	5282	5202	5202	5050	5050	5050	5050	4977	4977	4977	3698	3698	3698	3659	3659	3659	3659	3659	3659	3659	3698	3698	3698	3738	3738	3738	3738	3698	3738	3738	3698	3659	3659	3659	3659	3659	3621	3621	3659	3659	3621	3659	3621	3659	3659	3659	3659	3659	3621	3621	4906	4906	4838	4838	5050	5050	5050	7959	7779	7959	7959	7959	7959	8146	8146	8146	8146	7959	7959	7959	7959	7959	7959	7959	7959	7959	7959	7959	7779	7779	7779	6468	6349	6349	6349	6349	6235	6235	6235	6235	6235	6235	6235	6349	6349	6349	6468	6468	6468	6592	6468	6468	6468	6468	6468	6349	6468	6468	6468	7959	8146	8146	8146	8146	8146	8146	8146	8146	8146	8343	8146	8146	8146	8146	8146	8146	8146	8146	8146	8146	8146	8146	8146	8146	8146	7959	7959	7959	7959	7959	7959	7959	7959	7959	7959	7959	7959	7959	7959	7959	7959	7959	7959	7959	7959	7959	7959	7959	7959	7959	7959	7959	7959	8146	8146	8146	0	0	0	0	0	4350	4350	4243	4296	4296	4350	4350	4350	4350	4296	4243	4243	3998	3952	3998	3998	3998	4243	4350	4350	4350	4350	4350	4350	0	0	0	0	0	0	0	0	0	0	0	0	0	0	0	0	0	0	0	0	0	0	0	0	0	3246	3186	3186	3186	3186	3157	3157	0	0	0	0	0	0	0	0	0	0	0	0	0	3186	3186	3186	3157	3157	3157	3186	3186	0	0	0	0	0	0	0	2281	2297	2297	2297	2312	2312	2297	2312	2312	0	3186	3157	3186	3186	3186	3186	3216	3216	0	0	0	0	0	0	0	0	0	0	1581	1574	1574	1574	1574	1567	1567	1567	1567	1560	1553	1553	1553	1546	1553	1546	1553	1553	1553	1553	1560	1560	0	0	0	0	0	0	0	0	0	0	0	0	0	0	0	0	0	0	0	0	0	0	0	0	0	0	0	0	0	0	0	0	0	0	0	0	0	0
0	0	0	0	0	0	0	0	0	0	0	1287	1291	1291	1287	1291	1291	0	0	0	0	0	0	0	0	0	0	0	0	0	0	0	0	0	0	0	0	0	0	0	0	0	0	0	0	0	0	0	0	0	0	0	0	0	0	0	0	0	0	0	0	0	1992	2015	2015	2027	2027	2015	2015	2039	2027	2027	1980	1969	2003	1980	1992	1969	1958	1958	0	0	0	0	0	0	0	0	0	0	0	0	0	0	0	0	0	0	0	0	0	0	0	0	0	0	0	0	0	0	0	0	0	0	0	0	2027	2015	2027	2039	2051	2027	2027	2051	2051	2063	2063	2051	2051	2063	0	0	0	0	0	0	0	0	0	0	0	0	0	0	0	0	0	0	0	2690	2711	2711	2669	2669	2669	2669	2690	2690	2669	2669	2669	2669	2669	2669	2669	2669	2669	2669	2669	2669	2669	2669	2669	2669	2669	2669	2669	2669	2690	2733	2733	2733	2733	2733	2754	2754	2754	2754	2754	2754	2754	2754	2777	2777	2777	2754	2754	2754	2754	2777	2754	2754	2777	2777	2799	2799	2799	2799	2822	2822	2822	2845	2845	2845	2845	2869	2893	2942	2942	2967	2967	2967	2967	2967	3998	3998	3998	3998	3998	3998	4045	4093	4192	4243	4243	4296	4350	4350	4406	4463	4463	0	0	0	0	0	0	0	0	0	0	0	0	0	6018	6018	6018	6018	6018	6018	6018	6018	6018	6018	6018	6018	6018	6018	0	0	0	0	0	0	0	0	0	0	0	0	0	0	0	0	0	0	0	0	0	0	5282	5364	5364	5364	5364	5364	5364	5282	5202	5202	5050	5050	5050	5050	4977	5050	3698	3698	3698	3698	3659	3659	3659	3659	3659	3659	3659	3698	3738	3698	3738	3738	3738	3738	3698	3698	3738	3698	3659	3659	3659	3659	3659	3659	3659	3659	3659	3621	3659	3659	3659	3659	3659	3659	3659	3621	3621	4906	4906	4906	4838	5050	5050	7959	7959	7959	7959	7959	7959	7959	8146	8343	8146	8146	7959	7959	7959	7959	7959	7959	7959	7959	7959	7959	7959	7779	7779	7779	6468	6468	6349	6349	6349	6235	6235	6235	6235	6235	6235	6235	6349	6349	6349	6468	6468	6349	6468	6468	6468	6349	6349	6349	6349	6468	6468	6468	7959	7959	8146	8146	8146	8146	8146	8146	8146	8146	8146	8146	8146	8146	8146	8146	8146	8146	8146	8146	8146	8146	8146	7959	7959	7959	7959	7959	7959	7959	7959	7959	7959	8146	8146	8146	8146	8146	7959	7959	7959	7959	7959	7959	7959	7959	7959	7959	7959	7959	7959	7959	7959	7959	8146	8146	8146	0	0	4406	4406	4406	4350	4350	4296	4296	4296	4350	4406	4350	4350	4350	4296	4296	3998	3952	3952	3952	3952	4243	4243	4296	4296	4350	4350	4243	4192	4192	0	0	0	0	0	0	0	0	0	0	0	0	0	0	0	0	0	0	0	0	0	0	0	3216	3186	3186	3186	3157	3157	3157	0	0	0	0	0	0	0	0	0	0	0	0	0	3186	3186	3186	3157	3157	3157	3157	3157	0	0	0	0	0	0	2297	2281	2297	2297	2297	2312	2312	2297	2312	2312	0	3186	3186	3186	3216	3216	3216	3246	3246	3246	0	0	0	0	0	0	0	1581	1574	1581	1574	1567	1567	1567	1567	1567	1567	1560	1560	1553	1560	1553	1553	1553	1546	1546	1553	1553	1553	1553	1553	0	0	0	0	0	0	0	0	0	0	0	0	0	0	0	0	0	0	0	0	0	0	0	0	0	0	0	0	0	0	0	0	0	0	0	0	0	0
0	0	0	0	0	0	0	0	0	0	0	1287	1287	1291	1287	1291	1291	0	0	0	0	0	0	0	0	0	0	0	0	0	0	0	0	0	0	0	0	0	0	0	0	0	0	0	0	0	0	0	0	0	0	0	0	0	0	0	0	0	0	1992	2003	1992	2003	2003	2015	2015	2015	2015	2015	2088	2088	1958	1969	1969	2003	1980	1992	1969	1958	1958	0	0	0	0	0	0	0	0	0	0	0	0	0	0	0	0	0	0	0	0	0	0	0	0	0	0	0	0	0	0	0	0	0	0	0	0	2027	2027	2039	2051	2051	2027	2027	2039	2051	2063	2063	2063	2063	2063	0	0	0	0	0	0	0	0	0	0	0	0	0	0	0	0	0	2733	2711	2711	2711	2711	2669	2669	2669	2669	2669	2690	2669	2669	2669	2669	2690	2669	2669	2669	2669	2669	2669	2669	2669	2669	2669	2669	2669	2669	2669	2669	2690	2733	2733	2754	2754	2733	2754	2754	2754	2754	2754	2754	2754	2754	2777	2711	2733	2733	2754	2777	2799	2777	2777	2777	2777	2799	2799	2822	2822	2822	2822	2822	2822	2822	2845	2845	2893	2917	2917	2942	2942	2967	2967	2967	2967	2967	0	3998	3998	3998	3998	3998	4045	4093	4192	4243	4243	4296	4350	4350	4406	4463	4463	0	0	0	0	0	0	0	0	0	0	0	0	0	6124	6124	6018	6018	6018	6018	6018	6018	6018	6018	6018	6124	6018	6018	6018	0	0	0	0	0	0	0	0	0	0	0	0	0	0	0	0	0	0	0	0	0	5282	5282	5364	5364	5364	5364	5364	5282	5202	5202	5050	5050	5050	5050	4977	5050	3698	3698	3698	3698	3698	3659	3659	3659	3659	3659	3659	3698	3698	3698	3698	3698	3738	3738	3698	3738	3738	3698	3698	3659	3659	3659	3659	3659	3659	3659	3621	3621	3621	3621	3621	3621	3621	3621	3621	3621	3621	4906	4906	4906	4906	5050	5050	7959	7959	7959	7959	8146	7959	7959	8146	8146	8146	7959	7959	7959	7959	8146	8146	8146	8146	8146	8146	7959	7959	7779	7779	7608	6853	6592	6468	6468	6349	6349	6349	6235	6235	6235	6235	6235	6349	6349	6349	6468	6349	6349	6468	6468	6468	6349	6349	6349	6349	6349	6468	6468	7959	7959	7959	8146	8146	8146	8146	8146	8146	8146	8146	8146	8146	8146	8146	8146	8146	8146	8146	8146	8146	8146	8146	7959	7959	8146	8146	8146	8146	8146	8146	8146	7959	8146	8146	8146	8146	8146	7959	7959	7959	7959	7959	7959	7959	7959	7959	7959	7959	7959	7959	7959	7959	7959	8146	8146	8146	0	0	4406	4406	4406	4406	4350	4350	4296	4350	4406	4406	4350	4350	4296	4296	4192	3998	3952	3952	3952	4243	4243	4350	4350	4350	4350	4350	4296	4192	4192	0	0	0	0	0	0	0	0	0	0	0	0	0	0	0	0	0	0	0	0	0	0	3246	3186	3157	3157	3157	3157	3129	3129	0	0	0	0	0	0	0	0	0	0	0	0	0	3186	3157	3157	3157	3157	3157	3157	3157	0	0	0	0	0	0	2297	2297	2297	2312	2312	2312	2312	2312	2312	2312	3186	3186	3157	3186	3186	3216	3186	3246	3246	3246	0	0	0	0	0	0	0	1574	1574	1574	1567	1567	1567	1567	1567	1567	1567	1560	1560	1553	1553	1553	1553	1546	1546	1546	1546	1546	1546	1546	1546	0	0	0	0	0	0	0	0	0	0	0	0	0	0	0	0	0	0	0	0	0	0	0	0	0	0	0	0	0	0	0	0	0	0	0	0	0	0
0	0	0	0	0	0	0	0	0	0	0	1287	1287	1296	1291	1291	1291	0	0	0	0	0	0	0	0	0	0	0	0	0	0	0	0	0	0	0	0	0	0	0	0	0	0	0	0	0	0	0	0	0	0	0	0	0	0	0	0	0	0	1992	1992	1992	1992	2003	2015	2015	2027	2015	2015	2039	2039	1958	1958	1958	0	0	0	0	0	0	0	0	0	0	0	0	0	0	0	0	0	0	0	0	0	0	0	0	0	0	0	0	0	0	0	0	0	0	0	0	0	0	0	0	2039	2039	2039	2027	2039	2039	2039	2027	2027	2039	2015	2051	2063	2063	2063	2063	0	0	0	0	0	0	0	0	0	0	0	0	0	0	0	0	2733	2711	2711	2690	2690	2690	2690	2690	2690	2669	2690	2690	2669	2669	2669	2690	2690	2669	2669	2690	2669	2669	2690	2669	2690	2669	2669	2669	2669	2669	2669	2669	2690	2733	2733	2754	2754	2733	2754	2754	2754	2754	2754	2754	2754	2733	2777	2777	2733	2733	2754	2754	2799	2754	2754	2754	2799	2799	2799	2799	2822	2822	2845	2822	2845	2845	2869	2869	2917	2942	2942	2993	3019	3046	2993	2993	2993	3907	3907	3998	3998	3998	3998	3998	4045	4093	4192	4243	4243	4243	4350	4406	4406	4463	4521	4521	4521	0	0	0	0	0	0	0	0	0	0	6235	6235	6124	6124	6124	6018	6018	6018	6124	6018	6235	6235	6349	6349	6018	6018	0	0	0	0	0	0	0	0	0	0	0	0	0	0	0	0	0	0	0	0	5364	5364	5282	5282	5282	5364	5364	5364	5282	5202	5202	5125	5050	5050	4977	4977	5050	4977	3698	3698	3698	3698	3659	3659	3659	3659	3659	3659	3698	3698	3698	3698	3698	3738	3738	3698	3738	3738	3738	3698	3659	3659	3698	3698	3659	3659	3659	3659	3621	3621	3621	3621	3621	3621	3621	3621	3621	3621	4906	4977	4906	4906	5050	5050	7959	7959	7959	7959	7959	7959	7959	7959	8146	8146	7959	7959	7959	8146	8146	8146	7959	7959	7959	7959	7959	7959	7779	7779	7444	6853	6592	6592	6468	6468	6349	6349	6349	6235	6235	6235	6235	6349	6349	6349	6468	6349	6349	6468	6468	6468	6468	6468	6349	6349	6468	6468	7959	7959	7959	7959	8146	8146	8146	8146	8146	8146	8146	8146	8146	8146	8146	8146	8146	8146	8146	8146	8146	8146	8146	8146	8146	8146	8146	8146	8146	8146	7959	8146	8146	7959	8146	8146	7959	8146	7959	7959	7959	7959	7959	7959	7959	7959	7959	7959	7959	7959	7959	7959	7959	7959	7959	7959	7959	7959	0	4406	4406	4406	4406	4406	4350	4350	4350	4350	4350	4350	4350	4350	4296	4296	4192	4093	4045	4045	4045	4243	4296	4350	4350	4350	4350	4350	4350	4192	4192	0	0	0	0	0	0	0	0	0	0	0	0	0	0	0	0	0	0	0	0	0	3277	3246	3186	3157	3157	3157	3129	3129	3129	0	0	0	0	0	0	0	0	0	0	0	0	0	3186	3157	3186	3157	3157	3157	3157	3157	0	0	0	0	0	0	2312	2297	2297	2312	2312	2312	2312	2312	2312	0	3186	3186	3186	3186	3186	3216	3216	3246	3246	3246	0	0	0	0	0	0	0	1581	1574	1574	1567	1567	1567	1567	1560	1560	1560	1560	1560	1560	1553	1553	1553	1553	1546	1546	1546	1546	1546	1546	1546	0	0	0	0	0	0	0	0	0	0	0	0	0	0	0	0	0	0	0	0	0	0	0	0	0	0	0	0	0	0	0	0	0	0	0	0	0	0
0	0	0	0	0	0	0	0	0	0	0	1287	1287	1296	1291	1291	1291	0	0	0	0	0	0	0	0	0	0	0	0	0	0	0	0	0	0	0	0	0	0	0	0	0	0	0	0	0	0	0	0	0	0	0	0	0	0	0	0	1969	1969	1992	1992	1992	2003	2015	2015	2015	2027	1969	1969	2101	2101	2101	1958	1958	0	0	0	0	0	0	0	0	0	0	0	0	0	0	0	0	0	0	0	0	0	0	0	0	0	0	0	0	0	0	0	0	0	0	0	0	0	0	0	2039	2027	2039	2039	2039	2027	2027	2039	2027	2027	2027	2015	2015	2015	2063	2063	0	0	0	0	0	0	0	0	0	0	0	0	0	0	0	0	0	2711	2711	2690	2690	2690	2711	2690	2690	2690	2690	2690	2669	2669	2690	2669	2690	2690	2669	2690	2690	2669	2669	2669	2669	2669	2669	2669	2669	2669	2669	2669	2669	2690	2733	2754	2754	2754	2733	2733	2733	2733	2754	2754	2754	2733	2733	2733	2777	2733	2733	2754	2754	0	2754	2754	2754	2754	2799	2799	2822	2845	2845	2869	2845	2845	2869	2893	2917	2942	2967	2993	3019	3046	3046	3073	3821	3821	3907	3907	3998	3998	3998	3998	3998	4045	4045	4192	4142	4192	4243	4296	4350	4406	4463	4581	4521	4521	0	0	0	0	0	0	0	6468	6349	6349	6349	6349	6349	6349	6349	6235	6349	6235	6468	6468	6468	6468	6468	6468	6349	6349	0	0	0	0	0	0	0	0	0	0	0	0	0	0	0	0	0	0	0	5364	5364	5364	5282	5282	5282	5282	5282	5282	5282	5202	5125	5050	5050	5050	4977	4977	4977	4977	3698	3698	3698	3698	3659	3659	3659	3659	3659	3659	3698	3698	3698	3698	3698	3738	3738	3738	3738	3738	3738	3698	3698	3698	3698	3698	3659	3659	3659	3659	3621	3621	3621	3621	3621	3621	3621	3621	3621	3738	3738	4977	4977	4977	4977	4977	7959	7959	7959	7959	7959	7959	7959	7959	7959	8146	7959	7959	7959	7959	7959	7959	7959	7959	7959	8146	7959	7959	7959	7779	7608	6853	6720	6592	6592	6468	6468	6468	6349	6349	6349	6349	6349	6349	6349	6349	6349	6349	6349	6468	6468	6468	6349	6349	6349	6349	6468	6468	7959	7959	7959	7959	8146	8146	8146	8146	8146	8146	8146	8146	8146	8146	8146	8146	8146	8146	8146	7959	7959	8146	8146	8146	8146	8146	8146	8146	8146	8146	8146	8146	8146	8146	8146	8146	8146	8146	7959	7959	7959	7959	7959	7959	7959	7959	7959	7959	7959	7959	7959	7959	7959	7959	7959	7959	7959	4406	4406	4406	4406	4406	4406	4350	4350	4350	4296	4350	4406	4350	4406	4350	4406	4296	4192	4093	3998	3998	3998	4243	4243	4350	4350	4406	4350	4350	4350	0	0	0	0	0	0	0	0	0	0	0	0	0	0	0	0	0	0	0	0	0	0	0	3216	3216	3186	3186	3157	3157	3157	3157	3157	3157	0	0	0	0	0	0	0	0	0	0	0	0	3186	3157	3186	3157	3157	3157	3157	3129	3129	0	0	0	0	0	2312	2297	2297	2312	2312	2312	2297	2297	2297	0	3186	3186	3186	3186	3186	3186	3186	3216	3216	0	0	0	0	0	0	0	0	1581	1567	1567	1567	1567	1567	1560	1560	1560	1560	1553	1560	1553	1553	1553	1553	1553	1546	1546	1546	1546	1539	1539	1539	0	0	0	0	0	0	0	0	0	0	0	0	0	0	0	0	0	0	0	0	0	0	0	0	0	0	0	0	0	0	0	0	0	0	0	0	0	0
0	0	0	0	0	0	0	0	0	0	0	0	1291	1296	1291	1291	1291	1296	1296	0	0	0	0	0	0	0	0	0	0	0	0	0	0	0	0	0	0	0	0	0	0	0	0	0	0	0	0	0	0	0	0	0	0	0	0	0	0	1969	1992	1992	1992	1992	1980	1992	1992	1980	1980	1969	1969	1969	2101	2101	0	0	0	0	0	0	0	0	0	0	0	0	0	0	0	0	0	0	0	0	0	0	0	0	0	0	0	0	0	0	0	0	0	0	0	0	0	0	0	0	0	2027	2027	2027	2027	2027	2027	2027	2027	2027	2027	2027	2003	1992	1992	0	0	0	0	0	0	0	0	0	0	0	0	0	0	0	0	0	2649	2669	2690	2690	2711	2711	2711	2711	2690	2690	2690	2690	2690	2690	2669	2690	2690	2690	2690	2669	2690	2690	2669	2669	2690	2690	2669	2669	2669	2669	2669	2669	2669	2669	2690	2733	2733	2733	2777	2754	2733	2733	2733	2733	2754	2754	2754	2754	2754	0	0	0	0	0	0	0	2754	2754	2754	2799	2799	2822	2845	2869	2893	2893	2917	2917	2917	2942	2942	2967	2967	3046	3046	3073	3073	3821	3907	3907	3864	3864	3998	3998	3998	3998	4045	4093	4192	4192	4192	4296	4296	4350	4406	4463	4463	4463	4463	0	0	0	6349	6349	6349	6349	6349	6349	6468	6349	6468	6468	6468	6468	6468	6468	6468	6468	6468	6468	6468	6468	6468	6468	6468	6468	0	0	0	0	0	0	0	0	0	0	0	0	0	0	0	0	0	5448	5364	5364	5364	5282	5282	5282	5282	5282	5282	5202	5125	5125	5050	5050	4977	4977	4977	4977	4977	3698	3698	3698	3698	3698	3659	3659	3659	3659	3659	3659	3698	3698	3698	3698	3738	3738	3738	3738	3738	3738	3738	3698	3698	3698	3698	3698	3698	3659	3659	3659	3659	3621	3621	3621	3621	3621	3621	3621	3621	3621	4977	4977	4977	4977	4977	7779	7779	7779	7959	7959	7959	7959	7959	7959	7959	7959	7959	7959	7959	7959	7959	7959	7959	8146	8146	7959	7959	7959	7779	7608	6853	6720	6592	6592	6468	6468	6468	6349	6349	6349	6349	6349	6349	6349	6349	6349	6349	6349	6468	6468	6468	6349	6349	6349	6349	6349	6468	6349	7959	7959	7959	8146	8146	8146	8146	8146	8146	8146	8146	8146	8146	8146	8146	8146	8146	8146	7959	8146	8146	8146	8146	8146	8146	8146	8146	8146	8146	8146	8146	8146	8146	8146	8146	8146	8146	7959	7959	7959	7959	7959	7959	7959	7959	7959	7959	7959	7959	7959	7959	7959	7959	7959	7959	7959	4406	4406	4350	4406	4406	4406	4350	4350	4350	4350	4406	4406	4406	4406	4406	4406	4296	4192	4192	4142	4093	4192	4296	4296	4350	4406	4406	4406	4350	4406	4406	0	0	0	0	0	0	0	0	0	0	0	0	0	0	0	0	0	0	0	0	0	0	3186	3186	3157	3157	3157	3157	3129	3101	3101	3129	0	0	0	0	0	0	0	0	0	0	0	0	0	3186	3157	3157	3157	3157	3157	3129	3157	3157	0	0	0	0	2312	2312	2312	2312	2312	2312	2312	2297	2297	0	3157	3157	3157	3186	3186	3186	3186	3186	3216	0	0	0	0	0	0	0	0	1574	1567	1567	1567	1567	1567	1560	1560	1553	1553	1553	1553	1553	1553	1553	1553	1553	1553	1546	1546	1546	1539	1539	1539	0	0	0	0	0	0	0	0	0	0	0	0	0	0	0	0	0	0	0	0	0	0	0	0	0	0	0	0	0	0	0	0	0	0	0	0	0	0
0	0	0	0	0	0	0	0	0	0	0	0	1291	1291	1291	1291	1291	1291	1291	1291	0	0	0	0	0	0	0	0	0	0	0	0	0	0	0	0	0	0	0	0	0	0	0	0	0	0	0	0	0	0	0	0	0	0	0	0	0	0	1992	1992	1992	1980	1980	1980	1992	1980	1969	1969	1958	1958	0	0	0	0	0	0	0	0	0	0	0	0	0	0	0	0	0	0	0	0	0	0	0	0	0	0	0	0	0	0	0	0	0	0	0	0	0	0	0	0	0	0	2015	2027	2027	2027	2027	2027	2027	2027	2027	2027	2015	2015	2015	2003	2015	2015	0	0	0	0	0	0	0	0	0	0	0	0	0	0	0	2629	2629	2649	2669	2690	2711	2711	2711	2711	2711	2690	2690	2690	2690	2690	2669	2690	2690	2690	2690	2690	2690	2690	2690	2669	2690	2669	2690	2669	2669	2669	2669	2669	2669	2669	2669	2690	2690	2733	2799	2754	2754	2733	2733	2754	2754	2754	2733	2754	2754	0	0	0	0	0	0	0	0	0	0	2822	2822	2845	2893	2917	2917	2917	2942	2942	2942	2942	2942	2967	3046	3046	3046	3073	3073	3821	3821	3864	3907	3907	3952	3952	3952	3952	3998	4045	4093	4142	4192	4296	4296	4350	4350	4406	4406	4406	4463	6235	6235	6235	6235	6235	6349	6349	6468	6468	6468	6468	6468	6468	6468	6468	6468	6468	6468	6468	6468	6468	6468	6468	6468	6468	6468	6349	6349	0	0	0	0	0	0	0	0	0	0	0	0	0	0	0	5448	5448	5364	5364	5364	5282	5282	5202	5202	5282	5202	5050	5050	5125	5050	4977	4977	4977	4977	4977	4977	3738	3698	3698	3698	3698	3659	3659	3659	3659	3659	3659	3659	3659	3698	3698	3738	3738	3738	3738	3738	3738	3738	3698	3698	3698	3698	3698	3698	3698	3698	3659	3659	3659	3621	3621	3621	3621	3621	3621	3621	3621	4977	4977	4977	4977	4906	4906	7779	7779	7779	7959	7959	7959	7959	7959	7959	7959	7959	7959	7959	7959	7959	7959	7959	7959	7959	7959	7959	7959	7779	7444	7137	6720	6592	6468	6468	6349	6349	6349	6349	6235	6349	6235	6349	6235	6235	6349	6349	6349	6349	6349	6468	6349	6468	6349	6349	6349	6468	6349	7959	7959	7959	7959	7959	8146	8146	8146	8146	8146	8146	8146	8146	8146	7959	7959	8146	7959	7959	7959	7959	8146	8146	8146	8146	8146	8146	8146	8146	8146	8146	8146	8146	8146	8146	8146	8146	8146	7959	7959	7959	7959	7959	7959	7959	7959	7959	8146	8146	7959	7959	7959	7959	7779	7779	4350	4350	4350	4350	4350	4350	4350	4350	4350	4350	4350	4406	4406	4406	4406	4406	4350	4243	4243	4243	4142	4093	4192	4243	4243	4350	4406	4406	4406	4406	4406	4406	4406	0	0	0	0	0	0	0	0	0	0	0	0	0	0	0	0	0	0	0	3216	3186	3186	3186	3157	3157	3157	3157	3129	3101	3101	3129	0	0	0	0	0	0	0	0	0	0	0	0	0	3186	3157	3157	3157	3157	3157	3129	3157	3157	3157	3157	0	0	2312	2312	2312	2312	2312	2312	2312	2297	2297	3186	3157	3157	3186	3186	3186	3186	3186	3186	0	0	0	0	0	0	0	1589	1581	1574	1574	1567	1567	1567	1567	1560	1560	1553	1553	1553	1553	1553	1553	1553	1553	1553	1553	1546	1546	1546	1539	1539	1539	0	0	0	0	0	0	0	0	0	0	0	0	0	0	0	0	0	0	0	0	0	0	0	0	0	0	0	0	0	0	0	0	0	0	0	0	0	0
0	0	0	0	0	0	0	0	0	0	0	0	1291	1291	1291	1291	1291	1291	1287	1287	0	0	0	0	0	0	0	0	0	0	0	0	0	0	0	0	0	0	0	0	0	0	0	0	0	0	0	0	0	0	0	0	0	0	0	0	0	0	2003	2015	2015	1980	1980	1980	1980	1980	1969	1969	1958	1958	0	0	0	0	0	0	0	0	0	0	0	0	0	0	0	0	0	0	0	0	0	0	0	0	0	0	0	0	0	0	2015	2015	2003	2003	2003	0	0	0	0	0	0	0	2015	2027	2027	2027	2039	2027	2027	2027	2027	2027	2027	2015	2015	2003	1992	1992	0	0	0	0	0	0	0	0	0	0	0	0	0	2629	2629	2629	2629	2649	2669	2733	2711	2733	2711	2711	2711	2711	2690	2690	2690	2690	2669	2690	2690	2690	2711	2690	2690	2690	2690	2690	2690	2669	2669	2690	2669	2669	2669	2669	2669	2649	2669	2669	2690	0	2799	2754	2754	2754	2754	2754	2754	2754	2733	2754	2754	0	0	0	0	0	0	0	0	0	0	2822	2822	2822	2893	2917	2942	2942	2942	2942	2942	2942	2942	3019	3046	3046	3046	3073	3073	3821	3864	3864	3864	3864	3907	3952	3952	3952	3998	4045	4093	4142	4192	4296	4350	4406	4406	4406	4406	4406	4463	6235	6468	6349	6349	6349	6349	6468	6468	6468	6468	6468	6468	6468	6592	6468	6468	6468	6468	6468	6468	6468	6468	6468	6468	6468	6468	6468	6468	0	0	0	0	0	0	0	6468	6349	6235	6235	0	0	5626	5535	5448	5448	5364	5364	5364	5282	5282	5202	5202	5125	5050	4977	5050	5050	5050	4977	4977	4977	4977	4977	4977	3738	3698	3698	3698	3698	3659	3659	3659	3659	3659	3659	3659	3659	3698	3698	3698	3698	3698	3738	3738	3738	3738	3698	3698	3698	3698	3698	3698	3698	3659	3659	3659	3659	3621	3621	3621	3621	3621	3621	3659	3659	4977	4977	4977	4906	4838	4838	7959	7959	7959	7959	7959	7959	7959	7959	7959	7959	7959	7959	8146	7959	8146	7959	7959	7959	7959	7959	7959	7779	7779	7444	7137	6720	6592	6468	6349	6349	6349	6349	6349	6349	6235	6235	6349	6235	6235	6235	6349	6349	6468	6468	6468	6468	6468	6349	6349	6349	6468	6349	7959	7959	7959	7959	8146	8146	8146	8146	8146	8146	8146	8146	8146	7959	7959	7959	7959	7959	7959	7959	7959	8146	8146	7959	8146	8146	8146	8146	8146	8146	8146	8146	8146	8146	8146	8146	8146	7959	7959	7959	7959	7959	7959	7959	7959	7959	8146	8146	8146	8146	8146	7959	7959	7959	7779	7608	4350	4350	4350	4350	4350	4350	4350	4350	4350	4350	4406	4406	4406	4406	4406	4350	4350	4296	4192	4192	4142	4243	4243	4296	4350	4406	4406	4406	4406	4406	4406	4406	0	0	0	0	0	0	0	0	0	0	0	0	0	0	0	0	0	3216	3216	3186	3186	3186	3186	3157	3157	3157	3157	3129	3101	3101	0	0	0	0	0	0	0	0	0	0	0	0	0	0	0	3157	3157	3157	3157	3157	3157	3186	3186	3186	3186	3216	3186	3216	3216	3216	3186	3186	3186	3186	3186	3186	3186	3186	3186	3186	3216	3186	3186	3186	3186	0	0	0	0	0	0	0	1581	1581	1574	1574	1574	1567	1567	1567	1560	1560	1553	1553	1553	1553	1553	1553	1553	1553	1553	1553	1539	1546	1539	1539	1539	1539	0	0	0	0	0	0	0	0	0	0	0	0	0	0	0	0	0	0	0	0	0	0	0	0	0	0	0	0	0	0	0	0	0	0	0	0	0	0
0	0	0	0	0	0	0	0	0	0	0	0	1291	1287	1291	1291	1287	1287	1287	1287	0	0	0	0	0	0	0	0	0	0	0	0	0	0	0	0	0	0	0	0	0	0	0	0	0	0	0	0	0	0	0	0	0	0	0	0	0	2015	2003	2015	2015	1992	1992	1980	1980	1980	1969	1958	1958	1947	1947	0	0	0	0	0	0	0	0	0	0	0	0	0	0	0	0	0	0	0	0	0	0	0	0	0	0	0	0	0	2015	2015	2015	2015	2015	2015	0	0	0	0	0	2039	2015	2015	2015	2027	2027	2027	2015	2015	2015	2015	2015	2003	2003	1992	1980	1980	0	0	0	0	0	0	0	2669	2669	0	0	0	0	2609	2609	2629	2629	2649	2669	2669	2733	2733	2733	2733	2733	2711	2711	2690	2690	2690	2690	2690	2690	2711	2711	2711	2690	2690	2690	2690	2669	2669	2690	2669	2669	2669	2669	2669	2649	2649	2649	2649	0	0	0	0	0	2754	2777	2777	2754	0	0	0	0	0	0	0	0	0	0	0	0	0	0	0	2822	2822	0	0	2967	2942	2942	2942	2942	2942	2942	2942	3046	3073	3073	3073	3073	3073	3864	3864	3864	3864	3864	3907	3952	3952	3998	4045	4093	4142	4192	4243	4296	4296	4350	4350	4406	6720	6592	6468	6468	6468	6468	6349	6468	6468	6468	6468	6468	6468	6592	6468	6592	6468	6468	6468	6468	6468	6468	6468	6468	6468	6468	6468	6468	6468	6468	0	0	0	0	6468	6468	6468	6468	6468	6468	6235	0	0	5626	5448	5448	5448	5364	5364	5364	5364	5282	5202	5202	5125	5050	5050	4977	4977	4977	4977	4977	4977	4977	4977	5050	5050	3698	3698	3698	3659	3659	3659	3659	3659	3659	3659	3659	3659	3698	3698	3698	3698	3698	3738	3738	3738	3738	3698	3738	3738	3698	3698	3698	3659	3659	3659	3621	3621	3621	3621	3621	3621	3621	3659	3698	3698	5050	4977	4977	4906	4906	4906	7959	7959	7959	7959	7959	7959	7959	7959	7959	7959	7959	7959	7959	7959	7959	7959	7959	7959	7959	7959	7959	7779	7779	7444	7137	6720	6592	6468	6349	6349	6349	6349	6349	6349	6349	6235	6349	6235	6235	6235	6235	6235	6349	6349	6349	6349	6349	6349	6349	6349	6349	6349	7959	8146	8146	8146	8146	8146	8146	8146	8146	8146	8146	8146	8146	8146	8146	7959	8146	8146	8146	7959	7959	8146	8146	8146	8146	8146	8146	8146	8146	8146	8146	8146	8146	8146	8146	8146	8146	7959	8146	7959	7959	7959	7959	7959	7959	7959	8146	8146	8146	8146	8146	7959	7959	7779	7779	7779	7608	4350	4350	4350	4350	4350	4350	4350	4350	4350	4406	4463	4406	4406	4406	4350	4350	4296	4243	4192	4243	4296	4350	4350	4350	4406	4406	4406	4406	4406	4406	4406	0	0	0	0	0	0	0	0	0	0	0	0	0	0	4350	4350	4350	3216	3216	3157	3157	3157	3157	3157	3157	3157	3157	3129	3129	3101	3101	0	0	0	0	0	0	0	0	0	0	0	0	0	0	3157	3186	3157	3186	3157	3157	3186	3157	3186	3186	3216	3186	3216	3216	3186	3186	3186	3186	3186	3186	3186	3186	3186	3186	3186	3186	3186	3186	3186	3186	0	0	0	0	0	0	1596	1589	1589	1581	1574	1574	1567	1567	1560	1560	1560	1553	1553	1553	1553	1553	1553	1553	1553	1553	1553	1539	1539	1539	1539	1539	1539	0	0	0	0	0	0	0	0	0	0	0	0	0	0	0	0	0	0	0	0	0	0	0	0	0	0	0	0	0	0	0	0	0	0	0	0	0	0
0	0	0	0	0	0	0	0	0	0	0	0	1291	1287	1291	1291	1287	1287	1287	0	0	0	0	0	0	0	0	0	0	0	0	0	0	0	0	0	0	0	0	0	0	0	0	0	0	0	0	0	0	0	0	0	0	0	2003	2003	2015	2015	2015	2015	2015	2015	2003	1992	1980	1980	1969	1958	1958	1936	1936	0	0	0	0	0	0	0	0	0	0	0	0	0	0	0	0	0	0	0	0	0	0	0	0	0	0	0	0	0	2027	2027	2015	2027	2027	2027	2027	2015	2015	2015	2063	2039	2003	2015	2003	2015	2015	2015	2015	2003	2003	2003	2015	2003	2003	2003	2003	2003	2003	0	0	0	0	0	0	2649	2649	2629	2629	0	2609	2589	2589	2609	2609	2629	2649	2649	2733	2733	2733	2733	2711	2711	2711	2690	2690	2669	2669	2669	2690	2690	2690	2690	2690	2690	2690	2690	2669	2669	2669	2669	2669	2669	2669	2669	2649	2649	2649	2649	0	0	0	0	0	0	2777	2777	0	0	0	0	0	0	0	0	0	0	0	0	0	0	0	0	0	0	0	0	2967	2942	2942	2942	2942	2942	2942	2942	0	3073	3073	3073	3073	3073	3864	3864	3864	3864	3864	3952	3952	3952	3998	4045	4045	4142	4192	4243	4243	4350	4350	4350	4350	6720	6592	6468	6468	6468	6468	6349	6349	6349	6468	6468	6468	6468	6468	6468	6468	6468	6468	6468	6468	6468	6468	6468	6468	6468	6468	6468	6468	6349	6235	6018	6018	0	0	6468	6468	6468	6592	6468	6468	6468	0	0	0	5626	5626	5535	5535	5448	5448	5364	5282	5202	5282	5202	5125	5050	4977	5050	5050	4977	4977	4977	4977	4977	5050	5050	3738	3698	3698	3698	3659	3659	3659	3659	3659	3659	3698	3659	3659	3698	3698	3698	3698	3738	3738	3738	3738	3738	3738	3738	3698	3698	3698	3659	3659	3659	3659	3621	3621	3621	3659	3659	3659	3659	3659	3659	5050	4977	4977	4906	4838	4838	4838	7779	7959	7959	7959	7959	7959	7959	7959	7959	7959	7959	7959	7959	7959	7959	7959	7959	7959	7959	7959	7779	7779	7444	6992	6592	6468	6468	6349	6349	6349	6349	6349	6235	6235	6235	6235	6235	6235	6235	6235	6235	6349	6349	6468	6468	6468	6349	6349	6349	6468	6468	6468	8146	8146	8146	8146	8146	8146	8146	8146	8146	8146	8146	8146	8146	8146	7959	8146	8146	8146	7959	7959	8146	8146	8146	8146	8146	8146	8146	8146	8146	8146	8146	8146	8146	8146	8146	8146	7959	8146	7959	7959	7959	7959	7959	7959	7959	7959	8146	8146	8146	8146	7959	7959	7959	7779	7779	7779	4350	4350	4350	4350	4350	4350	4350	4350	4350	4406	4463	4406	4406	4406	4406	4350	4350	4296	4243	4296	4296	4350	4350	4350	4406	4406	4406	4406	4406	4406	4406	0	0	0	0	0	0	0	0	4463	4463	4463	4406	4406	4350	4350	4350	4350	3216	3216	3157	3157	3157	3157	3157	3157	3157	3157	3129	3129	3129	3129	0	0	0	0	0	0	0	0	0	0	0	0	0	0	3157	3157	3157	3186	3186	3157	3186	3186	3186	3186	3216	3186	3186	3186	3186	3186	3157	3186	3186	3186	3186	3186	3186	3186	3186	3186	3186	3186	3186	0	0	0	0	0	0	1596	1596	1581	1581	1574	1574	1574	1567	1567	1560	1560	1553	1553	1546	1546	1546	1546	1546	1546	1546	1546	1546	1546	1539	1539	1539	1539	1539	0	0	0	0	0	0	0	0	0	0	0	0	0	0	0	0	0	0	0	0	0	0	0	0	0	0	0	0	0	0	0	0	0	0	0	0	0	0
0	0	0	0	0	0	0	0	0	0	0	0	1291	1291	1291	1291	1291	1291	1291	0	0	0	2015	2015	2015	0	0	0	0	0	0	0	0	0	0	0	0	0	0	0	0	0	0	0	0	0	0	0	0	0	0	0	1958	1992	1992	2003	2015	2015	2015	2015	2027	2015	2015	2003	1992	2003	2003	2003	2003	1936	1936	0	0	0	0	0	0	0	0	0	0	0	0	0	0	0	0	0	0	0	0	0	0	0	0	0	0	0	0	0	2027	2027	2027	2027	2027	2027	2027	2027	2027	2015	2039	2027	2003	2015	2003	2015	2015	2015	2003	2003	2003	2039	2027	2027	2015	2003	2003	2003	2003	0	0	0	0	0	2649	2649	2629	2629	2629	2629	2589	2609	2589	2629	2629	2629	2629	2733	2733	2733	2733	2733	2711	2711	2711	2690	2690	2669	2669	2690	2690	2711	2690	2690	2669	2669	2669	2669	2669	2669	2669	2669	2669	2669	2669	2649	2649	2629	2629	0	0	0	0	0	0	0	0	0	0	0	0	0	0	0	0	0	0	0	0	0	0	0	0	0	0	0	0	0	0	0	0	0	0	0	0	0	0	0	0	0	0	0	3864	3864	3821	3821	3864	3864	3907	3952	4045	4093	4093	4142	4192	4243	4243	4350	4350	4350	4406	4406	6592	6468	6468	6468	6468	6349	6349	6349	6349	6468	6468	6468	6468	6468	6468	6468	6468	6468	6468	6468	6468	6592	6468	6468	6468	6468	6349	6235	6124	6018	6018	6018	0	6468	6468	6468	6592	6468	6349	6349	0	0	0	5626	5626	5535	5535	5448	5448	5364	5364	5282	5282	5282	4977	4977	4977	5050	5050	4977	4977	4977	4977	4977	5050	5050	3738	3698	3698	3698	3659	3659	3659	3659	3659	3659	3698	3659	3698	3698	3698	3698	3698	3698	3738	3698	3738	3698	3738	3698	3698	3698	3659	3659	3659	3659	3659	3659	3621	3621	3659	3659	3659	3698	3698	3738	5050	4977	4977	4906	4838	4838	7779	7779	7959	7959	7959	7959	7959	7959	7959	7959	7959	7959	7959	7959	7959	7959	7959	7959	7959	7959	7959	7779	7779	7444	7137	6592	6468	6468	6349	6349	6235	6349	6349	6235	6235	6235	6235	6235	6235	6235	6235	6235	6349	6349	6349	6349	6468	6349	6349	6349	6349	6468	6468	8146	8146	8146	8146	8146	8146	8146	8146	8146	8146	8146	8146	8146	8146	7959	8146	8146	8146	7959	7959	8146	8146	8146	8146	7959	7959	7959	7959	8146	8146	7959	7959	8146	8146	8146	8146	8146	8146	7959	7959	7959	7959	7959	7959	7959	7959	8146	8146	7959	8146	7959	7959	7959	7959	7959	7779	7959	4350	4350	4350	4350	4350	4350	4350	4350	4406	4463	4463	4406	4406	4406	4406	4350	4350	4296	4296	4296	4350	4350	4350	4406	4406	4406	4406	4463	4463	4406	0	0	0	0	0	0	0	0	4406	4406	4406	4406	4350	4350	4296	4296	4296	4296	3186	3157	3157	3157	3157	3157	3157	3157	3157	3129	3129	3129	3129	0	0	0	0	0	0	0	0	0	0	0	0	0	0	3186	3157	3157	3186	3186	3157	3186	3186	3186	3186	3216	3186	3186	3186	3186	3186	3157	3186	3186	3186	3186	3186	3186	3186	3216	3216	3186	3216	3216	0	0	0	0	0	0	1596	1589	1581	1581	1581	1574	1567	1567	1567	1560	1560	1560	1553	1546	1546	1546	1546	1546	1546	1546	1546	1546	1546	1546	1539	1539	1539	1539	0	0	0	0	0	0	0	0	0	0	0	0	0	0	0	0	0	0	0	0	0	0	0	0	0	0	0	0	0	0	0	0	0	0	0	0	0	0
0	0	0	0	0	0	0	0	0	0	0	0	1291	1291	1291	1291	1287	1287	1291	0	0	2015	2015	2015	2015	2015	0	0	0	0	0	0	0	0	0	0	0	0	0	0	0	0	0	0	0	0	0	0	0	0	0	0	1969	1992	1992	2003	2003	2015	2015	2015	2027	2027	2039	2039	2003	2003	2015	2003	2003	0	0	0	0	0	0	0	0	0	0	0	0	0	0	0	0	0	0	0	0	0	0	0	0	0	0	0	0	0	0	0	2039	2027	2027	2027	2027	2039	2027	2027	2027	2015	2027	2027	2003	2003	2003	2015	2027	2027	2027	2003	2015	2051	2039	2039	2027	2015	2003	2003	2003	2003	0	0	0	0	2649	2649	2649	2629	2629	2629	2629	2589	2570	2609	2629	2629	2629	2733	2733	2733	2733	2733	2669	2711	2669	2669	2669	2669	2669	2669	2669	2690	2690	2690	2669	2669	2669	2669	2669	2669	2669	2669	2669	2669	2669	2649	2649	2649	2629	0	0	0	0	0	0	0	0	0	0	0	0	0	0	0	0	0	0	0	0	0	0	0	0	0	0	0	0	0	0	0	0	0	0	0	0	0	0	0	0	0	0	0	3864	3864	3864	3864	3864	3907	3907	3998	4045	4093	4142	4192	4192	4243	4243	4350	4406	4350	4350	4406	6592	6468	6468	6468	6468	6349	6349	6349	6349	6468	6468	6468	6468	6468	6468	6592	6468	6468	6468	6468	6592	6592	6468	6468	6468	6468	6349	6235	6124	6018	6018	6018	6124	6349	6349	6349	6468	6468	6349	6349	6349	0	0	0	0	0	5535	5448	5448	5364	5364	5282	5282	5282	4977	4977	4977	5050	4977	5050	4977	5050	4977	5050	5050	5050	3698	3698	3698	3698	3698	3659	3659	3659	3659	3659	3659	3659	3659	3659	3698	3659	3698	3698	3698	3698	3698	3698	3698	3698	3698	3659	3659	3659	3659	3659	3659	3659	3659	3659	3659	3659	3659	3698	3659	3698	5050	5050	4977	4906	4838	4838	7779	7779	7959	7959	7959	7959	7959	7959	7959	7959	7959	7959	7959	7959	7959	7959	7959	7959	7959	7959	7959	7779	7779	7608	7137	6349	6349	6349	6349	6235	6235	6235	6235	6235	6235	6235	6235	6235	6235	6235	6235	6235	6349	6349	6349	6468	6468	6349	6349	6349	6349	6349	6349	6349	8146	8146	8146	8146	8146	8146	8146	8146	8146	8146	8146	8146	8146	7959	8146	7959	7959	7959	7959	8146	8146	8146	8146	7959	7959	7959	7959	7959	7959	7959	7959	8146	8146	8146	7959	8146	8146	7959	7959	7959	7959	7959	7959	7959	7959	7959	8146	8146	7959	7959	7959	7959	7959	7959	7959	8146	8146	4350	4350	4350	4406	4350	4350	4350	4406	4463	4406	4406	4406	4406	4406	4350	4350	4296	4296	4296	4350	4350	4350	4350	4406	4350	4350	4350	4350	0	0	0	0	0	0	0	0	4350	4406	4406	4350	4350	4350	4296	4296	4296	4243	4243	4243	3157	3157	3157	3157	3157	3157	3157	3157	3129	3129	3046	3046	0	0	0	0	0	0	0	0	0	0	0	0	0	0	3186	3157	3157	3157	3157	3157	3157	3157	3157	3157	3186	3186	3186	3186	3186	3186	3186	3186	3186	3186	3186	3186	3186	3216	3216	3186	3186	3216	3216	3216	0	0	0	0	0	1596	1589	1581	1574	1574	1574	1574	1567	1567	1560	1560	1560	1553	1553	1553	1553	1546	1546	1546	1546	1546	1539	1539	1539	1539	1539	1539	1539	0	0	0	0	0	0	0	0	0	0	0	0	0	0	0	0	0	0	0	0	0	0	0	0	0	0	0	0	0	0	0	0	0	0	0	0	0	0
0	0	0	0	0	0	0	0	0	0	0	0	1291	1291	1291	1291	1291	1287	0	0	2015	2015	2015	2015	2015	2015	2015	0	0	0	0	0	0	0	0	0	0	0	0	0	0	0	0	0	0	0	0	0	0	0	0	0	1992	2003	1992	2003	2003	2015	2015	2039	2039	2039	2039	2039	2003	2003	2015	2003	2003	0	0	0	0	0	0	0	0	0	0	0	0	0	0	0	0	0	0	0	0	0	0	0	0	0	0	0	0	0	0	0	2039	2039	2027	2027	2039	2039	2039	2027	2027	2015	2015	2015	2015	2003	2003	2015	2027	2027	2027	2015	2051	2063	2051	2039	2027	2015	2015	2003	1992	1992	0	0	0	0	2649	2629	2629	2609	2609	2589	2589	2570	2589	2609	2629	2629	2629	2733	2733	2733	2733	2733	2669	2669	2669	2669	2669	2669	2649	2669	2669	2669	2690	2690	2690	2669	2669	2669	2669	2669	2669	2669	2669	2669	2669	2669	2669	2649	2649	0	0	0	0	0	0	0	0	0	0	0	0	0	0	0	0	0	0	0	0	0	0	0	0	0	0	0	0	0	0	0	0	0	0	0	0	0	0	0	0	0	0	0	3907	3864	3864	3864	3907	3907	3952	3998	4045	4093	4093	4192	4192	4243	4296	4350	4350	4350	4406	4406	6592	6468	6468	6468	6468	6349	6349	6349	6349	6349	6349	6468	6468	6468	6468	6592	6468	6592	6468	6468	6592	6592	6592	6468	6468	6468	6349	6349	6235	6124	6124	6235	6235	6124	6349	6349	6349	6349	6349	6349	6349	0	0	0	0	0	0	0	0	0	0	0	0	0	0	5050	4977	5050	5050	5050	4977	4977	4977	4977	5050	4977	3698	3698	3698	3698	3698	3659	3659	3659	3621	3659	3659	3659	3659	3659	3659	3659	3659	3698	3698	3698	3698	3698	3698	3698	3698	3659	3659	3659	3659	3621	3621	3659	3659	3659	3659	3659	3659	3698	3698	3738	4977	4977	4977	4906	4838	4838	7959	7959	7959	7959	7959	7959	7959	7959	7959	7959	7959	7959	7959	7959	7959	7959	7959	7959	7959	7959	7959	7779	7779	7444	6349	6349	6235	6235	6235	6235	6235	6235	6235	6235	6235	6235	6235	6235	6235	6235	6235	6235	6349	6349	6349	6468	6468	6468	6349	6349	6349	6349	6349	6349	8146	8146	8146	8146	8146	8146	8146	8146	8146	8146	8146	8146	7959	7959	7959	8146	8146	7959	7959	8146	8146	7959	8146	7959	7959	7959	7959	7959	7959	7959	7959	7959	7959	8146	8146	8146	8146	8146	7959	7959	7959	7959	7959	7959	7959	7959	7959	7959	7959	7959	7959	7959	7959	7959	7959	8146	4350	4350	4350	4406	4406	4350	4350	4350	4406	4406	4406	4406	4406	4406	4406	4350	4350	4350	4350	4350	4350	4350	4350	4350	4350	4350	4296	4296	4296	4296	4045	4045	4045	4045	4045	4192	4192	4350	4406	4406	4350	4350	4350	4350	4296	4296	4243	4243	4243	3157	3157	3157	3157	3157	3157	3129	3157	3129	3129	3101	3101	0	0	0	0	0	0	0	0	0	0	0	0	0	0	3186	3186	3157	3157	3157	3157	3157	3157	3157	3157	3157	3186	3186	3186	3186	3186	3186	3186	3186	3186	3186	3216	3186	3216	3186	3186	3186	3186	3186	3186	0	0	0	0	0	0	1589	1581	1574	1574	1574	1567	1567	1567	1567	1560	1560	1560	1553	1553	1553	1546	1546	1546	1546	1546	1553	1553	1553	1546	1546	1546	1546	0	0	0	0	0	0	0	0	0	0	0	0	0	0	0	0	0	0	0	0	0	0	0	0	0	0	0	0	0	0	0	0	0	0	0	0	0	0
0	0	0	0	0	0	0	0	0	0	0	0	1287	1287	1287	1296	1296	0	0	2015	2015	2003	2003	2015	2015	2015	2015	0	0	0	0	0	0	0	0	0	0	0	0	0	0	0	0	0	0	0	0	0	0	0	0	1958	1969	1980	1980	1992	2015	2015	2015	2027	2039	2039	2051	2051	0	0	0	0	0	0	0	0	0	0	0	0	0	0	0	0	0	0	0	0	0	0	0	0	0	0	0	0	0	0	0	0	0	0	0	0	2039	2039	2039	2039	2039	2039	2039	2039	2027	2015	2027	2015	2015	2015	2003	2015	2027	2039	2039	2051	2063	2063	2063	2051	2039	2027	2015	2003	1992	1992	0	0	0	0	2649	2629	2629	2609	2609	2609	2629	2629	2609	2609	2629	2711	2711	2733	2733	2733	2733	2690	2669	2690	2669	2669	2669	2669	2669	2669	2669	2690	2669	2669	2690	2669	2669	2669	2669	2669	2669	2669	2669	2669	2669	2669	2669	2649	2649	0	0	0	0	0	0	0	0	0	0	0	0	0	0	0	0	0	0	0	0	0	0	0	0	0	0	0	0	0	0	0	0	0	0	0	0	0	0	0	0	0	0	3998	3907	3864	3864	3864	3864	3907	3907	3952	3998	4093	4142	4192	4192	4243	4243	4350	4406	4406	4406	4406	6592	6592	6468	6468	6468	6468	6468	6349	6468	6349	6349	6468	6468	6468	6468	6592	6592	6592	6592	6468	6592	6592	6592	6468	6468	6468	6468	6349	6349	6235	6235	6235	6235	6235	6349	6349	6349	6349	6349	0	0	0	0	0	0	0	0	0	0	0	0	0	0	0	0	5050	4977	5050	5050	5050	4977	4977	4977	5050	5050	5050	3698	3698	3698	3698	3659	3659	3659	3659	3621	3621	3659	3659	3659	3659	3659	3659	3659	3659	3698	3698	3698	3698	3698	3698	3659	3659	3659	3621	3621	3621	3621	3621	3621	3659	3659	3659	3659	3698	3698	3698	4977	4977	4977	4906	4906	4906	7959	7959	7959	7959	7959	7959	7959	7959	7959	7959	7959	7959	7959	7959	7959	7959	7959	7959	7959	7959	7959	7779	7779	7779	6349	6349	6235	6235	6235	6349	6235	6349	6349	6235	6235	6235	6235	6235	6235	6235	6235	6235	6349	6349	6349	6349	6468	6468	6349	6349	6349	6349	6349	6349	8343	8146	8146	8146	8146	8146	8146	8146	8146	8146	8146	8146	8146	7959	7959	7959	8146	7959	7959	7959	7959	7959	7959	7959	7959	7959	7959	7959	7959	7959	7959	7959	8146	8146	8146	8146	8146	8146	8146	8146	8146	8146	7959	7959	7959	7959	7959	7959	7959	7959	7959	7959	7959	7959	8146	8146	4406	4406	4406	4406	4406	4350	4350	4350	4406	4406	4406	4406	4406	4406	4406	4406	4350	4350	4350	4350	4350	4350	4350	4350	4296	4296	4243	4243	4243	4243	3998	3998	4045	4045	4045	4045	4243	4350	4406	4350	4350	4350	4350	4350	4296	4296	4243	4243	4243	3157	3157	3157	3157	3157	3157	3129	3157	3157	3157	3157	3101	0	0	0	0	0	0	0	0	0	0	0	0	0	0	3186	3186	3157	3157	3157	3157	3157	3157	3129	3129	3186	3186	3157	3157	3157	3186	3186	3186	3186	3186	3216	3216	3216	3216	3216	3216	3186	3186	3186	3186	0	0	0	0	0	0	0	1589	1581	1589	1574	1574	1567	1567	1567	1567	1567	1560	1560	1560	1560	1553	1553	1553	1553	1546	1553	1553	1553	1546	1546	1546	1546	0	0	0	0	0	0	0	0	0	0	0	0	0	0	0	0	0	0	0	0	0	0	0	0	0	0	0	0	0	0	0	0	0	0	0	0	0	0
0	0	0	0	0	0	0	0	0	0	0	0	1282	1282	1287	1287	1287	0	0	2003	2003	2003	2003	2003	2003	2015	2003	2003	0	0	0	0	0	0	0	0	0	0	0	0	0	0	0	0	0	0	0	0	0	0	1947	1958	1969	1980	1980	1992	2003	2015	2015	2027	2039	2039	2051	2051	0	0	0	0	0	0	0	0	0	0	0	0	0	0	0	0	0	0	0	0	0	0	0	0	0	0	0	0	0	0	0	0	0	0	0	0	2039	2027	2039	2039	2039	2039	2039	2039	2027	2015	2027	2015	2015	2015	2003	2015	2027	2027	2027	2051	2051	2063	2051	2039	2027	2027	2015	2003	2003	2003	0	0	0	0	2629	2629	2629	2609	2609	2629	2629	2629	2609	2609	2690	2711	2711	2733	2733	2711	2711	2711	2669	2690	2690	2669	2669	2669	2669	2669	2669	2690	2669	2669	2690	2669	2669	2669	2669	2669	2669	2669	2669	2669	2669	2669	2669	2649	2649	0	0	0	0	0	0	0	0	0	0	0	0	0	0	0	0	0	0	0	0	0	0	0	0	0	0	0	0	0	0	0	0	0	0	0	0	0	0	0	0	0	0	3998	3907	3864	3907	3907	3864	3907	3907	3952	3998	4045	4093	4192	4192	4243	4243	4350	4406	4406	4406	4521	6592	6592	6468	6468	6468	6468	6468	6468	6468	6468	6349	6468	6468	6468	6468	6592	6592	6592	6592	6592	6592	6592	6592	6468	6468	6468	6468	6349	6235	6235	6235	6124	6124	6124	6349	6349	6349	6349	6349	0	0	0	0	0	0	0	0	0	0	0	0	0	0	0	5125	5050	5050	5050	5050	5050	4977	5050	4977	5050	5050	4977	3659	3698	3698	3698	3659	3659	3621	3621	3621	3659	3659	3659	3659	3659	3659	3659	3659	3659	3698	3698	3698	3659	3659	3659	3659	3659	3621	3621	3621	3621	3621	3621	3659	3659	3659	3659	3659	3698	3698	3698	3738	4977	4906	4906	4906	4906	7959	7959	7959	7959	7959	7959	7959	7959	7959	7959	7959	7959	7959	7959	7959	7959	7959	7959	7959	7959	7959	7779	7779	7608	6349	6235	6235	6235	6235	6349	6235	6235	6235	6349	6235	6235	6235	6124	6124	6235	6235	6235	6349	6349	6349	6349	6349	6349	6349	6349	6349	6235	6235	6235	8343	8146	8343	8146	8146	8146	8146	8146	8146	8146	8146	8146	8146	8146	8146	8146	8146	8146	8146	7959	8146	8146	8146	7959	7959	7959	7959	7959	7959	7959	7959	7959	8146	8146	8146	8146	8146	8146	8146	8146	8146	8146	7959	7959	7959	7959	7959	7959	7959	7959	7959	7959	7959	7959	8146	8146	4406	4406	4406	4406	4406	4350	4350	4350	4406	4406	4406	4406	4406	4406	4406	4406	4406	4350	4350	4350	4296	4296	4350	4296	4296	4296	4296	4243	4192	4192	4045	3998	3998	3998	4045	4045	4243	4350	4406	4406	4350	4350	4350	4296	4296	4243	4243	4243	4243	3157	3129	3129	3157	3157	3157	3129	3157	3157	3157	3157	0	0	0	0	0	0	0	0	0	0	0	0	0	0	0	3186	3186	3157	3157	3157	3157	3157	3129	3129	3129	3157	3157	3157	3157	3157	3186	3186	3186	3186	3216	3216	3216	3186	3216	3186	3186	3186	3186	3186	3186	0	0	0	0	0	0	0	1589	1581	1589	1581	1574	1567	1567	1567	1567	1567	1567	1560	1560	1560	1553	1553	1539	1539	1546	1546	1539	1539	1546	1546	1546	1546	0	0	0	0	0	0	0	0	0	0	0	0	0	0	0	0	0	0	0	0	0	0	0	0	0	0	0	0	0	0	0	0	0	0	0	0	0	0
0	0	0	0	0	0	0	0	0	0	0	0	1282	1282	1287	1287	1287	0	1992	2003	2003	2003	2003	2003	2003	2003	2003	1992	1992	0	0	0	0	0	0	0	0	0	0	0	0	0	0	0	0	0	0	0	0	0	1947	1947	1969	1980	1980	1980	2003	2015	2015	2027	2027	2027	2051	2051	0	0	0	0	0	0	0	0	0	0	0	0	0	0	0	0	0	0	0	0	0	0	0	0	0	0	0	0	0	1980	1992	1992	1992	1992	2027	2027	2027	2039	2039	2063	2027	2039	2039	2027	2027	2027	2027	2015	2015	2015	2003	2015	2027	2027	2039	2051	2063	2063	2063	2051	2039	2027	2027	2015	2015	2015	0	0	0	0	2629	2629	2629	2609	2609	2629	2629	0	0	2609	2669	2711	2690	2690	2711	2711	2711	2711	2690	2690	2690	2669	2669	2669	2669	2669	2669	2669	2669	2690	2669	2669	2669	2669	2669	2669	2649	2649	2669	2669	2669	2669	2669	2649	2649	0	0	0	0	0	0	0	0	3373	3373	3406	3406	0	0	0	0	0	0	0	0	0	0	0	0	0	0	0	0	0	0	0	0	0	0	0	0	0	0	0	0	0	0	3998	3907	3907	3864	3907	3907	3907	3907	3952	4045	4093	4142	4192	4192	4243	4243	4296	4406	4406	4406	4521	6592	6592	6468	6468	6349	6349	6349	6235	6349	6349	6349	6468	6468	6468	6468	6468	6468	6468	6592	6592	6592	6592	6592	6468	6468	6468	6349	6349	6235	6235	6235	6124	6124	6124	6124	6349	6349	6349	0	0	0	0	0	0	0	0	0	0	0	0	0	0	0	0	5125	5050	4977	5050	5050	5050	4977	4977	4977	5050	4977	4977	3659	3659	3659	3698	3698	3659	3659	3621	3621	3659	3659	3659	3659	3659	3698	3698	3659	3659	3698	3698	3659	3659	3659	3659	3659	3659	3659	3621	3621	3621	3621	3621	3621	3659	3659	3659	3659	3659	3659	3698	4906	4977	4906	4906	4906	4906	7959	7959	7959	7959	7959	7959	7959	7959	7959	7779	7779	7959	7959	7779	7959	7959	7959	7959	7959	7959	7959	7779	7779	7608	6720	6349	6235	6235	6349	6349	6349	6349	6349	6349	6349	6235	6235	6235	6235	6235	6235	6235	6349	6349	6349	6349	6349	6349	6349	6349	6349	6235	6235	6235	8146	8146	8146	8146	8146	8146	8146	8146	8146	8146	8146	8146	8146	8146	8146	8146	8146	8146	8146	7959	8146	8146	8146	7959	7959	7959	7959	7959	7959	7959	7959	7959	8146	8146	8146	8146	8146	8146	8146	8146	8146	8146	7959	7959	7959	7959	7959	7959	7959	7959	7959	7959	7959	7959	8146	4463	4406	4406	4406	4406	4406	4350	4350	4350	4406	4406	4406	4406	4406	4406	4406	4406	4350	4350	4350	4350	4296	4296	4350	4350	4296	4296	4296	4243	4192	4192	4045	3998	3998	3998	4045	4045	4406	4406	4406	4406	4406	4406	4350	4350	4296	4243	4243	4243	4243	3129	3129	3157	3157	3157	3157	3157	3157	3157	3157	3157	0	0	0	0	0	0	0	0	0	0	0	0	0	0	3186	3157	3186	3157	3157	3157	3157	3157	3129	3129	3129	3157	3157	3157	3157	3157	3186	3186	3186	3186	3216	3216	3216	3216	3216	3216	3216	3186	3186	3186	3186	0	0	0	0	0	0	0	0	0	1589	1574	1574	1567	1567	1567	1567	1567	1567	1560	1560	1560	1546	1546	1539	1546	1539	1539	1539	1539	1539	1539	1539	1539	0	0	0	0	0	0	0	0	0	0	0	0	0	0	0	0	0	0	0	0	0	0	0	0	0	0	0	0	0	0	0	0	0	0	0	0	0	0
0	0	0	0	0	0	0	0	0	0	0	0	1282	1282	1287	1287	0	0	2003	2003	2003	2003	2003	2003	2003	2003	2003	2003	2003	0	0	0	0	0	0	0	0	0	0	0	0	0	0	0	0	0	0	0	0	0	1947	1947	1958	1969	1969	1969	1980	2003	2003	2015	2039	2039	0	0	0	0	0	0	0	0	0	0	0	0	0	0	0	0	0	0	0	0	0	0	0	0	0	1969	1969	1980	1980	1980	1980	1992	1992	1992	2003	2015	2027	2027	2051	2076	2076	2063	2051	2063	2039	2027	2027	2027	2015	2015	2015	2015	2003	2015	2015	2027	2051	2051	2063	2051	2051	2039	2039	2027	2027	2015	2015	2015	0	0	0	0	0	0	0	0	0	0	0	0	0	0	2649	2649	2690	2690	2711	2690	2711	2690	2690	2690	2690	2669	2669	2669	2669	2669	2669	2690	2669	2690	2690	2690	2669	2669	2669	2669	2669	2669	2669	2669	2669	2669	2669	2669	3406	3406	3406	0	0	0	3373	3373	0	3373	3373	3406	3373	3373	3373	3373	0	3406	3406	3406	3406	3406	0	0	0	0	0	0	0	0	0	0	0	0	0	0	0	0	0	0	0	0	0	3907	3907	3864	3864	3907	3907	3864	3907	3952	3998	4045	4093	4142	4192	4192	4243	4243	4350	4406	4406	4463	6468	6592	6468	6468	6468	6349	6349	6235	6349	6349	6349	6349	6468	6468	6468	6468	6468	6468	6592	6592	6592	6592	6468	6468	6468	6468	6349	6349	6235	6235	6235	6124	6124	6124	6124	0	0	0	0	0	0	0	0	0	0	0	0	0	0	0	0	0	0	0	0	5050	4977	5050	5050	5050	5050	4977	4977	4977	4977	4977	4977	3659	3698	3659	3659	3659	3621	3621	3621	3659	3659	3659	3659	3659	3698	3698	3698	3659	3698	3659	3659	3659	3659	3659	3659	3659	3621	3621	3621	3621	3621	3621	3659	3659	3659	3698	3659	3659	3698	3698	4906	4906	4906	4906	4906	4906	7959	7959	7959	7959	7959	7959	7959	7959	7959	7959	7959	7959	7779	7779	7779	7779	7959	7959	7959	7959	7959	7779	7779	7959	6853	6235	6235	6235	6349	6349	6349	6349	6349	6349	6349	6349	6235	6235	6235	6235	6235	6235	6349	6349	6349	6349	6349	6349	6349	6235	6349	6235	6235	6235	6235	8146	8146	8146	8146	8146	8146	8146	8146	8146	8146	8146	8146	8146	8146	8146	8146	8146	8146	8146	8146	8146	8146	7959	7959	7959	7959	7959	7959	7959	7959	7959	8146	8146	8146	8146	8146	8146	8146	8146	8146	8146	7959	7959	7959	7959	7959	7959	7959	7959	7959	7959	7959	7959	8146	4463	4463	4406	4406	4406	4350	4350	4350	4350	4350	4406	4406	4406	4406	4406	4406	4406	4350	4350	4350	4350	4350	4350	4350	4350	4296	4350	4296	4243	4192	4093	3998	3952	3998	3998	3998	3998	4406	4406	4406	4406	4406	4406	4350	4350	4296	4243	4243	4243	4243	3157	3157	3157	3157	3157	3157	3157	3157	3157	3157	3157	0	0	0	0	0	0	0	0	0	0	0	0	0	0	3157	3157	3157	3157	3157	3157	3157	3157	3157	3129	3129	3186	3186	3186	3186	3186	3186	3186	3186	3186	3186	3216	3216	3216	3216	3216	3216	3216	3186	3186	3186	0	0	0	0	0	0	0	0	0	1589	1574	1574	1567	1567	1567	1567	1567	1567	1560	1560	1560	1546	1546	1546	1546	1546	1539	1546	1546	1546	1539	1546	1546	0	0	0	0	0	0	0	0	0	0	0	0	0	0	0	0	0	0	0	0	0	0	0	0	0	0	0	0	0	0	0	0	0	0	0	0	0	0
0	0	0	0	0	0	0	0	0	0	0	0	1282	1287	1287	1287	0	0	2003	2015	2015	2015	2015	2015	2003	2003	2003	2003	2003	0	0	0	0	0	0	0	0	0	0	0	0	0	0	0	0	0	0	0	0	0	0	1947	1958	1969	1969	1969	1980	2003	2003	2027	2039	2039	0	0	0	0	0	0	0	0	0	0	0	0	0	0	0	0	0	0	0	0	0	0	0	1980	1980	1980	1980	1980	1980	1980	1980	1980	1980	1992	2003	2015	2015	2027	2063	2063	2063	2063	2063	2063	2039	2027	2027	2027	2015	2015	2015	2015	2015	2015	2015	2015	2027	2003	2039	2027	2051	2027	2027	2015	2015	2015	2015	2015	0	0	0	0	0	0	0	0	0	0	0	0	0	0	2649	2649	2669	2690	2690	2690	2690	2690	2690	2690	2690	2669	2669	2669	2669	2669	2669	2690	2669	2690	2669	2669	2669	2669	2669	2669	2669	2669	2669	2669	2669	2669	2669	2669	3406	3406	3373	3373	3373	3373	3373	3373	3373	3373	3373	3406	3373	3373	3373	3406	3406	3406	3406	3406	3406	3406	3440	3440	3440	3440	0	0	0	0	0	0	3583	3621	3621	3621	3659	3659	0	0	3864	3907	3907	3907	3907	3864	3864	3907	3907	3907	3907	3907	3998	4093	4142	4142	4192	4192	4243	4243	4350	4350	4406	4463	6592	6592	6468	6468	6468	6349	6349	6235	6349	6349	6349	6468	6468	6468	6468	6468	6468	6468	6592	6592	6592	6592	6468	6468	6468	6468	6349	6349	6349	6235	6235	6235	6124	6124	6124	0	0	0	0	0	0	0	0	0	0	0	0	0	0	0	0	0	0	0	0	5050	4977	4977	4977	4977	5050	4977	4977	4977	4977	4977	4977	3698	3698	3698	3659	3659	3621	3621	3621	3659	3659	3659	3698	3698	3698	3698	3698	3659	3698	3659	3659	3659	3659	3659	3659	3659	3659	3659	3659	3621	3621	3621	3621	3659	3659	3659	3659	3659	3698	3659	4906	4906	4906	4906	4906	4906	7959	7959	7959	7959	7959	7959	7959	7959	7959	7959	7779	7959	7959	7959	7959	7959	7959	7959	7959	7959	7959	7779	7779	7608	7137	6235	6235	6235	6349	6349	6349	6349	6349	6349	6349	6349	6349	6235	6235	6235	6235	6235	6349	6349	6349	6349	6349	6349	6349	6349	6349	6235	6235	6235	6235	8146	8146	8146	8146	8146	8146	8146	8146	8146	8146	8146	8146	8146	8146	8146	8146	8146	8146	8146	8146	7959	8146	7959	7959	7959	7959	7959	7959	7959	7959	7959	8146	7959	8146	8146	8146	8146	8146	8146	8146	8146	7959	7959	7959	7959	7959	7959	7959	7959	7959	7959	7959	7959	7959	7959	4406	4406	4406	4406	4350	4350	4350	4350	4406	4406	4406	4406	4406	4406	4406	4350	4350	4350	4350	4296	4296	4296	4350	4350	4296	4296	4296	4243	4192	4093	4045	3998	3998	3998	3998	3998	4350	4406	4406	4406	4406	4406	4406	4350	4296	4296	4243	4243	4243	3157	3157	3157	3157	3157	3157	3157	3157	3157	3157	3157	0	0	0	0	0	0	0	0	0	0	0	0	0	0	3157	3157	3157	3157	3157	3157	3157	3157	3157	3129	3129	3186	3186	3186	3186	3186	3186	3186	3186	3186	3186	3186	3216	3186	3186	3186	3186	3186	3186	3186	3186	0	0	0	0	0	0	0	0	0	0	1574	1574	1567	1567	1567	1567	1567	1567	1560	1560	1553	1546	1546	1539	1546	1546	1539	1539	1539	1539	1539	1539	1539	0	0	0	0	0	0	0	0	0	0	0	0	0	0	0	0	0	0	0	0	0	0	0	0	0	0	0	0	0	0	0	0	0	0	0	0	0	0
0	0	0	0	0	0	0	0	0	0	0	0	1282	1282	1282	1282	0	0	2003	2015	2015	2015	2015	2003	2003	2003	2003	1992	1992	0	0	0	0	0	0	0	0	0	0	0	0	0	0	0	0	0	0	0	0	0	0	0	1958	1980	1969	1969	1992	2015	2015	2027	2027	2039	0	0	0	0	0	0	0	0	0	0	0	0	0	0	0	0	0	0	0	0	0	0	1969	1980	1980	1980	1980	1980	1980	1980	1980	1992	1980	2003	2003	2015	2015	2015	2127	2039	2051	2063	2063	2063	2063	2027	2027	2027	2027	2015	2015	2015	2015	2003	2015	2003	2015	2003	2015	2015	2027	2027	2027	2015	2015	2015	2015	2015	0	0	0	0	0	0	0	0	0	0	0	0	0	0	0	0	2649	2669	2690	2669	2690	2711	2690	2690	2690	2690	2690	2669	2669	2690	2690	2690	2690	2669	2669	2669	2669	2669	2669	2669	2669	2669	2669	2669	2669	2669	2669	2669	3406	3406	3373	3373	3373	3373	3373	3341	3341	3373	3373	3406	3406	3406	3406	3373	3373	3406	3406	3406	3406	3406	3440	3440	3440	3440	3440	3440	0	0	3546	3546	3546	3621	3621	3659	3659	3659	0	3821	3864	3907	3907	3907	3907	3864	3864	3907	3907	3907	3907	3952	4045	4093	4142	4192	4192	4243	4243	4243	4296	4350	4406	4406	4463	6468	6468	6468	6468	6349	6235	6349	6349	6349	6349	6468	6468	6468	6468	6468	6468	6468	6468	6468	6468	6468	6468	6349	6468	6468	6349	6349	6235	6235	6235	6235	6235	6124	0	0	0	0	0	0	0	0	0	0	0	0	0	0	0	0	0	0	0	0	0	5125	5050	5050	5050	5050	5050	4977	4977	4977	4977	4977	4977	3659	3659	3659	3659	3659	3621	3621	3621	3659	3659	3659	3698	3698	3698	3698	3698	3659	3698	3659	3659	3621	3621	3659	3659	3659	3659	3659	3659	3621	3621	3621	3621	3659	3659	3659	3659	3659	3659	3659	4906	4906	4906	4906	4906	4906	7959	7959	7959	7959	7959	7959	7959	7959	7959	7959	7959	8146	8146	7959	7959	7959	7959	7959	7959	7779	7779	7779	7779	7608	6592	6235	6235	6235	6235	6235	6349	6349	6349	6349	6349	6349	6349	6235	6235	6235	6235	6235	6349	6349	6349	6349	6349	6349	6349	6349	6349	6235	6235	6349	6349	8146	8146	8146	7959	8146	8146	8146	8146	8146	8146	8146	8146	8146	8146	8146	8146	8146	8146	8146	8146	8146	8146	7959	7959	7959	7959	7959	7959	7959	7959	7959	8146	7959	7959	7959	8146	8146	8146	8146	8146	8146	7959	7959	7959	7959	7959	7959	7959	7959	7959	7959	7959	7959	7959	8146	4463	4463	4406	4406	4350	4350	4350	4350	4406	4406	4406	4406	4406	4406	4350	4350	4350	4350	4350	4296	4296	4296	4350	4350	4296	4296	4296	4243	4142	4093	4045	3998	3998	3998	3998	3998	4406	4406	4406	4406	4406	4406	4406	4406	4350	4296	4243	4296	4243	3157	3157	3157	3157	3157	3157	3157	3157	3157	3186	3157	3157	0	0	0	0	0	0	0	0	0	0	0	0	0	3157	3157	3157	3157	3157	3157	3157	3157	3157	3157	3157	3186	3186	3186	3186	3186	3186	3186	3186	3186	3186	3186	3216	3186	3186	3186	3186	3186	3186	3186	3186	0	0	0	0	0	0	0	0	0	1581	1574	1574	1567	1567	1567	1567	1567	1567	1560	1560	1560	1553	1546	1539	1539	1539	1539	1539	1539	1539	1539	1539	1539	0	0	0	0	0	0	0	0	0	0	0	0	0	0	0	0	0	0	0	0	0	0	0	0	0	0	0	0	0	0	0	0	0	0	0	0	0	0
0	0	0	0	0	0	0	0	0	0	0	0	1282	1282	1282	1282	0	0	2003	2003	2015	2015	2015	2015	2003	2003	2003	2003	2003	0	0	0	0	0	0	0	0	0	0	0	0	0	0	0	0	0	0	0	0	0	0	0	0	1992	1980	1980	2015	2027	2015	2015	2027	0	0	0	0	0	0	0	0	0	0	0	0	0	0	0	0	0	0	0	0	0	0	0	1969	1980	1980	1980	1980	1980	1980	1992	1992	1980	1980	1992	2003	2015	2015	2015	2039	2039	2039	2063	2063	2076	2063	2039	2039	2027	2027	2015	2015	2015	2015	2015	2015	2003	2015	2003	2003	2003	2015	2015	2015	2015	2015	2015	2015	2015	0	0	0	0	0	0	0	0	0	0	0	0	0	0	0	0	2629	2669	2690	2690	2690	2690	2690	2690	2690	2690	2690	2669	2669	2690	2690	2690	2690	2690	2669	2669	2669	2669	2669	2669	2669	2669	2669	2669	2669	2669	2669	3406	3406	3406	3406	3373	3373	3373	3373	3373	3373	3373	3406	3406	3373	3406	3406	3406	3406	3406	3406	3406	3406	3440	3440	3440	3440	3440	3440	3440	3440	3475	3510	3546	3546	3583	3583	3583	3659	3659	3821	3821	3821	3864	3907	3907	3864	3864	3864	3907	3907	3907	3952	3998	4045	4093	4093	4142	4192	4192	4192	4243	4243	4350	4406	4463	4463	6468	6468	6349	6349	6235	6235	6349	6235	6349	6349	6468	6468	6468	6468	6468	6468	6468	6468	6468	6468	6468	6468	6468	6349	6349	6349	6235	6235	6235	6124	6124	6235	0	0	0	0	0	0	0	0	0	0	0	0	0	0	0	0	0	0	0	0	0	0	5050	4977	5050	5050	5050	5050	4977	4977	4977	4977	4977	4977	3659	3659	3659	3659	3659	3621	3621	3659	3698	3698	3698	3698	3698	3738	3738	3698	3659	3659	3659	3659	3621	3621	3659	3659	3659	3659	3659	3659	3621	3621	3621	3621	3621	3659	3659	3659	3698	3698	4906	4977	4977	4906	4977	4977	7779	7959	7959	7959	7959	7959	7959	7959	7959	7959	7959	7959	8146	8146	7959	7959	7959	7959	7959	7959	7779	7779	7779	7779	7608	6349	6235	6235	6235	6235	6235	6235	6349	6349	6349	6349	6349	6349	6349	6349	6349	6235	6235	6349	6349	6349	6349	6349	6349	6349	6349	6349	6235	6235	6235	8343	8146	8146	8146	7959	7959	8146	8146	8146	8146	8146	8146	8146	8146	8146	8146	8146	8146	8146	8146	8146	8146	8146	7959	7959	7959	7959	7959	7959	7959	7959	7959	8146	7959	7959	7959	8146	7959	7959	8146	8146	8146	7959	7959	7959	7959	7959	7959	7959	7959	7959	7779	7779	7779	7959	7959	4463	4463	4406	4350	4350	4350	4350	4350	4406	4406	4406	4406	4406	4406	4350	4350	4350	4350	4350	4296	4296	4350	4350	4350	4350	4350	4296	4243	4142	4093	4045	4045	4045	3998	3998	3998	4406	4406	4406	4406	4406	4406	4406	4406	4350	4296	4243	4296	4243	3186	3157	3186	3186	3186	3186	3157	3157	3157	3186	3157	3157	0	0	0	0	0	0	0	0	0	0	0	0	0	0	3157	3157	3157	3157	3157	3157	3157	3157	3157	3157	3186	3186	3186	3186	3186	3186	3186	3186	3216	3186	3186	3186	3186	3186	3186	3186	3186	3186	3157	3157	0	0	0	0	0	0	0	0	0	1581	1574	1581	1567	1567	1567	1567	1567	1567	1560	1560	1560	1546	1546	1539	1539	1539	1539	1539	1539	1532	1539	1532	1532	0	0	0	0	0	0	0	0	0	0	0	0	0	0	0	0	0	0	0	0	0	0	0	0	0	0	0	0	0	0	0	0	0	0	0	0	0	0
0	0	0	0	0	0	0	0	0	0	0	0	1287	1287	1287	1287	0	0	2003	2003	2015	2015	2015	2015	2003	2003	2003	2003	2003	0	0	0	0	0	0	0	0	0	0	0	0	0	0	0	0	0	0	0	0	0	0	0	0	2003	1992	2003	2027	2027	2027	2039	2039	0	0	0	0	0	0	0	0	0	0	0	0	0	0	0	0	0	0	0	0	0	0	0	1969	1980	1980	1980	1980	1980	1992	1992	1992	1992	1980	1992	1992	2015	2015	2015	2039	2039	2063	2063	2076	2076	2063	2039	2039	2027	2027	2015	2015	2015	2015	2015	2003	2003	2015	2003	2003	2003	2003	2003	2003	2003	2015	2015	2015	2015	0	0	0	0	0	0	0	0	0	0	0	0	0	0	0	0	2589	2649	2690	2690	2690	2711	2690	2690	2690	2690	2690	2669	2669	2669	2690	2690	2690	2690	2669	2669	2669	2669	2669	2669	2669	2669	2669	2669	2669	2669	2669	2669	3406	3406	3373	3373	3373	3373	3373	3373	3373	3373	3373	3373	3373	3406	3406	3406	3406	3406	3406	3406	3406	3406	3440	3440	3406	3406	3406	3406	3440	3440	3475	3546	3546	3583	3583	3621	3621	3659	3738	3821	3821	3864	3864	3864	3864	3864	3821	3864	3907	3907	3952	3998	4045	4093	4142	4142	4192	4243	4243	4243	4243	4350	4406	4406	4406	6468	6468	6349	6349	6349	6349	6349	6349	6349	6349	6349	6468	6468	6468	6468	6468	6468	6468	6468	6468	6468	6468	6468	6349	6349	6349	6349	6235	6235	6124	6124	0	0	0	0	0	0	0	0	0	0	0	0	0	0	0	0	0	0	0	0	0	0	0	5050	4977	5050	4977	4977	5050	4977	4977	4977	4977	4977	4977	4977	3698	3698	3659	3659	3659	3621	3659	3698	3698	3698	3698	3698	3738	3738	3698	3659	3659	3659	3659	3621	3621	3659	3659	3659	3659	3659	3621	3621	3621	3621	3621	3659	3659	3698	3698	3698	4977	4906	4977	4977	4977	4977	4977	7959	7959	8146	8146	7959	7959	7959	7959	7959	7959	7959	8146	8146	8146	7959	8146	7959	7959	7959	7959	7779	7779	7779	7779	7608	6349	6235	6235	6235	6235	6235	6235	6349	6349	6349	6349	6349	6349	6349	6349	6349	6349	6349	6349	6349	6349	6349	6349	6349	6349	6349	6349	6349	6349	6349	8146	8146	8146	8146	7959	7959	8146	8146	8146	8146	8146	8146	8146	8146	8146	8146	8146	8146	8146	8146	8146	7959	8146	7959	8146	7959	7959	7959	7959	7959	8146	7959	8146	7959	7959	7959	8146	7959	7959	7959	7959	8146	7959	7959	7959	7959	7959	7959	7959	7779	7779	7779	7779	7959	7779	7779	4406	4406	4406	4406	4350	4350	4350	4350	4406	4406	4406	4406	4406	4406	4406	4350	4350	4350	4350	4350	4350	4350	4350	4350	4350	4350	4296	4243	4192	4142	4045	4045	4045	4045	4045	4045	4463	4463	4406	4406	4406	4406	4406	4406	4350	4296	4296	4296	4296	3186	3186	3186	3186	3186	3157	3157	3157	3157	3157	3157	3157	0	0	0	0	0	0	0	0	0	0	0	0	0	0	3129	3157	3157	3157	3157	3157	3157	3157	3157	3157	3186	3186	3186	3186	3186	3186	3186	3186	3186	3186	3186	3186	3186	3186	3186	3186	3186	3186	3157	3157	0	0	0	0	0	0	0	0	0	1581	1574	1581	1567	1567	1567	1567	1567	1560	1560	1560	1553	1546	1539	1539	1539	1539	1539	1539	1532	1532	1532	1532	1532	0	0	0	0	0	0	0	0	0	0	0	0	0	0	0	0	0	0	0	0	0	0	0	0	0	0	0	0	0	0	0	0	0	0	0	0	0	0
0	0	0	0	0	0	0	0	0	0	0	0	1287	1287	1287	1287	1287	0	2003	2003	2015	2015	2015	2015	2003	2003	1992	1992	1992	0	0	0	0	0	0	0	0	0	0	0	0	0	0	0	0	0	0	0	0	0	0	0	0	2003	1992	2039	2039	2039	2039	2039	2039	0	0	0	0	0	0	0	0	0	0	0	0	0	0	0	0	0	0	0	0	0	0	0	1969	1980	1980	1980	1980	1980	1992	1992	2003	2003	2003	2003	2015	2015	2027	2027	2039	2027	2027	2063	2063	2076	2027	2027	2027	2027	2027	2015	2015	2015	2027	2015	2015	2015	2015	2015	2015	2003	1992	2003	2003	2003	2003	2003	2015	2015	0	0	0	0	0	0	0	0	0	0	0	0	0	0	0	0	2649	2649	2690	2690	2690	2690	2690	2690	2690	2690	2690	2669	2690	2690	2690	2690	2690	2690	2669	2690	2669	2690	2669	2669	2669	2690	2669	2669	2669	2669	2669	2669	2669	3406	3373	3373	3373	3373	3373	3373	3373	3373	3373	3373	3373	3406	3406	3406	3406	3406	3406	3406	3406	3406	3406	3406	3406	3406	3406	3406	3440	3440	3475	3546	3546	3583	3621	3621	3659	3698	3738	3821	3821	3864	3864	3864	3864	3779	3779	3864	3864	3952	3952	4045	4142	4142	4192	4192	4192	4243	4243	4243	4243	4296	4406	4463	4463	6468	6468	6349	6349	6235	6235	6235	6349	6349	6349	6349	6349	6468	6468	6468	6468	6468	6468	6468	6468	6468	6468	6468	6349	6349	6349	6349	6235	6235	6124	6124	0	0	0	0	0	0	0	0	0	0	0	0	0	0	0	0	0	0	0	0	0	0	0	4977	4977	4977	4977	4977	4977	4977	4977	4977	4977	4977	4977	4977	3698	3698	3698	3698	3659	3659	3659	3698	3698	3698	3698	3698	3698	3738	3698	3659	3659	3659	3621	3621	3621	3621	3621	3659	3659	3659	3621	3621	3621	3621	3659	3659	3659	3698	3659	3659	4977	4977	4977	4977	4906	4977	4977	7959	7959	8146	7959	7959	7959	7959	7959	7959	7959	7959	8146	8343	8146	8146	8146	8146	7959	7959	7959	7959	7779	7779	7608	7608	6468	6235	6235	6235	6235	6235	6235	6235	6235	6349	6349	6349	6349	6349	6349	6349	6349	6349	6468	6349	6349	6349	6349	6349	6349	6349	6349	6349	6349	6349	6349	8146	8146	7959	7959	7959	8146	8146	8146	8146	8146	8146	8146	8146	8146	8146	8146	8146	8146	8146	8146	8146	8146	7959	8146	7959	7959	7959	7959	7959	7959	7959	7959	7959	7959	7959	7959	7959	7959	7959	7959	7959	7959	7959	7959	7959	7959	7779	7959	7779	7779	7779	7779	7779	7959	7959	4406	4406	4406	4350	4350	4350	4350	4350	4406	4406	4406	4406	4406	4406	4406	4350	4406	4406	4406	4350	4350	4350	4406	4406	4406	4350	4296	4243	4192	4142	4093	4045	4045	4045	4045	4045	4406	4406	4406	4406	4406	4406	4406	4406	4350	4296	4296	4350	3246	3186	3186	3216	3216	3186	3186	3186	3186	3157	3157	3157	3157	0	0	0	0	0	0	0	0	0	0	0	0	0	0	3129	3157	3157	3157	3157	3157	3157	3157	3157	3157	3186	3186	3186	3186	3186	3186	3186	3186	3186	3186	3216	3186	3186	3186	3186	3186	3186	3186	3186	3186	3186	0	0	0	0	0	0	0	0	1581	1574	1581	1574	1567	1567	1567	1560	1560	1560	1560	1553	1546	1546	1539	1539	1539	1539	1539	1539	1532	1539	1532	1532	0	0	0	0	0	0	0	0	0	0	0	0	0	0	0	0	0	0	0	0	0	0	0	0	0	0	0	0	0	0	0	0	0	0	0	0	0	0
0	0	0	0	0	0	0	0	0	0	0	0	1287	1287	1287	1287	1287	0	0	2015	2015	2015	2015	2015	2015	2003	2003	1992	1992	0	0	0	0	0	0	0	0	0	0	0	0	0	0	0	0	0	0	0	0	0	0	0	0	0	0	2051	2051	2051	2039	2039	0	0	0	0	0	0	0	0	0	0	0	0	0	0	0	0	0	0	0	0	0	0	0	0	1969	1980	1992	1992	1992	1992	1992	2003	2015	2015	2015	2015	2015	2027	2027	2051	2039	2039	2027	2063	2063	2039	2027	2027	2027	2027	2027	2015	2015	2015	2027	2027	2015	2015	2015	2015	2015	2003	2003	2003	2003	2015	2015	2015	2015	2015	0	0	0	0	0	0	0	0	0	0	0	0	2733	2733	0	0	2690	2690	2690	2690	2690	2690	2690	2690	2690	2690	2690	2690	2690	2690	2690	2690	2690	2690	2669	2669	2669	2669	2669	2669	2669	2690	2690	2690	2669	2669	2669	2669	2669	3406	3406	3373	3373	3373	3373	3373	3373	3373	3406	3406	3373	3406	3406	3406	3406	3406	3406	3406	3406	3406	3406	3406	3406	3406	3406	3406	3440	3440	3475	3510	3546	3583	3621	3621	3659	3698	3738	3779	3821	3821	3821	3821	3821	3779	3864	3907	3907	3952	3952	3998	4093	4142	4192	4192	4243	4243	4243	4243	4243	4350	4406	4463	4463	6468	6468	6349	6349	6349	6349	6349	6349	6349	6349	6349	6349	6468	6468	6468	6468	6468	6468	6468	6468	6468	6468	6468	6349	6468	6349	6468	6349	6349	0	0	0	0	0	0	0	0	0	0	0	0	0	0	0	0	0	0	0	0	0	0	0	0	0	4977	4977	4977	4977	4977	4977	4977	4977	4977	4977	4977	4977	4977	3738	3698	3698	3698	3698	3659	3659	3698	3698	3698	3698	3698	3698	3698	3698	3659	3659	3621	3621	3621	3621	3621	3621	3621	3621	3621	3621	3621	3621	3621	3659	3659	3659	3698	3659	3698	3698	4977	4977	4977	4977	4977	4977	4977	7959	7959	7959	7959	7959	7959	7959	7959	7959	8146	8146	8343	8146	8146	8146	8146	8146	7959	7959	7959	7779	7779	7779	7608	6592	6235	6235	6235	6235	6235	6235	6235	6235	6349	6235	6235	6349	6349	6349	6349	6235	6349	6468	6468	6468	6349	6349	6349	6349	6349	6349	6349	6468	6349	6349	7959	8146	7959	7959	7959	8146	7959	8146	8146	8146	8146	8146	8146	8146	8146	7959	7959	7959	8146	8146	7959	8146	7959	7959	7959	7959	7959	7959	7959	7959	7959	7959	7959	7959	7959	7959	7959	7959	7959	7959	7959	7959	7959	7959	7959	7959	7959	7959	7779	7779	7779	7779	7779	7779	4406	4350	4350	4350	4350	4350	4350	4350	4350	4406	4406	4406	4406	4406	4406	4350	4350	4350	4350	4350	4350	4350	4350	4406	4406	4406	4350	4296	4243	4192	4142	4093	4093	4045	4045	4045	4045	4243	4350	4406	4406	4350	4406	4406	4406	4350	4350	4296	4350	3246	3216	3216	3216	3216	3186	3186	3186	3186	3157	3157	3157	3157	0	0	0	0	0	0	0	0	0	0	0	0	0	0	3157	3157	3157	3157	3157	3157	3157	3157	3157	3157	3186	3216	3186	3186	3186	3186	3186	3186	3186	3186	3186	3186	3186	3186	3186	3186	3157	3157	3157	3157	3157	0	0	0	0	0	0	0	0	1581	1581	1581	1574	1560	1567	1560	1560	1560	1560	1560	1553	1553	1546	1546	1539	1532	1539	1539	1539	1539	1539	1553	1553	0	0	0	0	0	0	0	0	0	0	0	0	0	0	0	0	0	0	0	0	0	0	0	0	0	0	0	0	0	0	0	0	0	0	0	0	0	0
0	0	0	0	0	0	0	0	0	0	0	0	1287	1287	1287	1287	1287	0	0	2015	2015	2015	2015	2015	2003	2003	1992	1992	1992	0	0	0	0	0	0	0	0	0	0	0	0	0	0	0	0	0	0	0	0	0	0	0	0	0	0	2051	2039	2039	2039	2039	0	0	0	0	0	0	0	0	0	0	0	0	0	0	0	0	0	0	0	0	0	0	0	0	1969	1980	1992	1992	1992	2003	2003	2015	2015	2015	2027	2027	2027	2027	2027	2027	2039	2027	2027	2027	2039	2027	2027	2027	2027	2027	2015	2015	2015	2015	2027	2027	2027	2015	2015	2015	2015	2015	2015	2015	2003	2015	2015	2003	2015	2015	0	0	0	0	0	0	0	0	0	0	0	0	2733	2733	2711	2711	2690	2690	2711	2711	2711	2711	2690	2690	2690	2690	2690	2690	2690	2690	2690	2711	2690	2669	2669	2669	2669	2669	2690	2669	2669	2669	2669	2690	2669	2669	2669	2669	2669	3406	3406	3373	3406	3406	3373	3373	3406	3406	3406	3406	3373	3406	3406	3406	3406	3406	3406	3406	3406	3406	3406	3406	3406	3406	3406	3406	3406	3440	3475	3510	3546	3583	3621	3621	3659	3698	3698	3779	3779	3821	3821	3864	3864	3864	3864	3952	3952	3998	3998	4045	4093	4142	4192	4192	4243	4243	4243	4243	4243	4350	4406	4463	4521	4521	6468	6349	6468	6349	6349	6349	6349	6349	6349	6349	6349	6468	6349	6349	6468	6468	6349	6349	6468	6468	6468	6468	6349	6468	6349	6349	6349	6349	6349	0	0	0	0	0	0	0	0	0	0	0	0	0	0	0	0	0	0	0	0	0	0	0	0	4977	4977	4977	4977	4977	4977	4977	4977	4977	4977	4977	4977	3738	3738	3698	3698	3698	3698	3659	3659	3698	3698	3698	3698	3698	3698	3698	3659	3659	3659	3621	3621	3621	3621	3621	3621	3621	3621	3621	3621	3621	3621	3621	3659	3659	3659	3698	3698	3698	3698	4977	4977	4977	4977	4977	4977	4977	7779	7959	7959	7959	7959	7959	7959	7959	7959	7959	8146	8146	8146	8146	8146	8146	8146	8146	7959	7959	7959	7779	7779	7779	7779	6235	6235	6235	6235	6235	6235	6235	6235	6235	6235	6235	6235	6235	6349	6235	6235	6349	6468	6468	6468	6468	6349	6468	6349	6349	6349	6349	6468	6468	6468	8146	8146	8146	7959	7959	8146	7959	8146	7959	7959	7959	7959	8146	8146	7959	7959	7959	8146	8146	8146	7959	8146	8146	8146	7959	7959	7959	7959	7959	7959	7959	7959	7959	7959	7959	7959	7959	7959	7959	7959	7959	7959	7959	7959	7959	7959	7959	7959	7779	7608	7608	7779	7779	7779	4406	4406	4350	4350	4350	4350	4350	4350	4350	4406	4406	4406	4406	4406	4406	4350	4350	4350	4296	4350	4350	4350	4350	4350	4350	4350	4296	4296	4243	4192	4142	4142	4142	4142	4142	4045	4045	4243	4296	4350	4406	4406	4406	4406	4406	4406	4350	4350	4350	4350	3216	3216	3216	3216	3186	3186	3186	3186	3186	3157	3157	3157	0	0	0	0	0	0	0	0	0	0	0	0	0	0	3157	3129	3157	3157	3157	3157	3157	3157	3157	3157	3216	3216	3186	3186	3186	3186	3186	3186	3186	3186	3186	3186	3186	3186	3186	3157	3157	3157	3157	3157	3157	0	0	0	0	0	0	0	0	1581	1581	1581	1574	1560	1560	1560	1560	1560	1553	1553	1553	1553	1546	1546	1539	1539	1539	1539	1539	1539	1539	1539	1539	0	0	0	0	0	0	0	0	0	0	0	0	0	0	0	0	0	0	0	0	0	0	0	0	0	0	0	0	0	0	0	0	0	0	0	0	0	0
0	0	0	0	0	0	0	0	0	0	0	0	1282	1287	1287	1287	1287	0	0	2015	2015	2015	2015	2003	2003	2003	2003	2003	2003	0	0	0	0	0	0	0	0	0	0	0	0	0	0	0	0	0	0	0	0	0	0	0	0	0	0	2051	2039	2051	2051	2051	0	0	0	0	0	0	0	0	0	0	0	0	0	0	0	0	0	0	0	0	0	0	0	0	1969	1980	1992	1992	1992	2003	2015	2015	2015	2015	2027	2015	2015	2015	2015	2039	2027	2027	2027	2027	2039	2027	2027	2027	2027	2027	2015	2027	2015	2015	2015	2027	2015	2015	2015	2015	2015	2015	2015	2015	2015	2015	2015	2015	2015	2015	0	0	0	0	0	0	0	0	0	0	0	0	2777	2777	2777	2733	2711	2711	2711	2711	2711	2690	2690	2690	2690	2690	2690	2690	2690	2690	2669	2669	2669	2669	2669	2669	2669	2669	2669	2669	2669	2669	2669	2669	2669	2669	2669	2669	2669	3440	3406	3406	3406	3406	3373	3373	3406	3406	3406	3406	3406	3406	3440	3406	3406	3406	3406	3406	3406	3406	3406	3406	3406	3406	3406	3406	3406	3406	3475	3510	3546	3583	3583	3621	3659	3698	3779	3821	3821	3821	3821	3864	3864	3864	3864	3907	3907	3998	3998	4045	4093	4142	4192	4192	4243	4243	4243	4243	4296	4350	4406	4463	4521	4521	6468	6468	6468	6349	6468	6468	6468	6468	6468	6349	6468	6468	6349	6349	6349	6349	6349	6468	6468	6468	6468	6468	6349	6349	6349	6349	6349	6235	6235	0	0	0	0	0	0	0	0	0	0	0	0	0	0	0	0	0	0	0	0	0	0	0	0	0	4906	4977	4906	4977	4977	4977	4977	4977	4977	4977	4977	3738	3738	3698	3698	3698	3698	3698	3659	3698	3698	3698	3698	3698	3698	3659	3659	3659	3621	3621	3621	3621	3621	3621	3621	3621	3621	3621	3621	3621	3621	3621	3659	3659	3659	3698	3698	3698	3698	3698	4977	4977	4977	4977	4977	4977	7608	7959	7959	7959	7959	7959	7959	7959	7959	7959	8146	8343	8146	8146	8146	8146	8146	8146	8146	8146	7959	7779	7779	7779	7779	6349	6349	6235	6235	6235	6235	6235	6235	6235	6235	6235	6235	6235	6235	6235	6235	6349	6468	6468	6468	6468	6349	6468	6349	6349	6349	6349	6720	6468	6468	8146	8146	7959	7959	7959	7959	7959	7959	7959	7959	7959	7959	7959	7959	7959	7959	7959	7959	8146	8146	7959	7959	8146	8146	7959	7959	7959	7959	7959	7959	7959	7959	7959	7959	7959	7959	7959	7959	7959	7959	7959	7959	7959	7959	7959	7959	7959	7959	7779	7608	7608	7608	7608	7608	0	4406	4350	4350	4350	4350	4350	4350	4350	4406	4406	4406	4406	4406	4350	4296	4296	4296	4296	4243	4296	4296	4350	4350	4350	4350	4350	4243	4192	4192	4142	4142	4142	4142	4142	0	0	4243	4350	4406	4406	4406	4406	4406	4406	4406	4406	4406	4406	4350	3216	3216	3216	3186	3186	3186	3186	3186	3186	3157	3157	3157	0	0	0	0	0	0	0	0	0	0	0	0	0	0	0	3157	3186	3186	3186	3157	3157	3157	3157	3157	3186	3216	3186	3186	3186	3186	3186	3186	3186	3186	3186	3186	3186	3186	3186	3186	3157	3157	3157	3157	3157	0	0	0	0	0	0	0	1589	1589	1574	1581	1574	1560	1560	1560	1560	1560	1560	1560	1553	1553	1553	1546	1539	1539	1539	1539	1539	1539	1539	1539	1539	0	0	0	0	0	0	0	0	0	0	0	0	0	0	0	0	0	0	0	0	0	0	0	0	0	0	0	0	0	0	0	0	0	0	0	0	0	0
0	0	0	0	0	0	0	0	0	0	0	0	1287	1287	1287	1287	1287	0	0	2015	2015	2015	2015	2015	2003	2003	2003	2003	2003	2003	0	0	0	0	0	0	0	0	0	0	0	0	0	0	0	0	0	0	0	0	0	0	0	0	0	0	0	2051	2051	2051	0	0	0	0	0	0	0	0	0	0	0	0	0	0	0	0	0	0	0	0	0	0	0	1947	1969	1980	1992	1992	2003	2015	2015	2015	2027	2027	2027	2027	2015	2015	2015	2027	2027	2027	2027	2027	2027	2027	2027	2027	2015	2015	2015	2027	2015	2015	2015	2027	2015	2015	2015	2015	2015	2015	2015	2003	2003	2003	2003	2003	2015	2015	0	0	0	0	0	0	0	0	0	0	0	0	2799	2777	2754	2733	2733	2711	2711	2711	2711	2711	2690	2690	2690	2690	2690	2690	2690	2690	2669	2669	2690	2690	2669	2669	2669	2669	2669	2669	2669	2669	2669	2669	2669	2669	2649	2669	2669	3440	3406	3406	3406	3406	3406	3406	3406	3406	3406	3406	3406	3406	3440	3406	3406	3406	3406	3406	3406	3406	3406	3406	3406	3406	3406	3406	3406	3406	3440	3510	3546	3583	3621	3621	3659	3698	3779	3821	3821	3821	3821	3864	3864	3864	3864	3907	3907	3907	3907	4045	4093	4142	4192	4192	4243	4243	4243	4296	4350	4406	4406	4463	4521	4521	6468	6468	6468	6468	6468	6468	6468	6468	6468	6349	6468	6468	6349	6349	6349	6349	6349	6349	6235	6235	6468	6468	6349	6349	6349	6349	6235	6235	6124	6124	0	0	0	0	0	0	0	0	0	0	0	0	0	0	0	0	0	0	0	0	0	0	0	0	4906	4977	4977	4977	4977	4977	4977	4977	4977	4977	4977	3738	3738	3698	3738	3698	3698	3698	3698	3738	3698	3698	3698	3659	3659	3659	3659	3621	3621	3621	3621	3621	3621	3621	3621	3621	3621	3621	3621	3621	3621	3621	3659	3659	3659	3659	3659	3698	3698	3698	4977	4977	4977	4977	4977	4977	4977	7959	7959	7959	7959	7959	7959	7959	7959	7959	7959	8146	8146	7959	7959	8146	8146	8146	8146	8146	7959	7959	7959	7959	7959	6349	6235	6235	6235	6235	6235	6235	6235	6235	6235	6235	6235	6235	6235	6235	6235	6349	6468	6468	6468	6468	6349	6349	6349	6349	6349	6349	6720	6720	8146	7959	7959	7959	7959	7959	7959	7959	7959	7959	7959	7959	7959	7959	7959	7959	7959	7959	7959	7959	7959	7959	8146	8146	8146	8146	7959	7959	7959	7959	7959	7959	7959	7959	7959	7959	7959	7959	7959	7959	7959	7959	7959	7959	7959	7959	7959	7959	7959	7779	7608	7608	7608	7779	7779	0	4406	4350	4350	4350	4350	4350	4350	4350	4406	4406	4406	4406	4406	4350	4296	4296	4296	4296	4243	4296	4296	4350	4350	4350	4350	4350	4350	4192	4192	0	0	4142	4142	0	0	0	4243	4350	4406	4406	0	4406	4463	4463	4463	4406	4406	4406	4406	4406	3216	3216	3186	3186	3186	3186	3186	3186	3186	3157	3157	0	0	0	0	0	0	0	0	0	0	0	0	0	0	0	3157	3186	3186	3186	3186	3157	3157	3157	3157	3186	3186	3186	3186	3186	3186	3186	3186	3157	3157	3186	3186	3157	3186	3186	3157	3157	3157	3157	3157	0	0	0	0	0	0	0	0	1589	1589	1581	1581	1574	1567	1567	1560	1560	1560	1560	1560	1560	1553	1546	1546	1539	1539	1539	1539	1546	1546	1546	1546	1546	0	0	0	0	0	0	0	0	0	0	0	0	0	0	0	0	0	0	0	0	0	0	0	0	0	0	0	0	0	0	0	0	0	0	0	0	0	0
0	0	0	0	0	0	0	0	0	0	0	0	1287	1291	1291	1291	0	0	0	2003	2015	2003	2003	2003	2003	2003	2003	2003	2003	2003	0	0	0	0	0	0	0	0	0	0	0	0	0	0	0	0	0	0	0	0	0	0	0	0	0	0	0	0	0	0	0	0	0	0	0	0	0	0	0	0	0	0	0	0	0	0	0	0	0	0	0	0	0	1969	1980	1992	1992	1992	2003	2015	2015	2015	2015	2015	2015	2015	2027	2015	2015	2015	2015	2027	2027	2027	2027	2027	2015	2015	2015	2015	2015	2003	2015	2015	2015	2015	2015	2015	2027	2015	2015	2015	2003	2003	2003	2003	2003	2003	2015	2015	0	0	0	0	0	0	0	0	0	0	2799	2799	2777	2754	2754	2733	2711	2711	2711	2711	2711	2711	2690	2669	2669	2669	2669	2690	2690	2690	2649	2669	2690	2690	2690	2669	2669	2669	2669	2669	2690	2669	2669	2669	2649	2649	2649	2649	2649	3406	3406	3406	3406	3406	3406	3406	3406	3406	3406	3406	3406	3406	3440	3440	3406	3406	3406	3406	3406	3406	3406	3406	3406	3406	3406	3406	3406	3406	3475	3475	3546	3583	3659	3659	3659	3698	3779	3779	3779	3779	3821	3864	3864	3821	3864	3907	3907	3864	3907	3998	4093	4142	4243	4243	4243	4296	4296	4296	4350	4406	4406	4463	4463	6349	6349	6468	6468	6468	6468	6468	6468	6468	6468	6468	6468	6349	6349	6349	6349	6349	6349	6235	6235	6349	6468	6349	6349	6349	6349	6349	6349	6349	6124	6124	0	0	0	0	0	0	0	0	0	0	0	0	0	0	0	0	0	0	0	0	0	0	0	0	4906	4977	4977	4977	4977	4977	4977	4977	4977	4977	4977	3738	3738	3738	3698	3698	3698	3698	3698	3698	3698	3698	3698	3659	3659	3659	3659	3659	3621	3621	3621	3621	3621	3621	3621	3621	3621	3621	3621	3621	3621	3621	3659	3659	3659	3659	3659	3659	3659	3659	4977	4977	4977	4977	4977	4977	4977	8146	8146	7959	7959	8146	7959	7959	7959	7959	7959	7959	7959	7959	8146	8146	8146	8146	8146	8146	8146	7959	7959	7779	7779	6349	6349	6235	6235	6235	6235	6235	6235	6235	6235	6235	6235	6235	6235	6235	6235	6235	6468	6468	6468	6468	6349	6468	6349	6349	6349	6349	6468	6468	8146	7959	7959	7959	7959	7959	7959	7959	7959	7959	7959	7959	7959	7959	7959	7959	7959	7959	7959	7959	8146	7959	8146	8146	8146	8146	7959	7959	7959	7959	7959	7959	7959	7959	7959	7959	7959	7959	7959	7959	7959	7959	7959	7959	7959	7959	7959	7959	7959	7779	7608	7608	7608	7779	7779	0	0	4350	4350	4350	4350	4350	4350	4350	4406	4406	4406	4406	4406	4350	4243	4243	4296	4243	4243	4243	4243	4296	4350	4350	4350	4350	4350	0	0	0	0	0	0	0	0	0	0	0	0	0	0	0	4463	4463	4463	0	0	4463	4406	4406	3246	3246	3186	3186	3186	3186	3186	3186	3157	3157	3157	0	0	0	0	0	0	0	0	0	0	0	0	0	0	0	0	0	3186	3216	3186	3186	3157	3157	3157	3186	3186	3186	3186	3186	3186	3186	3186	3157	3186	3186	3216	3186	3186	3186	3186	3157	3157	3157	3157	0	0	0	0	0	0	0	0	1589	1589	1581	1581	1574	1567	1567	1560	1560	1560	1553	1553	1553	1546	1546	1539	1539	1539	1539	1539	1546	1546	1546	1546	1546	0	0	0	0	0	0	0	0	0	0	0	0	0	0	0	0	0	0	0	0	0	0	0	0	0	0	0	0	0	0	0	0	0	0	0	0	0	0
0	0	0	0	0	0	0	0	0	0	0	0	1287	1291	1291	1291	0	0	2003	2003	2003	2003	2003	2003	2003	2003	2003	2003	2003	2003	0	0	0	0	0	0	0	0	0	0	0	0	0	0	0	0	0	0	0	0	0	0	0	0	0	0	0	0	0	0	0	0	0	0	0	0	0	0	0	0	0	0	0	0	0	0	0	0	0	0	0	1992	1980	1992	1992	1992	1992	1992	1992	2003	2003	1992	2003	2003	2003	2003	2003	2003	2015	2027	2015	2015	2027	2027	2027	2027	2015	2015	2015	2015	2015	2003	1992	2003	2003	2015	2015	2027	2027	2015	2015	2015	2003	2003	2003	2003	2003	2003	2015	2015	2015	0	0	0	0	0	0	0	0	2799	2799	2777	2777	2733	2733	2711	2711	2711	2711	2711	2690	2690	2690	2669	2669	2669	2669	2669	2690	2690	2669	2690	2690	2690	2690	2690	2669	2669	2669	2690	2690	2669	2669	2669	2649	2649	2649	2649	2649	3406	3373	3373	3373	3406	3406	3406	3406	3406	3406	3406	3406	3406	3406	3406	3406	3406	3406	3406	3406	3406	3406	3406	3406	3406	3406	3406	3440	3440	3440	3510	3546	3583	3621	3659	3659	3698	3779	3779	3779	3779	3779	3864	3864	3864	3864	3907	3907	3952	3952	3998	4045	4142	4243	4243	4296	4243	4350	4350	4406	4406	4406	4463	4463	4463	6349	6468	6592	6468	6468	6468	6468	6468	6468	6468	6349	6349	6235	6235	6235	6349	6235	6235	6349	6349	6349	6349	6235	6235	6235	6235	6235	6235	0	0	0	0	0	0	0	0	0	0	0	0	0	0	0	0	0	0	0	0	0	0	0	0	0	0	4977	4977	4977	4977	4977	4977	4977	4977	4977	4977	4977	4906	3738	3738	3698	3698	3698	3698	3659	3698	3698	3698	3698	3659	3659	3659	3659	3659	3621	3621	3621	3621	3621	3621	3621	3621	3621	3621	3621	3621	3621	3621	3659	3659	3659	3659	3659	3659	3659	3659	4906	4977	4977	4977	4906	4906	6720	6592	6592	6720	7608	7608	7959	7959	7779	7959	7959	7959	7959	7959	7959	8146	8146	8146	8146	8146	8146	7959	7959	7959	7444	7444	6468	6235	6235	6235	6235	6235	6235	6235	6235	6235	6235	6349	6235	6235	6235	6235	6468	6349	6349	6349	6349	6349	6349	6349	6349	6349	6468	6468	7959	7959	7959	7959	7959	7959	7959	7959	7959	7959	7959	7959	7959	7959	7959	7959	7959	7959	7959	7959	7959	7959	8146	8146	8146	8146	7959	7959	7959	7959	7959	7959	7959	7959	7959	7959	7959	7959	7959	7959	7959	7959	7959	7959	7959	7959	7959	7959	7959	7779	7779	7608	7608	7779	7779	0	0	4296	4296	4350	4350	4350	4350	4350	4350	4406	4406	4406	4406	4350	4243	4192	4243	4192	4192	4192	4243	4243	4350	4350	4350	0	0	0	0	0	0	0	0	0	0	0	0	0	0	0	0	0	0	0	0	0	0	4463	4406	4406	3246	3246	3186	3186	3186	3186	3186	3186	3186	3157	0	0	0	0	0	0	0	0	0	0	0	0	0	0	0	0	0	0	0	3216	3216	3186	3186	3186	3186	3186	3186	3186	3186	3186	3186	3186	3157	3157	3157	3186	3186	3157	3186	3186	3186	3157	3157	3157	3157	0	0	0	0	0	0	0	0	0	1589	1581	1581	1574	1574	1567	1567	1567	1560	1553	1560	1553	1546	1539	1539	1539	1539	1539	1546	1546	1553	1553	1546	1546	0	0	0	0	0	0	0	0	0	0	0	0	0	0	0	0	0	0	0	0	0	0	0	0	0	0	0	0	0	0	0	0	0	0	0	0	0	0
0	0	0	0	0	0	0	0	0	0	0	0	1287	1291	1287	1287	0	0	2003	2003	2003	2003	2003	2003	2003	2003	2003	2003	1992	1992	0	0	0	0	0	0	0	0	0	0	0	0	0	0	0	0	0	0	0	0	0	0	0	0	0	0	0	0	0	0	0	0	0	0	0	0	0	0	0	0	0	0	0	0	0	0	0	0	0	0	0	2015	2003	2003	2003	2003	1992	1980	1992	1992	1992	1992	1992	2003	2003	2003	2003	2003	2003	2015	2015	2015	2027	2027	2027	2027	2015	2015	2015	2015	2015	2003	2003	2003	2003	2015	2015	2027	2015	2015	2015	2015	2015	2003	2003	2003	2003	2015	2015	2039	2039	0	0	0	0	0	0	0	2799	2777	2799	2777	2777	2754	2690	2711	2711	2690	2690	2690	2690	2690	2669	2669	2669	2669	2649	2649	2690	2690	2669	2690	2690	2690	2690	2669	2669	2669	2669	2669	2669	2669	2669	2669	2649	2649	2629	2629	2629	3406	3406	3373	3406	3406	3406	3406	3406	3406	3440	3406	3406	3406	3406	3406	3406	3406	3406	3406	3406	3406	3406	3406	3406	3406	3406	3406	3406	3440	3440	3475	3546	3583	3621	3621	3659	3698	3779	3779	3779	3779	3821	3864	3864	3864	3864	3864	3907	3952	3952	3998	3998	4093	4192	4192	4243	4296	4406	4350	4406	4406	4406	4463	4463	4463	4463	6468	6592	6468	6468	6468	6468	6468	6468	6349	6349	6349	6235	6235	6235	6235	6235	6235	6235	6235	6235	6235	6124	6124	6124	6235	6235	6235	0	0	0	0	0	0	0	0	0	0	0	0	0	0	0	0	0	0	0	0	0	0	0	0	0	0	4977	5050	5050	5050	5050	4977	4977	4977	4977	4977	4906	4838	3698	3698	3698	3698	3698	3698	3659	3698	3698	3698	3659	3659	3659	3659	3659	3659	3659	3621	3659	3621	3621	3621	3621	3621	3621	3621	3621	3621	3621	3621	3621	3659	3659	3659	3659	3659	3659	3659	4906	4906	4906	4977	4906	4838	4838	6592	6720	6592	6720	7779	7779	7779	7779	7779	7779	7779	7779	7779	7959	7959	8343	8146	8343	8146	8343	7959	7959	6235	6349	6349	6349	6349	6235	6235	6235	6235	6235	6235	6235	6235	6349	6349	6235	6235	6235	6235	6468	6349	6349	6349	6349	6349	6349	6349	6349	6349	6468	6468	7608	7608	7959	7959	7959	7959	7959	7959	7959	7959	7959	7959	7959	7779	7959	7779	7959	7959	7959	7959	7959	7959	8146	8146	8146	8146	8146	8146	7959	7959	7959	7959	7959	7959	7959	7959	7959	7959	7959	7959	7779	7959	7959	7959	7959	7959	7959	7959	7959	7779	7779	7779	7779	7779	7779	0	0	4296	4296	4296	4296	4350	4350	4350	4406	4463	4463	4406	4406	0	0	4192	4192	4192	4192	4142	4142	4243	0	0	0	0	0	0	0	0	0	0	0	0	0	0	0	0	0	0	0	0	0	0	0	0	0	0	0	0	0	3277	3186	3186	3186	3216	3216	3277	3277	0	0	0	0	0	0	0	0	0	0	0	0	0	0	0	0	0	0	0	0	3216	3216	3216	3216	3186	3186	3216	3186	3186	3186	3186	3186	3157	3157	3157	3186	3186	3216	3216	3216	3186	3186	3186	3157	3157	0	0	0	0	0	0	0	0	0	0	1581	1581	1581	1574	1567	1567	1560	1567	1560	1546	1546	1546	1539	1539	1539	1539	1539	1546	1553	1546	1553	1560	1553	1546	1546	0	0	0	0	0	0	0	0	0	0	0	0	0	0	0	0	0	0	0	0	0	0	0	0	0	0	0	0	0	0	0	0	0	0	0	0	0
0	0	0	0	0	0	0	0	0	0	0	0	1291	1301	1301	1301	0	0	0	2003	2003	2003	2003	2003	2003	2003	2003	2003	2003	2003	0	0	0	0	0	0	0	0	0	0	0	0	0	0	0	0	0	0	0	0	0	0	0	0	0	0	0	0	0	0	0	0	0	0	0	0	0	0	0	0	0	0	0	0	0	0	0	0	0	0	2027	2027	2015	2015	2027	2015	1992	1980	1980	1992	1980	1980	1992	1992	1992	2003	1992	2003	2015	2015	2015	2015	2027	2015	2015	2015	2015	2015	2015	2003	2003	2003	1992	1992	1992	2003	2003	2015	2015	2015	2015	2015	2015	2015	2015	2015	2015	2015	2015	2039	2039	0	0	0	0	0	0	0	2799	2777	2799	2799	2754	2754	2711	2711	2711	2690	2690	2690	2690	2690	2669	2669	2669	2669	2649	2649	2649	2690	2690	2690	2690	2690	2690	2669	2669	2669	2669	2669	2669	2669	2669	2669	2649	2649	2629	2629	2629	3440	3406	3406	3440	3406	3406	3406	3406	3406	3440	3440	3406	3406	3406	3406	3406	3406	3406	3406	3406	3406	3406	3406	3406	3406	3406	3406	3406	3440	3440	3475	3510	3583	3583	3621	3659	3698	3779	3779	3779	3779	3821	3864	3864	3864	3864	3907	3952	3952	3952	3998	3998	4045	4142	4192	4296	4296	4350	4350	4406	4406	4406	4406	4463	4463	4463	6592	6592	6468	6592	6468	6468	6349	6349	6235	6235	6235	6124	6235	6235	6235	6235	6235	6235	6235	6235	6235	6124	6124	6124	6235	6235	0	0	0	0	0	0	0	0	0	0	0	0	0	0	0	0	0	0	0	0	0	0	0	0	0	0	0	0	5050	5050	5050	5050	4977	4977	4977	4977	4977	4977	4906	4838	3698	3698	3698	3698	3698	3659	3698	3698	3659	3659	3659	3659	3659	3659	3659	3659	3659	3659	3659	3621	3621	3621	3621	3621	3621	3621	3621	3621	3621	3621	3659	3659	3659	3659	3659	3659	3698	3698	4906	4906	4906	4838	4838	4838	6592	6592	6468	6468	6349	6468	6468	7779	7779	7608	7608	7608	7608	7608	7959	8550	6235	6235	6235	6235	6235	6235	6235	6235	6349	6349	6235	6235	6235	6235	6235	6235	6235	6235	6235	6349	6349	6349	6235	6349	6235	6468	6349	6349	6349	6349	6349	6349	6349	6349	6468	6468	6468	7959	7959	7959	7959	7959	7959	7959	7959	7959	7959	7959	7959	7959	7779	7959	7959	7959	7959	7959	7959	7959	7959	7959	8146	8146	8146	8146	8146	8146	8146	7959	7959	7959	7959	7959	7959	7959	7959	7779	7779	7779	7959	7959	7959	7959	7959	7959	7959	7959	7779	7779	7608	7608	0	0	0	0	4296	4296	4296	4296	4296	4350	4350	4350	4463	4463	0	0	0	0	0	4192	4192	4192	4142	4142	0	0	0	0	0	0	0	0	0	0	0	0	0	0	0	0	0	0	0	0	0	0	0	0	0	0	0	0	0	0	3277	3186	3186	3186	3186	3186	3246	3246	0	0	0	0	0	0	0	0	0	0	0	0	0	0	0	0	0	0	0	0	0	3216	3216	3216	3186	3186	3216	3216	3186	3157	3186	3186	3157	3157	3157	3186	3186	3186	3186	3186	3186	3186	3186	0	0	0	0	0	0	0	0	0	0	0	0	1574	1574	1574	1567	1567	1567	1560	1560	1560	1553	1546	1546	1539	1539	1532	1532	1539	1546	1546	1546	1546	1553	1539	1539	1546	0	0	0	0	0	0	0	0	0	0	0	0	0	0	0	0	0	0	0	0	0	0	0	0	0	0	0	0	0	0	0	0	0	0	0	0	0
0	0	0	0	0	0	0	0	0	0	0	0	1301	1301	1291	1291	0	0	0	1992	2003	2003	2003	2003	2003	2003	2003	2003	2003	2003	0	0	0	0	0	0	0	0	0	0	0	0	0	0	0	0	0	0	0	0	0	0	0	0	0	0	0	0	0	0	0	0	0	0	0	0	0	0	0	0	0	0	0	0	0	0	0	0	0	0	2027	2027	2015	2015	2015	2015	2003	1992	1992	1992	1992	1980	1992	1992	1992	2003	1992	2015	2015	2015	2015	2015	2027	2015	2015	2015	2015	2015	2015	2003	2003	2003	2003	2003	2003	2003	2003	2015	2015	2015	2015	2015	2015	2015	2015	2015	2015	2015	2015	2039	2039	0	0	0	0	0	0	0	0	0	2609	2733	2733	2733	2711	2711	2711	2690	2690	2690	2690	2690	2669	2669	2669	2649	2649	2649	2649	2649	2649	2690	2690	2690	2711	2690	2669	2690	2669	2669	2669	2669	2669	2669	2649	2649	2629	2629	2629	3406	3406	3373	3406	3406	3406	3406	3406	3440	3440	3406	3406	3406	3406	3406	3406	3406	3406	3406	3406	3406	3406	3406	3406	3406	3406	3406	3406	3440	3440	3475	3510	3546	3583	3621	3659	3698	3738	3738	3779	3779	3821	3864	3864	3864	3864	3907	3907	3907	3907	3952	3998	4045	4093	4192	4192	4296	4296	4350	4350	4406	4406	4463	4463	4463	4463	6592	6592	6468	6592	6468	6349	6349	6235	6235	6124	6235	6235	6235	6235	6235	6235	6235	6235	6124	6124	6124	6124	6124	6124	0	0	0	0	0	0	0	0	0	0	0	0	0	0	0	0	0	0	0	0	0	0	0	0	0	0	0	0	0	0	5050	5050	5050	5050	4977	4977	4977	4977	4977	4977	4906	4906	3738	3698	3698	3698	3698	3659	3659	3659	3659	3659	3659	3659	3659	3659	3659	3659	3659	3659	3659	3659	3621	3621	3621	3621	3621	3621	3621	3621	3621	3621	3621	3621	3621	3659	3659	3659	3659	4906	4906	4906	4906	4906	4906	4906	6720	6592	6468	6349	6349	6468	6349	6349	6349	7137	6720	6992	6853	6592	6720	6235	6235	6235	6235	6235	6235	6235	6235	6235	6349	6349	6235	6235	6235	6235	6235	6235	6235	6235	6235	6349	6349	6349	6235	6235	6235	6349	6349	6349	6349	6349	6349	6349	6349	6349	6349	6592	6592	7959	7959	7959	7959	7959	7959	7959	7959	7959	7959	7959	7959	7959	7779	7959	7959	7959	7959	7959	7959	7959	7959	7959	7959	7959	8146	8146	7959	8146	8146	7959	7959	7959	7959	7959	7959	7959	7959	7959	7779	7779	7959	7779	7779	7959	7959	7959	7959	7959	7779	7779	7779	7608	0	0	0	0	0	0	0	0	4296	4350	4350	4350	0	0	0	0	0	0	0	0	0	0	0	0	0	0	0	0	0	0	0	0	0	0	0	0	0	0	0	0	0	0	0	0	0	0	0	0	0	0	0	0	0	0	0	3186	3186	3186	3186	3186	3246	3246	0	0	0	0	0	0	0	0	0	0	0	0	0	0	0	0	0	0	0	0	0	0	0	0	0	0	3216	3216	3186	3157	3186	3157	3157	3157	3157	3157	3186	3216	3216	3186	0	0	0	0	0	0	0	0	0	0	0	0	0	0	0	1560	1560	1560	1567	1567	1560	1560	1560	1560	1553	1546	1546	1539	1539	1532	1532	1539	1539	1539	1539	1546	1553	1539	1539	0	0	0	0	0	0	0	0	0	0	0	0	0	0	0	0	0	0	0	0	0	0	0	0	0	0	0	0	0	0	0	0	0	0	0	0	0	0
0	0	0	0	0	0	0	0	0	0	0	0	1301	1296	1291	1291	0	0	0	1992	2003	2003	2003	2003	2003	2003	2003	2015	2003	2003	0	0	0	0	0	0	0	0	0	0	0	0	0	0	0	0	0	0	0	0	0	0	0	0	0	0	0	0	0	0	0	0	0	0	0	0	0	0	0	0	0	0	0	0	0	0	0	0	0	2027	2015	2027	2027	2015	2015	2015	2003	2003	1992	1992	2003	2003	2003	2003	2003	2015	2015	2015	2015	2015	2015	2015	2027	2015	2015	2015	2015	2015	2015	2003	2003	2003	2003	2003	2003	2015	2015	2015	2015	2015	2015	2015	2015	2015	2027	2027	2027	2015	2027	2039	2039	0	0	0	0	0	0	0	2589	2609	2609	2733	2711	2711	2711	2711	2711	2690	2690	2690	2690	2669	2669	2669	2669	2669	2649	2649	2649	2649	2690	2711	2711	2711	2711	2690	2690	2690	2669	2669	2669	2669	2669	2669	2649	2649	2649	2649	2629	2629	3406	3373	3406	3440	3406	3406	3406	3406	3406	3406	3406	3406	3406	3406	3373	3373	3373	3373	3406	3406	3406	3406	3406	3406	3406	3406	3440	3440	3440	3475	3510	3546	3583	3621	3659	3659	3738	3738	3738	3779	3779	3864	3864	3864	3864	3864	3907	3907	3907	3952	3998	4045	4093	4093	4243	4296	4350	4350	4350	4406	4406	4463	4463	4463	0	6468	6592	6468	6468	6468	6349	6235	6235	6124	6124	6235	6124	6235	6235	6235	6124	6124	6124	6018	6018	6018	0	0	0	0	0	0	0	0	0	0	0	0	0	0	0	0	0	0	0	0	0	0	0	0	0	0	0	0	0	0	0	0	5202	5125	5050	5050	5050	4977	4977	4977	4977	4977	4977	4906	4906	3738	3698	3698	3698	3698	3659	3698	3659	3659	3659	3659	3659	3659	3659	3659	3659	3659	3659	3659	3659	3621	3621	3621	3621	3621	3621	3621	3621	3621	3621	3621	3621	3621	3621	3621	3659	3659	4906	4906	4906	4906	4906	4838	4838	6592	6592	6468	6349	6349	6349	6349	6349	6349	6349	6349	6349	6349	6349	6468	6349	6235	6235	6235	6349	6349	6235	6349	6349	6349	6349	6235	6235	6235	6235	6235	6235	6235	6349	6235	6349	6349	6349	6235	6235	6235	6235	6349	6349	6349	6349	6349	6349	6349	6349	6349	6468	6853	6853	7779	7959	7959	7959	7959	7959	7959	7959	7959	7959	7959	7959	7959	7959	7959	8146	7959	7959	7959	7959	7959	7959	7959	7959	8146	8146	8146	8146	8146	7959	8146	7959	8146	7959	7959	8146	7959	7959	7779	7779	7779	7779	7779	7779	7959	7959	7959	7959	7959	7779	7779	0	0	0	0	0	0	0	0	0	0	0	0	0	0	0	0	0	0	0	0	0	0	0	0	0	0	0	0	0	0	0	0	0	0	0	0	0	0	0	0	0	0	0	0	0	0	0	0	0	0	0	0	0	0	0	0	0	3186	3186	3186	3186	0	0	0	0	0	0	0	0	0	0	0	0	0	0	0	0	0	0	0	0	0	0	0	0	0	0	0	0	0	0	0	3157	3186	3157	3157	3157	3101	3101	3186	3216	3216	0	0	0	0	0	0	0	0	0	0	0	0	0	0	0	0	1553	1560	1560	1560	1560	1560	1560	1553	1553	1553	1546	1539	1539	1532	1532	1525	1532	1532	1532	1532	1532	1532	1539	1539	1539	0	0	0	0	0	0	0	0	0	0	0	0	0	0	0	0	0	0	0	0	0	0	0	0	0	0	0	0	0	0	0	0	0	0	0	0	0
0	0	0	0	0	0	0	0	0	0	0	0	1296	1291	1287	1291	1291	0	0	1992	1992	2003	2003	2003	2003	2003	2003	2003	2003	2003	0	0	0	0	0	0	0	0	0	0	0	0	0	0	0	0	0	0	0	0	0	0	0	0	0	0	0	0	0	0	0	0	0	0	0	0	0	0	0	0	0	0	0	0	0	0	0	0	2015	2003	2003	2027	2015	2015	2015	2015	2003	2003	1992	1992	2003	2003	2003	2003	2003	2015	2015	2015	2015	2015	2015	2015	2015	2015	2015	2015	2027	2003	2015	2003	2003	2003	2003	2003	2003	2015	2015	2015	2015	2027	2015	2015	2015	2015	2027	2027	2039	2015	2051	2076	2076	0	0	0	0	0	0	2609	2629	2629	2629	2629	2649	2669	2690	2690	2690	2690	2690	2690	2690	2669	2669	2669	2669	2669	2649	2649	2649	2649	2649	2711	2711	2711	2711	2690	2690	2690	2690	2669	2669	2669	2669	2669	2669	2649	2649	2649	2629	2629	3406	3373	3406	3440	3406	3406	3406	3406	3406	3406	3406	3406	3406	3373	3373	3373	3373	3373	3406	3406	3406	3406	3406	3406	3406	3440	3440	3440	3440	3510	3510	3583	3583	3621	3659	3659	3698	3738	3738	3738	3738	3864	3907	3864	3907	3907	3907	3907	3907	3998	3998	4045	4045	4093	4192	4243	4350	4350	4350	4406	4406	4463	4463	0	0	6468	6592	6468	6468	6468	6349	6235	6235	6235	6124	6235	6235	6235	6124	6124	6124	6124	6124	6124	6124	6124	0	0	0	0	0	0	0	0	0	0	0	0	0	0	0	0	0	0	0	0	0	0	0	0	0	0	0	0	0	0	0	0	5202	5050	5050	5050	5050	4977	4977	4977	4977	4977	4977	4906	4906	3698	3698	3698	3659	3659	3621	3659	3659	3659	3659	3659	3659	3659	3659	3659	3659	3659	3698	3659	3659	3659	3621	3621	3621	3621	3621	3621	3621	3621	3621	3621	3621	3621	3621	3621	3659	3659	4906	4906	4906	4906	4906	4838	4838	6592	6592	6468	6468	6349	6349	6349	6349	6349	6349	6349	6349	6349	6349	6349	6235	6235	6235	6235	6349	6235	6235	6349	6349	6349	6235	6235	6235	6235	6235	6235	6235	6235	6349	6235	6235	6235	6235	6235	6235	6235	6349	6349	6235	6349	6349	6349	6349	6468	6468	6468	6592	6592	6592	7779	7779	7959	8146	7959	8146	8146	8146	7959	7959	7959	7959	7959	7959	7959	8146	7959	7959	7959	7959	7959	7959	7959	7959	8146	8146	8146	8146	8146	7959	8146	8146	8146	7959	8146	8146	7959	7959	7959	7959	7959	7959	7779	7959	7959	7959	8146	8146	7959	0	0	0	0	0	0	0	0	0	0	0	0	0	0	0	0	0	0	0	0	0	0	0	0	0	0	0	0	0	0	0	0	0	0	0	0	0	0	0	0	0	0	0	0	0	0	0	0	0	0	0	0	0	0	0	0	0	0	0	0	0	0	0	0	0	0	0	0	0	0	0	0	0	0	0	0	0	0	0	0	0	0	0	0	0	0	0	0	0	0	0	0	0	0	0	0	0	0	0	3101	3101	0	0	0	0	0	0	0	0	0	0	0	0	0	0	0	0	0	0	1539	1546	1539	1539	1539	1553	1553	1553	1546	1546	1546	1539	1539	1532	1532	1532	1525	1532	1532	1532	1532	1532	1525	1532	1532	1539	0	0	0	0	0	0	0	0	0	0	0	0	0	0	0	0	0	0	0	0	0	0	0	0	0	0	0	0	0	0	0	0	0	0	0	0	0
0	0	0	0	0	0	0	0	0	0	0	0	1291	1291	1282	1282	1282	0	0	0	1992	2003	2003	2003	1992	2003	2003	1992	1992	0	0	0	0	0	0	0	0	0	0	0	0	0	0	0	0	0	0	0	0	0	0	0	0	0	0	0	0	0	0	0	0	0	0	0	0	0	0	0	0	0	0	0	0	0	0	0	0	0	2003	2003	2003	2015	2015	2015	2015	2015	2003	2003	1992	1992	2003	2003	1992	2003	2015	2015	2015	2015	2015	2015	2015	2015	2015	2015	2015	2015	2015	2003	2015	2003	2003	2015	2015	2015	2015	2015	2015	2015	2015	2015	2015	2015	2015	2027	2027	2039	2039	2015	2051	2051	2051	0	0	0	2609	2609	2589	2589	2609	2609	2589	2733	2711	2733	2711	2711	2711	2690	2690	2690	2669	2669	2669	2669	2669	2669	2649	2649	2649	2649	2649	2669	2669	2711	2711	2690	2690	2690	2690	2669	2669	2669	2669	2669	2669	2669	2669	2649	2649	2629	0	0	0	0	3406	3406	3406	3406	3406	3406	3406	3406	3406	3373	3373	3373	3373	3373	3406	3406	3406	3406	3406	3406	3406	3406	3440	3440	3440	3510	3510	3583	3621	3659	3659	3659	3698	3738	3738	3738	3738	3864	3864	3864	3864	3907	3952	3952	3952	3998	3998	4045	4045	4142	4192	4296	4350	4350	4406	4406	4406	4463	4463	0	0	0	0	0	0	0	0	6235	6235	6235	6235	6235	6235	6235	6235	6235	6235	6124	6124	6124	6124	6124	0	0	0	0	0	0	0	0	0	0	0	0	0	0	0	0	0	0	0	0	0	0	0	0	0	0	0	0	0	0	0	0	5202	5050	5050	5050	4977	4977	4977	4977	4977	4977	4977	4977	4906	3698	3698	3659	3659	3659	3621	3659	3659	3659	3659	3659	3659	3659	3659	3659	3659	3659	3659	3659	3659	3659	3621	3621	3621	3621	3621	3621	3621	3621	3621	3621	3621	3621	3621	3621	3659	3659	4906	4838	4838	4838	4838	4838	6720	6468	6468	6349	6349	6349	6349	6235	6349	6235	6235	6235	6235	6235	6235	6235	6235	6235	6235	6235	6235	6235	6235	6235	6235	6349	6235	6235	6235	6235	6235	6235	6235	6235	6235	6235	6235	6235	6235	6235	6124	6235	6235	6235	6235	6235	6349	6349	6349	6349	6468	6468	6592	6592	6592	0	7779	8146	8146	7959	8146	8146	8146	7959	7959	7959	0	0	0	0	0	0	0	0	0	0	7959	7959	0	0	0	0	0	8146	8146	8146	8146	7959	7959	7959	8146	7959	7959	7959	7959	7959	7959	7959	7959	7959	7959	8146	8146	0	0	0	0	0	0	0	0	0	0	0	0	0	0	0	0	0	0	0	0	0	0	0	0	0	0	0	0	0	0	0	0	0	0	0	0	0	0	0	0	0	0	0	0	0	0	0	0	0	0	0	0	0	0	0	0	0	0	0	0	0	0	0	0	0	0	0	0	0	0	0	0	0	0	0	0	0	0	0	0	0	0	0	0	0	0	0	0	0	0	0	0	0	0	0	0	0	0	0	0	0	0	0	0	0	0	0	0	0	0	0	0	0	0	0	0	0	0	0	1532	1539	1539	1532	1532	1539	1539	1553	1546	1546	1546	1546	1539	1532	1532	1532	1525	1512	1525	1525	1525	1525	1525	1519	1525	1525	0	0	0	0	0	0	0	0	0	0	0	0	0	0	0	0	0	0	0	0	0	0	0	0	0	0	0	0	0	0	0	0	0	0	0	0	0	0
0	0	0	0	0	0	0	0	0	0	0	0	1287	1287	1282	1277	1277	0	0	0	2003	2003	2003	2003	2003	1992	1992	1992	1992	1992	0	0	0	0	0	0	0	0	0	0	0	0	0	0	0	0	0	0	0	0	0	0	0	0	0	0	0	0	0	0	0	0	0	0	0	0	0	0	0	0	0	0	0	2003	1992	1992	1992	2003	2003	1992	1992	2015	2015	2015	2003	2003	2003	2003	2003	2003	2015	2003	2003	2003	2015	2015	2015	2015	2015	2015	2015	2015	2015	2015	2015	2015	2015	2015	2015	2015	2015	2015	2015	2015	2003	2003	2015	2027	2015	2015	2015	2027	2015	2027	2027	2039	2039	2015	2015	2649	2649	2649	2629	2629	2629	2629	2609	2609	2609	2609	2589	2733	2733	2733	2711	2711	2711	2690	2690	2669	2669	2669	2669	2669	2669	2669	2649	2649	2649	2649	2649	2669	2669	2669	2711	2690	2690	2690	2690	2669	2669	2669	2669	2669	2669	2669	2669	2669	2669	0	0	0	0	0	0	0	0	0	3406	3406	3406	3406	3406	3406	3373	0	3373	3406	3406	3406	3406	3406	3373	3406	3406	3406	3406	3440	3440	3510	3546	3583	3621	3659	3659	3659	3698	3698	3738	3738	3779	3864	3907	3864	3864	3907	3952	3952	3952	3998	4045	4045	4045	4093	4192	4243	4350	4350	4406	4406	4406	4406	4463	0	0	0	0	0	0	0	0	0	6235	6235	6124	6235	6235	6235	6235	6235	6235	6124	6124	6124	6124	0	0	0	0	0	0	0	0	0	0	0	0	0	0	0	0	0	0	0	0	0	0	0	0	0	0	0	0	0	0	0	0	5125	5125	5050	5050	5050	4977	4977	4977	4977	4906	4906	4977	4977	4977	3698	3698	3659	3659	3621	3621	3659	3659	3621	3659	3659	3659	3659	3659	3659	3659	3659	3659	3659	3659	3659	3621	3621	3621	3621	3621	3621	3621	3621	3621	3621	3621	3621	3621	3659	3698	3698	4906	4906	4838	4906	6349	6592	6468	6349	6349	6349	6349	6349	6235	6235	6235	6349	6235	6235	6235	6235	6235	6235	6235	6235	6235	6235	6235	6235	6235	6235	6235	6235	6235	6124	6124	6235	6235	6235	6235	6235	6235	6124	6235	6124	6235	6124	6124	6124	6235	6235	6124	6235	6235	6349	6349	6349	6349	6468	6468	6592	6592	0	0	8146	8146	8146	8146	8146	8146	0	0	0	0	0	0	0	0	0	0	0	0	0	0	0	0	0	0	0	0	8146	8146	8146	8146	7959	7959	7959	8146	7959	7959	0	0	0	7959	7959	0	0	0	0	0	0	0	0	0	0	0	0	0	0	0	0	0	0	0	0	0	0	0	0	0	0	0	0	0	0	0	0	0	0	0	0	0	0	0	0	0	0	0	0	0	0	0	0	0	0	0	0	0	0	0	0	0	0	0	0	0	0	0	0	0	0	0	0	0	0	0	0	0	0	0	0	0	0	0	0	0	0	0	0	0	0	0	0	0	0	0	0	0	0	0	0	0	0	0	0	0	0	0	0	0	0	0	0	0	0	0	0	0	0	0	0	0	0	0	0	0	1539	1539	0	1525	1532	1532	1525	1532	1532	1532	1546	1546	1539	1539	1539	1539	1532	1532	1532	1532	1525	1525	1525	1525	1519	1519	1519	1525	1525	0	0	0	0	0	0	0	0	0	0	0	0	0	0	0	0	0	0	0	0	0	0	0	0	0	0	0	0	0	0	0	0	0	0	0	0	0	0
0	0	0	0	0	0	0	0	0	0	0	0	1282	1282	1282	1282	1277	0	0	2015	2015	2003	2003	2003	2003	2003	1992	1992	1992	1992	0	0	0	0	0	0	0	0	0	0	0	0	0	0	0	0	0	0	0	0	0	0	0	0	0	0	0	0	0	0	0	0	0	0	0	0	0	0	0	0	0	0	0	2003	2003	1992	1992	2003	1992	1992	1992	2003	2015	2003	2003	2003	2003	2003	1992	1992	2015	1992	1992	2003	2003	2027	2015	2015	2015	2015	2015	2015	2015	2015	2015	2015	2015	2015	2015	2015	2015	2015	2015	2015	2003	2015	2027	2027	2015	2015	2015	2027	2015	2027	2027	2027	2027	2039	2039	2649	2649	2649	2629	2629	2629	2629	2609	2609	2609	2609	2609	2733	2733	2733	2711	2711	2711	2690	2669	2669	2669	2649	2669	2669	2669	2649	2649	2649	2649	2649	2649	2649	2649	2649	2669	2711	2711	2711	2711	2669	2669	2669	2669	2669	2669	2669	2669	2669	2649	2649	0	0	0	0	0	0	0	0	0	3406	3406	3406	3406	3406	0	0	0	3406	3406	3406	3440	3406	3373	3373	3406	3406	3406	3406	3440	3475	3510	3546	3621	3621	3659	3659	3698	3738	3738	3738	3738	3864	3864	3864	3864	3864	3907	3952	3952	3998	4045	4045	4045	4093	4192	4243	4296	4296	4350	4406	4406	4406	0	0	0	0	0	0	0	0	0	0	6235	6235	6124	6235	6235	6235	6235	6235	6235	6235	6235	6124	6124	0	0	0	0	0	0	0	0	0	0	0	0	0	0	0	0	0	0	0	0	0	0	0	0	0	0	0	0	0	0	0	0	5125	5050	5050	5050	4977	4977	4977	4906	4906	4906	4906	4906	4906	3698	3659	3659	3659	3621	3621	3583	3583	3659	3621	3659	3659	3659	3659	3659	3659	3659	3659	3659	3698	3659	3659	3659	3659	3621	3621	3621	3621	3621	3621	3621	3621	3621	3621	3621	3659	3659	4977	4977	4906	4838	4906	4906	6349	6349	6349	6235	6235	6235	6235	6235	6235	6235	6235	6235	6235	6235	6235	6235	6235	6235	6124	6124	6124	6235	6235	6235	6235	6124	6124	6124	6124	6124	6124	6124	6124	6124	6124	6124	6124	6124	6124	6124	6124	6124	6124	6235	6235	6124	6235	6235	6349	6349	6349	6349	6468	6468	6592	6592	0	0	0	8146	8146	8146	0	0	0	0	0	0	0	0	0	0	0	0	0	0	0	0	0	0	0	0	0	0	0	0	0	0	0	0	0	0	0	0	0	0	0	0	0	0	0	0	0	0	0	0	0	0	0	0	0	0	0	0	0	0	0	0	0	0	0	0	0	0	0	0	0	0	0	0	0	0	0	0	0	0	0	0	0	0	0	0	0	0	0	0	0	0	0	0	0	0	0	0	0	0	0	0	0	0	0	0	0	0	0	0	0	0	0	0	0	0	0	0	0	0	0	0	0	0	0	0	0	0	0	0	0	0	0	0	0	0	0	0	0	0	0	0	0	0	0	0	0	0	0	0	0	0	0	0	0	0	0	0	0	0	0	0	1539	1539	1532	1525	1519	1519	1519	1519	1525	1525	1525	1532	1553	1539	1539	1539	1539	1532	1532	1532	1525	1525	1519	1519	1519	1519	1519	1512	1512	1512	1512	0	0	0	0	0	0	0	0	0	0	0	0	0	0	0	0	0	0	0	0	0	0	0	0	0	0	0	0	0	0	0	0	0	0	0	0	0	0
