0	0	0	0	0	0	0	0	0	0	1291	1291	1291	1291	1296	1306	1301	1306	1306	1306	1419	1402	1402	1402	1402	1402	1402	1402	1402	1402	1402	1402	1402	1396	1396	1396	1402	1402	1402	1396	1396	1407	1407	1402	1396	1396	1396	1396	1390	1390	1385	1385	1385	1390	1390	1396	1396	1396	1396	1402	1396	1390	1390	1390	1390	1385	1385	1385	1413	1413	1407	0	0	0	0	0	0	0	0	0	0	0	0	0	1413	1407	1407	1413	1419	1419	1419	1425	1431	1431	1431	1431	1431	1431	1431	1431	1437	1437	1437	1443	1443	1443	1449	1455	1467	1480	1486	1492	1492	1492	1492	1499	1512	1519	1532	1532	1546	1553	1553	1553	1560	1560	1567	1574	1581	1581	1589	1603	1611	1626	1634	1657	1657	1665	1665	0	0	0	0	0	0	0	0	0	0	0	0	0	0	0	0	0	0	0	0	0	2754	2754	2754	2754	2754	2754	2733	2733	2733	2733	2733	2733	2733	2733	2733	2733	2733	2733	2754	2754	2754	2799	2822	2822	2845	2845	2845	2845	2822	2822	2822	2822	2799	2799	2799	2799	2799	2822	2822	2845	2845	2869	2893	2893	2893	2917	2942	2942	2942	2942	2942	2967	3019	3019	3046	0	0	0	0	0	0	0	0	0	0	0	6592	6468	6468	6468	6468	6468	6468	6468	6468	6349	6349	6468	6349	6468	6468	6468	6592	6592	6592	6468	6468	6468	6592	6592	6592	6592	6592	6592	6592	6592	6592	6592	6592	6592	6592	6592	6592	6592	6592	6592	6592	6592	6592	6592	6592	6592	6592	6592	6592	6592	6592	6592	6592	6592	6592	6592	6592	6592	6592	6592	6592	6592	6592	6592	6592	6592	6468	3738	3738	3698	3698	3698	3698	3698	3698	3698	3698	3698	3659	3659	3659	3621	3621	3621	3621	3621	3583	3583	3583	3583	3621	3621	3583	3583	3583	3583	3621	3583	3583	3583	3621	3583	3583	3583	3583	3583	3583	3621	3621	3621	3621	3621	3621	3621	3621	3621	3621	3621	3621	3621	3621	3621	3583	3621	3621	3659	3698	3698	3698	3698	3698	3698	0	8767	8767	8550	8550	8550	8550	8343	8343	8343	8343	8343	8343	8343	8343	8343	8343	8343	6592	6592	6468	6468	6468	6468	6468	6468	6468	6468	6468	6468	6468	6468	6592	6592	6592	6468	6468	6592	6592	6592	6468	6468	6468	6468	6468	6468	6468	8550	8550	8550	8550	8550	8343	8343	8343	8343	8343	8343	8146	8146	8146	8146	8146	8146	8146	8146	8146	8146	8343	8146	8146	8146	8146	8146	8146	7959	7959	7959	7779	7959	7959	7959	7959	7959	7959	7959	7959	7959	7959	7959	7959	7959	7959	7959	7959	8146	8146	8146	8146	8146	8146	7959	7959	7959	7959	7959	7959	7959	0	0	0	0	0	0	0	0	0	0	0	0	0	0	0	0	0	0	0	0	0	0	0	0	0	0	0	0	0	0	0	0	0	0	0	0	1539	1539	1532	1532	1525	1525	1525	1525	1525	1525	1519	1519	1519	1519	1525	1525	1532	1532	1546	1546	1546	1546	1539	1539	1532	1532	1525	1519	1519	1512	1512	1512	1506	1506	1506	1499	1499	1499	1492	1486	1486	1486	1486	1486	1486	1486	1480	1480	1473	1467	1473	1467	1467	1461	1461	1461	1461	1455	1455	1455	1455	1455	1449	1455	1455	1455	1449	1449	1449	1437	1437	1431	1431	1431	1431	1431	1431	1431	1431	1431	1431	1431	1431	1431	1431	1425	1419	1413	1419	1419	1419	1419	1419	1419	1425	1425	1425	1425	0	0	0	0	0	0	0	0	0	0	0	0	0	0	0	0	0	0	0	0	0	0	0	0	0	0	0	0	0	0	0	0	0	0	0	0	0	0	0	0
0	0	0	0	0	0	0	0	0	0	1291	1291	1291	1291	1296	1301	1301	1301	1301	1407	1407	1407	1402	1402	1402	1402	1402	1402	1396	1396	1396	1402	1396	1396	1402	1402	1402	1407	1402	1396	1396	1402	1402	1402	1396	1396	1396	1396	1390	1390	1390	1390	1390	1390	1390	1396	1396	1396	1396	1396	1390	1390	1385	1385	1379	1379	1390	1390	1413	1413	1413	0	0	0	0	0	0	0	0	0	0	0	0	0	1413	1402	1407	1413	1413	1419	1413	1431	1431	1425	1431	1425	1425	1431	1431	1431	1431	1437	1437	1443	1443	1443	1449	1449	1467	1473	1486	1492	1492	1492	1492	1499	1506	1519	1532	1532	1539	1553	1553	1553	1560	1560	1567	1574	1574	1574	1589	1603	1611	1626	1634	1657	1657	1665	1657	1657	0	0	0	0	0	0	0	0	0	0	0	0	0	0	0	0	0	0	0	0	2754	2733	2733	2733	2733	2733	2733	2733	2733	2733	2733	2733	2733	2733	2733	2733	2733	2754	2754	2754	2777	2822	2845	2845	2845	2845	2845	2845	2822	2822	2822	2799	2799	2799	2799	2799	2799	2822	2822	2822	2845	2845	2869	2893	2893	2917	2942	2942	2942	2942	2967	3019	3019	3019	3019	0	0	0	0	0	0	0	0	0	0	0	6468	6468	6468	6468	6468	6468	6468	6468	6468	6468	6468	6468	6468	6468	6592	6592	6592	6592	6592	6592	6592	6468	6592	6592	6592	6592	6592	6592	6592	6468	6592	6592	6592	6592	6592	6592	6592	6592	6592	6468	6592	6468	6592	6592	6592	6592	6592	6592	6592	6592	6592	6592	6592	6592	6592	6592	6592	6592	6592	6592	6592	6592	6592	6592	6592	6468	6468	6349	3738	3698	3698	3698	3698	3698	3698	3698	3698	3698	3659	3659	3621	3621	3621	3621	3621	3621	3621	3621	3583	3583	3621	3621	3583	3583	3583	3583	3583	3583	3583	3583	3621	3583	3583	3583	3583	3583	3621	3621	3621	3621	3621	3621	3621	3621	3621	3621	3621	3621	3621	3621	3621	3621	3621	3621	3659	3659	3698	3698	3698	3698	3698	3698	0	8767	8550	8550	8550	8550	8550	8343	8343	8343	8343	8343	8343	8343	8343	8343	8146	8146	6592	6592	6592	6592	6468	6468	6468	6468	6468	6468	6468	6468	6468	6592	6592	6592	6592	6592	6468	6468	6592	6592	6592	6468	6468	6468	6468	6592	6592	8550	8550	8550	8550	8343	8343	8343	8343	8343	8343	8343	8146	8146	8146	8146	8146	8146	8146	8146	8146	8146	8343	8146	8146	8146	8146	8146	8146	7959	7959	7959	7779	7959	7959	7959	7959	7959	7959	7959	7959	7959	7959	7959	7959	7959	7959	7959	7959	7959	7959	8146	8146	8146	8146	7959	7959	7959	7959	7959	7959	7959	0	0	0	0	0	0	0	0	0	0	0	0	0	0	0	0	0	0	0	0	0	0	0	0	0	0	0	0	0	0	0	0	0	0	1546	1546	1546	1539	1539	1532	1532	1525	1525	1525	1525	1525	1519	1519	1519	1525	1525	1525	1532	1539	1539	1539	1539	1539	1539	1532	1532	1525	1525	1519	1512	1512	1506	1506	1506	1506	1506	1499	1499	1499	1492	1492	1486	1486	1486	1486	1486	1480	1480	1480	1473	1473	1467	1461	1461	1461	1461	1455	1455	1455	1455	1455	1449	1455	1449	1455	1449	1449	1449	1449	1443	1437	1437	1431	1431	1431	1431	1431	1425	1431	1431	1431	1431	1425	1431	1431	1419	1419	1413	1413	1413	1413	1419	1413	1413	1413	1419	1419	1419	1419	0	0	0	0	0	0	0	0	0	0	0	0	0	0	0	0	0	0	0	0	0	0	0	0	0	0	0	0	0	0	0	0	0	0	0	0	0	0	0	0
0	0	0	0	0	0	0	0	0	0	1291	1291	1291	1291	1296	1301	1301	1301	1306	1306	1306	1413	1407	1407	1407	1407	1407	1407	1402	1402	1402	1407	1407	1402	1402	1407	1402	1402	1396	1396	1390	1396	1396	1396	1396	1396	1402	1396	1396	1390	1390	1390	1390	1390	1390	1396	1396	1396	1396	1396	1390	1390	1385	1385	1385	1390	1396	1413	1413	1419	1413	1413	0	0	0	0	0	0	0	0	0	0	0	0	1413	1402	1419	1413	1419	1419	1419	1425	1425	1425	1425	1425	1425	1425	1431	1431	1431	1437	1437	1443	1443	1443	1449	1449	1461	1467	1480	1486	1486	1492	1492	1506	1506	1512	1525	1525	1539	1546	1546	1553	1560	1560	1567	1574	1574	1574	1581	1596	1611	1626	1634	1649	1649	1657	1665	1665	1665	0	0	0	0	0	0	0	0	0	0	0	0	0	0	0	0	0	0	0	2754	2733	2733	2733	2733	2733	2733	2733	2733	2733	2733	2733	2733	2733	2733	2733	2733	2754	2777	2777	2799	2845	2845	2869	2869	2869	2845	2845	2845	2822	2822	2799	2799	2799	2799	2799	2822	2822	2845	2845	2845	2845	2869	2893	2893	2917	2942	2942	2942	2967	2967	2967	2967	3019	3019	0	0	0	0	0	0	0	0	0	0	0	6468	6468	6468	6468	6468	6468	6468	6468	6468	6468	6468	6468	6468	6468	6592	6592	6592	6592	6592	6592	6468	6468	6592	6592	6592	6592	6592	6592	6592	6592	6592	6592	6592	6592	6592	6592	6592	6592	6592	6592	6592	6592	6592	6592	6592	6592	6592	6592	6592	6592	6592	6592	6592	6592	6592	6592	6592	6592	6592	6592	6592	6592	6592	6592	6468	6468	6468	6349	3779	3698	3698	3698	3698	3698	3698	3698	3698	3698	3659	3621	3621	3621	3621	3621	3621	3621	3621	3621	3583	3583	3621	3621	3583	3621	3583	3583	3621	3583	3583	3583	3621	3583	3583	3583	3583	3583	3621	3621	3621	3621	3621	3621	3621	3621	3621	3621	3621	3621	3621	3621	3621	3621	3621	3659	3659	3659	3698	3698	3698	3698	3698	3698	0	8767	8767	8550	8550	8550	8550	8550	8343	8343	8343	8146	8146	8146	8146	8146	8146	6592	6592	6592	6592	6592	6592	6468	6468	6468	6468	6468	6468	6468	6468	6468	6468	6468	6468	6468	6468	6592	6468	6468	6592	6468	6468	6468	6468	6468	6468	6468	8550	8550	8550	8550	8343	8343	8343	8343	8343	8343	8146	8146	8146	8146	8146	8146	8146	8146	8146	8146	8343	8146	8146	8146	8146	8146	8146	8146	7959	7959	7959	7959	7959	7959	7959	7959	8146	8146	7959	7959	7959	7959	7959	7959	7959	7959	7959	8146	8146	8146	8146	8146	8146	7959	7959	7959	7959	7959	7779	7779	7779	0	0	0	0	0	0	0	0	0	0	0	0	0	0	0	0	0	0	0	0	0	0	0	0	0	0	0	0	0	0	0	0	0	1539	1539	1539	1532	1532	1532	1532	1525	1525	1525	1525	1519	1519	1519	1525	1525	1525	1525	1539	1532	1532	1532	1532	1532	1532	1532	1525	1525	1525	1519	1512	1506	1506	1506	1506	1499	1499	1499	1499	1499	1492	1486	1486	1486	1486	1480	1480	1480	1480	1480	1480	1473	1467	1461	1461	1461	1455	1455	1455	1455	1455	1449	1443	1443	1443	1455	1449	1449	1449	1449	1443	1437	1431	1431	1431	1431	1431	1425	1425	1425	1431	1431	1431	1425	1425	1425	1425	1419	1413	1413	1413	1413	1419	1413	1413	1413	1419	1419	1413	1413	0	0	0	0	0	0	0	0	0	0	0	0	0	0	0	0	0	0	0	0	0	0	0	0	0	0	0	0	0	0	0	0	0	0	0	0	0	0	0	0
0	0	0	0	0	0	0	0	0	0	1291	1291	1291	1291	1296	1301	1301	1301	1301	1413	1413	1413	1407	1407	1407	1407	1407	1407	1402	1402	1407	1407	1407	1402	1402	1402	1402	1402	1396	1390	1390	1390	1396	1396	1396	1396	1402	1396	1396	1390	1390	1390	1390	1396	1390	1396	1396	1396	1390	1390	1385	1385	1374	1374	1379	1385	1396	1413	1413	1419	1419	1413	0	0	0	0	0	0	0	0	0	0	0	0	1407	1402	1425	1413	1419	1413	1419	1425	1425	1425	1425	1425	1425	1425	1431	1431	1431	1437	1437	1443	1443	1443	1449	1449	1455	1461	1473	1480	1480	1486	1492	1506	1506	1512	1525	1525	1532	1539	1546	1553	1560	1560	1560	1567	1574	1574	1581	1596	1611	1618	1626	1641	1649	1649	1657	1665	1665	0	0	0	0	0	0	0	0	0	0	0	0	0	0	0	0	0	0	0	0	2733	2733	2733	2754	2733	2733	2733	2733	2733	2733	2733	2733	2733	2733	2733	2754	2754	2777	2777	2822	2869	2893	2893	2893	2869	2869	2845	2822	2822	2822	2822	2799	2799	2799	2822	2822	2822	2845	2845	2845	2845	2869	2869	2893	2942	2967	2967	2967	2993	3019	3046	3046	3046	0	0	0	0	0	0	0	0	0	0	0	0	6468	6468	6349	6468	6468	6468	6468	6349	6468	6468	6468	6468	6468	6468	6592	6592	6592	6592	6592	6592	6468	6468	6468	6592	6592	6592	6592	6592	6592	6468	6592	6592	6592	6592	6592	6592	6592	6592	6592	6592	6468	6468	6592	6592	6592	6592	6592	6592	6592	6592	6592	6592	6592	6592	6592	6592	6592	6592	6592	6592	6592	6592	6592	6592	6468	6468	6468	6349	3738	3698	3698	3698	3698	3698	3698	3698	3698	3698	3659	3621	3621	3621	3621	3621	3621	3621	3621	3621	3583	3583	3621	3621	3583	3583	3583	3583	3583	3583	3583	3583	3621	3583	3583	3583	3583	3583	3583	3583	3583	3621	3621	3621	3621	3621	3621	3621	3621	3621	3621	3621	3621	3621	3621	3659	3659	3659	3698	3698	3698	3698	3698	3698	0	8767	8767	8550	8550	8550	8550	8550	8343	8343	8343	8146	8146	8146	8146	8146	8146	6592	6592	6592	6592	6592	6468	6468	6468	6468	6468	6468	6468	6468	6468	6468	6468	6468	6349	6349	6349	6468	6468	6468	6468	6468	6468	6468	6468	6468	6468	8767	8767	8550	8550	8550	8343	8343	8343	8343	8343	8343	8146	8343	8146	8146	8343	8146	8146	8146	8146	8146	8146	8146	8146	8146	8146	8146	8146	7959	7959	7959	7959	7959	8146	8146	8146	8146	8146	8146	8146	8146	8146	8146	7959	7959	7959	7959	7959	7959	7959	8146	8146	8146	8146	7959	7959	7959	7959	7779	7779	7779	7779	7779	0	0	0	0	0	0	0	0	0	0	0	0	0	0	0	0	0	0	0	0	0	0	0	0	0	0	0	0	0	0	1553	1546	1539	1539	1539	1532	1539	1539	1539	1532	1532	1532	1525	1525	1519	1519	1519	1519	1525	1525	1525	1539	1539	1539	1539	1539	1532	1532	1532	1525	1525	1519	1512	1506	1506	1506	1506	1499	1499	1499	1499	1492	1492	1492	1486	1486	1486	1486	1486	1486	1480	1480	1480	1473	1467	1461	1461	1461	1455	1455	1455	1455	1449	1449	1443	1443	1455	1455	1449	1449	1449	1449	1449	1437	1431	1431	1431	1431	1431	1431	1425	1425	1431	1431	1425	1419	1419	1419	1419	1419	1413	1413	1413	1413	1413	1413	1413	1413	1413	1413	1413	1413	0	0	0	0	0	0	0	0	0	0	0	0	0	0	0	0	0	0	0	0	0	0	0	0	0	0	0	0	0	0	0	0	0	0	0	0	0	0	0	0
0	0	0	0	0	0	0	0	0	0	1291	1291	1291	1296	1296	1301	1301	1301	1301	1419	1419	1419	1413	1407	1407	1407	1407	1407	1402	1402	1407	1407	1407	1402	1402	1402	1402	1396	1396	1390	1390	1390	1396	1396	1396	1396	1402	1402	1402	1396	1390	1396	1396	1396	1396	1396	1390	1390	1390	1390	1379	1379	1374	1374	1374	1379	1390	1390	1390	1419	1419	0	0	0	0	0	0	0	0	0	0	0	0	0	1407	1402	1425	1413	1413	1413	1413	1419	1419	1419	1425	1419	1425	1425	1425	1425	1425	1431	1431	1437	1443	1443	1449	1449	1455	1461	1467	1473	1473	1486	1492	1506	1506	1512	1525	1525	1525	1532	1539	1546	1553	1553	1560	1567	1574	1574	1589	1603	1611	1618	1634	1641	1649	1649	1657	1665	1673	1673	0	0	0	0	0	0	0	0	0	0	0	0	0	0	0	0	0	0	0	2733	2733	2733	2754	2733	2733	2733	2733	2711	2733	2733	2733	2733	2733	2733	2754	2777	2799	2822	2845	2893	2893	2893	2917	2893	2893	2845	2845	2822	2822	2799	2799	2799	2799	2822	2822	2822	2845	2845	2845	2845	2845	2869	2893	2942	2967	2967	2993	2993	3019	3019	3019	3046	0	0	0	0	0	0	0	0	0	0	0	6468	6468	6468	6468	6468	6468	6468	6468	6349	6468	6468	6468	6468	6468	6468	6592	6592	6592	6592	6592	6592	6468	6468	6468	6592	6592	6592	6592	6592	6592	6468	6592	6592	6468	6592	6592	6592	6592	6592	6468	6468	6468	6468	6592	6592	6592	6592	6592	6592	6592	6592	6592	6592	6592	6592	6592	6592	6592	6592	6592	6592	6592	6592	6592	6592	6468	6468	6468	6349	3698	3698	3698	3698	3698	3698	3698	3698	3698	3698	3659	3659	3621	3621	3621	3583	3583	3583	3583	3583	3583	3583	3621	3621	3583	3583	3583	3583	3583	3583	3583	3583	3621	3583	3583	3583	3583	3583	3621	3583	3621	3621	3621	3621	3621	3621	3621	3621	3621	3621	3621	3621	3621	3621	3621	3621	3659	3659	3698	3698	3698	3698	3698	3698	0	8767	8767	8550	8550	8550	8343	8343	8146	8343	8343	8146	8343	8146	8343	8343	8343	6592	6592	6592	6592	6468	6468	6468	6468	6468	6468	6468	6468	6468	6468	6468	6349	6349	6349	6349	6349	6468	6468	6468	6468	6468	6468	6349	6468	6468	6468	8550	8550	8550	8343	8343	8343	8343	8343	8343	8343	8343	8146	8146	8146	8146	8146	8146	8146	8146	8146	8146	8146	8146	8146	8146	8146	8146	8146	7959	7959	8146	8146	7959	8146	8146	8146	8146	8146	8146	8146	8146	8146	8146	8146	8146	7959	7959	7959	7959	7959	7959	7959	7959	7959	7959	7959	7959	7959	7779	7779	7779	7779	7779	0	0	0	0	0	0	0	0	0	0	0	0	0	0	0	0	0	0	0	0	0	0	0	0	0	0	0	0	0	0	1553	1539	1539	1539	1539	1539	1539	1539	1539	1532	1532	1532	1525	1525	1519	1512	1512	1512	1519	1519	1532	1539	1546	1539	1539	1539	1532	1532	1532	1532	1525	1525	1519	1512	1506	1506	1499	1499	1499	1499	1499	1492	1492	1492	1486	1486	1486	1486	1480	1480	1480	1480	1473	1467	1467	1461	1461	1461	1455	1455	1455	1455	1455	1449	1449	1443	1443	1449	1449	1443	1443	1443	1443	1437	1431	1431	1431	1431	1431	1431	1431	1425	1425	1425	1425	1419	1419	1413	1413	1413	1413	1413	1413	1413	1413	1413	1413	1413	1413	1413	1413	1413	0	0	0	0	0	0	0	0	0	0	0	0	0	0	0	0	0	0	0	0	0	0	0	0	0	0	0	0	0	0	0	0	0	0	0	0	0	0	0	0
0	0	0	0	0	0	0	0	0	0	1291	1287	1291	1296	1296	1306	1301	1301	1301	1425	1425	1419	1419	1413	1407	1407	1407	1407	1407	1402	1407	1407	1402	1402	1402	1402	1402	1402	1396	1396	1390	1390	1396	1396	1396	1396	1396	1396	1402	1396	1385	1390	1396	1396	1390	1396	1390	1385	1379	1379	1368	1368	1368	1368	1368	1368	1385	1385	1385	1419	1419	0	0	0	0	0	0	0	0	0	0	0	0	0	0	0	1425	1413	1419	1419	1419	1419	1419	1419	1419	1419	1425	1425	1425	1431	1431	1431	1437	1443	1443	1443	1449	1449	1449	1461	1467	1473	1473	1486	1486	1499	1499	1506	1519	1519	1525	1525	1532	1539	1546	1553	1553	1567	1574	1574	1581	1603	1611	1618	1626	1641	1649	1641	1649	1665	1665	1665	1690	1698	1706	1698	1698	0	0	0	0	0	0	0	0	0	0	0	0	0	0	2733	2733	2754	2754	2733	2733	2733	2733	2711	2733	2733	2733	2733	2733	2733	2754	2777	2799	2822	2893	2917	2917	2917	2917	2917	2917	2845	2845	2822	2822	2822	2822	2799	2799	2822	2822	2822	2845	2845	2869	2869	2869	2893	2893	2942	2967	2967	2967	2993	3019	3019	3019	3046	0	0	0	0	0	0	0	0	0	0	0	6468	6349	6468	6349	6349	6349	6349	6349	6349	6349	6468	6349	6468	6468	6468	6592	6592	6592	6592	6592	6592	6592	6592	6468	6592	6592	6592	6592	6592	6592	6468	6468	6592	6468	6592	6592	6592	6592	6592	6468	6468	6468	6468	6592	6592	6592	6592	6592	6592	6468	6592	6468	6592	6592	6592	6592	6592	6592	6592	6592	6592	6592	6592	6592	6468	6468	6468	6468	6349	3659	3659	3698	3698	3698	3698	3698	3698	3698	3659	3659	3621	3621	3621	3621	3621	3621	3621	3621	3621	3583	3583	3621	3621	3583	3583	3583	3583	3583	3583	3583	3621	3621	3621	3583	3621	3621	3621	3621	3583	3583	3621	3621	3621	3621	3621	3621	3621	3621	3621	3621	3621	3621	3621	3621	3621	3659	3698	3698	3698	3698	3698	3698	3698	3698	3698	8767	8550	8550	8550	8343	8343	8146	8343	8343	8146	8343	8343	8343	8343	8343	6592	6592	6592	6592	6468	6468	6468	6468	6468	6468	6468	6468	6468	6468	6468	6349	6349	6349	6349	6349	6468	6349	6468	6468	6468	6468	6349	6468	6468	6468	8343	8343	8343	8343	8343	8343	8343	8343	8343	8343	8343	8146	8146	8146	8146	8146	8146	8146	8146	8146	8146	8146	8146	8146	8146	8146	8146	8146	8146	8146	8146	8146	7959	8146	8146	8146	8146	8146	8146	8146	8146	8146	8146	8146	8146	7959	7959	7959	7959	7959	7959	7959	7959	7959	7959	7959	7959	7959	7779	7779	7959	7959	7779	0	0	0	0	0	0	0	0	0	0	0	0	0	0	0	0	0	0	0	0	0	0	0	0	0	0	0	0	0	0	1553	1546	1539	1546	1546	1546	1539	1539	1539	1532	1525	1532	1525	1519	1512	1512	1512	1512	1519	1525	1546	1546	1546	1546	1539	1539	1539	1532	1532	1532	1525	1525	1519	1519	1506	1506	1499	1499	1499	1499	1499	1492	1492	1492	1486	1492	1486	1486	1480	1480	1480	1480	1473	1467	1467	1461	1461	1461	1461	1455	1455	1455	1455	1449	1443	1443	1443	1449	1443	1443	1437	1437	1437	1437	1431	1431	1431	1431	1431	1431	1425	1425	1425	1425	1425	1419	1413	1413	1413	1413	1413	1413	1413	1413	1413	1413	1413	1413	1413	1413	1413	1413	0	0	0	0	0	0	0	0	0	0	0	0	0	0	0	0	0	0	0	0	0	0	0	0	0	0	0	0	0	0	0	0	0	0	0	0	0	0	0	0
0	0	0	0	0	0	0	0	0	0	1287	1287	1291	1296	1301	1306	1301	1301	1301	1425	1425	1419	1413	1413	1407	1407	1407	1407	1407	1407	1407	1407	1407	1407	1407	1407	1402	1402	1396	1396	1390	1390	1396	1396	1396	1396	1396	1396	1396	1390	1379	1385	1390	1385	1379	1385	1385	1385	1379	1379	1374	1379	1374	1374	1379	1385	1390	1396	1402	1402	0	0	0	0	0	0	0	0	0	0	0	0	0	0	0	0	1431	1419	1425	1425	1419	1419	1419	1419	1419	1419	1419	1425	1425	1431	1431	1437	1437	1443	1443	1443	1449	1449	1455	1455	1467	1473	1473	1480	1486	1499	1499	1499	1512	1519	1519	1525	1532	1539	1546	1546	1553	1567	1567	1574	1581	1603	1603	1618	1626	1634	1634	1641	1641	1649	1665	1665	1690	1706	1706	1706	1706	1706	0	0	0	0	0	0	0	0	0	0	0	0	0	0	0	2754	2754	2733	2733	2733	2733	2733	2733	2733	2733	2733	2733	2733	2733	2754	2777	2777	2917	2942	2942	2942	2917	2917	2893	2845	2845	2822	2822	2822	2822	2822	2822	2822	2822	2822	2845	2845	2845	2869	2869	2869	2917	2942	2942	2967	2993	2993	3019	3019	3019	3046	3046	0	0	0	0	0	0	0	0	0	0	6468	6349	6468	6349	6468	6349	6349	6349	6349	6349	6468	6349	6468	6468	6468	6592	6592	6592	6592	6592	6592	6592	6592	6468	6592	6592	6592	6592	6592	6468	6468	6592	6592	6468	6592	6592	6592	6592	6592	6592	6592	6592	6592	6592	6592	6592	6592	6592	6592	6468	6592	6592	6592	6592	6592	6592	6592	6592	6592	6592	6592	6592	6592	6592	6468	6468	6468	6468	6349	3621	3621	3698	3698	3698	3698	3698	3698	3698	3659	3659	3659	3621	3621	3621	3621	3621	3621	3621	3583	3583	3583	3621	3621	3583	3583	3583	3583	3583	3621	3583	3621	3621	3621	3583	3621	3621	3621	3621	3583	3583	3621	3621	3621	3621	3621	3621	3621	3621	3621	3621	3621	3621	3621	3621	3621	3659	3659	3698	3698	3698	3698	3698	3698	3698	3698	0	8550	8343	8343	8343	8343	8343	8146	8343	8146	8343	8343	8146	8146	8146	6592	6592	6720	6720	6468	6468	6468	6468	6468	6468	6468	6468	6468	6468	6468	6349	6349	6349	6349	6349	6349	6349	6468	6468	6468	6468	6349	6349	6468	6468	8550	8550	8550	8343	8343	8343	8343	8343	8343	8343	8343	8146	8146	8146	8146	8146	8146	8146	8146	8146	8146	8146	8146	8146	8146	8146	8146	8146	8146	8146	8146	7959	7959	8146	8146	8146	8146	8343	8343	8343	8146	8146	8146	8146	8146	7959	8146	8146	7959	7959	8146	8146	8146	7959	7959	7959	7959	7959	7959	7779	7959	7959	0	0	0	0	0	0	0	0	0	0	0	0	0	0	0	0	0	0	0	0	0	0	0	0	0	0	0	0	1581	1567	1560	1560	1553	1546	1546	1546	1546	1546	1539	0	0	1525	1532	1525	1525	1506	1525	1512	1512	1519	1539	1539	1539	1539	1539	1539	1539	1532	1532	1532	1532	1525	1525	1525	1519	1506	1499	1499	1499	1499	1492	1492	1486	1486	1486	1480	1486	1486	1486	1480	1480	1480	1473	1480	1467	1467	1461	1467	1467	1461	1455	1455	1449	1449	1449	1443	1443	1437	1443	1443	1443	1443	1437	1437	1431	1431	1431	1431	1431	1431	1431	1431	1431	1425	1425	1425	1419	1413	1413	1413	1413	1407	1413	1413	1413	1413	1413	1413	1413	1413	1413	1413	1413	0	0	0	0	0	0	0	0	0	0	0	0	0	0	0	0	0	0	0	0	0	0	0	0	0	0	0	0	0	0	0	0	0	0	0	0	0	0	0	0
0	0	0	0	0	0	0	0	0	0	1287	1287	1291	1291	1296	1301	1301	1301	1306	1306	1306	1419	1413	1413	1407	1407	1407	1407	1402	1407	1407	1407	1407	1407	1407	1407	1407	1402	1396	1396	1396	1390	1396	1396	1396	1396	1390	1390	1390	1390	1379	1379	1379	1396	1390	1396	1390	1396	1390	1379	1379	1379	1379	1385	1385	1390	1390	1396	1402	1402	1402	1402	0	0	0	0	0	0	0	0	0	0	0	0	0	0	1431	1425	1425	1431	1425	1419	1419	1419	1419	1419	1425	1425	1425	1431	1437	1437	1437	1443	1443	1443	1449	1449	1455	1455	1467	1467	1467	1480	1486	1499	1499	1499	1512	1519	1519	1525	1532	1539	1539	1546	1553	1553	1567	1567	1581	1589	1611	1611	1626	1634	1641	1641	1641	1649	1665	1665	1665	1698	1706	1706	1706	1706	0	0	0	0	0	0	0	0	0	0	0	0	0	0	0	2754	2754	2733	2733	2733	2711	2733	2733	2733	2733	2733	2733	2733	2733	2754	2754	2754	2942	2942	2942	2942	2917	2917	2893	2869	2822	2822	2822	2822	2822	2822	2822	2822	2822	2822	2822	2822	2845	2893	2893	2942	2942	2942	2967	2967	2993	3019	3019	3019	3019	3046	3046	0	0	0	0	0	0	0	0	0	0	6468	6468	6468	6468	6468	6468	6468	6468	6349	6349	6468	6349	6468	6468	6468	6592	6592	6592	6592	6592	6592	6592	6592	6592	6592	6592	6592	6592	6592	6592	6468	6592	6592	6592	6592	6592	6592	6592	6592	6592	6592	6592	6592	6592	6592	6592	6592	6592	6592	6592	6592	6592	6592	6592	6592	6592	6592	6592	6592	6592	6592	6592	6592	6468	6468	6468	6468	6468	6468	6468	3621	3698	3698	3698	3698	3698	3698	3698	3659	3659	3659	3621	3621	3621	3621	3621	3621	3621	3583	3583	3583	3583	3621	3583	3583	3583	3621	3583	3621	3583	3621	3621	3621	3621	3621	3621	3621	3621	3621	3583	3621	3621	3621	3621	3621	3621	3621	3621	3621	3621	3621	3621	3621	3621	3621	3659	3659	3698	3698	3698	3698	3698	3698	3698	0	0	0	8343	8343	8343	8343	8343	8343	8343	8146	8146	8146	8146	8146	7959	7959	6592	6592	6592	6468	6468	6468	6468	6468	6592	6468	6468	6592	6468	6468	6468	6349	6349	6349	6349	6468	6349	6468	6468	6468	6468	6349	6349	6349	6349	8767	8767	8550	8550	8343	8343	8343	8343	8343	8146	8343	8146	8146	8146	8146	8146	8146	8146	8146	8146	8146	8146	8146	8146	8146	8146	8146	8146	8146	8146	8146	8146	8146	8146	8146	8343	8343	8343	8343	8146	8146	8146	8146	8146	8146	8146	8146	8146	8146	8146	8146	8146	8146	7959	7959	7959	7959	7959	7959	7779	7779	7959	0	0	0	0	0	0	0	0	0	0	0	0	0	0	0	0	0	0	0	0	0	0	0	0	0	0	0	0	1574	1567	1560	1560	1553	1553	1546	1546	1546	1546	0	0	0	0	1525	1525	1525	1525	1525	1525	1525	1532	1539	1539	1539	1539	1546	1539	1539	1539	1539	1532	1532	1532	1525	1525	1519	1499	1499	1492	1492	1492	1492	1492	1492	1486	1486	1480	1486	1486	1486	1480	1480	1480	1480	1473	1467	1467	1467	1461	1461	1461	1461	1455	1455	1449	1449	1443	1449	1437	1443	1443	1443	1437	1437	1437	1431	1431	1431	1431	1431	1431	1431	1431	1431	1431	1431	1425	1419	1419	1413	1413	1407	1407	1407	1407	1407	1413	1413	1413	1413	1413	1413	1413	1413	0	0	0	0	0	0	0	0	0	0	0	0	0	0	0	0	0	0	0	0	0	0	0	0	0	0	0	0	0	0	0	0	0	0	0	0	0	0	0	0
0	0	0	0	0	0	0	0	0	0	1287	1287	1291	1291	1296	1301	1301	1301	1306	1306	1306	1419	1413	1413	1407	1407	1407	1402	1402	1402	1402	1402	1407	1407	1407	1407	1407	1407	1402	1396	1396	1396	1396	1396	1390	1390	1390	1390	1396	1396	1385	1385	1390	1396	1396	1390	1385	1385	1390	1379	1379	1390	1390	1396	1396	1396	1396	1396	1402	1402	1402	1402	1402	0	0	0	0	0	0	0	0	0	0	0	0	0	0	1425	1425	1425	1425	1419	1419	1419	1419	1419	1419	1425	1425	1431	1431	1437	1437	1443	1443	1449	1449	1449	1455	1455	1467	1467	1467	1473	1486	1499	1499	1499	1506	1512	1512	1519	1525	1525	1539	1539	1553	1567	1567	1574	1574	1581	1603	1611	1626	1634	1634	1634	1641	1649	1657	1657	1657	1698	1715	1706	1706	1706	0	0	0	0	0	0	0	0	0	0	0	0	0	0	2754	2754	2754	2733	2733	2711	2711	2711	2733	2733	2733	2733	2733	2733	2733	2754	2754	2942	2942	2942	2942	2942	2917	2917	2893	2869	2822	2822	2799	2799	2799	2799	2822	2822	2822	2822	2845	2845	2845	2917	2917	2942	2942	2942	2967	2967	2993	3019	3019	3019	3046	3046	3046	0	0	0	0	0	0	0	0	0	0	0	6468	6468	6468	6468	6468	6468	6349	6349	6349	6349	6349	6468	6468	6468	6592	6592	6592	6592	6592	6592	6592	6592	6468	6468	6592	6468	6468	6468	6468	6468	6468	6592	6592	6592	6592	6592	6592	6592	6592	6592	6592	6592	6592	6592	6468	6592	6592	6592	6592	6592	6592	6592	6592	6592	6592	6592	6592	6592	6592	6592	6592	6468	6468	6468	6468	6468	6468	6468	6468	3698	3698	3698	3698	3738	3698	3698	3698	3659	3621	3621	3621	3621	3621	3583	3621	3583	3583	3583	3583	3583	3621	3621	3583	3583	3583	3583	3621	3621	3583	3621	3621	3621	3621	3621	3621	3621	3621	3621	3583	3583	3583	3583	3621	3621	3621	3621	3621	3621	3621	3621	3621	3621	3621	3621	3659	3659	3698	3698	3698	3698	3698	3698	3698	0	0	0	0	8343	8343	8343	8343	8343	8343	8343	8343	8146	8146	7959	7959	7959	6592	6592	6592	6468	6468	6468	6468	6468	6468	6468	6468	6468	6468	6468	6349	6349	6349	6349	6349	6349	6349	6349	6468	6468	6468	6349	6349	6349	6349	8550	8550	8550	8550	8550	8343	8343	8343	8343	8146	8146	8146	8343	8146	8343	8343	8146	8146	8146	8146	8146	8146	8146	8146	8146	8146	8146	8146	8146	8146	8146	8146	8146	8146	8146	8146	8343	8343	8343	8146	8146	8146	8146	8146	8146	8146	8146	8146	8146	8146	8146	8146	8146	7959	7959	7779	7779	7779	7779	7608	7608	7959	0	0	0	0	0	0	0	0	0	0	0	0	0	0	0	0	0	0	0	0	0	0	0	0	0	0	0	0	1574	1567	1567	1560	1560	1553	1546	1546	1546	1546	0	0	0	0	1525	1525	1525	1525	1525	1525	1525	1532	1539	1539	1539	1539	1546	1539	1539	1532	1539	1532	1532	1525	1525	1525	1519	1499	1499	1499	1492	1492	1492	1492	1492	1492	1486	1486	1486	1480	1480	1480	1480	1480	1480	1467	1467	1461	1467	1467	1467	1461	1461	1455	1455	1455	1455	1443	1443	1437	1443	1443	1443	1437	1437	1437	1431	1431	1431	1431	1431	1431	1431	1431	1431	1431	1431	1425	1425	1419	1413	1413	1413	1407	1413	1413	1407	1407	1413	1413	1413	1413	1413	1407	1407	0	0	0	0	0	0	0	0	0	0	0	0	0	0	0	0	0	0	0	0	0	0	0	0	0	0	0	0	0	0	0	0	0	0	0	0	0	0	0	0
0	0	0	0	0	0	0	0	0	0	1287	1287	1291	1296	1301	1306	1306	1301	1301	1306	1306	1306	1419	1413	1407	1407	1402	1402	1396	1402	1402	1407	1413	1413	1413	1413	1407	1407	1396	1396	1396	1396	1396	1396	1390	1390	1385	1374	1385	1390	1385	1385	1385	1390	1390	1379	1379	1379	1396	1396	1385	1396	1396	1396	1396	1396	1396	1390	1396	1396	1402	1396	1396	0	0	0	0	0	0	0	0	0	0	0	0	0	0	0	1425	1425	1425	1419	1419	1419	1419	1419	1419	1419	1425	1425	1431	1431	1437	1443	1443	1449	1449	1449	1455	1455	1461	1467	1467	1467	1480	1480	1492	1492	1506	1512	1512	1519	1519	1525	1532	1539	1546	1560	1560	1574	1574	1581	1596	1603	1618	1626	1634	1634	1634	1641	1649	1657	1657	1706	1715	1715	1706	1706	0	0	0	0	0	0	0	0	0	0	0	0	0	0	2733	2733	2733	2733	2733	2711	2711	2711	2733	2733	2733	2733	2733	2733	2733	2733	2733	2711	2993	2993	2967	2942	2917	2917	2917	2869	2822	2799	2799	2799	2799	2799	2822	2822	2822	2822	2845	2845	2869	2917	2917	2942	2967	2967	2967	2993	2993	3019	3019	3019	3046	3046	3046	0	0	0	0	0	0	0	0	0	0	0	6468	6468	6468	6468	6349	6349	6349	6349	6349	6349	6468	6468	6468	6468	6592	6592	6592	6592	6592	6592	6592	6592	6592	6468	6468	6468	6468	6468	6468	6468	6592	6592	6592	6592	6592	6592	6592	6592	6592	6592	6592	6592	6592	6468	6468	6592	6592	6592	6592	6592	6592	6592	6592	6592	6592	6592	6592	6592	6592	6592	6592	6468	6468	6468	6468	6468	6468	6468	6468	6468	3698	3698	3698	3738	3698	3698	3698	3659	3659	3659	3659	3621	3621	3583	3583	3583	3583	3583	3583	3583	3621	3621	3621	3621	3621	3621	3621	3621	3583	3621	3621	3621	3621	3621	3621	3621	3621	3621	3583	3583	3583	3583	3583	3583	3621	3621	3621	3621	3621	3621	3621	3621	3621	3621	3659	3659	3659	3659	3698	3698	3698	3698	3698	0	0	7959	8146	8146	8343	8343	8343	8343	8343	8343	8343	8146	8146	7959	7959	7959	6592	6592	6592	6468	6468	6468	6468	6468	6468	6468	6468	6468	6468	6468	6349	6235	6235	6349	6349	6349	6349	6349	6468	6468	6468	6349	6349	6349	6349	8767	8767	8550	8550	8550	8343	8146	8146	8343	8146	8146	8146	8146	8146	8146	8146	8146	8146	8146	8146	8146	8146	8146	8146	8146	8146	8146	8146	8146	8146	8146	8146	8146	8146	8146	8146	8146	8343	8146	8146	8146	8146	8146	8146	8146	8146	8146	8146	8146	8146	8146	7779	7779	7959	7779	7779	7608	7779	7779	7779	7608	0	0	0	0	0	0	0	0	0	0	0	0	0	0	0	0	0	0	0	0	0	0	0	0	0	0	0	0	0	1574	1567	1567	1567	1560	1553	1553	1553	0	0	0	0	0	0	0	1525	1525	1525	1525	1525	1525	1532	1539	1532	1532	1532	1539	1532	1539	1532	1539	1532	1532	1532	1525	1525	1519	1506	1499	1499	1499	1499	1492	1492	1492	1492	1486	1486	1486	1480	1480	1480	1480	1480	1480	1473	1473	1467	1467	1467	1461	1461	1461	1455	1455	1455	1455	1443	1449	1443	1449	1443	1437	1437	1437	1437	1431	1431	1431	1431	1431	1437	1431	1431	1431	1431	1431	1425	1425	1419	1419	1413	1413	1413	1407	1407	1407	1407	1407	1407	1407	1407	1407	1413	1413	0	0	0	0	0	0	0	0	0	0	0	0	0	0	0	0	0	0	0	0	0	0	0	0	0	0	0	0	0	0	0	0	0	0	0	0	0	0	0	0
0	0	0	0	0	0	0	0	0	0	1287	1287	1291	1296	1301	1306	1306	1306	1301	1306	1306	1306	1419	1413	1402	1402	1396	1396	1396	1396	1396	1402	1407	1407	1413	1413	1413	1407	1402	1402	1396	1396	1396	1396	1390	1390	1379	1374	1385	1385	1385	1379	1385	1385	1390	1379	1379	1379	1402	1402	1396	1396	1396	1396	1396	1396	1390	1390	1396	1396	1396	1396	1396	0	0	0	0	0	0	0	0	0	0	0	0	0	0	0	1425	1425	1425	1419	1419	1419	1419	1419	1419	1419	1425	1425	1431	1431	1431	1437	1437	1443	1443	1449	1449	1455	1461	1461	1467	1473	1480	1492	1492	1499	1506	1512	1512	1519	1525	1525	1532	1539	1546	1553	1553	1567	1574	1581	1596	1611	1618	1626	1634	1634	1634	1641	1649	1665	1690	1706	1706	1706	1706	1706	0	0	0	0	0	0	0	0	0	0	0	0	0	0	2754	2754	2754	2733	2733	2711	2733	2733	2733	2733	2733	2733	2733	2733	2733	2733	2711	2711	2711	2711	2893	2893	2893	2893	2845	2822	2799	2799	2799	2799	2799	2799	2822	2822	2845	2845	2869	2869	2893	2917	2917	2942	2967	2967	2967	2993	2993	3019	3019	3019	3046	3046	3046	0	0	0	0	0	0	0	0	0	0	0	0	6468	6468	6468	6468	6468	6349	6349	6349	6349	6468	6468	6468	6468	6592	6592	6592	6592	6592	6592	6592	6592	6592	6592	6592	6592	6468	6468	6468	6468	6468	6592	6468	6468	6592	6592	6592	6592	6592	6592	6592	6468	6468	6468	6468	6592	6592	6592	6592	6592	6592	6592	6592	6592	6592	6592	6592	6592	6592	6592	6592	6468	6468	6468	6468	6468	6468	6468	6468	3698	3698	3698	3698	3698	3698	3698	3698	3659	3659	3659	3621	3621	3621	3583	3621	3583	3583	3583	3583	3583	3621	3621	3621	3621	3621	3621	3621	3621	3583	3621	3621	3621	3621	3621	3621	3621	3621	3621	3583	3583	3583	3583	3583	3583	3621	3621	3621	3621	3621	3621	3621	3621	3621	3621	3621	3621	3621	3621	3659	3659	3659	3659	3659	0	8146	7959	8146	8146	8146	8146	8146	8343	8343	8343	8343	8146	8146	7959	7959	7959	6592	6592	6468	6468	6468	6468	6468	6468	6468	6468	6468	6468	6468	6468	6468	6349	6349	6349	6349	6349	6349	6349	6468	6468	6468	6349	6468	6349	6349	6349	8767	8550	8550	8550	8550	8146	8343	8343	8343	8343	8146	8146	8146	8146	8146	8146	8146	8146	8146	8146	8146	8146	8146	8146	8146	8146	8146	8146	8146	8146	7959	7959	8146	8146	8146	8146	8146	8146	8343	8146	8146	8146	8343	8343	8146	8146	8146	8146	8146	8146	7779	7779	7959	7959	7779	7779	7779	7779	7779	0	0	0	0	0	0	0	0	0	0	0	0	0	0	0	0	0	0	0	0	0	0	0	0	0	0	0	0	0	0	1574	1574	1574	1567	1560	1560	1560	1553	0	0	0	0	0	0	0	1525	1525	1525	1532	1532	1532	1539	1539	1532	1532	1532	1532	1532	1532	1532	1532	1532	1532	1532	1525	1525	1525	1506	1506	1499	1499	1499	1492	1499	1499	1499	1492	1486	1486	1486	1486	1480	1480	1480	1473	1473	1467	1467	1467	1467	1461	1461	1461	1461	1455	1455	1455	1455	1449	1449	1443	1443	1437	1437	1437	1437	1431	1431	1437	1437	1437	1437	1431	1437	1431	1437	1431	1431	1431	1425	1425	1419	1413	1413	1413	1407	1407	1407	1407	1413	1413	1407	1413	1413	1413	0	0	0	0	0	0	0	0	0	0	0	0	0	0	0	0	0	0	0	0	0	0	0	0	0	0	0	0	0	0	0	0	0	0	0	0	0	0	0	0
0	0	0	0	0	0	0	0	0	0	1282	1282	1287	1291	1296	1306	1306	1306	1301	1301	1301	1306	1419	1413	1413	1402	1396	1396	1396	1396	1396	1402	1407	1413	1413	1413	1413	1407	1407	1407	1402	1402	1402	1402	1396	1396	1385	1385	1385	1385	1385	1385	1385	1385	1390	1379	1379	1385	1396	1396	1396	1396	1396	1396	1396	1396	1390	1390	1396	1396	1396	1396	1396	0	0	0	0	0	0	0	0	0	0	0	0	0	0	0	1425	1425	1425	1425	1425	1419	1419	1419	1425	1425	1425	1425	1425	1425	1425	1425	1431	1431	1443	1449	1461	1461	1467	1467	1467	1473	1473	1492	1492	1499	1506	1512	1512	1519	1519	1525	1539	1539	1546	1553	1553	1567	1567	1574	1589	1596	1618	1626	1634	1634	1634	1641	1649	1649	1681	1706	1706	1706	1706	1706	0	0	0	0	0	0	0	0	0	0	0	0	0	0	2754	2733	2733	2733	2733	2711	2733	2733	2711	2733	2733	2733	2733	2733	2711	2711	2733	2711	2711	2711	2893	2869	2869	2845	2822	2822	2799	2799	2799	2799	2799	2799	2822	2822	2845	2845	2869	2869	2893	2917	2917	2942	2967	2967	2967	2993	3019	3019	3019	3019	3046	3046	3046	0	0	0	0	0	0	0	0	0	0	0	0	6468	6468	6468	6468	6468	6468	6468	6349	6349	6349	6468	6349	6349	6468	6468	6592	6592	6592	6592	6592	6592	6592	6592	6592	6592	6592	6468	6468	6468	6592	6592	6592	6468	6592	6592	6592	6592	6592	6592	6592	6592	6592	6468	6468	6592	6592	6592	6592	6720	6720	6720	6592	6592	6592	6592	6592	6592	6468	6592	6468	6468	6468	6468	6468	6468	6468	6468	6468	3698	3698	3698	3698	3698	3698	3659	3698	3659	3659	3621	3621	3621	3621	3621	3621	3583	3621	3583	3583	3583	3621	3621	3621	3621	3621	3621	3621	3621	3583	3621	3621	3621	3621	3621	3621	3621	3621	3621	3583	3583	3583	3583	3583	3583	3621	3621	3621	3621	3621	3621	3621	3621	3621	3621	3621	3621	3621	3621	3621	3621	3621	3621	3659	8146	7959	7959	7959	8146	8146	8146	8146	8146	8343	8146	8146	8146	7959	7959	7779	7608	6592	6592	6468	6468	6468	6468	6468	6468	6468	6349	6468	6468	6468	6468	6468	6349	6349	6349	6349	6349	6349	6349	6468	6468	6468	6349	6349	6349	6349	6235	8767	8767	8550	8550	8550	8343	8343	8343	8343	8343	8146	8146	8146	8146	8146	8146	8146	8146	8146	8146	8146	8146	8146	8146	8146	8146	8146	8146	8146	7959	7959	7959	7959	8146	8146	8146	8146	8146	8146	8146	8146	8146	8146	8146	8146	8146	8146	8146	8146	8146	8146	0	7959	7959	7779	7779	7779	7779	0	0	0	0	0	0	0	0	0	0	0	0	0	0	0	0	0	0	0	0	0	0	0	0	0	0	0	0	0	0	0	1574	1574	1574	1574	1560	1560	1560	0	0	0	0	0	0	0	1525	1525	1525	1525	1525	1525	1525	1532	1532	1532	1525	1525	1532	1532	1532	1532	1539	1532	1532	1532	1532	1532	1525	1519	1512	1512	1506	1506	1499	1499	1499	1499	1492	1486	1492	1492	1492	1486	1480	1480	1480	1473	1473	1473	1467	1467	1461	1455	1455	1455	1455	1455	1455	1455	1449	1449	1449	1443	1443	1437	1437	1437	1437	1431	1437	1437	1431	1431	1431	1437	1431	1431	1431	1431	1431	1431	1425	1419	1419	1413	1413	1413	1407	1407	1407	1413	1413	1407	1413	1413	1413	0	0	0	0	0	0	0	0	0	0	0	0	0	0	0	0	0	0	0	0	0	0	0	0	0	0	0	0	0	0	0	0	0	0	0	0	0	0	0	0
0	0	0	0	0	0	0	0	0	0	1282	1282	1287	1291	1291	1296	1296	1301	1301	1301	1301	0	1419	1413	1413	1402	1396	1396	1396	1396	1396	1402	1407	1413	1419	1413	1413	1407	1407	1407	1402	1407	1407	1407	1407	1407	1402	1402	1390	1390	1390	1390	1390	1390	1390	1390	1385	1385	1390	1396	1396	1396	1396	1396	1396	1390	1385	1390	1390	1396	1396	1396	1396	0	0	0	0	0	0	0	0	0	0	0	0	0	0	0	1425	1425	1425	1425	1425	1419	1419	1419	1419	1419	1419	1419	1425	1425	1425	1431	1431	1443	1443	1449	1455	1461	1461	1467	1467	1473	1473	1486	1492	1499	1506	1512	1512	1519	1519	1525	1539	1546	1553	1553	1553	1560	1567	1574	1581	1596	1611	1618	1626	1626	1634	1634	1641	1649	1649	1706	1706	1715	1706	1706	0	0	0	0	0	0	0	0	0	0	0	0	0	0	2754	2754	2733	2733	2733	2711	2733	2733	2733	2733	2733	2733	2733	2733	2733	2733	2711	2711	2711	2733	2845	2869	2869	2845	2845	2822	2799	2799	2799	2799	2799	2822	2822	2845	2845	2845	2869	2869	2869	2917	2917	2917	2967	2967	2993	2993	3019	3019	3019	3019	3019	3019	3046	0	0	0	0	0	0	0	0	0	0	0	0	6468	6468	6468	6468	6468	6349	6349	6349	6349	6349	6349	6349	6349	6468	6468	6592	6592	6592	6592	6592	6592	6592	6592	6592	6592	6592	6592	6468	6468	6592	6592	6592	6592	6592	6592	6592	6592	6592	6592	6592	6468	6592	6468	6468	6592	6592	6592	6592	6592	6592	6720	6592	6592	6592	6592	6592	6592	6592	6592	6592	6468	6592	6592	6468	6468	6468	6468	6349	6349	3738	3698	3738	3738	3698	3698	3698	3659	3659	3621	3621	3621	3583	3583	3583	3583	3583	3583	3583	3583	3621	3621	3621	3621	3621	3621	3621	3621	3583	3621	3621	3621	3621	3621	3621	3621	3621	3621	3583	3583	3583	3583	3583	3583	3583	3621	3621	3621	3621	3621	3621	3621	3621	3621	3621	3621	3621	3621	3621	3621	3621	3621	0	8343	8146	7959	7959	8146	8146	8146	8146	8146	8343	8343	8146	8146	8146	7959	7959	7608	6592	6592	6468	6468	6468	6468	6468	6468	6468	6468	6468	6468	6468	6468	6468	6349	6349	6349	6349	6468	6349	6349	6468	6468	6468	6349	6349	6349	6349	6349	8995	8767	8550	8550	8343	8146	8343	8343	8146	8146	8146	8146	8146	8146	8146	8146	8146	8146	8146	8146	7959	7959	7959	8146	7959	7959	7959	8146	8146	7959	7959	7959	7959	8146	8146	8146	8146	8146	7959	7959	8146	7959	8146	8146	8146	8146	8146	0	0	0	0	0	0	0	0	0	0	0	0	0	0	0	0	0	0	0	0	0	0	0	0	0	0	0	0	0	0	0	0	0	0	0	0	0	0	0	0	0	0	0	1567	1574	1574	1560	1553	1553	0	0	0	0	0	0	0	1525	1532	1532	1525	1532	1532	1525	1532	1532	1532	1525	1525	1532	1532	1532	1525	1532	1532	1532	1532	1532	1532	1525	1525	1519	1512	1506	1506	1506	1499	1499	1499	1499	1492	1499	1492	1492	1486	1480	1480	1480	1473	1467	1473	1467	1461	1461	1455	1455	1449	1449	1449	1449	1449	1449	1449	1449	1443	1443	1437	1437	1437	1437	1431	1431	1437	1431	1437	1431	1431	1431	1431	1431	1431	1431	1425	1425	1425	1419	1425	1419	1413	1413	1407	1413	1413	1413	1407	1413	1425	1425	0	0	0	0	0	0	0	0	0	0	0	0	0	0	0	0	0	0	0	0	0	0	0	0	0	0	0	0	0	0	0	0	0	0	0	0	0	0	0	0
0	0	0	0	0	0	0	0	0	0	1282	1282	1282	1287	1291	1296	1296	1296	1301	1301	0	0	0	0	0	1402	1402	1396	1396	1396	1396	1402	1407	1413	1425	1419	1419	1413	1407	1407	1407	1407	1407	1407	1402	1407	1407	1402	1390	1390	1390	1390	1390	1390	1390	1390	1390	1390	1407	1402	1396	1390	1396	1390	1390	1390	1390	1390	1390	1396	1396	1396	1396	1396	0	0	0	0	0	0	0	0	0	0	0	0	0	1425	1425	1425	1425	1425	1425	1419	1425	1419	1419	1419	1419	1419	1425	1425	1425	1425	1431	1437	1443	1449	1449	1455	1461	1467	1467	1473	1473	1486	1492	1499	1506	1512	1512	1512	1519	1525	1532	1546	1553	1553	1553	1560	1567	1567	1581	1589	1611	1611	1626	1626	1634	1634	1641	1649	1665	1698	1706	1715	1715	1715	0	0	0	0	0	0	0	0	0	0	0	0	0	0	2754	2733	2733	2733	2733	2733	2733	2733	2733	2733	2733	2733	2733	2733	2733	2733	2711	2733	2733	2733	2845	2845	2869	2845	2822	2822	2822	2822	2799	2799	2799	2822	2822	2845	2845	2869	2869	2869	2893	2917	2917	2942	2942	2993	2993	3019	3019	3019	3019	2993	2993	3019	0	0	0	0	0	0	0	0	0	0	0	0	0	0	6468	6468	6468	6468	6349	6349	6349	6349	6349	6349	6349	6349	6468	6468	6592	6592	6592	6592	6592	6592	6592	6468	6468	6592	6468	6468	6468	6468	6592	6592	6592	6592	6592	6592	6592	6592	6592	6468	6592	6468	6468	6468	6468	6592	6592	6592	6592	6592	6720	6720	6592	6592	6592	6592	6592	6592	6592	6468	6468	6592	6592	6592	6592	6592	6592	6468	6349	6349	3738	3698	3698	3698	3698	3659	3698	3659	3621	3621	3621	3583	3583	3583	3583	3583	3583	3583	3583	3583	3621	3621	3621	3621	3621	3621	3621	3621	3583	3621	3621	3621	3621	3621	3621	3621	3621	3621	3583	3583	3583	3583	3583	3583	3583	3583	3621	3621	3621	3621	3621	3621	3621	3621	3621	3621	3621	3621	3621	3621	3621	3621	0	8343	8146	7959	7959	8146	8146	8343	8146	8146	8343	8343	8146	8146	8146	7959	7959	7608	6592	6592	6468	6349	6349	6468	6349	6468	6468	6349	6468	6468	6468	6468	6468	6349	6349	6349	6349	6468	6468	6468	6592	6468	6468	6468	6349	6349	6349	6349	8995	8767	8550	8550	8343	8343	8343	8343	8343	8343	8343	8343	8146	8146	8146	8146	8146	8146	8146	8146	7959	7959	7959	7959	7959	7959	7959	7959	7959	7959	7959	8146	8146	8146	8146	8146	7959	7959	7959	7959	7959	7959	8146	8146	0	0	0	0	0	0	0	0	0	0	0	0	0	0	0	0	0	0	0	0	0	0	0	0	0	0	0	0	0	0	0	0	0	0	0	0	0	0	0	0	0	0	0	0	0	0	1567	1574	1574	1560	1560	1553	0	0	0	0	0	0	0	1532	1532	1532	1525	1532	1532	1525	1532	1532	1525	1519	1519	1525	1525	1525	1525	1525	1525	1525	1532	1532	1532	1525	1525	1519	1512	1506	1506	1506	1506	1506	1506	1499	1499	1499	1499	1492	1486	1480	1480	1473	1473	1473	1473	1467	1461	1461	1455	1455	1455	1455	1449	1449	1449	1449	1443	1443	1437	1437	1437	1431	1431	1431	1431	1431	1431	1431	1431	1431	1431	1431	1431	1431	1425	1431	1425	1425	1425	1425	1431	1431	1413	1413	1413	1413	1413	1413	1413	1419	1425	1425	0	0	0	0	0	0	0	0	0	0	0	0	0	0	0	0	0	0	0	0	0	0	0	0	0	0	0	0	0	0	0	0	0	0	0	0	0	0	0	0
0	0	0	0	0	0	0	0	0	0	1277	1277	1282	1287	1291	1291	1291	1296	0	0	0	0	0	0	0	0	1402	1396	1396	1402	1402	1407	1407	1413	1419	1419	1419	1419	1407	1413	1407	1407	1413	1413	1413	1407	1407	0	0	0	1390	1396	1396	1396	1402	1396	1396	1390	1396	1385	1385	1385	1379	1385	1385	1390	1385	1390	1390	1396	1390	1390	1390	1390	0	0	0	0	0	0	0	0	0	0	0	0	0	1425	1431	1431	1425	1425	1425	1419	1425	1419	1419	1419	1419	1419	1425	1425	1425	1425	1431	1431	1443	1449	1449	1449	1467	1467	1467	1473	1473	1486	1492	1499	1506	1512	1506	1512	1519	1519	1532	1539	1546	1553	1553	1560	1567	1567	1574	1589	1603	1611	1618	1626	1634	1634	1641	1657	1657	1673	1698	1706	1715	1715	0	0	0	0	0	0	0	0	0	0	0	0	0	0	2733	2733	2733	2733	2733	2733	2733	2733	2733	2733	2733	2733	2733	2733	2733	2711	2733	2733	2733	2777	2777	2845	2845	2845	2822	2822	2799	2822	2799	2799	2799	2822	2822	2845	2845	2869	2869	2869	2893	2917	2917	2942	2967	2993	2993	3019	3019	3019	3019	3019	3019	0	0	0	0	0	0	0	0	0	0	0	0	0	0	6349	6349	6468	6468	6468	6349	6349	6349	6349	6349	6349	6349	6349	6468	6468	6468	6468	6468	6592	6592	6468	6468	6468	6468	6592	6592	6592	6468	6592	6592	6592	6592	6468	6592	6592	6592	6592	6592	6592	6592	6468	6592	6468	6468	6592	6592	6592	6592	6592	6592	6720	6592	6592	6592	6592	6592	6592	6468	6592	6592	6592	6592	6592	6592	6592	6592	6468	6468	6468	3738	3698	3738	3698	3698	3659	3659	3659	3621	3621	3621	3583	3583	3583	3583	3583	3583	3583	3583	3583	3621	3621	3621	3621	3621	3621	3621	3621	3583	3621	3621	3621	3621	3621	3621	3621	3621	3621	3583	3621	3583	3583	3621	3583	3583	3583	3583	3621	3621	3621	3621	3621	3621	3621	3621	3621	3621	3621	3621	3621	3621	3621	0	8343	8146	7959	7959	8146	8146	8146	8146	8146	8146	8146	8146	8146	8146	7959	7959	7779	6720	6592	6468	6349	6349	6468	6468	6468	6468	6349	6468	6349	6349	6349	6349	6349	6349	6349	6349	6349	6468	6468	6468	6468	6468	6468	6468	6349	6349	6349	8767	8767	8550	8343	8343	8146	8343	8146	8343	8146	8146	8146	8146	8146	8146	8146	8146	8146	8146	8146	8146	7959	7959	7959	7959	7959	7959	7959	7959	7959	7959	8146	8146	8146	8146	8146	7959	7959	7959	7959	7959	7959	7959	8146	0	0	0	0	0	0	0	0	0	0	0	0	0	0	0	0	0	0	0	0	0	0	0	0	0	0	0	0	0	0	0	0	0	0	0	0	0	0	0	0	0	0	0	0	0	0	0	1574	1574	1560	1560	0	0	0	0	0	0	0	0	1532	1532	1532	1532	1532	1532	1532	1532	1532	1525	1512	1519	1519	1525	1525	1525	1532	1532	1532	1532	1532	1525	1525	1525	1519	1512	1512	1506	1506	1506	1506	1506	1506	1499	1499	1499	1492	1486	1480	1480	1480	1480	1473	1473	1467	1461	1461	1455	1455	1455	1455	1455	1455	1455	1449	1449	1437	1437	1437	1437	1431	1437	1431	1431	1431	1431	1431	1431	1431	1431	1431	1425	1425	1425	1425	1419	1425	1425	1425	1431	1431	1431	1413	1413	1413	1413	1413	1413	1419	1425	1425	0	0	0	0	0	0	0	0	0	0	0	0	0	0	0	0	0	0	0	0	0	0	0	0	0	0	0	0	0	0	0	0	0	0	0	0	0	0	0	0
0	0	0	0	0	0	0	0	0	0	1282	1282	1287	1291	1291	1291	1291	0	0	0	0	0	0	0	0	0	0	0	0	1402	1402	1402	1425	1425	1425	1425	1425	1419	1419	1413	1407	1407	1413	1413	1413	0	0	0	0	0	0	1396	1396	1396	1402	1402	1402	1396	1396	1385	1385	1385	1379	1379	1379	1385	1390	1390	1390	1390	1385	1379	1385	1385	0	0	0	0	0	0	0	0	0	0	0	0	0	1425	1431	1425	1425	1425	1419	1419	1419	1419	1419	1419	1419	1425	1425	1425	1425	1431	1431	1437	1437	1449	1449	1461	1467	1467	1467	1467	1473	1486	1492	1499	1499	1506	1506	1512	1519	1519	1532	1539	1546	1546	1553	1560	1560	1567	1574	1581	1603	1603	1611	1626	1634	1634	1641	1649	1665	1665	1690	1706	1715	1723	1723	1723	0	0	0	0	0	0	0	0	0	0	0	0	2733	2733	2733	2733	2733	2733	2733	2733	2733	2733	2733	2733	2733	2733	2711	2711	2733	2733	2733	2754	2754	2845	2822	2822	2822	2822	2822	2799	2822	2822	2822	2822	2822	2845	2845	2845	2869	2869	2869	2893	2917	2942	2967	2993	2993	3019	3019	3019	3019	3019	3019	0	0	0	0	0	0	0	0	0	0	0	0	0	0	6349	6349	6468	6349	6468	6349	6349	6349	6349	6349	6349	6349	6349	6468	6468	6468	6468	6468	6592	6592	6592	6592	6592	6592	6592	6592	6592	6592	6592	6592	6592	6468	6468	6468	6592	6592	6592	6592	6592	6592	6592	6592	6468	6592	6592	6592	6592	6592	6592	6592	6592	6592	6592	6592	6592	6592	6592	6468	6592	6592	6592	6592	6592	6592	6592	6468	6468	6468	3698	3698	3698	3698	3698	3659	3659	3659	3659	3621	3621	3621	3583	3583	3583	3583	3583	3583	3583	3583	3583	3621	3621	3621	3621	3621	3621	3621	3621	3583	3621	3621	3621	3621	3621	3621	3621	3621	3621	3621	3621	3621	3621	3621	3621	3583	3583	3583	3621	3621	3621	3621	3621	3621	3621	3621	3621	3621	3621	3621	3621	3621	3621	0	8343	8146	8146	7959	8146	8146	8146	8146	8146	8146	8146	8146	8146	8146	8146	8146	7779	6592	6592	6349	6349	6349	6349	6349	6349	6349	6349	6349	6349	6349	6349	6349	6235	6235	6235	6235	6349	6468	6468	6468	6468	6468	6468	6468	6349	6349	6349	8767	8550	8550	8343	8343	8146	8343	8146	8343	7959	8146	8146	8146	8146	8146	8146	8146	8146	8146	8146	8146	7959	7959	7959	7959	7959	7959	7959	7959	7959	8146	8146	8146	8146	8146	7959	7959	7959	7959	7959	7959	7959	7959	0	0	0	0	0	0	0	0	0	0	0	0	0	0	0	0	0	0	0	0	0	0	0	0	0	0	0	0	0	0	0	0	0	0	0	0	0	0	0	0	0	0	0	0	0	0	0	0	0	0	0	0	0	0	0	0	0	0	0	0	0	0	1532	1532	1532	1532	1532	1532	1532	1525	1519	1519	1519	1525	1532	1532	1539	1539	1539	1539	1532	1532	1525	1525	1525	1519	1512	1506	1506	1506	1506	1499	1499	1492	1499	1492	1492	1492	1486	1480	1480	1480	1473	1473	1467	1461	1461	1455	1455	1455	1449	1455	1449	1449	1443	1443	1437	1437	1437	1437	1431	1431	1431	1431	1431	1425	1425	1425	1431	1425	1425	1425	1425	1425	1425	1425	1425	1425	1431	1431	1431	1437	1425	1425	1413	1413	1413	1413	1413	1425	1425	0	0	0	0	0	0	0	0	0	0	0	0	0	0	0	0	0	0	0	0	0	0	0	0	0	0	0	0	0	0	0	0	0	0	0	0	0	0	0	0
0	0	0	0	0	0	0	0	0	0	1282	1282	1287	1291	1291	1296	1296	1296	0	0	0	0	0	0	0	0	0	0	0	1402	1413	1413	1419	1419	1419	1419	1425	1419	1419	0	0	0	0	0	0	0	0	0	0	0	0	0	0	0	0	1407	1407	1402	1407	1390	1390	1385	1379	1379	1374	1379	1379	1379	1385	1385	1385	1385	1385	1385	0	0	0	0	0	0	0	0	0	0	0	0	0	0	0	1425	1431	1425	1425	1419	1419	1419	1419	1419	1419	1419	1419	1425	1425	1431	1431	1437	1443	1449	1449	1461	1461	1467	1467	1467	1467	1480	1486	1492	1499	1506	1506	1512	1519	1519	1525	1539	1546	1546	1553	1560	1560	1567	1574	1589	1596	1603	1611	1618	1626	1634	1641	1649	1657	1665	1690	1706	1706	1732	1723	1723	0	0	0	0	0	0	0	0	0	0	0	0	2733	2754	2733	2733	2733	2733	2733	2733	2733	2733	2733	2733	2733	2711	2711	2711	2733	2733	2733	2777	2777	2822	2822	2822	2822	2822	2822	2822	2822	2822	2822	2822	2822	2845	2845	2845	2869	2869	2869	2917	2917	2942	2942	2993	3019	3019	3019	3019	3019	3019	3019	0	0	0	0	0	0	0	0	0	0	0	0	0	0	0	6349	6349	6349	6349	6349	6349	6349	6349	6349	6349	6349	6349	6468	6468	6468	6468	6468	6468	6468	6592	6592	6592	6592	6592	6592	6592	6592	6592	6468	6468	6468	6468	6468	6468	6592	6592	6592	6592	6592	6592	6592	6592	6592	6592	6592	6592	6592	6592	6592	6592	6592	6592	6592	6592	6592	6592	6592	6592	6592	6592	6592	6592	6468	6468	6468	6468	6468	3698	3698	3698	3698	3698	3659	3659	3659	3659	3621	3621	3583	3583	3583	3583	3583	3583	3583	3583	3583	3583	3621	3621	3621	3621	3621	3621	3621	3621	3621	3621	3621	3621	3621	3621	3621	3621	3621	3621	3621	3621	3621	3621	3621	3621	3583	3583	3583	3583	3583	3583	3621	3621	3621	3621	3621	3621	3621	3621	3621	3583	3583	3583	0	8343	8146	8146	7959	8146	8146	8146	8146	8146	8146	8146	8146	8146	8146	8146	8146	7959	6592	6468	6349	6235	6235	6235	6235	6349	6349	6349	6349	6349	6349	6349	6349	6235	6235	6235	6235	6349	6468	6468	6468	6468	6468	6468	6468	6468	6468	6468	8343	8343	8343	8343	8343	8146	8146	8146	8146	7959	8146	8146	8146	8146	8146	8146	8146	8146	8146	8146	8146	8146	7959	7959	7959	7959	7959	7959	7959	8146	8146	8146	8146	8146	8146	7959	7959	7959	7959	7959	7959	7779	7779	0	0	0	0	0	0	0	0	0	0	0	0	0	0	0	0	0	0	0	0	0	0	0	0	0	0	0	0	0	0	0	0	0	0	0	0	0	0	0	0	0	0	0	0	0	0	0	0	0	0	0	0	0	0	0	0	0	0	0	0	0	0	0	0	0	0	0	0	0	0	1519	1519	0	0	1532	1532	1546	1539	1539	1539	1532	1532	1532	1525	1525	1519	1519	1512	1512	1512	1512	1512	1506	1499	1499	1492	1499	1486	1486	1486	1480	1480	1473	1473	1461	1461	1455	1455	1455	1455	1449	1449	1449	1449	1449	1443	1437	1437	1437	1437	1437	1437	1431	1437	1437	1437	1425	1431	1431	1425	1425	1431	1431	1425	1431	1425	1425	1425	1431	1431	1431	1431	1431	1425	1425	1425	1419	1413	1419	1425	1425	0	0	0	0	0	0	0	0	0	0	0	0	0	0	0	0	0	0	0	0	0	0	0	0	0	0	0	0	0	0	0	0	0	0	0	0	0	0	0	0
0	0	0	0	0	0	0	0	0	0	1282	1282	1287	1291	1291	1296	1296	1296	0	0	0	0	0	0	0	0	0	0	0	0	1413	1413	1419	1419	1419	1419	0	0	0	0	0	0	0	0	0	0	0	0	0	0	0	0	0	0	0	1407	1413	1413	1407	1390	1390	1385	1379	1374	1374	1379	1379	1379	1379	1379	1385	1385	0	0	0	0	0	0	0	0	0	0	0	0	0	0	0	0	0	0	1431	1431	1425	1425	1419	1419	1419	1419	1419	1419	1419	1425	1425	1431	1437	1443	1443	1449	1455	1461	1467	1467	1461	1467	1467	1480	1486	1492	1499	1506	1506	1506	1512	1519	1525	1539	1546	1546	1553	1560	1560	1567	1560	1589	1603	1596	1611	1618	1626	1634	1634	1641	1649	1649	1681	1706	1715	1732	1723	1715	1715	0	0	0	0	0	0	0	0	0	0	0	2733	2733	2733	2733	2733	2733	2733	2733	2733	2733	2733	2733	2711	2711	2711	2711	2711	2711	2733	2754	2754	2845	2845	2822	2822	2822	2822	2822	2822	2822	2822	2822	2845	2845	2845	2845	2869	2869	2893	2917	2917	2942	2942	2993	2993	3019	3019	3019	3019	3019	3019	0	0	0	0	0	0	0	0	0	0	0	0	0	0	0	6349	6349	6349	6349	6349	6349	6349	6349	6349	6349	6349	6349	6468	6468	6468	6468	6468	6468	6468	6468	6592	6592	6592	6592	6592	6592	6592	6592	6468	6468	6468	6468	6468	6468	6592	6592	6592	6592	6592	6592	6592	6592	6592	6592	6592	6592	6592	6592	6592	6592	6592	6592	6592	6592	6468	6592	6592	6592	6592	6592	6592	6592	6468	6468	6468	6468	6468	3698	3698	3698	3698	3659	3659	3659	3659	3621	3621	3621	3583	3583	3583	3583	3583	3583	3583	3583	3583	3583	3621	3621	3621	3621	3621	3621	3621	3621	3621	3621	3621	3621	3621	3621	3621	3621	3621	3621	3621	3621	3621	3621	3621	3621	3583	3583	3583	3583	3583	3583	3621	3621	3621	3621	3621	3621	3621	3621	3621	3583	3583	3583	3583	8343	8146	7959	7959	8146	8146	8146	8146	8146	8146	8146	8146	8146	8146	8146	7959	7959	6468	6468	6468	6349	6349	6349	6349	6349	6349	6349	6349	6349	6349	6349	6235	6235	6235	6235	6349	6468	6468	6468	6468	6592	6468	6468	6468	6468	6468	6468	8343	8343	8343	8146	8146	8146	8146	8146	8146	8146	8146	8343	8146	8146	8146	8146	8146	8146	8146	8146	8146	8146	8146	7959	7959	7959	7959	7959	7959	8146	8146	8146	8146	8146	8146	8146	7959	7959	7959	7959	7959	7959	7779	0	0	0	0	0	0	0	0	0	0	0	0	0	0	0	0	0	0	0	0	0	0	0	0	0	0	0	0	0	0	0	0	0	0	0	0	0	0	0	0	0	0	0	0	0	0	0	0	0	0	0	0	0	0	0	0	0	0	0	0	0	0	0	0	0	0	0	0	0	0	0	0	0	0	1532	1532	1553	1553	1546	1546	1539	1539	1532	1525	1525	1506	1512	1512	1512	1519	1512	1506	1506	1499	1499	0	1506	1486	1486	1486	1480	1480	1473	1473	1461	1455	1455	1455	1455	1455	1449	1449	1449	1449	1443	1443	1443	1443	1443	1437	1437	1437	1431	1431	1431	1431	1431	1431	1431	1431	1431	1431	1431	1425	1431	1425	1425	1425	1425	1431	1431	1431	1431	1425	1425	1419	1413	1413	1413	1419	1419	0	0	0	0	0	0	0	0	0	0	0	0	0	0	0	0	0	0	0	0	0	0	0	0	0	0	0	0	0	0	0	0	0	0	0	0	0	0	0	0
0	0	0	0	0	0	0	0	0	0	1287	1287	1287	1291	1291	1296	1296	1306	1306	1306	0	0	0	0	0	0	0	0	0	0	0	0	0	0	0	0	0	0	0	0	0	0	0	0	0	0	0	0	0	0	0	0	0	0	0	0	1413	1413	0	0	0	1379	1379	1374	1374	1379	1379	1379	1379	1379	0	0	0	0	0	0	0	0	0	0	0	0	0	0	0	0	0	0	0	0	0	1431	1425	1413	1413	1419	1413	1413	1419	1419	1425	1425	1425	1431	1437	1443	1443	1443	1455	1455	1461	1461	1461	1467	1467	1473	1486	1492	1499	1499	1499	1506	1512	1519	1525	1532	1546	1546	1553	1553	1553	1567	1574	1589	1589	1596	1603	1611	1618	1634	1641	1641	1649	1649	1681	1698	1706	1723	1723	1723	1741	1741	0	0	0	0	0	0	0	0	0	0	2733	2733	2733	2733	2733	2733	2733	2733	2733	2733	2733	2733	2711	2711	2711	2711	2711	2711	2711	2754	2754	2869	2845	2845	2822	2822	2822	2822	2822	2822	2822	2822	2845	2845	2845	2845	2869	2869	2917	2917	2917	2942	2942	2967	2993	3019	3019	3046	3019	3019	3019	0	0	0	0	0	0	0	0	0	0	0	0	0	0	0	6349	6349	6349	6349	6349	6349	6349	6349	6349	6349	6349	6349	6468	6468	6468	6468	6468	6468	6468	6468	6468	6468	6592	6592	6592	6592	6592	6592	6468	6468	6468	6468	6468	6468	6468	6592	6592	6592	6592	6592	6592	6592	6592	6592	6592	6592	6592	6592	6592	6592	6592	6592	6592	6468	6468	6592	6592	6592	6592	6592	6592	6592	6592	6592	6468	6468	6468	6468	3698	3659	3698	3659	3659	3621	3659	3621	3621	3583	3583	3583	3583	3583	3583	3583	3583	3583	3583	3583	3583	3621	3621	3621	3621	3621	3621	3621	3621	3621	3621	3621	3621	3621	3621	3621	3621	3621	3621	3621	3621	3621	3621	3621	3621	3583	3583	3583	3583	3583	3621	3621	3621	3621	3621	3621	3621	3621	3621	3583	3583	3583	3583	0	7959	7959	7959	7959	7959	8146	7959	7959	8146	8146	7959	7959	7959	7959	8146	7959	7779	6468	6468	6349	6349	6468	6349	6349	6349	6349	6349	6349	6349	6349	6349	6235	6235	6235	6235	6468	6468	6468	6468	6592	6592	6592	6592	6468	6720	6720	8343	8343	8146	8146	8146	8146	8146	8146	8146	8146	8146	8343	8343	8146	8146	8146	8146	8146	8146	8146	8146	8146	8146	7959	7959	7959	7959	7959	7959	8146	8146	8146	8146	8146	8146	7959	7959	7959	7959	7959	7959	7959	0	0	0	0	0	0	0	0	0	0	0	0	0	0	0	0	0	0	0	0	0	0	0	0	0	0	0	0	0	0	0	0	0	0	0	0	0	0	0	0	0	0	0	0	0	0	0	0	0	0	0	0	0	0	0	0	0	0	0	0	0	0	0	0	0	0	0	0	0	0	0	0	0	0	0	0	0	1553	1553	1546	1546	1539	1539	1532	1532	1525	1506	1512	1512	1512	1519	1506	1506	1506	0	0	0	1506	1486	1492	1492	1486	1486	1480	1473	1461	1455	1455	1455	1455	1455	1455	1455	1449	1449	1443	1443	1443	1443	1443	1437	1437	1437	1437	1437	1431	1425	1425	1431	1431	1431	1431	1431	1425	1425	1425	1425	1425	1425	1425	1431	1431	1431	1431	1431	1425	1425	1419	1419	1419	1419	1419	0	0	0	0	0	0	0	0	0	0	0	0	0	0	0	0	0	0	0	0	0	0	0	0	0	0	0	0	0	0	0	0	0	0	0	0	0	0	0	0
0	0	0	0	0	0	0	0	0	0	1287	1287	1287	1291	1291	1296	1301	1306	1306	1306	1306	0	0	0	0	0	0	0	0	0	0	0	0	0	0	0	0	0	0	0	0	0	0	0	0	0	0	0	0	0	0	0	0	0	0	0	1419	1419	0	0	0	1379	1379	0	0	0	0	0	0	0	0	0	0	0	0	0	0	0	0	0	0	0	0	0	0	0	0	0	0	0	0	0	0	1413	1413	1413	1413	1419	1425	1425	1425	1431	1431	1437	1443	1443	1443	1443	1455	1455	1461	1461	1461	1467	1467	1473	1486	1486	1492	1499	1499	1499	1506	1512	1519	1525	1539	1546	1546	1553	1553	1560	1567	1581	1596	1596	1603	1611	1618	1626	1641	1641	1649	1649	1673	1690	1706	1715	1732	1741	1741	1750	1741	1741	1741	0	0	0	0	0	0	0	2733	2733	2733	2733	2733	2711	2733	2733	2733	2711	2733	2711	2711	2711	2711	2711	2711	2711	2711	2711	2711	2869	2845	2845	2822	2822	2822	2822	2822	2822	2822	2822	2845	2845	2845	2869	2917	2893	2917	2917	2942	2942	2942	2967	2967	3019	3046	3101	3101	3129	3129	0	0	0	0	0	0	0	0	0	0	0	0	0	0	0	6349	6349	6349	6349	6349	6349	6349	6349	6349	6349	6349	6349	6468	6468	6468	6468	6468	6468	6468	6468	6468	6468	6468	6592	6592	6592	6592	6592	6468	6468	6468	6468	6468	6468	6592	6592	6592	6592	6592	6592	6592	6592	6592	6592	6592	6592	6592	6592	6592	6592	6592	6592	6592	6592	6468	6592	6592	6592	6592	6592	6592	6592	6592	6592	6592	6468	6468	3698	3698	3659	3659	3659	3621	3621	3621	3621	3621	3621	3583	3583	3583	3583	3583	3583	3583	3583	3583	3583	3621	3621	3621	3621	3621	3621	3621	3621	3621	3621	3621	3621	3621	3621	3621	3621	3621	3621	3621	3621	3621	3621	3621	3621	3621	3621	3583	3621	3583	3583	3621	3621	3621	3621	3621	3583	3583	3583	3583	3583	3583	3583	3583	0	7959	7959	7959	7959	8146	8146	8146	7959	7959	7959	7959	7959	7959	7959	8146	7959	7779	6468	6468	6349	6349	6349	6349	6349	6349	6349	6349	6349	6349	6349	6235	6235	6235	6235	6235	6468	6468	6468	6468	6592	6592	6592	6592	6592	6853	6853	8146	8146	8146	8146	8146	8146	8146	8146	8146	8146	8146	8146	8146	8146	8146	8146	8146	8146	8146	8146	8146	8146	8146	7959	7959	7959	7959	7959	7779	7959	8146	8146	8146	8146	8146	8146	7959	7959	7959	7959	7959	0	0	0	0	0	0	0	0	0	0	0	0	0	0	0	0	0	0	0	0	0	0	0	0	0	0	0	0	0	0	0	0	0	0	0	0	0	0	0	0	0	0	0	0	0	0	0	0	0	0	0	0	0	0	0	0	0	0	0	0	0	0	0	0	0	0	0	0	0	0	0	0	0	0	0	0	0	0	1553	1553	1553	1546	1546	1546	1532	1532	1525	1506	1512	1512	1512	1525	1525	1506	1506	0	0	0	0	0	1492	1492	1486	1486	1480	1473	1461	1455	1461	1455	1455	1455	1455	1455	1455	1449	1449	1443	1443	1443	1443	1437	1437	1437	1437	1437	1431	1425	1431	1431	1431	1431	1431	1431	1425	1425	1425	1425	1419	1425	1425	1425	1431	1431	1425	1425	1425	1425	1425	1425	1419	1419	1419	0	0	0	0	0	0	0	0	0	0	0	0	0	0	0	0	0	0	0	0	0	0	0	0	0	0	0	0	0	0	0	0	0	0	0	0	0	0	0	0
0	0	0	0	0	0	0	0	0	0	1287	1287	1287	1291	1291	1301	1301	1301	1306	1306	1311	1311	0	0	0	0	0	0	0	0	0	0	0	0	0	0	0	0	0	0	0	0	0	0	0	0	0	0	0	0	0	0	0	0	0	0	1425	1425	0	0	0	0	0	0	0	0	0	0	0	0	0	0	0	0	0	0	0	0	0	0	0	0	0	0	0	0	0	0	0	0	0	0	0	1425	1419	1419	1419	1425	1431	1431	1431	1431	1431	1437	1437	1443	1443	1443	1449	1455	1455	1461	1461	1455	1467	1480	1486	1486	1492	1492	1499	1499	1499	1506	1519	1525	1539	1546	1546	1553	1553	1560	1567	1574	1596	1603	1603	1611	1618	1626	1634	1641	1641	1649	1665	1665	1698	1715	1741	1741	1741	1750	1750	1750	1750	1750	0	0	0	0	0	0	2754	2733	2733	2733	2733	2733	2733	2733	2733	2711	2733	2711	2711	2711	2711	2711	2733	2733	2733	2733	2711	2869	2845	2822	2822	2822	2822	2799	2799	2822	2822	2845	2845	2845	2869	2869	2893	2893	2917	2942	2942	2942	2942	2942	2942	2993	3046	3046	3046	3046	3129	0	0	0	0	0	0	0	0	0	0	0	0	0	0	0	6349	6349	6349	6349	6349	6349	6349	6349	6349	6349	6349	6349	6468	6468	6468	6468	6468	6468	6592	6468	6468	6468	6592	6592	6592	6592	6592	6592	6468	6468	6468	6468	6592	6592	6592	6592	6592	6592	6592	6592	6592	6592	6592	6592	6592	6592	6592	6592	6592	6592	6592	6592	6592	6592	6468	6592	6592	6592	6592	6592	6592	6592	6592	6592	6592	6468	3659	3659	3698	3659	3659	3621	3621	3621	3621	3621	3583	3583	3583	3583	3583	3583	3583	3583	3583	3583	3583	3583	3621	3621	3621	3621	3621	3621	3621	3621	3621	3621	3621	3621	3621	3621	3621	3621	3621	3621	3621	3621	3621	3621	3621	3621	3621	3621	3583	3621	3583	3583	3583	3621	3621	3621	3621	3583	3583	3583	3583	3583	3546	3546	3546	6992	7444	7608	7779	7779	7959	7959	7959	7959	7959	7959	7959	8146	8146	8146	8146	7959	7959	6468	6468	6468	6468	6468	6349	6349	6349	6349	6349	6349	6349	6235	6235	6235	6235	6235	6235	6468	6468	6468	6468	6468	6592	6592	6592	6720	6853	6853	7959	8146	8146	8146	8146	8146	8146	8146	8146	8146	8146	8146	8146	8146	8146	8146	8146	8146	8146	8146	8146	8146	7959	7959	7959	7959	7959	7779	7779	7959	7959	7959	8146	8146	8146	8146	7959	7959	7959	7959	7959	0	0	0	0	0	0	0	0	0	0	0	0	0	0	0	0	0	0	0	0	0	0	0	0	0	0	0	0	0	0	0	0	0	0	0	0	0	0	0	0	0	0	0	0	0	0	0	0	0	0	0	0	0	0	0	0	0	0	0	0	0	0	0	0	0	0	0	0	0	0	0	0	0	0	0	0	0	0	1560	1560	1553	1553	1546	1546	1546	1532	1525	1506	1512	1512	0	1525	1525	0	0	0	0	0	0	0	0	0	0	0	0	0	0	1455	1461	1455	1455	1455	0	0	1455	1449	1449	1449	1455	1449	1449	1443	1443	1437	1437	1437	1437	1431	1431	1431	1431	1431	1431	1431	1431	1425	1425	1425	1425	1425	1425	1425	1431	1431	1431	1425	1425	1425	1425	1425	1419	1419	1419	0	0	0	0	0	0	0	0	0	0	0	0	0	0	0	0	0	0	0	0	0	0	0	0	0	0	0	0	0	0	0	0	0	0	0	0	0	0	0	0
0	0	0	0	0	0	0	0	0	0	1291	1287	1291	1291	1296	1301	1301	1301	1306	1306	1306	1306	0	0	0	0	0	0	0	0	0	0	0	0	0	0	0	0	0	0	0	0	0	0	0	0	0	0	0	0	0	0	0	0	0	0	1419	1419	0	0	0	0	0	0	0	0	0	0	0	0	0	0	0	0	0	0	0	0	0	0	0	0	0	0	0	0	0	0	0	0	0	0	1425	1425	1419	1419	1419	1425	1431	1431	1431	1431	1437	1437	1443	1443	1443	1443	1449	1449	1455	1455	1455	1461	1461	1473	1473	1486	1492	1499	1499	1499	1506	1512	1519	1525	1539	1546	1546	1553	1553	1560	1567	1589	1596	1603	1603	1611	1618	1626	1641	1641	1649	1649	1665	1681	1690	1723	1732	1741	1741	1741	1750	1750	1741	1741	1741	0	0	0	0	0	2733	2733	2733	2733	2733	2733	2733	2733	2733	2711	2711	2711	2711	2711	2711	2669	2669	2669	2669	2733	0	2869	2845	2822	2822	2822	2822	2799	2822	2822	2822	2845	2845	2845	2869	2869	2893	2893	2917	2917	2942	2942	2942	2942	2993	2967	2967	3073	3073	3046	0	0	0	0	0	0	0	0	0	0	0	0	0	0	0	0	0	6349	6349	6349	6349	6349	6349	6349	6349	6349	6349	6349	6468	6468	6468	6468	6468	6468	6468	6468	6468	6468	6592	6468	6468	6592	6592	6468	6468	6468	6468	6592	6592	6592	6592	6592	6592	6592	6592	6592	6592	6592	6592	6592	6592	6592	6592	6592	6592	6592	6592	6592	6592	6592	6468	6592	6592	6592	6592	6468	6592	6592	6592	6592	6592	3698	3698	3659	3698	3659	3659	3621	3621	3621	3621	3583	3583	3583	3583	3583	3583	3583	3583	3583	3583	3583	3583	3583	3621	3621	3621	3621	3621	3621	3621	3621	3621	3621	3621	3621	3621	3621	3621	3621	3621	3621	3621	3621	3621	3621	3621	3621	3621	3583	3583	3583	3583	3583	3583	3621	3621	3621	3621	3583	3583	3546	3546	3583	3546	3546	6853	6853	7137	7444	7608	7779	7959	7959	7959	7959	7959	7959	7959	7959	7959	7959	7959	7959	7779	6468	6468	6349	6349	6349	6349	6349	6349	6349	6349	6349	6349	6349	6235	6235	6235	6235	6235	6468	6468	6468	6468	6468	6592	6592	6592	6720	6853	6853	6853	8146	8146	8146	8146	8146	8146	8146	8146	8146	8146	8146	8146	8146	8146	8146	8146	8146	8146	8146	8146	8146	7959	7959	7959	7959	7959	7959	7779	7959	7959	7959	7959	7959	7959	7959	7959	7959	8146	7959	7959	7959	0	0	0	0	0	0	0	0	0	0	0	0	0	0	0	0	0	0	0	0	0	0	0	0	0	0	0	0	0	0	0	0	0	0	0	0	0	0	0	0	0	0	0	0	0	0	0	0	0	0	0	0	0	0	0	0	0	0	0	0	0	0	0	0	0	0	0	0	0	0	0	0	0	0	0	0	0	1560	1560	1560	1553	1553	1553	1546	0	0	0	0	0	0	0	0	0	0	0	0	0	0	0	0	0	0	0	0	0	0	0	0	0	0	0	0	0	0	0	1449	1589	1455	1449	1449	1449	1443	1437	1437	1437	1437	1431	1431	1431	1431	1431	1431	1431	1431	1431	1431	1431	1425	1425	1425	1431	1431	1431	1431	1425	1425	1425	1425	1425	1419	1419	1419	0	0	0	0	0	0	0	0	0	0	0	0	0	0	0	0	0	0	0	0	0	0	0	0	0	0	0	0	0	0	0	0	0	0	0	0	0	0	0	0
0	0	0	0	0	0	0	0	0	0	1291	1287	1287	1291	1296	1301	1301	1301	1301	1306	1306	1306	0	0	0	0	0	0	0	0	0	0	0	0	0	0	0	0	0	0	0	0	0	0	0	0	0	0	0	0	0	0	0	0	0	0	1419	1419	0	0	0	0	0	0	0	0	0	0	0	0	0	0	0	0	0	0	0	0	0	0	0	0	0	0	0	0	0	0	0	0	0	0	1425	1425	1419	1419	1425	1425	1431	1431	1431	1431	1437	1437	1443	1443	1443	1443	1443	1449	1449	1455	1461	1461	1473	1480	1486	1486	1492	1499	1499	1499	1506	1519	1519	1525	1532	1539	1546	1546	1553	1560	1574	1589	1596	1603	1603	1611	1618	1626	1641	1641	1649	1649	1649	1673	1690	1715	1732	1741	1741	1741	1759	1759	1741	1741	1741	0	0	0	0	2777	2754	2754	2754	2733	2733	2733	2733	2733	2733	2733	2711	2711	2711	2711	2690	2669	2669	2669	2669	0	0	2845	2822	2822	2822	2822	2822	2799	2822	2822	2822	2845	2845	2845	2869	2869	2917	2893	2893	2917	2942	2942	2942	2942	2942	2967	2967	3073	3073	0	0	0	0	0	0	0	0	0	0	0	0	0	0	0	0	0	0	6349	6349	6349	6349	6349	6349	6349	6349	6349	6349	6349	6349	6468	6468	6468	6468	6468	6592	6468	6468	6468	6592	6468	6592	6592	6592	6468	6468	6468	6468	6468	6592	6592	6592	6592	6592	6592	6592	6592	6592	6592	6592	6592	6592	6592	6592	6592	6592	6592	6592	6592	6592	6592	6592	6592	6592	6592	6468	6468	6592	6592	6592	6592	3698	3698	3698	3659	3698	3659	3621	3621	3621	3621	3621	3583	3583	3583	3583	3583	3583	3583	3583	3583	3583	3583	3583	3583	3621	3621	3621	3621	3621	3621	3621	3621	3621	3621	3621	3621	3621	3621	3621	3621	3621	3621	3621	3621	3621	3583	3583	3583	3583	3621	3583	3583	3583	3583	3583	3583	3583	3583	3583	3583	3583	3583	3546	3546	3546	3546	6853	6853	7137	7287	7287	7779	7959	7959	7959	7959	7959	7959	7959	7959	7959	8146	8146	7959	7959	6592	6592	6468	6468	6468	6349	6349	6349	6349	6349	6349	6349	6349	6235	6235	6235	6235	6235	6468	6468	6468	6468	6468	6592	6592	6468	6592	6720	6720	8146	8343	8343	8146	8146	8146	8146	8146	8146	8146	8146	8146	8146	8146	8146	8146	8146	8146	8146	8146	8146	8146	7959	7959	7959	7959	7959	7959	7779	7779	7959	7959	7959	7959	7959	7959	7959	7959	8146	8146	7959	7959	0	0	0	0	0	0	0	0	0	0	0	0	0	0	0	0	0	0	0	0	0	0	0	0	0	0	0	0	0	0	0	0	0	0	0	0	0	0	0	0	0	0	0	0	0	0	0	0	0	0	0	0	0	0	0	0	0	0	0	0	0	0	0	0	0	0	0	0	0	0	0	0	0	0	0	0	0	0	1560	1560	1553	1553	1553	0	0	0	0	0	0	0	0	0	0	0	0	0	0	0	0	0	0	0	0	0	0	0	0	0	0	0	0	0	0	0	0	0	1589	1589	1455	1449	1449	1449	1449	1596	1596	1437	1437	1437	1431	1437	1437	1431	1425	1425	1425	1425	1431	1425	1425	1413	1419	1425	1431	1431	1431	1431	1431	1431	1425	1425	1419	1419	0	0	0	0	0	0	0	0	0	0	0	0	0	0	0	0	0	0	0	0	0	0	0	0	0	0	0	0	0	0	0	0	0	0	0	0	0	0	0	0
0	0	0	0	0	0	0	0	0	0	1291	1287	1287	1291	1296	1301	1301	1301	1306	1306	1306	0	0	0	0	0	0	0	0	0	0	0	0	0	0	0	0	0	0	0	0	0	0	0	0	0	0	0	0	0	0	0	0	0	0	0	0	0	0	0	0	0	0	0	0	0	0	0	0	0	0	0	0	0	0	0	0	0	0	0	0	0	0	0	0	0	0	0	0	0	0	0	1431	1425	1425	1425	1425	1425	1431	1431	1431	1431	1431	1431	1431	1437	1437	1443	1443	1449	1449	1455	1461	1467	1480	1486	1486	1492	1492	1499	1499	1506	1512	1519	1519	1525	1525	1539	1539	1546	1553	1560	1574	1589	1596	1603	1603	1611	1618	1626	1641	1641	1641	1657	1657	1673	1690	1706	1723	1741	1741	1741	1768	1768	1768	1768	1741	0	0	0	0	2754	2754	2754	2754	2754	2733	2733	2733	2733	2733	2733	2711	2711	2711	2711	2711	2711	2711	0	0	0	0	2869	2822	2822	2822	2822	2822	2799	2822	2822	2845	2845	2845	2845	2869	2869	2893	2893	2917	2917	2917	2942	2917	2942	2942	2942	2942	0	0	0	0	0	0	0	0	0	0	0	0	0	0	0	0	0	0	0	0	6468	6468	6349	6349	6349	6349	6349	6349	6349	6349	6349	6468	6592	6468	6592	6592	6592	6592	6592	6468	6468	6468	6468	6468	6592	6592	6592	6468	6468	6468	6592	6592	6592	6592	6592	6592	6592	6592	6592	6592	6592	6592	6592	6592	6592	6592	6592	6592	6592	6592	6592	6592	6592	6468	6592	6468	6468	6468	6468	6592	6592	6592	6720	3698	3698	3698	3698	3698	3659	3659	3659	3621	3621	3621	3583	3583	3583	3583	3583	3583	3583	3583	3583	3583	3583	3583	3583	3621	3621	3621	3621	3621	3621	3621	3621	3621	3621	3621	3583	3621	3583	3621	3621	3621	3621	3621	3621	3621	3583	3583	3583	3621	3583	3583	3583	3583	3583	3583	3583	3583	3583	3583	3583	3583	3583	3546	3546	3546	0	6992	6853	7137	7287	7287	7779	7959	7959	8146	8146	7959	7959	7959	7959	7959	8146	7959	7959	7779	6592	6592	6468	6468	6468	6349	6349	6349	6349	6349	6349	6349	6349	6349	6349	6349	6349	6349	6468	6468	6468	6468	6468	6592	6592	6468	6592	6592	6592	8146	8146	8343	8343	8146	8146	8146	8146	8146	8146	8146	8146	8146	8146	8146	8146	8146	8146	8146	8146	8146	8146	7959	7959	7959	7959	7959	7959	7779	7959	7959	7959	7959	7959	7959	7959	7959	8146	8146	8146	8146	8146	8146	0	0	0	0	0	0	0	0	0	0	0	0	0	0	0	0	0	0	0	0	0	0	0	0	0	0	0	0	0	0	0	0	0	0	0	0	0	0	0	0	0	0	0	0	0	0	0	0	0	0	0	0	0	0	0	0	0	0	0	0	0	0	0	0	0	0	0	0	0	0	0	0	0	0	0	0	0	0	1560	1553	1553	0	0	0	0	0	0	0	0	0	0	0	0	0	0	0	0	0	0	0	0	0	0	0	0	0	0	0	0	0	0	0	0	0	0	1589	1589	1589	1589	1589	1589	1589	1589	1589	1589	1567	1567	1567	1560	1560	1425	1560	1553	1553	1546	1546	1539	1413	1413	1413	1419	1431	1431	1431	1431	1431	1425	1425	1425	0	0	0	0	0	0	0	0	0	0	0	0	0	0	0	0	0	0	0	0	0	0	0	0	0	0	0	0	0	0	0	0	0	0	0	0	0	0	0	0	0	0
0	0	0	0	0	0	0	0	0	0	1291	1287	1287	1291	1291	1296	1296	1296	1296	1306	1306	0	0	0	0	0	0	0	0	0	0	0	0	0	0	0	0	0	0	0	0	0	0	0	0	0	0	0	0	0	0	0	0	0	0	0	0	0	0	0	0	0	0	0	0	0	0	0	0	0	0	0	0	0	0	0	0	0	0	0	0	0	0	0	0	0	0	0	0	0	0	1425	1425	1431	1425	1425	1425	1425	1425	1431	1431	1425	1431	1431	1431	1437	1437	1443	1443	1449	1449	1455	1461	1467	1486	1486	1486	1492	1492	1499	1499	1506	1512	1519	1525	1525	1532	1539	1546	1546	1553	1560	1574	1581	1596	1603	1603	1611	1618	1634	1641	1641	1649	1649	1657	1673	1690	1706	1706	1732	1741	1759	1768	1768	1768	1768	0	0	0	0	0	2799	2777	2777	2754	2754	2733	2733	2733	2733	2733	2733	2733	2733	2733	2711	2711	2711	2711	0	0	0	0	2845	2822	2822	2822	2799	2799	2799	2822	2822	2822	2845	2845	2845	2869	2869	2893	2893	2893	2917	2917	2917	2917	2917	2967	2942	2942	0	0	0	0	0	0	0	0	0	0	0	0	0	0	0	0	0	0	0	0	6468	6468	6468	6349	6349	6349	6349	6349	6349	6349	6349	6592	6592	6592	6592	6592	6592	6592	6592	6592	6592	6592	6468	6592	6592	6592	6592	6592	6468	6468	6592	6592	6592	6592	6592	6592	6592	6592	6592	6592	6592	6592	6592	6592	6592	6592	6592	6592	6592	6592	6592	6592	6468	6468	6468	6468	6468	6468	6468	6468	6592	6592	3698	3698	3698	3698	3698	3698	3659	3659	3659	3621	3621	3621	3583	3583	3583	3583	3583	3583	3583	3583	3583	3583	3583	3583	3583	3621	3621	3621	3621	3621	3621	3621	3621	3621	3621	3583	3583	3583	3583	3621	3621	3583	3583	3583	3583	3583	3583	3583	3583	3583	3583	3583	3583	3583	3583	3583	3583	3583	3583	3583	3583	3583	3583	3546	3546	3546	0	6853	6853	6853	7137	7137	7779	7959	7959	7959	7959	7959	7959	7959	8146	7959	8146	7959	7959	7779	6720	6592	6468	6468	6468	6349	6349	6349	6349	6349	6349	6349	6349	6349	6349	6349	6349	6235	6349	6349	6468	6468	6468	6468	6592	6468	6592	6720	6853	7959	8146	8343	8343	8343	8343	8146	8146	8146	8146	8146	8146	8146	8146	8146	8146	8146	8146	8146	8146	8146	8146	8146	8146	7959	7959	7959	7959	7779	7959	7959	7959	7959	7959	7959	8146	8146	8146	8146	8146	8146	8146	8146	8146	0	0	0	0	0	0	0	0	0	0	0	0	0	0	0	0	0	0	0	0	0	0	0	0	0	0	0	0	0	0	0	0	0	0	0	0	0	0	0	0	0	0	0	0	0	0	0	0	0	0	0	0	0	0	0	0	0	0	0	0	0	0	0	0	0	0	0	0	0	0	0	0	0	0	0	0	0	0	0	0	0	0	0	0	0	0	0	0	0	0	0	0	0	0	0	0	0	0	0	0	0	0	0	0	0	0	0	0	0	0	0	0	0	0	1589	1589	1589	1589	1589	1589	1589	1589	1589	1589	1567	1567	1560	1560	1560	1560	1560	1553	1553	1546	1546	1539	1553	1532	1532	1532	1532	1431	0	1431	1431	1425	1425	0	0	0	0	0	0	0	0	0	0	0	0	0	0	0	0	0	0	0	0	0	0	0	0	0	0	0	0	0	0	0	0	0	0	0	0	0	0	0	0	0	0	0
0	0	0	0	0	0	0	0	0	0	0	1287	1287	1291	1291	1296	1296	1296	1296	1301	0	0	0	0	0	0	0	0	0	0	0	0	0	0	0	0	0	0	0	0	0	0	0	0	0	0	0	0	0	0	0	0	0	0	0	0	0	0	0	0	0	0	0	0	0	0	0	0	0	0	0	0	0	0	0	0	0	0	0	0	0	0	0	0	0	0	0	0	0	1425	1425	1425	1425	1425	1425	1431	1425	1425	1431	1431	1425	1425	1425	1431	1431	1431	1437	1443	1443	1443	1449	1455	1467	1473	1486	1486	1486	1492	1492	1499	1512	1512	1519	1519	1525	1532	1539	1546	1546	1546	1553	1560	1567	1581	1596	1603	1603	1618	1618	1626	1641	1641	1649	1649	1665	1673	1673	1698	1723	1732	1732	1759	1768	1768	1768	1768	0	0	0	0	0	2799	2777	2777	2754	2754	2733	2733	2733	2733	2733	2733	2733	2733	2733	2733	2733	2733	2733	0	0	0	2845	2845	2822	2822	2799	2799	2777	2777	2799	2799	2822	2822	2845	2845	2845	2845	2869	2893	2893	2893	2917	2917	2917	2917	2942	2942	2942	0	0	0	0	0	0	0	0	0	0	0	0	0	0	0	0	0	0	0	0	6468	6468	6468	6349	6349	6349	6349	6349	6349	6349	6349	6592	6592	6592	6592	6592	6592	6592	6592	6592	6592	6592	6468	6592	6592	6468	6468	6592	6468	6592	6592	6592	6592	6592	6592	6592	6592	6592	6592	6592	6592	6592	6592	6592	6592	6592	6592	6592	6592	6592	6592	6592	6592	6468	6468	6468	6468	6468	6468	6592	6592	6592	3698	3698	3698	3698	3698	3698	3698	3659	3659	3659	3621	3621	3621	3583	3583	3583	3583	3583	3583	3583	3583	3583	3583	3583	3583	3621	3621	3621	3621	3621	3621	3621	3621	3621	3621	3621	3583	3621	3583	3621	3621	3583	3583	3583	3583	3583	3583	3583	3583	3583	3583	3583	3583	3583	3583	3583	3583	3583	3583	3583	3583	3583	3583	3546	3546	3546	0	6992	6992	7137	7287	7287	7779	7959	7959	7959	8146	8146	7959	7959	8146	8146	8146	7959	7959	7779	6720	6592	6468	6468	6468	6349	6235	6235	6349	6349	6349	6349	6349	6349	6349	6349	6349	6235	6349	6468	6468	6468	6468	6468	6468	6468	6468	6349	6349	7959	8343	8343	8343	8146	8343	8146	8146	8146	8146	8146	8146	8146	8146	8146	8146	8146	8146	8146	8146	8146	8146	7959	7959	7959	7959	7959	7959	7959	7959	7959	7959	7959	7959	8146	7959	8146	8146	8146	8146	8146	8146	8146	8146	0	0	0	0	0	0	0	0	0	0	0	0	0	0	0	0	0	0	0	0	0	0	0	0	0	2822	2822	0	0	0	0	0	0	0	0	0	0	0	0	0	0	0	0	0	0	0	0	0	0	0	0	0	0	0	0	0	0	0	0	0	0	0	0	0	0	0	0	0	0	0	0	0	0	0	0	0	0	0	0	0	0	0	0	0	0	0	0	0	0	0	0	0	0	0	0	0	0	0	0	0	0	0	0	0	0	0	0	0	0	0	0	0	0	0	1596	1589	1589	1589	1589	1589	1581	1589	1581	1567	1574	1567	1560	1560	1560	1560	1560	1560	1553	1546	1546	1539	1532	1532	1532	1532	1532	0	0	0	0	0	0	0	0	0	0	0	0	0	0	0	0	0	0	0	0	0	0	0	0	0	0	0	0	0	0	0	0	0	0	0	0	0	0	0	0	0	0	0	0	0	0	0	0	0
0	0	0	0	0	0	0	0	0	0	0	1287	1287	1291	1296	1296	1296	1296	1301	1301	1301	0	0	0	0	0	0	0	0	0	0	0	0	0	0	0	0	0	0	0	0	0	0	0	0	0	0	0	0	0	0	0	0	0	0	0	0	0	0	0	0	0	0	0	0	0	0	0	0	0	0	0	0	0	0	0	0	0	0	0	0	0	0	0	0	0	0	0	1425	1425	1431	1425	1425	1425	1425	1425	1425	1425	1425	1425	1425	1425	1425	1431	1425	1431	1431	1437	1443	1443	1449	1455	1467	1480	1486	1486	1492	1492	1492	1499	1512	1519	1519	1525	1525	1532	1539	1546	1546	1553	1553	1560	1574	1589	1596	1603	1603	1618	1618	1626	1641	1641	1649	1649	1665	1673	1681	1690	1706	1723	1715	1715	1715	1715	1768	1768	0	0	0	0	0	0	0	2777	2754	2754	2733	2733	2733	2733	2733	2711	2733	2733	2733	2711	2711	2733	2733	0	0	0	2845	2822	2822	2822	2799	2799	2777	2777	2799	2799	2822	2822	2822	2845	2845	2845	2869	2869	2893	2893	2917	2917	2917	2917	2917	2917	2917	0	0	0	0	0	0	0	0	0	0	0	0	0	0	0	0	0	0	0	0	6592	6468	6468	6349	6349	6349	6349	6349	6349	6349	6349	6592	6592	6592	6592	6592	6592	6592	6592	6468	6592	6592	6468	6468	6468	6468	6468	6592	6592	6592	6592	6592	6592	6592	6592	6592	6592	6592	6592	6592	6592	6592	6592	6592	6592	6592	6592	6592	6592	6592	6592	6592	6592	6592	6592	6592	6468	6468	6468	6468	6592	6592	3698	3698	3698	3698	3698	3698	3698	3659	3659	3659	3621	3621	3621	3583	3583	3583	3583	3583	3583	3583	3583	3583	3583	3546	3583	3621	3621	3621	3621	3621	3621	3621	3621	3621	3621	3621	3621	3621	3621	3621	3621	3621	3583	3583	3583	3583	3583	3583	3583	3583	3583	3583	3583	3583	3583	3583	3583	3583	3621	3583	3583	3621	3621	3621	3546	3546	3546	3546	6992	7444	7779	7779	7779	7959	7959	7959	8146	8146	7959	7959	7959	8146	7959	7959	7779	7779	6720	6468	6468	6349	6349	6349	6235	6235	6349	6349	6468	6349	6349	6468	6349	6349	6349	6349	6468	6468	6468	6468	6468	6468	6592	6468	6468	6349	6349	8146	8343	8343	8343	8343	8343	8146	8146	8146	8146	8146	8146	8146	8146	8146	8146	8146	8146	8146	8146	8343	8146	8146	8146	7959	7959	7959	7959	7959	7959	7959	7959	7959	8146	8146	7959	8146	8146	8146	8146	8146	8146	8146	8146	0	0	0	0	0	0	0	0	0	0	0	0	0	0	0	0	0	0	0	0	0	0	0	0	0	2845	2845	2845	2845	2845	2845	2845	2845	0	0	0	0	0	0	0	0	0	0	0	0	0	0	0	0	0	0	0	0	0	0	0	0	0	0	0	0	0	0	0	0	0	0	0	0	0	0	0	0	0	0	0	0	0	0	0	0	0	0	0	0	0	0	0	0	0	0	0	0	0	0	0	0	0	0	0	0	0	0	0	0	0	0	0	0	0	0	0	0	0	1603	1596	1589	1596	1589	1589	1589	1589	1581	1574	1574	1567	1567	1567	1560	1560	1560	1560	1553	1539	1539	1553	1532	1532	1525	1525	1525	1525	0	0	0	0	0	0	0	0	0	0	0	0	0	0	0	0	0	0	0	0	0	0	0	0	0	0	0	0	0	0	0	0	0	0	0	0	0	0	0	0	0	0	0	0	0	0	0	0
0	0	0	0	0	0	0	0	0	0	0	1287	1287	1291	1296	1296	1296	1296	1296	1301	1301	0	0	0	0	0	0	0	0	0	0	0	0	0	0	0	0	0	0	0	0	0	0	0	0	0	0	0	0	0	0	0	0	0	0	0	0	0	0	0	0	0	0	0	0	0	0	0	0	0	0	0	0	0	0	0	0	0	0	0	0	0	0	0	0	0	0	0	1425	1425	1431	1431	1425	1431	1431	1431	1425	1425	1425	1425	1425	1425	1425	1425	1431	1431	1437	1437	1443	1443	1449	1455	1473	1486	1486	1486	1492	1492	1492	1506	1512	1519	1525	1525	1525	1539	1539	1546	1546	1553	1560	1567	1574	1589	1596	1603	1603	1611	1618	1626	1641	1641	1649	1657	1665	1673	1673	1690	1706	1715	1715	1723	1723	1715	0	0	0	0	0	0	0	0	0	2754	2733	2733	2733	2733	2733	2733	2733	2733	2733	2733	2733	2711	2733	2733	2733	2733	0	0	2822	2822	2799	2822	2799	2799	2777	2777	2799	2799	2822	2822	2822	2845	2845	2845	2869	2893	2893	2917	2917	2917	2917	2917	2917	2917	2942	2967	2967	0	0	0	0	0	0	0	0	0	0	0	0	0	0	0	0	0	0	6592	6592	6468	6468	6468	6349	6349	6349	6349	6349	6349	6592	6592	6592	6592	6592	6592	6592	6592	6468	6592	6592	6468	6592	6468	6468	6592	6592	6592	6592	6592	6592	6592	6592	6592	6592	6592	6592	6592	6592	6592	6592	6592	6592	6592	6592	6592	6592	6592	6592	6592	6592	6592	6468	6592	6468	6468	6468	6468	6468	6468	6468	3698	3698	3698	3698	3698	3659	3659	3659	3659	3659	3621	3621	3621	3621	3621	3583	3583	3583	3583	3583	3583	3583	3583	3546	3583	3621	3621	3621	3621	3621	3621	3621	3621	3621	3621	3621	3621	3621	3621	3621	3621	3621	3583	3583	3583	3583	3583	3583	3583	3583	3583	3583	3583	3583	3583	3583	3583	3583	3621	3583	3621	3621	3621	3621	3583	3583	3583	3546	7287	7444	7779	7779	7959	7959	7959	7959	7959	7959	7959	7959	7959	8146	7959	7779	7779	7608	6720	6468	6349	6349	6349	6349	6349	6349	6349	6349	6468	6349	6349	6349	6349	6349	6349	6349	6468	6468	6468	6468	6468	6468	6468	6468	6468	6349	6349	8146	8343	8343	8343	8146	8343	8146	8146	8146	8146	8146	8146	8146	8146	8146	8146	8146	8146	8146	8146	8343	8146	8146	8146	8146	7959	8146	8146	7959	7959	7959	7959	7959	8146	7959	7959	8146	8146	8146	8146	8146	8146	8146	8146	8146	0	0	0	0	0	0	0	0	0	0	0	0	0	0	0	0	0	0	0	0	0	0	0	0	2845	2845	2845	2845	2845	2845	2845	2845	0	0	0	0	0	0	0	0	0	0	0	0	0	0	0	0	0	0	0	0	0	0	0	0	0	0	0	0	0	0	0	0	0	0	0	0	0	0	0	0	0	0	0	0	0	0	0	0	0	0	0	0	0	0	0	0	0	0	0	0	0	0	0	0	0	0	0	0	0	0	0	0	0	0	0	0	0	0	0	0	0	1603	1596	1603	1596	1596	1596	1589	1589	1589	1581	1581	1567	1567	1567	1567	1560	1560	1560	1560	1553	1553	1553	1553	1546	1546	1539	1532	1532	0	0	0	0	0	0	0	0	0	0	0	0	0	0	0	0	0	0	0	0	0	0	0	0	0	0	0	0	0	0	0	0	0	0	0	0	0	0	0	0	0	0	0	0	0	0	0	0
0	0	0	0	0	0	0	0	0	0	0	1287	1287	1291	1296	1296	1296	1296	1301	1301	1301	0	0	0	0	0	0	0	0	0	0	0	0	0	0	0	0	0	0	0	0	0	0	0	0	0	0	0	0	0	0	0	0	0	0	0	0	0	0	0	0	0	0	0	0	0	0	0	0	0	0	0	0	0	0	0	0	0	0	0	0	0	0	0	0	0	0	0	1419	1425	1431	1431	1425	1431	1431	1431	1431	1425	1425	1425	1425	1425	1431	1431	1431	1431	1437	1437	1443	1443	1449	1455	1480	1486	1492	1486	1492	1492	1499	1512	1519	1525	1532	1532	1532	1539	1539	1546	1553	1553	1560	1567	1574	1581	1589	1603	1603	1611	1618	1626	1634	1641	1641	1649	1657	1673	1673	1690	1706	1723	1723	1732	1741	1777	1777	0	0	0	0	0	0	0	0	2754	2733	2733	2733	2733	2733	2733	2733	2733	2733	2733	2733	2733	2733	2733	2733	2733	0	0	2845	2822	2799	2822	2822	2799	2799	2799	2799	2799	2822	2822	2822	2845	2845	2869	2869	2893	2893	2917	2917	2917	2917	2917	2917	2942	2942	2967	2967	0	0	0	0	0	0	0	0	0	0	0	0	0	0	0	0	0	6592	6592	6468	6468	6468	6468	6349	6349	6349	6349	6349	6349	6592	6592	6592	6592	6592	6592	6592	6592	6592	6592	6592	6592	6592	6468	6468	6468	6592	6592	6592	6592	6592	6592	6592	6592	6592	6592	6592	6592	6592	6592	6592	6720	6592	6592	6592	6592	6592	6592	6592	6592	6592	6592	6592	6592	6468	6468	6468	6468	6468	6349	6349	3698	3698	3659	3698	3698	3698	3659	3698	3659	3659	3659	3621	3621	3621	3621	3621	3583	3583	3583	3583	3583	3583	3583	3546	3583	3621	3621	3621	3621	3621	3621	3621	3621	3621	3621	3621	3621	3621	3621	3621	3621	3621	3583	3583	3583	3583	3583	3583	3583	3583	3583	3583	3583	3583	3583	3583	3583	3583	3621	3621	3621	3621	3621	3621	3621	3621	3621	7287	7287	7444	7779	7779	7959	7959	7959	7959	8146	8146	7959	7959	8146	8146	7959	7959	7779	7444	7137	6468	6349	6349	6349	6235	6235	6349	6349	6349	6349	6349	6349	6349	6349	6349	6349	6235	6468	6349	6468	6468	6468	6468	6468	6468	6468	6349	6349	8146	8343	8343	8343	8343	8343	8146	8146	8146	8146	8146	8343	8146	8343	8146	8146	8146	8146	8146	8146	8146	8146	8146	8146	8146	8146	8146	8146	7959	7959	8146	8146	8146	8146	8146	8146	8146	8146	8146	8146	8146	8146	8146	8146	8146	0	0	0	0	0	0	0	0	0	0	0	0	0	0	0	0	0	0	0	0	0	0	0	0	2845	2845	2845	2845	2869	2845	2845	2845	0	0	0	0	0	0	0	0	0	0	0	0	0	0	0	0	0	0	0	0	0	0	0	0	0	0	0	0	0	0	0	1777	1777	0	0	1750	1741	1750	1750	1759	1759	0	0	0	0	0	0	0	0	0	0	0	0	0	0	0	0	0	0	0	0	0	0	0	0	0	0	0	0	0	0	0	0	0	0	0	0	0	0	0	1611	1611	1611	1603	1603	1603	1603	1596	1596	1589	1581	1581	1574	1567	1567	1567	1560	1560	1560	1560	1553	1553	1553	1553	1546	1546	1539	1539	1532	1532	0	0	0	0	0	0	0	0	0	0	0	0	0	0	0	0	0	0	0	0	0	0	0	0	0	0	0	0	0	0	0	0	0	0	0	0	0	0	0	0	0	0	0	0	0	0	0
0	0	0	0	0	0	0	0	0	0	0	1287	1287	1291	1296	1296	1296	1296	1301	1301	1301	0	0	0	0	0	0	0	0	0	0	0	0	0	0	0	0	0	0	0	0	0	0	0	0	0	0	0	0	0	0	0	0	0	0	0	0	0	0	0	0	0	0	0	0	0	0	0	0	0	0	0	0	0	0	0	0	0	0	0	0	0	0	0	0	0	0	0	1419	1425	1425	1425	1425	1431	1431	1431	1431	1425	1425	1425	1425	1425	1431	1431	1431	1431	1437	1437	1443	1443	1449	1455	1486	1492	1492	1492	1492	1499	1499	1512	1519	1519	1532	1532	1532	1539	1539	1546	1553	1553	1560	1567	1581	1581	1589	1589	1603	1611	1611	1618	1634	1641	1649	1649	1657	1673	1673	1681	1690	1715	1715	1723	1723	1777	1777	0	0	0	0	0	0	0	0	2733	2733	2733	2733	2733	2733	2733	2733	2733	2733	2733	2733	2733	2733	2733	2733	2733	0	0	2845	2845	2822	2822	2822	2799	2799	2799	2799	2799	2822	2822	2822	2845	2869	2869	2893	2893	2917	2917	2917	2917	2917	2917	2917	2942	2942	2967	2967	0	0	0	0	0	0	0	0	0	0	0	0	0	0	0	0	0	6592	6592	6468	6468	6349	6468	6468	6349	6349	6349	6349	6349	6468	6592	6592	6592	6592	6592	6592	6592	6592	6592	6592	6592	6592	6592	6468	6592	6592	6592	6592	6592	6592	6592	6592	6592	6592	6592	6592	6592	6592	6592	6720	6720	6720	6592	6592	6592	6592	6592	6592	6592	6592	6592	6592	6592	6468	6592	6592	6468	6468	6349	6349	4045	3698	3698	3698	3698	3698	3698	3659	3659	3698	3659	3659	3659	3621	3621	3621	3621	3583	3583	3583	3583	3583	3583	3546	3583	3583	3621	3621	3621	3621	3621	3659	3659	3659	3621	3659	3621	3659	3621	3621	3621	3621	3621	3621	3583	3583	3583	3583	3583	3583	3583	3583	3583	3583	3583	3583	3583	3583	3621	3621	3621	3621	3621	3659	3659	7287	7287	7444	7444	7608	7779	7779	7959	7959	7959	7959	8146	7959	7959	8146	8146	7959	7959	7779	7608	7137	6992	6468	6235	6235	6235	6235	6235	6235	6235	6235	6349	6235	6349	6349	6349	6349	6349	6235	6349	6349	6468	6468	6468	6468	6468	6349	6349	6349	6349	6349	8146	8343	8146	8146	8343	8146	8146	8146	8146	8146	8146	8146	8146	8146	8146	8146	8146	8146	8146	8146	8146	8146	8146	8146	8146	8146	8146	8146	8146	8146	8146	8146	8146	8146	8146	8146	8146	8146	8146	8146	8146	8146	8146	8146	8146	0	0	0	0	0	0	0	0	0	0	0	0	0	0	0	0	0	0	0	0	0	0	0	0	0	2845	2845	2869	2845	2845	2845	0	0	0	0	0	0	0	0	0	0	0	0	0	0	0	0	0	1750	1750	1750	1750	1750	1750	1750	1750	1750	1750	1750	1759	1768	1768	1777	1777	1777	1768	1759	1750	1750	1750	1750	1759	1759	0	0	0	0	0	0	0	0	0	0	0	0	0	0	0	0	0	0	0	0	0	0	0	0	0	0	0	0	0	0	0	0	0	0	0	0	0	0	1611	1611	1611	1611	1603	1603	1603	1603	1596	1589	1589	1589	1581	1574	1574	1567	1567	1567	1560	1560	1553	1553	1553	1553	1553	1546	1539	1539	1539	1539	1539	0	0	0	0	0	0	0	0	0	0	0	0	0	0	0	0	0	0	0	0	0	0	0	0	0	0	0	0	0	0	0	0	0	0	0	0	0	0	0	0	0	0	0	0	0	0
0	0	0	0	0	0	0	0	0	0	0	1282	1287	1287	1296	1296	1296	1301	1301	1306	1306	0	0	0	0	0	0	0	0	0	0	0	0	0	0	0	0	0	0	0	0	0	0	0	0	0	0	0	0	0	0	0	0	0	0	0	0	0	0	0	0	0	0	0	0	0	0	0	0	0	0	0	0	0	0	0	0	0	0	0	0	0	0	0	0	0	0	0	1419	1419	1425	1425	1425	1425	1425	1425	1425	1425	1425	1425	1425	1425	1425	1431	1431	1431	1443	1443	1443	1449	1455	1499	1486	1492	1492	1492	1499	1506	1512	1519	1519	1525	1525	1539	1539	1539	1546	1553	1553	1560	1567	1567	1581	1589	1596	1603	1603	1611	1611	1618	1634	1641	1641	1649	1665	1673	1673	1690	1698	1706	1723	1723	1741	1741	0	0	0	0	0	0	0	0	0	2733	2733	2733	2733	2733	2733	2733	2733	2733	2733	2733	2733	2733	2733	2733	2733	2733	2733	2845	2845	2845	2822	2822	2822	2799	2799	2799	2799	2799	2822	2822	2822	2845	2869	2869	2893	2917	2917	2917	2917	2917	2917	2917	2942	2942	2942	0	0	0	0	0	0	0	0	0	0	0	0	0	0	0	0	0	0	0	0	6592	6468	6468	6468	6468	6468	6468	6349	6468	6349	6349	6468	6592	6592	6592	6592	6592	6592	6592	6592	6592	6592	6592	6592	6592	6592	6592	6592	6592	6592	6592	6592	6592	6592	6592	6468	6592	6592	6592	6592	6720	6720	6720	6720	6720	6720	6592	6592	6592	6592	6592	6592	6592	6592	6592	6592	6592	6592	6468	6468	6349	6235	4045	4045	5364	3698	3698	3698	3698	3698	3659	3698	3659	3659	3659	3621	3621	3621	3621	3621	3583	3583	3583	3583	3583	3583	3583	3621	3621	3621	3621	3621	3621	3659	3659	3659	3659	3659	3659	3659	3659	3621	3621	3621	3621	3621	3583	3583	3583	3583	3583	3583	3583	3583	3583	3583	3583	3583	3583	3583	3621	3621	3621	3621	3621	3621	3621	7287	7287	7608	7608	7779	7779	7959	7959	7959	7959	7959	7959	8146	8146	8343	8146	8146	7779	7608	7444	7137	6992	6349	6235	6235	6235	6235	6235	6235	6235	6235	6235	6235	6235	6349	6235	6349	6349	6235	6349	6468	6468	6468	6468	6468	6468	6349	6349	6349	6349	6349	8343	8343	8343	8146	8343	8146	8146	8146	8146	8146	8146	8146	8146	8146	8146	8146	8146	8146	8146	7959	8146	8146	8146	8146	8146	8146	8146	8146	8146	8146	8146	8146	8146	8146	7959	8146	7959	8146	8146	8146	8146	8146	7959	8146	8146	0	0	0	0	0	0	0	0	0	0	0	0	0	0	0	0	0	0	0	0	0	0	0	0	2845	2869	2845	2869	2845	2845	2845	2822	2822	0	0	0	0	0	0	0	0	0	0	0	0	0	1741	1741	1750	1750	1750	1750	1750	1759	1759	1759	1759	1759	1759	1768	1768	1777	1777	1777	1777	1777	1759	1759	1759	1750	1750	1750	1759	1759	1759	1759	0	0	0	0	0	0	0	0	0	0	0	0	0	0	0	0	0	0	0	0	0	0	0	0	0	0	0	0	0	0	0	0	0	0	0	0	1611	1611	1618	1618	1618	1611	1611	1596	1596	1589	1589	1589	1581	1581	1574	1567	1567	1567	1560	1560	1560	1560	1553	1553	1539	1539	1546	1539	1539	1539	1546	1546	0	0	0	0	0	0	0	0	0	0	0	0	0	0	0	0	0	0	0	0	0	0	0	0	0	0	0	0	0	0	0	0	0	0	0	0	0	0	0	0	0	0	0	0
0	0	0	0	0	0	0	0	0	0	0	1287	1287	1287	1291	1296	1296	1301	1301	1301	1301	0	0	0	0	0	0	0	0	0	0	0	0	0	0	0	0	0	0	0	0	0	0	0	0	0	0	0	0	0	0	0	0	0	0	0	0	0	0	0	0	0	0	0	0	0	0	0	0	0	0	0	0	0	0	0	0	0	0	0	0	0	0	0	0	0	0	0	1419	1419	1425	1425	1425	1425	1425	1425	1425	1425	1425	1419	1425	1425	1425	1437	1431	1431	1437	1443	1443	1449	1449	1486	1486	1492	1499	1499	1506	1512	1512	1519	1525	1525	1532	1539	1539	1539	1546	1560	1560	1567	1574	1589	1589	1589	1596	1603	1611	1611	1611	1618	1634	1634	1641	1641	1649	1665	1673	1690	1706	1706	1723	1732	1741	1741	1741	0	0	0	0	0	0	0	0	2733	2733	2711	2711	2711	2733	2711	2711	2733	2733	2733	2711	2711	2711	2733	2711	2711	2711	2845	2845	2822	2822	2822	2822	2799	2799	2799	2799	2799	2799	2799	2822	2845	2869	2893	2917	2917	2917	2917	2917	2942	2917	2942	2942	2942	2942	0	0	0	0	0	0	0	0	0	0	0	0	0	0	0	0	0	0	0	4243	4243	6592	6468	6349	6468	6468	6468	6349	6349	6349	6349	6349	6592	6592	6592	6592	6592	6592	6592	6592	6592	6592	6592	6592	6592	6592	6592	6592	6592	6592	6592	6592	6592	6592	6592	6468	6592	6592	6592	6592	6592	6592	6720	6720	6592	6592	6592	6592	6592	6592	6592	6592	6592	6592	6592	6592	6592	6592	6468	6349	6235	6124	3998	5448	5364	5364	5282	3738	3698	3698	3659	3659	3659	3659	3659	3621	3621	3621	3621	3621	3621	3583	3583	3583	3583	3583	3583	3621	3621	3621	3621	3621	3659	3659	3659	3659	3659	3659	3659	3659	3659	3621	3621	3621	3621	3621	3621	3583	3583	3583	3583	3583	3583	3583	3583	3583	3583	3621	3621	3621	3621	3621	3621	3621	3583	3583	3621	7287	7287	7444	7287	7444	7608	7779	7779	7959	7959	8146	8146	8146	8146	8146	8146	7959	7779	7444	7444	7137	6853	6349	6349	6349	6349	6349	6235	6349	6349	6235	6349	6235	6235	6349	6235	6349	6349	6235	6349	6468	6468	6468	6468	6468	6468	6468	6349	6349	6349	8146	8550	8343	8343	8146	8146	8146	8146	8146	8146	8146	8146	8146	8146	8146	8146	8146	8146	7959	8146	8146	8146	8146	8146	8146	8146	8146	8146	8146	8146	8146	8146	8146	8146	8146	7959	7959	7959	7959	8146	7959	7959	7959	7959	7959	7959	7959	0	0	0	0	0	0	0	0	0	0	0	0	0	0	0	0	0	0	0	0	0	0	0	2845	2845	2845	2845	2845	2822	2822	2822	2822	0	0	0	0	0	0	0	0	0	0	0	0	1741	1741	1741	1750	1750	1750	1750	1750	1759	1768	1759	1759	1759	1759	1768	1777	1768	1777	1777	1777	1777	1768	1759	1759	1759	1750	1759	1768	1768	1759	1759	0	0	0	0	0	0	0	0	0	0	0	0	0	0	0	0	0	0	0	0	0	0	0	0	0	0	0	0	0	0	0	0	0	0	0	0	1611	1618	1618	1618	1618	1618	1618	1611	1596	1596	1596	1589	1589	1581	1581	1574	1574	1567	1560	1560	1560	1560	1553	1553	1553	1546	1546	1546	1546	1539	1539	1546	1546	1546	0	0	0	0	0	0	0	0	0	0	0	0	0	0	0	0	0	0	0	0	0	0	0	0	0	0	0	0	0	0	0	0	0	0	0	0	0	0	0	0	0	0
0	0	0	0	0	0	0	0	0	0	0	1282	1287	1287	1291	1296	1301	1301	1306	1306	1306	0	0	0	0	0	0	0	0	0	0	0	0	0	0	0	0	0	0	0	0	0	0	0	0	0	0	0	0	0	0	0	0	0	0	0	0	0	0	0	0	0	0	0	0	0	0	0	0	0	0	0	0	0	0	0	0	0	0	0	0	0	0	0	0	0	0	0	0	1419	1425	1419	1419	1419	1419	1419	1425	1419	1419	1425	1425	1431	1431	1437	1431	1431	1437	1443	1443	1449	1449	1486	1486	1492	1499	1499	1506	1512	1519	1519	1525	1532	1546	1546	1546	1546	1553	1560	1567	1574	1581	1596	1596	1596	1603	1603	1611	1611	1611	1618	1634	1634	1641	1649	1657	1665	1681	1698	1706	1715	1723	1732	1732	1741	1741	0	0	0	0	0	0	0	0	2733	2733	2711	2733	2711	2711	2711	2711	2733	2733	2733	2711	2711	2711	2733	2711	2711	2711	2845	2845	2845	2845	2822	2822	2799	2799	2799	2799	2799	2799	2799	2822	2845	2869	2893	2917	2917	2917	2917	2917	2942	2942	2942	2942	2942	0	0	0	0	0	0	0	0	0	0	0	0	0	0	0	0	0	0	0	0	4243	4192	4192	6468	6468	6468	6468	6468	6349	6349	6349	6349	6349	6468	6592	6592	6592	6592	6592	6592	6592	6592	6592	6592	6592	6592	6592	6592	6592	6592	6592	6592	6592	6592	6592	6592	6592	6592	6592	6592	6592	6720	6592	6592	6720	6592	6592	6592	6592	6592	6592	6592	6592	6592	6592	6592	6592	6592	6592	6468	6349	6235	6124	6124	5535	5364	5364	5282	5282	3698	3698	3698	3659	3659	3659	3659	3621	3621	3621	3621	3621	3583	3583	3583	3583	3583	3583	3583	3621	3621	3621	3621	3621	3659	3659	3659	3659	3659	3659	3659	3659	3659	3621	3621	3621	3621	3621	3621	3621	3583	3583	3583	3583	3583	3583	3583	3583	3621	3621	3621	3621	3621	3621	3621	3621	3583	7137	7137	7287	7137	7137	7287	7608	7779	7779	7959	7959	7959	8146	8146	8146	8146	8146	7959	7959	7779	7608	7779	7287	6349	6349	6235	6349	6235	6349	6235	6349	6349	6235	6349	6235	6235	6349	6235	6235	6235	6235	6349	6468	6468	6468	6468	6468	6468	6468	6349	6349	6349	8146	8146	8146	8146	8146	8146	8146	8146	8146	8146	8146	8146	8146	8146	8146	8146	8146	7959	7959	7959	7959	7959	8146	8146	8146	8146	8146	8146	8146	8146	8146	8146	8146	8146	8146	7959	8146	7959	7959	7959	7959	7959	7959	7959	7959	7959	7959	7959	0	0	0	0	0	0	0	0	0	0	0	0	0	0	0	0	0	0	0	0	0	0	2845	2845	2845	2845	2822	2822	2822	2822	2822	0	0	0	0	0	0	0	0	0	0	0	0	1741	1741	1741	1750	1759	1759	1759	1768	1768	1768	1768	1759	1759	0	1777	1777	1777	1777	1777	1777	1786	1768	1768	1768	1759	1750	1759	1768	1768	1777	1777	1777	0	0	0	0	0	0	0	0	0	0	0	0	0	0	0	0	0	0	0	0	0	0	0	0	0	0	1853	1853	1843	1843	1843	1843	1843	1843	0	1611	1618	1618	1618	1618	1618	1626	1618	1618	1618	1596	1596	1589	1589	1581	1581	1581	1574	1567	1560	1560	1560	1560	1553	1553	1553	1546	1546	1539	1539	1553	1546	1546	1546	1539	1539	1539	0	0	0	0	0	0	0	0	0	0	0	0	0	0	0	0	0	0	0	0	0	0	0	0	0	0	0	0	0	0	0	0	0	0	0	0	0	0	0
0	0	0	0	0	0	0	0	0	0	0	1287	1287	1287	1291	1291	1296	1306	1306	1306	1306	0	0	0	0	0	0	0	0	0	0	0	0	0	0	0	0	0	0	0	0	0	0	0	0	0	0	0	0	0	0	0	0	0	0	0	0	0	0	0	0	0	0	0	0	0	0	0	0	0	0	0	0	0	0	0	0	0	0	0	0	0	0	0	0	0	0	0	0	0	0	1419	1419	1413	1407	1407	1407	1419	1419	1425	1425	1431	1431	1437	1431	1431	1431	1443	1443	0	0	1486	1492	1492	1499	1506	1512	1519	1525	1525	1539	1546	1546	1546	1546	1553	1560	1567	1574	1574	1581	1596	1596	1596	1603	1603	1611	1611	1618	1626	1634	1634	1641	1649	1657	1665	1681	1698	1706	1715	1723	1732	1741	1741	1750	1750	0	0	0	0	0	0	2733	2733	2733	2711	2733	2711	2711	2711	2711	2711	2733	2733	2711	2711	2711	2733	2711	2711	2711	2845	2845	2822	2822	2822	2822	2822	2822	2799	2799	2799	2799	2799	2822	2822	2869	2893	2917	2917	2942	2917	2942	2942	2942	2942	2942	2942	0	0	0	0	0	0	0	0	0	0	0	0	0	0	0	0	0	0	0	0	4243	4192	4243	4243	4243	6349	6468	6349	6468	6349	6349	6349	6349	6468	6468	6592	6592	6592	6592	6592	6592	6592	6592	6592	6592	6592	6592	6720	6592	6592	6592	6592	6592	6592	6592	6592	6468	6592	6592	6592	6592	6592	6592	6592	6592	6592	6592	6592	6592	6592	6592	6592	6592	6592	6592	6592	6592	6592	6592	6468	6349	6235	6235	5535	5535	5364	5364	5282	5282	5282	3738	3738	3738	3698	3659	3659	3621	3621	3621	3621	3621	3621	3621	3583	3583	3583	3583	3583	3621	3621	3621	3621	3621	3659	3659	3659	3659	3659	3659	3659	3659	3659	3659	3621	3621	3621	3621	3621	3583	3583	3583	3583	3583	3583	3583	3583	3583	3583	3621	3621	3621	3621	3621	3621	3621	7137	7137	7287	7287	7287	7287	7287	7608	7779	7779	7959	7959	7959	8146	8146	8146	8146	7959	7959	7959	7959	7779	7779	6235	6349	6349	6235	6349	6235	6349	6235	6349	6349	6349	6349	6235	6235	6235	6235	6235	6235	6235	6349	6468	6468	6468	6468	6349	6468	6349	6349	6349	6349	8146	8146	8343	8146	8146	8146	8146	8146	8146	8146	8146	8146	8146	8146	8146	8146	8146	7959	7959	8146	7959	7959	8146	8146	8146	8146	8146	8146	8146	8146	8146	8146	8146	8146	8146	8146	8146	7959	7959	7959	7959	7959	7959	7959	7959	8146	8146	8146	8146	0	0	0	0	0	0	0	0	0	0	0	0	0	0	0	0	0	0	0	0	0	0	2845	2845	2845	2822	2822	2822	2822	0	0	0	0	0	0	0	0	0	0	0	0	0	0	0	0	1750	1759	1759	1759	1768	1768	1768	1768	0	0	0	1777	1777	1777	1777	1777	1777	1777	1777	1777	1768	1768	1759	1768	1768	1777	1777	1786	1786	1786	0	0	0	0	0	0	0	0	0	1804	1814	1814	1814	1814	1814	1814	0	0	0	0	0	0	0	1833	1843	1853	1853	1843	1843	1843	1843	1843	1843	0	0	1626	1618	1626	1626	1626	1626	1626	1626	1626	1626	1618	1596	1596	1589	1589	1581	1574	1574	1567	1567	1560	1560	1560	1560	1560	1560	1560	1553	1539	1539	1539	1539	1539	1539	1532	1532	0	0	0	0	0	0	0	0	0	0	0	0	0	0	0	0	0	0	0	0	0	0	0	0	0	0	0	0	0	0	0	0	0	0	0	0	0	0	0
0	0	0	0	0	0	0	0	0	0	0	1287	1287	1287	1287	1291	1296	1296	1306	0	0	0	0	0	0	0	0	0	0	0	0	0	0	0	0	0	0	0	0	0	0	0	0	0	0	0	0	0	0	0	0	0	0	0	0	0	0	0	0	0	0	0	0	0	0	0	0	0	0	0	0	0	0	0	0	0	0	0	0	0	0	0	0	0	0	0	0	0	0	0	0	0	0	1413	1390	1390	1390	0	0	0	0	0	0	0	1431	1431	1431	0	0	0	0	1486	1492	1499	1506	1512	1519	1519	1525	1532	1539	1546	1553	1553	1553	1553	1560	1567	1574	1581	1589	1596	1596	1603	1603	1611	1611	1611	1618	1626	1634	1641	1641	1649	1657	1665	1681	1698	1706	1715	1723	1732	1741	1741	1750	1750	0	0	0	0	0	0	2711	2711	2711	2711	2733	2711	2711	2711	2711	2733	2733	2733	2711	2711	2711	2711	2733	2754	2754	2845	2845	2845	2822	2822	2822	2822	2822	2822	2799	2799	2799	2799	2822	2845	2869	2893	2917	2917	2942	2917	2942	2942	2942	2942	2942	2942	0	0	0	0	0	0	0	0	0	0	0	0	0	0	0	0	0	0	0	0	4243	4192	4243	4192	4142	4142	4142	4142	6235	6235	6235	6235	6349	6468	6592	6592	6592	6592	6592	6592	6592	6592	6592	6592	6592	6592	6592	6592	6592	6592	6592	6592	6592	6592	6592	6592	6468	6468	6468	6592	6592	6592	6592	6592	6592	6592	6592	6592	6592	6592	6592	6592	6592	6592	6592	6592	6592	6592	6592	6468	6349	6349	6349	5535	5535	5448	5364	5364	5364	5364	5282	5282	3738	3738	3698	3659	3621	3621	3621	3621	3621	3621	3621	3583	3583	3583	3583	3583	3621	3621	3621	3621	3621	3659	3659	3659	3659	3659	3659	3659	3659	3659	3621	3621	3621	3621	3621	3583	3583	3583	3583	3583	3583	3583	3583	3583	3583	3621	3621	3621	3621	3621	3621	3621	0	7137	7137	7287	7137	7137	7287	7287	7608	7779	7779	7959	7959	7959	8146	8146	7959	7959	7959	7959	7959	7959	7779	7959	7959	6235	6235	6235	6235	6235	6349	6235	6349	6349	6349	6349	6235	6235	6235	6235	6235	6235	6235	6349	6468	6349	6349	6349	6349	6349	6349	6349	6349	6349	8146	8146	8343	8146	8146	8146	8146	8146	8146	7959	8146	8146	7959	8146	8146	7959	7959	7959	7959	8146	7959	8146	8146	8146	8146	8146	8146	8146	8146	8146	8146	8146	8146	8146	8146	8146	8146	7959	7959	7959	7959	7959	7959	7959	8146	8146	8343	8343	8146	0	0	0	0	0	0	0	0	0	0	0	0	0	0	0	0	0	0	0	0	0	2845	2845	2845	2845	2822	2822	2799	2799	0	0	0	0	0	0	0	0	0	0	0	0	0	0	0	0	0	0	0	0	0	0	0	0	0	0	0	1777	1777	1777	1777	1777	1777	1777	1786	1786	1777	1768	1768	1777	1777	1777	1777	1786	1786	1786	1786	0	0	0	0	0	1786	1804	1804	1804	1814	1814	1814	1814	1804	1814	1814	1814	0	0	0	0	1843	1833	1843	1843	1843	1843	1843	1843	1843	1853	1843	1843	0	1626	1618	1626	1626	1626	1634	1634	1626	1626	1626	1618	1611	1603	1596	1589	1589	1581	1574	1574	1574	1567	1567	1560	1567	1567	1567	1567	1539	1532	1532	1539	1539	1539	1539	1532	1532	0	0	0	0	0	0	0	0	0	0	0	0	0	0	0	0	0	0	0	0	0	0	0	0	0	0	0	0	0	0	0	0	0	0	0	0	0	0	0
0	0	0	0	0	0	0	0	0	0	0	1287	1287	1287	1287	1291	1296	1296	1311	1311	0	0	0	0	0	0	0	0	0	0	0	0	0	0	0	0	0	0	0	0	0	0	0	0	0	0	0	0	0	0	0	0	0	0	0	0	0	0	0	0	0	0	0	0	0	0	0	0	0	0	0	0	0	0	0	0	0	0	0	0	0	0	0	0	0	0	0	0	0	0	0	0	0	1385	1385	1385	1385	0	0	0	0	0	0	0	0	0	0	0	0	0	0	0	1492	1499	1512	1519	1519	1525	1532	1532	1553	1546	1553	1553	1553	1553	1560	1574	1581	1589	1596	1596	1596	1603	1603	1611	1611	1618	1618	1634	1634	1641	1649	1657	1665	1673	1690	1698	1715	1715	1723	1732	1732	1741	1750	1759	1759	0	0	0	0	0	2711	2733	2711	2711	2711	2711	2711	2690	2690	2711	2711	2711	2711	2711	2711	2733	2733	2733	2733	2845	2845	2845	2822	2822	2822	2822	2822	2799	2799	2799	2799	2799	2822	2822	2845	2893	2917	2917	2942	2917	2942	2942	2942	2942	2942	0	0	0	0	0	0	0	0	0	0	0	0	0	0	0	0	0	0	0	0	0	4192	4192	4192	4192	4142	4192	4192	4192	4192	6235	6235	6235	6235	6468	6592	6592	6592	6592	6592	6468	6592	6592	6592	6592	6592	6592	6592	6592	6592	6592	6592	6592	6592	6592	6592	6592	6468	6468	6468	6468	6468	6592	6468	6468	6592	6592	6592	6592	6592	6592	6592	6592	6592	6592	6592	6592	6592	6592	6592	6468	6468	3659	3698	3698	5535	5364	5364	5364	5364	5364	5364	5364	5364	3738	3659	3659	3621	3621	3621	3621	3621	3621	3621	3621	3621	3583	3583	3583	3621	3621	3621	3621	3659	3659	3659	3659	3659	3659	3659	3659	3659	3659	3621	3621	3621	3621	3621	3621	3583	3583	3583	3583	3583	3583	3583	3583	3621	3621	3621	3621	3621	3621	3621	3621	0	6992	7137	7287	7287	7137	7287	7779	7779	7779	7779	7959	7959	7959	7959	8146	8146	7959	7959	7959	7959	7959	7779	7779	7779	6124	6235	6235	6235	6235	6349	6235	6349	6349	6349	6235	6235	6235	6235	6235	6235	6235	6235	6235	6468	6349	6468	6468	6468	6349	6349	6349	6349	6349	8146	8146	8343	8146	8146	8146	8146	8146	8146	7959	8146	8146	7959	8146	8146	7959	7959	7959	7959	8146	7959	8146	8146	8146	8146	8146	8146	8146	8146	8146	8146	8146	8146	8146	8146	8146	8146	8146	7959	7959	8146	8146	8146	8146	8146	8146	8343	8343	0	0	0	0	0	0	0	0	0	0	0	0	0	0	0	0	0	0	0	0	0	0	2845	2845	2845	2845	2822	2799	2799	2754	2754	0	0	0	0	0	0	0	0	0	0	0	0	0	0	0	0	0	0	0	0	0	0	0	0	0	0	1777	1777	1777	1777	1777	1777	1777	1786	1786	1786	1777	1768	1777	1777	1777	1777	1786	1786	1795	1795	1795	1795	0	1795	1795	1795	1814	1814	1814	1814	1814	1814	1814	1804	1814	1814	1814	1814	1824	1833	1833	1833	1833	1833	1843	1843	1843	1843	1843	1853	1853	1853	1853	0	0	0	1626	1626	1634	1634	1634	1618	1626	1626	1626	1618	1618	1596	1596	1589	1589	1581	1581	1574	1567	1567	0	1567	1567	1567	1567	1560	1532	1546	1539	1539	1539	1539	1532	1532	0	0	0	0	0	0	0	0	0	0	0	0	0	0	0	0	0	0	0	0	0	0	0	0	0	0	0	0	0	0	0	0	0	0	0	0	0	0	0
