0	0	0	0	0	0	0	0	0	0	1287	1287	1291	1296	1301	1306	1306	1306	1306	1306	1306	1396	1396	1396	1396	1396	1390	1390	1390	1390	1390	1396	1396	1396	1402	1402	1402	1407	1407	1407	1402	1402	1407	1407	1407	1402	1402	1407	1402	1396	1390	1390	1390	1390	1390	1379	1385	1390	1396	1390	1390	1390	1396	1402	1396	1390	1385	1385	1385	0	0	0	0	0	0	0	0	1379	1385	1390	1390	1390	1390	1390	1431	1431	1437	1431	1425	1425	1419	1419	1419	1413	1413	1413	1419	1419	1413	1419	1419	1431	1437	1437	1443	1443	1449	1449	1455	1455	1461	1467	1467	1467	1473	1486	1486	1492	1499	1506	1506	1512	1532	1539	1546	1546	1553	1560	1560	1567	1567	1574	1603	1603	1611	1618	1626	1634	1634	1641	1657	1665	1665	1681	1681	1681	0	0	0	0	0	0	0	0	0	0	0	0	0	0	2754	2754	2733	2733	2733	2733	2733	2733	2711	2733	2733	2733	2733	2733	2733	2733	2733	2733	2733	2733	0	0	2967	2967	2942	2822	2822	2822	2822	2822	2822	2822	2822	2822	2845	2845	2845	2869	2869	2869	2893	2917	2942	2942	2967	2993	2993	3019	2993	3019	3019	3019	2993	2993	0	0	0	0	0	0	0	0	0	0	0	6468	6468	6468	6468	6468	6349	6468	6349	6349	6349	6349	6468	6592	6592	6592	6592	6592	6592	6592	6592	6592	6592	6468	6468	6468	6468	6468	6468	6468	6468	6468	6468	6592	6468	6592	6592	6592	6592	6592	6592	6592	6592	6592	6592	6592	6468	6468	6592	6592	6592	6592	6592	6592	6592	6592	6592	6592	6592	6592	6592	6592	6592	6592	6592	6592	6468	6592	6592	6468	6468	6468	6592	4093	4093	4045	4045	3998	3998	3998	3998	3998	3998	3998	3998	3952	3952	3907	3907	3907	3907	3907	3952	3952	3952	3952	3952	3952	3952	3952	3952	3952	3952	3952	3952	3998	3952	3952	3952	3952	3952	3952	3952	3952	3952	3952	3952	3952	3952	3952	3952	3952	3952	3952	3952	3998	3998	3998	3998	3998	3998	3998	3952	3952	3952	3952	0	8550	8550	8550	8550	8550	8343	8343	8343	8146	8146	8146	7959	7959	7959	7959	6720	6720	6592	6592	6468	6468	6592	6468	6468	6468	6468	6468	6349	6349	6349	6349	6349	6349	6349	6349	6349	6349	6468	6468	6468	6349	6349	6349	6349	8550	8550	8550	8550	8343	8146	8146	8146	8343	8146	8343	8343	8146	8343	8343	8343	8146	8146	8146	8146	8146	8146	7959	8146	8146	8146	8146	8146	8146	8146	8146	8146	8146	8146	8146	8146	8146	8146	8146	8146	8146	8146	8146	8146	8343	8343	8343	8550	8343	8343	8146	7959	7959	7959	7959	0	0	0	0	0	0	0	0	0	0	0	0	0	0	0	0	0	0	0	0	0	0	0	0	0	0	0	0	0	0	0	0	0	0	0	0	0	0	0	0	0	0	0	0	0	0	0	0	0	0	0	0	0	0	0	0	0	0	1532	1532	1539	1539	1539	1539	1539	1539	1532	1532	1532	1525	1525	1519	1506	1506	1506	1506	1506	1499	1499	1499	1499	1499	1492	1486	1480	1480	1480	1480	1473	1473	1467	1473	1467	1461	1455	1455	1455	1455	1449	1443	1455	1449	1437	1437	1449	1449	1449	1443	1437	1443	1443	1437	1431	1437	1437	1437	1437	1437	1437	1437	1431	1431	1425	1419	1419	1413	1413	1413	1413	1413	1413	1413	1413	1413	1413	1413	1413	1413	1419	1419	0	0	0	0	0	0	0	0	0	0	0	0	0	0	0	0	0	0	0	0	0	0	0	0	0	0	0	0	0	0	0	0	0	0	0	0	0	0	0	0
0	0	0	0	0	0	0	0	0	0	1287	1287	1291	1296	1306	1306	1306	1306	1306	1306	1419	1402	1396	1396	1396	1396	1390	1390	1390	1385	1385	1385	1390	1390	1402	1407	1413	1407	1407	1407	1402	1407	1402	1407	1407	1407	1402	1407	1402	1396	1390	1390	1385	1385	1385	1379	1379	1385	1396	1390	1390	1390	1396	1396	1390	1390	1385	1379	1385	1379	1379	0	0	0	0	0	0	1379	1396	1396	1390	1396	1390	1396	1431	1425	1437	1431	1425	1425	1419	1413	1413	1407	1407	1413	1413	1413	1413	1413	1419	1425	1431	1431	1437	1443	1443	1449	1449	1455	1455	1467	1467	1473	1480	1492	1492	1499	1506	1506	1506	1512	1532	1539	1546	1546	1553	1560	1560	1567	1567	1574	1596	1603	1618	1618	1626	1634	1634	1641	1657	1665	1665	1681	1681	1681	0	0	0	0	0	0	0	0	0	0	0	0	0	0	2754	2754	2754	2733	2733	2733	2733	2711	2711	2711	2733	2733	2733	2733	2733	2733	2733	2733	2733	2733	0	0	2967	2967	2942	2822	2822	2822	2799	2822	2822	2822	2822	2822	2845	2845	2845	2869	2869	2869	2893	2942	2942	2942	2967	2993	2993	2993	2993	3019	3019	3019	0	0	0	0	0	0	0	0	0	0	0	0	0	0	6349	6349	6349	6468	6468	6468	6349	6349	6349	6349	6468	6592	6468	6468	6468	6592	6592	6592	6592	6592	6592	6468	6468	6468	6468	6468	6468	6468	6468	6468	6468	6468	6468	6468	6592	6592	6592	6592	6592	6592	6592	6592	6592	6592	6468	6468	6592	6592	6592	6592	6592	6592	6592	6592	6592	6592	6592	6592	6592	6592	6592	6468	6468	6592	6468	6592	6592	6468	6468	6468	6592	4093	4093	4045	3998	3998	3998	3998	3998	4045	3998	3998	3998	3998	3998	3952	3907	3907	3907	3907	3952	3952	3952	3952	3952	3952	3952	3952	3952	3952	3952	3952	3952	3998	3952	3952	3952	3952	3952	3907	3952	3952	3952	3952	3952	3952	3952	3952	3952	3952	3952	3952	3952	3998	3998	3998	3952	3952	3952	3952	3952	3952	3952	3952	3952	8550	8550	8550	8550	8343	8343	8343	8550	8343	8146	8146	8146	7959	7959	7959	6720	6592	6592	6592	6468	6468	6468	6468	6468	6468	6468	6468	6468	6349	6349	6349	6349	6349	6349	6349	6349	6349	6468	6468	6468	6468	6349	6349	6349	8146	8146	8343	8343	8146	8146	8146	8146	8146	8146	8146	8146	8146	8146	8146	8343	8146	8146	8146	8146	8146	8146	7959	8146	8146	8146	8146	8146	8146	8146	8146	7959	8146	8146	8146	8146	8146	8146	8146	8146	8146	8146	8343	8343	8343	8343	8343	8550	8343	8146	8146	7959	7959	7959	7959	0	0	0	0	0	0	0	0	0	0	0	0	0	0	0	0	0	0	0	0	0	0	0	0	0	0	0	0	0	0	0	0	0	0	0	0	0	0	0	0	0	0	0	0	0	0	0	0	0	0	0	0	0	0	0	0	0	0	0	1532	1546	1546	1539	1539	1539	1539	1532	1532	1532	1525	1525	1519	1506	1506	1506	1506	1506	1499	1499	1499	1499	1499	1492	1480	1480	1480	1480	1480	1473	1473	1473	1467	1467	1461	1461	1455	1455	1461	1455	1449	1455	1455	1449	1449	1431	1449	1449	1443	1437	1437	1443	1437	1437	1437	1437	1437	1437	1437	1437	1431	1431	1431	1425	1425	1419	1413	1407	1413	1413	1413	1413	1413	1413	1413	1413	1413	1413	1413	1419	1419	0	0	0	0	0	0	0	0	0	0	0	0	0	0	0	0	0	0	0	0	0	0	0	0	0	0	0	0	0	0	0	0	0	0	0	0	0	0	0	0
0	0	0	0	0	0	0	0	0	0	1287	1287	1291	1296	1301	1306	1306	1306	1306	1306	1419	1413	1402	1396	1396	1396	1390	1390	1385	1379	1385	1385	1385	1390	1407	1407	1413	1407	1396	1402	1402	1396	1402	1396	1407	1407	1402	1407	1402	1396	1390	1385	1385	1385	1385	1379	1379	1379	1396	1396	1390	1385	1396	1396	1390	1390	1385	1385	1390	1390	1390	0	0	0	0	0	0	0	1402	1396	1390	1390	1390	1431	1431	1431	1437	1431	1425	1425	1419	1419	1419	1413	1413	1413	1419	1419	1407	1413	1419	1425	1425	1431	1437	1437	1449	1449	1449	1455	1461	1467	1467	1473	1480	1486	1486	1492	1499	1506	1506	1506	1525	1532	1546	1546	1553	1560	1560	1560	1560	1567	1581	1596	1611	1618	1626	1626	1634	1634	1649	1665	1673	1681	1673	1673	0	0	0	0	0	0	0	0	0	0	0	0	0	0	2733	2733	2733	2733	2733	2733	2733	2711	2711	2733	2733	2733	2733	2733	2733	2733	2733	2711	2711	2711	0	0	0	0	0	0	2799	2799	2799	2822	2822	2822	2822	2845	2845	2869	2869	2893	2893	2893	2893	2917	2942	2942	2993	2993	2993	2993	2993	3019	3019	3019	0	0	0	0	0	0	0	0	0	0	0	0	0	0	6349	6349	6349	6468	6468	6468	6468	6349	6349	6349	6468	6468	6468	6468	6468	6468	6468	6592	6592	6592	6592	6468	6592	6468	6468	6468	6468	6468	6468	6468	6468	6592	6468	6468	6592	6592	6592	6592	6592	6592	6592	6592	6592	6592	6468	6468	6592	6592	6592	6592	6592	6592	6592	6592	6592	6592	6592	6592	6592	6592	6592	6468	6468	6592	6468	6592	6592	6468	6468	6468	6468	4093	4093	4045	3998	3998	3998	3998	3998	4045	3998	3998	3998	3998	3998	3952	3907	3907	3907	3907	3952	3952	3952	3952	3952	3952	3952	3952	3952	3952	3952	3952	3952	3952	3952	3952	3952	3952	3952	3907	3952	3952	3952	3952	3952	3952	3952	3952	3952	3952	3952	3952	3952	3952	3952	3952	3952	3952	3952	3952	3952	3952	3952	3952	3952	8550	8550	8550	8550	8343	8343	8343	8343	8146	8146	8146	8146	7959	7959	7959	0	6468	6468	6468	6468	6468	6468	6468	6468	6468	6468	6468	6349	6349	6349	6235	6349	6349	6349	6349	6349	6349	6468	6468	6468	6468	6468	6349	6349	8343	8343	8343	8343	8146	8146	8146	8146	8146	8146	8146	8146	8146	8146	8146	8146	8146	8146	8146	8146	8146	8146	7959	8146	8146	8146	8146	8146	8146	8146	8146	7959	7959	8146	8146	8146	8146	8146	8146	8146	8146	8146	8343	8343	8343	8343	8343	8343	8343	8146	8146	8146	0	0	0	0	0	0	0	0	0	0	0	0	0	0	0	0	0	0	0	0	0	0	0	0	0	0	0	0	0	0	0	0	0	0	0	0	0	0	0	0	0	0	0	0	0	0	0	0	0	0	0	0	0	0	0	0	0	0	0	0	0	0	0	1539	1546	1539	1539	1539	1539	1532	1532	1532	1525	1525	1512	1506	1506	1506	1506	1506	1499	1499	1499	1499	1499	1486	1480	1480	1480	1480	1473	1473	1473	1473	1473	1467	1461	1461	1455	1455	1461	1455	1449	1449	1455	1449	1449	1449	1449	1449	1443	1443	1443	1443	1437	1437	1437	1437	1437	1437	1437	1437	1431	1431	1431	1425	1419	1413	1419	1407	1413	1407	1413	1407	1407	1413	1413	1413	1413	1413	1413	1413	1413	0	0	0	0	0	0	0	0	0	0	0	0	0	0	0	0	0	0	0	0	0	0	0	0	0	0	0	0	0	0	0	0	0	0	0	0	0	0	0	0
0	0	0	0	0	0	0	0	0	0	1287	1287	1291	1296	1296	1301	1301	1306	1306	1306	1306	1419	1396	1396	1402	1402	1396	1390	1390	1385	1385	1385	1385	1390	1407	1407	1413	1413	1396	1402	1402	1402	1402	1407	1413	1413	1413	1413	1413	1396	1390	1390	1385	1385	1385	1385	1379	1379	1379	1396	1390	1390	1396	1396	1396	1390	1385	1385	1390	1390	1390	0	0	0	0	0	0	0	1402	1396	1390	1379	1379	1431	1431	1431	1437	1431	1425	1425	1425	1419	1419	1419	1419	1419	1419	1419	1413	1419	1419	1425	1431	1437	1443	1443	1449	1449	1449	1455	1461	1461	1467	1473	1480	1486	1486	1492	1499	1506	1506	1506	1525	1532	1546	1546	1553	1560	1553	1560	1560	1567	1581	1596	1611	1611	1618	1626	1634	1634	1641	1649	1673	1681	1681	1681	0	0	0	0	0	0	0	0	0	0	0	0	0	2711	2711	2733	2733	2733	2733	2733	2733	2733	2733	2733	2733	2733	2733	2733	2733	2733	2711	2711	2711	2711	0	0	0	0	2845	2822	2822	2822	2822	2822	2822	2822	2822	2845	2845	2869	2869	2869	2869	2869	2869	2917	2942	2942	2993	2993	3019	2993	2993	3019	3019	3019	0	0	0	0	0	0	0	0	0	0	0	0	0	0	6349	6349	6468	6468	6349	6468	6349	6349	6349	6349	6349	6468	6468	6468	6468	6468	6468	6592	6592	6592	6592	6468	6592	6468	6468	6468	6468	6468	6468	6468	6468	6592	6592	6592	6592	6592	6592	6592	6592	6592	6592	6592	6592	6468	6468	6468	6592	6592	6592	6592	6592	6592	6592	6592	6592	6592	6592	6592	6592	6592	6592	6468	6592	6592	6592	6592	6592	6468	6468	6468	6468	4142	4045	4045	3998	3952	3998	3998	3998	4045	3998	3998	3998	3998	3952	3907	3907	3907	3907	3907	3952	3952	3952	3952	3952	3952	3952	3952	3952	3952	3952	3952	3952	3952	3952	3952	3952	3952	3907	3907	3907	3952	3952	3952	3952	3952	3952	3952	3952	3952	3952	3952	3952	3952	3952	3952	3952	3952	3952	3952	3952	3952	3998	3998	0	8550	8550	8550	8343	8343	8343	8343	8343	8146	8146	8146	8146	7959	7959	7959	0	6468	6468	6468	6468	6468	6468	6468	6592	6349	6349	6349	6349	6349	6349	6349	6349	6349	6349	6349	6349	6349	6349	6592	6468	6468	6468	6349	6349	6349	8343	8146	8343	8146	8146	8146	8146	8146	8146	8146	8146	8146	8146	8146	8343	8146	8146	8146	8146	8146	8146	8146	8146	8146	8146	8146	8146	8146	8146	7959	7959	7959	7959	7959	7959	8146	8146	8146	7959	7959	8146	8146	8343	8343	8343	8343	8343	0	0	0	0	0	0	0	0	0	0	0	0	0	0	0	0	0	0	0	0	0	0	0	0	0	0	0	0	0	0	0	0	0	0	0	0	0	0	0	0	0	0	0	0	0	0	0	0	0	0	0	0	0	0	0	0	0	0	0	0	0	0	0	0	0	0	0	1539	1539	1539	1539	1539	1532	1532	1532	1532	1525	1519	1512	1506	1506	1506	1506	1506	1499	1499	1499	1499	1499	1486	1480	1480	1480	1480	1473	1473	1473	1467	1467	1461	1461	1455	1455	1455	1455	1455	1449	1449	1449	1443	1443	1437	1437	1437	1443	1437	1437	1437	1437	1437	1437	1437	1437	1437	1437	1431	1431	1431	1425	1419	1419	1413	1407	1413	1413	1413	1419	1407	1413	1413	1419	1413	1413	1413	1413	1425	1425	0	0	0	0	0	0	0	0	0	0	0	0	0	0	0	0	0	0	0	0	0	0	0	0	0	0	0	0	0	0	0	0	0	0	0	0	0	0	0	0
0	0	0	0	0	0	0	0	0	0	1287	1287	1287	1291	1296	1301	1301	1301	1301	1301	1296	1296	1396	1396	1402	1402	1396	1396	1390	1390	1390	1390	0	1390	1413	1419	1425	1419	1413	1402	1402	1402	1413	1413	1413	1419	1419	1419	1419	1396	1396	1390	1385	1385	1385	1390	1390	1385	1390	1396	1390	1390	1396	1390	1390	1390	1390	1390	1390	1390	1390	0	0	0	0	0	0	0	0	0	1379	1379	1385	1379	1425	1425	1431	1425	1425	1425	1425	1425	1419	1419	1419	1413	1419	1419	1419	1419	1425	1425	1431	1437	1443	1443	1443	1449	1449	1455	1455	1461	1467	1473	1480	1486	1486	1492	1499	1506	1506	1512	1519	1525	1532	1546	1553	1553	1553	1560	1560	1567	1581	1596	1611	1611	1618	1618	1626	1634	1641	1649	1673	1681	1681	1698	1706	1706	0	0	0	0	0	0	0	0	0	0	0	2711	2711	2733	2733	2733	2733	2733	2733	2733	2733	2733	2733	2733	2733	2733	2733	2733	2711	2711	2690	2690	0	0	0	0	2845	2822	2822	2822	2822	2822	2822	2822	2822	2845	2845	2869	2869	2893	2893	2893	2893	2917	2942	2967	2993	2993	3019	2993	2993	2993	3019	2993	2993	0	0	0	0	0	0	0	0	0	0	0	0	0	0	6349	6349	6349	6349	6349	6349	6349	6349	6349	6468	6468	6468	6468	6468	6468	6468	6468	6468	6592	6592	6468	6592	6468	6468	6468	6468	6468	6468	6468	6468	6592	6592	6592	6592	6592	6592	6592	6592	6592	6592	6468	6592	6468	6468	6592	6592	6592	6592	6592	6592	6592	6592	6592	6592	6592	6592	6592	6592	6468	6468	6468	6592	6592	6592	6592	6592	6592	6468	6468	6468	4093	4045	4045	3998	3952	3998	3998	3998	3998	3998	3998	3998	3998	3952	3907	3907	3907	3907	3907	3952	3952	3952	3952	3952	3952	3952	3952	3952	3952	3952	3952	3952	3952	3952	3952	3952	3952	3952	3907	3907	3952	3907	3907	3952	3952	3952	3952	3952	3952	3952	3952	3952	3952	3952	3952	3952	3952	3952	3952	3952	3952	4045	4045	0	8550	8550	8550	8343	8343	8343	8343	8343	8146	8146	8146	8146	7959	7959	7959	6592	6592	6592	6468	6468	6468	6468	6468	6468	6349	6468	6349	6349	6349	6349	6349	6349	6349	6349	6468	6468	6349	6592	6592	6592	6592	6468	6349	6349	6349	8343	8343	8343	8146	8146	8146	8146	8146	8146	8146	8343	8146	8343	8146	8343	8146	8146	8146	8146	8146	8146	8146	8146	8146	8146	8146	8146	8146	7959	7959	7959	7959	7959	7959	7959	7959	7959	7959	8146	8146	8146	8146	8146	8343	0	0	0	0	0	0	0	0	0	0	0	0	0	0	0	0	0	0	0	0	0	0	0	0	0	0	0	0	0	0	0	0	0	0	0	0	0	0	0	0	0	0	0	0	0	0	0	0	0	0	0	0	0	0	0	0	0	0	0	0	0	0	0	0	0	0	0	0	0	0	1539	1539	1532	1539	1539	1532	1532	1532	1525	1525	1519	1512	1506	1506	1506	1506	1506	1499	1499	1499	1499	1492	1486	1480	1480	1480	1473	1473	1467	1473	1467	1461	1461	1461	1455	1455	1455	1455	1455	1449	1449	1449	1443	1443	1443	1437	1437	1437	1437	1431	1431	1431	1431	1431	1437	1437	1437	1431	1431	1431	1425	1425	1419	1419	1413	1425	1419	1425	1425	1425	1419	1425	1425	1425	1425	1425	1419	1413	1425	1425	0	0	0	0	0	0	0	0	0	0	0	0	0	0	0	0	0	0	0	0	0	0	0	0	0	0	0	0	0	0	0	0	0	0	0	0	0	0	0	0
0	0	0	0	0	0	0	0	0	0	1282	1287	1287	1291	1291	1296	1296	1296	1296	1296	1296	1296	0	0	0	1402	1402	1402	1396	1396	1396	1390	0	0	1413	1419	1425	1419	1419	1402	1402	1402	1413	1413	1413	1419	1425	1425	1419	1396	1396	1396	1396	1390	1396	1396	1396	1396	1390	1396	1390	1390	1396	1390	1390	1390	1390	1390	1390	1390	0	0	0	0	0	0	0	0	0	0	1385	1385	1385	1379	1379	1385	1419	1425	1425	1425	1425	1419	1419	1419	1413	1407	1413	1419	1419	1425	1425	1425	1437	1443	1443	1443	1443	1449	1449	1455	1461	1461	1467	1473	1480	1486	1486	1492	1499	1506	1506	1512	1519	1525	1532	1546	1553	1553	1553	1560	1560	1567	1574	1589	1611	1611	1611	1618	1634	1634	1641	1649	1665	1681	1681	1698	1706	1706	0	0	0	0	1768	1768	1777	1777	1777	0	0	2649	2690	2690	2733	2733	2733	2733	2733	2733	2733	2733	2733	2733	2733	2733	2733	2733	2711	2711	2711	2711	0	0	0	0	2845	2845	2822	2822	2822	2822	2822	2822	2822	2845	2845	2869	2869	2893	2893	2893	2893	2917	2942	2942	2967	2993	3019	3019	3019	3019	3019	3019	3019	0	0	0	0	0	0	0	0	0	0	0	0	0	0	0	6235	6349	6349	6349	6349	6349	6349	6349	6468	6468	6468	6468	6468	6468	6468	6468	6468	6592	6592	6468	6592	6468	6468	6592	6592	6592	6592	6592	6592	6592	6468	6468	6468	6592	6592	6592	6592	6592	6592	6592	6592	6468	6592	6592	6592	6592	6592	6592	6592	6592	6592	6592	6592	6592	6592	6468	6468	6468	6592	6592	6592	6592	6592	6592	6592	6592	6592	6468	6468	4093	4045	3998	3952	3952	3998	3998	3998	3998	3998	3998	3998	3998	3952	3907	3907	3907	3907	3952	3952	3952	3952	3952	3952	3952	3952	3952	3952	3952	3952	3952	3952	3952	3952	3952	3952	3952	3952	3907	3907	3952	3952	3952	3952	3952	3952	3952	3952	3952	3952	3952	3952	3952	3952	3952	3952	3952	3952	3952	3952	3952	3998	3998	3998	8550	8550	8343	8343	8343	8343	8343	8343	8146	8146	8343	8146	8146	8146	8146	6592	6592	6468	6468	6468	6468	6468	6468	6468	6468	6468	6349	6468	6468	6349	6349	6349	6349	6349	6349	6349	6349	6468	6592	6468	6468	6468	6468	6468	6468	8343	8343	8343	8146	8146	8146	8146	8146	8146	8146	8146	8146	8146	8146	8146	8146	8146	8146	8146	8146	8146	7959	7959	8146	8146	8146	8146	7959	7959	7959	7959	7959	7959	7959	8146	8146	8146	8146	8146	7959	8146	8146	8146	0	0	0	0	0	0	0	0	0	0	0	0	0	0	0	0	0	0	0	0	0	0	0	0	0	0	0	0	0	0	0	0	0	0	0	0	0	0	0	0	0	0	0	0	0	0	0	0	0	0	0	0	0	0	0	0	0	0	0	0	0	0	0	0	0	0	0	0	0	0	0	0	1539	1532	1539	1539	1532	1532	1532	1532	1525	1525	1525	1512	1506	1506	1506	1506	1499	1499	1492	1492	1492	1486	1480	1480	1473	1473	1467	1473	1473	1473	1461	1461	1461	1455	1455	1455	1455	1455	1455	1455	1455	1449	1455	1443	1437	1437	1437	1437	1431	1431	1431	1431	1431	1437	1437	1437	1437	1431	1431	1425	1425	1419	1419	1413	1425	1425	1425	1431	1425	1431	1425	1425	1425	1419	1419	1419	1413	1425	1425	0	0	0	0	0	0	0	0	0	0	0	0	0	0	0	0	0	0	0	0	0	0	0	0	0	0	0	0	0	0	0	0	0	0	0	0	0	0	0	0
0	0	0	0	0	0	0	0	0	0	1282	1287	1287	1291	1291	1296	1296	1291	1291	1291	1291	0	0	0	0	0	1402	1402	1396	1396	1396	0	0	0	0	0	1425	1419	1419	0	0	0	0	0	0	1419	1425	1431	1431	0	1396	1396	1396	1390	1396	1396	1396	1396	0	0	0	0	0	0	0	0	0	0	0	0	0	0	0	0	0	0	0	0	0	0	1379	1379	1379	1379	1379	1379	1379	1419	1425	1425	1425	1419	1419	1419	1419	1413	1419	1419	1425	1425	1425	1431	1437	1443	1443	1443	1443	1449	1449	1455	1461	1461	1467	1473	1473	1480	1486	1492	1499	1506	1506	1512	1525	1525	1532	1546	1546	1553	1553	1560	1567	1574	1574	1589	1603	1603	1611	1618	1634	1641	1641	1657	1665	1673	1681	1690	1706	1732	1741	1750	1759	1759	1777	1786	1786	1786	1786	0	0	2690	2690	2711	2733	2733	2733	2733	2733	2733	2733	2733	2733	2733	2733	2733	2733	2711	2711	2711	2711	2690	2690	0	0	2845	2845	2845	2845	2822	2822	2822	2822	2822	2822	2845	2845	2869	2869	2893	2893	2869	2893	2917	2917	2942	2967	2993	3019	3019	3019	3019	3019	3019	3019	0	0	0	0	0	0	0	0	0	0	0	0	0	0	0	6235	6349	6349	6349	6349	6349	6349	6349	6468	6468	6468	6468	6468	6468	6468	6468	6468	6468	6592	6468	6592	6468	6592	6592	6592	6592	6592	6592	6468	6468	6468	6468	6468	6592	6592	6592	6592	6592	6592	6592	6592	6592	6592	6592	6592	6592	6592	6592	6592	6592	6592	6592	6592	6592	6592	6468	6592	6592	6592	6592	6592	6592	6592	6592	6592	6592	6468	6468	6468	4142	4093	4045	3952	3952	3998	3998	3998	3998	3998	3998	3998	3998	3952	3907	3907	3907	3907	3952	3952	3952	3998	3952	3952	3952	3952	3907	3952	3952	3952	3952	3952	3952	3952	3952	3952	3952	3952	3952	3952	3952	3952	3952	3952	3952	3952	3952	3952	3952	3952	3952	3952	3952	3952	3952	3952	3952	3952	3952	3952	3998	4045	4045	3998	8550	8343	8343	8146	8343	8146	8146	8146	8146	8146	8343	8146	8146	8146	8146	6592	6468	6468	6349	6349	6349	6468	6349	6349	6349	6468	6468	6468	6468	6349	6349	6349	6349	6349	6349	6349	6349	6468	6592	6468	6468	6468	6468	6468	6468	8146	8146	8146	8146	8343	8146	8343	8146	8146	8146	8146	8146	8146	8146	8146	8146	8146	8146	8146	8146	8146	7959	7959	8146	8146	8146	8146	7959	7959	7959	7959	8146	7959	7959	8146	8146	8146	8146	8146	8146	8146	8146	0	0	0	0	0	0	0	0	0	0	0	0	0	0	0	0	0	0	0	0	0	0	0	0	0	0	0	0	0	0	0	0	0	0	0	0	0	0	0	0	0	0	0	0	0	0	0	0	0	0	0	0	0	0	0	0	0	0	0	0	0	0	0	0	0	0	0	0	0	0	0	0	0	0	1532	1532	1539	1532	1532	1532	1532	1532	1525	1525	1512	1506	1506	1506	1506	1506	1499	1492	1492	1492	1480	1480	1480	1473	1473	1467	1473	1473	1473	1461	1461	1461	1455	1455	1455	1461	1455	1455	1455	1455	1455	1449	1443	1443	1443	1443	1437	1431	1431	1431	1431	1431	1437	1437	1437	1437	1431	1425	1425	1425	1419	1419	1419	1425	1431	1431	1431	1431	1437	1431	1425	1419	1419	1419	1413	1413	1425	1425	0	0	0	0	0	0	0	0	0	0	0	0	0	0	0	0	0	0	0	0	0	0	0	0	0	0	0	0	0	0	0	0	0	0	0	0	0	0	0	0
0	0	0	0	0	0	0	0	0	0	1287	1287	1287	1291	1291	1296	1291	1291	1291	1291	1291	0	0	0	0	0	0	0	0	0	0	0	0	0	0	0	0	0	0	0	0	0	0	0	0	0	0	1443	1443	0	0	0	0	0	0	0	0	0	0	0	0	0	0	0	0	0	0	0	0	0	0	0	0	0	0	0	0	0	0	0	1379	1379	1379	1385	1379	1379	1379	1419	1425	1425	1431	1425	1425	1425	1419	1419	1419	1419	1425	1425	1431	1431	1437	1443	1443	1443	1449	1449	1449	1461	1461	1461	1467	1473	1473	1480	1480	1492	1492	1506	1506	1512	1525	1525	1539	1546	1553	1553	1553	1560	1567	1574	1574	1589	1603	1603	1611	1618	1634	1641	1641	1649	1657	1665	1681	1706	1706	1732	1741	1750	1768	1777	1786	1786	1795	1786	1786	1786	0	2690	2711	2711	2733	2733	2733	2733	2733	2733	2733	2733	2733	2733	2733	2733	2733	2711	2711	2690	2690	2669	2669	2669	2822	2822	2845	2822	2822	2822	2822	2822	2822	2822	2822	2845	2845	2869	2869	2869	2869	2869	2893	2893	2917	2942	2942	2993	3019	3019	3019	3019	3019	3019	3019	0	0	0	0	0	0	0	0	0	0	0	0	0	0	0	0	6235	6349	6349	6349	6349	6349	6349	6468	6468	6468	6468	6468	6468	6468	6468	6468	6468	6468	6468	6592	6468	6592	6592	6592	6592	6592	6592	6468	6468	6468	6468	6468	6468	6592	6592	6592	6592	6592	6592	6592	6592	6592	6592	6592	6592	6592	6592	6592	6592	6592	6592	6592	6592	6592	6592	6592	6592	6592	6592	6592	6592	6592	6592	6592	6592	6468	6468	6468	4142	4045	4045	3998	3998	3998	3998	3998	3998	3998	3998	3998	3952	3952	3907	3907	3907	3907	3907	3952	3952	3952	3952	3952	3952	3952	3952	3952	3952	3952	3952	3952	3952	3952	3952	3952	3952	3952	3952	3952	3952	3952	3952	3952	3952	3952	3952	3952	3952	3952	3952	3952	3952	3952	3952	3952	3952	3952	3952	3952	3998	4045	4045	0	8550	8343	8146	8146	8343	8146	8146	8146	8146	8146	8343	8343	8146	8343	8343	8550	6349	6349	6349	6349	6349	6349	6349	6468	6468	6349	6468	6468	6468	6349	6349	6349	6349	6349	6349	6349	6349	6592	6592	6468	6468	6468	6349	6468	6468	8146	8146	8146	8146	8146	8146	8146	8146	8146	8146	8146	8146	8146	8146	8146	8146	8146	8146	8146	8146	8146	7959	7959	8146	8146	8146	8146	7959	7959	8146	8146	8146	8146	8146	8146	8146	8146	8146	8146	8146	8146	0	0	0	0	0	0	0	0	0	0	0	0	0	0	0	0	0	0	0	0	0	0	0	0	0	0	0	0	0	0	0	0	0	0	0	0	0	0	0	0	0	0	0	0	0	0	0	0	0	0	0	0	0	0	0	0	0	0	0	0	0	0	0	0	0	0	0	0	0	0	0	0	0	0	0	1539	1539	1532	1532	1532	1532	1525	1525	0	0	0	0	1506	1506	1506	1506	0	0	0	0	1480	1480	1480	1480	1473	1467	1473	1473	1473	1461	1461	1455	1455	1455	1455	1455	1455	1455	1455	1461	1455	1455	1449	1443	1443	1443	1437	1437	1437	1431	1431	1431	1437	1437	1437	1437	1437	1431	1425	1425	1419	1425	1425	1431	1431	1431	1431	1431	1431	1425	1431	1425	1419	1419	1419	1419	1425	1425	0	0	0	0	0	0	0	0	0	0	0	0	0	0	0	0	0	0	0	0	0	0	0	0	0	0	0	0	0	0	0	0	0	0	0	0	0	0	0	0
0	0	0	0	0	0	0	0	0	0	1287	1287	1287	1291	1291	1296	1291	1291	1291	1291	1291	1291	0	0	0	0	0	0	0	0	0	0	0	0	0	0	0	0	0	0	0	0	0	0	0	0	0	1443	1443	0	0	0	0	0	0	0	0	0	0	0	0	0	0	0	0	0	0	0	0	0	0	0	0	0	0	0	0	0	0	0	0	0	0	1385	1374	1374	1374	0	0	0	1431	1425	1425	1419	1419	1419	1419	1419	1425	1425	1431	1437	1443	1443	1449	1449	1449	1449	1455	1461	1461	1467	1467	1467	1467	1473	1480	1486	1492	1499	1506	1512	1519	1525	1539	1546	1553	1553	1553	1560	1567	1574	1574	1589	1603	1596	1611	1618	1634	1634	1641	1641	1657	1665	1681	1690	1698	1732	1741	1750	1759	1777	1786	1786	1795	1795	1795	1795	0	0	2711	2711	2733	2733	2733	2733	2733	2733	2733	2733	2733	2733	2733	2733	2711	2711	2711	2690	2690	2669	2669	2669	2822	2822	2822	2822	2822	2822	2822	2822	2822	2822	2845	2845	2845	2869	2893	2893	2893	2869	2893	2893	2893	2917	2942	2967	2967	3019	3046	3046	3019	3019	0	0	0	0	0	0	0	0	0	0	0	0	0	0	0	0	0	6235	6349	6349	6349	6349	6349	6349	6468	6468	6468	6468	6468	6468	6468	6468	6468	6468	6468	6468	6468	6468	6592	6592	6592	6592	6592	6592	6468	6468	6468	6468	6468	6468	6592	6592	6592	6592	6592	6592	6592	6592	6592	6592	6592	6592	6592	6592	6592	6592	6592	6592	6592	6592	6592	6592	6592	6592	6592	6592	6592	6592	6592	6592	6592	6592	6468	6468	4093	4093	4045	3998	3998	3998	3998	3998	3998	3998	3998	3998	3998	3952	3952	3952	3952	3907	3907	3952	3952	3952	3998	3952	3952	3952	3952	3952	3952	3952	3952	3952	3952	3952	3952	3952	3952	3952	3952	3952	3952	3952	3952	3952	3952	3952	3952	3952	3952	3952	3952	3952	3952	3952	3952	3952	3952	3952	3952	3952	3952	3952	3998	3952	3952	8550	8146	8146	8146	8343	8146	8146	8146	8146	8343	8343	8343	8146	8343	8343	8343	6349	6349	6349	6349	6349	6349	6349	6468	6468	6468	6468	6468	6468	6468	6349	6349	6349	6349	6349	6468	6349	6592	6592	6349	6349	6349	6349	6349	6349	8343	8343	8146	8146	8146	8146	8146	8146	8146	8146	8146	8146	8146	8146	8146	8146	8146	8146	8146	8146	8146	8146	8146	7959	8146	8146	8146	7959	7959	8146	8146	8146	8146	8146	8146	8146	8146	8146	8146	8146	8146	0	0	0	0	0	0	0	0	0	0	0	0	0	0	0	0	0	0	0	0	0	0	0	0	0	0	0	0	0	0	0	0	0	0	0	0	0	0	0	0	0	0	0	0	0	0	0	0	0	0	0	0	0	0	0	0	0	0	0	0	0	0	0	0	0	0	0	0	0	0	0	0	0	0	1560	1553	1546	1539	1532	1532	1532	1532	1525	0	0	0	0	0	0	0	0	0	0	0	0	1480	1480	1480	1480	1473	1473	1473	1473	1473	1461	1461	1455	1449	1449	1449	1455	1455	1461	1455	1461	1449	1455	1449	1449	1443	1449	1443	1437	1437	1431	1431	1431	1431	1437	1437	1437	1437	1437	1431	1431	1425	1425	1425	1431	1431	1431	1437	1431	1431	1431	1425	1419	1419	1419	1419	1419	1425	1425	0	0	0	0	0	0	0	0	0	0	0	0	0	0	0	0	0	0	0	0	0	0	0	0	0	0	0	0	0	0	0	0	0	0	0	0	0	0	0	0
0	0	0	0	0	0	0	0	0	0	1287	1287	1287	1291	1291	1296	1296	1291	1296	1296	1291	1291	0	0	0	0	0	0	0	0	0	0	0	0	0	0	0	0	0	0	0	0	0	0	0	0	0	0	0	0	0	0	0	0	0	0	0	0	0	0	0	0	0	0	0	0	0	0	0	0	0	0	0	0	0	0	0	0	0	0	0	0	0	0	1374	1374	1374	0	0	0	0	0	0	1425	1419	1419	1419	1413	1419	1425	1431	1437	1443	1443	1449	1449	1449	1449	1455	1461	1467	1467	1467	1467	1467	1473	1480	1486	1492	1499	1506	1506	1519	1525	1532	1546	1546	1553	1553	1560	1560	1567	1567	1589	1589	1596	1603	1611	1626	1634	1641	1649	1657	1665	1673	1681	1706	1706	1732	1750	1768	1777	1777	1786	1786	1786	1795	1795	0	0	2733	2711	2733	2733	2733	2733	2733	2733	2733	2733	2733	2733	2733	2711	2711	2690	2690	2690	2690	2669	2669	2669	2845	2845	2845	2845	2845	2822	2822	2822	2822	2822	2822	2845	2845	2869	2869	2893	2893	2893	2893	2893	2893	2942	2942	2967	2993	3046	3046	3046	3046	3019	3019	0	0	0	0	0	0	0	0	0	0	0	0	0	0	0	0	6235	6349	6349	6349	6349	6349	6349	6468	6468	6468	6468	6468	6468	6468	6468	6468	6468	6468	6468	6468	6468	6592	6592	6592	6592	6592	6592	6592	6592	6468	6468	6592	6468	6468	6592	6592	6592	6592	6592	6592	6592	6592	6592	6592	6592	6592	6592	6592	6592	6592	6592	6592	6468	6468	6592	6592	6592	6592	6592	6592	6592	6592	6592	6592	6592	6468	6468	4093	4093	4045	3998	3998	3952	3952	3952	3952	3952	3952	3952	3952	3952	3952	3952	3952	3907	3907	3907	3952	3952	3952	3952	3952	3952	3952	3952	3952	3952	3952	3952	3952	3952	3952	3952	3952	3952	3952	3952	3952	3952	3952	3952	3952	3952	3952	3952	3952	3952	3952	3952	3952	3952	3952	3952	3952	3952	3952	3952	3952	3952	3952	3952	3952	0	8146	8146	8146	8343	8146	8146	8146	8146	8146	8146	8146	8343	8343	8343	8343	6349	6349	6349	6349	6349	6349	6349	6468	6468	6468	6468	6468	6468	6468	6349	6349	6349	6349	6349	6349	6349	6349	6592	6468	6468	6468	6468	6468	6468	8343	8343	8343	8343	8146	8146	8343	8146	8146	8146	8146	8343	8146	8146	8146	8146	8146	8146	8146	8146	8146	8146	8146	7959	8146	7959	8146	7959	7959	8146	8146	8146	8146	8146	8146	8146	8146	8146	8146	8146	8146	0	0	0	0	0	0	0	0	0	0	0	0	0	0	0	0	0	0	0	0	0	0	0	0	0	0	0	0	0	0	0	0	0	0	0	0	0	0	0	0	0	0	0	0	0	0	0	0	0	0	0	0	0	0	0	0	0	0	0	0	0	0	0	0	0	0	0	0	0	0	0	0	0	0	1560	1560	1546	1539	1539	1532	1532	1532	0	0	0	0	0	0	0	0	0	0	0	0	0	0	1480	1486	1486	1473	1473	1473	1473	1473	1461	1461	1455	1449	1449	1449	1455	1455	1455	1455	1461	1449	1455	1449	1449	1449	1449	1443	1437	1437	1437	1431	1431	1431	1437	1437	1437	1437	1431	1431	1431	1425	1425	1431	1431	1431	1431	1431	1431	1431	1431	1425	1425	1425	1425	1425	1425	1431	1431	0	0	0	0	0	0	0	0	0	0	0	0	0	0	0	0	0	0	0	0	0	0	0	0	0	0	0	0	0	0	0	0	0	0	0	0	0	0	0	0
0	0	0	0	0	0	0	0	0	0	1287	1287	1287	1291	1291	1296	1296	1296	1296	1296	1296	1291	1291	0	0	0	0	0	0	0	0	0	0	0	0	0	0	0	0	0	0	0	0	0	0	0	0	0	0	0	0	0	0	0	0	0	0	0	0	0	0	0	0	0	0	0	0	0	0	0	0	0	0	0	0	0	0	0	0	0	0	0	0	0	0	1374	1374	0	0	0	0	0	0	1425	1419	1419	1419	1419	1419	1425	1431	1437	1437	1443	1449	1449	1449	1449	1449	1461	1461	1461	1461	1467	1467	1473	1486	1486	1492	1506	1506	1512	1519	1519	1525	1539	1539	1546	1546	1560	1560	1567	1574	1589	1581	1603	1603	1611	1626	1634	1641	1641	1657	1665	1673	1681	1698	1715	1732	1741	1741	1768	1777	1786	1786	1786	1795	1795	0	0	2733	2733	2733	2733	2733	2733	2733	2733	2733	2733	2733	2711	2711	2711	2711	2690	2690	2669	2690	2690	2690	2893	2869	2869	2845	2845	2845	2822	2822	2822	2822	2822	2822	2822	2845	2845	2845	2869	2917	2893	2917	2917	2942	2942	2942	2942	2993	3019	3046	3046	3046	3019	3019	0	0	0	0	0	0	0	0	0	0	0	0	0	0	0	0	6349	6349	6468	6468	6468	6468	6349	6468	6468	6468	6468	6468	6468	6468	6468	6468	6468	6468	6468	6468	6468	6468	6592	6592	6592	6592	6592	6468	6592	6468	6468	6592	6592	6592	6592	6592	6592	6592	6592	6592	6592	6592	6592	6592	6592	6592	6592	6592	6592	6592	6592	6592	6468	6592	6592	6592	6592	6592	6592	6592	6592	6592	6592	6468	6468	6468	6468	4093	4093	3998	3998	3998	3952	3952	3952	3952	3952	3952	3952	3952	3907	3907	3907	3907	3907	3907	3907	3952	3952	3952	3952	3952	3952	3952	3952	3952	3952	3952	3952	3952	3952	3952	3952	3952	3952	3952	3952	3952	3952	3952	3952	3952	3952	3952	3952	3952	3952	3952	3952	3952	3952	3952	3952	3952	3952	3952	3952	3952	3952	3952	3952	3952	8343	8343	8146	8146	8146	8146	8146	8146	8146	8343	8343	8146	8146	8343	8343	7959	6592	6468	6468	6349	6349	6349	6349	6468	6468	6468	6468	6349	6349	6349	6349	6349	6349	6349	6349	6468	6468	6468	6592	6592	6592	6468	6468	6720	6720	8343	8343	8343	8343	8146	8146	8343	8146	8146	8146	8146	8146	8146	8146	8146	8146	8146	8146	8146	8146	8146	8146	7959	7959	7959	7959	7959	7959	7959	8146	8146	8146	8146	8146	8146	8146	8146	8146	8146	8146	8146	0	0	0	0	0	0	0	0	0	0	0	0	0	0	0	0	0	0	0	0	0	0	0	0	0	0	0	0	0	0	0	0	0	0	0	0	0	0	0	0	0	0	0	0	0	0	0	0	0	0	0	0	0	0	0	0	0	0	0	0	0	0	0	0	0	0	0	0	0	0	0	0	0	0	1560	1560	1539	1532	1532	0	0	0	0	0	0	0	0	0	0	0	0	0	0	0	0	0	0	1486	1486	1473	1473	1473	1473	0	0	0	0	0	0	1449	1455	1455	1455	1455	1455	1455	1449	1449	1449	1443	1443	1443	1443	1443	1437	0	1431	1431	1437	1437	1437	1431	1431	1431	1431	1425	1425	1431	1431	1431	1431	1431	1431	1437	1431	1431	1431	1425	1425	1425	1425	1431	1431	0	0	0	0	0	0	0	0	0	0	0	0	0	0	0	0	0	0	0	0	0	0	0	0	0	0	0	0	0	0	0	0	0	0	0	0	0	0	0	0
0	0	0	0	0	0	0	0	0	0	1291	1287	1287	1291	1296	1301	1301	1296	1296	1296	1296	1291	1291	0	0	0	0	0	0	0	0	0	0	0	0	0	0	0	0	0	0	0	0	0	0	0	0	0	0	0	0	0	0	0	0	0	0	0	0	0	0	0	0	0	0	0	0	0	0	0	0	0	0	0	0	0	0	0	0	0	0	0	0	0	0	1374	1374	0	0	0	0	0	1425	1425	1419	1419	1419	1419	1425	1431	1437	1437	1437	1443	1443	1449	1449	1449	1455	1455	1461	1461	1461	1461	1467	1473	1486	1492	1499	1499	1506	1512	1512	1519	1525	1539	1546	1546	1553	1553	1560	1567	1574	1581	1581	1603	1611	1611	1626	1634	1634	1641	1649	1657	1665	1673	1690	1715	1732	1741	1759	1768	1768	1786	1795	1795	1795	1795	0	2754	2733	2733	2733	2733	2733	2733	2733	2733	2733	2733	2733	2711	2711	2711	2711	2690	2690	2690	2690	2733	2733	2893	2893	2869	2845	2845	2822	2822	2822	2822	2822	2822	2822	2845	2845	2845	2869	2869	2893	2893	2893	2917	2942	2942	2942	2942	2942	3019	3046	3046	3046	0	0	0	0	0	0	0	0	0	0	0	0	0	0	0	0	0	0	6349	6349	6468	6349	6468	6468	6349	6468	6468	6468	6468	6468	6468	6468	6468	6468	6468	6468	6468	6468	6468	6592	6592	6592	6592	6592	6592	6592	6592	6468	6592	6592	6592	6592	6592	6592	6592	6592	6592	6592	6592	6592	6592	6592	6592	6592	6592	6592	6592	6592	6592	6468	6468	6468	6592	6592	6592	6592	6592	6592	6592	6592	6592	6468	6592	6468	6468	4093	4093	3998	3998	3998	3952	3952	3952	3907	3907	3952	3907	3907	3907	3907	3907	3907	3907	3907	3907	3952	3952	3952	3952	3952	3952	3952	3952	3952	3952	3952	3952	3952	3952	3952	3952	3952	3952	3952	3952	3952	3952	3952	3952	3952	3952	3952	3952	3952	3952	3952	3952	3952	3952	3952	3952	3952	3952	3952	3952	3952	3952	3952	3952	8146	8146	8146	8146	8146	8146	8146	8146	8146	8146	8146	8343	8146	8146	8146	8146	7959	6592	6592	6468	6468	6468	6349	6349	6468	6468	6468	6468	6349	6349	6349	6349	6349	6349	6349	6349	6349	6349	6349	6592	6592	6592	6592	6720	6853	6853	8146	8146	8146	8146	8146	8343	8343	8343	8146	8146	8146	8146	8146	8146	8146	8146	8146	8146	8146	8146	8146	8146	7959	7959	7959	7959	7959	7959	7959	8146	8146	8146	8146	8146	8146	8146	8146	7959	8146	8146	8146	0	0	0	0	0	0	0	0	0	0	0	0	0	0	0	0	0	0	0	0	0	0	0	0	0	0	0	0	0	0	0	0	0	0	0	0	0	0	0	0	0	0	0	0	0	0	0	0	0	0	0	0	0	0	0	0	0	0	0	0	0	0	0	0	0	0	0	0	0	0	0	0	0	0	1560	1560	1539	1532	1532	0	0	0	0	0	0	0	0	0	0	0	0	0	0	0	0	0	0	0	0	0	0	0	0	0	0	0	0	0	0	0	1455	1455	1455	1455	1461	1455	1455	1449	1449	1449	1449	1449	1449	1449	0	0	0	1431	1431	1431	1431	1431	1431	1431	1431	1425	1425	1425	1431	1431	1431	1431	1431	1437	1437	1431	1431	1431	1431	1425	1431	1431	1431	0	0	0	0	0	0	0	0	0	0	0	0	0	0	0	0	0	0	0	0	0	0	0	0	0	0	0	0	0	0	0	0	0	0	0	0	0	0	0	0
0	0	0	0	0	0	0	0	0	0	1291	1287	1291	1291	1296	1301	1301	1296	1296	1296	1296	1296	1291	0	0	0	0	0	0	0	0	0	0	0	0	0	0	0	0	0	0	0	0	0	0	0	0	0	0	0	0	0	0	0	0	0	0	0	0	0	0	0	0	0	0	0	0	0	0	0	0	0	0	0	0	0	0	0	0	0	0	0	0	0	0	0	0	0	0	0	0	0	1425	1425	1419	1419	1419	1419	1425	1431	1437	1437	1437	1443	1443	1449	1449	1449	1455	1455	1461	1461	1461	1455	1467	1473	1473	1492	1499	1506	1512	1512	1512	1519	1525	1539	1539	1546	1553	1553	1560	1567	1574	1581	1589	1603	1603	1611	1618	1626	1634	1641	1649	1649	1665	1673	1706	1723	1723	1741	1759	1768	1777	1795	1804	1804	1804	0	0	2754	2754	2733	2733	2733	2733	2733	2733	2733	2733	2733	2733	2711	2711	2711	2711	2690	2690	2711	2733	2733	2869	2869	2869	2845	2845	2822	2822	2822	2822	2822	2822	2822	2822	2822	2845	2845	2869	2869	2893	2893	2893	2917	2942	2942	2917	2967	2967	3019	3046	3046	3046	0	0	0	0	0	0	0	0	0	0	0	0	0	0	0	0	0	0	6468	6468	6468	6468	6468	6468	6349	6468	6468	6468	6468	6468	6468	6468	6468	6468	6468	6468	6468	6468	6468	6592	6468	6468	6468	6468	6592	6592	6468	6592	6592	6592	6592	6592	6592	6592	6592	6592	6592	6592	6592	6592	6592	6592	6592	6592	6468	6592	6468	6592	6592	6468	6468	6592	6592	6592	6592	6592	6592	6592	6592	6592	6592	6592	6592	6468	6468	4093	4093	3998	3998	3998	3952	3952	3907	3907	3952	3907	3907	3907	3907	3907	3907	3907	3907	3907	3907	3952	3952	3998	3952	3952	3952	3952	3952	3952	3952	3952	3952	3952	3952	3952	3952	3952	3952	3952	3952	3952	3952	3952	3952	3952	3952	3952	3952	3952	3952	3952	3952	3952	3952	3952	3952	3952	3952	3952	3952	3952	3952	3952	3952	8146	8343	8146	8146	8146	8343	8343	8343	8146	8343	8146	8343	8146	8146	8146	7959	7779	6592	6592	6468	6468	6468	6349	6349	6349	6468	6349	6349	6349	6349	6349	6235	6235	6235	6349	6349	6349	6468	6468	6592	6592	6592	6592	6592	6720	6720	6720	8343	8343	8343	8343	8343	8343	8343	8146	8146	8146	8146	8146	8146	8146	8146	8146	8146	8146	8146	8146	8146	8146	7959	7959	7959	7959	7779	7779	7959	7959	7959	7959	8146	8146	8146	7959	7959	7959	8146	8146	8146	0	0	0	0	0	0	0	0	0	0	0	0	0	0	0	0	0	0	0	0	0	0	0	0	0	0	0	0	0	0	0	0	0	0	0	0	0	0	0	0	0	0	0	0	0	0	0	0	0	0	0	0	0	0	0	0	0	0	0	0	0	0	0	0	0	0	0	0	0	0	0	0	0	0	0	0	0	0	0	0	0	0	0	0	0	0	0	0	0	0	0	0	0	0	0	0	0	0	0	0	0	0	0	0	0	0	0	0	0	0	0	0	0	1461	1455	1449	1449	1455	1449	1449	1449	1449	1449	0	0	0	1431	1431	1431	1431	1431	1431	1431	1419	1419	1413	1413	1431	1431	1431	1437	1437	1437	1437	1437	1431	1431	1431	1431	1431	1431	1431	0	0	0	0	0	0	0	0	0	0	0	0	0	0	0	0	0	0	0	0	0	0	0	0	0	0	0	0	0	0	0	0	0	0	0	0	0	0	0	0
0	0	0	0	0	0	0	0	0	0	1291	1287	1291	1296	1301	1301	1301	1301	1296	1301	1301	1301	0	0	0	0	0	0	0	0	0	0	0	0	0	0	0	0	0	0	0	0	0	0	0	0	0	0	0	0	0	0	0	0	0	0	0	0	0	0	0	0	0	0	0	0	0	0	0	0	0	0	0	0	0	0	0	0	0	0	0	0	0	0	0	0	0	0	0	0	0	0	1425	1425	1425	1419	1419	1425	1425	1431	1431	1431	1437	1437	1443	1449	1449	1449	1449	1449	1455	1461	1461	1455	1467	1473	1486	1492	1499	1506	1506	1512	1512	1519	1525	1532	1539	1546	1546	1553	1553	1567	1574	1581	1589	1603	1603	1611	1618	1626	1634	1634	1641	1657	1657	1673	1673	1706	1723	1741	1750	1768	1777	1795	1804	1804	1804	1804	0	2754	2754	2754	2733	2733	2733	2733	2733	2733	2733	2733	2733	2711	2711	2711	2711	2690	2711	2711	2711	2711	2711	2869	2869	2845	2845	2822	2822	2822	2822	2822	2822	2822	2822	2845	2845	2869	2869	2893	2917	2893	2893	2917	2942	2942	2917	2942	2967	3019	3046	3046	3046	0	0	0	0	0	0	0	0	0	0	0	0	0	0	0	0	0	0	6592	6468	6468	6468	6468	6468	6349	6468	6468	6468	6468	6468	6468	6468	6468	6468	6468	6468	6468	6468	6468	6592	6468	6592	6468	6468	6592	6592	6468	6592	6592	6592	6592	6592	6592	6592	6720	6592	6592	6592	6592	6592	6592	6468	6468	6592	6592	6592	6592	6592	6592	6592	6592	6592	6592	6592	6592	6592	6592	6592	6592	6592	6592	6468	6468	6468	6468	6468	4045	3952	3952	3952	3952	3907	3907	3907	3952	3907	3907	3907	3907	3907	3907	3907	3907	3907	3907	3952	3952	3952	3952	3952	3952	3952	3952	3952	3952	3952	3952	3952	3952	3952	3952	3952	3952	3952	3952	3952	3952	3952	3952	3952	3952	3952	3952	3952	3952	3952	3952	3952	3952	3952	3952	3952	3952	3952	3952	3952	3952	3952	3952	8146	8343	8146	8146	8146	8146	8146	8146	8146	8146	8146	8146	8146	7959	7959	7779	7608	6592	6592	6592	6592	6468	6349	6468	6349	6468	6468	6349	6349	6349	6235	6235	6235	6235	6349	6349	6349	6468	6468	6592	6592	6592	6592	6592	6592	6720	8146	8343	8343	8343	8343	8343	8343	8146	8146	8146	8146	8146	8146	8146	8146	8146	8146	8146	8146	8146	8146	8146	8146	7959	7959	7959	7959	7959	7959	7959	7959	7959	7779	7959	8146	7959	7959	7959	8146	8146	8146	8146	0	0	0	0	0	0	0	0	0	0	0	0	0	0	0	0	0	0	0	0	0	0	0	0	0	0	0	0	0	0	0	0	0	0	0	0	0	0	0	0	0	0	0	0	0	0	0	0	0	0	0	0	0	0	0	0	0	0	0	0	0	0	0	0	0	0	0	0	0	0	0	0	0	0	0	0	0	0	0	0	0	0	0	0	0	0	0	0	0	0	0	0	0	0	0	0	0	0	0	0	0	0	0	0	0	0	0	0	0	0	0	0	0	0	0	1449	1449	1455	1449	1449	1449	1449	0	0	0	0	0	0	1431	1431	1431	1431	1431	1419	1419	1425	1425	1425	1425	1431	1431	1431	1443	1443	1443	1437	1437	1437	1431	1431	1431	1431	0	0	0	0	0	0	0	0	0	0	0	0	0	0	0	0	0	0	0	0	0	0	0	0	0	0	0	0	0	0	0	0	0	0	0	0	0	0	0	0
0	0	0	0	0	0	0	0	0	0	1291	1287	1291	1301	1301	1301	1301	1301	1301	1301	1301	1301	0	0	0	0	0	0	0	0	0	0	0	0	0	0	0	0	0	0	0	0	0	0	0	0	0	0	0	0	0	0	0	0	0	0	0	0	0	0	0	0	0	0	0	0	0	0	0	0	0	0	0	0	0	0	0	0	0	0	0	0	0	0	0	0	0	0	0	0	0	0	1425	1425	1425	1419	1425	1425	1425	1425	1425	1425	1431	1431	1437	1449	1449	1455	1455	1455	1455	1461	1461	1461	1467	1473	1473	1492	1499	1506	1512	1512	1512	1519	1525	1525	1539	1546	1546	1553	1560	1567	1574	1589	1596	1603	1603	1611	1611	1618	1634	1634	1641	1649	1657	1673	1673	1698	1723	1732	1741	1759	1777	1786	1795	1795	1795	1804	0	2777	2777	2754	2754	2754	2754	2733	2733	2733	2733	2733	2733	2711	2711	2711	2711	2711	2690	2733	2733	2733	2869	2869	2869	2845	2845	2822	2822	2822	2822	2822	2822	2822	2822	2845	2845	2869	2869	2893	2917	2917	2917	2917	2942	2942	2917	2942	2942	2993	2993	3046	3046	0	0	0	0	0	0	0	0	0	0	0	0	0	0	0	0	0	0	6468	6468	6468	6468	6468	6349	6349	6349	6468	6468	6468	6468	6468	6468	6468	6468	6468	6468	6468	6468	6468	6592	6468	6592	6468	6592	6592	6592	6592	6592	6592	6592	6592	6592	6592	6592	6720	6592	6592	6592	6592	6592	6592	6592	6592	6592	6592	6592	6592	6592	6592	6592	6592	6468	6592	6468	6592	6592	6592	6592	6592	6592	6592	6468	6468	6592	6592	6592	3907	3907	3952	3952	3907	3907	3907	3907	3952	3907	3907	3907	3907	3907	3907	3907	3907	3907	3907	3952	3952	3952	3952	3952	3952	3952	3952	3952	3952	3952	3952	3952	3952	3952	3952	3952	3952	3952	3952	3952	3952	3952	3952	3952	3952	3952	3952	3952	3952	3952	3952	3952	3952	3952	3952	3952	3952	3952	3952	3952	3952	3952	3952	8146	8146	8146	8146	7959	8146	8146	8146	8146	8146	7959	8146	7959	7959	7959	7779	7608	7287	6720	6592	6592	6468	6349	6349	6349	6468	6468	6468	6349	6349	6349	6349	6349	6349	6349	6468	6349	6349	6468	6468	6592	6592	6592	6592	6720	6720	8146	8146	8343	8343	8343	8146	8146	8146	8146	8146	8146	8146	8146	8146	8146	8146	8146	8146	8146	8146	8146	8146	8146	7959	7959	7959	7959	7959	7959	7959	7959	7779	7779	7959	8146	8146	7959	7959	7959	7959	7959	8146	8146	0	0	0	0	0	0	0	0	0	0	0	0	0	0	0	0	0	0	0	0	0	0	0	0	0	0	0	0	0	0	0	0	0	0	0	0	0	0	0	0	0	0	0	0	0	0	0	0	0	0	0	0	0	0	0	0	0	0	0	0	0	0	0	0	0	0	0	0	0	0	0	0	0	0	0	0	0	0	0	0	0	0	0	0	0	0	0	0	0	0	0	0	0	0	0	0	0	0	0	0	0	0	0	0	0	0	0	0	0	0	0	0	0	0	1449	1449	1455	1449	1449	0	0	0	0	0	0	0	0	0	1574	1589	1589	1589	1431	1431	1431	1431	1539	1539	1437	1437	1437	1449	1449	1449	1443	1443	1437	1431	1431	1431	1431	0	0	0	0	0	0	0	0	0	0	0	0	0	0	0	0	0	0	0	0	0	0	0	0	0	0	0	0	0	0	0	0	0	0	0	0	0	0	0	0
0	0	0	0	0	0	0	0	0	0	1291	1287	1291	1296	1301	1301	1301	1296	1296	1296	1296	1301	0	0	0	0	0	0	0	0	0	0	0	0	0	0	0	0	0	0	0	0	0	0	0	0	0	0	0	0	0	0	0	0	0	0	0	0	0	0	0	0	0	0	0	0	0	0	0	0	0	0	0	0	0	0	0	0	0	0	0	0	0	0	0	0	0	0	0	0	0	1425	1425	1425	1425	1425	1425	1425	1425	1425	1425	1425	1431	1431	1437	1443	1449	1449	1449	1455	1455	1461	1461	1461	1467	1473	1486	1492	1506	1512	1512	1512	1519	1525	1525	1532	1539	1546	1546	1553	1560	1560	1574	1581	1589	1603	1603	1611	1611	1618	1634	1634	1641	1641	1657	1665	1665	1698	1715	1715	1741	1759	1777	1786	1795	1795	1795	0	0	2754	2754	2754	2733	2754	2754	2754	2733	2733	2733	2733	2733	2711	2711	2711	2733	2711	2733	2733	2754	2754	2869	2869	2869	2845	2822	2822	2822	2822	2822	2822	2822	2822	2822	2845	2845	2845	2869	2869	2893	2893	2893	2917	2917	2917	2917	2942	2942	3019	3019	0	0	0	0	0	0	0	0	0	0	0	0	0	0	0	0	0	0	0	0	6468	6468	6468	6468	6349	6349	6349	6468	6468	6468	6468	6592	6592	6468	6468	6468	6592	6592	6592	6468	6592	6592	6592	6592	6592	6592	6592	6592	6592	6592	6592	6592	6592	6592	6592	6592	6592	6592	6592	6592	6592	6592	6592	6592	6592	6592	6592	6592	6592	6592	6592	6592	6468	6468	6468	6468	6468	6468	6468	6468	6468	6592	6592	6468	6592	6468	6468	6468	3907	3907	3907	3952	3907	3907	3907	3907	3907	3907	3907	3907	3907	3907	3907	3907	3907	3907	3907	3952	3952	3952	3952	3952	3952	3952	3952	3952	3952	3907	3907	3907	3952	3952	3952	3952	3952	3952	3952	3952	3952	3952	3952	3952	3952	3952	3952	3907	3952	3952	3952	3952	3952	3952	3952	3952	3952	3952	3952	3952	3952	3952	3952	8343	8343	8146	8146	7959	8146	8146	8146	8146	7959	7959	7959	8146	8146	7959	7779	7287	6853	6720	6592	6592	6468	6349	6349	6468	6468	6468	6468	6349	6349	6349	6349	6349	6235	6349	6349	6349	6468	6468	6592	6592	6592	6592	6720	6720	6853	7959	8146	8343	8146	8146	8146	8343	8343	8343	8146	8146	8146	8146	8146	8146	8146	8146	8146	8146	8146	8146	8146	8146	7959	8146	8146	7959	7959	7959	7959	7959	7959	7959	7959	7959	7959	7959	7959	7959	7959	8146	7959	7959	0	0	0	0	0	0	0	0	0	0	0	0	0	0	0	0	0	0	0	0	0	0	0	0	0	0	0	0	0	0	0	0	0	0	0	0	0	0	0	0	0	0	0	0	0	0	0	0	0	0	0	0	0	0	0	0	0	0	0	0	0	0	0	0	0	0	0	0	0	0	0	0	0	0	0	0	0	0	0	0	0	0	0	0	0	0	0	0	0	0	0	0	0	0	0	0	0	0	0	0	0	0	0	0	0	0	0	0	0	0	0	0	0	0	0	0	0	0	0	0	0	0	0	0	0	1567	1567	1567	1574	1574	1574	1581	1574	1574	1574	1574	1539	1539	1532	1525	1525	1525	1525	1449	1443	1443	0	1431	1431	0	0	0	0	0	0	0	0	0	0	0	0	0	0	0	0	0	0	0	0	0	0	0	0	0	0	0	0	0	0	0	0	0	0	0	0	0	0	0	0	0	0
0	0	0	0	0	0	0	0	0	0	0	1291	1291	1291	1301	1301	1301	1301	1301	1301	1296	0	0	0	0	0	0	0	0	0	0	0	0	0	0	0	0	0	0	0	0	0	0	0	0	0	0	0	0	0	0	0	0	0	0	0	0	0	0	0	0	0	0	0	0	0	0	0	0	0	0	0	0	0	0	0	0	0	0	0	0	0	0	0	0	0	0	0	0	1419	1419	1425	1419	1425	1425	1425	1425	1425	1425	1425	1425	1425	1425	1431	1431	1437	1443	1449	1449	1449	1455	1461	1461	1461	1467	1473	1480	1492	1492	1492	1512	1519	1519	1525	1525	1532	1539	1546	1553	1553	1567	1567	1574	1589	1589	1603	1603	1611	1611	1618	1626	1634	1634	1641	1649	1649	1649	1698	1698	1741	1741	1741	1741	1786	1786	1786	1786	0	0	2754	2754	2733	2733	2733	2733	2754	2733	2733	2711	2733	2711	2711	2711	2711	2711	2711	2733	2733	2733	2754	2869	2869	2869	2845	2822	2822	2822	2799	2822	2799	2822	2822	2822	2845	2845	2845	2869	2869	2893	2893	2893	2917	2917	2917	2917	2942	2942	2942	3019	0	0	0	0	0	0	0	0	0	0	0	0	0	0	0	0	0	0	0	0	6592	6468	6468	6349	6349	6349	6349	6468	6468	6468	6468	6592	6592	6592	6468	6468	6592	6592	6592	6468	6592	6592	6468	6592	6592	6592	6592	6592	6592	6592	6592	6592	6592	6592	6592	6592	6592	6592	6592	6592	6592	6592	6592	6592	6592	6592	6592	6592	6592	6592	6592	6592	6468	6468	6468	6468	6468	6468	6468	6592	6592	6592	6592	6468	6468	6468	6468	6468	3907	3907	3907	3952	3952	3907	3907	3907	3907	3907	3907	3907	3907	3907	3907	3907	3907	3907	3907	3952	3952	3952	3952	3952	3952	3952	3952	3952	3952	3952	3952	3907	3952	3952	3952	3952	3952	3907	3952	3952	3952	3952	3952	3952	3952	3952	3952	3907	3907	3952	3952	3952	3952	3952	3952	3952	3952	3952	3952	3952	3952	3952	3952	8343	8343	8343	8146	8146	8146	8146	8146	7959	7959	7959	8146	8146	7959	7959	7779	7287	6720	6720	6592	6592	6468	6468	6468	6468	6468	6468	6468	6349	6349	6349	6349	6349	6349	6349	6349	6349	6468	6349	6592	6592	6592	6468	6592	6720	6992	7959	8343	8343	8343	8146	8343	8146	8146	8146	8146	8146	8146	8146	8146	8146	8146	8146	8146	8146	8146	8146	8146	7959	7959	8146	7959	7959	7959	7959	7959	7959	7959	7959	7959	8146	7959	7959	7959	7959	7959	7959	7959	7959	7959	0	0	0	0	0	0	0	0	0	0	0	0	0	0	0	0	0	0	0	0	0	0	0	0	0	0	0	0	0	0	0	0	0	0	0	0	0	0	0	0	0	0	0	0	0	0	0	0	0	0	0	0	0	0	0	0	0	0	0	0	0	0	0	0	0	0	0	0	0	0	0	0	0	0	0	0	0	0	0	0	0	0	0	0	0	0	0	0	0	0	0	0	0	0	0	0	0	0	0	0	0	0	0	0	0	0	0	0	0	0	0	0	0	0	0	0	0	0	0	0	1589	1589	1581	1574	1574	1567	1567	1567	1567	1567	1567	1567	1567	1560	1553	1539	1532	1532	1525	1525	1525	1525	0	0	0	0	0	0	0	0	0	0	0	0	0	0	0	0	0	0	0	0	0	0	0	0	0	0	0	0	0	0	0	0	0	0	0	0	0	0	0	0	0	0	0	0	0	0	0	0
0	0	0	0	0	0	0	0	0	0	0	1287	1291	1291	1301	1301	1301	1301	1301	1301	0	0	0	0	0	0	0	0	0	0	0	0	0	0	0	0	0	0	0	0	0	0	0	0	0	0	0	0	0	0	0	0	0	0	0	0	0	0	0	0	0	0	0	0	0	0	0	0	0	0	0	0	0	0	0	0	0	0	0	0	0	0	0	0	0	0	0	1396	1402	1419	1425	1425	1425	1425	1425	1425	1425	1425	1425	1425	1425	1425	1425	1431	1431	1431	1443	1449	1449	1449	1455	1461	1461	1467	1473	1473	1480	1486	1492	1492	1512	1519	1525	1525	1525	1532	1539	1546	1553	1560	1567	1574	1581	1589	1589	1603	1603	1611	1611	1618	1626	1634	1634	1641	1649	1657	1657	1698	1715	1732	1732	1732	1768	1768	1786	1804	1804	1804	0	2754	2754	2754	2733	2754	2733	2733	2733	2733	2711	2711	2711	2711	2711	2711	2711	2711	2733	2733	2754	2754	2845	2845	2845	2845	2822	2822	2822	2822	2822	2799	2822	2822	2822	2822	2845	2845	2845	2869	2893	2893	2917	2917	2917	2917	2917	2942	2942	2942	0	0	0	0	0	0	0	0	0	0	0	0	0	0	0	0	0	0	0	0	0	6592	6468	6468	6349	6349	6349	6349	6468	6468	6468	6468	6592	6592	6592	6592	6468	6592	6592	6592	6468	6592	6592	6468	6468	6468	6468	6468	6592	6592	6592	6592	6592	6592	6592	6592	6592	6720	6592	6592	6592	6592	6592	6592	6592	6592	6592	6592	6592	6592	6592	6592	6592	6592	6468	6592	6468	6468	6468	6468	6468	6592	6468	6468	6468	5202	5202	6468	5364	5364	5364	3907	3952	3907	3907	3907	3907	3907	3907	3907	3907	3907	3907	3907	3907	3907	3907	3907	3952	3952	3952	3952	3952	3998	3952	3952	3952	3952	3952	3952	3952	3952	3952	3952	3952	3952	3952	3952	3952	3952	3952	3952	3952	3952	3952	3952	3952	3952	3952	3952	3952	3952	3952	3952	3952	3952	3952	3952	3907	3952	3952	0	8550	8550	8343	8343	8146	8146	8146	8146	8146	7959	7959	7959	7959	7959	7959	7779	7287	6720	6592	6468	6468	6468	6468	6468	6468	6468	6468	6468	6468	6468	6468	6468	6349	6349	6349	6349	6349	6349	6349	6592	6592	6592	6468	6592	6468	6468	8146	8343	8343	8343	8343	8343	8343	8146	8146	8146	8146	8146	8146	8146	8146	8146	8146	8146	8146	8146	8146	8146	7959	7959	8146	7959	7959	7959	7959	7959	7959	7959	7959	8146	8146	8146	8146	8146	7959	7959	7959	7959	7959	7959	0	0	0	0	0	0	0	0	0	0	0	0	0	0	0	0	0	0	0	0	0	0	0	0	0	0	0	0	0	0	0	0	0	0	0	0	0	0	0	0	0	0	0	0	0	0	0	0	0	0	0	0	0	0	0	0	0	0	0	0	0	0	0	0	0	0	0	0	0	0	0	0	0	0	0	0	0	0	0	0	0	0	0	0	0	0	0	0	0	0	0	0	0	0	0	0	0	0	0	0	0	0	0	0	0	0	0	0	0	0	0	0	0	0	0	1596	1596	1596	1589	1596	1589	1589	1581	1574	1574	1567	1567	1567	1567	1567	1567	1560	1560	1560	1560	1553	1553	1532	1525	1525	1525	1525	0	0	0	0	0	0	0	0	0	0	0	0	0	0	0	0	0	0	0	0	0	0	0	0	0	0	0	0	0	0	0	0	0	0	0	0	0	0	0	0	0	0	0	0	0	0	0	0
0	0	0	0	0	0	0	0	0	0	0	1287	1291	1296	1296	1296	1296	1296	1296	1296	0	0	0	0	0	0	0	0	0	0	0	0	0	0	0	0	0	0	0	0	0	0	0	0	0	0	0	0	0	0	0	0	0	0	0	0	0	0	0	0	0	0	0	0	0	0	0	0	0	0	0	0	0	0	0	0	0	0	0	0	0	0	0	0	0	0	0	1396	1402	1413	1419	1425	1425	1425	1425	1425	1425	1425	1425	1425	1425	1425	1425	1431	1431	1437	1443	1449	1449	1455	1455	1461	1467	1467	1473	1480	1480	1492	1492	1492	1512	1519	1525	1525	1525	1532	1539	1553	1553	1560	1574	1574	1581	1581	1589	1596	1603	1611	1611	1618	1626	1634	1634	1641	1649	1673	1673	1698	1706	1715	1732	1741	1741	1786	1804	1804	1804	1804	0	0	2733	2733	2733	2754	2733	2733	2733	2733	2711	2711	2711	2711	2711	2711	2711	2711	2733	2733	2733	2733	2733	2845	2845	2845	2822	2822	2822	2799	2822	2799	2822	2822	2822	2822	2845	2845	2869	2869	2893	2893	2917	2917	2917	2917	2917	2942	2942	2942	2942	0	0	0	0	0	0	0	0	0	0	0	0	0	0	0	0	0	0	0	0	6592	6592	6468	6468	6468	6349	6349	6468	6468	6468	6468	6592	6592	6592	6592	6592	6592	6592	6592	6468	6592	6592	6592	6592	6468	6468	6592	6592	6592	6592	6592	6592	6592	6592	6592	6592	6592	6592	6592	6592	6592	6592	6592	6592	6592	6592	6592	6592	6592	6592	6592	6592	6592	6468	6468	6468	6468	6468	6468	6468	6468	6468	6468	5202	5202	5125	5282	5364	5364	3907	3907	3952	3952	3907	3907	3907	3907	3952	3907	3907	3907	3907	3907	3907	3907	3907	3907	3952	3952	3952	3952	3952	3998	3952	3952	3952	3952	3952	3952	3952	3952	3952	3952	3952	3952	3952	3952	3952	3952	3952	3952	3952	3952	3952	3952	3952	3952	3952	3952	3952	3952	3952	3952	3952	3952	3952	3952	3907	3952	3907	3907	8550	8550	8343	8146	8146	8146	8146	8146	8146	7959	7959	7959	7959	7959	7779	7779	7287	6592	6592	6349	6349	6349	6349	6468	6468	6592	6592	6468	6468	6468	6468	6349	6349	6349	6349	6349	6349	6349	6349	6468	6468	6592	6468	6468	6349	6349	8146	8343	8343	8343	8343	8343	8146	8343	8146	8146	8146	8146	8146	8146	8146	8146	8146	8146	8146	8146	8146	8146	8146	8146	8146	8146	8146	8146	7959	7959	7959	8146	8146	8146	8146	8146	8146	8146	7959	7959	8146	7959	7959	7959	0	0	0	0	0	0	0	0	0	0	0	0	0	0	0	0	0	0	0	0	0	0	0	0	0	0	0	0	0	0	0	0	0	0	0	0	0	0	0	0	0	0	0	0	0	0	0	0	0	0	0	0	0	0	0	0	0	0	0	0	0	0	0	0	0	0	0	0	0	0	0	0	0	0	0	0	0	0	0	0	0	0	0	0	0	0	0	0	0	0	0	0	0	0	0	0	0	0	0	0	0	0	0	0	0	0	0	0	0	0	0	0	0	0	1603	1603	1603	1603	1596	1596	1589	1589	1589	1581	1581	1567	1567	1574	1567	1567	1567	1560	1560	1560	1560	1560	1553	1553	1532	1532	1532	1532	0	0	0	0	0	0	0	0	0	0	0	0	0	0	0	0	0	0	0	0	0	0	0	0	0	0	0	0	0	0	0	0	0	0	0	0	0	0	0	0	0	0	0	0	0	0	0	0
0	0	0	0	0	0	0	0	0	0	0	1287	1291	1291	1296	1301	1296	1301	1296	1296	1296	0	0	0	0	0	0	0	0	0	0	0	0	0	0	0	0	0	0	0	0	0	0	0	0	0	0	0	0	0	0	0	0	0	0	0	0	0	0	0	0	0	0	0	0	0	0	0	0	0	0	0	0	0	0	0	0	0	0	0	0	0	0	0	0	0	0	1396	1402	1425	1425	1431	1425	1431	1425	1425	1425	1425	1425	1425	1425	1425	1431	1431	1437	1437	1443	1449	1449	1455	1455	1461	1467	1473	1473	1480	1480	1492	1492	1506	1512	1519	1525	1525	1532	1532	1546	1553	1553	1560	1567	1574	1581	1581	1589	1596	1603	1611	1611	1618	1626	1634	1634	1641	1641	1673	1673	1690	1706	1715	1732	1732	1768	1777	1786	1795	1795	1795	0	0	2733	2733	2733	2754	2733	2733	2733	2733	2733	2733	2711	2733	2733	2711	2733	2733	2733	2733	2733	2733	2733	2822	2822	2822	2822	2822	2822	2822	2822	2822	2822	2822	2822	2822	2845	2845	2869	2869	2893	2917	2917	2917	2942	2942	2942	2942	2942	2942	2942	0	0	0	0	0	0	0	0	0	0	0	0	0	0	0	0	0	0	0	0	0	6468	6349	6468	6349	6468	6468	6468	6468	6468	6468	6468	6592	6592	6592	6592	6592	6592	6592	6468	6592	6592	6592	6592	6592	6468	6468	6468	6592	6592	6592	6592	6592	6592	6592	6592	6592	6592	6592	6592	6592	6592	6592	6592	6592	6592	6592	6592	6592	6592	6592	6592	6592	6468	6592	6468	6468	6468	6468	6468	6468	6468	5202	5202	5282	5202	5282	5448	5448	5535	3907	3952	3952	3907	3907	3907	3952	3952	3952	3952	3907	3907	3907	3907	3907	3907	3907	3952	3952	3952	3952	3952	3952	3952	3952	3952	3952	3952	3952	3952	3952	3952	3952	3952	3952	3952	3952	3952	3952	3952	3952	3952	3952	3952	3952	3952	3952	3952	3952	3952	3952	3952	3952	3952	3952	3952	3952	3952	3952	3952	3952	8550	8343	8550	8343	8343	8343	8343	8343	8146	7959	7959	7959	7959	7959	7779	7608	7444	6592	6468	6349	6349	6349	6349	6349	6468	6592	6592	6592	6592	6468	6468	6468	6349	6349	6349	6349	6349	6349	6349	6468	6468	6468	6468	6468	6468	6592	8146	8146	8343	8343	8146	8146	8146	8146	8146	8146	8146	8146	8146	8146	8146	8146	8146	8146	8146	8146	8146	8146	7959	8146	8146	8146	8146	8146	8146	8146	8146	8146	8146	8146	8146	8146	8146	8146	7959	7959	7959	7959	7959	7959	0	0	0	0	0	0	0	0	0	0	0	0	0	0	0	0	0	0	0	0	0	0	0	0	0	0	0	0	0	0	0	0	0	0	0	0	0	0	0	0	0	0	0	0	0	0	0	0	0	0	0	0	0	0	0	0	0	0	0	0	0	0	0	0	0	0	0	0	0	0	0	0	0	0	0	0	0	0	0	0	0	0	0	0	0	0	0	0	0	0	0	0	0	0	0	0	0	0	0	0	0	0	0	0	0	0	0	0	0	0	0	0	0	0	1611	1611	1603	1603	1603	1603	1596	1596	1589	1581	1581	1574	1567	1574	1567	1567	1567	1567	1567	1560	1560	1560	1560	1553	1553	1553	1539	1532	1525	1525	0	0	0	0	0	0	0	0	0	0	0	0	0	0	0	0	0	0	0	0	0	0	0	0	0	0	0	0	0	0	0	0	0	0	0	0	0	0	0	0	0	0	0	0	0	0
0	0	0	0	0	0	0	0	0	0	0	1287	1291	1291	1296	1301	1301	1301	1301	1301	1301	0	0	0	0	0	0	0	0	0	0	0	0	0	0	0	0	0	0	0	0	0	0	0	0	0	0	0	0	0	0	0	0	0	0	0	0	0	0	0	0	0	0	0	0	0	0	0	0	0	0	0	0	0	0	0	0	0	0	0	0	0	0	0	0	0	0	0	0	1425	1425	1425	1425	1425	1425	1425	1425	1425	1425	1431	1431	1431	1437	1437	1437	1443	1443	1449	1449	1455	1461	1467	1473	1480	1480	1486	1492	1492	1492	1506	1512	1519	1525	1532	1532	1532	1539	1553	1553	1560	1567	1574	1581	1581	1589	1596	1603	1603	1603	1618	1634	1634	1641	1649	1665	1673	1690	1690	1706	1715	1723	1723	1723	1777	1777	1795	1795	1795	0	0	2733	2733	2733	2733	2733	2733	2733	2733	2733	2733	2733	2733	2733	2733	2733	2733	2733	2733	2711	2711	2711	2822	2822	2822	2822	2822	2822	2799	2822	2822	2822	2822	2822	2822	2845	2845	2869	2869	2893	2917	2917	2917	2917	2942	2917	2942	2942	2942	2942	0	0	0	0	0	0	0	0	0	0	0	0	0	0	0	0	0	0	0	0	0	6468	6468	6468	6349	6468	6468	6468	6468	6468	6468	6468	6468	6592	6592	6592	6592	6592	6592	6592	6592	6592	6592	6592	6592	6468	6592	6592	6592	6592	6592	6592	6592	6592	6592	6468	6592	6592	6592	6592	6592	6720	6592	6592	6592	6592	6592	6592	6592	6592	6592	6592	6592	6592	6592	6468	6468	6592	6468	6468	6468	6349	5282	5282	5282	5282	5364	5448	5448	3952	3952	3952	3952	3952	3952	3952	3907	3952	3952	3907	3907	3907	3907	3907	3907	3907	3907	3907	3952	3952	3952	3952	3998	3952	3952	3998	3952	3952	3998	3998	3998	3998	3952	3952	3952	3952	3952	3952	3952	3952	3952	3952	3952	3952	3952	3952	3952	3952	3952	3952	3952	3952	3952	3952	3952	3952	3952	3952	3907	3907	3952	8550	8343	8343	8343	8146	8146	8146	8146	8146	7959	7959	7959	7959	7959	7779	7779	7779	6592	6468	6349	6349	6349	6349	6349	6468	6468	6468	6592	6592	6468	6468	6468	6349	6349	6349	6349	6235	6349	6349	6468	6468	6468	6349	6468	6349	6468	8146	8343	8343	8343	8146	8343	8146	8146	8146	8146	8146	8146	8146	8146	8146	8146	8146	7959	8146	8146	8146	8146	7959	8146	8146	8146	8146	8146	8146	8146	8146	8146	8146	8146	8146	8146	8146	8146	8146	7959	7959	7959	7959	7959	0	0	0	0	0	0	0	0	0	0	0	0	0	0	0	0	0	0	0	0	0	0	0	0	0	0	0	0	0	0	0	0	0	0	0	0	0	0	0	0	0	0	0	0	0	0	0	0	0	0	0	0	0	0	0	0	0	0	0	0	0	0	0	0	0	0	0	0	0	0	0	0	0	0	0	0	0	0	0	0	0	0	0	0	0	0	0	0	0	0	0	0	0	0	0	0	0	0	0	0	0	0	0	0	0	0	0	0	0	0	0	0	0	1618	1618	1618	1618	1611	1611	1603	1603	1596	1589	1589	1581	1581	1574	1574	1567	1567	1567	1567	1567	1560	1560	1560	1560	1560	1553	1553	1539	1539	1525	1525	1525	0	0	0	0	0	0	0	0	0	0	0	0	0	0	0	0	0	0	0	0	0	0	0	0	0	0	0	0	0	0	0	0	0	0	0	0	0	0	0	0	0	0	0	0	0
0	0	0	0	0	0	0	0	0	0	0	1287	1287	1291	1296	1296	1301	1301	1301	1301	1301	0	0	0	0	0	0	0	0	0	0	0	0	0	0	0	0	0	0	0	0	0	0	0	0	0	0	0	0	0	0	0	0	0	0	0	0	0	0	0	0	0	0	0	0	0	0	0	0	0	0	0	0	0	0	0	0	0	0	0	0	0	0	0	0	0	0	0	0	1425	1425	1425	1425	1431	1425	1425	1425	1425	1425	1431	1431	1431	1437	1443	1443	1443	1449	1455	1455	1455	1461	1467	1473	1480	1486	1486	1492	1499	1506	1512	1512	1519	1525	1532	1532	1539	1546	1560	1560	1567	1567	1574	1581	1581	1589	1596	1603	1603	1611	1618	1634	1634	1641	1649	1665	1673	1690	1698	1706	1715	1715	1723	1723	1777	1786	1795	1804	1804	0	0	2733	2733	2733	2733	2733	2711	2733	2711	2711	2711	2711	2733	2733	2733	2733	2733	2733	2733	2711	2711	2822	2822	2822	2822	2822	2822	2822	2822	2822	2799	2822	2822	2822	2822	2822	2822	2845	2869	2869	2917	2917	2917	2942	2942	2942	2942	2942	2942	0	0	0	0	0	0	0	0	0	0	0	0	0	0	0	0	0	0	0	0	0	0	0	6468	6468	6468	6468	6468	6592	6468	6468	6468	6468	6468	6592	6592	6592	6592	6592	6592	6592	6592	6592	6592	6592	6592	6592	6592	6592	6592	6592	6592	6592	6592	6592	6592	6468	6592	6592	6592	6592	6592	6720	6592	6720	6592	6592	6592	6592	6592	6592	6592	6592	6592	6592	6592	6592	6592	6592	6468	6468	6468	6235	6235	5364	5364	5282	5364	5448	5448	3952	3952	3952	3952	3952	3907	3907	3907	3952	3952	3907	3907	3907	3907	3907	3907	3864	3907	3952	3952	3952	3952	3952	3998	3952	3952	3998	3952	3952	3998	3998	3998	3998	3998	3998	3952	3952	3952	3952	3952	3952	3952	3952	3952	3952	3952	3952	3952	3952	3952	3952	3952	3952	3952	3952	3952	3952	3952	3952	3952	3952	0	8550	8343	8343	8146	8146	8146	8146	8146	8146	7959	7959	7959	8146	7959	7779	7779	6349	6349	6349	6349	6349	6349	6349	6349	6468	6468	6468	6468	6468	6468	6468	6349	6349	6349	6235	6235	6235	6349	6349	6468	6468	6468	6468	6468	6349	6468	8146	8343	8343	8343	8343	8343	8146	8146	8146	8146	8146	8146	8146	8146	8146	8146	8146	7959	8146	8146	8146	8146	8146	8146	8146	8146	8146	8146	8146	8146	8146	8146	8146	8146	8146	8146	8146	8146	8146	7959	7959	7959	7959	7959	7959	0	0	0	0	0	0	0	0	0	0	0	0	0	0	0	0	0	0	0	0	0	0	0	0	0	0	0	0	0	0	0	0	0	0	0	0	0	0	0	0	0	0	0	0	0	0	0	0	0	0	0	0	0	0	0	0	0	0	0	0	0	0	0	0	0	0	0	0	0	0	0	0	0	0	0	0	0	0	0	0	0	0	0	0	0	0	0	0	0	0	0	0	0	0	0	0	0	0	0	0	0	0	0	0	0	0	0	0	0	0	0	0	1618	1618	1618	1618	1618	1611	1611	1611	1603	1596	1589	1589	1581	1574	1574	1574	1567	1567	1567	1567	1567	1567	1560	1560	1560	1553	1553	1546	1539	1532	1532	1539	1539	0	0	0	0	0	0	0	0	0	0	0	0	0	0	0	0	0	0	0	0	0	0	0	0	0	0	0	0	0	0	0	0	0	0	0	0	0	0	0	0	0	0	0	0
0	0	0	0	0	0	0	0	0	0	0	1287	1287	1291	1291	1296	1301	1306	1301	1301	1301	0	0	0	0	0	0	0	0	0	0	0	0	0	0	0	0	0	0	0	0	0	0	0	0	0	0	0	0	0	0	0	0	0	0	0	0	0	0	0	0	0	0	0	0	0	0	0	0	0	0	0	0	0	0	0	0	0	0	0	0	0	0	0	0	0	0	0	0	1425	1425	1425	1425	1425	1425	1425	1425	1425	1431	1437	1437	1431	1443	1443	1443	1437	1443	1449	1455	1455	1461	1467	1473	1480	1492	1492	1499	1499	1506	1512	1519	1525	1532	1532	1539	1546	1546	1560	1567	1574	1574	1581	1581	1589	1589	1596	1603	1603	1611	1618	1634	1634	1641	1649	1665	1673	1690	1698	1706	1715	1715	1715	1759	1777	1786	1804	1804	1804	1804	0	2733	2733	2733	2733	2711	2690	2711	2711	2690	2711	2711	2733	2733	2711	2711	2711	2711	2711	2690	2690	2822	2822	2822	2822	2822	2799	2822	2799	2822	2799	2799	2799	2799	2799	2822	2845	2845	2893	2917	2917	2917	2917	2942	2942	2942	2942	2942	2942	0	0	0	0	0	0	0	0	0	0	0	0	0	0	0	0	0	0	0	0	0	0	0	0	0	6468	6468	6468	6592	6468	6468	6468	6468	6468	6592	6592	6592	6592	6592	6592	6592	6592	6592	6592	6592	6592	6592	6592	6592	6592	6592	6592	6592	6592	6592	6468	6468	6592	6468	6592	6592	6592	6592	6592	6720	6592	6592	6592	6592	6592	6592	6592	6592	6592	6592	6592	6592	6592	6592	6468	6468	6349	6124	6124	5282	5364	5364	5364	5448	5364	3907	3907	3907	3952	3952	3907	3907	3907	3907	3952	3952	3952	3907	3907	3907	3907	3907	3907	3952	3952	3998	3998	3998	3998	3998	3952	3998	3952	3952	3998	3998	3998	3998	3998	3998	3998	3952	3952	3952	3952	3952	3952	3952	3952	3952	3907	3952	3952	3952	3952	3952	3952	3952	3952	3952	3952	3952	3952	3952	3907	3907	3907	8550	8343	8343	8146	8146	8146	8146	8146	8146	7959	7959	7959	8146	7959	7959	7959	7959	6349	6349	6235	6235	6349	6349	6349	6349	6468	6468	6468	6468	6468	6468	6349	6349	6349	6235	6235	6235	6349	6349	6468	6468	6349	6468	6349	6349	6349	8146	8343	8343	8343	8343	8343	8146	8146	8146	8146	8146	8146	8146	8146	8146	7959	7959	7959	8146	8146	8146	8146	8146	8146	8146	8146	7959	8146	8146	8146	8146	8146	8146	8146	8146	8146	8146	8146	8146	8146	8146	7959	7959	7959	8146	8146	0	0	0	0	0	0	0	0	0	0	0	0	0	0	0	0	0	0	0	0	0	0	0	0	0	0	0	0	0	0	0	0	0	0	0	0	0	0	0	0	0	0	0	0	0	0	0	0	0	0	0	0	0	0	0	0	0	0	0	0	0	0	0	0	0	0	0	0	0	0	0	0	0	0	0	0	0	0	0	0	0	0	0	0	0	0	0	0	0	0	0	0	0	0	0	0	0	0	0	0	0	0	0	0	0	0	0	0	0	0	0	0	1618	1618	1618	1618	1618	1611	1611	1611	1596	1589	1589	1589	1581	1581	1574	1574	1574	1567	1567	1560	1567	1560	1560	1560	1553	1553	1546	1539	1532	1532	1532	1539	0	0	0	0	0	0	0	0	0	0	0	0	0	0	0	0	0	0	0	0	0	0	0	0	0	0	0	0	0	0	0	0	0	0	0	0	0	0	0	0	0	0	0	0
0	0	0	0	0	0	0	0	0	0	0	1287	1287	1287	1291	1296	1301	1306	1301	1301	1301	0	0	0	0	0	0	0	0	0	0	0	0	0	0	0	0	0	0	0	0	0	0	0	0	0	0	0	0	0	0	0	0	0	0	0	0	0	0	0	0	0	0	0	0	0	0	0	0	0	0	0	0	0	0	0	0	0	0	0	0	0	0	0	0	0	0	0	0	0	1425	1425	1425	1425	1425	1425	1425	1425	1425	1431	1431	1431	1431	1437	1443	1443	1443	1449	1455	1455	1461	1467	1473	1480	1492	1499	1506	1506	1512	1512	1519	1525	1539	1539	1546	1546	1553	1560	1567	1574	1574	1581	1589	1589	1596	1603	1603	1611	1618	1626	1634	1634	1641	1649	1665	1665	1690	1698	1715	1715	1715	1732	1750	1768	1786	1795	1804	1814	1814	0	0	2733	2733	2733	2711	2690	2733	2711	2711	2711	2711	2711	2733	2711	2711	2711	2711	2711	2711	2711	2733	2822	2822	2822	2799	2799	2799	2799	2822	2799	2799	2799	2799	2799	2822	2845	2869	2893	2917	2917	2917	2917	2942	2942	2942	2942	2942	2942	0	0	0	0	0	0	0	0	0	0	0	0	0	0	0	0	0	0	0	0	0	0	0	0	0	6468	6468	6468	6468	6468	6468	6468	6468	6468	6592	6592	6592	6592	6592	6592	6592	6592	6592	6592	6592	6592	6592	6592	6592	6592	6592	6592	6592	6592	6592	6592	6468	6592	6592	6592	6592	6592	6592	6592	6592	6592	6592	6592	6592	6592	6592	6592	6592	6592	6592	6592	6592	6592	6592	6468	6349	6235	6018	6018	5364	5364	5364	5364	5448	5364	3907	3907	3907	3907	3952	3907	3907	3952	3952	3952	3952	3952	3907	3907	3907	3907	3907	3907	3952	3952	3952	3952	3998	3998	3952	3952	3998	3998	3998	3998	3998	3998	3998	3998	3998	3998	3952	3952	3952	3952	3952	3952	3952	3952	3952	3952	3952	3952	3952	3952	3952	3952	3952	3952	3952	3952	3952	3952	3952	3907	3907	3907	0	8343	8146	8146	7959	7959	8146	7959	7959	7779	7779	7779	8146	7959	7959	8146	8146	6349	6349	6235	6235	6235	6349	6349	6349	6468	6468	6468	6468	6349	6349	6349	6235	6235	6235	6235	6235	6235	6235	6349	6468	6349	6349	6349	6349	6349	6349	8343	8343	8343	8146	8146	8146	8146	8146	8146	8146	8146	8146	8146	8146	8146	7959	7959	8146	8146	8146	8146	8146	8146	8146	8146	8146	8146	8146	8146	8146	8146	8146	8146	8146	8146	8146	8146	8146	8146	8146	7959	7959	7959	7959	7959	7959	7959	0	0	0	0	0	0	0	0	0	0	0	0	0	0	0	0	0	0	0	0	0	0	0	0	0	0	0	0	0	0	0	0	0	0	0	0	0	0	0	0	0	0	0	0	0	0	0	0	0	0	0	0	0	0	0	0	0	0	0	0	0	0	0	0	0	0	0	0	0	0	0	0	0	0	0	0	0	0	0	0	0	0	0	0	0	0	0	0	0	0	0	0	0	0	0	0	0	0	0	0	0	0	0	0	0	0	0	0	0	0	1618	1618	1611	1618	1618	1603	1611	1611	1596	1596	1596	1589	1589	1589	1581	1581	1574	1574	1567	1567	1567	1567	1560	1560	1560	1560	1553	1539	1532	1532	1532	1539	0	0	0	0	0	0	0	0	0	0	0	0	0	0	0	0	0	0	0	0	0	0	0	0	0	0	0	0	0	0	0	0	0	0	0	0	0	0	0	0	0	0	0	0
0	0	0	0	0	0	0	0	0	0	0	1287	1287	1287	1291	1291	1301	1306	1301	1301	1306	1306	0	0	0	0	0	0	0	0	0	0	0	0	0	0	0	0	0	0	0	0	0	0	0	0	0	0	0	0	0	0	0	0	0	0	0	0	0	0	0	0	0	0	0	0	0	0	0	0	0	0	0	0	0	0	0	0	0	0	0	0	0	0	0	0	0	0	0	0	0	1425	1425	1419	1419	1419	1419	1425	1425	1431	1431	1431	1431	1437	1443	1443	0	1449	1455	1455	1461	1467	1467	1467	1467	1480	1519	1525	1525	1532	1532	1539	1546	1546	1546	1553	1567	1567	1567	1574	1574	1581	1589	1589	1596	1603	1611	1611	1618	1634	1634	1641	1641	1657	1665	1673	1690	1698	1715	1715	1715	1741	1750	1768	1786	1795	1804	1814	1814	0	0	2711	2711	2733	2711	2690	2733	2711	2711	2711	2711	2733	2733	2711	2711	2711	2711	2711	2690	2711	2711	2733	2733	2822	2799	2799	2822	2822	2822	2799	2799	2799	2799	2799	2822	2822	2845	2869	2917	2917	2917	2917	2942	2967	2942	2942	2942	2942	0	0	0	0	0	0	0	0	0	0	0	0	0	0	0	0	0	0	0	0	0	0	0	0	0	0	6468	6349	6468	6468	6468	6468	6349	6349	6468	6468	6468	6468	6592	6592	6592	6592	6592	6592	6592	6592	6592	6592	6592	6592	6592	6592	6592	6592	6592	6592	6468	6468	6468	6592	6592	6592	6592	6592	6592	6592	6592	6592	6592	6592	6592	6592	6592	6592	6592	6592	6592	6592	6468	6468	6349	6235	6018	6018	5364	5364	5364	5364	5364	5364	3907	3907	3907	3907	3907	3952	3907	3952	3952	3998	3952	3952	3907	3907	3907	3907	3907	3907	3952	3952	3998	3998	3998	3998	3998	3998	3998	3998	3998	3998	3998	3998	3998	3998	3998	3998	3952	3952	3952	3952	3952	3952	3952	3952	3952	3952	3952	3952	3952	3952	3952	3952	3952	3952	3952	3952	3952	3952	3952	3907	3907	3907	3907	8343	8343	8146	7959	7959	8146	7959	7959	7779	7779	7779	7779	7779	8146	8146	8146	6349	6349	6235	6349	6349	6349	6349	6468	6468	6468	6468	6349	6349	6349	6235	6235	6235	6235	6235	6235	6235	6235	6349	6349	6349	6349	6349	6349	6349	6349	8343	8343	8343	8146	8146	8146	8146	8146	8146	8146	8146	8146	8146	8146	7959	8146	7959	8146	8146	8146	8146	8146	8146	8343	8146	8146	8146	8146	8146	8146	8146	8146	8146	8146	8146	8146	8146	8146	8146	8146	8146	8146	7959	8146	7959	7959	7959	0	0	0	0	0	0	0	0	0	0	0	0	0	0	0	0	0	0	0	0	0	0	0	0	0	0	0	0	0	0	0	0	0	0	0	0	0	0	0	0	0	0	0	0	0	0	0	0	0	0	0	0	0	0	0	0	0	0	0	0	0	0	0	0	0	0	0	0	0	0	0	0	0	0	0	0	0	0	0	0	0	0	0	0	0	0	0	0	0	0	0	0	0	0	0	0	0	0	0	0	0	0	0	0	0	0	0	0	0	0	1618	1618	1611	1618	1618	1603	1603	1611	1596	1596	1596	1596	1596	1589	1589	1581	1581	1574	1574	1574	1574	1567	1567	1567	1567	1567	1560	1567	1567	1532	0	0	0	0	0	0	0	0	0	0	0	0	0	0	0	0	0	0	0	0	0	0	0	0	0	0	0	0	0	0	0	0	0	0	0	0	0	0	0	0	0	0	0	0	0	0
0	0	0	0	0	0	0	0	0	0	0	1287	1287	1287	1291	1291	1301	1301	1306	1306	1306	1306	0	0	0	0	0	0	0	0	0	0	0	0	0	0	0	0	0	0	0	0	0	0	0	0	0	0	0	0	0	0	0	0	0	0	0	0	0	0	0	0	0	0	0	0	0	0	0	0	0	0	0	0	0	0	0	0	0	0	0	0	0	0	0	0	0	0	0	0	0	0	0	1419	1419	1419	1419	0	0	0	0	0	0	0	0	0	0	0	1455	1455	1455	1467	1467	1467	1467	1480	1519	1525	1525	1532	1532	1546	1546	1553	1553	1553	1560	1567	1574	1574	1581	1589	1589	1596	1603	1603	1611	1611	1618	1626	1634	1634	1634	1649	1665	1673	1690	1698	1715	1723	1723	1741	1750	1759	1777	1786	1795	1814	1814	0	0	2711	2711	2733	2711	2690	2733	2711	2711	2711	2711	2733	2733	2733	2711	2711	2711	2711	2711	2711	2711	2822	2822	2799	2822	2822	2822	2822	2822	2822	2799	2799	2799	2799	2822	2845	2845	2869	2893	2917	2917	2917	2917	2942	2942	2942	2942	2942	0	0	0	0	0	0	0	0	0	0	0	0	0	0	0	0	0	0	0	0	0	0	0	0	0	0	0	6349	6468	6349	6349	6349	6349	6349	6468	6468	6468	6468	6592	6592	6592	6592	6592	6592	6592	6592	6592	6592	6592	6592	6592	6592	6592	6592	6592	6592	6468	6468	6468	6468	6468	6592	6592	6592	6592	6592	6592	6592	6592	6592	6592	6592	6592	6592	6592	6592	6592	6592	6468	6468	6349	6235	6235	5448	5448	5364	5364	5364	5364	5364	5364	3907	3907	3907	3907	3907	3907	3907	3952	3998	3952	3952	3952	3907	3907	3907	3907	3907	3952	3952	3998	3998	3998	3998	3998	3998	3998	3998	3998	3998	3998	3998	3998	3998	3998	3952	3952	3952	3952	3952	3952	3952	3952	3952	3952	3952	3952	3952	3952	3952	3952	3952	3952	3952	3952	3952	3952	3952	3952	3907	3907	3864	3864	8550	8343	8146	8146	8146	8146	7959	7959	7959	7779	7779	7779	7959	8146	8146	8146	6349	6349	6349	6349	6349	6349	6349	6468	6349	6468	6349	6349	6235	6235	6235	6235	6235	6235	6235	6235	6235	6235	6235	6349	6349	6468	6468	6468	6592	6592	8146	8343	8343	8343	8146	8146	8146	8146	8146	8146	8146	8146	7959	7959	7959	7959	7959	7959	8146	8146	7959	8146	8146	8146	8343	8146	8146	8146	8146	8146	8146	8146	8146	8146	8146	8146	8146	8146	8146	8146	8146	8146	8146	8146	8146	8146	8146	0	0	0	0	0	0	0	0	0	0	0	0	0	0	0	0	0	0	0	0	0	0	0	0	0	0	0	0	0	0	0	0	0	0	0	0	0	0	0	0	0	0	0	0	0	0	0	0	0	0	0	0	0	0	0	0	0	0	0	0	0	0	0	0	0	0	0	0	0	0	0	0	0	0	0	0	0	0	0	0	0	0	0	0	0	0	0	0	0	0	0	0	0	0	0	0	0	0	0	0	0	0	0	0	0	0	0	0	0	0	0	1618	1611	1618	1618	1603	1611	1618	1596	1596	1596	1596	1596	1589	1589	1589	1581	1581	1581	1574	1574	1567	1567	1581	1589	1589	1589	1567	1567	0	0	0	0	0	0	0	0	0	0	0	0	0	0	0	0	0	0	0	0	0	0	0	0	0	0	0	0	0	0	0	0	0	0	0	0	0	0	0	0	0	0	0	0	0	0	0
0	0	0	0	0	0	0	0	0	0	0	1287	1287	1287	1291	1296	1301	1306	1306	1311	1306	1306	0	0	0	0	0	0	0	0	0	0	0	0	0	0	0	0	0	0	0	0	0	0	0	0	0	0	0	0	0	0	0	0	0	0	0	0	0	0	0	0	0	0	0	0	0	0	0	0	0	0	0	0	0	0	0	0	0	0	0	0	0	0	0	0	0	0	0	0	0	0	0	0	0	0	0	0	0	0	0	0	0	0	0	0	0	0	0	1455	1455	0	1467	1467	0	0	0	1525	1525	1546	1546	1553	1553	1560	1553	1560	1567	1567	1574	1581	1581	1589	1589	1596	1603	1603	1611	1611	1618	1634	1634	1634	1634	1641	1649	1673	1698	1706	1723	1723	1732	1741	1750	1750	1777	1786	1804	1804	1804	0	0	2711	2711	2711	2711	2690	2711	2711	2711	2690	2711	2711	2733	2711	2711	2711	2711	2733	2711	2711	2711	2822	2822	2822	2799	2799	2822	2822	2822	2799	2799	2799	2799	2799	2822	2845	2845	2869	2893	2893	2917	2893	2893	2917	2917	2917	2917	0	0	0	0	0	0	0	0	0	0	0	0	0	0	0	0	0	0	0	0	0	0	0	0	0	0	0	0	0	6468	6235	6235	6468	6468	6349	6468	6468	6468	6468	6468	6468	6592	6592	6592	6592	6592	6592	6592	6592	6592	6592	6592	6592	6592	6592	6592	6592	6468	6468	6468	6468	6468	6468	6468	6468	6592	6592	6592	6592	6592	6592	6592	6592	6592	6592	6592	6592	6592	6592	6592	6468	6468	6468	6468	5448	5448	5364	5364	5364	5364	5364	5364	5364	5364	3864	3864	3907	3907	3907	3907	3952	3952	3952	3952	3907	3952	3907	3907	3907	3952	3998	3998	3998	3998	3998	3998	3998	3998	3998	3998	3998	3998	3998	3998	3998	3998	3998	3952	3952	3952	3952	3952	3952	3952	3952	3952	3952	3952	3952	3952	3952	3952	3952	3952	3952	3952	3952	3952	3952	3907	3907	3907	3864	3864	8146	8146	8146	8146	7959	8146	7959	7959	7959	7779	7779	7959	8146	8146	8146	8146	8343	6349	6349	6349	6349	6349	6349	6349	6468	6349	6349	6349	6349	6235	6235	6235	6235	6235	6235	6235	6235	6235	6349	6349	6349	6468	6468	6468	6468	6468	8343	8343	8343	8343	8146	8146	8146	8146	8146	8146	8146	7959	7959	7959	7959	7959	7959	7959	8146	8146	8146	8146	8146	8343	8343	8146	8146	8146	8146	8146	8146	8146	8146	8146	8146	8146	8146	8146	8146	8146	8146	8146	8146	8146	7959	7959	7959	0	0	0	0	0	0	0	0	0	0	0	0	0	0	0	0	0	0	0	0	0	0	0	0	0	0	0	0	0	0	0	0	0	0	0	0	0	0	0	0	0	0	0	0	0	0	0	0	0	0	0	0	0	0	0	0	0	0	0	0	0	0	0	0	0	0	0	0	0	0	0	0	0	0	0	0	0	0	0	0	0	0	0	0	0	0	0	0	0	0	0	0	0	0	0	0	0	0	0	0	0	0	0	0	0	0	0	0	0	0	0	0	0	1618	1618	1603	1611	1618	1596	1596	1596	1596	1596	1589	1589	1589	1581	1581	1574	1567	1574	1574	1567	1581	1596	1589	1589	0	0	0	0	0	0	0	0	0	0	0	0	0	0	0	0	0	0	0	0	0	0	0	0	0	0	0	0	0	0	0	0	0	0	0	0	0	0	0	0	0	0	0	0	0	0	0	0	0
0	0	0	0	0	0	0	0	0	0	0	1287	1287	1287	1291	1296	1301	1306	1306	1306	1306	1306	0	0	0	0	0	0	0	0	0	0	0	0	0	0	0	0	0	0	0	0	0	0	0	0	0	0	0	0	0	0	0	0	0	0	0	0	0	0	0	0	0	0	0	0	0	0	0	0	0	0	0	0	0	0	0	0	0	0	0	0	0	0	0	0	0	0	0	0	0	0	0	0	0	0	0	0	0	0	0	0	0	0	0	0	0	0	0	0	0	0	0	0	0	0	0	0	0	1553	1553	1560	1560	1560	1560	1567	1574	1574	1581	1589	1589	1596	1596	1603	1611	1611	1618	1618	1618	1634	1634	1641	1641	1657	1673	1690	1706	1715	1732	1732	1741	1750	1750	1750	1777	1786	1804	1804	1804	0	2711	2690	2690	2690	2711	2690	2690	2711	2711	2690	2690	2690	2711	2690	2690	2690	2711	2733	2711	2711	2711	2799	2777	2822	2777	2799	2822	2822	2799	2799	2799	2799	2799	2822	2822	2822	2845	2869	2893	2893	2917	2893	2893	2917	2942	2942	2942	0	0	0	0	0	0	0	0	0	0	0	0	0	0	0	0	0	0	0	0	0	0	0	0	0	0	0	0	0	0	6124	6124	6235	6468	6349	6468	6468	6468	6468	6468	6468	6468	6592	6468	6592	6592	6592	6592	6592	6592	6592	6592	6592	6592	6592	6592	6592	6349	6349	6349	6349	6349	6349	6468	6468	6592	6592	6592	6592	6592	6592	6592	6592	6468	6468	6468	6468	6468	6468	6468	6468	6468	6468	6468	5448	5448	5364	5364	5364	5364	5364	5364	5364	5364	3864	3864	3864	3864	3907	3952	3998	3952	3952	3952	3952	3952	3907	3907	3907	3952	3952	3998	3998	3998	3998	3998	3998	3998	3998	3998	3998	3998	3998	3998	3998	3952	3952	3952	3952	3952	3952	3952	3952	3952	3952	3952	3952	3952	3952	3952	3952	3952	3952	3952	3952	3952	3952	3952	3952	3952	3907	3907	3907	3864	8146	8343	8146	8146	8146	8146	7959	7959	7959	7959	7959	7959	8146	8146	8343	8343	8343	6349	6349	6349	6349	6349	6349	6468	6349	6349	6349	6349	6349	6235	6235	6235	6235	6235	6235	6235	6235	6235	6349	6349	6349	6468	6468	6468	6468	6468	8146	8343	8343	8343	8146	8146	8146	8146	8146	8146	8146	8146	7959	7959	7959	7959	7959	8146	8146	8146	8146	8146	8146	8146	8343	8146	8146	8343	8146	8146	8146	8146	8146	8146	8146	8146	8146	8146	8146	8146	8146	8146	8146	8146	7959	7959	7779	7779	0	0	0	0	0	0	0	0	0	0	0	0	0	0	0	0	0	0	0	0	0	0	0	0	0	0	0	0	0	0	0	0	0	0	0	0	0	0	0	0	0	0	0	0	0	0	0	0	0	0	0	0	0	0	0	0	0	0	0	0	0	0	0	0	0	0	0	0	0	0	0	0	0	0	0	0	0	0	0	0	0	0	0	0	0	0	0	0	0	0	0	0	0	0	0	0	0	0	0	0	0	0	0	0	0	0	0	0	0	0	0	0	0	0	0	0	0	0	0	0	0	0	1589	1589	1581	1574	1574	1574	1567	1567	1574	0	0	1596	1589	1589	0	0	0	0	0	0	0	0	0	0	0	0	0	0	0	0	0	0	0	0	0	0	0	0	0	0	0	0	0	0	0	0	0	0	0	0	0	0	0	0	0	0	0	0	0	0	0	0	0
0	0	0	0	0	0	0	0	0	0	0	1287	1287	1287	1291	1296	1301	1301	1301	1306	1311	1311	0	0	0	0	0	0	0	0	0	0	0	0	0	0	0	0	0	0	0	0	0	0	0	0	0	0	0	0	0	0	0	0	0	0	0	0	0	0	0	0	0	0	0	0	0	0	0	0	0	0	0	0	0	0	0	0	0	0	0	0	0	0	0	0	0	0	0	0	0	0	0	0	0	0	0	0	0	0	0	0	0	0	0	0	0	0	0	0	0	0	0	0	0	0	0	0	0	1567	1574	1567	1574	1574	1574	1574	1581	1581	1581	1589	1603	1603	1603	1611	1618	1618	1626	1626	1626	1634	1634	1641	1641	1657	1681	1698	1723	1723	1741	1741	1741	1750	1750	1759	1759	1786	1786	1786	0	0	2609	2711	2711	2711	2711	2690	2711	2711	2711	2690	2690	2711	2711	2690	2690	2690	2711	2733	2733	2733	2754	2799	2777	2799	2777	2777	2799	2822	2799	2822	2799	2799	2822	2822	2822	2822	2845	2845	2893	2893	2893	2893	2893	2893	2869	2869	2942	0	0	0	0	0	0	0	0	0	0	0	0	0	0	0	0	0	0	0	0	0	0	0	0	0	0	0	0	0	0	6124	6124	6235	6349	6349	6468	6468	6468	6468	6468	6468	6468	6468	6468	6468	6592	6592	6592	6592	6468	6592	6592	6592	6592	6592	6592	6592	6592	6349	6349	6349	6349	6235	6235	6349	6468	6468	6468	6592	6468	6468	6468	6468	6468	6468	6468	6468	6468	6468	6468	6468	6468	6468	6468	5448	5448	5364	5364	5364	5364	5364	5364	5364	5364	5364	3864	3864	3864	3907	3907	3998	3998	3952	3952	3952	3952	3907	3907	3907	3952	3998	3998	3998	3998	3998	3998	3998	3998	3998	3998	3998	3998	3998	3998	3998	3952	3952	3952	3952	3952	3952	3952	3952	3952	3952	3952	3952	3952	3952	3952	3952	3952	3952	3952	3952	3952	3952	3998	3952	3952	3907	3907	3907	0	8146	8550	8343	8343	8343	8343	8146	8146	7959	7959	7959	7959	8146	8146	8343	8343	8343	6349	6349	6349	6349	6349	6349	6349	6349	6468	6349	6349	6349	6349	6235	6235	6349	6349	6349	6235	6235	6235	6349	6349	6349	6349	6468	6349	6349	6349	8146	8343	8343	8343	8146	8146	8146	8146	8146	8146	8146	7959	7959	7959	7959	7959	7959	7959	8146	8146	8146	8146	8146	8146	8146	7959	7959	7959	8146	8146	8146	7959	7959	8146	8146	8146	8146	8146	8146	8146	8146	8146	8146	8146	7959	7959	7779	7608	7608	0	0	0	0	0	0	0	0	0	0	0	0	0	0	0	0	0	0	0	0	0	0	0	0	0	0	0	0	0	0	0	0	0	0	0	0	0	0	0	0	0	0	0	0	0	0	0	0	0	0	0	0	0	0	0	0	0	0	0	0	0	0	0	0	0	0	0	0	0	0	0	0	0	0	0	0	0	0	0	0	0	0	0	0	0	0	0	0	0	0	0	0	0	0	0	0	0	0	0	0	0	0	0	0	0	0	0	0	0	0	0	0	0	0	0	0	0	0	0	0	0	0	1589	1581	1581	1574	1574	1567	1567	0	0	0	0	0	0	0	0	0	0	0	0	0	0	0	0	0	0	0	0	0	0	0	0	0	0	0	0	0	0	0	0	0	0	0	0	0	0	0	0	0	0	0	0	0	0	0	0	0	0	0	0	0	0	0
0	0	0	0	0	0	0	0	0	0	0	1291	1291	1291	1291	1291	1301	1301	1301	1301	1311	1311	0	0	0	0	0	0	0	0	0	0	0	0	0	0	0	0	0	0	0	0	0	0	0	0	0	0	0	0	0	0	0	0	0	0	0	0	0	0	0	0	0	0	0	0	0	0	0	0	0	0	0	0	0	0	0	0	0	0	0	0	0	0	0	0	0	0	0	0	0	0	0	0	0	0	0	0	0	0	0	0	0	0	0	0	0	0	0	0	0	0	0	0	0	0	0	1574	1567	1574	1574	1574	1581	1581	1581	1581	1581	1581	1589	1589	1603	1603	1611	1618	1626	1626	1634	1634	1634	1634	1641	1641	1641	1665	1681	1698	1732	1732	1741	1741	1750	1759	1759	1768	1768	1786	1795	1795	1795	0	2609	2711	2711	2711	2711	2711	2711	2711	2711	2711	2711	2711	2711	2711	2711	2690	2733	2754	2754	2754	2754	2777	2799	2777	2754	2777	2799	2822	2799	2799	2799	2799	2822	2822	2822	2822	2845	2845	2869	2869	2869	2869	2869	2869	2845	2845	0	0	0	0	0	0	0	0	0	0	0	0	0	0	0	0	0	0	0	0	0	0	0	0	0	0	0	0	0	0	0	6124	6124	0	6349	6468	6468	6468	6468	6468	6468	6468	6468	6468	6468	6468	6468	6592	6592	6468	6468	6592	6468	6592	6592	6592	6592	6592	6349	6349	6235	6235	6124	6124	6018	6018	6235	6349	6349	6349	6468	6468	6468	6349	6468	6468	6468	6468	6468	6468	6468	6468	6468	6468	5448	5448	5448	5448	5364	5364	5364	5364	5282	5282	5282	5282	5282	3864	3864	3864	3907	3998	3998	3998	3952	3952	3952	3952	3907	3907	3952	3998	3998	3998	3998	3998	3998	3998	3998	3952	3952	3998	3998	3998	3998	3998	3998	3952	3952	3952	3952	3952	3952	3952	3952	3952	3952	3952	3952	3952	3952	3952	3952	3952	3952	3952	3952	3952	4045	3998	3998	3952	3952	3907	8343	8343	8550	8343	8343	8343	8343	8343	8146	8146	8146	8343	8146	8146	8146	8146	8146	6235	6235	6235	6235	6349	6349	6349	6468	6349	6349	6349	6349	6235	6235	6235	6235	6235	6235	6349	6235	6235	6235	6349	6349	6349	6349	6349	6720	6720	7779	8146	8343	8343	8343	8146	8146	8146	8146	8146	8146	8146	7959	8146	8146	8146	8146	8146	8146	8146	8146	8146	8146	8146	8146	8146	7959	8146	8146	8146	8146	8146	7959	7959	7959	7959	7959	8146	8146	8146	8146	8146	8146	8146	8146	7959	7959	7959	7779	7779	0	0	0	0	0	0	0	0	0	0	0	0	0	0	0	0	0	0	0	0	0	0	0	0	0	0	0	0	0	0	0	0	0	0	0	0	0	0	0	0	0	0	0	0	0	0	0	0	0	0	0	0	0	0	0	0	0	0	0	0	0	0	0	0	0	0	0	0	0	0	0	0	0	0	0	0	0	0	0	0	0	0	0	0	0	0	0	0	0	0	0	0	0	0	0	0	0	0	0	0	0	0	0	0	0	0	0	0	2167	2167	2167	2167	0	0	0	0	0	0	0	0	0	0	1596	1596	1596	1596	0	0	0	0	0	0	0	0	0	0	0	0	0	0	0	0	0	0	0	0	0	0	0	0	0	0	0	0	0	0	0	0	0	0	0	0	0	0	0	0	0	0	0	0	0	0	0	0	0	0	0	0	0	0	0	0	0	0
0	0	0	0	0	0	0	0	0	0	0	1291	1291	1291	1296	1301	1301	1301	1301	1301	0	0	0	0	0	0	0	0	0	0	0	0	0	0	0	0	0	0	0	0	0	0	0	0	0	0	0	0	0	0	0	0	0	0	0	0	0	0	0	0	0	0	0	0	0	0	0	0	0	0	0	0	0	0	0	0	0	0	0	0	0	0	0	0	0	0	0	0	0	0	0	0	0	0	0	0	0	0	0	0	0	0	0	0	0	0	0	0	0	0	0	0	0	0	0	0	0	1574	1567	1574	1581	1581	1581	1581	1581	1589	1589	1589	1589	1596	1603	1611	1618	1626	1641	1634	1634	1634	1634	1641	1641	1649	1649	1681	1681	1706	1706	1732	1750	1750	1759	1768	1777	1777	1777	1795	1795	1795	1795	0	0	0	2690	2711	2711	2690	2711	2711	2711	2711	2711	2711	2711	2711	2711	2690	2733	2754	2754	2754	2754	2799	2822	2799	2777	2799	2799	2822	2799	2799	2799	2799	2822	2822	2822	2822	2822	2845	2869	2845	2869	2869	2845	2845	2822	2822	0	0	0	0	0	0	0	0	0	0	0	0	0	0	0	0	0	0	0	0	0	0	0	0	0	0	0	0	0	0	0	0	0	0	0	6468	6468	6468	6468	6468	6468	6349	6468	6468	6468	6468	6468	6468	6468	6468	6468	6468	6468	6468	6592	6592	6592	6592	6349	6124	6124	6018	6018	5915	5915	5915	6124	6124	6235	6349	6349	6349	6349	6349	6468	6468	6468	6468	6468	6468	6468	6468	6468	6468	5535	5535	5448	5364	5364	5364	5364	5364	5282	5282	5282	5282	5282	0	0	3998	3998	3998	3998	3998	3998	3952	3952	3952	3907	3907	3907	3952	3998	3952	3952	3952	3998	3952	3952	3952	3952	3998	3998	3998	3998	3998	3998	3952	3952	3952	3952	3952	3952	3952	3952	3952	3952	3952	3952	3952	3952	3907	3907	3952	3952	3952	3952	3952	7779	7959	8146	8146	8146	8146	8343	8343	8343	8343	8343	8343	8343	8343	8343	8146	8343	8343	8343	8146	8146	8146	8146	6235	6235	6349	6235	6349	6235	6349	6349	6349	6349	6235	6235	6235	6235	6235	6235	6235	6349	6349	6235	6235	6235	6468	6349	6349	6349	6349	6720	6720	8146	7959	8146	8343	8343	8146	8146	8146	8146	8146	8146	8146	8146	8146	8146	8146	8146	8146	8146	8146	8146	8146	8146	8146	8146	7959	7959	8146	8146	8146	8146	8146	7959	7959	7959	7959	7959	7959	7959	8146	8146	8146	8146	8146	8146	8146	7959	7959	7779	7779	0	0	0	0	0	0	0	0	0	0	0	0	0	0	0	0	0	0	0	0	0	0	0	0	0	0	0	0	0	0	0	0	0	0	0	0	0	0	0	0	0	0	0	0	0	0	0	0	0	0	0	0	0	0	0	0	0	0	0	0	0	0	0	0	0	0	0	0	0	0	0	0	0	0	0	0	0	0	0	0	0	0	0	0	0	0	2649	2649	0	0	0	0	0	0	0	0	0	0	0	0	0	0	0	0	0	2181	2181	2167	2167	2153	2153	2153	2153	2153	0	0	0	0	0	0	0	0	1596	1596	1596	1596	0	0	0	0	0	0	0	0	0	0	0	0	0	0	0	0	0	0	0	0	0	0	0	0	0	0	0	0	0	0	0	0	0	0	0	0	0	0	0	0	0	0	0	0	0	0	0	0	0	0	0	0	0	0	0	0	0	0
0	0	0	0	0	0	0	0	0	0	0	1291	1291	1296	1296	1301	1301	1296	1301	1301	0	0	0	0	0	0	0	0	0	0	0	0	0	0	0	0	0	0	0	0	0	0	0	0	0	0	0	0	0	0	0	0	0	0	0	0	0	0	0	0	0	0	0	0	0	0	0	0	0	0	0	0	0	0	0	0	0	0	0	0	0	0	0	0	0	0	0	0	0	0	0	0	0	0	0	0	0	0	0	0	0	0	0	0	0	0	0	0	0	0	0	0	0	0	0	0	0	0	0	0	1574	1581	1581	1581	1581	1581	1581	1589	1589	1596	1611	1618	1634	1641	1649	1641	1641	1641	1641	1641	1649	1649	1649	1698	1706	1723	1741	1741	1759	1759	1768	1768	1777	1786	1786	1795	1786	1786	0	0	0	0	2711	2711	2711	2690	2711	2711	2733	2711	2711	2711	2711	2711	2711	2711	2711	2754	2754	2754	2754	2799	2822	2799	2777	2799	2822	2822	2822	2822	2822	2822	2822	2822	2822	2822	2822	2845	2845	2845	2822	2845	2822	2799	2822	2799	2799	0	0	0	0	0	0	0	0	0	0	0	0	0	0	0	0	0	0	0	0	0	0	0	0	0	0	0	0	0	0	0	0	0	0	0	6468	6468	6468	6468	6349	6349	6468	6349	6468	6468	6468	6468	6468	6468	6468	6468	6468	6468	6592	6592	6592	6592	6235	6124	6018	6018	5915	5915	5815	5815	5815	6018	6018	6124	6124	6124	6235	6124	6235	6349	6349	6349	6468	6468	6468	6468	6468	6468	6468	5448	5448	5364	5364	5364	5364	5364	5282	5282	5202	5125	5050	5050	0	3998	3998	3998	3998	3998	3998	3998	3952	3952	3907	3907	3907	3907	3952	3952	3952	3952	3952	3952	3952	3952	3952	3998	3998	3998	3998	3998	3998	3952	3952	3952	3952	3952	3952	3952	3952	3952	3952	3952	3952	3952	3952	3907	3907	3907	3907	3907	3907	0	7779	7959	8146	8146	8146	8343	8343	8343	8343	8343	8343	8343	8343	8146	8146	8146	8146	8343	8146	8146	8146	8146	8146	8146	6235	6235	6235	6235	6235	6235	6349	6349	6349	6349	6349	6235	6235	6235	6235	6235	6349	6349	6349	6235	6235	6468	6468	6468	6349	6349	6853	6853	7959	7959	8146	8146	8146	8146	8146	8146	8146	8146	8146	8146	8146	8146	8146	8146	8146	8146	8146	8146	8146	8146	8146	8146	8146	7959	7959	7959	7959	8146	8146	8146	7959	8146	7959	7959	7959	7959	7959	8146	8146	8146	8146	8146	8146	8146	7959	7959	7779	7779	0	0	0	0	0	0	0	0	0	0	0	0	0	0	0	0	0	0	0	0	0	0	0	0	0	0	0	0	0	0	0	0	0	0	0	0	0	0	0	0	0	0	0	0	0	0	0	0	0	0	0	0	0	0	0	0	0	0	0	0	0	0	0	0	0	0	0	0	0	0	2869	2869	2869	0	0	0	0	0	0	0	0	0	0	0	2669	2649	2649	2649	0	0	0	0	0	0	0	0	0	0	0	0	2181	2181	2181	2181	2194	2194	2181	2167	2167	2167	2167	2167	2153	2167	2167	0	0	0	0	0	2153	2153	0	0	0	0	0	0	0	0	0	0	0	0	0	0	0	0	0	0	0	0	0	0	0	0	0	0	0	0	0	0	0	0	0	0	0	0	0	0	0	0	0	0	0	0	0	0	0	0	0	0	0	0	0	0	0	0	0	0	0	0	0	0
0	0	0	0	0	0	0	0	0	0	0	1291	1296	1296	1301	1301	1301	1301	1296	1296	0	0	0	0	0	0	0	0	0	0	0	0	0	0	0	0	0	0	0	0	0	0	0	0	0	0	0	0	0	0	0	0	0	0	0	0	0	0	0	0	0	0	0	0	0	0	0	0	0	0	0	0	0	0	0	0	0	0	0	0	0	0	0	0	0	0	0	0	0	0	0	0	0	0	0	0	0	0	0	0	0	0	0	0	0	0	0	0	0	0	0	0	0	0	0	0	0	0	0	0	1574	1581	1581	1574	1553	1553	1546	1589	1596	1603	1611	1626	1649	1649	1657	1657	1657	1657	1657	1665	1657	1673	1673	1698	1706	1723	1741	1750	1759	1759	1768	1777	1777	1777	1786	0	1786	1786	0	0	0	0	2711	2711	2711	2711	2690	2690	2690	2690	2690	2711	2711	2690	2690	2690	2690	2733	2733	2733	2754	2799	2799	2822	2777	2822	2822	2822	2822	2822	2822	2799	2822	2822	2822	2822	2845	2845	2845	2845	2869	2869	2869	2869	2845	2822	2822	0	0	0	0	0	0	0	0	0	0	0	0	0	0	0	0	0	0	0	0	0	0	0	0	0	0	0	0	0	0	0	0	0	0	0	0	6468	6468	6468	6468	6468	6468	6349	6349	6349	6468	6468	6468	6349	6349	6468	6468	0	0	6592	6592	0	6235	6018	5915	5915	5815	5815	5815	5719	5719	5719	5915	6018	6018	6018	6124	6018	6124	6124	6235	6235	6468	6468	6468	6468	6468	6468	6468	5448	5448	5364	5364	5364	5364	5282	5282	5282	5202	5125	5050	5050	5050	5050	5050	3998	3998	4045	3998	3998	3952	3952	3952	3952	3952	3952	3952	3952	3952	3952	3952	3952	3952	3952	3998	3998	3998	3998	3998	3998	3998	3952	3952	3952	3952	3952	3952	3952	3952	3952	3952	3952	3952	3952	3952	3907	3907	3907	3907	3907	3907	0	7779	7959	8146	8146	8146	8146	8146	8343	8343	8343	8146	8146	8343	8146	8146	8146	8146	8343	8550	8550	8146	8146	8146	6235	6235	6235	6235	6235	6235	6235	6235	6349	6235	6349	6349	6235	6235	6235	6235	6235	6349	6349	6349	6235	6235	6468	6468	6349	6349	6349	6853	6853	7959	7959	8146	8343	8343	8146	8146	8146	8146	8146	8146	8146	8146	8146	8343	8343	8343	8343	8146	8146	8146	8146	8146	8146	8146	7959	8146	8146	8146	8146	8146	8146	8146	8146	7959	7959	7959	7959	7959	8146	8146	8146	8146	8146	8146	8146	8146	7959	7959	7959	0	0	0	0	0	0	0	0	0	0	0	0	0	0	0	0	0	0	0	0	0	0	0	0	0	0	0	0	0	0	0	0	0	0	0	0	0	0	0	0	0	0	0	0	0	0	0	0	0	0	0	0	0	0	0	0	0	0	0	0	0	0	0	0	0	0	0	0	0	0	2869	2822	2754	2754	0	0	0	0	0	0	0	0	0	2649	2669	2669	2649	2649	0	0	0	0	0	0	0	0	0	0	0	2223	2194	2181	2194	2181	2181	2194	2181	2167	2167	2153	2153	2153	2153	2153	2153	2153	2153	2140	2140	2140	2140	2140	2140	0	0	0	0	0	0	0	0	0	0	0	0	0	0	0	0	0	0	0	0	0	0	0	0	0	0	0	0	0	0	0	0	0	0	0	0	0	0	0	0	0	0	0	0	0	0	0	0	0	0	0	0	0	0	0	0	0	0	0	0	0
0	0	0	0	0	0	0	0	0	0	0	1296	1301	1301	1301	1301	1301	1301	1301	1296	1296	0	0	0	0	0	0	0	0	0	0	0	0	0	0	0	0	0	0	0	0	0	0	0	0	0	0	0	0	0	0	0	0	0	0	0	0	0	0	0	0	0	0	0	0	0	0	0	0	0	0	0	0	0	0	0	0	0	0	0	0	0	0	0	0	0	0	0	0	0	0	0	0	0	0	0	0	0	0	0	0	0	0	0	0	0	0	0	0	0	0	0	0	0	0	0	0	0	0	0	0	0	0	1574	1553	1553	1546	1603	1603	1603	1618	1618	1665	1673	1673	1657	1657	1649	1649	1665	1657	1673	1673	1706	1715	1723	1741	1750	1768	1768	1777	1786	1795	1804	1804	0	0	0	0	0	0	0	2711	2711	2711	2690	2690	2690	2690	2690	2690	2711	2711	2690	2690	2690	2690	2690	2733	2711	2711	2777	2799	2777	2754	2777	2799	2822	2822	2822	2822	2777	2799	2799	2799	2799	2822	2822	2869	2845	2845	2845	2869	2869	2869	2822	2822	0	0	0	0	0	0	0	0	0	0	0	0	0	0	0	0	0	0	0	0	0	0	0	0	0	0	0	0	0	0	0	0	0	0	0	0	6592	6468	6468	6468	6468	6468	6468	6349	6349	6349	6349	6349	6349	6349	0	0	0	0	0	0	0	0	5915	5915	5815	5815	5815	5719	5719	5719	5815	5815	5915	5915	5915	6018	5915	6018	6124	6124	6124	6468	6468	6468	6468	6349	6349	6468	5448	5448	5448	5364	5364	5364	5282	5282	5202	5202	5125	5050	5050	5050	5050	5050	3998	3998	4045	4045	3998	3998	3952	3952	3952	3952	3952	3952	3952	3952	3998	3952	3952	3998	3998	3998	3998	3998	4045	4045	3998	3998	3952	3952	3952	3952	3952	3952	3952	3952	3952	3952	3952	3952	3952	3952	3952	3907	3952	3907	3907	3907	7779	7779	7959	8146	8146	8146	8146	8146	8146	8146	8343	8343	8343	8146	8146	8146	8146	8146	8146	8146	8343	8343	8343	6235	6235	6235	6235	6235	6235	6235	6235	6235	6349	6235	6235	6349	6235	6235	6235	6235	6235	6235	6349	6349	6349	6349	6468	6468	6349	6349	6349	6235	6235	7959	8146	8146	8343	8343	8343	8146	8146	8146	8146	8343	8343	8343	8343	8343	8146	8343	8343	8146	8146	8146	8146	8146	8146	8146	8146	8146	8146	8146	8146	8146	8146	8146	8146	7959	8146	8146	8146	8146	8146	8146	8146	8146	8146	7959	7959	7959	7959	7779	7779	0	0	0	0	0	0	0	0	0	0	0	0	0	0	0	0	0	0	0	0	0	0	0	0	0	0	0	0	0	0	0	0	0	0	0	0	0	0	0	0	0	0	0	0	0	0	0	0	0	0	0	0	0	0	0	0	0	0	0	0	0	0	0	0	0	0	0	0	0	0	2690	2711	2711	2711	2711	2711	0	0	0	0	0	0	0	2669	2669	2669	2649	2649	0	0	0	0	0	0	0	0	0	0	2223	2223	2194	2194	2194	2181	2194	2194	2194	2181	2167	2167	2153	2153	2153	2153	2140	2140	2140	2140	2140	2140	2140	2153	2153	2153	0	0	0	0	0	0	0	0	0	0	0	0	0	0	0	0	0	0	0	0	0	0	0	0	0	0	0	0	0	0	0	0	0	0	0	0	0	0	0	0	0	0	0	0	0	0	0	0	0	0	0	0	0	0	0	0	0	0	0	0
0	0	0	0	0	0	0	0	0	0	0	1291	1296	1296	1301	1301	1301	1301	1301	1301	1296	0	0	0	0	0	0	0	0	0	0	0	0	0	0	0	0	0	0	0	0	0	0	0	0	0	0	0	0	0	0	0	0	0	0	0	0	0	0	0	0	0	0	0	0	0	0	0	0	0	0	0	0	0	0	0	0	0	0	0	0	0	0	0	0	0	0	0	0	0	0	0	0	0	0	0	0	0	0	0	0	0	0	0	0	0	0	0	0	0	0	0	0	0	0	0	0	0	0	0	0	0	0	0	0	0	0	1603	1603	0	1618	1618	1665	1673	1681	1673	1665	1673	1673	0	0	0	0	1715	1715	1715	1741	1750	1777	1777	1786	1795	1804	1814	1814	0	0	0	0	0	0	0	2690	2690	2690	2690	2690	2690	2690	2690	2690	2711	2711	2690	2690	2690	2690	2690	2711	2690	2690	2754	2777	2777	2754	2777	2777	2799	2799	2799	2799	2777	2799	2822	2799	2799	2822	2822	2845	2845	2845	2845	2845	2869	2869	0	0	0	0	0	0	0	0	0	0	0	0	0	0	0	0	0	0	0	0	0	0	0	0	0	0	0	0	0	0	0	0	0	0	0	0	0	0	6592	6468	6468	6468	6468	6468	6349	6349	6349	6349	6349	6349	6349	0	0	0	0	0	0	0	0	0	5915	5815	5719	5719	5719	5719	5719	5719	5719	5719	5915	5915	5915	5915	5915	5915	5915	6018	6018	0	6468	6468	6468	6349	6349	0	5448	5448	5448	5364	5364	5364	5282	5282	5202	5125	5125	5050	4977	4977	5050	4977	3998	4045	4045	3998	3998	3998	3998	3952	3952	3952	3952	3952	3952	3952	3998	3998	3998	3998	3998	3998	4045	4045	4045	4045	3998	3998	3952	3952	3952	3952	3952	3952	3952	3952	3952	3952	3952	3952	3952	3952	3952	3907	3952	3907	3907	8146	7959	8146	8146	8146	8146	8146	8146	8146	8343	8343	8343	8343	8343	8343	8146	8146	8146	8146	8343	8146	8343	8343	8343	6235	6235	6235	6235	6235	6235	6235	6235	6235	6235	6235	6235	6349	6235	6235	6235	6235	6349	6349	6349	6349	6349	6349	6468	6468	6349	6349	6349	6349	6349	7959	7959	8146	8146	8343	8343	8146	8146	8146	8146	8146	8146	8343	8343	8343	8146	8343	8343	8146	8146	8146	8146	8146	8146	8146	7959	8146	8146	8146	8146	8146	8146	8146	8146	8146	8146	8146	8146	7959	8146	8146	8146	8146	8146	8146	8146	7959	7959	7959	7959	0	0	0	0	0	0	0	0	0	0	0	0	0	0	0	0	0	0	0	0	0	0	0	0	0	0	0	0	0	0	0	0	0	0	0	0	0	0	0	0	0	0	0	0	0	0	0	0	0	0	0	0	0	0	0	0	0	0	0	0	0	0	0	0	0	0	0	0	0	2690	2690	2754	2711	2690	2690	2690	2690	0	0	0	2669	2649	2649	2649	2669	2669	2649	2649	0	0	0	0	0	0	2266	2252	2237	2223	2208	2223	2208	2194	2194	2181	2208	2194	2181	2194	2181	2167	2153	2153	2153	2153	2140	2140	2140	2140	2140	2140	2140	2153	2153	2153	0	0	0	0	0	0	0	0	0	0	0	0	0	0	0	0	0	0	0	0	0	0	0	0	0	0	0	0	0	0	0	0	0	0	0	0	0	0	0	0	0	0	0	0	0	0	0	0	0	0	0	0	0	0	0	0	0	0	0	0
0	0	0	0	0	0	0	0	0	0	0	1291	1291	1296	1296	1296	1296	1296	1296	1296	0	0	0	0	0	0	0	0	0	0	0	0	0	0	0	0	0	0	0	0	0	0	0	0	0	0	0	0	0	0	0	0	0	0	0	0	0	0	0	0	0	0	0	0	0	0	0	0	0	0	0	0	0	0	0	0	0	0	0	0	0	0	0	0	0	0	0	0	0	0	0	0	0	0	0	0	0	0	0	0	0	0	0	0	0	0	0	0	0	0	0	0	0	0	0	0	0	0	0	0	0	0	0	0	0	0	0	0	0	0	0	0	0	1673	1681	1681	1673	1673	1673	0	0	0	0	1715	1715	1715	0	0	1777	1777	1786	1804	1814	1814	1814	0	0	0	0	0	0	0	2690	2711	2690	2690	2690	2690	2690	2690	2690	2733	2733	2711	2690	2690	2690	2690	2711	2690	2690	2754	2754	2799	2777	2799	2799	2799	2799	2799	2777	2777	2777	2777	2777	2799	2822	2822	2869	2845	2845	2845	2845	2869	2869	0	0	0	0	0	0	0	0	0	0	0	0	0	0	0	0	0	0	0	0	0	0	0	0	0	0	0	0	0	0	0	0	0	0	0	0	0	0	6468	6468	6468	6468	6468	6468	6349	6349	6349	6349	6349	0	0	0	0	0	0	0	0	0	0	0	0	5815	5815	5719	5719	5719	5719	5719	5719	5719	5915	5915	5915	5915	5915	5915	5915	6018	6018	0	0	6468	6468	0	0	0	5448	5448	5448	5364	5364	5364	5282	5202	5202	5125	5050	5050	4977	4977	4977	4977	4045	4045	4045	4045	4045	3998	3998	3952	3952	3952	3952	3952	3952	3952	3998	3998	3952	3998	3998	3998	4045	4045	4045	4045	3998	3998	3952	3952	3952	3952	3952	3952	3952	3952	3952	3952	3952	3952	3952	3952	3952	3952	3952	3907	3907	8146	8146	8343	8146	8343	8343	8146	8343	8146	8343	8146	8146	8343	8343	8146	8146	8146	8146	8146	8146	8146	7959	8146	6235	6235	6235	6235	6235	6235	6235	6349	6349	6235	6235	6235	6235	6235	6235	6235	6235	6235	6349	6349	6349	6349	6349	6235	6468	6468	6349	6349	6349	6349	6349	7959	8146	8146	8146	8146	8146	8146	8146	8146	8146	8146	8146	8146	8146	8343	8146	8343	8146	8343	8146	8343	8343	8146	8146	8146	8146	8146	8146	8146	8146	8146	8146	8146	8146	8146	8146	8146	8146	8146	8146	8146	8146	8146	8146	8146	7959	7959	7959	7959	7959	0	0	0	0	0	0	0	0	0	0	0	0	0	0	0	0	0	0	0	0	0	0	0	0	0	0	0	0	0	0	0	0	0	0	0	0	0	0	0	0	0	0	0	0	0	0	0	0	0	0	0	0	0	0	0	0	0	2312	2312	2312	2312	0	0	0	0	0	0	2669	2669	2669	2690	2690	2690	2690	2690	2669	2669	2669	2669	2669	2669	2649	2669	2649	2669	2669	2669	2649	0	0	0	2281	2266	2266	2252	2237	2223	2208	2208	2208	2194	2194	2194	2181	2194	2194	2181	2181	2181	2181	2167	2153	2153	2153	2140	2140	2140	2140	2140	2140	2140	2153	2153	2153	0	0	0	0	0	0	0	0	0	0	0	0	0	0	0	0	0	0	0	0	0	0	0	0	0	0	0	0	0	0	0	0	0	0	0	0	0	0	0	0	0	0	0	0	0	0	0	0	0	0	0	0	0	0	0	0	0	0	0	0
0	0	0	0	0	0	0	0	0	0	0	1291	1291	1296	1296	1296	1291	1291	1291	1291	0	0	0	0	0	0	0	0	0	0	0	0	0	0	0	0	0	0	0	0	0	0	0	0	0	0	0	0	0	0	0	0	0	0	0	0	0	0	0	0	0	0	0	0	0	0	0	0	0	0	0	0	0	0	0	0	0	0	0	0	0	0	0	0	0	0	0	0	0	0	0	0	0	0	0	0	0	0	0	0	0	0	0	0	0	0	0	0	0	0	0	0	0	0	0	0	0	0	0	0	0	0	0	0	0	0	0	0	0	0	0	0	0	0	0	1681	1673	1673	0	0	0	0	0	0	0	0	0	0	0	0	0	1804	1814	1814	1814	0	0	0	0	0	0	0	2690	2711	2711	2711	2690	2690	2690	2690	2690	2733	2711	2690	2690	2690	2690	2690	2690	2690	2690	2754	2754	2799	2799	2799	2799	2799	2799	2799	2777	2777	2777	2777	2777	2777	2822	2822	2917	2893	2917	2869	2845	2893	2942	2942	0	0	0	0	0	0	0	0	0	0	0	0	0	0	0	0	0	0	0	0	0	0	0	0	0	0	0	0	0	0	0	0	0	0	0	0	0	6592	6468	6468	6468	6468	6468	6468	6349	6349	6349	0	0	0	0	0	0	0	0	0	0	0	0	0	5815	5815	5815	5719	5719	5719	5719	5719	0	0	0	0	5915	5915	5915	0	0	0	0	0	0	0	0	0	0	5448	5448	5448	5364	5364	5364	5282	5202	5125	5125	5050	4977	4977	4977	4977	5050	3998	3998	3998	4045	4045	3998	3998	3998	3998	3998	3998	3998	3952	3998	3998	3952	3952	3998	3998	4045	4045	4093	4045	4045	4045	3998	3998	3952	3952	3952	3952	3952	3952	3952	3952	3952	3952	3952	3952	3952	3952	3952	3952	3952	3952	8146	8146	8146	8146	8146	8343	8146	8146	8146	8146	8146	8343	8343	8343	8146	8146	8146	8146	8146	8146	8146	8146	8146	6235	6235	6235	6235	6235	6235	6235	6349	6349	6349	6349	6235	6235	6349	6349	6235	6235	6235	6349	6349	6349	6235	6235	6235	6235	6468	6468	6468	6468	6468	6468	8767	8146	8146	8146	8343	8343	8146	8146	8146	8343	8343	8343	8343	8343	8343	8343	8343	8343	8343	8146	8146	8343	8146	8146	8146	8146	8146	8146	8146	8146	8146	8146	8146	8343	8146	8146	8146	8146	8146	8146	8146	8146	8146	8146	8146	8146	7959	7959	7959	0	0	0	0	0	0	0	0	0	0	0	0	0	0	0	0	0	0	0	0	0	0	0	0	0	0	0	0	0	0	0	0	0	0	0	0	0	0	0	0	0	0	0	0	0	0	0	0	0	0	0	0	0	0	0	0	0	0	2312	2297	2312	2312	0	0	0	0	0	2649	2669	2669	2669	2669	2669	2690	2690	2690	2690	2690	2669	2690	2669	2669	2669	2669	2669	2669	2669	2669	0	2281	2281	2281	2281	2266	2252	2237	2237	2223	2208	2208	2208	2194	2194	2181	2181	2194	2194	2181	2181	2181	2181	2167	2153	2153	2153	2140	2140	2140	2153	2140	2140	2153	2153	2153	2153	0	0	0	0	0	0	0	0	0	1596	1596	0	0	0	0	0	0	0	0	0	0	0	0	0	0	0	0	0	0	0	0	0	0	0	0	0	0	0	0	0	0	0	0	0	0	0	0	0	0	0	0	0	0	0	0	0	0	0	0	0
0	0	0	0	0	0	0	0	0	0	0	1291	1291	1291	1291	1291	1291	1291	1287	1287	0	0	0	0	0	0	0	0	0	0	0	0	0	0	0	0	0	0	0	0	0	0	0	0	0	0	0	0	0	0	0	0	0	0	0	0	0	0	0	0	0	0	0	0	0	0	0	0	0	0	0	0	0	0	0	0	0	0	0	0	0	0	0	0	0	0	0	0	0	0	0	0	0	0	0	0	0	0	0	0	0	0	0	0	0	0	0	0	0	0	0	0	0	0	0	0	0	0	0	0	0	0	0	0	0	0	0	0	0	0	0	0	0	0	0	0	0	0	0	0	0	0	0	0	0	0	0	0	0	0	0	0	1814	1814	1814	0	0	0	0	0	0	0	2690	2711	2711	2711	2690	2690	2690	2711	2690	2690	2690	2690	2690	2690	2669	2690	2690	2690	2669	2711	2733	2777	2777	2799	2777	2799	2799	2822	2777	2777	2777	2777	2777	2799	2822	2845	2869	2917	2917	2917	2869	2917	2942	2942	0	0	0	0	0	0	0	0	0	0	0	0	0	0	0	0	0	0	0	0	0	0	0	0	0	0	0	0	0	0	0	0	0	0	0	0	6720	6720	6592	6468	6468	6468	6468	6468	6468	6468	6349	0	0	0	0	0	0	0	0	0	0	0	0	5719	5815	5815	5719	5719	5719	5719	5719	5719	0	0	0	0	0	0	0	0	0	0	0	0	0	0	0	0	0	5448	5448	5448	5364	5364	5364	5282	5202	5125	5050	5050	4977	4977	4977	4977	4977	4045	4045	4045	4045	3998	3998	3998	3998	3998	3952	3998	3998	3998	3998	3998	3998	3998	3998	3998	4045	4045	4093	4045	4093	4045	3998	3998	3952	3952	3952	3952	3952	3952	3952	3952	3952	3952	3952	3952	3952	3952	3952	3952	3952	3952	8146	8146	8146	8146	8146	8343	7959	8146	8343	8343	8343	8343	8343	8343	8146	8146	8146	8146	8146	8146	8146	8146	8146	6124	6124	6235	6235	6235	6235	6235	6349	6349	6349	6349	6235	6235	6235	6235	6235	6235	6235	6349	6349	6349	6349	6468	6468	6592	6592	6468	6468	6468	6468	6468	8767	7959	8146	8343	8343	8343	8146	8146	8146	8146	8146	8146	8146	8146	8146	8146	8343	8343	8343	8146	8146	8343	8146	8146	8146	8146	8146	8146	8146	8146	8146	8146	8146	8343	8146	8146	8146	8146	8146	8146	8146	8146	8146	8146	8146	7959	7959	8146	8146	0	0	0	0	0	0	0	0	0	0	0	0	0	0	0	0	0	0	0	0	0	0	0	0	0	0	0	0	0	0	0	0	0	0	0	0	0	0	0	0	0	0	0	0	0	0	0	0	0	0	0	0	0	0	0	0	0	0	2312	2312	2312	2297	2312	2312	0	0	2669	2669	2690	2690	2690	2690	2733	2733	2690	2690	2690	2690	2669	2669	2669	2669	2649	2649	2669	2669	2312	2312	2312	2297	2297	2266	2237	2237	2237	2237	2237	2237	2208	2194	2194	2194	2181	2181	2181	2194	2194	2181	2181	2181	2181	2167	2167	2153	2153	2140	2140	2140	2153	2140	2140	2153	2153	2153	2153	0	0	0	0	0	0	0	1589	1589	1596	1596	0	0	0	0	0	0	0	0	0	0	0	0	0	0	0	0	0	0	0	0	0	0	0	0	0	0	0	0	0	0	0	0	0	0	0	0	0	0	0	0	0	0	0	0	0	0	0	0	0
0	0	0	0	0	0	0	0	0	0	0	1291	1291	1291	1291	1291	1291	1291	1282	1282	0	0	0	0	0	0	0	0	0	0	0	0	0	0	0	0	0	0	0	0	0	0	0	0	0	0	0	0	0	0	0	0	0	0	0	0	0	0	0	0	0	0	0	0	0	0	0	0	0	0	0	0	0	0	0	0	0	0	0	0	0	0	0	0	0	0	0	0	0	0	0	0	0	0	0	0	0	0	0	0	0	0	0	0	0	0	0	0	0	0	0	0	0	0	0	0	0	0	0	0	0	0	0	0	0	0	0	0	0	0	0	0	0	0	0	0	0	0	0	0	0	0	0	0	0	0	0	0	0	0	0	0	0	0	0	0	0	0	0	0	0	0	2711	2733	2711	2711	2690	2690	2690	2690	2669	2690	2690	2690	2669	2690	2669	2669	2690	2669	2690	2711	2733	2777	2754	2799	2777	2799	2799	2822	2777	2777	2777	2777	2799	2822	2845	2845	2893	2893	2893	2917	2917	2917	2942	2942	0	0	0	0	0	0	0	0	0	0	0	0	0	0	0	0	0	0	0	0	0	0	0	0	0	0	0	0	0	0	0	0	0	0	0	0	6720	6592	6592	6592	6468	6468	6468	6468	6468	6468	0	0	0	0	0	0	0	0	0	0	0	0	0	5719	5815	5815	5815	5719	5719	5719	5719	5719	0	0	0	0	0	0	0	0	0	0	0	0	0	0	0	0	0	5364	5448	5448	5364	5364	5364	5282	5202	5125	5050	5050	4977	4977	4977	4977	4977	4045	4045	4045	4045	4045	4045	3998	3998	3998	3998	3998	3998	3998	3998	3998	3952	3998	3998	3998	3998	4045	4093	4045	4093	4045	4045	3998	3952	3952	3952	3952	3952	3952	3998	3952	3998	3952	3952	3952	3998	3952	3952	3952	3952	5050	5050	8146	8146	8146	8146	8343	8146	8146	8146	8146	8146	8343	8146	8146	8146	8146	8146	8146	8146	8146	8146	8146	8146	8146	6124	6235	6235	6235	6349	6349	6349	6349	6349	6349	6235	6235	6235	6349	6235	6235	6349	6349	6349	6349	6468	6468	6468	6592	6592	6468	6468	6468	6468	6592	6592	7959	7959	8550	8146	8343	8146	8146	8146	8146	8146	8146	8146	8146	8146	8146	8146	8343	8343	8146	8146	8146	8146	8146	8146	8146	8146	8146	8146	8146	8146	8146	8146	7959	7959	8146	8146	8146	8146	8146	8146	8146	8146	8146	8146	7959	7959	8146	8146	8146	0	0	0	0	0	0	0	0	0	0	0	0	0	0	0	0	0	0	0	0	0	0	0	0	0	0	0	0	0	0	0	0	0	0	0	0	0	0	0	0	0	0	0	0	0	0	0	0	0	0	0	0	0	0	0	0	0	2312	2297	2297	2297	2312	2312	0	2669	2669	2669	2711	2711	2711	2711	2711	2711	2690	2669	2669	2669	2669	2669	2669	2669	2649	2669	2359	2343	2312	2312	2312	2297	2297	2266	2252	2237	2237	2237	2237	2237	2208	2194	2194	2194	2181	2181	2181	2181	2181	2181	2181	2167	2181	2153	2153	2153	2153	2153	2140	2153	2153	2153	2153	2153	2153	2153	0	0	0	0	0	0	0	0	1589	1589	1596	1596	0	0	0	0	0	0	0	0	0	0	0	0	0	0	0	0	0	0	0	0	0	0	0	0	0	0	0	0	0	0	0	0	0	0	0	0	0	0	0	0	0	0	0	0	0	0	0	0	0
