0	0	0	0	0	0	0	0	0	0	1291	1291	1296	1301	1301	1301	1301	1296	1296	1413	1413	1413	1407	1402	1402	1402	1402	1396	1396	1396	1390	1390	1390	1390	1390	1385	1390	1396	1402	1402	1402	1402	1402	1402	1402	1402	1402	1402	1396	1390	1390	1385	1379	1379	1379	1374	1379	1385	1390	1390	1390	1390	1390	1390	1385	1385	0	0	0	0	0	0	0	0	0	0	0	0	1419	1425	1419	1419	1419	1419	1413	1413	1413	1407	1413	1419	1425	1431	1431	1431	1437	1437	1437	1437	1437	1443	1443	1449	1449	1455	1461	1467	1467	1467	1473	1480	1492	1506	1512	1525	1525	1525	1525	1539	1546	1546	1553	1560	1560	1567	1574	1574	1611	1626	1626	1641	1649	1657	1657	1657	1657	1641	1649	1641	1641	0	0	0	0	0	0	0	0	0	0	0	0	0	0	0	0	0	0	0	0	0	2733	2711	2711	2711	2733	2733	2711	2733	2711	2733	2733	2711	2711	2733	2711	2711	2711	2733	2754	2754	2777	2869	2869	2893	2845	2845	2822	2845	2845	2869	2845	2869	2869	2893	2893	2917	2893	2893	2917	2893	2917	2917	2917	2917	2917	2942	2942	2967	2967	2993	3073	3101	3101	3101	3129	3129	3157	3157	3157	0	0	0	0	0	0	0	0	0	0	6853	6720	6720	6592	6468	6468	6468	6468	6468	6468	6468	6468	6468	6468	6468	6468	6468	6349	6349	6349	6349	6468	6349	6468	6468	6468	6349	6468	6349	6468	6592	6468	6592	6592	6592	6592	6592	6592	6592	6592	6592	6468	6468	6468	6468	6468	6468	4142	4093	4093	4093	4045	4045	4045	4045	4045	4045	4045	4045	4045	3998	3998	3998	3998	3952	3952	3952	3952	3952	3952	3952	3952	3952	3907	3907	3907	3907	3907	3907	3907	3907	3907	3907	3907	3907	3907	3952	3952	3907	3907	3907	3907	3907	3952	3952	3952	3998	3952	3998	3998	3998	3998	3998	3952	3998	3998	3998	3998	3998	3998	3998	3998	3998	3998	4045	3998	4045	4192	4192	4192	0	8343	8343	8343	8343	8343	8343	8343	8343	8343	8343	8343	8343	8343	8146	8146	8146	8146	8146	8146	8146	7959	8146	7959	7959	7959	0	0	6592	6592	6592	6592	6592	6592	6468	6468	6468	6468	6468	6468	6468	6468	6592	6592	6592	6592	6592	6592	6468	6349	6349	6349	6235	6235	6235	6235	8550	8550	8343	7959	8146	7779	7444	7444	7287	7287	7137	7287	7287	7287	7137	7287	7287	7287	7444	7444	7444	7608	7608	7779	7608	7608	7779	7779	7959	7959	7959	8146	8343	8343	8343	8343	8343	8343	8343	8343	8343	8343	8343	8343	8146	7959	7779	7608	7444	7287	7137	6992	6992	6992	6992	6853	6853	6853	6853	6853	6853	6853	0	0	0	0	0	0	0	0	0	0	0	0	0	0	0	0	0	0	0	0	0	0	0	0	0	0	0	0	0	0	0	0	0	0	0	0	0	0	0	0	0	0	0	0	0	0	0	0	0	0	0	0	0	0	0	0	0	0	0	1641	1626	1626	1626	1626	1618	1618	1618	1618	1611	1603	1596	1603	1596	1596	1589	1589	1589	1589	1581	1567	1560	1560	1553	1560	1560	1553	1553	1553	1553	1546	1546	1546	1539	1539	1539	1525	1519	1519	1519	1519	1519	1525	1519	1519	1519	1519	1519	1519	1519	1512	1512	1519	1512	1512	1506	1506	1499	1492	1492	1492	1486	1486	1492	1492	1492	1492	1499	1499	1499	1499	1492	1492	1492	0	0	0	0	0	0	0	0	0	0	0	0	0	0	0	0	0	0	0	0	0	0	0	0	0	0	0	0	0	0	0	0	0	0	0	0	0	0	0	0
0	0	0	0	0	0	0	0	0	0	1291	1291	1296	1301	1301	1301	1301	1296	1296	1419	1419	1413	1407	1402	1402	1402	1402	1396	1396	1396	1390	1390	1390	1390	1390	1390	1396	1402	1396	1396	1402	1402	1402	1402	1402	1402	1402	1396	1396	1390	1390	1385	1379	1379	1379	1379	1385	1385	1396	1396	1396	1390	1390	1390	1390	1385	0	0	0	0	0	0	0	0	0	0	0	0	1413	1413	1413	1413	1413	1413	1413	1407	1413	1407	1413	1425	1431	1431	1437	1431	1437	1437	1437	1437	1437	1443	1443	1443	1443	1455	1455	1461	1467	1467	1473	1480	1486	1486	1512	1519	1519	1525	1525	1539	1546	1546	1553	1560	1567	1567	1567	1574	1596	1618	1626	1641	1649	1657	1657	1665	1665	1665	1673	1673	1641	0	0	0	0	0	0	0	0	0	0	0	0	0	0	0	0	0	0	0	0	2733	2733	2711	2733	2711	2733	2733	2733	2733	2711	2733	2733	2711	2711	2711	2711	2711	2711	2733	2754	2754	2822	2869	2869	2893	2893	2845	2845	2845	2869	2869	2845	2869	2869	2893	2893	2917	2893	2917	2917	2917	2917	2917	2917	2917	2917	2942	2942	2967	2967	3019	3046	3046	3046	3129	3129	3129	3157	3157	0	0	0	0	0	0	0	0	0	0	0	6853	6720	6592	6592	6468	6468	6468	6349	6468	6349	6468	6468	6468	6468	6468	6468	6468	6349	6349	6349	6349	6349	6349	6349	6349	6349	6349	6349	6349	6468	6592	6592	6592	6720	6592	6592	6592	6592	6592	6592	6592	6592	6468	6468	6468	6468	4142	4142	4093	4093	4093	4045	4045	4045	4093	4045	4045	4045	4045	4045	3998	3998	3998	3952	3952	3952	3952	3952	3952	3952	3952	3952	3952	3907	3907	3907	3907	3907	3907	3907	3907	3907	3907	3907	3907	3907	3952	3952	3952	3952	3907	3907	3907	3952	3907	3952	3952	3952	3952	3998	3998	3998	3998	3952	3952	3998	3998	3998	3998	4045	3998	4045	3998	4045	4045	4045	4093	4192	4192	4192	0	8343	8343	8343	8343	8343	8343	8343	8343	8343	8343	8343	8343	8343	8146	8146	8146	8146	8146	8146	8146	8146	8146	8146	8146	7959	0	6720	6592	6592	6592	6592	6592	6592	6592	6468	6720	6468	6468	6468	6468	6592	6468	6592	6468	6592	6592	6468	6468	6349	6349	6349	6235	6235	6235	6235	6235	8146	8146	7959	7779	7287	7287	7287	7137	7137	7137	7287	7137	7287	7137	7287	7287	7287	7287	7444	7287	7287	7444	7137	7287	7608	7779	7959	7959	8146	8146	8146	8146	8343	8343	8343	8343	8343	8343	8343	8343	8343	8343	8343	8146	7959	7779	7608	7444	7287	7137	6992	6992	6992	6992	6853	6853	6853	6853	6853	6853	6853	0	0	0	0	0	0	0	0	0	0	0	0	0	0	0	0	0	0	0	0	0	0	0	0	0	0	0	0	0	0	0	0	0	0	0	0	0	0	0	0	0	0	0	0	0	0	0	0	0	0	0	0	0	0	0	0	0	1665	1649	1649	1634	1626	1626	1618	1618	1611	1611	1611	1603	1596	1596	1596	1596	1596	1589	1589	1589	1581	1567	1567	1567	1560	1560	1567	1560	1553	1553	1546	1546	1546	1546	1546	1539	1539	1539	1525	1519	1519	1519	1519	1519	1519	1519	1519	1519	1519	1519	1519	1519	1512	1512	1512	1512	1512	1506	1506	1499	1492	1492	1492	1486	1486	1492	1492	1492	1492	1492	1492	1492	1492	1492	1492	1492	0	0	0	0	0	0	0	0	0	0	0	0	0	0	0	0	0	0	0	0	0	0	0	0	0	0	0	0	0	0	0	0	0	0	0	0	0	0	0	0
0	0	0	0	0	0	0	0	0	0	1291	1291	1301	1301	1306	1306	1301	1296	1296	1425	1413	1413	1407	1402	1402	1402	1402	1396	1390	1390	1390	1390	1390	1390	1390	1396	1402	1402	1402	1402	1402	1402	1402	1402	1402	1402	1402	1402	1396	1390	1390	1390	1385	1379	1385	1385	1385	1396	1396	1402	1402	1396	1396	1390	1390	1390	0	0	0	0	0	0	0	0	0	0	0	1413	1413	1413	1407	1407	1407	1407	1407	1402	1402	1402	1402	1419	1431	1437	1437	1437	1437	1437	1437	1437	1437	1437	1443	1443	1443	1449	1455	1461	1461	1467	1467	1473	1486	1492	1512	1512	1519	1519	1519	1532	1539	1546	1553	1560	1567	1567	1567	1567	1581	1618	1618	1641	1641	1649	1649	1649	1665	1665	1665	1665	0	0	0	0	0	0	0	0	0	0	0	0	0	0	0	0	0	0	0	0	0	2711	2711	2711	2733	2711	2733	2733	2733	2733	2711	2733	2711	2711	2711	2711	2711	2711	2711	2711	2733	2754	2822	2869	2893	2893	2893	2845	2845	2845	2845	2845	2845	2869	2869	2893	2869	2917	2917	2917	2917	2917	2917	2942	2942	2942	2942	2967	2967	2993	2993	3019	3019	3046	3046	3046	3129	3129	0	0	0	0	0	0	0	0	0	0	0	0	0	6853	6720	6720	6592	6468	6468	6468	6349	6468	6349	6349	6468	6468	6468	6468	6468	6468	6468	6468	6349	6468	6349	6468	6349	6349	6349	6349	6349	6349	6468	6592	6592	6592	6720	6592	6592	6592	6592	6592	6592	6592	6468	6468	6468	6468	6349	4142	4093	4093	4093	4093	4045	4045	4093	4093	4093	4093	4093	4045	4045	3998	3998	3952	3952	3952	3952	3907	3952	3952	3952	3952	3952	3952	3907	3907	3907	3907	3907	3907	3907	3907	3907	3907	3907	3907	3907	3952	3952	3952	3907	3907	3907	3907	3907	3952	3952	3952	3952	3998	3952	3998	3998	3998	3952	3952	3952	3952	3998	3998	3998	3998	3998	3998	3998	4045	4045	4093	4093	4192	4192	0	8343	8343	8343	8343	8343	8343	8343	8343	8146	8343	8146	8146	8146	8146	8146	8146	8146	8146	8146	7959	8146	8146	8146	8146	8146	6720	6720	6592	6592	6592	6592	6592	6592	6592	6592	6592	6592	6468	6468	6592	6592	6592	6468	6468	6592	6592	6468	6468	6349	6349	6349	6235	6235	6235	6235	6468	7779	7779	7779	7608	7287	7287	7287	7137	7137	7137	7137	6992	7137	7137	7137	7287	7287	7287	7287	7287	7287	7287	7137	7137	7287	7444	7959	7959	8146	8146	8146	8146	8146	8343	8343	8343	8146	8343	8343	8343	8343	8343	8343	8146	7959	7779	7608	7444	7287	7137	6992	6992	6992	6992	6853	6853	6853	6853	6720	6720	6720	0	0	0	0	0	0	0	0	0	0	0	0	0	0	0	0	0	0	0	0	0	0	0	0	0	0	0	0	0	0	0	0	0	0	0	0	0	0	0	0	0	0	0	0	0	0	0	0	0	0	0	0	0	0	0	0	1665	1657	1649	1649	1634	1626	1626	1618	1618	1611	1603	1596	1596	1596	1596	1596	1589	1589	1589	1581	1574	1574	1567	1567	1567	1560	1560	1560	1553	1553	1553	1546	1546	1546	1546	1539	1539	1539	1539	1525	1519	1519	1519	1519	1519	1519	1519	1519	1512	1519	1519	1519	1519	1512	1512	1519	1512	1512	1506	1506	1499	1492	1492	1492	1486	1486	1486	1486	1486	1486	1492	1492	1492	1492	1486	1486	1486	0	0	0	0	0	0	0	0	0	0	0	0	0	0	0	0	0	0	0	0	0	0	0	0	0	0	0	0	0	0	0	0	0	0	0	0	0	0	0	0
0	0	0	0	0	0	0	0	0	0	1291	1291	1296	1301	1301	1301	1301	1296	1296	1425	1413	1407	1407	1402	1402	1402	1396	1390	1390	1390	1390	1390	1396	1396	1396	1402	1402	1402	1407	1402	1402	1402	1402	1402	1402	1402	1402	1402	1396	1390	1390	1390	1385	1385	1385	1385	1396	1396	1402	1402	1396	1396	1396	1390	1390	1390	0	0	0	0	0	0	0	0	0	0	0	1407	1413	1413	1407	1407	1407	1407	1413	1407	1407	1407	1407	1419	1425	1431	1431	1431	1437	1437	1437	1437	1437	1437	1443	1443	1443	1449	1455	1461	1461	1467	1467	1480	1486	1486	1499	1512	1519	1519	1525	1539	1539	1546	1553	1560	1560	1560	1567	1560	1560	1574	1596	1618	1626	1641	1641	1649	1665	1673	1673	1673	0	0	0	0	0	0	0	0	0	0	0	0	0	0	0	0	0	0	0	0	0	2711	2711	2711	2711	2711	2733	2733	2711	2711	2711	2733	2711	2711	2711	2711	2711	2711	2711	2711	2733	2754	2754	2893	2893	2893	2893	2845	2845	2869	2869	2869	2845	2869	2893	2893	2869	2917	2893	2893	2893	2917	2917	2917	2942	2942	2967	2993	2993	3019	3019	3019	3019	3046	3073	3073	0	0	0	0	0	0	0	0	0	0	0	0	0	0	0	0	0	6720	6592	6468	6468	6468	6349	6468	6349	6468	6468	6468	6468	6468	6468	6468	6468	6468	6468	6468	6468	6468	6349	6349	6349	6349	6349	6468	6592	6468	6592	6592	6592	6592	6592	6592	6592	6592	6592	6592	6468	6468	6468	6468	4093	4093	4093	4093	4045	4093	4045	4045	4093	4093	4093	4093	4093	4045	4045	3998	3998	3952	3952	3952	3952	3952	3952	3952	3952	3952	3907	3907	3907	3907	3907	3907	3907	3907	3907	3907	3907	3907	3907	3907	3907	3907	3952	3907	3907	3907	3952	3952	3952	3952	3952	3952	3952	3998	3998	3998	3998	3998	3952	3952	3952	3952	3952	3952	3998	3998	3998	3998	3998	4045	4045	4093	4142	4192	4192	0	0	8146	8146	8146	8146	8146	8146	8146	7959	8146	7959	8146	8146	7959	8146	8146	8146	8146	8146	8146	8146	8146	8146	8146	8146	8146	6592	6592	6592	6720	6592	6592	6720	6592	6592	6720	6720	6468	6592	6592	6592	6592	6592	6592	6592	6592	6468	6468	6468	6349	6349	6349	6235	6468	6468	6468	7137	7608	7608	7444	7137	7137	7137	7137	7137	7137	7137	7137	7137	7137	7137	7287	7287	7287	7287	7287	7287	7287	6992	7137	7287	7287	7287	7959	7959	7959	7959	8146	8146	8343	8343	8343	8343	8343	8343	8343	8343	8343	8343	8146	7959	7779	7608	7608	7444	7137	6992	6992	6992	6992	6853	6853	6853	6853	6720	6720	6720	0	0	0	0	0	0	0	0	0	0	0	0	0	0	0	0	0	0	0	0	0	0	0	0	0	0	0	0	0	0	0	0	0	0	0	0	0	0	0	0	1665	1673	1673	1681	1673	1673	0	0	0	0	0	1777	1759	1759	0	1673	1665	1657	1649	1649	1634	1626	1626	1618	1611	1611	1603	1596	1596	1589	1589	1589	1589	1581	1574	1574	1574	1567	1567	1567	1560	1560	1560	1567	1560	1553	1546	1546	1546	1546	1539	1539	1539	1539	1525	1525	1519	1519	1519	1519	1519	1519	1519	1519	1512	1519	1519	1512	1512	1512	1512	1512	1512	1506	1506	1506	1499	1492	1492	1492	1486	1486	1486	1486	1486	1486	1486	1486	1486	1486	1480	1486	1486	0	0	0	0	0	0	0	0	0	0	0	0	0	0	0	0	0	0	0	0	0	0	0	0	0	0	0	0	0	0	0	0	0	0	0	0	0	0	0	0
0	0	0	0	0	0	0	0	0	0	1291	1287	1296	1301	1301	1301	1301	1296	1296	1419	1413	1407	1402	1396	1402	1396	1396	1390	1385	1390	1390	1396	1402	1402	1402	1407	1407	1402	1407	1402	1402	1402	1402	1402	1402	1396	1402	1390	1390	1396	1396	1390	1390	1385	1385	1385	1385	1390	1402	1402	1402	1396	1402	1402	1390	1390	0	0	0	0	0	0	0	0	0	0	0	1413	1413	1413	1407	1413	1407	1407	1413	1407	1413	1413	1413	1419	1425	1425	1425	1425	1437	1437	1437	1431	1437	1437	1443	1443	1443	1449	1455	1455	1461	1467	1467	1480	1486	1486	1492	1506	1512	1519	1519	1532	1539	1539	1546	1553	1553	1560	1560	1553	1567	1574	1596	1611	1634	1641	1641	1649	1665	1673	1673	1673	1698	1698	0	0	0	0	0	0	0	0	0	0	0	0	0	0	0	0	0	0	0	2733	2711	2711	2711	2711	2733	2733	2733	2711	2711	2733	2733	2711	2711	2711	2711	2711	2711	2711	2733	2733	2754	2893	2917	2917	2893	2893	2845	2869	2845	2845	2845	2845	2845	2869	2845	2845	2869	2893	2917	2917	2917	2942	2942	2942	2967	2993	2993	3019	3019	3019	3019	3019	3046	3046	0	0	0	0	0	0	0	0	0	0	0	0	0	0	0	0	0	6592	6592	6468	6468	6468	6349	6468	6468	6468	6468	6468	6468	6468	6468	6468	6468	6468	6468	6468	6349	6349	6349	6349	6349	6349	6349	6468	6468	6592	6592	6592	6592	6592	6592	6592	6592	6592	6592	6592	6468	6468	6468	6468	6349	4093	4093	4093	4045	4093	4045	4045	4093	4093	4093	4093	4093	4045	3998	3998	3998	3952	3952	3952	3952	3952	3952	3952	3952	3952	3907	3907	3907	3907	3907	3907	3907	3907	3907	3907	3907	3907	3907	3864	3864	3907	3952	3907	3952	3907	3952	3952	3952	3952	3952	3952	3952	3952	3952	3998	3998	3998	3952	3952	3952	3952	3952	3952	3952	3952	3998	3998	3998	3998	4045	4093	4142	4192	4192	0	0	7959	8146	8146	8146	8146	8146	8146	8146	8146	7959	8146	8146	7959	8146	8146	8146	8146	8146	7959	8146	8146	8146	8146	7959	7959	6720	6592	6592	6720	6592	6592	6720	6592	6592	6592	6720	6468	6592	6592	6592	6468	6592	6592	6592	6592	6468	6468	6468	6349	6349	6349	6235	6235	6468	6468	7137	7287	7287	7287	7287	7137	7137	7137	7137	7137	7137	7137	7137	7137	7137	7287	7287	7287	7287	7287	7287	7287	7137	7137	7137	7287	7959	7959	8146	8146	8146	8343	8343	8343	8343	8343	8343	8343	8343	8343	8343	8343	8343	8146	7959	7608	7608	7444	7287	7137	6992	6992	6992	6992	6853	6853	6853	6720	6720	6720	6720	0	0	0	0	0	0	0	0	0	0	0	0	0	0	0	0	0	0	0	0	0	0	0	0	0	0	0	0	0	0	0	0	0	0	0	0	0	0	0	0	1665	1673	1673	1681	1681	1673	0	0	0	0	1777	1768	1750	1698	1690	1673	1657	1657	1649	1649	1634	1626	1626	1618	1618	1603	1596	1596	1596	1589	1589	1589	1581	1581	1574	1560	1560	1560	1560	1560	1560	1560	1560	1567	1553	1553	1546	1546	1546	1539	1539	1539	1539	1539	1525	1525	1519	1519	1519	1519	1519	1519	1519	1519	1512	1512	1512	1512	1512	1512	1512	1512	1506	1506	1506	1499	1492	1492	1492	1492	1486	1486	1486	1486	1486	1486	1486	1486	1486	1486	1486	1486	1486	0	0	0	0	0	0	0	0	0	0	0	0	0	0	0	0	0	0	0	0	0	0	0	0	0	0	0	0	0	0	0	0	0	0	0	0	0	0	0	0
0	0	0	0	0	0	0	0	0	0	1287	1287	1296	1301	1301	1301	1301	1301	1301	1301	1407	1402	1402	1396	1402	1402	1396	1390	1385	1390	1396	1402	1407	1407	1407	1407	1407	1407	1407	1407	1407	1407	1407	1402	1402	1396	1396	1396	1390	1396	1396	1396	1390	1390	1390	1385	1390	1390	1402	1402	1402	1396	1402	1402	0	0	0	0	0	0	0	0	0	0	0	0	0	1413	1413	1419	1407	1407	1407	1407	1413	1407	1413	1413	1413	1419	1425	1425	1425	1425	1431	1431	1431	1431	1431	1437	1437	1443	1437	1449	1455	1461	1461	1467	1467	1473	1480	1480	1486	1492	1506	1506	1519	1525	1539	1539	1539	1546	1553	1553	1560	1553	1560	1574	1589	1611	1626	1641	1641	1657	1665	1673	1673	1681	1698	1706	1706	0	0	0	0	0	0	0	0	0	0	0	0	0	0	0	0	0	0	2711	2711	2711	2711	2711	2711	2733	2733	2711	2711	2733	2733	2733	2711	2733	2733	2733	2711	2711	2711	2733	0	0	2917	2917	2893	2893	0	0	2845	2845	2845	2845	2869	2869	2869	2893	2893	2893	2917	2917	2917	2942	2942	2942	2993	2993	2993	3019	3019	3019	3019	3019	3046	3046	0	0	0	0	0	0	0	0	0	0	0	0	0	0	0	0	0	6468	6468	6468	6468	6349	6349	6468	6468	6468	6468	6468	6468	6468	6468	6468	6468	6468	6468	6468	6349	6349	6349	6349	6468	6349	6468	6468	6592	6592	6592	6592	6592	6592	6592	6592	6592	6592	6592	6592	6468	6468	6468	6468	6468	4093	4093	4093	4093	4093	4045	4045	4093	4093	4093	4093	4093	4045	3998	3998	3998	3952	3952	3952	3952	3952	3952	3952	3907	3907	3907	3907	3907	3907	3907	3907	3907	3907	3907	3907	3907	3907	3864	3864	3864	3907	3952	3907	3907	3907	3952	3952	3952	3952	3952	3952	3952	3952	3952	3998	3998	3998	3952	3952	3952	3952	3952	3952	3952	3998	3998	3998	3998	3998	4045	4093	4093	4192	4192	0	0	7959	8146	8146	8146	8146	8146	8146	8146	8146	7959	8146	8146	8146	8146	8146	8146	8146	7959	7959	8146	8146	8146	8146	7959	7959	6720	6720	6592	6592	6592	6592	6592	6592	6720	6592	6592	6468	6592	6592	6592	6468	6592	6592	6592	6592	6468	6468	6349	6349	6349	6349	6349	6349	6349	6853	7137	7287	7287	7287	7287	7137	7137	7137	6992	6992	7137	7137	7137	7137	7137	7137	7137	7287	7287	7137	7287	7287	7137	7287	7287	7444	7959	7959	8146	8146	8146	8343	8146	8343	8146	8343	8146	8343	8343	8343	8343	8343	8343	8146	8146	8146	7608	7444	7287	7137	6992	6992	6992	6992	6853	6853	6853	6720	6720	6720	0	0	0	0	0	0	0	0	0	0	0	0	0	0	0	0	0	0	0	0	0	0	0	0	0	0	0	0	0	0	0	0	0	0	0	0	0	0	0	0	0	0	0	0	1690	1690	0	0	0	0	0	1759	1759	1750	1690	1681	1665	1657	1657	1649	1649	1649	1626	1618	1618	1611	1603	1596	1596	1596	1589	1589	1581	1581	1581	1567	1560	1560	1560	1553	1553	1560	1560	1560	1560	1560	1553	1546	1546	1546	1539	1539	1539	1525	1525	1519	1519	1519	1519	1512	1512	1512	1512	1512	1512	1512	1512	1512	1512	1512	1512	1506	1506	1506	1506	1499	1499	1492	1492	1492	1492	1486	1486	1486	1486	1486	1486	1486	1486	1486	1480	1486	1486	1486	0	0	0	0	0	0	0	0	0	0	0	0	0	0	0	0	0	0	0	0	0	0	0	0	0	0	0	0	0	0	0	0	0	0	0	0	0	0	0	0
0	0	0	0	0	0	0	0	0	0	1287	1287	1296	1301	1306	1301	1306	1306	1306	1306	1306	1402	1396	1396	1396	1396	1390	1385	1374	1374	1374	1402	1407	1413	1413	1413	1413	1407	1413	1413	1407	1407	1407	1402	1396	1396	1396	1396	1396	1396	1396	1396	1396	1390	1390	1390	1390	1390	1396	1396	1396	1402	1402	1396	1396	0	0	0	0	0	0	0	0	0	0	0	0	0	1413	1413	1407	1407	1407	1407	1407	1407	1413	1413	1413	1419	1419	1419	1425	1419	1431	1431	1425	1425	1431	1431	1437	1437	1437	1443	1449	1461	1461	1461	1467	1467	1473	1473	1486	1499	1506	1519	1519	1525	1539	1539	1539	1546	1553	1553	1560	1553	1560	1567	1567	1603	1626	1641	1641	1649	1665	1665	1673	1673	1690	1706	1706	0	0	0	0	0	0	0	0	0	0	0	0	0	0	0	0	0	0	2711	2711	2711	2711	2711	2711	2733	2733	2711	2711	2711	2711	2711	2711	2711	2733	2711	2711	2711	2711	0	0	0	0	0	0	0	0	0	0	2822	2822	2845	2869	2869	2869	2893	2893	2893	2917	2917	2917	2942	2942	2942	2993	2993	2993	3019	3019	3019	3019	3019	3019	3019	0	0	0	0	0	0	0	0	0	0	0	0	0	0	0	0	0	6349	6349	6468	6349	6349	6349	6349	6349	6349	6349	6349	6468	6349	6349	6349	6349	6349	6468	6468	6468	6468	6349	6468	6468	6349	6468	6468	6592	6592	6592	6592	6592	6592	6592	6468	6592	6468	6592	6468	6468	6468	6468	6349	6349	4093	4093	4093	4093	4093	4045	4045	4093	4093	4093	4045	4045	4045	4045	3998	3998	3998	3952	3952	3952	3952	3952	3907	3907	3907	3907	3907	3907	3907	3907	3907	3907	3907	3907	3907	3907	3907	3907	3907	3864	3952	3952	3907	3952	3952	3952	3952	3952	3952	3952	3952	3952	3952	3952	3952	3998	3998	3952	3952	3952	3952	3952	3952	3952	3998	3998	3998	3998	3998	3998	4045	4093	4093	4093	0	0	8146	8146	8146	8146	8146	8146	8146	8146	8146	8146	8146	8146	8146	8146	8146	8146	8146	7959	7959	7959	8146	8146	8146	7959	7959	6592	6592	6592	6592	6592	6592	6592	6592	6720	6592	6592	6592	6720	6592	6592	6468	6592	6592	6592	6592	6468	6468	6468	6349	6349	6349	6349	6349	6592	6720	6720	7137	7287	7287	7287	7287	7287	7137	7137	7137	7137	7137	7137	7137	7137	7137	7137	7287	7287	7137	7287	7137	7137	7137	7287	7287	7444	7959	8146	8146	8146	8146	8146	8146	8146	8343	8146	8343	8343	8343	8343	8343	8146	8146	7959	7959	0	0	0	0	6992	6992	6992	6992	6853	6853	6853	6853	6853	6853	0	0	0	0	0	0	0	0	0	0	0	0	0	0	0	0	0	0	0	0	0	0	0	0	0	0	0	0	0	0	0	0	0	0	0	0	0	0	0	0	0	0	0	1698	1698	1690	1690	1690	0	0	0	1750	1750	1741	1698	1681	1665	1657	1649	1649	1649	1641	1626	1626	1611	1603	1596	1596	1596	1596	1589	1589	1581	1581	1574	1567	1560	1560	1553	1553	1553	1553	1553	1553	1560	1560	1553	1546	1539	1539	1539	1539	1539	1525	1525	1519	1519	1519	1512	1512	1512	1512	1512	1512	1512	1512	1512	1512	1506	1506	1506	1506	1506	1506	1506	1499	1492	1492	1492	1486	1486	1486	1486	1486	1486	1486	1486	1480	1486	1486	1480	1486	1486	1486	0	0	0	0	0	0	0	0	0	0	0	0	0	0	0	0	0	0	0	0	0	0	0	0	0	0	0	0	0	0	0	0	0	0	0	0	0	0	0	0
0	0	0	0	0	0	0	0	0	0	1282	1287	1291	1301	1301	1301	1306	1306	1306	1306	1306	1402	1396	1396	1396	1402	1396	1390	1390	1407	1407	1413	1419	1419	1413	1413	1413	1413	1413	1413	1407	1407	1402	1396	1396	1396	1396	1396	1396	1390	1396	1396	1396	1396	1390	1390	1390	1396	1396	1396	1396	1396	1402	1396	1390	1390	0	0	0	0	0	0	0	0	0	0	0	0	0	1407	1407	1402	1407	1407	1407	1407	1413	1413	1413	1419	1425	1425	1425	1425	1431	1425	1425	1425	1431	1431	1431	1437	1437	1443	1449	1449	1461	1467	1467	1467	1473	1486	1486	1492	1499	1512	1512	1519	1532	1532	1532	1546	1553	1553	1560	1553	1560	1567	1560	1560	1634	1634	1641	1649	1665	1665	1665	1673	1690	1706	1706	0	0	0	0	0	0	0	0	0	0	0	0	0	0	0	0	0	0	2711	2711	2711	2711	2711	2711	2733	2711	2711	2711	2711	2711	2711	2711	2711	2711	2711	2711	2711	2711	2711	0	0	0	0	0	0	0	0	0	2822	2822	2845	2845	2845	2845	2893	2893	2893	2917	2917	2917	2942	2942	2942	2993	2993	2993	2993	3019	3019	3019	3019	3046	3046	0	0	0	0	0	0	0	0	0	0	0	0	0	0	0	0	6349	6349	6468	6468	6349	6349	6349	6349	6349	6349	6349	6349	6349	6349	6349	6468	6468	6468	6468	6468	6468	6468	6349	6468	6468	6349	6468	6468	6592	6592	6592	6592	6592	6592	6592	6468	6592	6468	6468	6468	6468	6468	6468	6468	4045	4045	4045	4045	4045	4093	4045	4093	4093	4093	4093	4093	4045	4045	3998	3998	3998	3952	3952	3952	3952	3952	3952	3907	3907	3907	3907	3907	3907	3907	3907	3907	3907	3907	3907	3907	3907	3907	3907	3907	3864	3952	3952	3952	3952	3952	3952	3952	3952	3952	3952	3952	3952	3952	3952	3952	3998	3998	3952	3952	3952	3952	3952	3952	3952	3952	3998	3952	3998	3998	3998	3952	3952	4093	4093	0	0	7959	7959	7959	8146	8146	8146	8146	8146	8146	8146	8146	8146	8146	8146	8146	8146	7959	7959	7959	7959	7959	8146	8146	7959	7959	6592	6592	6592	6592	6592	6592	6592	6592	6592	6592	6468	6592	6592	6592	6592	6468	6592	6592	6592	6468	6468	6468	6468	6468	6468	6468	6468	6468	6592	6720	6992	7137	7287	7287	7287	7287	7137	7137	7137	7137	7137	7137	7137	7137	7137	7137	7137	7137	7137	6992	7137	7137	6992	7137	7137	7287	7444	7608	7959	7959	7959	8146	8146	8146	8146	8146	8146	8146	8146	8146	8146	8146	8146	8146	7959	7959	0	0	0	0	0	0	0	6992	6853	6853	6853	6853	6853	6853	0	0	0	0	0	0	0	0	0	0	0	0	0	0	0	0	0	0	0	0	0	0	0	0	0	0	0	0	0	0	0	0	0	0	0	0	0	0	0	0	0	0	0	1698	1690	1690	1690	1690	1690	1706	1706	1723	1723	1723	1698	1681	1665	1657	1649	1649	1641	1641	1626	1618	1611	1603	1596	1596	1589	1589	1589	1581	1581	1574	1567	1560	1560	1560	1553	1553	1553	1560	1560	1553	1560	1553	1546	1546	1539	1539	1539	1539	1539	1532	1532	1525	1525	1519	1512	1512	1512	1512	1512	1512	1506	1506	1506	1506	1506	1506	1506	1506	1506	1506	1499	1499	1499	1492	1492	1486	1486	1480	1486	1492	1486	1486	1486	1486	1486	1486	1480	1480	1480	1480	0	0	0	0	0	0	0	0	0	0	0	0	0	0	0	0	0	0	0	0	0	0	0	0	0	0	0	0	0	0	0	0	0	0	0	0	0	0	0	0
0	0	0	0	0	0	0	0	0	0	1282	1287	1296	1296	1296	1301	1301	1306	1306	1306	0	1402	1396	1396	1396	1402	1402	1402	1431	1431	1407	1413	1431	1431	1413	1413	1413	1413	1413	1413	1413	1413	1407	1402	1396	1396	1396	1396	1390	1390	1390	1396	1396	1390	1390	1385	1390	1390	1390	1390	1396	1402	1402	1396	1396	1390	0	0	0	0	0	0	0	0	0	0	0	0	0	1402	1402	1407	1407	1407	1407	1407	1413	1413	1419	1419	1425	1419	1425	1419	1419	1419	1419	1419	1425	1431	1437	1437	1443	1443	1455	1455	1461	1467	1467	1473	1473	1486	1486	1492	1499	1512	1512	1519	1525	1525	1532	1539	1553	1553	1560	1560	1567	1567	1567	1589	1589	1626	1641	1649	1657	1657	1657	1665	1690	1706	1706	0	0	0	0	0	0	0	0	0	0	0	0	0	0	0	0	0	0	0	2711	2711	2711	2733	2733	2733	2733	2711	2711	2711	2711	2711	2711	2733	2733	2733	2711	2711	2711	2711	0	0	0	0	0	0	0	0	0	2822	2822	2845	2845	2845	2845	2893	2893	2893	2917	2917	2917	2942	2942	2942	2967	2993	2993	2993	3019	3019	3019	3019	3019	3019	0	0	0	0	0	0	0	0	0	0	0	0	0	0	0	0	6349	6349	6468	6468	6349	6349	6349	6349	6349	6349	6349	6349	6349	6349	6349	6349	6349	6349	6468	6349	6349	6468	6349	6468	6349	6349	6468	6468	6592	6592	6592	6592	6592	6592	6592	6468	6468	6468	6468	6468	6468	6468	6468	6468	4093	4093	4093	4045	4045	4093	4045	4093	4093	4045	4045	4045	4045	4045	3998	3998	3998	3952	3952	3952	3952	3952	3952	3907	3907	3907	3907	3907	3907	3907	3907	3907	3907	3907	3907	3907	3907	3907	3864	3907	3864	3952	3952	3952	3952	3952	3952	3952	3952	3952	3952	3952	3952	3952	3952	3952	3952	3998	3952	3952	3952	3952	3952	3952	3952	3952	3952	3952	3998	3998	3998	3998	3952	0	0	0	0	7959	7959	8343	8146	8146	8146	8146	8343	8146	8146	8343	8146	8146	8146	8146	8146	8146	7959	7959	8146	8146	8146	7959	7959	7779	6592	6592	6592	6592	6592	6592	6592	6592	6592	6468	6468	6468	6592	6592	6468	6468	6468	6468	6468	6468	6468	6468	6468	6468	6468	6468	6468	6468	6468	6853	6992	7137	7287	7287	7287	7287	7287	7137	6992	7137	7137	7137	7137	7137	7137	7137	7137	7137	7137	6992	7137	7137	6992	7137	7137	7287	7287	7608	7959	7959	7959	8146	8146	8146	8146	8146	8146	8146	8146	8146	8146	8146	8146	8146	7959	7959	0	0	0	0	0	0	0	0	0	0	0	0	0	0	0	0	0	0	0	0	0	0	0	0	0	0	0	0	0	0	0	0	0	0	0	0	0	0	0	0	0	0	0	0	0	0	0	0	0	0	0	0	0	0	0	0	0	1698	1698	1690	1690	1690	1698	1715	1715	1723	1723	1723	1690	1681	1665	1657	1649	1649	1641	1641	1618	1618	1611	1596	1596	1589	1589	1589	1589	1589	1581	1581	1567	1567	1560	1560	1560	1553	1553	1553	1553	1553	1560	1553	1546	1546	1539	1539	1539	1539	1532	1525	1525	1525	1519	1519	1512	1512	1512	1512	1506	1506	1506	1506	1506	1506	1506	1506	1506	1499	1506	1499	1499	1492	1492	1492	1492	1492	1486	1486	1486	1492	1486	1486	1486	1486	1486	1486	1486	1480	1480	1480	0	0	0	0	0	0	0	0	0	0	0	0	0	0	0	0	0	0	0	0	0	0	0	0	0	0	0	0	0	0	0	0	0	0	0	0	0	0	0	0
0	0	0	0	0	0	0	0	0	0	1282	1282	1282	1291	1296	1301	1306	1311	1306	1306	0	0	0	0	0	1402	1396	1402	1402	1407	1407	1413	1425	1425	1419	1419	1419	1413	1419	1419	1413	1413	1413	1402	1396	1396	1390	1385	1385	1385	1390	1390	1390	1390	1385	1385	1385	1385	1385	1385	1385	1385	1385	1396	1396	0	0	0	0	0	0	0	0	0	0	0	0	0	0	1396	1407	1407	1407	1407	1407	1407	1413	1419	1419	1419	1419	1419	1419	1419	1425	1425	1425	1425	1431	1437	1437	1437	1443	1443	1455	1461	1461	1467	1473	1473	1480	1486	1486	1499	1506	1512	1512	1519	1532	1532	1532	1539	1553	1553	1560	1567	1567	1567	1567	1567	1611	1626	1634	1641	1649	1649	1649	1665	1690	1706	1706	1715	1715	1723	1715	1715	0	0	0	0	0	0	0	0	0	0	0	0	0	0	2711	2711	2733	2733	2733	2733	2711	2711	2711	2711	2711	2711	2711	2733	2733	2733	2711	2711	2711	0	0	0	0	0	0	0	0	0	0	2822	2822	2822	2845	2845	2845	2893	2893	2893	2917	2917	2917	2917	2917	2942	2942	3019	3019	3019	3019	3019	3019	3019	3019	3019	0	0	0	0	0	0	0	0	0	0	0	0	0	0	0	0	6349	6235	6235	6349	6349	6468	6468	6349	6349	6349	6349	6349	6349	6349	6349	6349	6349	6349	6468	6468	6468	6468	6349	6468	6349	6349	6468	6468	6592	6592	6592	6592	6592	6592	6592	6468	6592	6468	6468	6468	6468	6468	6468	6468	4093	4093	4045	4045	4045	4045	4045	4045	4045	4045	4045	3998	3998	3998	3998	3998	3998	3998	3952	3952	3952	3952	3952	3907	3907	3907	3907	3907	3907	3907	3907	3907	3907	3907	3907	3907	3907	3864	3907	3907	3864	3952	3952	3952	3952	3952	3952	3952	3952	3952	3952	3952	3952	3952	3952	3952	3952	3952	3998	3998	3952	3952	3952	3952	3952	3952	3952	3952	3952	3998	3998	3998	0	0	0	0	0	7959	7959	8343	8343	8146	8343	8146	8343	8343	8343	8343	8343	8343	8146	8146	8146	8146	7959	7959	7959	7959	8146	7959	7959	7779	6592	6592	6592	6592	6592	6468	6468	6468	6468	6468	6468	6468	6468	6468	6468	6468	6468	6468	6468	6468	6468	6468	6468	6468	6468	6468	6468	6468	6592	6720	6992	7137	7287	7287	7287	7287	7137	7137	6992	7137	7137	7137	7287	7137	7137	7137	7137	7137	6992	6992	6992	6992	6992	7137	7137	7137	7287	7608	7779	7959	7959	8146	8146	8146	8146	8146	8146	8146	8146	8146	8146	8146	8146	8146	0	0	0	0	0	0	0	0	0	0	0	0	0	0	0	0	0	0	0	0	0	0	0	0	0	0	0	0	0	0	0	0	0	0	0	0	0	0	0	0	0	0	0	0	0	0	0	0	0	0	0	0	0	0	0	0	0	0	0	1698	1698	1690	1698	1698	1715	1715	1715	1715	1723	1715	1698	1681	1665	1657	1649	1649	1641	1634	1618	1611	1611	1603	1596	1596	1589	1589	1589	1589	1581	1574	1567	1567	1560	1560	1560	1553	1553	1553	1553	1553	1553	1553	1546	1539	1539	1532	1532	1532	1532	1525	1525	1519	1519	1512	1512	1512	1512	1512	1506	1506	1506	1506	1506	1506	1506	1506	1506	1499	1499	1499	1499	1492	1492	1486	1492	1492	1486	1486	1486	1486	1486	1486	1486	1486	1486	1486	1486	1480	1480	1480	0	0	0	0	0	0	0	0	0	0	0	0	0	0	0	0	0	0	0	0	0	0	0	0	0	0	0	0	0	0	0	0	0	0	0	0	0	0	0	0
0	0	0	0	0	0	0	0	0	0	1282	1282	1291	1291	1296	1301	1306	1311	1311	1311	0	0	0	0	0	0	1396	1402	1407	1413	1413	1419	1425	1425	1419	1419	1419	1413	1419	1413	1413	1413	1407	1402	1396	1396	1390	1390	1390	1385	1390	1390	1396	1385	1385	1385	1385	1379	1379	1379	1379	1385	1385	0	0	0	0	0	0	0	0	0	0	0	0	0	0	0	1390	1396	1402	1413	1407	1407	1413	1413	1413	1419	1419	1419	1425	1419	1419	1419	1425	1425	1425	1425	1431	1437	1437	1437	1443	1449	1455	1461	1461	1467	1473	1473	1480	1486	1486	1499	1506	1512	1512	1512	1525	1525	1532	1539	1553	1553	1567	1574	1574	1567	1567	1596	1611	1618	1634	1649	1649	1649	1649	1673	1698	1706	1706	1715	1723	1723	1715	1715	0	0	0	0	0	0	0	0	0	0	0	0	0	0	2711	2733	2733	2733	2733	2711	2711	2711	2711	2711	2711	2711	2711	2733	2733	2711	2711	2711	2711	2711	0	0	0	0	0	0	0	0	0	2822	2822	2822	2845	2845	2845	2893	2893	2893	2917	2917	2917	2942	2942	2942	2942	2993	2993	3019	3019	3019	3019	3019	3046	3046	0	0	0	0	0	0	0	0	0	0	0	0	0	0	0	0	0	6349	6349	6349	6349	6468	6468	6349	6349	6349	6349	6349	6349	6349	6349	6349	6349	6349	6468	6349	6468	6468	6468	6468	6468	6468	6468	6468	6592	6592	6592	6592	6592	6592	6592	6592	6592	6592	6592	6468	6468	6468	6468	6468	4093	4093	4045	4045	4045	4045	3998	3998	4045	3998	3998	3998	3998	3952	3998	3952	3952	3952	3952	3952	3952	3952	3952	3907	3907	3907	3907	3952	3907	3907	3907	3907	3907	3907	3907	3907	3864	3864	3864	3907	3864	3952	3952	3952	3952	3952	3952	3952	3952	3952	3952	3952	3952	3952	3952	3952	3952	3952	3998	3998	3952	3952	3952	3952	3952	3952	3952	3952	3952	3952	3952	3998	0	0	0	0	0	7959	7959	8343	8343	8343	8343	8343	8343	8343	8343	8343	8343	8343	8343	8146	8146	8146	7959	7959	7959	7959	8146	7959	7959	7779	6592	6592	6468	6592	6468	6468	6468	6468	6592	6468	6468	6468	6468	6592	6468	6468	6468	6468	6468	6468	6468	6468	6468	6468	6468	6468	6468	6468	6592	6720	6992	7137	7287	7287	7287	7287	7137	7137	7137	7137	7137	7137	7137	7137	7137	7137	7137	7137	7137	6992	7137	7137	6992	7137	7137	7137	7444	7608	7779	7959	7959	7959	8146	8146	8146	8146	8146	8146	8146	8146	8146	8146	8146	8146	0	0	0	0	0	0	0	0	0	0	0	0	0	0	0	0	0	0	0	0	0	0	0	0	0	0	0	0	0	0	0	0	0	0	0	0	0	0	0	0	0	0	0	0	0	0	0	0	0	0	0	0	0	0	0	0	0	0	1715	1706	1698	1698	1698	1698	1715	1715	1715	1715	1715	1706	1690	1681	1665	1657	1649	1649	1641	1634	1618	1611	1611	1603	1596	1596	1589	1589	1589	1589	1581	1574	1567	1567	1560	1560	1560	1553	1553	1553	1553	1546	1553	1546	1539	1539	1539	1532	1532	1532	1532	1532	1525	1519	1519	1519	1519	1519	1512	1512	1506	1506	1506	1512	1512	1512	1512	1506	1506	1499	1499	1499	1492	1492	1492	1486	1492	1492	1486	1486	1486	1492	1486	1492	1486	1486	1486	1486	1486	1480	1480	1480	0	0	0	0	0	0	0	0	0	0	0	0	0	0	0	0	0	0	0	0	0	0	0	0	0	0	0	0	0	0	0	0	0	0	0	0	0	0	0	0
0	0	0	0	0	0	0	0	0	0	1282	1287	1291	1296	1301	1306	1306	1306	1306	1306	0	0	0	0	0	0	0	1402	1407	1425	1425	1431	1431	1425	1425	1425	1425	1419	1407	1407	1413	1407	1390	1390	1385	1390	1385	1385	1379	1379	1390	1390	1390	1390	1385	1385	1385	1379	1379	1379	1379	0	0	0	0	0	0	0	0	0	0	0	0	0	0	1379	1379	1385	1385	1396	1396	1413	1413	1419	1413	1413	1419	1419	1419	1419	1419	1419	1419	1419	1419	1425	1425	1425	1431	1437	1437	1443	1443	1449	1455	1461	1461	1467	1473	1480	1480	1486	1486	1499	1506	1506	1512	1512	1525	1525	1532	1546	1553	1553	1567	1574	1574	1574	1581	1603	1611	1618	1634	1641	1641	1641	1649	1665	1690	1698	1698	1706	1715	1723	1706	1706	0	0	0	0	0	0	0	0	0	0	0	0	0	0	0	2733	2733	2733	2733	2711	2711	2711	2711	2711	2711	2711	2711	2711	2711	2711	2711	2711	2711	2711	0	0	0	0	0	0	0	0	0	2822	2845	2845	2845	2845	2845	2893	2893	2893	2917	2917	2917	2942	2942	2942	2967	2993	3019	3019	3019	3046	3046	3046	3046	3046	0	0	0	0	0	0	0	0	0	0	0	0	0	0	0	0	0	6349	6349	6349	6349	6468	6468	6349	6349	6349	6349	6349	6349	6349	6349	6349	6468	6349	6468	6349	6349	6349	6349	6349	6349	6468	6468	6468	6468	6468	6468	6592	6592	6592	6592	6592	6592	6592	6592	6468	6468	6592	6592	6468	4093	4093	4045	4045	4045	4045	3998	4045	4045	3998	3998	3998	3998	3998	3998	3952	3952	3952	3952	3952	3952	3952	3907	3907	3907	3907	3907	3952	3952	3952	3952	3907	3907	3907	3907	3907	3864	3864	3864	3907	3907	3952	3952	3952	3952	3952	3952	3907	3952	3952	3952	3952	3952	3952	3952	3952	3952	3952	3952	3952	3952	3952	3998	3952	3952	3952	3952	3952	3952	3952	3952	0	0	0	0	0	0	0	0	8343	8343	8343	8343	8146	8343	8343	8343	8343	8343	8343	8146	8146	8146	8146	7959	7959	7959	7959	7959	7959	7959	7779	6592	6592	6468	6468	6468	6468	6468	6468	6468	6468	6468	6468	6468	6468	6468	6468	6468	6468	6468	6468	6468	6468	6468	6468	6468	6468	6468	6592	6720	6853	6992	7137	7137	7287	7287	7287	7137	7137	6992	6992	6992	7137	7137	7137	7137	7137	7137	7137	7137	6992	7137	7137	6992	7137	7137	7137	7287	7444	7779	7779	7959	8146	8146	8146	8146	8146	8146	8146	8146	8146	8146	8146	8146	0	0	0	0	0	0	0	0	0	0	0	0	0	0	0	0	0	0	0	0	0	0	0	0	0	0	0	0	0	0	0	0	0	0	0	0	0	0	0	0	0	0	0	0	0	0	0	0	0	0	0	0	0	0	0	1698	1690	1698	1706	1715	1706	1706	1706	1706	1706	1732	1715	1715	1715	1715	1706	1690	1681	1665	1657	1649	1649	1634	1634	1618	1611	1611	1603	1596	1596	1589	1589	1589	1589	1581	1574	1574	1567	1560	1560	1560	1553	1553	1553	1553	1546	1546	1546	1539	1539	1539	1532	1532	1532	1539	1532	1532	1525	1525	1525	1519	1519	1512	1512	1506	1506	1506	1512	1512	1512	1512	1512	1506	1506	1506	1499	1499	1492	1492	1486	1492	1486	1486	1486	1486	1492	1486	1486	1486	1486	1486	1486	1486	1480	1480	1480	0	0	0	0	0	0	0	0	0	0	0	0	0	0	0	0	0	0	0	0	0	0	0	0	0	0	0	0	0	0	0	0	0	0	0	0	0	0	0	0
0	0	0	0	0	0	0	0	0	0	1282	1287	1291	1291	1296	1306	1306	1311	1306	1306	0	0	0	0	0	0	0	0	0	1431	1431	1431	1431	1425	1425	1431	1431	1431	1407	1407	1413	1379	1379	1374	1374	1374	1385	1385	1374	1368	1390	1390	1390	1390	1385	1385	1385	1385	1385	1379	1379	0	0	0	0	0	0	0	0	0	0	0	0	0	0	1379	1385	1385	1385	1390	1413	1413	1413	1425	1419	1413	1419	1419	1419	1419	1419	1419	1419	1419	1425	1425	1431	1437	1437	1443	1443	1443	1443	1449	1455	1461	1461	1467	1473	1480	1486	1492	1492	1499	1506	1506	1512	1512	1525	1525	1532	1546	1546	1553	1567	1574	1574	1574	1581	1596	1603	1618	1626	1641	1641	1641	1641	1665	1698	1698	1706	1706	1706	1723	1715	1706	1706	0	0	0	0	0	0	0	0	0	0	0	0	0	0	2711	2733	2733	2733	2711	2711	2711	2711	2711	2711	2711	2711	2711	2711	2711	2711	2711	2711	2711	0	0	0	0	0	0	0	0	0	0	2845	2822	2845	2845	2845	2893	2893	2893	2917	2917	2917	2942	2942	2967	2967	2993	3019	3019	3019	3019	3046	3046	3046	3046	3046	0	0	0	0	0	0	0	0	0	0	0	0	0	0	0	0	6349	6349	6349	6468	6468	6468	6349	6349	6349	6349	6349	6349	6349	6349	6349	6349	6349	6468	6349	6468	6468	6468	6468	6468	6468	6349	6468	6468	6468	6468	6468	6592	6592	6592	6592	6592	6592	6592	6468	6468	6468	6592	4093	4093	4093	4093	4045	4045	4045	3998	3998	4045	3998	3998	3998	3952	3998	3998	3952	3952	3952	3952	3952	3952	3952	3907	3907	3907	3907	3952	3952	3952	3952	3907	3907	3907	3907	3907	3907	3864	3864	3864	3907	3907	3952	3952	3952	3952	3952	3952	3907	3952	3952	3952	3952	3952	3952	3952	3952	3952	3952	3998	3998	3952	3952	3998	3952	3952	3952	3907	3907	3952	3952	3952	0	0	0	0	0	0	0	0	8343	8343	8343	8343	8343	8343	8343	8343	8343	8343	8343	8146	8146	8146	8146	7959	7959	7959	7959	7959	7959	7959	7959	6592	6592	6468	6468	6349	6349	6349	6468	6468	6468	6468	6468	6468	6468	6468	6468	6468	6468	6468	6468	6468	6468	6468	6468	6468	6468	6468	6592	6720	6720	6992	7137	7137	7287	7287	7287	7137	7137	7137	7137	6992	7137	7137	7137	7137	7137	7137	7137	6992	6992	6992	6992	6992	6992	6992	7137	7287	7444	7608	7779	7779	8146	8146	8146	8146	8146	8146	8146	8146	8146	8146	8146	8146	0	0	0	0	0	0	0	0	0	0	0	0	0	0	0	0	0	0	0	0	0	0	0	0	0	0	0	0	0	0	0	0	0	0	0	0	0	0	0	0	0	0	0	0	0	0	0	0	0	0	0	0	0	0	0	1698	1690	1698	1698	1706	1706	1706	1706	1715	1715	1732	1723	1715	1715	1715	1715	1698	1681	1665	1657	1649	1649	1634	1626	1618	1611	1611	1603	1596	1596	1589	1589	1589	1589	1581	1567	1574	1567	1560	1560	1560	1560	1560	1553	1553	1546	1546	1546	1539	1539	1539	1532	1532	1532	1525	1525	1525	1532	1525	1525	1519	1519	1519	1512	1506	1506	1506	1512	1512	1512	1512	1512	1506	1506	1506	1499	1499	1492	1492	1486	1486	1486	1486	1486	1480	1486	1486	1486	1486	1492	1492	1486	1486	1486	1480	1480	0	0	0	0	0	0	0	0	0	0	0	0	0	0	0	0	0	0	0	0	0	0	0	0	0	0	0	0	0	0	0	0	0	0	0	0	0	0	0	0
0	0	0	0	0	0	0	0	0	0	1287	1287	1291	1291	1296	1301	1306	1311	1311	1306	0	0	0	0	0	0	0	0	0	1431	1431	1431	1431	1431	1425	1431	1431	1431	0	0	0	1385	1374	1374	1368	1368	1374	1374	1368	1363	1363	1390	1363	1363	0	1385	1385	1385	1385	1379	1379	1379	0	0	0	0	0	0	0	0	0	0	0	0	1379	1379	1385	1385	1385	1390	1413	1413	1419	1431	1425	1419	1413	1419	1419	1419	1419	1419	1419	1419	1425	1425	1437	1437	1443	1443	1443	1443	1449	1449	1449	1455	1461	1461	1473	1480	1486	1492	1492	1499	1499	1506	1506	1512	1525	1525	1539	1546	1546	1553	1567	1581	1581	1581	1589	1596	1603	1611	1611	1634	1641	1634	1641	1681	1681	1698	1698	1715	1723	1723	1723	1723	1732	1732	0	0	0	0	0	0	0	0	0	0	0	0	0	2711	2711	2733	2733	2711	2711	2711	2711	2711	2711	2711	2711	2711	2711	2711	2711	2711	2711	2711	0	0	0	0	0	0	0	0	0	0	2845	2822	2845	2845	2845	2893	2893	2893	2917	2917	2917	2942	2942	2967	2967	2967	2967	3019	3046	3046	3046	3046	3046	3046	3046	0	0	0	0	0	0	0	0	0	0	0	0	0	0	0	0	0	6349	6349	6468	6468	6468	6349	6349	6349	6349	6349	6349	6349	6349	6349	6349	6349	6349	6349	6468	6468	6468	6468	6468	6468	6349	6349	6468	6468	6468	6468	6468	6592	6592	6592	6592	6592	6592	6468	6592	6592	6592	4093	4093	4093	4093	4045	4045	3998	3952	3998	3998	3952	3952	3952	3952	3998	3952	3952	3952	3952	3952	3952	3907	3952	3907	3907	3907	3907	3907	3952	3907	3907	3952	3907	3907	3907	3907	3907	3907	3864	3864	3907	3907	3952	3952	3907	3952	3952	3952	3907	3907	3907	3952	3952	3952	3952	3952	3952	3952	3952	3998	3998	3952	3998	3998	3952	3998	3952	3907	3907	3907	3952	3952	0	0	0	0	0	0	0	0	8550	8343	8343	8343	8146	8146	8146	8146	8343	8343	8343	8146	8146	8146	8146	7959	7959	7959	7959	7959	7959	7959	7959	6349	6349	6349	6349	6349	6468	6349	6468	6468	6468	6468	6468	6468	6468	6468	6468	6468	6468	6468	6468	6468	6468	6468	6468	6468	6468	6468	6468	6720	6720	6992	7137	7137	7287	7287	7287	7137	7137	7137	7137	6992	7137	7137	7137	7137	7137	7137	7137	7137	6992	7137	6992	6992	6992	6992	7137	7287	7287	7608	7608	7779	8146	8146	8146	8146	8146	8146	8146	8146	8146	8146	8146	0	0	0	0	0	0	0	0	0	0	0	0	0	0	0	0	0	0	0	0	0	0	0	0	0	0	0	0	0	0	0	0	0	0	0	0	0	0	0	0	0	0	0	0	0	0	0	0	0	0	0	0	0	0	0	0	1690	1690	1690	1698	1706	1706	1706	1706	1706	1715	1723	1723	1723	1715	1706	1706	1706	1681	1673	1665	1657	1657	1657	1634	1626	1611	1611	1603	1596	1596	1589	1589	1581	1581	1581	1581	1574	1574	1560	1560	1560	1560	1560	1553	1553	1546	1546	1546	1539	1539	1539	1532	1532	1532	1532	1532	1532	1532	1525	1525	1519	1525	1519	1512	1512	1506	1506	1512	1512	1512	1512	1512	1506	1506	1506	1499	1499	1499	1492	1492	1492	1486	1486	1486	1480	1486	1486	1486	1486	1486	1486	1486	1486	1486	1480	1480	0	0	0	0	0	0	0	0	0	0	0	0	0	0	0	0	0	0	0	0	0	0	0	0	0	0	0	0	0	0	0	0	0	0	0	0	0	0	0	0
0	0	0	0	0	0	0	0	0	0	1287	1287	1291	1291	1291	1301	1301	1306	1306	0	0	0	0	0	0	0	0	0	0	0	1431	1431	1431	1425	1425	1425	1431	1431	0	0	0	1385	1368	1368	1363	1368	1374	1374	1368	1368	1368	0	1363	1363	0	1385	1385	1385	1385	1385	1379	1379	0	0	0	0	0	0	0	0	0	0	0	0	1379	1385	1385	1385	1379	1390	1390	1402	1402	1419	1419	1419	1413	1413	1413	1413	1419	1419	1419	1419	1419	1425	1437	1437	1437	1443	1443	1443	1443	1443	1449	1455	1461	1467	1473	1480	1486	1492	1492	1499	1499	1499	1506	1512	1512	1525	1532	1539	1546	1553	1567	1574	1581	1581	1589	1596	1596	1611	1618	1626	1626	1634	1641	1649	1698	1698	1706	1715	1723	1723	1723	1732	1732	1732	0	0	0	0	0	0	0	0	0	0	0	0	0	2711	2711	2711	2711	2711	2711	2711	2711	2711	2711	2711	2711	2711	2711	2690	2711	2711	2711	2711	0	0	0	0	0	0	0	2893	2869	2869	2869	2845	2845	2845	2845	2893	2893	2893	2893	2893	2917	2917	2942	2942	2967	2993	3019	3019	3019	3046	3046	3046	3046	3046	3046	0	0	0	0	0	0	0	0	0	0	0	0	0	0	0	0	0	6349	6349	6468	6468	6468	6349	6349	6349	6468	6349	6349	6349	6349	6349	6349	6349	6349	6349	6468	6349	6468	6468	6468	6468	6468	6468	6468	6468	6468	6468	6468	6468	6592	6592	6592	6592	6592	6468	6592	6592	6468	4093	4093	4093	4093	4045	4045	4045	3998	3998	3998	3998	3998	3998	3998	3998	3952	3998	3952	3952	3952	3907	3907	3907	3907	3907	3907	3907	3907	3952	3907	3907	3907	3907	3907	3907	3907	3907	3907	3907	3907	3907	3907	3907	3907	3907	3907	3907	3907	3907	3952	3952	3952	3952	3952	3952	3952	3952	3952	3952	3998	3998	3998	3998	3998	3952	3952	3952	3952	3952	3907	3907	3952	0	0	0	0	0	0	0	8550	8550	8550	8343	8343	8146	8146	8146	8146	8343	8343	8146	8146	8146	8146	8146	7959	7959	7959	7959	8146	8146	8146	7959	7959	6349	6349	6468	6349	6349	6349	6468	6468	6468	6468	6468	6468	6468	6349	6349	6349	6349	6468	6468	6468	6468	6468	6468	6468	6468	6468	6468	6720	6720	6853	7137	7137	7287	7287	7287	7137	7137	7137	6992	6992	6992	6992	6992	6992	6992	6992	7137	7137	7137	7137	7137	6992	6992	6992	7287	7287	7287	7444	7608	7779	8146	8146	8146	8146	8146	8146	8146	8146	8146	8146	8146	0	0	0	0	0	0	0	0	0	0	0	0	0	0	0	0	0	0	0	0	0	0	0	0	0	0	0	0	0	0	0	0	0	0	0	0	0	0	0	0	0	0	0	0	0	0	0	0	0	0	0	0	0	0	0	0	1690	1690	1690	1690	1698	1698	1706	1698	1706	1715	1723	1723	1723	1715	1715	1690	1690	1681	1681	1673	1673	1673	1673	1626	1626	1611	1611	1603	1596	1596	1589	1589	1581	1581	1581	1574	1574	1567	1567	1560	1560	1560	1560	1553	1553	1546	1546	1546	1539	1539	1539	1539	1539	1532	1532	1532	1532	1532	1532	1525	1525	1525	1519	1519	1512	1512	1512	1512	1512	1512	1512	1512	1499	1499	1499	1492	1499	1499	1492	1492	1492	1486	1486	1486	1480	1486	1486	1486	1486	1486	1486	1486	1486	1486	1480	1480	0	0	0	0	0	0	0	0	0	0	0	0	0	0	0	0	0	0	0	0	0	0	0	0	0	0	0	0	0	0	0	0	0	0	0	0	0	0	0	0
0	0	0	0	0	0	0	0	0	0	1287	1287	1287	1291	1291	1296	1301	1306	1306	1306	0	0	0	0	0	0	0	0	0	0	0	1431	1431	1425	1425	1425	0	0	0	0	0	0	1368	1368	1363	1368	1402	1402	1379	1368	1368	0	0	0	0	0	1390	1390	1390	1385	1385	1379	1379	0	0	0	0	0	0	0	0	0	0	0	0	1385	1385	1385	1385	1385	1385	1385	1385	1385	1419	1413	1413	1413	1413	1413	1413	1413	1419	1419	1419	1425	1437	1437	1437	1443	1443	1443	1443	1443	1449	1455	1461	1467	1473	1473	1486	1486	1486	1499	1499	1499	1499	1506	1512	1525	1539	1539	1546	1546	1553	1567	1574	1574	1574	1596	1596	1611	1611	1618	1634	1634	1641	1657	1698	1698	1698	1715	1723	1723	1723	1723	1715	1715	0	0	0	0	0	0	0	0	0	0	0	0	2711	2690	2690	2711	2711	2711	2711	2711	2711	2711	2711	2711	2711	2711	2711	2690	2690	2711	2711	2649	2649	0	0	0	0	0	0	2893	2869	2869	2869	2845	2845	2845	2845	2869	2869	2869	2893	2893	2917	2942	2967	2967	2967	2993	3019	3019	3046	3046	3046	3046	3046	3019	3019	0	0	0	0	0	0	0	0	0	0	0	0	0	0	0	0	0	0	6349	6592	6592	6468	6468	6349	6349	6349	6349	6349	6349	6349	6349	6349	6349	6349	6468	6468	6468	6468	6468	6468	6468	6349	6349	6349	6468	6592	6468	6592	6592	6592	6592	6592	6592	6592	6468	6592	6468	6468	4093	4045	4093	4045	4045	4045	3998	3998	3998	3998	3998	3998	3998	3998	3998	3998	3998	3952	3952	3952	3952	3952	3952	3907	3907	3907	3907	3907	3952	3952	3907	3952	3952	3907	3907	3907	3907	3907	3907	3864	3864	3864	3907	3907	3907	3952	3907	3907	3907	3907	3952	3952	3907	3952	3952	3952	3952	3952	3952	3998	3998	3998	3998	3998	3952	3952	3952	3952	3952	3952	3952	0	0	0	0	0	0	0	0	8767	8550	8550	8550	8343	8343	8146	8146	8146	8343	8343	8146	8146	8146	8146	8146	7959	7959	7959	8146	8146	8146	8146	7959	7959	6349	6349	6349	6349	6349	6349	6468	6468	6468	6468	6468	6468	6349	6349	6349	6349	6349	6349	6468	6468	6468	6468	6468	6468	6468	6468	6468	6720	6720	6853	7137	7137	7287	7287	7137	7137	7137	7137	6992	6853	6853	6992	6992	6992	6992	6992	7137	7137	7137	7137	7137	6992	6992	6992	7137	7287	7287	7444	7608	7608	7959	7959	8146	8146	8146	8146	8146	8146	8146	8146	8146	0	0	0	0	0	0	0	0	0	0	0	0	0	0	0	0	0	0	0	0	0	0	0	0	0	0	0	0	0	0	0	0	0	0	0	0	0	0	0	0	0	0	0	0	0	0	0	0	0	0	0	0	0	0	0	0	1690	1690	1690	1690	1698	1706	1706	1706	1706	1706	1715	1723	1723	1690	1690	1690	1690	1681	1681	1673	1673	1673	1673	1626	1626	1618	1618	1611	1603	1596	1596	1589	1589	1589	1581	1581	1581	1574	1574	1567	1560	1560	1553	1553	1553	1546	1546	1546	1546	1539	1546	1539	1539	1539	1532	1532	1532	1532	1525	1525	1525	1525	1519	1519	1512	1512	1506	1512	1512	1512	1506	1506	1499	1499	1499	1492	1499	1492	1492	1492	1486	1486	1486	1492	1486	1492	1492	1492	1492	1486	1486	1486	1480	1480	1480	1473	1473	0	0	0	0	0	0	0	0	0	0	0	0	0	0	0	0	0	0	0	0	0	0	0	0	0	0	0	0	0	0	0	0	0	0	0	0	0	0	0
0	0	0	0	0	0	0	0	0	0	1287	1287	1291	1291	1301	1301	1301	1306	1306	1306	0	0	0	0	0	0	0	0	0	0	0	0	0	0	0	0	0	0	0	0	0	0	1368	1368	1363	1363	1407	1407	1390	1390	1368	0	0	0	0	0	1390	1390	1390	1390	1385	1385	1385	0	0	0	0	0	0	0	0	0	0	0	0	1385	1385	1385	1385	1385	1385	1379	1379	1390	1407	1407	1407	1407	1413	1413	1413	1413	1419	1419	1425	1431	1437	1437	1443	1443	1443	1443	1443	1443	1449	1449	1461	1467	1473	1473	1480	1486	1486	1492	1492	1492	1499	1506	1519	1525	1525	1539	1539	1546	1553	1560	1567	1574	1581	1589	1589	1603	1611	1618	1634	1634	1641	1665	1681	1698	1698	1706	1715	1723	1723	1732	1732	1715	0	0	0	0	0	0	0	0	0	0	0	0	2669	2690	2690	2690	2711	2711	2711	2711	2711	2711	2711	2711	2711	2711	2711	2690	2690	2669	2711	2649	2649	0	0	0	0	0	0	2893	2869	2869	2869	2869	2845	2845	2869	2893	2893	2893	2893	2917	2917	2942	2942	2967	2967	2993	3019	3019	3046	3046	3046	3046	3046	3046	3046	0	0	0	0	0	0	0	0	0	0	0	0	0	0	0	0	0	0	0	6468	6592	6468	6468	6349	6349	6468	6349	6349	6349	6349	6349	6468	6468	6468	6468	6468	6468	6468	6468	6468	6468	6468	6468	6468	6592	6592	6592	6592	6592	6592	6592	6592	6592	6592	6592	6592	6592	6468	4045	4045	4093	4045	4045	4045	3998	3998	3998	3998	3998	3998	3998	3998	3998	3998	3998	3952	3952	3907	3907	3907	3907	3907	3907	3907	3907	3907	3907	3907	3907	3907	3907	3907	3907	3907	3907	3907	3907	3907	3864	3864	3907	3907	3907	3952	3907	3907	3907	3907	3952	3952	3907	3952	3952	3952	3952	3952	3952	3998	3998	3998	3952	3952	3952	3952	3952	3952	3952	3952	3952	0	0	0	0	0	0	0	0	8767	8550	8550	8550	8343	8146	8146	8146	8146	8146	8146	7959	7959	7959	7959	7959	7959	7959	7959	7959	8146	8146	8146	8146	8146	6349	6349	6349	6349	6349	6349	6468	6468	6468	6468	6468	6468	6349	6349	6349	6349	6349	6349	6349	6468	6468	6468	6468	6468	6468	6468	6592	6720	6720	6853	7137	7137	7287	7137	7137	7137	6992	6992	6992	6853	6853	6853	6853	6853	6992	6992	7137	7137	7137	7137	7137	6992	6992	6992	7287	7287	7287	7444	7608	7608	7959	7959	8146	8146	8146	8146	8146	8146	8146	8146	0	0	0	0	0	0	0	0	0	0	0	0	0	0	0	0	0	0	0	0	0	0	0	0	0	0	0	0	0	0	0	0	0	0	0	0	0	0	0	0	0	0	0	0	0	0	0	0	0	0	0	0	0	0	0	0	0	1690	1698	1698	1698	1698	1706	1706	1706	1706	1706	1706	1715	1715	1690	1690	1690	1681	1681	1681	1673	1673	1673	1673	1626	1626	1618	1618	1611	1603	1603	1596	1589	1589	1596	1589	1589	1589	1581	1581	1574	1567	1560	1560	1553	1553	1546	1553	1546	1546	1546	1546	1539	1546	1539	1532	1532	1532	1532	1525	1525	1525	1525	1519	1519	1512	1512	1512	1512	1512	1512	1506	1506	1499	1499	1499	1499	1499	1492	1492	1492	1486	1486	1486	1486	1486	1492	1492	1492	1492	1492	1486	1486	1486	1480	1480	1473	1473	0	0	0	0	0	0	0	0	0	0	0	0	0	0	0	0	0	0	0	0	0	0	0	0	0	0	0	0	0	0	0	0	0	0	0	0	0	0	0
0	0	0	0	0	0	0	0	0	0	1287	1287	1291	1296	1301	1301	1301	1301	1301	1301	0	0	0	0	0	0	0	0	0	0	0	0	0	0	0	0	0	0	0	0	0	0	1368	1363	1363	1363	1407	1407	1407	1390	0	0	0	0	0	0	1390	1390	1396	1396	1390	1390	1390	0	0	0	0	0	0	0	0	0	0	0	0	1385	1390	1385	1379	1385	1379	1379	1374	1379	1396	1407	1407	1407	1413	1413	1413	1413	1419	1419	1419	1425	1425	1437	1443	1443	1443	1443	1443	1443	1449	1449	1461	1467	1467	1473	1480	1486	1480	1480	1492	1492	1492	1499	1512	1512	1525	1539	1539	1539	1553	1560	1574	1574	1589	1589	1589	1603	1618	1626	1634	1634	1641	1657	1665	1690	1698	1706	1715	1723	1723	1741	1741	0	0	0	0	0	0	0	0	0	0	0	0	2649	2669	2690	2690	2690	2711	2711	2711	2711	2711	2711	2711	2711	2711	2711	2711	2690	2690	2669	2690	2669	2669	0	0	0	0	0	0	2869	2869	2869	2869	2869	2869	2869	2869	2893	2893	2893	2893	2917	2917	2917	2942	2967	2967	2993	3019	3019	3046	3019	3019	3046	3046	3019	3019	0	0	0	0	0	0	0	0	0	0	0	0	0	0	0	0	0	0	0	6468	6592	6468	6468	6349	6349	6468	6349	6349	6349	6349	6349	6349	6349	6349	6349	6468	6349	6468	6468	6468	6468	6468	6349	6468	6592	6592	6592	6592	6592	6592	6592	6592	6592	6592	6592	6592	6468	6468	4045	4045	4045	4045	4045	4045	3998	3998	3998	3998	3998	3998	3998	3998	3998	3998	3952	3952	3952	3907	3907	3907	3907	3907	3907	3907	3907	3907	3907	3907	3907	3907	3907	3907	3907	3907	3907	3907	3907	3907	3907	3907	3952	3907	3907	3952	3952	3907	3952	3952	3952	3952	3952	3952	3952	3952	3952	3952	3952	3998	3998	3998	3998	3952	3952	3952	3952	3952	3952	3952	3952	0	0	0	0	0	0	0	0	8767	8550	8550	8343	8343	8146	8146	8146	7959	8146	8146	7959	8146	7959	7959	7959	7959	7959	7959	7959	8146	7959	8146	7959	7959	6349	6349	6468	6349	6349	6349	6468	6468	6468	6468	6468	6468	6349	6349	6349	6349	6349	6349	6349	6468	6468	6468	6468	6468	6468	6468	6592	6720	6720	6992	6992	7137	7137	7137	7137	7137	6992	6992	6992	6853	6853	6853	6853	6992	6992	7137	6992	7137	7137	6992	6992	6992	6992	7137	7287	7287	7287	7444	7608	7608	7959	7959	8146	8146	8146	8146	8146	8146	8146	8146	8146	0	0	0	0	0	0	0	0	0	0	0	0	0	0	0	0	0	0	0	0	0	0	0	0	0	0	0	0	0	0	0	0	0	0	0	0	0	0	0	0	0	0	0	0	0	0	0	0	0	0	0	0	0	0	0	0	0	1690	1698	1698	1698	1706	1706	1706	1690	1690	1706	1706	1690	1690	1690	1690	1681	1681	1681	1681	1673	1673	0	0	0	0	0	1611	1603	1603	1596	1589	1589	1589	1581	1581	1581	1567	1567	1574	1567	1560	1560	1560	1560	1553	1560	1553	1546	1546	1546	1539	1546	1539	1532	1532	1532	1525	1525	1525	1525	1525	1519	1519	1519	1512	1512	1512	1512	1512	1512	1506	1506	1499	1499	1499	1499	1492	1492	1492	1486	1486	1486	1499	1492	1492	1492	1492	1492	1492	1492	1486	1486	1480	1473	1473	1473	0	0	0	0	0	0	0	0	0	0	0	0	0	0	0	0	0	0	0	0	0	0	0	0	0	0	0	0	0	0	0	0	0	0	0	0	0	0	0
0	0	0	0	0	0	0	0	0	0	1287	1287	1291	1296	1301	1301	1301	1301	1301	1301	0	0	0	0	0	0	0	0	0	0	0	0	0	0	0	0	0	0	0	0	0	0	0	1363	1363	0	0	1407	1402	1402	0	0	0	0	0	0	1390	1425	1425	1402	1390	1390	1390	0	0	0	0	0	0	0	0	0	0	0	0	0	1390	1385	1385	1385	1385	1379	1374	1379	1379	1413	1413	1413	1413	1413	1413	1413	1413	1419	1419	1425	1425	1437	1437	1443	1443	1443	1443	1443	1443	1449	1461	1461	1467	1467	1473	1480	1480	1486	1492	1492	1492	1499	1506	1512	1525	1539	1539	1546	1553	1560	1574	1574	1581	1589	1589	1611	1618	1626	1634	1641	1641	1657	1657	1681	1690	1706	1715	1723	1732	1750	1750	0	0	0	0	0	0	0	0	0	0	0	0	2649	2669	2690	2690	2690	2711	2711	2711	2711	2711	2711	2711	2711	2711	2711	2711	2690	2690	2690	2690	2690	2669	2669	0	2869	2869	2869	2893	2869	2869	2869	2893	2869	2869	2869	2869	2893	2893	2893	2917	2917	2917	2942	2942	2967	2967	2993	3019	3019	3046	3019	3019	0	0	3019	3019	0	0	0	0	0	0	0	0	0	0	0	0	0	0	0	0	0	0	0	6468	6468	6468	6468	6349	6349	6349	6349	6349	6349	6349	6349	6349	6349	6349	6349	6349	6468	6468	6468	6468	6468	6468	6468	6592	6592	6592	6592	6592	6592	6592	6592	6592	6592	6592	6592	6468	6468	6468	3998	3998	4045	4045	4045	3998	3998	3998	3998	3998	3998	3998	3998	3998	3998	3998	3998	3952	3952	3907	3907	3907	3907	3907	3907	3907	3907	3907	3907	3907	3907	3907	3907	3907	3907	3907	3907	3907	3907	3907	3907	3864	3907	3907	3907	3952	3952	3907	3952	3952	3952	3952	3952	3952	3952	3952	3952	3952	3952	3998	3998	3998	3998	3952	3952	3952	3952	3952	3952	3952	3998	3998	0	0	0	0	0	0	0	8550	8550	8550	8343	8343	8343	8146	8146	8146	8146	8146	7959	7959	7959	7959	7959	7959	7959	7959	7959	7959	7959	8146	7959	7959	6468	6468	6468	6349	6349	6349	6349	6468	6468	6468	6468	6468	6349	6349	6349	6349	6349	6349	6349	6468	6468	6468	6468	6468	6468	6468	6468	6592	6720	6992	6992	7137	7137	7287	7137	7137	7137	6992	6992	6853	6853	6853	6853	6853	6992	6992	6992	6992	7137	6992	6992	6992	6853	6992	7287	7287	7444	7444	7779	7608	7779	7959	8146	8146	8146	8146	8146	8343	8343	8146	8146	0	0	0	0	0	0	0	0	0	0	0	0	0	0	0	0	0	0	0	0	0	0	0	0	0	0	0	0	0	0	0	0	0	0	0	0	0	0	0	0	0	0	0	0	0	0	0	0	0	0	0	0	0	0	0	0	0	1690	1698	1698	1698	1706	1706	1706	1698	1698	1698	1690	1690	1690	1690	1690	1681	1681	1681	1681	1681	1681	0	0	0	0	0	0	1603	1603	1596	1589	1589	1581	1581	1581	1574	1567	1574	1567	1567	1567	1567	1560	1560	1553	1560	1553	1553	1546	1546	1539	1539	1525	1525	1525	1525	1525	1525	1525	1525	1525	1519	1519	1519	1512	1512	1512	1512	1512	1512	1506	1499	1499	1499	1499	1499	1492	1492	1492	1499	1506	1512	1512	1506	1506	1499	1499	1499	1499	1492	1486	1480	1473	1473	1473	1473	0	0	0	0	0	0	0	0	0	0	0	0	0	0	0	0	0	0	0	0	0	0	0	0	0	0	0	0	0	0	0	0	0	0	0	0	0	0	0
0	0	0	0	0	0	0	0	0	0	1287	1287	1287	1291	1301	1301	1301	1301	1301	1301	0	0	0	0	0	0	0	0	0	0	0	0	0	0	0	0	0	0	0	0	0	0	0	0	0	0	0	1407	1402	1402	1402	0	0	0	0	0	1431	1431	1431	1396	1396	1402	1402	0	0	0	0	0	0	0	0	0	0	0	0	0	1396	1390	1390	1390	1385	1379	1374	1374	1407	1413	1407	1413	1413	1413	1419	1413	1413	1419	1419	1425	1425	1437	1437	1437	1437	1437	1443	1443	1443	1455	1461	1467	1467	1467	1473	1473	1480	1486	1486	1486	1492	1499	1499	1512	1525	1539	1539	1539	1553	1560	1574	1574	1581	1589	1589	1611	1618	1626	1634	1641	1641	1649	1657	1673	1681	1690	1698	1715	1732	1732	1750	0	0	0	0	0	0	0	0	0	0	0	0	0	2649	2690	2690	2690	2711	2711	2711	2711	2711	2711	2711	2711	2711	2711	2711	2690	2690	2690	2711	2711	2711	2669	0	2869	2869	2893	2893	2869	2869	2893	2893	2869	2869	2869	2869	2893	2893	2893	2917	2917	2917	2917	2942	2967	2967	2993	3019	3019	3019	3046	3046	0	0	0	0	0	0	0	0	0	0	0	0	0	0	0	0	0	0	0	0	0	0	6468	6468	6468	6468	6468	6349	6349	6468	6468	6349	6349	6349	6349	6349	6349	6349	6349	6349	6468	6468	6468	6468	6468	6468	6468	6592	6592	6592	6592	6592	6592	6592	6592	6592	6592	6592	6592	6592	6592	6468	4045	3998	4045	4045	3998	3998	3998	3998	3998	3998	3998	3998	3998	3998	3998	3998	3998	3952	3952	3952	3907	3907	3907	3907	3907	3907	3907	3907	3907	3907	3907	3907	3907	3907	3907	3907	3907	3907	3907	3907	3907	3907	3952	3952	3952	3952	3952	3952	3952	3952	3952	3952	3952	3952	3952	3952	3952	3952	3998	3998	3998	3998	3998	3952	3952	3952	3952	3952	3952	3952	3998	3998	0	0	0	0	0	0	8767	8550	8550	8550	8550	8343	8343	8146	8146	8146	8146	8146	8146	8146	7959	7959	7959	7959	7959	7779	7959	8146	7959	8146	7779	7779	6468	6468	6468	6468	6349	6349	6349	6468	6592	6468	6468	6468	6468	6349	6349	6349	6349	6349	6349	6468	6468	6468	6468	6468	6468	6468	6468	6592	6720	6853	6992	6992	7137	7137	7137	7137	6992	6992	6992	6992	6992	6853	6853	6853	6992	7137	7137	7137	7137	6992	6992	6992	6992	6992	7137	7287	7444	7608	7779	7779	7959	7959	8146	8146	8146	8146	8146	8343	8343	8146	8343	8343	0	0	0	0	0	0	0	0	0	0	0	0	0	0	0	0	0	0	0	0	0	0	0	0	0	0	0	0	0	0	0	0	0	0	0	0	0	0	0	0	0	0	0	0	0	0	0	0	0	0	0	0	0	0	0	0	0	0	0	0	1706	1706	1706	1698	1698	1698	1690	1690	1690	1690	1690	1681	1681	1681	1681	1673	1673	1673	0	0	0	0	0	0	0	1596	1589	1589	1589	1581	1581	1574	1567	1567	1560	1560	1560	1560	1560	1553	1546	1553	1553	1553	1553	1546	1539	1532	1525	1519	1525	1525	1525	1525	1525	1525	1525	1519	1519	1519	1512	1512	1512	1512	1519	1512	1512	1499	1506	1512	1506	1499	1499	1492	1539	1532	1546	1512	1512	1492	1492	1492	1499	1499	1499	1492	1486	1473	1473	1473	1473	1473	0	0	0	0	0	0	0	0	0	0	0	0	0	0	0	0	0	0	0	0	0	0	0	0	0	0	0	0	0	0	0	0	0	0	0	0	0	0	0
0	0	0	0	0	0	0	0	0	0	1287	1287	1291	1296	1301	1301	1301	1301	1301	1301	1301	0	0	0	0	0	0	0	0	0	0	0	0	0	0	0	0	0	0	0	0	0	0	0	0	0	0	1413	1407	1413	1413	1413	0	0	0	0	1431	1431	1425	1419	1407	1413	1413	1413	0	0	0	0	0	0	0	0	0	0	0	0	1396	1396	1390	1390	1390	1385	1385	1385	1407	1413	1413	1413	1419	1419	1419	1419	1413	1419	1419	1419	1419	1425	1431	1431	1437	1443	1443	1443	1449	1455	1461	1467	1467	1467	1473	1473	1473	1480	1486	1486	1492	1499	1499	1512	1525	1539	1539	1546	1553	1560	1574	1574	1581	1581	1589	1603	1618	1626	1634	1641	1641	1657	1657	1673	1681	1690	1698	1706	1715	1732	1732	0	0	0	0	0	0	0	0	0	0	0	0	0	2669	2690	2690	2669	2690	2690	2711	2711	2711	2711	2711	2711	2711	2711	2711	2690	2690	2711	2711	2733	2733	2733	2845	2845	2869	2893	2869	2869	2869	2893	2893	2869	2845	2869	2869	2893	2893	2893	2917	2917	2917	2917	2942	2967	2993	2993	3019	3019	3019	2993	2993	0	0	0	0	0	0	0	0	0	0	0	0	0	0	0	0	0	0	0	0	0	0	6468	6468	6468	6468	6468	6468	6468	6468	6468	6468	6468	6349	6349	6468	6349	6349	6349	6349	6468	6468	6468	6468	6468	6468	6468	6592	6592	6592	6592	6592	6592	6720	6720	6592	6592	6592	6592	6592	6592	4093	4045	4045	4045	4045	3998	3998	3998	3998	3998	3998	3998	3998	3998	3998	3998	3998	3952	3952	3952	3907	3907	3907	3907	3907	3907	3907	3907	3907	3907	3952	3907	3907	3907	3907	3907	3907	3907	3907	3907	3907	3907	3907	3952	3952	3952	3952	3952	3952	3952	3952	3952	3952	3952	3952	3952	3952	3952	3952	3952	3952	3952	3998	3998	3952	3952	3952	3952	3952	3952	3952	3998	3998	0	0	0	0	0	0	8767	8550	8550	8550	8550	8343	8343	8343	8146	8146	8146	8146	8146	8146	7959	7959	7959	7959	7959	7779	7959	8146	8146	7959	7779	7779	6592	6592	6468	6468	6349	6349	6468	6468	6468	6468	6468	6468	6468	6349	6349	6349	6349	6349	6349	6468	6468	6468	6468	6468	6468	6468	6468	6720	6720	6853	6992	6992	7137	7137	7137	7137	6992	6992	6992	6992	6992	6853	6853	6853	6992	7137	7137	7137	7137	6992	6992	6992	6992	6992	7137	7444	7444	7608	7779	7779	8146	8146	8343	7959	8146	8146	8146	8146	8343	8146	8343	8343	0	0	0	0	0	0	0	0	0	0	0	0	0	0	0	0	0	0	0	0	0	0	0	0	0	0	0	0	0	0	0	0	0	0	0	0	0	0	0	0	0	0	0	0	0	0	0	0	0	0	0	0	0	0	0	0	0	0	0	0	0	0	1706	1698	1698	1698	1698	1690	1690	1690	1690	1681	1681	1681	1681	1673	1681	1681	0	0	0	0	0	0	0	0	0	1589	1589	1581	1581	1574	1567	1567	1560	1560	1553	1553	1553	1553	1546	1546	1553	1553	1553	1546	1539	1539	1525	1519	1519	1519	1519	1519	1519	1519	1519	1519	1519	1519	1519	1512	1512	1512	1519	1519	1512	1512	1519	1532	1519	1519	1519	1492	1546	1539	1539	1539	1546	1539	1539	1539	1512	1512	1512	1492	1480	1473	1473	1480	1480	1473	0	0	0	0	0	0	0	0	0	0	0	0	0	0	0	0	0	0	0	0	0	0	0	0	0	0	0	0	0	0	0	0	0	0	0	0	0	0	0
0	0	0	0	0	0	0	0	0	0	0	1287	1291	1296	1296	1301	1296	1296	1296	1301	1301	0	0	0	0	0	0	0	0	0	0	0	0	0	0	0	0	0	0	0	0	0	0	0	0	0	0	1413	1407	1413	1413	1419	1419	0	1431	1431	1431	1431	1425	1413	1407	1413	1413	1413	0	0	0	0	0	0	0	0	0	0	0	0	0	1396	1396	1396	1396	1390	1396	1396	1413	1413	1413	1413	1419	1419	1419	1419	1419	1419	1419	1419	1419	1425	1431	1437	1437	1443	1443	1443	1449	1449	1461	1461	1467	1461	1467	1473	1473	1480	1486	1486	1492	1499	1499	1512	1519	1532	1539	1539	1553	1560	1574	1574	1574	1581	1589	1603	1611	1626	1634	1641	1641	1649	1657	1673	1681	1690	1698	1706	1715	1723	1723	0	0	0	0	0	0	0	0	0	0	0	0	0	2669	2669	2690	2669	2690	2711	2711	2711	2711	2711	2711	2711	2711	2711	2711	2690	2690	2711	2711	2733	2733	2869	2869	2869	2893	2893	2893	2869	2869	2869	2869	2845	2845	2869	2869	2893	2893	2893	2917	2917	2942	2942	2942	2967	2993	2993	3019	3019	3019	3019	3019	0	0	0	0	0	0	0	0	0	0	0	0	0	0	0	0	0	0	0	0	0	0	6468	6468	6468	6468	6468	6468	6468	6468	6468	6468	6468	6349	6349	6468	6349	6349	6349	6349	6468	6468	6468	6468	6468	6468	6468	6592	6592	6592	6592	6592	6720	6720	6720	6592	6592	6592	6592	6592	6592	4093	4045	4045	4045	4045	4045	3998	3998	3998	3998	3998	3998	3998	3998	3998	3998	3998	3952	3952	3952	3952	3907	3952	3907	3907	3907	3907	3907	3952	3952	3907	3952	3952	3907	3907	3907	3907	3907	3907	3907	3907	3907	3907	3952	3952	3952	3952	3952	3952	3952	3952	3952	3952	3952	3952	3952	3952	3952	3952	3952	3952	3952	3952	3952	3952	3952	3952	3952	3952	3952	3952	3952	3952	0	0	0	0	0	0	8767	8550	8550	8550	8343	8343	8146	8146	8146	8146	8146	8146	8146	8146	7959	7959	7959	7959	7959	7779	7959	8146	8146	7959	7779	7779	6720	6592	6592	6468	6468	6349	6468	6468	6468	6468	6592	6468	6468	6349	6349	6349	6349	6349	6468	6468	6468	6468	6468	6468	6468	6468	6468	6720	6720	6853	6992	6992	7137	7137	7137	7137	6992	6992	6992	6992	6992	6992	7137	7137	7137	7137	7137	7137	7137	6992	6992	6992	6992	7137	7287	7287	7779	7779	7779	7779	7779	7959	7959	7959	7959	8146	8343	8343	8343	8343	8343	8343	8343	0	0	0	0	0	0	0	0	0	0	0	0	0	0	0	0	0	0	0	0	0	0	0	0	0	0	0	0	0	0	0	0	0	0	0	0	0	0	0	0	0	0	0	0	0	0	0	0	0	0	0	0	0	0	0	0	0	0	0	0	0	0	1706	1706	1715	1706	1690	1690	1698	1698	1690	1690	1681	1681	1673	1673	1681	0	0	0	0	0	0	0	0	0	0	0	0	0	0	1567	1560	1560	1553	1553	1546	1546	1553	1539	1539	1553	1553	1553	1546	1546	1539	1525	1519	1519	1519	1519	1519	1519	1519	1519	1519	1519	1519	1519	1512	1512	1512	1519	1519	1519	1519	1519	1539	1532	1532	1539	1546	1539	1539	1546	1539	1546	1539	1539	1539	1519	1519	1499	1473	1473	1473	1467	1467	1480	0	0	0	0	0	0	0	0	0	0	0	0	0	0	0	0	0	0	0	0	0	0	0	0	0	0	0	0	0	0	0	0	0	0	0	0	0	0	0	0
0	0	0	0	0	0	0	0	0	0	0	1287	1287	1296	1301	1301	1301	1301	1296	1301	1301	0	0	0	0	0	0	0	0	0	0	0	0	0	0	0	0	0	0	0	0	0	0	0	0	0	0	0	1413	1413	1419	1425	1425	0	1431	1431	1431	1425	1425	1413	1413	1413	1413	1413	0	0	0	0	0	0	0	0	0	0	0	0	0	0	1396	1402	1396	1396	1396	1396	1413	1419	1419	1413	1419	1419	1419	1419	1419	1419	1419	1419	1419	1425	1431	1437	1437	1443	1443	1443	1449	1449	1455	1461	1461	1461	1467	1473	1480	1480	1486	1486	1492	1492	1499	1506	1525	1532	1539	1546	1553	1567	1574	1574	1581	1589	1596	1611	1618	1626	1634	1641	1641	1649	1657	1665	1681	1690	1698	1706	1723	1723	1723	1723	0	0	0	0	0	0	0	0	0	0	0	0	0	2711	2711	2711	2690	2711	2711	2711	2711	2711	2690	2711	2690	2690	2690	2690	2690	2711	2733	2754	2754	2869	2869	2869	2893	2893	2869	2845	2869	2869	2869	2845	2845	2869	2869	2893	2893	2893	2917	2917	2917	2942	2942	2967	2993	3019	3019	3046	3019	3019	3019	0	0	0	0	0	0	0	0	0	0	0	0	0	0	0	0	0	0	0	0	0	0	0	6468	6468	6468	6349	6468	6468	6468	6468	6468	6468	6468	6468	6468	6468	6349	6349	6349	6468	6468	6468	6468	6468	6468	6468	6592	6592	6592	6592	6720	6592	6720	6720	6592	6592	6592	6592	6592	6592	4045	4045	4045	4045	4045	3998	3998	3952	3998	3998	3998	3952	3952	3952	3998	3907	3952	3952	3952	3952	3907	3907	3907	3907	3907	3907	3907	3907	3907	3907	3907	3907	3907	3907	3907	3907	3907	3907	3907	3907	3907	3907	3907	3952	3952	3952	3952	3952	3952	3952	3952	3952	3952	3952	3952	3952	3952	3952	3952	3952	3952	3952	3952	3952	3907	3907	3907	3952	3952	3952	3952	3952	3952	3952	0	0	0	0	0	0	8343	8343	8550	8343	8343	8146	8146	8146	8146	8146	7959	7959	7959	7959	7959	7959	7959	7959	7959	7959	8146	7959	7779	7608	7287	6853	6720	6592	6592	6468	6349	6349	6349	6468	6468	6592	6468	6468	6468	6468	6349	6349	6349	6468	6468	6468	6468	6468	6468	6468	6349	6468	6720	6720	6853	6992	7137	7137	7137	7137	7137	7137	7137	7137	6992	7137	7137	7137	7137	7137	7137	7137	7137	6992	6992	6992	6992	6992	6992	7137	7444	7444	7779	7779	7608	7959	7959	8146	8146	8146	8146	8343	8343	8343	8343	8343	8343	8343	0	0	0	0	0	0	0	0	0	0	0	0	0	0	0	0	0	0	0	0	0	0	0	0	0	0	0	0	0	0	0	0	0	0	0	0	0	0	0	0	0	0	0	0	0	0	0	0	0	0	0	0	0	0	0	0	0	0	0	0	0	0	1706	1706	1715	1706	1706	1690	1698	1698	1690	1690	1681	1690	1690	1673	0	0	0	0	0	0	0	0	0	0	0	0	0	0	0	0	1560	1560	1553	1553	1546	1546	1553	1539	1539	1553	1553	1553	1546	1546	0	0	1512	1519	1519	1519	1519	1519	1512	1519	1519	1519	1519	1519	1512	1519	1519	1525	1525	1525	1519	0	1539	1539	1539	1539	1546	1546	1546	1546	1539	1546	1539	1539	1539	1519	1519	1519	1473	1473	1473	1467	1467	0	0	0	0	0	0	0	0	0	0	0	0	0	0	0	0	0	0	0	0	0	0	0	0	0	0	0	0	0	0	0	0	0	0	0	0	0	0	0	0	0
0	0	0	0	0	0	0	0	0	0	0	1287	1287	1296	1296	1296	1296	1296	1296	1296	1301	0	0	0	0	0	0	0	0	0	0	0	0	0	0	0	0	0	0	0	0	0	0	0	0	0	0	0	1413	1413	1407	1413	1413	0	0	0	0	1425	1425	1413	1413	1419	1419	1419	0	0	0	0	0	0	0	0	0	0	0	0	0	0	0	1402	1396	1407	1396	1419	1425	1425	1419	1419	1425	1419	1419	1419	1419	1419	1419	1419	1419	1425	1425	1431	1437	1443	1449	1449	1449	1455	1461	1461	1461	1467	1473	1473	1480	1486	1492	1492	1492	1492	1499	1519	1525	1539	1546	1546	1553	1567	1581	1581	1589	1596	1603	1611	1618	1626	1634	1641	1641	1649	1649	1665	1681	1690	1698	1706	1732	1732	1732	1741	1741	0	0	0	0	0	0	0	0	0	0	0	0	2711	2711	2711	2690	2711	2711	2711	2690	2711	2690	2690	2690	2690	2690	2690	2690	2711	2711	2711	2711	2893	2893	2893	2893	2869	2869	2845	2845	2845	2869	2845	2845	2845	2869	2893	2893	2893	2917	2917	2917	2942	2942	2942	2967	2993	3019	3019	3019	3019	3019	0	0	0	0	0	0	0	0	0	0	0	0	0	0	0	0	0	0	0	0	0	0	0	6468	6468	6468	6468	6468	6468	6468	6468	6468	6468	6468	6468	6468	6468	6349	6468	6468	6468	6468	6468	6468	6468	6468	6468	6592	6592	6592	6592	6720	6592	6592	6592	6592	6592	6592	6592	6592	6592	6592	4045	4045	4045	3998	3998	3998	3952	3998	3952	3998	3907	3907	3952	3907	3907	3998	3952	3952	3952	3952	3952	3952	3907	3907	3907	3952	3907	3952	3952	3952	3952	3952	3952	3952	3952	3952	3907	3907	3907	3952	3907	3907	3952	3952	3998	3998	3952	3952	3998	3952	3952	3952	3952	3952	3952	3952	3952	3952	3952	3952	3952	3952	3907	3907	3907	3907	3907	3952	3952	3952	3952	3952	3952	0	0	0	0	0	0	8343	8343	8343	8146	8146	8146	8146	8146	8146	8146	8146	8146	8146	7959	7959	7959	7959	7959	7779	7959	7959	7959	7779	7608	7287	6853	6720	6592	6468	6468	6468	6349	6468	6592	6592	6592	6468	6468	6468	6468	6349	6349	6349	6468	6468	6468	6468	6468	6349	6468	6349	6468	6468	6720	6992	7137	7137	7137	7137	7137	7137	7137	7137	7137	7137	7137	7137	7287	7287	7287	7137	7137	7137	7137	6992	6992	6992	6992	7137	7137	7608	7959	7959	7779	7779	8146	8146	8146	8146	8146	8146	8343	8343	8343	8343	8343	8343	8343	0	0	0	0	0	0	0	0	0	0	0	0	0	0	0	0	0	0	0	0	0	0	0	0	0	0	0	0	0	0	0	0	0	0	0	0	0	0	0	0	0	0	0	0	0	0	0	0	0	0	0	0	0	0	0	0	0	0	0	0	0	0	0	0	1715	1706	1706	0	0	1698	1690	1690	1681	1690	1690	0	0	0	0	0	0	0	0	0	0	0	0	0	0	0	0	0	0	0	1553	1553	0	0	0	0	0	0	0	0	0	0	0	0	1512	1519	1519	1519	1519	1519	1512	1512	1519	1512	1519	1512	1512	1519	1519	1519	1525	1525	0	0	0	1553	1546	1546	1546	1539	1539	1539	1539	1539	1539	1539	0	0	1525	1525	0	0	0	0	0	0	0	0	0	0	0	0	0	0	0	0	0	0	0	0	0	0	0	0	0	0	0	0	0	0	0	0	0	0	0	0	0	0	0	0	0	0	0	0	0	0
0	0	0	0	0	0	0	0	0	0	0	1287	1291	1291	1291	1296	1296	1296	1291	1291	0	0	0	0	0	0	0	0	0	0	0	0	0	0	0	0	0	0	0	0	0	0	0	0	0	0	0	0	1413	1413	1407	1413	1413	0	0	0	0	0	0	1413	1413	1419	1419	1419	0	0	0	0	0	0	0	0	0	0	0	0	0	0	0	0	0	1407	1413	1419	1419	1419	1419	1419	1425	1419	1419	1419	1419	1419	1419	1419	1419	1419	1425	1431	1437	1443	1449	1449	1455	1461	1461	1467	1467	1467	1473	1486	1486	1492	1492	1492	1492	1499	1512	1519	1532	1539	1546	1553	1553	1567	1581	1581	1589	1596	1603	1618	1618	1626	1634	1641	1641	1641	1649	1649	1673	1681	1706	1723	1723	1723	1723	1732	1759	1759	0	0	0	0	0	0	0	0	0	0	0	2711	2711	2711	2711	2711	2711	2711	2690	2711	2690	2711	2690	2711	2690	2690	2690	2690	2690	2690	2690	2917	2917	2917	2917	2893	2869	2869	2869	2869	2869	2845	2845	2845	2869	2893	2893	2893	2917	2917	2917	2942	2942	2942	2967	2993	2993	2993	2993	2993	0	0	0	0	0	0	0	0	0	0	0	0	0	0	0	0	0	0	0	0	0	0	0	0	6468	6468	6468	6468	6468	6468	6468	6468	6468	6468	6468	6468	6468	6468	6468	6468	6468	6468	6468	6468	6468	6468	6468	6468	6592	6592	6592	6592	6592	6592	6592	6592	6592	6592	6592	6592	6592	6592	6720	4045	4045	3998	3998	3998	3998	3952	3952	3998	3998	3907	3907	3952	3907	3998	3998	3998	3952	3952	3907	3907	3907	3907	3907	3907	3907	3907	3952	3952	3952	3952	3952	3952	3952	3952	3952	3952	3952	3907	3952	3907	3952	3952	3952	3998	3998	3952	3952	3952	3952	3952	3952	3952	3952	3952	3952	3952	3952	3952	3952	3952	3952	3907	3907	3907	3907	3907	3952	3952	3952	3952	3952	3952	0	0	0	0	0	0	8343	8343	8146	8146	8146	7959	8146	8146	8146	8146	8146	8146	8343	8146	8146	8146	8146	8146	7959	7959	7959	7959	7779	7444	7137	6992	6720	6592	6592	6468	6468	6468	6468	6592	6592	6592	6349	6349	6468	6468	6349	6349	6349	6349	6349	6349	6349	6349	6349	6468	6349	6468	6468	6720	6853	7137	7137	7137	7137	7137	7287	7137	7137	7137	7137	7137	7137	7137	7287	7287	7137	7137	7137	6992	6992	6992	6992	7137	7287	7444	7608	7959	7959	7959	7959	8146	8146	8146	8146	8146	8146	8343	8343	8146	8146	8146	8343	8343	0	0	0	0	0	0	0	0	0	0	0	0	0	0	0	0	0	0	0	0	0	0	0	0	0	0	0	0	0	0	0	0	0	0	0	0	0	0	0	0	0	0	0	0	0	0	0	0	0	0	0	0	0	0	0	0	0	0	0	0	0	0	0	0	0	0	0	0	0	0	0	0	0	0	0	0	0	0	0	0	0	0	0	0	0	0	0	0	0	0	0	0	0	0	0	0	0	0	0	0	0	0	0	0	0	0	0	0	0	1519	1519	1519	1519	1519	1519	1519	1519	1519	1519	1519	1512	1519	1519	1519	0	0	0	0	0	1553	1546	1546	1546	1546	1546	1546	1546	1539	1539	0	0	0	1525	1525	0	0	0	0	0	0	0	0	0	0	0	0	0	0	0	0	0	0	0	0	0	0	0	0	0	0	0	0	0	0	0	0	0	0	0	0	0	0	0	0	0	0	0	0	0	0
0	0	0	0	0	0	0	0	0	0	0	1287	1287	1287	1291	1296	1296	1296	1296	1291	0	0	0	0	0	0	0	0	0	0	0	0	0	0	0	0	0	0	0	0	0	0	0	0	0	0	0	0	0	0	0	0	0	0	0	0	0	0	0	0	0	0	0	0	0	0	0	0	0	0	0	0	0	0	0	0	0	0	0	0	0	0	1419	1419	1425	1425	1425	1425	1425	1425	1419	1425	1419	1419	1419	1419	1419	1425	1425	1431	1437	1443	1449	1449	1455	1461	1461	1467	1467	1467	1473	1486	1492	1499	1492	1492	1492	1512	1519	1525	1532	1539	1546	1553	1553	1560	1574	1581	1581	1589	1603	1618	1618	1618	1618	1634	1634	1634	1641	1665	1673	1690	1698	1715	1723	1723	1715	1723	1750	1750	0	0	0	0	0	0	0	0	0	0	2711	2711	2711	2711	2690	2711	2711	2711	2711	2711	2711	2711	2711	2711	2690	2690	2690	2690	2690	2690	2690	2917	2917	2917	2893	2893	2869	2869	2869	2845	2845	2845	2845	2845	2869	2893	2893	2893	2917	2917	2917	2917	2917	2942	2942	2993	2993	3019	3019	2993	0	0	0	0	0	0	0	0	0	0	0	0	0	0	0	0	0	0	0	0	0	0	0	0	0	6468	6592	6468	6468	6468	6468	6468	6468	6468	6468	6468	6468	6468	6468	6468	6468	6468	6468	6468	6468	6468	6468	6468	6592	6592	6592	6592	6592	6592	6592	6592	6592	6592	6592	6592	6592	6592	6592	4045	4045	3998	3998	3998	3998	3998	3998	3998	3998	3952	3907	3952	3952	3998	3998	3952	3952	3952	3952	3952	3952	3907	3907	3952	3952	3907	3952	3952	3952	3952	3952	3952	3952	3952	3952	3952	3952	3907	3952	3952	3907	3952	3952	3952	3952	3952	3952	3998	3952	3952	3952	3952	3952	3952	3952	3952	3952	3952	3952	3952	3952	3907	3907	3907	3907	3907	3952	3952	3952	3952	3952	0	0	0	0	0	0	0	0	8146	8146	8146	8146	7959	8146	8146	8146	8146	8146	8146	8146	8146	8146	8343	8146	8343	7959	7959	7959	7959	7779	7779	6992	6992	6720	6592	6592	6468	6468	6349	6349	6468	6468	6468	6349	6349	6349	6468	6349	6349	6349	6349	6349	6349	6349	6349	6349	6468	6468	6468	6468	6720	6853	6992	7137	7137	7137	7137	7287	7287	7137	7137	7137	7137	7137	7137	7137	7137	7137	7137	7137	7137	7137	6992	6992	7137	7287	7287	7444	7959	7959	7959	7959	8146	8146	8146	8146	8146	8146	8146	8146	8146	8146	8146	8146	8146	0	0	0	0	0	0	0	0	0	0	0	0	0	0	0	0	0	0	0	0	0	0	0	0	0	0	0	0	0	0	0	0	0	0	0	0	0	0	0	0	0	0	0	0	0	0	0	0	0	0	0	0	0	0	0	0	0	0	0	0	0	0	0	0	0	0	0	0	0	0	0	0	0	0	0	0	0	0	0	0	0	0	0	0	0	0	0	0	0	0	0	0	0	0	0	0	0	0	0	0	0	0	0	0	0	0	0	0	0	1519	1519	1519	1525	1519	1519	1519	1519	1519	1519	1519	1519	1519	1519	0	0	0	0	0	0	0	1546	1546	1546	1567	1567	1574	1574	1574	1574	0	0	0	0	0	0	0	0	0	0	0	0	0	0	0	0	0	0	0	0	0	0	0	0	0	0	0	0	0	0	0	0	0	0	0	0	0	0	0	0	0	0	0	0	0	0	0	0	0	0	0
0	0	0	0	0	0	0	0	0	0	0	1287	1287	1287	1291	1291	1291	1291	1291	0	0	0	0	0	0	0	0	0	0	0	0	0	0	0	0	0	0	0	0	0	0	0	0	0	0	0	0	0	0	0	0	0	0	0	0	0	0	0	0	0	0	0	0	0	0	0	0	0	0	0	0	0	0	0	0	0	0	0	0	0	0	0	1419	1419	1419	1425	1419	1419	1425	1425	1425	1425	1425	1425	1425	1425	1425	1425	1431	1437	1443	1443	1449	1449	1455	1461	1467	1473	1473	1480	1486	1492	1499	1506	1506	1506	1506	1512	1519	1525	1532	1539	1546	1553	1553	1567	1574	1581	1589	1596	1603	1603	1611	1618	1618	1626	1634	1641	1649	1665	1681	1690	1698	1715	1723	1723	1723	1732	1750	1750	0	0	0	0	0	0	0	0	0	0	2711	2711	2711	2711	2690	2690	2711	2690	2711	2711	2690	2711	2711	2711	2690	2690	2669	2690	2690	2690	2690	2917	2917	2893	2893	2869	2869	2869	2869	2845	2845	2845	2845	2845	2845	2845	2893	2893	2917	2917	2942	2942	2942	2942	2942	2942	2993	3019	3019	0	0	0	0	0	0	0	0	0	0	0	0	0	0	0	0	0	0	0	0	0	0	0	0	0	0	6468	6592	6592	6468	6468	6468	6468	6468	6468	6468	6468	6468	6468	6468	6468	6468	6468	6468	6468	6468	6468	6468	6468	6468	6592	6592	6592	6592	6592	6592	6592	6592	6592	6592	6720	6720	6720	6720	3998	3998	3998	3998	3998	3952	3952	3952	3952	3952	3907	3907	3952	3998	3998	3952	3952	3952	3952	3952	3952	3952	3907	3952	3952	3952	3952	3952	3952	3952	3952	3952	3952	3907	3952	3907	3907	3907	3907	3952	3952	3907	3952	3952	3952	3998	3952	3952	3952	3952	3952	3952	3952	3952	3952	3952	3952	3952	3952	3952	3952	3952	3907	3907	3907	3907	3907	3907	3907	3907	3907	3952	0	0	0	0	0	0	0	8343	8146	8146	8146	8146	7959	7959	8146	8146	8146	8146	8146	8146	8146	8146	8146	8146	8146	8146	8146	7779	7959	7779	7287	6853	6853	6592	6468	6468	6468	6468	6349	6349	6349	6468	6468	6349	6349	6349	6468	6349	6349	6349	6349	6349	6349	6349	6349	6349	6468	6468	6468	6468	6592	6853	6992	7137	7137	7137	7137	7287	7287	7137	7137	7137	7137	7137	7137	7137	7137	7137	7137	7137	6992	6992	6992	6992	6992	7137	7287	7444	7959	7959	7959	7959	8146	8146	8146	8146	8146	8146	8146	8146	8146	8146	8146	8146	8146	0	0	0	0	0	0	0	0	0	0	0	0	0	0	0	0	0	0	0	0	0	0	0	0	0	0	0	0	0	0	0	0	0	0	0	0	0	0	0	0	0	0	0	0	0	0	0	0	0	0	0	0	0	0	0	0	0	0	0	0	0	0	0	0	0	0	0	0	0	0	0	0	0	0	0	0	0	0	0	0	0	0	0	0	0	0	0	0	0	0	0	0	0	0	0	0	0	0	0	0	0	0	0	0	0	0	0	0	0	0	0	0	1519	1519	1512	1519	1519	1519	1519	1519	1519	1519	1519	0	0	0	0	0	0	0	1546	1546	1574	1574	1574	1574	1581	1581	1581	0	0	0	0	0	0	0	0	0	0	0	0	0	0	0	0	0	0	0	0	0	0	0	0	0	0	0	0	0	0	0	0	0	0	0	0	0	0	0	0	0	0	0	0	0	0	0	0	0	0	0
0	0	0	0	0	0	0	0	0	0	0	1287	1287	1287	1291	1291	1291	1287	1287	0	0	0	0	0	0	0	0	0	0	0	0	0	0	0	0	0	0	0	0	0	0	0	0	0	0	0	0	0	0	0	0	0	0	0	0	0	0	0	0	0	0	0	0	0	0	0	0	0	0	0	0	0	0	0	0	0	0	0	0	0	0	0	0	1419	1425	1425	1419	1425	1425	1425	1425	1425	1419	1419	1425	1419	1419	1425	1431	1437	1443	1443	1449	1449	1455	1461	1467	1480	1486	1486	1492	1492	1499	1512	1506	1512	1512	1519	1525	1525	1539	1539	1546	1553	1553	1560	1560	1581	1589	1596	1603	1611	1611	1618	1618	1626	1634	1634	1649	1665	1681	1690	1698	1715	1723	1723	1741	1732	1759	1759	1759	0	0	0	0	0	0	0	0	0	2733	2711	2711	2711	2690	2711	2711	2711	2711	2711	2690	2711	2711	2690	2690	2690	2669	2690	2690	0	0	0	2917	2893	2893	2869	2869	2869	2869	2845	2845	2845	2845	2845	2845	2893	2917	2917	2917	2917	2942	2917	2917	2942	2942	2942	0	0	0	0	0	0	0	0	0	0	0	0	0	0	0	0	0	0	0	0	0	0	0	0	0	0	0	0	0	0	0	6592	6468	6468	6468	6468	6468	6468	6468	6468	6468	6468	6468	6468	6468	6468	6468	6468	6468	6468	6468	6468	6592	6592	6592	6592	6592	6592	6592	6592	6592	6592	6592	6720	6720	6720	6720	6720	3907	3907	3952	3952	3952	3952	3952	3864	3864	3907	3907	3907	3907	3952	3952	3952	3952	3952	3952	3952	3952	3952	3952	3952	3952	3907	3907	3907	3907	3907	3907	3907	3907	3907	3907	3952	3952	3952	3952	3952	3952	3952	3952	3952	3998	3952	3952	3952	3952	3952	3952	3952	3952	3952	3952	3952	3952	3952	3952	3952	3952	3907	3907	3907	3907	3907	3907	3907	3907	3907	0	0	0	0	0	0	0	0	8343	8343	8146	8146	8146	8146	8146	7959	7959	7959	7959	7959	8146	8146	8146	8146	8146	8146	8146	7959	7779	7959	7779	7779	6853	6853	6468	6349	6349	6468	6349	6349	6349	6349	6349	6468	6349	6349	6349	6468	6349	6349	6349	6349	6349	6349	6349	6349	6349	6468	6468	6468	6592	6720	6992	7137	7137	7137	7287	7137	7137	7287	7137	7137	7137	7137	6992	7137	7137	7137	7137	7137	6992	6992	6992	6992	6992	6992	6992	7137	7287	7779	7959	7959	7959	8146	8146	8146	8146	8146	8146	8146	8146	8146	8146	7959	7959	8146	8146	0	0	0	0	0	0	0	0	0	0	0	0	0	0	0	0	0	0	0	0	0	0	0	0	0	0	0	0	0	0	0	0	0	0	0	0	0	0	0	0	0	0	0	0	0	0	0	0	0	0	0	0	0	0	0	0	0	0	0	0	0	0	0	0	0	0	0	0	0	0	0	0	0	0	0	0	0	0	0	0	0	0	0	0	0	0	0	0	1873	1873	1873	0	0	0	0	0	0	0	0	0	0	0	0	0	0	0	0	0	0	0	0	1519	1512	1512	1512	1512	1519	1512	1519	1519	1519	0	0	0	0	0	0	0	0	0	0	1574	1634	1581	1581	1553	1581	1589	1589	0	0	0	0	0	0	0	0	0	0	0	0	0	0	0	0	0	0	0	0	0	0	0	0	0	0	0	0	0	0	0	0	0	0	0	0	0	0	0	0	0	0	0	0	0	0	0	0	0	0
0	0	0	0	0	0	0	0	0	0	0	1287	1287	1287	1287	1287	1301	1301	1287	0	0	0	0	0	0	0	0	0	0	0	0	0	0	0	0	0	0	0	0	0	0	0	0	0	0	0	0	0	0	0	0	0	0	0	0	0	0	0	0	0	0	0	0	0	0	0	0	0	0	0	0	0	0	0	0	0	0	0	0	0	0	0	0	0	1425	1425	1419	1431	1425	1425	1425	1425	1419	1425	1425	1419	1419	1425	1431	1437	1443	1443	1455	1455	1461	1467	1473	1480	1486	1492	1492	1499	1506	1512	1512	1512	1512	1519	1519	1532	1532	1546	1553	1560	1560	1567	1567	1581	1589	1596	1603	1611	1618	1618	1618	1626	1634	1634	1641	1665	1681	1681	1698	1715	1723	1723	1741	1759	1759	1759	1759	0	0	0	0	0	0	0	0	0	2733	2733	2711	2711	2690	2690	2711	2711	2711	2711	2711	2711	2711	2711	2690	2690	2690	2669	2690	2690	0	0	2917	2893	2893	2869	2869	2869	2869	2869	2845	2845	2845	2845	2845	2893	2917	2917	2917	2917	2917	2917	2917	2942	2942	2942	0	0	0	0	0	0	0	0	0	0	0	0	0	0	0	0	0	0	0	0	0	0	0	0	0	0	0	0	0	0	0	0	6468	6468	6468	6468	6468	6468	6468	6468	6468	6468	6468	6468	6468	6468	6468	6468	6468	6468	6468	6468	6592	6592	6592	6592	6592	6592	6592	6592	6592	6720	6592	6720	6720	6720	6720	6720	3907	3907	3907	3907	3907	3952	3952	3952	3952	3907	3907	3952	3952	3952	3952	3952	3952	3952	3952	3952	3952	3952	3952	3952	3952	3907	3907	3907	3907	3907	3907	3907	3907	3952	3907	3907	3907	3952	3952	3952	3907	3952	3952	3952	3952	3952	3952	3952	3952	3952	3952	3952	3952	3952	3952	3952	3952	3952	3952	3952	3952	3952	3952	3907	3907	3907	3907	3907	3907	0	0	0	0	0	0	0	0	0	8343	8343	8146	8146	8146	8146	8146	7959	7959	8146	8146	8146	8146	8146	8146	8146	8146	8146	8146	7959	7959	7779	7959	7959	6992	6853	6592	6468	6349	6468	6349	6349	6349	6349	6468	6468	6349	6349	6468	6468	6349	6349	6349	6349	6349	6349	6349	6349	6349	6468	6468	6468	6468	6720	6720	7137	7137	7137	7287	7287	7287	7137	7137	7137	7137	7137	6992	6992	6992	6992	6992	6992	6992	6992	6853	6992	6992	6992	7137	7137	7287	7444	7959	7959	7959	8146	8146	8146	8146	8146	8146	8146	8146	8146	7959	7959	7959	8146	8146	8146	8146	0	0	0	0	0	0	0	0	0	0	0	0	0	0	0	0	0	0	0	0	0	0	0	0	0	0	0	0	0	0	0	0	0	0	0	0	0	0	0	0	0	0	0	0	0	0	0	0	0	0	0	0	0	0	0	0	0	0	0	0	0	0	0	0	0	0	0	0	0	0	0	0	0	0	0	0	0	0	0	0	0	0	0	0	0	0	1873	1873	1873	1873	0	0	1863	1863	1863	0	0	0	0	0	0	0	0	0	0	0	0	0	0	0	1512	1506	1512	1512	1519	1519	1512	1512	0	0	0	0	0	0	0	0	0	0	1665	1657	1634	1626	1618	1589	1596	1596	1581	1581	0	0	0	0	0	0	0	0	0	0	0	0	0	0	0	0	0	0	0	0	0	0	0	0	0	0	0	0	0	0	0	0	0	0	0	0	0	0	0	0	0	0	0	0	0	0	0	0	0
0	0	0	0	0	0	0	0	0	0	0	1287	1287	1282	1287	1296	1296	1301	1301	0	0	0	0	0	0	0	0	0	0	0	0	0	0	0	0	0	0	0	0	0	0	0	0	0	0	0	0	0	0	0	0	0	0	0	0	0	0	0	0	0	0	0	0	0	0	0	0	0	0	0	0	0	0	0	0	0	0	0	0	0	0	0	0	0	0	0	0	1431	1431	1425	1425	1431	1425	1425	1425	1425	1431	1431	1437	1437	1443	1449	1467	1467	1467	1480	1486	1486	1492	1492	1499	1506	1506	1512	1512	1512	1519	1525	1539	1539	1546	1546	1553	1560	1560	1567	1567	1581	1589	1596	1603	1611	1611	1618	1618	1634	1634	1641	1649	1665	1673	1681	1698	1723	1723	1732	1750	1759	1768	1768	1777	1777	0	0	0	0	0	0	0	2711	2733	2711	2711	2711	2690	2690	2711	2711	2711	2711	2690	2711	2711	2690	2690	2690	2669	2669	2690	2690	0	0	0	0	2893	2869	2869	2893	2869	2869	2845	2845	2845	2822	2845	2869	2893	2917	2917	2917	2917	2917	2917	2942	2942	0	0	0	0	0	0	0	0	0	0	0	0	0	0	0	0	0	0	0	0	0	0	0	0	0	0	0	0	0	0	0	0	0	6592	6468	6468	6468	6468	6468	6468	6468	6468	6468	6468	6468	6468	6468	6468	6468	6468	6468	6468	6468	6592	6592	6592	6592	6592	6592	6592	6592	6592	6720	6720	6720	6592	6592	6592	6592	6592	3907	3907	3907	3907	3952	3952	3952	6468	6468	6468	3952	3952	3952	3952	3952	3952	3952	3952	3952	3952	3952	3952	3907	3907	3907	3907	3907	3907	3907	3907	3907	3907	3952	3952	3952	3952	3952	3952	3907	3952	3952	3952	3952	3998	3952	3952	3952	3952	3952	3952	3952	3952	3952	3952	3952	3952	3952	3952	3952	3952	3952	3952	3907	3952	3907	3907	3907	3907	0	0	0	0	0	0	0	0	0	8343	8343	8146	8146	8146	8146	7959	7959	7959	8146	8146	8146	8146	8146	8146	8146	8146	8146	8146	7959	7959	7959	7779	7779	7137	6853	6592	6468	6468	6468	6468	6349	6349	6468	6468	6468	6349	6349	6468	6468	6468	6349	6349	6349	6349	6349	6349	6349	6349	6349	6349	6468	6468	6720	7137	7137	7287	7287	7287	7137	7287	7137	7137	7137	7137	6992	6992	6992	6992	6992	6992	6992	6992	6992	6853	6853	6992	6992	7137	7287	7444	7444	7959	7959	7959	8146	8146	8146	8146	8146	8146	8146	8146	8146	8146	7959	8146	8146	8146	8146	8146	8343	8343	0	0	0	0	0	0	0	0	0	0	0	0	0	0	0	0	0	0	0	0	0	0	0	0	0	0	0	0	0	0	0	0	0	0	0	0	0	0	0	0	0	0	0	0	0	0	0	0	0	0	0	0	0	0	0	0	0	0	0	0	0	0	0	0	0	0	0	0	0	0	0	0	0	0	0	0	0	0	0	0	0	1873	1873	1873	1873	1873	1873	1863	1863	1863	1863	1863	1863	1853	1863	1863	1863	0	0	0	0	0	0	0	0	1873	1863	1863	1873	1863	1512	1512	1519	1512	1512	1512	0	0	0	0	0	0	0	0	0	0	1657	1657	1634	1626	1626	1618	1611	1603	1596	1596	0	0	0	0	0	0	0	0	0	0	0	0	0	0	0	0	0	0	0	0	0	0	0	0	0	0	0	0	0	0	0	0	0	0	0	0	0	0	0	0	0	0	0	0	0	0	0	0	0
0	0	0	0	0	0	0	0	0	0	0	1287	1287	1287	1287	1287	1296	1301	1301	0	0	0	0	0	0	0	0	0	0	0	0	0	0	0	0	0	0	0	0	0	0	0	0	0	0	0	0	0	0	0	0	0	0	0	0	0	0	0	0	0	0	0	0	0	0	0	0	0	0	0	0	0	0	0	0	0	0	0	0	0	0	0	0	0	0	0	0	0	1431	1431	1425	1437	1419	1431	1431	1431	1431	1437	1437	1443	1443	1449	1473	1480	1480	1486	1486	1492	1492	1499	1506	1512	1512	1512	1512	1519	1519	1532	1532	1532	1539	1546	1553	1560	1567	1567	1574	1581	1589	1596	1596	1611	1611	1618	1618	1626	1634	1641	1641	1665	1673	1681	1698	1715	1741	1732	1759	1768	1768	1768	1777	1777	1777	0	0	0	0	0	0	2690	2733	2711	2711	2711	2690	2690	2711	2711	2711	2711	2711	2711	2711	2711	2690	2690	2690	2690	2690	2690	0	0	0	0	0	0	2893	2893	2869	2869	2845	2845	2845	2822	2845	2893	2917	2917	2917	2917	2917	2917	2917	2917	2942	0	0	0	0	0	0	0	0	0	0	0	0	0	0	0	0	0	0	0	0	0	0	0	0	0	0	0	0	0	0	0	0	0	6592	6592	6468	6468	6468	6468	6468	6468	6468	6468	6468	6468	6468	6468	6468	6468	6468	6468	6468	6468	6592	6592	6592	6592	6592	6592	6592	6592	6592	6720	6720	6720	6720	6592	6592	6592	6592	6468	6468	3907	3907	3952	3952	6592	6468	6592	6592	4045	4045	3952	3952	3952	3952	3952	3952	3952	3952	3952	3952	3952	3952	3907	3907	3907	3907	3907	3907	3907	3907	3952	3952	3952	3952	3952	3907	3907	3952	3952	3952	3952	3952	3998	3952	3952	3952	3952	3952	3952	3952	3952	3952	3952	3952	3952	3952	3952	3952	3952	3952	3952	3952	3952	3952	0	0	0	0	0	0	0	0	0	0	0	8343	8343	8146	7959	7959	7959	7959	7959	7959	8146	8146	8146	8146	8146	8146	8146	7959	8146	8146	8146	7959	7959	7959	7779	7779	6720	6592	6468	6468	6468	6468	6349	6468	6468	6468	6468	6468	6349	6468	6592	6468	6468	6349	6349	6349	6349	6349	6349	6349	6349	6468	6468	6468	6720	7137	7137	7287	7287	7287	7287	7137	7137	7137	6992	6992	6992	6992	6992	6992	6992	6992	6992	6853	6853	6853	6853	6853	6992	6992	7137	7287	7444	7779	7959	7959	8146	8146	8146	8146	8146	8146	8146	8146	8146	8146	8146	7959	7959	7959	8146	8146	8146	8343	8343	0	0	0	0	0	0	0	0	0	0	0	0	0	0	0	0	0	0	0	0	0	0	0	0	0	0	0	0	0	0	0	0	0	0	0	0	0	0	0	0	0	0	0	0	0	0	0	0	0	0	0	0	0	0	0	3246	3277	3277	0	0	0	0	0	0	0	0	0	0	0	0	0	0	0	0	0	0	0	0	0	0	1873	1863	1863	1863	1863	1863	1863	1863	1863	1863	1863	1863	1863	1863	1863	1863	1873	1873	1883	1873	1873	0	1873	1863	1863	1863	1863	1873	1863	1473	1486	1512	1492	1492	1492	0	0	0	0	0	0	0	0	0	1665	1657	1657	1649	1641	1634	1626	1618	1603	1596	1596	0	0	0	0	0	0	0	0	0	0	0	0	0	0	0	0	0	0	0	0	0	0	0	0	0	0	0	0	0	0	0	0	0	0	0	0	0	0	0	0	0	0	0	0	0	0	0	0	0
0	0	0	0	0	0	0	0	0	0	0	1287	1287	1287	1287	1287	1287	1287	1301	0	0	0	0	0	0	0	0	0	0	0	0	0	0	0	0	0	0	0	0	0	0	0	0	0	0	0	0	0	0	0	0	0	0	0	0	0	0	0	0	0	0	0	0	0	0	0	0	0	0	0	0	0	0	0	0	0	0	0	0	0	0	0	0	0	0	0	0	0	0	1431	1425	1425	1419	1431	1437	1431	1431	1437	1443	1443	1443	1443	1480	1480	1480	1486	1499	1499	1506	1506	1506	1512	1519	1512	1512	1519	1532	1532	1539	1532	1546	1553	1553	1567	1567	1574	1574	1581	1589	1589	1596	1611	1611	1618	1626	1634	1641	1641	1649	1665	1673	1681	1698	1715	1759	1759	1768	1768	1768	1768	1777	1777	1777	0	0	0	0	2799	2711	2711	2733	2711	2690	2711	2690	2690	2711	2711	2711	2711	2711	2711	2711	2711	2690	2690	2690	2690	2690	2690	0	0	0	0	0	0	2893	2893	2869	2869	2845	2845	2845	2822	2845	2893	2893	2893	2917	2893	2893	2893	2893	2917	0	0	0	0	0	0	0	0	0	0	0	0	0	0	0	0	0	0	0	0	0	0	0	0	0	0	0	0	0	0	0	0	0	0	0	6592	6468	6468	6468	6468	6468	6468	6468	6468	6468	6468	6468	6468	6468	6468	6468	6468	6468	6468	6592	6592	6592	6592	6592	6592	6592	6592	6592	6592	6592	6720	6592	6592	6592	6592	6592	6592	6592	6592	6592	6720	6592	6592	6592	6592	6592	4045	4045	3998	3998	3952	3952	3952	3952	3998	3998	3952	3907	3952	3952	3952	3907	3907	3907	3907	3907	3907	3907	3952	3952	3952	3952	3907	3907	3907	3952	3952	3952	3952	3952	3952	3952	3952	3952	3952	3952	3952	3952	3952	3952	3952	3952	3952	3952	3952	3952	3952	3952	3952	3998	3998	3952	0	0	0	0	0	0	0	0	0	0	0	8343	8146	7959	7959	7959	8146	7959	8146	8146	8146	8146	8146	7959	7959	7959	7959	7959	7959	7959	7959	7959	7959	7959	7959	7959	7959	6592	6468	6468	6468	6468	6349	6349	6349	6349	6349	6349	6349	6468	6468	6468	6468	6349	6349	6468	6468	6349	6349	6349	6349	6349	6349	6349	6468	7137	7287	7287	7287	7287	7287	7287	7137	7137	7137	7137	7137	6992	6992	6992	6992	6992	6992	6853	6853	6853	6853	6853	6853	6992	6992	7137	7287	7779	7959	7959	8146	8146	8146	8146	8146	8146	7959	7959	8146	7959	7959	7959	7959	8146	8146	8146	8146	8146	8343	0	0	0	0	0	0	0	0	0	0	0	0	0	0	0	0	0	0	0	0	0	0	0	0	0	0	0	0	0	0	0	0	0	0	0	0	0	0	0	0	0	0	0	0	0	0	0	0	0	0	0	0	0	0	0	3246	3277	3277	3277	0	0	0	0	0	0	0	0	0	0	0	0	0	0	0	0	0	0	0	0	1873	1873	1863	1863	1863	1863	1863	1863	1863	1863	1863	1863	1863	1863	1863	1863	1863	1873	1873	1873	1873	1873	1873	1863	1863	1873	1873	1873	1873	1873	1873	1873	1863	1486	1486	1492	1863	1863	1863	0	0	0	0	0	0	1665	1657	1657	1649	1641	1634	1634	1626	1611	1603	1603	0	0	0	0	0	0	0	0	0	0	0	0	0	0	0	0	0	0	0	0	0	0	0	0	0	0	0	0	0	0	0	0	0	0	0	0	0	0	0	0	0	0	0	0	0	0	0	0	0
0	0	0	0	0	0	0	0	0	0	0	1287	1287	1287	1287	1291	1296	1296	0	0	0	0	0	0	0	0	0	0	0	0	0	0	0	0	0	0	0	0	0	0	0	0	0	0	0	0	0	0	0	0	0	0	0	0	0	0	0	0	0	0	0	0	0	0	0	0	0	0	0	0	0	0	0	0	0	0	0	0	0	0	0	0	0	0	0	0	0	0	0	0	0	1425	1419	1431	1437	1431	1431	0	1443	1443	1443	1443	1480	1480	1486	1486	1492	1506	1506	1506	1512	1519	1519	1519	1519	1525	1532	1539	1539	1546	1546	1560	1560	1567	1574	1574	1581	1581	1589	1596	1603	1611	1618	1626	1634	1634	1641	1649	1657	1657	1665	1673	1706	1715	1759	1759	1768	1768	1768	1768	1768	1768	0	0	0	0	0	2799	2711	2754	2733	2711	2690	2690	2690	2690	2690	2711	2711	2690	2690	2690	2690	2690	2690	2690	2690	2690	2690	0	0	0	0	0	0	0	2893	2893	2869	2869	2845	2845	2845	2822	2822	2869	2893	2893	2893	2893	2893	2893	2893	0	0	0	0	0	0	0	0	0	0	0	0	0	0	0	0	0	0	0	0	0	0	0	0	0	0	0	0	0	0	0	0	0	0	0	0	0	0	6468	6468	6468	6468	6468	6468	6468	6468	6468	6468	6468	6468	6468	6468	6468	6468	6468	6468	6592	6592	6592	6592	6592	6592	6592	6592	6592	6592	6720	6592	6592	6592	6592	6592	6592	6592	6592	6720	6720	6592	6468	6468	6468	6592	4045	3998	3998	3998	3998	3998	3952	3998	3998	3998	3998	3952	3952	3952	3907	3907	3907	3907	3907	3907	3907	3907	3952	3952	3952	3952	3907	3907	3907	3907	3907	3952	3952	3952	3952	3952	3952	3952	3952	3952	3952	3952	3952	3952	3952	3952	3952	3952	3952	3952	3952	3952	3952	3998	3998	0	0	0	0	0	0	0	0	0	0	0	0	8343	8146	7959	7959	7959	8146	8146	8146	8146	8146	8146	8146	7959	7959	7959	7959	7959	7959	7959	7959	7959	7959	7959	7959	7959	7959	6592	6468	6468	6349	6349	6349	6349	6349	6349	6349	6349	6349	6349	6468	6468	6468	6468	6468	6468	6349	6349	6349	6349	6349	6349	6349	6349	6468	7137	7287	7287	7287	7287	7137	7137	7137	6992	6992	6992	6992	6992	6992	6992	6992	6853	6992	6853	6853	6853	6853	6853	6853	6992	6992	7137	7287	7444	7779	7779	8146	7959	7959	7959	7959	8146	8146	8146	8146	8146	8146	8146	8146	8146	8146	8146	8146	8146	8146	0	0	0	0	0	0	0	0	0	0	0	0	0	0	0	0	0	0	0	0	0	0	0	0	0	0	0	0	0	0	0	0	0	0	0	0	0	0	0	0	0	0	0	0	0	0	0	0	0	0	0	0	0	0	0	3246	3277	3277	3277	3216	3186	3186	3186	0	0	3246	3246	3246	0	0	0	0	0	0	0	0	0	0	0	1873	1863	1863	1863	1863	1863	1863	1863	1863	1863	1863	1863	1863	1863	1863	1863	1863	1873	1873	1873	1873	1863	1863	1863	1863	1863	1873	1873	1873	1873	1863	1873	1863	1853	1853	1853	1863	1863	1863	1863	1863	0	1863	1873	1873	1863	1853	1843	1843	1649	1649	1649	1649	1611	1603	1603	0	0	0	0	0	0	0	0	0	0	0	0	0	0	0	0	0	0	0	0	0	0	0	0	0	0	0	0	0	0	0	0	0	0	0	0	0	0	0	0	0	0	0	0	0	0	0	0	0
0	0	0	0	0	0	0	0	0	0	0	1287	1287	1287	1291	1296	1296	1296	1301	1301	0	0	0	0	0	0	0	0	0	0	0	0	0	0	0	0	0	0	0	0	0	0	0	0	0	0	0	0	0	0	0	0	0	0	0	0	0	0	0	0	0	0	0	0	0	0	0	0	0	0	0	0	0	0	0	0	0	0	0	0	0	0	0	0	0	0	0	0	0	0	0	0	0	0	0	0	0	0	0	0	0	0	0	0	1486	1486	1486	1519	1506	1512	1512	1519	1519	1512	1519	1532	1539	1539	1546	1546	1546	1560	1560	1567	1581	1581	1581	1589	1596	1596	1603	1618	1634	1634	1641	1641	1649	1649	1657	1665	1665	1681	1706	1750	1759	1759	1768	1768	1768	1768	1768	1768	1768	0	0	0	0	0	0	2711	2711	2711	2690	2711	2711	2690	2690	2690	2690	2690	2690	2690	2690	2690	2711	2690	2690	2711	2711	2711	0	0	0	0	0	2893	2893	2893	2869	2869	2845	2845	2845	2845	2822	2869	2893	2893	2893	2869	2869	2869	2893	0	0	0	0	0	0	0	0	0	0	0	0	0	0	0	0	0	0	0	0	0	0	0	0	0	0	0	0	0	0	0	0	0	0	0	0	0	0	0	6468	6468	6468	6468	6468	6468	6468	6468	6468	6468	6468	6468	6468	6468	6349	6349	6468	6468	6468	6468	6468	6592	6592	6592	6592	6592	6592	6720	6592	6592	6592	6592	6592	6468	6468	6468	6468	6592	6468	6349	6349	6349	6349	3998	3998	3998	3998	3998	3952	3952	3952	3998	3998	3952	3952	3952	3952	3907	3907	3907	3907	3907	3907	3907	3952	3952	3952	3952	3952	3952	3907	3907	3952	3907	3998	3998	3998	3998	3952	3952	3952	3952	3952	3952	3952	3952	3952	3952	3952	3952	3952	3952	3952	3952	3952	3952	0	0	0	0	0	0	0	0	0	0	0	0	0	0	8343	8146	7959	7959	7959	8146	8146	8146	8146	8146	8146	8146	7959	7959	7959	7959	7959	7959	7959	7959	7959	7959	7959	7959	7959	7779	6468	6468	6468	6468	6349	6349	6349	6349	6349	6349	6349	6349	6468	6468	6468	6349	6349	6349	6349	6349	6349	6349	6349	6349	6349	6349	6349	6349	7137	7287	7287	7287	7287	7137	7137	7137	7137	6992	6992	6992	6992	6992	6853	6992	6853	6992	6853	6853	6853	6853	6853	6853	6853	6992	7137	7287	7287	7287	7779	7779	7959	7959	7959	7959	8146	8146	8146	8146	8146	8146	8146	8146	8146	7959	8146	8146	8146	8146	0	0	0	0	0	0	0	0	0	0	0	0	0	0	0	0	0	0	0	0	0	0	0	0	0	0	0	0	0	0	0	0	0	0	0	0	0	0	0	0	0	0	0	0	0	0	0	0	0	0	0	0	0	0	0	3246	3277	3277	3246	3186	3186	3186	3186	3216	3216	3216	3216	3216	3216	0	0	0	0	0	0	0	0	0	0	0	1863	1863	1863	1863	1863	1863	1863	1863	1863	1873	1863	1863	1863	1863	1863	1863	1873	1873	1873	1873	1873	1873	1863	1863	1863	1863	1873	1873	1873	1863	1863	1863	1853	1853	1853	1863	1863	1853	1853	1853	1863	1863	1853	1873	1843	1843	1843	1843	1833	1649	1649	1649	0	0	0	0	0	0	0	0	0	0	0	0	0	0	0	0	0	0	0	0	0	0	0	0	0	0	0	0	0	0	0	0	0	0	0	0	0	0	0	0	0	0	0	0	0	0	0	0	0	0	0	0
0	0	0	0	0	0	0	0	0	0	0	1291	1291	1291	1291	1296	1301	1296	1296	1301	0	0	0	0	0	0	0	0	0	0	0	0	0	0	0	0	0	0	0	0	0	0	0	0	0	0	0	0	0	0	0	0	0	0	0	0	0	0	0	0	0	0	0	0	0	0	0	0	0	0	0	0	0	0	0	0	0	0	0	0	0	0	0	0	0	0	0	0	0	0	0	0	0	0	0	0	0	0	0	0	0	0	0	0	1486	1486	1486	1532	1525	1519	1519	1519	1519	1519	1525	1539	1539	1539	1546	1546	1546	1560	1567	1574	1581	1581	1581	1581	1589	1589	1611	1611	1626	1634	1641	1649	1649	1649	1657	1665	1673	1681	1706	1741	1750	1759	1759	1768	1768	1768	1768	1768	1768	0	0	0	0	0	0	2711	2711	2711	2690	2711	2711	2690	2690	2690	2690	2690	2690	2690	2690	2711	2711	2690	2711	2711	2711	2711	2711	0	0	0	0	2893	2893	2893	2893	2869	2845	2845	2845	2845	2822	2845	2869	2869	2869	2845	2845	2869	2869	0	0	0	0	0	0	0	0	0	0	0	0	0	0	0	0	0	0	0	0	0	0	0	0	0	0	0	0	0	0	0	0	0	0	0	0	0	0	0	6468	6468	6468	6468	6468	6468	6468	6468	6468	6468	6468	6468	6468	6468	6349	6349	6468	6468	6468	6468	6592	6592	6592	6592	6592	6592	6592	6592	6592	6468	6468	6468	6468	6468	6468	6349	6349	6235	6349	6235	6349	6235	6235	3998	3998	3998	3998	3998	3952	3952	3907	3998	3952	3952	3952	3952	3952	3907	3907	3907	3907	3907	3952	3952	3952	3952	3952	3952	3952	3952	3952	3907	3952	3952	3998	3998	3998	3998	3952	3952	3952	3952	3952	3907	3952	3952	3952	3952	3952	3952	3952	3952	3952	3998	3998	3952	0	0	0	0	0	0	0	0	0	0	0	0	0	8343	8146	8146	7959	7959	7959	8146	8146	8146	8146	8146	8146	8146	7959	7959	7959	7959	7959	7959	7959	7959	7959	7959	7959	7959	7779	7779	7779	6468	6468	6468	6468	6349	6349	6349	6349	6349	6349	6349	6468	6468	6468	6468	6468	6349	6468	6349	6349	6349	6349	6349	6468	6468	6349	6349	7137	7287	7287	7287	7137	7137	7137	7137	6992	6853	6853	6992	6992	6992	6992	6992	6992	6853	6853	6853	6853	6853	6853	6853	6853	6992	6992	7137	7287	7779	7779	8146	7959	7959	7959	8146	8146	8146	8146	8146	8146	8146	8146	8146	8146	8146	8146	8146	8146	0	0	0	0	0	0	0	0	0	0	0	0	0	0	0	0	0	0	0	0	0	0	0	0	0	0	0	0	0	0	0	0	0	0	0	0	0	0	0	0	0	0	0	0	0	0	0	0	0	0	0	0	0	0	0	3277	3246	3246	3246	3246	3186	3186	3186	3186	3186	3216	3216	3216	3216	3216	0	0	0	0	0	0	0	0	0	0	0	1863	1863	1863	1863	1863	1873	1873	1863	1873	1873	1863	1863	0	0	0	0	0	1873	1873	1873	1873	1873	1863	1863	1853	1863	1863	1863	1863	1853	1853	1853	1853	1843	1843	1853	1853	1853	1853	1863	1863	1863	1853	1863	1843	1853	1843	1843	1833	1833	1833	1649	0	0	0	0	0	0	0	0	0	0	0	0	0	0	0	0	0	0	0	0	0	0	0	0	0	0	0	0	0	0	0	0	0	0	0	0	0	0	0	0	0	0	0	0	0	0	0	0	0	0	0	0
0	0	0	0	0	0	0	0	0	0	0	1291	1291	1296	1301	1301	1301	1301	1296	1296	1296	0	0	0	0	0	0	0	0	0	0	0	0	0	0	0	0	0	0	0	0	0	0	0	0	0	0	0	0	0	0	0	0	0	0	0	0	0	0	0	0	0	0	0	0	0	0	0	0	0	0	0	0	0	0	0	0	0	0	0	0	0	0	0	0	0	0	0	0	0	0	0	0	0	0	0	0	0	0	0	0	0	0	0	0	0	0	1532	1525	1519	1519	1519	1519	1519	1525	1539	1546	1539	1546	1546	1546	1560	1574	1581	1589	1589	1589	1589	1589	1589	1611	1618	1634	1641	1649	1649	1649	1649	1657	1665	1673	1681	1698	1706	1741	1750	1759	1759	1768	1768	1768	1768	1768	0	0	0	0	0	0	0	2711	2711	2690	2711	2711	2690	2690	2690	2690	2690	2690	2690	2711	2711	2711	2711	2711	2711	2711	2711	2711	0	0	0	0	2893	2893	2893	2869	2869	2845	2845	2845	2845	2822	2845	2869	2845	2869	2845	2845	2869	2869	0	0	0	0	0	0	0	0	0	0	0	0	0	0	0	0	0	0	0	0	0	0	0	0	0	0	0	0	0	0	0	0	0	0	0	0	0	0	0	6468	6468	6468	6468	6468	6349	6349	6468	6468	6468	6468	6468	6468	6468	6468	6349	6468	6592	6592	6592	6592	6592	6720	6720	6592	6592	6592	6349	6349	6349	6349	6349	6468	6468	6468	6349	6349	6235	6235	6235	6235	6235	6235	4045	3998	3998	3998	3998	3952	3952	3907	3952	3952	3952	3952	3952	3952	3952	3952	3907	3907	3907	3907	3952	3952	3952	3952	3952	3952	3952	3952	3952	3952	3952	3998	3998	3998	3998	3952	3952	3952	3952	3952	3952	3952	3952	3952	3952	3998	3998	3998	3952	3998	3998	3998	0	5125	4977	4977	4977	4906	4906	0	0	0	0	0	0	8146	8146	8146	7959	7959	7959	7959	7959	8146	8146	8146	8146	8146	8146	7959	7959	7959	7959	7959	7959	7959	7959	7959	7959	7959	7959	7779	7779	7779	6468	6349	6349	6349	6349	6349	6349	6349	6349	6349	6468	6468	6468	6349	6349	6349	6349	6349	6349	6349	6349	6349	6349	6349	6349	6235	6235	6349	7287	7287	7287	7137	6992	6992	6992	6992	6853	6992	7137	6992	6992	6992	6992	6853	6853	6853	6853	6853	6853	6853	6853	6853	6853	6992	7137	7287	7779	7779	7959	7959	7959	8146	8146	8146	8146	8146	8146	8146	8146	8146	8146	8146	7959	7959	7959	7959	0	0	0	0	0	0	0	0	0	0	0	0	0	0	0	0	0	0	0	0	0	0	0	0	0	0	0	0	0	0	0	0	0	0	0	0	0	0	0	0	0	0	0	0	0	0	0	0	0	0	0	0	0	0	0	3277	3246	3246	3246	3216	3186	3186	3186	3186	3186	3186	3186	3186	3186	3186	3186	0	0	0	0	0	0	0	0	0	0	1863	1853	1863	1863	1863	1863	1863	1863	1873	1873	0	0	0	0	0	0	0	0	1873	1873	1873	1863	1863	1853	1843	1863	1863	1863	1853	1853	1843	1843	1843	1843	1843	1853	1853	1853	1853	1863	1863	1863	1853	1853	1843	1843	1843	1843	1833	1833	1833	0	0	0	0	0	0	0	0	0	0	0	0	0	0	0	0	0	0	0	0	0	0	0	0	0	0	0	0	0	0	0	0	0	0	0	0	0	0	0	0	0	0	0	0	0	0	0	0	0	0	0	0	0
0	0	0	0	0	0	0	0	0	0	0	1296	1296	1296	1301	1301	1301	1296	1291	1291	1291	0	0	0	0	0	0	0	0	0	0	0	0	0	0	0	0	0	0	0	0	0	0	0	0	0	0	0	0	0	0	0	0	0	0	0	0	0	0	0	0	0	0	0	0	0	0	0	0	0	0	0	0	0	0	0	0	0	0	0	0	0	0	0	0	0	0	0	0	0	0	0	0	0	0	0	0	0	0	0	0	0	0	0	0	0	0	0	0	0	0	0	0	0	0	0	1546	1546	1546	1546	0	0	1574	1581	1589	1589	1589	1596	1603	1596	1618	1634	1641	1641	1649	1641	1657	1657	1657	1673	1673	1690	1706	1732	1741	1750	1759	1759	1768	1768	1768	1768	1768	0	0	0	0	0	0	0	2733	2711	2690	2711	2711	2690	2690	2690	2690	2690	2690	2690	2711	2711	2711	2711	2711	2711	2711	2711	0	0	0	0	2893	2893	2893	2893	2869	2869	2845	2822	2845	2822	2822	2845	2845	2845	2845	2845	2845	2869	2869	2893	2917	2917	0	0	0	0	0	0	0	0	0	0	0	0	0	0	0	0	0	0	0	0	0	0	0	0	0	0	0	0	0	0	0	0	0	0	0	0	6468	6468	6468	6468	6468	6349	6349	6349	6349	6468	6468	6468	6468	6349	6349	6349	6468	6468	6468	6592	6592	6592	6592	6720	6592	6592	6592	6018	6124	6124	6124	6124	6235	6235	6235	6124	6235	6124	6124	6124	6124	6124	6124	4045	3998	3998	3998	3998	3952	3998	3998	3998	3952	3952	3952	3952	3952	3952	3952	3952	3952	3952	3952	3952	3952	3952	3952	3998	3998	3952	3952	3952	3952	3952	3952	3998	3952	3952	3952	3952	3952	3907	3952	3952	3952	3952	3952	3952	3998	3998	3998	3952	3998	3998	3998	5050	5050	4977	4977	4977	4977	4977	4977	4977	4977	4977	0	7779	7959	8146	8146	7959	7959	7959	7959	7959	7959	8146	8146	8146	8146	8146	8146	7959	7959	7959	7959	7959	7959	7959	7959	7959	7959	7959	7959	7959	6468	6468	6468	6468	6349	6349	6349	6349	6349	6349	6349	6468	6468	6349	6349	6468	6349	6349	6349	6349	6349	6349	6349	6349	6349	6349	6349	6349	6349	7444	7444	7287	6992	6992	6992	6853	6853	6853	6992	7137	6992	6992	6992	6992	6992	6853	6992	6853	6853	6853	6853	6992	6853	6853	6992	7137	7137	7779	7779	7959	7959	7959	8146	7959	7959	7959	8146	8146	8146	8146	8146	8146	8146	8146	7959	7959	7959	0	0	0	0	0	0	0	0	0	0	0	0	0	0	0	0	0	0	0	0	0	0	0	0	0	0	0	0	0	0	0	0	0	0	0	0	0	0	0	0	0	0	0	0	0	0	0	0	0	0	0	0	0	0	0	3277	3246	3246	3246	3216	3216	3186	3186	3186	3186	3186	3186	3186	3186	3186	3186	0	0	0	0	0	0	0	0	0	0	0	1853	1863	1863	1863	1863	1863	0	0	0	0	0	0	0	0	0	0	0	0	0	0	1863	1863	1863	1853	1853	1853	1853	1843	1843	1843	1843	1843	1843	1843	1853	1863	1863	1853	1853	1863	1863	1853	1853	1853	1843	1843	1833	1833	1833	1833	0	0	0	0	0	0	0	0	0	0	0	0	0	0	0	0	0	0	0	0	0	0	0	0	0	0	0	0	0	0	0	0	0	0	0	0	0	0	0	0	0	0	0	0	0	0	0	0	0	0	0	0	0
