0	0	0	0	0	958	963	963	963	966	966	969	977	974	974	974	974	977	977	977	977	977	980	980	980	980	983	988	988	991	994	997	1003	1006	1011	1014	1020	1020	1020	1023	1023	1030	1036	1039	1039	1042	1039	1039	1039	1105	1105	1105	1105	1102	1098	1098	1102	1098	1098	1102	1105	1113	1113	1116	1116	1116	1116	1116	0	1326	1326	1321	1321	1321	1316	1316	1311	1311	1311	1311	1311	1316	1316	1311	1311	1316	1316	1316	1316	1321	1321	1321	1326	1336	1342	1347	1347	1347	1347	0	0	0	0	0	0	0	6018	6018	6018	6018	6018	6124	6235	6235	6235	6235	6349	6349	6349	6349	6468	6349	6468	6468	6468	6592	6592	6720	6853	6992	6992	6992	6992	7137	7137	6992	6992	6992	6853	6853	6853	6853	0	0	0	0	0	0	6853	6853	6853	6853	6853	6853	6853	6853	7137	6992	6992	6992	6853	6720	6853	6853	6853	6853	6853	6853	6853	6853	6853	6853	6720	6720	6720	0	0	0	0	0	0	0	0	0	0	0	0	0	0	0	0	0	0	0	0	0	0	0	0	0	0	6853	6853	0	0	0	0	0	0	0	0	0	0	0	0	0	0	7444	7444	7444	7287	7287	7287	7137	6992	6853	6853	6853	6853	6853	6853	6853	6720	6720	6853	6853	6853	6853	6720	6720	6720	6720	6853	6853	6853	6853	6992	6992	6853	6853	6853	6853	6853	6853	6853	6720	6992	6720	6720	6720	6720	6853	6853	6853	6720	6853	6853	6853	6853	6720	6853	6720	6992	6992	6992	6992	6992	6992	6992	7137	7137	7137	0	0	0	3659	3659	3659	3621	3621	3621	3621	3621	3621	3621	3621	3621	3621	3621	3621	3621	3621	3621	3621	3621	6468	6592	6720	6720	0	0	0	0	6853	6720	6720	6592	6592	6592	6720	6720	6992	6992	7137	6992	6992	6992	6992	6992	6992	6992	6992	6992	6992	6992	6720	6853	6720	6720	6853	6853	6853	6853	6992	6992	6853	6992	6853	6992	6992	6992	7137	6992	6992	6992	6853	6853	6853	6853	6853	6992	6992	6853	6853	6853	6853	6853	6853	6853	6853	6853	6853	6853	6853	6853	6992	6992	6853	6853	6853	6992	6992	6992	0	0	0	0	6720	6720	6853	6853	6853	6720	6720	6720	6853	6853	6853	6720	6720	6853	6853	6853	6853	6853	6853	6853	6853	6853	6720	6592	6468	6468	6468	6592	6592	6592	6720	6720	6720	6720	6720	6720	6720	6720	6720	6720	6720	6853	6853	6853	6853	6853	6853	6853	6992	6992	6992	6853	6853	6853	6853	6853	6853	6853	6853	6853	6853	6853	6853	6853	6853	6853	6992	6992	6992	6992	6853	6992	6992	6992	6853	6853	6853	6853	6853	6853	6853	0	0	0	0	0	0	0	0	0	0	0	0	0	0	0	0	0	0	0	0	0	0	0	0	0	0	0	0	0	0	0	0	0	0	0	0	0	0	0	0	0	0	0	0	0	0	6853	6853	6992	6992	6853	6992	6992	6992	6992	6992	6992	6853	6853	6853	6853	6853	6853	6853	6853	6853	6853	6853	6720	6720	6853	6853	6853	6853	6853	6853	6853	6853	6853	7287	6853	6853	6853	6992	6992	6992	0	0	0	0	0	3073	3046	3046	3019	3046	3046	3019	3019	3019	3019	3019	3019	3019	3019	3019	3046	3019	2993	2993	2993	2993	2993	2993	2993	2993	2993	2993	2993	2967	2993	2993	2993	2993	2993	2967	2967	2967	2967	2967	0	0	0	0	0	0	0	0	0	0	0	0	0	0	0	0	0	0	0	0	0	0	0	0	0	0	0	0	0	0	0	0	0	0	0	0	0	0	0	0	0	0
0	0	0	0	0	961	963	966	966	974	977	977	977	977	974	974	974	974	977	977	977	980	980	980	980	983	985	988	991	997	997	1000	1003	1003	1008	1014	1020	1020	1020	1023	1023	1026	1033	1039	1042	1042	1042	1042	1042	1042	1105	1105	1105	1102	1098	1098	1102	1098	1102	1102	1105	1113	1113	1113	1116	1116	1116	1336	1336	1336	1331	1326	1326	1326	1316	1316	1316	1316	1316	1316	1316	1321	1316	1316	1316	1321	1321	1321	1321	1321	1326	1326	1331	1342	1347	1347	1347	1347	1352	1352	0	0	0	0	0	0	6018	5915	5915	6018	6018	6124	6124	6235	6235	6235	6235	6349	6349	6349	6349	6468	6468	6468	6468	6592	6592	6592	6853	6992	6992	7137	7137	7137	7137	7137	7137	6992	6992	6992	6853	6853	6853	6853	6853	0	0	0	6992	6992	6992	6992	6992	6992	6992	7137	7137	6992	6992	6992	6853	6853	6853	6853	6853	6853	6853	6992	6853	6853	6853	6853	6720	6720	6720	0	0	0	0	0	0	0	0	0	0	0	0	0	0	0	0	0	0	0	0	0	0	0	0	0	6853	6992	6992	6853	6853	6853	0	0	0	0	0	0	0	0	0	7608	7608	7608	7444	7444	7444	7444	7444	7287	6992	6853	6853	6853	6853	6853	6853	6853	6720	6720	6853	6853	6853	6853	6720	6720	6720	6853	6853	6853	6853	6992	6992	6992	6853	6853	6853	6853	6853	6853	6992	6992	6992	6992	6853	6853	6853	6992	6853	6992	6992	6853	6853	6853	6853	6853	6853	6853	6992	6992	6992	6992	6992	6992	6992	7137	7137	7137	0	0	0	3659	3659	3659	3659	3621	3621	3621	3621	3621	3621	3621	3621	3621	3621	3621	3621	3621	3621	3621	6468	6592	6592	6720	6992	6992	6992	6992	6992	6853	6853	6720	6592	6592	6592	6720	6720	6992	6992	6992	6992	6992	6992	6992	6992	6992	6992	6992	6992	6992	6992	6992	6992	6992	6992	6992	6992	6992	6992	6992	6992	6992	6853	6853	6853	6992	6992	6992	6992	7137	7137	6853	6992	6992	6992	6992	6992	6992	6992	6853	6853	6853	6853	6853	6853	6853	6853	6853	6853	6853	6992	6992	6992	6853	6853	6992	6992	6992	0	0	0	0	0	0	6853	6853	6853	6853	6853	6853	6853	6853	6853	6853	6720	6853	6853	6853	6853	6853	6853	6853	6853	6853	6853	6720	6720	6592	6592	6592	6592	6592	6720	6720	6720	6720	6720	6853	6853	6853	6720	6720	6720	6720	6853	6853	6853	6992	6853	6853	6853	6853	6853	6853	6992	6992	6853	6992	6853	6853	6853	6853	6853	6992	6992	6992	6992	6853	6853	6992	6992	6992	6992	6992	6992	6992	6992	6992	6992	6992	6853	6853	6853	0	0	0	0	0	0	0	0	0	0	0	0	0	0	0	0	0	0	0	0	0	0	0	0	0	0	0	0	0	0	0	0	0	0	0	0	0	0	0	0	0	0	0	0	0	0	0	6992	6992	6992	7137	6992	7137	7137	6992	6992	6992	7137	7137	7137	7137	7137	6992	6992	6992	6992	6992	6853	6853	6853	6853	6853	6853	6853	6853	6853	6853	6853	6853	6853	7137	6853	6853	6853	6853	6853	6853	0	0	0	0	3046	3046	3046	3046	3019	3019	3019	3019	3019	3019	3019	3019	3019	3019	2993	2993	3019	2993	2993	2993	2993	2993	2993	2993	2993	2993	2993	2993	2993	2993	2993	2993	2993	2993	2993	2967	2967	2967	2967	2967	0	0	0	0	0	0	0	0	0	0	0	0	0	0	0	0	0	0	0	0	0	0	0	0	0	0	0	0	0	0	0	0	0	0	0	0	0	0	0	0	0	0
0	0	0	0	0	961	966	966	966	980	977	977	980	977	977	974	972	974	974	974	977	980	985	980	980	983	988	991	991	997	1000	1000	1003	1003	1011	1014	1020	1020	1020	1023	1023	1026	1030	1036	1039	1042	1045	1045	1045	1045	1102	1102	1105	1102	1098	1098	1102	1095	1098	1102	1105	1109	1113	1113	1113	1116	1342	1342	1342	1336	1336	1331	1331	1326	1321	1316	1316	1316	1316	1316	1321	1321	1321	1321	1321	1326	1321	1321	1321	1321	1326	1326	1331	1336	1347	1347	1352	1352	1352	1352	0	0	0	0	0	0	0	5915	5915	6018	6018	6124	6124	6235	6235	0	6349	6349	6468	6468	6468	6468	6468	6468	6468	6592	6720	6720	6853	6992	6992	6992	6992	6992	7137	7137	7137	7137	7137	7137	6992	6992	6992	6853	7137	7137	0	7137	7137	7137	7137	7137	7137	7137	7137	7137	7137	0	6992	6992	6992	6853	6853	6853	6853	6853	6992	6992	6853	6853	6853	6853	6853	6720	6720	6720	6720	0	0	0	0	0	0	0	0	0	6992	6992	6992	0	0	0	0	0	0	0	0	0	0	6992	6853	6853	6992	6853	6853	6853	0	0	0	0	0	0	0	0	0	7608	7608	7608	7444	7444	7444	7444	7444	7287	7137	6853	6853	6720	6720	6853	6853	6853	6853	6853	6853	6853	6853	6853	6720	6720	6853	6853	6853	6992	6992	6992	6992	6992	6853	6853	6992	6992	6992	6992	6992	6992	6992	6992	6853	6853	6853	6992	6853	6992	6853	6992	6853	6853	6992	6853	6992	6992	6992	6992	6992	6992	6992	6992	6992	6992	6992	0	0	0	0	3659	3659	3621	3621	3621	3621	3621	3621	3621	3621	3621	3621	3659	3659	3621	3621	3621	3583	3583	6468	6592	6720	6853	6992	6992	6992	6992	6992	6853	6853	6853	6720	6720	6720	6720	6853	6992	6992	6992	6992	6992	6992	6992	6992	6853	6992	6853	6853	6992	6992	6992	6992	6992	7137	7137	7137	7137	6992	6992	6992	6992	6992	6853	6992	6992	6992	6992	6992	7137	7137	6992	7137	6992	6992	6992	6992	6992	6853	6853	6853	6853	6853	6853	6853	6853	6853	6853	6853	6992	6992	6992	6992	6853	6992	6992	6992	6992	6992	0	0	0	0	6992	6853	6853	6853	6853	6720	6853	6853	6853	6853	6853	6853	6853	6853	6853	6853	6853	6853	6853	6853	6720	6853	6720	6720	6720	6720	6720	6720	6592	6720	6720	6720	6720	6720	6853	6853	6853	6853	6853	6853	6853	6853	6992	6992	6992	6853	6853	6853	6853	6853	6992	6992	6992	6992	6992	6853	6853	6853	6992	6992	6992	6992	6992	6992	6992	6853	6853	6992	6992	6992	6992	6992	6992	6992	6992	6992	6992	6992	6992	6992	0	0	0	0	0	0	0	0	0	0	0	0	0	0	0	0	0	0	0	0	0	0	0	0	0	0	0	0	0	0	0	0	0	0	0	0	0	0	0	0	0	0	0	0	0	0	0	7287	7137	7137	7137	7137	7137	7137	7137	7137	7137	7137	7137	7137	7137	7137	7137	7137	7137	7137	7137	7287	7287	7287	6853	6853	6853	6853	6992	7287	7287	6992	6853	6992	7287	6853	6853	6853	6853	6853	6853	0	0	0	3101	3046	3046	3046	3046	3019	3019	3019	3019	3019	3019	3019	3019	3019	2993	2993	2993	2993	2993	2993	2993	2993	2993	2993	2993	2993	2993	2993	2993	2993	2967	2967	2967	2993	2993	2993	2967	2967	2967	2967	2967	0	0	0	0	0	0	0	0	0	0	0	0	0	0	0	0	0	0	0	0	0	0	0	0	0	0	0	0	0	0	0	0	0	0	0	0	0	0	0	0	0	0
0	0	0	0	0	0	966	966	966	980	980	980	980	980	980	974	974	977	977	977	980	983	988	983	983	985	994	997	997	997	1000	1003	1003	1003	1008	1014	1020	1023	1023	1026	1023	1026	1030	1036	1039	1039	1042	1048	1052	1052	1071	1071	1102	1102	1098	1102	1102	1102	1102	1102	1102	1105	1109	1113	1113	0	1347	1347	1347	1342	1342	1336	1336	1331	1321	1321	1321	1321	1321	1326	1331	1336	1331	1326	1331	1331	1326	1326	1321	1326	1331	1326	1331	1342	1342	1352	1352	1358	1363	1363	1363	0	0	0	0	0	0	5915	5915	6018	6018	0	0	0	0	0	6349	6349	6468	6468	6468	6468	6468	6468	6468	6468	6720	6720	6720	6720	6992	7137	6992	7137	7137	7137	7287	7287	7137	7137	7137	7137	6992	6992	6992	7137	7137	7137	6992	7137	7137	7137	7137	7137	7137	7137	7287	7287	6992	6992	6992	6853	6853	6853	6853	6853	6992	6992	6853	6853	6992	6992	6992	6853	6853	6853	6853	6853	0	0	0	0	0	0	0	6992	6992	6992	7137	7137	0	0	0	0	0	0	0	0	6992	6992	6992	6853	6992	6853	6853	6853	0	0	0	0	0	0	0	0	7444	7444	7444	7444	7444	7444	7444	7444	7444	7287	7287	6720	6720	6720	6720	6853	6853	6853	6853	6853	6853	6853	6992	6992	6853	6853	6853	6992	6992	6992	6992	6992	6992	6992	6992	6992	6992	6853	6992	6992	6992	6992	6992	6992	6992	6853	6853	6992	6853	6853	6853	6992	6992	6992	6992	6992	7137	6992	7137	6992	6992	6992	6992	6992	6992	6992	6992	0	0	0	0	3659	3659	3659	3659	3659	3621	3621	3621	3621	3621	3621	3659	3659	3659	3659	3659	3621	3621	3621	0	6720	6853	6992	6992	7137	7137	6992	6992	7137	6992	6853	6720	6720	6592	6720	6853	6992	6853	6853	6992	6992	6992	6992	6992	6992	6992	6992	6992	6992	6992	6992	6992	6992	7137	7137	7137	7137	6992	6992	6992	6992	6992	6992	6992	6992	6992	6992	6992	7137	7137	6992	7137	6992	6992	6992	6992	6992	6992	6992	6853	6853	6853	6853	6853	6853	6853	6853	6992	6992	6992	6992	6992	6992	6992	6992	6992	6992	6992	7137	7137	6992	6992	6992	6992	6992	6853	6992	6853	6853	6853	6992	6992	6992	6992	6992	6992	6992	6853	6853	6853	6853	6853	6853	6853	6853	6853	6720	6720	6720	6720	6720	6720	6720	6853	6853	6853	6853	6853	6853	6853	6853	6853	6853	6853	6992	6992	6992	7137	7137	7137	7137	6992	6992	6992	6992	6992	6992	6992	6992	6992	6992	6992	6992	6992	6992	6992	6992	6992	6992	6992	6992	6992	6992	6992	6992	6992	6992	6992	6992	6992	6992	6992	0	0	0	0	0	0	0	0	0	0	0	0	0	0	0	0	0	0	0	0	0	0	0	0	0	0	0	0	0	0	0	0	0	0	0	0	0	0	0	0	0	0	0	7287	7137	7137	7137	7287	7287	7137	7287	7137	7137	7137	7137	7137	7137	6992	7137	7137	7287	7137	7287	7137	7287	7287	7287	7287	7287	7287	7287	6992	6992	7444	7444	7287	7287	7287	7287	7287	7287	6853	6853	6853	6992	6853	7137	7137	0	0	3101	3046	3046	3046	3046	3019	3019	3019	3019	3019	3019	3019	2993	2993	2993	2993	2993	2993	2993	2993	2967	2993	2993	2967	2993	2967	2993	2993	2993	2993	2993	2993	2967	2993	2993	2993	2967	2967	2942	2942	0	0	0	0	0	0	0	0	0	0	0	0	0	0	0	0	0	0	0	0	0	0	0	0	0	0	0	0	0	0	0	0	0	0	0	0	0	0	0	0	0	0	0
0	0	0	0	0	0	937	937	937	974	974	974	974	972	974	974	977	977	977	983	983	985	988	983	985	988	997	997	997	1000	1000	1000	1003	1003	1006	1011	1020	1023	1023	1026	1026	1026	1033	1036	1039	1039	1045	1048	1055	1058	1071	1071	1071	1102	1098	1102	1102	1102	1102	1102	1102	1105	1105	1109	1113	1116	1116	1347	1347	1342	1342	1342	1342	1342	1326	1326	1331	1326	1326	1331	1331	1336	1336	1331	1331	1336	1331	1331	1326	1326	1331	1331	1336	1342	1347	1352	1352	1358	1363	1368	1368	0	0	0	0	0	0	0	6018	6018	6018	0	0	0	0	0	6349	6349	6468	6468	6468	6468	6592	6592	6592	6720	6720	6720	6720	6992	6992	6992	6992	7137	7137	7137	7287	7287	7287	7287	7137	7137	6992	6992	7137	7287	7287	7137	7137	7137	7137	7137	7137	7287	7287	7287	7287	7287	6992	6992	6992	6853	6992	6992	6853	6992	7137	7137	7137	7137	6992	7137	7137	6992	6853	6853	6853	6853	6853	6853	0	0	0	0	0	6992	6992	6992	6992	6992	0	0	0	0	0	0	0	6853	7137	7137	6992	6992	6992	6992	6992	6992	6853	6853	0	0	0	0	0	0	7287	7287	7444	7444	7444	7444	7444	7444	7444	7287	6853	6720	6592	6720	6720	6853	6853	6853	6853	6853	6853	6992	6992	6992	6853	6853	6853	6992	6992	6992	6992	6992	7137	7137	6992	6992	6992	6992	6992	6992	6992	7137	6992	6992	6992	6853	6853	6992	6992	6992	6992	6992	6992	6992	6992	7137	7137	7137	7137	7137	7137	7137	6992	6992	6992	6992	0	0	0	0	0	3738	3698	3698	3659	3659	3621	3621	3659	3659	3621	3621	3659	3659	3659	3659	3659	3659	3621	3621	0	6853	6992	6992	7137	7137	7137	7137	7137	7137	7137	6992	6720	6720	6720	6592	6853	6853	6853	6853	6992	6992	6992	6992	6992	6992	6992	6992	6992	6992	6992	6992	6992	6992	6992	7137	7137	7137	7137	7137	6992	6992	6992	6853	6853	6992	6853	6853	7137	7137	7137	6992	6992	7137	6992	6992	6992	6992	6992	6992	6853	6853	6853	6853	6853	6853	6992	6992	6992	6992	6992	6992	6992	6992	6992	6992	6992	6992	6992	6992	6992	6853	6992	6992	6992	6992	6992	6992	6853	6853	6992	6992	6992	6992	6992	6992	6992	6992	6992	6853	6853	6853	6853	6853	6853	6853	6853	6720	6853	6853	6853	6853	6853	6720	6853	6853	6853	6853	6853	6992	6992	6853	6853	6853	6992	6992	6992	6992	6992	7137	6853	6992	6992	6992	6992	6992	6992	6992	6992	6992	6992	6992	6992	6992	6992	6992	6992	6992	6992	6992	6992	6992	6992	6992	6992	7137	6992	6992	6992	6992	6992	6992	0	0	0	0	0	0	0	0	0	0	0	0	0	0	0	0	0	0	0	0	0	0	0	0	0	0	0	0	0	0	0	0	0	0	0	0	0	0	0	0	0	0	0	0	7287	7287	7137	7137	7287	7287	7287	7287	7287	7287	7137	7137	7137	7137	6992	7137	7287	7444	7444	7287	7287	7287	7287	7444	7444	7287	7287	7287	7287	7287	7444	7444	7444	7444	7444	7287	7287	7287	6853	6853	6853	7137	6992	7137	7137	7137	0	3101	3073	3073	3046	3046	3019	3046	3019	3019	2993	2993	3019	2993	2993	2993	2993	3019	3019	2993	2993	2993	2993	2993	2993	2993	2993	2993	2993	2993	2993	2993	2993	2967	2993	2993	2993	2967	2967	2967	2967	0	0	0	0	0	0	0	0	0	0	0	0	0	0	0	0	0	0	0	0	0	0	0	0	0	0	0	0	0	0	0	0	0	0	0	0	0	0	0	0	0	0	0
0	0	0	0	927	932	935	935	935	937	974	972	974	972	974	974	991	977	977	988	983	988	991	988	991	991	1000	1000	1003	1003	1003	1003	1006	1006	1008	1011	1014	1023	1026	1026	1023	1026	1033	1036	1039	1042	1048	1052	1058	1061	1068	1068	1068	1068	1105	1102	1102	1102	1102	1102	1102	1105	1105	1109	1113	1116	1116	0	1347	1347	1347	1347	1347	1347	1347	1336	1331	1336	1331	1336	1336	1336	1336	1336	1336	1336	1336	1336	1331	1331	1331	1331	1336	1342	1347	1352	1352	1358	1363	1368	1374	1374	1379	1385	1385	0	0	0	6018	6018	6018	0	0	0	0	0	0	6349	6468	6468	6468	0	6592	6592	6592	6592	6592	6592	6720	6720	6992	6992	6992	7137	7137	7137	7287	7287	7287	7287	7137	7137	6992	6992	7137	7287	7287	7287	7137	7287	7287	7287	7287	7287	7287	7287	7287	7287	6992	6992	6992	6992	6992	6992	6992	6992	7137	7137	7137	7137	6992	7137	6992	6992	6853	6853	6853	6992	6853	6853	6853	0	0	0	0	6992	7137	7137	7137	7137	7137	7137	7137	7287	7287	0	0	6853	7137	7137	7137	6992	7137	7137	7137	7137	6992	6992	0	0	0	0	0	7287	7287	7444	7444	7444	7444	7444	7444	7444	7444	0	6853	6720	6720	6720	6720	6853	6853	6992	6853	6992	6992	6992	7137	7137	6853	6853	6853	6992	6992	6992	6992	6992	7137	7137	6992	6992	6992	7137	7137	7137	7137	7137	7137	6992	6992	6853	6992	6853	6853	6853	6853	6992	7137	6992	6992	7137	7137	7137	7137	7137	7137	7137	6992	6992	6992	0	0	0	0	0	0	3698	3698	3698	3659	3659	3659	3659	3621	3621	3621	3621	3659	3659	3659	3659	3659	3621	3621	3621	0	6853	6992	7137	7137	7137	7137	7137	7137	7137	7137	6992	6853	6720	6720	6720	6720	6992	6853	6853	6992	6992	6992	6992	6992	6992	6992	6992	6992	6853	6853	6853	6853	6992	7137	7137	7137	7137	7137	7137	7137	7137	7137	6992	7137	7137	6992	7137	7137	7137	7137	6853	6992	6992	6992	6853	6992	6992	6853	6992	6853	6853	6853	6853	6853	6992	6992	6992	6992	6992	6992	6992	6992	6992	6992	6992	6992	6992	6992	6992	7137	7137	6992	7137	6992	6992	6992	6992	6853	6853	6992	6992	7137	6992	7137	7137	6992	6992	6992	6853	6853	6853	6853	6853	6992	6992	6853	6853	6853	6992	6992	6853	6853	6853	6853	6853	6992	6992	6853	6992	6853	6853	6853	6992	6992	6992	6992	6992	6992	6992	6992	6992	6992	6992	6992	6992	6992	6992	6992	6992	6992	6992	6992	6992	6992	6992	6992	6992	6992	6992	6992	6992	6992	6992	6992	6992	6992	6992	6992	6992	6992	6992	0	0	0	0	0	0	0	0	0	0	0	0	0	0	0	0	0	0	0	0	0	0	0	0	0	0	0	0	0	0	0	0	0	0	0	0	0	0	0	0	0	0	0	0	7287	7287	7287	7287	7287	7444	7444	7444	7444	7444	7287	7287	7287	7137	7137	7287	7287	7444	7444	7444	7444	7287	7287	7444	7444	7444	7444	7444	7444	7287	7608	7444	7444	7444	7444	7287	7287	7287	6853	6853	6853	7137	7137	7137	7137	7137	0	0	3101	3101	3046	3046	3046	3019	3019	3019	3019	3019	3019	2993	2993	2993	2993	2993	3019	2993	2993	2967	2993	2993	2993	2993	2967	2993	2967	2993	2993	2967	2967	2967	2993	2993	2993	2967	2967	2967	2967	0	0	0	0	0	0	0	0	0	0	0	0	0	0	0	0	0	0	0	0	0	0	0	0	0	0	0	0	0	0	0	0	0	0	0	0	0	0	0	0	0	0	0
0	0	0	0	927	930	932	932	935	935	937	969	969	972	972	972	991	991	1003	985	985	997	1000	1000	1000	1000	1003	1003	1006	1006	1003	1006	1006	1006	1011	1011	1011	1014	1014	1026	1023	1026	1033	1039	1039	1045	1052	1055	1058	1061	1064	1064	1068	1078	1098	1102	1102	1102	1102	1102	1102	1102	1102	1105	1113	1116	1116	0	1352	1347	1352	1352	1352	1352	1352	1347	1342	1342	1336	1342	1342	1336	1336	1336	1342	1342	1342	1336	1336	1336	1342	1342	1342	1342	1347	1358	1363	1368	1374	1379	1374	1379	1385	1390	1390	1390	0	0	0	0	0	0	0	0	0	0	0	0	0	0	0	0	0	6592	6592	6592	6853	6853	6853	6853	6992	6992	6992	7137	7287	7287	7444	7444	7287	7287	7137	7137	6992	7137	7137	7287	7287	7287	7287	7287	7287	7287	7287	7444	7444	7444	7444	7444	6992	6992	7137	6992	6992	7137	6992	6992	7137	7137	6992	7137	6992	6992	6992	6992	6853	6992	6992	6992	6992	6992	6992	6992	0	0	0	0	7137	7137	6992	7137	6992	7137	7137	7137	7137	0	0	6853	7137	7137	7137	7287	7137	7287	7287	7287	7287	7287	0	0	0	0	0	7137	7287	7287	7444	7444	7444	7444	7444	7444	7444	0	0	6720	6720	6720	6720	6853	6853	6853	6992	6992	6992	7137	7137	7137	6853	6992	6992	6992	6992	6992	6992	6992	6992	6992	6992	6992	6992	6992	6992	7137	7137	7137	7137	6992	6992	6992	6992	6992	6853	6853	6992	6992	6992	6992	6992	7137	7137	7137	7137	7137	7137	7137	7137	6992	6992	0	0	0	0	0	3738	3698	3698	3698	3659	3659	3659	3659	3659	3659	3659	3659	3659	3698	3659	3698	3659	3659	3621	3621	0	6853	6992	6992	7137	7137	7137	7137	7137	7137	7137	6992	6853	6853	6853	6720	6720	6720	6720	6992	6992	6992	6992	6992	6992	6992	6992	6992	6992	6853	6853	6853	6853	6992	7137	7137	7137	7137	7137	7287	7137	7137	7137	7137	7137	7137	7137	7137	7137	7137	7137	6853	7137	7137	6992	6992	6992	6992	6992	6992	6992	6992	6992	6992	6992	6992	6992	6992	6992	6992	6992	6992	6992	6992	7137	7137	7137	7137	7137	7137	7137	7137	7137	7137	6992	7137	7137	6992	6992	6992	6992	7137	7137	7137	7137	7137	7137	7137	6992	6853	6853	6853	6853	6992	6992	6992	6992	6992	6992	6992	6992	6853	6853	6853	6853	6992	6992	6992	6992	6992	6992	6992	6992	6992	6992	6992	6992	6992	6992	6992	6992	6992	6992	6992	6992	6992	6992	6992	6992	6992	6992	6992	6992	6992	6992	6992	6992	6992	6992	6992	6992	6992	6992	6992	6992	7137	6992	6992	6992	7137	6992	6992	0	0	0	0	0	0	0	0	0	0	0	0	0	0	0	0	0	0	0	0	0	0	0	0	0	0	0	0	0	0	0	0	0	0	7287	7137	7137	0	0	0	0	0	0	0	7444	7287	7287	7287	7287	7444	7444	7444	7444	7444	7444	7137	7137	7137	7137	7287	7287	7444	7444	7444	7444	7287	7287	7444	7608	7444	7444	7444	7444	7608	7608	7608	7608	7444	7444	7287	7287	7287	7137	7137	7137	7287	7287	7287	7287	7287	0	0	3101	3101	3073	3046	3046	3019	3019	2993	2993	3019	3019	2993	2993	2993	2993	2993	2993	2967	2993	2967	2967	2967	2967	2967	2967	2967	2967	2993	2993	2967	2967	2967	2967	2967	2993	2967	2942	2967	2967	0	0	0	0	0	0	0	0	0	0	0	0	0	0	0	0	0	0	0	0	0	0	0	0	0	0	0	0	0	0	0	0	0	0	0	0	0	0	0	0	0	0	0
0	0	0	0	930	930	932	932	935	935	937	945	945	969	969	966	966	1000	1003	1003	1000	1000	1006	1006	1006	1006	1006	1006	1006	1008	1006	1006	1006	1008	1008	1011	1011	1014	1014	1026	1023	1030	1033	1036	1039	1048	1052	1055	1058	1061	1064	1064	1068	1078	1078	1095	1098	1098	1098	1102	1102	1102	1098	1105	1105	1116	1116	0	1363	1358	1363	1363	1363	1363	1363	1358	1358	1358	1363	1358	1358	1342	1358	1358	1347	1358	1358	1358	1363	1363	1363	1363	1363	1358	1363	1363	1363	1368	1379	1385	1379	1385	1390	1396	1390	1402	1402	0	0	0	0	0	0	0	0	0	0	0	0	0	0	0	0	0	0	0	6853	6853	6853	6720	6853	6992	6853	6853	7137	7137	7444	7444	7444	7137	7137	7287	6992	7137	7137	7137	7287	7287	7137	7287	7287	7444	7444	7444	7444	7444	7444	7444	6992	6992	6992	7137	6992	6992	6992	6992	6992	7287	7287	7137	7137	7137	7137	7137	6992	6992	6992	6992	6992	6853	6853	6853	0	7287	7287	0	7287	7287	7137	7137	7137	7137	7287	7287	7287	7287	6853	6720	6720	6992	6992	6992	6992	7287	7444	7444	7444	7287	7287	0	0	0	0	7137	7287	7287	7444	7444	7444	7444	7444	7444	0	0	0	0	0	7137	6853	6853	6853	6853	6992	6992	6992	7137	7137	7137	6992	7137	7137	6992	6992	6992	6992	6992	6992	6992	6992	6992	6992	6992	6992	6992	6992	7137	6992	6992	7137	6992	7137	6992	6853	6853	6992	6992	6992	6992	6992	6992	7137	7137	7137	7287	7287	7137	7137	7137	7137	0	0	0	0	0	3738	3698	3698	3698	3698	3698	3698	3698	3698	3698	3698	3698	3698	3698	3698	3698	3698	3698	3659	3659	0	6853	6992	7137	7137	7287	7137	7137	7137	7137	7137	7137	6853	6853	6853	6720	6720	6720	6992	6992	6992	6992	6992	6992	6992	6992	6992	0	0	0	0	0	0	6992	7287	7287	7287	7287	7287	7287	7287	7287	7137	7137	7287	7287	7137	7137	7137	7137	0	0	7137	7137	6992	7137	7137	6992	6992	6992	6992	6992	6992	6992	6992	6992	6992	6992	6992	7137	7137	7137	7137	7137	7137	7287	7287	7287	7137	7287	7287	7287	7137	7137	7137	7137	7137	7137	6992	6992	7137	7137	7137	7287	7287	7287	7287	7287	7137	7137	6992	6992	6853	6992	6992	6992	6992	6992	6992	6992	6992	6992	6992	6992	6992	6992	6992	6992	6992	6992	6992	6992	6992	6992	6992	6992	6992	6992	6992	6992	6992	6992	6992	6992	6992	6992	6992	6992	7137	7137	7137	7137	6992	6992	6992	6992	6992	6992	6992	6992	7137	6992	6992	6992	6992	7137	6992	6992	7137	7137	0	0	0	0	0	0	0	0	0	0	0	0	0	0	0	0	0	0	0	0	0	0	0	0	0	0	0	0	0	0	0	0	0	0	0	0	7444	7287	7287	0	0	0	0	0	0	7444	7444	7287	7287	7287	7444	7444	7444	7444	7444	7444	7444	7137	7137	7137	7137	7287	7444	7444	7444	7444	7444	7444	7444	7444	7608	7444	7444	7444	7444	7779	7608	7608	7608	0	0	0	0	7287	6992	7137	7137	7287	7287	7287	7287	7287	0	0	0	0	3046	3046	3046	3019	3019	2993	2993	2993	2993	2993	2993	2993	2993	2993	2993	2967	2993	2967	2967	2967	2967	2967	2967	2967	2967	2993	2993	2993	2993	2967	2967	2993	2967	2967	2942	2967	2967	0	0	0	0	0	0	0	0	0	0	0	0	0	0	0	0	0	0	0	0	0	0	0	0	0	0	0	0	0	0	0	0	0	0	0	0	0	0	0	0	0	0	0
0	0	0	0	930	932	932	935	935	937	937	942	942	963	963	961	961	1000	1000	1006	1003	1003	1006	1008	1008	1008	1008	1006	1008	1011	1006	1008	1011	1011	1011	1011	1011	1014	1014	1026	1030	1033	1036	1036	1039	1042	1052	1055	1061	1061	1064	1068	1071	1074	1078	1088	1098	1098	1098	1102	1102	1102	1102	1105	1109	1113	1113	1113	1363	1379	1374	1368	1368	1368	1368	1363	1363	1363	1368	1374	1374	1368	1368	1363	1363	1368	1368	1368	1379	1374	1374	1368	1374	1368	1368	1368	1368	1368	1374	1385	1379	1385	1396	1402	1402	1407	1425	1425	0	0	0	0	0	0	0	0	0	0	0	0	0	0	0	0	0	0	0	6853	6853	6853	6853	6853	6853	6853	6853	6853	7287	7287	7287	7287	7444	7444	7287	7287	7137	7137	7287	7287	7287	7137	7287	7444	7444	7444	7444	7444	6992	7137	7137	6992	7137	7137	6992	7137	7137	7137	7137	7287	7287	7287	7287	7287	7287	7137	7137	6992	6992	6992	6992	6992	6992	7287	7287	7287	7287	7287	7287	7287	7137	7137	7137	7137	7137	7137	7137	7137	6720	6720	6720	6853	6853	6853	7287	7287	7444	7608	7444	7287	7287	7287	7287	0	7137	7137	7137	7287	7444	7444	7444	7444	7444	7444	7444	0	7779	7779	0	7137	7287	7137	7137	7137	6992	6992	7137	7137	7137	7287	6992	7137	6992	6992	6992	7137	6992	6992	6992	6992	6992	6992	6992	6992	6992	6992	6992	7137	6992	6992	7137	7137	7137	6992	6853	6853	6853	6992	6992	6992	6992	6992	7137	7287	7287	7287	7287	7137	7287	7287	7287	0	0	0	0	0	3738	3738	3698	3698	3698	3698	3698	3698	3698	3698	3698	3698	3698	3698	3698	3698	3698	3698	3698	3698	3698	6853	7137	7137	7137	7287	7287	7287	7287	7137	7137	7137	6992	6992	6992	6853	6853	6853	6853	6992	6992	7137	7137	7137	7137	7137	0	0	0	0	0	0	0	7287	7287	7287	7444	7444	7287	7287	7287	7287	7287	7287	7287	7287	0	0	0	0	0	0	7137	6992	6992	7137	7137	6992	6992	6992	6992	6992	6992	6992	6992	7137	7137	6992	7137	7137	7137	7137	7137	7137	7137	7287	7137	7137	7137	7287	7287	7287	7287	7137	7137	7137	7137	7137	6992	6992	7137	7137	7137	7287	7287	7287	7287	7287	7137	7287	6992	6992	6992	6992	7137	7137	6992	7137	7137	6992	7137	6992	6992	6992	6992	6992	6992	6992	6992	6992	6992	6992	6992	6992	6992	6992	6992	6992	6992	6992	6992	6992	6992	6992	6992	6992	7137	7137	7137	7137	7137	7137	7137	6992	6992	6992	6992	6992	6992	6992	6992	6992	6992	6992	7137	7137	7287	7137	7137	7137	0	0	0	0	0	0	0	0	0	0	0	0	0	0	0	0	0	0	0	0	0	0	0	0	0	0	0	0	0	0	0	0	0	0	7444	7444	7287	7287	7287	0	0	0	0	0	0	7444	7444	7444	7287	7444	7444	7444	7444	7444	7444	7444	7444	7287	7137	7287	7287	7287	7444	7444	7444	7608	7779	7779	7779	7444	7444	7444	7444	7444	7444	7444	7608	7608	7608	0	0	0	0	7137	7137	7137	7137	7137	7137	7287	0	0	0	0	0	0	3046	3073	3046	3019	3019	3019	2993	2993	2993	2993	2993	2993	2993	2993	2993	2967	2967	2967	2967	2967	2967	2967	2967	2967	2967	2993	2993	2993	2993	2967	2993	2993	2993	2967	2942	2942	2967	0	0	0	0	0	0	0	0	0	0	0	0	0	0	0	0	0	0	0	0	0	0	0	0	0	0	0	0	0	0	0	0	0	0	0	0	0	0	0	0	0	0	0
0	0	0	0	930	932	935	935	935	937	937	940	945	948	961	963	969	969	1000	1000	997	1003	1008	1011	1011	1014	1014	1014	1014	1017	1014	1017	1017	1017	1014	1014	1014	1014	1014	1014	1030	1033	1036	1039	1039	1042	1045	1052	1058	1061	1068	1068	1071	1071	1074	1078	1095	1095	1098	1098	1102	1105	1102	1105	1102	1102	1102	1113	0	1396	1390	1385	1385	1385	1385	1374	1385	1385	1379	1379	1379	1374	1379	1374	1374	1379	1379	1385	1385	1385	1385	1379	1385	1379	1379	1379	1374	1374	1379	1385	1379	1385	1402	1407	1407	1413	1419	1419	1419	1419	0	0	0	0	0	0	0	0	0	0	0	0	0	0	0	0	0	6853	6853	6720	6853	6853	6853	6853	6853	6853	7287	7287	7287	7287	7287	7287	7137	7137	7137	7287	7287	7287	7137	7137	7444	7444	7444	7444	7444	7444	6992	7444	7444	7137	7137	7444	7444	7287	7444	7287	7287	0	7287	7287	7287	7287	7287	7287	7137	6992	6992	7137	6992	6992	7137	7287	7444	7444	7287	7287	7287	7287	7287	7137	7137	7137	7137	7137	7137	7137	7287	7137	7287	7287	7137	7137	7444	7444	7444	7608	7608	7444	7287	7287	7287	7287	7287	7137	7137	7287	7287	7444	7444	7444	7444	7444	7444	7444	7779	7779	7608	7287	7287	7287	7287	7287	7287	7287	7287	7287	7287	7287	6992	7137	7137	7137	7137	6992	6992	6992	6992	6992	7137	7137	6992	7137	7137	7137	7137	7137	7137	7137	7287	7137	7287	6992	6992	6992	7137	7137	6992	6992	6992	6992	0	7287	7287	7287	7287	7287	7287	7287	7287	0	0	0	0	0	3738	3738	3738	3698	3698	3698	3698	3698	3698	3698	3698	3698	3738	3738	3738	3738	3738	3738	3738	3738	3738	3738	7137	7287	7287	7287	7287	7287	7287	7287	7287	7137	6992	6992	6992	6992	6992	6992	7137	7137	7137	7137	7137	7137	7137	7287	7287	0	0	0	0	0	0	7287	7287	7287	7287	7287	7287	7287	7444	7444	7444	7287	0	0	0	0	0	0	0	0	0	6992	6992	7137	7137	7137	7137	7137	7137	6992	7137	7137	7137	7137	7137	7137	7137	7137	7137	7137	7287	7137	7287	7287	7287	7287	7287	7287	7287	7287	7287	7137	7137	7137	7137	7137	6992	6992	7137	7137	7137	7287	7287	7287	7287	7287	7137	7287	7137	6992	6992	7137	7137	7137	7137	7137	7137	7137	7137	7137	6992	6992	6992	6992	6992	6992	6992	6992	7137	7137	7137	7137	7137	6992	6992	6992	6992	6992	6992	6992	6992	6992	6992	6992	7137	7137	7137	7137	7137	7137	7137	6992	6992	6992	6992	6992	6992	6992	6992	7137	7287	7287	7287	7287	7287	7287	7287	7287	0	0	0	0	0	0	0	0	0	0	0	0	0	0	0	0	0	0	0	0	0	0	0	0	0	0	0	0	0	0	0	0	0	7444	7444	7444	7287	7287	7287	0	0	0	0	0	0	7444	7444	7444	7444	7444	7444	7444	7444	7444	7444	7444	7444	7287	7137	7287	7287	7287	7287	7444	7779	7779	7779	7779	7779	7444	7608	7444	7444	7444	7444	7444	7444	7444	7444	0	0	0	0	7287	7287	7287	7287	7287	7287	7287	0	0	0	0	0	0	0	3073	3046	3046	3019	3019	2993	3019	3019	2993	2993	2993	2993	2993	2993	2993	2993	2967	2993	2967	2967	2967	2967	2967	2967	2993	2993	2993	2993	2993	2993	2993	2967	2967	2942	2942	0	0	0	0	0	0	0	0	0	0	0	0	0	0	0	0	0	0	0	0	0	0	0	0	0	0	0	0	0	0	0	0	0	0	0	0	0	0	0	0	0	0	0	0
0	0	0	0	927	930	932	932	935	935	937	937	942	945	948	953	958	958	958	983	983	983	1011	1014	1014	1017	1020	1020	1020	1020	1020	1023	1020	1020	1020	1017	1017	1014	1014	1014	1033	1033	1036	1039	1039	1039	1048	1052	1058	1061	1061	1068	1074	1074	1078	1078	1088	1095	1095	1098	1105	1105	1105	1105	1105	1102	1102	1413	1407	1396	1396	1396	1396	1396	1396	1390	1396	1396	1390	1390	1390	1385	1385	1379	1379	1385	1385	1385	1390	1390	1390	1390	1390	1385	1385	1385	1385	1379	1385	1385	1385	1402	1407	1407	1407	1413	1419	1419	1425	1425	1425	0	0	0	0	0	0	0	0	0	0	0	0	0	6720	6592	6720	6720	6720	6720	6853	6853	6853	6992	6853	6853	7287	7287	7287	7287	7287	7287	7287	7287	7287	7287	7287	7287	7287	7287	7137	7444	7444	7444	7444	7444	7444	7444	7444	7608	7608	7444	7287	7287	7287	7287	7444	7444	7444	7444	7444	7444	7287	7287	7137	6992	6992	6992	6992	7137	7287	7287	7444	7444	7287	7444	7444	7444	7287	7137	7137	7287	7287	7287	7137	7137	7287	7137	7287	7287	7137	7137	7137	7444	7444	7608	7779	7608	7444	7444	7444	7287	7287	7287	7287	7287	7444	7444	7444	7444	7608	7444	7444	7444	7779	7287	7444	7287	7287	7287	7287	7287	7287	7287	7287	7287	7287	7444	7608	7137	7137	7137	7137	7137	6992	6992	7137	7137	7137	7137	7137	7137	7137	7137	7137	7137	7137	7287	7287	7137	7287	7137	7137	7137	7137	7137	0	0	0	0	0	7287	7287	7287	7287	7287	7287	7287	7287	0	0	0	0	0	3738	3738	3738	3698	3698	3698	3698	3698	3698	3698	3698	3698	3698	3738	3698	3738	3738	3738	3738	3738	3779	3779	3779	7287	7287	7287	7287	7287	7287	7287	7287	7287	7137	7137	7137	7137	7137	6992	7137	7137	7287	7287	7287	7287	7287	7287	7287	0	0	0	0	0	0	7444	7444	7287	7444	7444	7444	7444	7444	7444	7444	0	0	0	0	0	0	0	0	0	0	0	0	0	0	7137	7137	7137	7137	7137	7137	7137	7287	7137	7287	7137	7137	7137	7137	7137	7287	7287	7287	7287	7287	7287	7287	7287	7287	7287	7287	7287	7287	7137	7137	7137	6992	7137	7137	7137	7137	7137	7137	7137	7137	7137	7137	7137	7137	7137	7137	7137	7137	7137	7137	7137	7137	7137	7137	7137	6992	6992	6992	7137	7137	7137	7137	6992	7137	7137	7137	7137	7137	6992	6992	7137	6992	6992	6992	6992	6992	6992	7137	7137	7137	7137	7137	7287	7137	7137	7287	7137	7137	7137	6992	6992	6992	0	0	7137	7137	7287	7287	7287	7287	7287	7287	7287	7287	0	0	0	0	0	7137	7287	7287	0	0	0	0	0	0	0	0	0	0	0	0	0	0	0	0	0	0	0	0	0	0	0	0	7444	7444	7444	7287	7287	7287	0	0	0	0	0	0	0	7444	7444	7444	7444	7444	7444	7444	7444	7444	7444	7444	7287	7444	7444	7444	7444	7444	7444	7779	7959	7959	0	0	0	7608	7444	7444	7444	7444	7608	7608	7608	7608	0	0	0	0	7444	7287	7287	7287	7287	7444	7444	0	0	0	0	0	0	0	0	3046	3046	3019	3019	3019	3019	3019	2993	3019	2993	2993	2993	2993	2993	2967	2993	2993	2993	2967	2993	2967	2967	2993	2967	2967	2967	2967	2967	2993	2993	2967	2967	2942	2942	0	0	0	0	0	0	0	0	0	0	0	0	0	0	0	0	0	0	0	0	0	0	0	0	0	0	0	0	0	0	0	0	0	0	0	0	0	0	0	0	0	0	0	0
0	0	0	0	927	927	930	932	935	935	937	940	945	948	950	955	955	958	958	974	972	972	972	972	1020	1020	1026	1023	1023	1023	1023	1023	1030	1026	1023	1026	1026	1033	1026	1039	1039	1039	1039	1039	1039	1045	1045	1048	1048	1058	1064	1071	1074	1074	1078	1078	1088	1088	1091	1098	1105	1109	1105	1109	1109	0	0	1413	1407	1407	1396	1396	1402	1402	1402	1396	1402	1402	1402	1402	1402	1396	1396	1402	1385	1385	1390	1390	1390	1396	1396	1396	1396	1390	1390	1390	1390	1385	1402	1390	1385	1385	1407	1407	1407	1413	1419	1419	1419	1419	1419	0	0	0	0	0	0	0	0	0	0	0	0	0	6853	6720	6853	6720	6720	6720	6853	6853	6853	6853	6853	6992	7287	7287	7287	7287	7287	7287	7287	7287	7287	7287	7287	7444	7444	7287	7287	7444	7444	7444	7444	7444	7444	7444	7608	7608	7608	7444	7287	7287	7444	7444	7444	7444	7444	7444	7444	7444	7287	7287	7137	7137	7137	7137	7137	7287	7444	7444	7444	7444	7444	7444	7444	7444	7287	7287	7287	7137	7287	7287	7287	7287	7287	7287	7287	7287	7287	7287	7287	7444	7608	7779	7779	7779	7608	7444	7444	7444	7287	7287	7287	7287	7444	7287	7444	7608	7608	7444	7444	7444	7444	7444	7444	7287	7287	7444	7287	7444	7444	7444	7444	7444	7444	7444	7608	7137	7137	7137	7137	7137	7137	6992	7137	7137	7137	7137	7137	7137	6992	6992	7137	7137	7137	7287	7287	7287	7287	7287	7287	7287	7287	7287	0	0	0	0	0	7287	7287	7444	7444	7287	7287	7287	7287	0	0	0	0	0	3738	3738	3738	3659	3698	3659	3698	3698	3698	3698	3698	3698	3698	3738	3698	3738	3738	3738	3738	3738	3779	3779	3738	3738	7287	7287	7287	7287	7444	7287	7287	7287	7137	7137	7137	7137	7137	0	0	0	7287	7287	7287	7287	7287	7287	7287	0	0	0	0	7444	7444	7444	7444	7444	7444	7287	7287	7287	7137	7137	0	0	0	0	0	0	0	0	0	0	0	0	0	0	0	0	7137	7137	7137	7287	7287	7287	7287	7287	7137	7287	7137	7137	7137	7287	7287	7287	7287	7287	7444	7444	7444	7444	7444	7444	7444	7287	7287	7287	7287	7287	7287	7137	7137	7137	7137	7137	7137	7137	7137	7137	7137	7137	7137	7137	7137	7137	7287	7137	7137	7137	7137	7137	7137	7137	7137	6992	7137	7137	7137	7287	7287	7287	7287	7287	7137	7137	7137	7137	6992	7137	6992	6992	6992	7137	7137	7137	7137	7137	7137	7287	7287	7287	7287	7287	7287	7137	7287	7287	0	0	0	0	0	0	7287	7287	7287	7287	7287	7287	7137	7287	7287	0	0	0	0	0	7287	7287	7287	7287	7287	0	7444	7444	0	0	0	0	0	0	0	0	0	0	0	0	0	0	0	0	0	0	0	7444	7444	7444	7444	7444	7444	0	0	0	0	0	0	0	7444	7444	7444	7444	7444	7444	7608	7444	7444	7444	7444	7444	7444	7444	7444	7608	7444	7444	7959	7959	7959	0	0	0	0	0	7444	7444	7608	7608	7608	7608	7608	0	0	0	0	7444	7444	7444	7444	7444	7444	7444	0	0	0	0	0	0	0	0	3046	3046	3019	3019	3019	3019	2993	2993	2993	2993	2993	2993	2993	2967	2993	2993	2993	2993	2967	2967	2967	2967	2967	2967	2967	2967	2993	2967	2967	2993	2967	2967	2942	2942	0	0	0	0	0	0	0	0	0	0	0	0	0	0	0	0	0	0	0	0	0	0	0	0	0	0	0	0	0	0	0	0	0	0	0	0	0	0	0	0	0	0	0	0
0	0	0	0	925	925	927	930	932	935	935	937	937	953	955	958	958	958	955	958	969	969	969	974	974	1033	1033	1030	1030	1030	1033	1033	1033	1030	1030	1030	1030	1033	1030	1039	1039	1039	1039	1042	1042	1045	1045	1048	1052	1061	1064	1068	1071	1074	1074	1078	1085	1091	1091	1095	1105	1109	1109	1113	1113	0	0	1413	1407	1407	1402	1402	1407	1407	1407	1402	1407	1407	1407	1407	1407	1407	1402	1402	1402	1390	1402	1396	1402	1402	1402	1402	1402	1396	1396	1396	1396	1390	1407	1396	1390	1402	1407	1413	1413	1413	1419	1419	1425	1425	1425	0	0	0	0	0	0	0	0	0	0	0	0	0	6720	6592	6853	6853	6720	6853	6853	6853	6992	6992	6992	6992	7287	7444	7287	7287	7444	7444	7444	7444	7444	7444	7444	7444	7444	7444	7287	7444	7444	7608	7608	7608	7608	7608	7608	7444	7444	7444	7287	7287	7444	7444	7444	7444	0	7444	7444	7444	7287	7287	7287	7287	7287	7287	7287	7287	7287	7444	7444	7444	7444	7444	7444	7444	7444	7287	7287	7137	7287	7287	7287	7287	7287	7287	7287	7444	7444	7444	7444	7444	7608	7779	7608	7608	7444	7444	7444	7444	7444	7287	7444	7287	7444	7444	7444	7608	7608	7608	7608	7779	7608	7444	7444	7444	7444	7444	7444	7444	7444	7444	7444	7444	7444	7444	7608	7287	7137	7137	7137	7137	7137	7137	7137	7137	7137	7287	7287	6992	7137	7137	7287	7287	7287	7444	7444	7444	7287	7287	7287	7287	7287	7287	7137	7137	0	0	0	0	0	7444	7444	7444	7444	7444	0	0	0	0	0	3738	3738	3738	3738	3738	3698	3698	3698	3698	3698	3698	3698	3698	3738	3738	3738	3738	3738	3738	3738	3738	3738	3738	3698	3698	3698	7287	7287	7444	7444	7287	7287	7287	7137	7137	7137	7137	7137	0	0	0	0	7444	7287	7287	7287	7287	7287	7287	7287	0	7608	7608	7608	7608	7608	7444	7444	7287	7287	7137	7137	7137	0	0	0	0	0	0	0	0	0	0	0	0	0	0	0	7287	7287	7287	7137	7287	7287	7287	7287	7287	7137	7287	7287	7287	7287	7287	7444	7287	7287	7444	7444	7444	7444	7444	7444	7444	7444	7444	7444	7444	7444	7444	7287	7137	7137	7137	7137	7137	7137	7137	7137	7137	0	0	0	7137	7137	7137	7137	7137	7137	7137	7137	7137	7137	7137	7137	7137	7137	7137	7287	7287	7444	7287	7287	7287	7287	7137	7137	6992	6992	6992	6992	6992	6992	7137	7137	7137	7137	7137	7287	7287	7287	7287	7287	7444	7444	7444	7444	7287	0	0	0	0	0	7444	7444	7444	7444	7287	7287	7287	7287	7287	7287	7287	7287	7287	7444	7287	7287	7287	7287	7287	7287	7287	7444	7287	7444	7444	0	0	0	0	0	0	0	0	0	0	0	0	0	0	0	0	0	7444	7444	7444	7444	7444	7444	0	0	0	0	0	0	7608	7608	7608	7444	7608	7608	7444	7608	7444	7444	7444	7444	7444	7444	7444	7608	7608	7779	7779	7959	7959	7959	0	0	0	0	0	7444	7444	7779	7779	7608	7608	7608	7608	7608	7608	7608	7608	7444	7444	7444	7608	7444	7444	0	0	0	0	0	0	0	0	3046	3019	3019	3019	3019	3019	2993	2993	2993	2993	2993	2993	2993	2967	2967	2993	2993	2967	2967	2967	2967	2967	2967	2967	2967	2967	2967	2967	2967	2967	2967	2967	2942	2942	0	0	0	0	0	0	0	0	0	0	0	0	0	0	0	0	0	0	0	0	0	0	0	0	0	0	0	0	0	0	0	0	0	0	0	0	0	0	0	0	0	0	0	0
0	0	0	0	925	927	930	930	932	935	937	937	945	950	953	958	961	958	958	969	972	972	974	974	974	1033	1033	1030	1030	1033	1036	1036	1036	1036	1030	1036	1036	1039	1036	1042	1042	1042	1039	1042	1042	1048	1048	1048	1052	1058	1061	1061	1068	1074	1074	1078	1085	1088	1088	1095	1109	1113	1113	1116	1116	1120	1120	1413	1407	1407	1407	1402	1407	1413	1413	1407	1407	1407	1407	1407	1407	1407	1413	1407	1402	1402	1407	1402	1407	1407	1407	1407	1407	1402	1402	1402	1402	1396	1413	1407	1402	1402	1407	1413	1413	1419	1425	1431	1431	1443	1449	1449	0	0	0	0	0	0	0	0	0	0	0	0	6592	6720	6720	6853	6853	6853	6853	6853	6992	6992	6992	6992	7287	7444	7287	7444	7444	7444	7444	7444	7444	7444	7608	7608	7444	7444	7287	7444	7444	7608	7608	7608	7608	7608	7608	7608	7608	7444	7287	7287	7444	7444	7444	7444	0	7444	7444	7444	7444	7444	7444	7444	7444	7444	7287	7444	7444	7608	7608	7444	7444	7444	7444	7444	7444	7444	7444	7287	7287	7287	7287	7287	7287	7444	7444	7444	7444	7608	7608	7608	7608	7608	7608	7608	7444	7444	7444	7444	7444	7287	7444	7444	7444	7444	7608	7779	7779	7608	7779	7608	7608	7608	7444	7444	7444	7444	7444	7444	7608	7444	7608	7444	7444	7444	7444	7287	7137	7137	7137	7137	7137	7287	7287	7444	7444	7444	7444	7444	7444	7444	7608	7608	7444	7608	7608	7608	7444	7444	7444	7444	7444	7287	7287	7137	0	0	0	0	0	0	0	7444	7444	7444	0	0	0	3738	3738	3738	3738	3738	3738	3698	3698	3698	3698	3698	3698	3698	3698	3738	3738	3738	3738	3738	3738	3738	3738	3738	3779	3738	3779	3779	3779	3779	7287	7287	7444	7287	7287	7287	7137	7137	7137	7137	7137	0	0	7444	7444	7444	7287	7287	7287	7287	7287	7287	7287	7444	7608	7608	7608	7608	7444	7444	7444	7287	7287	7287	7137	7137	0	0	0	0	0	0	0	0	0	0	0	0	0	0	0	7287	7287	7287	7137	7287	7287	7287	7287	7287	7137	7287	7287	7287	7137	7137	7287	7287	7287	7287	7287	7444	7444	7444	7444	7608	7444	7444	7444	7444	7444	7444	0	0	0	7137	7137	7137	7137	7137	7137	7137	0	0	0	0	7287	7287	7137	7137	7137	7137	7137	6992	7137	7137	7137	7137	7137	7287	7444	7444	7444	7444	7444	7444	7444	7287	7287	7287	6992	7137	7137	7137	7137	7137	7137	7137	7287	7287	7287	7287	7287	7444	7444	7444	7444	7444	7444	0	0	0	0	0	0	7444	7444	7444	7444	7287	7287	7137	7137	7287	7287	7444	7287	7287	7444	7287	7287	7287	7287	7287	7287	7287	7444	7287	7444	7444	0	0	0	0	0	0	0	0	0	0	0	0	0	0	0	0	0	7444	7444	7444	7444	7444	7444	0	0	0	0	0	0	7608	7608	7608	7608	7608	7608	7444	7444	7444	7444	7444	7444	7444	7444	7608	7608	7608	7779	7779	7959	7959	7959	0	0	0	0	0	0	0	7779	7608	7608	7608	7608	7608	7608	7608	7608	7608	7444	7444	7444	7444	7444	7444	0	0	0	0	0	0	0	0	3073	3046	3046	3019	3019	3019	3019	2993	2993	2993	2993	2993	2993	2967	2967	2967	2993	2967	2967	2993	2993	2967	2993	2967	2967	2967	2967	2967	2967	2967	2967	2993	2967	2993	2993	0	0	0	0	0	0	0	0	0	0	0	0	0	0	0	0	0	0	0	0	0	0	0	0	0	0	0	0	0	0	0	0	0	0	0	0	0	0	0	0	0	0	0
0	0	0	0	925	927	932	932	932	935	935	937	940	950	953	955	958	958	958	961	974	974	977	977	980	980	1036	1033	1033	1036	1039	1039	1039	1042	1045	1039	1045	1039	1039	1045	1042	1042	1042	1045	1045	1048	1048	1048	1052	1058	1058	1058	1068	1074	1074	1078	1085	1085	1088	1091	1091	1116	1116	1120	1120	1120	1120	1120	0	1407	1413	1407	1413	1413	1419	1413	1413	1413	1419	1419	1419	1425	1425	1419	1413	1413	1419	1413	1407	1407	1413	1413	1407	1407	1407	1407	1407	1419	1419	1419	1419	1413	1413	1425	1419	1419	1425	1431	1431	1449	1449	1455	1455	1455	1455	0	0	0	0	0	0	0	0	0	6720	6720	6853	6853	6853	6853	6853	6853	6992	6992	6992	6992	7137	7287	7287	7444	7444	7444	7608	7608	7608	7608	7608	7608	7444	7444	7444	7444	7444	7444	7608	7608	7608	7444	7444	7444	7444	7444	7287	7287	7444	7444	7444	0	0	7444	7444	7444	7444	7444	7444	7444	7444	7444	7444	7444	7444	7608	7608	7608	7608	7608	7608	7608	7608	7608	7444	7444	7287	7287	7287	7444	7444	7444	7444	7444	7608	7608	7608	7608	7608	7608	7608	7608	7444	7444	7444	7444	7444	7287	7444	7444	7444	7444	7444	7608	7608	7608	7444	7444	7444	7444	7444	7444	7444	7444	7444	7608	7444	7608	7608	7444	7444	7444	7444	7287	7287	7287	7287	7444	7444	7444	7444	7608	7444	7444	7444	7444	7444	7444	7608	7608	7608	7608	7779	7779	7608	7608	7444	7444	7444	7444	7444	0	0	0	0	0	0	0	0	0	0	3698	3698	3698	3738	3738	3738	3738	3738	3738	3738	3698	3698	3698	3698	3698	3698	3698	3738	3738	3738	3738	3738	3738	3698	3738	3738	3738	3738	3738	3738	3779	3779	3779	3779	3779	7287	7287	3738	3738	7287	7137	7137	0	0	0	0	7444	7444	7444	7287	7287	7287	7287	7287	7287	7287	7444	7608	7608	7608	7444	7444	7287	7287	7137	7137	7137	7137	7137	7287	7287	0	0	0	0	0	0	0	0	0	0	0	0	0	7287	7287	7287	7608	7608	7608	7444	7287	7287	7287	7287	7444	7287	7137	7137	7444	7287	7287	7287	7287	7444	7444	7444	7444	7444	7444	7444	7444	7444	7444	7444	0	0	0	0	0	0	0	0	0	0	0	0	0	0	7287	7287	7287	7287	7287	7287	7137	7137	7137	7137	7137	7137	7137	7287	7444	7444	7608	7608	7608	7608	7444	7444	7287	7287	7137	7137	7287	7137	7137	7137	7137	7287	7287	7287	7287	7287	7444	7444	7444	7444	7444	7608	7608	7608	0	0	0	0	0	0	7444	7444	7444	7287	7287	7287	7137	7137	7608	7608	7444	7444	7444	7287	7287	7287	7287	7287	7444	7444	7444	7444	7444	7444	7444	0	0	0	0	0	0	0	0	0	0	0	0	0	0	0	0	7444	7444	7444	7444	7444	7444	0	0	0	0	0	0	0	7608	7779	7608	7608	7608	7608	7444	7444	7444	7444	7444	7444	7444	7608	7608	7608	7779	7779	7959	7959	7959	0	0	0	0	0	7444	7608	7608	7608	7608	7608	7608	7608	7444	7444	7608	7608	7444	7444	7444	7444	7444	7444	0	0	0	0	0	0	0	0	3073	3073	3046	3046	3019	3019	3019	2993	2993	2993	2993	2993	2993	2993	2993	2993	2993	2967	2967	2967	2967	2967	2967	2967	2967	2967	2967	2967	2967	2967	2967	2967	2967	2967	2967	0	0	0	0	0	0	0	0	0	0	0	0	0	0	0	0	0	0	0	0	0	0	0	0	0	0	0	0	0	0	0	0	0	0	0	0	0	0	0	0	0	0	0
0	0	0	0	925	930	932	932	932	935	935	937	940	950	953	955	958	958	958	961	969	974	977	977	980	980	980	1030	1030	1033	1039	1039	1042	1048	1045	1045	1048	1048	1048	1048	1048	1048	1045	1048	1048	1052	1052	1052	1052	1055	1058	1058	1068	1071	1074	1078	1085	1085	1085	1091	1091	1113	1116	1116	1120	1120	1120	1120	0	0	1425	1419	1419	1419	1419	1419	1419	1419	1425	1425	1425	1425	1425	1425	1419	1419	1419	1413	1413	1419	1419	1419	1425	1413	1425	1425	1425	1425	1425	1419	1425	1425	1425	1425	1425	1425	1431	1431	1437	1443	1449	1455	1449	1449	1449	1449	1449	0	0	0	0	0	0	6592	6720	6720	6720	6853	6853	6853	6992	6992	6992	6992	6992	6992	7137	7137	7137	7287	7444	7444	7608	7608	7608	7608	7608	7608	7608	7444	7444	7444	7608	7608	7608	7608	7608	7608	7608	7608	7608	7444	7287	7287	7444	7444	7444	0	0	7444	7287	7287	7287	7444	7444	7608	7444	7444	7444	7444	7444	7608	7608	7779	7779	7779	7959	7779	7779	7779	7608	7608	7287	7287	7287	7444	7444	7608	7444	7608	7608	7608	7779	7608	7608	7608	7608	7608	7444	7444	7444	7444	7287	7287	7444	7444	7444	7444	7444	7608	7608	7444	7444	7444	7444	7444	7608	7608	7779	7779	7608	7779	7608	7608	7608	7444	7444	7444	7444	7287	7287	7287	7287	7444	7608	7444	7444	7608	7444	7444	7444	7444	7444	7608	7608	7608	7608	7779	7779	7779	7779	7608	7608	7608	7608	7444	7444	0	0	0	0	3583	3583	3583	3583	3738	3738	3698	3738	3738	3738	3738	3738	3738	3738	3738	3738	3698	3698	3698	3698	3698	3738	3698	3698	3738	3738	3738	3738	3738	3698	3698	3738	3738	3738	3738	3738	3738	3779	3779	3779	3779	3779	3779	3779	3738	7287	0	0	0	0	0	0	7444	7444	7444	7444	7287	7287	7287	7287	7287	7444	7444	7608	7608	7608	7444	7444	7444	7444	7287	7287	7287	7287	7287	7444	7444	7444	0	0	0	0	0	0	0	0	0	0	0	7444	7608	7608	7608	7608	7444	7444	7444	7444	7444	7444	7444	7444	7444	7444	7444	7287	7287	7287	7287	7287	7287	7287	7444	7444	7444	7444	7444	7444	7444	0	0	0	0	0	0	0	0	0	0	0	0	0	0	0	0	7287	7444	7444	7287	7287	7287	7287	7137	7287	7137	7137	7137	7137	7444	7608	7608	7608	7608	7608	7608	7444	7444	7444	7444	7287	7137	7287	7137	7137	7137	7137	7137	7287	7287	7444	7444	7444	7444	7444	7444	7444	7608	7608	7608	7608	7608	7608	7608	7608	7608	7444	7444	7444	7287	7287	7287	7287	7287	7608	7608	7444	7444	7444	7287	7287	7287	7287	7287	7287	7287	7444	7444	7444	7608	7608	7608	0	0	0	0	0	0	0	0	0	0	0	0	0	0	0	0	7444	7444	7444	7444	7444	0	0	0	0	0	0	0	7608	7608	7608	7608	7608	7608	7444	7444	7444	7444	0	0	0	0	0	0	0	7779	7959	7959	7959	0	0	0	0	0	7444	7608	7608	7608	7608	7608	7608	7608	7608	7608	7608	7608	7608	7608	7608	7608	7444	7444	0	0	0	0	0	0	0	0	3073	3073	3046	3046	3019	3019	3019	2993	2993	2993	2993	2993	2993	2993	2967	2967	2967	2967	2967	2967	2967	2967	2967	2942	2967	2967	2967	2967	2967	2967	2967	2993	2967	2967	2967	0	0	0	0	0	0	0	0	0	0	0	0	0	0	0	0	0	0	0	0	0	0	0	0	0	0	0	0	0	0	0	0	0	0	0	0	0	0	0	0	0	0	0
0	0	0	0	927	930	932	932	935	935	937	940	942	953	953	955	958	958	958	961	966	969	977	980	983	983	983	980	980	1042	1042	1045	1045	1052	1048	1048	1052	1048	1052	1052	1052	1052	1055	1052	1052	1055	1055	1055	1055	1061	1061	1064	1071	1074	1074	1078	1081	1081	1088	1098	1098	1105	1113	1116	1120	1120	1120	1116	1116	0	1425	1425	1431	1425	1431	1431	1425	1425	1425	1431	1431	1431	1425	1425	1425	1425	1425	1425	1425	1425	1425	1425	1431	1431	1431	1431	1425	1431	1425	1425	1425	1425	1425	1425	1425	1419	1437	1443	1437	1443	1449	1449	1455	1455	1455	1455	1455	0	0	0	0	0	0	6720	6720	6720	6720	6853	6853	6853	6992	6992	6992	6992	6992	6992	7137	7287	7287	7287	7444	7444	7444	7608	7608	7608	7608	7608	7779	7779	7608	7608	7608	7779	7779	7608	7608	7608	7608	7608	7608	7444	7287	7444	7444	7444	7444	0	0	7444	7287	7287	7287	7444	7444	7608	7444	7444	7608	7608	7608	7608	7608	7779	7959	7959	7959	7959	7959	7779	7608	7608	7444	7444	7287	7444	7444	7608	7444	7608	7608	7608	7779	7608	7608	7608	7608	7608	7444	7444	7444	7444	7444	7444	7444	7444	7444	7444	7444	7608	7444	7444	7444	7444	7444	7608	7608	7608	7779	7779	7779	7779	7779	7779	7608	7608	7608	7608	7608	7444	7444	7444	7444	7608	7608	7444	7608	7779	7608	7608	7608	7608	7444	7444	7608	7444	7608	7608	7779	7779	7779	7779	7608	7608	7608	7608	7444	0	0	0	3621	3621	3621	3738	3738	3738	3738	3738	3738	3738	3738	3698	3738	3738	3738	3738	3738	3698	3698	3698	3698	3698	3698	3698	3698	3698	3698	3698	3698	3738	3698	3698	3698	3698	3698	3698	3698	3738	3738	3738	3779	3779	3779	3779	3738	3738	3738	0	0	0	0	0	0	7444	7444	7444	7444	7287	7287	7287	7287	7444	7444	7444	7608	7608	7608	7608	7608	7608	7444	7444	7444	7287	7287	7287	7287	7444	7444	0	0	0	0	0	0	0	0	0	0	0	7608	7608	7608	7608	7608	7608	7608	7444	7444	7444	7444	7444	7444	7444	7444	7444	7444	7444	7287	7287	7287	7444	7444	7444	7444	7444	7444	7444	7444	7444	0	0	0	0	0	0	0	0	0	0	0	0	0	0	0	0	7444	7444	7444	7287	7287	7287	7287	7287	7287	7287	7287	7287	7287	7444	7444	7444	7608	7608	7608	7608	7444	7444	7444	7444	7287	7137	7287	7287	7287	7287	7287	7444	7444	7444	7444	7444	7444	7444	7444	7444	7444	7444	7608	7608	7608	7608	7608	7608	7608	7608	7608	7444	7444	7287	7287	7444	7444	7444	7444	7444	7608	7608	7444	7444	7287	7287	7287	7287	7287	7444	7444	7444	7444	7608	7608	7608	0	0	0	0	0	0	0	0	0	0	0	0	0	0	0	0	7444	7444	7444	7444	7444	0	0	0	0	0	0	0	0	7608	7608	7608	7608	0	0	0	0	0	0	0	0	0	0	0	0	0	7959	7959	7959	0	0	0	0	0	7444	7608	7608	7608	7779	7779	7779	7779	7779	7959	7959	7959	7779	7779	7779	7779	7608	7608	0	0	0	0	0	0	0	0	3073	3073	3046	3046	3019	3019	3019	2993	2993	2993	2993	2993	2993	2967	2967	2967	2967	2967	2967	2967	2967	2967	2942	2942	2942	2942	2967	2942	2967	2967	2967	2967	2967	2967	2967	2967	0	0	0	0	0	0	0	0	0	0	0	0	0	0	0	0	0	0	0	0	0	0	0	0	0	0	0	0	0	0	0	0	0	0	0	0	0	0	0	0	0	0
0	0	0	0	932	932	932	935	935	937	937	940	945	950	955	955	958	958	958	961	969	972	977	980	985	983	988	983	991	991	1045	1045	1048	1052	1048	1048	1052	1052	1052	1052	1052	1058	1058	1055	1055	1058	1055	1061	1061	1061	1064	1064	1071	1074	1074	1078	1078	1085	1088	1091	1102	1109	1113	1116	1120	1120	1120	1116	1116	0	0	1437	1437	1437	1437	1437	1431	1431	1431	1431	1437	1431	1431	1431	1431	1437	1431	1431	1431	1431	1431	1437	1431	1437	1431	1437	1431	1431	1425	1425	1425	1425	1425	1431	1425	1431	1443	1443	1443	1443	1455	1449	1455	1455	1455	1461	1461	1461	0	0	0	0	0	6720	6853	6853	6853	6853	6853	6853	6992	6992	6992	6992	6992	6992	6992	7287	7444	7444	7444	7444	7608	7608	7608	7608	7608	0	7779	7779	7779	7779	7779	7959	7959	7779	7779	7608	7608	7608	7608	7444	7287	7287	7444	0	0	0	0	0	7287	7287	7287	7444	7287	7608	7444	7608	7608	7608	7608	7608	7608	7779	7779	7959	7959	7959	7959	7959	7779	7779	7779	7444	7444	7444	7444	7608	7608	7608	7608	7779	7779	7779	7779	7779	7608	7608	7608	7444	7444	7444	7444	7444	7444	7444	7444	7444	7444	7608	7444	7444	7444	7444	7608	7608	7608	7779	7779	7779	7779	7959	7959	7779	7779	7608	7779	7608	7608	7444	7444	7287	7444	7779	7779	7608	7779	7779	7608	7608	7608	7608	7608	7608	7608	7608	7608	7608	7779	7779	7779	7779	7779	7608	7608	7608	0	0	0	3621	3621	3621	3621	3698	3698	3738	3738	3738	3738	3738	3738	3698	3738	3738	3738	3738	3738	3738	3698	3698	3698	3698	3698	3698	3698	3698	3698	3659	3659	3621	3621	3698	3698	3698	3698	3659	3698	3738	3738	3738	3738	3738	3779	3779	3738	3738	3738	3738	0	0	0	0	0	7444	7444	7444	7444	7287	7287	7287	7287	7287	7444	7444	7444	7608	7608	7608	7608	7608	7608	7444	7444	7444	7444	7287	7444	7444	7444	0	0	0	0	0	0	0	0	0	0	0	7608	7608	7608	7608	7608	7608	7608	7608	7444	7444	7444	7444	7608	7444	7608	7608	7608	7444	7444	7444	7287	7444	7444	7444	7444	7608	7444	7608	7608	7608	0	0	0	0	0	7444	7444	7444	7608	7608	0	0	0	0	0	0	7444	7444	7444	7444	7444	7444	7444	7287	7444	7287	7287	7287	7287	7287	7444	7444	7608	7608	7608	7608	7444	7444	7444	7444	7287	7287	7444	7444	7444	7444	7444	7444	7444	7444	7444	7608	7444	7444	7444	7444	7444	7444	7608	7608	7608	7779	7779	7608	7608	7608	7608	7444	7444	7287	7287	7287	7287	7444	7444	7444	7608	7444	7444	7444	7287	7287	7287	7287	7287	7444	7444	7444	7444	7608	7608	7779	7779	7779	0	0	0	0	0	0	0	0	0	0	0	0	0	7608	7608	7608	7608	7608	7608	0	0	0	0	0	0	0	0	0	0	0	0	0	0	0	0	0	0	0	0	0	0	0	0	0	0	0	0	0	0	0	0	7444	7608	7608	7608	7779	7779	7779	7779	7779	7779	7959	7959	7959	7779	7779	7779	7779	7608	7608	0	0	0	0	0	0	0	0	3073	3073	3073	3046	3019	3019	2993	2993	2993	2993	2993	2993	2993	2967	2993	2967	2967	2967	2967	2942	2942	2942	2942	2917	2942	2942	2967	2967	2967	2967	2967	2993	2967	2967	2967	2967	0	0	0	0	0	0	0	0	0	0	0	0	0	0	0	0	0	0	0	0	0	0	0	0	0	0	0	0	0	0	0	0	0	0	0	0	0	0	0	0	0	0
0	0	0	0	925	932	932	935	935	935	937	942	945	950	953	955	958	958	958	961	966	969	980	983	985	985	988	985	991	991	991	991	1052	1052	1052	1052	1058	1058	1058	1061	1061	1061	1061	1061	1061	1064	1064	1068	1068	1068	1068	1071	1071	1074	1074	1078	1078	1085	1088	1091	1102	1102	1105	1105	1116	1120	1116	1116	1116	0	0	1449	1449	1449	1449	1449	1443	1443	1437	1437	1437	1437	1431	1431	1437	1443	1437	1437	1437	1437	1437	1443	1437	1437	1437	1437	1437	1437	1431	1431	1431	1431	1431	1431	1437	1443	1449	1449	1449	1449	1455	1461	1461	1461	1455	1455	1486	1492	1492	1492	0	0	0	0	6853	6853	6992	6853	6853	6992	6992	6992	6992	6992	6992	6992	7137	7287	7444	7444	7444	7444	7608	7608	7608	7608	0	0	7779	7779	7779	7959	7959	8146	7959	7959	7959	7779	7608	7608	7608	7444	7444	7287	0	0	0	0	0	0	7287	7287	7287	7287	7444	7444	7444	7608	7608	7779	7608	7608	7779	7779	7779	7959	7959	8146	7959	7959	7959	7779	7779	7779	7444	7444	7444	7608	7608	7608	7779	7959	7959	7779	7779	7779	7779	7779	7608	7444	7444	7444	7444	7444	7444	7444	7444	7444	7444	7608	7608	7444	7608	7608	7608	7779	7608	7608	7779	7959	7959	7959	7779	7959	7779	7779	7779	7779	7779	7779	7779	7444	7444	7779	7779	7779	7779	7779	7779	7779	7779	7608	7608	7779	7779	7608	7608	7779	7779	7779	7779	7779	7779	0	0	0	3738	3659	3698	3659	3659	3659	3698	3698	3698	3698	3698	3738	3738	3738	3698	3698	3698	3738	3738	3738	3738	3738	3738	3698	3698	3698	3698	3659	3659	3659	3659	3621	3621	3621	3621	3698	3698	3698	3698	3698	3698	3738	3738	3738	3738	3738	3779	3779	3738	3698	3698	3698	3738	3738	3738	0	0	7444	7444	7444	7287	7137	7137	7287	7137	7287	7287	7444	7444	7608	7608	7608	7608	7608	7608	7608	7444	7444	7444	7444	7444	7444	7444	0	0	0	0	0	0	0	0	7608	7444	7444	7444	7608	7608	7608	7608	7287	7608	7608	7608	7444	7608	7608	7608	7608	7608	7608	7608	7608	7444	7444	7444	7444	7444	7444	7608	7608	7608	7608	7608	7608	7608	7608	0	0	7444	7444	7444	7444	7608	7444	7444	7444	7444	0	0	7444	7444	7444	7444	7444	7444	7444	7444	7444	7444	7287	7287	7287	7287	7287	7444	7608	7608	7608	7608	7608	7608	7444	7608	7608	7444	7444	7444	7444	7444	7287	7287	7444	7444	7608	7608	7608	7608	7608	7444	7444	7444	7444	7608	7608	7608	7608	7608	7608	7608	7608	7608	0	0	0	0	7287	7444	7444	7444	7608	7444	7444	7608	7444	7287	7444	7287	7287	7444	7444	7444	7444	7444	7608	7608	7608	7779	7608	7779	7779	0	0	0	0	0	0	0	0	0	0	0	7779	7779	7779	7779	7779	7779	0	0	0	0	0	0	0	0	0	0	0	0	0	0	0	0	0	0	0	0	0	0	0	0	0	0	0	0	0	0	0	0	7444	7608	7608	7779	7779	7779	7959	7959	7959	7959	7959	7959	7959	7779	7779	7779	7779	7608	7608	7608	0	0	0	0	0	0	0	3073	3073	3073	3046	3046	3019	2993	2993	2993	2993	2993	2993	2993	2993	2993	2967	2967	2967	2967	2942	2942	2942	2917	2917	2917	2942	2967	2967	2967	2967	2967	2993	2967	2967	2967	2967	0	0	0	0	0	0	0	0	0	0	0	0	0	0	0	0	0	0	0	0	0	0	0	0	0	0	0	0	0	0	0	0	0	0	0	0	0	0	0	0	0	0
0	0	0	0	927	935	935	937	937	937	940	942	945	950	953	955	955	958	958	958	969	972	977	980	985	983	985	988	991	997	1003	1014	1014	1052	1052	1055	1061	1061	1061	1064	1064	1064	1064	1064	1068	1068	1068	1071	1071	1071	1071	1074	1074	1074	1074	1078	1078	1078	1085	1088	1095	1105	1105	1105	1116	1120	1116	1116	1116	0	1443	1449	1449	1449	1449	1449	1449	1449	1443	1443	1443	1443	1455	1437	1437	1443	1437	1437	1437	1437	1443	1443	1443	1443	1443	1449	1449	1437	1431	1437	1437	1437	1437	1437	1437	1449	1455	1455	1455	1449	1449	1449	1455	1467	1467	1473	1499	1506	1506	1492	0	0	0	0	0	6992	6992	6992	6992	6992	6992	6992	6992	6992	6992	6992	6992	7287	7287	7287	7444	7444	7444	7444	7608	7608	0	0	7959	7959	7959	8146	7959	7959	7959	7959	7959	7959	7779	7779	7608	7608	7608	0	0	0	0	0	0	0	7287	7287	7444	7608	7608	7779	7779	7779	7779	7779	7608	7608	7608	7779	7779	7959	7959	7959	7959	7959	7959	7779	7959	7779	7608	7608	7608	7779	7779	7779	7779	7959	7959	7959	7959	7779	7779	7779	7779	7608	7444	7444	7444	7444	7444	7444	7444	7444	7444	7608	7608	7608	7608	7608	7779	7779	7608	7779	7779	7959	7959	7959	7959	7959	7959	7779	7959	7779	7779	7779	7779	7779	7779	7779	7608	7608	7779	7779	7779	7779	7779	7779	7779	7779	7608	7444	7608	7608	7779	7779	7779	7779	7779	0	0	3659	3698	3698	3738	3698	3698	3698	3698	3738	3738	3738	3698	3698	3698	3698	3698	3698	3738	3738	3738	3738	3738	3738	3738	3698	3698	3698	3698	3659	3659	3659	3659	3621	3621	3621	3621	3698	3698	3698	3698	3698	3738	3738	3738	3738	3738	3738	3738	3738	3698	3698	3698	3698	3698	3698	3698	3698	3698	7444	7444	7444	7444	7287	7287	7444	7444	7444	7444	7608	7608	7608	7608	7608	7608	7608	7608	7608	7608	7608	7608	7608	7444	7444	7444	0	0	0	0	0	7444	7608	7608	7608	7608	7608	7608	7608	7608	7608	7608	7608	7608	7608	7444	7444	7608	7608	7608	7608	7608	7608	7608	7608	7608	7444	7444	7444	7444	7444	7608	7608	7608	7608	7608	7608	7608	7608	7608	7444	7608	7608	7608	7608	7608	7608	7608	7608	7608	0	7608	7444	7444	7444	7608	7608	7608	7608	7608	7608	7444	7444	7287	7287	7287	7287	7287	7608	7608	7608	7608	7608	7608	7608	7608	7608	7608	7608	7444	7444	7444	7444	7444	7608	7608	7608	7608	7608	7608	7608	7608	7444	7444	7444	7608	7608	7608	7779	7608	7608	7608	7608	7608	0	0	0	0	7444	7444	7444	7444	7608	7444	7444	7608	7444	7287	7444	7287	7287	7444	7444	7444	7444	7444	7608	7608	7608	7608	7608	7779	7779	7779	0	0	0	0	0	0	0	0	0	7779	7779	7779	7779	7779	7779	7779	0	0	0	0	0	0	0	0	0	0	0	0	0	0	0	0	0	0	0	0	0	0	0	0	0	0	0	0	0	0	0	0	0	0	7608	7779	7779	7779	7959	7959	7959	7959	7959	7959	7959	7779	7779	7779	7779	7608	7608	7608	0	0	0	0	0	0	0	3073	3073	3073	3046	3046	3046	3019	2993	2993	2993	2993	2993	2993	2993	2993	2967	2967	2967	2967	2942	2942	2942	2917	2917	2942	2942	2942	2967	2967	2967	2967	2993	2967	2967	2967	2967	0	0	0	0	0	0	0	0	0	0	0	0	0	0	0	0	0	0	0	0	0	0	0	0	0	0	0	0	0	0	0	0	0	0	0	0	0	0	0	0	0	0
0	0	0	0	925	927	937	935	937	937	942	945	948	950	950	955	955	958	958	966	969	972	974	980	985	985	988	994	997	1000	1000	1008	1011	1011	1055	1058	1061	1061	1064	1064	1064	1064	1064	1064	1068	1071	1071	1074	1074	1074	1074	1074	1074	1078	1078	1078	1081	1081	1085	1091	1098	1105	1105	1113	1113	1116	1116	1116	0	0	1455	1455	1455	1455	1455	1455	1455	1455	1449	1449	1455	1461	1461	1461	1449	1455	1449	1449	1449	1449	1449	1449	1449	1449	1449	1449	1455	1443	1443	1443	1443	1443	1443	1443	1443	1461	1461	1455	1455	1455	1455	1455	1455	1461	1461	1499	1499	1506	1506	1506	1506	0	0	0	0	6992	6992	6992	6992	6992	6992	6992	6853	6853	6992	6992	6992	7137	7287	7287	7444	7444	7444	7444	7444	7444	0	0	7959	7959	7959	7779	7779	7779	7779	7779	7608	7959	7779	7779	7608	7608	7608	0	0	0	0	0	0	0	0	7444	7444	7608	7608	7779	7779	7779	7779	7779	7779	7608	7608	7779	7959	7959	7959	8146	7959	7959	7959	7959	7959	7959	7779	7779	7779	7959	7959	7959	7959	7959	7959	7959	7959	7959	7959	7959	7959	7959	7608	7608	7608	7608	7608	7444	7608	7608	7608	7608	7608	7608	7608	7779	7779	7959	7779	7779	7779	7959	7959	7959	7959	7959	7959	7779	7959	7959	7959	7959	7779	7779	7779	7779	7608	7608	7608	7779	7779	7779	7779	7779	7779	7779	7608	7608	7608	7608	7608	7608	7608	0	0	0	3738	3738	3698	3738	3738	3698	3698	3698	3698	3698	3698	3698	3698	3698	3698	3698	3659	3698	3698	3738	3698	3738	3738	3738	3738	3698	3698	3698	3659	3659	3659	3621	3621	3621	3621	3621	3621	3698	3698	3738	3698	3698	3738	3738	3738	3738	3738	3738	3738	3738	3698	3698	3698	3698	3698	3698	3698	3698	3698	3698	7444	7444	7444	7608	7444	7608	7608	7608	7608	7779	7779	7779	0	0	7608	7779	7608	7779	7608	7608	7608	7608	7444	7444	7444	0	0	0	0	0	7444	7608	7608	7608	7779	7779	7779	7779	7779	7608	7608	7608	7608	7608	7608	7608	7608	7608	7608	7608	7779	7779	7779	7608	7608	7444	7444	0	7444	7444	7608	7608	7608	7608	7608	7779	7779	7779	7779	7608	7608	7608	7608	7608	7608	7608	7444	7444	7444	0	7444	7444	7444	7608	7608	7608	7608	7608	7608	7608	7444	7444	7444	7444	7444	7444	7444	7608	7608	7608	7608	7608	7608	7608	7779	7608	7608	7608	7444	7444	7444	7444	7444	7444	7608	7608	7608	7779	7608	7608	7608	7608	7608	7608	7608	7608	7608	7608	7608	7608	7608	7608	0	0	0	0	0	7608	7608	7608	7608	7608	7608	7608	7779	7608	7608	7444	7444	7444	7444	7444	7444	7444	7444	7608	7608	7608	7779	7608	7608	7779	7779	0	0	0	0	0	0	0	0	0	7779	7779	7779	7779	7779	7959	7959	7959	0	0	0	0	0	0	0	0	0	0	0	0	0	0	0	0	0	0	0	0	0	0	0	0	0	0	0	0	0	0	0	0	0	0	0	0	0	0	0	0	0	7959	7959	7959	7779	7779	7779	7779	7779	7779	7779	0	0	0	0	0	0	0	0	3073	3073	3046	3046	3019	3019	2993	2993	2993	2993	2993	2993	2967	2967	2967	2967	2967	2967	2942	2942	2942	2942	2942	2942	2942	2942	2967	2967	2967	2967	2967	2967	2967	2967	2967	0	0	0	0	0	0	0	0	0	0	0	0	0	0	0	0	0	0	0	0	0	0	0	0	0	0	0	0	0	0	0	0	0	0	0	0	0	0	0	0	0	0
0	0	0	0	925	930	930	935	937	937	945	948	950	950	953	953	955	958	963	966	969	972	974	977	985	985	985	994	997	997	1003	1008	1011	1011	1014	1014	1061	1061	1061	1064	1064	1064	1068	1068	1071	1074	1074	1074	1078	1078	1078	1078	1078	1078	1081	1081	1081	1085	1088	1091	1102	1105	1105	1105	1113	1113	1113	1113	0	0	1461	1461	1461	1461	1461	1467	1461	1461	1455	1455	1461	1473	1473	1473	1467	1473	1461	1455	1455	1455	1455	1455	1455	1455	1455	1455	1455	1473	1480	1480	1473	1473	1473	1473	1480	1473	1461	1461	1455	1455	1455	1461	1467	1473	1480	1499	1492	1499	1499	1506	1506	1519	1519	1519	0	0	0	6992	6992	6992	6992	6992	6992	6992	6992	6992	6992	6992	7137	7287	7287	7287	7444	7444	7444	7444	0	0	7959	7959	7959	7959	7779	7779	7779	7779	7608	7779	7779	7779	7608	7608	0	0	0	0	0	0	0	0	0	7444	7444	7608	7608	7779	7779	7779	7779	7779	7779	7608	7779	7779	7959	7959	7959	8146	7959	7959	7959	7959	7959	7959	7779	7779	7779	7959	7959	7959	7959	7959	7959	7959	7959	7959	7959	7959	7959	8146	7608	7608	7608	7608	7608	7608	7608	7608	7608	7779	7779	7779	7779	7779	7959	7959	7959	7959	7959	7959	7959	7959	7959	7959	7959	7959	7959	7959	7959	7959	7959	7779	7779	7779	7779	7779	7779	7779	7779	7779	7779	7779	7608	7779	7608	7779	7608	7608	7608	7608	7608	0	0	3738	3738	3738	3698	3698	3698	3698	3698	3698	3698	3738	3738	3698	3698	3698	3698	3698	3659	3659	3698	3698	3698	3738	3738	3738	3698	3698	3659	3698	3659	3621	3621	3621	3621	3621	3621	3659	3659	3698	3698	3698	3698	3698	3738	3738	3738	3738	3738	3738	3738	3738	3698	3698	3698	3698	3698	3698	3698	3698	3698	3698	3659	3659	7608	7608	7608	7608	7608	7608	7779	7779	7779	7959	7959	0	0	7779	7779	7779	7608	7608	7608	7608	7608	7608	7444	0	0	0	0	0	0	0	7608	7608	7779	7779	7779	7779	7779	7608	7608	7608	7608	7608	7608	7608	7608	7779	7779	7779	7779	7779	7779	7779	7608	0	0	0	0	0	0	0	7608	7608	7608	7779	7779	7779	7779	7444	7608	7608	7608	7608	7608	7444	7444	7444	7444	0	7444	7444	7444	7608	7608	7608	7608	7608	7608	7608	7608	7444	7444	7444	7444	7444	7444	7608	7608	7608	7608	7608	7608	7608	7779	7608	7608	7608	7608	7444	7444	7444	7444	7608	7608	7608	7779	7779	7779	7608	7608	7608	7608	7959	7959	7959	7959	7959	7608	7608	7608	7608	0	0	0	0	7608	7608	7779	7779	7779	7779	7608	7779	7779	7779	7779	7444	7444	7444	7444	7444	7444	7608	7608	7608	7779	7779	7779	7779	7779	0	0	0	0	0	0	0	0	0	0	0	7779	7779	7779	7779	7779	7779	7959	7959	7959	0	0	0	0	0	0	0	0	0	0	0	0	0	0	0	0	0	0	0	0	0	0	0	0	0	0	0	7959	7959	7959	7959	0	0	0	0	0	0	0	0	0	0	7959	7959	7779	7779	7779	7779	7779	7779	7779	7779	0	0	0	0	0	0	3046	3046	3046	3019	3019	3019	2993	2993	2993	2993	2967	2967	2967	2967	2967	2967	2942	2942	2942	2942	2917	2942	2917	2917	2942	2942	2942	2967	2967	2967	2967	2967	2967	2967	2967	2967	0	0	0	0	0	0	0	0	0	0	0	0	0	0	0	0	0	0	0	0	0	0	0	0	0	0	0	0	0	0	0	0	0	0	0	0	0	0	0	0	0	0
0	0	0	0	927	927	927	932	935	937	945	948	950	950	953	953	955	963	966	966	969	972	974	980	985	985	988	994	997	997	1000	1008	1011	1011	1011	1014	1014	1061	1061	1064	1064	1064	1068	1071	1074	1074	1074	1074	1078	1078	1078	1081	1081	1081	1085	1085	1085	1088	1091	1095	1098	1102	1102	1105	1109	1109	1109	1109	0	0	1473	1467	1467	1467	1467	1473	1461	1461	1455	1461	1480	1480	1480	1473	1473	1473	1467	1473	1473	1473	1467	1467	1473	1467	1473	1467	1486	1480	1486	1480	1480	1480	1480	1480	1480	1473	1467	1467	1480	1480	1473	1473	1480	1480	1486	1492	1492	1492	1499	1506	1506	1519	1519	1539	1532	1532	1532	0	0	0	6992	6992	6992	6992	6992	7137	7137	7287	7287	7444	7444	7444	7444	7444	7444	7608	7608	0	0	0	7959	7959	7779	7779	7779	7779	7608	7959	7959	7959	7959	7608	0	0	0	0	0	0	0	0	0	0	0	0	0	7959	7779	7779	7779	7779	7779	7779	7779	7779	7779	7959	7959	7959	7959	7959	7959	7959	7959	7959	7959	7779	7779	8146	7959	7959	8146	8146	8146	7959	8146	7959	8146	8146	8146	8146	8146	7959	7779	7779	7779	7608	7608	7608	7608	7779	7779	7779	7779	7779	7959	7959	7959	7959	7959	7959	7959	7959	7959	7959	7959	7959	7959	7959	7959	7959	7959	7779	7779	7608	7779	7779	7779	7779	7779	7779	7779	7779	7608	7779	7608	7608	7608	7608	7608	0	0	0	3779	3738	3738	3698	3698	3698	3698	3698	3698	3698	3698	3698	3698	3698	3698	3659	3698	3659	3659	3659	3698	3698	3698	3698	3698	3698	3698	3659	3659	3659	3621	3621	3621	3621	3621	3621	3621	3621	3621	3659	3659	3698	3698	3698	3698	3738	3738	3738	3738	3738	3738	3738	3698	3698	3698	3698	3698	3698	3698	3698	3698	3659	3659	3698	3698	7779	7779	7779	7779	7779	7779	7959	7959	7959	7959	0	0	7779	7779	7779	7779	7608	7608	7608	7608	7608	0	0	0	0	0	0	0	7779	7779	7779	7779	7779	7779	7779	7779	7779	7608	7608	7608	7608	7608	7608	7608	7608	7608	7779	7779	7779	7779	7779	0	0	0	0	0	0	0	0	7779	7779	7779	7779	7779	7608	7779	7444	7608	7608	7608	7608	7608	7444	7608	7608	0	0	0	0	7608	7608	7608	7608	7608	7608	7608	7779	7608	7608	7608	7608	7608	7608	7608	7608	7608	7608	7608	7608	7608	7779	7779	7608	7608	7608	7608	7444	7444	7444	7444	7608	7608	7608	7779	7779	7779	7608	7608	7779	7779	7959	7959	8146	7959	7959	7779	7779	7779	7608	7608	7608	7608	7608	7608	7779	7779	7959	8146	7959	7959	7959	7959	7959	7779	7608	7444	7444	7444	7444	7608	7608	7608	7779	7779	7779	7779	7779	7779	0	0	0	0	0	0	0	0	0	7779	7779	7959	7779	7959	7959	7959	7779	7779	7779	7779	0	0	0	0	0	0	0	0	0	0	0	0	0	0	0	0	0	0	0	0	0	0	0	0	0	0	7959	7959	7779	7779	7779	0	0	0	0	0	0	0	0	0	0	0	8146	7959	7959	7779	7779	7779	7779	7779	7779	0	0	0	0	0	0	3046	3019	3046	3046	3019	3019	2993	2993	2993	2993	2967	2967	2967	2967	2967	2967	2967	2942	2942	2917	2917	2917	2917	2917	2917	2917	2942	2967	2967	2967	2967	2967	2967	2967	2967	2967	0	0	0	0	0	0	0	0	0	0	0	0	0	0	0	0	0	0	0	0	0	0	0	0	0	0	0	0	0	0	0	0	0	0	0	0	0	0	0	0	0	0
0	0	0	0	927	927	927	937	937	937	942	948	948	950	953	953	955	966	966	969	969	972	974	977	985	980	988	994	997	997	1000	1006	1011	1011	1011	1014	1014	1014	1064	1064	1064	1068	1071	1071	1074	1078	1078	1078	1081	1081	1081	1085	1081	1085	1085	1088	1088	1088	1091	1098	1102	1102	1102	1102	1105	1113	1113	1113	0	0	1473	1473	1467	1467	1473	1480	1473	1467	1486	1492	1492	1492	1492	1486	1480	1486	1486	1480	1480	1480	1480	1480	1486	1486	1492	1492	1492	1486	1492	1486	1486	1486	1492	1486	1480	1480	1473	1473	1486	1492	1486	1480	1480	1486	1492	1492	1499	1499	1506	1506	1519	1525	1532	1539	1532	1532	1532	0	0	0	0	0	0	6992	6992	6992	7137	7137	7287	7287	7287	7287	7444	7444	7444	7608	7444	7444	7444	0	7779	7959	7779	7779	7779	7779	7779	7608	7779	7779	7959	0	0	0	0	0	0	0	0	0	0	0	0	0	0	7959	7959	7779	7779	7779	7779	7779	7779	7779	7779	7959	7959	7959	7959	7959	7959	7959	8146	7959	7959	7779	7779	8146	8146	7959	8146	8146	8146	8146	8146	8146	8146	8146	8146	8146	8146	7959	7779	7779	7608	7608	7608	7608	7608	7779	7779	7779	7779	7779	7959	7959	7959	7959	7959	7959	7959	7959	7959	7959	7959	7959	7959	7959	7959	7959	0	0	7779	7608	7779	7779	7779	7779	7779	7779	7779	0	0	0	7608	7608	0	0	0	0	0	3738	3738	3738	3698	3698	3698	3698	3738	3698	3698	3698	3698	3698	3698	3698	3698	3698	3659	3659	3659	3659	3698	3698	3698	3698	3698	3698	3698	3659	3659	3659	3621	3621	3621	3659	3621	3621	3621	3621	3621	3621	3659	3659	3659	3698	3698	3698	3698	3738	3738	3738	3738	3738	3698	3698	3698	3698	3698	3698	3698	3698	3698	3698	3698	3659	3659	7779	7779	7779	7779	7779	7779	7959	7959	7779	7779	0	0	7779	7779	7779	7779	7779	7779	7779	7779	7779	0	0	0	0	0	7779	7779	7779	7779	7779	7779	7779	7608	7779	7779	7779	7608	7608	0	0	0	7608	7779	7779	7779	7779	7779	7779	0	0	0	0	0	0	0	0	0	0	7608	7779	7779	7779	7779	7608	7608	7444	7608	7608	7608	7608	7608	7608	7608	7608	0	0	0	0	7608	7608	7608	7608	7608	7779	7779	7779	7779	7779	7608	7779	7779	7608	7608	7608	7779	7779	7779	7779	7779	7779	7779	7608	7608	7608	7608	7444	7444	7444	7608	7608	7608	7608	7608	7779	7779	0	0	7779	7779	0	8146	8146	8146	7959	7779	7779	7779	7608	7608	7608	7779	7779	7779	7779	7959	7959	8146	8146	7959	7959	7959	7959	7779	7779	7608	7608	7608	7444	7608	7608	7608	7608	7779	7608	7608	7779	7608	7608	0	0	0	0	0	0	0	7779	7959	7959	7959	7779	7959	7959	7779	7779	7779	7779	7779	7779	0	0	0	0	0	0	0	0	0	0	0	0	0	0	0	0	0	0	0	0	0	0	0	0	0	8146	8146	7959	8146	8146	0	0	0	0	0	0	0	0	0	0	0	8146	7959	7959	7959	7779	7779	7779	7779	7779	0	0	0	0	0	0	0	3019	3046	3073	3046	3019	3019	2993	2993	2993	2967	2967	2967	2967	2967	2967	2942	2942	2942	2942	2917	2917	2917	2917	2917	2942	2942	2967	2967	2967	2967	2967	2967	2942	2942	0	0	0	0	0	0	0	0	0	0	0	0	0	0	0	0	0	0	0	0	0	0	0	0	0	0	0	0	0	0	0	0	0	0	0	0	0	0	0	0	0	0	0
0	0	0	0	932	930	927	935	937	935	940	945	948	948	953	958	958	966	966	969	969	972	972	974	983	983	988	997	1000	1000	1006	1008	1011	1011	1011	1014	1014	1014	1014	1071	1071	1071	1074	1074	1078	1078	1078	1081	1085	1088	1088	1088	1088	1088	1091	1095	1095	1098	1098	1098	1102	1102	1105	1105	1105	1116	1116	1116	0	0	1486	1486	1480	1486	1486	1492	1486	1492	1492	1499	1499	1499	1499	1499	1499	1499	1499	1492	1492	1492	1492	1492	1499	1492	1499	1492	1492	1492	1499	1492	1492	1499	1506	1499	1506	1499	1499	1499	1492	1499	1499	1486	1499	1499	1492	1499	1499	1506	1512	1512	1519	1519	1525	1532	1539	1539	1532	0	0	0	0	0	6853	6992	6992	6992	7137	7137	7287	7287	7287	7287	7287	7444	7444	7444	7444	7608	7608	7608	7959	7959	7779	7959	7959	7959	7959	7779	7779	7779	0	0	0	0	0	0	0	0	0	0	0	0	0	0	0	7959	7959	7779	7779	7779	7779	7779	7779	7779	7779	7959	7959	7959	7959	7959	7959	7959	8146	7959	7959	7959	7779	8146	8146	7959	8146	8146	8146	8146	8146	8146	8146	8146	8146	8146	8146	7959	7959	7959	7779	7779	7779	7779	7779	7779	7779	7779	7959	7959	7959	7959	7959	7959	7959	7959	7959	7959	7959	7959	7959	7959	7959	7959	7959	0	0	0	0	0	7779	7779	7779	7779	7779	7779	0	0	0	0	7608	7608	0	0	0	0	3738	3738	3738	3738	3738	3738	3698	3698	3698	3698	3698	3698	3659	3698	3698	3698	3659	3659	3659	3659	3659	3659	3659	3659	3659	3698	3698	3659	3659	3659	3659	3659	3621	3621	3621	3621	3621	3621	3621	3621	3621	3621	3659	3659	3659	3698	3698	3698	3698	3698	3698	3698	3698	3698	3698	3698	3698	3698	3698	3698	3698	3698	3698	3698	3698	3659	3659	0	7779	7779	7779	7779	7779	7779	7779	7779	7779	0	0	0	7779	7779	7779	7779	7779	7779	7779	7779	0	0	0	0	0	7779	7779	7779	7779	7779	7779	7779	7779	7779	7959	7959	7779	7779	0	0	0	0	7779	7779	7779	7959	7959	8146	8146	0	0	0	0	0	0	0	0	0	7779	7779	7779	7779	7779	7608	7608	7608	7608	7608	7608	7608	7608	7608	7608	7608	0	0	0	0	0	7779	7779	7779	7779	7779	7779	7779	7779	7779	7779	7779	7779	7779	7608	7608	7779	7779	7779	7779	7779	7959	7779	7779	7779	7779	7608	7444	7444	7608	7608	7608	7608	7779	7779	7779	7779	0	0	0	0	0	8146	8146	8146	8146	7779	7779	7779	7779	7779	7779	7779	7779	7959	7959	7959	8146	8146	8146	8146	7959	8146	8146	7779	7779	7779	7608	7608	7444	7608	7608	7608	7608	0	7608	7779	7779	7779	7608	0	0	0	0	0	0	0	7959	7959	7959	7959	7959	7959	7959	7959	7959	7959	7779	7959	7959	7779	7779	0	0	0	0	0	0	0	0	0	0	0	0	0	0	0	0	0	0	0	0	0	0	0	8343	8146	8146	8146	8146	8343	8343	0	0	0	0	0	0	0	0	0	0	7959	7959	7959	7959	7959	7959	7959	7779	0	0	0	0	0	0	0	0	3046	3046	3046	3019	3019	2993	2993	2993	2967	2967	2967	2967	2967	2967	2942	2942	2942	2917	2917	2917	2917	2942	2942	2942	2942	2942	2942	2942	2942	2942	2967	2967	2942	0	0	0	0	0	0	0	0	0	0	0	0	0	0	0	0	0	0	0	0	0	0	0	0	0	0	0	0	0	0	0	0	0	0	0	0	0	0	0	0	0	0	0
0	0	0	0	932	930	927	937	937	937	940	942	948	948	953	950	958	966	966	966	969	972	974	977	980	983	985	994	997	1000	1006	1008	1011	1011	1011	1014	1014	1014	1014	1030	1033	1033	1036	1036	1036	1095	1095	1095	1091	1091	1091	1091	1091	1091	1095	1098	1102	1102	1102	1102	1105	1105	1105	1105	1109	1116	1116	1116	1116	0	1486	1492	1492	1499	1499	1499	1492	1499	1499	1506	1506	1506	1506	1506	1499	1499	1506	1506	1506	1506	1506	1512	1506	1506	1506	1499	1506	1499	1499	1499	1499	1506	1512	1512	1512	1512	1506	1506	1506	1506	1506	1492	1492	1492	1499	1499	1499	1506	1512	1519	1525	1525	1532	1539	1546	1546	1546	1546	0	0	0	0	6853	6992	6992	6992	7137	7287	7287	7287	7287	7287	7287	7444	7444	7444	7444	7608	7608	7608	7959	7959	7779	7779	7959	7959	7959	7959	7959	7779	0	0	0	0	0	0	0	0	0	0	0	0	0	0	0	7959	7959	7779	7779	7959	7959	7959	7959	7959	7959	7959	7959	8146	7959	7959	7959	7959	8146	7959	7959	7959	7779	7779	8146	8146	8146	8343	8146	8146	8146	8146	8146	8146	8146	8146	8146	7959	7959	7959	7779	7779	7959	7959	7959	7959	7959	7959	7959	7959	7959	7959	7959	7959	7959	7959	8146	8146	7959	7959	7959	7959	7959	7959	7959	7959	0	0	0	0	0	7779	7779	7779	7779	7779	0	0	0	0	0	0	0	0	0	0	3698	3698	3698	3738	3698	3698	3698	3698	3698	3698	3659	3659	3659	3698	3698	3659	3659	3659	3659	3659	3621	3659	3659	3659	3621	3659	3659	3659	3659	3659	3659	3659	3621	3621	3621	3621	3621	3621	3621	3621	3621	3659	3659	3659	3659	3698	3698	3659	3659	3659	3659	3698	3698	3698	3659	3698	3698	3698	3659	3698	3698	3698	3698	3698	3698	3659	3659	0	7779	7779	7779	7779	7779	7779	7779	7779	7779	7779	7779	0	8146	7959	7959	7959	7959	7959	7779	0	0	0	0	0	0	7779	7959	7959	7959	7959	7959	7959	7779	7779	7959	8146	8146	7779	0	0	0	0	0	7779	7959	7959	8146	8146	8146	8146	0	0	0	0	0	0	0	0	7779	7779	7779	7779	7779	7608	7608	7444	7608	7779	7779	7779	7779	0	0	0	0	0	0	0	0	7779	7779	7779	7779	7779	7959	7959	7959	7959	7779	7779	7779	7779	7779	7779	7779	7779	7779	7779	7959	8146	7779	7779	7779	7779	7779	7608	7608	7608	7608	7779	7779	7779	8146	8146	8146	0	0	0	0	0	8146	8146	7959	8146	7959	7959	7959	7959	7779	7779	7959	7959	7959	7959	8146	8146	8146	8146	8146	8146	8146	8146	7959	7959	7779	7779	7608	0	0	7608	7608	0	0	7608	7779	7779	7779	0	0	0	0	0	0	0	0	7959	7959	7959	7959	7959	7959	7959	7959	7779	7959	7779	7959	7959	7959	7959	0	0	0	0	0	0	0	0	0	0	0	0	0	0	0	0	0	0	0	0	0	0	0	8343	8146	8146	8343	8146	8343	8343	0	0	0	0	0	0	0	0	0	8146	7959	7959	7959	7959	7959	7959	7959	0	0	0	0	0	0	0	0	0	0	3046	3046	3019	2993	2993	2993	2993	2993	2967	2967	2967	2967	2967	2942	2942	2942	2917	2917	2917	2942	2942	2942	2942	2942	2942	2967	2967	2942	2942	2942	2942	2942	0	0	0	0	0	0	0	0	0	0	0	0	0	0	0	0	0	0	0	0	0	0	0	0	0	0	0	0	0	0	0	0	0	0	0	0	0	0	0	0	0	0	0
0	0	0	0	0	925	930	935	937	937	942	945	948	948	953	950	963	966	966	966	969	972	974	974	980	980	983	991	994	1003	1003	1008	1011	1011	1011	1014	1017	1017	1026	1030	1030	1036	1036	1036	1036	1116	1109	1105	1098	1098	1098	1098	1098	1098	1098	1098	1102	1102	1102	1098	1102	1105	1105	1105	1105	1116	1116	1116	1116	0	0	1492	1492	1492	1492	1492	1492	1499	1506	1506	1506	1512	1506	1512	1512	1519	1519	1519	1519	1512	1519	1525	1519	1506	1506	1512	1512	1512	1506	1506	1506	1519	1519	1519	1519	1519	1512	1512	1506	1512	1499	1499	1499	1499	1506	1506	1506	1506	1512	1519	1525	1525	1546	1553	1553	1553	1560	1560	0	0	0	0	0	0	6992	6992	7137	7137	7287	7287	7287	7287	7287	7444	7608	7608	7444	7608	7608	7608	7608	7959	7608	7608	7959	7959	8146	7959	7959	0	0	0	0	0	0	0	0	0	0	0	0	0	0	0	0	7959	7959	7959	7959	7959	7959	7959	7959	7959	7959	7959	8146	8146	8146	8146	8146	8146	8146	8146	7959	7959	7959	7959	7959	7959	8146	8343	8146	8146	8146	8146	8146	8146	8146	8146	8146	8146	7959	7959	7779	7779	7959	7959	7959	7959	7959	7959	7959	7959	7959	7959	7959	7959	7959	7959	7959	7959	0	7959	7959	7959	7959	8146	7959	7959	0	0	0	0	0	0	0	0	0	0	0	0	0	0	0	0	0	0	0	3659	3621	3621	3659	3698	3698	3698	3698	3698	3698	3659	3659	3659	3659	3659	3659	3659	3659	3659	3659	3659	3621	3659	3659	3659	3621	3659	3659	3659	3621	3621	3621	3621	3621	3621	3621	3621	3659	3621	3621	3621	3621	3621	3621	3621	3621	3659	3659	3659	3659	3659	3659	3659	3698	3698	3659	3698	3698	3698	3659	3698	3698	3698	3698	3659	3698	3659	3621	3621	7779	7779	7779	7608	7779	7779	7779	7608	7608	7608	7608	0	8146	8146	8146	8146	7959	7959	0	0	0	0	0	0	0	0	7959	7959	7959	7959	7959	7959	7959	7779	7959	8146	8146	0	0	0	0	0	0	0	7779	7959	7959	8146	8146	8146	8146	0	0	0	0	0	0	7779	7779	7779	7779	7779	7779	7779	7779	7608	7779	7779	7779	7959	7959	0	0	0	0	0	0	0	0	7779	7959	7959	7779	7779	7779	7959	7959	7779	7779	7779	7959	7779	7779	7779	7779	7779	7779	7779	7959	7959	7779	7779	7959	7959	7779	7779	7608	7608	7608	7779	7779	7959	8146	8343	8343	8343	0	0	0	0	8146	8146	7959	8146	7959	7959	7959	7959	7779	7779	7959	7959	8146	7959	8146	8146	8146	8146	8146	8146	8146	8146	7959	7959	7959	7959	0	0	0	0	0	0	0	0	0	0	0	0	0	0	0	0	0	0	0	8146	8146	8146	7959	7959	7959	7959	7779	7779	7779	7779	7959	7959	7959	7959	0	0	0	0	0	0	0	0	0	0	0	0	0	0	0	0	0	0	0	0	0	0	0	8146	8146	8146	8146	8146	8146	8146	8146	0	0	0	0	0	0	0	0	8146	7959	7959	7959	7959	7959	7959	7959	0	0	0	0	0	0	0	0	0	0	0	3019	2993	2993	2993	2993	2993	2967	2967	2967	2967	2967	2967	2942	2942	2942	2942	2942	2917	2942	2942	2942	2942	2942	2942	2942	2942	2942	2942	2942	2917	2917	0	0	0	0	0	0	0	0	0	0	0	0	0	0	0	0	0	0	0	0	0	0	0	0	0	0	0	0	0	0	0	0	0	0	0	0	0	0	0	0	0	0	0
0	0	0	0	917	920	925	932	937	937	942	945	948	948	955	955	955	966	966	966	969	969	974	977	980	983	983	988	994	1006	1008	1011	1011	1011	1014	1017	1017	1023	1026	1030	1033	1036	1036	1039	1039	1039	1105	1105	1098	1098	1098	1098	1098	1098	1098	1098	1098	1102	1098	1102	1102	1105	1105	1105	1109	1113	1116	1116	1116	0	0	1492	1492	1486	1486	1492	1499	1506	1506	1512	1512	1519	1512	1519	1525	1532	1532	1532	1532	1525	1525	1525	1525	1519	1519	1519	1519	1525	1525	1512	1525	1525	1519	1519	1519	1519	1512	1506	1506	1506	1506	1506	1506	1499	1519	1512	1512	1512	1519	1525	1525	1532	1553	1553	1560	1560	1567	1567	1567	0	0	0	0	0	6992	6992	7137	7137	7287	7287	7287	7287	7287	7444	7444	7444	7444	7608	7608	7608	7608	7608	7608	7608	0	7959	8146	7959	7959	0	0	0	0	0	0	0	0	0	0	0	0	0	0	0	0	8146	8146	7959	7959	7959	7959	7959	7959	7959	7959	7959	8146	8146	8146	8146	8146	8146	8146	8146	7959	7959	7959	7959	8146	8146	8146	8343	8146	8146	8146	8146	8146	8146	8146	8146	8146	8146	7959	7779	7608	7608	7779	7779	7779	7959	7959	7959	7959	7959	7959	8146	7959	7959	7959	7959	7959	7959	0	0	0	0	8146	8146	7959	7959	7959	0	0	0	0	0	0	0	0	0	0	0	0	0	0	0	0	0	3659	3659	3659	3659	3659	3698	3659	3698	3698	3698	3698	3659	3659	3659	3659	3659	3659	3659	3659	3659	3621	3621	3621	3659	3659	3659	3621	3659	3659	3621	3621	3621	3621	3659	3659	3621	3621	3621	3621	3621	3621	3621	3621	3621	3621	3621	3621	3659	3659	3659	3659	3659	3659	3659	3659	3659	3659	3659	3698	3698	3659	3698	3698	3698	3698	3659	3698	3659	3659	3659	0	7779	7779	7608	7608	7779	7779	7608	7608	8146	8343	8343	8146	8146	8146	8146	8146	7959	0	0	0	0	0	0	0	0	0	0	0	7959	7959	7959	7959	0	0	0	0	0	0	0	0	0	0	0	7779	7959	7959	8146	8146	8146	8343	8343	8343	8343	8343	7959	7959	7959	7779	7779	7779	7779	7959	7959	7779	7608	7779	7779	7779	7959	7959	0	0	0	0	0	0	0	0	0	7959	7959	7779	7959	7959	7959	7959	7779	7779	7779	7779	7779	7779	7779	7779	7959	7959	7959	7959	7959	7779	7959	7959	7959	7959	7959	7608	7608	0	0	0	7959	8146	8343	8343	8343	0	0	0	0	0	8146	7959	7959	7959	7959	7959	7959	7959	7779	7959	7959	7959	8146	8146	8146	8146	8146	8146	8146	8146	8146	7959	7959	7959	7779	7779	0	0	0	0	0	0	0	0	0	0	0	0	0	0	0	0	0	0	7959	7959	8146	7959	7959	7959	7959	7779	7779	7959	7959	7959	7959	7959	7959	8146	8146	8146	8343	8343	0	0	0	0	0	0	0	0	0	0	0	0	0	0	0	0	0	8146	8343	8343	8146	8146	8146	8146	8146	8146	8146	0	0	8146	8146	8146	0	0	8146	8146	8146	7959	7959	7959	7959	7959	0	0	0	0	0	0	0	0	0	0	0	3019	3019	2993	2993	2993	2993	2993	2967	2967	2967	2967	2967	2942	2942	2942	2942	2942	2942	2942	2942	2942	2942	2942	2942	2942	2942	2942	2942	2942	2942	2917	0	0	0	0	0	0	0	0	0	0	0	0	0	0	0	0	0	0	0	0	0	0	0	0	0	0	0	0	0	0	0	0	0	0	0	0	0	0	0	0	0	0	0
0	0	0	0	922	922	930	930	935	937	937	940	942	942	953	953	966	966	966	966	969	974	974	977	980	983	985	991	994	1003	1008	1008	1011	1011	1011	1014	1017	1026	1030	1033	1033	1036	1036	1039	1039	1039	1039	1095	1098	1098	1098	1102	1102	1102	1098	1102	1102	1098	1102	1102	1102	1109	1109	1109	1109	1113	1120	1123	1123	0	0	0	0	1486	1486	1492	1499	1506	1512	1512	1512	1519	1519	1525	1532	1539	1539	1539	1539	1539	1539	1532	1532	1525	1525	1525	1525	1519	1525	1519	1525	1525	1525	1525	1525	1519	1519	1512	1512	1512	1512	1506	1512	1525	1525	1519	1519	1519	1525	1525	1532	1532	1546	1560	1560	1567	1567	1581	1589	1589	0	0	0	0	0	6992	6992	7137	7287	7287	7287	7287	7287	7444	7444	7444	7608	7608	7608	7608	7608	7608	7608	0	0	0	0	0	0	0	0	0	0	0	0	0	0	0	0	0	0	0	0	0	8146	8146	7959	7959	7959	7959	7959	7959	7959	7959	7959	7959	7959	8146	8146	8146	8146	8146	8146	8146	8146	8146	8146	8146	8146	8550	8343	8343	8343	8146	8146	8146	8146	8146	7959	8146	8146	7959	7959	7779	7608	7608	7608	7608	7608	7959	7959	7959	7959	7959	7959	8146	7959	8146	7959	7959	7959	7959	0	0	0	0	8146	8146	8146	8146	7959	0	0	0	0	0	0	0	0	0	0	7779	7779	0	0	0	0	3698	3659	3621	3621	3659	3659	3698	3659	3698	3698	3698	3659	3659	3621	3621	3621	3621	3621	3621	3621	3621	3621	3621	3621	3659	3659	3621	3621	3621	3621	3621	3621	3621	3621	3621	3621	3621	3621	3621	3621	3621	3659	3621	3621	3621	3621	3621	3621	3659	3659	3659	3621	3621	3621	3659	3659	3659	3659	3659	3659	3698	3659	3659	3659	3659	3659	3659	3698	3659	3659	3659	0	7779	7779	7779	7608	7608	7779	7608	7608	8146	8343	8343	8343	8343	8146	8146	8146	8146	0	0	0	0	0	0	0	0	0	8146	8146	8146	0	0	0	0	0	0	0	0	0	0	0	0	0	0	0	8146	8146	8146	8146	8146	8343	8343	8343	8343	8343	8343	8343	8343	7779	7779	7779	7959	7959	8146	7959	7779	7959	7959	7959	7959	7959	7959	0	0	0	0	0	0	0	8146	8146	8146	8146	7959	7959	7959	7959	7959	7779	7959	7959	7959	7959	7959	7959	7959	7959	7959	7959	7959	7779	7959	7959	7959	7959	7959	0	0	0	0	0	0	0	0	0	0	0	0	0	0	0	0	0	7959	7959	7959	7959	7959	7959	7959	7959	7959	8146	8146	8146	8146	8146	8146	8146	8146	8146	8146	7959	7959	7959	7959	7959	0	0	0	0	0	0	0	0	0	0	0	0	0	0	0	0	0	0	7959	7959	7959	7959	7959	7959	7959	7779	7779	7779	7779	7959	7959	7959	7959	8146	8146	8343	8343	8343	8343	8343	8550	8343	8550	8550	0	0	0	0	0	0	0	0	0	8146	8146	8343	8550	8343	8550	8343	8146	8550	8343	8343	8343	8146	8146	8146	8146	8146	8146	8146	8146	8146	8146	8146	8146	8146	8146	8146	8146	0	0	0	0	0	0	0	0	0	0	0	3046	3019	2993	2993	2993	2993	2993	2993	2967	2967	2967	2942	2942	2942	2942	2942	2942	2942	2942	2942	2942	2942	2942	2942	2917	2917	2917	2917	2917	0	0	0	0	0	0	0	0	0	0	0	0	0	0	0	0	0	0	0	0	0	0	0	0	0	0	0	0	0	0	0	0	0	0	0	0	0	0	0	0	0	0	0	0
0	0	0	0	922	927	930	935	937	937	937	940	942	945	948	950	961	963	966	966	969	972	974	974	980	980	988	988	994	1000	1008	1006	1008	1011	1011	1014	1023	1033	1033	1033	1036	1036	1039	1042	1042	1052	1052	1095	1095	1095	1098	1098	1098	1098	1098	1098	1098	1098	1098	1098	1102	1105	1105	1105	1105	1113	1116	1116	1116	0	0	0	0	0	0	0	0	0	1512	1519	1519	1525	1525	1532	1539	1546	1546	1546	1546	1546	1539	1539	1539	1532	1532	1532	1532	1532	1532	1525	1525	1532	1525	1532	1532	1525	1519	1519	1519	1532	1532	1532	1539	1546	1532	1532	1532	1539	1546	1539	1539	1546	1553	1560	1560	1567	1574	1581	1589	1589	0	0	0	0	0	0	6992	7137	7137	7287	7137	7287	7287	7444	7444	7444	7444	7444	7608	7608	7608	7608	7608	7608	0	0	0	0	0	0	0	0	0	0	0	0	0	0	0	0	0	0	0	7959	8146	8146	7959	7959	7959	7959	7959	7959	7959	7959	7959	7959	8146	8146	8146	8146	8146	8146	8146	7959	8146	8146	8146	8146	8146	8146	8343	8343	8343	8343	8343	8343	8146	8146	8146	8146	8146	7959	7959	7779	7608	7608	7608	7608	7608	0	0	0	0	0	0	0	0	8146	8146	8146	0	0	0	0	0	0	8146	8146	8146	7959	7959	0	0	0	0	0	0	0	0	7779	7779	7959	7959	7959	0	0	3698	3698	3659	3621	3621	3659	3659	3698	3659	3698	3698	3698	3659	3659	3621	3621	3621	3621	3621	3621	3621	3621	3621	3621	3621	3659	3621	3621	3621	3621	3621	3621	3621	3621	3621	3621	3621	3621	3621	3621	3621	3621	3621	3621	3659	3659	3621	3621	3621	3659	3659	3621	3621	3621	3621	3659	3659	3659	3659	3659	3698	3659	3698	3698	3698	3659	3698	3698	3698	3698	3698	3698	3698	7779	7779	7779	7608	7608	0	0	0	0	0	8343	8343	8343	8343	8343	8343	8343	0	0	0	0	0	0	0	0	8146	8343	8146	8343	8343	8343	0	0	0	0	0	0	0	0	0	0	0	0	0	8146	8146	8146	8146	8146	8343	8343	8343	8343	8343	8343	8343	8343	8146	8146	7959	7959	7959	7959	7959	7959	7959	8146	7959	7959	7959	8146	8146	0	0	0	0	0	0	8146	8146	8146	8146	7959	7959	7959	7959	7959	7779	7779	7959	7959	7959	7959	7959	7959	8146	7959	7959	7959	7959	7959	7959	8146	7959	7959	0	0	0	0	0	0	0	0	0	0	0	0	0	0	0	0	0	0	7959	7959	8146	8146	8146	8146	8146	8146	8343	8343	8343	8343	8146	8146	8146	8146	8146	8146	7959	7959	7959	7959	7959	7959	0	0	0	0	0	0	0	0	0	0	0	0	0	0	0	0	7959	7959	7959	7959	7959	7959	7959	7959	7959	7959	7959	7959	7959	7959	8146	8146	8146	8146	8343	8343	8343	8343	8343	8550	8550	8550	8550	8767	8550	8343	8146	7959	7959	7959	8146	8146	8146	8146	8343	8550	8550	8550	8550	8550	8550	8550	8550	8550	8146	8146	8146	8146	8146	7959	8146	8343	8146	8146	8146	8146	8146	8146	8146	8343	8146	8146	0	0	0	0	0	0	0	0	0	3101	3073	3046	3046	3019	3019	2993	2993	2993	2993	2967	2967	2942	2967	2967	2967	2967	2967	2967	2942	2942	2942	2942	2942	2917	2893	2893	2917	2917	0	0	0	0	0	0	0	0	0	0	0	0	0	0	0	0	0	0	0	0	0	0	0	0	0	0	0	0	0	0	0	0	0	0	0	0	0	0	0	0	0	0	0	0
0	0	0	0	925	927	927	932	937	940	940	940	945	948	950	950	961	963	966	966	969	972	972	974	977	980	988	991	994	1000	1008	1006	1008	1011	1014	1017	1023	1030	1033	1033	1033	1036	1036	1045	1052	1052	1055	1064	1091	1091	1091	1098	1095	1098	1095	1095	1095	1095	1095	1098	1098	1102	1105	1105	1105	1105	1116	1116	1116	0	0	0	0	0	0	0	0	0	1519	1525	1525	1532	1532	1539	1546	1553	1546	1546	1546	1546	1546	1546	1546	1539	1546	1553	1546	1553	1539	1532	1532	1539	1532	1532	1532	1532	1539	1539	1560	1553	1532	1553	1553	1553	1539	1539	1539	1546	1546	1546	1546	1546	1553	1560	1567	1574	1574	1581	1589	1596	1611	1618	1618	1618	1618	1618	6992	7137	7137	7287	7137	7137	7287	7287	7444	7444	7444	7608	7608	7608	7608	7608	7608	7608	0	0	0	0	0	0	0	0	0	0	0	0	0	0	0	0	0	0	0	7959	8146	8146	8146	8146	8146	8146	8146	8146	7959	7959	7959	7959	8146	8146	8146	8343	8146	8146	8146	8146	8146	8146	8146	8146	8146	8146	0	8550	8550	8343	8550	8550	8343	8146	8146	7959	8146	7959	7779	7779	7779	7608	7608	7608	7608	0	0	0	0	0	0	0	0	0	8146	8146	0	0	0	0	0	0	8146	8146	8146	8146	8146	0	0	0	0	0	0	0	7779	7779	7779	7779	7779	7779	0	0	3698	3698	3698	3659	3659	3659	3659	3698	3659	3698	3659	3659	3659	3659	3621	3621	3621	3621	3621	3621	3621	3621	3621	3621	3621	3621	3621	3621	3621	3621	3621	3621	3621	3621	3621	3621	3621	3621	3621	3621	3621	3621	3621	3621	3621	3621	3621	3621	3621	3621	3659	3621	3621	3621	3621	3621	3659	3659	3621	3659	3659	3659	3659	3659	3659	3659	3659	3698	3698	3698	3698	3738	3738	0	0	0	0	0	0	0	0	0	0	0	8343	8343	8343	8343	8343	8343	0	0	0	0	0	0	0	8343	8343	8343	8343	8343	8550	8550	0	0	0	0	0	0	0	0	0	0	0	0	0	8343	8343	8343	8146	8146	8343	8343	8343	8343	8343	8343	8343	8343	8343	8146	8146	8146	8146	8146	8146	8146	8146	8146	8146	7959	8146	8146	8146	0	0	0	0	0	0	8146	8146	8146	8146	8146	7959	7959	7959	7959	7959	7959	7959	8146	7959	8146	8146	8146	8146	8146	8146	8146	8146	8146	8146	8146	8146	8146	0	0	0	0	0	0	0	0	8343	8343	8343	0	0	0	0	0	0	8146	8146	8146	8146	8146	8146	8146	8343	8343	8343	8343	8343	8343	8343	8343	8146	8146	8146	8146	7959	7959	7959	7959	7959	7959	7959	0	0	0	0	0	0	0	0	0	0	0	0	0	0	0	7959	7959	7959	7959	7959	7959	7959	7959	7959	7959	8146	7959	8146	8146	8146	8146	8343	8146	8343	8343	8343	8550	8550	8550	8550	8550	8767	8767	8767	8767	8146	8146	8146	8146	8146	8146	8343	8146	8343	8550	8550	8550	8550	8550	8550	8550	8550	8343	8146	8146	8146	8146	8146	8146	8146	8146	8146	8146	8146	8146	8146	8146	8146	8343	8146	8343	8343	0	0	0	0	0	0	0	0	3101	3101	3101	3073	3046	3046	3019	2993	2993	2993	2967	2967	2967	2967	2967	2967	2967	2967	2967	2967	2942	2942	2917	2917	2917	2893	2893	2893	2893	2893	0	0	0	0	0	0	0	0	0	0	0	0	0	0	0	0	0	0	0	0	0	0	0	0	0	0	0	0	0	0	0	0	0	0	0	0	0	0	0	0	0	0	0
0	0	0	0	925	927	930	930	940	942	942	942	945	948	950	950	958	963	963	966	969	974	974	977	980	983	983	985	991	1000	1003	1006	1011	1011	1014	1017	1020	1023	1033	1033	1033	1036	1036	1045	1048	1055	1055	1064	1068	1074	1081	1098	1095	1098	1095	1098	1098	1095	1095	1095	1098	1102	1102	1105	1105	1105	1105	1105	0	0	0	0	0	0	0	0	0	0	1519	1525	1532	1532	1539	1567	1560	1553	1553	1553	1553	1553	1553	1553	1553	1553	1553	1560	1553	1560	1553	1546	1539	1539	1539	1539	1539	1546	1546	1553	1560	1574	1567	1567	1560	1560	1546	1546	1546	1546	1546	1546	1546	1553	1560	1567	1567	1574	1581	1589	1596	1603	1603	1626	1618	1618	1618	1618	1618	0	0	0	7137	7137	7287	7287	7444	7608	7444	7444	7444	7608	7444	7444	7444	7444	0	0	0	0	0	0	0	0	0	0	0	0	0	0	0	0	0	0	0	0	8146	8146	8146	8146	8343	8146	8146	8146	8146	7959	7959	8146	8146	8146	8146	8343	8343	8146	8146	8146	8146	8146	8146	8146	8146	0	0	8767	8550	8550	8550	8550	8550	8146	8146	8146	7959	8146	7779	7779	7779	7608	7779	7779	7779	0	0	0	0	0	0	0	0	0	0	0	0	0	0	0	0	0	8146	8146	8146	8146	8146	0	0	0	0	0	0	0	7779	7959	7959	7959	7959	7959	0	0	0	3698	3659	3659	3659	3659	3698	3698	3659	3698	3698	3659	3659	3659	3621	3621	3621	3621	3621	3621	3621	3621	3621	3621	3621	3621	3621	3621	3621	3621	3621	3621	3621	3621	3621	3621	3621	3621	3621	3621	3621	3621	3621	3621	3621	3621	3621	3621	3621	3621	3659	3621	3621	3621	3621	3621	3659	3659	3621	3659	3659	3698	3698	3698	3698	3659	3698	3698	3698	3698	3698	3698	3738	3738	0	0	0	0	0	0	0	0	0	0	0	8343	8343	8343	8343	8343	0	0	0	0	0	0	0	8343	8343	8343	8343	8343	8343	8343	0	0	0	0	0	0	0	0	0	0	0	0	0	8550	8550	8550	8146	8550	8550	8550	8550	8343	8343	8550	8343	8343	8343	8343	8343	8343	8343	8343	8343	8146	8146	8343	8146	8146	8146	8146	8146	0	0	0	0	0	0	8343	8343	8343	8146	8146	8146	8146	7959	7959	7959	7959	8146	8146	8146	8146	8146	8146	8146	8146	8146	8146	8146	8146	8146	8146	8146	8146	0	0	0	0	0	0	0	0	8343	8343	8343	8343	8146	8146	0	0	8146	8146	8146	8146	8146	8146	8343	8343	8343	8343	8550	8343	8343	8343	8343	8343	8146	8146	8343	8146	7959	7959	7959	7959	8146	8146	8146	8343	8343	0	0	0	0	0	8550	8550	8550	0	0	0	0	0	7959	8146	8146	8146	8146	7959	7959	7959	8146	8146	8146	8146	8146	8146	8146	8146	8146	8146	8343	8343	8343	8550	8550	8550	8550	8767	8767	8767	8767	8767	8767	8146	8146	8146	8146	8146	8343	8146	8343	8343	8550	8550	8550	8550	8550	8550	8550	8343	8146	8146	8146	8146	8146	8146	8146	8146	8343	8146	8146	8146	8146	8146	8146	8146	8146	8146	8146	8146	0	0	0	0	0	0	0	3101	3101	3101	3073	3073	3073	3019	3019	2993	2993	2993	2967	2967	2967	2967	2967	2967	2967	2967	2967	2942	2942	2917	2917	2917	2917	2917	2893	2893	2893	0	0	0	0	0	0	0	0	0	0	0	0	0	0	0	0	0	0	0	0	0	0	0	0	0	0	0	0	0	0	0	0	0	0	0	0	0	0	0	0	0	0	0
0	0	0	0	925	927	930	935	937	940	940	940	945	948	950	953	961	963	963	966	972	974	974	977	980	983	985	988	991	1000	1003	1006	1011	1011	1014	1017	1020	1023	1026	1030	1036	1036	1039	1048	1052	1055	1058	1064	1068	1068	1071	1078	1088	1091	1091	1095	1095	1095	1095	1095	1095	1102	1105	1102	1102	1105	1105	1105	0	0	0	0	0	0	0	0	0	0	0	0	1532	1532	1539	1567	1560	1553	1553	1553	1553	1560	1560	1560	1560	1567	1560	1560	1560	1560	1553	1553	1546	1553	1546	1553	1553	1553	1553	1581	1574	1574	1581	1574	1574	1574	1560	1560	1553	1560	1553	1553	1560	1560	1567	1574	1581	1581	1581	1589	1603	1603	1611	1626	1618	1618	1626	1634	1634	1634	0	0	0	0	0	7287	7608	7608	7444	7444	7444	7444	7444	7444	7444	7608	7779	7779	0	0	0	0	0	0	0	0	0	0	0	0	0	0	0	0	0	0	0	8146	8146	8146	8146	8146	8146	8146	8146	7959	8146	8146	8146	8146	8343	8343	8146	8146	8146	8146	8146	8146	8146	8146	8146	0	8550	8767	8767	8767	8767	8550	8343	8146	8146	7959	8146	8146	7608	7608	7608	8146	8146	7959	7959	0	0	0	0	0	0	0	0	0	0	0	0	0	0	0	0	0	8146	8146	8146	8146	8146	0	0	0	0	0	0	0	7959	7959	7959	7959	7959	7959	0	0	0	3698	3698	3659	3659	3659	3659	3659	3659	3659	3659	3659	3659	3659	3621	3621	3621	3621	3621	3621	3621	3621	3621	3621	3621	3621	3621	3621	3621	3621	3621	3621	3621	3621	3621	3621	3621	3621	3621	3621	3621	3621	3621	3621	3621	3621	3621	3621	3621	3621	3621	3621	3621	3621	3621	3621	3621	3621	3621	3659	3659	3659	3659	3659	3698	3659	3698	3698	3698	3698	3698	3698	3738	3738	0	0	0	0	0	0	0	0	0	0	0	8343	8343	8343	8146	8146	0	0	0	0	0	0	0	8343	8343	8343	8343	8343	8343	8343	8343	8343	0	0	0	0	0	0	0	0	8343	8550	8550	8343	8343	8343	8343	8550	8550	8550	8550	8550	8343	8343	8550	8550	8343	8343	8550	8343	8343	8550	8550	8343	8146	8343	8343	8146	8146	8146	8146	8146	8146	0	0	8146	8343	8343	8146	8146	8146	8146	8146	8146	8146	8146	8146	8146	8146	8146	8146	8146	8146	8146	8146	8343	8343	8343	8343	8343	8343	8146	8146	8146	8146	0	0	0	0	0	0	0	8343	8146	8146	8146	8146	8146	0	0	8146	8146	8146	8146	8343	8343	8343	8343	8343	8343	8550	8343	8343	8343	8343	8343	8146	8146	8146	8146	7959	7959	7959	7959	8146	8146	8146	8146	8343	8343	0	0	0	0	8550	8550	8550	0	8146	8146	8146	8146	8146	8146	8146	8146	8146	8146	8146	7959	8146	8146	8343	8146	8146	8146	8146	8146	8343	8343	8343	8343	8343	8550	8550	8767	8767	8767	8767	8767	8767	8343	8343	8146	8146	8146	8146	8146	8343	8146	8343	8343	8550	8550	8550	8550	8550	8550	8550	8550	8146	8146	8146	8146	8146	8146	8146	8146	8343	8343	8343	8343	8146	8146	8146	8146	8146	8146	8146	8146	0	0	0	0	0	0	0	3129	3101	3101	3101	3073	3073	3046	3046	3046	3019	2993	2993	2967	2967	2967	2967	2967	2967	2967	2967	2942	2942	2917	2917	2917	2917	2917	2893	2893	2893	0	0	0	0	0	0	0	0	0	0	0	0	0	0	0	0	0	0	0	0	0	0	0	0	0	0	0	0	0	0	0	0	0	0	0	0	0	0	0	0	0	0	0
0	0	0	0	927	930	932	935	937	940	940	940	942	945	948	950	958	961	963	966	966	977	977	980	983	983	988	988	991	994	1000	1003	1008	1011	1011	1014	1014	1020	1026	1033	1036	1039	1039	1048	1052	1058	1058	1064	1064	1068	1068	1074	1085	1088	1091	1095	1095	1095	1095	1098	1098	1102	1102	1105	1105	1105	1109	1109	0	0	1596	1596	1596	1596	0	0	0	0	0	0	0	0	0	1574	1567	1553	1560	1560	1560	1567	1567	1567	1574	1581	1581	1574	1567	1567	1567	1560	1560	1560	1560	1560	1567	1567	1567	1581	1589	1589	1589	1589	1581	1581	1574	1581	1581	1589	1589	1589	1589	1589	1589	1589	1589	1581	1589	1589	1596	1611	1611	1634	1618	1626	1626	1634	1634	1634	0	0	0	0	0	0	7608	7608	7608	7444	7444	7444	7444	7444	7444	7779	7779	7959	7959	7959	0	0	0	0	0	0	0	0	0	0	0	0	0	0	0	0	0	8146	8146	8146	8146	8146	8146	8146	8146	7959	8146	8146	8343	8343	8550	8343	8550	8343	8146	8146	8146	8146	8146	8146	8146	0	8550	8767	8767	8767	8767	8767	8550	8550	8146	7959	8343	8343	7608	7608	8146	8146	8146	8146	8146	8146	8146	0	0	0	0	0	0	0	0	0	0	0	0	0	0	8146	8146	8343	8343	8146	0	0	0	0	0	0	0	7959	7959	7959	7959	7959	7959	0	0	0	0	3698	3698	3698	3698	3659	3659	3659	3659	3659	3659	3659	3659	3659	3621	3621	3621	3621	3621	3621	3621	3621	3621	3621	3621	3621	3621	3621	3621	3621	3621	3621	3621	3621	3621	3621	3621	3621	3621	3621	3621	3621	3621	3621	3621	3621	3621	3621	3621	3621	3621	3621	3621	3621	3621	3621	3621	3659	3659	3621	3659	3659	3659	3659	3698	3698	3698	3698	3698	3698	3698	3698	3698	3738	0	0	0	0	0	0	0	0	0	0	0	8343	8343	8343	8343	8343	8343	0	0	0	0	8550	8550	8343	8343	8343	8343	8550	8550	8550	8550	8550	8550	0	8550	8550	8550	8550	0	0	8550	8550	8550	8343	8343	8550	8343	8550	8550	8550	8550	8550	8550	8550	8550	8550	8343	8343	8343	8343	8343	8550	8550	8343	8343	8343	8343	8146	8146	8146	8146	8146	8146	7959	8146	8146	8146	8343	8146	8146	8146	8146	8146	8146	8146	8146	8146	8146	8146	8146	8146	8343	8343	8343	8343	8343	8550	8343	8343	8343	8343	8146	8146	8146	8146	0	0	0	0	0	0	0	0	8146	8146	8343	8343	8343	8343	0	8146	8146	8146	8146	8343	8343	8343	8343	8343	8343	8550	8343	8343	8343	8343	8343	8343	8146	8343	8146	7959	7959	7959	7959	8146	8146	8146	8146	8146	8343	8343	0	0	0	8550	8343	8343	8343	8343	8146	8146	7959	8146	8146	8146	8146	8146	8146	8146	8146	8343	8146	8343	8146	8146	8343	8343	8146	8343	8343	8343	8550	8550	8550	8550	8767	8767	8767	8767	8767	8767	8767	8767	8343	8343	8343	8146	8343	8343	8343	8343	8343	8550	8550	8550	8550	8550	8550	8550	8550	8343	8343	8343	8146	8146	8343	8550	8767	8767	8550	8343	8343	8146	8146	8146	8146	8146	8146	8146	8146	0	0	0	0	0	0	3129	3129	3129	3129	3101	3101	3101	3101	3073	3046	3019	2993	2993	2967	2967	2967	2967	2967	2967	2967	2942	2942	2917	2917	2917	2917	2893	2893	2893	2893	2893	0	0	0	0	0	0	0	0	0	0	0	0	0	0	0	0	0	0	0	0	0	0	0	0	0	0	0	0	0	0	0	0	0	0	0	0	0	0	0	0	0	0	0
0	0	0	0	927	930	932	932	937	937	937	937	940	945	948	950	958	961	963	966	966	977	977	980	983	988	988	991	991	994	1000	1003	1008	1011	1011	1014	1017	1020	1026	1030	1036	1039	1039	1052	1052	1058	1058	1061	1064	1068	1068	1071	1074	1078	1081	1088	1091	1091	1095	1095	1095	1098	1102	1105	1102	1102	1105	1105	1105	0	1596	1603	1603	1603	0	0	0	0	0	0	0	0	0	1574	1567	1560	1560	1560	1567	1581	1581	1574	1589	1596	1589	1589	1581	1581	1581	1574	1567	1567	1574	1574	1574	1574	1574	1589	1596	1596	1596	1596	1596	1596	1596	1589	1596	1603	1596	1603	1596	1596	1596	1589	1581	1589	1589	1589	1596	1603	1611	1634	1626	1626	1626	1649	1649	1649	1649	0	0	0	0	0	7608	7608	7608	7608	7608	7608	7444	7444	7608	7779	7779	7959	7959	7959	0	0	0	0	0	0	0	0	0	0	0	0	0	0	0	0	0	0	0	8343	8343	8146	8343	8343	8343	8146	8146	8343	8550	8343	8343	8343	8343	8146	8146	8146	0	0	0	0	0	0	0	8767	8767	8767	8767	8767	8767	8550	8146	8550	8343	8343	7608	7779	8146	8343	8343	8343	8343	8343	8550	8550	8550	0	0	0	0	0	0	0	0	0	0	0	0	8146	8146	8343	8343	8343	0	0	0	0	0	0	0	7959	7959	8146	7959	7959	7959	0	0	0	0	3698	3698	3698	3698	3698	3698	3659	3659	3659	3659	3659	3621	3621	3621	3621	3621	3621	3621	3621	3621	3621	3621	3621	3621	3621	3621	3621	3621	3621	3621	3621	3621	3621	3621	3621	3621	3621	3621	3621	3621	3621	3621	3621	3621	3621	3621	3621	3621	3621	3621	3621	3621	3621	3621	3621	3621	3659	3659	3621	3659	3659	3659	3659	3698	3698	3698	3659	3659	3698	3698	3698	3698	3738	0	0	0	0	0	0	0	0	0	0	0	8550	8343	8343	8343	8343	8343	8550	8550	8550	8550	8343	8343	8343	8343	8343	8343	8550	8550	8550	8550	8550	8767	8767	8550	8550	8550	8550	8343	8550	8550	8550	8550	8550	8767	8550	8550	8550	8550	8550	8550	8550	8550	8550	8550	8343	8343	8343	8343	8343	8550	8550	8550	8343	8343	8343	8343	8146	8343	8146	8146	8146	8146	8146	8146	8146	8343	8343	8343	8146	8146	8146	8146	8146	8146	8146	8146	8343	8146	8146	8146	8343	8343	8343	8343	8343	8550	8343	8343	8343	8343	8146	8146	8146	8146	0	8343	8343	8343	8343	8343	8343	8343	8146	8146	8343	8343	8343	8343	8146	8146	8146	8146	8146	8343	8343	8343	8343	8343	8343	8343	8343	8343	8343	8343	8343	8146	8343	8343	8343	7959	7959	8146	8146	8146	8146	8146	8146	8343	8343	8343	8343	8343	0	8550	8550	8343	8343	8550	8550	8550	8343	8343	8343	8343	8343	8343	8146	8146	8146	8343	8343	8343	8343	8343	8343	8343	8343	8343	8550	8550	8550	8550	8550	8767	8767	8767	8767	8767	8767	8767	8767	8767	8550	8550	8550	8343	8550	8550	8343	8343	8550	8550	8550	8550	8550	8550	8550	8550	8550	8550	8343	8343	8550	8550	8767	8767	8767	8767	8550	8343	8343	8146	8146	8146	8146	8146	8343	8146	8146	0	0	0	0	0	0	3129	3129	3129	3129	3129	3101	3101	3101	3073	3073	3046	3019	2993	2967	2967	2967	2967	2967	2967	2942	2942	2917	2917	2917	2917	2917	2893	2893	2893	2893	2893	0	0	0	0	0	0	0	0	0	0	0	0	0	0	0	0	0	0	0	0	0	0	0	0	0	0	0	0	0	0	0	0	0	0	0	0	0	0	0	0	0	0	0
