0	0	0	0	0	1116	1116	1127	1116	1116	1127	1127	1127	1120	1120	1120	1123	1123	1123	1127	1127	1127	1127	1127	1131	1127	1131	1127	1127	1127	1127	1127	1120	1116	1116	1116	1116	1116	0	0	0	0	0	0	0	0	0	0	0	0	0	0	0	0	0	0	0	0	0	0	0	0	0	1146	1146	1146	1150	1150	1150	1150	1150	1150	1150	1150	1146	1146	1142	1142	1146	1146	1157	1157	1157	1157	1157	0	0	0	0	0	0	0	0	0	5915	5815	5815	5815	5815	5815	5815	5719	5719	5815	5719	5719	5626	5535	5626	5626	5626	5626	5626	5719	5719	5719	5626	5626	5626	5719	5626	5626	5626	5626	5626	5626	5626	5626	5626	5626	5626	5626	5626	5626	5626	5626	5626	5719	5719	5719	5719	5815	5815	5815	5815	5719	5719	0	0	0	0	0	0	0	0	0	0	0	0	0	0	0	0	0	0	0	0	0	0	0	0	0	0	0	0	0	0	0	0	0	0	0	0	0	0	0	0	0	0	0	0	0	0	0	0	0	0	0	0	0	0	0	0	0	5535	5535	5535	5535	5535	5626	5626	5719	5719	5719	5626	5626	5626	5535	5535	5626	5626	5719	5719	5719	5719	5719	5719	5719	5626	5719	5719	5719	5719	5719	5719	5815	5719	5626	5626	5535	5535	5535	5535	5535	5448	5448	5535	5448	5535	5448	5535	5535	5448	5535	5448	5535	5535	5535	5626	5626	5626	5626	5626	5626	5626	5626	5626	5626	5626	5626	5626	5626	5626	5719	5719	5626	5626	5535	5626	5626	5535	5535	5719	5719	5719	5626	5626	5535	5535	5535	5535	5448	5535	5535	5626	5626	5626	5626	5626	5626	5626	5626	5626	5535	5448	5535	5535	5535	5626	5719	5719	5626	5626	5535	5535	5448	5448	5448	5448	5626	5626	5626	5626	5626	0	0	0	0	0	0	0	0	0	0	0	0	0	0	0	0	0	0	0	0	0	0	0	0	0	0	0	0	0	0	0	0	0	0	0	0	0	0	0	0	0	0	0	0	0	0	0	0	0	0	0	0	0	0	0	5719	5719	5719	5719	5719	5626	5626	5626	5626	5719	5626	5626	5535	5535	5535	5535	5535	5535	5535	5448	5448	5448	5535	5535	5626	5626	5626	5626	5626	5626	5626	5626	5626	5626	5535	5626	5719	5719	5719	5719	5719	5719	5719	5719	5719	5719	5719	5626	5626	5626	5626	5719	5626	5719	5626	5626	5626	5626	5626	5626	5626	5626	5626	5626	5626	5626	5626	5626	5626	5719	5719	5719	5719	5719	5719	5719	5626	5626	5626	5719	5719	5626	5626	5626	5626	5626	5626	5626	5535	5626	5626	5535	5535	5535	5626	5626	5626	5626	5626	5626	5626	5626	5626	5626	5535	5535	5535	5535	5626	5626	5719	5626	5626	5719	5719	5719	5815	5535	5535	5535	0	0	0	0	0	0	0	0	0	0	0	0	0	0	0	0	0	0	0	0	0	0	0	0	0	0	0	0	0	0	0	0	0	0	0	0	0	0	0	0	0	0	0	0	0	0	0	0	0	0	0	0	0	0	0	0	0	5535	5448	5448	5448	5448	5448	5364	5364	5364	5364	5282	5282	5364	5364	5364	5364	5364	5364	5364	5364	5364	5448	5448	5448	5448	5448	0	0	0	0	0	0	0	0	0	0	0	0	0	0	0	0	0	0	0	0	0	0	0	0	0	0	0	0	0	0	0	0	0	0	0	0	0	0	0	0	0	0	0	0	0	0	0	0	0	0	0	0	0	0	0	0	0	0
0	0	0	0	0	1113	1116	1116	1116	1116	1127	1116	1116	1120	1120	1120	1120	1120	1120	1120	1120	1123	1127	1127	1127	1127	1127	1127	1127	1123	1123	1123	1120	1116	1116	1116	1116	0	0	0	0	0	0	0	0	0	1109	1109	1105	1105	1105	1102	1102	0	0	0	0	0	0	0	0	0	1146	1142	1146	1150	1150	1150	1150	1150	1150	1150	1150	1150	1146	1146	1142	1142	1146	1142	1153	1153	1153	1153	1153	0	0	0	0	0	0	0	0	0	5915	5815	5815	5815	5815	5815	5815	5719	5815	5815	5815	5815	5626	5626	5719	5719	5626	5626	5719	5719	5719	5719	5626	5626	5626	5719	5626	5626	5535	5719	5626	5626	5626	5626	5626	5719	5626	5719	5626	5719	5719	5626	5626	5719	5719	5719	5719	5815	5815	5815	5815	5719	5626	5626	0	0	0	0	0	0	0	0	0	0	0	0	0	0	0	0	0	0	0	0	0	0	0	0	0	0	0	0	0	0	0	0	0	0	0	0	0	0	0	0	0	0	0	0	0	0	0	0	0	0	0	0	0	0	0	0	5535	5535	5535	5535	5535	5626	5626	5719	5719	5719	5719	5719	5719	5626	5626	5626	5626	5719	5815	5815	5815	5815	5719	5719	5719	5719	5719	5719	5815	5815	5719	5719	5719	5626	5626	5626	5626	5626	5626	5535	5448	5535	5535	5535	5535	5535	5535	5535	5535	5535	5535	5535	5535	5535	5626	5719	5626	5719	5719	5719	5719	5626	5626	5535	5626	5626	5719	5719	5719	5719	5719	5626	5626	5626	5626	5626	5626	5626	5626	5626	5626	5626	5626	5626	5626	5626	5626	5626	5626	5626	5719	5719	5719	5719	5719	5719	5719	5626	5626	5535	5535	5626	5626	5626	5719	5719	5719	5719	5719	5626	5535	5535	5448	5448	5626	5626	5626	5719	5626	5626	0	0	0	0	0	0	0	0	0	0	0	0	0	0	0	0	0	0	0	0	0	0	0	0	0	0	0	0	0	0	0	0	0	0	0	0	0	0	0	0	0	0	0	0	0	0	0	0	0	0	0	0	0	0	5719	5719	5719	5719	5719	5626	5626	5626	5626	5626	5626	5626	5535	5626	5626	5626	5535	5535	5535	5535	5448	5448	5448	5535	5626	5626	5626	5626	5626	5626	5626	5626	5626	5626	5626	5535	5719	5719	5719	5719	5719	5719	5719	5719	5719	5719	5719	5719	5719	5815	5719	5719	5719	5719	5719	5719	5626	5719	5719	5719	5626	5626	5719	5719	5626	5719	5719	5719	5719	5626	5719	5719	5719	5719	5719	5719	5815	5719	5626	5719	5719	5719	5626	5626	5626	5719	5626	5626	5626	5535	5626	5535	5535	5626	5535	5626	5719	5626	5626	5626	5626	5626	5626	5535	5535	5535	5535	5535	5719	5719	5719	5719	5719	5719	5719	5719	5719	5815	5815	5815	0	0	0	0	0	0	0	0	0	0	0	0	0	0	0	0	0	0	0	0	0	0	0	0	0	0	0	0	0	0	0	0	0	0	0	0	0	0	0	0	0	0	0	0	0	0	0	0	0	0	0	0	0	0	0	0	0	5535	5535	5448	5535	5535	5448	5448	5364	5364	5364	5448	5364	5364	5364	5364	5364	5448	5364	5364	5448	5448	5448	5448	5448	5448	5448	5448	5448	0	0	0	0	0	0	0	0	0	0	0	0	0	0	0	0	0	0	0	0	0	0	0	0	0	0	0	0	0	0	0	0	0	0	0	0	0	0	0	0	0	0	0	0	0	0	0	0	0	0	0	0	0	0	0	0	0
0	0	0	0	0	1116	1116	1116	1116	1116	1116	1116	1127	1116	1123	1120	1120	1120	1120	1120	1120	1123	1127	1123	1127	1123	1127	1127	1127	1123	1120	1120	1120	1116	1116	1116	1116	0	0	0	0	0	0	0	1109	1109	1105	1105	1105	1105	1105	1102	1095	1095	1091	1091	1091	0	0	0	0	0	1150	1146	1146	1146	1150	1150	1150	1150	1150	1150	1150	1150	1146	1146	1142	1142	1146	1142	1153	1153	1153	1153	1153	0	0	0	0	0	0	0	0	0	5626	5915	5815	5815	5815	5815	5815	5815	5815	5815	5815	5815	5719	5719	5815	5626	5626	5719	5719	5719	5719	5626	5626	5626	5626	5719	5626	5626	5626	5719	5719	5815	5815	5815	5815	5719	5719	5719	5719	5719	5719	5719	5719	5719	5719	5719	5719	5815	5815	5815	5719	5719	5626	5626	0	5282	5125	5125	0	0	0	0	0	0	0	0	0	0	0	0	0	0	0	0	0	0	0	0	0	0	0	0	0	0	0	0	0	0	0	0	0	0	0	0	0	0	0	0	0	0	0	0	0	0	0	0	0	0	0	0	0	5535	5535	5626	5626	5719	5719	5719	5719	5719	5719	5719	5815	5815	5815	5719	5719	5719	5815	5815	5815	5815	5719	5719	5719	5719	5719	5719	5815	5815	5815	5815	5719	5626	5626	5535	5626	5626	5626	5626	5535	5535	5535	5535	5535	5535	5535	5535	5626	5626	5626	5626	5535	5626	5626	5626	5626	5626	5719	5719	5719	5719	5719	5719	5626	5719	5719	5626	5626	5719	5719	5626	5626	5626	5626	5626	5626	5535	5626	5626	5719	5626	5719	5626	5719	5719	5719	5626	5626	5626	5719	5719	5719	5719	5719	5719	5719	5719	5626	5535	5535	5535	5626	5626	5626	5626	5719	5719	5719	5626	5535	5626	5535	5535	5535	5719	5719	5719	5719	5719	0	0	0	0	0	0	0	0	0	0	0	0	0	0	0	0	0	0	0	0	0	0	0	0	0	0	0	0	0	0	0	0	0	0	0	0	0	0	0	0	0	0	0	0	0	0	0	0	0	0	0	0	0	0	5719	5719	5719	5719	5719	5719	5719	5626	5626	5626	5626	5626	5626	5626	5626	5626	5535	5626	5535	5535	5535	5535	5448	5535	5626	5626	5626	5626	5626	5626	5626	5626	5626	5626	5626	5535	5719	5719	5719	5719	5815	5815	5719	5719	5815	5815	5815	5815	5719	5815	5719	5719	5719	5719	5719	5719	5719	5719	5719	5719	5626	5719	5719	5719	5719	5719	5719	5719	5719	5626	5719	5719	5719	5719	5719	5719	5815	5719	5719	5815	5815	5719	5719	5626	5626	5719	5626	5626	5626	5535	5626	5535	5626	5626	5626	5719	5719	5719	5626	5626	5626	5626	5626	5626	5535	5626	5626	5535	5626	5626	5626	5719	5719	5719	5719	5719	5719	5815	5815	5815	0	0	0	0	0	0	0	0	0	0	0	0	0	0	0	0	0	0	0	0	0	0	0	0	0	0	0	0	0	0	0	0	0	0	0	0	0	0	0	0	0	0	0	0	0	0	0	0	0	0	0	0	0	0	0	0	0	5626	5626	5626	5535	5535	5535	5535	5448	5448	5448	5448	5364	5364	5364	5364	5364	5448	5448	5448	5448	5448	5448	5448	5448	5448	5448	5448	5448	0	0	0	0	0	0	0	0	0	0	0	0	0	0	0	0	0	0	0	0	0	0	0	0	0	0	0	0	0	0	0	0	0	0	0	0	0	0	0	0	0	0	0	0	0	0	0	0	0	0	0	0	0	0	0	0	0
0	0	0	0	0	1116	1116	1116	1120	1120	1123	1123	1127	1123	1123	1120	1120	1123	1120	1120	1120	1123	1127	1123	1123	1123	1123	1123	1123	1120	1120	1120	1120	1120	1116	1116	1116	0	0	0	0	0	0	1105	1105	1105	1105	1109	1105	1109	1109	1109	1102	1102	1098	1102	1102	0	0	0	0	0	1150	1142	1142	1146	1150	1150	1150	1150	1153	1150	1150	1150	1146	1146	1146	1142	1142	1150	1153	1153	1153	1153	1153	0	0	0	0	0	0	0	0	0	5535	5815	5815	5815	5815	5815	5815	5815	5815	5815	5815	5915	5815	5815	5815	5815	5815	5626	5719	5719	5719	5626	5626	5626	5719	5719	5626	5719	5626	5815	5815	5815	5815	5815	5815	5815	5719	5719	5719	5719	5719	5719	5719	5815	5815	5719	5815	5815	5815	5815	5719	5719	5719	5626	5448	5364	5282	5202	5202	0	0	0	0	0	0	0	0	0	0	0	0	0	0	0	0	0	0	0	0	0	0	0	0	0	0	0	0	0	0	0	0	0	0	0	0	0	0	0	0	0	0	0	0	0	0	0	0	0	0	0	0	5626	5719	5626	5719	5815	5815	5815	5815	5815	5815	5815	5815	5815	5815	5815	5719	5815	5815	5815	5815	5815	5626	5719	5719	5719	5719	5719	5815	5815	5815	5815	5719	5719	5626	5626	5626	5626	5626	5719	5626	5626	5626	5535	5626	5626	5626	5626	5626	5626	5626	5626	5626	5626	5626	5626	5626	5626	5719	5719	5719	5719	5719	5719	5626	5719	5719	5626	5626	5719	5719	5626	5719	5719	5626	5719	5719	5626	5719	5719	5719	5719	5719	5719	5719	5719	5719	5719	5626	5719	5719	5719	5719	5719	5719	5719	5719	5719	5719	5626	5626	5626	5626	5719	5719	5719	5719	5719	5719	5719	5626	5626	5626	5626	5626	5626	5719	5719	5626	5626	5626	0	0	0	0	0	0	0	0	0	0	0	0	0	0	0	0	0	0	0	0	0	0	0	0	0	0	0	0	0	0	0	0	0	0	0	0	0	0	0	0	0	0	0	0	0	0	0	0	0	0	0	0	0	0	5719	5719	5719	5719	5719	5719	5719	5719	5719	5719	5719	5626	5626	5626	5626	5626	5626	5535	5535	5535	5535	5535	5535	5626	5626	5626	5626	5626	5626	5626	5626	5626	5626	5626	5626	5719	5719	5719	5719	5815	5719	5719	5815	5815	5815	5815	5815	5815	5815	5815	5815	5719	5719	5815	5815	5719	5815	5815	5719	5719	5815	5815	5815	5719	5626	5626	5626	5626	5626	5719	5719	5719	5719	5719	5815	5915	5815	5815	5815	5815	5815	5815	5626	5626	5719	5626	5719	5719	5626	5719	5719	5719	5719	5719	5719	5719	5719	5626	5626	5626	5626	5719	5719	5815	5815	5815	5626	5719	5626	5719	5719	5719	5719	5719	5719	5719	5815	0	0	0	0	0	0	0	0	0	0	0	0	0	0	0	0	0	0	0	0	0	0	0	0	0	0	0	0	0	0	0	0	0	0	0	0	0	0	0	0	0	0	0	0	0	0	0	0	0	0	0	0	0	0	0	0	0	5535	5535	5626	5626	5626	5626	5626	5535	5626	5448	5448	5448	5448	5448	5448	5448	5448	5448	5448	5448	5364	5448	5448	5448	5448	5448	5448	5535	5535	5535	0	0	0	0	0	0	0	0	0	0	0	0	0	0	0	0	0	0	0	0	0	0	0	0	0	0	0	0	0	0	0	0	0	0	0	0	0	0	0	0	0	0	0	0	0	0	0	0	0	0	0	0	0	0	0	0	0
0	0	0	0	0	1113	1113	1120	1120	1120	1123	1123	1123	1120	1120	1120	1120	1120	1120	1120	1123	1127	1127	1123	1123	1123	1123	1123	1120	1120	1120	1120	1120	1116	1116	1116	0	0	0	0	0	0	1105	1105	1105	1102	1109	1109	1109	1113	1113	1109	1102	1102	1102	1105	1102	1102	0	0	0	0	1142	1142	1142	1142	1150	1146	1146	1146	1150	1150	1150	1146	1146	1146	1146	1142	1146	1153	1157	1157	1157	1153	1153	0	0	0	0	0	0	0	0	0	5535	5626	5719	5719	5719	5719	5719	5719	5719	5815	5815	5915	5719	5815	5815	5815	5815	5719	5719	5719	5719	5719	5719	5719	5719	5719	5626	5719	5626	5815	5815	5815	5815	5815	5815	5915	5915	5915	5815	5815	5719	5719	5719	5815	5719	5626	5815	5815	5815	5815	5719	5719	5719	5719	5626	4977	4977	4977	4977	0	0	0	0	5815	5815	5815	5626	5626	0	0	0	0	0	0	0	0	0	0	0	0	0	0	0	0	0	0	0	0	0	0	0	0	0	0	0	0	0	0	0	0	0	0	0	0	0	0	0	0	0	0	0	5626	5719	5719	5719	5815	5815	5815	5815	5815	5815	5815	5815	5815	5815	5815	5719	5815	5815	5815	5815	5719	5719	5719	5719	5719	5719	5719	5815	5815	5815	5815	5815	5719	5719	5719	5719	5719	5719	5719	5719	5626	5626	5626	5626	5626	5626	5626	5626	5626	5626	5626	5626	5626	5719	5719	5719	5626	5719	5719	5815	5719	5719	5719	5815	5719	5719	5719	5719	5719	5719	5719	5719	5719	5719	5719	5719	5626	5719	5719	5719	5719	5719	5719	5719	5719	5719	5719	5719	5719	5719	5719	5719	5719	5719	5719	5719	5719	5719	5719	5719	5626	5719	5719	5719	5719	5815	5815	5815	5719	5626	5626	5626	5626	5626	5719	5719	5719	5719	5626	5626	0	0	0	0	0	0	0	0	0	0	0	0	0	0	0	0	0	0	0	0	0	0	0	0	0	0	0	0	0	0	0	0	0	0	0	0	0	0	0	0	0	0	0	0	0	0	0	0	0	0	0	6018	6018	5915	5815	5719	5719	5719	5719	5719	5719	5719	5719	5719	5719	5626	5626	5626	5626	5626	5626	5626	5626	5535	5535	5535	5626	5626	5626	5626	5626	5626	5626	5626	5626	5626	5626	5626	5626	5626	5626	5719	5719	5719	5719	5815	5815	5815	5815	5815	5815	5719	5815	5719	5815	5719	5815	5815	5815	5815	5815	5815	5815	5815	5815	5815	5915	5815	5626	5626	5719	5626	5719	5719	5815	5815	5815	5815	5915	5915	5915	5815	5815	5815	5815	5815	5719	5719	5719	5626	5719	5719	5719	5719	5815	5719	5719	5719	5815	5719	5719	5626	5626	5719	5719	5719	5719	5719	5719	5815	5626	5719	5626	5626	5626	5626	5719	5719	5719	5719	0	0	0	0	0	0	0	0	0	0	0	0	0	0	0	0	0	0	0	0	0	0	0	0	0	0	0	0	0	0	0	0	0	0	0	0	0	0	0	0	0	0	0	0	0	0	0	0	0	0	0	0	0	0	0	0	0	5626	5535	5535	5626	5535	5626	5535	5626	5626	5626	5535	5535	5535	5535	5535	5448	5448	5448	5448	5448	5448	5448	5448	5448	5448	5448	5448	5448	5535	5535	5535	0	0	0	0	0	0	0	0	0	0	0	0	0	0	0	0	0	0	0	0	0	0	0	0	0	0	0	0	0	0	0	0	0	0	0	0	0	0	0	0	0	0	0	0	0	0	0	0	0	0	0	0	0	0	0	0	0
0	0	0	0	0	1113	1113	1116	1116	1116	1116	1116	1120	1120	1120	1120	1120	1120	1120	1120	1120	1123	1123	1123	1120	1120	1123	1123	1120	1120	1120	1120	1120	1120	1120	1120	0	0	0	0	0	0	1109	1113	1113	1113	1113	1113	1113	1116	1116	1113	1109	1105	1105	1105	1105	1102	1102	0	1123	1123	1131	1138	1142	1142	1146	1146	1146	1146	1146	1146	1146	1146	1146	1146	1146	1146	1150	1153	1157	1153	1150	1150	1146	1146	1146	0	0	0	0	0	0	0	5535	5626	5815	5815	5815	5719	5719	5719	5815	5815	5815	5915	5815	5815	5815	5915	5815	5719	5719	5719	5719	5719	5719	5719	5719	5719	5626	5719	5626	5815	5815	5815	5815	5915	5915	5915	5815	5915	5815	5815	5719	5815	5815	5815	5815	5815	5815	5915	5815	5815	5719	5719	5719	5719	5626	5535	4906	4906	4906	0	0	0	0	5815	5815	5815	5719	5719	0	0	0	0	0	0	0	0	0	0	0	0	0	0	0	0	0	0	0	0	0	0	0	0	0	0	0	0	0	0	0	0	0	0	0	0	0	0	0	0	0	0	0	5626	5719	5719	5719	5815	5815	5815	5815	5815	5815	5815	5815	5815	5815	5815	5815	5815	5815	5815	5815	5719	5719	5719	5719	5719	5719	5815	5815	5815	5815	5815	5815	5719	5719	5719	5719	5719	5719	5719	5719	5626	5626	5719	5626	5719	5626	5626	5719	5719	5719	5719	5719	5719	5719	5719	5626	5626	5719	5719	5719	5719	5815	5815	5815	5815	5719	5719	5719	5719	5719	5719	5719	5719	5719	5719	5719	5719	5719	5719	5719	5719	5815	5719	5815	5719	5719	5719	5719	5719	5719	5719	5719	5719	5719	5719	5719	5719	5719	5719	5719	5719	5719	5719	5815	5815	5815	5815	5815	5815	5719	5626	5626	5626	5719	5719	5719	5719	5719	5719	5719	5719	5719	0	0	0	0	0	0	0	0	0	0	0	0	0	0	0	0	0	0	0	0	0	0	0	0	0	0	0	0	0	0	0	0	0	0	0	0	0	0	0	0	0	0	0	0	0	6124	6124	6124	6018	6018	5915	5915	5815	5719	5719	5719	5719	5719	5719	5719	5719	5719	5719	5626	5626	5626	5626	5626	5719	5626	5626	5535	5626	5626	5626	5626	5626	5719	5719	5719	5719	5719	5719	5626	5626	5626	5626	5626	5626	5626	5626	5719	5719	5719	5815	5815	5815	5815	5815	5815	5815	5815	5815	5815	5815	5815	5815	5815	5815	5915	5815	5815	5915	5915	5915	5915	5815	5815	5719	5719	5719	5815	5815	5815	5815	5815	5915	5915	5915	5815	5815	5815	5815	5815	5719	5719	5815	5719	5719	5719	5626	5626	5719	5719	5719	5719	5815	5719	5719	5626	5626	5719	5719	5719	5626	5719	5719	5719	5719	5719	5719	5719	5626	5626	5719	5719	5719	5719	0	0	0	0	0	0	0	0	0	0	0	0	0	0	0	0	0	0	0	0	0	0	0	0	0	0	0	0	0	0	0	0	0	0	0	0	0	0	0	0	0	0	0	0	0	0	0	0	0	0	0	0	0	0	0	5626	5535	5626	5626	5626	5626	5626	5626	5535	5626	5626	5626	5535	5535	5535	5535	5535	5448	5448	5448	5448	5448	5448	5448	5448	5448	5448	5448	5448	5535	5535	5448	5448	5448	0	0	0	0	0	0	0	0	0	0	0	0	0	0	0	0	0	0	0	0	0	0	0	0	0	0	0	0	0	0	0	0	0	0	0	0	0	0	0	0	0	0	0	0	0	0	0	0	0	0	0	0	0	0	0	0
0	0	0	0	0	0	1116	1116	1116	1116	1116	1120	1120	1116	1116	1120	1116	1120	1120	1120	1120	1123	1123	1120	1120	1120	1120	1120	1120	1120	1120	1120	1123	1120	1120	1120	1120	0	0	0	1113	1113	1113	1116	1116	1116	1116	1116	1116	1116	1116	1113	1109	1109	1105	1105	1105	1105	1109	1116	1120	1120	1131	1138	1142	1142	1142	1146	1146	1146	1146	1146	1150	1146	1146	1146	1146	1146	1150	1153	1157	1153	1153	1150	1150	1146	1146	0	0	0	0	0	0	0	0	0	5815	5815	5815	0	0	0	5815	5815	5815	5815	5815	5815	5915	5915	5915	5815	5719	5815	5719	5719	5719	5815	5815	5815	5719	5719	5915	5815	5815	5915	5915	5915	5915	5915	5815	5815	5815	5815	5719	5815	5815	5815	5915	5915	5915	5915	5915	5815	5815	5815	5815	5719	5719	5719	5719	5719	5719	0	0	0	0	5815	5815	5815	5815	5719	0	0	0	0	0	0	0	0	0	0	0	0	0	0	0	0	0	0	0	0	0	0	0	0	0	0	0	0	0	0	0	0	0	0	0	0	0	0	0	0	0	0	0	5719	5719	5719	5719	5815	5815	5815	5815	5815	5815	5815	5815	5815	5815	5815	5815	5815	5815	5815	5815	5719	5719	5719	5719	5815	5815	5815	5815	5815	5815	5815	5815	5719	5719	5719	5815	5719	5719	5719	5719	5719	5719	5719	5719	5719	5719	5719	5719	5719	5719	5719	5719	5719	5719	5626	5626	5626	5719	5719	5815	5815	5815	5815	5915	5815	5815	5815	5815	5719	5719	5719	5719	5719	5719	5719	5719	5719	5719	5719	5815	5815	5815	5815	5815	5815	5815	5719	5719	5719	5719	5719	5719	5719	5719	5719	5815	5719	5815	5719	5719	5719	5815	5719	5815	5815	5815	5815	5815	5719	5719	5719	5719	5719	5719	5719	5815	5815	5815	5719	5719	5719	5719	0	0	0	0	0	0	0	0	0	0	0	0	0	0	0	0	0	0	0	0	0	0	0	0	0	0	0	0	0	0	0	0	0	0	0	0	0	0	0	0	0	0	0	0	0	6018	6018	6018	6018	5915	5815	5915	5815	5719	5719	5719	5719	5719	5719	5719	5719	5719	5719	5719	5626	5626	5719	5719	5719	5626	5626	5626	5626	5719	5719	5719	5719	5815	5815	5815	5815	5815	5815	5719	5719	5719	5719	5626	5626	5719	5719	5719	5719	5815	5815	5815	5815	5815	5815	5815	5815	5815	5815	5815	5815	5815	5815	5815	5815	5915	5815	5915	5915	5915	5915	5915	5815	5815	5815	5815	5719	5815	5815	5815	5815	5815	5915	5915	5915	5815	5915	5915	5815	5815	5815	5815	5915	5915	5915	5815	5915	5815	5815	5719	5719	5815	5815	5719	5719	5719	5719	5719	5719	5719	5719	5719	5719	5719	5719	5719	5719	5719	5626	5626	5719	5719	0	0	0	0	0	0	0	0	0	0	0	0	0	0	0	0	0	0	0	0	0	0	0	0	0	0	0	0	0	0	0	0	0	0	0	0	0	0	0	0	0	0	0	0	0	0	0	0	0	0	0	0	0	0	0	0	5626	5719	5626	5719	5719	5719	5719	5626	5719	5626	5719	5626	5626	5535	5535	5535	5626	5626	5626	5535	5535	5535	5535	5448	5448	5448	5535	5448	5448	5448	5626	5535	5535	5535	5448	0	0	0	0	0	0	0	0	0	0	0	0	0	0	0	0	0	0	0	0	0	0	0	0	0	0	0	0	0	0	0	0	0	0	0	0	0	0	0	0	0	0	0	0	0	0	0	0	0	0	0	0	0	0	0	0
0	0	0	0	0	0	1116	1116	1116	1116	1116	1116	1116	1116	1116	1116	1116	1116	1120	1120	1120	1120	1120	1120	1120	1120	1120	1120	1120	1120	1120	1120	1123	1123	1123	1123	1120	1120	1116	1116	1116	1116	1113	1116	1116	1116	1116	1116	1116	1120	1116	1116	1113	1113	1109	1113	1109	1109	1105	1116	1120	1123	1127	1134	1138	1138	1142	1146	1146	1146	1146	1146	1146	1146	1142	1142	1146	1146	1150	1153	1153	1153	1153	1150	1150	0	0	0	0	0	0	0	0	0	0	0	0	0	0	0	0	0	0	0	5815	5815	5815	5915	5915	5915	5915	5915	5815	5815	5815	5815	5815	5815	5815	5915	5815	5915	5915	5915	5915	5915	5915	5915	5915	5915	5915	5915	5815	5815	5815	5815	5815	5915	5915	5915	5915	5915	5915	5915	5815	5815	5815	5815	5719	5719	5815	5815	5719	0	0	0	5719	5719	5815	5815	5815	0	0	0	0	0	0	0	0	0	0	0	0	0	0	0	0	0	0	6124	6124	6124	6124	0	0	0	0	0	0	0	0	0	0	0	0	0	0	0	0	0	0	0	0	0	0	5719	5815	5719	5719	5815	5815	5815	5815	5815	5815	5815	5815	5815	5815	5815	5815	5915	5815	5915	5915	5719	5719	5815	5815	5815	5815	5815	5815	5815	5815	5815	5815	5719	5815	5815	5815	5719	5719	5719	5719	5719	5719	5815	5719	5815	5719	5719	5719	5719	5719	5719	5719	5719	5719	5719	5626	5719	5719	5719	5815	5815	5915	5915	5915	5815	5815	5815	5815	5815	5815	5719	5719	5719	5719	5719	5719	5719	5719	5815	5815	5815	5815	5815	5815	5815	5815	5815	5719	5815	5719	5719	5719	5719	5815	5815	5815	5815	5815	5815	5815	5815	5719	5815	5815	5815	5815	5815	5815	5815	5719	5719	5719	5719	5719	5815	5815	5815	5815	5815	5719	5719	5719	0	0	0	0	0	0	0	0	0	0	0	0	0	0	0	0	0	0	0	0	0	0	0	0	0	0	0	0	0	0	0	0	0	0	0	0	0	0	0	0	0	0	0	0	6124	6124	6018	6018	6018	5915	5815	5815	5915	5719	5719	5719	5719	5719	5719	5719	5719	5719	5719	5719	5719	5719	5719	5719	5719	5719	5719	5719	5719	5719	5815	5719	5815	5815	5815	5815	5815	5815	5815	5719	5719	5719	5719	5719	5719	5719	5719	5815	5815	5815	5815	5915	5915	5915	5915	5915	5915	5915	5915	5915	5915	5915	5915	5815	5915	5915	5915	5915	5915	5915	5915	5915	5815	5815	5815	5815	5815	5815	5815	5815	5915	5915	5915	5915	5915	5915	5915	5915	5915	5915	5815	5915	5915	5915	5915	5915	5915	5815	5815	5815	5815	5815	5815	5815	5815	5719	5815	5815	5815	5815	5815	5815	5719	5719	5815	5815	5815	5719	5719	5719	0	0	0	0	0	0	0	0	0	0	0	0	0	5915	5915	0	0	0	0	0	0	0	0	0	0	0	0	0	0	0	0	0	0	0	0	0	0	0	0	0	0	0	0	0	0	0	0	0	0	0	0	0	0	0	0	0	0	5719	5626	5626	5626	5719	5719	5719	5719	5719	5719	5719	5719	5719	5719	5626	5626	5626	5626	5626	5626	5626	5626	5626	5626	5535	5535	5535	5535	5535	5626	5626	5626	5626	5535	5535	0	0	0	0	0	0	0	0	0	0	0	0	0	0	0	0	0	0	0	0	0	0	0	0	0	0	0	0	0	0	0	0	0	0	0	0	0	0	0	0	0	0	0	0	0	0	0	0	0	0	0	0	0	0	0	0	0
0	0	0	0	0	0	0	0	1116	1116	1116	1116	1116	1116	1116	1116	1116	1120	1120	1120	1120	1120	1120	1120	1120	1120	1120	1120	1120	1120	1120	1120	1123	1123	1123	1120	1120	1116	1116	1116	1116	1116	1116	1120	1116	1116	1116	1116	1116	1116	1120	1116	1116	1116	1116	1113	1113	1109	1113	1116	1120	1120	1123	1134	1142	1142	1142	1146	1146	1146	1146	1146	1146	1146	1142	1142	1142	1142	1142	1146	1153	1153	1153	1153	1153	0	0	0	0	0	0	0	0	0	0	0	0	0	0	0	0	0	0	0	5815	5815	5915	5915	5915	5915	5915	5915	5815	5815	5815	5815	5815	5815	5915	5915	5915	5915	5915	5915	5915	5915	5915	5915	5915	5915	5915	5915	5915	5815	5815	5815	5815	5915	5915	5915	5915	5915	5915	5815	5815	5815	5815	5815	5719	5815	5815	5815	0	0	0	5626	5719	5719	5815	5815	5815	0	0	0	0	0	0	0	0	0	0	0	0	0	0	0	0	0	6235	6124	6124	6124	6018	6018	0	0	0	0	0	0	0	0	0	0	0	0	0	0	0	0	0	0	0	0	0	5815	5815	5815	5815	5815	5815	5815	5815	5815	5915	5915	5915	5915	5815	5915	5915	5915	5915	5915	5915	5815	5815	5815	5815	5815	5815	5815	5815	5915	5915	5815	5815	5815	5815	5815	5815	5719	5719	5719	5719	5719	5815	5815	5815	5815	5815	5815	5815	5815	5815	5815	5815	5719	5719	5719	5719	5719	5719	5815	5815	5915	5915	5915	5815	5915	5815	5815	5815	5815	5815	5815	5815	5815	5719	5815	5815	5815	5815	5815	5815	5815	5815	5815	5815	5815	5815	5815	5815	5815	5815	5815	5719	5815	5815	5815	5815	5815	5815	5815	5815	5815	5719	5815	5815	5815	5815	5815	5815	5815	5719	5719	5719	5719	5719	5815	5815	5815	5815	5815	0	0	0	0	0	0	0	0	0	0	0	0	0	0	0	0	0	0	0	0	0	0	0	0	0	0	0	0	0	0	0	0	0	0	0	0	5815	5815	0	0	0	0	0	0	0	0	0	6124	6018	6018	6018	6018	5915	5915	5915	5915	5815	5815	5815	5719	5815	5719	5719	5719	5719	5915	6018	5915	5626	5815	5815	5719	5719	5719	5719	5815	5815	5815	5815	5815	5815	5815	5815	5815	5815	5815	5815	5815	5815	5719	5815	5719	5719	5815	5815	5815	5815	5915	5915	5915	5915	5815	5815	5915	5815	5815	5815	5915	5915	5915	5915	5915	5915	5915	5915	5915	5915	5915	5915	5915	5815	5815	5815	5815	5915	5915	5915	5915	5915	5915	5915	5915	5915	6018	5915	5915	5915	5915	5915	5915	5915	5915	5915	6018	5815	5915	5815	5815	5815	5815	5815	5815	5815	5815	5815	5815	5815	5815	5815	5815	5815	5815	5815	5815	5719	5719	5719	0	0	0	0	0	0	0	0	0	0	5815	5815	5915	5915	5915	5915	0	0	0	0	0	0	0	0	0	0	0	0	0	0	0	0	0	0	0	0	0	0	0	0	0	0	0	0	0	0	0	0	0	0	0	0	0	0	0	0	0	5626	5719	5719	5719	5719	5719	5719	5719	5719	5719	5719	5719	5719	5719	5626	5626	5626	5719	5719	5719	5626	5626	5626	5719	5626	5626	5626	5626	5626	5626	5626	5626	5626	5626	5535	0	0	0	0	0	0	0	0	0	0	0	0	0	0	0	0	0	0	0	0	0	0	0	0	0	0	0	0	0	0	0	0	0	0	0	0	0	0	0	0	0	0	0	0	0	0	0	0	0	0	0	0	0	0	0	0	0
0	0	0	0	927	927	927	0	1116	1116	1116	1116	1116	1120	1116	1116	1116	1120	1120	1120	1120	1120	1120	1120	1120	1120	1120	1120	1120	1120	1120	1120	1123	1120	1123	1123	1120	1120	1120	1116	1120	1120	1120	1120	1120	1120	1120	1120	1116	1120	1120	1116	1120	1116	1120	1116	1113	1109	1113	1116	1116	1120	1123	1131	1134	1138	1138	1142	1146	1146	1146	1146	1146	1146	1142	1142	1142	1146	1142	1146	1150	1150	1150	1150	1150	1150	0	0	0	0	0	0	0	0	0	0	0	0	0	0	0	0	0	0	5719	5815	5815	5915	5915	5915	5915	5915	5915	5815	5815	5915	5915	5915	5915	5915	5915	5915	5915	5915	5915	5915	5915	5915	5915	5915	5915	5915	5915	5815	5815	5815	5915	5915	5915	5815	6018	6018	5915	5915	5815	5815	5915	5815	5719	5915	5915	5815	5815	5815	0	5719	5719	5719	5815	5815	5719	5719	0	0	0	0	0	0	0	0	0	0	0	0	0	0	0	6124	6235	6235	6124	6235	6124	6124	0	0	0	0	0	0	0	0	0	0	0	0	0	0	0	0	0	0	0	0	0	5815	5815	5815	5915	5915	5915	5815	5815	5915	5915	5915	5915	5915	5915	5915	5915	5915	5915	5915	5915	5815	5815	5815	5915	5815	5915	5815	5915	5915	5915	5815	5915	5815	5815	5719	5719	5719	5719	5719	5719	5719	5815	5815	5815	5815	5815	5815	5815	5815	5815	5815	5815	5815	5815	5719	5719	5719	5719	5719	5815	5815	5915	5915	5915	5915	5815	5815	5815	5815	5815	5815	5815	5815	5815	5815	5815	5815	5815	5815	5815	5815	5815	5815	5915	5815	5915	5815	5815	5815	5815	5815	5815	5815	5815	5815	5815	5815	5815	5815	5815	5815	5815	5815	5815	5815	5815	5815	5915	5719	5719	5719	5719	5719	5719	5815	5815	5815	5815	5815	0	0	0	0	0	0	0	0	0	0	0	0	0	0	0	0	0	0	0	0	0	0	0	0	0	0	0	0	0	0	0	0	0	0	0	0	5815	5815	5915	5915	5915	5915	0	0	0	0	0	0	6018	6018	6018	6018	5915	5815	5915	6018	5915	5915	5815	5815	5815	5815	5719	5719	5915	5915	6018	5915	5815	5815	5815	5719	5719	5719	5719	5815	5815	5815	5815	5815	5815	5815	5815	5815	5915	5815	5815	5815	5815	5815	5815	5815	5815	5815	5815	5815	5815	5915	5815	5815	5815	5719	5815	5815	5815	5815	5815	5915	5915	5915	5815	5915	5915	5915	5915	5915	5915	5915	5915	5915	5915	5815	5915	5915	5915	5915	5915	5915	5915	6018	5915	5915	5915	6018	6018	5915	5915	5915	5915	6018	6018	5915	5915	6018	5915	5915	5815	5915	5815	5915	5815	5815	5815	5815	5815	5815	5815	5815	5815	5815	5815	5915	5815	5815	5719	5719	5719	0	0	0	0	0	0	0	0	0	0	5815	5815	5815	5915	5915	5915	0	0	0	0	0	0	0	0	0	0	0	0	0	0	0	0	0	0	0	0	0	0	0	0	0	0	0	0	0	0	0	0	0	0	0	0	0	0	0	0	0	5815	5719	5815	5815	5815	5815	5719	5719	5719	5719	5719	5719	5719	5719	5626	5626	5626	5719	5719	5626	5626	5719	5719	5719	5719	5626	5626	5626	5626	5626	5626	5626	5535	5535	0	0	0	0	0	0	0	0	0	0	0	0	0	0	0	0	0	0	0	0	0	0	0	0	0	0	0	0	0	0	0	0	0	0	0	0	0	0	0	0	0	0	0	0	0	0	0	0	0	0	0	0	0	0	0	0	0	0
0	0	915	915	925	920	920	920	0	1116	1116	1116	1116	1116	1116	1116	1116	1116	1120	1120	1120	1120	1120	1120	1120	1120	1120	1120	1120	1120	1120	1120	1120	1120	1123	1123	1120	1120	1123	1120	1120	1120	1120	1120	1120	1120	1120	1120	1116	1120	1116	1116	1116	1116	1116	1116	1113	1109	1113	1116	1116	1120	1120	1127	1131	1138	1138	1142	1146	1146	1146	1146	1150	1146	1142	1142	1146	1146	1146	1146	1146	1150	1150	1146	1146	1146	0	0	0	0	0	0	0	0	0	0	0	0	0	0	0	0	0	0	5719	5815	5815	5915	5915	5915	6018	6018	6018	5915	5915	6018	5915	5915	5915	6018	6018	6018	6018	5915	6018	5915	6018	5915	5915	5915	5915	5915	5915	5815	5815	5915	5915	5915	5915	5915	5915	6018	6018	5915	5915	5915	5915	5915	5915	5915	5915	5815	5815	5815	5815	5815	5719	5815	5815	5815	5915	5719	0	0	0	0	0	0	0	0	0	0	0	0	0	0	0	6124	6124	6124	6124	6124	6124	6124	0	0	0	0	0	0	0	0	0	0	0	0	0	0	0	0	0	0	0	0	0	0	0	0	6235	6124	6124	6018	6018	6018	6018	6018	6018	5915	5915	5915	5915	5915	5915	5915	5915	5815	5915	5915	5915	6018	6018	5915	5915	5915	5915	5915	5915	5815	5815	5815	5815	5719	5719	5719	5719	5719	5815	5815	5815	5815	5815	5815	5915	5915	5915	6018	5915	5815	5815	5815	5719	5719	5815	5815	5815	5915	5915	5915	5815	5915	5915	5815	5815	5815	5815	5815	5815	5815	5815	5815	5815	5815	5815	5815	5915	5815	5815	5915	5915	5915	5915	5915	5815	5815	5815	5815	5815	5815	5815	5815	5815	5815	5915	5915	5815	5815	5815	5815	5815	5915	5915	5815	5815	5815	5719	5719	5815	5815	5815	5915	5815	5815	5815	5815	0	0	0	0	0	0	0	0	0	0	0	0	0	0	0	0	0	0	0	0	0	0	0	0	0	0	0	0	0	0	0	0	0	0	0	5719	5719	5719	5719	5915	5915	5915	0	0	0	0	0	0	6124	6124	6018	6018	5915	5815	5915	6018	5915	5915	5815	5815	5815	5815	5719	5719	6018	6018	6018	5915	5915	5815	5815	5719	5719	5719	5719	5815	5815	5815	5815	5915	5815	5815	5915	5915	5915	5815	5915	5915	5815	5815	5815	5815	5815	5815	5815	5815	5915	5815	5815	5815	5719	5719	5719	5815	5815	5815	5815	5915	5915	5915	5915	5915	5915	5915	5915	5915	5915	5915	5915	5915	5915	5915	5915	5915	5915	5915	5915	5915	5915	5915	5915	5915	5915	6018	6018	6018	6018	6018	6018	6018	6018	6018	6018	6018	5915	5915	5915	5915	5915	5915	5915	5815	5815	5815	5815	5815	5815	5815	5815	5915	5815	5915	5915	5915	5815	5815	0	0	0	0	0	0	0	0	0	5815	5815	5815	5815	5815	5915	5815	5815	0	0	0	0	0	0	0	0	0	0	0	0	0	0	0	0	0	0	0	0	0	0	0	0	0	0	0	0	0	0	0	0	0	0	0	0	0	0	5719	5719	5815	5815	5815	5815	5815	5815	5815	5815	5815	5815	5815	5815	5815	5719	5626	5626	5626	5626	5719	5626	5626	5626	5719	5719	5719	5719	5719	5719	5719	5719	5626	5626	5626	5535	5626	5626	0	0	0	0	0	0	0	0	0	0	0	0	0	0	0	0	0	0	0	0	0	0	0	0	0	0	0	0	0	0	0	0	0	0	0	0	0	0	0	0	0	0	0	0	0	0	0	0	0	0	0	0	0	0	0	0	0
0	0	913	913	922	920	920	920	920	0	1116	1113	1113	1116	1116	1116	1116	1116	1120	1120	1120	1120	1120	1120	1120	1120	1120	1120	1120	1120	1120	1120	1120	1120	1120	1120	1120	1120	1120	1120	1120	1120	1120	1120	1120	1120	1120	1116	1116	1116	1116	1116	1120	1123	1120	1120	1120	1109	1113	1116	1120	1120	1127	1131	1134	1138	1138	1142	1146	1146	1146	1150	1150	1150	1146	1146	1146	1146	1146	1146	1146	1146	1150	1146	1146	1146	0	0	0	0	0	0	0	0	0	0	0	0	0	0	0	0	0	0	0	5915	5915	5915	5915	5915	6018	6018	6018	6018	5915	5915	6018	6018	6018	6018	6018	6018	6018	6018	6018	6018	6018	6018	6018	6018	5915	6018	5915	5915	5915	5915	5915	5915	5915	5915	5915	6018	6018	5915	5915	6018	6018	5915	5915	6018	6018	5915	5915	5915	5815	5815	5815	5815	5815	5815	5915	0	0	0	0	0	0	0	0	0	0	0	0	0	0	0	0	6349	6349	6235	6235	6235	6235	6124	0	0	0	0	0	0	0	0	0	0	0	0	0	0	0	0	0	0	0	0	0	0	0	0	6235	6235	6235	6235	6124	6124	6018	6018	5915	5915	5915	5915	5915	5915	5915	5915	5915	5915	5915	5915	6018	6018	6018	6018	6018	6018	6018	5915	5915	5815	5815	5815	5815	5815	5815	5719	5815	5815	5815	5815	5815	5815	5815	5815	5915	5915	5915	5915	5915	5915	5815	5815	5719	5815	5815	5815	5815	5815	5915	5915	5815	5815	5815	5815	5815	5815	5815	5815	5815	5815	5815	5815	5815	5815	5815	5815	5815	5815	5815	5815	5915	5915	5915	5915	5915	5915	5915	5815	5815	5915	5815	5915	5915	5815	5915	5815	5815	5915	5815	5815	5815	5915	5915	5815	5815	5815	5815	5915	5915	5815	5915	5915	5915	5915	5915	5915	0	0	0	0	0	0	0	0	0	0	0	0	0	0	0	0	0	0	0	0	0	0	0	0	0	0	0	0	0	0	0	0	0	0	0	5719	5719	5815	5915	5915	5915	5915	0	0	0	6018	6018	6124	6124	6124	6124	6018	5915	5915	5915	6018	5915	5915	5915	5915	5915	5915	5915	5915	6018	6018	6018	5915	5915	5915	5815	5815	5815	5815	5815	5815	5815	5815	5915	5915	5915	5915	5915	5915	5915	5915	5915	5915	5915	5915	5915	5915	5915	5815	5915	5915	5915	5915	5915	5915	5815	5815	5815	5815	5815	5915	5915	5915	5915	5915	5915	5915	5915	5915	5915	5915	5915	5915	5915	5915	5915	5915	5915	5915	5915	5915	5915	5915	5915	6018	6018	6018	6018	6018	6018	6018	6018	6018	6018	6018	6018	6018	6018	6018	5915	5915	5915	5915	5915	5915	5915	5815	5815	5815	5915	5915	5815	5915	5915	5915	5915	5915	5915	5915	5815	5815	5815	0	0	0	0	0	0	0	0	5915	5915	5915	5815	5915	5815	5815	5815	0	0	0	0	0	0	0	0	0	0	0	0	0	5915	5915	5915	5915	5915	0	0	0	6235	6235	6235	0	6124	6018	5915	5915	5815	5915	5915	5915	0	5915	5915	5915	5815	5719	5719	5815	5815	5815	5815	5815	5815	5815	5815	5815	5815	5815	5815	5815	5719	5719	5626	5719	5719	5719	5719	5719	5626	5719	5815	5719	5719	5719	5719	5719	5719	5719	5626	5626	5626	5626	5626	0	0	0	0	0	0	0	0	0	0	0	0	0	0	0	0	0	0	0	0	0	0	0	0	0	0	0	0	0	0	0	0	0	0	0	0	0	0	0	0	0	0	0	0	0	0	0	0	0	0	0	0	0	0	0	0	0
0	0	908	908	920	922	922	922	920	0	0	1109	1109	1113	1116	1113	1116	1116	1120	1120	1120	1120	1120	1120	1120	1120	1120	1120	1120	1120	1120	1120	1120	1120	1120	1120	1120	1120	1123	1120	1120	1120	1120	1120	1120	1120	1116	1116	1116	1116	1116	1120	1120	1123	1120	1120	1116	1116	1113	1113	1116	1120	1120	1127	1131	1134	1138	1142	1146	1146	1150	1150	1153	1150	1146	1146	1150	1153	1150	1142	1146	1142	1142	1142	1146	0	0	0	0	0	0	0	0	5626	5815	5815	5815	0	0	0	0	0	0	0	5915	5915	6018	6018	6018	6018	6018	6018	6018	6018	6018	6018	6018	6018	6018	6018	6018	6018	6018	6018	6018	6018	6018	6018	6018	6018	6018	6018	6018	6018	6018	6018	6018	6018	5915	5915	6018	6018	6018	6018	6018	6018	6018	6018	6018	6018	6018	6018	6018	5915	5915	5915	5815	5815	5815	5815	0	0	0	0	0	0	0	0	0	0	0	5915	5815	5815	6018	6018	6235	6235	6349	6235	6235	6235	6235	0	0	0	0	0	0	0	0	0	0	0	0	0	0	0	0	0	0	0	0	0	0	0	0	6468	6349	6349	6349	6235	6124	6124	6124	6124	6018	6018	6018	6018	6018	6018	6018	5915	5915	5915	5915	6018	6018	6018	6018	6018	6124	6018	6018	5915	5915	5915	5815	5815	5815	5815	5815	5815	5815	5815	5815	5815	5915	5915	5915	5915	5915	5915	5915	5915	5915	5915	5815	5815	5815	5815	5815	5815	5815	5915	5915	5915	5915	5915	5915	5815	5815	5815	5815	5815	5815	5815	5815	5815	5815	5815	5915	5815	5815	5815	5815	5815	5915	5815	5915	5915	5915	5915	5815	5815	5815	5915	6018	5915	6018	5915	6018	5815	5815	5815	5815	5815	5815	5915	5915	5915	5915	5815	5815	5915	5915	5915	5915	5915	5915	5915	5915	5915	0	0	0	0	0	0	0	0	0	0	0	0	0	0	0	0	0	0	0	0	0	0	0	0	0	0	0	0	0	0	0	0	0	5915	5815	5815	5815	5815	5915	5915	5915	5915	5915	5915	6018	6018	6124	6124	6124	6124	6124	6124	6018	5915	5915	6018	5915	5915	5915	6018	6018	6018	5915	5915	5915	6018	6018	5915	5915	5915	5915	5815	5815	5815	5815	5815	5815	5915	5915	5915	5915	5915	5915	5915	5915	5915	5915	5915	5915	5915	5915	5915	5915	5915	5915	5815	5815	5915	5915	5915	5915	5815	5915	5915	5915	6018	6018	6018	6018	5915	5915	5915	5915	5915	5915	5915	5915	5915	5915	5915	5915	5915	5915	5915	5915	5915	5915	6018	6018	6018	6018	6018	6018	6018	6124	6018	6018	6018	6018	6018	6018	6018	6018	6018	5915	5915	5915	5915	5915	5915	5915	5915	5915	5915	5915	5915	5915	5915	5915	5915	5915	5915	5915	5915	5815	5815	5815	0	0	0	0	0	0	0	0	6018	6018	6018	5915	5915	5915	5815	5815	5815	0	0	0	0	0	0	0	0	0	0	0	5915	5915	5915	5915	5915	6018	6018	6018	6124	6235	6235	6124	6124	6018	6018	5915	5915	5915	5915	5915	5915	5915	5815	5915	5915	5915	5815	5815	5815	5815	5815	5815	5815	5815	5815	5815	5815	5815	5815	5815	5815	5719	5719	5719	5719	5719	5719	5719	5719	5719	5815	5815	5719	5719	5719	5719	5719	5719	5719	5719	5719	5626	5719	5719	0	0	0	0	0	0	0	0	0	0	0	0	0	0	0	0	0	0	0	0	0	0	0	0	0	0	0	0	0	0	0	0	0	0	0	0	0	0	0	0	0	0	0	0	0	0	0	0	0	0	0	0	0	0	0	0	0
0	0	905	905	913	913	913	922	0	0	0	1109	1109	1116	1116	1113	1113	1116	1116	1120	1120	1116	1120	1120	1120	1120	1120	1120	1120	1120	1120	1120	1120	1120	1120	1120	1120	1120	1123	1120	1120	1120	1120	1120	1120	1120	1116	1116	1116	1116	1116	1116	1116	1120	1116	1116	1120	1120	1116	1116	1116	1120	1120	1127	1131	1134	1134	1142	1146	1146	1146	1150	1153	1150	1150	1146	1150	1153	1150	1142	1146	1142	1142	5626	5626	5626	5535	5364	5535	5535	5535	5626	5626	5626	5815	5815	5915	5915	0	0	6018	6018	0	0	6018	6018	6124	6124	6018	6018	6018	6235	6124	6124	6018	6018	6018	6018	6018	6018	6124	6018	6018	6018	6018	6124	6124	6018	6018	6124	6018	6018	6018	6018	5915	6018	5915	5915	5915	5915	5915	6018	6018	6018	6018	6018	6018	6018	6018	6124	6124	6018	6018	5915	5915	5915	5915	5915	5915	6018	6018	0	0	0	0	0	0	0	0	0	5915	5915	5815	5915	6018	6018	6124	6235	6349	6235	6235	6235	6235	0	0	0	0	0	0	0	0	0	0	0	0	0	0	0	0	0	0	0	0	0	0	0	6592	6468	6349	6468	6349	6349	6235	6235	6235	6124	6124	6124	6018	6124	6018	6018	6018	5915	5915	5915	5915	6018	6018	6018	6018	6124	6124	6124	6018	6018	6018	5915	5915	5815	5815	5815	5815	5815	5815	5815	5815	5815	5915	5915	5915	5915	5915	5915	5915	5915	5815	5915	5815	5915	5915	5815	5815	5915	5915	5915	5915	5915	6018	6018	5915	5915	5915	5915	5915	5815	5815	5915	5915	5915	5915	5915	5915	5915	5915	5815	5815	5815	5915	5815	5915	5915	5915	5815	5815	5815	5815	5915	5915	5915	5915	5915	6018	6018	5815	5915	5915	5915	5915	5915	6018	6018	5915	5915	5915	6018	6018	6018	6018	5915	5915	5915	5915	0	0	0	0	0	0	0	0	0	0	0	0	0	0	0	0	0	0	0	0	0	0	0	0	6018	6018	6018	0	0	0	0	0	0	0	6018	5815	5815	5815	5915	6018	6018	6018	6018	5915	5915	6018	6018	6124	6124	6124	6124	6124	6124	6018	6018	6018	6124	6018	6018	6018	6018	6018	6018	6018	6018	6018	6124	6124	5915	5915	5915	5915	5815	5815	5815	5915	5915	5915	5915	5915	5915	5915	5915	5915	5915	5915	5915	5915	5915	5915	5915	5915	5915	5915	5915	5915	5915	5915	5915	5915	5915	5915	5815	5915	5915	5915	6018	6018	6018	6018	6018	5915	6018	6018	6018	6018	6018	6018	5915	6018	5915	5915	5915	5915	5915	5915	5915	5915	6018	6018	6018	6018	6018	6018	6018	6018	6018	6018	6018	6018	6018	6018	6018	6018	6018	5915	5915	5915	5915	5915	5915	5915	5915	5915	5915	5915	6018	6018	6124	6018	6018	5915	5915	5915	5915	5815	5815	5815	0	0	0	0	0	0	0	0	6018	6018	6018	5915	6018	5915	5915	5915	5915	6235	6235	6235	6124	6124	0	0	0	0	6018	6018	6018	6018	6018	6018	6018	6018	6018	6018	6124	6235	6235	6235	6018	6124	6018	5915	5915	5915	5915	5915	6018	6018	6124	6124	6124	5915	5815	5815	5815	5815	5815	5815	5915	5915	5915	5815	5815	5815	5815	5815	5815	5719	5719	5719	5719	5815	5815	5719	5719	5719	5719	5815	5719	5719	5719	5719	5815	5815	5719	5719	5719	5719	5719	5719	0	0	0	0	0	0	0	0	0	0	0	0	0	0	0	0	0	0	0	0	0	0	0	0	0	0	0	0	0	0	0	0	0	0	0	0	0	0	0	0	0	0	0	0	0	0	0	0	0	0	0	0	0	0	0	0	0
0	0	905	905	908	908	908	0	0	0	0	1102	1102	1105	1113	1109	1113	1116	1116	1116	1120	1120	1120	1120	1120	1120	1120	1120	1120	1120	1120	1120	1120	1120	1120	1120	1120	1120	1120	1120	1120	1120	1120	1120	1120	1116	1116	1116	1116	1116	1116	1116	1116	1120	1120	1116	1120	1120	1116	1116	1116	1120	1120	1127	1131	1131	1134	1134	1142	1142	1142	1142	1153	1150	1150	0	0	0	0	0	0	5626	5626	5626	5535	5626	5535	5535	5535	5535	5626	5626	5626	5626	5815	5815	5915	5915	6018	6018	6018	6124	6124	6018	6018	6018	6124	6235	6124	6124	6235	6235	6124	6124	6018	6018	6124	6124	6018	6124	6124	6124	6124	6018	6018	6124	5915	5915	5915	6124	6018	6018	6018	6018	6018	6018	5915	5915	5915	5915	6018	6018	6018	6018	6018	6018	6124	6018	6018	6124	6124	6018	6018	6018	6018	6018	6018	6018	6018	6124	6018	6018	0	0	0	0	0	0	0	0	5915	5915	5915	5915	6018	6018	6018	6124	6235	6349	6349	6235	6235	0	0	0	0	0	0	0	0	0	0	0	0	0	0	0	0	0	0	0	0	0	6468	6468	6592	6468	6468	6468	6349	6349	6235	6235	6235	6124	6018	6124	6018	6018	6018	6018	6018	5915	5915	5915	5915	6018	6124	6124	6018	6124	6018	6018	6018	6018	6124	6018	5915	5915	5815	5815	5915	5815	5815	5815	5815	5915	5915	5915	5915	6018	5915	5915	6018	5915	5915	5915	5915	5915	5915	5815	5815	5915	5915	6018	6018	6018	6018	6018	6124	6018	6124	6018	6124	5915	5815	5915	5915	5915	5915	5915	5915	5915	5915	5815	5815	5815	5915	5815	5915	5915	5915	5815	5815	5815	5815	5815	5815	5815	5815	5915	6018	6018	5815	5915	5915	5915	5915	5915	6018	6018	6018	5915	5815	6018	6018	6018	6018	6018	6018	6018	5915	5915	0	0	0	0	0	0	0	0	0	0	0	0	0	5915	6018	5915	5915	6018	6018	5915	5915	6018	6018	6018	6018	6018	6018	6018	6018	0	6018	6018	0	5915	5815	5719	5719	5719	5915	5915	5915	5915	5915	5915	6018	6018	6124	6124	6124	6124	6235	6124	6124	6124	6124	6124	6018	6018	6018	6018	6018	6018	6018	6018	6018	6018	6018	5915	5915	5915	5915	5915	5915	5915	5915	5915	5915	5915	5915	5915	5915	5915	6018	5915	5915	5915	6018	6018	6018	5915	5915	5915	5915	5915	5915	5915	5915	5915	5915	5915	5815	5815	5915	5915	6018	6018	6018	6018	6018	6018	6018	6018	6018	6018	6018	6018	6018	5915	5915	5915	5915	5915	5915	5915	5915	5915	5915	6018	6018	6018	6018	6018	6018	6124	6124	6124	6018	6018	6018	6124	6124	6018	6018	6018	5915	5915	5915	5915	5915	5915	5915	5915	5915	5915	5915	6018	6018	6124	6018	6018	5915	5915	5915	6018	5915	5915	5815	0	0	0	0	0	0	0	0	0	0	6124	6018	6018	6018	5915	6235	6235	6235	6235	6235	6124	6235	6124	6124	6124	6018	6018	6124	6018	6124	6018	6018	6018	6124	6124	6018	6124	6235	6235	6235	6018	6018	6018	5915	5915	5915	6018	6018	6124	6124	6124	6124	6124	6018	5815	5815	5915	5815	5815	5815	5915	5915	5915	5815	5815	5915	5815	5815	5815	5719	5719	5719	5719	5719	5719	5719	5815	5815	5815	5815	5815	5815	5815	5815	5815	5815	5815	5719	5719	5719	5719	5815	5815	0	0	0	0	0	0	0	0	0	0	0	0	0	0	0	0	0	0	0	0	0	0	0	0	0	0	0	0	0	0	0	0	0	0	0	0	0	0	0	0	0	0	0	0	0	0	0	0	0	0	0	0	0	0	0	0
0	0	908	905	905	905	905	0	0	0	0	1102	1102	1095	1105	1105	1113	1116	1116	1120	1120	1120	1120	1120	1120	1120	1120	1120	1120	1120	1120	1120	1120	1120	1120	1120	1120	1120	1120	1120	1116	1116	1116	1120	1116	1116	1116	1116	1116	1116	1113	1116	1116	1116	1120	1120	1120	1120	1120	1120	1120	1120	1120	1120	1127	1127	1131	1131	1131	1142	1142	1142	0	0	0	0	0	0	5282	5202	5282	5448	5626	5535	5448	5535	5535	5535	5535	5535	5626	5626	5626	5719	5815	5815	5915	5915	6018	6018	6124	6124	6124	6018	6124	6124	6124	6124	6018	6235	6235	6235	6124	6124	6018	6124	6124	6018	6018	6018	6018	6018	6018	6124	6124	6235	6018	5915	6018	6018	6018	6018	6018	6018	6018	6018	6018	5915	5915	5915	6018	6018	6018	6124	6124	6124	6124	6124	6018	6124	6018	6018	6018	6018	6018	6018	6018	6018	6124	6235	6235	6124	6124	6235	6235	0	0	0	0	0	6018	5915	5915	5915	6018	6018	6124	6124	6235	6235	6349	0	0	0	0	0	0	0	0	0	0	0	0	0	0	0	0	0	0	0	0	0	0	6349	6468	6468	6468	6468	6468	6349	6349	6349	6235	6235	6235	6124	6018	6124	6124	6124	6124	6018	6018	5915	5915	6018	6018	6124	6124	6124	6124	6124	6124	6124	6124	6124	6124	6018	5915	5915	5915	5815	5815	5815	5815	5815	5815	5915	6124	6018	5915	6018	6018	6018	6018	5915	5915	5915	5915	5915	5915	5915	5915	6018	6018	6018	6018	6124	6124	6124	6124	6124	6124	6124	6124	6124	5915	5915	5915	5915	5915	5915	5915	5915	5915	5815	5815	0	0	5815	5915	5915	5915	5815	5815	5915	5915	5815	5815	5815	5815	0	0	0	0	0	0	6018	6018	6018	6018	6124	6018	5915	5815	6018	6018	6018	6018	6018	6018	6018	6018	6018	6018	6018	0	0	0	0	0	0	0	0	0	0	0	5915	5915	5815	5915	6018	6018	5915	5915	6018	6018	6018	6018	6018	6018	6124	6124	6124	6018	6018	5915	5915	5915	5815	5815	5915	5915	5915	5915	5915	5915	6018	6018	6018	6124	6124	6124	6124	6124	6124	6124	6124	6124	6124	6124	6124	6124	6124	6124	6018	6018	6018	6018	6018	6018	5915	5915	5915	5915	5915	5915	5915	5915	5915	5915	5915	5915	5915	5915	5915	6018	5915	6018	6018	6018	6018	6018	6018	5915	6018	5915	5915	5915	5915	5915	5915	5915	5915	5815	5815	5815	5815	5915	5915	5915	5915	6018	6018	6018	6018	6018	6018	6018	6018	6018	5915	6018	5915	5915	5915	5915	5915	5915	5915	5915	6018	6018	6018	6018	6018	6018	6018	6018	6124	6018	6124	6124	6124	6124	6124	6018	6018	5915	6018	6018	5915	5915	5915	5915	5915	5915	5915	5915	6018	6018	6124	6018	6018	5915	5915	6018	6018	6018	5915	0	0	0	0	0	0	0	0	0	0	0	6124	6018	6124	6124	6235	6235	6235	6235	6235	6235	6235	6235	6235	6235	6124	6124	6018	6124	6124	6124	6018	6018	6018	6124	6124	6018	6235	6235	6235	6235	6018	6018	6018	5915	5915	6018	6018	6124	6124	6124	6235	6235	6235	6235	6235	5915	5915	5915	5815	5915	5915	5915	5915	5815	5815	5815	5815	5815	5815	5719	5719	5719	5719	5719	5815	5815	5815	5815	5815	5915	5815	5915	5815	5815	5815	5815	5815	5719	5626	5719	5719	5815	5815	5815	0	0	0	0	0	0	0	0	0	0	0	0	0	0	0	0	0	0	0	0	0	0	0	0	0	0	0	0	0	0	0	0	0	0	0	0	0	0	0	0	0	0	0	0	0	0	0	0	0	0	0	0	0	0	0
0	0	903	905	908	908	908	0	0	0	0	0	1102	1095	1105	1105	1113	1116	1116	1120	1120	1120	1120	1120	1120	1120	1120	1120	1120	1120	1120	1120	1120	1120	1120	1120	1120	1120	1120	1116	1116	1116	1116	1116	1116	1116	1116	1116	1116	1116	1113	1116	1116	1116	1120	1120	1120	1120	1120	1120	1116	1120	1120	1116	1120	1123	1123	1123	1123	0	0	0	0	0	0	0	0	0	5364	5282	5364	5448	5535	5535	5448	5535	5535	5535	5535	5535	5626	5626	5719	5719	5915	5915	6018	6018	6018	6124	6124	6124	6124	6124	6124	6124	6124	6018	6018	6018	6018	6235	6235	6235	6124	6235	6235	6124	6124	6124	6018	6018	6124	6124	6235	6235	6018	6018	6018	6018	6018	6018	6018	6018	6124	6018	6018	6018	6018	6018	6018	6124	6018	6124	6124	6124	6124	6018	6018	6124	6124	6018	6018	6018	6124	6124	6018	6124	6124	6124	6235	6124	6124	6235	6235	6235	6349	6349	0	0	6018	6018	5915	6018	6018	6018	6124	6124	6235	6235	0	0	0	0	0	0	0	0	0	0	0	0	0	0	0	0	0	0	0	0	0	0	0	6235	6349	6349	6349	6349	6349	6349	6235	6235	6235	6124	6124	6235	6124	6235	6124	6124	6124	6124	6018	6018	5915	6018	6124	6235	6235	6235	6235	6124	6124	6124	6124	6124	6124	6124	5915	5915	5915	5915	5915	5915	5915	5815	5815	6124	6124	6018	6018	6018	6124	6018	6018	6018	5915	5915	5915	5915	5915	6018	6018	6018	6018	6018	6018	6018	6124	6124	6124	6124	6235	6124	6235	6235	6235	6124	6018	6018	5915	5915	5915	5915	5915	0	0	0	0	0	0	0	0	0	5815	5915	5915	5915	0	0	0	0	0	0	0	0	0	6124	6018	6018	6018	6124	6018	6018	5815	6018	6018	6018	6018	6018	6018	6018	6018	6018	6018	6018	0	6124	6124	0	0	0	0	6018	6018	0	0	5915	5915	5815	5815	5915	6018	5915	6018	6018	6018	6018	6018	6018	6018	6018	6018	6018	6018	5915	5915	5915	5915	5915	5915	5915	6018	6018	6018	6018	6018	6018	6018	6124	6124	6124	6124	6124	6124	6124	6124	6018	6124	6124	6124	6124	6124	6124	6124	6124	6124	6018	6018	6018	6018	5915	5915	5915	5915	5915	5915	5915	5915	5915	5915	5915	5915	5915	6018	6018	6018	6018	6018	6018	6018	6018	6018	5915	5915	5915	5915	5915	5915	5915	5915	5915	5915	5915	5915	5915	5915	5915	6018	6018	6018	6018	6018	6018	6018	6018	6018	6018	6018	6018	6018	6018	6018	6018	5915	6018	6018	6018	6018	6018	6018	6018	6018	6018	6018	6018	6018	6018	6018	6124	6018	6124	6124	6124	6124	6124	6124	6124	6018	6018	6018	5915	5915	5915	5915	5915	5915	5915	5915	5915	6018	6018	6018	5915	5915	6018	6018	6018	6018	0	0	0	0	0	0	0	0	0	0	0	0	6124	6124	6124	6124	6124	6235	6124	6124	6235	6235	6235	6235	6235	6124	6124	6124	6124	6235	6124	6124	6018	6124	6124	6124	6124	6018	6235	6235	6235	6235	6124	6235	6018	6124	6124	6124	6124	6124	6124	6124	6235	6235	6124	6018	6235	5915	5915	5915	5915	5915	5915	5815	5915	5815	5815	5915	5815	5815	5815	5815	5815	5815	5815	5915	5915	5915	5915	5815	5815	5915	5815	5915	5815	5915	5815	5815	5815	5719	5719	5719	5719	5719	5719	5815	0	0	0	0	0	0	0	0	0	0	0	0	0	0	0	0	0	0	0	0	0	0	0	0	0	0	0	0	0	0	0	0	0	0	0	0	0	0	0	0	0	0	0	0	0	0	0	0	0	0	0	0	0	0	0
0	0	905	905	905	915	915	917	917	0	0	0	0	0	0	0	0	1116	1116	1120	1120	1120	1120	1116	1116	1120	1116	1116	1120	1120	1120	1120	1120	1120	1120	1120	1120	1116	1116	1116	1116	1116	1116	1116	1116	1116	1116	1116	1116	1116	1116	1116	1113	1116	1116	1116	1116	1120	1116	1116	1113	1116	1120	1120	1120	1120	1120	1120	1120	0	0	0	0	0	0	0	0	0	5282	5282	5364	5535	5535	5448	5448	5535	5535	5535	5535	5535	5535	5626	5626	5719	5815	5815	5815	5915	5915	6018	6018	6018	6018	6018	6018	6018	6018	6018	6018	6018	6349	6349	6349	6349	6235	6349	6235	6235	6124	6124	6235	6235	6235	6235	6235	6235	6235	6018	6124	6018	6018	6018	6018	6018	6124	6018	6018	6018	6124	6018	6018	6124	6018	6124	6124	6124	6124	6124	6018	6124	6124	6018	6018	6018	6124	6124	6018	6018	6124	6124	6124	6018	6124	6124	6235	6235	6235	6235	6235	6018	6018	6018	6018	6018	6018	6018	6124	6124	6235	6235	0	0	0	0	0	0	6235	6235	6124	6235	6235	6235	0	0	0	0	0	0	0	0	0	6018	6124	6124	6235	6349	6349	6235	6349	6349	6235	6235	6235	6235	6235	6235	6235	6235	6235	6235	6235	6124	6124	6018	6124	6124	6235	6235	6235	6235	6235	6124	6124	6124	6124	6124	6124	6124	6018	5915	5915	5915	5915	5915	5915	5915	5915	6124	6124	6018	6018	6124	6124	6124	6018	6018	6018	6018	6018	6018	5915	5915	5915	6018	6018	6018	6018	6018	6124	6124	6235	6124	6235	6235	6235	6235	6235	6235	6235	6018	6018	6018	6018	0	0	0	0	0	0	0	0	0	0	0	0	0	0	0	0	0	0	0	0	0	0	0	0	6124	6124	6124	6124	6018	6018	6018	6018	6018	6018	5915	6018	6018	6018	6018	6018	6018	6018	5915	5915	6018	5915	5915	5915	6018	6018	6018	6018	6018	5915	5915	5915	5915	5915	5915	6018	6018	6018	6018	6018	6018	6018	6018	6018	6018	6018	6018	6018	6018	6018	6124	6018	6018	6018	6018	6018	6018	6018	6018	6018	6018	6018	6018	6018	6018	6018	6124	6124	6124	6018	6018	6124	6124	6124	6124	6124	6018	6124	6018	6124	6018	6018	6018	6018	6018	6018	6018	6018	6018	5915	5915	5915	5915	5915	5915	5915	5915	6018	6018	6018	6018	6018	6018	6018	6018	6018	6018	6018	6018	6018	6018	6018	6018	5915	5915	5915	5915	5915	5915	5915	5915	5915	6018	6018	5915	6018	6018	6018	6018	6018	6018	6018	6018	6018	6018	6018	6018	5915	6018	6018	6018	6018	6018	6018	6018	6018	6018	6018	6018	6018	6018	6018	6018	6018	6124	6124	6124	6124	6235	6235	6124	6018	6018	6018	6018	5915	5915	5915	5915	5915	5915	5915	5915	6018	6124	6018	6124	6018	6124	6235	6235	6235	0	0	0	0	0	0	0	0	0	0	0	6124	6235	6124	6124	6124	6124	6235	6124	6124	6235	6235	6235	6235	6235	6235	6235	6235	6235	6235	6235	6124	6124	6018	6124	6124	6124	6018	6235	6235	6235	6124	6235	6235	6235	6235	6235	6235	6124	6124	6235	6124	6124	6235	6124	6124	6124	5915	5915	5815	5815	5815	5815	5815	5815	5815	5815	5915	5915	5915	5915	5915	5915	5915	5915	6018	5915	5915	5915	5815	5815	5915	5815	5915	5815	5915	5815	5915	5915	5815	5719	5719	5719	5719	5719	0	0	0	0	0	0	0	0	0	0	0	0	0	0	0	0	0	0	0	0	0	0	0	0	0	0	0	0	0	0	0	0	0	0	0	0	0	0	0	0	0	0	0	0	0	0	0	0	0	0	0	0	0	0	0	0
0	0	905	905	908	917	920	917	917	917	0	0	0	0	0	0	0	0	1120	1120	1120	1120	1120	1116	1116	1120	1116	1120	1120	1120	1120	1120	1120	1120	1120	1116	1116	1116	1116	1116	1113	1116	1116	1116	1116	1116	1116	1116	1116	1116	1116	1116	1113	1116	1116	1116	1116	1120	1116	1116	1120	1120	1120	1120	1120	1120	1120	1120	1120	1120	0	0	0	0	0	0	0	0	5282	5364	5364	5535	5448	5448	5448	5448	5535	5626	5535	5535	5626	5626	5719	5719	5719	5915	5915	5815	5915	6018	6018	6018	6018	6018	6018	6018	6018	6018	6018	6124	6235	6349	6349	6349	6349	6349	6349	6235	6235	6235	6235	6235	6235	6235	6349	6349	6349	6124	6235	6124	6124	6124	6018	6018	6124	6018	6018	6124	6124	6018	6018	6124	6018	6235	6124	6124	6124	6124	6124	6124	6124	6018	6018	6018	6124	6124	6124	6124	6124	6124	6124	6018	6124	6124	6235	6349	6235	6235	6235	6124	6018	6018	6018	6018	6018	6018	6124	6235	6124	6124	0	0	0	0	0	0	6235	6124	6124	6235	6349	6349	6349	6349	0	0	0	0	0	0	6018	6018	6124	6124	6235	6235	6349	6235	6235	6235	6235	6235	6235	6235	6235	6349	6235	6349	6235	6235	6235	6124	6124	6124	6235	6124	6235	6235	6235	6235	6235	6235	6124	6124	6124	6124	6124	6124	6018	6018	5915	5915	6018	5915	5915	5915	5915	6124	6124	6018	5915	6018	6124	6124	6018	6018	6018	6018	6018	6018	5915	6018	6018	6018	6018	6018	6124	6124	6235	6235	6235	6235	6235	6235	6235	6349	6349	6349	6349	6235	6235	6018	6018	0	0	0	0	0	3583	3583	0	0	3583	3621	3659	3698	3698	0	0	0	0	0	0	0	0	0	0	0	6124	6124	6018	6124	6124	6124	6018	6018	6018	6018	6018	6018	6018	6018	6018	6018	6018	5915	5915	6018	6018	6018	6018	6018	6018	6018	6018	6018	6018	6018	5915	5915	6018	6018	6018	6018	6018	6018	6018	6018	6018	6018	6018	6018	6018	6018	6018	6018	6018	6124	6018	6018	6018	6018	6018	6018	6124	6124	6018	6018	6018	6124	6124	6018	6018	6124	6124	6124	6124	6124	6124	6124	6124	6124	6124	6124	6124	6124	6124	6124	6124	6018	6124	6018	6018	6018	6018	6018	6018	6018	6018	6018	5915	5915	5915	5915	6018	6018	6018	6018	6018	6124	6124	6124	6124	6018	6018	6124	6124	6018	6018	6018	6018	5915	5915	5915	5915	5915	5915	6018	6018	6018	6018	5915	5915	6018	6018	6018	6018	6018	6018	6018	6018	6018	6018	6018	5915	6018	6018	6018	6018	6018	6018	6018	6124	6018	6018	6018	6018	6018	6018	6124	6124	6124	6124	6235	6235	6235	6235	6235	6124	6018	6018	6018	6018	5915	5915	5915	5915	5915	5915	5915	5915	6018	6018	6124	6124	6124	6124	6124	6235	6235	0	0	0	0	0	0	0	0	0	0	6235	6235	6235	6235	6235	6235	6235	6235	6235	6235	6235	6235	6235	6235	6235	6235	6235	6235	6349	6235	6235	6124	6124	6124	6124	6124	6018	6235	6124	6124	6235	6235	6349	6349	6235	6235	6235	6235	6235	6235	6124	6235	6235	6124	6235	6235	6018	5915	5815	5815	5915	5815	5815	5815	5815	5815	5915	5915	5915	6018	6018	6018	6124	6124	6124	6018	6018	5915	5815	5815	5815	5815	5815	5815	5815	5815	5915	6018	5915	5915	5915	5915	5719	0	0	0	0	0	0	0	0	0	0	0	0	0	0	0	0	0	0	0	0	0	0	0	0	0	0	0	0	0	0	0	0	0	0	0	0	0	0	0	0	0	0	0	0	0	0	0	0	0	0	0	0	0	0	0	0	0
0	0	905	910	910	920	922	920	920	920	0	0	0	0	0	0	0	0	1116	1120	1120	1120	1120	1116	1116	1116	1116	1116	1120	1120	1120	1120	1120	1120	1120	1120	1116	1116	1116	1116	1116	1116	1116	1116	1116	1116	1113	1113	1113	1113	1109	1113	1113	1113	1116	1116	1116	1116	1120	1116	1116	1116	1120	1120	1123	1127	1123	1123	1123	1120	0	0	0	0	0	0	0	0	0	5364	5535	5535	5535	5626	5448	5535	5535	5626	5626	5535	5626	5626	5626	5626	5719	5815	5815	5815	5915	5915	6018	6018	6018	6018	6018	6018	6018	5915	6018	6124	6235	6349	6349	6349	6349	6349	6349	6235	6235	6235	6349	6349	6349	6235	6349	6349	6349	6124	6235	6124	6124	6124	6124	6124	6124	6018	6018	6124	6124	6018	6018	6124	6124	6235	6124	6124	6124	6124	6124	6124	6235	6124	6124	6124	6235	6235	6124	6235	6124	6124	6124	6018	6124	6235	6235	6235	6235	6235	6124	6018	6018	6018	6018	6018	6124	6018	6124	6018	6018	6235	6235	0	0	0	0	6124	6235	6124	6124	6124	6235	6349	6349	6235	6235	0	0	6018	6018	6018	6018	6018	6124	6124	6235	6235	6235	6235	6235	6235	6235	6235	6235	6235	6235	6349	6235	6349	6235	6235	6235	6124	6235	6235	6235	6235	6235	6235	6235	6235	6235	6235	6235	6235	6235	6235	6235	6235	6124	6124	6018	6018	6018	6018	5915	5915	6018	6124	6124	6018	6018	6124	6124	6124	6124	6124	6124	6124	6124	6124	6018	6018	6018	6018	6124	6124	6124	6124	6235	6235	6235	6235	6235	6235	6349	6349	6349	6349	6349	6349	6235	0	0	0	0	0	0	3621	3621	3583	3583	3583	3583	3621	3621	3621	3659	3659	3659	0	0	0	0	0	0	0	0	0	0	6124	6124	6124	6124	6124	6018	6018	6018	6018	6018	6018	6018	6124	6018	6018	6018	6124	6018	6018	6018	6124	6124	6124	6124	6018	6018	6018	6018	6018	6018	6018	6018	6018	6018	6018	6018	6018	6018	6018	6018	6018	6018	6018	6018	6018	6018	6018	6018	6018	6018	6018	6018	6018	6018	6018	6124	6124	6124	6124	6124	6124	6124	6124	6124	6124	6124	6124	6124	6124	6124	6124	6124	6124	6124	6124	6124	6124	6124	6124	6124	6124	6124	5915	5915	6018	6018	6018	6018	6018	6018	6018	6018	5915	5915	6018	6018	6018	6018	6018	6124	6124	6124	6124	6124	6124	6124	6124	6124	6124	6018	6018	6018	6018	5915	5915	5915	5915	5915	6018	6018	6018	6018	6018	6018	6018	6018	6018	6018	6018	6018	6018	6018	6018	6124	6018	6018	6018	6018	6018	6018	6018	6018	6018	6124	6124	6018	6018	6018	6018	6124	6124	6124	6235	6349	6235	6235	6235	6235	6235	6124	6124	6124	6124	6018	6018	5915	6018	5915	5915	6018	6018	6018	6018	6124	6124	6124	6235	6124	6124	6349	6349	0	0	0	0	0	0	0	0	0	0	6349	6349	6235	6235	6235	6235	6235	6235	6235	6349	6349	6235	6349	6349	6349	6235	6235	6349	6349	6235	6235	6235	6235	6235	6235	6235	6124	6124	6235	6235	6235	6349	6349	6349	6349	6349	6235	6235	6235	6235	6235	6235	6235	6235	6235	6235	6018	5915	5815	5815	5915	5915	5915	5915	5915	5915	6018	6018	6018	6018	6124	6235	6124	6124	6124	6124	6124	6018	5915	5915	5915	5915	5915	5815	5915	5915	6018	6018	5915	5915	5915	5915	0	0	0	0	0	0	0	0	0	0	0	0	0	0	0	0	0	0	0	0	0	0	0	0	0	0	0	0	0	0	0	0	0	0	0	0	0	0	0	0	0	0	0	0	0	0	0	0	0	0	0	0	0	0	0	0	0	0
0	0	0	905	917	920	920	920	920	920	920	0	0	0	0	0	0	0	1116	1120	1120	1120	1120	1116	1116	1116	1116	1116	1116	1116	1116	1120	1120	1116	1116	1116	1116	1116	1116	1116	1116	1116	1116	1116	1116	1116	1113	1113	1113	1113	1113	1113	1113	1113	1116	1116	1116	1116	1116	1116	1116	1116	1120	1120	1123	1123	1123	1123	1123	1232	1232	1227	1227	0	0	0	0	0	0	0	5535	5535	5535	5535	5535	5535	5535	5626	5626	5535	5626	5626	5626	5719	5719	5815	5815	5815	5815	5915	5915	6018	6018	6018	6018	6018	6018	5915	6018	6018	6124	6124	6235	6349	6349	6349	6349	6235	6235	6235	6349	6349	6349	6349	6235	6349	6235	6235	6235	6235	6124	6124	6124	6124	6235	6124	6124	6235	6124	6124	6124	6124	6124	6124	6124	6124	6124	6124	6124	6124	6124	6124	6124	6235	6235	6235	6349	6235	6235	6235	6124	6018	6124	6124	6235	6235	6235	6235	6124	6124	6124	6124	6018	6018	6124	6018	6018	6124	6018	6235	6235	6235	6235	6235	6124	6124	6235	6124	6124	6124	6235	6235	6349	6235	6235	6235	6235	6124	6124	6124	6018	6018	6018	6124	6124	6235	6235	6235	6235	6349	6349	6349	6349	6235	6235	6235	6235	6235	6349	6235	6235	6235	6235	6235	6235	6235	6235	6235	6235	6235	6235	6235	6235	6235	6235	6235	6235	6235	6124	6124	6124	6124	6124	6124	6124	6018	6018	6124	6018	6018	6018	6018	6124	6124	6124	6124	6124	6124	6124	6124	6124	6018	6018	6124	6124	6124	6124	6235	6235	6235	6235	6235	6349	6349	6468	6468	6468	6468	6468	6349	0	0	0	0	0	0	3621	3621	3621	3621	3583	3621	3621	3621	3621	3621	3621	3621	3621	3621	0	0	0	0	0	0	0	0	0	6235	6124	6124	6124	6124	6018	6018	6018	6018	6018	6124	6124	6124	6018	6018	6018	6124	6018	6018	6018	6124	6124	6018	6124	6018	6018	6018	6018	6018	6018	6018	6124	6018	6124	6018	6124	6018	6018	6018	6018	6018	6018	6018	6018	6018	6018	6018	6018	6018	6018	6124	6124	6124	6124	6124	6124	6235	6124	6124	6124	6235	6235	6124	6124	6124	6124	6124	6124	6124	6124	6124	6124	6124	6124	6124	6124	6124	6124	6124	6124	6124	6124	5915	5915	5915	6018	6018	6018	6018	6018	6018	6018	6018	6018	6018	6018	6018	6018	6124	6124	6235	6235	6235	6235	6124	6124	6235	6235	6124	6124	6018	6018	6018	6018	6018	5915	6018	6018	6018	6018	6018	6018	6018	6018	6018	6018	6018	6018	6124	6124	6124	6124	6124	6124	6124	6018	6018	6018	6018	6018	5915	5915	6124	5915	6124	6018	6018	6124	6018	6124	6124	6235	6349	6349	6349	6349	6349	6235	6235	6124	6124	6124	6124	6018	6018	6018	6018	6018	6018	6018	6018	6124	6124	6124	6124	6124	6235	6235	6235	6468	6468	6468	0	0	0	0	0	0	0	0	0	6349	6349	6349	6235	6235	6235	6235	6235	6235	6349	6349	6349	6349	6349	6349	6349	6349	6349	6349	6349	6349	6235	6349	6349	6235	6235	6235	6235	6235	6235	6235	6349	6349	6349	6349	6349	6349	6235	6235	6235	6235	6235	6235	6235	6235	6235	6018	6018	5915	5915	5915	5915	6018	5915	5915	5915	6018	6018	6124	6124	6124	6235	6235	6235	6235	6124	6124	6124	6124	6018	5915	5915	5915	5915	5915	5915	6018	6018	6018	6018	6018	6018	6018	0	0	0	0	0	0	0	0	0	0	0	0	0	0	0	0	0	0	0	0	0	0	0	0	0	0	0	0	0	0	0	0	0	0	0	0	0	0	0	0	0	0	0	0	0	0	0	0	0	0	0	0	0	0	0	0	0
0	0	0	915	915	917	920	920	920	922	925	927	927	0	0	0	0	0	0	0	1120	1120	1120	1116	1116	1116	1116	1116	1116	1116	1116	1116	1116	1116	1116	1116	1116	1116	1116	1116	1116	1116	1116	1116	1113	1116	1113	1113	1113	1113	1109	1109	1109	1113	1113	1116	1113	1116	1113	1116	1116	1116	1120	1120	1123	1123	1123	1123	1232	1232	1232	1227	1227	1232	1232	1232	0	0	0	0	0	5535	5535	5535	5448	5535	5535	5626	5535	5535	5626	5626	5626	5626	5719	5719	5815	5815	5815	5915	5915	5915	6018	6018	6018	6018	6018	5915	6018	6018	6124	6124	6124	6235	6235	6349	6349	6235	6235	6235	6349	6349	6349	6349	6349	6349	6235	6235	6235	6235	6124	6124	6235	6124	6235	6124	6349	6349	6468	6468	6349	6349	6349	6235	6235	6124	6235	6235	6235	6124	6235	6124	6235	6235	6235	6349	6349	6235	6235	6235	6235	6124	6124	6124	6235	6235	6235	6235	6235	6124	6235	6235	6124	6124	6235	6235	6124	6124	6124	6235	6235	6235	6235	6235	6235	6235	6235	6235	6235	6235	6349	6349	6349	6349	6349	6349	6349	6235	6235	6124	6235	6235	6124	6124	6235	6235	6349	6235	6235	6235	6349	6349	6349	6349	6349	6235	6235	6235	6349	6349	6235	6235	6349	6235	6235	6235	6235	6235	6235	6235	6235	6235	6235	6235	6235	6235	6235	6235	6124	6124	6124	6124	6124	6124	6124	6018	6124	6124	6124	6124	6124	6124	6124	6124	6124	6124	6124	6124	6124	6124	6124	6124	6124	6124	6124	6124	6124	6124	6235	6235	6235	6235	6349	6349	6468	6468	6468	6468	6468	0	0	0	0	0	0	3621	3621	3621	3621	3621	3583	3621	3621	3621	3621	3621	3659	3659	3659	3659	0	0	0	0	0	0	0	0	0	6235	6235	6235	6235	6235	6124	6018	6018	6018	6018	6018	6018	6124	6124	6018	6018	6124	6018	6124	6124	6124	6124	6124	6124	6018	6124	6124	6018	6124	6124	6124	6124	6018	6124	6018	6124	6018	6018	6018	6018	6124	6018	6018	6018	6018	6018	6018	6018	6018	6018	6018	6124	6124	6124	6124	6124	6235	6235	6235	6124	6124	6349	6235	6124	6235	6124	6124	6124	6124	6124	6124	6124	6124	6235	6235	6235	6235	6235	6124	6124	6124	6124	6018	5915	5915	6018	6018	6018	6018	6018	6018	6018	6018	6018	6124	6018	6124	6018	6124	6124	6124	6124	6124	6124	6235	6235	6235	6235	6235	6124	6124	6124	6018	6018	6018	6018	6018	6018	6018	6018	6018	6018	6018	6018	6018	6018	6018	6018	6124	6124	6124	6124	6124	6124	6124	6124	6018	6018	6018	6018	6018	6124	6124	6124	6124	6018	6124	6124	6124	6124	6124	6235	6349	6349	6349	6235	6349	6235	6235	6124	6124	6018	6018	6124	6018	6124	6124	6124	6124	6124	6124	6124	6124	6124	6124	6235	6235	6235	6235	6468	6468	6468	6468	0	0	0	0	0	0	0	0	0	6468	6349	6349	6235	6235	6235	6235	6235	6349	6349	6349	6349	6349	6349	6349	6349	6235	6235	6349	6235	6235	6349	6349	6349	6349	6235	6235	6235	6235	6235	6349	6349	6468	6349	6349	6349	6349	6349	6235	6235	6235	6235	6235	6235	6235	6018	6018	5915	5915	5915	5915	6018	6018	6018	6018	6018	6018	6124	6124	6235	6235	6235	6235	6235	6124	6124	6124	6124	6018	6018	5915	6018	5915	5915	5915	6018	6018	6018	6018	6018	6124	6124	0	6124	6124	6124	0	0	0	0	0	0	0	0	0	0	0	0	0	0	0	0	0	0	0	0	0	0	0	0	0	0	0	0	0	0	0	0	0	0	0	0	0	0	0	0	0	0	0	0	0	0	0	0	0	0	0	0	0
0	0	0	913	915	917	920	920	922	925	927	927	927	0	0	0	0	0	0	0	1120	1120	1120	1116	1116	1116	1116	1116	1116	1116	1116	1116	1116	1116	1116	1116	1116	1116	1109	1109	1116	1116	1116	1116	1116	1113	1113	1113	1113	1113	1109	1113	1109	1109	1109	1109	1109	1113	1113	1113	1116	1116	1120	1120	1123	1127	1127	1232	1232	1232	1227	1227	1227	1227	1232	1232	0	0	0	0	0	0	0	0	5535	5535	5626	5626	5626	5626	5626	5626	5626	5719	5719	5719	5815	5815	5815	5915	5915	5915	5915	6018	6018	6018	6018	6018	6018	6018	6124	6124	6018	6018	6235	6349	6349	6235	6235	6235	6349	6349	6349	6349	6349	6349	6349	6349	6349	6235	6235	6124	6235	6235	6235	6235	6235	6235	6468	6124	6349	6468	6468	6349	6349	6235	6235	6235	6349	6349	6349	6349	6349	6349	6349	6349	6349	6349	6235	6235	6235	6124	6124	6124	6235	6235	6235	6235	6235	6124	6124	6235	6124	6235	6235	6235	6235	6235	6235	6349	6349	6235	6235	6235	6235	6235	6235	6235	6235	6235	6235	6235	6349	6349	6349	6349	6349	6349	6349	6235	6235	6349	6235	6235	6235	6349	6349	6349	6235	6235	6349	6349	6349	6349	6349	6349	6349	6349	6349	6349	6349	6349	6349	6349	6349	6349	6235	6235	6235	6235	6235	6235	6235	6235	6235	6235	6235	6235	6124	6124	6124	6124	6124	6124	6124	6124	6124	6124	6124	6124	6124	6235	6235	6235	6124	6124	6124	6124	6124	6124	6124	6124	6124	6124	6124	6124	6124	6124	6235	6235	6349	6349	6349	6468	6468	6468	6349	6468	6468	0	0	0	0	0	0	3621	3621	3621	3621	3621	3621	3621	3621	3621	3621	3621	3621	3659	3659	3659	3659	0	0	0	0	0	0	0	0	6235	6235	6235	6235	6235	6124	6124	6124	6124	6124	6124	6124	6124	6124	6124	6124	6124	6124	6124	6124	6124	6124	6124	6124	6124	6124	6124	6124	6124	6124	6124	6124	6124	6124	6124	6124	6124	6018	6018	6124	6124	6124	6124	6124	6124	6124	6124	6124	6018	6124	6124	6124	6124	6124	6124	6124	6124	6235	6124	6124	6124	6235	6124	6124	6124	6124	6124	6124	6124	6124	6124	6124	6124	6235	6235	6235	6235	6235	6235	6124	6124	6124	6018	6018	5915	6018	6018	6018	6018	6018	6124	6124	6018	6124	6124	6124	6124	6124	6124	6235	6235	6235	6235	6235	6235	6235	6235	6235	6235	6124	6124	6124	6018	6018	6018	6018	6018	6018	6018	6018	6124	6124	6018	6018	6018	6018	6018	6124	6124	6124	6124	6124	6235	6235	6235	6235	6124	6124	6124	6124	6235	6235	6235	6235	6235	6124	6235	6124	6124	6235	6235	6235	6349	6349	6349	6349	6349	6349	6235	6124	6124	6018	6124	6124	6124	6124	6235	6124	6235	6235	6235	6235	6235	6235	6235	6235	6235	6235	6235	6349	6468	6468	6468	0	0	0	0	0	0	0	6720	6592	6468	6468	6349	6349	6235	6235	6235	6349	6349	6349	6349	6349	6349	6349	6349	6349	6349	6235	6235	6235	6235	6235	6235	6235	6349	6349	6235	6235	6235	6235	6349	6349	6349	6349	6349	6349	6235	6235	6235	6235	6235	6235	6124	6235	6235	6018	6018	5915	5915	5915	5915	6018	6018	5915	6018	6124	6124	6124	6235	6235	6235	6235	6235	6235	6124	6124	6018	6018	6018	5915	5915	5915	5915	6018	5915	6018	6018	6018	6018	6124	6124	6124	6124	6124	6124	6124	6124	0	0	0	0	0	0	0	0	0	0	0	0	0	0	0	0	0	0	0	0	0	0	0	0	0	0	0	0	0	0	0	0	0	0	0	0	0	0	0	0	0	0	0	0	0	0	0	0	0	0	0	0
0	0	0	913	913	917	920	920	922	925	927	930	940	948	948	972	972	0	0	961	961	1120	1116	1116	1116	1116	1116	1116	1116	1116	1116	1116	1116	1116	1116	1113	1116	1116	1105	1116	1116	1116	1116	1113	1113	1113	1113	1113	1109	1113	1113	1113	1109	1109	1109	1109	1109	1116	1113	1113	1116	1120	1120	1123	1123	1131	1131	1245	1232	1232	1227	1227	1232	1227	1236	1236	1236	0	0	0	0	0	0	0	5535	5535	5535	5535	5535	5535	5535	5626	5626	5626	5719	5719	5815	5815	5915	5915	5915	5915	5915	6018	6018	6018	6018	6018	6018	6018	6018	6018	6018	6235	6235	0	0	0	0	0	0	6468	6468	6349	6468	6468	6349	6349	6349	6235	6235	6235	6235	6235	6235	6235	6235	6349	6468	6235	6235	6235	6235	6349	6349	6235	6235	6235	6349	6349	6235	6349	6349	6349	6349	6235	6235	6235	6235	6124	6124	6124	6124	6124	6124	6235	6235	6235	6235	6235	6124	6235	6124	6235	6235	6235	6235	6235	6235	6349	6235	6235	6235	6235	6235	6235	6235	6235	6349	6349	6349	6349	6349	6349	6349	6349	6349	6235	6349	6235	6235	6235	6235	6235	6349	6349	6468	6349	6235	6235	6235	6349	6349	6349	6349	6349	6349	6349	6349	6349	6349	6349	6349	6349	6349	6349	6235	6235	6235	6235	6235	6235	6235	6235	6235	6235	6235	6235	6124	6235	6124	6124	6235	6235	6235	6124	6124	6124	6235	6124	6124	6235	6235	6235	6235	6235	6235	6124	6124	6124	6124	6124	6124	6124	6124	6235	6235	6235	6235	6349	6349	6468	6349	6468	6468	6468	6468	6468	6468	0	0	0	0	0	0	3659	3621	3621	3621	3621	3621	3621	3621	3621	3621	3621	3621	3621	3659	3659	3659	0	0	0	0	0	0	0	0	6235	6235	6235	6235	6235	6124	6124	6124	6124	6124	6124	6124	6124	6124	6124	6124	6124	6124	6124	6235	6349	6124	6124	6124	6124	6124	6124	6124	6124	6124	6124	6124	6124	6124	6124	6124	6124	6018	6124	6124	6124	6124	6124	6124	6124	6124	6124	6124	6018	6124	6124	6124	6124	6124	6124	6124	6124	6235	6124	6124	6124	6235	6124	6235	6235	6235	6124	6124	6124	6124	6124	6124	6124	6235	6349	6349	6349	6349	6235	6235	6235	6235	6018	6018	6018	6124	6018	6018	6018	6018	6018	6124	6018	6124	6124	6124	6124	6124	6124	6235	6235	6235	6235	6235	6235	6235	6235	6235	6235	6235	6235	6124	6124	6018	6018	6018	6124	6124	6124	6235	6235	6235	6124	6124	6124	6124	6124	6124	6235	6235	6124	6235	6235	6235	6235	6235	6124	6235	6124	6235	6235	6235	6235	6349	6235	6235	6235	6235	6235	6235	6235	6235	6349	6349	6349	6349	6349	6349	6235	6124	6124	6018	6018	6124	6235	6124	6124	6124	6124	6124	6124	6124	6235	6124	6124	6235	6235	6349	6235	6235	6592	6468	6592	6592	0	0	0	0	0	6592	6720	6720	6720	6592	6349	6468	6349	6349	6349	6349	6349	6349	6349	6349	6468	6468	6468	6468	6349	6349	6235	6235	6235	6235	6235	6235	6349	6235	6235	6235	6235	6235	6235	6235	6349	6349	6349	6349	6349	6349	6235	6235	6235	6235	6124	6124	6235	6018	6018	5915	5915	5915	6018	6018	6124	6124	6124	6124	6124	6124	6235	6235	6235	6235	6235	6235	6124	6124	6018	6018	6018	5915	5915	5915	5915	5915	6018	6018	6018	6018	6124	6124	6124	6124	6124	6235	6235	6235	6235	6235	0	0	0	0	0	0	0	0	0	0	0	0	0	0	0	0	0	0	0	0	0	0	0	0	0	0	0	0	0	0	0	0	0	0	0	0	0	0	0	0	0	0	0	0	0	0	0	0	0	0	0
0	0	0	910	915	917	920	920	925	927	930	935	942	945	948	953	953	958	958	958	963	963	963	1116	1120	1120	1120	1120	1116	1116	1116	1116	1116	1116	1116	1113	1113	1116	1105	1109	1116	1116	1116	1116	1116	1113	1113	1109	1109	1109	1109	1109	1109	1109	1109	1109	1109	1116	1113	1116	1120	1120	1120	1123	1123	1127	1127	1254	1232	1232	1232	1232	1227	1232	1236	1240	1245	1245	1245	0	0	0	0	0	0	5535	5535	5535	5535	5535	5535	5626	5626	5626	5626	5719	5815	5915	5915	5915	5915	6018	6018	6018	6018	6018	6018	6018	6018	6018	6018	6124	6124	6235	6235	0	0	0	0	0	0	6468	6349	6349	6468	6349	6349	6349	6349	6235	6235	6235	6235	6235	6349	6235	6349	6349	6349	6235	6235	6235	6349	6349	6349	6235	6235	6235	6349	6349	6349	6349	6349	6349	6349	6349	6349	6349	6349	6235	6124	6124	6124	6235	6235	6235	6235	6235	6235	6124	6124	6124	6124	6235	6235	6235	6235	6235	6235	6349	6349	6349	6349	6349	6235	6349	6349	6349	6349	6349	6349	6349	6349	6349	6349	6349	6349	6349	6349	6235	6235	6235	6235	6235	6349	6349	6349	6349	6349	6349	6349	6349	6349	6349	6349	6349	6349	6349	6468	6468	6468	6468	6468	6349	6349	6349	6349	6349	6235	6235	6235	6235	6235	6235	6235	6235	6235	6235	6124	6124	6124	6124	6235	6235	6235	6235	6235	6235	6235	6235	6124	6235	6235	6235	6235	6235	6124	6124	6124	6235	6124	6124	6235	6235	6235	6235	6235	6235	6235	6349	6349	6468	6349	6468	6349	6349	6349	6349	6468	0	0	0	0	0	3659	3659	3621	3621	3621	3621	3621	3621	3621	3621	3621	3621	3621	3621	3659	3659	3659	3659	0	0	0	0	0	0	0	6235	6235	6235	6235	6235	6124	6124	6124	6124	6124	6124	6124	6124	6124	6235	6124	6124	6124	6124	6235	6349	6124	6124	6124	6124	6124	6124	6124	6124	6235	6124	6124	6124	6124	6124	6124	6124	6018	6124	6124	6124	6124	6124	6124	6124	6124	6124	6124	6124	6124	6124	6124	6124	6124	6124	6124	6124	6235	6124	6124	6349	6349	6349	6349	6235	6235	6235	6235	6235	6235	6124	6124	6235	6235	6349	6349	6349	6349	6349	6349	6235	6235	6124	6018	6018	6124	6124	6124	6124	6124	6124	6124	6124	6235	6235	6235	6235	6235	6235	6235	6235	6235	6235	6235	6235	6235	6235	6235	6349	6235	6235	6235	6235	6124	6124	6124	6124	6235	6235	6349	6235	6235	6124	6124	6124	6124	6124	6235	6235	6235	6235	6235	6349	6235	6235	6235	6235	6235	6235	6235	6235	6349	6349	6349	6235	6349	6349	6235	6235	6235	6235	6349	6349	6468	6349	6349	6349	6349	6349	6124	6124	6124	6124	6124	6124	6124	6235	6235	6235	6235	6235	6235	6235	6235	6235	6235	6235	6235	6349	6592	6468	6349	6468	6468	0	0	0	0	6720	6592	6720	6720	6592	6468	6468	6468	6349	6349	6349	6349	6349	6468	6468	6349	6468	6468	6468	6468	6349	6349	6349	6349	6349	6349	6349	6349	6349	6349	6235	6235	6235	6349	6235	6235	6349	6349	6349	6349	6235	6235	6235	6235	6235	6235	6235	6235	6235	6124	6124	6235	6124	6124	6235	6235	6235	6124	6124	6235	6124	6235	6235	6235	6235	6235	6235	6124	6124	6124	6124	6124	6124	6124	6018	6018	6018	5915	6018	6018	6018	6018	6124	6124	6124	6124	6124	6235	6235	6235	6349	6349	0	0	0	0	0	0	0	0	0	0	0	0	0	0	0	0	0	0	0	0	0	0	0	0	0	0	0	0	0	0	0	0	0	0	0	0	0	0	0	0	0	0	0	0	0	0	0	0	0	0	0
0	0	0	910	915	917	917	920	922	927	930	937	945	945	945	950	950	955	955	961	963	963	966	966	966	966	1120	1120	1120	1116	1116	1116	1116	1116	1116	1113	1113	1116	1109	1116	1116	1116	1116	1116	1116	1116	1113	1109	1109	1109	1109	1109	1109	1109	1109	1113	1109	1113	1113	1113	1116	1116	1120	1120	1120	1123	1123	1254	1232	1227	1232	1232	1232	1236	1240	1240	1245	1249	1249	1249	0	0	0	0	0	0	0	5535	5535	5535	5626	5626	5626	5626	5719	5719	5815	5915	5915	5915	5915	6018	6018	6018	6018	6018	6018	6018	6018	6018	6018	6018	6018	6018	6018	6018	0	0	0	6468	6468	6468	6468	6468	6468	6468	6349	6349	6349	6235	6235	6349	6349	6349	6349	6349	6349	6468	6468	6468	6349	6349	6349	6349	6349	6349	6349	6349	6349	6349	6349	6349	6349	6349	6349	6349	6349	6349	6349	6349	6235	6124	6235	6235	6235	6235	6235	6235	6235	6235	6124	6124	6124	6235	6235	6235	6349	6349	6235	6349	6349	6349	6349	6349	6349	6349	6349	6349	6349	6349	6349	6349	6349	6349	6349	6468	6349	6349	6349	6349	6349	6349	6349	6235	6349	6468	6468	6349	6349	6349	6349	6349	6349	6349	6349	6349	6349	6349	6468	6468	6468	6468	6468	6349	6349	6349	6349	6349	6235	6235	6235	6235	6235	6235	6235	6235	6235	6235	6124	6124	6124	6124	6235	6235	6235	6235	6235	6235	6235	6235	6235	6235	6235	6235	6235	6235	6235	6235	6235	6235	6235	6235	6235	6235	6235	6235	6235	6235	6235	6349	6349	6349	6349	6349	6349	6349	6235	6235	6235	0	0	0	0	0	3698	3698	3659	3621	3621	3621	3621	3621	3621	3621	3621	3621	3621	3621	3659	3659	3659	3621	3621	0	0	0	0	0	0	0	0	6235	6235	6349	6235	6124	6124	6124	6124	6124	6124	6124	6235	6235	6124	6235	6235	6235	6235	6235	6235	6235	6124	6124	6124	6124	6124	6235	6235	6235	6235	6235	6235	6124	6235	6124	6124	6235	6124	6235	6124	6124	6124	6124	6235	6124	6124	6124	6124	6124	6124	6124	6124	6124	6124	6235	6235	6235	6349	6349	6349	6349	6468	6349	6349	6235	6349	6349	6235	6235	6235	6235	6349	6349	6349	6349	6349	6349	6349	6349	6235	6124	6018	6018	6124	6124	6124	6124	6124	6235	6235	6235	6235	6235	6235	6235	6235	6235	6235	6235	6235	6235	6235	6235	6235	6235	6235	6235	6235	6235	6349	6349	6235	6235	6235	6235	6235	6235	6349	6235	6235	6235	6235	6235	6235	6124	6235	6235	6235	6235	6235	6349	6349	6349	6235	6235	6349	6235	6235	6349	6349	6349	6349	6235	6235	6235	6349	6349	6349	6349	6349	6468	6349	6349	6349	6349	6349	6349	6235	6124	6124	6124	6124	6124	6124	6235	6235	6235	6235	6124	6124	6235	6018	6018	6018	6235	6235	6349	6349	6468	6349	6468	6468	6468	6468	6468	6592	6720	6468	6720	6720	6720	6720	6468	6468	6468	6468	6468	6468	6468	6468	6468	6468	6468	6468	6468	6468	6349	6349	6349	6349	6349	6349	6349	6349	6349	6349	6235	6235	6235	6349	6235	6235	6349	6349	6349	6235	6235	6235	6235	6349	6235	6235	6235	6235	6349	6349	6349	6235	6235	6235	6235	6235	6235	6235	6235	6235	6235	6235	6235	6349	6235	6235	6235	6124	6124	6124	6124	6124	6124	6124	6124	6124	6124	0	0	6018	6018	0	0	0	6235	6235	6124	6235	6235	6235	6235	6349	6349	0	0	0	0	0	0	0	0	0	0	0	0	0	0	0	0	0	0	0	0	0	0	0	0	0	0	0	0	0	0	0	0	0	0	0	0	0	0	0	0	0	0	0	0	0	0	0	0	0	0
0	0	0	910	917	917	917	920	925	930	932	940	945	945	945	950	950	953	955	963	963	963	966	966	966	966	966	1120	1120	1116	1116	1116	1116	1116	1113	1113	1113	1113	1109	1116	1116	1113	1116	1116	1116	1116	1113	1113	1113	1109	1109	1109	1105	1105	1105	1109	1109	1109	1113	1113	1116	1116	1116	1116	1116	1120	1120	1232	1232	1232	1232	1232	1232	1236	1240	1236	1240	1245	1245	1245	0	0	0	0	0	0	0	0	5535	5535	5626	5626	5626	5719	5719	5719	5815	5915	5915	5915	5915	6018	6018	6018	6018	6124	6018	6018	6018	6018	6018	6018	6018	6018	6018	6018	0	0	0	6468	6468	6468	6468	6468	6468	6349	6349	6349	6349	6349	6349	6349	6349	6349	6349	6349	6349	6468	6468	6468	6349	6349	6349	6349	6349	6349	6349	6349	6349	6468	6349	6349	6349	6349	6349	6349	6468	6349	6349	6349	6349	6235	6235	6235	6235	6235	6235	6235	6235	6235	6235	6235	6235	6235	6235	6349	6349	6349	6349	6349	6349	6349	6349	6349	6349	6349	6349	6349	6349	6349	6349	6349	6349	6349	6349	6468	6349	6349	6349	6349	6349	6349	6349	6349	6349	6349	6349	6349	6349	6349	6349	6349	6349	6349	6349	6349	6468	6349	6349	6468	6468	6468	6468	6349	6349	6349	6349	6349	6349	6235	6235	6235	6235	6235	6235	6235	6235	6235	6124	6124	6124	6124	6124	6235	6235	6235	6235	6235	6349	6235	6235	6235	6235	6349	6235	6235	6235	6235	6235	6235	6235	6235	6235	6235	6235	6235	6235	6235	6235	6349	6349	6349	6349	6349	6235	6235	6235	6235	6235	0	0	0	0	0	3659	3659	3659	3621	3621	3621	3659	3659	3621	3621	3621	3621	3621	3621	3659	3659	3621	3621	3621	0	0	0	0	0	0	0	0	0	6235	6235	6124	6124	6124	6124	6124	6124	6124	6124	6235	6235	6124	6235	6235	6235	6235	6235	6235	6235	6235	6124	6124	6124	6235	6124	6235	6235	6235	6235	6235	6124	6235	6124	6124	6235	6235	6235	6235	6235	6235	6235	6235	6235	6235	6235	6235	6235	6235	6235	6235	6349	6235	6349	6349	6349	6349	6349	6468	6468	6468	6349	6349	6235	6349	6349	6349	6235	6235	6349	6349	6468	6349	6349	6349	6349	6349	6349	6349	6235	6124	6124	6124	6124	6124	6235	6235	6235	6235	6235	6235	6235	6349	6235	6235	6235	6235	6235	6235	6124	6124	6235	6235	6124	6124	6124	6124	6124	6349	6349	6235	6235	6235	6235	6235	6235	6349	6235	6349	6235	6235	6235	6235	6235	6349	6349	6349	6349	6349	6349	6349	6349	6349	6349	6349	6349	6235	6235	6235	6235	6235	6235	6349	6349	6349	6349	6349	6468	6468	6468	6468	6468	6349	6349	6349	6349	6124	6124	6018	6124	6124	6124	6124	6235	6235	6235	6235	6235	6124	6124	6018	6018	6018	6235	6235	6349	6349	6349	6349	6349	6349	6468	6349	6468	6592	6592	6592	6720	6720	6592	6592	6349	6349	6349	6349	6349	6468	6468	6468	6468	6468	6468	6592	6468	6468	6468	6468	6468	6468	6468	6349	6349	6349	6349	6349	6235	6235	6235	6235	6235	6235	6349	6349	6349	6235	6235	6349	6349	6349	6349	6235	6235	6349	6349	6349	6349	6235	6235	6235	6349	6235	6349	6235	6235	6349	6235	6349	6349	6349	6349	6235	6235	6124	6124	6124	6018	6124	6124	6124	6124	6235	6235	0	0	0	0	0	0	0	6235	6235	6235	6235	6235	6235	6349	6349	6349	0	0	0	0	0	0	0	0	0	0	0	0	0	0	0	0	0	0	0	0	0	0	0	0	0	0	0	0	0	0	0	0	0	0	0	0	0	0	0	0	0	0	0	0	0	0	0	0	0	0
0	0	0	915	915	917	917	922	922	930	932	940	945	945	945	948	948	950	953	961	963	961	963	963	966	966	966	0	1116	1116	1116	1116	1116	1116	1113	1113	1113	1113	1109	1116	1116	1113	1113	1116	1116	1113	1116	1113	1113	1113	1109	1109	1105	1105	1105	1109	1105	1105	1109	1113	1116	1116	1116	1116	1116	1116	1116	1232	1232	1232	1232	1236	1236	1240	1240	1240	1245	1245	1249	1249	1249	0	0	0	0	0	0	0	5535	5535	5535	5626	5626	5626	5719	5719	5719	5915	5915	5915	5915	6018	6018	6018	6018	6018	6124	6018	6018	6018	6018	6018	6018	6018	0	0	0	0	0	0	6468	6468	6468	6468	6468	6468	6349	6349	6349	6349	6349	6349	6468	6349	6349	6349	6349	6468	6349	6349	6349	6349	6468	6468	6468	6468	6468	6468	6468	6468	6468	6468	6349	6349	6349	6349	6349	6349	6349	6349	6468	6235	6235	6349	6235	6235	6235	6235	6235	6235	6235	6235	6124	6235	6235	6349	6349	6349	6349	6349	6349	6349	6349	6349	6349	6349	6349	6349	6349	6349	6349	6349	6349	6349	6468	6468	6468	6349	6468	6349	6349	6349	6349	6349	6349	6349	6349	6349	6349	6349	6349	6468	6468	6468	6592	6592	6592	6468	6468	6468	6468	6468	6468	6468	6349	6349	6349	6349	6349	6235	6235	6235	6235	6235	6235	6235	6235	6235	6124	6124	6124	6124	6124	6235	6235	6235	6235	6235	6349	6235	6349	6349	6349	6349	6235	6349	6349	6235	6235	6235	6235	6235	6349	6235	6235	6235	6235	6235	6235	6235	6349	6235	6235	6235	6235	6235	6124	6124	0	0	0	0	0	0	3659	3698	3659	3621	3621	3621	3659	3659	3621	3621	3621	3621	3621	3659	3659	3659	3659	3659	3659	3659	3659	3659	0	0	0	0	0	0	0	6235	6124	6124	6124	6124	6124	6018	6124	6124	6235	6235	6235	6235	6235	6235	6235	6235	6235	6349	6349	6349	6349	6349	6235	6235	6235	6235	6235	6235	6235	6124	6235	6235	6235	6235	6235	6235	6235	6235	6235	6235	6349	6349	6349	6235	6235	6235	6235	6349	6349	6349	6349	6349	6349	6349	6349	6349	6468	6468	6468	6349	6468	6349	6349	6349	6349	6349	6349	6349	6468	6468	6349	6349	6468	6468	6468	6349	6349	6235	6235	6124	6235	6235	6235	6235	6349	6349	6349	6349	6349	6349	6349	6349	6235	6235	6235	6124	6124	6124	6124	6235	6235	6124	6124	6124	6124	6124	6349	6349	6235	6235	6235	6235	6235	6235	6235	6235	6349	6349	6349	6349	6349	6349	6349	6349	6349	6349	6349	6349	6349	6349	6349	6349	6349	6349	6349	6349	6349	6349	6349	6349	6349	6349	6468	6592	6468	6468	6468	6468	6468	6468	6468	6468	6349	6349	6235	6124	6124	6124	6124	6235	6235	6235	6235	6235	6235	6235	6235	6124	6018	6018	5915	5915	6235	6235	6235	6349	6349	6349	6349	6349	6349	6468	6468	6592	6592	6720	6592	6592	6592	6592	6468	6468	6349	6349	6468	6592	6592	6468	6468	6468	6592	6592	6592	6468	6468	6468	6468	6468	6349	6349	6349	6349	6235	6468	6349	6349	6349	6349	6349	6349	6349	6349	6235	6349	6349	6349	6349	6349	6349	6349	6349	6349	6235	6349	6235	6235	6235	6349	6349	6349	6349	6349	6349	6235	6592	6349	6349	6349	6235	6235	6235	6124	6124	6124	6124	6124	6124	6124	6124	6124	0	0	0	0	0	0	0	6235	6235	6235	6235	6235	6235	6235	6349	0	0	0	0	0	0	0	0	0	0	0	0	0	0	0	0	0	0	0	0	0	0	0	0	0	0	0	0	0	0	0	0	0	0	0	0	0	0	0	0	0	0	0	0	0	0	0	0	0	0	0
0	0	0	915	917	920	920	922	925	927	930	937	942	945	945	948	950	950	955	963	966	963	966	966	972	972	972	972	1116	1120	1116	1116	1116	1116	1113	1113	1113	1109	1109	1113	1113	1109	1113	1113	1116	1113	1113	1113	1113	1109	1105	1105	1105	1105	1105	1105	1105	1105	1109	1113	1116	1116	1116	1116	1116	1120	1120	1120	1232	1232	1236	1236	1236	1240	1240	1236	1240	1245	1245	1245	1245	1245	1245	0	0	0	0	0	5535	5535	5626	5626	5626	5626	5626	5719	5719	5815	5915	5915	6018	6018	6018	6018	6018	6018	6018	6018	6018	6018	6018	6018	6018	6018	0	0	0	0	0	0	6468	6468	6349	6349	6468	6349	6349	6349	6349	6468	6468	6468	6468	6349	6349	6349	6349	6468	6349	6349	6349	6468	6468	6468	6468	6468	6468	6468	6468	6468	6468	6468	6349	6349	6349	6349	6349	6349	6349	6349	6349	6349	6349	6349	6235	6235	6235	6235	6235	6235	6235	6235	6124	6235	6235	6349	6349	6349	6349	6349	6349	6349	6349	6349	6349	6349	6349	6349	6349	6349	6349	6349	6349	6349	6468	6592	6468	6468	6468	6468	6349	6349	6349	6349	6349	6349	6349	6468	6349	6349	6349	6349	6468	6349	6468	6592	6592	6592	6468	6468	6468	6468	6468	6468	6468	6349	6349	6349	6349	6235	6235	6235	6235	6235	6235	6349	6235	6235	6124	6124	6124	6124	6235	6235	6349	6349	6349	6349	6349	6349	6349	6349	6349	6349	6235	6349	6349	6349	6349	6349	6349	6235	6235	6235	6235	6235	6235	6235	6235	6235	6235	6235	6235	6235	6235	6124	6124	6124	0	0	0	0	0	0	0	3698	3659	3621	3621	3621	3659	3659	3621	3621	3621	3659	3659	3659	3659	3659	3659	3621	3621	3621	3621	3621	3621	0	0	0	0	0	0	6235	6124	6124	6124	6124	6124	6124	6124	6124	6124	6124	6124	6235	6235	6235	6235	6235	6235	6349	6349	6349	6349	6349	6349	6235	6235	6235	6349	6349	6349	6235	6235	6349	6235	6235	6235	6235	6235	6235	6235	6349	6349	6349	6349	6468	6468	6349	6349	6349	6349	6349	6349	6349	6349	6468	6349	6468	6468	6468	6468	6349	6468	6349	6468	6468	6468	6468	6349	6349	6349	6349	6349	6349	6468	6468	6468	6468	6468	6349	6235	6235	6235	6235	6235	6235	6349	6349	6349	6349	6349	6349	6349	6349	6349	6349	6235	6235	6124	6018	6124	6124	6235	6124	6124	6124	6235	6235	6235	6349	6235	6235	6235	6349	6349	6349	6349	6349	6349	6349	6349	6349	6349	6349	6349	6349	6349	6349	6349	6349	6349	6349	6349	6349	6349	6349	6349	6349	6349	6349	6468	6468	6468	6468	6468	6592	6468	6468	6468	6468	6468	6349	6349	6349	6349	6349	6235	6124	6124	6235	6235	6235	6349	6349	6349	6349	6235	6235	6235	6124	6018	5915	5915	5915	6018	6349	6349	6349	6468	6468	6349	6468	6468	6468	6468	6468	6592	6592	6592	6468	6468	6592	6468	6349	6349	6349	6592	6592	6592	6592	6592	6592	6592	6592	6592	6592	6592	6592	6468	6468	6468	6349	6349	6235	6468	6468	6349	6349	6349	6349	6349	6235	6235	6235	6235	6235	6349	6349	6349	6468	6349	6349	6349	6468	6349	6349	6235	6349	6349	6468	6468	6349	6349	6349	6592	6592	6720	6592	6349	6349	6349	6235	6235	6235	6124	6124	6124	6124	6124	6124	6124	6124	0	0	0	0	0	0	0	6235	6235	6124	6124	6235	6235	6235	0	0	0	0	0	0	0	0	0	0	0	0	0	0	0	0	0	0	0	0	0	0	0	0	0	0	0	0	0	0	0	0	0	0	0	0	0	0	0	0	0	0	0	0	0	0	0	0	0	0	0	0
0	0	0	915	917	917	920	925	925	927	930	937	942	945	945	948	950	950	958	963	966	963	966	969	972	972	972	972	0	1116	1116	1116	1116	1116	1113	1113	1113	1113	1113	1113	1113	1109	1113	1113	1113	1113	1113	1109	1113	1109	1105	1105	1105	1105	1105	1109	1105	1105	1109	1109	1116	1113	1116	1116	1116	1120	1120	1120	1240	1236	1240	1240	1240	1240	1240	1236	1240	1245	1245	1245	1245	1245	1245	0	0	0	0	0	0	0	5626	5626	5626	5626	5626	5719	5626	5815	5915	5915	6018	6018	6018	6018	6018	6018	6018	6018	6018	6018	6018	6124	6124	6124	6349	6349	6468	6468	6468	6468	6468	6468	6468	6349	6468	6468	6468	6468	6468	6468	6468	6468	6468	6468	6349	6349	6349	6349	6349	6349	6349	6349	6349	6349	6468	6468	6468	6468	6468	6468	6468	6468	6468	6349	6349	6349	6468	6468	6468	6468	6468	6349	6349	6349	6349	6349	6235	6235	6235	6235	6235	6349	6235	6349	6349	6349	6349	6349	6349	6349	6468	6349	6349	6468	6349	6468	6349	6349	6349	6349	6349	6349	6349	6349	6349	6592	6468	6468	6592	6468	6468	6349	6349	6349	6349	6349	6349	6349	6349	6349	6349	6349	6349	6349	6349	6468	6592	6349	6468	6468	6468	6468	6468	6468	6468	6349	6349	6349	6349	6235	6235	6235	6349	6235	6235	6349	6349	6235	6235	6124	6349	6235	6235	6235	6235	6235	6349	6349	6349	6349	6349	6349	6349	6349	6349	6349	6468	6468	6468	6468	6468	6468	6468	6349	6235	6235	6235	6235	6235	6235	6235	6235	6349	6235	6235	6235	6235	6124	6124	0	0	0	0	0	0	0	3659	3621	3621	3659	3659	3659	3621	3621	3621	3621	3659	3621	3621	3621	3621	3659	3659	3621	3621	3621	3621	0	0	0	0	0	0	6235	6124	6124	6124	6124	6124	6124	6124	6124	6124	6124	6124	6235	6235	6235	6235	6349	6349	6468	6349	6349	6349	6349	6349	6349	6349	6349	6349	6349	6349	6349	6349	6349	6349	6349	6235	6235	6349	6349	6349	6349	6349	6349	6468	6468	6468	6349	6349	6349	6349	6349	6349	6468	6468	6468	6468	6468	6592	6468	6468	6468	6468	6468	6468	6468	6468	6468	6349	6468	6468	6468	6468	6468	6468	6468	6468	6468	6468	6349	6349	6349	6349	6349	6349	6349	6349	6349	6349	6349	6349	6349	6349	6349	6349	6349	6235	6235	6235	6124	6124	6235	6235	6235	6124	6235	6235	6235	6349	6349	6349	6349	6349	6349	6349	6349	6349	6349	6349	6349	6349	6349	6349	6349	6349	6349	6349	6349	6349	6349	6349	6349	6349	6349	6468	6349	6349	6349	6349	6349	6349	6468	6468	6592	6468	6592	6468	6468	6468	6468	6468	6468	6468	6468	6349	6349	6235	6124	6124	6235	6235	6349	6349	6349	6468	6468	6349	6349	6235	6124	6018	6018	5915	6018	6018	6235	6235	6349	6468	6349	6468	6468	6468	6468	6468	6468	6592	6592	6592	6592	6592	6592	6468	6468	6349	6592	6592	6592	6592	6592	6592	6592	6592	6592	6592	6592	6592	6592	6468	6468	6468	6468	6349	6349	6349	6592	6468	6468	6468	6349	6468	6468	6468	6235	6349	6235	6349	6349	6349	6468	6468	6468	6468	6592	6349	6468	6468	6349	6468	6468	6468	6349	6349	6468	6468	6592	6592	6468	6349	6349	6349	6235	6235	6235	6235	6124	6235	6235	6235	6235	6235	6235	0	0	0	0	0	0	0	0	6235	6124	6124	6235	6235	6235	0	0	0	0	0	0	0	0	0	0	0	0	0	0	0	0	0	0	0	0	0	0	0	0	0	0	0	0	0	0	0	0	0	0	0	0	0	0	0	0	0	0	0	0	0	0	0	0	0	0	0	0
0	0	0	915	917	920	922	927	927	930	932	937	940	942	945	950	950	950	958	963	966	963	966	969	972	972	980	980	0	1116	1116	1116	1113	1113	1113	1113	1105	1109	1109	1109	1109	1109	1113	1113	1113	1113	1113	1109	1109	1109	1105	1105	1105	1105	1105	1109	1109	1109	1109	1109	1116	1113	1113	1116	1116	1116	1116	1116	1240	1240	1240	1240	1240	1240	1240	1236	1240	1245	1245	1245	1263	1268	1268	1268	0	0	0	0	0	0	0	5626	5626	5626	5626	5719	5719	5815	5915	6018	6018	6018	6018	6124	6018	6018	6018	6018	6018	6018	6018	6124	6235	6235	6349	6349	6468	6468	6468	6468	6468	6468	6468	6468	6349	6349	6349	6349	6468	6468	6468	6468	6468	6468	6349	6349	6349	6349	6349	6349	6349	6349	6468	6468	6468	6468	6468	6468	6468	6468	6468	6468	6468	6468	6468	6468	6468	6468	6468	6468	6468	6349	6349	6349	6349	6349	6349	6349	6349	6349	6468	6468	6349	6468	6468	6468	6349	6349	6349	6349	6349	6349	6349	6349	6349	6349	6349	6349	6235	6349	6349	6349	6349	6349	6349	6592	6592	6592	6592	6468	6468	6349	6349	6349	6349	6349	6349	6349	6349	6349	6468	6349	6349	6349	6349	6349	6349	6349	6349	6468	6468	6468	6468	6468	6468	6468	6468	6349	6349	6349	6349	6349	6349	6349	6349	6468	6468	6349	6235	6235	6235	6235	6235	6235	6235	6235	6349	6349	6349	6349	6468	6349	6349	6349	6349	6349	6468	6468	6468	6468	6720	6592	6468	6349	6349	6235	6235	6235	6235	6235	6349	6235	6349	6235	6235	6124	6235	6235	6124	0	0	0	0	0	0	3698	3698	3659	3659	3659	3698	3698	3659	3621	3621	3621	3621	3621	3659	3659	3659	3659	3659	3621	3621	3621	3621	0	0	0	0	0	0	6235	6235	6235	6124	6124	6124	6124	6124	6235	6235	6349	6349	6235	6349	6349	6349	6349	6349	6468	6349	6349	6349	6468	6349	6349	6349	6349	6468	6349	6349	6349	6349	6349	6349	6349	6349	6349	6349	6468	6349	6349	6468	6468	6468	6468	6468	6349	6468	6468	6349	6468	6468	6468	6468	6468	6468	6592	6592	6468	6468	6468	6468	6592	6592	6592	6468	6468	6468	6468	6468	6468	6468	6468	6468	6468	6468	6468	6468	6349	6349	6349	6349	6349	6349	6349	6349	6349	6349	6349	6468	6349	6349	6349	6349	6349	6349	6349	6349	6349	6235	6235	6235	6235	6235	6349	6349	6235	6349	6349	6349	6349	6349	6349	6349	6349	6349	6468	6349	6349	6468	6468	6349	6349	6349	6349	6349	6349	6349	6349	6349	6349	6468	6468	6468	6468	6468	6349	6468	6349	6468	6468	6468	6592	6592	6468	6468	6468	6468	6468	6468	6468	6468	6468	6468	6468	6349	6235	6235	6349	6349	6349	6592	6592	6592	6592	6468	6468	6349	6235	6124	6124	6124	6124	6235	6235	6235	6349	6468	6349	6468	6468	6468	6468	6468	6468	6468	6592	6592	6592	6592	6349	6592	6349	6349	6349	6720	6720	6720	6592	6468	6592	6592	6592	6592	6592	6592	6592	6468	6468	6468	6468	6468	6349	6349	6592	6592	6592	6468	6349	6592	6592	6468	6235	6349	6235	6349	6349	6349	6468	6468	6592	6592	6592	6468	6468	6468	6468	6592	6592	6592	6592	6468	6592	6592	6592	6592	6592	6468	6349	6349	6349	6235	6235	6235	6349	6349	6349	6349	6468	6468	6235	0	0	0	0	0	0	0	0	0	6124	6124	0	0	0	0	0	0	0	0	0	0	0	0	0	0	0	0	0	0	0	0	0	0	0	0	0	0	0	0	0	0	0	0	0	0	0	0	0	0	0	0	0	0	0	0	0	0	0	0	0	0	0	0	0	0	0
0	0	0	917	920	925	927	930	930	932	935	937	940	942	945	948	953	955	958	963	966	966	966	969	972	980	980	980	980	0	1116	1116	1113	1113	1113	1113	1105	1105	1109	1109	1109	1109	1109	1109	1105	1113	1109	1113	1109	1109	1105	1105	1105	1105	1105	1109	1105	1105	1105	1105	1109	1109	1109	1109	1113	1113	1113	1232	1240	1240	1240	1240	1240	1245	1245	1240	1245	1245	1249	1254	1263	1268	1268	1268	1268	0	0	0	0	0	0	5626	5626	5626	5626	5719	5719	5815	5915	6018	6018	6018	6018	6018	6018	6018	6018	6018	6018	6018	6018	6124	6235	6235	6349	6468	6468	6592	6468	6468	6468	6468	6468	6468	6468	6349	6468	6468	6468	6468	6468	6468	6592	6468	6468	6468	6468	6468	6468	6468	6468	6468	6468	6468	6468	6468	6468	6468	6468	6592	6468	6468	6468	6592	6468	6468	6468	6592	6468	6468	6468	6349	6349	6349	6349	6349	6349	6349	6468	6468	6468	6468	6468	6592	6468	6592	6468	6349	6468	6468	6468	6468	6468	6468	6468	6468	6349	6235	6235	6349	6349	6349	6349	6349	6468	6592	6468	6592	6592	6468	6468	6468	6349	6349	6349	6349	6349	6349	6349	6349	6349	6349	6349	6349	6349	6468	6468	6468	6468	6468	6468	6468	6468	6468	6468	6468	6468	6468	6349	6349	6349	6349	6468	6468	6468	6468	6468	6468	6349	6235	6235	6235	6235	6235	6235	6235	6349	6349	6349	6349	6468	6468	6349	6349	6349	6349	6349	6349	6468	6468	6592	6592	6592	6349	6349	6235	6235	6235	6235	6235	6349	6235	6349	6235	6235	6235	6235	6124	6124	0	0	0	0	0	0	3698	3698	3659	3659	3659	3698	3659	3621	3621	3621	3621	3659	3621	3621	3621	3621	3659	3659	3659	3621	3621	3621	0	0	0	0	0	0	6592	6349	6235	6235	6235	6235	6235	6235	6349	6349	6349	6349	6349	6349	6349	6349	6349	6349	6349	6349	6468	6349	6468	6468	6468	6349	6349	6468	6349	6349	6349	6349	6349	6349	6349	6468	6468	6468	6468	6468	6349	6468	6349	6468	6468	6468	6468	6468	6468	6349	6468	6468	6468	6468	6468	6468	6592	6592	6592	6592	6592	6592	6592	6592	6592	6468	6468	6468	6468	6468	6468	6468	6468	6468	6468	6468	6468	6468	6349	6349	6349	6349	6349	6349	6349	6349	6349	6349	6468	6468	6349	6349	6349	6349	6349	6349	6349	6349	6349	6349	6349	6349	6349	6349	6349	6349	6349	6468	6349	6349	6349	6349	6349	6349	6349	6468	6468	6468	6349	6349	6349	6349	6349	6349	6349	6349	6349	6349	6349	6349	6468	6468	6468	6468	6468	6468	6349	6468	6468	6468	6592	6592	6720	6720	6592	6468	6592	6468	6468	6468	6468	6468	6468	6468	6468	6349	6349	6349	6349	6349	6592	6720	6720	6592	6592	6468	6468	6349	6235	6235	6124	6124	6124	6349	6349	6235	6349	6468	6468	6468	6468	6468	6468	6468	6468	6592	6720	6720	6592	6592	6349	6349	6349	6349	6592	6592	6592	6592	6592	6468	6592	6592	6592	6592	6720	6720	6592	6592	6468	6468	6468	6468	6468	6468	6720	6592	6592	6592	6468	6592	6592	6592	6349	6349	6349	6468	6468	6468	6592	6592	6592	6592	6592	6468	6592	6592	6592	6592	6592	6592	6592	6592	6592	6720	6592	6592	6468	6468	6349	6349	6349	6235	6349	6349	6349	6349	6349	6468	6592	6592	0	0	0	0	0	0	0	0	0	0	0	0	0	0	0	0	0	0	0	0	0	0	0	0	0	0	0	0	0	0	0	0	0	0	0	0	0	0	0	0	0	0	0	0	0	0	0	0	0	0	0	0	0	0	0	0	0	0	0	0	0	0	0	0	0	0	0
0	0	0	917	920	925	927	927	927	930	932	937	937	940	945	953	953	955	961	963	966	966	969	972	974	980	980	980	988	988	0	0	0	1109	1109	1109	1109	1109	1109	1109	1109	1109	1109	1105	1105	1109	1109	1116	1113	1109	1109	1109	1109	1105	1109	1105	1105	1105	1105	1105	1105	1105	1105	1105	1109	1109	1109	1232	1232	1240	1240	1245	1245	1245	1245	1245	1245	1249	1254	1259	1263	1268	1268	1268	1268	1277	1277	0	0	0	0	0	5626	5626	5719	5719	5815	5815	5915	6018	6018	6018	6018	6018	6018	6018	6018	6018	6018	6018	6018	6124	6235	6349	6349	6349	6349	6349	6468	6468	6468	6468	6468	6468	6592	6468	6468	6592	6592	6592	6592	6592	6592	6468	6468	6468	6468	6468	6468	6468	6468	6468	6468	6468	6592	6468	6468	6592	6592	6592	6592	6468	6468	6592	6592	6592	6592	6592	6592	6592	6468	6349	6349	6349	6349	6349	6349	6349	6349	6349	6349	6592	6592	6720	6592	6592	6592	6468	6468	6592	6592	6468	6468	6592	6468	6468	6349	6349	6468	6468	6349	6349	6349	6349	6592	6592	6592	6592	6592	6468	6468	6468	6468	6468	6468	6349	6349	6349	6349	6349	6349	6349	6468	6468	6468	6468	6468	6468	6468	6468	6468	6349	6349	6349	6468	6468	6468	6468	6468	6468	6349	6349	6592	6592	6468	6592	6468	6468	6349	6235	6235	6235	6235	6235	6235	6235	6349	6349	6349	6349	6468	6468	6349	6349	6349	6349	6349	6349	6349	6349	6592	6592	6468	6349	6349	6349	6235	6235	6235	6349	6235	6235	6235	6235	6235	6235	6235	6235	6124	0	0	0	0	0	0	3698	3698	3659	3659	3659	3659	3621	3659	3621	3621	3621	3659	3659	3659	3621	3621	3659	3659	3659	3659	3659	0	0	0	0	0	0	6592	6592	6592	6349	6349	6349	6349	6349	6349	6349	6468	6468	6349	6349	6349	6349	6349	6349	6349	6349	6349	6468	6468	6468	6468	6468	6468	6468	6468	6468	6349	6349	6349	6349	6468	6468	6468	6468	6468	6468	6468	6468	6468	6468	6468	6468	6468	6468	6468	6468	6349	6468	6468	6468	6468	6592	6592	6592	6720	6720	6592	6592	6592	6592	6592	6468	6468	6468	6468	6468	6468	6468	6468	6468	6468	6468	6468	6468	6592	6349	6468	6468	6468	6349	6349	6349	6349	6349	6349	6349	6468	6349	6349	6349	6349	6349	6349	6349	6468	6349	6349	6349	6349	6349	6349	6349	6349	6349	6468	6468	6468	6349	6349	6349	6349	6349	6468	6468	6468	6468	6468	6468	6349	6349	6349	6349	6349	6349	6349	6468	6468	6468	6468	6468	6468	6468	6468	6468	6468	6468	6592	6592	6592	6720	6720	6720	6592	6592	6468	6468	6468	6468	6468	6592	6468	6592	6468	6720	6720	6720	6468	6720	6720	6720	6720	6720	6592	6592	6349	6349	6235	6124	6124	6235	6468	6349	6349	6349	6468	6468	6468	6468	6592	6592	6468	6592	6592	6720	6592	6592	6592	6349	6592	6349	6235	6349	6592	6720	6720	6720	6592	6720	6720	6720	6720	6592	6592	6592	6592	6592	6592	6592	6592	6592	6592	6592	6720	6720	6720	6592	6720	6592	6592	6349	6349	6592	6592	6592	6592	6592	6592	6592	6592	6592	6468	6592	6592	6592	6592	6592	6592	6592	6592	6720	6720	6592	6592	6592	6468	6468	6468	6468	6468	6349	6349	6349	6468	6592	6592	6592	6592	0	0	0	0	0	0	0	0	0	0	0	0	0	0	0	0	0	0	0	0	0	0	0	0	0	0	0	0	0	0	0	0	0	0	0	0	0	0	0	0	0	0	0	0	0	0	0	0	0	0	0	0	0	0	0	0	0	0	0	0	0	0	0	0	0	0	0
0	0	0	920	922	925	927	927	927	930	932	937	940	945	948	950	953	955	961	966	966	969	969	974	974	980	980	985	988	988	0	0	997	997	1109	1109	1109	1109	1109	1109	1109	1109	1109	1109	1109	1109	1116	1116	1116	1113	1109	1113	1109	1109	1109	1105	1105	1105	1105	1105	1105	1109	1109	1109	1113	1113	1113	1232	1232	1236	1245	1249	1245	1245	1249	1245	1249	1254	1259	1263	1268	1272	1272	1272	1277	1277	1277	0	0	0	0	0	0	0	5719	5719	5719	5915	5915	6018	6018	6018	6018	6018	6018	6018	6018	6018	6018	6018	6018	6124	6124	6349	6349	6349	6349	6468	6468	6468	6592	6592	6592	6592	6468	6468	6468	6592	6592	6592	6720	6720	6720	6592	6592	6468	6468	6468	6468	6468	6468	6468	6468	6592	6592	6592	6592	6592	6592	6592	6592	6592	6592	6592	6592	6720	6720	6592	6720	6592	6468	6468	6349	6349	6468	6468	6349	6468	6349	6349	6349	6720	6720	6720	6592	6720	6592	6592	6592	6592	6592	6592	6592	6592	6592	6592	6468	6349	6349	6349	6349	6349	6349	6468	6592	6592	6592	6592	6592	6592	6468	6468	6468	6468	6468	6468	6349	6349	6468	6349	6349	6468	6468	6468	6592	6592	6592	6592	6592	6592	6592	6592	6468	6468	6468	6592	6592	6592	6592	6592	6592	6592	6592	6592	6468	6349	6468	6468	6349	6235	6235	6235	6235	6235	6235	6235	6349	6349	6349	6349	6468	6468	6468	6468	6468	6349	6468	6468	6468	6349	6592	6592	6468	6349	6349	6349	6349	6349	6349	6349	6235	6235	6349	6235	6235	6235	6235	6235	0	0	0	0	3621	3659	3659	3659	3659	3659	3659	3659	3659	3621	3621	3621	3621	3698	3659	3659	3659	3621	3659	3659	3659	3659	3698	3698	0	0	0	0	0	0	6592	6592	6468	6235	6235	6235	6349	6349	6349	6349	6468	6468	6468	6349	6349	6349	6349	6349	6468	6349	6349	6468	6468	6468	6468	6468	6468	6468	6468	6349	6349	6349	6349	6349	6468	6468	6468	6468	6468	6468	6592	6592	6592	6592	6468	6468	6468	6468	6468	6468	6349	6468	6468	6468	6468	6468	6592	6592	6592	6592	6592	6592	6592	6592	6468	6468	6468	6468	6468	6468	6468	6468	6468	6468	6468	6468	6468	6592	6592	6349	6468	6468	6468	6349	6349	6349	6349	6468	6468	6468	6468	6468	6468	6349	6349	6349	6349	6349	6349	6349	6349	6349	6349	6349	6468	6349	6468	6468	6468	6468	6468	6468	6468	6468	6468	6468	6468	6468	6468	6468	6468	6468	6349	6349	6349	6349	6349	6349	6349	6468	6468	6468	6468	6468	6468	6468	6468	6468	6468	6468	6592	6592	6592	6720	6720	6720	6720	6592	6468	6468	6592	6468	6592	6592	6592	6853	6720	6720	6720	6720	6592	6720	6720	6720	6720	6592	6592	6592	6468	6349	6349	6349	6349	6592	6592	6592	6468	6592	6468	6592	6468	6468	6592	6592	6468	6468	6592	6720	6720	6592	6468	6592	6592	6349	6235	6235	6235	6720	6720	6720	6592	6720	6720	6720	6720	6720	6592	6720	6592	6592	6592	6592	6592	6592	6592	6592	6720	6720	6592	6592	6592	6720	6592	6468	6349	6592	6592	6592	6592	6592	6592	6720	6720	6720	6592	6592	6592	6720	6592	6592	6720	6720	6720	6720	6720	6720	6592	6592	6468	6468	6468	6468	6468	6349	6468	6468	6592	6592	6592	6592	0	0	0	0	0	0	0	0	0	0	0	0	0	0	0	0	0	0	0	0	0	0	0	0	0	0	0	0	0	0	0	0	0	0	0	0	0	0	0	0	0	0	0	0	0	0	0	0	0	0	0	0	0	0	0	0	0	0	0	0	0	0	0	0	0	0	0	0
