0	0	0	0	0	0	0	0	0	0	0	0	0	1532	1532	1532	1532	1532	1532	1532	1532	1532	1532	1525	1525	1525	1525	1525	1525	1532	1532	1532	1532	1532	1532	1532	1532	1525	1525	1525	1532	1532	1532	1532	1532	1532	1532	1532	1532	1525	1525	1525	1525	1525	1525	1525	1532	1525	1525	1532	1532	1532	1532	1532	1539	1539	1532	1539	1532	1532	1532	1525	1532	1532	1532	1532	1532	1532	1532	1532	1532	1532	1532	1532	1532	1532	1532	1539	1546	1546	1539	1539	1539	1546	1546	1553	1546	1553	1553	1553	1560	1560	1574	1574	1581	1581	1589	1589	1603	1611	1618	1626	1634	1634	1641	1649	1665	1681	1681	1690	1698	1706	1715	1723	1732	1741	1741	1768	1777	1786	1786	1795	1814	1814	1833	1843	1853	1863	1873	1883	1894	1904	1915	1925	1947	1947	2015	2027	2027	2027	2039	2039	2039	2039	2039	2051	2063	2063	2076	2088	2101	2127	2127	2140	2153	2153	2167	2181	2194	2208	2223	2252	2281	2281	2297	2297	2312	2312	2327	2343	2359	2359	2426	2426	2443	2443	2443	0	0	0	0	0	0	0	0	0	0	0	0	0	0	0	7608	7779	7608	7779	7608	7608	7608	7608	7779	7779	7608	7608	7608	7608	7779	7779	7608	7779	7779	7608	7608	7608	7779	7608	7608	7608	7608	7608	7444	7444	7444	7444	7444	7444	0	0	0	0	0	0	0	0	0	4706	4643	4581	4643	4643	4581	4643	4643	4643	4643	4581	4581	4643	4581	4581	4581	4581	4581	4643	4643	4643	4581	4581	4581	4581	4581	4581	4581	4581	4521	4581	4581	4581	3907	3907	3907	3907	3907	3907	3907	3952	4045	4045	4142	4243	4243	4296	4192	3998	3952	3952	3907	3907	3907	3907	3864	3864	3864	3864	3864	3864	4296	4296	4296	4296	4296	4296	4296	4243	4296	4296	4296	4243	4296	4350	4350	4350	4350	4350	4350	4350	4350	4406	4406	4406	4406	4406	4406	4350	4350	4350	4350	4350	4350	4350	4350	4350	4296	4296	4296	4296	4243	4243	4243	4192	4192	4243	4243	4296	4296	4296	4296	4296	4296	4296	4296	4296	4243	4243	4243	4243	4243	4243	4243	4243	4243	4243	4243	4296	4296	4296	4296	4296	4296	4296	4243	4243	4243	4243	4243	4243	4296	4296	4296	4296	4296	4243	4296	4243	4243	4296	4296	4296	4350	4350	4350	4350	4296	4296	4296	4296	4243	4243	4243	4243	4243	4243	4243	4243	4192	4243	4192	4192	4192	4192	4243	4296	4296	4350	4406	4406	4463	4463	4463	4406	4406	4406	4350	4350	4350	4350	4350	4350	4350	4350	0	0	2409	2409	2409	2409	2392	2376	2343	2343	2312	2297	2281	2281	2266	2252	2237	2208	2194	2194	2181	2167	2167	2153	2127	2101	2088	2076	2063	2063	2051	2039	2027	2027	2003	1947	1936	1915	1904	1904	1894	1873	1873	1843	1833	1824	1814	1814	1804	1786	1786	1777	1768	1759	1759	1741	1732	1715	1706	1698	1690	1690	1681	1673	1665	1657	1634	1626	1618	1611	1611	1603	1596	1589	1581	1574	1567	1560	1560	1553	1553	1546	1546	1546	1546	1546	1546	1546	1546	1546	1553	1553	1553	1553	1546	1539	1525	1506	1499	1499	1492	1486	1480	1473	1473	1473	1473	1473	1467	1461	1455	1455	1455	1455	1455	1455	1455	1449	1449	1449	1449	1193	1193	1193	1197	1193	1189	1189	1146	1146	1142	1142	1138	1134	1131	1131	1127	1127	1123	1120	1120	1120	1116	1116	1116	1116	1116	1116	1116	1113	1113	1113	1113	1113	1113	1113	1113	1113	1113	0	0	0	0	0	0	0	0	0	0	0	0	0	0	0	0	0	0	0	0	0	0	0	0	0	0	0	0	0	0	0	0	0	0	0	0	0	0	0	0	0
0	0	0	0	0	0	0	0	0	0	0	0	0	1532	1532	1532	1532	1532	1532	1532	1532	1532	1525	1525	1525	1525	1525	1525	1525	1532	1532	1539	1539	1539	1532	1532	1532	1525	1525	1525	1525	1525	1532	1532	1525	1532	1525	1532	1525	1525	1525	1525	1525	1525	1525	1525	1532	1525	1525	1525	1532	1532	1532	1532	1525	1525	1532	1525	1525	1532	1532	1525	1532	1532	1532	1525	1525	1525	1532	1532	1532	1532	1525	1532	1532	1546	1546	1546	1546	1546	1546	1546	1539	1546	1532	1546	1539	1546	1546	1553	1560	1560	1567	1574	1581	1581	1581	1589	1589	1611	1611	1618	1634	1634	1649	1649	1665	1673	1681	1690	1698	1706	1706	1732	1741	1750	1750	1768	1777	1786	1795	1795	1814	1824	1833	1853	1863	1873	1883	1883	1894	1904	1915	1925	1936	1947	2015	2027	2027	2027	2039	2039	2039	2027	2039	2039	2076	2088	2088	2101	2101	2127	2127	2140	2153	2153	2167	2181	2194	2208	2223	2266	2297	2281	2281	2297	2297	2312	2327	2343	2359	2443	2443	2443	2443	2443	2443	0	0	0	0	0	0	0	0	0	0	0	0	0	0	0	0	7779	7608	7608	7608	7608	7608	7608	7779	7779	7608	7608	7608	7608	7779	7608	7608	7608	7779	7608	7779	7779	7779	7608	7608	7608	7608	7608	7444	7287	7444	7444	0	0	0	0	0	0	0	0	0	0	0	4706	4643	4643	4643	4643	4581	4643	4643	4643	4643	4643	4643	4643	4581	4581	4581	4581	4581	4643	4643	4643	4581	4581	4581	4581	4581	4581	4581	4581	4581	4581	4581	4581	3907	3907	3907	3907	3907	3907	3907	3907	4045	4045	4142	4243	4296	4243	4192	3952	3952	3907	3907	3907	3864	3864	3864	3864	3864	3864	3907	3907	4296	4296	4296	4296	4296	4243	4243	4243	4243	4243	4243	4243	4296	4296	4296	4296	4350	4296	4350	4350	4350	4350	4350	4350	4406	4406	4350	4350	4350	4350	4350	4350	4350	4350	4350	4350	4296	4296	4296	4296	4296	4243	4243	4243	4243	4243	4243	4243	4296	4296	4296	4296	4296	4296	4296	4296	4296	4243	4296	4243	4296	4243	4243	4243	4296	4243	4243	4296	4296	4296	4296	4296	4296	4243	4243	4243	4243	4243	4243	4243	4296	4296	4296	4296	4296	4243	4243	4243	4243	4296	4296	4296	4350	4350	4350	4350	4350	4296	4296	4296	4296	4296	4243	4243	4243	4243	4243	4243	4192	4243	4243	4243	4243	4243	4243	4296	4296	4406	4463	4463	4521	4521	4463	4406	4406	4406	4350	4350	4350	4350	4350	4350	4350	4350	0	0	2409	2409	2392	2392	2392	2376	2343	2327	2312	2297	2281	2266	2266	2252	2237	2208	2208	2194	2181	2167	2153	2127	2127	2101	2088	2076	2063	2063	2051	2039	2027	2027	2003	1947	1936	1925	1915	1904	1883	1873	1863	1843	1824	1824	1814	1814	1804	1795	1786	1777	1768	1759	1750	1741	1723	1706	1706	1698	1690	1690	1673	1665	1657	1649	1634	1626	1618	1611	1603	1603	1596	1589	1581	1574	1567	1560	1553	1553	1546	1546	1546	1546	1546	1546	1546	1546	1546	1546	1553	1553	1553	1553	1546	1539	1532	1519	1499	1499	1492	1486	1480	1473	1473	1473	1473	1467	1461	1455	1455	1455	1455	1455	1455	1455	1455	1455	1449	1449	1193	1189	1189	1193	1193	1189	1189	1181	1153	1146	1138	1138	1134	1131	1131	1131	1127	1127	1123	1123	1120	1120	1120	1116	1116	1113	1113	1113	1113	1113	1109	1109	1113	1113	1113	1113	1113	1113	1113	0	0	0	0	0	0	0	0	0	0	0	0	0	0	0	0	0	0	0	0	0	0	0	0	0	0	0	0	0	0	0	0	0	0	0	0	0	0	0	0	0
0	0	0	0	0	0	0	0	0	0	0	0	0	1532	1532	1539	1539	1539	1539	1532	1532	1532	1525	1525	1519	1519	1519	1519	1525	1525	1532	1532	1532	1532	1532	1532	1532	1525	1532	1532	1532	1532	1532	1532	1525	1525	1525	1525	1525	1525	1525	1525	1525	1525	1525	1525	1532	1525	1525	1525	1532	1525	1525	1525	1525	1532	1532	1525	1532	1532	1532	1525	1539	1532	1532	1525	1525	1525	1539	1532	1532	1532	1532	1539	1546	1546	1546	1546	1546	1546	1546	1546	1539	1532	1532	1539	1539	1539	1539	1546	1560	1560	1567	1574	1581	1581	1581	1589	1589	1611	1611	1618	1626	1634	1649	1657	1665	1673	1681	1690	1698	1706	1715	1732	1750	1750	1750	1777	1786	1786	1795	1814	1814	1824	1833	1843	1863	1873	1883	1894	1894	1904	1915	1925	1947	1947	1992	2027	2027	2027	2039	2039	2039	2027	2039	2039	2076	2088	2088	2101	2114	2127	2127	2140	2153	2153	2167	2181	2194	2208	2223	2237	2266	2281	2281	2297	2312	2312	2327	2343	2359	2443	2443	2443	2460	2460	2478	2478	0	0	0	0	0	0	0	0	0	0	0	0	0	0	0	0	7608	7608	7608	7608	7608	7608	7779	7779	7608	7608	7608	7608	7608	7608	7608	7608	7779	7608	7608	7779	7779	0	0	0	0	0	7444	7287	7444	7444	0	0	0	0	0	0	0	0	0	0	0	4771	4643	4643	4643	4643	4581	4643	4643	4643	4643	4643	4643	4643	4643	4643	4643	4643	4643	4643	4643	4643	4643	4581	4581	4581	4581	4581	4581	4581	4581	4581	4581	4581	3907	3907	3907	3907	3907	3907	3907	3907	3998	4093	4192	4243	4296	4296	4192	3952	3907	3907	3907	3864	3864	3864	3864	3864	3864	3864	3907	3907	4296	4296	4296	4296	4296	4243	4243	4243	4243	4243	4243	4243	4296	4296	4296	4296	4296	4296	4350	4350	4350	4350	4350	4350	4350	4350	4350	4350	4350	4350	4350	4350	4350	4350	4350	4350	4296	4296	4296	4296	4296	4296	4243	4243	4243	4243	4243	4243	4296	4296	4296	4296	4296	4296	4296	4296	4296	4296	4296	4296	4296	4296	4243	4243	4296	4243	4243	4296	4296	4296	4296	4296	4296	4296	4243	4243	4296	4243	4243	4243	4243	4296	4296	4296	4243	4243	4243	4243	4243	4296	4296	4350	4350	4350	4350	4350	4350	4296	4296	4296	4243	4243	4243	4243	4243	4243	4243	4243	4192	4192	4243	4243	4192	4192	4243	4296	4350	4406	4463	4463	4521	4463	4463	4406	4406	4406	4350	4350	4350	4350	4350	4350	4350	4350	0	0	2392	2392	2392	2376	2376	2376	2359	2327	2312	2297	2281	2281	2266	2252	2237	2208	2208	2194	2181	2167	2153	2127	2127	2114	2088	2076	2063	2051	2051	2039	2027	2015	2003	1947	1936	1925	1915	1904	1883	1873	1853	1843	1833	1814	1814	1804	1804	1786	1786	1777	1768	1759	1750	1732	1723	1706	1706	1698	1690	1681	1673	1665	1657	1657	1634	1634	1626	1618	1611	1603	1596	1589	1581	1574	1567	1560	1553	1546	1546	1546	1546	1546	1546	1546	1546	1546	1546	1546	1553	1553	1553	1553	1546	1539	1532	1519	1499	1499	1492	1486	1480	1480	1473	1473	1473	1467	1461	1455	1455	1455	1455	1455	1455	1455	1455	1449	1449	1449	1181	1185	1185	1189	1185	1185	1181	1173	1157	1150	1142	1138	1134	1131	1131	1127	1127	1123	1123	1120	1120	1120	1120	1116	1116	1113	1113	1113	1113	1109	1109	1109	1113	1113	1113	1113	1113	1113	1113	0	0	0	0	0	0	0	0	0	0	0	0	0	0	0	0	0	0	0	0	0	0	0	0	0	0	0	0	0	0	0	0	0	0	0	0	0	0	0	0	0
0	0	0	0	0	0	0	0	0	0	0	0	0	1539	1539	1539	1539	1539	1539	1532	1532	1532	1525	1525	1525	1519	1519	1519	1519	1525	1525	1525	1525	1525	1525	1525	1525	1525	1525	1532	1532	1532	1532	1532	1532	1532	1525	1525	1525	1525	1525	1525	1525	1525	1525	1525	1532	1525	1525	1525	1525	1525	1525	1525	1525	1532	1532	1532	1532	1532	1532	1532	1539	1532	1532	1525	1539	1525	1539	1532	1539	1539	1539	1539	1546	1539	1546	1546	1546	1539	1539	1539	1532	1539	1539	1539	1539	1539	1539	1553	1560	1567	1574	1574	1581	1581	1581	1581	1589	1611	1611	1618	1618	1626	1649	1657	1665	1673	1681	1690	1698	1706	1715	1723	1750	1759	1759	1777	1786	1795	1795	1814	1814	1824	1833	1853	1873	1883	1894	1894	1904	1915	1915	1925	1947	1947	1980	2027	2027	2027	2039	2039	2039	2027	2051	2063	2076	2076	2101	2101	2101	2127	2140	2140	2153	2153	2167	2167	2194	2208	2223	2237	2266	2281	2281	2297	2312	2312	2327	2343	2359	2443	2443	2443	2460	2460	2478	2478	0	0	0	0	0	0	0	0	0	0	0	0	0	0	0	0	7608	7608	7608	7608	7608	0	0	0	0	0	7608	7608	7608	7779	7608	7608	7779	7779	7779	0	0	0	0	0	0	0	0	0	0	0	0	0	0	0	0	0	0	0	0	0	0	4706	4643	4643	4643	4643	4581	4581	4581	4581	4581	4643	4643	4643	4643	4643	4643	4643	4643	4643	4643	4643	4581	4581	4581	4581	4581	4581	4581	4581	4581	4581	4581	4706	4706	3907	3907	3907	3907	3907	3907	3907	3952	3998	3998	4350	4350	4350	4243	3952	3907	3907	3907	3864	3864	3864	3864	3864	3864	3864	3907	3907	4296	4296	4296	4296	4296	4243	4243	4243	4243	4243	4243	4243	4296	4296	4296	4296	4296	4296	4350	4350	4350	4350	4350	4350	4350	4350	4350	4350	4296	4350	4296	4296	4350	4350	4350	4350	4350	4296	4296	4296	4296	4296	4296	4243	4243	4243	4243	4296	4296	4296	4296	4296	4296	4296	4296	4296	4296	4296	4296	4296	4296	4296	4296	4243	4296	4296	4296	4296	4296	4296	4350	4350	4296	4296	4243	4243	4243	4243	4243	4243	4243	4296	4296	4243	4243	4243	4243	4243	4192	4192	4296	4350	4350	4350	4350	4350	4350	4296	4296	4296	4296	4243	4243	4243	4243	4243	4243	4243	4243	4192	4243	4243	4243	4192	4243	4243	4296	4350	4463	4463	4521	4463	4406	4406	4406	4406	4350	4350	4350	4350	4350	4350	4243	4243	0	0	2392	2392	2376	2359	2359	2359	2359	2327	2327	2312	2281	2281	2266	2252	2237	2208	2208	2181	2167	2167	2153	2140	2127	2114	2088	2076	2063	2051	2051	2039	2027	2015	1992	1936	1936	1925	1915	1904	1883	1873	1863	1843	1833	1824	1814	1804	1804	1786	1786	1777	1768	1759	1750	1741	1723	1706	1706	1698	1690	1681	1673	1665	1657	1649	1634	1634	1626	1611	1611	1603	1596	1589	1581	1574	1567	1560	1553	1553	1546	1546	1546	1546	1546	1546	1546	1546	1546	1546	1553	1553	1553	1553	1546	1539	1532	1519	1499	1499	1486	1486	1480	1473	1473	1473	1473	1467	1467	1455	1455	1455	1455	1455	1455	1455	1455	1455	1173	1173	1177	1181	1185	1185	1181	1181	1177	1165	1153	1150	1142	1138	1134	1131	1131	1127	1127	1123	1123	1120	1120	1116	1116	1116	1116	1113	1113	1113	1109	1109	1109	1109	1109	1109	1113	1109	1113	1109	1109	0	0	0	0	0	0	0	0	0	0	0	0	0	0	0	0	0	0	0	0	0	0	0	0	0	0	0	0	0	0	0	0	0	0	0	0	0	0	0	0	0
0	0	0	0	0	0	0	0	0	0	0	0	0	1539	1539	1539	1539	1539	1539	1539	1539	1532	1532	1525	1525	1525	1525	1525	1525	1525	1525	1525	1525	1525	1525	1525	1525	1525	1525	1525	1525	1532	1525	1525	1525	1525	1525	1525	1525	1525	1525	1525	1525	1525	1525	1525	1525	1525	1525	1525	1525	1525	1532	1525	1525	1532	1532	1532	1532	1532	1532	1532	1532	1532	1532	1525	1532	1532	1539	1532	1539	1532	1539	1539	1539	1539	1539	1539	1539	1539	1539	1539	1532	1539	1539	1539	1532	1539	1539	1560	1567	1567	1574	1574	1581	1581	1581	1581	1589	1611	1618	1618	1626	1626	1649	1649	1665	1673	1681	1690	1698	1706	1715	1723	1741	1759	1759	1777	1786	1795	1804	1814	1814	1824	1833	1853	1873	1883	1894	1904	1904	1904	1915	1925	1936	1947	1992	2027	2027	2027	2039	2039	2039	2027	2039	2039	2063	2076	2088	2088	2101	2101	2140	2153	2167	2167	2167	2181	2194	2208	2223	2237	2266	2281	2281	2297	2312	2327	2327	2343	2359	2426	2443	2443	2460	2460	2478	2478	0	0	0	0	0	0	0	0	0	0	0	0	0	0	0	0	0	0	7608	7608	0	0	0	0	0	0	0	0	0	7779	7608	7608	7779	7779	7779	0	0	0	0	0	0	0	0	0	0	0	0	0	0	0	0	0	0	0	0	0	0	4706	4643	4581	4581	4581	4521	4581	4581	4581	4581	4581	4643	4643	4643	4643	4643	4643	4706	4643	4643	4643	4643	4581	4581	4581	4581	4581	4581	4581	4581	4581	4643	4706	3907	3907	3907	3907	3907	3907	3907	3907	3952	3998	3998	4406	4406	4350	3907	3907	3864	3864	3864	3864	3864	3864	3864	3864	3864	3864	3907	4296	4296	4296	4296	4296	4296	4243	4243	4243	4243	4243	4243	4243	4296	4296	4296	4296	4296	4296	4296	4350	4350	4350	4350	4350	4350	4350	4350	4296	4296	4350	4296	4296	4350	4350	4350	4350	4350	4296	4296	4296	4296	4296	4296	4296	4243	4243	4296	4296	4296	4296	4296	4296	4296	4296	4296	4350	4350	4296	4350	4296	4296	4296	4296	4243	4296	4243	4296	4296	4296	4296	4350	4350	4296	4243	4243	4243	4296	4243	4243	4243	4243	4296	4296	4243	4243	4243	4243	4243	4192	4192	0	0	0	0	0	4350	4350	4296	4296	4296	4243	4243	4243	4243	4243	4243	4243	4243	4192	4192	4243	4243	4192	4192	4243	4243	4296	4350	4406	4463	4463	4463	4406	4406	4406	4406	4350	4350	4350	4350	4296	4296	4192	4192	4192	0	2392	2392	2376	2376	2359	2359	2359	2343	2327	2312	2297	2281	2266	2252	2252	2223	2208	2181	2181	2167	2153	2140	2127	2088	2076	2076	2063	2051	2039	2039	2027	2027	2003	1947	1936	1925	1915	1894	1894	1873	1863	1843	1833	1824	1814	1814	1804	1786	1777	1777	1768	1759	1750	1741	1723	1706	1706	1698	1690	1681	1673	1665	1657	1657	1634	1634	1626	1611	1611	1603	1596	1589	1581	1574	1567	1560	1553	1546	1546	1546	1546	1539	1546	1546	1546	1546	1546	1546	1553	1553	1553	1553	1546	1539	1532	1525	1499	1499	1486	1486	1480	1473	1473	1467	1467	1467	1461	1461	1461	1455	1461	1461	1461	1461	1461	1455	1455	1173	1177	1177	1181	1181	1181	1177	1177	1165	1150	1146	1138	1134	1134	1131	1127	1127	1127	1123	1120	1120	1120	1116	1116	1113	1113	1113	1113	1113	1109	1109	1109	1105	1109	1109	1109	1109	1109	1109	1109	0	0	0	0	0	0	0	0	0	0	0	0	0	0	0	0	0	0	0	0	0	0	0	0	0	0	0	0	0	0	0	0	0	0	0	0	0	0	0	0	0
0	0	0	0	0	0	0	0	0	0	0	0	0	1539	1539	1539	1546	1539	1539	1539	1539	1532	1532	1525	1525	1525	1525	1525	1525	1525	1532	1532	1525	1532	1532	1532	1525	1525	1525	1525	1532	1532	1525	1525	1525	1525	1532	1525	1525	1525	1525	1525	1525	1525	1525	1532	1525	1525	1525	1525	1525	1525	1532	1525	1532	1539	1532	1532	1532	1532	1532	1532	1539	1532	1532	1532	1532	1532	1539	1532	1532	1532	1532	1539	1539	1539	1539	1539	1539	1539	1539	1539	1532	1532	1532	1539	1539	1539	1539	1553	1567	1567	1574	1581	1589	1589	1589	1589	1596	1603	1618	1618	1626	1641	1649	1657	1665	1673	1681	1690	1698	1706	1715	1723	1741	1750	1750	1777	1786	1786	1804	1814	1824	1824	1843	1853	1863	1873	1894	1894	1894	1904	1915	1925	1947	1947	2015	2027	2027	2027	2039	2039	2027	2027	2027	2027	2027	2027	2088	2101	2127	2127	2140	2140	2167	2167	2181	2181	2194	2208	2223	2237	2252	2266	2281	2297	2312	2312	2327	2327	2376	2426	2426	2443	2443	2443	2443	0	0	0	0	0	0	0	0	0	0	0	0	0	0	0	0	0	0	0	0	0	0	0	0	0	0	0	0	0	0	0	7608	7608	7779	7779	0	0	0	0	0	0	0	0	0	0	0	0	0	0	0	0	0	0	0	0	0	0	0	4706	4643	4581	4581	4581	4521	4581	4581	4581	4581	4581	4581	4643	4581	4643	4643	4643	4643	4643	4643	4643	4643	4581	4643	4581	4581	4581	4581	4581	4581	4581	4581	4643	4643	3907	3907	3907	3907	3907	3907	3907	3952	4045	4045	4350	4350	4296	4243	3907	3864	3864	3864	3821	3864	3864	3864	3821	3864	3864	3907	4243	4296	4296	4296	4296	4296	4243	4243	4243	4243	4243	4243	4243	4243	4296	4296	4296	4350	4350	4350	4350	4350	4350	4350	4350	4350	4350	4350	4296	4296	4296	4296	4296	4350	4350	4350	4350	4296	4296	4296	4296	4296	4296	4296	4296	4296	4296	4296	4296	4296	4296	4296	4296	4296	4296	4296	4296	4350	4296	4350	4350	4296	4296	4243	4243	4296	4243	4296	4296	4296	4296	0	4350	4296	4243	4243	4243	4243	4243	4243	4243	4243	4296	4243	4243	4243	0	0	0	0	0	0	0	0	0	0	0	4350	4296	4296	4296	4296	4296	4296	4296	4243	4243	4243	4243	4192	4192	4243	4243	4243	4243	4243	4296	4350	4350	4406	4463	4521	4463	4406	4406	4350	4350	4350	4350	4350	4350	4296	4296	4243	4192	4192	2392	2392	2392	2376	2376	2376	2359	2359	2343	2327	2312	2297	2281	2266	2252	2252	2237	2208	2194	2181	2153	2153	2127	2127	2088	2076	2076	2063	2051	2051	2039	2039	2027	2015	1936	1936	1925	1915	1894	1894	1863	1853	1843	1843	1833	1824	1814	1804	1786	1777	1777	1768	1759	1750	1741	1732	1706	1698	1698	1690	1681	1673	1665	1657	1649	1634	1626	1618	1611	1611	1603	1596	1596	1581	1574	1567	1553	1553	1546	1546	1546	1539	1539	1539	1546	1539	1546	1546	1546	1553	1553	1553	1553	1553	1539	1532	1519	1512	1499	1486	1486	1480	1473	1473	1467	1467	1461	1461	1461	1461	1455	1461	1461	1455	1461	1461	1455	1173	1173	1173	1177	1181	1181	1181	1177	1173	1165	1150	1150	1138	1134	1131	1127	1127	1127	1123	1120	1120	1120	1120	1116	1116	1113	1113	1113	1109	1109	1105	1105	1105	1105	1105	1105	1105	1105	1105	1102	1102	0	0	0	0	0	0	0	0	0	0	0	0	0	0	0	0	0	0	0	0	0	0	0	0	0	0	0	0	0	0	0	0	0	0	0	0	0	0	0	0	0
0	0	0	0	0	0	0	0	0	0	0	0	0	1539	1546	1546	1546	1546	1539	1539	1539	1539	1532	1525	1525	1525	1532	1525	1525	1539	1539	1539	1532	1539	1532	1532	1532	1525	1525	1525	1525	1525	1525	1525	1525	1525	1525	1525	1525	1525	1525	1525	1532	1532	1532	1532	1532	1525	1525	1525	1525	1532	1532	1525	1532	1532	1532	1532	1532	1532	1532	1539	1539	1532	1532	1532	1532	1532	1539	1532	1532	1532	1539	1539	1539	1539	1539	1546	1546	1539	1539	1539	1532	1539	1539	1539	1539	1539	1546	1553	1560	1567	1574	1581	1589	1589	1589	1596	1603	1611	1618	1626	1634	1641	1649	1657	1657	1673	1681	1690	1706	1715	1715	1732	1741	1750	1750	1768	1777	1786	1795	1795	1824	1833	1843	1853	1863	1873	1883	1883	1894	1904	1915	1925	1947	1958	2015	2027	2027	2039	2039	2039	2027	2015	2027	2027	2039	2051	2088	2088	2114	2127	2140	2140	2167	2167	2181	2194	2194	2208	2223	2237	2252	2281	2281	2297	2312	2312	2327	2343	2376	2392	2426	2443	2443	2443	2443	2443	0	0	0	0	0	0	0	0	0	0	0	0	0	0	0	0	0	0	0	0	0	0	0	0	0	0	0	0	0	0	0	0	0	0	0	0	0	0	0	0	0	0	0	0	0	0	0	0	0	0	0	0	0	0	0	0	0	4643	4643	4581	4581	4581	4521	4581	4581	4581	4581	4581	4643	4643	4643	4643	4643	4643	4643	4706	4643	4706	4643	4643	4643	4643	4643	4581	4581	4581	4581	4581	4581	4581	3907	3907	3907	3907	3907	3907	3907	3907	3952	4093	4296	4350	4296	4296	4243	3907	3864	3864	3864	3821	3864	3864	3864	3821	3821	3864	3864	4192	4296	4296	4296	4296	4296	4243	4243	4243	4243	4243	4243	4296	4296	4350	4350	4350	4350	4350	4350	4350	4350	4350	4350	4350	4350	4296	4296	4296	4296	4296	4296	4296	4350	4350	4350	4350	4296	4296	4296	4296	4296	4296	4296	4296	4296	4296	4296	4296	4296	4296	4296	4296	4296	4296	4296	4350	4350	4296	4350	4296	4296	4296	4243	4243	4296	4243	4296	4296	4296	4296	0	0	0	0	0	4243	4243	4243	4243	4243	4243	4296	4296	4243	0	0	0	0	0	0	0	0	0	0	0	0	0	0	4296	4296	4296	4296	4296	4296	4243	4243	4243	4243	4192	4192	4243	4243	4243	4243	4243	4243	4296	4296	4296	4350	4463	4463	4406	4406	4406	4350	4350	4350	4350	4296	4296	4296	4296	4192	4192	2392	2392	2392	2376	2376	2376	2359	2359	2343	2312	2297	2297	2281	2266	2252	2252	2237	2208	2181	2167	2153	2153	2140	2127	2101	2076	2076	2063	2051	2039	2039	2039	2027	2015	1947	1936	1925	1915	1894	1883	1863	1853	1843	1843	1833	1824	1814	1804	1786	1777	1777	1768	1759	1759	1741	1732	1723	1698	1698	1690	1681	1673	1665	1657	1657	1634	1626	1618	1611	1603	1603	1596	1596	1581	1574	1567	1560	1553	1553	1546	1546	1539	1539	1539	1539	1539	1539	1546	1546	1553	1553	1553	1553	1546	1539	1532	1525	1512	1499	1486	1486	1480	1473	1473	1467	1461	1461	1461	1455	1455	1455	1461	1455	1455	1455	1455	1455	1157	1165	1173	1177	1177	1177	1177	1173	1169	1161	1150	1150	1138	1131	1131	1127	1123	1123	1123	1120	1120	1116	1116	1116	1116	1113	1113	1109	1109	1109	1102	1102	1102	1102	1102	1102	1102	1105	1105	1102	1102	0	0	0	0	0	0	0	0	0	0	0	0	0	0	0	0	0	0	0	0	0	0	0	0	0	0	0	0	0	0	0	0	0	0	0	0	0	0	0	0	0
0	0	0	0	0	0	0	0	0	0	0	0	0	1539	1546	1546	1546	1539	1539	1532	1532	1532	1532	1532	1525	1525	1532	1532	1539	1539	1539	1539	1532	1539	1532	1532	1525	1525	1525	1525	1525	1525	1525	1525	1525	1525	1525	1525	1525	1525	1525	1525	1525	1525	1525	1525	1525	1525	1525	1525	1532	1532	1532	1525	1525	1532	1532	1532	1532	1532	1532	1532	1532	1532	1532	1525	1532	1532	1539	1532	1532	1539	1539	1539	1539	1539	1546	1546	1546	1539	1539	1539	1532	1539	1539	1539	1546	1546	1553	1553	1560	1560	1574	1581	1589	1596	1596	1596	1603	1611	1618	1626	1634	1641	1649	1649	1657	1665	1681	1690	1706	1715	1723	1741	1750	1750	1759	1768	1777	1786	1795	1814	1824	1824	1843	1853	1863	1873	1883	1883	1894	1904	1915	1925	1925	1925	2027	2027	2027	2039	2039	2039	2039	2027	2027	2027	2039	2051	2076	2088	2101	2127	2127	2140	2153	2153	2167	2181	2194	2208	2223	2237	2252	2266	2281	2297	2312	2327	2343	2343	2359	2392	2426	2443	2443	2443	2443	2443	0	0	0	0	0	0	0	0	0	0	0	0	0	0	0	0	0	0	0	0	0	0	0	0	0	0	0	0	0	0	0	0	0	0	0	0	0	0	0	0	0	0	0	0	0	0	0	0	0	0	0	0	0	0	0	0	0	4643	4643	4581	4581	4581	4581	4581	4581	4581	4581	4581	4643	4643	4643	4706	4706	4643	4643	4643	4643	4643	4643	4643	4643	4643	4643	4643	4581	4581	4581	4643	4581	4581	3821	3864	3864	3864	3907	3907	3907	3907	3952	4093	4296	4350	4296	4296	4243	3907	3864	3864	3864	3821	3821	3821	3821	3821	3821	3821	3864	3864	4243	4296	4296	4296	4296	4243	4296	4243	4243	4243	4243	4296	4296	4350	4350	4350	4350	4350	4350	4350	4350	4350	4350	4350	4350	4296	4296	4296	4296	4296	4296	4350	4350	4350	4350	4350	4296	4296	4296	4296	4296	4296	4296	4296	4296	4296	4296	4296	4296	4296	4296	4296	4296	4296	4296	4296	4296	4296	4296	4296	4296	4296	4243	4243	0	0	0	0	0	0	0	0	0	0	0	0	4296	4243	4243	4243	4296	4296	4296	0	0	0	0	0	0	0	0	0	0	0	0	0	0	0	0	4296	4296	4296	4243	4243	4192	4243	4243	4243	4192	4192	4192	4243	4243	4243	4243	4243	4296	4296	4296	4350	4463	4463	4406	4406	4350	4350	4350	4350	4296	4296	4243	4296	4243	4192	4192	2392	2392	2392	2376	2376	2359	2359	2359	2343	2327	2297	2297	2281	2266	2252	2252	2237	2208	2181	2167	2153	2153	2140	2127	2101	2076	2076	2063	2051	2039	2039	2027	2027	2015	1947	1936	1925	1915	1904	1883	1863	1853	1853	1843	1833	1824	1814	1814	1795	1786	1777	1768	1768	1759	1750	1732	1723	1706	1698	1690	1681	1673	1665	1665	1657	1634	1626	1618	1611	1603	1603	1596	1596	1581	1574	1560	1553	1553	1553	1546	1546	1546	1539	1539	1539	1539	1539	1539	1539	1546	1553	1553	1553	1546	1539	1525	1519	1512	1499	1486	1486	1480	1473	1473	1467	1461	1461	1461	1455	1455	1455	1455	1455	1449	1449	1455	0	1161	1165	1169	1173	1177	1177	1173	1173	1165	1157	1150	1150	1134	1131	1127	1127	1123	1120	1120	1116	1116	1116	1116	1116	1116	1113	1113	1109	1105	1105	1102	1102	1102	1102	1102	1102	1102	1102	1102	1102	1102	0	0	0	0	0	0	0	0	0	0	0	0	0	0	0	0	0	0	0	0	0	0	0	0	0	0	0	0	0	0	0	0	0	0	0	0	0	0	0	0	0
0	0	0	0	0	0	0	0	0	0	0	0	0	1539	1539	1539	1539	1539	1539	1532	1532	1539	1532	1532	1525	1525	1525	1532	1532	1525	1532	1532	1532	1532	1532	1532	1532	1525	1525	1525	1525	1525	1525	1525	1525	1525	1525	1525	1519	1532	1525	1525	1525	1525	1525	1525	1525	1525	1525	1525	1525	1532	1532	1525	1532	1532	1532	1532	1532	1532	1532	1539	1539	1532	1532	1532	1532	1539	1539	1539	1532	1539	1539	1539	1539	1539	1546	1546	1539	1539	1539	1539	1539	1546	1546	1546	1546	1553	1553	1553	1560	1560	1567	1574	1589	1596	1596	1596	1603	1611	1618	1618	1634	1641	1649	1649	1657	1665	1681	1690	1706	1723	1732	1741	1741	1750	1759	1768	1777	1786	1795	1814	1824	1824	1843	1853	1863	1873	1883	1883	1894	1894	1915	1915	1925	2027	2039	2039	2039	2039	2039	2039	2039	2039	2039	2027	2039	2039	2039	2088	2088	2114	2127	2140	2140	2153	2167	2181	2194	2208	2223	2237	2252	2266	2281	2297	2312	2327	2343	2343	2359	2392	2426	2443	2443	2443	2443	2443	0	0	0	0	0	0	0	0	0	0	0	0	0	0	0	0	0	0	0	0	0	0	0	0	0	0	0	0	0	0	0	0	0	0	0	0	0	0	0	0	0	0	0	0	0	0	0	0	0	0	0	0	0	0	0	0	0	4706	4643	4581	4581	4521	4521	4521	4521	4521	4581	4643	4706	4706	4643	4706	4706	4706	4706	4706	4706	4706	4706	4643	4706	4643	4643	4581	4581	4581	4581	4581	4581	4581	3821	3821	3864	3864	3864	3864	3907	3907	3952	4192	4296	4296	4296	4296	4243	3907	3864	3864	3864	3821	3821	3821	3821	3821	3821	3821	3821	3779	3779	4296	4296	4296	4296	4243	4296	4243	4243	4243	4243	4296	4296	4350	4350	4350	4350	4350	4350	4350	4350	4350	4350	4350	4350	4350	4350	4296	4350	4350	4350	4350	4350	4350	4350	4350	4350	4296	4296	4296	4296	4296	4296	4296	4296	4296	4296	4296	4296	4296	4296	4296	4296	4296	4296	4296	4350	4350	4350	4350	4350	0	0	0	0	0	0	0	0	0	0	0	0	0	0	0	4296	4243	4243	4243	4296	4296	0	0	0	0	0	0	0	0	0	0	0	0	0	0	0	0	0	4296	4296	4296	4243	4243	4192	4192	4192	4192	4192	4192	4243	4243	4243	4243	4243	4243	4296	4296	4243	4350	4406	4406	4406	4350	4350	4350	4350	4296	4296	4243	4192	4243	4243	4192	4142	2409	2409	2392	2376	2376	2376	2359	2359	2343	2312	2297	2297	2281	2266	2252	2252	2237	2208	2181	2167	2153	2153	2140	2114	2101	2076	2063	2063	2039	2039	2039	2027	2027	2015	1947	1936	1915	1904	1894	1883	1863	1853	1853	1843	1843	1833	1824	1814	1795	1777	1777	1768	1768	1759	1759	1741	1732	1706	1698	1690	1681	1673	1665	1665	1657	1634	1626	1618	1611	1603	1603	1596	1596	1581	1574	1560	1553	1553	1546	1546	1546	1546	1539	1539	1539	1539	1539	1539	1539	1553	1553	1553	1546	1546	1532	1525	1512	1506	1492	1486	1486	1480	1480	1473	1473	1467	1467	1467	1461	1461	1455	1455	1455	1455	1449	0	1161	1161	1169	1169	1173	1177	1177	1173	1173	1165	1157	1150	1150	1138	1131	1127	1127	1120	1120	1120	1116	1116	1116	1116	1116	1113	1109	1109	1105	1105	1105	1102	1102	1102	1102	1102	1102	1102	1102	1102	1102	1102	0	0	0	0	0	0	0	0	0	0	0	0	0	0	0	0	0	0	0	0	0	0	0	0	0	0	0	0	0	0	0	0	0	0	0	0	0	0	0	0	0
0	0	0	0	0	0	0	0	0	0	0	0	0	1539	1539	1539	1546	1539	1539	1539	1539	1539	1539	1539	1532	1532	1532	1539	1532	1532	1532	1532	1532	1532	1532	1532	1532	1532	1525	1525	1532	1525	1525	1525	1525	1525	1525	1525	1525	1532	1532	1532	1532	1532	1532	1532	1525	1525	1525	1525	1525	1532	1532	1525	1532	1525	1532	1532	1532	1532	1532	1532	1532	1532	1532	1539	1539	1539	1546	1539	1539	1539	1539	1539	1539	1532	1532	1539	1532	1532	1539	1539	1539	1546	1546	1546	1553	1553	1553	1553	1553	1560	1567	1574	1589	1596	1603	1603	1603	1611	1618	1618	1626	1641	1649	1649	1649	1673	1681	1690	1698	1723	1723	1732	1741	1750	1750	1759	1768	1768	1795	1814	1814	1824	1843	1853	1863	1873	1873	1883	1894	1894	1904	1925	1925	2039	2039	2039	2039	2039	2039	2039	2039	2027	2027	2027	2039	2039	2063	2076	2088	2101	2127	2140	2140	2140	2167	2181	2181	2194	2223	2237	2252	2266	2281	2297	2312	2327	2343	2343	2359	2376	2409	2426	2426	2443	2443	2443	0	0	0	0	0	0	0	0	0	0	0	0	0	0	0	0	0	0	0	0	0	0	0	0	0	0	0	0	0	0	0	0	0	0	0	0	0	0	0	0	0	0	0	0	0	0	0	0	0	0	0	0	0	0	0	0	0	4706	4643	4581	4521	4521	4521	4521	4581	4521	4581	4643	4706	4706	4643	4706	4706	4706	4643	4706	4706	4706	4706	4643	4706	4643	4643	4643	4581	4581	4581	3821	3821	3821	3779	3779	3821	3821	3864	3864	3864	3907	3952	4192	4296	4296	4296	4296	4243	4192	3864	3864	3864	3821	3821	3821	3821	3779	3779	3779	3779	3738	3738	3738	3738	4296	4296	4243	4296	4243	4243	4243	4243	4296	4296	4350	4350	4350	4350	4350	4350	4350	4350	4350	4350	4350	4350	4350	4350	4296	4350	4350	4296	4296	4296	4296	4350	4350	4296	4296	4296	4296	4296	4296	4296	4296	4296	4296	4296	4296	4296	4296	4296	4296	4296	4296	4296	4296	4350	4406	4406	4350	0	0	0	0	0	0	0	0	0	0	0	0	0	0	0	0	0	0	0	0	0	0	0	0	0	0	0	0	0	0	0	0	0	0	0	0	0	0	4296	4296	4296	4296	4243	4243	4192	4243	4243	4243	4243	4243	4243	4243	4243	4296	4243	4243	4296	4296	4296	4296	4406	4406	4406	4350	4350	4296	4296	4296	4243	4192	4192	4192	4243	4192	4142	2409	2409	2392	2376	2376	2359	2359	2359	2343	2312	2297	2281	2281	2266	2266	2252	2237	2223	2194	2194	2153	2140	2127	2127	2114	2088	2076	2063	2051	2039	2027	2027	2027	2015	1969	1947	1925	1904	1894	1883	1863	1853	1853	1843	1843	1833	1824	1814	1795	1777	1777	1768	1768	1759	1750	1741	1732	1706	1698	1690	1681	1673	1665	1657	1657	1649	1626	1618	1611	1603	1603	1596	1589	1581	1560	1560	1560	1553	1553	1546	1553	1546	1546	1546	1539	1539	1539	1539	1539	1553	1553	1546	1546	1539	1532	1519	1512	1506	1492	1486	1486	1480	1480	1473	1473	1467	1467	1467	1461	1461	1455	1455	1455	1455	0	1161	1161	1161	1165	1169	1169	1173	1173	1173	1169	1161	1157	1150	1150	1134	1127	1127	1123	1116	1116	1116	1116	1116	1113	1113	1113	1113	1109	1105	1105	1105	1105	1102	1102	1102	1102	1102	1102	1102	1102	1102	1098	1098	0	0	0	0	0	0	0	0	0	0	0	0	0	0	0	0	0	0	0	0	0	0	0	0	0	0	0	0	0	0	0	0	0	0	0	0	0	0	0	0	0
0	0	0	0	0	0	0	0	0	0	0	0	0	1539	1539	1539	1539	1539	1539	1539	1539	1539	1539	1539	1539	1539	1539	1546	1539	1532	1532	1532	1532	1539	1532	1532	1532	1532	1525	1525	1532	1525	1525	1525	1525	1525	1525	1519	1525	1532	1532	1532	1532	1532	1532	1532	1525	1525	1525	1532	1532	1532	1532	1532	1532	1525	1532	1532	1532	1532	1539	1539	1539	1539	1539	1539	1539	1546	1546	1539	1532	1532	1539	1539	1532	1532	1532	1539	1532	1539	1539	1539	1539	1546	1546	1546	1546	1553	1553	1553	1553	1560	1560	1574	1589	1596	1603	1603	1611	1611	1618	1618	1634	1641	1649	1657	1657	1665	1681	1690	1698	1715	1723	1732	1732	1741	1750	1759	1768	1777	1786	1804	1814	1833	1843	1853	1863	1863	1873	1883	1883	1894	1894	1904	1904	2051	2039	2039	2039	2039	2039	2039	2027	2027	2027	2027	2027	2039	2063	2076	2088	2101	2127	2140	2140	2140	2153	2167	2167	2181	2208	2223	2252	2266	2281	2297	2312	2327	2327	2343	2359	2376	2409	2426	2426	2426	2426	2426	0	0	0	0	0	0	0	0	0	0	0	0	0	0	0	0	0	0	0	0	0	0	0	0	0	0	0	0	0	0	0	0	0	0	0	0	0	0	0	0	0	0	0	0	0	0	0	0	0	0	0	0	0	0	0	0	0	4643	4581	4581	4521	4521	4521	4521	4581	4521	4581	4643	4706	4706	4706	4706	4706	4706	4706	4706	4706	4706	4706	4643	4706	4706	4706	4706	4706	4581	3698	3698	3821	3821	3779	3779	3821	3821	3864	3864	3864	3907	3952	4192	4243	4296	4296	4296	4243	4192	3864	3864	3864	3821	3779	3779	3738	3738	3738	3738	3738	3738	3738	3738	3738	4296	4243	4243	4296	4243	4243	4243	4243	4243	4296	4350	4350	4406	4406	4350	4350	4350	4350	4350	4350	4350	4350	4350	4296	4296	4350	4350	4296	4296	4296	4296	4296	4350	4296	4296	4296	4296	4296	4296	4296	4296	4296	4296	4296	4296	4296	4296	4296	4296	4296	4296	4296	4296	4350	4350	4406	0	0	0	0	0	0	0	0	0	0	0	0	0	0	0	0	0	0	0	0	0	0	0	0	0	0	0	0	0	0	0	0	0	0	0	0	0	0	0	4296	4296	4296	4296	4243	4243	4192	4243	4243	4243	4192	4243	4243	4243	4243	4243	4243	4243	4296	4296	4296	4350	4406	4463	4406	4350	4350	4296	4243	4243	4192	4142	4142	4192	4243	4192	4192	2426	2409	2409	2376	2376	2376	2359	2359	2343	2312	2297	2281	2281	2266	2252	2252	2237	2223	2194	2167	2153	2140	2127	2127	2114	2101	2076	2063	2051	2039	2027	2027	2027	2015	2003	1947	1915	1904	1894	1883	1863	1853	1853	1843	1833	1824	1814	1814	1795	1777	1768	1768	1759	1759	1750	1741	1732	1715	1690	1690	1681	1673	1665	1657	1657	1649	1618	1611	1611	1603	1603	1596	1589	1574	1560	1560	1553	1553	1553	1553	1553	1546	1546	1546	1546	1546	1546	1546	1539	1553	1553	1546	1546	1539	1532	1519	1512	1506	1499	1486	1486	1480	1480	1480	1473	1467	1467	1467	1461	1461	1455	1455	0	0	0	1165	1161	1161	1161	1165	1169	1169	1173	1173	1169	1161	1157	1150	1153	1131	1127	1120	1120	1116	1116	1116	1116	1113	1113	1113	1113	1109	1109	1105	1102	1102	1102	1102	1102	1102	1102	1102	1102	1102	1098	1098	1098	1098	0	0	0	0	0	0	0	0	0	0	0	0	0	0	0	0	0	0	0	0	0	0	0	0	0	0	0	0	0	0	0	0	0	0	0	0	0	0	0	0	0
0	0	0	0	0	0	0	0	0	0	0	0	0	1539	1539	1539	1539	1539	1546	1539	1539	1539	1539	1539	1539	1539	1539	1546	1539	1539	1539	1539	1539	1539	1532	1525	1532	1532	1525	1525	1532	1525	1525	1525	1525	1525	1525	1519	1525	1532	1532	1532	1532	1525	1532	1532	1525	1532	1525	1532	1532	1532	1532	1532	1532	1532	1532	1532	1532	1532	1539	1539	1539	1539	1539	1539	1539	1539	1539	1539	1539	1539	1539	1539	1539	1532	1532	1539	1532	1532	1539	1539	1539	1546	1546	1546	1546	1546	1546	1553	1553	1553	1560	1581	1589	1603	1603	1611	1611	1611	1618	1618	1634	1641	1649	1649	1657	1665	1681	1681	1690	1715	1723	1732	1732	1750	1750	1750	1759	1777	1777	1804	1814	1824	1853	1853	1863	1873	1873	1883	1883	1894	1894	1894	2088	2063	2051	2039	2039	2039	2039	2039	2039	2027	2027	2027	2039	2039	2063	2076	2076	2101	2127	2127	2127	2140	2153	2153	2167	2181	2194	2194	2252	2266	2281	2297	2312	2327	2343	2343	2359	2376	2409	2409	2426	2426	2426	2426	0	0	0	0	0	0	0	0	0	0	0	0	0	0	0	0	0	0	0	0	0	0	0	0	0	0	0	0	0	0	0	0	0	0	0	0	0	0	0	0	0	0	0	0	0	0	0	0	0	0	0	0	0	0	0	0	0	4643	4581	4581	4521	4521	4521	4521	4521	4521	4521	4643	4771	4771	4771	4771	4771	4706	4706	4706	4706	4706	4706	4706	4706	4706	4706	3698	3698	3738	3698	3698	3779	3779	3738	3738	3779	3779	3821	3864	3864	3907	3952	3952	4243	4296	4296	4243	4243	4243	3907	3864	3864	3821	3779	3779	3738	3738	3738	3738	3738	3738	3738	3738	3738	3738	4243	4243	4243	4243	4243	4192	4243	4243	4296	4350	4350	4406	4406	4350	4350	4350	4350	4350	4296	4296	4296	4350	4296	4350	4350	4350	4296	4296	4296	4296	4350	4296	4296	4296	4296	4296	4296	4296	4296	4296	4296	4243	4296	4296	4296	4296	4296	4296	4296	4296	4296	4296	4350	4350	0	0	0	0	0	0	0	0	0	0	0	0	0	0	0	0	0	0	0	0	0	0	0	0	0	0	0	0	0	0	0	0	0	0	0	0	0	0	0	0	4296	4296	0	0	0	0	0	0	4243	4243	4243	4243	4296	4243	4243	4296	4243	4243	4296	4243	4296	4296	4406	4463	4406	4350	4350	4296	4243	4243	4192	4142	4142	4142	4243	4192	4192	2426	2426	2409	2392	2392	2376	2359	2359	2343	2312	2297	2281	2281	2266	2252	2237	2237	2223	2181	2167	2140	2140	2127	2114	2114	2101	2076	2063	2051	2039	2027	2027	2027	2015	2003	1947	1925	1904	1894	1883	1853	1853	1843	1843	1833	1824	1814	1804	1795	1777	1768	1768	1759	1759	1750	1732	1732	1715	1690	1681	1673	1673	1665	1657	1657	1649	1626	1618	1611	1603	1603	1589	1589	1574	1574	1560	1553	1553	1553	1553	1553	1546	1546	1546	1546	1546	1546	1546	1539	1553	1546	1546	1539	1539	1532	1519	1506	1499	1492	1486	1486	1480	1480	1480	1473	1467	1467	1467	1461	1461	1461	1461	0	0	1165	1165	1161	1161	1161	1165	1165	1169	1169	1165	1165	1161	1157	1150	1146	1134	1123	1120	1116	1116	1116	1116	1113	1113	1113	1109	1113	1109	1109	1102	1102	1102	1102	1102	1102	1102	1102	1102	1102	1098	1098	1098	1098	1098	0	0	0	0	0	0	0	0	0	0	0	0	0	0	0	0	0	0	0	0	0	0	0	0	0	0	0	0	0	0	0	0	0	0	0	0	0	0	0	0	0
0	0	0	0	0	0	0	0	0	0	0	0	0	1539	1539	1539	1532	1546	1546	1525	1532	1532	1532	1532	1539	1539	1546	1546	1546	1539	1532	1532	1532	1525	1525	1525	1525	1525	1525	1532	1532	1525	1525	1525	1525	1525	1525	1525	1525	1525	1525	1525	1525	1525	1532	1532	1532	1532	1532	1539	1532	1539	1532	1532	1532	1532	1532	1532	1532	1532	1532	1532	1532	1532	1539	1539	1546	1546	1546	1546	1546	1546	1546	1539	1539	1532	1532	1539	1539	1539	1539	1539	1539	1546	1546	1546	1546	1546	1546	1553	1553	1560	1560	1574	1589	1603	1603	1611	1611	1618	1626	1626	1641	1649	1649	1657	1657	1665	1681	1681	1690	1715	1715	1723	1723	1741	1750	1759	1759	1786	1795	1804	1814	1824	1843	1853	1863	1873	1883	1894	1894	1904	1894	1894	1894	2051	2051	2039	2039	2039	2039	2039	2039	2027	2027	2027	2039	2039	2063	2088	2101	2114	2127	2127	2127	2140	2140	2153	2167	2194	2194	2194	2237	2266	2281	2297	2297	2312	2327	2359	2359	2359	2409	2426	2426	2426	2426	0	0	0	0	0	0	0	0	0	0	0	0	0	0	0	0	0	0	0	0	0	0	0	0	0	0	0	0	0	0	0	0	0	0	0	0	0	0	0	0	0	0	0	0	0	0	0	0	0	0	0	0	0	0	0	0	0	0	0	4581	4521	4521	4521	4521	4521	4521	4521	4521	0	4771	4771	4771	4771	4771	4771	4706	4771	4771	4771	4771	4771	4771	4706	0	3698	3738	3738	3698	3738	3738	3779	3738	3738	3779	3779	3821	3821	3821	3821	3907	3952	4243	4296	4296	4243	4243	4243	3907	3864	3864	3821	3779	3738	3738	3698	3698	3698	3738	3738	3738	3738	3738	3738	3738	4243	4243	4243	4192	4192	4192	4243	4296	4296	4350	4350	4406	4406	4350	4350	4350	4350	4350	4296	4350	4350	4350	4350	4350	4350	4350	4296	4296	4350	4350	4296	4296	4296	4296	4296	4296	4296	4243	4296	4243	4243	4243	4296	4296	4296	4296	4296	4296	4296	4296	4296	0	0	0	0	0	0	0	0	0	0	0	0	0	0	0	0	0	0	0	0	0	0	0	0	0	0	0	0	0	0	0	0	0	0	0	0	0	0	0	0	0	0	0	0	0	0	0	0	0	0	0	4243	4243	4243	4296	4243	4243	4243	4243	4243	4296	4243	4296	4296	0	0	0	0	0	0	0	4243	4192	4142	4093	4093	0	0	0	0	2426	2426	2409	2392	2392	2376	2359	2343	2312	2297	2297	2281	2266	2266	2237	2237	2223	2181	2167	2153	2140	2127	2114	2114	2101	2076	2063	2051	2039	2027	2027	2027	2015	1980	1958	1936	1904	1894	1883	1873	1853	1843	1843	1833	1814	1814	1804	1795	1777	1768	1759	1759	1750	1741	1732	1732	1715	1698	1681	1673	1665	1665	1657	1649	1641	1634	1618	1611	1603	1603	1589	1589	1574	1574	1560	1553	1553	1553	1553	1553	1546	1546	1546	1546	1546	1546	1546	1539	1553	1553	1546	1539	1539	1532	1512	1506	1499	1492	1486	1486	1480	1480	1473	1473	1467	1461	1461	1461	1455	1455	1461	0	1173	1165	1161	1161	1157	1157	1157	1157	1161	1161	1161	1161	1153	1150	1146	1142	1134	1123	1120	1116	1116	1116	1116	1113	1113	1109	1109	1109	1105	1102	1102	1102	1102	1102	1102	1102	1098	1098	1098	1098	1098	1098	1098	1098	1098	0	0	0	0	0	0	0	0	0	0	0	0	0	0	0	0	0	0	0	0	0	0	0	0	0	0	0	0	0	0	0	0	0	0	0	0	0	0	0	0	0
0	0	0	0	0	0	0	0	0	0	0	0	0	1539	1539	1539	1539	1532	1532	1525	1532	1532	1532	1532	1539	1546	1546	1546	1546	1539	1532	1532	1532	1532	1525	1525	1525	1532	1532	1532	1532	1532	1532	1525	1525	1525	1525	1525	1525	1525	1525	1525	1525	1525	1525	1525	1525	1525	1525	1539	1539	1539	1539	1532	1539	1532	1532	1525	1525	1532	1532	1532	1539	1539	1546	1539	1546	1546	1546	1546	1539	1539	1539	1539	1532	1532	1532	1539	1532	1539	1539	1539	1539	1546	1546	1546	1546	1546	1553	1553	1560	1560	1567	1574	1581	1596	1603	1603	1611	1618	1626	1626	1641	1641	1649	1657	1657	1673	1681	1681	1698	1698	1715	1715	1723	1741	1741	1759	1759	1777	1777	1804	1814	1824	1843	1853	1863	1873	1883	1883	1894	1904	1904	1904	1904	2051	2051	2039	2039	2039	2039	2039	2039	2039	2027	2039	2039	2039	2051	2076	2101	2114	2127	2127	2127	2140	2140	2153	2153	2194	2194	2194	2252	2266	2266	2297	2297	2312	2327	2359	2359	2376	2409	2426	2426	2426	2426	0	0	0	0	0	0	0	0	0	0	0	0	0	0	0	0	0	0	0	0	0	0	0	0	0	0	0	0	0	0	0	0	0	0	0	0	0	0	0	0	0	0	0	0	0	0	0	0	0	0	0	0	0	0	0	0	0	0	0	0	4521	4463	4463	4521	4521	4521	4521	0	0	0	0	0	0	4771	4771	4771	4838	4838	4838	4838	4838	4771	0	0	3738	3738	3738	3738	3779	3738	3738	3738	3738	3738	3738	3821	3821	3821	3864	3864	0	0	0	0	0	0	0	3864	3864	3821	3821	3779	3738	3698	3698	3698	3698	3738	3738	3738	3738	3738	3738	3738	4243	4243	4243	4192	4192	4192	4243	4296	4296	4350	4350	4406	4406	4350	4350	4350	4350	4296	4296	4296	4296	4296	4296	4350	4350	4350	4296	4296	4350	4350	4350	4350	4296	4350	4296	4296	4296	4243	4243	4243	4243	4243	4296	4296	4296	4296	4296	4296	4296	0	0	0	0	0	0	0	0	0	0	0	0	0	0	0	0	0	0	0	0	0	0	0	0	0	0	0	0	0	0	0	0	0	0	0	0	0	0	0	0	0	0	0	0	0	0	0	0	0	0	0	0	0	4243	4243	4243	0	0	0	4243	4243	0	0	0	0	0	0	0	0	0	0	0	0	4243	4192	4142	4093	4093	0	0	0	0	0	2426	2426	2426	2409	2392	2359	2343	2327	2297	2297	2281	2281	2266	2237	2223	2223	2181	2181	2167	2140	2127	2127	2114	2101	2076	2063	2051	2039	2027	2027	2015	2015	2003	1947	1925	1904	1894	1883	1873	1853	1853	1843	1833	1824	1814	1804	1795	1777	1768	1759	1750	1750	1741	1732	1723	1715	1698	1690	1673	1665	1657	1649	1649	1641	1634	1618	1611	1603	1603	1589	1581	1574	1574	1560	1553	1553	1553	1553	1553	1546	1546	1546	1546	1546	1546	1546	1539	1553	1553	1546	1539	1539	1532	1519	1506	1499	1492	1486	1486	1480	1480	1473	1473	1467	1461	1461	1455	1455	1455	0	0	1169	1161	1161	1157	1153	1157	1157	1157	1161	1161	1161	1161	1153	1150	1146	1142	1134	1120	1120	1116	1113	1113	1113	1113	1113	1109	1105	1105	1105	1102	1102	1102	1102	1102	1098	1098	1098	1098	1098	1098	1098	1098	1095	1095	1095	0	0	0	0	0	0	0	0	0	0	0	0	0	0	0	0	0	0	0	0	0	0	0	0	0	0	0	0	0	0	0	0	0	0	0	0	0	0	0	0	0
0	0	0	0	0	0	0	0	0	0	0	0	0	1539	1539	1539	1539	1532	1532	1525	1532	1532	1539	1539	1539	1539	1546	1546	1546	1546	1539	1539	1532	1525	1525	1525	1525	1532	1532	1539	1539	1539	1539	1525	1525	1525	1525	1525	1525	1525	1525	1525	1525	1525	1525	1525	1525	1525	1525	1532	1539	1539	1525	1525	1525	1525	1532	1532	1532	1532	1532	1532	1539	1539	1539	1539	1539	1546	1546	1539	1539	1539	1539	1539	1532	1532	1532	1539	1539	1539	1539	1539	1539	1546	1546	1546	1546	1553	1553	1553	1560	1560	1567	1574	1581	1596	1603	1603	1611	1618	1626	1626	1641	1649	1657	1665	1665	1673	1681	1690	1698	1706	1715	1715	1723	1741	1741	1750	1759	1777	1777	1786	1814	1824	1843	1853	1863	1873	1873	1883	1894	1904	1904	1904	2039	2039	2039	2039	2039	2039	2039	2039	2027	2027	2027	2039	2039	2039	2051	2088	2088	2114	2127	2140	2140	2140	2153	2153	2167	2167	2194	2223	2237	2266	2281	2281	2297	2312	2312	2359	2359	2376	2409	2426	2426	2426	2426	0	0	0	0	0	0	0	0	0	0	0	0	0	0	0	0	0	0	0	0	0	0	0	0	0	0	0	0	0	0	0	0	0	0	0	0	0	0	0	0	0	0	0	0	0	0	0	0	0	0	0	0	0	0	0	0	0	0	0	0	4521	4463	4463	0	0	0	0	0	0	0	0	0	0	0	4771	4771	4838	4838	4838	4838	4838	0	0	3738	3738	3738	3738	3738	3738	3779	3779	3779	3779	3779	3738	3821	3821	3821	3864	3864	0	0	0	0	0	0	0	3864	3864	3821	3821	3738	3738	3698	3659	3698	3698	3698	3738	3738	3738	3738	3738	3738	0	0	0	0	0	0	0	0	0	0	0	4406	4406	4350	4350	4350	4350	4296	4296	4350	4350	4296	4296	4350	4350	0	0	0	0	0	4350	4350	4296	4350	4406	4406	4296	4243	4243	4243	0	0	0	4296	4296	4296	0	0	0	0	0	0	0	0	0	0	0	0	0	0	0	0	0	0	0	0	0	0	0	0	0	0	0	0	0	0	0	0	0	0	0	0	0	0	0	0	0	0	0	0	0	0	0	0	0	0	0	0	0	0	0	0	0	0	0	0	0	0	0	0	0	0	0	0	0	0	0	0	0	0	0	0	0	0	0	0	0	0	0	0	0	2426	2426	2426	2426	2409	2409	2376	2343	2327	2312	2297	2281	2281	2252	2237	2223	2208	2194	2181	2167	2153	2127	2127	2114	2114	2076	2063	2051	2039	2027	2027	2027	2015	2003	1936	1925	1904	1894	1883	1873	1853	1843	1833	1824	1814	1814	1804	1795	1777	1768	1768	1750	1741	1741	1732	1723	1715	1706	1690	1673	1665	1665	1657	1649	1641	1634	1618	1611	1603	1603	1589	1581	1574	1574	1567	1553	1553	1546	1546	1553	1546	1546	1546	1546	1546	1546	1546	1546	1546	1553	1546	1539	1539	1532	1519	1506	1506	1492	1486	1486	1480	1480	1480	1473	1467	1461	1461	1461	1455	1455	0	1161	1161	1161	1157	1157	1153	1153	1157	1157	1157	1157	1157	1157	1153	1150	1146	1142	1131	1116	1116	1113	1113	1113	1113	1113	1109	1105	1105	1105	1102	1102	1102	1102	1102	1102	1098	1098	1098	1098	1098	1098	1098	1095	1095	1095	1095	0	0	0	0	0	0	0	0	0	0	0	0	0	0	0	0	0	0	0	0	0	0	0	0	0	0	0	0	0	0	0	0	0	0	0	0	0	0	0	0	0
0	0	0	0	0	0	0	0	0	0	0	0	0	0	1539	1539	1532	1532	1532	1525	1532	1532	1539	1539	1539	1539	1539	1546	1546	1539	1539	1532	1525	1525	1525	1519	1525	1525	1525	1532	1532	1532	1532	1525	1525	1525	1525	1525	1525	1525	1525	1525	1525	1525	1525	1525	1525	1525	1532	1532	1532	1539	1532	1532	1532	1532	1532	1532	1532	1532	1532	1532	1539	1539	1539	1539	1539	1546	1546	1539	1539	1539	1539	1539	1532	1532	1532	1539	1539	1539	1539	1539	1539	1546	1546	1546	1546	1553	1553	1553	1560	1567	1574	1581	1589	1596	1603	1611	1618	1618	1626	1634	1649	1657	1657	1665	1673	1673	1681	1690	1698	1706	1715	1715	1723	1741	1741	1759	1759	1786	1786	1786	1804	1814	1843	1853	1863	1873	1873	1883	1894	1894	1894	1904	1894	2039	2039	2039	2039	2039	2039	2027	2027	2027	2027	2027	2039	2039	2051	2076	2088	2101	2140	2140	2140	2153	2167	2167	2167	2181	2194	2223	2237	2266	2281	2297	2297	2312	2343	2359	2359	2376	2392	2426	2409	2426	2426	0	0	0	0	0	0	0	0	0	0	0	0	0	0	0	0	0	0	0	0	0	0	0	0	0	0	0	0	0	0	0	0	0	0	0	0	0	0	0	0	0	0	0	0	0	0	0	0	0	0	0	0	0	0	0	0	0	0	0	0	0	0	0	0	0	0	0	0	0	0	0	0	0	0	0	4771	4838	4838	4838	0	0	0	0	3698	3738	3738	3738	3738	3738	3738	3738	3738	3738	3738	3738	3779	3821	3821	3821	3821	0	0	0	0	0	0	0	0	3864	3821	3821	3738	3698	3659	3659	3659	3659	3698	3698	3738	3738	3738	3738	3738	0	0	0	0	0	0	0	0	0	0	0	0	0	0	0	0	0	0	4296	4350	4350	0	0	0	0	0	0	0	0	0	0	0	0	0	4406	4406	0	0	0	0	0	0	0	0	0	0	0	0	0	0	0	0	0	0	0	0	0	0	0	0	0	0	0	0	0	0	0	0	0	0	0	0	0	0	0	0	0	0	0	0	0	0	0	0	0	0	0	0	0	0	0	0	0	0	0	0	0	0	0	0	0	0	0	0	0	0	0	0	0	0	0	0	0	0	0	0	0	0	0	0	0	0	0	0	0	0	0	0	0	0	0	2426	2426	2426	2426	2426	2409	2376	2343	2327	2312	2297	2297	2266	2252	2237	2223	2208	2194	2181	2167	2153	2140	2127	2127	2114	2076	2063	2039	2027	2027	2027	2027	2015	2015	1947	1925	1904	1894	1873	1873	1853	1843	1833	1824	1814	1814	1804	1795	1786	1768	1759	1750	1741	1741	1732	1723	1715	1706	1690	1673	1665	1665	1649	1649	1641	1634	1618	1611	1603	1603	1589	1581	1574	1574	1560	1553	1553	1553	1553	1553	1546	1546	1546	1546	1546	1546	1546	1546	1546	1553	1553	1546	1539	1532	1525	1512	1506	1492	1486	1486	1480	1480	1473	1473	1473	1467	1467	1461	0	0	1161	1161	1157	1157	1153	1150	1146	1150	1153	1153	1153	1157	1157	1157	1150	1146	1146	1142	1120	1116	1116	1113	1113	1113	1113	1109	1109	1105	1102	1102	1102	1098	1098	1098	1098	1098	1098	1098	1098	1098	1098	1098	1095	1095	1095	1095	1095	0	0	0	0	0	0	0	0	0	0	0	0	0	0	0	0	0	0	0	0	0	0	0	0	0	0	0	0	0	0	0	0	0	0	0	0	0	0	0	0	0
0	0	0	0	0	0	0	0	0	0	0	0	0	0	1539	1539	1546	1532	1532	1525	1532	1532	1532	1532	1532	1532	1539	1539	1546	1539	1532	1532	1525	1519	1519	1519	1519	1525	1525	1525	1525	1532	1532	1525	1525	1525	1525	1525	1525	1525	1525	1525	1525	1525	1525	1525	1532	1525	1525	1532	1532	1532	1532	1532	1532	1532	1532	1532	1532	1532	1532	1532	1539	1539	1539	1546	1546	1546	1546	1539	1539	1539	1539	1539	1532	1532	1539	1539	1539	1539	1539	1546	1539	1546	1546	1546	1546	1546	1553	1553	1560	1574	1574	1581	1589	1596	1603	1603	1618	1626	1634	1641	1649	1649	1657	1665	1673	1673	1681	1690	1698	1706	1715	1723	1732	1741	1750	1759	1768	1786	1795	1786	1804	1814	1824	1843	1863	1873	1873	1883	1894	1904	1904	1904	1904	2051	2039	2039	2039	2039	2039	2027	2027	2027	2027	2027	2027	2027	2039	2076	2076	2114	2127	2153	2153	2153	2167	2167	2181	2194	2208	2237	2252	2266	2266	2281	2297	2312	2327	2359	2376	2376	2409	2426	2426	2426	2426	0	0	0	0	0	0	0	0	0	0	0	0	0	0	0	0	0	0	0	0	0	0	0	0	0	0	0	0	0	0	0	0	0	0	0	0	0	0	0	0	0	0	0	0	0	0	0	0	0	0	0	0	0	0	0	0	0	0	0	0	0	0	0	0	0	0	0	0	0	0	0	0	0	0	0	0	0	0	0	0	0	0	0	3698	3738	3738	3738	3738	3738	3698	3738	3738	3738	3738	3738	3779	3779	3821	3821	3821	0	0	0	0	0	0	0	0	0	0	0	0	3698	3659	3621	3621	3659	3698	3698	3738	3738	3738	3738	3738	0	0	0	0	0	0	0	0	0	0	0	0	0	0	0	0	0	0	0	0	0	0	0	0	0	0	0	0	0	0	0	0	0	0	0	0	0	0	0	0	0	0	0	0	0	0	0	0	0	0	0	0	0	0	0	0	0	0	0	0	0	0	0	0	0	0	0	0	0	0	0	0	0	0	0	0	0	0	0	0	0	0	0	0	0	0	0	0	0	0	0	0	0	0	0	0	0	0	0	0	0	0	0	0	0	0	0	0	0	0	0	0	0	0	0	0	0	0	0	0	0	0	0	0	0	0	0	0	0	0	0	0	2443	2443	2426	2426	2409	2392	2359	2327	2312	2297	2297	2281	2252	2237	2223	2208	2194	2181	2181	2167	2140	2127	2127	2114	2076	2063	2051	2027	2027	2027	2027	2015	2003	1947	1925	1904	1894	1883	1873	1853	1843	1824	1824	1814	1814	1804	1795	1786	1768	1759	1750	1741	1741	1732	1723	1715	1706	1690	1681	1673	1665	1657	1649	1641	1634	1618	1618	1611	1603	1589	1581	1574	1574	1553	1553	1553	1546	1546	1553	1546	1546	1546	1546	1546	1546	1539	1546	1539	1553	1553	1546	1539	1539	1525	1525	1512	1499	1486	1486	1486	1473	1473	1473	1473	1467	1467	0	0	1161	1157	1157	1157	1153	1150	1146	1146	1146	1146	1150	1150	1153	1153	1153	1146	1146	1142	1138	1120	1116	1116	1113	1113	1109	1109	1109	1105	1102	1102	1102	1102	1098	1098	1098	1098	1098	1095	1095	1095	1095	1095	1095	1095	1095	1091	1091	1091	0	0	0	0	0	0	0	0	0	0	0	0	0	0	0	0	0	0	0	0	0	0	0	0	0	0	0	0	0	0	0	0	0	0	0	0	0	0	0	0	0
0	0	0	0	0	0	0	0	0	0	0	0	0	0	1539	1539	1546	1532	1532	1525	1532	1532	1532	1532	1532	1539	1539	1539	1546	1539	1532	1525	1525	1519	1519	1519	1519	1525	1525	1525	1525	1525	1532	1525	1525	1532	1532	1525	1525	1519	1525	1525	1525	1525	1525	1532	1525	1525	1525	1532	1532	1532	1525	1532	1532	1532	1525	1525	1525	1525	1525	1525	1539	1539	1539	1539	1546	1546	1546	1539	1539	1539	1539	1539	1539	1539	1539	1539	1539	1539	1539	1546	1539	1546	1546	1553	1553	1553	1553	1560	1560	1567	1567	1581	1589	1596	1603	1611	1618	1626	1634	1641	1641	1649	1649	1657	1665	1673	1681	1698	1706	1715	1715	1723	1732	1741	1750	1759	1768	1795	1804	1804	1814	1814	1824	1843	1863	1883	1873	1883	1894	1904	1904	1915	1904	2039	2039	2039	2051	2039	2039	2027	2027	2027	2027	2027	2039	2039	2039	2063	2088	2114	2127	2140	2153	2153	2167	2181	2181	2194	2208	2237	2252	2266	2281	2281	2297	2312	2343	2376	2376	2392	2409	2426	2426	2426	2426	0	0	0	0	0	0	0	0	0	0	0	0	0	0	0	0	0	0	0	0	0	0	0	0	0	0	0	0	0	0	0	0	0	0	0	0	0	0	0	0	0	0	0	0	0	0	0	0	0	0	0	0	0	0	0	0	0	0	0	0	0	0	0	0	0	0	0	0	0	0	0	0	0	0	0	0	0	0	0	0	0	0	0	0	0	3738	3738	3738	3738	3698	3698	3698	3738	3738	3738	3779	3821	3821	3821	0	0	0	0	0	0	0	0	0	0	0	0	0	3659	3659	3621	3621	3659	3659	3698	3738	3738	3779	3779	3738	0	0	0	0	0	0	0	0	0	0	0	0	0	0	0	0	0	0	0	0	0	0	0	0	0	0	0	0	0	0	0	0	0	0	0	0	0	0	0	0	0	0	0	0	0	0	0	0	0	0	0	0	0	0	0	0	0	0	0	0	0	0	0	0	0	0	0	0	0	0	0	0	0	0	0	0	0	0	0	0	0	0	0	0	0	0	0	0	0	0	0	0	0	0	0	0	0	0	0	0	0	0	0	0	0	0	0	0	0	0	0	0	0	0	0	0	0	0	0	0	0	0	0	0	0	0	0	0	0	0	0	0	2443	2443	2426	2426	2409	2392	2359	2343	2312	2297	2297	2281	2266	2237	2223	2208	2194	2181	2181	2167	2153	2127	2127	2114	2088	2063	2039	2027	2027	2027	2027	2015	1936	1936	1925	1904	1894	1883	1883	1873	1843	1833	1824	1814	1814	1804	1795	1786	1777	1759	1750	1741	1741	1732	1723	1715	1698	1690	1681	1665	1665	1649	1649	1641	1634	1634	1618	1611	1603	1596	1589	1581	1574	1567	1553	1553	1546	1546	1546	1546	1546	1546	1546	1546	1546	1539	1539	1539	1553	1546	1546	1546	1539	1525	1525	1512	1506	1499	1486	1480	1480	1480	1473	1473	0	0	0	0	1161	1157	1153	1150	1150	1146	1146	1142	1146	1146	1146	1146	1146	1150	1150	1146	1142	1138	1131	1123	1116	1113	1113	1109	1109	1109	1105	1102	1102	1102	1102	1098	1098	1098	1098	1095	1095	1095	1095	1095	1095	1095	1095	1095	1091	1091	1091	1091	0	0	0	0	0	0	0	0	0	0	0	0	0	0	0	0	0	0	0	0	0	0	0	0	0	0	0	0	0	0	0	0	0	0	0	0	0	0	0	0	0
0	0	0	0	0	0	0	0	0	0	0	0	0	0	1539	1539	1539	1539	1532	1532	1532	1532	1532	1532	1532	1532	1532	1532	1539	1532	1525	1525	1525	1525	1525	1519	1525	1525	1519	1525	1525	1525	1525	1525	1532	1532	1532	1525	1525	1525	1525	1525	1525	1532	1532	1532	1525	1525	1525	1525	1532	1525	1525	1532	1525	1532	1525	1525	1525	1525	1525	1532	1539	1532	1539	1539	1546	1546	1546	1539	1539	1539	1539	1532	1532	1532	1539	1539	1546	1539	1546	1546	1546	1553	1553	1553	1560	1560	1560	1553	1560	1567	1567	1574	1581	1589	1596	1611	1626	1634	1634	1641	1649	1649	1657	1665	1673	1681	1681	1698	1706	1715	1723	1723	1732	1741	1750	1759	1777	1795	1804	1814	1814	1814	1824	1833	1853	1873	1873	1883	1894	1904	1904	1915	1915	2039	2039	2039	2039	2039	2039	2039	2027	2039	2027	2027	2039	2039	2039	2063	2088	2114	2127	2153	2153	2153	2167	2181	2181	2194	2223	2237	2252	2266	2281	2297	2297	2312	2327	2359	2376	2376	2392	2409	2426	2426	2426	0	0	0	0	0	0	0	0	0	0	0	0	0	0	0	0	0	0	0	0	0	0	0	0	0	0	0	0	0	0	0	0	0	0	0	0	0	0	0	0	0	0	0	0	0	0	0	0	0	0	0	0	0	0	0	0	0	0	0	0	0	0	0	0	0	0	0	0	0	0	0	0	0	0	0	0	0	0	0	0	0	0	0	0	0	0	0	0	0	3698	3698	3698	3738	3738	3738	3738	3738	3738	3821	0	0	0	0	0	0	0	0	0	0	0	0	0	3659	3659	3659	3698	3698	3659	0	3738	3738	3779	3779	0	0	0	0	0	0	0	0	0	0	0	0	0	0	0	0	0	0	0	0	0	0	0	0	0	0	0	0	0	0	0	0	0	0	0	0	0	0	0	0	0	0	0	0	0	0	0	0	0	0	0	0	0	0	0	0	0	0	0	0	0	0	0	0	0	0	0	0	0	0	0	0	0	0	0	0	0	0	0	0	0	0	0	0	0	0	0	0	0	0	0	0	0	0	0	0	0	0	0	0	0	0	0	0	0	0	0	0	0	0	0	0	0	0	0	0	0	0	0	0	0	0	0	0	0	0	0	0	0	0	0	0	0	2443	2443	2443	2426	2409	2392	2359	2343	2312	2297	2297	2281	2266	2237	2223	2223	2194	2181	2181	2167	2153	2127	2114	2114	2088	2051	2039	2027	2027	2015	2015	2015	1936	1925	1915	1904	1894	1894	1883	1883	1853	1833	1824	1824	1814	1804	1804	1795	1786	1768	1759	1750	1741	1732	1723	1715	1698	1681	1681	1665	1665	1649	1641	1634	1634	1626	1618	1611	1603	1589	1581	1581	1574	1567	1553	1553	1546	1546	1546	1546	1546	1546	1546	1546	1546	1539	1539	1539	1553	1553	1553	1546	1539	1532	1532	1519	1506	1506	1499	1480	1480	1480	1480	1473	0	0	0	1161	1157	1153	1150	1150	1150	1146	1142	1142	1142	1142	1146	1146	1146	1146	1146	1142	1142	1134	1127	1120	1116	1113	1113	1109	1109	1105	1102	1102	1102	1098	1102	1098	1098	1095	1098	1095	1095	1095	1095	1095	1091	1095	1091	1091	1088	1088	1088	1088	0	0	0	0	0	0	0	0	0	0	0	0	0	0	0	0	0	0	0	0	0	0	0	0	0	0	0	0	0	0	0	0	0	0	0	0	0	0	0	0	0
0	0	0	0	0	0	0	0	0	0	0	0	0	0	1539	1539	1539	1539	1539	1532	1532	1532	1532	1532	1532	1532	1532	1532	1539	1532	1525	1525	1525	1525	1525	1525	1525	1525	1519	1525	1525	1525	1525	1525	1525	1525	1532	1525	1525	1525	1525	1532	1532	1532	1532	1532	1525	1525	1525	1525	1525	1525	1525	1532	1532	1532	1532	1532	1532	1525	1525	1532	1525	1532	1539	1539	1539	1546	1546	1539	1532	1532	1525	1525	1525	1525	1525	1539	1539	1539	1546	1546	1546	1546	1553	1553	1553	1553	1553	1553	1560	1560	1567	1574	1581	1589	1603	1611	1618	1626	1634	1641	1649	1649	1657	1665	1673	1681	1681	1706	1715	1715	1723	1723	1732	1741	1750	1759	1777	1795	1804	1814	1814	1824	1824	1833	1843	1863	1863	1873	1883	1894	1904	1904	1915	1915	2039	2039	2039	2039	2039	2039	2027	2027	2027	2027	2039	2039	2039	2051	2076	2088	2127	2153	2153	2153	2167	2181	2181	2194	2237	2252	2252	2266	2281	2297	2297	2312	2327	2359	2376	2392	2409	2409	2426	2426	2426	2426	0	0	0	0	0	0	0	0	0	0	0	0	0	0	0	0	0	0	0	0	0	0	0	0	0	0	0	0	0	0	0	0	0	0	0	0	0	0	0	0	0	0	0	0	0	0	0	0	0	0	0	0	0	0	0	0	0	0	0	0	0	0	0	0	0	0	0	0	0	0	0	0	0	0	0	0	0	0	0	0	0	0	0	0	0	0	0	0	0	0	0	3779	3738	3738	3738	3738	3738	3738	0	0	0	0	0	0	0	0	0	0	0	0	0	3621	3621	3659	3698	3698	0	0	0	0	0	0	0	0	0	0	0	0	0	0	0	0	0	0	0	0	0	0	0	0	0	0	0	0	0	0	0	0	0	0	0	0	0	0	0	0	0	0	0	0	0	0	0	0	0	0	0	0	0	0	0	0	0	0	0	0	0	0	0	0	0	0	0	0	0	0	0	0	0	0	0	0	0	0	0	0	0	0	0	0	0	0	0	0	0	0	0	0	0	0	0	0	0	0	0	0	0	0	0	0	0	0	0	0	0	0	0	0	0	0	0	0	0	0	0	0	0	0	0	0	0	0	0	0	0	0	0	0	0	0	0	0	0	0	0	0	2443	2443	2426	2409	2376	2343	2327	2312	2297	2297	2281	2266	2237	2223	2223	2208	2194	2181	2167	2153	2127	2114	2114	2101	2063	2039	2039	2027	2015	2015	2015	1947	1936	1925	1915	1904	1894	1883	1873	1853	1833	1833	1824	1814	1804	1795	1795	1786	1768	1759	1750	1741	1732	1723	1706	1698	1681	1673	1665	1665	1649	1641	1641	1634	1634	1626	1611	1603	1589	1581	1581	1574	1567	1553	1553	1546	1546	1546	1546	1546	1539	1539	1539	1539	1539	1539	1539	1539	1553	1546	1546	1539	1532	1532	1519	1512	1506	1486	1480	1480	1480	1480	0	0	0	0	1161	1157	1153	1150	1150	1146	1146	1142	1142	1142	1142	1142	1142	1142	1142	1142	1142	1138	1131	1123	1120	1113	1113	1113	1109	1109	1105	1102	1102	1098	1098	1098	1098	1098	1095	1098	1095	1095	1091	1091	1091	1091	1091	1088	1088	1088	1088	1088	1088	0	0	0	0	0	0	0	0	0	0	0	0	0	0	0	0	0	0	0	0	0	0	0	0	0	0	0	0	0	0	0	0	0	0	0	0	0	0	0	0	0
0	0	0	0	0	0	0	0	0	0	0	0	0	0	1539	1532	1539	1539	1532	1532	1532	1532	1532	1532	1525	1532	1525	1525	1532	1525	1525	1525	1525	1525	1525	1525	1525	1525	1519	1519	1519	1519	1519	1519	1519	1532	1532	1525	1539	1539	1525	1525	1532	1532	1532	1532	1525	1525	1525	1525	1525	1525	1525	1532	1525	1525	1532	1532	1532	1525	1525	1525	1525	1525	1532	1539	1539	1539	1532	1532	1525	1532	1525	1525	1525	1532	1532	1539	1539	1539	1539	1539	1539	1546	1553	1553	1553	1553	1553	1553	1553	1560	1567	1567	1574	1581	1596	1611	1618	1626	1634	1634	1634	1649	1657	1665	1673	1673	1681	1698	1715	1715	1723	1732	1741	1741	1750	1768	1777	1786	1804	1804	1814	1814	1824	1833	1843	1853	1863	1863	1883	1883	1894	1904	1904	2039	2039	2039	2039	2039	2039	2027	2027	2027	2027	2027	2027	2027	2027	2027	2076	2076	2127	2140	2153	2153	2167	2181	2194	2194	2237	2252	2252	2266	2297	2297	2312	2312	2327	2343	2359	2376	2409	2409	2426	2426	2426	2426	0	0	0	0	0	0	0	0	0	0	0	0	0	0	0	0	0	0	0	0	0	0	0	0	0	0	0	0	0	0	0	0	0	0	0	0	0	0	0	0	0	0	0	0	0	0	0	0	0	0	0	0	0	0	0	0	0	0	0	0	0	0	0	0	0	0	0	0	0	0	0	0	0	0	0	0	0	0	0	0	0	0	0	0	0	0	0	0	0	0	0	3779	3738	3779	3779	3779	3738	3738	0	0	0	0	0	0	0	0	0	0	0	0	0	3621	3621	0	0	0	0	0	0	0	0	0	0	0	0	0	0	0	0	0	0	0	0	0	0	0	0	0	0	0	0	0	0	0	0	0	0	0	0	0	0	0	0	0	0	0	0	0	0	0	0	0	0	0	0	0	0	0	0	0	0	0	0	0	0	0	0	0	0	0	0	0	0	0	0	0	0	0	0	0	0	0	0	0	0	0	0	0	0	0	0	0	0	0	0	0	0	0	0	0	0	0	0	0	0	0	0	0	0	0	0	0	0	0	0	0	0	0	0	0	0	0	0	0	0	0	0	0	0	0	0	0	0	0	0	0	0	0	0	0	0	0	0	0	0	0	2443	2443	2426	2409	2376	2359	2343	2312	2297	2281	2281	2252	2237	2223	2223	2208	2181	2181	2167	2140	2127	2114	2114	2101	2063	2039	2039	2027	2015	2015	2015	1947	1936	1925	1915	1904	1894	1883	1873	1853	1833	1824	1814	1814	1804	1795	1795	1786	1768	1759	1750	1741	1732	1723	1715	1698	1681	1673	1673	1665	1657	1649	1641	1641	1634	1618	1611	1596	1589	1581	1581	1574	1567	1553	1553	1546	1546	1546	1546	1546	1546	1539	1539	1539	1539	1539	1539	1546	1546	1546	1546	1539	1532	1532	1519	1512	1506	1499	1480	1480	1480	1480	1480	0	0	0	1161	1157	1150	1150	1146	1146	1146	1142	1142	1142	1142	1142	1142	1142	1142	1142	1138	1134	1127	1123	1120	1113	1113	1109	1109	1105	1105	1102	1102	1098	1098	1098	1098	1095	1091	1091	1091	1091	1091	1091	1091	1088	1088	1088	1088	1088	1088	1088	1088	0	0	0	0	0	0	0	0	0	0	0	0	0	0	0	0	0	0	0	0	0	0	0	0	0	0	0	0	0	0	0	0	0	0	0	0	0	0	0	0	0
0	0	0	0	0	0	0	0	0	0	0	0	0	0	1532	1532	1532	1532	1532	1532	1532	1532	1532	1532	1532	1532	1525	1525	1525	1525	1525	1519	1525	1525	1525	1525	1525	1519	1519	1519	1519	1519	1519	1519	1519	1532	1539	1539	1539	1539	1539	1532	1532	1539	1532	1532	1525	1525	1525	1525	1525	1525	1525	1525	1525	1525	1525	1525	1525	1525	1525	1525	1525	1532	1539	1539	1546	1546	1539	1532	1525	1532	1525	1532	1532	1532	1532	1546	1539	1539	1539	1539	1539	1546	1546	1546	1553	1546	1546	1553	1553	1560	1560	1567	1574	1581	1596	1611	1618	1626	1634	1634	1641	1641	1657	1665	1673	1673	1681	1706	1715	1715	1732	1732	1741	1750	1759	1768	1786	1786	1804	1804	1814	1814	1824	1824	1843	1843	1863	1873	1883	1883	1883	1894	1894	2039	2039	2039	2039	2039	2039	2027	2027	2027	2027	2027	2027	2027	2027	2027	2076	2088	2127	2140	2153	2153	2167	2167	2194	2208	2237	2252	2266	2266	2297	2297	2312	2312	2327	2343	2343	2376	2392	2409	2426	2426	2426	2426	0	0	0	0	0	0	0	0	0	0	0	0	0	0	0	0	0	0	0	0	0	0	0	0	0	0	0	0	0	0	0	0	0	0	0	0	0	0	0	0	0	0	0	0	0	0	0	0	0	0	0	0	0	0	0	0	0	0	0	0	0	0	0	0	0	0	0	0	0	0	0	0	0	0	0	0	0	0	0	0	0	0	0	0	0	0	0	0	0	0	0	0	3738	3779	3779	3779	3738	3738	0	0	0	0	0	0	0	0	0	0	0	0	0	0	0	0	0	0	0	0	0	0	0	0	0	0	0	0	0	0	0	0	0	0	0	0	0	0	0	0	0	0	0	0	0	0	0	0	0	0	0	0	0	0	0	0	0	0	0	0	0	0	0	0	0	0	0	0	0	0	0	0	0	0	0	0	0	0	0	0	0	0	0	0	0	0	0	0	0	0	0	0	0	0	0	0	0	0	0	0	0	0	0	0	0	0	0	0	0	0	0	0	0	0	0	0	0	0	0	0	0	0	0	0	0	0	0	0	0	0	0	0	0	0	0	0	0	0	0	0	0	0	0	0	0	0	0	0	0	0	0	0	0	0	0	0	0	0	2443	2443	2426	2409	2376	2359	2343	2312	2297	2281	2266	2252	2237	2223	2223	2208	2181	2167	2153	2140	2127	2114	2101	2101	2076	2051	2039	2027	2027	2015	2015	2003	1936	1925	1915	1904	1894	1883	1873	1863	1843	1833	1824	1814	1804	1795	1795	1777	1777	1759	1750	1741	1732	1723	1715	1698	1681	1673	1665	1665	1657	1649	1641	1634	1634	1618	1611	1603	1589	1581	1581	1574	1567	1560	1553	1546	1546	1546	1546	1546	1539	1539	1532	1539	1539	1539	1539	1546	1546	1546	1546	1539	1532	1532	1519	1512	1506	1499	1486	1480	1480	1480	1480	0	0	0	1157	1153	1150	1150	1146	1146	1142	1142	1138	1138	1142	1142	1142	1138	1138	1138	1138	1134	1127	1120	1120	1113	1113	1113	1109	1105	1105	1102	1098	1098	1095	1095	1095	1091	1091	1091	1091	1091	1091	1091	1091	1088	1088	1088	1088	1088	1088	1088	1088	0	0	0	0	0	0	0	0	0	0	0	0	0	0	0	0	0	0	0	0	0	0	0	0	0	0	0	0	0	0	0	0	0	0	0	0	0	0	0	0	0
0	0	0	0	0	0	0	0	0	0	0	0	0	0	1546	1532	1532	1532	1532	1525	1532	1532	1532	1532	1532	1532	1532	1532	1525	1525	1525	1519	1519	1525	1525	1525	1525	1519	1519	1519	1519	1519	1519	1519	1519	1532	1532	1532	1539	1539	1525	1532	1539	1539	1539	1532	1525	1525	1525	1525	1525	1525	1525	1525	1525	1525	1525	1532	1525	1525	1525	1525	1525	1532	1532	1532	1546	1546	1546	1539	1525	1532	1532	1532	1532	1539	1546	1546	1546	1546	1546	1546	1539	1546	1546	1546	1546	1546	1539	1553	1553	1553	1560	1567	1574	1581	1589	1603	1611	1618	1634	1641	1641	1641	1649	1665	1673	1673	1673	1706	1723	1723	1732	1741	1750	1750	1768	1768	1786	1786	1804	1804	1804	1814	1824	1824	1824	1833	1873	1883	1894	1894	1894	1894	1915	1915	2039	2039	2039	2039	2039	2027	2027	2027	2027	2027	2027	2027	2039	2051	2076	2088	2114	2127	2140	2140	2153	2167	2194	2223	2237	2252	2266	2281	2297	2312	2312	2327	2327	2327	2343	2359	2376	2376	2409	2426	2426	0	0	0	0	0	0	0	0	0	0	0	0	0	0	0	0	0	0	0	0	0	0	0	0	0	0	0	0	0	0	0	0	0	0	0	0	0	0	0	0	0	0	0	0	0	0	0	0	0	0	0	0	0	0	0	0	0	0	0	0	0	0	0	0	0	0	0	0	0	0	0	0	0	0	0	0	0	0	0	0	0	0	0	0	0	0	0	0	0	0	0	0	0	0	0	0	0	0	0	0	0	0	0	0	0	0	0	0	0	0	0	0	0	0	0	0	0	0	0	0	0	0	0	0	0	0	0	0	0	0	0	0	0	0	0	0	0	0	0	0	0	0	0	0	0	0	0	0	0	0	0	0	0	0	0	0	0	0	0	0	0	0	0	0	0	0	0	0	0	0	0	0	0	0	0	0	0	0	0	0	0	0	0	0	0	0	0	0	0	0	0	0	0	0	0	0	0	0	0	0	0	0	0	0	0	0	0	0	0	0	0	0	0	0	0	0	0	0	0	0	0	0	0	0	0	0	0	0	0	0	0	0	0	0	0	0	0	0	0	0	0	0	0	0	0	0	0	0	0	0	0	0	0	0	0	0	0	2443	2443	2426	2409	2376	2359	2327	2312	2297	2281	2266	2252	2237	2223	2223	2208	2181	2167	2153	2140	2127	2114	2101	2088	2076	2051	2039	2027	2015	2015	2003	1969	1936	1925	1915	1904	1894	1883	1883	1873	1843	1833	1824	1814	1804	1795	1795	1777	1777	1759	1750	1732	1732	1715	1715	1698	1681	1673	1665	1657	1649	1641	1634	1634	1626	1611	1611	1603	1589	1581	1581	1574	1574	1567	1553	1546	1546	1546	1546	1546	1539	1539	1539	1539	1539	1539	1539	1546	1546	1546	1546	1539	1539	1532	1519	1512	1506	1499	1486	1480	1473	1473	0	0	1161	1161	1153	1150	1150	1146	1146	1142	1142	1138	1138	1138	1138	1138	1138	1138	1134	1134	1134	1131	1127	1123	1120	1113	1113	1109	1105	1102	1102	1098	1098	1095	1095	1095	1091	1091	1088	1088	1088	1091	1088	1091	1088	1088	1088	1088	1088	1088	1088	1088	1088	0	0	0	0	0	0	0	0	0	0	0	0	0	0	0	0	0	0	0	0	0	0	0	0	0	0	0	0	0	0	0	0	0	0	0	0	0	0	0	0	0
0	0	0	0	0	0	0	0	0	0	0	0	0	0	1532	1532	1532	1532	1532	1532	1532	1532	1532	1532	1532	1539	1532	1532	1525	1525	1525	1525	1525	1525	1525	1525	1525	1525	1519	1519	1519	1519	1519	1519	1519	1519	1525	1525	1539	1539	1525	1546	1539	1539	1539	1539	1532	1525	1525	1525	1525	1525	1525	1525	1525	1525	1525	1525	1525	1525	1525	1525	1525	1525	1532	1532	1532	1532	1539	1532	1525	1532	1532	1532	1525	1525	1539	1546	1539	1539	1539	1546	1539	1546	1546	1546	1546	1546	1539	1553	1553	1553	1560	1567	1567	1581	1589	1603	1611	1618	1626	1641	1641	1641	1649	1665	1673	1673	1673	1698	1715	1715	1732	1741	1750	1759	1768	1777	1777	1786	1804	1804	1814	1814	1824	1824	1824	1833	1863	1883	1894	1894	1894	1915	1915	1915	2027	2039	2039	2039	2039	2039	2027	2027	2027	2027	2039	2039	2039	2063	2076	2076	2114	2127	2140	2153	2167	2167	2194	2208	2223	2237	2252	2266	2297	2297	2312	2312	2327	2327	2327	2343	2376	2376	2409	0	0	0	0	0	0	0	0	0	0	0	0	0	0	0	0	0	0	0	0	0	0	0	0	0	0	0	0	0	0	0	0	0	0	0	0	0	0	0	0	0	0	0	0	0	0	0	0	0	0	0	0	0	0	0	0	0	0	0	0	0	0	0	0	0	0	0	0	0	0	0	0	0	0	0	0	0	0	0	0	0	0	0	0	0	0	0	0	0	0	0	0	0	0	0	0	0	0	0	0	0	0	0	0	0	0	0	0	0	0	0	0	0	0	0	0	0	0	0	0	0	0	0	0	0	0	0	0	0	0	0	0	0	0	0	0	0	0	0	0	0	0	0	0	0	0	0	0	0	0	0	0	0	0	0	0	0	0	0	0	0	0	0	0	0	0	0	0	0	0	0	0	0	0	0	0	0	0	0	0	0	0	0	0	0	0	0	0	0	0	0	0	0	0	0	0	0	0	0	0	0	0	0	0	0	0	0	0	0	0	0	0	0	0	0	0	0	0	0	0	0	0	0	0	0	0	0	0	0	0	0	0	0	0	0	0	0	0	0	0	0	0	0	0	0	0	0	0	0	0	0	0	0	0	0	0	0	0	0	2443	2443	2426	2409	2392	2359	2343	2312	2297	2281	2266	2252	2237	2223	2223	2194	2181	2167	2153	2140	2127	2114	2101	2101	2076	2051	2039	2027	2015	2015	2003	1992	1936	1925	1915	1904	1894	1883	1873	1863	1843	1833	1824	1814	1804	1795	1786	1777	1777	1759	1750	1732	1723	1715	1706	1698	1698	1673	1673	1665	1657	1649	1641	1634	1626	1618	1603	1596	1589	1581	1581	1574	1574	1567	1553	1546	1546	1546	1546	1546	1539	1539	1539	1539	1539	1539	1539	1546	1546	1546	1546	1539	1539	1532	1512	1506	1506	1499	1492	1480	1473	1473	0	0	1157	1157	1150	1150	1146	1146	1146	1142	1142	1138	1138	1138	1138	1138	1138	1134	1134	1134	1131	1127	1123	1120	1116	1116	1109	1105	1102	1098	1098	1098	1095	1095	1091	1091	1091	1091	1088	1088	1088	1088	1088	1088	1088	1088	1088	1088	1088	1088	1088	1088	1088	0	0	0	0	0	0	0	0	0	0	0	0	0	0	0	0	0	0	0	0	0	0	0	0	0	0	0	0	0	0	0	0	0	0	0	0	0	0	0	0	0
0	0	0	0	0	0	0	0	0	0	0	0	0	0	1532	1525	1525	1532	1532	1532	1532	1532	1532	1532	1532	1532	1532	1532	1525	1525	1525	1525	1525	1525	1525	1525	1525	1525	1519	1519	1519	1519	1519	1519	1519	1519	1525	1525	1539	1539	1525	1539	1539	1539	1532	1539	1525	1525	1525	1525	1525	1525	1525	1525	1525	1525	1525	1539	1525	1525	1525	1525	1525	1525	1525	1532	1532	1539	1539	1532	1525	1525	1525	1525	1525	1525	1539	1546	1539	1539	1539	1539	1539	1546	1546	1546	1539	1539	1539	1553	1553	1553	1560	1567	1567	1581	1589	1603	1618	1626	1634	1641	1641	1649	1649	1665	1673	1673	1681	1698	1715	1723	1732	1741	1741	1759	1768	1777	1786	1786	1795	1804	1814	1814	1824	1833	1833	1853	1863	1883	1894	1894	1915	1925	1925	1925	2027	2039	2039	2039	2039	2027	2027	2027	2027	2027	2039	2039	2039	2076	2076	2101	2114	2127	2140	2153	2167	2181	2194	2208	2223	2237	2237	2281	2297	2297	2312	2312	2312	2327	2327	2343	2376	2376	0	0	0	0	0	0	0	0	0	0	0	0	0	0	0	0	0	0	0	0	0	0	0	0	0	0	0	0	0	0	0	0	0	0	0	0	0	0	0	0	0	0	0	0	0	0	0	0	0	0	0	0	0	0	0	0	0	0	0	0	0	0	0	0	0	0	0	0	0	0	0	0	0	0	0	0	0	0	0	0	0	0	0	0	0	0	0	0	0	0	0	0	0	0	0	0	0	0	0	0	0	0	0	0	0	0	0	0	0	0	0	0	0	0	0	0	0	0	0	0	0	0	0	0	0	0	0	0	0	0	0	0	0	0	0	0	0	0	0	0	0	0	0	0	0	0	0	0	0	0	0	0	0	0	0	0	0	0	0	0	0	0	0	0	0	0	0	0	0	0	0	0	0	0	0	0	0	0	0	0	0	0	0	0	0	0	0	0	0	0	0	0	0	0	0	0	0	0	0	0	0	0	0	0	0	0	0	0	0	0	0	0	0	0	0	0	0	0	0	0	0	0	0	0	0	0	0	0	0	0	0	0	0	0	0	0	0	0	0	0	0	0	0	0	0	0	0	0	0	0	0	0	0	0	0	0	0	2460	2460	2443	2443	2443	2426	2409	2376	2359	2343	2312	2297	2281	2266	2252	2237	2223	2208	2194	2181	2167	2153	2140	2127	2114	2114	2101	2076	2051	2039	2027	2027	2015	2015	2003	1936	1925	1904	1894	1894	1873	1863	1863	1843	1833	1833	1814	1804	1795	1786	1777	1777	1750	1741	1732	1723	1715	1715	1706	1698	1681	1673	1665	1657	1649	1641	1634	1626	1618	1603	1596	1589	1581	1581	1574	1574	1567	1553	1546	1546	1546	1546	1546	1539	1539	1539	1539	1539	1539	1539	1546	1546	1546	1546	1546	1539	1532	1519	1512	1499	1492	1480	1480	1473	1473	0	1161	1157	1157	1150	1150	1146	1146	1142	1142	1142	1138	1138	1134	1138	1138	1131	1131	1131	1131	1127	1123	1120	1120	1116	1116	1109	1105	1102	1098	1098	1098	1095	1095	1091	1091	1088	1088	1088	1088	1088	1088	1088	1088	1088	1088	1088	1088	1088	1088	1088	1088	1088	0	0	0	0	0	0	0	0	0	0	0	0	0	0	0	0	0	0	0	0	0	0	0	0	0	0	0	0	0	0	0	0	0	0	0	0	0	0	0	0	0
0	0	0	0	0	0	0	0	0	0	0	0	0	0	1525	1525	1525	1532	1525	1525	1525	1525	1525	1525	1525	1532	1532	1539	1532	1525	1525	1525	1525	1525	1519	1525	1519	1519	1519	1519	1519	1519	1519	1519	1525	1525	1525	1525	1539	1539	1525	1539	1539	1532	1532	1539	1532	1532	1525	1525	1525	1525	1525	1525	1525	1525	1525	1539	1532	1525	1525	1525	1525	1525	1525	1525	1532	1539	1539	1525	1525	1525	1525	1525	1525	1525	1539	1546	1546	1546	1539	1539	1539	1546	1546	1539	1539	1532	1539	1546	1553	1553	1560	1574	1574	1581	1596	1611	1618	1626	1641	1649	1641	1649	1657	1673	1673	1673	1681	1698	1706	1715	1732	1741	1750	1759	1777	1777	1786	1786	1795	1804	1814	1814	1833	1833	1843	1853	1863	1883	1894	1925	1925	1936	1936	2015	2027	2027	2027	2039	2027	2027	2027	2027	2027	2027	2039	2039	2051	2076	2076	2101	2114	2127	2127	2153	2181	2181	2181	2208	2223	2223	2237	2266	2281	2297	2312	2312	2312	2327	2327	2343	2376	2376	0	0	0	0	0	0	0	0	0	0	0	0	0	0	0	0	0	0	0	0	0	0	0	0	0	0	0	0	0	0	0	0	0	0	0	0	0	0	0	0	0	0	0	0	0	0	0	0	0	0	0	0	0	0	0	0	0	0	0	0	0	0	0	0	0	0	0	0	0	0	0	0	0	0	0	0	0	0	0	0	0	0	0	0	0	0	0	0	0	0	0	0	0	0	0	0	0	0	0	0	0	0	0	0	0	0	0	0	0	0	0	0	0	0	0	0	0	0	0	0	0	0	0	0	0	0	0	0	0	0	0	0	0	0	0	0	0	0	0	0	0	0	0	0	0	0	0	0	0	0	0	0	0	0	0	0	0	0	0	0	0	0	0	0	0	0	0	0	0	0	0	0	0	0	0	0	0	0	0	0	0	0	0	0	0	0	0	0	0	0	0	0	0	0	0	0	0	0	0	0	0	0	0	0	0	0	0	0	0	0	0	0	0	0	0	0	0	0	0	0	0	0	0	0	0	0	0	0	0	0	0	0	0	0	0	0	0	0	0	0	0	0	0	0	0	0	0	0	0	0	0	0	0	0	0	0	0	2460	2460	2443	2443	2426	2426	2409	2392	2376	2343	2312	2297	2281	2266	2252	2237	2223	2223	2208	2181	2167	2153	2140	2127	2127	2114	2101	2088	2076	2051	2039	2027	2027	2015	2015	2003	1925	1915	1894	1894	1873	1863	1853	1853	1833	1824	1814	1804	1804	1795	1786	1777	1750	1741	1732	1723	1715	1715	1706	1698	1681	1673	1665	1657	1649	1641	1634	1626	1618	1603	1596	1589	1589	1581	1574	1574	1567	1560	1553	1546	1546	1546	1546	1539	1539	1532	1539	1539	1539	1539	1546	1546	1546	1546	1546	1539	1532	1512	1506	1499	1492	1492	1480	1480	1480	0	1161	1157	1153	1150	1146	1146	1142	1142	1138	1138	1131	1131	1131	1131	1131	1127	1127	1127	1127	1123	1123	1120	1120	1116	1113	1109	1105	1102	1098	1098	1095	1095	1091	1091	1091	1088	1088	1088	1088	1088	1088	1088	1088	1088	1088	1088	1088	1088	1085	1088	1088	1088	0	0	0	0	0	0	0	0	0	0	0	0	0	0	0	0	0	0	0	0	0	0	0	0	0	0	0	0	0	0	0	0	0	0	0	0	0	0	0	0	0
0	0	0	0	0	0	0	0	0	0	0	0	0	0	1525	1525	1525	1525	1525	1525	1525	1525	1525	1525	1525	1525	1532	1532	1525	1525	1525	1525	1525	1525	1519	1525	1525	1525	1525	1519	1519	1519	1519	1519	1539	1525	1525	1525	1539	1539	1525	1539	1525	1532	1539	1539	1532	1532	1532	1525	1525	1525	1532	1525	1532	1532	1532	1532	1532	1525	1532	1532	1532	1532	1532	1532	1532	1539	1539	1532	1532	1532	1532	1525	1525	1539	1546	1546	1546	1546	1539	1539	1539	1546	1546	1539	1532	1532	1539	1546	1553	1553	1560	1567	1581	1596	1603	1611	1618	1618	1626	1641	1641	1649	1657	1657	1673	1673	1681	1698	1706	1715	1723	1741	1750	1759	1777	1777	1786	1795	1795	1804	1814	1824	1833	1843	1843	1853	1863	1894	1915	1925	1936	1936	1947	2015	2027	2027	2027	2027	2027	2027	2027	2027	2027	2027	2039	2051	2051	2076	2088	2101	2114	2114	2127	2153	2153	2194	2223	2223	2223	2237	2252	2252	2281	2297	2312	2312	2312	2327	2327	2376	2376	2392	2392	0	0	0	0	0	0	0	0	0	0	0	0	0	0	0	0	0	0	0	0	0	0	0	0	0	0	0	0	0	0	0	0	0	0	0	0	0	0	0	0	0	0	0	0	0	0	0	0	0	0	0	0	0	0	0	0	0	0	0	0	0	0	0	0	0	0	0	0	0	0	0	0	0	0	0	0	0	0	0	0	0	0	0	0	0	0	0	0	0	0	0	0	0	0	0	0	0	0	0	0	0	0	0	0	0	0	0	0	0	0	0	0	0	0	0	0	0	0	0	0	0	0	0	0	0	0	0	0	0	0	0	0	0	0	0	0	0	0	0	0	0	0	0	0	0	0	0	0	0	0	0	0	0	0	0	0	0	0	0	0	0	0	0	0	0	0	0	0	0	0	0	0	0	0	0	0	0	0	0	0	0	0	0	0	0	0	0	0	0	0	0	0	0	0	0	0	0	0	0	0	0	0	0	0	0	0	0	0	0	0	0	0	0	0	0	0	0	0	0	0	0	0	0	0	0	0	0	0	0	0	0	0	0	0	0	0	0	0	0	0	0	0	0	0	0	0	0	0	0	0	0	0	0	0	0	0	2478	2460	2443	2443	2426	2409	2409	2392	2376	2343	2327	2297	2266	2252	2252	2237	2237	2223	2208	2194	2167	2153	2140	2127	2127	2114	2101	2088	2076	2051	2039	2027	2027	2015	2015	2003	1947	1925	1904	1904	1863	1863	1853	1853	1833	1824	1814	1804	1795	1795	1777	1777	1750	1741	1732	1723	1715	1706	1706	1698	1681	1673	1673	1665	1657	1641	1634	1626	1611	1603	1596	1589	1589	1581	1574	1574	1567	1560	1553	1546	1546	1546	1539	1539	1539	1532	1539	1539	1539	1539	1546	1546	1546	1546	1546	1546	1532	1512	1512	1499	1492	1492	1480	1480	1480	1157	1157	1157	1153	1150	1146	1146	1142	1138	1138	1134	1131	1131	1127	1127	1123	1123	1123	1123	1123	1123	1120	1120	1120	1116	1113	1105	1102	1098	1098	1095	1095	1095	1091	1091	1088	1088	1088	1088	1088	1088	1088	1088	1088	1088	1088	1088	1088	1085	1085	1085	1085	1085	0	0	0	0	0	0	0	0	0	0	0	0	0	0	0	0	0	0	0	0	0	0	0	0	0	0	0	0	0	0	0	0	0	0	0	0	0	0	0	0	0
0	0	0	0	0	0	0	0	0	0	0	0	0	0	1525	1525	1525	1525	1525	1525	1525	1525	1525	1532	1532	1532	1539	1539	1532	1532	1525	1525	1525	1525	1519	1525	1525	1525	1525	1525	1525	1525	1525	1525	1525	1525	1525	1525	1525	1525	1525	1525	1525	1532	1532	1539	1532	1532	1525	1525	1525	1525	1525	1525	1532	1532	1532	1532	1532	1525	1532	1532	1532	1539	1532	1532	1539	1546	1532	1532	1525	1525	1532	1532	1532	1532	1539	1539	1539	1546	1539	1539	1539	1539	1539	1539	1539	1532	1539	1546	1553	1553	1560	1567	1581	1596	1603	1611	1618	1618	1626	1634	1641	1649	1657	1673	1673	1673	1681	1690	1706	1715	1723	1741	1750	1768	1777	1777	1786	1795	1795	1804	1814	1824	1833	1843	1853	1853	1863	1894	1904	1915	1925	1936	1947	1947	2015	2027	2027	2027	2027	2027	2027	2027	2027	2027	2039	2051	2063	2076	2088	2101	2101	2114	2127	2153	2181	2181	2208	2223	2237	2237	2237	2252	2266	2281	2312	2312	2327	2376	2392	2392	2392	2392	2392	0	0	0	0	0	0	0	0	0	0	0	0	0	0	0	0	0	0	0	0	0	0	0	0	0	0	0	0	0	0	0	0	0	0	0	0	0	0	0	0	0	0	0	0	0	0	0	0	0	0	0	0	0	0	0	0	0	0	0	0	0	0	0	0	0	0	0	0	0	0	0	0	0	0	0	0	0	0	0	0	0	0	0	0	0	0	0	0	0	0	0	0	0	0	0	0	0	0	0	0	0	0	0	0	0	0	0	0	0	0	0	0	0	0	0	0	0	0	0	0	0	0	0	0	0	0	0	0	0	0	0	0	0	0	0	0	0	0	0	0	0	0	0	0	0	0	0	0	0	0	0	0	0	0	0	0	0	0	0	0	0	0	0	0	0	0	0	0	0	0	0	0	0	0	0	0	0	0	0	0	0	0	0	0	0	0	0	0	0	0	0	0	0	0	0	0	0	0	0	0	0	0	0	0	0	0	0	0	0	0	0	0	0	0	0	0	0	0	0	0	0	0	0	0	0	0	0	0	0	0	0	0	0	0	0	0	0	0	0	0	0	0	0	0	0	0	0	0	0	0	0	0	0	0	2478	2478	2478	2460	2443	2443	2426	2409	2409	2392	2359	2343	2327	2312	2281	2266	2252	2237	2237	2223	2208	2194	2181	2153	2140	2127	2114	2101	2088	2076	2076	2051	2039	2027	2027	2015	2015	2015	2003	2027	2027	1863	1863	1853	1853	1853	1843	1843	1814	1804	1804	1795	1786	1777	1750	1741	1732	1723	1715	1706	1706	1698	1690	1673	1673	1665	1657	1641	1634	1626	1618	1603	1596	1596	1589	1581	1581	1574	1574	1560	1553	1546	1546	1539	1539	1539	1539	1539	1539	1539	1539	1539	1546	1546	1546	1546	1546	1539	1539	1525	1525	0	0	0	0	0	0	1161	1157	1157	1153	1150	1146	1142	1142	1138	1134	1134	1131	1131	1127	1123	1123	1123	1123	1123	1123	1120	1120	1116	1120	1116	1113	1105	1102	1098	1095	1095	1095	1091	1091	1091	1088	1088	1088	1088	1088	1085	1085	1085	1088	1088	1088	1085	1085	1085	1085	1085	1085	1085	0	0	0	0	0	0	0	0	0	0	0	0	0	0	0	0	0	0	0	0	0	0	0	0	0	0	0	0	0	0	0	0	0	0	0	0	0	0	0	0	0
0	0	0	0	0	0	0	0	0	0	0	0	0	0	1525	1525	1525	1532	1525	1525	1525	1525	1525	1532	1525	1525	1532	1532	1532	1532	1525	1525	1525	1525	1525	1525	1525	1525	1525	1532	1525	1525	1525	1525	1525	1519	1519	1519	1525	1525	1525	1525	1525	1532	1532	1539	1525	1525	1525	1525	1525	1532	1532	1525	1532	1532	1532	1532	1532	1532	1532	1532	1532	1532	1532	1525	1532	1539	1539	1532	1532	1532	1532	1532	1532	1532	1539	1532	1539	1539	1539	1539	1532	1539	1539	1539	1539	1539	1539	1546	1553	1560	1567	1567	1581	1589	1603	1603	1618	1618	1626	1641	1649	1649	1657	1665	1673	1673	1690	1698	1706	1715	1723	1741	1750	1759	1777	1777	1786	1795	1795	1804	1824	1824	1833	1843	1843	1853	1863	1863	1894	1904	1936	1936	1947	1947	2015	2027	2027	2027	2027	2027	2027	2027	2027	2027	2039	2039	2076	2088	2101	2101	2114	2114	2127	2153	2181	2181	2208	2223	2237	2237	2237	2252	2266	2266	2297	2327	2359	2376	2392	2392	2392	2392	2409	2409	0	0	0	0	0	0	0	0	0	0	0	0	0	0	0	0	0	0	0	0	0	0	0	0	0	0	0	0	0	0	0	0	0	0	0	0	0	0	0	0	0	0	0	0	0	0	0	0	0	0	0	0	0	0	0	0	0	0	0	0	0	0	0	0	0	0	0	0	0	0	0	0	0	0	0	0	0	0	0	0	0	0	0	0	0	0	0	0	0	0	0	0	0	0	0	0	0	0	0	0	0	0	0	0	0	0	0	0	0	0	0	0	0	0	0	0	0	0	0	0	0	0	0	0	0	0	0	0	0	0	0	0	0	0	0	0	0	0	0	0	0	0	0	0	0	0	0	0	0	0	0	0	0	0	0	0	0	0	0	0	0	0	0	0	0	0	0	0	0	0	0	0	0	0	0	0	0	0	0	0	0	0	0	0	0	0	0	0	0	0	0	0	0	0	0	0	0	0	0	0	0	0	0	0	0	0	0	0	0	0	0	0	0	0	0	0	0	0	0	0	0	0	0	0	0	0	0	0	0	0	0	0	0	0	0	0	0	0	0	0	0	0	0	0	0	0	0	0	0	0	0	0	0	2478	2478	2478	2443	2443	2426	2409	2409	2392	2376	2359	2343	2327	2312	2281	2266	2252	2237	2237	2223	2208	2194	2181	2153	2140	2114	2101	2088	2088	2076	2076	2051	2039	2027	2027	2015	2015	2015	2015	2015	2003	2003	1853	1853	1853	1853	1843	1833	1833	1824	1814	1804	1795	1777	1741	1741	1732	1715	1715	1706	1698	1698	1690	1673	1673	1665	1649	1641	1634	1626	1618	1603	1603	1596	1589	1581	1581	1574	1567	1560	1553	1546	1546	1539	1539	1539	1532	1532	1532	1539	1539	1539	1546	1546	1546	1546	1546	1546	1539	1532	1532	0	0	0	0	0	0	1161	1157	1157	1153	1146	1146	1142	1138	1134	1134	1131	1131	1127	1123	1123	1120	1120	1123	1120	1120	1120	1120	1116	1116	1116	1113	1109	1102	1098	1095	1095	1095	1091	1091	1088	1088	1088	1088	1088	1088	1085	1085	1085	1085	1088	1085	1085	1085	1085	1085	1085	1085	1085	0	0	0	0	0	0	0	0	0	0	0	0	0	0	0	0	0	0	0	0	0	0	0	0	0	0	0	0	0	0	0	0	0	0	0	0	0	0	0	0	0
0	0	0	0	0	0	0	0	0	0	0	0	0	0	1525	1525	1525	1532	1532	1525	1525	1525	1525	1525	1525	1525	1532	1532	1532	1532	1525	1525	1525	1525	1525	1525	1525	1532	1532	1532	1525	1532	1525	1525	1525	1525	1525	1525	1525	1525	1525	1525	1525	1525	1525	1525	1525	1525	1525	1525	1532	1532	1532	1525	1532	1532	1532	1532	1532	1532	1532	1532	1532	1539	1539	1539	1539	1539	1539	1539	1532	1532	1532	1532	1532	1532	1532	1532	1532	1539	1539	1539	1532	1539	1539	1546	1539	1539	1539	1546	1553	1553	1560	1567	1581	1589	1603	1611	1618	1618	1626	1634	1641	1649	1657	1657	1665	1673	1690	1698	1706	1715	1723	1741	1750	1759	1777	1777	1786	1795	1795	1804	1824	1824	1833	1843	1843	1853	1863	1863	1904	1915	1936	1947	1958	1958	2027	2027	2027	2027	2027	2027	2027	2027	2039	2039	2051	2076	2076	2088	2101	2101	2114	2114	2127	2127	2167	2194	2208	2223	2223	2237	2237	2237	2252	2266	2297	2327	2359	2376	2392	2392	2392	2392	2409	2409	2409	0	0	0	0	0	0	0	0	0	0	0	0	0	0	0	0	0	0	0	0	0	0	0	0	0	0	0	0	0	0	0	0	0	0	0	0	0	0	0	0	0	0	0	0	0	0	0	0	0	0	0	0	0	0	0	0	0	0	0	0	0	0	0	0	0	0	0	0	0	0	0	0	0	0	0	0	0	0	0	0	0	0	0	0	0	0	0	0	0	0	0	0	0	0	0	0	0	0	0	0	0	0	0	0	0	0	0	0	0	0	0	0	0	0	0	0	0	0	0	0	0	0	0	0	0	0	0	0	0	0	0	0	0	0	0	0	0	0	0	0	0	0	0	0	0	0	0	0	0	0	0	0	0	0	0	0	0	0	0	0	0	0	0	0	0	0	0	0	0	0	0	0	0	0	0	0	0	0	0	0	0	0	0	0	0	0	0	0	0	0	0	0	0	0	0	0	0	0	0	0	0	0	0	0	0	0	0	0	0	0	0	0	0	0	0	0	0	0	0	0	0	0	0	0	0	0	0	0	0	0	0	0	0	0	0	0	0	0	0	0	0	0	0	0	0	0	0	0	0	0	0	0	2478	2478	2478	2443	2426	2426	2409	2392	2376	2376	2359	2343	2327	2312	2297	2266	2252	2252	2237	2223	2208	2194	2181	2153	2127	2114	2101	2088	2088	2088	2076	2051	2051	2027	2027	2015	2015	2015	2015	2015	2015	2003	2003	1980	1873	1873	1873	1853	1843	1833	1824	1804	1795	1786	1750	1741	1732	1715	1715	1706	1698	1698	1690	1681	1673	1665	1657	1641	1634	1626	1618	1611	1603	1596	1589	1581	1581	1574	1574	1567	1560	1546	1546	1539	1539	1539	1539	1539	1539	1539	1539	1539	1546	1546	1546	1546	1546	1539	1532	1525	1525	0	0	0	0	0	0	1161	1157	1157	1153	1146	1146	1142	1138	1134	1131	1131	1127	1127	1123	1120	1120	1120	1120	1120	1120	1116	1116	1116	1116	1113	1113	1105	1102	1098	1095	1095	1091	1091	1091	1088	1088	1088	1088	1088	1088	1085	1085	1085	1085	1085	1088	1085	1085	1085	1085	1085	1085	1085	0	0	0	0	0	0	0	0	0	0	0	0	0	0	0	0	0	0	0	0	0	0	0	0	0	0	0	0	0	0	0	0	0	0	0	0	0	0	0	0	0
0	0	0	0	0	0	0	0	0	0	0	0	0	0	1532	1532	1532	1532	1532	1525	1525	1525	1525	1525	1525	1532	1539	1539	1539	1532	1532	1532	1532	1532	1525	1525	1532	1532	1532	1539	1525	1525	1525	1525	1525	1525	1525	1525	1525	1525	1525	1525	1525	1525	1525	1532	1525	1525	1525	1525	1532	1532	1532	1532	1532	1532	1532	1532	1532	1532	1532	1532	1539	1539	1539	1539	1539	1539	1539	1532	1532	1532	1532	1525	1525	1532	1532	1532	1532	1532	1532	1532	1532	1539	1539	1539	1532	1532	1539	1539	1553	1560	1567	1567	1574	1589	1603	1611	1618	1618	1626	1641	1649	1649	1657	1665	1673	1681	1698	1698	1706	1715	1723	1732	1741	1759	1768	1777	1786	1795	1795	1804	1833	1833	1843	1853	1853	1853	1863	1873	1894	1915	1936	1958	1958	2015	2027	2027	2027	2027	2027	2027	2027	2027	2039	2039	2051	2076	2076	2088	2088	2101	2114	2114	2127	2127	2127	2194	2223	2237	2237	2237	2237	2252	2252	2266	2297	2343	2359	2376	2392	2409	2409	2409	2409	2409	2409	2409	0	0	0	0	0	0	0	0	0	0	0	0	0	0	0	0	0	0	0	0	0	0	0	0	0	0	0	0	0	0	0	0	0	0	0	0	0	0	0	0	0	0	0	0	0	0	0	0	0	0	0	0	0	0	0	0	0	0	0	0	0	0	0	0	0	0	0	0	0	0	0	0	0	0	0	0	0	0	0	0	0	0	0	0	0	0	0	0	0	0	0	0	0	0	0	0	0	0	0	0	0	0	0	0	0	0	0	0	0	0	0	0	0	0	0	0	0	0	0	0	0	0	0	0	0	0	0	0	0	0	0	0	0	0	0	0	0	0	0	0	0	0	0	0	0	0	0	0	0	0	0	0	0	0	0	0	0	0	0	0	0	0	0	0	0	0	0	0	0	0	0	0	0	0	0	0	0	0	0	0	0	0	0	0	0	0	0	0	0	0	0	0	0	0	0	0	0	0	0	0	0	0	0	0	0	0	0	0	0	0	0	0	0	0	0	0	0	0	0	0	0	0	0	0	0	0	0	0	0	0	0	0	0	0	0	0	0	0	0	0	0	0	0	0	0	0	0	0	0	0	0	0	0	0	2426	2426	2409	2392	2392	2376	2359	2343	2343	2327	2312	2297	2281	2252	2252	2237	2223	2208	2208	2181	2153	2127	2114	2101	2088	2088	2088	2076	2051	2051	2027	2027	2027	2027	2015	2015	2015	2015	2003	1980	1980	1925	1894	1883	1883	1853	1853	1833	1824	1804	1795	1750	1741	1732	1723	1715	1715	1706	1698	1698	1690	1673	1665	1657	1641	1634	1634	1618	1611	1603	1596	1589	1581	1574	1574	1567	1560	1553	1546	1546	1539	1539	1539	1532	1539	1539	1539	1539	1539	1546	1546	1546	1546	1546	1539	1539	1539	1539	0	0	0	0	0	0	1157	1157	1157	1150	1146	1142	1142	1138	1134	1131	1127	1127	1123	1120	1116	1116	1116	1120	1116	1116	1116	1116	1113	1116	1113	1109	1102	1098	1095	1095	1091	1091	1091	1088	1088	1088	1088	1088	1088	1088	1088	1085	1085	1085	1088	1088	1085	1085	1085	1085	1085	1085	1085	0	0	0	0	0	0	0	0	0	0	0	0	0	0	0	0	0	0	0	0	0	0	0	0	0	0	0	0	0	0	0	0	0	0	0	0	0	0	0	0	0
0	0	0	0	0	0	0	0	0	0	0	0	0	0	1532	1532	1532	1532	1525	1525	1525	1525	1525	1525	1525	1525	1532	1532	1532	1532	1525	1532	1532	1532	1525	1525	1532	1532	1532	1532	1525	1532	1525	1525	1525	1525	1525	1519	1519	1519	1525	1525	1525	1525	1532	1532	1532	1525	1525	1525	1532	1532	1532	1532	1532	1532	1532	1532	1532	1532	1532	1532	1539	1546	1539	1539	1539	1539	1539	1532	1532	1532	1532	1532	1532	1532	1532	1532	1532	1532	1532	1532	1532	1532	1532	1539	1532	1532	1532	1539	1539	1560	1560	1560	1574	1589	1603	1611	1611	1618	1634	1641	1649	1649	1657	1657	1665	1673	1690	1698	1706	1715	1715	1732	1741	1750	1768	1777	1786	1795	1795	1814	1843	1843	1853	1853	1853	1863	1863	1883	1904	1904	2015	2015	2039	2027	2039	2039	2039	2027	2027	2027	2027	2039	2039	2039	2051	2076	2076	2088	2101	2101	2114	2114	2127	2127	2153	2194	2208	2237	2237	2237	2252	2252	2266	2281	2297	2343	2359	2376	2392	2392	2409	2409	2409	2409	2409	2409	0	0	0	0	0	0	0	0	0	0	0	0	0	0	0	0	0	0	0	0	0	0	0	0	0	0	0	0	0	0	0	0	0	0	0	0	0	0	0	0	0	0	0	0	0	0	0	0	0	0	0	0	0	0	0	0	0	0	0	0	0	0	0	0	0	0	0	0	0	0	0	0	0	0	0	0	0	0	0	0	0	0	0	0	0	0	0	0	0	0	0	0	0	0	0	0	0	0	0	0	0	0	0	0	0	0	0	0	0	0	0	0	0	0	0	0	0	0	0	0	0	0	0	0	0	0	0	0	0	0	0	0	0	0	0	0	0	0	0	0	0	0	0	0	0	0	0	0	0	0	0	0	0	0	0	0	0	0	0	0	0	0	0	0	0	0	0	0	0	0	0	0	0	0	0	0	0	0	0	0	0	0	0	0	0	0	0	0	0	0	0	0	0	0	0	0	0	0	0	0	0	0	0	0	0	0	0	0	0	0	0	0	0	0	0	0	0	0	0	0	0	0	0	0	0	0	0	0	0	0	0	0	0	0	0	0	0	0	0	0	0	0	0	0	0	0	0	0	0	0	0	0	0	0	2426	2392	2392	2376	2359	2359	2343	2343	2327	2312	2297	2281	2266	2252	2252	2237	2223	2223	2208	2181	2153	2127	2114	2114	2101	2088	2088	2076	2051	2051	2027	2027	2015	2015	2015	2015	2015	2015	2003	1992	1947	1925	1904	1894	1894	1863	1853	1843	1824	1814	1804	1795	1759	1741	1732	1723	1723	1715	1706	1698	1698	1681	1665	1657	1649	1641	1634	1626	1618	1603	1596	1596	1589	1574	1574	1567	1560	1553	1539	1539	1532	1532	1532	1532	1532	1539	1532	1532	1539	1539	1546	1546	1546	1546	1539	1539	1539	1539	0	0	0	0	0	0	1157	1157	1150	1146	1142	1138	1138	1134	1131	1127	1123	1123	1123	1116	1116	1116	1116	1116	1116	1116	1116	1116	1113	1113	1113	1109	1102	1098	1091	1091	1091	1088	1088	1088	1088	1088	1088	1088	1085	1088	1088	1085	1085	1085	1085	1085	1085	1081	1081	1081	1081	1078	1078	0	0	0	0	0	0	0	0	0	0	0	0	0	0	0	0	0	0	0	0	0	0	0	0	0	0	0	0	0	0	0	0	0	0	0	0	0	0	0	0	0
0	0	0	0	0	0	0	0	0	0	0	0	0	0	1532	1532	1532	1532	1525	1525	1525	1525	1525	1525	1525	1525	1525	1525	1525	1525	1525	1532	1532	1532	1525	1532	1532	1532	1532	1532	1525	1532	1525	1525	1525	1525	1519	1519	1519	1519	1525	1519	1525	1525	1525	1532	1525	1525	1525	1525	1532	1532	1532	1525	1532	1532	1532	1532	1532	1532	1532	1539	1539	1546	1539	1539	1539	1539	1539	1539	1539	1539	1532	1532	1532	1532	1532	1532	1525	1525	1525	1525	1532	1532	1532	1539	1532	1532	1539	1539	1539	1560	1560	1567	1574	1589	1596	1603	1611	1626	1634	1641	1649	1649	1657	1657	1665	1673	1690	1698	1706	1715	1715	1732	1750	1759	1777	1786	1804	1814	1814	1833	1843	1853	1863	1863	1863	1863	1863	1894	1904	1904	2039	2039	2039	2039	2039	2039	2039	2027	2027	2027	2027	2039	2039	2039	2051	2063	2076	2088	2101	2114	2127	2127	2140	2140	2167	2181	2208	2237	2237	2252	2252	2252	2266	2281	2297	2343	2359	2376	2392	2409	2392	2409	2409	2409	2409	2392	2376	2376	0	0	0	0	0	0	0	0	0	0	0	0	0	0	0	0	0	0	0	0	0	0	0	0	0	0	0	0	0	0	0	0	0	0	0	0	0	0	0	0	0	0	0	0	0	0	0	0	0	0	0	0	0	0	0	0	0	0	0	0	0	0	0	0	0	0	0	0	0	0	0	0	0	0	0	0	0	0	0	0	0	0	0	0	0	0	0	0	0	0	0	0	0	0	0	0	0	0	0	0	0	0	0	0	0	0	0	0	0	0	0	0	0	0	0	0	0	0	0	0	0	0	0	0	0	0	0	0	0	0	0	0	0	0	0	0	0	0	0	0	0	0	0	0	0	0	0	0	0	0	0	0	0	0	0	0	0	0	0	0	0	0	0	0	0	0	0	0	0	0	0	0	0	0	0	0	0	0	0	0	0	0	0	0	0	0	0	0	0	0	0	0	0	0	0	0	0	0	0	0	0	0	0	0	0	0	0	0	0	0	0	0	0	0	0	0	0	0	0	0	0	0	0	0	0	0	0	0	0	0	0	0	0	0	0	0	0	0	0	0	0	0	0	0	0	0	0	0	0	0	0	0	2409	2409	2392	2359	2359	2343	2327	2327	2312	2297	2281	2266	2252	2252	2237	2237	2223	2223	2208	2194	2153	2127	2114	2101	2088	2088	2088	2076	2063	2039	2027	2027	2015	2015	2015	2015	2015	2015	1980	1969	1947	1925	1904	1894	1894	1883	1853	1843	1833	1824	1814	1804	1804	1741	1732	1732	1723	1715	1715	1706	1706	1698	1681	1673	1649	1641	1641	1626	1618	1611	1603	1596	1589	1581	1574	1567	1560	1553	1546	1539	1539	1539	1539	1532	1532	1539	1532	1539	1539	1546	1546	1539	1546	1546	1539	1539	1539	1539	0	0	0	0	0	0	0	0	1146	1138	1134	1134	1138	1134	1131	1123	1120	1120	1120	1116	1113	1116	1116	1116	1116	1113	1113	1113	1113	1113	1109	1105	1098	1095	1091	1091	1088	1088	1088	1088	1088	1088	1088	1088	1088	1088	1088	1081	1081	1081	1085	1085	1081	1078	1078	1078	1078	1078	1078	0	0	0	0	0	0	0	0	0	0	0	0	0	0	0	0	0	0	0	0	0	0	0	0	0	0	0	0	0	0	0	0	0	0	0	0	0	0	0	0	0
0	0	0	0	0	0	0	0	0	0	0	0	0	0	1532	1532	1532	1532	1532	1532	1525	1525	1525	1525	1525	1525	1525	1525	1525	1525	1525	1525	1525	1532	1525	1532	1532	1532	1532	1532	1525	1525	1525	1525	1525	1525	1519	1519	1525	1525	1525	1525	1525	1525	1525	1532	1525	1525	1525	1525	1525	1525	1525	1525	1525	1525	1525	1532	1532	1532	1539	1539	1539	1546	1539	1532	1532	1532	1532	1532	1532	1532	1532	1532	1532	1525	1525	1525	1525	1525	1525	1532	1532	1532	1532	1532	1532	1532	1532	1532	1532	1553	1560	1560	1567	1581	1596	1603	1611	1626	1641	1649	1649	1657	1657	1665	1673	1673	1681	1698	1706	1715	1715	1732	1759	1768	1777	1795	1814	1824	1824	1843	1853	1853	1863	1873	1873	1873	1915	1925	1915	1915	2039	2039	2051	2051	2039	2039	2039	2039	2039	2039	2039	2039	2039	2039	2039	2051	2063	2076	2088	2114	2127	2127	2140	2140	2153	2181	2208	2223	2237	2252	2252	2252	2281	2297	2312	2343	2343	2359	2376	2392	2392	2409	2392	2392	2409	2392	2376	2359	2343	2327	2327	2327	2327	0	0	0	0	0	0	0	0	0	0	0	0	0	0	0	0	0	0	0	0	0	0	0	0	0	0	0	0	0	0	0	0	0	0	0	0	0	0	0	0	0	0	0	0	0	0	0	0	0	0	0	0	0	0	0	0	0	0	0	0	0	0	0	0	0	0	0	0	0	0	0	0	0	0	0	0	0	0	0	0	0	0	0	0	0	0	0	0	0	0	0	0	0	0	0	0	0	0	0	0	0	0	0	0	0	0	0	0	0	0	0	0	0	0	0	0	0	0	0	0	0	0	0	0	0	0	0	0	0	0	0	0	0	0	0	0	0	0	0	0	0	0	0	0	0	0	0	0	0	0	0	0	0	0	0	0	0	0	0	0	0	0	0	0	0	0	0	0	0	0	0	0	0	0	0	0	0	0	0	0	0	0	0	0	0	0	0	0	0	0	0	0	0	0	0	0	0	0	0	0	0	0	0	0	0	0	0	0	0	0	0	0	0	0	0	0	0	0	0	0	0	0	0	0	0	0	0	0	0	0	0	0	0	0	0	0	0	0	0	0	0	0	0	0	0	0	0	2409	2409	2392	2359	2359	2343	2327	2312	2297	2297	2281	2252	2237	2223	2223	2223	2194	2194	2181	2181	2140	2127	2114	2101	2088	2088	2088	2076	2039	2039	2027	2015	2015	2015	2015	2015	2015	2015	2003	1969	1947	1925	1904	1894	1894	1883	1863	1853	1843	1833	1824	1814	1804	1795	1759	1750	1741	1732	1723	1723	1715	1706	1681	1673	1657	1649	1641	1634	1626	1611	1603	1603	1589	1581	1574	1567	1560	1553	1546	1539	1546	1546	1539	1539	1539	1539	1532	1539	1539	1546	1546	1539	1546	1546	1539	1539	1539	1539	0	0	0	0	0	0	0	1146	1142	1134	1134	1131	1134	1131	1123	1120	1116	1116	1116	1116	1113	1113	1113	1116	1113	1113	1109	1109	1109	1105	1105	1102	1095	1091	1091	1091	1088	1088	1088	1088	1088	1088	1085	1085	1085	1085	1085	1078	1078	1078	1078	1081	1078	1074	1078	1078	1078	1078	1078	0	0	0	0	0	0	0	0	0	0	0	0	0	0	0	0	0	0	0	0	0	0	0	0	0	0	0	0	0	0	0	0	0	0	0	0	0	0	0	0	0
0	0	0	0	0	0	0	0	0	0	0	0	0	0	1532	1532	1539	1532	1532	1532	1532	1525	1525	1525	1525	1525	1525	1525	1525	1525	1525	1525	1525	1532	1525	1532	1532	1532	1532	1525	1525	1525	1525	1525	1525	1525	1525	1525	1525	1525	1525	1525	1525	1525	1525	1532	1525	1525	1525	1525	1525	1532	1525	1525	1525	1525	1525	1525	1532	1532	1539	1539	1539	1546	1539	1539	1539	1539	1539	1532	1532	1532	1532	1532	1525	1525	1525	1525	1525	1525	1525	1532	1525	1532	1532	1532	1532	1539	1539	1539	1539	1553	1553	1553	1560	1589	1603	1611	1611	1626	1641	1649	1657	1657	1665	1665	1673	1681	1690	1698	1706	1715	1715	1732	1759	1768	1786	1795	1814	1824	1833	1833	1853	1863	1894	1904	1904	1915	1936	1947	1947	2039	2051	2039	2051	2051	2051	2039	2039	2039	2039	2039	2039	2039	2039	2039	2039	2051	2063	2076	2088	2101	2127	2127	2140	2153	2167	2181	2194	2208	2237	2252	2252	2252	2266	2281	2312	2327	2327	2327	2343	2359	2376	2392	2392	2409	2409	2392	2376	2359	2359	2359	2327	2327	2327	0	0	0	0	0	0	0	0	0	0	0	0	0	0	0	0	0	0	0	0	0	0	0	0	0	0	0	0	0	0	0	0	0	0	0	0	0	0	0	0	0	0	0	0	0	0	0	0	0	0	0	0	0	0	0	0	0	0	0	0	0	0	0	0	0	0	0	0	0	0	0	0	0	0	0	0	0	0	0	0	0	0	0	0	0	0	0	0	0	0	0	0	0	0	0	0	0	0	0	0	0	0	0	0	0	0	0	0	0	0	0	0	0	0	0	0	0	0	0	0	0	0	0	0	0	0	0	0	0	0	0	0	0	0	0	0	0	0	0	0	0	0	0	0	0	0	0	0	0	0	0	0	0	0	0	0	0	0	0	0	0	0	0	0	0	0	0	0	0	0	0	0	0	0	0	0	0	0	0	0	0	0	0	0	0	0	0	0	0	0	0	0	0	0	0	0	0	0	0	0	0	0	0	0	0	0	0	0	0	0	0	0	0	0	0	0	0	0	0	0	0	0	0	0	0	0	0	0	0	0	0	0	0	0	0	0	0	0	0	0	0	0	0	0	0	0	0	0	0	0	2359	2343	2327	2312	2312	2297	2297	2281	2252	2237	2223	2223	2194	2181	2181	2181	2153	2127	2127	2114	2101	2101	2088	2088	2076	2063	2039	2027	2027	2027	2015	2015	2015	2015	2015	1969	1958	1936	1925	1904	1894	1894	1883	1863	1853	1843	1833	1824	1824	1814	1804	1768	1759	1750	1741	1741	1732	1723	1715	1706	1681	1665	1657	1657	1641	1634	1626	1618	1611	1603	1596	1581	1574	1567	1560	1560	1553	1546	1546	1546	1539	1539	1539	1532	1539	1539	1546	1546	1546	1546	1546	1546	1539	1546	1546	0	0	0	0	0	0	0	1142	1142	1134	1131	1131	1131	1127	1123	1120	1116	1116	1116	1116	1113	1113	1113	1113	1113	1109	1109	1105	1105	1102	1102	1098	1091	1091	1088	1088	1088	1088	1088	1088	1088	1085	1085	1085	1081	1081	1081	1078	1078	1078	1078	1078	1078	1078	1078	1078	1078	1078	1078	0	0	0	0	0	0	0	0	0	0	0	0	0	0	0	0	0	0	0	0	0	0	0	0	0	0	0	0	0	0	0	0	0	0	0	0	0	0	0	0	0
0	0	0	0	0	0	0	0	0	0	0	0	0	0	1532	1532	1532	1532	1532	1532	1525	1525	1525	1525	1525	1525	1525	1525	1525	1525	1519	1525	1525	1525	1525	1532	1532	1532	1525	1525	1525	1525	1525	1525	1525	1525	1525	1525	1525	1525	1525	1525	1525	1525	1525	1532	1525	1525	1525	1525	1525	1525	1525	1525	1525	1532	1525	1525	1532	1532	1539	1539	1539	1539	1539	1532	1532	1532	1532	1525	1525	1525	1525	1532	1525	1525	1525	1525	1525	1525	1525	1525	1525	1532	1532	1532	1532	1532	1539	1539	1539	1553	1553	1553	1560	1574	1596	1603	1603	1618	1618	1641	1665	1665	1673	1681	1690	1681	1698	1706	1715	1715	1723	1741	1768	1768	1795	1795	1814	1833	1833	1853	1863	1873	1894	1904	1915	1925	1936	1947	1947	2039	2039	2051	2051	2051	2051	2051	2039	2039	2039	2039	2039	2039	2039	2039	2039	2051	2051	2063	2076	2088	2127	2127	2140	2153	2167	2181	2194	2208	2237	2237	2252	2252	2252	2266	2281	2297	2297	2297	2312	2312	2376	2392	2392	2409	2409	2392	2359	2359	2343	2343	0	0	0	0	0	0	0	0	0	0	0	0	0	0	0	0	0	0	0	0	0	0	0	0	0	0	0	0	0	0	0	0	0	0	0	0	0	0	0	0	0	0	0	0	0	0	0	0	0	0	0	0	0	0	0	0	0	0	0	0	0	0	0	0	0	0	0	0	0	0	0	0	0	0	0	0	0	0	0	0	0	0	0	0	0	0	0	0	0	0	0	0	0	0	0	0	0	0	0	0	0	0	0	0	0	0	0	0	0	0	0	0	0	0	0	0	0	0	0	0	0	0	0	0	0	0	0	0	0	0	0	0	0	0	0	0	0	0	0	0	0	0	0	0	0	0	0	0	0	0	0	0	0	0	0	0	0	0	0	0	0	0	0	0	0	0	0	0	0	0	0	0	0	0	0	0	0	0	0	0	0	0	0	0	0	0	0	0	0	0	0	0	0	0	0	0	0	0	0	0	0	0	0	0	0	0	0	0	0	0	0	0	0	0	0	0	0	0	0	0	0	0	0	0	0	0	0	0	0	0	0	0	0	0	0	0	0	0	0	0	0	0	0	0	0	0	0	0	0	0	0	0	0	2359	2327	2327	2312	2312	2297	2297	2281	2252	2237	2223	2223	2167	2167	2167	2153	2140	2127	2127	2114	2114	2101	2101	2088	2076	2063	2039	2027	2027	2027	2027	2015	2015	2015	2015	1969	1958	1936	1925	1915	1904	1894	1883	1863	1853	1843	1833	1824	1824	1814	1804	1777	1768	1750	1741	1741	1732	1732	1723	1706	1690	1673	1665	1665	1657	1641	1641	1626	1618	1603	1603	1589	1581	1567	1567	1567	1553	1553	1553	1546	1546	1546	1539	1539	1539	1539	1546	1546	1546	1546	1546	1546	1546	1553	1553	0	0	0	0	0	0	0	1146	1142	1134	1131	1127	1131	1127	1123	1120	1116	1116	1116	1113	1113	1113	1113	1113	1109	1105	1105	1105	1102	1098	1098	1095	1091	1091	1088	1088	1088	1088	1088	1085	1085	1085	1085	1085	1081	1081	1078	1078	1074	1074	1074	1074	1074	1074	1074	1078	1078	1078	1078	0	0	0	0	0	0	0	0	0	0	0	0	0	0	0	0	0	0	0	0	0	0	0	0	0	0	0	0	0	0	0	0	0	0	0	0	0	0	0	0	0
0	0	0	0	0	0	0	0	0	0	0	0	0	0	1539	1532	1532	1532	1525	1525	1525	1525	1525	1525	1525	1525	1525	1519	1519	1519	1519	1525	1525	1525	1525	1532	1532	1532	1525	1525	1525	1525	1525	1525	1525	1525	1525	1525	1525	1525	1525	1525	1525	1525	1525	1532	1525	1525	1525	1525	1525	1525	1525	1519	1525	1525	1525	1525	1525	1532	1539	1532	1539	1539	1532	1532	1532	1525	1532	1525	1525	1532	1532	1525	1525	1525	1525	1525	1525	1525	1525	1525	1525	1532	1532	1532	1539	1532	1539	1539	1539	1553	1553	1553	1560	1603	1603	1611	1611	1618	1618	1641	1649	1673	1681	1690	1698	1690	1698	1715	1715	1723	1741	1741	1786	1804	1804	1814	1824	1833	1833	1853	1863	1873	1894	1915	1925	1925	1936	1958	1958	2039	2039	2051	2051	2051	2051	2039	2039	2039	2039	2039	2039	2039	2039	2039	2051	2051	2063	2076	2076	2088	2114	2127	2140	2153	2167	2181	2194	2208	2237	2237	2237	2252	2252	2266	2281	2281	2297	2281	2297	2297	0	0	0	0	0	2392	2359	2359	2343	2343	0	0	0	0	0	0	0	0	0	0	0	0	0	0	0	0	0	0	0	0	0	0	0	0	0	0	0	0	0	0	0	0	0	0	0	0	0	0	0	0	0	0	0	0	0	0	0	0	0	0	0	0	0	0	0	0	0	0	0	0	0	0	0	0	0	0	0	0	0	0	0	0	0	0	0	0	0	0	0	0	0	0	0	0	0	0	0	0	0	0	0	0	0	0	0	0	0	0	0	0	0	0	0	0	0	0	0	0	0	0	0	0	0	0	0	0	0	0	0	0	0	0	0	0	0	0	0	0	0	0	0	0	0	0	0	0	0	0	0	0	0	0	0	0	0	0	0	0	0	0	0	0	0	0	0	0	0	0	0	0	0	0	0	0	0	0	0	0	0	0	0	0	0	0	0	0	0	0	0	0	0	0	0	0	0	0	0	0	0	0	0	0	0	0	0	0	0	0	0	0	0	0	0	0	0	0	0	0	0	0	0	0	0	0	0	0	0	0	0	0	0	0	0	0	0	0	0	0	0	0	0	0	0	0	0	0	0	0	0	0	0	0	0	0	0	0	0	0	0	0	0	0	0	0	2327	2327	0	0	0	0	0	0	0	0	0	2153	2153	2153	2153	2140	2127	2114	2114	2114	2101	2088	2076	2076	2051	2039	2027	2027	2027	2027	2015	2015	2015	2015	2003	1958	1936	1925	1915	1904	1894	1883	1863	1853	1843	1824	1824	1814	1814	1804	1795	1768	1759	1750	1750	1741	1732	1723	1715	1706	1690	1690	1681	1665	1665	1649	1634	1618	1611	1603	1596	1581	1574	1567	1567	1560	1553	1553	1546	1539	1539	1539	1532	1532	1532	1546	1539	1539	1539	1546	1546	1546	1546	1546	0	0	0	0	0	0	1146	1142	1142	1138	1131	1127	1127	1127	1123	1120	1116	1116	1113	1113	1109	1109	1109	1109	1105	1102	1098	1098	1095	1095	1095	1091	1088	1088	1088	1088	1085	1085	1085	1085	1085	1085	1081	1081	1078	1081	1078	1074	1074	1074	1074	1074	1074	1074	1074	1074	1074	1074	1074	0	0	0	0	0	0	0	0	0	0	0	0	0	0	0	0	0	0	0	0	0	0	0	0	0	0	0	0	0	0	0	0	0	0	0	0	0	0	0	0	0
0	0	0	0	0	0	0	0	0	0	0	0	0	0	1532	1532	1525	1525	1525	1525	1525	1525	1519	1525	1525	1519	1519	1519	1525	1519	1525	1525	1525	1525	1525	1532	1532	1532	1525	1525	1525	1525	1525	1525	1525	1525	1525	1525	1525	1525	1525	1525	1525	1525	1525	1525	1525	1525	1525	1525	1519	1525	1519	1519	1525	1525	1525	1525	1525	1525	1532	1525	1525	1539	1532	1532	1525	1525	1532	1525	1525	1525	1525	1525	1525	1525	1525	1525	1525	1525	1525	1525	1532	1532	1532	1532	1532	1539	1539	1539	1539	1553	1553	1560	1567	1603	1611	1611	1611	1618	1626	1649	1698	1698	1698	1698	1698	1698	1706	1715	1723	1741	1759	1786	1795	1804	1804	1814	1824	1833	1833	1853	1863	1873	1883	1904	1915	1915	1936	1947	1947	2039	2039	2039	2039	2039	2039	2039	2039	2039	2039	2039	2027	2039	2039	2039	2051	2051	2063	2076	2088	2088	2114	2127	2140	2153	2153	2167	2181	2194	2223	2237	2237	2237	2237	2252	2237	2237	2297	2281	2297	2297	0	0	0	0	0	0	0	0	0	0	0	0	0	0	0	0	0	0	0	0	0	0	0	0	0	0	0	0	0	0	0	0	0	0	0	0	0	0	0	0	0	0	0	0	0	0	0	0	0	0	0	0	0	0	0	0	0	0	0	0	0	0	0	0	0	0	0	0	0	0	0	0	0	0	0	0	0	0	0	0	0	0	0	0	0	0	0	0	0	0	0	0	0	0	0	0	0	0	0	0	0	0	0	0	0	0	0	0	0	0	0	0	0	0	0	0	0	0	0	0	0	0	0	0	0	0	0	0	0	0	0	0	0	0	0	0	0	0	0	0	0	0	0	0	0	0	0	0	0	0	0	0	0	0	0	0	0	0	0	0	0	0	0	0	0	0	0	0	0	0	0	0	0	0	0	0	0	0	0	0	0	0	0	0	0	0	0	0	0	0	0	0	0	0	0	0	0	0	0	0	0	0	0	0	0	0	0	0	0	0	0	0	0	0	0	0	0	0	0	0	0	0	0	0	0	0	0	0	0	0	0	0	0	0	0	0	0	0	0	0	0	0	0	0	0	0	0	0	0	0	0	0	0	0	0	0	0	0	0	0	0	0	0	0	0	0	0	0	0	0	0	0	0	0	0	2140	2127	2127	0	0	0	2114	2114	2114	2076	2063	2063	2063	2051	2027	2027	2015	2015	2015	2015	2015	2015	2003	2003	1969	1947	1925	1915	1904	1894	1883	1853	1843	1843	1833	1824	1814	1804	1804	1786	1768	1759	1750	1750	1741	1732	1723	1715	1706	1690	1690	1681	1673	1665	1657	1641	1626	1618	1611	1603	1596	1589	1574	1574	1567	1560	1553	1546	1546	1546	1539	1532	1532	1539	1546	1539	1539	1546	1546	1546	1539	1546	1546	0	0	0	0	0	0	1150	1146	1142	1138	1131	1127	1127	1127	1120	1120	1116	1116	1113	1109	1109	1105	1105	1102	1102	1098	1098	1095	1091	1091	1091	1091	1088	1088	1088	1088	1085	1085	1085	1085	1085	1081	1081	1081	1081	1081	1078	1074	1074	1074	1071	1071	1071	1071	1074	1074	1074	1074	1074	0	0	0	0	0	0	0	0	0	0	0	0	0	0	0	0	0	0	0	0	0	0	0	0	0	0	0	0	0	0	0	0	0	0	0	0	0	0	0	0	0
