0	0	0	0	0	891	891	891	894	896	910	910	910	913	915	917	920	922	927	927	930	930	935	940	945	950	961	961	961	961	963	966	966	974	977	983	985	991	994	997	1003	1008	1011	1014	1023	1023	1026	1030	1033	1036	1042	1045	1048	1052	1048	1052	1052	1058	1061	1064	1068	1068	0	0	0	0	0	0	0	0	0	5915	5915	5815	5815	5719	5815	5719	5815	5815	5815	5915	5915	6018	6018	6018	6124	6124	6124	6235	6235	6235	6235	6235	6235	6235	6349	6349	6349	6349	6349	6468	6468	6468	6592	6720	6720	6853	6992	6992	6992	6992	6992	6992	6992	6992	7137	7137	7137	7287	7444	7444	7444	7444	7444	7608	7608	7608	7608	7608	7779	7779	7779	7779	7959	8146	8146	8146	8146	8146	8146	8146	8146	8146	8146	8146	8146	8146	8146	8146	8146	8146	8146	8146	8146	7959	8146	8146	8343	8343	8343	8343	8343	8343	8146	8146	8146	8343	8146	7959	7959	7959	7959	7959	7959	7959	7959	7959	8146	8343	8343	8343	8343	8146	8146	8146	7959	7959	7959	7959	7959	7959	7959	7959	7959	7959	7959	7959	7959	8146	8343	8343	8343	8343	8343	8343	8343	8343	8343	8343	8343	8343	8343	8343	8146	8146	8146	8146	8146	8343	8343	8343	8343	8343	8343	8146	8146	8146	7959	7959	7959	8146	8146	8146	8146	8146	8146	8343	8146	8146	8146	8146	0	0	3583	3583	3583	3583	3583	3583	3583	3583	3583	3583	3583	3546	3546	3546	3546	3510	3510	3510	3510	3510	3510	3510	3510	3510	3546	3546	3546	3510	3510	3510	3510	3510	3510	3510	3510	3510	3510	3546	3510	3510	3510	3510	3510	3510	3546	3510	3546	3546	3546	3546	3583	3583	3621	3621	3659	3659	3659	3621	3621	3621	3583	3583	3583	3583	3621	3621	3621	3621	0	8146	7959	8146	8146	8343	8343	8343	8550	8550	8550	8550	8550	8343	8550	8343	8343	8343	8343	8343	8550	8550	8550	8550	8550	8550	8343	8343	8343	8343	8343	8146	8343	8343	8343	8343	8343	8343	8550	8550	8343	8343	8343	8343	8343	8146	8146	8146	8146	8146	8146	8146	8146	8146	8146	8146	8146	8343	8343	8343	8146	8146	8146	8146	7959	7959	7959	7959	8146	8146	8343	8343	8343	8343	8343	8343	8146	7959	8146	7959	8146	7959	7959	7959	7959	8146	8146	8146	8146	8343	8343	8343	8343	8343	8343	8146	8146	8146	8146	8146	7959	7959	7959	7959	7959	7959	7959	8146	8146	8146	7959	7959	7959	7959	7959	7959	7959	7959	7959	7959	7959	7959	7959	7959	7959	7959	7959	7959	7959	7959	7959	7959	7959	7959	7959	7959	7959	7959	7959	7959	7959	7959	7959	7959	7959	7959	7959	7959	7959	7959	7959	7959	7959	7959	7959	7959	7959	7959	7959	7779	7779	7779	7779	7779	7959	7959	8146	8146	8146	8146	8146	8146	7959	8146	7959	8146	7959	7959	7959	7959	7959	7959	8146	7959	7959	7959	8146	7959	7959	8146	8146	8146	8146	8146	8146	8146	8146	8146	8146	8146	8146	7959	7959	7959	7959	7959	7959	8146	8146	8146	8146	8146	8146	8146	8146	8146	8146	8146	8146	8146	8343	8343	8343	8550	8343	8343	8343	8343	8146	8146	8146	8146	8146	8146	8343	8343	8343	8343	8343	8343	8343	8343	8343	8343	8343	8343	8343	8343	8343	8146	8146	8146	8146	8146	8146	8146	8146	0	0	0	0	2609	2609	2589	2589	2589	2570	2551	2532	2532	2514	2514	2514	2496	2496	2496	2496	2496	2478	2478	2478	2478	2409	2409	2409	2392	2376	2376	2376	2376	2376	2376	0	0	0	0	0	0	0	0	0	0	0	0	0	0	0	0	0	0	0	0	0	0	0	0	0	0	0	0	0	0	0	0	0	0	0	0
0	0	0	0	0	889	889	889	891	894	896	896	910	910	915	917	920	922	927	927	930	932	935	940	942	950	961	961	961	963	966	966	966	974	977	983	985	988	994	997	1003	1008	1008	1011	1020	1023	1030	1030	1033	1036	1042	1045	1045	1048	1048	1052	1048	1055	1061	1064	1068	1071	1071	1071	0	0	0	0	0	0	0	5915	5915	5815	5815	5815	5815	5719	5815	5815	5815	5915	5915	6018	6018	6018	6124	6124	6124	6235	6235	6235	6235	6235	6349	6349	6349	6349	6349	6349	6349	6468	6468	6468	6592	6720	6720	6853	6853	6853	6853	6853	6992	6992	7137	7137	7137	7137	7137	7287	7444	7608	7608	7444	7444	7608	7608	7608	7608	7608	7608	7779	7779	7959	7959	8146	8146	8146	8343	8343	8146	8146	8146	8146	8146	8146	8146	8146	8146	8146	8146	8146	7959	7959	7959	7959	8146	8146	8146	8343	8343	8343	8343	8343	8343	8343	8146	8343	8146	7959	7959	7959	7959	7779	7959	7959	7959	7959	8146	8343	8343	8343	8343	8146	8146	8146	7959	7959	7959	7959	7959	7959	7959	7959	7959	7959	7959	7959	7959	8146	8146	8343	8343	8343	8343	8343	8343	8343	8343	8343	8343	8146	8343	8146	8146	8146	8146	8146	8146	8146	8343	8343	8343	8343	8146	8146	8146	8146	7959	7959	7959	8146	8146	8146	8146	8146	8146	8343	8146	8146	8146	8146	0	0	3583	3583	3583	3583	3583	3583	3583	3583	3583	3583	3583	3583	3546	3546	3510	3510	3510	3510	3510	3510	3510	3510	3510	3510	3546	3546	3546	3510	3510	3510	3510	3475	3510	3510	3510	3510	3510	3510	3510	3510	3510	3510	3510	3510	3510	3510	3546	3546	3546	3546	3583	3583	3621	3621	3621	3621	3659	3621	3621	3621	3583	3583	3583	3583	3583	3583	3621	3621	3621	4463	4463	4521	4521	8146	8343	8146	8343	8550	8550	8550	8343	8343	8343	8343	8343	8343	8343	8343	8550	8550	8550	8550	8550	8550	8343	8343	8343	8343	8146	8146	8146	8146	8146	8146	8343	8343	8343	8550	8343	8550	8343	8343	8343	8146	8146	8146	8146	8146	8146	8146	8146	8146	8146	8146	8343	8343	8343	8343	8343	8146	8146	8146	7959	7959	7959	7959	8146	8343	8343	8343	8343	8343	8343	8343	8146	8146	8146	8146	8146	7959	7959	7959	7959	7959	7959	8146	8146	8343	8343	8343	8146	8146	8146	8146	8146	7959	7959	7959	7959	7959	7959	7959	7959	7959	8146	8146	8146	8146	7959	7959	7959	7959	7959	7959	7959	7959	7959	7959	7959	7959	7959	7959	7959	7959	7959	7959	7959	7959	7959	7959	7959	7959	7959	7959	7959	7959	7959	7959	7959	7959	7959	7959	7959	7959	7959	7959	7959	7959	7959	7959	7959	7959	7959	7959	7779	7779	7779	7779	7779	7779	7779	7779	7779	7959	8146	8146	8146	8146	8146	7959	7959	7959	7959	7959	7959	7959	7959	7959	7959	7959	7959	7959	7959	7959	7959	7959	8146	7959	8146	8146	8146	8146	8146	8146	8146	8146	8146	8146	8146	7959	7959	7959	7959	7959	7959	8146	8146	8146	8146	8146	8146	8146	8146	8146	8146	8146	8146	8146	8343	8343	8343	8550	8343	8343	8343	8146	8146	8146	8146	8146	8146	8146	8343	8343	8343	8343	8343	8550	8343	8343	8343	8343	8343	8343	8343	8343	8343	8343	8146	8146	8343	8146	8146	8146	8146	0	0	0	0	2609	2609	2589	2589	2589	2570	2551	2532	2551	2514	2514	2496	2496	2496	2496	2496	2496	2478	2478	2478	2443	2409	2409	2392	2392	2376	2376	2376	2376	2376	2376	0	0	0	0	0	0	0	0	0	0	0	0	0	0	0	0	0	0	0	0	0	0	0	0	0	0	0	0	0	0	0	0	0	0	0	0
0	0	0	0	0	887	889	891	894	896	896	910	910	913	915	917	920	922	927	927	930	932	937	940	942	950	961	961	961	963	966	966	969	974	977	980	983	988	994	994	1003	1008	1008	1011	1020	1023	1030	1030	1033	1036	1042	1045	1045	1048	1048	1052	1048	1055	1058	1064	1064	1068	1071	1071	0	0	0	0	0	0	0	0	0	5719	5815	5815	5815	5719	5815	5815	5915	5915	5915	6018	6018	6018	6124	6124	6124	6235	6349	6349	6349	6349	6349	6349	6349	6349	6349	6349	6349	6349	6349	6468	6468	6468	6592	6853	6853	6853	6992	6992	6992	6992	7137	7137	6992	7137	7137	7137	7444	7608	7608	7608	7444	7608	7608	7444	7444	7608	7608	7779	7779	7779	7959	8146	8146	8146	8343	8343	8146	8146	8146	8146	8146	8146	8146	8146	8146	8146	7959	7959	7959	7959	8146	7959	8146	8146	8146	8343	8343	8343	8343	8343	8343	8343	8146	8146	8146	7959	7959	7959	7959	7959	7959	7959	7959	7959	8146	8343	8343	8343	8146	8146	8146	8146	7959	7959	7959	7959	7959	7959	7959	7959	7959	7959	7959	7959	7959	7959	8146	8146	8343	8343	8343	8343	8343	8343	8343	8343	8343	8343	8343	8146	8146	8146	8146	8146	8146	8146	8146	8343	8343	8343	8146	8146	8146	7959	7959	7959	8146	8146	8146	8146	8146	8146	8343	8343	8146	8146	8146	8146	0	0	3583	3583	3583	3583	3583	3583	3583	3583	3583	3583	3583	3546	3546	3546	3510	3510	3510	3510	3510	3510	3510	3510	3510	3510	3546	3546	3546	3510	3510	3510	3510	3475	3510	3510	3510	3510	3510	3510	3510	3510	3510	3510	3510	3546	3510	3510	3546	3546	3546	3546	3546	3583	3583	3621	3621	3621	3659	3621	3621	3621	3583	3583	3583	3583	3583	3583	3583	3583	3583	4406	4463	4521	4521	8146	8343	8146	8343	8550	8550	8550	8343	8343	8343	8343	8550	8343	8343	8343	8550	8550	8550	8550	8550	8343	8343	8343	8343	8146	8146	7959	7959	7959	8146	8146	8343	8343	8343	8343	8343	8550	8343	8343	8343	8146	8146	8146	8146	8146	8146	8146	7959	8146	8146	8146	8146	8146	8343	8343	8343	8146	8343	8343	8146	7959	8146	8146	8343	8343	8343	8343	8343	8343	8343	8343	8343	8146	8146	8146	8146	7959	7959	7959	7959	7959	7959	7959	7959	8146	8146	8146	8146	8146	8146	8146	8146	7959	7959	7959	7959	7959	7959	7959	7959	7959	8146	8146	8146	8146	8146	7959	7959	7959	7959	7959	7959	7959	7959	7959	7959	7959	7959	7959	7959	7959	7959	7959	7959	7959	7959	7779	7959	7959	7779	7779	7779	7959	7959	7959	7959	7959	7959	7959	7959	7959	7959	7959	7959	7959	7959	7779	7779	7779	7959	7959	7779	7779	7779	7779	7779	7779	7779	7779	7779	7959	7959	7959	7959	7959	8146	7959	8146	8146	8146	8146	8146	8146	8146	7959	7959	7959	7959	7959	7959	7959	7959	7959	8146	8146	8146	8146	8146	8146	8146	8146	8146	8146	8146	8146	8146	7959	7959	7959	7959	7959	7959	7959	8146	8146	8146	8146	8146	8146	8146	8146	8146	8146	8146	8146	8146	8343	8343	8343	8343	8343	8146	8146	8146	8146	8146	8146	8146	8146	8146	8146	8146	8343	8343	8343	8343	8343	8343	8343	8343	8343	8343	8343	8550	8343	8343	8343	8343	8146	8146	8146	0	0	0	0	0	0	2609	2589	2589	2589	2570	2551	2551	2532	2514	2514	2496	2496	2496	2496	2496	2496	2478	2460	2460	2443	2443	2409	2409	2392	2392	2376	2376	2376	2376	2376	0	0	0	0	0	0	0	0	0	0	0	0	0	0	0	0	0	0	0	0	0	0	0	0	0	0	0	0	0	0	0	0	0	0	0	0
0	0	0	0	0	889	891	894	896	898	901	908	910	913	915	917	920	922	927	930	930	935	940	942	945	950	955	958	955	963	966	969	972	977	977	980	983	988	994	997	1003	1006	1008	1008	1014	1023	1030	1033	1036	1036	1042	1045	1048	1048	1048	1052	1052	1052	1055	1061	1061	1068	1068	1068	0	0	0	0	0	0	0	0	0	5815	5815	5815	5815	5815	5915	5915	5915	5915	5915	6018	6018	6018	6124	6124	6235	6235	6349	6349	6349	6349	6349	6349	6349	6349	6349	6349	6349	6468	6468	4643	4643	4643	4581	4643	4643	6853	6992	6992	6992	7137	7137	7137	7137	7137	7137	7287	7608	7608	7608	7608	7444	7444	7444	4706	4706	7444	7608	7779	7779	7959	8146	8146	8343	8343	8343	8343	8146	8146	8343	8146	8146	8146	8146	8146	8146	8146	8146	7959	7959	8146	8146	7959	8146	8146	8146	8343	8343	8343	8343	8343	8343	8146	8146	8146	7959	7959	7959	7959	8146	7959	7959	8146	8146	8146	8146	8146	8343	8146	8146	8146	8146	8146	7959	7959	7959	7959	7959	7959	8146	7959	7959	7959	8146	7959	7959	7959	8146	8146	8343	8343	8343	8343	8343	8343	8343	8343	8343	8343	8343	8146	8146	8146	8146	8146	8146	8146	8146	8146	8343	8146	8146	8146	8146	8146	7959	7959	8146	8146	8146	8146	8146	8146	8146	8343	8146	8146	8146	8146	0	0	3583	3583	3583	3583	3583	3583	3583	3583	3583	3583	3583	3546	3546	3546	3510	3510	3510	3510	3510	3510	3510	3510	3510	3510	3510	3546	3546	3546	3546	3510	3510	3510	3510	3510	3510	3510	3510	3510	3510	3510	3510	3510	3546	3546	3546	3546	3546	3546	3546	3546	3546	3583	3583	3621	3621	3659	3659	3659	3621	3621	3583	3583	3583	3583	3583	3583	3583	3583	3583	4406	4463	4521	4521	4521	8343	8146	8146	8550	8550	8343	8343	8343	8343	8343	4838	4838	4838	8343	8550	8767	8550	8550	8550	8343	8343	8343	8343	8146	7959	7959	7959	7959	7959	8146	8146	8343	8343	8343	8343	8550	8343	8343	8343	8146	8146	8146	8146	8146	7959	7959	7959	8146	8146	8146	8343	8343	8343	8343	8343	7959	8343	8550	7779	8146	8146	8146	8343	8343	8343	8343	8343	8343	8343	8343	8343	8146	8146	8146	8146	8146	7959	7959	7959	7959	7959	8146	8146	8146	8146	7959	8146	8146	7959	7959	7959	7959	7959	7959	7959	7959	7959	7959	7959	8146	8146	8146	8146	8146	7959	7959	7959	7959	7959	7959	7959	8146	8550	8146	8146	7959	7959	7959	7959	7959	7959	7959	7959	7959	7779	7779	7779	7608	7608	7608	7779	7959	7959	4643	4706	4706	8146	8146	8146	7959	7959	7959	7959	7959	7959	4771	4771	7779	7959	7959	7779	7779	7779	7779	7779	7608	7608	7779	7779	7959	7959	8146	8146	7959	8146	8146	8146	8146	8146	8146	8146	8146	8146	8146	7959	7959	7959	7959	7959	7959	7959	7959	8146	7959	8146	8146	8146	8146	8146	8146	8146	8146	8146	8146	8146	8146	7959	7959	7959	7959	7959	7959	8146	8146	8146	8146	8146	8146	8146	8146	8146	8146	8146	8146	8146	8146	8146	8146	8146	8146	8146	8146	8146	8146	8146	8146	8146	8146	8146	8146	8146	8146	8146	8343	8343	8343	8343	8343	8343	8343	8343	8343	8343	8343	8343	8343	8343	8146	8146	8146	0	0	0	0	0	0	2609	2589	2589	2589	2551	2551	2551	2532	2514	2514	2496	2496	2496	2496	2496	2496	2478	2460	2443	2443	2443	2426	2409	2392	2392	2392	2376	2376	2359	2359	0	0	0	0	0	0	0	0	0	0	0	0	0	0	0	0	0	0	0	0	0	0	0	0	0	0	0	0	0	0	0	0	0	0	0	0
0	0	0	0	0	887	889	894	896	901	905	910	910	913	915	917	917	922	930	932	932	937	940	942	942	948	953	955	955	961	969	972	974	977	980	980	983	988	991	997	1003	1008	1008	1008	1014	1023	1030	1033	1036	1039	1042	1045	1048	1048	1048	1052	1052	1055	1058	1061	1061	1064	1068	1068	0	0	0	0	0	0	0	0	0	5815	5815	5815	5815	5719	5815	5915	5915	5915	5915	5915	6018	6018	4906	4906	4906	4838	4771	4771	4771	6349	6349	6349	6468	6468	6468	6468	6349	4706	4706	4643	4643	4643	4643	4643	4643	4581	4643	4643	4706	4706	4643	4643	7137	7137	7137	7287	7444	7444	7608	7444	7444	4706	4706	4706	4643	4643	4643	7608	7608	7779	8146	8146	8343	8343	8343	8343	8146	8146	8146	8146	8146	8146	8146	8146	8146	8146	8146	7959	7959	8146	8146	7959	8146	8146	8343	8343	8343	8146	8146	8146	8146	8146	8343	8343	8146	8146	8146	8146	8146	8146	8146	8146	8146	8146	8146	8343	8146	8146	8146	8146	7959	7959	7959	7959	7959	7959	7959	7959	8146	7959	7959	7959	8146	8146	7959	8146	8146	8146	8343	8343	8343	8343	8343	8343	8343	8343	8146	8146	8343	8146	8146	8146	8146	8146	8146	8146	8146	8146	8343	8343	8146	8146	8146	8146	8146	7959	8146	8146	8146	8146	8146	8146	8146	8343	8146	8146	8146	8146	0	0	3583	3583	3583	3583	3583	3583	3583	3583	3583	3583	3546	3546	3546	3546	3510	3510	3475	3475	3475	3510	3510	3510	3510	3510	3510	3510	3510	3546	3510	3510	3510	3510	3510	3475	3475	3510	3510	3510	3510	3510	3510	3510	3510	3546	3546	3546	3546	3546	3546	3546	3546	3583	3583	3621	3621	3621	3659	3621	3621	3621	3621	3583	3583	3583	3583	3583	3583	3583	3583	4706	4706	4706	4706	4706	4771	4771	4771	8550	8550	8550	4838	4838	4838	4838	4838	4771	4771	4771	4771	8767	8550	8343	8343	8343	4706	4706	8146	7959	7959	7959	7779	7779	8146	8146	8146	8343	8343	8343	8343	8343	8343	8343	8343	8146	8146	8146	4771	4771	4771	4771	7959	8146	7959	7959	8146	8343	8343	4771	4771	4706	4706	4771	4771	7959	4771	4771	8146	8146	8146	8343	8343	8343	8343	8343	4643	4581	4581	4643	4581	4581	4581	4581	4643	4581	4581	4581	4581	7959	7959	7959	4706	4706	4706	4706	4706	7959	7959	7959	7959	7959	7959	4771	4771	4706	4706	4771	4771	8146	7959	7959	7959	7959	8146	4581	4521	4521	4581	4581	7959	7959	7959	7779	7779	7779	7779	7779	4771	4771	4771	4771	4771	4706	4706	4706	4643	4643	4643	4643	4706	4643	4643	4643	8146	8146	8146	8146	7959	4771	4706	4771	4771	4771	4771	4771	4771	4771	7779	7779	4706	4706	7608	7608	7779	7959	7959	7959	7959	7959	8146	8146	8146	8146	8146	8146	8146	8146	8146	8146	7959	7959	7959	7959	7959	7959	7959	7959	7959	7959	7959	8146	8146	8146	8146	8146	8146	8146	8146	8146	8146	8146	8146	8146	8146	8146	7959	7959	7959	7959	8146	8146	8146	8146	8146	8146	8146	8146	8146	8146	8146	8146	8146	8146	8146	8146	7959	7959	8146	8146	8146	8146	8146	8146	8146	8146	8146	8146	8146	8343	8343	8343	8343	8343	8343	8343	8343	8343	8343	8343	8146	8343	8343	8146	8146	0	0	0	0	0	0	0	2609	2609	2609	2589	2570	2551	2551	2532	2514	2514	2496	2496	2496	2496	2496	2496	2478	2460	2460	2443	2426	2426	2409	2392	2392	2392	2376	2376	2359	2359	0	0	0	0	0	0	0	0	0	0	0	0	0	0	0	0	0	0	0	0	0	0	0	0	0	0	0	0	0	0	0	0	0	0	0	0
0	0	0	0	0	889	891	894	898	901	903	910	910	913	915	917	920	922	930	932	935	940	942	942	942	945	950	958	955	963	972	972	974	977	977	980	980	985	991	997	1006	1008	1008	1011	1014	1020	1030	1036	1039	1042	1042	1045	1048	1048	1048	1052	1052	1055	1055	1058	1061	1064	1064	1061	1061	0	0	0	0	0	0	0	0	5815	5815	5815	5815	5815	5815	5915	5915	5915	5915	5915	5915	4906	4906	4906	4838	4838	4771	4771	4706	4706	4706	4706	6468	4706	4706	6468	4706	4706	4706	4706	4643	4706	4643	4643	4643	4643	4706	4706	4706	4706	4706	4706	4706	4643	4643	7287	7444	7444	7444	7444	4706	4706	4706	4706	4643	4643	4643	4643	4643	7779	7959	8146	8343	8343	8343	8343	8146	8146	8343	8146	8146	8146	8146	8146	8146	8146	7959	7959	7959	8146	8146	7959	8146	8146	8146	8146	8146	8146	8146	8343	8343	8343	8343	8343	8343	8146	8146	8146	8146	8146	8146	8146	8146	8146	8146	8146	8146	8146	7959	7959	7959	7959	7959	7959	7959	7959	8146	8146	8146	8146	8146	8146	8146	8146	8146	8146	8343	8343	8343	8343	8343	8343	8343	8146	8146	8343	8146	8146	8343	8146	8146	8146	8146	8146	8146	7959	8146	8146	8146	8146	8146	8146	8343	8343	8146	8146	8146	8146	8146	8146	8146	8146	8146	8343	8146	8146	8146	8146	0	3583	3583	3583	3583	3583	3583	3583	3583	3583	3583	3546	3546	3546	3546	3510	3475	3475	3475	3475	3510	3510	3475	3475	3510	3510	3510	3510	3510	3510	3510	3510	3510	3510	3510	3475	3510	3510	3510	3510	3510	3546	3546	3546	3546	3546	3546	3546	3546	3546	3546	3546	3546	3583	3583	3621	3621	3621	3621	3621	3621	3621	3621	3583	3583	3583	3583	3583	3583	3583	4706	4706	4706	4706	4771	4706	4771	4771	4771	4771	8767	4838	4838	4838	4838	4838	4771	4771	4771	4771	4771	4771	4771	4771	4706	4706	4706	4706	4706	4706	4706	4706	4706	4771	4706	4706	4771	4771	4771	4771	4838	4838	4838	4838	4771	4838	4771	4771	4771	4771	4771	4771	4771	4771	4771	4771	4771	4771	4771	4771	4771	4706	4706	4706	4771	4771	4771	4771	4771	4771	4771	4706	4706	4706	4643	4643	4643	4643	4643	4643	4643	4643	4643	4643	4643	4643	4581	4581	4643	4643	4706	4706	4771	4771	4771	4771	4706	4771	4771	7959	7959	7959	4771	4706	4706	4706	4706	4706	4706	8146	7959	4706	4706	4706	4643	4581	4581	4581	4581	4581	4581	7959	7779	7444	7444	7608	7779	4706	4706	4771	4771	4771	4643	4706	4706	4643	4643	4581	4643	4643	4643	4643	4643	4643	4643	4643	4706	4643	4706	4706	4643	4706	4771	4771	4771	4771	4771	4771	4771	4771	4706	4706	4771	4706	4771	4838	4771	4771	4771	4771	4771	4771	4771	7959	8146	8146	8146	8146	8146	8146	7959	7959	7959	7959	7959	7959	7779	7959	7959	7959	7959	7959	8146	8146	8146	8146	8146	8146	8146	8146	8146	8146	8146	8146	8146	7959	7959	7959	7959	7779	7959	7959	8146	8146	8343	8146	8146	8146	8146	8146	8146	8146	8146	8146	8146	8146	8146	8146	8146	8146	8146	8146	8146	8146	8146	8146	8146	8146	8146	8343	8343	8343	8343	8343	8343	8343	8550	8550	8550	8343	8343	8146	8343	8146	8146	0	0	0	0	0	0	0	2609	2609	2589	2589	2570	2551	2532	2532	2514	2514	2496	2496	2496	2496	2496	2478	2478	2460	2443	2443	2426	2426	2409	2392	2392	2392	2376	2376	2359	2359	0	0	0	0	0	0	0	0	0	0	0	0	0	0	0	0	0	0	0	0	0	0	0	0	0	0	0	0	0	0	0	0	0	0	0	0
0	0	0	0	0	891	894	896	898	901	903	908	910	913	915	920	920	922	927	932	935	940	942	942	942	945	953	961	961	966	972	974	974	977	977	980	980	985	991	997	1006	1008	1008	1011	1014	1023	1033	1036	1042	1042	1045	1045	1048	1048	1052	1055	1055	1055	1058	1058	1061	1064	1061	1061	1061	0	0	0	0	0	0	0	0	0	4643	4643	4643	4643	4643	4643	5915	5915	5915	5915	4906	4906	4906	4838	4838	4771	4771	4771	4706	4706	4706	4706	4706	4706	4706	4706	4706	4706	4706	4706	4706	4706	4643	4706	4643	4643	4706	4706	4706	4706	4706	4706	4706	4706	4706	4706	4706	4706	4706	4706	4706	4706	4706	4706	4706	4706	4643	4643	4643	7608	7959	8146	8343	8343	8343	8343	8146	8343	8343	8146	8146	8146	8146	8146	8146	8146	7959	7959	7959	8146	8146	8146	8343	8343	8343	8343	8146	8343	8343	8343	8343	8343	8343	8343	8146	8146	8146	8146	8146	8146	8146	8146	8146	8146	8146	8146	8146	8146	7959	7959	7959	7959	7959	7959	7959	7959	8146	8146	8146	8146	8146	8146	8146	8146	8146	8146	8343	8343	8343	8343	8343	8343	8343	8343	8146	8343	8343	8146	8146	8146	8146	8146	8146	7959	7959	7959	8146	8146	8146	8146	8146	8146	8343	8343	8343	8146	8343	8146	8146	8146	8146	8146	8146	8343	8146	8146	8146	8146	3583	3583	3583	3583	3583	3583	3583	3583	3583	3583	3546	3546	3546	3546	3546	3546	3475	3510	3475	3475	3475	3475	3475	3475	3510	3510	3510	3510	3510	3510	3510	3510	3510	3510	3510	3475	3510	3510	3510	3546	3510	3546	3546	3546	3546	3546	3546	3546	3546	3546	3546	3546	3546	3583	3583	3621	3621	3621	3621	3621	3621	3621	3583	3583	3583	3583	3583	3546	3583	3583	4771	4706	4706	4706	4771	4771	4771	4771	4771	4771	4771	4838	4838	4838	4838	4771	4771	4771	4771	4771	4771	4771	4771	4771	4771	4771	4771	4706	4706	4706	4771	4706	4706	4771	4706	4771	4771	4771	4771	4771	4838	4838	4838	4838	4771	4771	4771	4771	4771	4771	4771	4771	4771	4771	4771	4771	4771	4771	4771	4771	4771	4706	4706	4706	4771	4771	4771	4771	4706	4706	4706	4706	4706	4706	4706	4706	4706	4706	4706	4706	4643	4643	4643	4643	4643	4643	4643	4643	4706	4706	4706	4706	4771	4771	4706	4706	4706	4706	4706	4643	4643	4706	4706	4706	4706	4706	4706	4706	4706	4706	4771	4706	4706	4706	4706	4643	4643	4643	4643	4643	4643	4706	4706	4706	4706	4706	4643	4643	4771	4706	4771	4771	4706	4643	4706	4706	4643	4643	4643	4643	4706	4643	4643	4706	4643	4643	4643	4643	4643	4706	4643	4706	4771	4771	4771	4771	4771	4706	4706	4771	4706	4706	4706	4706	4771	4771	4771	4771	4771	4771	4706	4771	4706	4706	8146	8146	8146	8146	8146	8146	7959	7959	7959	7959	7959	7959	7959	7959	7959	7959	7959	7959	8146	8146	8146	8146	8146	8146	8146	8146	8146	8146	8146	8146	8146	8146	7959	7959	7959	7959	7959	7959	8550	8550	8343	8343	8146	8343	8146	8146	8146	8146	8146	8146	8146	8146	8146	8146	8146	8146	8146	8146	8146	8146	8146	8146	8146	8146	8146	8146	8343	8146	8343	8343	8343	8343	8550	8550	8550	8343	8343	8343	8343	8146	8146	0	0	0	0	0	0	0	2609	2589	2589	2589	2570	2551	2532	2532	2514	2514	2496	2496	2496	2496	2496	2478	2478	2460	2443	2443	2426	2426	2409	2409	2392	2392	2392	2376	2359	2359	0	0	0	0	0	0	0	0	0	0	0	0	0	0	0	0	0	0	0	0	0	0	0	0	0	0	0	0	0	0	0	0	0	0	0	0
0	0	0	0	0	891	891	894	898	903	903	910	910	913	917	920	922	925	927	932	937	942	942	942	945	948	953	961	961	961	969	972	974	977	977	977	980	985	988	1000	1006	1011	1011	1011	1017	1023	1033	1039	1042	1042	1045	1048	1048	1048	1052	1052	1055	1055	1055	1055	1061	1061	1064	1061	1061	0	0	0	0	0	0	0	4581	4643	4643	4706	4643	4643	4643	4643	4706	4706	4771	4838	4906	4906	4906	4838	4838	4771	4771	4771	4771	4771	4706	4771	4771	4771	4706	4706	4706	4706	4706	4706	4706	4706	4706	4706	4706	4706	4706	4706	4706	4706	4706	4706	4706	4706	4706	4706	4706	4706	4706	4706	4706	4706	4706	4706	4706	4706	4706	4706	4706	4706	7959	8146	8146	8343	8343	8343	8146	8146	8343	8146	8146	8146	8146	8146	8146	8146	8146	8146	8146	8146	8146	8146	8343	8343	8343	8343	8343	8343	8343	8343	8343	8343	8343	8343	8146	8146	8146	8146	8146	8146	8146	8146	8146	8146	8146	8146	8146	8146	7959	7959	7959	7959	7959	7959	7959	7959	8146	8146	8146	8146	8146	8343	8343	8146	8146	8146	8343	8343	8343	8343	8343	8343	8343	8146	8146	8146	8146	8146	8146	8146	8146	8146	8146	8146	8146	7959	8146	8146	8146	8146	8146	8146	8343	8343	8343	8146	8343	8343	8146	8146	8146	8146	8146	8146	7959	8146	8146	8146	3583	3583	3583	3583	3583	3583	3583	3583	3546	3546	3546	3546	3546	3546	3546	3546	3510	3510	3475	3475	3510	3475	3475	3510	3510	3510	3510	3510	3510	3510	3510	3510	3510	3510	3510	3475	3510	3510	3546	3546	3546	3546	3546	3546	3546	3546	3546	3546	3546	3546	3546	3546	3546	3583	3583	3583	3621	3621	3621	3621	3621	3621	3583	3583	3583	3583	3583	3546	3583	3583	4771	4706	4706	4706	4771	4771	4771	4771	4771	4771	4771	4838	4771	4771	4771	4771	4771	4771	4771	4771	4771	4771	4771	4771	4771	4771	4771	4771	4771	4771	4771	4706	4771	4771	4706	4771	4771	4771	4771	4771	4771	4771	4771	4771	4771	4771	4771	4771	4771	4771	4771	4771	4771	4771	4771	4771	4771	4771	4771	4771	4771	4706	4706	4706	4706	4706	4706	4706	4706	4771	4771	4771	4706	4706	4706	4706	4706	4706	4706	4706	4706	4706	4643	4643	4643	4643	4643	4643	4643	4643	4643	4706	4706	4706	4706	4706	4643	4643	4643	4643	4643	4643	4706	4643	4706	4643	4643	4643	4706	4706	4771	4706	4643	4643	4643	4643	4643	4643	4643	4706	4706	4706	4706	4706	4706	4706	4643	4643	4771	4706	4706	4771	4706	4706	4706	4706	4643	4643	4643	4643	4706	4643	4643	4706	4643	4643	4643	4643	4643	4643	4643	4706	4706	4706	4706	4706	4706	4706	4706	4706	4706	4706	4706	4706	4771	4771	4771	4771	4771	4771	4771	4771	4706	4643	4643	8146	8146	8146	8146	8146	8146	7959	7959	7959	7959	7959	7959	7959	7959	7959	7959	7959	8146	8146	8146	7959	7959	7959	8146	8146	8146	8146	8146	8146	8146	8146	7959	8146	8146	7959	7959	7959	7959	8146	8343	8343	8146	8146	8146	8146	8146	8146	8146	8146	8146	8146	8146	8146	8146	8146	8146	8146	8146	8146	8146	8146	8146	8146	8146	8146	8343	8146	8343	8343	8343	8343	8550	8343	8343	8343	8146	8146	8146	8146	8146	0	0	0	0	0	0	0	2609	2589	2609	2589	2570	2551	2551	2532	2514	2514	2496	2496	2496	2496	2496	2478	2478	2460	2460	2443	2443	2426	2409	2409	2392	2376	2376	2376	2359	2359	0	0	0	0	0	0	0	0	0	0	0	0	0	0	0	0	0	0	0	0	0	0	0	0	0	0	0	0	0	0	0	0	0	0	0	0
0	0	0	0	0	894	894	894	898	903	905	908	908	913	915	920	920	925	925	932	932	940	942	942	945	945	950	950	961	961	969	972	974	974	977	977	980	985	988	1000	1008	1011	1011	1014	1017	1023	1030	1036	1042	1042	1045	1048	1048	1052	1052	1055	1058	1058	1055	1061	1061	1061	1064	0	0	0	0	0	0	0	4643	4706	4643	4706	4706	4706	4643	4643	4643	4706	4706	4706	4771	4838	4838	4838	4838	4838	4771	4771	4771	4771	4771	4706	4706	4771	4771	4771	4706	4706	4706	4706	4706	4706	4706	4706	4706	4771	4706	4706	4706	4706	4706	4706	4706	4706	4706	4706	4706	4771	4706	4706	4706	4706	4706	4706	4706	4706	4706	4706	4643	4643	4706	4706	4706	7959	8146	7959	8146	8146	8146	8146	8343	8343	8343	8146	8146	8146	8146	8146	8146	8146	8146	8343	8343	8343	8550	8550	8343	8343	8343	8343	8343	8343	8343	8343	8343	8343	8146	8146	8343	8146	8343	8146	8146	8343	8146	8146	8146	8146	8146	8146	7959	8146	7959	7959	7959	7959	7959	8146	8146	8146	8343	8146	8146	8343	8343	8343	8343	8343	8343	8343	8343	8146	8343	8146	8146	8146	7959	7959	8146	8146	8146	8146	8146	8146	8146	8146	8146	8146	8146	8146	8146	8146	8146	8146	8343	8343	8343	8146	8343	8343	8146	8146	8146	8146	8146	8146	7959	7959	8146	3659	3583	3583	3583	3583	3583	3546	3546	3583	3546	3546	3546	3546	3546	3546	3546	3510	3510	3510	3510	3510	3510	3510	3510	3510	3510	3510	3510	3510	3510	3510	3510	3510	3475	3510	3510	3510	3510	3510	3546	3546	3546	3546	3546	3546	3546	3546	3546	3546	3546	3546	3546	3546	3546	3546	3583	3583	3583	3621	3621	3621	3621	3621	3583	3583	3583	3583	3583	3546	3583	3583	4771	4771	4706	4706	4771	4771	4771	4771	4771	4771	4771	4771	4771	4771	4771	4771	4771	4771	4771	4771	4771	4771	4771	4771	4771	4771	4771	4771	4771	4771	4771	4771	4771	4771	4771	4771	4771	4771	4771	4771	4771	4771	4771	4771	4771	4771	4771	4771	4771	4771	4771	4771	4771	4771	4771	4771	4771	4771	4771	4771	4706	4706	4706	4706	4706	4706	4706	4706	4706	4771	4771	4771	4706	4706	4706	4706	4706	4706	4706	4706	4706	4706	4706	4706	4706	4643	4643	4643	4643	4643	4643	4643	4643	4643	4643	4643	4581	4581	4581	4581	4581	4581	4581	4581	4581	4581	4581	4643	4643	4643	4643	4643	4706	4706	4643	4643	4643	4643	4643	4706	4706	4706	4706	4706	4706	4706	4643	4643	4643	4643	4706	4706	4706	4706	4706	4706	4643	4643	4643	4643	4643	4643	4643	4706	4643	4643	4706	4643	4643	4706	4643	4706	4706	4706	4706	4706	4706	4706	4706	4706	4706	4706	4706	4706	4771	4771	4771	4771	4771	4771	4771	4771	4706	4706	4706	0	8146	8146	7959	7959	7959	7959	7959	7959	7959	7959	7959	7959	7959	7959	7959	7959	7959	8146	7959	7959	7959	7959	8146	8146	8146	8146	8146	8146	8146	8146	8146	8146	8146	8146	8146	8146	7959	8146	8146	8146	8146	8146	8146	8146	8146	8146	8146	8146	8146	8146	8146	8146	8146	8146	8146	8146	8146	8146	8146	8146	8146	8146	8146	8146	8146	8146	8343	8343	8343	8343	8343	8343	8343	8343	8146	8146	8343	8146	8146	8146	0	0	0	0	0	0	0	0	2589	2589	2570	2570	2551	2532	2514	2514	2514	2496	2496	2496	2478	2478	2478	2460	2443	2426	2426	2409	2409	2409	2392	2376	2376	2376	2359	2359	0	0	0	0	0	0	0	0	0	0	0	0	0	0	0	0	0	0	0	0	0	0	0	0	0	0	0	0	0	0	0	0	0	0	0	0
0	0	0	0	0	889	889	896	896	903	903	908	910	913	915	917	917	925	930	935	937	940	942	942	945	945	948	948	961	961	969	972	974	974	977	977	980	985	988	1003	1008	1011	1014	1014	1020	1023	1023	1033	1039	1042	1045	1048	1052	1052	1055	1055	1061	1058	1058	1061	1061	0	0	0	0	0	0	0	0	0	4643	4706	4706	4706	4706	4706	4643	4643	4643	4706	4706	4706	4706	4771	4771	4771	4771	4771	4771	4771	4706	4706	4706	4706	4706	4706	4706	4706	4706	4706	4706	4706	4706	4706	4706	4706	4706	4706	4706	4706	4706	4706	4706	4706	4706	4706	4706	4706	4706	4706	4706	4706	4706	4706	4706	4706	4706	4706	4706	4706	4706	4706	4706	4706	4643	4643	7608	8146	8146	8343	8343	8343	8343	8343	8343	8146	8146	8146	8146	8146	8146	8146	8146	8146	8343	8146	8343	8343	8343	8343	8343	8343	8343	8343	8343	8343	8343	8343	8343	8146	8343	7959	8146	8146	8146	8146	8146	8146	8146	8146	8146	8146	8146	8146	8146	7959	8146	8146	8146	8146	8343	8146	8343	8146	8343	8343	8343	8343	8343	8343	8343	8343	8343	8146	8146	8146	8146	7959	7959	7959	7959	8146	8146	7959	8146	8146	8146	8146	8146	8146	8146	8146	8343	8343	8343	8343	8343	8343	8343	8343	8343	8343	8146	8146	8146	8146	8146	7779	7959	8146	8146	3659	3621	3583	3583	3583	3583	3583	3546	3583	3546	3546	3546	3546	3546	3546	3510	3510	3510	3510	3510	3510	3510	3546	3510	3510	3510	3510	3510	3510	3510	3510	3510	3510	3475	3510	3510	3510	3510	3510	3546	3546	3546	3546	3546	3546	3546	3546	3546	3546	3546	3546	3546	3546	3546	3546	3583	3583	3583	3583	3621	3621	3621	3583	3583	3583	3583	3583	3583	3583	3583	3583	4771	4771	4706	4706	4706	4771	4771	4771	4771	4771	4771	4771	4771	4771	4771	4771	4771	4771	4771	4771	4771	4771	4771	4771	4771	4771	4771	4771	4771	4771	4771	4771	4771	4771	4771	4771	4771	4771	4771	4771	4771	4771	4771	4771	4771	4771	4771	4771	4771	4771	4771	4771	4771	4771	4771	4771	4771	4771	4771	4771	4706	4706	4706	4706	4706	4706	4706	4706	4706	4771	4771	4771	4771	4706	4706	4706	4706	4706	4706	4706	4706	4706	4643	4706	4643	4643	4643	4643	4643	4643	4581	4581	4581	4581	4581	4581	4581	4581	4521	4521	4521	4521	4521	4521	4521	4521	4521	4581	4581	4643	4643	4643	4706	4643	4643	4643	4643	4643	4643	4706	4706	4706	4706	4706	4706	4706	4643	4643	4643	4643	4643	4706	4706	4706	4706	4706	4706	4643	4643	4643	4706	4643	4643	4643	4643	4643	4706	4643	4706	4706	4706	4706	4706	4706	4706	4706	4706	4706	4706	4706	4706	4706	4706	4706	4771	4771	4771	4771	4771	4771	4771	4771	4771	4706	4706	0	7959	7959	7959	7959	7959	7959	7959	7959	7959	7959	7959	7959	7959	7959	7959	7959	7959	7959	7959	7959	7959	7959	7959	8146	8146	8146	8146	7959	8146	8146	7959	7959	8146	8146	8146	8146	7959	8146	8146	8146	8146	8146	8146	8146	8146	8146	8146	8146	8146	8146	8146	8146	8146	8146	8146	8146	8146	8146	8146	8146	8146	8146	8146	8146	8146	8146	8146	8343	8343	8343	8343	8343	8146	8146	8146	8146	8146	8146	8146	8146	0	0	0	0	0	0	0	0	2589	2589	2570	2570	2551	2532	2532	2514	2514	2496	2496	2496	2496	2478	2460	2443	2443	2409	2409	2409	2409	2409	2392	2392	2376	2376	2359	2359	0	0	0	0	0	0	0	0	0	0	0	0	0	0	0	0	0	0	0	0	0	0	0	0	0	0	0	0	0	0	0	0	0	0	0	0
0	0	0	0	0	889	889	891	896	896	903	908	910	910	913	915	920	920	930	937	937	942	942	942	945	945	948	948	961	966	969	972	974	977	977	980	983	985	988	988	988	1011	1017	1020	1020	1023	1030	1036	1039	1042	1045	1045	1052	1052	1055	1058	1061	1061	1061	1061	1061	0	0	0	0	0	0	0	0	0	4706	4706	4643	4643	4643	4706	4643	4643	4643	4643	4706	4706	4706	4771	4771	4771	4771	4771	4771	4771	4771	4771	4706	4706	4706	4706	4706	4706	4706	4706	4706	4706	4706	4706	4706	4706	4706	4771	4706	4706	4706	4706	4706	4706	4706	4706	4706	4706	4706	4706	4706	4706	4706	4706	4706	4706	4706	4706	4706	4706	4706	4706	4706	4706	4706	7608	7779	8146	8146	8343	8146	8343	8343	8343	8146	8146	8146	8146	8146	8146	8146	8146	8146	8146	8343	8146	8343	8343	8343	8343	8343	8343	8343	8343	8343	8343	8343	8343	8146	8146	8146	7959	7959	8146	8146	8146	8146	8146	8146	8146	8343	8146	8146	8146	7959	7959	8146	8146	8146	8146	8343	8343	8343	8343	8343	8343	8343	8343	8343	8343	8343	8343	8343	8146	8146	7959	7959	7959	7959	7959	7959	8146	8146	7959	8146	8146	8146	8146	8146	8146	8146	8146	8146	8146	8146	8343	8343	8343	8343	8343	8343	8343	8146	8146	8146	8146	8146	8146	7959	7959	7959	3621	3621	3583	3583	3583	3583	3583	3546	3546	3546	3546	3546	3546	3546	3546	3510	3510	3510	3510	3510	3510	3510	3546	3510	3510	3510	3510	3510	3510	3510	3510	3475	3510	3475	3475	3510	3510	3510	3546	3546	3546	3546	3546	3546	3546	3546	3546	3546	3546	3546	3546	3546	3546	3546	3546	3583	3583	3583	3621	3621	3621	3621	3621	3583	3583	3583	3583	3583	3583	3583	3583	4771	4706	4706	4706	4771	4771	4771	4706	4771	4771	4771	4771	4771	4771	4771	4771	4771	4771	4771	4771	4771	4771	4771	4771	4771	4771	4771	4771	4771	4771	4771	4771	4771	4771	4771	4771	4771	4771	4771	4706	4706	4771	4771	4771	4771	4771	4771	4771	4771	4771	4771	4771	4771	4771	4771	4771	4771	4771	4771	4771	4771	4771	4706	4706	4706	4706	4706	4706	4771	4771	4771	4771	4771	4771	4771	4706	4771	4706	4706	4706	4706	4706	4643	4706	4643	4643	4643	4643	4643	4643	4581	4581	4581	4581	4581	4581	4521	4521	4521	4521	4521	4521	4463	4463	4521	4521	4521	4581	4581	4643	4643	4643	4706	4643	4643	4643	4581	4643	4643	4643	4706	4706	4706	4706	4706	4706	4643	4643	4643	4643	4706	4706	4706	4706	4706	4706	4706	4643	4643	4643	4643	4643	4643	4706	4643	4706	4706	4643	4643	4643	4643	4643	4706	4706	4706	4706	4706	4706	4706	4706	4706	4706	4706	4706	4771	4771	4771	4706	4771	4771	4771	4771	4771	4706	4706	4706	7959	7959	7959	7959	7959	7959	7959	7959	7959	7959	7959	7959	7959	7959	7779	7959	7959	7959	7959	7959	7959	7959	8146	8146	8146	8146	8146	7959	7959	7959	7959	7959	7959	7959	7959	7959	7959	8146	8146	8146	8146	8146	8146	8146	8146	8146	8146	8146	8146	8146	8146	8146	8146	8146	8146	8146	8146	8146	8146	8146	8146	8146	7959	7959	8146	8146	8146	8146	8146	8146	8146	8146	8146	8146	8146	8146	8146	8146	7959	7959	7959	0	0	0	0	0	0	0	2589	2589	2589	2570	2551	2532	2532	2514	2514	2496	2496	2496	2478	2478	2460	2443	2443	2409	2409	2409	2409	2409	2392	2392	2376	2376	2359	2359	0	0	0	0	0	0	0	0	0	0	0	0	0	0	0	0	0	0	0	0	0	0	0	0	0	0	0	0	0	0	0	0	0	0	0	0
0	0	0	0	0	887	889	891	894	898	901	903	908	910	915	915	920	920	927	932	935	940	942	942	945	945	948	958	958	963	966	969	972	974	977	980	980	980	980	1011	1011	1011	1017	1020	1020	1023	1030	1033	1039	1039	1045	1048	1055	1055	1058	1061	1061	1061	1061	1061	1061	0	0	0	0	0	0	0	0	0	4706	4706	4706	4643	4643	4706	4643	4643	4643	4643	4706	4706	4706	4706	4706	4771	4771	4706	4706	4706	4706	4771	4706	4706	4706	4771	4771	4771	4706	4706	4706	4706	4706	4706	4706	4706	4706	4771	4706	4706	4706	4706	4706	4706	4643	4706	4706	4706	4706	4706	4706	4706	4706	4706	4706	4706	4706	4706	4706	4706	4706	4706	4706	4706	4706	4706	7779	8146	8343	8343	8343	8343	8343	8343	8146	8146	8146	8146	8146	8146	8146	8146	8343	8343	8343	8146	8343	8343	8343	8343	8146	8146	8343	8146	8146	8146	8146	8343	8146	8146	8146	7959	8146	8146	8146	8146	8146	8146	8146	8146	8343	8146	8146	8146	8146	7959	8146	8146	8146	8146	8146	8146	8146	8343	8343	8343	8343	8343	8343	8343	8343	8343	8343	8146	8146	7959	7959	7779	7959	7959	7959	8146	8146	7959	7959	8146	8146	8146	8146	8146	8146	8146	8146	8146	8146	8146	8343	8343	8343	8343	8146	8146	8146	7959	7959	7959	7959	8146	8146	8146	8146	3621	3583	3583	3583	3583	3583	3583	3546	3546	3546	3546	3546	3546	3546	3546	3546	3546	3510	3510	3510	3510	3546	3546	3510	3510	3510	3510	3510	3475	3475	3475	3475	3475	3475	3475	3510	3510	3510	3546	3546	3546	3546	3546	3546	3546	3546	3510	3546	3546	3546	3546	3546	3546	3546	3546	3583	3583	3583	3583	3583	3621	3621	3583	3583	3583	3583	3583	3583	3583	3583	3583	4706	4706	4706	4706	4771	4771	4771	4771	4771	4771	4771	4771	4771	4771	4771	4771	4771	4771	4771	4771	4771	4771	4771	4771	4771	4771	4771	4771	4771	4771	4771	4771	4771	4771	4771	4771	4771	4771	4706	4706	4706	4706	4771	4771	4771	4706	4706	4771	4771	4771	4771	4771	4771	4771	4771	4771	4771	4771	4771	4771	4706	4771	4771	4706	4706	4706	4706	4706	4771	4771	4771	4771	4771	4771	4771	4706	4771	4771	4771	4706	4706	4706	4706	4706	4643	4643	4643	4581	4581	4581	4581	4581	4521	4521	4521	4521	4521	4521	4463	4463	4521	4463	4463	4521	4463	4521	4521	4521	4581	4581	4643	4643	4706	4643	4643	4643	4643	4643	4643	4706	4706	4706	4706	4706	4706	4706	4643	4643	4643	4643	4706	4706	4706	4706	4706	4706	4706	4643	4643	4643	4643	4643	4643	4643	4643	4643	4643	4643	4643	4706	4643	4643	4643	4706	4706	4706	4706	4706	4706	4706	4706	4706	4706	4706	4706	4706	4706	4706	4706	4706	4706	4706	4706	4771	4771	4771	7779	7959	7959	7959	7959	7959	7959	7959	7959	7959	7959	7959	7959	7959	7959	7959	7959	7959	7959	7959	7959	8146	8146	8146	8146	8146	8146	7959	7959	7959	7959	7959	7959	7959	7959	7959	7959	8146	8146	8146	8146	8146	8146	8146	8146	8146	8146	8146	8146	8146	8146	8146	8146	8146	8146	8146	8146	8146	8146	8146	8146	8146	7959	8146	8146	8146	8146	8146	8146	8146	8146	8146	8146	8146	8146	8146	8146	8146	7959	7959	7959	0	0	0	0	0	0	2609	2609	2589	2589	2570	2551	2532	2532	2532	2514	2496	2496	2496	2478	2478	2460	2443	2443	2426	2409	2409	2409	2409	2392	2376	2376	2376	2376	2376	0	0	0	0	0	0	0	0	0	0	0	0	0	0	0	0	0	0	0	0	0	0	0	0	0	0	0	0	0	0	0	0	0	0	0	0
0	0	0	0	0	889	889	891	896	898	901	901	903	908	915	915	920	920	925	930	930	940	942	942	942	945	945	953	958	958	966	969	969	977	977	980	980	980	980	1011	1011	1011	1017	1020	1023	1023	1023	1030	1033	1039	1045	1045	1055	1055	1058	1061	1061	1061	1061	1061	1061	0	0	0	0	0	0	0	0	0	4706	4706	4706	4706	4643	4706	4643	4643	4643	4643	4706	4706	4643	4706	4771	4771	4771	4706	4706	4706	4706	4771	4706	4706	4771	4771	4771	4771	4706	4706	4706	4706	4706	4706	4706	4706	4706	4771	4706	4706	4706	4706	4706	4706	4643	4643	4643	4706	4643	4706	4706	4706	4706	4706	4706	4706	4706	4706	4706	4706	4643	4643	4643	4643	4643	4643	7608	8146	8343	8343	8343	8146	8343	8343	8146	8146	8146	8146	8343	8146	8343	8343	8343	8343	8343	8343	8343	8343	8343	8146	8146	8146	8146	8146	8146	8146	8146	8343	8343	8146	8146	8146	8146	8146	8146	8146	8146	8146	8146	8146	8146	8146	8146	8146	8146	8146	8146	8146	8146	8146	8146	8146	8146	8146	8146	8343	8146	8343	8343	8343	8343	8343	8146	8146	8146	7959	7959	7779	7959	7959	7959	7959	7959	7959	7959	7959	7959	8146	8146	8146	8146	8146	8146	8146	8146	8146	8146	8146	8343	8343	8146	8146	8146	7959	7959	7959	7959	7959	7959	7959	7959	3621	3583	3583	3583	3546	3546	3546	3546	3546	3546	3546	3546	3546	3546	3546	3546	3546	3510	3510	3510	3546	3510	3546	3510	3510	3510	3510	3475	3475	3475	3475	3475	3475	3475	3475	3510	3510	3510	3510	3546	3546	3546	3546	3546	3546	3510	3510	3546	3546	3546	3546	3546	3546	3546	3546	3583	3583	3583	3583	3583	3583	3583	3583	3583	3583	3583	3583	3583	3546	3546	3546	4706	4706	4706	4706	4771	4771	4771	4771	4771	4771	4771	4771	4771	4771	4771	4771	4771	4771	4771	4771	4771	4771	4771	4771	4771	4771	4771	4771	4771	4771	4771	4771	4771	4771	4771	4771	4771	4771	4706	4706	4706	4706	4706	4706	4706	4706	4706	4706	4771	4771	4771	4771	4771	4771	4771	4771	4771	4771	4771	4771	4706	4771	4771	4706	4706	4706	4706	4771	4771	4771	4771	4771	4771	4771	4771	4771	4771	4771	4771	4771	4771	4706	4706	4706	4706	4643	4643	4581	4581	4581	4581	4521	4521	4521	4521	4521	4521	4463	4463	4463	4463	4463	4463	4463	4463	4463	4463	4521	4521	4581	4643	4643	4706	4706	4706	4643	4643	4643	4643	4706	4706	4706	4706	4706	4706	4706	4643	4643	4643	4643	4706	4706	4706	4706	4706	4706	4643	4643	4581	4581	4643	4643	4643	4643	4706	4643	4643	4643	4643	4706	4643	4643	4643	4706	4706	4706	4706	4706	4706	4706	4706	4706	4706	4643	4706	4706	4706	4706	4706	4771	4771	4706	4771	4771	4706	4706	4706	4706	7779	7779	7959	7959	7959	7959	7959	7959	7959	7959	7959	7959	7959	7959	7959	7959	7959	7959	7959	8146	8146	8146	8146	8146	7959	7959	7959	7959	7959	7959	8146	8146	8146	8146	8146	8146	8146	8146	8146	8146	8146	8146	8146	8146	8146	8146	8146	8146	8146	8146	8146	8146	8146	8343	8343	8343	8343	8146	8146	8146	8146	8146	8146	8146	8146	8146	8146	8146	8146	8146	8146	8146	8146	8146	8146	8146	7959	7959	7959	7959	0	0	0	0	2609	2629	2609	2609	2589	2570	2551	2532	2532	2532	2514	2496	2496	2496	2478	2478	2460	2460	2460	2443	2426	2409	2409	2409	2392	2376	2376	2359	2359	2359	0	0	0	0	0	0	0	0	0	0	0	0	0	0	0	0	0	0	0	0	0	0	0	0	0	0	0	0	0	0	0	0	0	0	0	0
0	0	0	0	0	889	889	891	896	896	898	901	903	905	905	915	917	917	922	925	925	937	940	942	942	945	948	948	958	963	966	969	969	977	977	980	980	980	980	1006	1011	1011	1014	1020	1023	1023	1026	1030	1033	1039	1042	1045	1055	1055	1058	1058	1061	1061	1061	1061	1061	1061	0	0	0	0	0	0	0	0	4706	4771	4706	4706	4706	4706	4706	4706	4643	4643	4706	4706	4643	4706	4706	4771	4771	4706	4706	4706	4706	4706	4706	4706	4706	4771	4771	4771	4706	4706	4706	4706	4706	4706	4706	4706	4706	4706	4706	4706	4706	4706	4706	4643	4643	4643	4643	4643	4643	4643	4706	4706	4643	4706	4706	4706	4706	4643	4643	4706	4643	4643	4643	4643	4643	4643	8146	8146	8343	8343	8343	8343	8343	8343	8343	8343	8146	8343	8343	8146	8343	8343	8343	8343	8343	8146	8343	8343	8343	8146	8146	8146	8146	8146	8146	8146	8146	8343	8343	8146	8146	8146	8146	8146	8146	8146	8146	8146	8146	8146	8146	8146	8146	8146	8146	7959	7959	8146	8146	8146	8146	8146	8146	8146	8146	8146	8146	8343	8343	8146	8146	8146	8146	8146	7959	7959	7959	7959	7959	7959	7959	7959	8146	7959	7959	8146	8146	8146	8146	8146	8146	8146	8146	8146	8146	8146	8146	8146	8146	8146	8146	8146	8146	7959	7959	7959	7959	7959	7959	7959	7959	3621	3583	3546	3546	3546	3546	3546	3546	3546	3546	3546	3546	3546	3546	3546	3546	3546	3510	3510	3510	3546	3510	3546	3510	3510	3510	3475	3475	3475	3475	3475	3475	3475	3475	3475	3475	3510	3510	3510	3546	3546	3546	3546	3546	3546	3510	3510	3546	3546	3546	3546	3546	3546	3546	3546	3546	3546	3546	3546	3583	3583	3583	3583	3583	3583	3583	3583	3583	3546	3546	4706	4706	4706	4706	4706	4771	4771	4771	4771	4771	4771	4771	4771	4771	4771	4771	4771	4771	4771	4771	4771	4771	4771	4771	4706	4771	4771	4771	4771	4771	4771	4771	4771	4771	4771	4771	4771	4706	4706	4706	4706	4706	4706	4706	4771	4771	4706	4771	4771	4771	4771	4771	4771	4771	4771	4771	4771	4771	4771	4771	4771	4706	4771	4771	4706	4706	4771	4706	4706	4706	4706	4771	4771	4771	4771	4771	4771	4771	4771	4771	4771	4771	4706	4706	4706	4706	4643	4581	4581	4581	4581	4521	4521	4521	4521	4521	4521	4521	4521	4463	4463	4521	4463	4521	4521	4521	4463	4521	4521	4581	4581	4581	4643	4706	4643	4643	4643	4643	4643	4643	4706	4706	4706	4706	4706	4706	4706	4643	4643	4643	4643	4643	4706	4706	4706	4643	4643	4643	4643	4643	4643	4643	4643	4643	4706	4706	4706	4706	4643	4643	4706	4706	4706	4643	4706	4706	4706	4706	4706	4706	4706	4706	4706	4706	4643	4706	4706	4706	4771	4771	4771	4771	4771	4771	4706	4706	4706	4706	4706	7779	7779	7959	7959	7959	7959	7959	7959	7959	7959	7959	7959	7959	7959	7959	7959	7959	7959	8146	8146	8146	8146	8146	8146	7959	7959	7959	7959	7959	7959	7959	7959	7959	7959	7959	8146	8146	8146	8146	8146	8146	8146	8146	8146	8146	8146	8146	8146	8146	8146	8146	8146	8146	8146	8146	8343	8343	8146	8146	8146	8146	8146	8146	8146	8146	8146	8146	8146	8146	8146	8146	8146	8146	8146	8146	7959	7959	7959	7959	7959	0	0	0	0	2609	2629	2609	2609	2589	2570	2570	2532	2514	2532	2514	2514	2514	2496	2478	2478	2478	2460	2460	2443	2426	2409	2409	2409	2409	2392	2376	2376	2359	2359	0	0	0	0	0	0	0	0	0	0	0	0	0	0	0	0	0	0	0	0	0	0	0	0	0	0	0	0	0	0	0	0	0	0	0	0
0	0	0	0	0	887	887	891	894	896	896	898	903	905	905	913	913	920	922	925	925	937	940	940	942	945	948	948	958	963	966	966	969	969	977	980	980	980	980	1006	1006	1011	1014	1020	1020	1023	1026	1030	1033	1039	1039	1045	1045	1052	1058	1058	1061	1061	1061	1061	1061	1061	0	0	0	0	0	0	0	0	0	4771	4706	4706	4706	4706	4706	4706	4706	4706	4706	4706	4706	4706	4706	4771	4771	4706	4706	4706	4706	4706	4706	4706	4706	4706	4771	4771	4706	4706	4706	4706	4706	4706	4706	4706	4706	4706	4706	4706	4706	4643	4706	4643	4643	4643	4643	4643	4643	4706	4706	4706	4706	4706	4706	4706	4706	4643	4643	4643	4643	4643	4643	4643	4643	4643	7779	8146	8343	8343	8343	8343	8343	8343	8343	8343	8343	8343	8343	8146	8343	8343	8343	8343	8343	8146	8146	8343	8146	8146	8146	8146	8146	8146	8343	8146	8343	8343	8343	8343	8343	8146	8146	8146	8146	8146	7959	7959	8146	8146	8146	8146	8146	8146	8146	8146	7959	8146	8146	8146	8146	8146	8146	8146	8146	8146	8146	8343	8146	8146	8146	8146	8146	8146	7959	7959	7959	7959	7959	7959	7959	7959	7959	7959	7959	7959	8146	7959	8146	8146	8146	8146	8146	7959	8146	7959	7959	8146	8146	8146	8146	7959	7959	7959	7959	7959	7779	7779	7779	7959	0	0	3583	3546	3546	3546	3546	3546	3546	3546	3546	3546	3546	3546	3546	3546	3546	3546	3510	3510	3510	3546	3510	3510	3510	3510	3475	3475	3475	3475	3475	3475	3475	3475	3475	3475	3475	3475	3475	3475	3510	3510	3510	3546	3546	3510	3510	3510	3510	3546	3546	3546	3546	3546	3546	3546	3546	3546	3546	3546	3583	3583	3583	3583	3583	3583	3583	3583	3583	3546	3546	4706	4706	4706	4706	4706	4771	4771	4771	4771	4771	4771	4771	4771	4771	4771	4771	4771	4771	4771	4771	4771	4771	4771	4771	4706	4771	4771	4771	4771	4771	4771	4771	4771	4771	4771	4771	4706	4706	4706	4706	4706	4706	4706	4771	4771	4771	4706	4771	4771	4771	4771	4771	4771	4771	4771	4771	4771	4771	4771	4771	4771	4771	4771	4771	4771	4771	4771	4771	4771	4771	4706	4706	4771	4706	4706	4771	4771	4771	4771	4706	4706	4771	4706	4706	4643	4643	4581	4581	4521	4521	4521	4521	4521	4521	4521	4521	4521	4521	4521	4521	4521	4521	4463	4521	4521	4521	4463	4521	4521	4581	4521	4581	4643	4643	4643	4643	4643	4643	4643	4643	4706	4706	4643	4706	4706	4706	4706	4643	4643	4643	4643	4643	4643	4643	4643	4643	4643	4643	4643	4643	4643	4643	4706	4706	4706	4771	4706	4706	4643	4643	4706	4706	4643	4643	4706	4706	4706	4706	4706	4706	4706	4706	4706	4706	4643	4706	4706	4706	4706	4706	4771	4706	4706	4771	4706	4706	4706	4643	4643	7779	7779	7959	7959	7959	7959	7959	7959	7959	7959	7959	7959	7959	7959	7959	7959	7959	7959	8146	8146	8146	8146	8146	8146	8146	7959	7959	7959	7959	7959	7959	7959	7959	7959	7959	7959	8146	7959	7959	8146	8146	7959	7959	7959	8146	7959	7959	8146	8146	8146	8146	8146	8146	8146	8343	8343	8343	8146	8146	8146	8146	8146	8146	8146	8146	8146	7959	8146	8146	8146	8146	8146	8146	8146	8146	8146	7959	7959	7959	7959	0	0	0	0	0	2629	2649	2629	2589	2570	2570	2532	2514	2532	2514	2514	2514	2496	2496	2478	2478	2460	2460	2443	2426	2409	2409	2409	2409	2392	2392	2376	2359	2359	0	0	0	0	0	0	0	0	0	0	0	0	0	0	0	0	0	0	0	0	0	0	0	0	0	0	0	0	0	0	0	0	0	0	0	0
0	0	0	0	0	887	884	891	891	896	898	898	903	908	908	915	917	920	922	922	925	935	937	940	942	945	948	948	958	961	963	966	972	974	977	980	983	988	994	994	1000	1008	1011	1017	1020	1023	1026	1030	1033	1036	1039	1042	1042	1052	1058	1058	1061	1061	1061	1061	1061	1061	0	0	0	0	0	0	0	0	4838	4771	4706	4706	4706	4706	4706	4706	4706	4706	4706	4706	4706	4706	4706	4771	4706	4706	4706	4706	4706	4706	4706	4706	4706	4706	4706	4706	4706	4706	4706	4706	4706	4706	4706	4706	4706	4706	4706	4706	4706	4643	4643	4643	4643	4643	4643	4643	4643	4706	4706	4706	4706	4706	4706	4706	4706	4643	4706	4706	4706	4643	4643	4643	4643	4643	8146	8343	8343	8343	8343	8343	8343	8343	8146	8146	8146	8146	8146	8146	8343	8146	8343	8146	8146	8146	8146	8146	8146	8146	7959	7959	8146	8146	8146	8146	8146	8146	8343	8343	8146	8146	7959	8146	7959	7959	7959	7959	7959	8146	8146	7959	7959	7959	8146	8146	7959	7959	8146	8146	8146	8146	8146	8146	8146	8146	8146	8146	8146	8146	8146	8146	8146	7959	7959	7959	7959	7779	7959	7959	7959	7959	7959	7959	7959	7959	7959	7959	7959	7959	7959	7959	7959	7959	7959	7959	7959	7959	7959	7959	7959	7959	7959	7959	7959	7959	7959	7959	7959	7959	0	0	3546	3546	3546	3546	3546	3546	3546	3546	3546	3546	3546	3546	3546	3546	3546	3546	3510	3510	3510	3510	3510	3510	3510	3510	3475	3475	3475	3475	3475	3475	3475	3475	3475	3475	3475	3475	3475	3475	3510	3510	3510	3510	3510	3510	3510	3510	3510	3546	3546	3546	3546	3546	3546	3546	3546	3546	3546	3546	3546	3583	3583	3583	3583	3583	3583	3583	3583	3546	3546	4706	4706	4706	4706	4706	4771	4771	4771	4771	4771	4771	4771	4771	4771	4771	4771	4771	4771	4771	4771	4771	4771	4771	4771	4771	4771	4706	4706	4706	4706	4771	4771	4771	4771	4771	4771	4771	4706	4706	4706	4706	4706	4706	4706	4771	4771	4706	4706	4771	4706	4771	4771	4771	4771	4771	4771	4771	4771	4771	4771	4771	4771	4771	4771	4771	4771	4771	4771	4771	4706	4706	4706	4706	4706	4706	4771	4771	4771	4706	4706	4706	4706	4643	4643	4643	4643	4643	4581	4581	4581	4581	4521	4521	4581	4521	4581	4521	4521	4521	4521	4521	4521	4521	4521	4521	4521	4463	4521	4521	4581	4581	4643	4643	4771	4706	4706	4643	4643	4643	4643	4643	4643	4643	4643	4706	4706	4706	4643	4643	4643	4643	4643	4643	4643	4643	4643	4643	4643	4643	4643	4643	4643	4706	4706	4706	4771	4706	4706	4643	4643	4643	4706	4643	4643	4643	4706	4706	4706	4706	4706	4706	4706	4643	4706	4643	4706	4706	4706	4706	4706	4706	4706	4706	4771	4771	4706	4706	4706	7779	7959	7959	7959	7959	7959	8146	7959	8146	7959	8146	8146	7959	7959	7959	7959	7959	7959	7959	8146	8146	8146	8146	8146	8146	8146	7959	7959	7959	7959	7959	7959	7959	7959	7959	7959	8146	8146	8146	8146	8146	8146	8146	8146	8146	8146	8146	8146	8146	8146	8146	8343	8343	8343	8343	8343	8343	8343	8146	8146	8146	8146	8146	8146	8146	8146	8146	7959	8146	8146	8146	8146	8343	8146	8146	8146	8146	8146	8146	8146	7959	0	0	0	0	0	0	2649	2629	2589	2570	2570	2532	2532	2532	2514	2514	2514	2496	2496	2478	2478	2478	2460	2460	2443	2426	2409	2409	2409	2392	2392	2376	2359	2359	0	0	0	0	0	0	0	0	0	0	0	0	0	0	0	0	0	0	0	0	0	0	0	0	0	0	0	0	0	0	0	0	0	0	0	0
0	0	0	0	0	887	887	896	896	898	901	901	903	903	910	917	917	920	922	922	927	927	935	940	945	948	948	950	955	958	963	966	972	974	977	980	980	980	991	997	1000	1008	1014	1017	1020	1023	1026	1030	1033	1036	1039	1042	1048	1052	1058	1058	1061	1061	1061	1061	1061	0	0	0	0	0	0	0	0	4771	4771	4771	4706	4706	4706	4706	4706	4706	4706	4706	4706	4706	4706	4706	4771	4771	4771	4706	4706	4706	4706	4706	4706	4706	4706	4706	4706	4706	4706	4706	4706	4706	4706	4706	4706	4706	4706	4706	4706	4706	4706	4643	4643	4643	4643	4643	4643	4643	4706	4706	4706	4706	4706	4706	4706	4706	4706	4706	4706	4706	4706	4643	4643	4706	4643	4643	8343	8343	8343	8343	8343	8343	8343	8146	8146	8146	8146	8146	8146	8146	8146	8146	8146	8146	8146	8146	8146	8146	8146	8146	8146	7959	7959	8146	8146	8146	8146	8146	8343	8146	7959	8146	7959	8146	7959	7959	7959	7959	7959	7959	8146	7959	7959	7959	7959	7959	7959	7959	8146	8146	8146	8146	8146	8146	8146	8146	8146	8146	8146	8146	8146	8146	8146	7959	7959	7959	7959	7959	7959	7959	7959	7959	7959	7959	7959	7959	7959	7779	7959	7959	7959	7779	7779	7779	7779	7779	7779	7779	7959	7959	7959	7959	7959	7959	7959	7959	7959	7959	7959	0	0	0	3546	3546	3546	3546	3546	3546	3546	3546	3546	3546	3546	3546	3546	3546	3546	3546	3546	3510	3510	3510	3510	3510	3475	3475	3475	3475	3475	3475	3475	3475	3475	3475	3475	3475	3475	3475	3475	3475	3475	3475	3510	3510	3510	3510	3510	3510	3546	3546	3546	3546	3546	3546	3546	3546	3546	3546	3546	3546	3546	3583	3583	3583	3583	3583	3583	3583	3583	3546	3546	3546	4706	4706	4706	4706	4771	4771	4771	4771	4771	4771	4771	4771	4771	4771	4771	4771	4771	4771	4771	4771	4771	4771	4706	4706	4706	4706	4706	4706	4771	4771	4771	4771	4771	4771	4771	4771	4706	4706	4706	4706	4706	4706	4771	4771	4771	4706	4706	4706	4706	4771	4771	4771	4771	4771	4771	4771	4771	4771	4706	4771	4771	4771	4771	4771	4771	4771	4771	4706	4706	4706	4706	4706	4706	4706	4771	4706	4706	4706	4706	4706	4706	4706	4706	4706	4706	4643	4581	4581	4581	4581	4521	4521	4521	4521	4521	4521	4521	4521	4521	4521	4521	4521	4521	4521	4521	4463	4521	4521	4581	4581	4643	4706	4771	4706	4706	4643	4643	4643	4643	4643	4643	4643	4643	4643	4643	4643	4643	4643	4643	4643	4706	4643	4643	4706	4643	4643	4643	4643	4643	4643	4643	4706	4706	4706	4706	4706	4706	4643	4643	4643	4643	4643	4643	4643	4706	4706	4706	4706	4706	4706	4643	4643	4643	4643	4643	4706	4643	4643	4706	4706	4706	4706	4706	4706	4706	4706	4643	4643	7959	7959	7959	7959	7959	8146	7959	8146	7959	8146	8146	8146	7959	7959	7959	8146	7959	8146	8146	8146	8146	8146	8146	8146	8146	8146	7959	7959	7959	7959	7959	7959	7959	7959	7959	8146	8146	8146	7959	8146	8146	8146	8146	8146	8146	8146	8146	8146	8146	8146	8343	8343	8343	8146	8146	8146	8343	8343	8146	8146	8146	8146	7959	7959	8146	8146	8146	8146	8146	8146	8146	8146	8146	8146	8146	8146	8146	8146	8146	8146	0	0	0	0	0	0	0	0	0	2570	2570	2532	2532	2532	2532	2514	2514	2496	2496	2478	2478	2478	2478	2460	2443	2426	2409	2409	2409	2392	2392	2376	2359	2359	0	0	0	0	0	0	0	0	0	0	0	0	0	0	0	0	0	0	0	0	0	0	0	0	0	0	0	0	0	0	0	0	0	0	0	0
0	0	0	0	0	0	884	894	896	901	901	903	905	905	910	917	920	920	922	922	927	927	932	937	942	948	948	950	955	958	963	966	972	974	977	977	980	980	994	997	1000	1006	1011	1014	1020	1023	1026	1026	1033	1036	1042	1045	1048	1052	1055	1058	1061	1061	1061	1061	0	0	0	0	0	0	0	0	0	4706	4771	4706	4706	4706	4706	4706	4706	4706	4706	4706	4706	4706	4706	4706	4706	4771	4771	4706	4706	4706	4706	4706	4706	4643	4706	4706	4706	4706	4706	4706	4706	4706	4706	4706	4706	4706	4706	4706	4706	4706	4706	4643	4643	4643	4643	4643	4643	4643	4706	4706	4706	4706	4706	4706	4706	4706	4706	4706	4706	4706	4706	4706	4706	4706	4706	4706	8343	8343	8343	8343	8343	8343	8343	8146	8146	8146	8146	8146	8146	8146	8146	8146	8146	8146	8146	8146	8146	8146	8146	7959	7959	7959	8146	8146	8146	8146	8146	8146	8343	8343	7959	8146	8146	8146	8146	8146	7959	7959	7959	7959	7959	7959	7959	7959	7959	7959	7959	7959	7959	7959	7959	8146	7959	7959	7959	7959	7959	8146	8146	8146	7959	8146	8146	7959	7959	7959	7959	7959	7959	7959	7959	7959	7959	7779	7959	7959	7959	7959	7959	7779	7779	7779	7779	7959	7779	7779	7779	7959	7959	7959	7959	7959	7959	7959	7959	7959	7959	7959	7959	0	0	0	3583	3546	3546	3546	3546	3546	3546	3546	3546	3546	3546	3546	3546	3546	3546	3546	3510	3510	3510	3510	3510	3510	3475	3475	3475	3475	3510	3475	3510	3475	3475	3475	3475	3475	3475	3475	3475	3475	3475	3475	3475	3510	3510	3510	3510	3546	3546	3546	3546	3546	3546	3546	3546	3546	3546	3546	3546	3546	3546	3546	3583	3583	3583	3583	3583	3583	3583	3546	3546	3546	4706	4706	4706	4706	4771	4771	4771	4771	4771	4771	4771	4771	4771	4771	4771	4771	4771	4771	4771	4771	4706	4706	4771	4771	4771	4771	4771	4771	4771	4771	4771	4771	4771	4771	4771	4771	4771	4706	4706	4771	4706	4706	4706	4706	4706	4706	4706	4706	4706	4706	4771	4771	4771	4771	4771	4771	4771	4771	4706	4706	4706	4706	4771	4771	4706	4706	4706	4706	4706	4706	4706	4706	4706	4706	4706	4706	4706	4706	4706	4706	4706	4706	4706	4706	4706	4643	4521	4521	4521	4521	4521	4521	4521	4521	4521	4521	4521	4463	4463	4463	4463	4463	4463	4463	4463	4463	4463	4521	4581	4581	4643	4706	4706	4706	4706	4643	4643	4643	4643	4643	4643	4643	4643	4706	4706	4706	4706	4706	4643	4643	4643	4643	4643	4643	4643	4643	4643	4643	4643	4643	4643	4706	4706	4706	4706	4706	4643	4643	4643	4643	4643	4643	4643	4643	4706	4706	4706	4706	4706	4706	4643	4643	4643	4581	4643	4643	4643	4643	4706	4706	4706	4706	4706	4706	4706	4643	4643	7779	7959	7959	7959	7959	7959	7959	7959	7959	7959	7959	7959	7959	8146	8146	8146	8146	7959	8146	8146	8146	8146	8146	8146	8146	8146	8146	7959	7959	7959	7959	7959	7959	7959	7959	8146	8146	8146	8146	8146	8146	8146	8146	8146	8146	8146	8146	8146	8146	8146	8146	8343	8343	8343	8146	8146	8146	8343	8146	8146	8146	8146	7959	7959	7959	8146	8146	8146	8146	8146	8146	8146	8343	8146	8146	8146	8343	8146	8343	8146	8146	0	0	0	0	0	0	0	0	0	2570	2551	2551	2532	2532	2532	2514	2514	2496	2496	2496	2478	2478	2478	2460	2460	2426	2426	2409	2409	2392	2392	2376	2359	2359	0	0	0	0	0	0	0	0	0	0	0	0	0	0	0	0	0	0	0	0	0	0	0	0	0	0	0	0	0	0	0	0	0	0	0	0
0	0	0	0	0	0	884	889	898	901	903	903	908	910	913	917	920	922	922	922	922	925	925	937	945	950	953	950	955	958	963	966	972	974	977	977	980	980	997	997	1000	1006	1008	1011	1020	1023	1026	1030	1036	1039	1042	1042	1048	1052	1052	1058	1061	1061	1061	1061	0	0	0	0	0	0	0	0	4771	4706	4771	4706	4706	4706	4706	4706	4706	4706	4706	4706	4706	4706	4706	4771	4706	4771	4706	4706	4706	4706	4706	4706	4706	4643	4706	4706	4706	4706	4706	4706	4706	4706	4706	4706	4706	4706	4706	4706	4706	4706	4706	4706	4706	4706	4706	4706	4643	4643	4706	4706	4706	4706	4706	4706	4706	4706	4706	4706	4706	4706	4706	4643	4643	4643	4643	4643	8343	8343	8343	8343	8343	8343	8146	8146	8146	8146	8146	8146	8146	8146	8146	8146	8146	8146	8146	8146	8146	8146	8146	7959	7959	7959	8146	8146	8146	8146	8146	8146	8146	8146	7959	8146	8146	7959	7959	8146	7959	7959	7959	7959	7959	7959	7959	7959	7959	7959	7959	7959	7959	7959	7959	8146	7959	7959	7959	7959	7959	8146	7959	7959	7959	7959	7959	7959	7959	7959	7959	7959	7959	7959	7959	7959	7959	7779	7779	7779	7779	7959	7959	7959	7959	7959	7959	7959	7779	7779	7779	7779	7959	7959	7959	7959	7959	7959	7959	7959	7959	7959	7959	0	0	0	3546	3546	3546	3546	3546	3510	3510	3546	3546	3546	3546	3546	3546	3546	3546	3546	3510	3510	3510	3510	3475	3475	3475	3475	3475	3475	3510	3510	3510	3510	3510	3510	3510	3475	3475	3475	3475	3475	3475	3475	3475	3475	3475	3510	3510	3510	3546	3546	3546	3546	3546	3546	3546	3546	3546	3546	3546	3546	3546	3546	3583	3583	3583	3583	3583	3583	3583	3546	3546	4771	4771	4771	4706	4706	4771	4771	4771	4771	4771	4771	4771	4771	4771	4771	4771	4771	4771	4771	4771	4706	4706	4771	4771	4771	4771	4771	4771	4771	4771	4771	4771	4771	4771	4771	4771	4771	4771	4706	4706	4771	4706	4706	4706	4706	4706	4706	4706	4706	4706	4706	4771	4771	4771	4771	4771	4771	4771	4771	4706	4706	4706	4706	4771	4771	4706	4771	4771	4706	4706	4706	4706	4706	4706	4706	4706	4706	4706	4706	4706	4706	4706	4706	4706	4706	4706	4643	4521	4521	4521	4521	4521	4521	4521	4521	4521	4521	4521	4463	4463	4463	4463	4406	4463	4463	4463	4463	4463	4521	4581	4581	4643	4643	4706	4706	4643	4643	4643	4643	4643	4643	4643	4643	4643	4706	4706	4706	4706	4706	4706	4643	4706	4643	4643	4643	4643	4643	4643	4643	4643	4643	4643	4706	4706	4706	4706	4706	4643	4643	4643	4706	4706	4706	4643	4706	4706	4706	4706	4706	4706	4706	4706	4643	4643	4643	4643	4706	4706	4706	4706	4706	4706	4771	4706	4706	4706	7444	7444	7608	7959	7959	7959	7959	7959	7959	7959	7959	7959	7959	8146	8146	8146	8146	8146	8146	8146	8146	8146	8146	8146	8146	8146	8146	8146	8146	7959	7959	7959	8146	8146	8146	8146	8146	8146	8146	8146	8146	8146	8146	8146	8146	8146	8146	8146	8146	8146	7959	7959	7959	8146	8146	8146	8146	8146	8146	8146	8343	8146	7959	8146	8146	8146	8146	8146	8146	8146	8146	8146	8343	8343	8343	8343	8146	8146	8146	8146	8146	7959	7959	0	0	0	0	0	0	0	0	2551	2570	2570	2551	2551	2551	2532	2514	2514	2496	2496	2496	2478	2478	2478	2460	2443	2426	2426	2409	2409	2392	2392	2376	2376	2376	0	0	0	0	0	0	0	0	0	0	0	0	0	0	0	0	0	0	0	0	0	0	0	0	0	0	0	0	0	0	0	0	0	0	0	0
0	0	0	0	0	0	884	887	889	901	901	903	910	913	915	917	920	922	922	922	922	925	925	940	948	950	953	953	955	958	963	966	972	974	977	977	977	983	994	997	1000	1003	1008	1011	1020	1026	1030	1030	1036	1039	1042	1042	1045	1052	1052	1055	1061	1061	0	0	0	0	0	0	0	0	0	4838	4771	4706	4706	4706	4706	4706	4706	4706	4706	4706	4706	4706	4706	4706	4706	4706	4706	4706	4706	4706	4706	4706	4706	4643	4643	4643	4643	4706	4706	4643	4643	4643	4706	4706	4706	4706	4706	4706	4706	4706	4706	4706	4706	4706	4706	4706	4706	4643	4643	4643	4706	4706	4706	4706	4706	4706	4706	4706	4706	4706	4706	4706	4706	4706	4706	4706	4706	8343	8343	8343	8146	8146	8146	8146	8146	8146	8146	8146	8146	8146	8146	8146	8146	8146	8146	8146	8146	8146	7959	8146	8146	7959	7959	7959	8146	8146	8146	8146	8146	8146	8146	8146	7959	7959	8146	7959	7959	8146	7959	7959	7959	7959	7959	7959	7959	7959	7959	8146	8146	8146	7959	7959	7959	8146	7959	7959	7959	7959	7959	8146	7959	7959	7959	7959	8146	8146	8146	8146	8146	7959	7959	7959	7959	7959	7779	7779	7779	7779	7779	7779	7959	7959	7959	7959	7959	7959	7959	7959	7959	7959	7959	7959	7959	7959	7959	7959	8146	7959	7959	7959	7959	7959	0	0	3546	3546	3546	3546	3546	3510	3510	3546	3546	3546	3546	3546	3546	3546	3546	3546	3510	3510	3475	3475	3475	3475	3475	3475	3475	3475	3510	3510	3510	3510	3510	3510	3510	3510	3475	3475	3475	3475	3475	3475	3510	3475	3475	3510	3510	3510	3510	3510	3546	3546	3546	3546	3546	3546	3546	3546	3546	3546	3546	3546	3583	3583	3583	3583	3583	3546	3583	3546	3546	4771	4771	4771	4706	4706	4771	4771	4771	4771	4771	4706	4771	4771	4771	4771	4771	4771	4771	4771	4706	4706	4771	4771	4771	4771	4771	4771	4771	4771	4771	4706	4771	4771	4771	4771	4771	4706	4771	4706	4706	4771	4771	4706	4706	4706	4706	4706	4706	4706	4643	4706	4706	4706	4706	4771	4771	4771	4771	4771	4706	4706	4706	4706	4706	4706	4706	4706	4706	4706	4706	4706	4706	4706	4706	4706	4706	4706	4706	4706	4706	4706	4706	4706	4706	4706	4706	4643	4521	4521	4463	4521	4521	4521	4521	4521	4521	4521	4521	4463	4463	4463	4463	4406	4406	4463	4463	4463	4463	4521	4521	4581	4581	4643	4643	4706	4643	4643	4643	4643	4643	4643	4643	4643	4706	4706	4706	4706	4706	4706	4643	4706	4643	4643	4643	4643	4643	4643	4643	4643	4706	4706	4643	4706	4706	4706	4706	4706	4643	4643	4643	4643	4643	4643	4643	4643	4706	4706	4706	4706	4706	4706	4706	4643	4706	4643	4706	4706	4706	4706	4706	4706	4706	4706	4706	4706	7444	7444	7608	7608	7959	7959	7959	7959	7959	7959	7959	7959	7959	7959	8146	8146	8146	8146	8146	8146	8146	8146	8146	8146	8146	8146	8146	7959	8146	8146	8146	8146	8146	8146	8146	8146	8146	8146	8146	8146	8146	8146	8146	8146	8146	8146	8146	7959	8146	8146	8146	8146	8146	7959	7959	8146	8146	7959	8146	8146	8146	8146	8146	7959	8146	8146	8146	8146	8146	8146	8146	8343	8146	8550	8343	8146	8146	8146	8146	8146	8146	8146	8146	8146	0	0	0	0	0	0	0	0	2551	2570	2570	2570	2551	2551	2532	2514	2514	2496	2496	2496	2478	2478	2460	2460	2443	2443	2426	2409	2409	2392	2392	2376	2376	2376	0	0	0	0	0	0	0	0	0	0	0	0	0	0	0	0	0	0	0	0	0	0	0	0	0	0	0	0	0	0	0	0	0	0	0	0
0	0	0	0	0	0	882	884	884	889	903	908	913	913	915	917	920	922	922	922	925	927	932	940	948	948	950	950	955	958	963	966	972	974	974	977	977	985	994	994	997	1000	1003	1006	1020	1026	1030	1030	1036	1042	1042	1045	1048	1052	1055	1055	1058	1064	1068	1068	0	0	0	0	0	0	0	4838	4771	4706	4706	4706	4706	4706	4706	4643	4706	4706	4706	4706	4706	4706	4706	4706	4706	4706	4706	4706	4706	4706	4706	4643	4643	4643	4643	4706	4706	4643	4706	4706	4706	4706	4706	4706	4706	4706	4706	4706	4706	4706	4706	4706	4706	4706	4706	4706	4706	4706	4706	4706	4706	4706	4706	4706	4706	4706	4706	4706	4706	4706	4706	4706	4706	4706	4643	4643	8343	8343	8146	8146	8146	8146	8146	8146	8146	8146	8146	8146	8146	8146	8146	8146	8146	8146	8146	7959	7959	7959	8146	7959	7959	7959	8146	8146	8146	8146	8146	8146	8146	8146	7959	7959	8146	7959	7959	7959	7959	7959	7959	7959	7959	7959	7959	7959	7959	8146	8146	8146	7959	7959	7959	7959	7959	7959	7959	7959	7959	7959	7959	7959	7959	7959	7959	7959	8146	8146	7959	7959	7959	7959	7959	7959	7779	7779	7779	7779	7779	7779	7959	7959	7959	7959	7959	7959	7959	7959	7779	7959	7959	7959	7959	7959	7959	8146	8146	7959	8146	8146	7959	7959	0	0	3546	3546	3546	3546	3546	3546	3546	3546	3546	3546	3546	3546	3546	3546	3546	3510	3510	3510	3475	3475	3475	3475	3475	3475	3475	3510	3510	3546	3510	3546	3546	3510	3510	3510	3510	3510	3475	3475	3475	3475	3510	3475	3475	3510	3510	3510	3510	3510	3546	3546	3546	3546	3546	3546	3546	3546	3546	3546	3546	3546	3583	3583	3583	3583	3583	3583	3583	3583	3583	4771	4771	4706	4706	4706	4706	4771	4771	4771	4706	4706	4771	4771	4771	4771	4771	4706	4771	4771	4771	4706	4771	4771	4771	4771	4771	4771	4771	4771	4771	4771	4771	4771	4771	4771	4771	4771	4771	4706	4706	4771	4771	4771	4706	4706	4706	4706	4706	4706	4706	4706	4706	4706	4771	4706	4706	4771	4771	4771	4706	4706	4706	4706	4706	4706	4706	4706	4706	4706	4706	4706	4706	4706	4706	4771	4706	4706	4706	4706	4706	4706	4706	4706	4706	4706	4706	4643	4581	4521	4521	4521	4521	4521	4521	4521	4521	4521	4521	4463	4406	4463	4406	4406	4463	4463	4463	4463	4463	4463	4521	4521	4581	4643	4706	4706	4706	4643	4706	4643	4643	4643	4643	4643	4643	4706	4706	4706	4706	4706	4643	4706	4706	4643	4643	4643	4643	4643	4643	4706	4706	4706	4706	4706	4706	4706	4643	4706	4643	4643	4643	4643	4706	4706	4706	4643	4643	4643	4643	4706	4643	4706	4706	4706	4706	4643	4706	4706	4706	4706	4706	4706	4706	4706	4706	4706	7444	7444	7608	7608	7779	7959	7959	7959	7959	7959	7959	7959	7959	7959	7959	7959	8146	8146	8146	8146	8146	8146	8146	8146	8146	8146	8146	7959	7959	8146	8146	8146	8146	8146	8146	8146	8146	8343	8343	8343	8146	8146	8146	8146	8146	8146	8146	7959	8146	8146	8146	7959	8146	7959	7959	8146	8146	7959	8146	8146	8146	8146	8146	7959	8146	8146	8146	8146	8146	8146	8146	8146	8343	8343	8343	8343	8343	8343	8146	8146	8146	8146	8146	8146	8146	8146	0	0	0	0	0	0	0	2570	2570	2570	2551	2551	2532	2532	2514	2496	2496	2496	2478	2478	2460	2443	2443	2426	2409	2409	2409	2409	2392	2392	2376	2376	0	0	0	0	0	0	0	0	0	0	0	0	0	0	0	0	0	0	0	0	0	0	0	0	0	0	0	0	0	0	0	0	0	0	0	0
0	0	0	0	0	0	884	887	889	891	905	910	913	913	915	917	920	920	920	922	925	927	932	937	945	948	950	953	955	958	963	969	972	974	974	977	980	983	991	994	994	997	1006	1014	1023	1026	1030	1030	1036	1036	1039	1042	1048	1048	1055	1055	1058	1064	1068	1074	1074	0	0	0	0	0	0	0	0	4643	4643	4643	4643	4706	4643	4643	4706	4706	4643	4706	4706	4706	4706	4706	4706	4706	4706	4706	4706	4706	4706	4706	4643	4643	4643	4706	4706	4706	4706	4706	4706	4706	4706	4706	4706	4706	4706	4706	4706	4706	4706	4706	4706	4706	4706	4706	4706	4706	4706	4706	4706	4706	4706	4643	4706	4706	4706	4706	4706	4706	4706	4706	4706	4706	4643	4643	8146	8146	8146	8146	8146	8146	8146	8146	8146	8146	8146	8146	8146	8146	8146	8146	8146	8146	8146	7959	7959	8146	8146	8146	7959	7959	8146	8146	8146	8146	8146	8146	8146	8146	7959	7959	8146	7959	7959	8146	7959	8146	8146	8146	7959	8146	7959	7959	7959	8146	8146	8146	7959	7959	7959	8146	7959	7959	7959	7959	7959	7959	7959	7959	7959	7959	7959	7959	7959	7959	7959	7959	7959	7959	7959	7959	7959	7779	7779	7779	7779	7959	7959	7959	7959	7959	7959	7959	7959	7959	7779	7779	7959	7959	7959	7959	7959	8146	8146	8146	8146	8146	8146	8146	0	0	3546	3546	3546	3546	3546	3510	3510	3510	3510	3546	3546	3546	3546	3510	3510	3510	3510	3510	3475	3475	3475	3475	3475	3475	3510	3510	3546	3546	3546	3546	3546	3546	3510	3510	3510	3510	3475	3475	3475	3510	3510	3475	3475	3510	3510	3510	3510	3510	3546	3546	3546	3546	3546	3546	3546	3546	3546	3546	3546	3583	3583	3583	3583	3583	3583	3583	3583	3583	4706	4771	4706	4706	4706	4706	4706	4771	4771	4706	4771	4771	4771	4771	4771	4771	4771	4706	4706	4706	4706	4706	4771	4771	4771	4771	4771	4771	4771	4771	4771	4771	4771	4771	4771	4771	4771	4771	4771	4706	4706	4771	4706	4706	4706	4706	4706	4706	4706	4706	4643	4643	4706	4643	4643	4706	4706	4771	4771	4771	4706	4706	4706	4706	4706	4706	4706	4706	4706	4706	4706	4706	4706	4706	4706	4771	4706	4706	4706	4706	4706	4706	4706	4706	4706	4706	4706	4643	4581	4521	4521	4521	4521	4521	4521	4521	4521	4521	4463	4406	4406	4406	4406	4406	4406	4406	4463	4463	4406	4521	4521	4581	4643	4643	4706	4706	4706	4643	4706	4643	4643	4643	4643	4643	4706	4706	4706	4706	4706	4706	4706	4706	4706	4706	4643	4643	4643	4643	4643	4643	4706	4706	4643	4706	4643	4643	4643	4643	4643	4643	4643	4643	4643	4643	4643	4643	4643	4643	4706	4706	4643	4706	4706	4706	4643	4643	4706	4706	4706	4706	4706	4706	4706	4706	4706	4706	7287	7444	7608	7779	7779	7959	7959	7959	7779	7779	7959	7959	7959	7959	7959	8146	8146	8146	8146	8146	8146	8146	8146	8146	8146	8146	8146	8146	8146	8146	8146	8146	8146	8146	8343	8146	8146	8343	8343	8343	8343	8146	8146	8146	8146	8146	8146	7959	7959	8146	7959	7959	7959	7959	7959	8146	8343	8146	8146	8146	8146	8146	8146	8146	8146	8146	8146	8343	8146	8146	8146	8146	8343	8343	8343	8343	8343	8343	8343	8146	8146	8146	8146	8146	8146	8146	0	0	0	0	0	0	2551	2570	2570	2570	2551	2551	2532	2532	2514	2496	2496	2478	2478	2478	2460	2443	2443	2426	2409	2409	2409	2409	2392	2392	2376	2376	0	0	0	0	0	0	0	0	0	0	0	0	0	0	0	0	0	0	0	0	0	0	0	0	0	0	0	0	0	0	0	0	0	0	0	0
0	0	0	0	0	0	884	887	887	887	910	910	913	913	915	917	920	922	922	925	927	927	932	940	948	948	950	953	955	958	963	969	972	974	977	977	980	988	994	994	997	1000	1008	1011	1026	1026	1030	1033	1036	1036	1039	1042	1045	1052	1055	1055	1058	1064	1068	1074	1074	0	0	0	0	0	0	0	0	4643	4643	4643	4643	4643	4643	4643	4643	4706	4643	4706	4706	4706	4706	4706	4706	4706	4706	4706	4706	4706	4706	4706	4706	4643	4706	4706	4706	4706	4706	4706	4706	4706	4706	4706	4706	4706	4706	4706	4706	4706	4706	4706	4706	4706	4706	4706	4706	4706	4706	4706	4706	4706	4706	4706	4706	4706	4706	4706	4706	4706	4706	4706	4706	4706	4643	4643	8146	8146	8146	8146	8146	8146	8146	8146	8146	8146	8146	8146	8146	8146	8146	8146	8146	8146	8146	7959	7959	8146	8146	8146	8146	8146	8146	8343	8146	8146	8146	8146	8146	8146	7959	7959	8146	7959	7959	8146	7959	7959	7959	7959	7959	7959	7959	7959	7959	7959	7959	7959	7959	7959	8146	8146	7959	7959	7959	7959	7959	7959	7959	7959	8146	8146	8146	8146	8146	8146	8146	7959	7959	7959	7959	7959	7959	7959	7959	7959	7779	7959	7959	7959	7959	7959	8146	8146	7959	7959	7959	7779	7959	7959	7959	7959	7959	8146	8146	8146	8146	8146	8146	8146	0	0	3546	3546	3546	3546	3546	3510	3510	3510	3510	3510	3510	3546	3546	3510	3510	3546	3510	3510	3510	3510	3510	3510	3510	3510	3510	3546	3546	3546	3546	3546	3546	3546	3510	3510	3510	3475	3475	3510	3510	3510	3510	3510	3510	3510	3546	3546	3510	3546	3546	3546	3546	3546	3546	3546	3546	3546	3546	3546	3546	3546	3583	3583	3583	3583	3583	3583	3583	3583	4706	4771	4706	4706	4706	4706	4706	4771	4771	4771	4771	4771	4771	4771	4771	4771	4771	4706	4706	4771	4706	4706	4771	4771	4771	4771	4771	4771	4771	4771	4771	4771	4771	4771	4771	4771	4771	4771	4771	4706	4706	4771	4706	4706	4706	4706	4706	4706	4706	4643	4643	4643	4643	4643	4706	4643	4706	4706	4771	4771	4706	4706	4706	4706	4706	4706	4706	4643	4706	4706	4706	4706	4706	4706	4706	4771	4706	4706	4706	4706	4706	4706	4706	4706	4706	4706	4706	4643	4581	4581	4521	4521	4521	4521	4521	4521	4521	4463	4463	4406	4350	4350	4350	4406	4406	4406	4406	4406	4406	4463	4521	4581	4581	4643	4706	4706	4706	4706	4706	4643	4643	4643	4643	4643	4643	4643	4706	4706	4706	4706	4706	4706	4706	4706	4706	4643	4643	4643	4643	4643	4643	4643	4643	4643	4643	4643	4643	4643	4643	4643	4643	4643	4643	4643	4643	4643	4643	4643	4706	4706	4643	4706	4706	4706	4643	4643	4706	4771	4771	4706	4706	4706	4771	4771	4706	4706	4706	7444	7608	7959	7779	7959	7959	7779	7779	7779	7959	7959	7959	7959	7959	8146	8146	8146	8146	7959	7959	8146	8146	8146	8146	8146	8146	8146	8146	8146	8146	8146	8146	8343	8343	8146	8146	8146	8343	8343	8146	8146	8146	8146	8146	8146	7959	7959	7959	8146	7959	7959	7959	7959	8146	8146	8146	8146	8146	8146	8146	8146	8146	8146	8146	8146	8146	8146	8146	8146	8146	8343	8343	8550	8343	8343	8343	8343	8343	8146	8146	8146	7959	8146	8146	8146	0	0	0	0	0	0	2551	2570	2570	2570	2551	2551	2532	2532	2514	2496	2496	2478	2478	2460	2460	2443	2443	2443	2426	2409	2409	2392	2392	2392	2376	2376	0	0	0	0	0	0	0	0	0	0	0	0	0	0	0	0	0	0	0	0	0	0	0	0	0	0	0	0	0	0	0	0	0	0	0	0
0	0	0	0	0	0	884	887	887	887	910	910	913	913	915	917	922	922	922	927	927	930	935	942	945	948	950	953	955	958	966	972	974	974	977	980	983	988	988	994	994	1000	1006	1006	1026	1030	1030	1033	1036	1036	1039	1042	1045	1048	1052	1052	1058	1064	1068	1071	1071	0	0	0	0	0	0	0	0	4643	4643	4643	4643	4706	4643	4643	4706	4643	4643	4643	4643	4643	4643	4706	4706	4706	4706	4706	4706	4706	4706	4706	4706	4706	4706	4706	4706	4706	4706	4706	4706	4706	4706	4706	4706	4706	4706	4706	4706	4706	4706	4706	4706	4706	4706	4706	4706	4706	4706	4706	4706	4706	4706	4706	4706	4706	4706	4706	4706	4706	4706	4771	4706	4643	4643	4643	8146	8146	8146	8146	8146	8146	8146	8146	8146	8146	8146	8146	8146	8146	8146	8146	8146	8146	8146	7959	7959	8146	8146	8146	8146	7959	8146	8146	8146	8146	8146	7959	7959	7959	7959	8146	8146	7959	8146	8146	8146	7959	7959	7959	7959	7959	7959	7959	7959	7959	8146	8146	8146	8146	8146	8146	8146	8146	7959	7959	7959	7959	7959	7959	7959	8146	8146	8146	8146	8146	7959	7959	7959	7959	7959	7959	7959	7959	7959	7959	7959	8146	8146	8343	8146	8146	8146	8343	8146	8146	7959	7959	8146	7959	7959	7959	7959	7959	8146	7959	7959	8146	7959	7959	0	0	3546	3546	3546	3546	3546	3510	3510	3510	3510	3546	3510	3510	3510	3510	3510	3510	3510	3510	3510	3510	3510	3510	3510	3510	3510	3546	3546	3546	3546	3546	3546	3546	3510	3510	3510	3475	3475	3475	3510	3510	3510	3510	3510	3510	3510	3546	3510	3510	3546	3546	3546	3546	3546	3546	3546	3546	3546	3546	3546	3546	3546	3546	3583	3583	3583	3583	3546	4706	4706	4771	4771	4706	4706	4706	4706	4771	4771	4771	4771	4771	4771	4771	4771	4771	4771	4706	4771	4771	4771	4771	4771	4771	4771	4771	4771	4771	4771	4771	4771	4771	4771	4706	4771	4771	4771	4706	4771	4706	4706	4706	4706	4706	4706	4706	4706	4706	4706	4706	4643	4643	4643	4643	4643	4643	4706	4706	4706	4706	4706	4706	4706	4706	4706	4706	4706	4706	4706	4706	4706	4706	4706	4771	4706	4771	4706	4706	4706	4771	4771	4771	4771	4771	4706	4706	4706	4643	4581	4581	4521	4521	4521	4521	4521	4521	4463	4463	4463	4463	4406	4406	4406	4406	4406	4463	4463	4463	4463	4463	4521	4521	4581	4643	4706	4643	4643	4706	4706	4706	4643	4643	4643	4706	4706	4706	4706	4706	4706	4706	4706	4706	4706	4706	4706	4643	4643	4643	4643	4643	4706	4643	4643	4643	4643	4643	4643	4643	4643	4643	4643	4643	4643	4643	4643	4643	4643	4643	4706	4643	4643	4706	4706	4706	4706	4643	4771	4771	4771	4771	4771	4771	4771	4771	4706	4706	4706	7444	7959	7959	7959	7959	7959	7779	7608	7779	7959	7959	7959	7959	7959	7959	7959	8146	7959	7959	8146	7959	8146	7959	8146	8146	8146	8146	8146	8146	8146	8146	8146	8343	8343	8146	8146	8146	8146	8146	8146	8146	8146	8146	8146	8146	8146	7959	8146	8146	7959	7959	7959	8146	8146	8146	8146	8146	8146	8146	8146	8146	8146	8146	8146	8146	8146	8343	8146	8146	8146	8343	8550	8550	8550	8550	8146	8343	8343	8146	8146	7959	7959	7959	7959	7959	0	0	0	0	0	0	2551	2570	2570	2570	2551	2551	2532	2532	2514	2496	2496	2478	2460	2460	2443	2443	2443	2443	2426	2409	2409	2392	2392	2392	2392	2392	0	0	0	0	0	0	0	0	0	0	0	0	0	0	0	0	0	0	0	0	0	0	0	0	0	0	0	0	0	0	0	0	0	0	0	0
0	0	0	0	0	0	887	887	887	887	887	913	913	913	917	922	922	922	922	930	930	932	937	942	945	948	953	955	958	961	966	969	972	972	977	980	983	988	991	991	997	1000	1008	1011	1020	1026	1030	1030	1033	1036	1039	1042	1045	1048	1048	1052	1058	1061	1064	1071	1074	1074	0	0	0	0	0	0	0	0	4706	4706	4706	4706	4706	4706	4706	4706	4643	4706	4706	4706	4706	4706	4706	4706	4706	4706	4706	4706	4706	4706	4706	4706	4706	4706	4706	4706	4706	4706	4706	4706	4706	4706	4706	4706	4706	4706	4706	4706	4706	4706	4706	4706	4706	4706	4706	4706	4706	4706	4706	4706	4706	4706	4706	4706	4706	4706	4706	4706	4706	4706	4706	4643	4643	8146	8146	8146	8146	8146	8146	8146	8146	8146	8146	8146	8146	8146	8146	8146	8146	8146	8146	8146	8146	8146	8146	8146	8146	8146	8146	8146	8146	8146	8146	7959	7959	7959	7959	7959	7959	7959	8146	7959	8146	8146	8146	8146	7959	7959	7959	7959	7959	7959	7959	7959	7959	8146	8146	8146	8146	8146	8146	8146	7959	7959	7959	7959	7959	7959	8146	8146	8146	8146	8146	8146	7959	7959	7959	7959	7959	7959	7959	7959	7959	7959	7959	8146	8343	8343	8343	8146	8343	8146	8146	7959	7959	7959	8146	7959	7959	7959	7959	7959	7959	7959	7959	7959	7959	8146	8146	0	3546	3546	3546	3546	3546	3510	3510	3510	3510	3510	3510	3510	3510	3510	3510	3510	3546	3510	3510	3510	3510	3510	3510	3510	3510	3546	3546	3546	3546	3546	3546	3510	3510	3510	3475	3475	3475	3510	3510	3510	3510	3510	3510	3510	3510	3510	3510	3510	3546	3546	3546	3546	3546	3546	3546	3546	3546	3546	3546	3546	3546	3546	3546	3546	3583	3546	3546	4706	4706	4706	4706	4706	4706	4706	4771	4771	4771	4771	4771	4771	4771	4771	4771	4771	4771	4706	4771	4771	4771	4771	4771	4771	4771	4771	4771	4771	4771	4771	4771	4771	4771	4706	4706	4771	4771	4771	4771	4706	4706	4706	4706	4706	4706	4706	4706	4706	4706	4706	4643	4643	4643	4643	4706	4643	4706	4706	4706	4706	4706	4706	4706	4643	4706	4706	4643	4706	4706	4706	4706	4706	4706	4771	4706	4771	4706	4706	4771	4771	4771	4771	4706	4771	4706	4706	4706	4643	4581	4581	4521	4521	4521	4521	4521	4521	4463	4463	4463	4463	4406	4406	4406	4406	4463	4463	4463	4406	4406	4463	4521	4521	4581	4581	4643	4643	4706	4706	4706	4706	4643	4643	4706	4706	4706	4643	4706	4706	4706	4706	4706	4706	4706	4706	4643	4643	4643	4643	4643	4643	4643	4643	4643	4643	4643	4643	4643	4643	4643	4643	4643	4643	4643	4643	4643	4643	4643	4643	4706	4643	4643	4643	4643	4706	4706	4706	4771	4771	4771	4771	4771	4771	4771	4706	4706	4706	4643	4643	4643	7959	7959	7959	7959	7779	7779	7779	7959	7959	7959	7959	7959	7959	8146	7959	7959	7959	8146	7959	7959	7959	8146	8146	8146	8146	8146	8146	8146	8343	8343	8343	8343	8343	8146	8343	8146	8146	8146	8146	8146	7959	8146	8146	7959	8146	8146	8146	7959	7959	7959	7959	8146	8146	8146	8146	8146	8146	8146	8146	8146	8146	8146	8146	8146	8146	8146	8146	8146	8343	8343	8550	8343	8343	8343	8343	8343	8146	7959	7959	7959	7959	7959	7959	0	0	0	0	0	0	0	2570	2570	2570	2551	2551	2532	2532	2514	2496	2496	2478	2460	2460	2443	2443	2443	2426	2426	2426	2409	2409	2392	2392	2392	2392	0	0	0	0	0	0	0	0	0	0	0	0	0	0	0	0	0	0	0	0	0	0	0	0	0	0	0	0	0	0	0	0	0	0	0	0
0	0	0	0	0	0	887	889	889	896	896	913	913	915	917	925	922	922	922	927	930	930	935	940	942	942	948	948	961	963	966	972	972	974	977	980	983	985	991	991	994	1000	1008	1011	1020	1023	1030	1030	1033	1036	1039	1042	1045	1048	1052	1052	1058	1058	1064	1064	1074	1074	0	0	0	0	0	0	0	4643	4706	4706	4706	4706	4706	4706	4706	4643	4643	4643	4643	4643	4643	4706	4706	4706	4706	4706	4706	4706	4706	4706	4706	4706	4706	4706	4706	4706	4706	4706	4706	4706	4706	4706	4706	4706	4706	4706	4706	4706	4643	4643	4706	4706	4706	4706	4706	4706	4706	4706	4706	4706	4706	4643	4643	4643	4706	4643	4706	4706	4706	4706	4706	4643	4643	8146	8146	8146	8146	8146	8146	8146	8146	8146	8146	8146	8146	8146	8146	8146	8146	8146	8146	8146	8146	8146	8146	8343	8343	8146	8146	8146	8343	8146	8146	8146	8146	7959	8146	7959	7959	8146	8146	8146	8146	8146	8146	8146	7959	8146	7959	7959	7959	7959	7959	7959	8146	8146	8146	8146	8146	8146	8146	8146	7959	7959	7959	7959	7959	7959	8146	8146	8146	8146	7959	7959	7959	7959	7959	7959	7959	7959	7959	7959	7959	7959	7959	8146	8343	8343	8343	8146	8146	8146	8146	7959	7959	7959	8146	7959	7959	7959	7959	7959	7959	7779	7779	7959	7959	7959	7959	0	3546	3546	3546	3546	3546	3510	3510	3510	3510	3510	3510	3510	3510	3510	3510	3510	3546	3510	3510	3510	3510	3510	3510	3510	3510	3546	3546	3546	3546	3546	3546	3510	3510	3510	3510	3475	3510	3510	3510	3510	3510	3510	3510	3510	3510	3510	3510	3510	3510	3546	3546	3546	3546	3546	3546	3546	3546	3546	3546	3546	3546	3546	3546	3546	3583	3546	3546	3546	4706	4706	4706	4706	4706	4706	4706	4706	4771	4771	4771	4771	4771	4771	4771	4771	4771	4706	4771	4771	4771	4771	4771	4771	4771	4771	4771	4706	4706	4706	4706	4706	4771	4706	4706	4706	4706	4771	4771	4706	4706	4706	4706	4706	4706	4706	4706	4706	4706	4706	4706	4643	4643	4643	4643	4643	4643	4643	4706	4643	4643	4643	4643	4643	4706	4706	4643	4643	4643	4706	4706	4643	4643	4706	4706	4771	4706	4706	4771	4771	4771	4771	4771	4771	4706	4706	4706	4643	4643	4581	4581	4521	4521	4521	4521	4521	4463	4463	4463	4463	4463	4406	4406	4463	4406	4463	4406	4406	4406	4463	4521	4521	4521	4581	4643	4643	4706	4706	4706	4706	4706	4706	4706	4706	4706	4643	4706	4706	4706	4706	4706	4706	4706	4706	4643	4643	4643	4643	4643	4581	4643	4643	4643	4643	4643	4643	4643	4643	4643	4643	4581	4581	4643	4643	4581	4643	4643	4643	4643	4643	4581	4643	4643	4643	4643	4706	4771	4771	4771	4771	4771	4771	4771	4706	4706	4706	4706	4706	4706	7959	7959	7959	7959	7779	7779	7779	7959	7959	7959	7959	7959	7959	8146	7959	7959	7959	7959	7959	7959	7959	7959	7959	8146	8146	8146	8146	8146	8343	8146	8343	8343	8146	8146	8146	8146	8146	8146	8146	8146	7959	8146	7959	7959	7959	7959	8146	7959	7959	8146	8146	8146	8146	8146	8146	8146	8146	8146	8146	8146	8146	8146	8146	8146	8343	8146	8146	8146	8343	8343	8550	8343	8343	8343	8343	8343	7959	7959	7959	7959	8146	8146	7959	0	0	0	0	0	0	0	2570	2570	2570	2551	2551	2532	2514	2514	2496	2496	2478	2460	2460	2443	2443	2426	2426	2426	2409	2409	2392	2392	2392	2392	2392	0	0	0	0	0	0	0	0	0	0	0	0	0	0	0	0	0	0	0	0	0	0	0	0	0	0	0	0	0	0	0	0	0	0	0	0
0	0	0	0	0	0	889	889	896	896	908	910	910	910	917	925	922	922	925	930	930	932	937	940	942	942	942	953	958	963	969	972	972	974	977	980	980	985	991	994	997	1003	1008	1011	1014	1023	1030	1030	1033	1036	1039	1042	1045	1048	1048	1052	1058	1061	1061	1068	1068	0	0	0	0	0	0	0	0	4706	4706	4706	4706	4706	4706	4706	4706	4706	4643	4643	4643	4643	4643	4706	4706	4706	4706	4706	4706	4706	4706	4706	4706	4706	4706	4706	4706	4706	4706	4706	4706	4706	4706	4643	4706	4643	4706	4706	4706	4706	4706	4706	4706	4706	4706	4706	4706	4706	4706	4706	4706	4706	4643	4643	4643	4643	4643	4643	4706	4706	4706	4706	4706	4706	4643	4643	8146	8146	7959	8146	8146	8146	8146	8146	8146	8146	8146	8146	8146	8146	8146	8146	8146	8146	8146	8146	8146	8343	8343	8343	8146	8146	8343	8343	8146	8146	8146	8146	8146	7959	7959	7959	7959	8146	8146	8343	8343	8146	8146	8146	8146	7959	7959	7779	7959	7959	7959	7959	8146	7959	8146	8146	8146	8146	7959	7959	7959	7959	7959	7959	8146	8146	8146	7959	7959	7959	7959	7959	7959	7959	8146	8146	8146	8146	8146	8146	8146	8146	8146	8146	7959	7959	7959	8146	7959	7959	7959	7959	8146	8146	7959	7959	7959	7959	7959	7779	7779	7959	7959	7959	7959	0	3546	3546	3546	3546	3546	3510	3510	3510	3510	3510	3510	3510	3510	3510	3510	3510	3546	3510	3510	3510	3510	3510	3510	3510	3510	3546	3546	3546	3546	3510	3546	3510	3510	3510	3510	3510	3510	3510	3510	3510	3546	3546	3510	3510	3510	3510	3510	3546	3546	3546	3546	3546	3546	3546	3546	3546	3546	3546	3546	3546	3546	3546	3546	3546	3583	3546	3546	3546	4706	4706	4706	4706	4643	4643	4706	4706	4706	4706	4706	4706	4771	4771	4771	4706	4706	4706	4771	4771	4771	4771	4771	4771	4771	4771	4706	4706	4706	4706	4706	4706	4771	4706	4771	4706	4706	4771	4706	4706	4706	4706	4706	4706	4706	4706	4706	4706	4706	4706	4706	4706	4706	4706	4706	4706	4706	4706	4706	4706	4643	4643	4643	4643	4706	4706	4643	4643	4706	4706	4706	4643	4643	4706	4706	4706	4706	4706	4771	4771	4771	4771	4771	4771	4771	4706	4706	4706	4706	4581	4581	4521	4521	4521	4521	4521	4463	4463	4463	4463	4463	4463	4406	4463	4463	4463	4463	4406	4406	4463	4521	4521	4581	4581	4643	4643	4643	4706	4706	4706	4706	4706	4706	4643	4643	4643	4643	4643	4643	4706	4706	4706	4706	4643	4643	4643	4643	4643	4643	4643	4643	4643	4643	4643	4643	4643	4643	4643	4643	4643	4581	4581	4643	4643	4643	4643	4643	4643	4706	4643	4581	4643	4643	4643	4643	4643	4706	4771	4771	4771	4771	4706	4771	4706	4706	4706	4643	4643	4706	4706	7959	7959	7959	7959	7959	7959	7959	7959	7959	7959	7959	7959	8146	7959	7959	7959	7959	7959	7959	7959	7959	7959	8146	8146	8146	8146	8146	8146	8146	8146	8146	8146	8146	8146	8146	8146	8146	8146	7959	7959	8146	7959	7959	7959	7959	8146	7959	7959	8146	8146	8146	8146	8146	8146	8146	8146	8146	8146	8146	8146	8146	8146	8146	8146	8146	8146	8146	8343	8343	8550	8343	8343	8343	8343	8343	8146	7959	7959	7959	8146	8146	0	0	0	0	0	0	0	0	2589	2570	2570	2551	2551	2532	2532	2514	2514	2496	2478	2460	2460	2443	2443	2426	2426	2426	2409	2409	2392	2392	2392	2392	2392	0	0	0	0	0	0	0	0	0	0	0	0	0	0	0	0	0	0	0	0	0	0	0	0	0	0	0	0	0	0	0	0	0	0	0	0
0	0	0	0	0	0	889	889	901	898	898	908	910	915	915	925	925	922	925	932	932	935	937	942	942	942	942	953	958	963	969	972	972	974	977	977	980	983	991	994	1000	1006	1008	1011	1011	1020	1023	1030	1030	1033	1036	1039	1045	1048	1048	1052	1058	1061	1061	1064	1071	1071	0	0	0	0	0	0	0	4706	4706	4706	4706	4706	4706	4706	4706	4706	4643	4643	4643	4643	4643	4706	4706	4706	4706	4706	4706	4706	4706	4706	4706	4706	4706	4706	4706	4706	4706	4706	4706	4706	4706	4643	4706	4643	4706	4706	4706	4706	4706	4706	4706	4706	4706	4706	4706	4706	4706	4706	4706	4643	4643	4643	4643	4643	4643	4643	4706	4706	4706	4706	4706	4706	4706	4706	8146	8146	8146	8146	8146	8146	8146	8146	8146	8146	8146	8146	7959	7959	7959	7959	7959	7959	8146	8146	8146	8343	8343	8343	8343	8343	8343	8343	8146	8146	8146	7959	8146	8146	8146	8146	8146	8146	8146	8146	8146	8146	8146	8146	8146	7959	7959	7779	7959	7959	7959	7959	7959	7959	8146	8146	8146	8146	7959	8146	8146	8146	8146	8146	8146	8343	8146	8146	7959	7959	7959	7959	7959	7959	8146	8146	8146	8146	8146	8146	8146	8146	8343	8146	7959	7959	7959	7959	7959	7959	7779	7779	7959	7959	7959	7959	7959	7959	7959	7779	7779	7959	7959	7959	0	3583	3546	3546	3546	3546	3546	3510	3510	3510	3510	3510	3510	3510	3546	3546	3510	3510	3546	3510	3546	3510	3510	3510	3546	3510	3510	3546	3546	3546	3546	3510	3510	3510	3510	3510	3510	3510	3510	3510	3510	3510	3510	3546	3510	3510	3510	3546	3510	3546	3546	3546	3546	3546	3546	3546	3546	3546	3546	3546	3546	3546	3546	3546	3546	3546	3546	3546	3546	3546	4706	4706	4706	4706	4643	4643	4706	4706	4771	4771	4771	4706	4706	4771	4771	4771	4706	4706	4771	4771	4771	4771	4706	4771	4706	4706	4706	4706	4706	4706	4706	4771	4771	4706	4706	4706	4706	4771	4706	4706	4706	4706	4706	4706	4643	4706	4706	4706	4706	4706	4706	4706	4706	4706	4706	4706	4706	4706	4706	4706	4706	4643	4706	4706	4706	4706	4643	4643	4706	4706	4706	4643	4643	4706	4706	4706	4706	4706	4706	4706	4771	4771	4771	4771	4771	4771	4706	4706	4706	4643	4581	4521	4521	4521	4521	4521	4463	4463	4463	4463	4463	4463	4406	4406	4463	4406	4406	4406	4406	4463	4521	4521	4581	4581	4643	4643	4643	4706	4706	4706	4706	4706	4706	4706	4706	4643	4643	4643	4643	4643	4643	4643	4643	4643	4643	4643	4643	4643	4643	4643	4643	4643	4643	4643	4643	4643	4643	4643	4643	4643	4581	4581	4643	4643	4581	4643	4643	4643	4643	4643	4581	4581	4643	4643	4643	4706	4771	4771	4771	4771	4771	4706	4771	4706	4706	4643	4643	4581	4581	4581	7959	8146	7959	7959	8146	7959	8146	7959	7959	7959	7959	8146	8146	7959	7959	7959	7959	7959	7959	7959	7959	7959	8146	8146	8146	8146	8146	8146	8146	8146	8146	8146	8146	8146	8146	8146	8146	8146	8146	8146	8146	7959	7959	8146	7959	8146	8146	8146	8146	8146	8146	8146	8146	8146	8146	8146	8146	8146	8146	8146	8146	8146	8146	8146	8146	8146	8146	8343	8343	8550	8343	8343	8146	8146	8146	8146	7959	7959	7959	8146	8146	0	0	0	0	0	0	0	0	2589	2570	2570	2551	2532	2514	2514	2514	2496	2496	2478	2460	2460	2443	2443	2426	2426	2426	2409	2409	2392	2392	2392	2392	2392	0	0	0	0	0	0	0	0	0	0	0	0	0	0	0	0	0	0	0	0	0	0	0	0	0	0	0	0	0	0	0	0	0	0	0	0
0	0	0	0	0	0	889	889	896	896	913	913	915	915	917	925	922	922	927	932	932	935	937	940	942	942	945	953	955	963	969	972	972	974	977	977	980	985	991	994	1000	1006	1008	1011	1011	1017	1023	1026	1033	1036	1039	1042	1045	1048	1048	1052	1058	1058	1061	1061	1071	1071	0	0	0	0	0	0	0	4706	4706	4706	4706	4706	4706	4706	4706	4706	4643	4643	4706	4706	4706	4706	4706	4706	4706	4706	4706	4706	4706	4706	4706	4706	4706	4706	4706	4706	4706	4706	4706	4706	4706	4706	4706	4706	4706	4706	4706	4706	4706	4706	4706	4706	4706	4706	4706	4706	4706	4706	4706	4643	4643	4643	4643	4643	4643	4643	4643	4706	4643	4706	4706	4706	4706	4706	8146	8146	8146	8146	8146	8146	8146	8146	8146	8146	7959	7959	7959	7959	7959	7959	7959	8146	8146	8146	8146	8343	8343	8343	8343	8146	8343	8146	8146	8146	8146	8146	8146	8146	8146	8146	8146	8146	8146	8146	8146	8146	8146	8343	8146	8146	7959	7959	7959	7959	7959	7959	7959	7959	8146	8146	8146	8146	7959	7959	8146	8146	8146	8146	8146	8343	8146	7959	7959	7959	7959	8146	7959	7959	8146	8146	8146	8146	8146	8146	8146	8146	8146	8146	8146	7959	7959	7959	7959	7959	7959	7959	7959	7959	7959	7959	7959	7959	7959	7779	7779	7779	7779	0	0	3583	3546	3546	3546	3546	3546	3510	3510	3510	3510	3510	3510	3546	3546	3546	3546	3546	3546	3546	3546	3510	3510	3546	3546	3510	3510	3546	3546	3546	3546	3510	3510	3510	3510	3510	3510	3510	3510	3510	3510	3510	3546	3546	3546	3510	3510	3546	3546	3546	3546	3546	3546	3546	3546	3546	3546	3510	3510	3510	3510	3546	3546	3546	3546	3546	3546	3546	3546	3546	4643	4643	4643	4643	4643	4643	4706	4706	4706	4771	4771	4706	4706	4771	4771	4706	4706	4706	4771	4771	4771	4771	4771	4706	4706	4706	4706	4771	4771	4771	4706	4706	4706	4706	4706	4706	4706	4771	4706	4706	4706	4706	4706	4706	4643	4643	4706	4706	4706	4706	4706	4706	4706	4706	4706	4706	4643	4643	4643	4643	4643	4643	4643	4643	4643	4706	4643	4643	4706	4706	4643	4643	4643	4643	4643	4643	4706	4706	4706	4706	4771	4771	4771	4771	4771	4771	4771	4706	4706	4643	4581	4521	4521	4521	4521	4463	4463	4463	4463	4463	4463	4463	4406	4463	4463	4406	4406	4406	4406	4463	4521	4521	4581	4581	4643	4643	4643	4643	4643	4643	4706	4706	4706	4643	4643	4643	4643	4643	4643	4581	4581	4581	4643	4643	4643	4643	4643	4643	4643	4581	4643	4581	4581	4643	4643	4643	4643	4643	4581	4643	4581	4581	4643	4643	4643	4643	4643	4643	4706	4643	4581	4643	4643	4643	4643	4643	4771	4771	4771	4771	4771	4771	4771	4706	4706	4643	4643	4581	4581	4581	0	7959	7959	7959	7959	7959	7959	7959	7959	7959	7959	7959	7959	7959	7959	7959	7959	7959	7959	7959	7959	7959	8146	8146	8146	8146	8146	8146	8146	8146	8146	8146	8146	8146	8146	8146	8146	8146	7959	7959	7959	7959	8146	8146	8146	8343	8146	8146	8146	8146	8146	8146	8146	8146	8146	8146	8146	8146	8146	8146	8146	7959	7959	8146	8146	8146	8146	8343	8343	8343	8343	8343	8146	8146	8146	8146	7959	7959	8146	8146	8146	0	0	0	0	0	0	0	0	2589	2570	2570	2551	2551	2532	2514	2514	2496	2496	2496	2478	2478	2460	2443	2443	2426	2426	2409	2409	2392	2392	2392	2392	2392	0	0	0	0	0	0	0	0	0	0	0	0	0	0	0	0	0	0	0	0	0	0	0	0	0	0	0	0	0	0	0	0	0	0	0	0
0	0	0	0	0	0	889	889	896	915	913	913	915	915	917	917	922	920	925	932	932	935	937	937	940	942	945	950	955	963	966	969	972	974	977	980	983	985	991	994	997	1003	1008	1008	1011	1014	1020	1023	1030	1036	1042	1045	1045	1048	1048	1052	1058	1058	1061	1061	0	0	0	0	0	0	0	0	0	4706	4771	4771	4706	4706	4706	4706	4706	4706	4706	4706	4706	4706	4706	4706	4706	4643	4643	4706	4643	4643	4706	4706	4706	4706	4706	4706	4706	4706	4706	4706	4706	4706	4706	4706	4706	4706	4706	4706	4706	4706	4706	4706	4706	4706	4706	4706	4706	4706	4706	4706	4706	4643	4643	4643	4643	4643	4643	4643	4643	4643	4706	4706	4706	4706	4706	8146	8146	8343	8146	8146	8146	8146	8146	7959	7959	7959	7959	7959	7959	7959	7959	7959	7959	7959	7959	8146	8146	8343	8343	8343	8146	8146	8146	8146	8146	8146	8146	8146	8146	7959	8146	8146	8146	8146	8146	8146	8146	8146	8146	8343	8343	8146	7959	7959	7959	7959	7959	7959	7959	7959	8146	7959	8146	8146	7959	7959	7959	7959	8146	8146	8146	8343	8146	8146	7959	7959	7959	7959	7959	7959	8146	8146	8146	8146	8146	8146	8146	8146	8146	8146	8146	7959	7959	7959	7959	7959	7959	7959	7959	8146	8146	8146	7959	7959	7959	7779	7779	7779	7779	0	0	3583	3546	3546	3546	3546	3546	3510	3510	3510	3510	3510	3510	3546	3546	3546	3546	3546	3546	3546	3546	3510	3510	3546	3546	3546	3510	3546	3546	3510	3510	3510	3510	3510	3510	3510	3510	3510	3510	3510	3510	3510	3546	3546	3546	3510	3510	3510	3510	3546	3510	3546	3546	3546	3546	3546	3546	3510	3510	3510	3510	3546	3546	3546	3546	3546	3546	3546	3546	3546	4643	4643	4643	4643	4643	4643	4706	4771	4771	4771	4771	4706	4706	4771	4771	4771	4771	4706	4771	4771	4771	4771	4706	4706	4706	4706	4706	4771	4771	4771	4706	4706	4706	4706	4706	4706	4706	4771	4706	4706	4706	4643	4643	4643	4643	4643	4643	4706	4706	4706	4706	4706	4706	4706	4643	4643	4643	4581	4581	4581	4581	4581	4581	4581	4643	4706	4643	4643	4643	4643	4581	4643	4581	4643	4643	4643	4706	4706	4706	4706	4706	4771	4771	4771	4771	4771	4771	4771	4706	4643	4521	4521	4463	4463	4463	4463	4406	4463	4463	4406	4463	4463	4406	4463	4463	4406	4406	4406	4406	4463	4521	4521	4521	4581	4581	4643	4643	4643	4643	4643	4643	4643	4643	4643	4643	4643	4581	4581	4581	4581	4581	4581	4581	4581	4643	4581	4581	4581	4643	4643	4643	4581	4581	4581	4581	4581	4581	4581	4581	4581	4581	4581	4643	4643	4643	4643	4643	4643	4643	4643	4581	4643	4643	4643	4643	4643	4706	4643	4643	4771	4771	4771	4771	4706	4706	4643	4643	4581	4581	4463	4463	7959	7959	7959	7959	7959	8146	7959	7959	7959	7959	8146	8146	7959	7959	7959	7959	7959	7959	7959	7959	8146	8146	8146	8146	8146	8146	8146	8146	7959	7959	8146	8146	8146	8146	8146	8146	7959	7959	7959	8146	7959	8146	8146	8146	8343	8343	8146	8146	8146	8146	8146	8146	8146	8146	8146	8146	8146	8146	8146	8146	8146	8146	8146	8146	8146	8343	8343	8343	8550	8343	8343	8146	8146	8146	7959	7959	7959	8146	8146	0	0	0	0	0	0	0	0	0	2589	2570	2570	2551	2551	2532	2514	2496	2496	2496	2496	2478	2478	2460	2460	2443	2426	2426	2409	2392	2392	2392	2392	2376	2376	0	0	0	0	0	0	0	0	0	0	0	0	0	0	0	0	0	0	0	0	0	0	0	0	0	0	0	0	0	0	0	0	0	0	0	0
0	0	0	0	0	0	889	887	896	910	913	915	915	915	915	915	920	917	917	930	932	935	935	937	940	942	945	955	958	963	966	969	972	974	977	980	983	988	991	991	994	1006	1008	1008	1011	1014	1017	1020	1026	1039	1042	1045	1045	1048	1048	1052	1055	1058	1061	1064	1064	0	0	0	0	0	0	0	0	0	4771	4771	4706	4706	4706	4706	4706	4706	4706	4706	4706	4706	4706	4706	4706	4643	4706	4706	4643	4706	4706	4706	4706	4706	4706	4706	4706	4706	4706	4706	4706	4706	4706	4706	4706	4706	4706	4706	4706	4706	4706	4706	4706	4706	4706	4706	4706	4706	4706	4706	4706	4706	4643	4643	4643	4643	4643	4643	4643	4643	4643	4706	4706	4706	4706	8146	8146	8146	8146	8146	8146	7959	7959	7959	7959	7959	7959	7959	7959	7959	7959	7959	7959	7959	7959	7959	8146	8343	8146	8343	8146	8146	8146	8146	8146	8146	8146	8146	8146	8146	8146	8146	7959	8146	8146	8146	8146	8146	8343	8343	8343	8146	8146	7959	7959	7959	7959	7959	7959	7959	7959	7959	8146	7959	7959	7959	7959	7959	7959	7959	8146	8146	8146	7959	7959	7959	7959	7959	7959	7959	7959	8146	8146	8146	8146	8146	8146	8146	8146	7959	7959	7959	7959	7959	7779	7779	7779	7779	7959	7959	7959	7959	7959	7959	7779	7779	7779	7779	7779	0	0	3546	3546	3546	3546	3546	3546	3510	3510	3510	3510	3510	3546	3546	3546	3546	3546	3546	3546	3546	3546	3546	3546	3546	3546	3510	3510	3510	3510	3510	3510	3510	3546	3546	3546	3510	3510	3510	3510	3546	3510	3510	3510	3546	3510	3510	3510	3510	3510	3546	3546	3546	3546	3546	3546	3546	3546	3546	3510	3510	3510	3546	3546	3546	3546	3546	3546	3546	3546	3546	4643	4643	4643	4643	4643	4643	4706	4771	4771	4771	4771	4771	4771	4771	4771	4771	4771	4706	4771	4706	4706	4706	4706	4706	4706	4706	4706	4706	4706	4771	4706	4706	4706	4706	4706	4706	4706	4706	4706	4706	4706	4643	4643	4643	4581	4643	4643	4643	4643	4643	4643	4643	4643	4643	4643	4581	4581	4581	4581	4581	4581	4581	4521	4581	4581	4581	4581	4581	4581	4581	4581	4581	4581	4581	4581	4643	4643	4706	4706	4706	4706	4771	4771	4771	4771	4771	4771	4771	4706	4643	4463	4463	4406	4463	4463	4406	4406	4463	4463	4463	4463	4463	4463	4463	4463	4463	4463	4406	4406	4463	4463	4463	4521	4521	4521	4581	4581	4581	4581	4581	4581	4643	4581	4581	4581	4581	4581	4581	4581	4581	4581	4581	4581	4581	4581	4581	4581	4581	4581	4581	4581	4581	4581	4581	4581	4581	4581	4581	4581	4581	4581	4581	4581	4581	4581	4643	4643	4643	4643	4643	4643	4643	4643	4643	4581	4581	4643	4643	4643	4643	4706	4706	4771	4706	4706	4706	4706	4643	4643	4643	4463	7959	7959	7959	7959	7959	7959	7959	7959	7959	8146	8146	8146	7959	7959	7959	7959	8146	7959	7959	8146	8146	8146	8146	8146	8146	8146	8146	8146	7959	7959	7959	7959	8146	8146	8146	8146	7959	7959	7959	8146	7959	8146	8146	8146	8343	8146	8146	8146	8146	8146	8146	8146	7959	8146	8146	8146	8146	8146	8146	8146	8146	7959	8146	8146	8146	8146	8343	8343	8343	8343	8146	8146	8146	8146	7959	7779	7779	7779	7959	0	0	0	0	0	0	0	0	0	2589	2570	2570	2551	2551	2532	2514	2496	2496	2496	2496	2478	2478	2460	2443	2443	2426	2426	2409	2409	2392	2392	2392	2376	2376	0	0	0	0	0	0	0	0	0	0	0	0	0	0	0	0	0	0	0	0	0	0	0	0	0	0	0	0	0	0	0	0	0	0	0	0
