0	0	0	0	0	0	884	887	896	901	903	903	908	908	905	922	925	927	927	930	932	935	937	940	942	945	945	953	955	958	961	966	969	972	980	983	983	985	988	1006	1008	1011	1014	1014	1017	1017	1030	1030	1033	1036	1039	1042	1045	1045	1048	1048	1048	1048	1048	0	0	0	0	0	0	0	0	0	4706	4643	4581	4643	4643	4643	4643	4643	4643	4706	4706	4706	4706	4706	4706	4706	4706	4643	4643	4706	4706	4643	4706	4706	4706	4706	4706	4706	4706	4706	4706	4706	4706	4706	4706	4706	4706	4706	4771	4706	4706	4706	4706	4706	4643	4643	4643	4643	4643	4643	4643	4643	4643	4643	4643	4643	4643	4643	4643	4643	4643	4643	4643	4581	4581	6349	6349	6349	6349	6349	6235	6235	6349	6349	6349	6349	6349	6349	6349	6349	6349	6235	6235	6235	6349	6235	6349	6349	6349	6349	6349	6235	6349	6349	6349	6349	6349	6235	6235	6349	6235	6124	6124	6124	6124	6124	8343	7779	7779	7779	7779	7779	7779	7779	7779	7779	7779	7779	7779	7779	7779	7959	7959	7959	7959	7959	7959	7959	7959	7959	7779	7779	7779	7959	7959	7959	7959	7959	7959	7959	7959	7959	7959	7959	7959	7959	7959	7959	7959	7959	7959	7959	7959	7959	8146	8146	8146	8146	8146	7959	8146	7959	7959	8146	8146	8146	8146	8146	8146	8146	8146	7959	7959	8146	8146	0	0	3475	3475	3475	3475	3510	3510	3510	3546	3546	3546	3546	3546	3546	3546	3546	3546	3546	3546	3546	3546	3546	3546	3546	3546	3546	3546	3546	3546	3546	3546	3583	3583	3583	3583	3583	3583	3583	3583	3583	3583	3583	3583	3583	3583	3546	3546	3546	3546	3546	3546	3546	3546	3546	3546	3583	3583	3583	3583	3546	3583	3621	3583	3583	4771	4771	4706	4706	4706	4706	4706	4706	4771	4706	4706	4706	4706	4706	4706	4706	4706	4706	4706	4706	4706	4706	4706	4706	4643	4643	4581	4521	4521	4463	4463	4463	4463	4521	4521	4581	4643	4643	4643	4643	4643	4643	4643	4581	4581	4581	4581	4581	4521	4521	4581	4581	4581	4581	4643	4643	4643	4706	4706	4706	4643	4643	4643	4643	4643	4643	4643	4643	4643	4643	4643	4643	4643	4643	4643	4643	4643	4643	4643	4643	4643	4643	4643	4581	4581	4643	4643	4643	4581	4581	4581	4581	4643	4581	4643	4581	4581	4521	4521	4463	4406	4406	4406	4406	4463	4463	4521	4521	4581	4581	4581	4581	4581	4581	4581	4581	4581	4581	4581	4581	4581	4643	4643	4643	4643	4643	4643	4581	4581	4581	4581	4581	4581	4581	4581	4581	4581	4581	4581	4581	4581	4581	4581	4581	4581	4521	4521	4581	4581	4581	4643	4643	4706	4643	4643	4643	4643	4643	4581	4581	4581	4521	4521	4521	4521	4463	4463	4463	4350	4350	4296	4521	4581	4643	4643	4643	4643	4643	4643	4581	4581	4581	4521	4521	7779	7779	7959	7779	7779	7779	7959	7959	7959	7779	7959	7959	7959	7959	8146	7959	7959	7959	7959	7959	7959	7959	8146	7959	8146	8146	8146	8146	8146	8146	8146	8146	8146	8146	8146	8146	8146	8146	8146	7959	7959	7959	7959	7959	7959	7959	7959	8146	8146	8146	8146	8146	8146	7959	7959	7959	7959	7959	8146	8146	8146	8146	8146	8146	8146	7959	7959	7959	7779	6468	6468	6349	6349	6235	6235	6235	6235	6235	6124	5915	5915	0	0	0	0	2570	2570	2551	2570	2551	2551	2532	2532	2514	2496	2496	2478	2478	2478	2460	2460	2460	2443	2443	2426	2426	2426	2409	2392	2392	2359	2359	0	0	0	0	0	0	0	0	0	0	0	0	0	0	0	0	0	0	0	0	0	0	0	0	0	0	0	0	0	0	0	0	0	0	0	0
0	0	0	0	0	0	884	887	896	901	903	903	908	908	908	922	925	925	927	930	932	932	935	940	942	945	945	953	955	958	961	966	972	972	980	983	983	983	988	994	1008	1011	1014	1014	1017	1020	1026	1026	1033	1036	1039	1042	1045	1045	1048	1048	1048	1052	1052	0	0	0	0	0	0	0	0	0	4643	4581	4581	4581	4581	4643	4643	4643	4643	4643	4706	4706	4706	4706	4706	4706	4706	4706	4643	4643	4706	4706	4706	4706	4706	4706	4706	4643	4706	4706	4706	4643	4706	4706	4706	4706	4706	4706	4771	4706	4706	4706	4706	4706	4643	4643	4643	4643	4643	4643	4643	4643	4643	4643	4643	4643	4643	4643	4643	4643	4643	4643	4643	4643	4643	6468	6468	6349	6349	6349	6235	6235	6349	6349	6349	6349	6349	6349	6349	6349	6349	6235	6235	6235	6349	6349	6349	6349	6349	6349	6349	6349	6349	6349	6349	6349	6349	6235	6235	6349	6235	6124	6124	6124	6124	6124	8343	7959	7959	7959	7959	7959	7779	7779	7779	7779	7779	7779	7779	7779	7779	7959	7959	7959	7959	7959	7959	7959	7959	7779	7779	7779	7779	7959	7959	7959	7959	7959	7959	7959	8146	8146	8146	8146	7959	7959	7959	7959	7959	7959	7959	7959	7959	7959	8146	8146	8146	7959	7959	7959	7959	7959	7959	7959	7959	8146	7959	8146	8146	8146	8146	7959	7959	8146	7959	7959	7959	0	3475	3510	3510	3510	3510	3546	3546	3546	3546	3546	3546	3546	3546	3546	3546	3546	3546	3546	3546	3546	3546	3546	3546	3546	3546	3546	3546	3546	3546	3583	3583	3583	3583	3583	3583	3583	3583	3583	3583	3583	3583	3583	3546	3546	3546	3546	3546	3546	3546	3546	3583	3546	3546	3583	3583	3583	3583	3583	3583	3583	3583	4771	4771	4771	4706	4706	4706	4706	4706	4706	4771	4706	4706	4706	4706	4706	4706	4706	4706	4706	4706	4706	4706	4706	4706	4706	4643	4643	4643	4581	4521	4521	4463	4521	4521	4521	4581	4706	4706	4643	4706	4706	4643	4643	4643	4581	4581	4581	4581	4581	4581	4581	4581	4581	4581	4643	4643	4643	4643	4643	4643	4643	4643	4643	4643	4643	4643	4643	4643	4643	4643	4643	4643	4643	4643	4643	4643	4643	4643	4581	4643	4581	4581	4581	4643	4643	4643	4581	4581	4643	4643	4581	4643	4706	4706	4643	4643	4643	4581	4581	4406	4406	4406	4406	4406	4406	4463	4521	4521	4581	4581	4581	4581	4581	4581	4581	4581	4581	4643	4581	4581	4581	4581	4643	4581	4643	4643	4581	4581	4581	4581	4581	4581	4581	4581	4581	4581	4581	4581	4581	4581	4581	4581	4581	4581	4581	4581	4581	4581	4581	4581	4581	4643	4643	4643	4643	4643	4643	4643	4643	4581	4581	4581	4581	4521	4521	4521	4463	4521	4463	4463	4350	4296	4521	4581	4643	4643	4643	4643	4643	4643	4581	4581	4581	4521	4581	4581	7959	7779	7779	7779	7779	7779	7959	7959	7959	7959	7959	7959	7959	8146	7959	7959	8146	7959	7959	7959	7959	7959	7959	7959	8146	8146	8343	8343	8343	8146	8343	8343	8146	7959	8146	7959	7959	7959	7959	7959	7959	7959	7959	7959	7959	8146	8146	8146	8146	8146	8146	8146	8146	7959	7959	7959	8146	8146	8146	8146	8146	8146	8146	8146	7959	7959	7779	7779	6592	6592	6349	6349	6235	6235	6235	6235	6235	6235	5915	5915	0	0	0	0	2570	2551	2551	2551	2551	2551	2532	2532	2514	2496	2496	2478	2478	2478	2460	2460	2460	2443	2443	2426	2426	2426	2409	2409	2392	2359	2359	0	0	0	0	0	0	0	0	0	0	0	0	0	0	0	0	0	0	0	0	0	0	0	0	0	0	0	0	0	0	0	0	0	0	0	0
0	0	0	0	0	0	887	889	896	901	903	905	908	908	908	922	925	925	927	930	932	932	935	940	942	945	945	955	958	961	963	969	969	974	974	983	983	985	988	997	1006	1011	1014	1014	1017	1020	1026	1026	1033	1036	1039	1045	1045	1048	1048	1048	1048	1052	1052	0	0	0	0	0	0	0	0	0	4643	4643	4581	4581	4581	4581	4643	4643	4643	4643	4643	4643	4706	4706	4643	4706	4643	4643	4643	4643	4706	4706	4706	4706	4706	4706	4706	4643	4706	4706	4706	4643	4706	4706	4706	4706	4706	4706	4706	4706	4706	4706	4706	4706	4643	4643	4643	4643	4643	4643	4643	4643	4643	4643	4643	4643	4643	4643	4643	4643	4643	4643	4643	4643	4643	6468	6468	6349	6349	6349	6349	6349	6349	6349	6349	6349	6349	6349	6349	6349	6349	6235	6235	6235	6349	6349	6349	6349	6349	6349	6468	6349	6349	6468	6349	6349	6349	6235	6235	6235	6235	6124	6124	6235	6235	6235	7959	7959	7959	7959	7959	7959	7779	7779	7779	7779	7779	7779	7779	7779	7779	7959	7959	7959	7959	7959	7959	7959	7959	7959	7959	7779	7779	7779	7959	7959	7959	7959	7959	7959	7959	7959	7959	7959	7959	7779	7779	7779	7779	7779	7779	7779	7959	7959	7959	8146	7959	7959	7959	7959	7959	7959	7959	7959	7959	8146	7959	8146	8146	7959	7959	7959	7959	7959	7959	7779	7779	7779	0	3546	3546	3546	3546	3546	3546	3546	3546	3546	3546	3546	3546	3546	3546	3546	3546	3546	3546	3546	3546	3546	3546	3546	3546	3546	3546	3546	3583	3583	3583	3583	3583	3583	3583	3583	3583	3583	3583	3583	3546	3546	3546	3546	3546	3546	3546	3546	3546	3546	3546	3546	3546	3583	3583	3583	3583	3583	3583	3583	4771	4706	4706	4706	4706	4706	4706	4643	4706	4706	4771	4706	4706	4706	4706	4706	4706	4706	4706	4706	4706	4706	4706	4706	4706	4706	4643	4643	4643	4581	4521	4521	4521	4521	4581	4581	4643	4643	4706	4643	4643	4643	4643	4643	4643	4581	4581	4581	4581	4581	4581	4581	4581	4581	4643	4643	4643	4643	4643	4643	4643	4643	4643	4643	4643	4643	4643	4643	4643	4643	4643	4643	4643	4643	4643	4643	4643	4643	4581	4581	4581	4581	4581	4581	4643	4581	4581	4581	4706	4706	4643	4643	4706	4706	4706	4706	4706	4643	4581	4521	4521	4406	4406	4406	4406	4406	4463	4521	4521	4581	4581	4581	4581	4581	4581	4581	4581	4581	4581	4581	4581	4581	4581	4643	4643	4643	4643	4643	4581	4581	4581	4581	4581	4581	4581	4581	4581	4581	4581	4643	4643	4643	4581	4581	4581	4581	4581	4581	4581	4581	4581	4581	4581	4581	4643	4581	4581	4643	4643	4643	4643	4581	4581	4581	4521	4521	4521	4463	4521	4521	4521	4463	4406	4521	4581	4581	4581	4581	4643	4581	4581	4581	4581	4581	4521	4521	7959	7959	7959	7959	7959	7779	7959	7959	7959	7959	7959	7959	7959	7959	7959	7959	7959	7959	7779	7779	7779	7779	7959	7959	7959	7959	8146	8146	8146	8146	8146	8146	8146	8146	8146	8146	7959	7959	7959	7959	7959	7959	8146	8146	8146	7959	8146	8146	8146	8146	8146	8146	8146	8146	7959	7959	7959	8146	8146	8146	8146	8146	8146	7959	8146	7959	7779	7608	7608	6720	6720	6592	6349	6235	6235	6235	6235	6235	6235	0	0	0	0	0	0	2551	2551	2551	2570	2551	2551	2551	2551	2532	2514	2496	2478	2478	2478	2460	2460	2460	2426	2443	2443	2426	2426	2426	2409	2409	2376	2376	0	0	0	0	0	0	0	0	0	0	0	0	0	0	0	0	0	0	0	0	0	0	0	0	0	0	0	0	0	0	0	0	0	0	0	0
0	0	0	0	0	0	887	889	896	901	903	905	908	908	910	922	925	927	927	930	932	932	935	937	940	942	945	945	958	963	966	969	972	972	977	980	983	983	988	1000	1006	1011	1014	1014	1017	1020	1026	1026	1033	1039	1042	1045	1045	1048	1048	1052	1052	1055	1055	0	0	0	0	0	0	0	0	0	4643	4643	4581	4581	4581	4581	4643	4643	4643	4643	4706	4706	4706	4706	4706	4706	4643	4643	4643	4643	4706	4643	4643	4706	4706	4706	4706	4643	4706	4706	4706	4643	4643	4706	4706	4706	4706	4706	4706	4706	4706	4706	4706	4706	4706	4706	4643	4643	4643	4643	4643	4643	4643	4643	4643	4643	4643	4643	4643	4643	4643	4643	4643	4643	4643	6468	6468	6349	6349	6349	6349	6349	6349	6349	6349	6349	6235	6349	6349	6349	6349	6235	6124	6235	6235	6235	6349	6349	6349	6349	6468	6349	6349	6349	6349	6349	6349	6235	6235	6235	6235	6124	6124	6235	6235	6235	6235	7959	7959	7959	7959	7959	7779	7779	7779	7779	7779	7779	7779	7779	7779	7959	7959	7959	7959	7959	7959	7959	7959	7779	7779	7779	7779	7779	7959	7959	7959	7959	7959	7959	8146	8146	8146	7959	7959	7959	7959	7779	7779	7779	7959	7779	7959	7959	7779	7779	7959	7959	7959	7959	7959	7959	7959	7959	7959	7959	7959	7959	8146	7959	7959	7959	7959	7959	7959	7779	7779	7779	7779	3546	3546	3546	3546	3546	3546	3546	3546	3546	3546	3546	3546	3546	3546	3546	3546	3546	3546	3546	3546	3546	3546	3546	3546	3583	3583	3583	3583	3583	3583	3583	3583	3583	3583	3583	3583	3583	3583	3583	3546	3546	3546	3546	3546	3546	3546	3546	3546	3546	3546	3546	3546	3546	3583	3583	3583	3583	3583	4771	4771	4706	4706	4706	4706	4706	4706	4706	4706	4706	4771	4771	4706	4706	4771	4706	4706	4706	4706	4706	4706	4706	4706	4706	4706	4706	4643	4706	4643	4521	4521	4581	4581	4581	4581	4643	4643	4643	4643	4643	4643	4643	4643	4643	4643	4581	4581	4581	4581	4581	4581	4581	4581	4581	4581	4643	4643	4643	4643	4643	4643	4643	4643	4643	4643	4643	4643	4643	4643	4643	4581	4643	4643	4643	4643	4581	4581	4581	4581	4581	4581	4581	4581	4581	4581	4581	4581	4581	4706	4706	4706	4706	4706	4706	4643	4643	4706	4643	4581	4521	4463	4406	4406	4406	4463	4463	4521	4521	4581	4581	4581	4581	4581	4581	4581	4581	4581	4581	4581	4581	4581	4581	4581	4643	4581	4643	4581	4581	4581	4581	4581	4581	4581	4581	4581	4581	4581	4643	4581	4643	4643	4643	4581	4581	4581	4581	4581	4581	4581	4643	4643	4581	4581	4581	4581	4581	4581	4581	4581	4643	4581	4581	4581	4581	4521	4521	4521	4463	4521	4463	4463	4350	4350	4463	4521	4521	4521	4521	4581	4581	4581	4581	4581	4581	4581	7959	7959	7959	7959	7959	7959	7959	7959	7959	7959	7959	7959	7959	7959	7959	7959	7959	7959	7959	7779	7779	7779	7779	7959	7959	7959	7959	8146	8146	8146	7959	7959	8146	8146	7959	7959	0	0	0	0	7959	7959	7959	8146	8146	7959	7959	7959	7959	8146	8146	8146	8146	8146	7959	7959	7959	7959	8146	8146	8146	8146	7959	7959	7959	7959	7779	7779	7444	7287	6853	6853	6720	6349	6235	6235	6235	6235	6235	6235	0	0	0	0	0	0	2570	2551	2551	2570	2570	2551	2551	2532	2514	2514	2496	2496	2478	2460	2460	2443	2443	2443	2426	2426	2426	2426	2409	2392	2392	2359	2359	0	0	0	0	0	0	0	0	0	0	0	0	0	0	0	0	0	0	0	0	0	0	0	0	0	0	0	0	0	0	0	0	0	0	0	0
0	0	0	0	0	0	887	889	896	901	905	905	908	908	910	917	922	925	927	930	930	932	935	935	940	942	945	963	963	966	966	969	972	972	974	980	980	983	988	1000	1006	1011	1014	1017	1017	1020	1026	1026	1036	1039	1042	1045	1045	1048	1052	1052	1052	1052	1055	1055	0	0	0	0	0	0	0	0	4643	4643	4581	4581	4581	4581	4643	4643	4643	4643	4706	4706	4706	4706	4643	4643	4643	4643	4643	4643	4643	4643	4643	4706	4706	4706	4706	4643	4643	4706	4706	4643	4706	4706	4706	4706	4706	4706	4706	4706	4706	4706	4706	4643	4706	4643	4643	4643	4643	4643	4643	4643	4643	4643	4643	4643	4643	4643	4643	4643	4643	4643	4643	4643	4643	6468	6468	6349	6349	6349	6349	6349	6349	6235	6349	6349	6235	6349	6349	6349	6349	6235	6124	6235	6235	6235	6349	6349	6349	6349	6349	6349	6349	6349	6349	6349	6349	6235	6235	6235	6235	6124	6124	6235	6235	6235	6235	7959	8146	7959	7959	7959	7779	7779	7779	7779	7779	7779	7779	7779	7779	7959	7959	7959	7959	7959	7959	7959	7959	7779	7779	7779	7779	7779	7779	7779	7959	7959	7959	7959	7959	7959	7959	7959	7959	7779	7779	7779	7779	7779	7779	7779	7959	7959	7959	7959	7959	7959	7959	7959	7959	7959	7959	7959	7959	7959	7959	7959	8146	7959	8146	7959	7959	8146	7959	7779	7779	7779	7779	0	3546	3546	3546	3546	3546	3546	3546	3546	3546	3546	3546	3546	3546	3546	3546	3510	3546	3546	3546	3546	3546	3546	3546	3583	3583	3583	3621	3621	3621	3621	3583	3621	3583	3583	3583	3583	3583	3583	3546	3546	3546	3546	3546	3546	3546	3546	3546	3546	3546	3546	3546	3546	3583	3583	3583	3583	3583	4771	4771	4706	4771	4706	4706	4706	4706	4706	4706	4706	4771	4771	4706	4706	4771	4706	4706	4706	4706	4706	4706	4706	4706	4706	4706	4771	4771	4706	4706	4581	4643	4581	4581	4581	4581	4643	4643	4643	4643	4643	4643	4643	4643	4643	4581	4581	4581	4581	4581	4581	4581	4581	4581	4581	4581	4643	4643	4643	4643	4643	4643	4643	4643	4643	4643	4643	4643	4643	4643	4643	4643	4643	4643	4643	4581	4581	4581	4581	4581	4581	4581	4581	4581	4581	4581	4581	4581	4643	4643	4643	4643	4581	4643	4643	4643	4643	4706	4706	4521	4463	4406	4406	4406	4406	4463	4463	4463	4521	4581	4581	4581	4581	4581	4581	4581	4581	4581	4581	4581	4581	4581	4581	4581	4581	4581	4581	4581	4581	4581	4581	4581	4581	4581	4581	4581	4581	4581	4643	4643	4643	4643	4643	4581	4581	4581	4581	4581	4581	4581	4643	4643	4581	4581	4581	4581	4581	4581	4581	4581	4643	4581	4581	4581	4581	4521	4521	4521	4463	4463	4463	4463	4350	4350	4406	4406	4463	4463	4521	4581	4581	4643	4643	4581	4643	4643	7779	7959	7959	7959	7959	7959	7959	7959	7959	7959	7959	7959	7959	7959	7959	7959	7959	7959	7959	7779	7779	7779	7959	7959	7959	7959	7959	8146	8146	8146	7959	7959	7959	7959	7959	7959	0	0	0	0	0	0	7959	8146	8146	7959	7959	7959	8146	8146	7959	8146	8146	8146	8146	7959	7959	7959	7959	8146	7959	7959	7959	7959	7959	7779	7608	7608	7608	7608	6720	6720	6592	6349	6235	6235	6235	6235	6235	6124	6124	0	0	0	0	0	2570	2551	2551	2570	2570	2551	2551	2551	2514	2514	2496	2496	2478	2460	2443	2443	2426	2426	2426	2426	2426	2409	2409	2392	2392	2376	2376	2376	0	0	0	0	0	0	0	0	0	0	0	0	0	0	0	0	0	0	0	0	0	0	0	0	0	0	0	0	0	0	0	0	0	0	0
0	0	0	0	0	0	887	889	896	898	903	908	908	908	910	913	915	917	925	930	932	932	935	940	940	945	945	961	961	966	966	969	972	972	974	977	980	980	985	988	1011	1017	1017	1020	1020	1023	1026	1030	1036	1039	1039	1042	1045	1045	1048	1048	1048	1052	1055	1055	0	0	0	0	0	0	0	0	0	4581	4581	4581	4581	4581	4643	4643	4643	4643	4706	4706	4706	4706	4706	4706	4643	4643	4643	4643	4706	4706	4706	4706	4706	4706	4706	4643	4706	4706	4706	4643	4706	4706	4706	4706	4706	4706	4706	4706	4706	4643	4706	4643	4706	4706	4643	4643	4643	4643	4643	4643	4643	4643	4643	4643	4643	4643	4643	4643	4643	4643	4643	4643	4643	4643	6468	6468	6349	6349	6349	6349	6349	6349	6349	6349	6235	6349	6349	6349	6349	6235	6124	6124	6235	6235	6235	6349	6349	6349	6349	6349	6349	6349	6349	6349	6349	6235	6235	6235	6235	6124	6124	6235	6235	0	0	0	8146	8146	7959	7959	7959	7779	7779	7779	7779	7779	7779	7779	7779	7959	7959	8146	7959	7959	7959	7959	7959	7959	7959	7779	7779	7779	7779	7779	7779	7779	7779	7959	7959	7959	7959	7959	7959	7959	7959	7779	7779	7779	7959	7779	7959	7959	7959	7959	7959	7779	7959	7959	7959	7959	7959	7959	7959	7959	7959	7959	8146	7959	7959	7959	7959	7959	7959	7779	7779	7779	7779	0	3546	3546	3546	3546	3546	3546	3546	3546	3546	3546	3546	3546	3546	3546	3546	3546	3546	3546	3546	3546	3546	3583	3583	3583	3583	3621	3621	3621	3621	3621	3583	3583	3583	3583	3583	3583	3583	3583	3546	3546	3546	3546	3546	3546	3546	3546	3546	3546	3546	3546	3546	3546	3546	3546	3546	3546	3583	4771	4771	4771	4771	4771	4771	4706	4706	4706	4706	4706	4771	4706	4706	4706	4706	4706	4643	4643	4643	4706	4706	4771	4706	4706	4771	4771	4771	4706	4643	4581	4581	4581	4521	4581	4581	4643	4643	4643	4643	4643	4643	4643	4643	4643	4643	4581	4581	4581	4581	4581	4581	4581	4581	4581	4581	4581	4643	4581	4581	4581	4581	4643	4643	4643	4643	4643	4643	4643	4643	4643	4643	4643	4643	4581	4581	4643	4581	4581	4581	4581	4581	4581	4521	4581	4581	4581	4581	4581	4643	4643	4643	4581	4643	4643	4643	4581	4706	4643	4581	4406	4350	4296	4350	4350	4406	4463	4463	4521	4581	4581	4581	4581	4581	4581	4581	4581	4581	4581	4643	4581	4581	4581	4581	4581	4581	4581	4581	4581	4581	4581	4581	4581	4581	4581	4581	4581	4581	4643	4581	4643	4581	4581	4581	4581	4581	4581	4581	4581	4581	4643	4643	4581	4581	4581	4581	4581	4581	4581	4581	4581	4581	4581	4521	4521	4521	4521	4521	4463	4463	4463	4463	4350	4350	4406	4463	4463	4521	4581	4581	4581	4643	4643	4643	4643	4581	4581	7779	7779	7959	7959	7959	7959	7959	7959	7959	7959	7959	7959	7959	7959	7959	7959	7779	7959	7779	7779	7779	7959	7959	7959	7959	7959	7959	7959	7959	7959	7959	7959	7959	0	0	0	0	0	0	0	0	0	0	0	0	0	8146	8146	8146	7959	8146	8146	8146	7959	7959	7959	7959	8146	8146	8146	7959	7959	7959	7959	7779	7608	7444	7444	7608	6720	6592	6349	6235	6235	6235	6235	6235	6235	6124	6018	6018	0	0	0	0	2570	2551	2551	2570	2551	2551	2551	2532	2514	2514	2496	2496	2460	2443	2443	2426	2426	2426	2426	2426	2426	2426	2409	2392	2376	2359	2359	2376	0	0	0	0	0	0	0	0	0	0	0	0	0	0	0	0	0	0	0	0	0	0	0	0	0	0	0	0	0	0	0	0	0	0	0
0	0	0	0	0	0	887	889	891	894	898	903	903	910	913	915	915	917	922	927	930	930	937	940	942	945	948	955	961	963	966	969	969	972	974	977	980	983	985	991	1008	1014	1017	1017	1020	1023	1030	1030	1036	1039	1039	1042	1042	1045	1048	1048	1048	1052	1055	1055	0	0	0	0	0	0	0	0	0	4521	4581	4581	4581	4581	4643	4643	4643	4643	4706	4643	4706	4706	4643	4643	4643	4643	4643	4643	4643	4706	4706	4706	4706	4706	4706	4706	4706	4706	4706	4643	4706	4706	4643	4706	4706	4706	4706	4643	4706	4643	4706	4643	4643	4643	4643	4643	4643	4643	4643	4643	4643	4643	4643	4643	4643	4643	4643	4643	4643	4643	4643	4643	4643	6468	6468	6349	6349	6349	6349	6235	6235	6235	6349	6349	6235	6235	6235	6235	6349	6235	6124	6235	6235	6235	6349	6349	6349	6349	6349	6349	6349	6349	6235	6235	6235	6124	6124	6124	6235	6124	6124	6124	6124	0	0	0	8146	7959	7959	7959	7959	7959	7959	7779	7779	7779	7779	7779	7779	7779	7959	7959	7959	7959	7959	7959	7959	7959	7959	7959	7779	7779	7779	7779	7779	7779	7779	7779	7779	7959	7959	7959	7959	7959	7779	7779	7779	7779	7779	7779	7959	7959	7779	7959	7959	7779	7779	7779	7959	7959	7959	7959	7959	7959	7959	7959	7959	7959	7959	7959	7959	7959	7959	7959	7779	7779	7959	7959	3546	3546	3546	3546	3546	3546	3546	3546	3546	3546	3546	3546	3546	3546	3546	3546	3546	3546	3546	3546	3546	3583	3583	3583	3583	3621	3621	3659	3659	3621	3621	3621	3583	3583	3583	3583	3583	3583	3546	3546	3546	3546	3546	3546	3546	3546	3546	3546	3546	3546	3546	3546	3546	3546	3546	3546	4771	4771	4771	4771	4771	4771	4771	4706	4706	4706	4706	4706	4706	4706	4706	4706	4706	4706	4643	4643	4706	4643	4706	4771	4771	4771	4771	4771	4771	4771	4706	4706	4581	4581	4581	4521	4581	4581	4581	4581	4643	4643	4643	4706	4643	4643	4643	4643	4581	4581	4581	4581	4581	4581	4581	4581	4581	4643	4581	4581	4581	4581	4581	4581	4581	4581	4581	4581	4643	4643	4643	4581	4643	4643	4643	4643	4581	4581	4581	4581	4581	4581	4521	4521	4521	4581	4521	4581	4581	4581	4581	4581	4581	4581	4643	4643	4643	4581	4706	4706	4581	4350	4350	4296	4296	4350	4350	4406	4350	4581	4581	4581	4581	4581	4581	4581	4581	4581	4581	4581	4643	4643	4581	4643	4643	4581	4581	4581	4581	4643	4643	4581	4581	4581	4581	4581	4581	4581	4643	4643	4581	4581	4581	4581	4581	4581	4581	4643	4581	4581	4581	4643	4643	4581	4581	4581	4581	4581	4581	4581	4581	4643	4581	4581	4581	4521	4581	4521	4521	4463	4463	4463	4463	4350	4350	4406	4406	4463	4521	4581	4581	4581	4643	4643	4643	4643	4643	4581	4581	7959	7959	7959	7959	7959	7959	7959	7959	7959	7959	7959	7959	7959	7959	7779	7779	7779	7779	7608	7779	7779	7959	7959	7959	7959	7959	7959	7959	7959	0	0	0	0	0	0	0	0	0	0	0	0	0	0	0	0	8146	8146	8146	7959	8146	8146	8146	7959	7959	7959	7959	8146	8146	8146	8146	7959	8146	7959	7779	7779	7444	7444	0	0	6592	6468	6349	6235	6349	6349	6235	6235	6235	6018	6018	0	0	0	0	0	2551	2551	2551	2551	2551	2532	2532	2514	2496	2496	2478	2460	2443	2443	2426	2426	2426	2426	2426	2426	2426	2409	2409	2392	2359	2359	0	0	0	0	0	0	0	0	0	0	0	0	0	0	0	0	0	0	0	0	0	0	0	0	0	0	0	0	0	0	0	0	0	0	0	0
0	0	0	0	0	0	887	889	891	891	896	903	905	910	913	915	915	917	925	927	930	930	935	937	940	945	948	955	961	963	966	966	969	969	974	980	980	983	988	994	1003	1011	1014	1014	1020	1023	1026	1033	1036	1039	1039	1042	1042	1045	1048	1048	1048	1048	1052	1058	1058	0	0	0	0	0	0	0	0	4521	4643	4643	4581	4521	4643	4643	4643	4643	4706	4706	4706	4706	4706	4706	4706	4706	4643	4643	4643	4643	4706	4643	4706	4643	4706	4706	4706	4643	4706	4643	4643	4643	4643	4643	4643	4643	4643	4643	4643	4643	4706	4643	4643	4643	4643	4643	4643	4706	4643	4643	4643	4643	4643	4643	4643	4643	4643	4643	4643	4643	4643	4643	4643	6349	6349	6349	6349	6349	6349	6349	6235	6235	6235	6235	6235	6235	6235	6235	6349	6235	6235	6235	6235	6235	6349	6349	6349	6349	6349	6349	6349	6349	6235	6235	6124	6124	6124	6124	6124	6124	6124	6124	6124	0	0	0	8146	7959	7959	7959	7959	7959	7959	7959	7779	7779	7779	7779	7779	7959	7959	7959	7959	7959	7959	7959	7959	7959	7959	7959	7959	7779	7779	7779	7779	7779	7779	7779	7779	7959	7959	7959	7959	7779	7779	7779	7779	7959	7959	7959	7959	7959	7779	7959	7959	7779	7779	7779	7779	7959	7959	7959	7959	7959	7959	7959	7959	8146	7959	7959	7959	8146	8146	7959	7779	7959	7959	7959	3510	3510	3546	3546	3546	3546	3546	3546	3546	3546	3546	3546	3546	3546	3546	3546	3546	3546	3546	3546	3546	3583	3583	3583	3583	3583	3583	3698	3698	3659	3659	3621	3583	3583	3583	3583	3583	3583	3546	3546	3546	3546	3546	3546	3546	3546	3546	3546	3546	3546	3546	3546	3546	3546	3546	3546	4771	4771	4771	4771	4771	4771	4706	4706	4706	4706	4706	4706	4771	4706	4706	4706	4706	4706	4706	4643	4706	4643	4706	4771	4771	4771	4771	4771	4771	4771	4706	4706	4581	4521	4521	4521	4521	4581	4581	4581	4643	4643	4643	4643	4643	4643	4643	4643	4581	4581	4581	4581	4581	4581	4581	4581	4581	4643	4581	4581	4581	4581	4581	4581	4581	4581	4581	4581	4643	4643	4643	4643	4643	4643	4643	4581	4581	4581	4581	4581	4581	4521	4521	4521	4521	4521	4521	4521	4521	4521	4581	4521	4521	4521	4521	4581	4581	4581	4643	4706	4463	4350	4350	4296	4296	4350	4350	4406	4406	4521	4581	4581	4521	4521	4581	4581	4581	4581	4643	4643	4643	4643	4643	4643	4643	4643	4643	4581	4581	4643	4643	4581	4581	4581	4581	4581	4581	4581	4581	4581	4581	4581	4581	4581	4581	4581	4581	4581	4581	4581	4581	4643	4581	4581	4581	4581	4581	4581	4581	4581	4581	4643	4581	4521	4521	4521	4581	4521	4521	4463	4463	4463	4406	4350	4296	4406	4406	4406	4463	4521	4581	4643	4643	4643	4643	4643	4643	4643	4643	4643	7959	7959	7959	7959	7959	8146	8146	8146	8146	8146	7959	7959	7959	7779	7779	7779	7779	7608	7779	7779	7779	7779	7779	7779	7779	7959	7959	0	0	0	0	0	0	0	0	0	0	0	0	0	0	0	0	0	8146	8146	7959	7959	8146	8146	8146	8146	7959	7959	7959	7959	7959	8146	8146	7959	7959	7959	7779	7779	0	0	0	0	6592	6592	6468	6349	6349	6349	6349	6235	6235	6235	6349	6349	0	0	0	0	2551	2551	2551	2551	2551	2532	2532	2496	2496	2478	2478	2460	2443	2443	2443	2426	2426	2426	2409	2426	2426	2409	2376	2376	2359	2359	2359	0	0	0	0	0	0	0	0	0	0	0	0	0	0	0	0	0	0	0	0	0	0	0	0	0	0	0	0	0	0	0	0	0	0	0
0	0	0	0	0	0	889	891	891	891	896	903	905	910	915	915	917	917	925	930	930	932	935	937	940	948	948	958	963	963	966	969	969	969	974	977	980	985	991	997	1006	1014	1017	1017	1020	1023	1026	1026	1033	1036	1039	1039	1042	1042	1052	1052	1048	1052	1052	1052	1052	0	0	0	0	0	0	0	0	0	4643	4643	4581	4581	4643	4643	4706	4706	4706	4706	4706	4706	4706	4706	4643	4643	4643	4643	4643	4643	4643	4643	4643	4643	4706	4706	4706	4706	4706	4643	4706	4643	4643	4706	4643	4643	4643	4643	4706	4643	4706	4643	4643	4643	4643	4706	4706	4706	4643	4643	4643	4643	4643	4643	4643	4643	4643	4643	4643	4643	4643	4581	4581	4581	6349	6235	6349	6349	6349	6235	6235	6235	6235	6235	6235	6235	6235	6349	6349	6235	6235	6235	6235	6235	6349	6349	6349	6349	6349	6349	6349	6349	6235	6235	6124	6124	6124	6124	6124	6018	6018	6018	6018	0	0	0	0	0	7959	8146	7959	7959	7959	7959	7779	7779	7779	7779	7779	7779	7779	7959	7959	7779	7779	7959	7959	7959	7959	7959	7959	7959	7779	7779	7779	7779	7779	7959	7959	7959	7959	7959	7959	7959	7959	7959	7779	7779	7959	7779	7959	7959	7779	7959	7959	7779	7779	7779	7779	7959	7959	7959	7959	8146	7959	7959	7959	8146	7959	7959	7959	7959	7959	7959	7779	7779	7959	3510	3475	3510	3510	3510	3546	3546	3546	3546	3546	3546	3546	3546	3546	3546	3546	3546	3546	3546	3546	3546	3546	3583	3583	3583	3621	3621	3621	3698	3738	3698	3659	3659	3621	3583	3583	3583	3583	3546	3546	3546	3546	3546	3546	3546	3546	3546	3546	3546	3546	3546	3546	3583	3546	3546	3546	3546	4771	4771	4771	4706	4706	4706	4706	4706	4706	4706	4706	4706	4706	4706	4706	4706	4706	4706	4706	4643	4706	4706	4706	4771	4771	4771	4771	4771	4771	4771	4706	4706	4521	4581	4521	4521	4521	4521	4581	4581	4581	4581	4643	4643	4643	4643	4643	4643	4581	4581	4581	4581	4581	4581	4581	4581	4581	4581	4581	4581	4581	4581	4581	4581	4581	4581	4581	4581	4581	4643	4581	4581	4581	4643	4581	4581	4581	4581	4581	4521	4521	4521	4521	4521	4521	4521	4521	4521	4521	4521	4521	4521	4521	4521	4521	4581	4581	4581	4581	4581	4581	4463	4350	4350	4350	4406	4406	4463	4521	4521	4581	4521	4521	4581	4581	4581	4581	4581	4643	4643	4643	4643	4643	4643	4706	4643	4643	4581	4581	4643	4581	4581	4581	4581	4581	4581	4581	4581	4581	4581	4581	4581	4581	4581	4581	4581	4581	4581	4581	4581	4581	4581	4581	4581	4581	4581	4581	4581	4581	4581	4581	4581	4581	4581	4581	4521	4581	4521	4521	4463	4463	4406	4406	4350	4296	4350	4406	4406	4463	4521	4581	4643	4643	4643	4643	4706	4706	4643	4977	4977	4977	4977	7959	7959	7959	8146	8146	8146	7959	8146	7959	7959	7959	7779	7779	7779	7608	7608	7779	7608	7608	7779	7779	7608	7608	0	0	0	0	0	0	0	0	0	0	0	0	0	0	0	0	0	0	0	0	8146	7959	7959	8146	8146	8146	8146	7959	8146	8146	8146	8146	8146	7959	7959	7959	0	0	0	0	0	0	0	6592	6468	6349	6349	6349	6349	6349	6235	6235	6349	6235	6235	0	0	0	0	2551	2551	2551	2551	2551	2532	2532	2532	2496	2496	2478	2443	2443	2443	2443	2426	2426	2426	2426	2409	2409	2409	2376	2376	2359	2359	2359	0	0	0	0	0	0	0	0	0	0	0	0	0	0	0	0	0	0	0	0	0	0	0	0	0	0	0	0	0	0	0	0	0	0	0
0	0	0	0	0	0	891	891	894	891	896	901	903	910	913	915	915	917	925	930	932	932	935	937	942	948	948	961	961	963	966	969	969	972	977	980	983	988	994	1000	1003	1011	1017	1020	1020	1023	1026	1026	1033	1036	1039	1039	1042	1045	1052	1052	1052	1055	1052	1055	1055	1055	0	0	0	0	0	0	0	0	4643	4706	4581	4581	0	4643	4706	4706	4706	4706	4706	4706	4706	4706	4643	4643	4643	4643	4643	4643	4643	4643	4706	4706	4706	4706	4706	4706	4706	4643	4643	4643	4643	4643	4643	4643	4643	4643	4643	4643	4643	4643	4643	4643	4643	4706	4706	4706	4643	4643	4643	4643	4643	4643	4643	4643	4643	4643	4643	4581	4581	4581	4581	4581	6468	6468	6349	6349	6349	6235	6235	6235	6235	6235	6235	6235	6235	6349	6349	6349	6235	6349	6235	6235	6349	6349	6349	6349	6349	6349	6349	6349	6235	6235	6124	6124	6124	6124	6124	6124	6124	6018	6018	0	0	0	0	0	7959	7959	7959	7959	7959	7959	7779	7779	7779	7779	7779	7779	7779	7779	7779	7779	7779	7779	7779	7959	7959	7959	7959	7959	7959	7959	7959	7959	7779	7959	7959	7959	7959	7959	7959	7959	7959	7959	7779	7959	7959	7779	7959	7959	7779	7959	7959	7779	7779	7779	7959	7959	7959	7959	8146	8146	7959	7959	7959	7959	7959	7959	7959	7959	7959	7779	7779	7779	3440	3406	3510	3510	3510	3510	3546	3546	3546	3546	3546	3546	3546	3546	3546	3546	3546	3546	3546	3546	3546	3546	3546	3546	3583	3583	3583	3583	3621	6720	6592	3698	3698	3659	3621	3583	3583	3583	3583	3546	3546	3546	3546	3546	3546	3546	3546	3546	3546	3546	3546	3546	3546	3546	3546	3583	3583	3583	4771	4771	4706	4643	4706	4643	4706	4706	4706	4643	4706	4643	4706	4706	4706	4706	4706	4643	4706	4643	4706	4706	4706	4771	4771	4706	4771	4771	4771	4706	4706	4643	4521	4521	4521	4521	4521	4521	4581	4581	4581	4581	4643	4643	4643	4643	4643	4643	4581	4581	4581	4581	4581	4581	4581	4581	4581	4581	4581	4581	4581	4581	4581	4581	4581	4581	4581	4581	4581	4581	4581	4643	4581	4643	4581	4581	4581	4581	4581	4581	4521	4521	4521	4463	4463	4521	4463	4521	4521	4463	4463	4463	4521	4521	4521	4521	4521	4521	4521	4581	4521	4463	4406	4350	4350	4406	4463	4521	4521	4581	4581	4581	4581	4581	4581	4581	4581	4581	4643	4643	4643	4643	4643	4643	4706	4581	4581	4581	4581	4581	4581	4581	4581	4581	4581	4581	4581	4581	4643	4643	4643	4581	4581	4581	4581	4581	4581	4581	4581	4581	4581	4581	4581	4581	4581	4581	4581	4643	4643	4581	4581	4581	4581	4581	4521	4521	4581	4521	4521	4521	4463	4406	4350	4296	4296	4350	4350	4406	4463	4581	4581	4643	4643	4706	4706	4771	4706	4906	4977	4977	5050	5050	5050	5050	5050	5050	8146	8146	8146	8146	8146	7959	7959	7779	7779	7779	7608	7608	7779	7959	7959	7959	7959	7608	7608	0	0	0	0	0	0	0	0	0	0	0	0	0	0	0	0	0	0	0	0	8146	7959	7959	7959	8146	8146	8146	0	8146	8146	8146	8146	8146	8146	8146	7959	0	0	0	0	0	0	0	6592	6349	6349	6349	6349	6349	6349	6235	6235	6235	6235	6235	0	0	0	0	0	2551	2551	2551	2551	2532	2514	2496	2496	2496	2478	2460	2460	2443	2443	2443	2426	2426	2426	2409	2409	2392	2376	2359	2359	2359	2359	0	0	0	0	0	0	0	0	0	0	0	0	0	0	0	0	0	0	0	0	0	0	0	0	0	0	0	0	0	0	0	0	0	0	0
0	0	0	0	0	0	889	891	894	894	896	903	905	910	915	915	917	917	925	927	932	932	935	937	942	948	948	961	961	963	966	969	969	972	977	980	985	991	994	1000	1003	1017	1017	1020	1023	1023	1026	1026	1033	1036	1036	1039	1039	1042	1045	1048	1048	1055	1055	1058	1058	1055	0	0	0	0	0	0	0	0	0	4706	4581	4581	0	0	0	0	4706	4706	4771	4706	4706	4706	4643	4643	4643	4643	4643	4643	4706	4643	4706	4706	4706	4706	4706	4706	4706	4643	4643	4643	4643	4706	4643	4643	4706	4706	4706	4706	4643	4643	4643	4643	4643	4706	4706	4706	4643	4706	4706	4643	4643	4643	4643	4643	4643	4643	4643	4581	4581	4521	4581	4581	6468	6468	6349	6349	6349	6235	6235	6235	6235	6235	6235	6235	6235	6349	6349	6349	6235	6349	6235	6235	6349	6349	6349	6468	6349	6349	6349	6349	6235	6235	6124	6124	6124	6124	6124	6124	6124	6018	6018	0	0	0	0	0	7959	7959	7959	7959	7959	7959	7779	7779	7779	7779	7779	7779	7779	7779	7779	7779	7779	7779	7779	7779	7959	7959	7959	7959	7959	7959	7959	7959	7959	7959	7959	7959	7959	7959	7959	7959	7959	7779	7779	7779	7779	7779	7959	7959	7779	7959	7959	7779	7779	7959	7959	7959	7959	7959	8146	8146	7959	7959	7959	7959	7959	7959	7779	7779	7959	7959	7779	7959	3440	3406	3475	3510	3510	3510	3510	3546	3546	3546	3546	3546	3546	3546	3546	3546	3546	3546	3546	3546	3546	3546	3546	3546	3583	3583	3583	3583	6720	6720	6592	3659	3659	3659	3621	3583	3583	3583	3583	3583	3546	3546	3546	3546	3546	3546	3546	3546	3546	3546	3546	3546	3546	3546	3583	3583	3583	3583	0	4706	4706	4706	4706	4643	4706	4706	4643	4643	4706	4643	4706	4706	4706	4706	4643	4643	4706	4643	4706	4706	4706	4706	4771	4706	4771	4706	4706	4706	4706	4643	4521	4521	4521	4521	4521	4581	4581	4581	4581	4581	4643	4706	4643	4643	4643	4643	4643	4643	4581	4581	4581	4581	4581	4581	4581	4581	4581	4581	4581	4581	4581	4581	4581	4581	4581	4581	4581	4581	4581	4581	4643	4643	4581	4581	4581	4581	4581	4521	4521	4463	4463	4463	4463	4463	4463	4463	4463	4463	4463	4463	4463	4521	4521	4521	4521	4521	4521	4521	4521	4406	4350	4350	4406	4406	4406	4463	4521	4521	4581	4581	4581	4581	4581	4581	4581	4581	4643	4643	4643	4643	4581	4643	4706	4706	4706	4706	4706	4581	4581	4581	4581	4581	4581	4581	4581	4581	4643	4643	4581	4581	4581	4581	4581	4581	4581	4581	4581	4581	4581	4581	4581	4581	4643	4581	4581	4581	4581	4581	4581	4581	4521	4521	4521	4521	4521	4521	4521	4521	4521	4463	4406	4296	4296	4350	4350	4406	4581	4643	4643	4643	4643	4706	4771	4771	4838	4906	4906	4977	4977	4977	5050	5050	5050	5050	5050	5050	8343	8343	8146	7959	7959	7779	7779	7779	7779	7959	7959	7959	7959	7959	7959	7959	0	0	0	0	0	0	0	0	0	0	0	0	0	0	0	0	0	0	0	0	0	0	0	7959	7959	7959	8146	0	0	0	8146	7959	7959	7959	7959	7959	0	0	0	0	0	0	0	0	6349	6349	6235	6349	6349	6349	6349	6235	6235	6235	6235	6235	0	0	0	0	2570	2551	2551	2551	2551	2532	2514	2496	2496	2478	2478	2478	2460	2443	2443	2443	2443	2426	2426	2426	2409	2392	2376	2359	2359	2359	2359	0	0	0	0	0	0	0	0	0	0	0	0	0	0	0	0	0	0	0	0	0	0	0	0	0	0	0	0	0	0	0	0	0	0	0
0	0	0	0	0	0	889	891	894	894	896	903	905	910	913	917	917	920	925	927	930	932	935	940	942	950	948	955	961	963	966	969	969	972	977	985	988	994	997	1000	1003	1008	1017	1020	1023	1023	1026	1026	1030	1033	1036	1036	1039	1039	1045	1045	1048	1055	1055	1055	1058	0	0	0	0	0	0	0	0	0	0	0	0	0	0	0	0	0	0	0	4771	4706	4706	4706	4643	4643	4643	4643	4643	4643	4706	4643	4643	4706	4706	4706	4706	4706	4706	4706	4643	4643	4643	4706	4643	4643	4706	4706	4706	4706	4706	4643	4643	4643	4706	4706	4706	4706	4643	4706	4706	4643	4643	4643	4643	4643	4643	4643	4643	4581	4581	4521	4581	4581	6468	6468	6349	6349	6349	6349	6349	6349	6235	6235	6235	6235	6235	6235	6235	6235	6235	6235	6235	6235	6349	6349	6349	6349	6349	6349	6349	6349	6349	6235	6235	6235	6124	6124	6124	6124	6124	6018	6018	0	0	0	0	0	0	0	8146	8146	8146	8146	7959	7779	7779	7779	7779	7779	7779	7779	7779	7779	7779	7779	7779	7779	7959	7959	7959	7959	7959	7959	7959	7959	7959	7959	7959	7959	7959	8146	7959	7959	7959	7779	7779	7779	7779	7779	7779	7779	7779	7779	7959	7779	7779	7959	7959	7959	7959	8146	8146	8146	8146	7959	7959	7959	7959	7779	7779	7959	7959	7959	7959	7959	8146	3510	3510	3510	3510	3510	3510	3546	3546	3546	3546	3546	3546	3546	3546	3546	3546	3546	3546	3546	3546	3546	3546	3546	3546	3546	3583	6720	6720	6720	6592	6592	6592	3621	3621	3583	3583	3583	3583	3583	3583	3583	3546	3546	3546	3546	3546	3546	3546	3546	3546	3546	3546	3546	3583	3621	3621	3621	0	4706	4706	4706	4706	4706	4706	4643	4643	4643	4643	4643	4643	4643	4643	4706	4643	4643	4643	4643	4706	4706	4706	4706	4771	4643	4706	4706	4706	4706	4706	4643	4581	4521	4521	4463	4521	4521	4521	4581	4581	4581	4581	4643	4643	4643	4643	4643	4643	4581	4581	4581	4581	4581	4581	4581	4581	4581	4581	4581	4643	4581	4581	4581	4581	4581	4581	4581	4581	4643	4581	4643	4581	4581	4581	4581	4581	4581	4581	4521	4521	4463	4463	4463	4463	4463	4463	4463	4463	4463	4463	4406	4463	4463	4521	4521	4521	4521	4521	4521	4521	4406	4406	4350	4406	4463	4463	4463	4521	4521	4581	4581	4521	4521	4581	4581	4581	4581	4643	4643	4643	4643	4706	4706	4706	4706	4706	4706	4643	4581	4581	4581	4643	4643	4581	4581	4581	4581	4581	4581	4581	4581	4521	4581	4581	4581	4581	4581	4581	4581	4581	4581	4581	4581	4643	4581	4581	4581	4581	4581	4581	4581	4581	4521	4521	4581	4521	4581	4521	4521	4521	4463	4406	4350	4296	4350	4350	4406	4521	4581	4643	4643	4643	4706	4771	4771	4838	4906	4906	4906	4977	4977	5050	5050	5050	4977	4977	4977	5050	4977	4977	7959	7959	7959	7779	7779	7779	7959	7959	7959	7959	8146	8146	7959	0	0	0	0	0	0	0	0	0	0	0	0	0	0	0	0	0	0	0	0	0	0	0	0	7959	7959	0	0	0	0	8146	7959	7959	7959	7959	7959	0	0	0	0	0	0	0	0	6349	6235	6235	6235	6349	6235	6235	6235	6124	6235	6235	0	0	0	0	0	2570	2551	2551	2551	2551	2532	2532	2532	2496	2496	2478	2478	2460	2460	2443	2443	2443	2426	2426	2409	2392	2376	2376	2359	2359	2359	2359	0	0	0	0	0	0	0	0	0	0	0	0	0	0	0	0	0	0	0	0	0	0	0	0	0	0	0	0	0	0	0	0	0	0	0
0	0	0	0	0	0	889	891	894	894	896	903	905	913	913	917	920	922	927	930	930	932	935	937	942	948	948	955	961	963	966	969	969	972	977	983	988	994	997	1000	1000	1006	1011	1011	1020	1023	1023	1030	1033	1033	1036	1042	1042	1042	1045	1048	1048	1048	1055	1055	0	0	0	0	0	0	0	0	0	0	0	0	0	0	0	0	0	0	0	0	0	4706	4706	4643	4643	4643	4643	4643	4643	4643	4706	4643	4643	4643	4706	4706	4706	4706	4643	4643	4643	4643	4643	4643	4643	4643	4706	4706	4706	4706	4706	4706	4706	4706	4706	4706	4706	4706	4706	4706	4706	4643	4643	4643	4643	4643	4643	4643	4643	4581	4581	4521	4521	4521	6468	6468	6468	6349	6349	6349	6349	6349	6235	6235	6235	6235	6235	6235	6235	6235	6349	6349	6349	6235	6468	6468	6349	6468	6468	6349	6349	6349	6349	6235	6235	6235	6124	6124	6124	6124	6124	6018	6018	0	0	0	0	0	0	0	8146	8146	8343	8146	8146	7959	7959	7779	7779	7779	7779	7608	7608	7779	7779	7779	7779	7779	7779	7959	7959	7959	7779	7959	7959	7959	7959	7959	7959	7959	8146	8146	7959	7959	7959	7779	7779	7779	7779	7779	7779	7779	7779	7959	7959	7779	7779	7959	7959	7959	7959	7959	7959	8146	8146	7959	7959	7959	7779	7779	7779	7959	7959	7959	7959	8146	8146	8146	3510	3546	3546	3546	3546	3546	3546	3546	3546	3546	3546	3546	3546	3546	3546	3546	3546	3546	3546	3546	3546	3546	3546	3546	6720	6720	6720	6720	6720	6592	6592	6592	3621	3583	3583	3583	3546	3546	3546	3546	3546	3546	3546	3546	3546	3546	3546	3546	3546	3546	3546	3546	3583	3583	3583	3583	0	0	4706	4706	4643	4643	4643	4643	4643	4643	4643	4643	4706	4643	4706	4706	4706	4643	4643	4643	4706	4706	4706	4706	4706	4643	4706	4643	4706	4643	4643	4581	4521	4463	4463	4521	4463	4463	4521	4581	4581	4581	4581	4643	4643	4643	4643	4643	4643	4581	4581	4581	4581	4581	4581	4643	4643	4643	4581	4643	4643	4643	4581	4581	4581	4581	4581	4581	4581	4581	4581	4581	4581	4581	4581	4581	4581	4581	4581	4521	4521	4463	4463	4463	4463	4463	4463	4463	4463	4463	4463	4463	4463	4521	4521	4521	4521	4521	4521	4521	4521	4463	4463	4463	4463	4463	4463	4463	4521	4521	4581	4521	4581	4581	4581	4581	4581	4581	4643	4581	4643	4581	4581	4643	4581	4581	4581	4581	4581	4581	4581	4643	4581	4581	4581	4581	4581	4581	4643	4581	4581	4581	4581	4581	4581	4581	4581	4581	4581	4581	4581	4581	4581	4581	4643	4643	4643	4643	4643	4521	4521	4581	4521	4521	4521	4581	4521	4581	4521	4521	4521	4463	4406	4350	4350	4350	4406	4406	4521	4581	4581	4643	4643	4643	4706	4771	4838	4906	4906	4906	4977	5050	5050	5050	5050	4977	5050	4977	5050	5050	5050	7959	7959	7959	7959	7779	7779	7779	7959	7959	7959	8146	8146	0	0	0	0	0	0	0	0	0	0	0	0	0	0	0	0	0	0	0	0	0	0	0	0	0	0	0	0	0	0	0	0	7959	7959	7959	7959	7959	0	0	0	0	0	0	0	0	0	6235	6235	6235	6235	6235	6235	6124	6124	6018	6018	0	0	0	0	0	2589	2570	2570	2551	2551	2551	2532	2532	2496	2496	2478	2478	2460	2460	2460	2443	2443	2426	2426	2409	2409	2409	2392	2376	2376	2359	2359	0	0	0	0	0	0	0	0	0	0	0	0	0	0	0	0	0	0	0	0	0	0	0	0	0	0	0	0	0	0	0	0	0	0	0
0	0	0	0	0	0	889	891	894	896	896	905	908	913	913	917	922	922	927	930	932	932	932	935	940	948	948	961	963	963	966	969	966	969	974	985	991	994	994	997	997	1000	1017	1017	1023	1026	1026	1030	1033	1033	1033	1039	1042	1042	1045	1045	1045	1048	0	0	0	0	0	0	0	0	0	0	0	0	0	0	0	0	0	0	0	0	0	0	0	0	0	4581	4581	4581	4643	4643	4643	4643	4706	4643	4643	4643	4643	4643	4643	4643	4643	4643	4643	4643	4643	4643	4643	4643	4706	4706	4706	4706	4706	4706	4706	4706	4706	4706	4706	4706	4706	4706	4706	4643	4643	4643	4643	4643	4643	4643	4643	4581	4581	4581	4581	6592	6592	6468	6349	6349	6349	6349	6349	6349	6235	6235	6235	6349	6235	6235	6349	6349	6349	6349	6349	6349	6468	6468	6468	6468	6468	6349	6349	6349	6235	6235	6235	6235	6124	6124	6124	6124	6124	6018	6124	6124	0	0	0	0	0	0	0	0	8146	8146	8146	7959	7959	7779	7779	7779	7779	7779	7608	7779	7779	7779	7779	7779	7779	7959	7959	7959	7779	7959	7959	7959	7959	7959	7959	8146	8146	8146	8146	7959	7959	7959	7959	7959	7959	7959	7959	7959	7779	8146	7959	7779	7779	7779	7779	7959	7959	8146	8146	8146	8146	7959	7959	7959	7779	7779	7779	7959	7959	7959	7959	8146	8146	8146	0	3546	3546	3546	3546	3546	3546	3546	3546	3546	3546	3546	3546	3546	3546	3546	3546	3546	3546	3583	3583	3546	3546	6592	6592	6592	6592	6592	6592	6592	6592	3546	3546	3546	3583	3546	3546	3583	3583	3583	3546	3546	3546	3546	3546	3546	3546	3546	3546	3546	3546	3546	3583	3583	3583	3583	0	0	4706	4643	4643	4643	4643	4643	4581	4643	4581	4581	4643	4643	4643	4706	4706	4643	4643	4643	4706	4706	4706	4706	4706	4706	4706	4643	4706	4706	4643	4581	4463	4463	4521	4521	4521	4463	4521	4521	4581	4581	4581	4643	4643	4643	4643	4643	4643	4581	4581	4581	4581	4581	4581	4581	4581	4581	4643	4643	4643	4581	4581	4581	4581	4581	4581	4581	4581	4581	4581	4581	4581	4581	4581	4581	4581	4581	4521	4463	4463	4463	4463	4463	4463	4463	4463	4463	4521	4463	4463	4463	4521	4521	4521	4521	4521	4521	4521	4521	4521	4463	4463	4463	4463	4463	4463	4463	4521	4521	4521	4521	4581	4521	4581	4581	4581	4581	4581	4581	4581	4521	4581	4521	4521	4581	4581	4581	4581	4581	4581	4581	4581	4581	4581	4581	4521	4521	4581	4581	4581	4581	4581	4581	4581	4581	4581	4581	4581	4581	4581	4581	4581	4643	4643	4643	4581	4581	4581	4581	4521	4521	4521	4521	4521	4581	4521	4521	4521	4521	4521	4463	4406	4350	4350	4350	4406	4406	4521	4581	4581	4643	4581	4643	4706	4706	4838	4906	4977	4977	4977	5050	5050	5050	5050	4977	4977	5050	5050	5050	5050	7959	7959	7959	7959	7959	7779	7959	7959	7959	7959	7959	8146	0	0	0	0	0	0	0	0	0	0	0	0	0	0	6992	6992	6992	6853	6853	0	0	0	0	0	0	0	0	0	0	0	0	0	7959	7959	7959	0	0	0	0	0	0	0	0	0	0	0	6235	6235	6235	6235	6235	6235	6124	6124	6124	6018	0	0	0	0	0	2589	2570	2551	2551	2551	2551	2551	2514	2496	2496	2478	2460	2478	2460	2460	2443	2443	2443	2426	2426	2409	2409	2392	2376	2359	2359	2359	0	0	0	0	0	0	0	0	0	0	0	0	0	0	0	0	0	0	0	0	0	0	0	0	0	0	0	0	0	0	0	0	0	0	0
0	0	0	0	0	0	889	891	894	894	896	905	910	910	913	915	920	922	927	930	932	932	932	935	940	948	948	961	963	963	966	969	969	972	974	980	985	991	994	997	1000	1006	1006	1023	1026	1026	1030	1030	1033	1033	1033	1036	1042	1042	1045	1055	1055	0	0	0	0	0	0	0	0	0	0	0	0	0	0	0	0	0	0	0	0	0	0	0	0	0	0	4581	4581	4521	4643	4643	4643	4643	4706	4643	4643	4643	4643	4643	4643	4643	4706	4643	4643	4643	4643	4706	4643	4643	4706	4706	4706	4706	4706	4706	4706	4706	4706	4706	4706	4706	4706	4706	4706	4643	4643	4643	4643	4643	4643	4643	4643	4581	4581	4581	4581	6592	6468	6349	6349	6349	6349	6349	6349	6349	6235	6235	6235	6349	6349	6235	6235	6349	6349	6349	6349	6235	6468	6468	6349	6349	6349	6349	6349	6349	6349	6349	6235	6235	6124	6124	6235	6235	6235	6235	6124	6124	0	0	0	0	0	0	0	0	8146	8146	8146	7959	7959	7779	7779	7779	7779	7779	7608	7779	7779	7779	7779	7779	7779	7779	7779	7779	7779	7779	7959	7959	7959	7959	7959	8146	8146	8146	8146	7959	7959	7959	7959	7959	7959	7779	7779	7959	7959	7959	7779	7779	7779	7779	7779	7959	7959	7959	8146	8146	7959	7959	7959	7959	7779	7779	7779	7959	7959	7779	7959	8146	8146	8146	0	3583	3546	3546	3546	3546	3546	3546	3546	3546	3546	3546	3546	3546	3546	3546	3546	3546	3546	3546	3583	3546	3546	6592	6592	6592	6592	6592	6592	6592	6592	6592	6592	3546	3546	3546	3546	3546	3546	3546	3546	3546	3546	3546	3546	3546	3546	3546	3546	3546	3546	3546	3546	3583	3583	0	0	0	4706	4643	4643	4643	4581	4581	4581	4581	4643	4581	4581	4643	4643	4706	4706	4581	4643	4643	4706	4706	4643	4706	4706	4706	4706	4643	4643	4643	4643	4581	4463	4463	4463	4521	4463	4463	4521	4521	4581	4581	4581	4643	4643	4643	4643	4643	4643	4581	4581	4581	4581	4581	4581	4581	4581	4581	4581	4581	4581	4581	4581	4581	4581	4581	4581	4581	4581	4581	4581	4581	4581	4581	4581	4581	4581	4581	4521	4521	4521	4463	4463	4463	4463	4463	4463	4463	4521	4463	4463	4463	4521	4521	4521	4463	4463	4521	4521	4521	4521	4521	4521	4521	4521	4521	4521	4521	4521	4521	4521	4521	4521	4521	4521	4521	4581	4581	4581	4581	4521	4463	4463	4521	4463	4521	4521	4581	4581	4581	4521	4581	4521	4581	4581	4581	4521	4581	4581	4581	4581	4581	4581	4581	4581	4581	4581	4581	4581	4581	4581	4581	4643	4643	4643	4643	4643	4643	4581	4581	4581	4581	4521	4521	4521	4581	4581	4581	4521	4521	4521	4463	4406	4350	4350	4350	4406	4406	4463	4521	4581	4643	4581	4643	4643	4706	4906	4977	4977	4977	5050	5050	5050	5050	5050	4977	4977	4977	5050	5050	5050	7959	7959	7959	7959	7959	7959	7959	7959	7959	7959	7959	0	0	0	0	0	0	0	0	0	7137	7137	0	0	0	7137	6992	7137	6992	6992	6992	6992	0	0	0	0	0	0	0	0	0	0	0	0	0	0	0	0	0	0	0	0	0	0	0	0	0	0	0	6235	6235	6235	6124	6124	6018	6018	6018	0	0	0	0	0	0	0	2570	2551	2551	2551	2551	2551	2514	2496	2496	2478	2478	2478	2478	2460	2460	2460	2443	2443	2426	2409	2409	2392	2376	2376	2359	2359	0	0	0	0	0	0	0	0	0	0	0	0	0	0	0	0	0	0	0	0	0	0	0	0	0	0	0	0	0	0	0	0	0	0	0
0	0	0	0	0	0	887	889	891	894	896	903	908	910	910	915	920	922	927	930	930	932	932	932	940	948	948	958	961	963	966	966	969	972	977	980	985	988	991	997	997	1003	1003	1023	1026	1030	1030	1030	1033	1033	1033	1039	1042	1042	1045	1052	1052	0	0	0	0	0	0	0	0	0	0	0	0	0	0	0	0	0	0	0	0	0	0	0	0	0	0	0	0	4643	4643	4643	4643	4643	4706	4643	4643	4643	4643	4643	4643	4643	4643	4643	4643	4643	4643	4643	4643	4706	4706	4706	4706	4706	4706	4706	4706	4706	4706	4706	4706	4706	4706	4706	4706	4643	4643	4706	4643	4643	4643	4643	4643	4643	4581	4581	4581	6468	6349	6349	6349	6349	6349	6235	6235	6235	6235	6124	6235	6235	6235	6235	6235	6235	6349	6349	6349	6235	6349	6468	6349	6349	6349	6349	6349	6349	6349	6349	6235	6235	6235	6235	6235	6235	6235	6235	6124	6124	0	0	0	0	0	0	0	0	0	8146	8146	7959	7959	7959	7779	7779	7779	7779	7779	7779	7779	7779	7779	7779	7779	7779	7779	7779	7779	7779	7959	7959	7959	7959	8146	8146	8146	8146	8146	7959	7959	7779	7779	7779	7779	7959	7959	7959	7959	7959	7779	7779	7779	7779	7779	7959	7959	7959	7959	7959	7959	7959	7959	7779	7779	7779	7779	7779	7959	7959	7959	8146	8146	8146	0	3583	3583	3546	3583	3583	3546	3546	3546	3546	3546	3546	3546	3546	3546	3546	3546	3546	3546	3583	3583	3546	3546	6592	6592	6592	6592	6592	6592	6592	6592	6592	3583	3546	3546	3546	3546	3546	3546	3583	3583	3546	3546	3546	3546	3546	3546	3546	3546	3546	3583	3546	3546	0	0	0	0	0	4706	4706	4643	4643	4643	4643	4581	4643	4643	4581	4581	4643	4643	4706	4643	4581	4643	4643	4643	4643	4643	4643	4706	4706	4706	4643	4706	4706	4581	4581	4521	4406	4406	4463	4463	4521	4521	4521	4581	4581	4581	4643	4643	4643	4643	4643	4643	4581	4581	4581	4581	4581	4581	4581	4581	4581	4581	4581	4581	4581	4581	4581	4581	4581	4581	4581	4581	4581	4581	4581	4581	4581	4581	4581	4581	4581	4521	4463	4406	4406	4463	4406	4463	4463	4463	4463	4463	4463	4463	4463	4521	4521	4521	4521	4521	4521	4521	4521	4521	4521	4521	4521	4521	4521	4521	4463	4521	4521	4521	4521	4521	4521	4521	4521	4581	4581	4581	4521	4521	4463	4463	4463	4463	4463	4463	4521	4521	4581	4581	4581	4581	4581	4581	4581	4521	4581	4581	4581	4581	4581	4581	4581	4581	4581	4581	4581	4581	4581	4581	4581	4581	4581	4643	4643	4581	4581	4581	4581	4581	4581	4521	4521	4521	4581	4581	4521	4521	4521	4521	4463	4463	4350	4350	4350	4406	4406	4463	4521	4581	4581	4643	4643	4706	4706	4838	4977	4977	5050	5050	4977	5050	5050	4977	4977	4977	4977	5050	5050	4977	4838	4838	7959	7959	7959	7959	7959	7959	7959	7959	7959	0	0	0	0	0	0	0	0	0	7137	6992	6992	7137	7137	7137	7137	7137	7137	7287	7287	6992	0	0	0	0	0	0	0	0	0	0	0	0	0	0	0	0	0	0	0	0	0	0	0	0	0	0	0	0	6235	6235	6018	5915	5915	5915	6018	0	0	0	0	0	0	0	2570	2551	2551	2551	2551	2551	2496	2496	2496	2478	2478	2478	2478	2460	2460	2443	2443	2426	2426	2409	2409	2392	2392	2376	2359	2359	0	0	0	0	0	0	0	0	0	0	0	0	0	0	0	0	0	0	0	0	0	0	0	0	0	0	0	0	0	0	0	0	0	0	0
0	0	0	0	0	0	887	889	891	894	896	901	903	905	908	910	920	922	925	927	927	930	930	930	930	950	953	958	961	963	963	966	969	972	977	980	983	988	991	994	994	1000	1000	1020	1030	1030	1030	1033	1033	1033	1036	1042	1042	1042	1042	1048	1052	1052	0	0	0	0	0	0	0	0	0	0	0	0	0	0	0	0	0	0	0	0	0	0	0	0	0	0	0	4643	4643	4643	4706	4643	4706	4643	4643	4581	4643	4643	4643	4643	4643	4643	4706	4643	4643	4643	4643	4706	4706	4706	4706	4706	4706	4706	4706	4706	4706	4706	4706	4706	4706	4706	4706	4706	4643	4706	4706	4643	4643	4643	4643	4643	4643	4643	4643	6468	6349	6349	6349	6349	6349	6235	6235	6235	6124	6124	6124	6235	6235	6235	6235	6235	6349	6349	6349	6235	6349	6349	6349	6349	6349	6349	6235	6349	6235	6235	6235	6235	6235	6235	6235	6235	6235	6235	6124	6124	0	0	0	0	0	0	0	0	5364	5364	8146	8146	7959	7959	7959	7779	7779	7779	7608	7779	7779	7779	7779	7779	7779	7779	7779	7779	7779	7779	7779	7779	7779	7779	7959	7959	7959	7959	7959	7959	7779	7779	7779	7779	7779	7779	7959	7959	7959	7959	7779	7779	7779	7779	7779	7959	7959	7959	7959	7959	7959	7779	7959	7779	7779	7779	7779	7959	7959	7959	8146	8146	8343	8343	0	0	3583	3546	3583	3583	3583	3546	3546	3546	3546	3546	3546	3546	3546	3546	3546	3546	3546	3546	3583	3583	3583	6592	6592	6592	6592	6592	6592	6592	6592	6592	3583	3546	3583	3546	3546	3546	3546	3546	3583	3546	3546	3546	3546	3546	3546	3546	3546	3546	3583	3583	3583	0	0	0	0	0	4706	4706	4643	4643	4643	4643	4643	4643	4643	4581	4643	4643	4643	4643	4643	4581	4643	4643	4706	4643	4643	4643	4643	4643	4643	4581	4643	4643	4581	4581	4521	4406	4463	4463	4463	4521	4521	4581	4643	4581	4581	4581	4643	4581	4643	4643	4643	4581	4581	4581	4581	4581	4581	4581	4581	4581	4581	4581	4581	4581	4581	4581	4581	4581	4581	4581	4521	4521	4521	4521	4581	4581	4581	4581	4581	4581	4581	4463	4406	4406	4406	4406	4463	4463	4406	4463	4463	4463	4463	4463	4521	4521	4521	4521	4521	4521	4581	4521	4521	4521	4463	4521	4521	4521	4463	4463	4463	4463	4463	4521	4521	4463	4463	4463	4521	4521	4463	4463	4463	4350	4350	4350	4406	4406	4463	4521	4581	4581	4581	4581	4581	4581	4581	4581	4521	4521	4521	4581	4581	4581	4581	4581	4581	4581	4581	4581	4581	4581	4581	4581	4581	4581	4581	4643	4643	4581	4581	4581	4581	4581	4581	4521	4521	4581	4581	4581	4521	4521	4521	4463	4463	4406	4350	4350	4350	4463	4463	4521	4581	4643	4643	4643	4706	4706	4838	4906	4977	5050	5050	4977	5050	5050	4977	4977	4977	4906	4977	5050	5050	4906	4906	4906	7959	7959	7959	7959	7779	7779	7779	7959	0	0	0	0	0	0	0	0	6992	6992	6853	6992	6992	6992	6992	7137	7137	7287	7287	7287	7287	0	0	0	0	0	0	0	0	0	0	0	0	0	0	0	0	0	0	0	0	0	0	0	0	0	0	0	0	0	0	6018	5915	5535	5535	0	0	0	0	0	0	0	0	2570	2551	2551	2514	2514	2496	2496	2496	2496	2478	2478	2478	2478	2478	2460	2460	2443	2426	2426	2426	2409	2392	2376	2376	2359	2359	0	0	0	0	0	0	0	0	0	0	0	0	0	0	0	0	0	0	0	0	0	0	0	0	0	0	0	0	0	0	0	0	0	0	0
0	0	0	0	0	0	887	889	891	891	896	901	905	908	910	915	920	922	925	925	927	930	930	932	932	948	953	958	958	961	963	966	969	972	977	980	980	988	991	994	994	1006	1014	1014	1030	1030	1030	1033	1033	1033	1033	1039	1042	1042	1042	1045	1048	1048	0	0	0	0	0	0	0	0	0	0	0	0	0	0	0	0	0	0	0	0	0	0	0	0	0	0	0	0	4643	4643	4643	4643	4643	4643	4581	4581	4643	4643	4643	4643	4643	4643	4706	4706	4643	4643	4643	4643	4706	4706	4706	4706	4706	4706	4706	4706	4706	4706	4706	4706	4706	4706	4706	4706	4643	4643	4643	4643	4643	4643	4643	4643	4643	4581	4581	4581	6349	6349	6235	6235	6235	6235	6124	6124	6124	6124	6124	6124	6124	6124	6124	6124	6124	6235	6235	6124	6349	6349	6235	6235	6235	6349	6235	6235	6235	6235	6235	6235	6235	6235	6235	6235	6235	6235	6235	6124	0	0	0	0	0	0	0	5535	5448	5448	5448	8146	8146	8146	7959	7779	7779	7779	5626	5626	5626	7779	7779	7779	7779	7779	7779	7779	7779	7779	7779	7779	7779	7779	7779	7779	7959	7959	7779	7959	7959	7779	7779	7779	7779	7779	7779	7779	7779	7959	7959	7779	7779	7779	7779	7959	7959	7959	7959	7959	7959	7779	7959	7779	7779	7779	7959	8146	7959	7959	8146	8343	8343	8343	0	0	3583	3583	3583	3583	3546	3546	3546	3546	3510	3510	3510	3510	3546	3546	3546	3546	3583	3583	3583	3583	3583	6592	6468	6468	6468	6592	6592	6592	6592	6592	0	3546	3546	3546	3546	3546	3546	3583	3583	3546	3546	3546	3546	3546	3546	3546	3546	3583	3583	3583	3583	0	0	0	0	0	4706	4706	4706	4643	4643	4706	4643	4706	4706	4706	4643	4643	4706	4706	4643	4643	4643	4643	4643	4643	4643	4643	4643	4643	4643	4643	4643	4643	4581	4581	4521	4406	4406	4463	4463	4463	4521	4643	4643	4643	4643	4581	4581	4581	4581	4581	4581	4581	4581	4581	4581	4581	4581	4581	4581	4581	4581	4581	4521	4521	4521	4521	4521	4521	4521	4521	4521	4521	4521	4521	4521	4581	4581	4581	4581	4581	4581	4581	4521	4406	4406	4406	4463	4463	4463	4463	4463	4463	4463	4463	4521	4521	4521	4521	4521	4521	4521	4521	4463	4463	4463	4521	4521	4521	4463	4463	4463	4463	4406	4463	4406	4406	4463	4406	4406	4406	4463	4350	4350	4350	4350	4350	4406	4406	4406	4521	4581	4581	4581	4581	4581	4581	4581	4581	4521	4521	4521	4521	4581	4581	4581	4581	4581	4581	4581	4581	4581	4581	4581	4581	4581	4581	4581	4643	4643	4581	4581	4581	4581	4581	4581	4521	4521	4581	4581	4521	4521	4521	4521	4521	4463	4406	4350	4350	4406	4463	4463	4581	4581	4643	4643	4706	4706	4771	4838	4906	4977	5050	5050	4977	4977	4977	4977	4977	4977	4906	4906	5125	5125	4838	4838	4838	7959	7959	7779	7779	7779	7608	7444	7287	7287	0	0	0	0	0	0	0	6992	6992	6853	6853	6853	6853	6992	7137	7137	7287	7287	7444	7287	7287	0	0	0	0	0	0	0	0	0	0	0	0	0	0	0	0	0	0	0	0	0	0	0	0	0	0	0	0	0	0	0	5535	5535	0	0	0	0	0	0	0	0	2570	2570	2551	2514	2514	2496	2496	2496	2496	2478	2478	2478	2460	2460	2443	2443	2443	2426	2426	2409	2409	2392	2392	2376	2359	2359	0	0	0	0	0	0	0	0	0	0	0	0	0	0	0	0	0	0	0	0	0	0	0	0	0	0	0	0	0	0	0	0	0	0	0
0	0	0	0	0	0	887	889	891	891	894	898	898	908	913	913	920	922	925	925	927	930	932	935	935	948	955	955	958	961	963	966	969	972	977	980	980	988	988	991	991	1006	1006	1014	1026	1026	1030	1030	1030	1030	1033	1036	1039	1039	1042	1045	1048	1048	0	0	0	0	0	0	0	0	0	0	0	0	0	0	0	0	0	0	0	0	0	0	0	0	0	4581	4643	4643	4643	4643	4643	4643	4581	4581	4581	4581	4643	4643	4643	4643	4643	4643	4706	4643	4643	4643	4643	4643	4643	4643	4643	4706	4643	4643	4643	4643	4643	4643	4643	4643	4706	4706	4706	4706	4643	4643	4643	4643	4643	4643	4643	4643	4643	4643	4643	4643	6349	6349	6235	6349	6235	6235	6124	6124	6124	6124	6124	6124	6124	6124	6124	6124	6235	6124	6124	6124	6235	6235	6235	6235	6235	6235	6235	6235	6235	6124	6124	6124	6235	6235	6235	6235	6235	6235	6235	0	0	0	0	0	0	0	0	5626	5535	5535	5535	5535	5535	8146	7959	7779	5626	5626	5626	5626	5626	5626	5626	7779	7779	7779	7779	7779	7779	7779	7779	7779	7779	7779	7779	7779	7779	7779	7779	7779	7959	7959	7779	7779	7959	7779	7779	7779	7779	7779	7779	7779	7779	7779	7779	7959	7779	7959	7959	7959	7959	7779	7959	7959	7959	7959	7959	7959	7959	7959	8146	8146	8146	8146	0	0	3583	3583	3583	3583	3546	3546	3546	3546	3510	3510	3546	3546	3546	3546	3583	3583	3583	3583	3621	3621	3621	3621	6468	6235	6235	6468	6468	6592	6592	0	0	3583	3546	3546	3546	3583	3583	3546	3546	3546	3546	3546	3546	3546	3583	3546	3546	3583	3583	3583	3583	0	0	0	0	0	4706	4706	4706	4643	4643	4706	4643	4706	4706	4706	4706	4706	4706	4643	4643	4643	4643	4643	4643	4643	4643	4643	4643	4643	4643	4643	4643	4643	4643	4581	4463	4406	4350	4463	4463	4521	4581	4581	4643	4581	4581	4581	4581	4581	4581	4581	4581	4581	4581	4581	4581	4581	4581	4581	4521	4581	4521	4521	4521	4521	4521	4521	4581	4581	4521	4521	4521	4521	4521	4521	4521	4581	4581	4581	4581	4581	4581	4581	4521	4406	4406	4406	4463	4463	4463	4463	4463	4463	4463	4463	4521	4521	4521	4463	4406	4406	4406	4463	4463	4521	4521	4521	4521	4463	4463	4463	4463	4406	4406	4406	4350	4350	4350	4406	4406	4406	4406	4406	4350	4350	4350	4350	4350	4350	4406	4521	4581	4581	4581	4581	4581	4581	4581	4581	4521	4581	4581	4581	4581	4581	4581	4581	4581	4581	4581	4581	4581	4581	4581	4581	4581	4581	4581	4581	4581	4643	4581	4581	4581	4581	4581	4521	4521	4521	4521	4521	4521	4521	4521	4521	4463	4406	4350	4350	4463	4463	4521	4581	4581	4643	4643	4706	4706	4771	4906	4906	4977	5050	5050	4977	4977	5050	4977	4977	4977	4906	4906	4977	4906	4838	4838	4838	7959	7779	7779	7779	7608	7608	7444	7287	7287	0	0	0	0	0	0	0	6992	6992	6853	6853	6853	6853	6853	6992	7137	7137	7137	7287	7287	7287	7287	7287	0	0	0	0	0	0	0	0	0	0	0	0	0	0	0	0	0	0	0	0	0	0	0	0	0	0	0	0	0	0	0	0	0	0	0	0	0	0	0	0	2551	2551	2496	2514	2496	2496	2496	2478	2478	2478	2478	2478	2460	2443	2443	2443	2426	2426	2409	2409	2392	2376	2376	2376	2376	0	0	0	0	0	0	0	0	0	0	0	0	0	0	0	0	0	0	0	0	0	0	0	0	0	0	0	0	0	0	0	0	0	0	0
0	0	0	0	0	0	887	889	889	891	891	898	905	905	910	915	920	922	925	925	927	930	932	937	937	950	950	953	958	961	963	966	972	972	977	977	980	988	988	991	994	1008	1008	1017	1026	1030	1030	1030	1030	1033	1033	1036	1039	1039	1042	1048	1052	1052	0	0	0	0	0	0	0	0	0	4521	4581	4643	4643	4643	0	0	0	0	0	0	0	4643	4643	4643	4581	4643	4643	4643	4643	4643	4643	4643	4643	4581	4643	4581	4643	4643	4643	4643	4643	4643	4643	4643	4643	4643	4643	4643	4643	4643	4643	4643	4643	4643	4643	4643	4643	4643	4643	4643	4706	4706	4706	4706	4643	4643	4643	4643	4643	4643	4643	4581	4643	4643	4643	4643	4643	6349	6235	6349	6349	6235	6124	6124	6124	6124	6124	6124	6018	6124	6124	6124	6235	6124	6124	6124	6235	6235	6124	6235	6235	6235	6235	6235	6235	6235	6235	6235	6235	6235	6235	6235	6124	6124	6124	0	0	0	0	0	0	0	5626	5626	5626	5626	5626	5535	5535	5535	5535	5626	5626	5626	5626	5626	5626	5535	5448	5448	5448	7959	7779	7779	7779	7608	7779	7779	7779	7779	7779	7779	7779	7779	7779	7779	7779	7779	7779	7779	7779	7779	7779	7779	7779	7779	7779	7779	7779	7779	7779	7959	7779	7779	7779	7779	7779	7779	7779	7779	7779	7779	7959	7959	7959	8146	8146	8146	8146	8146	0	0	0	3583	3583	3546	3546	3546	3546	3546	3510	3510	3510	3546	3546	3546	3546	3583	3583	3583	3583	3583	3583	3583	3583	6018	6018	6018	6018	0	0	0	0	3583	3583	3583	3583	3583	3583	3583	3583	3546	3546	3546	3546	3546	3583	3546	3546	3583	3583	3583	3583	0	0	0	0	0	4771	4706	4706	4643	4706	4706	4706	4706	4706	4706	4643	4643	4643	4643	4643	4643	4643	4643	4643	4643	4643	4643	4643	4643	4643	4643	4643	4643	4581	4581	4521	4406	4350	4350	4463	4521	4521	4581	4581	4581	4521	4581	4581	4581	4581	4581	4581	4581	4581	4581	4581	4581	4581	4521	4521	4521	4521	4521	4521	4521	4521	4521	4581	4521	4521	4521	4521	4521	4463	4463	4521	4581	4581	4581	4581	4581	4581	4581	4521	4463	4463	4406	4463	4463	4463	4463	4521	4463	4521	4463	4521	4521	4521	4463	4406	4406	4463	4463	4463	4521	4521	4521	4521	4463	4463	4406	4350	4350	4350	4350	4350	4350	4350	4406	4406	4406	4406	4350	4350	4350	4350	4350	4350	4350	4406	4463	4521	4581	4581	4581	4581	4581	4581	4581	4521	4581	4581	4581	4581	4581	4581	4581	4581	4581	4581	4581	4581	4581	4581	4581	4581	4581	4581	4581	4581	4581	4581	4581	4581	4581	4581	4521	4581	4581	4581	4521	4521	4521	4521	4521	4463	4406	4406	4350	4463	4463	4581	4581	4643	4643	4643	4706	4706	4771	4838	4906	4906	4977	4977	4977	4977	4977	4977	4977	4906	4906	4906	4906	4906	4838	4838	4838	7959	7959	7779	7779	7779	7779	7444	7287	7287	0	0	0	0	0	0	0	6992	6992	6853	6853	6853	6853	6853	6853	7137	7137	7137	7287	7137	7287	7287	7287	0	0	0	0	0	0	0	0	0	0	0	0	0	0	0	0	0	0	0	0	0	0	0	0	0	0	0	0	0	0	0	0	0	0	0	0	0	0	0	0	2514	2514	2514	2532	2496	2496	2496	2478	2496	2496	2478	2460	2460	2443	2443	2426	2426	2426	2409	2409	2392	2392	2376	2376	2376	0	0	0	0	0	0	0	0	0	0	0	0	0	0	0	0	0	0	0	0	0	0	0	0	0	0	0	0	0	0	0	0	0	0	0
0	0	0	0	0	0	889	891	894	894	898	898	905	905	910	910	917	922	922	925	927	930	932	940	940	948	948	953	955	958	963	963	969	974	977	980	980	985	988	991	997	1008	1008	1014	1023	1026	1030	1030	1030	1033	1033	1036	1039	1039	1042	1042	1052	1052	0	0	0	0	0	0	0	4643	4643	4581	4643	4643	4643	4643	4643	4643	4643	4643	4643	4643	4581	4643	4643	4643	4643	4643	4643	4643	4643	4643	4643	4643	4643	4643	4643	4643	4643	4643	4643	4643	4643	4643	4706	4643	4643	4643	4643	4643	4643	4643	4643	4643	4643	4643	4643	4643	4643	4643	4643	4643	4706	4706	4706	4706	4643	4643	4643	4643	4643	4643	4643	4581	4643	4643	4643	4643	4706	4706	6235	6349	6349	6235	6124	6124	6124	6124	6124	6018	6018	6018	6124	6124	6124	6124	6124	6124	6235	6124	6124	6235	6124	6235	6235	6235	6235	6235	6124	6124	6124	6235	6235	6235	6124	6124	6124	0	0	0	0	0	5626	5626	5626	5626	5626	5626	5626	5626	5626	5626	5535	5626	5626	5626	5626	5626	5626	5535	5448	5448	5448	5448	7959	7779	7779	7779	7779	7779	7779	7779	7779	7779	7779	7779	7779	7779	7779	7779	7779	7779	7779	7779	7779	7779	7779	7779	7779	7779	7779	7959	7959	7959	7959	7959	7779	7779	7779	7779	7959	7779	7779	7959	7959	7959	7959	7959	8146	8146	7959	7959	7959	0	0	3583	3583	3583	3546	3546	3546	3546	3510	3510	3510	3546	3546	3546	3546	3546	3583	3546	3583	3583	3583	3583	3583	6018	6018	5915	5815	5815	0	0	0	3621	3583	3583	3583	3583	3583	3546	3546	3546	3546	3546	3546	3546	3546	3546	3546	3583	3583	3583	3583	0	0	0	0	4771	4706	4706	4706	4643	4706	4706	4706	4706	4706	4706	4706	4643	4643	4643	4643	4643	4643	4643	4581	4581	4643	4643	4643	4643	4643	4643	4643	4581	4581	4581	4463	4463	4350	4350	4406	4463	4463	4521	4581	4581	4521	4521	4581	4581	4521	4521	4521	4521	4521	4521	4521	4521	4521	4521	4521	4521	4521	4521	4521	4521	4521	4581	4581	4521	4521	4521	4521	4521	4463	4521	4521	4581	4581	4581	4581	4581	4581	4581	4521	4463	4463	4463	4463	4521	4463	4463	4521	4521	4521	4463	4463	4463	4521	4463	4463	4463	4463	4463	4463	0	4521	4521	4463	4463	4463	4406	4350	4406	4350	4350	4350	4350	4350	4350	4350	4350	4350	4350	4350	4350	4350	4350	4296	4350	4350	4350	4521	4521	4581	4581	4643	4581	4581	4581	4521	4581	4581	4581	4521	4581	4581	4581	4521	4581	4581	4581	4581	4581	4581	4581	4581	4581	4521	4521	4581	4581	4581	4581	4581	4581	4581	4581	4521	4521	4581	4521	4521	4521	4463	4463	4463	4406	4406	4406	4463	4463	4581	4581	4581	4643	4643	4643	4706	4771	4838	4838	4977	4977	4977	4977	4977	5050	4977	4977	4906	4906	4906	4906	4906	4906	4906	4838	7779	7779	7779	7779	7444	7444	7444	7287	7137	6992	6992	7137	7137	0	0	0	6853	6853	6853	6853	6853	6853	6853	6853	6992	6992	7287	7287	7137	7137	7287	0	0	0	0	0	0	0	0	0	0	0	0	0	0	0	0	0	0	0	0	0	0	0	0	0	0	0	0	0	0	0	0	0	0	0	0	0	0	0	0	0	2532	2532	2514	2514	2514	2496	2496	2496	2496	2496	2478	2460	2443	2443	2426	2426	2426	2426	2409	2409	2392	2392	2376	2376	2376	0	0	0	0	0	0	0	0	0	0	0	0	0	0	0	0	0	0	0	0	0	0	0	0	0	0	0	0	0	0	0	0	0	0	0
0	0	0	0	0	0	889	894	894	896	898	901	905	908	908	915	917	922	922	925	927	930	935	935	942	945	948	953	955	955	961	966	969	974	977	980	983	988	988	991	997	1008	1011	1017	1017	1020	1026	1030	1030	1030	1033	1036	1039	1039	1042	1045	1045	0	0	0	0	0	0	0	0	4643	4581	4581	4581	4643	4643	4643	4643	4643	4643	4643	4643	4643	4643	4643	4643	4643	4643	4643	4643	4643	4643	4643	4643	4643	4643	4643	4643	4643	4643	4643	4643	4643	4643	4643	4643	4643	4643	4643	4643	4643	4643	4643	4643	4643	4643	4643	4643	4643	4706	4643	4706	4706	4706	4706	4706	4706	4706	4643	4643	4643	4643	4643	4643	4581	4643	4643	4706	4706	4706	4706	6349	6349	6235	6124	6124	6018	6018	6018	6018	6018	6018	6018	6124	6124	6124	6124	6124	6124	6235	6235	6124	6235	6235	6235	6124	6235	6235	6124	6124	6124	6124	6235	6235	6124	6124	6124	6124	0	0	0	5626	5719	5719	5626	5626	5626	5626	5626	5626	5626	5626	5626	5626	5626	5626	5626	5626	5626	5626	5535	5448	5448	5364	5364	5364	7959	7959	7779	7779	7779	7779	7779	7779	7779	7779	7779	7779	7779	7779	7779	7779	7779	7779	7779	7779	7779	7779	7779	7779	7779	7779	7779	7779	7959	7779	7779	7779	7779	7779	7779	7779	7779	7779	7779	7959	7959	8146	7959	8146	7959	7959	7959	7959	0	0	3583	3583	3546	3546	3546	3546	3510	3510	3475	3510	3510	3546	3546	3546	3546	3583	3546	3546	3546	3546	3546	5915	5915	5915	5815	5815	5815	0	5815	5815	3621	3621	3583	3583	3583	3546	3546	3546	3546	3546	3546	3546	3546	3546	3583	3583	3583	3583	3583	3583	3583	3546	3546	0	4706	4706	4706	4706	4643	4706	4706	4706	4706	4706	4706	4706	4706	4706	4643	4643	4643	4643	4643	4643	4643	4643	4643	4643	4643	4643	4643	4643	4581	4581	4581	4463	4463	4350	4296	4350	4463	4463	4463	4521	4521	4521	4463	4463	4463	4463	4521	4521	4521	4521	4521	4463	4521	4521	4521	4521	4521	4581	4581	4521	4521	4581	4521	4581	4521	4521	4521	4521	4521	4521	4521	4521	4581	4581	4581	4581	4581	4581	4581	4521	4521	4521	4463	4521	4521	4463	4463	4463	4463	4521	4463	4463	4463	4521	4463	4350	4350	4350	4350	4350	4350	4350	4463	4463	4406	4406	4406	4406	4406	4350	4350	4350	4350	4350	4350	4350	4350	4350	4350	4350	4350	4350	4296	4296	4296	4350	4350	4521	4521	4581	4581	4643	4581	4643	4643	4581	4581	4581	4581	4521	4581	4581	4581	4521	4581	4581	4581	4581	4581	4581	4521	4581	4581	4521	4521	4581	4581	4581	4581	4581	4581	4581	4581	4521	4521	4521	4521	4521	4463	4463	4463	4463	4406	4350	4350	4463	4521	4581	4581	4581	4643	4643	4643	4706	4771	4838	4838	4906	4906	4977	4977	4977	4977	4977	4977	4906	4906	4906	4906	5125	5125	5125	0	7779	7779	7444	7444	7444	7287	7444	7444	7287	7287	7287	7137	7137	7137	0	0	6853	6853	6853	6720	6720	6853	6853	6853	6853	6992	6992	6853	6992	6853	6853	6853	0	0	0	0	0	0	0	0	0	0	0	0	0	0	0	0	0	0	0	0	0	0	0	0	0	0	0	0	0	0	0	0	0	0	0	0	0	0	0	0	2514	2514	2532	2532	2514	2496	2496	2496	2496	2496	2478	2478	2460	2443	2426	2426	2426	2426	2426	2409	2409	2392	2392	2376	2376	0	0	0	0	0	0	0	0	0	0	0	0	0	0	0	0	0	0	0	0	0	0	0	0	0	0	0	0	0	0	0	0	0	0	0
0	0	0	0	0	0	889	891	894	896	898	901	903	908	908	913	917	922	925	925	927	927	932	937	940	945	948	948	953	953	961	966	972	974	977	980	983	988	991	994	997	1006	1006	1011	1014	1014	1023	1026	1030	1033	1033	1036	1039	1039	1042	1042	1042	1042	0	0	0	0	0	0	0	0	4643	4521	4581	4643	4643	4643	4643	4643	4643	4643	4643	4643	4581	4643	4706	4706	4643	4643	4643	4643	4643	4643	4643	4643	4643	4643	4643	4643	4643	4643	4643	4643	4643	4643	4643	4643	4643	4643	4643	4643	4643	4643	4643	4643	4643	4643	4643	4706	4706	4706	4706	4706	4706	4706	4706	4706	4706	4643	4643	4643	4643	4643	4643	4643	4643	4643	4706	4706	4706	4706	4706	6235	6235	6124	6124	6018	6018	6018	6018	6018	6018	5915	6018	6018	6018	6018	6018	6018	6235	6124	6235	6235	6235	6235	6124	6235	6235	6124	6124	6124	6124	6124	6124	6124	6018	5719	5719	5626	5719	5719	5719	5719	5719	5719	5719	5719	5626	5626	5626	5626	5626	5626	5535	5626	5626	5626	5626	5535	5535	5535	5448	5448	5448	5448	5364	5364	7959	7959	7779	7779	7779	7779	7779	7779	7779	7779	7779	7779	7779	7779	7608	7608	7779	7608	7608	7779	7779	7779	7779	7779	7779	7959	7959	7959	7959	7959	7959	7779	7779	7779	7779	7779	7779	7959	7959	8146	8146	8146	7959	7959	7959	7959	7959	0	0	3583	3583	3546	3546	3546	3546	3510	3510	3475	3510	3510	3546	3546	3546	3546	3546	3546	3546	3546	3546	3546	5815	5815	5815	5815	5815	5815	0	5815	5815	3621	3621	3583	3583	3583	3583	3546	3546	3546	3546	3546	3546	3546	3583	3583	3583	3583	3583	3583	3546	3546	3546	3546	3546	4643	4643	4706	4706	4643	4706	4706	4706	4706	4706	4706	4706	4771	4706	4706	4643	4643	4643	4643	4643	4643	4643	4643	4643	4643	4643	4643	4643	4643	4581	4521	4463	4463	4350	4296	4350	4406	4350	4350	4350	4406	4406	4406	4463	4406	4463	4463	4463	4463	4463	4463	4406	4463	4463	4463	4521	4521	4581	4581	4521	4521	4581	4463	4463	4463	4521	4521	4521	4521	4463	4463	4521	4521	4581	4581	4581	4521	4581	4581	4581	4521	4521	4463	4521	4463	4463	4463	4463	4463	4463	4463	4463	4463	4463	4406	4406	4350	4350	4350	4350	4350	4350	4463	4463	4463	4463	4406	4406	4406	4350	4350	4350	4350	4350	4350	4350	4350	4350	4350	4350	4350	4296	4296	4296	4296	4350	4406	4521	4521	4521	4581	4581	4581	4581	4581	4581	4581	4581	4581	4521	4521	4521	4521	4521	4521	4581	4581	4581	4581	4581	4581	4581	4521	4521	4521	4521	4521	4581	4581	4581	4581	4581	4521	4521	4521	4521	4521	4521	4463	4463	4521	4463	4406	4350	4350	4406	4521	4581	4581	4643	4643	4643	4706	4706	4771	4771	4838	4906	4906	4977	4977	5050	5050	4977	5050	4906	4906	5125	5125	5202	5202	5125	0	0	0	7444	7444	7444	7444	7444	7444	7444	7287	7287	7287	7287	7287	7287	0	6853	6853	6853	6720	6720	6720	6853	6853	6853	6853	6853	6853	6853	6853	6853	6853	6853	6853	0	0	0	0	0	0	0	0	0	0	0	0	0	0	0	0	0	0	0	0	0	0	0	0	0	0	0	0	0	0	0	0	0	0	0	0	0	0	2496	2514	2514	2514	2514	2496	2496	2496	2496	2496	2478	2460	2443	2443	2426	2426	2426	2426	2409	2409	2409	2392	2376	2376	2376	0	0	0	0	0	0	0	0	0	0	0	0	0	0	0	0	0	0	0	0	0	0	0	0	0	0	0	0	0	0	0	0	0	0	0
0	0	0	0	0	0	0	894	896	896	898	901	903	908	908	913	917	920	922	925	927	927	932	937	940	945	945	948	953	953	963	966	966	972	974	980	985	985	991	997	997	1000	1006	1011	1014	1014	1023	1026	1030	1033	1033	1033	1036	1036	1042	1042	1042	1042	0	0	0	0	0	0	0	0	4521	4463	4581	4643	4643	4643	4643	4643	4643	4643	4643	4581	4643	4706	4643	4643	4643	4643	4643	4643	4643	4643	4643	4643	4643	4643	4643	4643	4643	4643	4643	4643	4643	4643	4643	4643	4643	4643	4643	4643	4643	4643	4643	4643	4643	4643	4643	4643	4706	4706	4706	4643	4643	4643	4706	4706	4643	4643	4643	4643	4643	4643	4643	4643	4643	4706	4706	4706	4706	4771	4771	4838	4838	6124	6124	6018	6018	6018	6018	6018	6018	5915	6018	6018	6018	6018	6018	6018	6124	6124	6124	6235	6235	6124	6124	6124	6235	6124	6124	6124	6124	6124	6124	6124	6018	6018	5719	5626	5719	5719	5719	5719	5719	5719	5719	5719	5626	5626	5626	5626	5626	5626	5626	5626	5626	5626	5626	5626	5626	5535	5535	5448	5448	5448	5364	5364	5364	7959	7959	7959	7779	7779	7779	7779	7779	7779	7779	7779	7779	7779	7779	7608	7779	7608	7608	7779	7779	7779	7779	7779	7779	7959	7959	7779	7959	7959	7959	7779	7779	7779	7779	7779	7779	7959	7959	7959	7959	7959	7959	7959	7959	7779	7779	0	0	3583	3546	3546	3546	3546	3546	3510	3510	3510	3510	3546	3546	3546	3546	3546	3546	3546	3546	3546	3546	5719	5719	5815	5815	5815	5815	5915	5815	5815	5815	3621	3621	3583	3583	3583	3546	3546	3546	3546	3546	3546	3546	3546	3583	3546	3583	3583	3583	3583	3546	3546	3546	3546	3546	4706	4706	4706	4706	4706	4706	4706	4706	4706	4706	4706	4643	4706	4706	4706	4643	4643	4643	4643	4643	4643	4643	4643	4581	4643	4643	4643	4643	4643	4581	4581	4521	4463	4350	4296	4296	4350	4350	4350	4350	4350	4350	4406	4406	4406	4406	4463	4463	4463	4406	4406	4406	4406	4463	4406	4463	4463	4463	4463	4406	4406	4406	4463	4406	4406	4406	4406	4406	4463	4406	4463	4463	4521	4581	4581	4521	4521	4581	4581	4581	4521	4521	4521	4521	4521	4521	4463	4463	4463	4463	4463	4406	4406	4406	4406	4350	4350	4296	4296	4296	4296	4350	4406	4463	4463	4463	4406	4406	4406	4350	4350	4350	4350	4350	4350	4350	4350	4350	4350	4350	4350	4296	4296	4296	4296	4296	4463	4521	4521	4521	4581	4581	4581	4643	4581	4581	4581	4581	4581	4581	4581	4581	4581	4581	4643	4581	4581	4581	4581	4581	4521	4463	4463	4463	4463	4463	4521	4581	4521	4581	4581	4521	4521	4521	4521	4521	4521	4521	4463	4463	4521	4463	4406	4350	4350	4406	4521	4521	4581	4643	4643	4643	4706	4706	4771	4838	4838	4906	4906	4977	4977	5050	5050	4977	4977	4977	5050	5050	5202	5202	5202	0	0	0	0	7608	7444	7444	7444	7444	7444	7444	7287	7287	7287	7137	7137	7137	6992	6992	6992	6853	6853	6853	6853	6853	6853	6853	6853	6853	6853	6853	6853	6853	6853	6853	6853	0	0	0	0	0	0	0	0	0	0	0	0	0	0	0	0	0	0	0	0	0	0	0	0	0	0	0	0	0	0	0	0	0	0	0	0	0	0	2514	2514	2532	2532	2514	2496	2514	2496	2514	2496	2478	2460	2443	2443	2426	2426	2426	2426	2409	2409	2409	2392	2392	2376	2376	0	0	0	0	0	0	0	0	0	0	0	0	0	0	0	0	0	0	0	0	0	0	0	0	0	0	0	0	0	0	0	0	0	0	0
0	0	0	0	0	0	0	891	894	896	898	901	905	908	908	913	917	920	925	925	925	925	932	937	937	940	945	948	955	955	963	966	966	972	974	980	983	988	988	994	997	1000	1008	1011	1017	1017	1023	1026	1026	1033	1033	1036	1039	1039	1045	1045	1045	0	0	0	0	0	0	0	0	0	4521	4463	4581	4643	4643	4643	4643	4643	4643	4643	4581	4581	4521	4581	4643	4643	4643	4643	4643	4643	4643	4643	4643	4643	4643	4643	4643	4643	4643	4643	4643	4643	4643	4643	4643	4643	4643	4643	4643	4643	4643	4643	4643	4643	4643	4643	4643	4643	4706	4643	4643	4643	4643	4643	4643	4643	4643	4643	4643	4706	4706	4706	4643	4643	4643	4706	4706	4706	4706	4771	4771	4838	4838	6124	6124	6018	6018	6018	6018	6018	5915	5915	5915	6018	6018	6018	6018	6018	6124	6124	6124	6235	6124	6124	6124	6124	6235	6235	6124	6124	6124	6124	6124	6018	6018	5719	5626	5719	5719	5626	5626	5719	5719	5626	5719	5626	5626	5626	5626	5626	5626	5626	5626	5626	5626	5626	5626	5626	5626	5535	5448	5448	5448	5364	5364	5282	5282	5282	7779	7779	7779	7779	7779	7779	7779	7779	7779	7779	7779	7779	7608	7608	7608	7608	7608	7779	7779	7779	7779	7779	7779	7959	7959	7959	8146	8146	8146	7959	7959	7779	7779	7779	7779	7779	7959	7959	8146	7959	7959	7959	7959	7779	7779	0	3546	3583	3546	3546	3546	3546	3546	3510	3510	3510	3510	3546	3546	3546	3546	3546	3546	3546	3546	3546	3546	5719	5815	5815	5815	5719	5815	5815	5719	5815	5815	3583	3583	3583	3546	3546	3546	3546	3546	3546	3546	3546	3546	3546	3546	3546	3583	3583	3583	3583	3546	3546	3546	3546	3546	4706	4643	4706	4706	4706	4706	4706	4706	4706	4706	4706	4706	4771	4706	4706	4706	4643	4643	4643	4643	4643	4643	4643	4643	4643	4643	4643	4643	4643	4581	4581	4521	4521	4350	4350	4350	4350	4350	4350	4350	4350	4350	4406	4406	4406	4406	4406	4463	4406	4406	4350	4350	4350	4406	4406	4406	4463	4463	4463	4463	4406	4406	4463	4406	4406	4350	4350	4406	4406	4350	4350	4350	4350	4521	4521	4521	4521	4521	4521	4521	4350	4296	4350	4406	4463	4463	4463	4406	4406	4463	4406	4406	4406	4406	4350	4350	4350	4296	4296	4350	4296	4350	4406	4463	4463	4463	4406	4350	4406	4350	4350	4350	4350	4350	4350	4350	4350	4350	4350	4296	4296	4296	4296	4296	4296	4296	4350	4350	4521	4521	4581	4581	4581	4581	4581	4521	4521	4581	4581	4581	4581	4581	4581	4581	4581	4581	4581	4581	4581	4521	4521	4463	4406	4406	4406	4406	4406	4406	4463	4521	4521	4521	4521	4463	4463	4521	4521	4463	4463	4463	4406	4463	4406	4406	4350	4406	4521	4521	4581	4643	4643	4643	4706	4706	4838	4838	4906	4906	4977	4977	4977	4977	5050	5050	5050	5050	5050	5125	5125	5125	0	0	0	0	7779	7779	7608	7608	7608	7444	7444	7287	7137	7137	7137	7137	6992	6992	6992	6992	6853	6853	6853	6720	6853	6853	6853	6853	6853	6853	6853	6853	6853	6853	6853	6853	6853	6853	0	0	0	0	0	0	0	0	0	0	0	0	0	0	0	0	0	0	0	0	0	0	0	0	0	0	0	0	0	0	0	0	0	0	0	0	0	2514	2551	2532	2532	2532	2514	2514	2496	2514	2496	2478	2443	2443	2426	2426	2426	2426	2426	2426	2409	2409	2392	2392	2392	2392	0	0	0	0	0	0	0	0	0	0	0	0	0	0	0	0	0	0	0	0	0	0	0	0	0	0	0	0	0	0	0	0	0	0	0
0	0	0	0	0	0	0	894	896	896	901	903	903	905	908	908	915	920	922	925	925	925	932	937	937	940	945	948	955	955	963	966	966	972	974	977	980	985	985	994	997	1003	1008	1011	1011	1017	1023	1023	1030	1033	1033	1036	1039	1039	1045	1042	1042	0	0	0	0	0	0	0	0	0	4581	4521	4581	4643	4643	4643	4643	4643	4643	4643	4581	4521	4521	4521	4581	4643	4643	4643	4643	4643	4643	4643	4643	4643	4643	4643	4643	4643	4643	4643	4643	4643	4643	4643	4643	4643	4643	4643	4643	4643	4643	4643	4643	4643	4643	4643	4706	4706	4706	4706	4706	4706	4643	4643	4643	4643	4643	4643	4643	4706	4706	4706	4706	4706	4706	4706	4706	4706	4771	4771	4771	4771	4838	4838	0	0	0	0	0	6018	5915	5915	5915	0	0	0	0	0	6124	6124	6124	6235	6235	6235	6124	6235	6235	6235	6235	6124	6124	6124	6018	6018	5719	5626	5626	5626	5626	5626	5626	5719	5626	5626	5626	5626	5626	5626	5626	5626	5626	5626	5626	5626	5626	5626	5626	5626	5626	5535	5535	5448	5448	5364	5282	5282	5282	5282	7959	7779	7779	7779	7779	7779	7779	7779	7779	7779	7779	7779	7608	7608	7608	7608	7608	7779	7779	7779	7779	7779	7959	7959	7959	7959	7959	7959	7959	7959	7779	7779	7779	7779	7779	7779	7779	7959	7959	7959	7959	7959	7959	7779	7779	0	3583	3583	3583	3546	3546	3546	3546	3546	3510	3510	3546	3546	3546	3546	3546	3546	3546	3546	3546	3546	3546	5719	5815	5815	5719	5719	5719	5719	5719	5719	5915	3583	3583	3583	3546	3546	3546	3546	3546	3546	3546	3546	3546	3546	3546	3546	3583	3583	3583	3583	3546	3546	3546	3546	3546	4706	4706	4706	4706	4706	4706	4706	4706	4706	4706	4643	4706	4771	4706	4706	4706	4706	4706	4706	4643	4643	4706	4643	4643	4643	4643	4643	4706	4706	4706	4643	4581	4521	4296	4350	4350	4350	4350	4350	4350	4350	4406	4406	4463	4463	4406	4406	4406	4406	4350	4350	4350	4406	4406	4406	4406	4463	4463	4463	4406	4406	4406	4406	4406	4406	4406	4406	4406	4406	4406	4406	4406	4521	4521	4521	4521	4463	4463	4296	4350	4350	4350	4350	4350	4406	4463	4463	4406	4406	4463	4463	4406	4406	4406	4350	4350	4350	4350	4296	4350	4296	4350	4406	4406	4463	4350	4406	4350	4406	4350	4350	4296	4350	4350	4350	4350	4350	4350	4350	4296	4296	4296	4296	4296	4296	4296	4350	4463	4463	4521	4521	4521	4521	4521	4521	4521	4521	4521	4581	4581	4581	4581	4581	4581	4581	4581	4581	4521	4581	4521	4521	4350	4350	4350	4350	4350	4350	4350	4350	4521	4521	4463	4463	4463	4463	4463	4463	4350	4350	4350	4350	4350	4350	4350	4350	4406	4521	4521	4581	4643	4643	4643	4706	4643	4706	4838	4838	4838	4906	4977	5050	5050	5125	5050	5050	5050	4977	5050	5050	5050	0	0	0	0	7779	7779	7608	7608	7608	7444	7444	7287	7287	7137	6992	6992	6992	6992	6992	6992	6853	6853	6853	6853	6853	6853	6853	6853	6853	6853	6853	6853	6853	6853	6853	6853	6853	6853	6853	6853	0	0	0	0	0	0	0	0	0	0	0	0	0	0	0	0	0	0	0	0	0	0	0	0	0	0	0	0	0	0	0	0	0	0	0	0	2532	2532	2532	2514	2514	2496	2496	2496	2496	2478	2460	2443	2426	2426	2426	2426	2426	2409	2409	2392	2392	2392	2376	2376	0	0	0	0	0	0	0	0	0	0	0	0	0	0	0	0	0	0	0	0	0	0	0	0	0	0	0	0	0	0	0	0	0	0	0
0	0	0	0	0	0	0	894	896	901	901	903	903	905	908	908	917	920	925	925	925	925	932	935	937	940	945	948	948	955	963	963	966	969	974	974	980	980	983	991	997	1000	1008	1008	1011	1017	1023	1023	1026	1033	1033	1033	1036	1039	1042	1042	1042	1042	0	0	0	0	0	0	0	0	4581	4581	4581	4643	4643	4643	4643	4643	4643	4643	4581	4581	4581	4581	4581	4643	4643	4643	4643	4643	4643	4643	4643	4643	4643	4643	4643	4643	4643	4643	4643	4643	4643	4643	4643	4643	4643	4643	4643	4643	4643	4643	4643	4643	4643	4643	4706	4706	4706	4706	4643	4643	4643	4643	4643	4643	4643	4643	4643	4706	4706	4706	4706	4706	4706	4706	4706	4771	4771	4771	4838	4838	4838	4838	4838	0	0	0	0	0	0	0	0	0	0	0	0	0	0	0	0	0	6235	6124	6124	6124	6235	6235	6235	6124	6124	6018	6018	5915	5815	5719	5719	5719	5719	5719	5719	5719	5626	5626	5626	5626	5626	5626	5626	5626	5626	5626	5626	5626	5626	5626	5626	5626	5626	5626	5535	5535	5448	5364	5364	5282	5282	5282	7959	7779	7779	7779	7779	7779	7779	7779	7779	7779	7608	7779	7608	7608	7608	7779	7779	7779	7959	7959	7959	7959	7959	7959	7959	7959	7959	7959	7959	7779	7779	7779	7779	7779	7779	7779	7779	7959	7959	7959	7959	7959	7959	7959	7959	0	3583	3583	3583	3546	3546	3546	3546	3546	3510	3510	3510	3546	3546	3546	3546	3546	3546	3546	3546	3546	5626	5626	5626	5719	5719	5719	5719	5719	5719	5719	5719	3583	3583	3583	3546	3546	3546	3583	3583	3546	3546	3546	3546	3546	3583	3546	3583	3583	3583	3546	3546	3546	3546	3546	3546	4706	4643	4706	4706	4706	4706	4643	4643	4706	4706	4643	4706	4706	4706	4706	4706	4706	4706	4706	4706	4643	4706	4706	4706	4643	4643	4643	4643	4643	4643	4643	4581	4521	4350	4350	4350	4350	4350	4350	4406	4406	4406	4406	4463	4463	4406	4406	4406	4406	4350	4350	4350	4406	4406	4406	4406	4463	4463	4463	4406	4406	4406	4463	4406	4406	4406	4406	4406	4406	4406	4406	4463	4463	4521	4521	4521	4463	4463	4463	4350	4350	4350	4350	4406	4406	4406	4463	4406	4463	4463	4463	4463	4463	4463	4406	4350	4350	4350	4350	4350	4350	4350	4406	4406	4350	4350	4350	4350	4350	4350	4350	4350	4350	4350	4350	4350	4296	4350	4350	4296	4296	4296	4296	4296	4296	4296	4296	4406	4406	4463	4463	4463	4463	4463	4463	4406	4521	4521	4521	4581	4581	4581	4581	4581	4581	4581	4581	4521	4521	4463	4406	4350	4296	4350	4350	4350	4350	4350	4350	4350	4463	4350	4463	4406	4406	4463	4463	4350	4296	4296	4296	4243	4296	4296	4296	4350	4406	4406	4521	4521	4521	4643	4643	4643	4706	4838	4838	4906	4906	5050	5050	5050	5125	5050	5050	5050	5050	5050	5050	5050	0	0	0	0	7779	7959	7608	7608	7444	7444	7287	7287	7287	7137	7137	6992	6992	6992	6992	6853	6853	6992	6853	6853	6853	6853	6853	6853	6853	6853	6853	6853	6853	6853	6853	6853	6853	6853	6853	6853	6853	0	0	0	0	0	0	0	0	0	0	0	0	0	0	0	0	0	0	0	0	0	0	0	0	0	0	0	0	0	0	0	0	0	0	2551	2532	2532	2532	2514	2514	2496	2478	2496	2478	2478	2443	2443	2426	2426	2426	2426	2409	2426	2409	2392	2392	2392	2376	2376	0	0	0	0	0	0	0	0	0	0	0	0	0	0	0	0	0	0	0	0	0	0	0	0	0	0	0	0	0	0	0	0	0	0	0
0	0	0	0	0	0	0	894	898	901	901	903	903	905	908	913	920	922	925	925	925	925	930	935	935	940	948	948	950	955	961	963	963	966	966	974	980	985	985	994	997	1000	1006	1008	1014	1020	1023	1023	1026	1030	1033	1033	1036	1039	1042	1039	1039	1042	0	0	0	0	0	0	0	0	4296	4406	4581	4643	4643	4643	4643	4643	4643	4643	4581	4581	4643	4581	4643	4643	4643	4643	4643	4643	4643	4643	4643	4643	4643	4643	4643	4643	4581	4581	4581	4643	4643	4643	4643	4643	4643	4643	4643	4643	4643	4643	4643	4643	4643	4643	4706	4706	4706	4706	4643	4643	4643	4643	4643	4643	4643	4643	4643	4706	4706	4706	4706	4706	4706	4771	4706	4771	4771	4838	4838	4906	4906	4906	4906	0	0	0	0	0	0	0	0	0	0	0	0	0	0	0	0	0	0	6124	6124	6468	6349	6235	6235	6124	6124	6018	6018	5915	5815	5719	5719	5719	5719	5626	5626	5626	5626	5626	5626	5626	5626	5626	5626	5626	5626	5626	5626	5626	5626	5719	5626	5719	5626	5626	5626	5535	5448	5448	5364	5282	5282	5282	0	7779	7779	7779	7779	7779	7779	7779	7779	7779	7608	7779	7779	7779	7779	7779	7779	7959	7959	7959	7959	7959	7779	7959	7959	7959	7959	7959	7779	7779	7779	7779	7779	7779	7779	7779	7779	7959	7959	8146	7959	7959	7959	8146	8146	8146	3583	3546	3546	3546	3546	3546	3546	3546	3510	3510	3546	3546	3546	3546	3546	3546	3546	3546	3546	3546	5535	5626	5719	5719	5719	5719	5719	5719	5719	5719	5719	3621	3621	3583	3546	3546	3546	3583	3583	3546	3546	3546	3546	3546	3583	3546	3583	3583	3546	3546	3546	3510	3510	3510	3510	4706	4706	4706	4706	4706	4706	4643	4643	4706	4706	4643	4643	4771	4771	4706	4706	4706	4706	4706	4706	4706	4706	4706	4706	4706	4643	4643	4706	4706	4643	4643	4581	4581	4463	4350	4350	4350	4350	4350	4406	4406	4406	4406	4463	4463	4406	4406	4406	4406	4406	4406	4350	4406	4406	4406	4406	4463	4463	4463	4406	4406	4463	4463	4406	4406	4406	4406	4406	4406	4406	4406	4463	4521	4521	4521	4521	4463	4463	4463	4350	4406	4406	4406	4350	4350	4350	4406	4406	4406	4463	4406	4463	4463	4463	4463	4406	4350	4406	4406	4463	4463	4463	4463	4463	4463	4350	4350	4350	4350	4350	4296	4296	4296	4350	4296	4350	4350	4350	4350	4296	4296	4296	4296	4296	4296	4296	4296	4350	4350	4350	4406	4406	4463	4463	4406	4406	4463	4521	4521	4581	4581	4581	4581	4581	4581	4581	4581	4581	4521	4463	4406	4296	4296	4350	4350	4350	4296	4296	4296	4296	4350	4350	4350	4350	4406	4406	4350	4296	4296	4296	4296	4243	4243	4243	4243	4296	4296	4350	4350	4581	4643	4643	4643	4643	4706	4771	4771	4906	4906	4977	5050	5050	5050	4977	4977	5050	4977	4977	4977	0	0	0	0	0	0	7959	7608	7608	7444	7287	7287	7287	7287	7287	6992	6992	6992	6992	6992	6992	6992	6992	6853	6853	6853	6853	6853	6853	6853	6853	6853	6853	6853	6853	6853	6853	6853	6853	6853	6853	6853	6853	6853	0	0	0	0	0	0	0	0	0	0	0	0	0	0	0	0	0	0	0	0	0	0	0	0	0	0	0	0	0	0	0	0	2551	2551	2532	2532	2532	2514	2496	2478	2478	2460	2460	2443	2426	2426	2426	2426	2426	2409	2409	2409	2409	2392	2392	2376	2376	0	0	0	0	0	0	0	0	0	0	0	0	0	0	0	0	0	0	0	0	0	0	0	0	0	0	0	0	0	0	0	0	0	0	0
0	0	0	0	0	0	0	889	894	896	898	903	903	905	908	920	922	922	925	925	925	927	930	935	935	942	948	950	953	953	963	963	966	969	974	974	980	980	988	994	997	1000	1006	1008	1017	1023	1026	1023	1023	1030	1033	1033	1036	1036	1039	1036	1036	0	0	0	0	0	0	0	0	0	4771	4706	4643	4643	4643	4643	4643	4643	4643	4643	4643	4643	4643	4643	4643	4643	4643	4643	4643	4643	4643	4643	4643	4643	4581	4643	4643	4643	4581	4581	4581	4643	4643	4643	4643	4643	4643	4643	4643	4643	4643	4706	4643	4706	4643	4643	4706	4706	4706	4643	4643	4643	4643	4643	4643	4643	4643	4643	4643	4706	4706	4706	4706	4706	4706	4706	4706	4771	4771	4838	4838	4906	4906	4906	4906	0	0	0	0	0	0	0	0	0	0	0	0	0	0	0	0	0	0	6124	6124	6468	6349	6349	6235	6124	6124	6018	5915	5815	5815	5719	5719	5719	5626	5626	5626	5626	5626	5626	5626	5626	5626	5626	5626	5626	5626	5626	5626	5626	5626	5626	5626	5719	5626	5626	5626	5535	5535	5448	5364	5364	5282	5282	0	0	7779	7608	7608	7608	7779	7779	7779	7779	7608	7779	7779	7779	7779	7779	7779	7959	7779	7779	7779	7779	7959	7959	7959	7959	7959	7779	7779	7779	7608	7608	7608	7608	7608	7779	7779	7959	7959	7959	7959	7959	7959	8343	8343	8146	3583	3583	3546	3546	3546	3546	3546	3546	3546	3510	3546	3546	3546	3583	3583	3546	3583	3546	3546	3546	5364	5626	5719	5719	5719	5719	5719	5719	5719	5626	5719	3583	3583	3583	3546	3546	3546	3583	3583	3546	3546	3546	3546	3583	3583	3546	3583	3583	3546	3546	3546	3546	3546	3546	3546	4706	4706	4706	4706	4706	4706	4643	4643	4643	4706	4643	4643	4643	4706	4706	4706	4706	4706	4706	4706	4706	4706	4706	4706	4706	4706	4643	4706	4706	4643	4643	4581	4521	4350	4406	4406	4350	4406	4406	4463	4463	4463	4463	4521	4521	4463	4406	4463	4463	4463	4406	4406	4463	4463	4463	4463	4463	4463	4463	4463	4463	4463	4463	4463	4406	4406	4463	4463	4463	4406	4463	4463	4521	4521	4521	4521	4521	4463	4521	4463	4406	4406	4406	4350	4350	4350	4350	4406	4463	4463	4463	4463	4463	4521	4521	4521	4521	4521	4521	4521	4463	4463	4463	4463	4406	4350	4350	4350	4350	4350	4296	4296	4296	4350	4296	4296	4296	4296	4350	4350	4296	4296	4296	4350	4350	4296	4296	4296	4350	4350	4350	4350	4406	4406	4350	4350	4406	4463	4463	4521	4581	4581	4581	4581	4581	4581	4581	4521	4463	4463	4406	4350	4296	4350	4350	4350	4296	4296	4296	4296	4350	4350	4350	4350	4350	4350	4350	4296	4296	4296	4296	4296	4243	4296	4296	4296	4350	4350	4463	4581	4581	4643	4643	4643	4706	4771	4838	4906	4977	5125	4977	4977	5050	5050	4977	5050	5050	4977	4977	0	0	0	0	0	0	0	0	7608	7444	7444	7287	7287	7287	7287	6992	6992	6992	6992	6853	6853	6853	6992	6853	6853	6853	6853	6853	6853	6853	6992	7137	7137	7287	7287	7137	7137	6992	6853	6853	6853	6853	6720	6853	6853	0	0	0	0	0	0	0	0	0	0	0	0	0	0	0	0	0	0	0	0	0	0	0	0	0	0	0	0	0	0	0	2570	2551	2551	2532	2532	2514	2496	2478	2478	2460	2443	2426	2426	2426	2426	2426	2426	2409	2409	2409	2409	2409	2392	2376	2376	0	0	0	0	0	0	0	0	0	0	0	0	0	0	0	0	0	0	0	0	0	0	0	0	0	0	0	0	0	0	0	0	0	0	0
0	0	0	0	0	0	0	887	889	894	896	903	903	905	908	920	922	922	922	925	927	927	932	932	935	942	945	950	953	961	963	966	966	969	974	974	977	977	985	994	997	1000	1003	1003	1014	1023	1026	1026	1023	1030	1033	1033	1033	1033	1036	1036	1036	0	0	0	0	0	0	0	0	0	4771	4706	4706	4706	4643	4643	4643	4643	4643	4643	4643	4643	4706	4706	4706	4706	4643	4643	4643	4643	4706	4643	4643	4643	4643	4643	4643	4643	4581	4581	4581	4643	4643	4643	4643	4643	4643	4706	4706	4706	4706	4706	4643	4706	4643	4643	4706	4706	4643	4643	4643	4643	4643	4643	4643	4643	4643	4643	4643	4706	4706	4706	4706	4706	4706	4771	4706	4771	4771	4838	4906	4906	4906	4906	4906	0	0	0	0	0	0	0	0	0	0	0	0	0	0	0	0	0	0	0	0	6468	6468	6349	6349	6124	6124	6018	5915	5815	5719	5719	5719	5626	5626	5626	5626	5626	5626	5626	5626	5626	5626	5626	5626	5626	5626	5626	5626	5626	5626	5626	5626	5626	5626	5626	5626	5535	5448	5448	5364	5364	5364	5364	0	0	7779	7608	7608	7779	7779	7779	7779	7608	7608	7779	7779	7779	7779	7959	7779	7779	7779	7779	7779	7779	7959	7959	7959	7959	7779	7779	7779	7608	7608	7444	7608	7608	7608	7608	7779	7959	7959	7959	7959	7959	7959	8146	8146	0	3583	3546	3546	3546	3546	3546	3546	3546	3546	3546	3546	3546	3546	3583	3583	3546	3583	3583	3546	3546	3546	5626	5626	5626	5626	5719	5719	5719	5626	5626	5626	5626	3583	3583	3546	3583	3546	3583	3583	3546	3546	3546	3546	3546	3546	3546	3583	3583	3583	3583	3546	3546	3546	3546	3546	4706	4706	4706	4706	4706	4706	4643	4643	4643	4643	4643	4643	4706	4706	4706	4706	4706	4706	4706	4706	4706	4706	4706	4706	4706	4643	4643	4643	4643	4643	4643	4581	4521	4350	4350	4350	4350	4406	4463	4463	4463	4463	4521	4521	4521	4521	4463	4521	4521	4463	4463	4463	4521	4521	4521	4521	4521	4521	4521	4463	4463	4521	4521	4521	4521	4521	4521	4521	4463	4463	4463	4521	4521	4521	4521	4521	4521	4521	4521	4521	4406	4406	4406	4521	4406	4406	4406	4521	4521	4521	4463	4521	4521	4521	4521	4521	4521	4521	4521	4463	4463	4463	4463	4406	4350	4350	4350	4350	4350	4296	4296	4296	4296	4296	4296	4296	4296	4296	4296	4350	4296	4296	4296	4296	4350	4296	4296	4296	4350	4350	4350	4350	4406	4350	4350	4296	4350	4350	4406	4406	4521	4581	4581	4581	4581	4521	4521	4521	4463	4463	4350	4296	4296	4296	4296	4296	4296	4243	4296	4296	4296	4243	4296	4296	4243	4243	4296	4296	4296	4296	4296	4296	4243	4296	4296	4350	4350	4350	4463	4581	4581	4581	4643	4643	4643	4643	4643	4906	4977	5125	5202	5050	5125	5050	5050	5125	5050	5050	5050	5050	0	0	0	0	0	0	0	0	7444	7608	7287	7287	7137	6992	6853	6853	6992	6853	6853	6853	6853	6853	6853	6853	6853	6853	6853	6992	6992	6992	6992	7137	7137	7137	7137	6992	6992	6853	6853	6853	6720	6720	6853	6853	6853	0	0	0	0	0	0	0	0	0	0	0	0	0	0	0	0	0	0	0	0	0	0	0	0	0	0	0	0	0	0	2570	2570	2551	2532	2532	2514	2496	2478	2478	2460	2443	2443	2426	2426	2426	2426	2409	2409	2409	2409	2392	2392	2392	2376	2376	0	0	0	0	0	0	0	0	0	0	0	0	0	0	0	0	0	0	0	0	0	0	0	0	0	0	0	0	0	0	0	0	0	0	0
0	0	0	0	0	0	0	887	887	894	898	903	905	908	913	917	920	920	922	922	927	927	932	935	937	940	945	948	950	955	961	963	966	969	974	974	977	977	985	991	994	997	1003	1000	1017	1023	1026	1023	1023	1030	1033	1033	1033	1033	1033	1033	0	0	0	0	0	0	0	0	0	0	4838	4771	4771	4706	4706	4643	4706	4706	4643	4643	4643	4706	4706	4706	4706	4706	4643	4643	4643	4706	4706	4643	4643	4643	4643	4643	4643	4643	4643	4643	4581	4643	4643	4643	4643	4643	4643	4706	4706	4706	4706	4706	4706	4706	4706	4706	4706	4706	4643	4643	4643	4643	4643	4643	4581	4581	4581	4643	4643	4643	4643	4643	4706	4706	4706	4706	4706	4771	4771	4838	4906	4906	4906	4977	4906	4906	4906	0	0	0	0	0	0	0	0	0	0	0	0	0	0	0	0	0	0	0	6468	6349	6349	6018	6018	5915	5815	5719	5719	5719	5719	5626	5626	5626	5626	5626	5535	5626	5626	5626	5626	5626	5626	5626	5626	5626	5626	5626	5626	5626	5626	5626	5626	5626	5626	5535	5535	5448	5448	5364	5364	5364	0	0	0	0	0	7779	7779	7779	7608	7608	7608	7608	7608	7608	7779	7779	7959	7779	7779	7779	7779	7779	7959	7959	7959	7959	7779	7779	7608	7608	7608	7608	7608	7444	7444	7608	7608	7608	7779	7959	7959	7779	7959	7959	8146	0	0	3546	3546	3546	3546	3546	3546	3546	3546	3546	3546	3546	3546	3546	3546	3546	3583	3583	3583	3583	3583	5626	5719	5626	5626	5719	5626	5719	5626	5626	5719	5719	3583	3583	3583	3583	3583	3583	3583	3546	3546	3546	3546	3546	3546	3546	3583	3583	3583	3583	3583	3621	3621	3621	4771	4771	4706	4706	4706	4643	4643	4643	4643	4581	4581	4581	4581	4643	4643	4643	4706	4706	4706	4706	4706	4706	4706	4706	4706	4706	4643	4643	4643	4643	4581	4581	4581	4521	4521	4463	4350	4350	4463	4463	4521	4521	4521	4521	4521	4521	4521	4521	4521	4521	4521	4521	4521	4521	4521	4581	4521	4581	4581	4581	4581	4581	4521	4521	4521	4521	4521	4521	4521	4521	4521	4521	4521	4521	4521	4521	4581	4581	4581	4521	4521	4521	4521	4521	4521	4521	4463	4521	4521	4521	4521	4463	4521	4521	4521	4521	4581	4581	4581	4521	4521	4521	4463	4406	4350	4350	4350	4350	4350	4350	4296	4296	4296	4296	4296	4296	4296	4296	4296	4296	4296	4296	4296	4296	4296	4296	4296	4296	4296	4296	4296	4296	4296	4350	4296	4296	4296	4296	4350	4406	4406	4406	4521	4521	4521	4521	4521	4521	4521	4463	4406	4406	4296	4296	4296	4296	4296	4296	4243	4296	4243	4243	4243	4243	4243	4296	4296	4296	4296	4296	4296	4296	4296	4243	4296	4296	4350	4406	4406	4521	4581	4643	4643	4643	4643	4643	4643	4643	4643	4977	5050	5050	5125	5125	5125	5050	5050	5050	5050	5050	5050	0	0	0	0	0	0	0	0	0	7444	7287	7137	7137	6853	6853	6992	6992	6853	6853	6853	6992	6853	6853	6853	6853	6853	6853	6853	6853	6853	6853	6853	7137	7137	7137	6992	6992	6853	6853	6853	6853	6853	6853	6853	6853	0	0	0	0	0	0	0	0	0	0	0	0	0	0	0	0	0	0	0	0	0	0	0	0	0	0	0	0	0	0	2570	2570	2532	2532	2514	2496	2478	2478	2478	2460	2460	2443	2426	2426	2426	2426	2409	2409	2409	2392	2392	2392	2392	2376	2376	0	0	0	0	0	0	0	0	0	0	0	0	0	0	0	0	0	0	0	0	0	0	0	0	0	0	0	0	0	0	0	0	0	0	0
0	0	0	0	0	0	0	887	887	891	894	903	908	913	917	917	920	922	925	925	927	930	935	937	940	942	945	948	950	958	961	966	966	969	974	977	977	980	985	991	994	997	1003	1003	1020	1023	1023	1023	1023	1026	1026	1033	1030	1030	1033	1033	0	0	0	0	0	0	0	0	0	0	4771	4771	4706	4706	4643	4643	4643	4643	4643	4643	4643	4643	4706	4643	4643	4706	4706	4706	4706	4706	4706	4643	4643	4643	4643	4643	4643	4643	4643	4643	4643	4643	4643	4643	4643	4643	4643	4706	4643	4706	4643	4706	4643	4706	4643	4706	4706	4706	4706	4643	4643	4643	4643	4643	4581	4581	4581	4643	4643	4643	4643	4643	4643	4643	4706	4706	4706	4771	4771	4771	4906	4906	4906	4906	4906	4906	4906	0	0	0	0	0	0	0	0	0	0	0	0	0	0	0	0	0	0	6349	6349	6124	6124	5815	5915	5815	5815	5719	5719	5719	5719	5626	5626	5626	5626	5626	5535	5535	5626	5626	5626	5626	5626	5626	5626	5535	5535	5535	5535	5535	5535	5626	5626	5626	5626	5535	5535	5535	5448	5448	5364	5364	0	0	0	0	0	0	7608	7608	7608	7608	7444	7608	7608	7608	7779	7959	7779	7779	7779	7779	7779	7779	7779	7779	7959	7779	7779	7608	7608	7444	7444	7287	7444	7444	7444	7608	7608	7608	7779	7779	7608	7608	7608	7608	0	0	0	3546	3546	3546	3546	3546	3546	3546	3546	3546	3546	3546	3546	3546	3546	3546	3583	3583	3583	3583	3583	5626	5626	5626	5626	5626	5626	5626	5626	5626	5626	5626	3583	3583	3583	3583	3583	3583	3583	3583	3583	3546	3546	3583	3546	3583	3583	3583	3583	3583	3583	3621	3621	4771	4771	4706	4706	4643	4706	4643	4643	4643	4643	4581	4581	4643	4643	4706	4706	4643	4706	4706	4706	4706	4706	4706	4706	4706	4643	4643	4643	4643	4643	4643	4581	4581	4581	4521	4521	4463	4463	4463	4463	4463	4521	4521	4521	4521	4521	4521	4521	4521	4521	4521	4521	4521	4581	4581	4581	4643	4581	4581	4581	4581	4643	4581	4581	4581	4581	4581	4581	4581	4581	4521	4521	4521	4581	4581	4581	4581	4581	4581	4581	4581	4521	4521	4521	4521	4521	4521	4521	4581	4581	4581	4521	4521	4521	4521	4581	4581	4581	4581	4581	4581	4521	4521	4463	4463	4350	4350	4350	4350	4350	4350	4296	4350	4296	4296	4350	4350	4296	4296	4296	4296	4296	4296	4296	4296	4296	4296	4296	4296	4296	4296	4296	4296	4296	4350	4296	4296	4296	4296	4350	4350	4350	4406	4463	4521	4521	4521	4463	4463	4463	4406	4406	4350	4296	4296	4296	4296	4296	4296	4243	4243	4296	4296	4243	4243	4243	4296	4296	4296	4296	4296	4296	4243	4296	4243	4243	4243	4350	4350	4350	4463	4521	4581	4581	4581	4643	4643	4643	4643	4643	0	5050	5050	5125	5202	5125	5125	5050	0	0	0	0	0	0	0	0	0	0	0	0	7779	7608	7287	7287	7137	7137	6853	6992	6992	6992	6853	6992	6992	6992	6992	6853	6853	6853	6853	6853	6853	6853	6992	6992	7287	7287	7287	6992	7137	6992	6853	6853	6853	6853	6853	6853	0	0	0	0	0	0	0	0	0	0	0	0	0	0	0	0	0	0	0	0	0	0	0	0	0	0	0	0	0	0	0	0	0	2532	2532	2514	2496	2478	2460	2460	2460	2460	2443	2426	2426	2426	2426	2409	2409	2409	2409	2392	2392	2392	2376	2376	0	0	0	0	0	0	0	0	0	0	0	0	0	0	0	0	0	0	0	0	0	0	0	0	0	0	0	0	0	0	0	0	0	0	0
0	0	0	0	0	0	0	887	887	894	891	915	915	915	920	922	922	925	925	925	927	930	935	937	940	942	945	948	953	958	961	963	966	969	974	977	980	985	991	994	997	1000	1003	1006	1017	1023	1023	1023	1023	1023	1023	1033	1030	1033	1033	1033	0	0	0	0	0	0	0	0	0	0	4771	4771	4706	4706	4643	4643	4643	4643	4643	4643	4643	4643	4643	4643	4706	4706	4706	4706	4706	4706	4706	4643	4643	4643	4643	4643	4643	4643	4643	4643	4643	4643	4643	4643	4643	4643	4643	4706	4643	4706	4643	4643	4643	4643	4643	4643	4706	4706	4643	4643	4643	4643	4643	4643	4581	4581	4581	4643	4581	4643	4643	4643	4643	4643	4706	4706	4706	4706	4838	4906	4906	4977	4977	4977	4977	4906	0	0	0	0	0	0	0	0	0	0	0	0	0	0	0	0	0	0	0	6124	6124	6018	5915	5815	5719	5719	5719	5719	5719	5719	5626	5626	5626	5626	5626	5535	5535	5535	5626	5626	5626	5626	5626	5535	5535	5535	5535	5535	5535	5535	5535	5535	5626	5535	5626	5626	5535	5535	5535	5448	5448	5448	0	0	0	0	0	0	7608	7608	7608	7608	7444	7779	7608	7779	7779	7779	7779	7779	7779	7779	7779	7779	7779	7779	7779	7779	7779	7608	7444	7287	7137	6992	6992	7287	7287	7444	7137	7137	7444	7444	7287	7287	7608	7608	0	0	0	0	3546	3546	3546	3546	3546	3546	3546	3546	3546	3546	3546	3546	3546	3546	3583	3583	3583	3583	3583	5626	5719	5719	5626	5719	5626	5626	5626	5626	5626	5626	3583	3583	3583	3583	3583	3583	3583	3583	3546	3546	3546	3583	3546	3546	3583	3583	3583	3621	3583	3583	3698	3698	4706	4706	4643	4643	4643	4643	4643	4643	4643	4581	4581	4581	4581	4643	4643	4643	4706	4706	4643	4643	4643	4643	4706	4706	4643	4643	4643	4643	4643	4581	4581	4581	4521	4463	4463	4406	4406	4406	4463	4463	4521	4521	4521	4521	4521	4521	4521	4521	4521	4581	4581	4581	4581	4581	4581	4643	4581	4581	4581	4581	4581	4581	4581	4581	4581	4581	4581	4581	4581	4581	4521	4521	4581	4581	4581	4581	4581	4581	4581	4581	4581	4581	4581	4521	4581	4581	4521	4581	4581	4581	4581	4581	4581	4581	4581	4581	4581	4581	4581	4581	4521	4521	4463	4463	4406	4350	4350	4350	4350	4350	4296	4350	4296	4296	4350	4350	4296	4296	4296	4296	4296	4296	4296	4296	4296	4296	4296	4296	4296	4296	4296	4296	4296	4296	4296	4296	4296	4296	4296	4350	4350	4350	4406	4463	4521	4521	4463	4463	4463	4406	4406	4350	4296	4296	4296	4243	4243	4243	4243	4296	4296	4296	4243	4243	4296	4296	4296	4296	4296	4296	4296	4296	4296	4243	4243	4243	4350	4350	4350	4463	4521	4581	4643	4643	4643	4643	4643	4643	4643	0	0	0	0	5202	5125	5125	0	0	0	0	0	0	0	0	0	0	0	0	0	7779	7444	7287	7137	6992	6992	6992	6992	6992	6992	6853	6992	6992	6992	6992	6853	6853	6853	6853	6853	6853	6853	6853	6853	7287	7287	7287	6992	6992	6992	6853	6853	6853	6720	6853	6853	0	0	0	0	0	0	0	0	0	0	0	0	0	0	0	0	0	0	0	0	0	0	0	0	0	0	0	0	0	0	0	0	0	2532	2514	2514	2496	2478	2460	2460	2460	2460	2443	2426	2426	2409	2409	2409	2409	2409	2409	2409	2392	2392	2376	2376	0	0	0	0	0	0	0	0	0	0	0	0	0	0	0	0	0	0	0	0	0	0	0	0	0	0	0	0	0	0	0	0	0	0	0
