0	0	0	0	0	0	0	0	0	0	0	0	0	0	0	0	0	0	0	0	0	0	0	0	0	0	0	0	0	0	0	0	0	0	0	0	0	0	0	0	0	0	0	0	0	0	0	0	0	0	0	0	0	0	0	0	4643	4463	4581	4581	4581	4581	4581	4581	4521	4521	4581	4581	4581	4581	4581	4643	4643	4643	4643	4643	4581	4521	4521	4521	4521	4521	4581	4581	4643	4581	4643	4521	4521	4521	4521	4521	4521	4521	4521	4643	4706	4706	4643	4706	4706	4643	4643	4643	4643	4643	4643	4643	4643	4706	4706	4643	4643	4643	4643	4643	4581	4581	4581	4643	4643	4643	4643	4706	4706	4706	4643	4643	4643	4581	4581	4581	4581	4581	4581	4643	4706	4706	4706	4643	4643	4706	4706	4643	4643	4643	4643	4706	4706	4706	4706	4706	4706	4706	4706	4706	4706	4706	4706	4706	4706	4706	4706	4706	4706	4706	4771	4771	4771	4771	4771	4771	4771	4706	4706	4706	4706	4706	4706	4706	4706	4706	4706	4706	4706	4771	4771	4771	4771	4771	4771	4771	4771	4771	4771	4771	4771	4838	4838	4838	4838	4771	4771	4771	4771	4771	4771	4771	4771	4771	4771	4771	4771	4771	4771	4771	4771	4771	4771	4771	4771	4771	4771	4771	4771	4771	4771	4771	4771	4771	4771	4771	4771	4771	4771	4643	4581	4581	4521	4350	4350	4350	4406	4643	4643	4581	4581	4581	4643	4643	4581	4581	4521	4521	0	0	0	3309	3277	3277	3277	3246	3246	3246	3216	3216	3216	3216	3246	3246	3246	3246	3246	3246	3277	3277	3277	0	4706	4581	4521	4463	4463	4521	4521	4521	4521	4521	4521	4521	4521	4521	4521	4521	4521	4521	4521	4521	4521	4521	4521	4581	4521	4581	4581	4643	4643	4643	4643	4643	4643	4643	4643	4581	4581	4581	4581	4581	4581	4581	4581	4581	4581	4581	4581	4581	4581	4581	4581	4581	4581	4581	4581	4581	4581	4581	4581	4581	4581	4581	4581	4581	4581	4581	4581	4581	4581	4581	4581	4521	4521	4521	4521	4581	4581	4581	4581	0	4581	4581	4581	4581	4581	4581	4521	4521	4463	4406	4406	4350	4350	4350	4350	0	0	0	0	0	0	0	0	0	0	0	0	0	0	0	0	0	0	0	0	0	0	0	0	0	0	0	0	0	0	0	0	0	0	0	0	0	0	0	0	0	0	0	558	557	555	555	555	554	554	554	554	555	555	555	554	555	555	554	554	555	555	555	557	555	556	557	557	557	557	557	583	583	581	581	580	579	578	577	576	576	575	575	575	574	574	571	571	571	0	573	573	573	574	574	0	0	0	0	0	0	0	0	0	0	0	0	0	0	0	0	0	0	0	0	0	0	0	0	0	0	0	0	0	0	0	0	0	0	0	0	0	0	0	0	0	0	0	0	0	0	0	0	0	0	0	0	0	0	0	0	0	0	0	0	0	0	0	0	0	0	0	0	0	0	0	0	0	0	0	0	0	0	0	0	0	0	0	0	0	0	0	0	0	0	0	0	0	0	0	0	0	0	0	0	0	0	0	0	0	0	0	0	0	0	0	0	0	0	0	0	0	0	0	0	0	0	0	0	0	0	0	0	0	0	0	0	0	0	0	0	0	0	0	0	0	0	0	0	0	0	0	0	0	0	0	0	0	0	0	0	0	0	0	0	0	0	0	0	0	0	0	0	0	0	0	0
0	0	0	0	0	0	0	0	0	0	0	0	0	0	0	0	0	0	0	0	0	0	0	0	0	0	0	0	0	0	0	0	0	0	0	0	0	0	0	0	0	0	0	0	0	0	0	0	0	0	0	0	0	0	0	0	0	4581	4581	4581	4521	4581	4581	4521	4521	4521	4581	4581	4643	4643	4643	4643	4643	4643	4581	4581	4581	4521	4521	4521	4521	4521	4581	4581	4581	4581	4581	4581	4581	4521	4581	4581	4521	4643	4643	4643	4643	4706	4706	4706	4706	4643	4643	4581	4706	4706	4643	4643	4643	4706	4706	4643	4643	4643	4643	4706	4643	4643	4643	4643	4643	4643	4643	4706	4706	4706	4643	4643	4643	4581	4581	4581	4581	4581	4581	4643	4643	4643	4643	4643	4643	4706	4706	4643	4643	4643	4706	4706	4706	4706	4706	4706	4706	4706	4706	4706	4706	4706	4706	4706	4706	4706	4706	4706	4706	4706	4771	4771	4771	4771	4771	4771	4771	4706	4706	4706	4706	4706	4706	4706	4706	4706	4706	4706	4706	4706	4771	4771	4771	4771	4771	4771	4771	4706	4771	4771	4771	4771	4771	4771	4771	4771	4771	4771	4771	4771	4771	4771	4771	4771	4771	4771	4771	4771	4771	4771	4771	4771	4771	4771	4771	4771	4771	4771	4771	4771	4771	4771	4771	4771	4771	4771	4771	4771	4771	4643	4581	4581	4521	4350	4350	4350	4406	4406	4643	4581	4643	4581	4643	4643	4643	4643	4643	4521	0	0	0	3309	3277	3277	3277	3246	3246	3246	3216	3216	3216	3216	3246	3246	3246	3246	3246	3246	3246	3246	3277	4706	4706	4706	4521	4521	4463	4463	4463	4521	4521	4521	4521	4521	4581	4521	4521	4521	4521	4521	4521	4521	4521	4521	4521	4581	4521	4521	4581	4581	4581	4643	4643	4643	4643	4643	4643	4581	4581	4581	4581	4581	4581	4643	4643	4581	4706	4581	4581	4581	4581	4643	4581	4581	4581	4581	4581	4581	4581	4581	4581	4581	4581	4581	4581	4581	4581	4581	4581	4581	4581	4581	4581	4581	4581	4581	4581	4581	4581	4581	4581	4521	4521	4521	4581	4581	4581	4581	4521	4521	4521	4463	4350	4350	4350	4350	4350	0	0	0	0	0	0	0	0	0	0	0	0	0	0	0	0	0	0	0	0	0	0	0	0	0	0	0	0	0	0	0	0	0	0	0	0	0	0	0	0	0	0	0	558	558	557	555	555	555	554	554	555	555	555	555	555	555	555	553	554	555	555	555	557	556	556	557	557	557	557	557	557	581	581	580	580	579	579	578	577	576	576	575	575	573	572	571	571	570	570	573	573	572	573	573	0	0	0	0	0	0	0	0	0	0	0	0	0	0	0	0	0	0	0	0	0	0	0	0	0	0	0	0	0	0	0	0	0	0	0	0	0	0	0	0	0	0	0	0	0	0	0	0	0	0	0	0	0	0	0	0	0	0	0	0	0	0	0	0	0	0	0	0	0	0	0	0	0	0	0	0	0	0	0	0	0	0	0	0	0	0	0	0	0	0	0	0	0	0	0	0	0	0	0	0	0	0	0	0	0	0	0	0	0	0	0	0	0	0	0	0	0	0	0	0	0	0	0	0	0	0	0	0	0	0	0	0	0	0	0	0	0	0	0	0	0	0	0	0	0	0	0	0	0	0	0	0	0	0	0	0	0	0	0	0	0	0	0	0	0	0	0	0	0	0	0	0
0	0	0	0	0	0	0	0	0	0	0	0	0	0	0	0	0	0	0	0	0	0	0	0	0	0	0	0	0	0	0	0	0	0	0	0	0	0	0	0	0	0	0	0	0	0	0	0	0	0	0	0	0	0	0	0	0	4581	4581	4581	4521	4581	4581	4581	4521	4521	4581	4581	4643	4643	4643	4643	4643	4643	4643	4643	4581	4521	4581	4521	4521	4521	4581	4581	4581	4581	4581	4581	4581	4521	4521	4521	4521	4581	4581	4643	4643	4706	4706	4706	4706	4643	4643	4581	4706	4643	4643	4643	4643	4706	4706	4643	4643	4643	4643	4706	4643	4643	4643	4643	4643	4643	4643	4643	4706	4643	4643	4643	4643	4581	4581	4581	4581	4581	4581	4706	4706	4706	4706	4643	4643	4706	4706	4706	4643	4643	4706	4706	4706	4706	4706	4706	4706	4706	4706	4706	4706	4706	4706	4706	4706	4706	4706	4706	4706	4706	4771	4771	4771	4771	4771	4771	4771	4706	4706	4706	4706	4706	4706	4706	4706	4706	4706	4706	4706	4706	4771	4771	4771	4771	4771	4771	4706	4706	4771	4771	4771	4771	4771	4771	4771	4771	4771	4771	4771	4771	4771	4771	4771	4771	4771	4771	4771	4771	4771	4771	4771	4771	4771	4771	4771	4771	4771	4771	4771	4771	4771	4771	4771	4771	4771	4771	4771	4771	4771	4643	4581	4581	4521	4406	4350	4350	4406	4706	4643	4643	4643	4643	4706	4643	4643	4643	4643	0	0	0	0	3277	3277	3277	3277	3277	3246	3246	3246	3246	3216	3246	3246	3246	3246	3246	3277	3246	3277	3277	0	4771	4771	4771	0	4521	4463	4463	4463	4521	4521	4521	4521	4581	4581	4581	4521	4521	4521	4521	4521	4521	4521	4521	4521	4581	4581	4581	4581	4581	4581	4643	4771	4706	4706	4643	4643	4643	4581	4581	4581	4581	4581	4643	4643	4643	4706	4706	4643	4643	4643	4643	4581	4581	4581	4581	4581	4581	4643	4581	4581	4581	4581	4581	4581	4581	4643	4643	4643	4643	4643	4643	4581	4643	4581	4581	4581	4643	4581	4581	0	4521	4521	4581	4581	4581	4581	4521	4521	4463	4463	4406	4350	4350	4350	4350	4350	0	0	0	0	0	0	0	0	0	0	0	0	0	0	0	0	0	0	0	0	0	0	0	0	0	0	0	0	0	0	0	0	0	0	0	0	0	0	0	0	0	0	0	558	557	557	555	555	555	554	554	555	555	555	555	555	555	555	554	555	555	555	555	557	556	556	557	557	557	557	557	557	581	581	580	580	580	579	578	577	576	576	575	575	573	573	572	573	571	572	572	572	572	572	573	0	0	0	0	0	0	0	0	0	0	0	0	0	0	0	0	0	0	0	0	0	0	0	0	0	0	0	0	0	0	0	0	0	0	0	0	0	0	0	0	0	0	0	0	0	0	0	0	0	0	0	0	0	0	0	0	0	0	0	0	0	0	0	0	0	0	0	0	0	0	0	0	0	0	0	0	0	0	0	0	0	0	0	0	0	0	0	0	0	0	0	0	0	0	0	0	0	0	0	0	0	0	0	0	0	0	0	0	0	0	0	0	0	0	0	0	0	0	0	0	0	0	0	0	0	0	0	0	0	0	0	0	0	0	0	0	0	0	0	0	0	0	0	0	0	0	0	0	0	0	0	0	0	0	0	0	0	0	0	0	0	0	0	0	0	0	0	0	0	0	0	0
0	0	0	0	0	0	0	0	0	0	0	0	0	0	0	0	0	0	0	0	0	0	0	0	0	0	0	0	0	0	0	0	0	0	0	0	0	0	0	0	0	0	0	0	0	0	0	0	0	0	0	0	0	0	0	0	0	0	4581	4581	4521	4581	4521	4581	4521	4521	4521	4581	4643	4643	4643	4643	4643	4643	4643	4643	4581	4521	4581	4521	4521	4521	4581	4581	4581	4581	4581	4581	4581	4581	4581	4581	4521	4643	4643	4643	4643	4706	4706	4706	4706	4581	4581	4581	4581	4521	4643	4581	4643	4706	4643	4643	4643	4643	4706	4706	4643	4706	4643	4643	4643	4643	4643	4643	4706	4643	4643	4643	4643	4643	4643	4581	4706	4706	4643	4706	4706	4706	4706	4706	4643	4706	4706	4706	4706	4706	4706	4706	4706	4706	4706	4706	4706	4706	4706	4706	4706	4706	4706	4706	4706	4706	4706	4706	4771	4771	4771	4771	4771	4771	4771	4771	4771	4771	4771	4706	4771	4706	4771	4706	4706	4706	4706	4706	4706	4706	4706	4706	4706	4706	4771	4771	4771	4706	4771	4771	4771	4771	4771	4771	4771	4771	4771	4706	4706	4771	4771	4771	4771	4771	4771	4771	4771	4771	4771	4771	4771	4771	4771	4771	4771	4771	4771	4771	4771	4771	4771	4771	4771	4771	4771	4771	4771	4771	4706	4643	4521	4521	4521	4521	4463	4521	4463	4706	4706	4643	4581	4643	4706	4643	4643	4643	4643	0	0	0	0	3277	3277	3277	3277	3277	3277	3246	3246	3246	3216	3246	3246	3246	3246	3246	3277	3246	3277	3277	0	4838	4838	4838	0	0	0	0	0	4521	4521	4463	4463	4521	4463	4521	4581	4463	4581	4521	4521	4521	4521	4521	4521	4581	4581	4581	4581	4581	4643	4771	4771	4771	4706	4706	4706	4706	4706	4643	4643	4581	4643	4643	4706	4706	4706	4706	4706	4706	4643	4643	4643	4581	4581	4643	4643	4706	4706	4643	4643	4643	4643	4643	4643	4643	4643	4643	4706	4643	4643	4643	4581	4643	4643	4643	4643	4643	4581	4581	4581	0	4521	4581	4581	4581	4581	4521	4521	4463	4406	4406	4350	4406	4350	4350	4350	0	0	0	0	0	0	0	0	0	0	0	0	0	0	0	0	0	0	0	0	0	0	0	0	0	0	0	0	0	0	0	0	0	0	0	0	0	0	0	0	0	0	0	557	557	557	556	555	555	554	554	555	555	555	555	555	555	555	555	554	555	555	555	556	556	555	556	556	556	556	557	0	581	581	580	580	580	579	579	577	576	576	575	575	574	574	573	573	571	571	571	572	572	572	0	0	0	0	0	0	0	0	0	0	0	0	0	0	0	0	0	0	0	0	0	0	0	0	0	0	0	0	0	0	0	0	0	0	0	0	0	0	0	0	0	0	0	0	0	0	0	0	0	0	0	0	0	0	0	0	0	0	0	0	0	0	0	0	0	0	0	0	0	0	0	0	0	0	0	0	0	0	0	0	0	0	0	0	0	0	0	0	0	0	0	0	0	0	0	0	0	0	0	0	0	0	0	0	0	0	0	0	0	0	0	0	0	0	0	0	0	0	0	0	0	0	0	0	0	0	0	0	0	0	0	0	0	0	0	0	0	0	0	0	0	0	0	0	0	0	0	0	0	0	0	0	0	0	0	0	0	0	0	0	0	0	0	0	0	0	0	0	0	0	0	0	0
0	0	0	0	0	0	0	0	0	0	0	0	0	0	0	0	0	0	0	0	0	0	0	0	0	0	0	0	0	0	0	0	0	0	0	0	0	0	0	0	0	0	0	0	0	0	0	0	0	0	0	0	0	0	0	0	0	0	4581	4581	4521	4581	4581	4581	4521	4521	4521	4521	4643	4521	4643	4643	4643	4643	4643	4643	4581	4581	4581	4521	4521	4521	4521	4521	4581	4521	4581	4581	4581	4521	4581	4581	4581	4581	4581	4581	4643	4706	4706	4706	4706	4643	4643	4581	4521	4521	4581	4581	4643	4643	4581	4581	4581	4581	4581	4581	4643	4643	4706	4706	4643	4643	4643	4643	4706	4706	4706	4706	4643	4643	4706	4706	4706	4706	4706	4706	4706	4706	4706	4706	4706	4706	4706	4706	4706	4706	4706	4706	4706	4706	4706	4706	4706	4706	4706	4706	4706	4706	4706	4706	4706	4706	4706	4706	4706	4771	4771	4771	4771	4771	4771	4771	4771	4771	4771	4706	4771	4771	4771	4706	4706	4706	4706	4771	4706	4706	4706	4771	4771	4771	4771	4771	4771	4706	4771	4771	4771	4706	4706	4706	4771	4771	4771	4706	4771	4771	4771	4771	4771	4771	4771	4771	4771	4771	4771	4771	4771	4771	4771	4771	4771	4771	4771	4771	4771	4771	4771	4771	4771	4771	4771	4771	4771	4771	4706	4581	4463	4463	4463	4463	4463	4463	4581	4706	4643	4643	4581	4581	4643	4643	4643	4581	4581	0	0	0	3277	3277	3277	3277	3277	3277	3277	3277	3246	3246	3216	3246	3246	3246	3246	3246	3246	3246	3277	3277	0	4838	4838	4838	0	0	0	0	0	0	0	4521	4521	4521	4521	4521	4521	4463	4521	4581	4521	4521	4581	4521	4521	4581	4581	4521	4581	4643	4643	4643	4771	4771	4706	4706	4643	4706	4706	4706	4706	4643	4643	4706	4706	4706	4771	4706	4706	4706	4706	4706	4706	4706	4643	4643	4706	4706	4706	4643	4706	4706	4706	4643	4643	4706	4706	4706	4706	4706	4706	4706	4643	4643	4643	4643	4643	4643	4581	4581	4581	4521	4521	4521	4581	4581	4521	4521	4521	4463	4406	4406	4406	4406	4350	4350	4350	4350	0	0	0	0	0	0	0	0	0	0	0	0	0	0	0	0	0	0	0	0	0	0	0	0	0	0	0	0	0	0	0	0	0	0	0	0	0	0	0	0	0	0	557	557	557	556	555	555	555	555	555	555	555	555	555	555	555	555	554	555	555	555	555	555	555	555	556	556	556	556	0	581	581	581	581	580	580	579	578	576	576	575	575	574	573	573	573	572	571	571	571	571	571	0	0	0	0	0	0	0	0	0	0	0	0	0	0	0	0	0	0	0	0	0	0	0	0	0	0	0	0	0	0	0	0	0	0	0	0	0	0	0	0	0	0	0	0	0	0	0	0	0	0	0	0	0	0	0	0	0	0	0	0	0	0	0	0	0	0	0	0	0	0	0	0	0	0	0	0	0	0	0	0	0	0	0	0	0	0	0	0	0	0	0	0	0	0	0	0	0	0	0	0	0	0	0	0	0	0	0	0	0	0	0	0	0	0	0	0	0	0	0	0	0	0	0	0	0	0	0	0	0	0	0	0	0	0	0	0	0	0	0	0	0	0	0	0	0	0	0	0	0	0	0	0	0	0	0	0	0	0	0	0	0	0	0	0	0	0	0	0	0	0	0	0	0
0	0	0	0	0	0	0	0	0	0	0	0	0	0	0	0	0	0	0	0	0	0	0	0	0	0	0	0	0	0	0	0	0	0	0	0	0	0	0	0	0	0	0	0	0	0	0	0	0	0	0	0	0	0	0	0	0	0	4581	4581	4521	4581	4581	4581	4581	4581	4581	4521	4643	4521	4521	4643	4521	4643	4581	4581	4581	4581	4581	4581	4581	4581	4581	4521	4581	4581	4521	4521	4581	4521	4521	4521	4581	4581	4581	4581	4643	4706	4643	4706	4643	4581	4521	4521	4521	4521	4521	4581	4581	4581	4581	4581	4581	4581	4581	4581	4581	4706	4706	4706	4643	4643	4706	4706	4706	4706	4706	4706	4706	4706	4706	4706	4706	4706	4643	4643	4706	4706	4706	4706	4643	4706	4706	4706	4706	4706	4706	4771	4706	4706	4706	4706	4706	4706	4706	4706	4706	4706	4706	4643	4706	4706	4706	4706	4771	4771	4771	4771	4771	4771	4771	4771	4771	4771	4771	4771	4771	4771	4771	4706	4706	4706	4706	4706	4706	4706	4706	4771	4771	4771	4771	4771	4771	4706	4771	4771	4771	4771	4771	4771	4771	4771	4771	4771	4771	4771	4771	4771	4771	4771	4771	4771	4771	4771	4771	4838	4838	4771	4771	4771	4771	4771	4771	4771	4771	4771	4771	4771	4771	4771	4771	4771	4771	4771	4706	4521	4463	4463	4463	4463	4463	4463	4463	4581	4581	4581	4581	4581	4643	4643	4643	4643	4581	0	0	0	3277	3277	3277	3277	3277	3277	3277	3277	3246	3246	3216	3246	3246	3246	3246	3246	3277	3277	3277	3277	0	0	4838	4838	0	0	0	0	0	0	0	4581	4521	4521	4521	4581	4581	4521	4521	4581	4581	4521	4581	4521	4521	4581	4581	4581	4581	4643	4643	4771	4771	4706	4771	4706	4706	4771	4771	4771	4771	4771	4771	4771	4771	4771	4771	4771	4771	4771	4771	4771	4771	4771	4771	4706	4771	4771	4771	4706	4706	4771	4706	4706	4706	4706	4643	4706	4771	4706	4706	4706	4706	4706	4643	4643	4643	4581	4581	4581	4521	4521	4521	4521	4521	4521	4521	4521	4521	4463	4406	4406	4350	4350	4350	4350	4350	4350	4350	0	0	0	0	0	0	0	0	0	0	0	0	0	0	0	0	0	0	0	0	0	0	0	0	0	0	0	0	0	0	0	0	0	0	0	0	0	0	0	0	0	557	557	557	557	557	557	557	555	555	555	555	555	555	555	555	555	554	555	555	554	555	555	555	555	556	556	556	556	0	582	582	582	582	581	581	580	579	578	576	576	576	575	574	573	573	571	572	571	571	571	571	0	0	0	0	0	0	0	0	0	0	0	0	0	0	0	0	0	0	0	0	0	0	0	0	0	0	0	0	0	0	0	0	0	0	0	0	0	0	0	0	0	0	0	0	0	0	0	0	0	0	0	0	0	0	0	0	0	0	0	0	0	0	0	0	0	0	0	0	0	0	0	0	0	0	0	0	0	0	0	0	0	0	0	0	0	0	0	0	0	0	0	0	0	0	0	0	0	0	0	0	0	0	0	0	0	0	0	0	0	0	0	0	0	0	0	0	0	0	0	0	0	0	0	0	0	0	0	0	0	0	0	0	0	0	0	0	0	0	0	0	0	0	0	0	0	0	0	0	0	0	0	0	0	0	0	0	0	0	0	0	0	0	0	0	0	0	0	0	0	0	0	0	0
0	0	0	0	0	0	0	0	0	0	0	0	0	0	0	0	0	0	0	0	0	0	0	0	0	0	0	0	0	0	0	0	0	0	0	0	0	0	0	0	0	0	0	0	0	0	0	0	0	0	0	0	0	0	0	0	0	0	4581	4521	4521	4521	4581	4581	4581	4581	4581	4581	4643	4521	4521	4581	4581	4581	4581	4521	4581	4581	4581	4521	4521	4581	4581	4521	4581	4521	4521	4521	4521	4521	4521	4521	4581	4581	4643	4643	4643	4643	4643	4643	4643	4581	4521	4521	4521	4521	4581	4581	4581	4581	4581	4581	4581	4581	4581	4581	4581	4643	4706	4706	4706	4706	4643	4643	4706	4643	4706	4706	4706	4643	4706	4643	4643	4643	4643	4706	4706	4706	4706	4706	4706	4706	4706	4706	4706	4706	4706	4706	4706	4706	4706	4706	4706	4706	4706	4706	4706	4706	4706	4706	4706	4706	4706	4706	4771	4771	4771	4771	4771	4771	4706	4771	4771	4771	4771	4771	4771	4771	4771	4706	4706	4706	4706	4706	4706	4706	4706	4771	4771	4771	4771	4771	4771	4771	4771	4771	4771	4771	4771	4771	4771	4771	4771	4771	4771	4771	4771	4771	4771	4771	4771	4771	4771	4838	4838	4838	4838	4771	4771	4771	4771	4771	4771	4771	4771	4771	4771	4771	4771	4771	4771	4771	4706	4771	4706	4521	4463	4521	4521	4463	4463	4463	4521	4581	4581	4581	4581	4581	4643	4643	4581	4581	0	0	0	0	3277	3277	3277	3277	3277	3277	3277	3277	3246	3246	3246	3246	3246	3246	3246	3246	3277	3277	3277	3277	0	0	0	0	0	0	0	0	0	0	4581	4581	4581	4581	4521	4521	4581	4581	4581	4581	4581	4581	4581	4581	4581	4643	4643	4581	4581	4771	4706	4706	4706	4771	4771	4706	4706	4771	4771	4771	4838	4838	4838	4771	4771	4706	4771	4706	4706	4771	4706	4771	4771	4771	4771	4771	4771	4771	4771	4771	4771	4771	4771	4771	4771	4706	4706	4771	4771	4771	4771	4771	4771	4771	4643	4643	4643	4643	4581	4581	4521	4581	4521	4521	4581	4521	4521	4521	4521	4463	4463	4406	4406	4406	4406	4406	4406	4406	4406	0	0	0	0	0	0	0	0	0	0	0	0	0	0	0	0	0	0	0	0	0	0	0	0	0	0	0	0	0	0	0	0	0	0	0	0	0	0	0	0	0	0	557	557	557	557	557	557	555	554	554	555	555	555	555	555	554	554	554	554	554	554	554	555	555	555	555	555	555	581	581	581	582	582	582	582	582	581	581	581	576	576	576	575	574	574	573	572	572	572	0	0	0	0	0	0	0	0	0	0	0	0	0	0	0	0	0	0	0	0	0	0	0	0	0	0	0	0	0	0	0	0	0	0	0	0	0	0	0	0	0	0	0	0	0	0	0	0	0	0	0	0	0	0	0	0	0	0	0	0	0	0	0	0	0	0	0	0	0	0	0	0	0	0	0	0	0	0	0	0	0	0	0	0	0	0	0	0	0	0	0	0	0	0	0	0	0	0	0	0	0	0	0	0	0	0	0	0	0	0	0	0	0	0	0	0	0	0	0	0	0	0	0	0	0	0	0	0	0	0	0	0	0	0	0	0	0	0	0	0	0	0	0	0	0	0	0	0	0	0	0	0	0	0	0	0	0	0	0	0	0	0	0	0	0	0	0	0	0	0	0	0	0	0	0
0	0	0	0	0	0	0	0	0	0	0	0	0	0	0	0	0	0	0	0	0	0	0	0	0	0	0	0	0	0	0	0	0	0	0	0	0	0	0	0	0	0	0	0	0	0	0	0	0	0	0	0	0	0	0	0	0	0	4581	4521	4521	4521	4581	4581	4581	4581	4521	4521	4521	4521	4521	4521	4521	4521	4521	4521	4581	4581	4581	4521	4581	4521	4581	4581	4581	4521	4521	4521	4581	4521	4581	4581	4581	4581	4643	4643	4643	4643	4643	4643	4643	4643	4521	4581	4521	4521	4521	4581	4581	4521	4521	4521	4581	4581	4521	4581	4581	4643	4706	4706	4706	4706	4706	4706	4706	4643	4706	4706	4706	4643	4643	4643	4643	4643	4643	4643	4706	4706	4706	4706	4706	4706	4706	4706	4706	4706	4706	4706	4706	4706	4706	4706	4706	4706	4706	4706	4706	4706	4706	4706	4706	4706	4706	4706	4771	4771	4771	4771	4771	4706	4706	4706	4706	4771	4706	4771	4771	4771	4771	4706	4706	4706	4706	4706	4706	4706	4706	4771	4771	4771	4771	4771	4771	4771	4771	4771	4771	4771	4771	4771	4771	4771	4771	4771	4771	4771	4771	4771	4706	4706	4706	4771	4771	4771	4838	4838	4838	4838	4771	4771	4771	4771	4771	4771	4771	4771	4771	4771	4771	4771	4706	4706	4706	4771	4706	4706	4581	4581	4521	4521	4463	4463	4521	4581	4581	4521	4521	4521	4581	4581	4581	4581	0	0	0	0	3246	3246	3277	3277	3277	3277	3277	3277	3246	3246	3277	3246	3246	3246	3246	3277	3277	3277	3246	3246	0	0	0	0	0	0	0	0	0	4643	4643	4581	4521	4581	4521	4521	4581	4581	4581	4643	4581	4643	4643	4643	4643	4706	4706	4706	4706	4771	4771	4706	4706	4771	4771	4771	4771	4771	4771	4771	4838	4838	4838	4771	4771	4771	4771	4771	4771	4771	4771	4771	4771	4771	4771	4771	4771	4771	4771	4771	4771	4771	4771	4771	4771	4771	4771	4771	4771	4771	4771	4771	4771	4771	4643	4643	4643	4581	4581	4581	4521	4521	4521	4521	4521	4521	4521	4521	4521	4463	4463	4463	4406	4406	4406	4406	4406	4463	4406	4406	0	0	0	0	0	0	0	0	0	0	0	0	0	0	0	0	0	0	0	0	0	0	0	0	0	0	0	0	0	0	0	0	0	0	0	0	0	0	0	0	0	557	557	557	557	0	0	0	555	554	554	554	555	555	555	554	554	554	554	554	554	555	555	555	555	555	555	555	581	582	582	583	583	583	583	583	583	583	581	576	576	576	576	576	575	573	572	572	572	0	0	0	0	0	0	0	0	0	0	0	0	0	0	0	0	0	0	0	0	0	0	0	0	0	0	0	0	0	0	0	0	0	0	0	0	0	0	0	0	0	0	0	0	0	0	0	0	0	0	0	0	0	0	0	0	0	0	0	0	0	0	0	0	0	0	0	0	0	0	0	0	0	0	0	0	0	0	0	0	0	0	0	0	0	0	0	0	0	0	0	0	0	0	0	0	0	0	0	0	0	0	0	0	0	0	0	0	0	0	0	0	0	0	0	0	0	0	0	0	0	0	0	0	0	0	0	0	0	0	0	0	0	0	0	0	0	0	0	0	0	0	0	0	0	0	0	0	0	0	0	0	0	0	0	0	0	0	0	0	0	0	0	0	0	0	0	0	0	0	0	0	0	0	0
0	0	0	0	0	0	0	0	0	0	0	0	0	0	0	0	0	0	0	0	0	0	0	0	0	0	0	0	0	0	0	0	0	0	0	0	0	0	0	0	0	0	0	0	0	0	0	0	0	0	0	0	0	0	0	0	0	0	4581	4521	4581	4581	4581	4581	4581	4521	4521	4521	4521	4521	4521	4521	4521	4521	4521	4521	4581	4581	4581	4581	4581	4581	4581	4581	4581	4581	4581	4581	4581	4521	4581	4581	4581	4581	4581	4643	4581	4643	4643	4643	4643	4643	4643	4643	4581	4581	4643	4581	4581	4643	4581	4581	4581	4581	4521	4521	4581	4581	4643	4706	4706	4706	4706	4706	4706	4706	4706	4706	4706	4706	4643	4643	4643	4643	4643	4643	4706	4706	4706	4706	4706	4706	4706	4706	4706	4706	4706	4706	4706	4706	4706	4706	4706	4706	4706	4706	4706	4706	4706	4706	4706	4706	4706	4771	4771	4771	4771	4771	4771	4706	4706	4706	4706	4706	4706	4706	4771	4771	4771	4771	4771	4706	4771	4771	4706	4706	4706	4771	4771	4771	4771	4771	4771	4771	4771	4771	4771	4771	4771	4771	4771	4771	4771	4771	4771	4771	4771	4771	4771	4706	4706	4771	4771	4771	4771	4771	4771	4771	4771	4771	4771	4771	4771	4771	4771	4771	4771	4771	4771	4771	4771	4771	4771	4771	4706	4706	4581	4581	4521	4463	4463	4463	4521	4521	4521	4521	4521	4521	4581	4581	4521	4521	0	0	0	0	3246	3277	3277	3277	3277	3277	3277	3277	3277	3246	3277	3246	3277	3277	3277	3277	3277	3246	3277	3277	3277	0	0	0	0	0	0	0	0	4643	4643	4581	4581	4581	4521	4521	4521	4643	4706	4643	4706	4706	4706	4643	4706	4771	4771	4706	4771	4771	4771	4771	4706	4771	4771	4771	4771	4771	4838	4838	4838	4838	4838	4838	4838	4838	4771	4771	4771	4771	4771	4838	4771	4771	4838	4838	4838	4838	4771	4771	4838	4838	4838	4838	4771	4771	4771	4771	4771	4771	4771	4771	4771	4771	4643	4643	4643	4643	4521	4521	4463	4521	4521	4521	4521	4521	4521	4521	4521	4463	4406	4463	4406	4406	4406	4406	4406	4406	4406	4406	4406	0	0	0	0	0	0	0	0	0	0	0	0	0	0	0	0	0	0	0	0	0	0	0	0	0	0	0	0	0	0	0	0	0	0	0	0	0	0	0	0	0	0	0	0	0	554	554	554	554	554	554	555	555	555	554	554	555	554	554	554	555	555	556	555	556	557	557	557	557	557	584	584	584	584	585	585	585	0	0	0	576	576	576	574	574	572	572	0	0	0	0	0	0	0	0	0	0	0	0	0	0	0	0	0	0	0	0	0	0	0	0	0	0	0	0	0	0	0	0	0	0	0	0	0	0	0	0	0	0	0	0	0	0	0	0	0	0	0	0	0	0	0	0	0	0	0	0	0	0	0	0	0	0	0	0	0	0	0	0	0	0	0	0	0	0	0	0	0	0	0	0	0	0	0	0	0	0	0	0	0	0	0	0	0	0	0	0	0	0	0	0	0	0	0	0	0	0	0	0	0	0	0	0	0	0	0	0	0	0	0	0	0	0	0	0	0	0	0	0	0	0	0	0	0	0	0	0	0	0	0	0	0	0	0	0	0	0	0	0	0	0	0	0	0	0	0	0	0	0	0	0	0	0	0	0	0	0	0	0	0	0	0	0
0	0	0	0	0	0	0	0	0	0	0	0	0	0	0	0	0	0	0	0	0	0	0	0	0	0	0	0	0	0	0	0	0	0	0	0	0	0	0	0	0	0	0	0	0	0	0	0	0	0	0	0	0	0	0	0	0	0	4581	4581	4581	4581	4581	4643	4521	4521	4521	4521	4521	4521	4521	4521	4521	4521	4521	4643	4581	4581	4581	4581	4581	4581	4581	4581	4581	4521	4581	4581	4581	4581	4581	4581	4581	4581	4643	4643	4643	4643	4643	4643	4643	4643	4643	4643	4643	4643	4706	4706	4581	4581	4581	4581	4581	4581	4521	4521	4521	4581	4643	4706	4706	4706	4706	4706	4706	4706	4706	4643	4643	4643	4643	4643	4643	4643	4643	4706	4706	4706	4706	4706	4706	4706	4706	4706	4706	4706	4706	4771	4706	4706	4706	4706	4706	4706	4706	4706	4706	4706	4706	4706	4706	4706	4643	4706	4706	4706	4771	4771	4706	4706	4706	4706	4706	4706	4706	4706	4771	4771	4771	4771	4771	4706	4771	4706	4706	4706	4706	4771	4771	4771	4771	4771	4771	4771	4771	4771	4771	4771	4771	4771	4771	4771	4771	4771	4771	4771	4771	4771	4771	4771	4771	4771	4771	4771	4771	4771	4771	4771	4771	4771	4771	4771	4771	4771	4771	4771	4771	4771	4771	4771	4771	4771	4771	4771	4706	4706	4581	4521	4463	4406	4406	4463	4463	4521	4521	4521	4521	4521	4521	4521	4521	4521	0	0	0	0	3277	3277	3277	3277	3277	3277	3277	3277	3277	3277	3277	3246	3246	3277	3246	3246	3246	3277	3246	3277	3309	3309	0	0	0	0	0	0	0	4643	4643	4581	4521	4581	4581	4581	4643	4706	4706	4706	4706	4706	4706	4706	4706	4771	4771	4706	4771	4771	4771	4771	4771	4771	4771	4771	4771	4771	4838	4838	4838	4838	4838	4838	4771	4838	4771	4771	4771	4771	4838	4838	4771	4771	4838	4838	4838	4838	4838	4838	4838	4771	4771	4771	4771	4771	4771	4771	4771	4771	4771	4706	4706	4771	0	4643	4643	4581	4521	4521	4463	4521	4463	4521	4521	4521	4521	4521	4521	4463	4463	4463	4406	4463	4463	4463	4406	4406	4406	4406	4406	0	0	0	0	0	0	0	0	0	0	0	0	0	0	0	0	0	0	0	0	0	0	0	0	0	0	0	0	0	0	0	0	0	0	0	0	0	0	0	0	0	0	0	0	555	555	555	555	554	554	554	555	555	555	554	554	555	555	554	555	555	555	556	555	556	557	557	557	556	556	584	584	584	584	585	585	585	0	0	0	0	0	0	574	574	0	0	0	0	0	0	0	0	0	0	0	0	0	0	0	0	0	0	0	0	0	0	0	0	0	0	0	0	0	0	0	0	0	0	0	0	0	0	0	0	0	0	0	0	0	0	0	0	0	0	0	0	0	0	0	0	0	0	0	0	0	0	0	0	0	0	0	0	0	0	0	0	0	0	0	0	0	0	0	0	0	0	0	0	0	0	0	0	0	0	0	0	0	0	0	0	0	0	0	0	0	0	0	0	0	0	0	0	0	0	0	0	0	0	0	0	0	0	0	0	0	0	0	0	0	0	0	0	0	0	0	0	0	0	0	0	0	0	0	0	0	0	0	0	0	0	0	0	0	0	0	0	0	0	0	0	0	0	0	0	0	0	0	0	0	0	0	0	0	0	0	0	0	0	0	0	0	0
0	0	0	0	0	0	0	0	0	0	0	0	0	0	0	0	0	0	0	0	0	0	0	0	0	0	0	0	0	0	0	0	0	0	0	0	0	0	0	0	0	0	0	0	0	0	0	0	0	0	0	0	0	0	0	0	0	0	0	4521	4521	4521	4521	4521	4521	4521	4521	4521	4463	4463	4463	4463	4581	4581	4581	4581	4581	4581	4581	4581	4581	4581	4581	4581	4581	4581	4581	4581	4521	4521	4581	4581	4581	4581	4643	4643	4643	4643	4643	4643	4706	4643	4643	4643	4643	4706	4706	4581	4581	4521	4521	4521	4581	4581	4521	4521	4521	4521	4581	4581	4706	4706	4706	4706	4706	4706	4706	4643	4643	4643	4643	4643	4581	4581	4643	4643	4706	4706	4706	4706	4706	4706	4706	4706	4706	4706	4706	4706	4706	4706	4706	4706	4706	4706	4706	4706	4706	4706	4706	4706	4706	4643	4643	4706	4643	4706	4706	4706	4706	4706	4706	4706	4706	4706	4706	4706	4771	4771	4771	4771	4771	4706	4771	4771	4706	4771	4771	4771	4771	4771	4771	4771	4771	4771	4771	4771	4771	4771	4771	4771	4771	4771	4771	4771	4771	4771	4771	4771	4771	4706	4706	4771	4771	4771	4771	4771	4771	4771	4771	4771	4771	4771	4771	4771	4771	4771	4771	4771	4771	4771	4771	4771	4771	4771	4706	4706	4643	4521	4463	4406	4406	4463	4463	4463	4463	4521	4521	4521	4521	4581	4581	4581	0	0	0	0	3277	3277	3277	3277	3277	3277	3277	3277	3277	3277	3277	3246	3246	3277	3277	3277	3246	3277	3277	3277	3309	3309	0	0	0	0	0	0	0	4643	4643	4643	4581	4581	4581	4581	4643	4706	4706	4706	4706	4706	4706	4706	4706	4771	4771	4706	4771	4771	4771	4706	4706	4706	4706	4706	4706	4771	4771	4838	4838	4838	4838	4838	4771	4838	4771	4771	4838	4838	4838	4838	4838	4838	4838	4838	4838	4838	4838	4838	4838	4838	4771	4771	4838	4838	4838	4771	4771	4771	4771	4706	4706	4706	4706	4706	4706	4643	4581	4581	4521	4521	4521	4521	4521	4521	4521	4521	4521	4463	4463	4463	4406	4406	4406	4406	4406	4406	4350	4350	4350	4350	0	0	0	0	0	0	0	0	0	0	0	0	0	0	0	0	0	0	0	0	0	0	0	0	0	0	0	0	0	0	0	0	0	0	0	0	0	0	0	0	0	0	0	556	556	556	555	554	554	554	554	554	554	554	554	555	555	554	555	555	555	555	555	555	557	557	557	556	556	0	584	584	0	586	585	585	0	0	0	0	0	0	0	0	0	0	0	0	0	0	0	0	0	0	0	0	0	0	0	0	0	0	0	0	0	0	0	0	0	0	0	0	0	0	0	0	0	0	0	0	0	0	0	0	0	0	0	0	0	0	0	0	0	0	0	0	0	0	0	0	0	0	0	0	0	0	0	0	0	0	0	0	0	0	0	0	0	0	0	0	0	0	0	0	0	0	0	0	0	0	0	0	0	0	0	0	0	0	0	0	0	0	0	0	0	0	0	0	0	0	0	0	0	0	0	0	0	0	0	0	0	0	0	0	0	0	0	0	0	0	0	0	0	0	0	0	0	0	0	0	0	0	0	0	0	0	0	0	0	0	0	0	0	0	0	0	0	0	0	0	0	0	0	0	0	0	0	0	0	0	0	0	0	0	0	0	0	0	0	0	0	0
0	0	0	0	0	0	0	0	0	0	0	0	0	0	0	0	0	0	0	0	0	0	0	0	0	0	0	0	0	0	0	0	0	0	0	0	0	0	0	0	0	0	0	0	0	0	0	0	0	0	0	0	0	0	0	0	0	0	0	4521	4521	4521	4521	4521	4521	4521	4521	4463	4463	4463	4463	4463	4521	4581	4521	4521	4581	4581	4521	4521	4643	4643	4643	4643	4643	4581	4643	4581	4521	4521	4581	4581	4581	4581	4643	4643	4643	4643	4643	4643	4706	4643	4643	4643	4643	4643	4643	4643	4643	4643	4581	4581	4581	4581	4521	4521	4521	4521	4581	4643	4643	4706	4706	4706	4706	4706	4706	4643	4643	4643	4643	4581	4581	4581	4643	4643	4706	4706	4706	4706	4706	4706	4706	4706	4706	4706	4706	4706	4706	4706	4706	4706	4706	4706	4706	4706	4706	4706	4706	4706	4706	4643	4643	4643	4643	4643	4706	4771	4771	4706	4706	4706	4706	4706	4706	4706	4771	4771	4771	4771	4771	4706	4771	4771	4706	4771	4771	4771	4771	4771	4771	4771	4771	4771	4771	4771	4771	4771	4771	4771	4771	4771	4771	4771	4771	4771	4771	4771	4771	4706	4706	4771	4771	4771	4771	4771	4771	4771	4771	4771	4771	4771	4771	4771	4771	4771	4771	4771	4771	4771	4771	4771	4771	4771	4706	4706	4706	4581	4521	4463	4406	4463	4463	4463	4463	4463	4521	4521	4521	4521	4521	4581	0	0	0	0	3309	3309	3309	3309	3277	3277	3277	3277	3277	3277	3277	3246	3246	3277	3277	3277	3246	3277	3277	3277	3277	3309	3309	3309	0	0	0	0	0	4643	4643	4643	4581	4581	4581	4581	4706	4706	4706	4706	4706	4706	4706	4706	4706	4771	4771	4706	4706	4706	4706	4706	4706	4706	4706	4706	4706	4771	4771	4838	4838	4838	4838	4771	4771	4771	4771	4771	4838	4838	4838	4838	4838	4838	4838	4838	4838	4838	4838	4906	4838	4838	4838	4838	4838	4838	4838	4838	4838	4771	4771	4771	4771	4771	4771	4706	4706	4706	4581	4581	4521	4521	4521	4521	4521	4521	4463	4521	4463	4521	4463	4463	4406	4406	4406	4406	4406	4406	4350	4350	4350	4350	0	0	0	0	0	0	0	0	0	0	0	0	0	0	0	0	0	0	0	0	0	0	0	0	0	0	0	0	0	0	0	0	0	0	0	0	0	0	0	0	0	0	0	556	556	556	555	554	554	553	553	554	553	553	554	555	555	555	555	555	555	556	556	556	556	556	556	556	556	0	0	0	0	586	585	585	0	0	0	0	0	0	0	0	0	0	0	0	0	0	0	0	0	0	0	0	0	0	0	0	0	0	0	0	0	0	0	0	0	0	0	0	0	0	0	0	0	0	0	0	0	0	0	0	0	0	0	0	0	0	0	0	0	0	0	0	0	0	0	0	0	0	0	0	0	0	0	0	0	0	0	0	0	0	0	0	0	0	0	0	0	0	0	0	0	0	0	0	0	0	0	0	0	0	0	0	0	0	0	0	0	0	0	0	0	0	0	0	0	0	0	0	0	0	0	0	0	0	0	0	0	0	0	0	0	0	0	0	0	0	0	0	0	0	0	0	0	0	0	0	0	0	0	0	0	0	0	0	0	0	0	0	0	0	0	0	0	0	0	0	0	0	0	0	0	0	0	0	0	0	0	0	0	0	0	0	0	0	0	0	0	0
0	0	0	0	0	0	0	0	0	0	0	0	0	0	0	0	0	0	0	0	0	0	0	0	0	0	0	0	0	0	0	0	0	0	0	0	0	0	0	0	0	0	0	0	0	0	0	0	0	0	0	0	0	0	0	0	0	0	0	0	4521	4521	4521	4521	4521	4521	4521	4463	4463	4463	4463	4521	4521	4521	4521	4521	4521	4521	4521	4521	4643	4706	4706	4643	4643	4643	4643	4581	4521	4521	4581	4581	4581	4581	4581	4643	4581	4581	4643	4643	4643	4643	4643	4643	4643	4643	4643	4643	4643	4706	4706	4706	4581	4581	4581	4581	4521	4521	4521	4581	4643	4706	4706	4706	4706	4706	4706	4643	4643	4643	4643	4643	4581	4581	4643	4643	4706	4706	4706	4706	4706	4706	4706	4706	4706	4706	4706	4706	4706	4643	4706	4706	4706	4706	4706	4706	4706	4706	4706	4706	4706	4706	4706	4706	4706	4706	4706	4771	4771	4771	4706	4706	4706	4771	4771	4706	4771	4706	4771	4706	4706	4706	4706	4706	4706	4771	4771	4771	4771	4771	4771	4771	4771	4771	4771	4771	4771	4771	4771	4771	4771	4771	4771	4771	4771	4771	4771	4771	4771	4771	4771	4771	4771	4771	4771	4771	4771	4771	4771	4771	4771	4771	4771	4771	4771	4771	4771	4771	4771	4771	4771	4771	4771	4771	4706	4706	4706	4581	4521	4463	4406	4463	4463	4463	4463	4463	4463	4521	4521	4521	4521	0	3309	3341	3373	3341	3309	3309	3277	3277	3277	3277	3277	3277	3277	3277	3277	3246	3277	3277	3277	3277	3246	3246	3246	3277	3277	3277	3309	3277	3277	3309	3309	3309	3309	3309	3309	4521	4521	4521	4521	4521	4643	4706	4706	4706	4643	4706	4706	4706	4706	4771	4706	4706	4706	4706	4706	4706	4706	4706	4706	4706	4706	4771	4771	4771	4838	4771	4771	4771	4838	4838	4838	4838	4838	4838	4838	4838	4838	4838	4838	4838	4838	4838	4838	4838	4906	4838	4838	4838	4838	4838	4838	4838	4838	4838	4838	4838	4771	4771	4771	4706	4706	4706	4581	4581	4521	4521	4521	4521	4521	4521	4463	4521	4521	4463	4463	4463	4406	4406	4406	4406	4350	4350	4350	4296	4296	4350	0	0	0	0	0	0	0	0	0	0	0	0	0	0	0	0	0	0	0	0	0	0	0	0	0	0	0	0	0	0	0	0	0	0	0	0	0	0	0	0	0	0	0	0	0	0	555	555	554	553	553	553	553	553	555	554	555	555	555	555	555	555	555	555	555	555	555	555	555	0	0	0	0	0	0	0	0	0	0	0	0	0	0	0	0	0	0	0	0	0	0	0	0	0	0	0	0	0	0	0	0	0	0	0	0	0	0	0	0	0	0	0	0	0	0	0	0	0	0	0	0	0	0	0	0	0	0	0	0	0	0	0	0	0	0	0	0	0	0	0	0	0	0	0	0	0	0	0	0	0	0	0	0	0	0	0	0	0	0	0	0	0	0	0	0	0	0	0	0	0	0	0	0	0	0	0	0	0	0	0	0	0	0	0	0	0	0	0	0	0	0	0	0	0	0	0	0	0	0	0	0	0	0	0	0	0	0	0	0	0	0	0	0	0	0	0	0	0	0	0	0	0	0	0	0	0	0	0	0	0	0	0	0	0	0	0	0	0	0	0	0	0	0	0	0	0	0	0	0	0	0	0	0	0	0	0	0	0	0	0	0	0
0	0	0	0	0	0	0	0	0	0	0	0	0	0	0	0	0	0	0	0	0	0	0	0	0	0	0	0	0	0	0	0	0	0	0	0	0	0	0	0	0	0	0	0	0	0	0	0	0	0	0	0	0	0	0	0	0	0	0	0	4521	4521	4521	4521	4521	4521	4521	4521	4521	4581	4581	4463	4521	4521	4521	4521	4521	4581	4521	4581	4581	4643	4643	4643	4643	4643	4643	4581	4581	4521	4581	4581	4581	4581	4643	4643	4581	4643	4643	4643	4643	4643	4581	4581	4643	4643	4643	4643	4643	4706	4706	4706	4706	4581	4581	4581	4581	4521	4521	4581	4643	4706	4706	4706	4706	4706	4706	4706	4706	4643	4643	4643	4581	4643	4643	4643	4706	4706	4706	4706	4706	4706	4706	4706	4706	4706	4706	4706	4706	4706	4706	4706	4706	4706	4706	4706	4706	4706	4706	4706	4706	4706	4706	4706	4706	4706	4706	4706	4706	4706	4706	4706	4706	4771	4771	4706	4706	4706	4771	4706	4706	4706	4706	4706	4706	4771	4771	4771	4771	4771	4771	4771	4771	4771	4771	4771	4771	4771	4771	4771	4771	4771	4771	4771	4771	4771	4771	4771	4771	4771	4771	4771	4771	4771	4771	4771	4771	4771	4771	4771	4771	4771	4771	4771	4771	4771	4771	4771	4771	4771	4771	4771	4771	4771	4706	4706	4706	4643	4521	4463	4463	4463	4463	4463	4463	4463	4463	4463	4521	3309	3309	3309	3277	3309	3309	3309	3309	3277	3277	3277	3277	3277	3277	3277	3277	3277	3277	3277	3246	3246	3246	3246	3246	3246	3246	3277	3246	3277	3277	3277	3309	3309	3309	3309	3309	3309	3309	3309	3309	4463	4463	4521	4581	4581	4706	4643	4643	4706	4706	4706	4706	4771	4706	4706	4706	4706	4706	4706	4643	4643	4643	4643	4643	4706	4706	4771	4771	4771	4771	4771	4838	4838	4838	4838	4838	4838	4838	4838	4838	4838	4838	4838	4906	4838	4838	4906	4838	4838	4838	4838	4838	4838	4838	4838	4838	4838	4838	4838	4838	4771	0	0	0	0	4581	4521	4521	4521	4521	4521	4521	4521	4521	4521	4521	4521	4463	4463	4463	4406	4406	4406	4350	4350	4350	4350	4350	4350	4350	0	0	0	0	0	0	0	0	0	0	0	0	0	0	0	0	0	0	0	0	0	0	0	0	0	0	0	0	0	0	0	0	0	0	0	0	0	0	0	0	0	0	0	0	0	556	555	554	553	553	553	553	553	554	554	554	555	555	555	555	555	555	555	555	555	555	555	555	0	0	0	0	0	0	0	0	0	0	0	0	0	0	0	0	0	0	0	0	0	0	0	0	0	0	0	0	0	0	0	0	0	0	0	0	0	0	0	0	0	0	0	0	0	0	0	0	0	0	0	0	0	0	0	0	0	0	0	0	0	0	0	0	0	0	0	0	0	0	0	0	0	0	0	0	0	0	0	0	0	0	0	0	0	0	0	0	0	0	0	0	0	0	0	0	0	0	0	0	0	0	0	0	0	0	0	0	0	0	0	0	0	0	0	0	0	0	0	0	0	0	0	0	0	0	0	0	0	0	0	0	0	0	0	0	0	0	0	0	0	0	0	0	0	0	0	0	0	0	0	0	0	0	0	0	0	0	0	0	0	0	0	0	0	0	0	0	0	0	0	0	0	0	0	0	0	0	0	0	0	0	0	0	0	0	0	0	0	0	0	0	0
0	0	0	0	0	0	0	0	0	0	0	0	0	0	0	0	0	0	0	0	0	0	0	0	0	0	0	0	0	0	0	0	0	0	0	0	0	0	0	0	0	0	0	0	0	0	0	0	0	0	0	0	0	0	0	0	0	0	0	0	0	4521	4521	4521	4521	4463	4463	4521	4521	4521	4581	4521	4521	4521	4581	4581	4581	4581	4521	4581	4581	4581	4643	4643	4643	4581	4643	4581	4581	4581	4581	4581	4581	4581	4643	4643	4581	4643	4643	4581	4643	4581	4581	4581	4643	4643	4643	4643	4643	4706	4706	4706	4706	4643	4643	4643	4581	4581	4581	4581	4643	4581	4643	4643	4643	4643	4643	4643	4706	4643	4643	4643	4643	4643	4643	4643	4706	4643	4706	4643	4706	4643	4706	4706	4706	4706	4706	4706	4706	4706	4706	4706	4706	4706	4706	4706	4706	4706	4706	4706	4706	4643	4706	4643	4643	4706	4706	4706	4706	4771	4706	4771	4771	4771	4771	4706	4706	4706	4706	4706	4706	4706	4706	4706	4706	4771	4771	4771	4771	4706	4706	4706	4706	4706	4706	4771	4771	4771	4771	4771	4771	4771	4771	4771	4771	4771	4771	4771	4771	4771	4771	4771	4771	4771	4771	4771	4771	4771	4771	4771	4771	4771	4771	4771	4771	4771	4771	4771	4771	4771	4771	4771	4771	4771	4706	4706	4706	4643	4521	4463	4406	4463	4463	4463	4463	4463	4463	3309	3309	3309	3309	3309	3309	3309	3309	3277	3309	3277	3277	3277	3277	3277	3277	3277	3277	3277	3277	3246	3246	3246	3246	3246	3246	3246	3246	3277	3277	3277	3277	3277	3309	3277	3277	3277	3277	3277	3309	3309	3277	3309	3309	3309	3309	3309	3309	4643	4643	4643	4706	4706	4643	4771	4706	4706	4706	4643	4706	4643	4643	4643	4581	4643	4643	4706	4706	4771	4771	4771	4771	4771	4771	4771	4771	4838	4906	4906	4838	4838	4838	4838	4838	4906	4838	4838	4838	4906	4838	4838	4838	4838	4838	4838	4838	4906	4906	4838	4906	4838	4838	0	0	0	0	0	4581	4521	4521	4521	4521	4463	4521	4521	4521	4521	4521	4463	4463	4463	4406	4406	4406	4350	4350	4350	4350	4350	4350	4350	4350	0	0	0	0	0	0	0	0	0	0	0	0	0	0	0	0	0	0	0	0	0	0	0	0	0	0	0	0	0	0	0	0	0	0	0	0	0	0	0	0	0	0	0	0	0	558	556	555	554	553	553	553	553	552	552	554	554	555	555	555	555	555	555	555	555	555	555	555	0	0	0	0	0	0	0	0	0	0	0	0	0	0	0	0	0	0	0	0	0	0	0	0	0	0	0	0	0	0	0	0	0	0	0	0	0	0	0	0	0	0	0	0	0	0	0	0	0	0	0	0	0	0	0	0	0	0	0	0	0	0	0	0	0	0	0	0	0	0	0	0	0	0	0	0	0	0	0	0	0	0	0	0	0	0	0	0	0	0	0	0	0	0	0	0	0	0	0	0	0	0	0	0	0	0	0	0	0	0	0	0	0	0	0	0	0	0	0	0	0	0	0	0	0	0	0	0	0	0	0	0	0	0	0	0	0	0	0	0	0	0	0	0	0	0	0	0	0	0	0	0	0	0	0	0	0	0	0	0	0	0	0	0	0	0	0	0	0	0	0	0	0	0	0	0	0	0	0	0	0	0	0	0	0	0	0	0	0	0	0	0	0
0	0	0	0	0	0	0	0	0	0	0	0	0	0	0	0	0	0	0	0	0	0	0	0	0	0	0	0	0	0	0	0	0	0	0	0	0	0	0	0	0	0	0	0	0	0	0	0	0	0	0	0	0	0	0	0	0	0	1698	1698	1698	1698	4521	4521	4521	4463	4463	4463	4463	4521	4521	4521	4581	4521	4521	4521	4521	4643	4581	4581	4581	4643	4643	4643	4643	4581	4581	4581	4581	4581	4581	4581	4581	4643	4643	4643	4643	4643	4643	4643	4581	4581	4581	4581	4643	4643	4643	4643	4643	4643	4643	4643	4643	4643	4643	4643	4581	4581	4581	4581	4581	4581	4581	4643	4643	4643	4643	4643	4643	4643	4643	4643	4643	4643	4643	4643	4643	4643	4643	4643	4643	4643	4706	4706	4706	4706	4706	4706	4706	4706	4706	4706	4706	4706	4643	4706	4706	4706	4643	4643	4643	4643	4643	4643	4643	4706	4706	4706	4706	4771	4771	4771	4771	4771	4771	4771	4771	4706	4706	4706	4706	4706	4706	4706	4706	4706	4706	4706	4706	4706	4706	4706	4706	4771	4771	4771	4771	4771	4771	4771	4771	4771	4771	4706	4706	4706	4771	4771	4771	4771	4771	4771	4771	4771	4771	4771	4771	4771	4771	4771	4771	4771	4771	4771	4771	4771	4771	4771	4771	4771	4771	4771	4771	4706	4706	4706	4706	3277	3277	3277	4463	4463	4463	4463	3309	3277	3277	3309	3309	3309	3309	3309	3309	3309	3309	3277	3309	3277	3277	3246	3277	3277	3277	3277	3277	3277	3277	3277	3277	3246	3246	3216	3216	3216	3246	3246	3246	3277	3277	3277	3277	3277	3277	3277	3277	3309	3309	3309	3309	3309	3309	3309	3309	3341	3341	3406	3440	3440	3440	3440	4643	4706	4643	4643	4643	4643	4643	4643	4643	4643	4581	4581	4643	4643	4643	4706	4706	4706	4706	4706	4706	4771	4838	4838	4838	4838	4838	4838	4838	4838	4906	4906	4838	4838	4906	4906	4906	4838	4838	4838	4838	4906	4838	4906	4906	4838	4838	4906	4906	0	0	0	0	0	0	4581	4521	4521	4521	4521	4521	4521	4521	4521	4521	4463	4406	4406	4406	4350	4350	4350	4350	4350	4350	4350	4296	4350	4296	4296	0	0	0	0	0	0	0	0	0	0	0	0	0	0	0	0	0	0	0	0	0	0	0	0	0	0	0	0	0	0	0	0	0	0	0	0	0	0	0	0	0	0	0	0	559	557	557	554	553	553	552	552	552	552	555	555	555	556	555	555	555	555	555	555	555	555	555	555	557	560	560	0	0	0	0	0	0	0	0	0	0	0	0	0	0	0	0	0	0	0	0	0	0	0	0	0	0	0	0	0	0	0	0	0	0	0	0	0	0	0	0	0	0	0	0	0	0	0	0	0	0	0	0	0	0	0	0	0	0	0	0	0	0	0	0	0	0	0	0	0	0	0	0	0	0	0	0	0	0	0	0	0	0	0	0	0	0	0	0	0	0	0	0	0	0	0	0	0	0	0	0	0	0	0	0	0	0	0	0	0	0	0	0	0	0	0	0	0	0	0	0	0	0	0	0	0	0	0	0	0	0	0	0	0	0	0	0	0	0	0	0	0	0	0	0	0	0	0	0	0	0	0	0	0	0	0	0	0	0	0	0	0	0	0	0	0	0	0	0	0	0	0	0	0	0	0	0	0	0	0	0	0	0	0	0	0	0	0	0	0
0	0	0	0	0	0	0	0	0	0	0	0	0	0	0	0	0	0	0	0	0	0	0	0	0	0	0	0	0	0	0	0	0	0	0	0	0	0	0	0	0	0	0	0	0	0	0	0	0	0	0	0	0	0	0	0	0	0	1741	1715	1715	1706	1706	1723	1723	0	4463	4521	4521	4521	4521	4521	4521	4521	4521	4581	4521	4643	4581	4581	4581	4643	4706	4643	4706	4643	4643	4643	4643	4581	4581	4581	4581	4643	4643	4643	4643	4643	4643	4643	4643	4581	4581	4581	4581	4581	4581	4581	4643	4643	4643	4643	4643	4643	4706	4643	4581	4581	4581	4581	4581	4581	4581	4643	4643	4643	4643	4643	4643	4643	4706	4643	4643	4706	4706	4643	4643	4643	4706	4643	4706	4643	4706	4706	4706	4706	4706	4706	4706	4706	4706	4706	4706	4706	4706	4706	4706	4706	4706	4706	4643	4706	4643	4643	4706	4706	4706	4706	4706	4706	4706	4771	4771	4771	4771	4771	4771	4706	4706	4706	4706	4706	4706	4706	4706	4706	4706	4706	4706	4706	4706	4706	4706	4771	4771	4771	4771	4771	4771	4771	4771	4771	4706	4706	4706	4706	4706	4706	4706	4771	4771	4771	4771	4771	4771	4771	4771	4771	4771	4771	4771	4771	4771	4771	4771	4771	4771	4771	4771	4771	4771	4771	4771	4706	4706	4771	4771	4771	3277	3277	3277	3277	3309	3309	3309	3277	3277	3277	3309	3309	3309	3309	3309	3309	3309	3309	3309	3277	3277	3277	3246	3246	3246	3246	3277	3277	3246	3246	3246	3246	3216	3216	3216	3216	3246	3246	3246	3246	3277	3277	3277	3277	3277	3277	3277	3309	3309	3309	3309	3309	3309	3309	3309	3341	3309	3406	3406	3406	3440	3440	4581	4643	4643	4643	4643	4643	4643	4643	4581	4643	4581	4581	4643	4643	4581	4581	4643	4643	4706	4706	4771	4838	4838	4906	4906	4906	4838	4838	4838	4838	4838	4838	4838	4838	4838	4906	4906	4906	4906	4906	4838	4906	4838	4906	4906	4838	4906	4906	4906	0	0	0	0	0	0	4581	4581	4581	4521	4521	4521	4521	4463	4463	4521	4463	4406	4463	4350	4350	4350	4350	4350	4350	4350	4350	4350	4350	4350	4296	4296	0	0	0	0	0	0	0	0	0	0	0	0	0	0	0	0	0	0	0	0	0	0	0	0	0	0	0	0	0	0	0	0	0	0	0	0	0	0	0	0	0	0	0	559	557	557	553	553	553	553	553	553	553	553	555	555	555	555	555	555	555	555	555	555	555	555	555	557	557	557	0	0	0	0	0	0	0	0	0	0	0	0	0	0	0	0	0	0	0	0	0	0	0	0	0	0	0	0	0	0	0	0	0	0	0	0	0	0	0	0	0	0	0	0	0	0	0	0	0	0	0	0	0	0	0	0	0	0	0	0	0	0	0	0	0	0	0	0	0	0	0	0	0	0	0	0	0	0	0	0	0	0	0	0	0	0	0	0	0	0	0	0	0	0	0	0	0	0	0	0	0	0	0	0	0	0	0	0	0	0	0	0	0	0	0	0	0	0	0	0	0	0	0	0	0	0	0	0	0	0	0	0	0	0	0	0	0	0	0	0	0	0	0	0	0	0	0	0	0	0	0	0	0	0	0	0	0	0	0	0	0	0	0	0	0	0	0	0	0	0	0	0	0	0	0	0	0	0	0	0	0	0	0	0	0	0	0	0	0
0	0	0	0	0	0	0	0	0	0	0	0	0	0	0	0	0	0	0	0	0	0	0	0	0	0	0	0	0	0	0	0	0	0	0	0	0	0	0	0	0	0	0	0	0	0	0	0	0	0	0	0	0	0	0	0	1741	1741	1741	1732	1732	1732	1723	1723	1715	1715	0	4521	4521	4521	4521	4521	4521	4521	4521	4521	4521	4581	4581	4581	4581	4581	4643	4581	4643	4581	4643	4643	4643	4643	4581	4581	4643	4643	4643	4643	4643	4643	4643	4643	4643	4581	4581	4643	4581	4581	4581	4581	4706	4643	4581	4643	4643	4643	4706	4643	4581	4581	4643	4581	4581	4581	4581	4643	4643	4643	4643	4643	4643	4643	4706	4643	4643	4643	4643	4643	4643	4643	4643	4643	4643	4643	4706	4706	4706	4706	4706	4706	4706	4706	4706	4706	4706	4706	4706	4706	4706	4706	4643	4706	4643	4706	4643	4643	4706	4706	4706	4706	4706	4706	4771	4771	4771	4771	4771	4771	4771	4706	4706	4706	4706	4706	4706	4706	4706	4706	4706	4706	4706	4706	4706	4706	4706	4706	4771	4771	4771	4771	4771	4771	4771	4706	4706	4706	4706	4706	4706	4771	4771	4771	4771	4771	4771	4771	4771	4771	4771	4771	4771	4771	4771	4771	4771	4771	4771	4771	4771	4771	4771	4771	4771	4771	4771	4706	4706	3277	3277	3277	3277	3277	3277	3309	3309	3309	3309	3277	3277	3277	3277	3309	3309	3309	3309	3277	3277	3277	3277	3277	3277	3246	3246	3246	3246	3246	3277	3246	3246	3246	3246	3246	3186	3216	3216	3216	3246	3246	3246	3246	3246	3277	3277	3277	3277	3277	3309	3309	3309	3309	3309	3309	3309	3309	3309	3341	3341	3341	3406	3406	3406	3406	4581	4643	4643	4643	4643	4643	4643	4643	4643	4643	4581	4581	4643	4643	4581	4643	4643	4643	4706	4771	4771	4838	4838	4838	4838	4906	4838	4838	4838	4838	4838	4906	4838	4838	4838	4838	4838	4906	4906	4906	4838	4906	4906	4977	4977	4906	4906	4977	4977	4906	4906	0	0	0	0	4581	4581	4581	4521	4521	4521	4521	4521	4521	4521	4463	4406	4406	4350	4350	4350	4350	4350	4350	4350	4350	4350	4350	4350	4296	4296	0	0	0	0	0	0	0	0	0	0	0	0	0	0	0	0	0	0	0	0	0	0	0	0	0	0	0	0	0	0	0	0	0	0	0	0	0	0	0	0	0	0	0	0	0	0	553	553	555	553	553	553	553	554	555	555	555	555	555	555	555	555	555	555	555	555	555	556	557	557	557	557	0	0	0	0	0	0	0	0	0	0	0	0	0	0	0	0	0	0	0	0	0	0	0	0	0	0	0	0	0	0	0	0	0	0	0	0	0	0	0	0	0	0	0	0	0	0	0	0	0	0	0	0	0	0	0	0	0	0	0	0	0	0	0	0	0	0	0	0	0	0	0	0	0	0	0	0	0	0	0	0	0	0	0	0	0	0	0	0	0	0	0	0	0	0	0	0	0	0	0	0	0	0	0	0	0	0	0	0	0	0	0	0	0	0	0	0	0	0	0	0	0	0	0	0	0	0	0	0	0	0	0	0	0	0	0	0	0	0	0	0	0	0	0	0	0	0	0	0	0	0	0	0	0	0	0	0	0	0	0	0	0	0	0	0	0	0	0	0	0	0	0	0	0	0	0	0	0	0	0	0	0	0	0	0	0	0	0
0	0	0	0	0	0	0	0	0	0	0	0	0	0	0	0	0	0	0	0	0	0	0	0	0	0	0	0	0	0	0	0	0	0	0	0	0	0	0	0	0	0	0	0	0	0	0	0	0	0	0	0	0	0	0	0	1732	1732	1732	1732	1732	1723	1723	1732	1723	1723	1723	0	0	0	4521	4521	4521	4521	4521	4581	4581	4581	4581	4521	4581	4581	4581	4581	4581	4581	4581	4581	4643	4643	4643	4581	4643	4643	4643	4643	4643	4643	4643	4643	4643	4581	4521	4643	4643	4581	4581	4581	4643	4643	4581	4581	4643	4643	4643	4643	4581	4643	4643	4643	4643	4581	4581	4643	4643	4643	4643	4643	4706	4706	4706	4643	4643	4706	4706	4643	4643	4643	4643	4643	4643	4643	4706	4706	4706	4706	4706	4706	4706	4706	4706	4706	4706	4706	4706	4706	4706	4706	4706	4706	4706	4706	4706	4643	4706	4706	4706	4706	4706	4706	4706	4771	4771	4771	4771	4771	4771	4706	4706	4706	4706	4706	4706	4706	4706	4706	4706	4706	4706	4706	4706	4706	4706	4771	4771	4771	4771	4771	4771	4771	4771	4771	4771	4706	4706	4706	4706	4771	4771	4771	4706	4771	4706	4771	4706	4706	4706	4706	4771	4771	4771	4771	4771	4771	4771	4771	4771	4771	4771	4771	4771	4771	4706	4706	4771	3277	3277	3277	3277	3309	3277	3309	3309	3309	3277	3277	3277	3277	3309	3309	3309	3277	3277	3277	3277	3277	3277	3277	3277	3246	3246	3246	3246	3246	3246	3246	3246	3246	3246	3216	3186	3216	3216	3216	3246	3246	3246	3246	3277	3277	3277	3277	3277	3277	3277	3309	3309	3309	3309	3309	3309	3309	3309	3341	3309	3341	3373	3373	3406	3406	4643	4706	4643	4643	4643	4643	4643	4643	4643	4643	4643	4643	4643	4643	4643	4643	4643	4706	4706	4771	4771	4838	4771	4838	4838	4906	4838	4838	4906	4906	4906	4906	4906	4906	4838	4838	4838	4838	4838	4906	4838	4906	4906	4977	4906	4906	4906	4906	4906	4838	4838	4771	4771	0	0	4581	4581	4521	4521	4521	4581	4581	4581	4521	4521	4521	4406	4406	4406	4350	4350	4350	4350	4350	4350	4350	4350	4350	4350	4296	4350	4350	0	0	0	0	0	0	0	0	0	0	0	0	0	0	0	0	0	0	0	0	0	0	0	0	0	0	0	0	0	0	0	0	0	0	0	0	0	0	0	0	0	0	0	0	0	0	0	555	555	554	554	554	554	554	555	555	555	555	555	555	555	555	555	555	555	555	556	557	557	557	557	0	0	0	0	0	0	0	0	0	0	0	0	0	0	0	0	0	0	0	0	0	0	0	0	0	0	0	0	0	0	0	0	0	0	0	0	0	0	0	0	0	0	0	0	0	0	0	0	0	0	0	0	0	0	0	0	0	0	0	0	0	0	0	0	0	0	0	0	0	0	0	0	0	0	0	0	0	0	0	0	0	0	0	0	0	0	0	0	0	0	0	0	0	0	0	0	0	0	0	0	0	0	0	0	0	0	0	0	0	0	0	0	0	0	0	0	0	0	0	0	0	0	0	0	0	0	0	0	0	0	0	0	0	0	0	0	0	0	0	0	0	0	0	0	0	0	0	0	0	0	0	0	0	0	0	0	0	0	0	0	0	0	0	0	0	0	0	0	0	0	0	0	0	0	0	0	0	0	0	0	0	0	0	0	0	0	0
0	0	0	0	0	0	0	0	0	0	0	0	0	0	0	0	0	0	0	0	0	0	0	0	0	0	0	0	0	0	0	0	0	0	0	0	0	0	0	0	0	0	0	0	0	0	0	0	0	0	0	0	0	0	0	0	1741	1741	1741	1741	1741	1741	1741	1741	1732	1732	1732	0	0	0	0	4521	4521	4521	4521	4581	4581	4581	4581	4521	4581	4581	4581	4581	4643	4581	4643	4643	4643	4643	4643	4643	4643	4706	4706	4643	4643	4643	4643	4643	4643	4581	4521	4643	4643	4643	4581	4643	4706	4643	4643	4643	4643	4706	4706	4643	4581	4581	4643	4643	4643	4581	4581	4643	4643	4643	4643	4643	4706	4706	4706	4643	4643	4643	4643	4643	4643	4706	4706	4643	4706	4643	4706	4706	4706	4706	4706	4706	4706	4706	4706	4706	4706	4706	4706	4706	4706	4706	4643	4643	4706	4706	4706	4706	4706	4706	4706	4706	4706	4706	4706	4706	4706	4706	4706	4706	4706	4706	4706	4706	4706	4706	4706	4706	4706	4706	4706	4706	4706	4706	4706	4706	4706	4771	4771	4771	4771	4771	4771	4771	4771	4771	4771	4771	4706	4706	4706	4771	4771	4706	4706	4771	4706	4706	4706	4706	4706	4706	4706	4706	4771	4771	4771	4771	4771	4771	4771	4771	4771	4706	4771	4771	4706	4706	4706	3309	3309	3277	3309	3277	3277	3277	3277	3277	3277	3277	3277	3277	3277	3277	3277	3277	3277	3277	3277	3277	3246	3277	3246	3216	3246	3246	3246	3246	3246	3246	3246	3246	3246	3216	3186	3186	3186	3216	3246	3246	3246	3246	3246	3277	3277	3277	3277	3277	3277	3309	3309	3309	3309	3309	3309	3309	3309	3309	3309	3341	3341	3341	3373	3373	3406	3406	4643	4643	4643	4643	4643	4643	4643	4643	4643	4581	4643	4643	4581	4643	4581	4643	4643	4706	4771	4771	4771	4838	4838	4906	4906	4906	4906	4906	4906	4977	4977	4977	4906	4906	4906	4906	4838	4906	4838	4906	4906	4906	4906	4906	4906	4906	4906	4838	4838	4771	4771	4771	4581	4521	4581	4581	4581	4581	4581	4581	4581	4581	4521	4521	4463	4463	4406	4406	4350	4350	4350	4350	4350	4350	4350	4350	4350	4296	4350	4350	0	0	0	0	0	0	0	0	0	0	0	0	0	0	0	0	0	0	0	0	0	0	0	0	0	0	0	0	0	0	0	0	0	0	0	0	0	0	0	0	0	0	0	0	0	0	0	0	555	555	555	555	554	554	555	555	555	555	555	555	555	555	555	555	555	555	556	557	557	557	559	557	557	0	0	0	0	0	0	0	0	0	0	0	0	0	0	0	0	0	0	0	0	0	0	0	0	0	0	0	0	0	0	0	0	0	0	0	0	0	0	0	0	0	0	0	0	0	0	0	0	0	0	0	0	0	0	0	0	0	0	0	0	0	0	0	0	0	0	0	0	0	0	0	0	0	0	0	0	0	0	0	0	0	0	0	0	0	0	0	0	0	0	0	0	0	0	0	0	0	0	0	0	0	0	0	0	0	0	0	0	0	0	0	0	0	0	0	0	0	0	0	0	0	0	0	0	0	0	0	0	0	0	0	0	0	0	0	0	0	0	0	0	0	0	0	0	0	0	0	0	0	0	0	0	0	0	0	0	0	0	0	0	0	0	0	0	0	0	0	0	0	0	0	0	0	0	0	0	0	0	0	0	0	0	0	0	0
0	0	0	0	0	0	0	0	0	0	0	0	0	0	0	0	0	0	0	0	0	0	0	0	0	0	0	0	0	0	0	0	0	0	0	0	0	0	0	0	0	0	0	0	0	0	0	0	0	0	0	0	0	0	0	0	1741	1741	1741	1741	1741	1741	1741	1741	1750	1750	1750	1750	0	0	0	4521	4463	4463	4521	4521	4581	4581	4581	4521	4581	4581	4581	4581	4581	4581	4581	4643	4643	4643	4643	4643	4643	4643	4643	4643	4643	4643	4643	4643	4581	4581	4581	4643	4643	4643	4581	4581	4643	4643	4643	4643	4643	4706	4706	4643	4643	4643	4643	4643	4643	4581	4643	4643	4643	4643	4643	4643	4643	4643	4643	4643	4706	4706	4643	4643	4643	4706	4706	4706	4706	4706	4706	4706	4706	4706	4706	4706	4706	4706	4706	4706	4706	4706	4706	4706	4706	4706	4706	4706	4706	4706	4706	4706	4706	4706	4706	4706	4706	4706	4771	4706	4706	4706	4706	4706	4706	4706	4706	4706	4706	4706	4706	4706	4706	4706	4706	4706	4706	4706	4706	4771	4771	4771	4771	4771	4771	4771	4771	4771	4771	4771	4771	4706	4706	4706	4706	4771	4706	4706	4706	4706	4706	4706	4706	4706	4706	4706	4706	4771	4771	4706	4771	4706	4771	4771	4771	4706	4706	4706	4706	4706	4706	4706	3309	3309	3277	3277	3309	3277	3277	3277	3277	3277	3277	3277	3246	3277	3277	3277	3277	3277	3277	3277	3277	3277	3246	3246	3246	3246	3246	3246	3246	3246	3246	3246	3246	3246	3246	3186	3186	3186	3186	3186	3246	3246	3246	3246	3246	3246	3277	3277	3277	3277	3277	3277	3309	3309	3309	3309	3309	3309	3309	3309	3309	3309	3309	3309	3341	3341	3373	4643	4581	4643	4643	4643	4643	4643	4643	4643	4643	4643	4643	4643	4643	4643	4581	4643	4643	4706	4771	4771	4771	4838	4906	4906	4906	4906	4906	4906	4906	4906	4838	4838	4838	4838	4838	4838	4838	4906	4838	4906	4906	4906	4906	4906	4906	4906	4838	4838	4838	4771	4706	4643	4581	4521	4581	4581	4581	4581	4581	4581	4581	4581	4521	4463	4406	4406	4350	4350	4350	4350	4350	4350	4350	4350	4350	4350	4350	4350	4350	4296	4296	0	0	0	0	0	0	0	0	0	0	0	0	0	0	0	0	0	0	0	0	0	0	0	0	0	0	0	0	0	0	0	0	0	0	0	0	0	0	0	0	0	0	0	0	556	556	557	555	555	555	555	555	555	555	555	555	556	555	555	555	555	555	555	555	555	556	556	557	558	558	558	557	557	0	0	0	0	0	0	0	0	0	0	0	0	0	0	0	0	0	0	0	0	0	0	0	0	0	0	0	0	0	0	0	0	0	0	0	0	0	0	0	0	0	0	0	0	0	0	0	0	0	0	0	0	0	0	0	0	0	0	0	0	0	0	0	0	0	0	0	0	0	0	0	0	0	0	0	0	0	0	0	0	0	0	0	0	0	0	0	0	0	0	0	0	0	0	0	0	0	0	0	0	0	0	0	0	0	0	0	0	0	0	0	0	0	0	0	0	0	0	0	0	0	0	0	0	0	0	0	0	0	0	0	0	0	0	0	0	0	0	0	0	0	0	0	0	0	0	0	0	0	0	0	0	0	0	0	0	0	0	0	0	0	0	0	0	0	0	0	0	0	0	0	0	0	0	0	0	0	0	0	0	0	0	0	0
0	0	0	0	0	0	0	0	0	0	0	0	0	0	0	0	0	0	0	0	0	0	0	0	0	0	0	0	0	0	0	0	0	0	0	0	0	0	0	0	0	0	0	0	0	0	0	0	0	0	0	0	0	0	0	0	1741	1741	1732	1732	1732	1741	1741	1741	1750	1750	1759	1768	1768	1768	0	0	4463	4463	4521	4521	4463	4581	4581	4521	4581	4521	4581	4521	4581	4521	4581	4643	4643	4643	4643	4643	4643	4643	4643	4581	4581	4581	4643	4643	4581	4581	4521	4643	4643	4643	4581	4581	4643	4643	4581	4643	4643	4706	4643	4643	4643	4581	4643	4643	4643	4581	4581	4643	4643	4643	4643	4643	4643	4643	4643	4643	4643	4643	4706	4706	4643	4706	4706	4706	4706	4706	4706	4706	4706	4706	4706	4706	4643	4643	4706	4706	4706	4706	4706	4771	4706	4706	4706	4706	4706	4706	4706	4706	4706	4706	4771	4771	4771	4706	4771	4706	4706	4706	4706	4706	4706	4706	4706	4706	4706	4706	4706	4706	4706	4706	4706	4706	4706	4706	4706	4771	4771	4771	4771	4771	4771	4771	4771	4771	4771	4706	4771	4771	4706	4706	4706	4706	4706	4771	4706	4706	4706	4706	4706	4706	4706	4706	4706	4706	4706	4706	4706	4706	4771	4706	4771	4706	4706	4706	4706	3373	3373	3341	3341	3309	3277	3277	3309	3277	3277	3277	3277	3277	3277	3277	3246	3246	3277	3277	3277	3277	3277	3277	3277	3277	3246	3246	3246	3246	3246	3246	3246	3246	3246	3246	3246	3246	3246	3186	3186	3186	3186	3186	3246	3246	3216	3246	3246	3246	3277	3246	3277	3277	3277	3277	3309	3309	3309	3309	3309	3309	3277	3277	3277	3277	3309	3309	3309	3341	3341	4643	4581	4643	4581	4581	4581	4643	4643	4643	4643	4643	4643	4643	4643	4643	4643	4643	4643	4706	4771	4771	4771	4838	4906	4906	4906	4906	4838	4977	4977	4906	4906	4906	4906	4838	4838	4838	4838	4906	4838	4906	4906	4906	4906	4838	4838	4838	4838	4838	4771	4771	4706	4643	4581	4581	4581	4581	4581	4581	4581	4581	4581	4581	4521	4521	4521	4406	4350	4350	4350	4350	4406	4350	4350	4350	4350	4350	4350	4350	4350	4350	4350	0	0	0	0	0	0	0	0	0	0	0	0	0	0	0	0	0	0	0	0	0	0	0	0	0	0	0	0	0	0	0	0	0	0	0	0	0	0	0	0	0	0	0	0	557	557	557	557	556	556	556	555	555	555	555	555	555	555	555	556	556	555	555	555	555	555	556	557	557	557	557	557	557	557	557	0	0	0	0	0	0	0	0	0	0	0	0	0	0	0	0	0	0	0	0	0	0	0	0	0	0	0	0	0	0	0	0	0	0	0	0	0	0	0	0	0	0	0	0	0	0	0	0	0	0	0	0	0	0	0	0	0	0	0	0	0	0	0	0	0	0	0	0	0	0	0	0	0	0	0	0	0	0	0	0	0	0	0	0	0	0	0	0	0	0	0	0	0	0	0	0	0	0	0	0	0	0	0	0	0	0	0	0	0	0	0	0	0	0	0	0	0	0	0	0	0	0	0	0	0	0	0	0	0	0	0	0	0	0	0	0	0	0	0	0	0	0	0	0	0	0	0	0	0	0	0	0	0	0	0	0	0	0	0	0	0	0	0	0	0	0	0	0	0	0	0	0	0	0	0	0	0	0	0	0	0	0
0	0	0	0	0	0	0	0	0	0	0	0	0	0	0	0	0	0	0	0	0	0	0	0	0	0	0	0	0	0	0	0	0	0	0	0	0	0	0	0	0	0	0	0	0	0	0	0	0	0	0	0	0	0	0	0	1732	1732	1732	1732	1732	1741	1741	1750	1750	1750	1759	1759	1777	1786	1795	1795	1795	0	4521	4521	4521	4521	4521	4521	4581	4521	4521	4521	4581	4581	4581	4643	4643	4643	4643	4643	4643	4643	4643	4581	4643	4581	4643	4643	4581	4581	4521	4643	4643	4643	4581	4581	4643	4643	4581	4581	4581	4643	4643	4643	4643	4581	4643	4643	4643	4643	4643	4643	4706	4643	4643	4643	4643	4643	4643	4643	4643	4643	4643	4706	4706	4706	4706	4706	4706	4706	4706	4706	4706	4706	4643	4643	4643	4706	4706	4706	4706	4706	4771	4771	4771	4771	4706	4706	4706	4771	4706	4706	4706	4706	4706	4771	4771	4706	4706	4706	4706	4706	4706	4706	4706	4706	4706	4706	4706	4706	4706	4706	4706	4706	4706	4706	4706	4706	4706	4706	4771	4771	4706	4706	4706	4706	4706	4706	4706	4706	4771	4706	4706	4706	4706	4706	4706	4771	4771	4706	4706	4706	4706	4706	4706	4706	4706	4706	4706	4706	4706	4706	4771	4706	4706	4771	4706	4706	4706	3309	3341	3341	3309	3277	3277	3277	3277	3277	3277	3277	3277	3277	3246	3246	3246	3246	3277	3277	3277	3277	3277	3277	3277	3277	3246	3246	3216	3216	3246	3246	3246	3246	3246	3246	3246	3246	3246	3246	3186	3186	3186	3186	3216	3216	3216	3216	3246	3246	3246	3246	3277	3277	3277	3309	3309	3309	3309	3309	3309	3277	3309	3309	3277	3309	3309	3309	3309	3309	3309	3309	4643	4771	4771	4581	4581	4643	4643	4643	4643	4581	4643	4643	4581	4643	4643	4643	4643	4706	4771	4771	4771	4838	4838	4906	4906	4906	4906	4977	4977	4977	4906	4977	4906	4906	4838	4838	4906	4906	4906	4906	4906	4906	4906	4906	4838	4838	4838	4838	4838	4771	4771	4706	4581	4581	4521	4581	4581	4581	4581	4581	4581	4581	4581	4521	4521	4406	4406	4350	4350	4406	4406	4350	4350	4406	4406	4406	4350	4350	4350	4350	4350	4350	0	0	0	0	0	0	0	0	0	0	0	0	0	0	0	0	0	0	0	0	0	0	0	0	0	0	0	0	0	0	0	0	0	0	0	0	0	0	0	0	0	0	557	557	557	557	557	557	556	556	555	555	555	555	555	554	554	555	555	555	555	555	555	555	556	555	555	557	557	556	556	556	557	557	557	0	0	0	0	0	0	0	0	0	0	0	0	0	0	0	0	0	0	0	0	0	0	0	0	0	0	0	0	0	0	0	0	0	0	0	0	0	0	0	0	0	0	0	0	0	0	0	0	0	0	0	0	0	0	0	0	0	0	0	0	0	0	0	0	0	0	0	0	0	0	0	0	0	0	0	0	0	0	0	0	0	0	0	0	0	0	0	0	0	0	0	0	0	0	0	0	0	0	0	0	0	0	0	0	0	0	0	0	0	0	0	0	0	0	0	0	0	0	0	0	0	0	0	0	0	0	0	0	0	0	0	0	0	0	0	0	0	0	0	0	0	0	0	0	0	0	0	0	0	0	0	0	0	0	0	0	0	0	0	0	0	0	0	0	0	0	0	0	0	0	0	0	0	0	0	0	0	0	0	0	0
0	0	0	0	0	0	0	0	0	0	0	0	0	0	0	0	0	0	0	0	0	0	0	0	0	0	0	0	0	0	0	0	0	0	0	0	0	0	0	0	0	0	0	0	0	0	0	0	0	0	0	0	0	0	0	0	1732	1732	1732	1732	1732	1741	1750	1750	1750	1750	1759	1759	1768	1777	1786	1786	1786	1786	0	0	4521	4463	4521	4521	4581	4521	4581	4521	4581	4581	4581	4643	4581	4643	4643	4643	4521	4706	4521	4521	4521	4521	4581	4643	4581	4643	4581	4643	4643	4643	4581	4581	4643	4643	4643	4581	4581	4706	4706	4643	4643	4521	4643	4643	4643	4643	4581	4643	4706	4706	4643	4643	4643	4643	4643	4643	4643	4643	4643	4643	4706	4706	4706	4706	4706	4706	4706	4706	4706	4706	4706	4706	4643	4706	4706	4706	4706	4706	4706	4771	4771	4706	4706	4706	4706	4771	4706	4706	4706	4706	4706	4706	4706	4706	4706	4706	4706	4706	4706	4706	4706	4706	4706	4706	4706	4706	4706	4706	4706	4706	4706	4706	4706	4706	4706	4706	4771	4706	4706	4706	4706	4706	4706	4706	4706	4706	4771	4771	4771	4771	4771	4771	4771	4771	4771	4706	4706	4706	4706	4706	4706	4706	4706	4706	4706	4706	4706	4706	4706	4706	4706	4706	4706	4706	3341	3309	3309	3341	3309	3277	3277	3277	3277	3277	3277	3277	3277	3277	3277	3277	3277	3277	3277	3277	3277	3277	3277	3246	3246	3246	3246	3246	3216	3216	3216	3216	3246	3216	3216	3246	3216	3216	3216	3186	3186	3186	3186	3186	3216	3216	3216	3216	3246	3246	3246	3246	3277	3277	3277	3277	3277	3309	3309	3309	3309	3277	3277	3309	3277	3309	3309	3277	3277	3309	3309	3309	3309	4838	4771	4706	4643	4643	4643	4643	4643	4581	4643	4643	4643	4643	4643	4643	4643	4771	4771	4771	4771	4838	4838	4838	4838	4906	4906	4906	4977	4977	4977	4977	4977	4906	4838	4838	4838	4838	4838	4838	4906	4838	4838	4906	4906	4838	4838	4838	4838	4771	4706	4643	4581	4581	4521	4581	4581	4581	4581	4581	4581	4581	4581	4521	4521	4406	4406	4406	4406	4406	4406	4350	4406	4406	4406	4406	4350	4350	4350	4350	4350	4350	0	0	0	0	0	0	0	0	0	0	0	0	0	0	0	0	0	0	0	0	0	0	0	0	0	0	0	0	0	0	0	0	0	0	0	0	0	0	0	0	0	0	558	557	557	557	557	557	556	556	555	555	555	555	555	554	554	555	555	555	554	554	555	555	555	556	556	557	557	556	556	556	557	557	557	557	0	0	0	0	0	0	0	0	0	0	0	0	0	0	0	0	0	0	0	0	0	0	0	0	0	0	0	0	0	0	0	0	0	0	0	0	0	0	0	0	0	0	0	0	0	0	0	0	0	0	0	0	0	0	0	0	0	0	0	0	0	0	0	0	0	0	0	0	0	0	0	0	0	0	0	0	0	0	0	0	0	0	0	0	0	0	0	0	0	0	0	0	0	0	0	0	0	0	0	0	0	0	0	0	0	0	0	0	0	0	0	0	0	0	0	0	0	0	0	0	0	0	0	0	0	0	0	0	0	0	0	0	0	0	0	0	0	0	0	0	0	0	0	0	0	0	0	0	0	0	0	0	0	0	0	0	0	0	0	0	0	0	0	0	0	0	0	0	0	0	0	0	0	0	0	0	0	0	0	0
0	0	0	0	0	0	0	0	0	0	0	0	0	0	0	0	0	0	0	0	0	0	0	0	0	0	0	0	0	0	0	0	0	0	0	0	0	0	0	0	0	0	0	0	0	0	0	0	0	0	0	0	0	0	0	0	1732	1732	1732	1741	1732	1741	1741	1750	1750	1759	1759	1768	1768	1777	1795	1795	1814	1824	1824	1824	0	4463	4521	4463	4463	4521	4581	4521	4581	4581	4581	4581	4581	4643	4643	4643	4521	4521	4521	4521	4521	4521	4521	4521	4521	4581	4643	4643	4643	4643	4643	4643	4643	4643	4643	4643	4643	4643	4643	4643	4643	4581	4643	4643	4643	4643	4643	4643	4643	4706	4643	4643	4643	4643	4643	4643	4643	4643	4643	4643	4643	4706	4706	4643	4706	4706	4706	4643	4706	4643	4643	4643	4581	4643	4706	4706	4706	4706	4706	4706	4706	4706	4706	4706	4771	4771	4771	4706	4706	4706	4706	4706	4706	4706	4706	4706	4706	4706	4706	4706	4706	4706	4706	4706	4706	4706	4706	4706	4706	4706	4706	4706	4706	4706	4706	4706	4771	4706	4706	4706	4706	4706	4706	4706	4706	4706	4771	4771	4771	4771	4771	4771	4771	4771	4771	4706	4706	4706	4706	4706	4706	4706	4706	4771	4771	4771	4771	4706	4706	4706	4706	4706	4706	3341	3341	3341	3309	3309	3277	3277	3277	3277	3277	3277	3277	3277	3277	3277	3277	3277	3277	3246	3246	3246	3277	3277	3277	3246	3246	3246	3246	3246	3216	3216	3216	3216	3246	3246	3246	3246	3216	3246	3246	3186	3186	3186	3216	3216	3216	3216	3216	3216	3246	3246	3246	3246	3246	3246	3277	3277	3277	3277	3277	3309	3277	3277	3277	3277	3277	3277	3277	3277	3277	3309	3341	3309	3309	3309	4771	4706	4643	4643	4643	4643	4643	4643	4643	4643	4643	4643	4643	4706	4706	4706	4771	4771	4771	4771	4838	4838	4838	4906	4906	4977	4977	4977	4977	4977	4977	4906	4838	4838	4838	4838	4838	4838	4838	4838	4838	4838	4838	4838	4838	4838	4838	4771	4771	4706	4581	4521	4521	4521	4581	4581	4581	4581	4581	4581	4521	4521	4521	4406	4406	4350	4350	4406	4406	4350	4406	4406	4406	4406	4350	4350	4350	4350	4350	4350	0	0	0	0	0	0	0	0	0	0	0	0	0	0	0	0	0	0	0	0	0	0	0	0	0	0	0	0	0	0	0	0	0	0	0	0	0	0	0	0	0	0	558	558	557	558	557	557	557	556	556	556	556	555	555	554	554	555	554	554	554	554	554	555	555	556	556	557	557	557	557	557	557	558	557	558	558	0	0	0	0	0	0	0	0	0	0	0	0	0	0	0	0	0	0	0	0	0	0	0	0	0	0	0	0	0	0	0	0	0	0	0	0	0	0	0	0	0	0	0	0	0	0	0	0	0	0	0	0	0	0	0	0	0	0	0	0	0	0	0	0	0	0	0	0	0	0	0	0	0	0	0	0	0	0	0	0	0	0	0	0	0	0	0	0	0	0	0	0	0	0	0	0	0	0	0	0	0	0	0	0	0	0	0	0	0	0	0	0	0	0	0	0	0	0	0	0	0	0	0	0	0	0	0	0	0	0	0	0	0	0	0	0	0	0	0	0	0	0	0	0	0	0	0	0	0	0	0	0	0	0	0	0	0	0	0	0	0	0	0	0	0	0	0	0	0	0	0	0	0	0	0	0	0	0	0
0	0	0	0	0	0	0	0	0	0	0	0	0	0	0	0	0	0	0	0	0	0	0	0	0	0	0	0	0	0	0	0	0	0	0	0	0	0	0	0	0	0	0	0	0	0	0	0	0	0	0	0	0	0	0	0	0	1732	1732	1741	1732	1741	1741	1741	1750	1750	1759	1768	1768	1795	1804	1824	1824	1824	1824	1824	0	0	0	4406	4463	4581	4463	4581	4581	4581	4581	4643	4581	4643	4643	4643	4521	4521	4521	4463	4521	4521	4521	4521	4521	4521	4521	4643	4643	4643	4643	4643	4643	4643	4643	4643	4643	4643	4643	4643	4521	4521	4521	4643	4643	4643	4643	4643	4643	4643	4643	4643	4643	4643	4643	4643	4643	4643	4643	4643	4643	4643	4706	4643	4706	4706	4706	4643	4643	4643	4581	4581	4581	4643	4706	4706	4706	4581	4706	4771	4706	4706	4706	4706	4706	4771	4706	4706	4706	4706	4706	4706	4706	4706	4706	4706	4706	4706	4706	4706	4706	4706	4706	4706	4706	4706	4706	4706	4706	4706	4706	4706	4706	4706	4771	4706	4771	4771	4706	4706	4706	4771	4771	4771	4771	4771	4771	4771	4771	4771	4771	4771	4771	4771	4771	4706	4706	4706	4706	4706	4706	4706	4771	4771	4771	4771	4771	4706	4706	4706	4706	4706	3309	3341	3341	3309	3309	3309	3309	3309	3277	3277	3277	3277	3277	3277	3277	3277	3277	3246	3277	3277	3246	3246	3277	3246	3246	3246	3246	3246	3246	3246	3246	3246	3246	3216	3216	3216	3246	3246	3246	3246	3246	3246	3186	3186	3186	3216	3216	3216	3216	3216	3216	3216	3216	3216	3246	3246	3277	3277	3277	3277	3277	3277	3277	3277	3277	3277	3277	3277	3277	3277	3277	3277	3309	3277	3277	3277	4771	4706	4643	4643	4643	4643	4581	4581	4643	4643	4643	4643	4706	4706	4643	4771	4706	4771	4771	4771	4838	4838	4838	4906	4906	4977	4977	4906	4906	4906	4906	4838	4838	4838	4838	4838	4771	4771	4838	4771	4838	4838	4838	4838	4838	4771	4771	4771	4643	4643	4581	4521	4463	4521	4581	4581	4581	4581	4581	4581	4521	4521	4521	4406	4406	4406	4406	4406	4406	4350	4350	4350	4350	4350	4350	4350	4350	4350	4350	4350	4350	0	0	0	0	0	0	0	0	0	0	0	0	0	0	0	0	0	0	0	0	0	0	0	0	0	0	0	0	0	0	0	0	0	0	0	0	0	0	0	0	0	0	559	558	559	558	557	557	556	556	555	555	0	0	0	0	0	554	554	554	554	554	554	554	554	556	556	556	556	556	557	557	558	558	558	559	559	0	0	0	0	0	0	0	0	0	0	0	0	0	0	0	0	0	0	0	0	0	0	0	0	0	0	0	0	0	0	0	0	0	0	0	0	0	0	0	0	0	0	0	0	0	0	0	0	0	0	0	0	0	0	0	0	0	0	0	0	0	0	0	0	0	0	0	0	0	0	0	0	0	0	0	0	0	0	0	0	0	0	0	0	0	0	0	0	0	0	0	0	0	0	0	0	0	0	0	0	0	0	0	0	0	0	0	0	0	0	0	0	0	0	0	0	0	0	0	0	0	0	0	0	0	0	0	0	0	0	0	0	0	0	0	0	0	0	0	0	0	0	0	0	0	0	0	0	0	0	0	0	0	0	0	0	0	0	0	0	0	0	0	0	0	0	0	0	0	0	0	0	0	0	0	0	0	0
0	0	0	0	0	0	0	0	0	0	0	0	0	0	0	0	0	0	0	0	0	0	0	0	0	0	0	0	0	0	0	0	0	0	0	0	0	0	0	0	0	0	0	0	0	0	0	0	0	0	0	0	0	0	0	0	1741	1741	1741	1741	1732	1741	1750	1741	1750	1750	1759	1768	1786	1814	1814	1824	1824	1833	1833	1833	1833	0	0	4406	4406	4463	4463	4581	4581	4581	4581	4581	4581	4643	4643	4643	4521	4521	4463	4463	4463	4463	4521	4643	4581	4581	4581	4581	4581	4581	4581	4581	4581	4643	4643	4643	4643	4643	4643	4643	4643	4643	4643	4643	4643	4643	4643	4643	4643	4643	4643	4643	4643	4643	4643	4581	4581	4643	4581	4581	4643	4643	4643	4643	4643	4643	4643	4643	4643	4643	4643	4643	4581	4643	4706	4706	4706	4706	4706	4706	4706	4706	4706	4706	4706	4706	4706	4706	4706	4706	4706	4706	4706	4706	4706	4706	4706	4706	4706	4706	4706	4706	4706	4706	4706	4706	4706	4706	4706	4706	4706	4706	4706	4706	4706	4706	4771	4771	4706	4706	4706	4706	4706	4706	4706	4771	4771	4771	4771	4771	4771	4771	4771	4771	4771	4771	4706	4706	4706	4706	4706	4706	4706	4771	4771	4771	4771	4771	4771	4771	4706	4706	3309	3309	3309	3309	3309	3309	3277	3277	3277	3277	3277	3277	3277	3277	3277	3277	3277	3246	3246	3277	3246	3246	3246	3246	3246	3246	3246	3246	3246	3246	3246	3246	3246	3246	3246	3246	3246	3246	3246	3246	3246	3246	3186	3186	3186	3216	3216	3216	3216	3216	3216	3216	3216	3216	3216	3246	3277	3277	3277	3277	3277	3277	3277	3277	3246	3246	3246	3246	3246	3246	3246	3277	3309	3309	3309	3309	4706	4706	4706	4706	4643	4643	4581	4581	4643	4643	4643	4643	4643	4643	4706	4706	4771	4706	4771	4771	4838	4838	4838	4838	4838	4838	4838	4838	4838	4838	4838	4771	4771	4706	4706	4706	4706	4706	4706	4706	4771	4838	4838	4838	4838	4771	4771	4706	4643	4581	4581	4521	4463	4521	4581	4581	4581	4581	4581	4581	4521	4521	4521	4406	4350	4350	4350	4350	4350	4350	4350	4350	4350	4350	4350	4350	4350	4350	4350	4350	4350	4350	0	0	0	0	0	0	0	0	0	0	0	0	0	0	0	0	0	0	0	0	0	0	0	0	0	0	0	0	0	0	0	0	0	0	0	0	0	0	0	0	0	559	559	559	558	557	557	556	556	556	555	0	0	0	0	0	0	0	0	0	0	555	554	555	555	556	556	556	556	557	557	558	558	559	558	558	0	0	0	0	0	0	0	0	0	0	0	0	0	0	0	0	0	0	0	0	0	0	0	0	0	0	0	0	0	0	0	0	0	0	0	0	0	0	0	0	0	0	0	0	0	0	0	0	0	0	0	0	0	0	0	0	0	0	0	0	0	0	0	0	0	0	0	0	0	0	0	0	0	0	0	0	0	0	0	0	0	0	0	0	0	0	0	0	0	0	0	0	0	0	0	0	0	0	0	0	0	0	0	0	0	0	0	0	0	0	0	0	0	0	0	0	0	0	0	0	0	0	0	0	0	0	0	0	0	0	0	0	0	0	0	0	0	0	0	0	0	0	0	0	0	0	0	0	0	0	0	0	0	0	0	0	0	0	0	0	0	0	0	0	0	0	0	0	0	0	0	0	0	0	0	0	0	0
0	0	0	0	0	0	0	0	0	0	0	0	0	0	0	0	0	0	0	0	0	0	0	0	0	0	0	0	0	0	0	0	0	0	0	0	0	0	0	0	0	0	0	0	0	0	0	0	0	0	0	0	0	0	0	0	1741	1732	1732	1741	1741	1741	1741	1741	1741	1750	1768	1786	1795	1814	1824	1824	1824	1833	1833	1833	1843	1853	1853	0	4406	4463	4521	4581	4581	4581	4581	4581	4521	4581	4581	4581	4521	4463	4463	4463	4463	4463	4521	4521	4581	4581	4581	4581	4643	4581	4643	4581	4643	4643	4643	4643	4643	4643	4643	4643	4581	4581	4581	4581	4581	4643	4643	4643	4643	4643	4643	4643	4643	4643	4643	4643	4643	4581	4581	4581	4581	4581	4581	4643	4643	4643	4643	4643	4643	4643	4643	4643	4643	4643	4706	4706	4706	4706	4706	4706	4706	4706	4706	4706	4706	4706	4706	4706	4706	4706	4706	4706	4706	4706	4706	4706	4706	4706	4706	4706	4706	4706	4706	4706	4706	4706	4706	4706	4706	4706	4706	4706	4706	4706	4771	4706	4771	4706	4706	4706	4706	4706	4706	4706	4706	4706	4771	4771	4771	4771	4771	4838	4771	4771	4771	4771	4771	4706	4706	4706	4706	4706	4706	4771	4771	4771	4771	4771	4771	4771	4706	4771	3309	3309	3309	3309	3309	3309	3277	3277	3277	3277	3277	3246	3246	3277	3246	3246	3246	3246	3246	3246	3246	3246	3246	3246	3246	3246	3246	3246	3246	3246	3246	3246	3246	3216	3246	3246	3216	3216	3216	3216	3216	3216	3216	3216	3216	3216	3216	3216	3216	3216	3216	3216	3216	3216	3216	3246	3246	3246	3246	3246	3277	3277	3277	3246	3277	3277	3277	3277	3277	3277	3277	3277	3309	3309	3309	3309	3309	3309	4771	4771	4643	4706	4581	4581	4643	4643	4643	4643	4581	4643	4706	4706	4771	4771	4771	4771	4771	4838	4838	4838	4838	4838	4771	4771	4771	4706	4706	4706	4706	4643	4643	4581	4581	4643	4706	4771	4771	4771	4771	4771	4771	4706	4706	4643	4643	4581	4581	4521	4521	4521	4581	4581	4581	4581	4581	4521	4521	4521	4521	4463	4406	4350	4350	4350	4350	4350	4350	4350	4350	4350	4350	4350	4350	4350	4350	4350	4350	4350	4350	0	0	0	0	0	0	0	0	0	0	0	0	0	0	0	0	0	0	0	0	0	0	0	0	0	0	0	0	0	0	0	0	0	0	0	0	0	0	0	0	0	560	560	559	558	557	557	556	556	556	0	0	0	0	0	0	0	0	0	0	555	555	555	555	556	556	556	556	557	558	559	558	559	558	559	559	0	0	0	0	0	0	0	0	0	0	0	0	0	0	0	0	0	0	0	0	0	0	0	0	0	0	0	0	0	0	0	0	0	0	0	0	0	0	0	0	0	0	0	0	0	0	0	0	0	0	0	0	0	0	0	0	0	0	0	0	0	0	0	0	0	0	0	0	0	0	0	0	0	0	0	0	0	0	0	0	0	0	0	0	0	0	0	0	0	0	0	0	0	0	0	0	0	0	0	0	0	0	0	0	0	0	0	0	0	0	0	0	0	0	0	0	0	0	0	0	0	0	0	0	0	0	0	0	0	0	0	0	0	0	0	0	0	0	0	0	0	0	0	0	0	0	0	0	0	0	0	0	0	0	0	0	0	0	0	0	0	0	0	0	0	0	0	0	0	0	0	0	0	0	0	0	0
0	0	0	0	0	0	0	0	0	0	0	0	0	0	0	0	0	0	0	0	0	0	0	0	0	0	0	0	0	0	0	0	0	0	0	0	0	0	0	0	0	0	0	0	0	0	0	0	0	0	0	0	0	0	0	0	0	1723	1732	1732	1732	1732	1741	1741	1741	1759	1768	1777	1795	1804	1814	1814	1824	1824	1833	1833	1843	1843	1843	0	0	0	4521	4521	4521	4521	4521	4521	4581	4521	4581	4521	4521	4463	4463	4463	4521	4521	4521	4643	4643	4581	4581	4581	4643	4581	4643	4643	4643	4643	4706	4643	4643	4643	4643	4643	4581	4581	4521	4581	4581	4643	4643	4643	4643	4643	4643	4643	4643	4643	4643	4643	4643	4643	4643	4581	4643	4643	4643	4643	4706	4706	4706	4706	4643	4643	4643	4643	4643	4643	4706	4643	4706	4706	4706	4706	4706	4706	4706	4706	4706	4706	4706	4706	4706	4706	4706	4706	4706	4706	4706	4706	4706	4706	4706	4706	4706	4706	4706	4706	4706	4706	4706	4706	4706	4706	4706	4706	4706	4771	4771	4706	4706	4706	4706	4706	4706	4771	4771	4771	4771	4771	4771	4771	4771	4771	4771	4838	4771	4771	4771	4771	4771	4771	4706	4706	4706	4706	4706	4771	4771	4771	4771	4771	4771	4771	4771	4838	3309	3309	3309	3309	3309	3309	3277	3277	3246	3246	3246	3246	3246	3246	3246	3246	3246	3216	3246	3246	3246	3246	3246	3246	3246	3216	3216	3216	3216	3216	3216	3216	3216	3216	3216	3216	3216	3216	3216	3216	3216	3216	3216	3216	3216	3216	3216	3216	3246	3216	3216	3216	3216	3216	3216	3216	3246	3246	3246	3246	3246	3246	3246	3246	3246	3246	3246	3246	3277	3277	3277	3277	3277	3277	3309	3309	3309	4706	4771	4771	4643	4643	4581	4581	4581	4581	4581	4643	4581	4643	4643	4706	4706	4771	4771	4838	4838	4838	4838	4906	4838	4771	4771	4706	4706	4706	4643	4581	4643	4643	4581	4581	4521	4581	4581	4581	4643	4706	4706	4706	4771	4706	4706	4581	4643	4581	4581	4521	4521	4581	4643	4581	4643	4581	4581	4581	4521	4521	4521	4463	4406	4350	4350	4350	4350	4350	4350	4350	4350	4350	4350	4350	4350	4350	4350	4350	4350	4350	4350	0	0	0	0	0	0	0	0	0	0	0	0	0	0	0	0	0	0	0	0	0	0	0	0	0	0	0	0	0	0	0	0	0	0	0	0	0	0	0	0	0	560	560	560	558	557	557	556	556	556	0	0	0	0	0	0	0	0	0	0	555	555	555	555	556	556	557	557	557	558	558	558	559	558	559	559	560	560	0	0	0	0	0	0	0	0	0	0	0	0	0	0	0	0	0	0	0	0	0	0	0	0	0	0	0	0	0	0	0	0	0	0	0	0	0	0	0	0	0	0	0	0	0	0	0	0	0	0	0	0	0	0	0	0	0	0	0	0	0	0	0	0	0	0	0	0	0	0	0	0	0	0	0	0	0	0	0	0	0	0	0	0	0	0	0	0	0	0	0	0	0	0	0	0	0	0	0	0	0	0	0	0	0	0	0	0	0	0	0	0	0	0	0	0	0	0	0	0	0	0	0	0	0	0	0	0	0	0	0	0	0	0	0	0	0	0	0	0	0	0	0	0	0	0	0	0	0	0	0	0	0	0	0	0	0	0	0	0	0	0	0	0	0	0	0	0	0	0	0	0	0	0	0
0	0	0	0	0	0	0	0	0	0	0	0	0	0	0	0	0	0	0	0	0	0	0	0	0	0	0	0	0	0	0	0	0	0	0	0	0	0	0	0	0	0	0	0	0	0	0	0	0	0	0	0	0	0	0	0	1723	1723	1723	1732	1732	1741	1741	1741	1750	1759	1768	1777	1786	1795	1804	1804	1814	1824	1824	1833	1833	1833	1863	1843	1843	0	4521	4521	4521	4643	4643	4643	4581	4643	4643	4581	4643	4521	4643	4521	4521	4521	4521	4643	4643	4581	4581	4643	4643	4643	4643	4643	4643	4643	4706	4643	4643	4643	4581	4581	4581	4521	4521	4581	4581	4581	4643	4643	4643	4643	4706	4706	4643	4643	4643	4643	4643	4643	4643	4581	4581	4643	4643	4643	4643	4643	4643	4643	4706	4643	4643	4643	4643	4706	4706	4706	4706	4706	4706	4706	4706	4706	4706	4706	4706	4706	4706	4706	4706	4706	4706	4706	4706	4706	4706	4706	4706	4706	4706	4706	4706	4706	4706	4706	4706	4706	4706	4706	4706	4706	4706	4706	4706	4706	4771	4706	4706	4706	4706	4706	4706	4771	4771	4771	4771	4771	4771	4771	4771	4771	4771	4771	4771	4771	4771	4771	4771	4706	4706	4706	4706	4706	4706	4771	4771	4771	4771	4771	4771	4771	4771	4771	3309	3309	3309	3309	3309	3277	3277	3277	3277	3246	3246	3246	3246	3246	3216	3246	3216	3216	3216	3246	3246	3246	3246	3216	3216	3216	3216	3216	3216	3216	3216	3216	3216	3216	3246	3216	3216	3216	3216	3216	3216	3216	3216	3216	3216	3216	3216	3216	3216	3216	3216	3216	3216	3186	3216	3216	3216	3216	3216	3216	3216	3246	3246	3216	3246	3246	3246	3246	3277	3277	3277	3277	3309	3277	3341	3341	3341	4706	4706	4706	4706	4643	4581	4581	4581	4581	4581	4581	4581	4581	4581	4643	4706	4771	4771	4838	4838	4838	4838	4838	4771	4706	4643	4581	4581	4581	4521	4581	4581	4581	4521	4521	4521	4581	4581	4521	4581	4581	4643	4643	4643	4643	4643	4521	4643	4581	4581	4581	4521	4581	4643	4643	4581	4581	4581	4581	4581	4521	4521	4463	4406	4350	4350	4350	4350	4350	4350	4350	4350	4350	4350	4350	4350	4350	4350	4350	4350	4350	4350	4350	0	0	0	0	0	0	0	0	0	0	0	0	0	0	0	0	0	0	0	0	0	0	0	0	0	0	0	0	0	0	0	0	0	0	0	0	0	0	0	0	0	560	560	558	557	557	556	557	557	0	0	0	0	0	0	0	0	0	0	0	555	555	555	555	556	557	557	557	558	558	558	558	559	559	560	561	561	561	0	0	0	0	0	0	0	0	0	0	0	0	0	0	0	0	0	0	0	0	0	0	0	0	0	0	0	0	0	0	0	0	0	0	0	0	0	0	0	0	0	0	0	0	0	0	0	0	0	0	0	0	0	0	0	0	0	0	0	0	0	0	0	0	0	0	0	0	0	0	0	0	0	0	0	0	0	0	0	0	0	0	0	0	0	0	0	0	0	0	0	0	0	0	0	0	0	0	0	0	0	0	0	0	0	0	0	0	0	0	0	0	0	0	0	0	0	0	0	0	0	0	0	0	0	0	0	0	0	0	0	0	0	0	0	0	0	0	0	0	0	0	0	0	0	0	0	0	0	0	0	0	0	0	0	0	0	0	0	0	0	0	0	0	0	0	0	0	0	0	0	0	0	0
0	0	0	0	0	0	0	0	0	0	0	0	0	0	0	0	0	0	0	0	0	0	0	0	0	0	0	0	0	0	0	0	0	0	0	0	0	0	0	0	0	0	0	0	0	0	0	0	0	0	0	0	0	0	0	0	1715	1715	1723	1723	1723	1732	1741	1741	1750	1759	1768	1777	1777	1795	1795	1804	1814	1824	1833	1843	1833	1863	1863	1843	1843	0	4521	4521	4581	4643	4643	4643	4581	4643	4581	4581	4581	4581	4581	4581	4581	4581	4643	4643	4643	4643	4581	4643	4643	4643	4643	4643	4643	4643	4643	4643	4643	4643	4581	4581	4581	4581	4581	4581	4581	4643	4643	4643	4643	4643	4643	4706	4706	4643	4643	4643	4643	4581	4581	4581	4581	4581	4581	4581	4643	4706	4706	4706	4706	4706	4706	4706	4643	4706	4706	4706	4706	4706	4706	4706	4706	4706	4706	4706	4706	4706	4706	4706	4706	4706	4706	4706	4706	4706	4706	4706	4706	4706	4706	4706	4706	4706	4706	4706	4706	4706	4706	4706	4706	4706	4706	4706	4706	4771	4771	4706	4771	4706	4706	4706	4706	4706	4771	4706	4771	4771	4706	4771	4771	4771	4771	4771	4771	4771	4771	4771	4771	4706	4706	4706	4706	4706	4706	4771	4771	4771	4771	4771	4771	4771	4771	3309	3309	3309	3309	3277	3277	3277	3277	3277	3277	3246	3246	3246	3246	3246	3246	3246	3216	3216	3216	3246	3246	3246	3216	3216	3216	3216	3216	3186	3216	3216	3216	3216	3216	3216	3246	3216	3216	3216	3216	3216	3216	3216	3216	3216	3216	3216	3216	3216	3216	3216	3216	3216	3216	3186	3216	3216	3216	3216	3216	3216	3216	3216	3216	3216	3216	3246	3246	3246	3277	3277	3277	3277	3309	3341	3341	3341	3341	3341	4643	4706	4643	4643	4643	4581	4581	4581	4581	4581	4581	4581	4581	4643	4643	4706	4706	4771	4771	4771	4771	4771	4706	4643	4581	4581	4521	4581	4521	4521	4521	4521	4521	4521	4521	4581	4581	4581	4521	4521	4521	4521	4521	4581	4521	4521	4581	4581	4581	4581	4581	4581	4643	4643	4643	4581	4581	4581	4521	4521	4463	4463	4406	4406	4406	4350	4350	4350	4350	4350	4406	4350	4350	4350	4350	4350	4350	4350	4350	4350	4350	4350	0	0	0	0	0	0	0	0	0	0	0	0	0	0	0	0	0	0	0	0	0	0	0	0	0	0	0	0	0	0	0	0	0	0	0	0	0	0	0	0	0	0	0	0	0	0	0	557	557	0	0	0	0	0	0	0	0	0	0	0	0	555	555	555	556	557	557	557	558	558	558	558	559	559	560	560	561	561	561	561	561	0	0	0	0	0	0	0	0	0	0	0	0	0	0	0	0	0	0	0	0	0	0	0	0	0	0	0	0	0	0	0	0	0	0	0	0	0	0	0	0	0	0	0	0	0	0	0	0	0	0	0	0	0	0	0	0	0	0	0	0	0	0	0	0	0	0	0	0	0	0	0	0	0	0	0	0	0	0	0	0	0	0	0	0	0	0	0	0	0	0	0	0	0	0	0	0	0	0	0	0	0	0	0	0	0	0	0	0	0	0	0	0	0	0	0	0	0	0	0	0	0	0	0	0	0	0	0	0	0	0	0	0	0	0	0	0	0	0	0	0	0	0	0	0	0	0	0	0	0	0	0	0	0	0	0	0	0	0	0	0	0	0	0	0	0	0	0	0	0	0	0
0	0	0	0	0	0	0	0	0	0	0	0	0	0	0	0	0	0	0	0	0	0	0	0	0	0	0	0	0	0	0	0	0	0	0	0	0	0	0	0	0	0	0	0	0	0	0	0	0	0	0	0	0	0	0	0	1715	1706	1706	1723	1732	1741	1750	1750	1759	1768	1768	1777	1786	1795	1795	1804	1814	1824	1833	1833	1833	1843	1863	1853	1853	1853	0	0	4581	4643	4643	4643	4581	4643	4581	4581	4581	4581	4581	4643	4581	4643	4643	4643	4643	4643	4581	4581	4581	4581	4581	4581	4581	4581	4643	4643	4643	4643	4643	4643	4581	4581	4581	4581	4581	4581	4643	4643	4643	4643	4643	4706	4706	4706	4643	4643	4643	4581	4581	4581	4581	4581	4581	4581	4643	4706	4706	4706	4706	4706	4706	4643	4643	4643	4643	4643	4643	4643	4706	4706	4706	4706	4706	4706	4706	4706	4706	4706	4706	4706	4706	4706	4706	4706	4706	4706	4706	4706	4706	4706	4706	4706	4706	4706	4706	4706	4706	4706	4706	4706	4706	4706	4771	4771	4771	4706	4706	4706	4706	4706	4706	4706	4771	4771	4771	4771	4771	4771	4771	4771	4771	4771	4771	4771	4771	4771	4771	4771	4706	4706	4706	4706	4706	4771	4771	4706	4771	4771	4771	4771	4771	3309	3309	3309	3309	3309	3309	3277	3277	3246	3246	3246	3246	3216	3246	3216	3216	3216	3216	3216	3216	3216	3216	3216	3216	3216	3216	3216	3186	3186	3186	3216	3216	3216	3216	3186	3186	3216	3216	3216	3216	3216	3216	3216	3216	3216	3186	3216	3216	3216	3216	3186	3186	3186	3186	3186	3186	3186	3216	3216	3216	3216	3216	3216	3216	3216	3216	3246	3246	3246	3277	3277	3277	3309	3341	3341	3341	3341	3341	3341	4581	4581	4581	4581	4581	4581	4581	4581	4581	4581	4581	4581	4581	4581	4643	4771	4771	4771	4771	4771	4771	4771	4643	4581	4581	4581	4521	4521	4521	4521	4521	4521	4521	4521	4521	4521	4521	4521	4581	4521	4521	4521	4521	4521	4521	4521	4521	4581	4581	4581	4581	4581	4581	4706	4643	4581	4581	4581	4521	4521	4463	4463	4406	4406	4406	4406	4350	4350	4350	4350	4350	4350	4350	4350	4350	4350	4350	4350	4350	4350	4350	4350	4350	0	0	0	0	0	0	0	0	0	0	0	0	0	0	0	0	0	0	0	0	0	0	0	0	0	0	0	0	0	0	0	0	0	0	0	0	0	0	0	0	0	0	0	0	0	0	557	557	0	0	0	0	0	0	0	0	0	0	0	0	554	555	555	555	556	557	557	557	557	557	558	559	560	560	560	560	560	561	561	561	0	0	0	0	0	0	0	0	0	0	0	0	0	0	0	0	0	0	0	0	0	0	0	0	0	0	0	0	0	0	0	0	0	0	0	0	0	0	0	0	0	0	0	0	0	0	0	0	0	0	0	0	0	0	0	0	0	0	0	0	0	0	0	0	0	0	0	0	0	0	0	0	0	0	0	0	0	0	0	0	0	0	0	0	0	0	0	0	0	0	0	0	0	0	0	0	0	0	0	0	0	0	0	0	0	0	0	0	0	0	0	0	0	0	0	0	0	0	0	0	0	0	0	0	0	0	0	0	0	0	0	0	0	0	0	0	0	0	0	0	0	0	0	0	0	0	0	0	0	0	0	0	0	0	0	0	0	0	0	0	0	0	0	0	0	0	0	0	0	0	0
0	0	0	0	0	0	0	0	0	0	0	0	0	0	0	0	0	0	0	0	0	0	0	0	0	0	0	0	0	0	0	0	0	0	0	0	0	0	0	0	0	0	0	0	0	0	0	0	0	0	0	0	0	0	0	0	1715	1698	1715	1723	1732	1741	1750	1759	1759	1777	1777	1777	1786	1795	1795	1814	1814	1824	1833	1833	1833	1843	1843	1863	1853	1853	1853	0	0	4643	4643	4643	4581	4581	4581	4581	4581	4581	4581	4581	4581	4581	4643	4643	4643	4581	4581	4581	4581	4581	4581	4581	4581	4581	4643	4643	4643	4643	4643	4643	4643	4581	4581	4581	4581	4643	4643	4643	4643	4706	4706	4706	4706	4706	4706	4706	4643	4643	4643	4581	4581	4581	4643	4643	4706	4706	4706	4706	4706	4706	4706	4706	4706	4706	4706	4643	4706	4643	4706	4706	4706	4706	4706	4706	4706	4706	4706	4706	4706	4706	4706	4706	4706	4706	4706	4706	4706	4706	4706	4706	4706	4706	4706	4706	4706	4706	4706	4706	4706	4706	4706	4706	4706	4771	4771	4771	4706	4706	4706	4706	4706	4706	4706	4706	4771	4771	4771	4706	4771	4706	4706	4771	4771	4771	4771	4771	4706	4771	4706	4706	4706	4706	4706	4771	4771	4706	4706	4771	4771	4771	4771	3309	3309	3309	3309	3309	3277	3277	3277	3246	3246	3246	3246	3216	3216	3216	3216	3216	3216	3216	3216	3216	3216	3216	3216	3216	3186	3186	3186	3186	3186	3216	3216	3216	3216	3186	3186	3216	3216	3216	3216	3216	3216	3216	3216	3216	3216	3216	3216	3216	3216	3216	3216	3216	3216	3216	3216	3216	3216	3216	3216	3216	3216	3216	3216	3216	3246	3246	3246	3277	3277	3277	3309	3309	3341	3341	3341	3341	3309	3341	3341	4643	4581	4581	4581	4581	4581	4581	4581	4581	4581	4581	4581	4581	4643	4643	4706	4771	4771	4706	4706	4581	4581	4581	4521	4521	4521	4521	4521	4521	4521	4521	4521	4521	4521	4521	4521	4521	4521	4521	4521	4521	4521	4581	4521	4521	4581	4581	4581	4581	4521	4581	4581	4581	4581	4581	4581	4521	4521	4521	4463	4463	4406	4406	4406	4350	4350	4350	4350	4350	4350	4350	4350	4350	4350	4350	4350	4350	4350	4350	4350	4350	4350	4350	4350	0	0	0	0	0	0	0	0	0	0	0	0	0	0	0	0	0	0	0	0	0	0	0	0	0	0	0	0	0	0	0	0	0	0	0	0	0	0	0	0	0	0	0	0	0	0	0	0	0	0	0	0	0	0	0	0	0	0	554	554	555	555	556	557	557	557	557	557	558	558	559	559	560	560	560	560	560	560	564	564	0	0	0	0	0	0	0	0	0	0	0	0	0	0	0	0	0	0	0	0	0	0	0	0	0	0	0	0	0	0	0	0	0	0	0	0	0	0	0	0	0	0	0	0	0	0	0	0	0	0	0	0	0	0	0	0	0	0	0	0	0	0	0	0	0	0	0	0	0	0	0	0	0	0	0	0	0	0	0	0	0	0	0	0	0	0	0	0	0	0	0	0	0	0	0	0	0	0	0	0	0	0	0	0	0	0	0	0	0	0	0	0	0	0	0	0	0	0	0	0	0	0	0	0	0	0	0	0	0	0	0	0	0	0	0	0	0	0	0	0	0	0	0	0	0	0	0	0	0	0	0	0	0	0	0	0	0	0	0	0	0	0	0	0	0	0	0	0	0
0	0	0	0	0	0	0	0	0	0	0	0	0	0	0	0	0	0	0	0	0	0	0	0	0	0	0	0	0	0	0	0	0	0	0	0	0	0	0	0	0	0	0	0	0	0	0	0	0	0	0	0	0	0	0	0	0	1698	1715	1723	1732	1750	1750	1759	1759	1777	1777	1777	1786	1786	1795	1814	1814	1824	1833	1833	1843	1843	1853	1853	1853	1853	1853	0	0	0	4643	4643	4581	4581	4581	4581	4581	4581	4581	4581	4581	4581	4581	4581	4581	4581	4581	4581	4581	4581	4581	4581	4581	4581	4581	4581	4643	4643	4643	4643	4643	4581	4581	4581	4643	4643	4643	4643	4706	4706	4706	4706	4706	4706	4706	4643	4643	4643	4643	4643	4581	4643	4643	4581	4706	4706	4706	4706	4706	4706	4706	4706	4706	4706	4706	4706	4643	4643	4706	4706	4706	4706	4706	4706	4706	4706	4706	4706	4706	4706	4706	4706	4706	4706	4706	4706	4706	4643	4643	4643	4643	4706	4706	4706	4706	4706	4706	4706	4706	4706	4706	4706	4706	4771	4771	4771	4771	4706	4706	4706	4706	4706	4706	4706	4706	4771	4706	4706	4706	4706	4706	4771	4771	4771	4771	4771	4706	4771	4706	4706	4706	4706	4706	4771	4771	4771	4771	4771	4706	4706	4706	4706	3309	3309	3309	3277	3277	3277	3277	3246	3246	3216	3216	3216	3216	3216	3216	3216	3216	3216	3216	3216	3186	3186	3186	3216	3186	3186	3186	3186	3186	3186	3186	3186	3216	3186	3186	3216	3216	3216	3216	3186	3216	3186	3216	3216	3186	3186	3216	3216	3216	3216	3216	3216	3216	3216	3216	3216	3216	3216	3216	3216	3216	3216	3216	3216	3246	3246	3246	3277	3277	3277	3277	3309	3309	3341	3341	3341	3341	3341	3341	4521	4521	4581	4581	4643	4643	4581	4581	4581	4581	4581	4581	4581	4643	4643	4706	4771	4771	4771	4771	4581	4581	4581	4581	4521	4521	4521	4521	4521	4521	4521	4521	4521	4521	4521	4521	4521	4521	4521	4521	4521	4581	4581	4521	4581	4581	4581	4581	4581	4521	4581	4581	4581	4581	4581	4521	4521	4521	4463	4463	4463	4406	4406	4406	4350	4350	4350	4350	4350	4350	4350	4350	4350	4350	4350	4350	4350	4350	4350	4350	4350	4406	4406	4406	0	0	0	0	0	0	0	0	0	0	0	0	0	0	0	0	0	0	0	0	0	0	0	0	0	0	0	0	0	0	0	0	0	0	0	0	0	0	0	0	0	0	0	0	0	0	0	0	0	0	0	0	0	0	0	0	0	0	0	554	554	555	556	557	557	557	557	557	557	557	557	560	560	560	561	560	560	560	563	563	0	0	0	0	0	0	0	0	0	0	0	0	0	0	0	0	0	0	0	0	0	0	0	0	0	0	0	0	0	0	0	0	0	0	0	0	0	0	0	0	0	0	0	0	0	0	0	0	0	0	0	0	0	0	0	0	0	0	0	0	0	0	0	0	0	0	0	0	0	0	0	0	0	0	0	0	0	0	0	0	0	0	0	0	0	0	0	0	0	0	0	0	0	0	0	0	0	0	0	0	0	0	0	0	0	0	0	0	0	0	0	0	0	0	0	0	0	0	0	0	0	0	0	0	0	0	0	0	0	0	0	0	0	0	0	0	0	0	0	0	0	0	0	0	0	0	0	0	0	0	0	0	0	0	0	0	0	0	0	0	0	0	0	0	0	0	0	0	0
0	0	0	0	0	0	0	0	0	0	0	0	0	0	0	0	0	0	0	0	0	0	0	0	0	0	0	0	0	0	0	0	0	0	0	0	0	0	0	0	0	0	0	0	0	0	0	0	0	0	0	0	0	0	0	0	0	0	0	1715	1723	1750	1750	1759	1768	1768	1777	1777	1777	1786	1795	1814	1814	1824	1833	1833	1843	1843	1853	1853	1853	1853	1853	0	0	0	4643	4581	4643	4581	4581	4581	4581	4581	4581	4581	4581	4581	4581	4581	4581	4581	4581	4581	4581	4581	4581	4581	4581	4581	4581	4643	4581	4643	4643	4643	4581	4581	4581	4581	4581	4643	4643	4643	4706	4706	4706	4706	4706	4706	4706	4706	4643	4643	4643	4643	4643	4643	4643	4643	4706	4706	4706	4706	4706	4706	4706	4706	4706	4706	4706	4706	4643	4643	4643	4643	4706	4706	4706	4706	4706	4706	4706	4706	4706	4643	4706	4706	4706	4706	4643	4706	4706	4643	4706	4706	4706	4706	4706	4706	4706	4706	4706	4706	4706	4706	4706	4706	4706	4771	4771	4771	4771	4706	4706	4706	4706	4706	4706	4706	4706	4771	4706	4706	4706	4706	4706	4706	4706	4771	4771	4771	4706	4706	4706	4706	4706	4706	4706	4706	4706	4706	4706	4706	4706	4706	3309	3309	3309	3309	3309	3277	3277	3277	3277	3246	3246	3246	3216	3216	3246	3216	3216	3216	3216	3216	3216	3216	3186	3186	3186	3186	3186	3186	3186	3186	3186	3186	3186	3186	3186	3216	3216	3216	3216	3216	3216	3216	3216	3216	3216	3216	3186	3186	3186	3186	3216	3216	3216	3216	3216	3216	3216	3216	3186	3186	3216	3216	3216	3216	3216	3216	3246	3246	3246	3246	3277	3277	3277	3309	3341	3341	3341	3341	3341	3341	3341	4521	4521	4581	4581	4643	4643	4643	4581	4581	4581	4581	4581	4581	4581	4581	4643	4706	4771	4706	4643	4581	4643	4581	4581	4581	4581	4581	4521	4521	4521	4521	4521	4521	4521	4521	4521	4581	4581	4521	4521	4581	4581	4581	4581	4581	4581	4581	4581	4581	0	0	0	4581	4581	4581	4521	4521	4521	4463	4463	4406	4406	4406	4406	4406	4350	4350	4350	4350	4350	4350	4350	4350	4350	4350	4350	4350	4350	4350	4350	4406	4406	4406	4350	4350	0	0	0	0	0	0	0	0	0	0	0	0	0	0	0	0	0	0	0	0	0	0	0	0	0	0	0	0	0	0	0	0	0	0	0	0	0	0	0	0	0	0	0	0	0	0	0	0	0	0	0	0	0	0	0	0	0	0	0	556	556	556	558	557	557	557	557	557	558	560	559	559	559	560	560	560	561	560	560	0	0	0	0	0	0	0	0	0	0	0	0	0	0	0	0	0	0	0	0	0	0	0	0	0	0	0	0	0	0	0	0	0	0	0	0	0	0	0	0	0	0	0	0	0	0	0	0	0	0	0	0	0	0	0	0	0	0	0	0	0	0	0	0	0	0	0	0	0	0	0	0	0	0	0	0	0	0	0	0	0	0	0	0	0	0	0	0	0	0	0	0	0	0	0	0	0	0	0	0	0	0	0	0	0	0	0	0	0	0	0	0	0	0	0	0	0	0	0	0	0	0	0	0	0	0	0	0	0	0	0	0	0	0	0	0	0	0	0	0	0	0	0	0	0	0	0	0	0	0	0	0	0	0	0	0	0	0	0	0	0	0	0	0	0	0	0	0	0
0	0	0	0	0	0	0	0	0	0	0	0	0	0	0	0	0	0	0	0	0	0	0	0	0	0	0	0	0	0	0	0	0	0	0	0	0	0	0	0	0	0	0	0	0	0	0	0	0	0	0	0	0	0	0	0	0	0	0	1715	1723	1741	1750	1759	1759	1768	1777	1777	1786	1786	1795	1814	1814	1824	1824	1833	1833	1843	1853	1853	1863	1863	1863	0	0	0	4643	4643	4643	4581	4581	4581	4581	4581	4581	4581	4581	4581	4581	4581	4581	4581	4581	4581	4581	4581	4581	4581	4581	4581	4581	4643	4643	4581	4643	4643	4643	4643	4643	4643	4643	4643	4643	4643	4706	4706	4706	4643	4643	4643	4643	4643	4643	4643	4643	4643	4643	4706	4643	4706	4706	4706	4706	4706	4706	4706	4706	4706	4706	4643	4643	4706	4643	4643	4706	4706	4706	4706	4706	4706	4706	4706	4706	4706	4706	4643	4706	4706	4643	4706	4643	4706	4706	4643	4706	4706	4706	4706	4706	4706	4706	4706	4706	4706	4706	4706	4706	4706	4706	4771	4771	4771	4771	4706	4706	4706	4706	4706	4706	4706	4771	4771	4706	4706	4706	4706	4706	4706	4706	4706	4771	4771	4706	4706	4706	4706	4706	4771	4706	4771	4706	4706	4706	4706	4706	4706	3309	3309	3309	3309	3277	3277	3277	3277	3277	3246	3246	3216	3246	3216	3216	3216	3216	3216	3216	3216	3216	3216	3186	3186	3186	3216	3216	3186	3186	3186	3186	3186	3186	3186	3186	3186	3216	3216	3216	3216	3216	3216	3216	3216	3216	3216	3186	3186	3186	3186	3186	3186	3186	3186	3216	3216	3216	3216	3186	3186	3216	3216	3246	3246	3216	3246	3246	3277	3277	3277	3246	3246	3277	3277	3341	3341	3341	3341	3341	3341	3341	4521	4521	4581	4581	4581	4643	4581	4643	4581	4581	4581	4581	4581	4581	4581	4643	4706	4771	4706	4581	4581	4581	4581	4581	4581	4581	4581	4581	4521	4521	4521	4521	4521	4521	4521	4521	4581	4581	4521	4521	4521	4581	4581	4521	4521	4521	4521	4521	0	0	0	0	0	4521	4521	4521	4463	4521	4463	4463	4406	4406	4350	4350	4350	4350	4350	4350	4350	4350	4350	4350	4350	4350	4350	4350	4350	4350	4350	4350	4350	4406	4406	4406	4350	4350	0	0	0	0	0	0	0	0	0	0	0	0	0	0	0	0	0	0	0	0	0	0	0	0	0	0	0	0	0	0	0	0	0	0	0	0	0	0	0	0	0	0	0	0	0	0	0	0	0	0	0	0	0	0	0	0	0	556	556	556	556	557	557	558	558	558	558	558	559	559	560	560	560	560	560	560	561	561	0	0	0	0	0	0	0	0	0	0	0	0	0	0	0	0	0	0	0	0	0	0	0	0	0	0	0	0	0	0	0	0	0	0	0	0	0	0	0	0	0	0	0	0	0	0	0	0	0	0	0	0	0	0	0	0	0	0	0	0	0	0	0	0	0	0	0	0	0	0	0	0	0	0	0	0	0	0	0	0	0	0	0	0	0	0	0	0	0	0	0	0	0	0	0	0	0	0	0	0	0	0	0	0	0	0	0	0	0	0	0	0	0	0	0	0	0	0	0	0	0	0	0	0	0	0	0	0	0	0	0	0	0	0	0	0	0	0	0	0	0	0	0	0	0	0	0	0	0	0	0	0	0	0	0	0	0	0	0	0	0	0	0	0	0	0	0	0	0
0	0	0	0	0	0	0	0	0	0	0	0	0	0	0	0	0	0	0	0	0	0	0	0	0	0	0	0	0	0	0	0	0	0	0	0	0	0	0	0	0	0	0	0	0	0	0	0	0	0	0	0	0	0	0	0	0	0	0	0	0	1759	1768	1759	1759	1777	1786	1777	1786	1795	1795	1814	1814	1824	1824	1833	1833	1843	1873	1863	1894	1904	1904	1904	0	0	4643	4643	4643	4643	4581	4581	4581	4581	4581	4581	4581	4581	4581	4581	4581	4581	4581	4581	4581	4581	4581	4581	4581	4581	4581	4581	4643	4581	4643	4643	4643	4643	4643	4643	4643	4706	4643	4706	4706	4706	4706	4706	4643	4643	4643	4643	4643	4643	4643	4643	4643	4643	4643	4643	4706	4706	4643	4643	4706	4706	4706	4706	4706	4643	4643	4706	4643	4643	4706	4706	4706	4706	4706	4706	4706	4706	4706	4706	4643	4643	4643	4706	4643	4706	4643	4706	4706	4643	4706	4706	4706	4706	4706	4706	4706	4706	4706	4706	4706	4706	4706	4706	4706	4771	4771	4771	4771	4706	4706	4706	4706	4706	4706	4706	4771	4771	4706	4706	4706	4706	4706	4706	4706	4706	4706	4706	4706	4706	4706	4706	4706	4706	4706	4771	4706	4706	4706	4706	4643	4643	3309	3309	3309	3309	3277	3277	3277	3277	3277	3246	3246	3216	3246	3216	3216	3216	3216	3216	3216	3216	3216	3186	3186	3186	3157	3186	3186	3186	3186	3186	3186	3186	3186	3186	3186	3186	3186	3186	3216	3216	3216	3216	3216	3216	3216	3216	3186	3186	3186	3186	3186	3186	3186	3186	3186	3216	3216	3216	3186	3186	3186	3216	3246	3246	3246	3246	3246	3277	3277	3277	3277	3277	3277	3309	3341	3341	3341	3341	3341	3373	3373	4581	4581	4581	4581	4581	4581	4643	4581	4581	4581	4581	4581	4581	4581	4581	4643	4706	4706	4706	4581	4581	4581	4581	4581	4521	4581	4581	4521	4521	4521	4521	4521	4521	4521	4521	4521	4581	4581	4581	4581	4521	4581	4581	4521	4581	4521	4521	4521	0	0	0	0	0	4521	4521	4463	4521	4521	4463	4463	4463	4406	4350	4350	4350	4350	4350	4350	4350	4350	4350	4350	4350	4350	4350	4350	4350	4350	4350	4350	4406	4406	4406	4406	4406	4406	4406	0	0	0	0	0	0	0	0	0	0	0	0	0	0	0	0	0	0	0	0	0	0	0	0	0	0	0	0	0	0	0	0	0	0	0	0	0	0	0	0	0	0	0	0	0	0	0	0	0	0	0	0	557	557	0	0	556	556	556	558	558	557	557	557	559	559	559	559	560	560	560	560	560	560	560	560	560	560	560	560	560	0	0	0	0	0	0	0	0	0	0	0	0	0	0	0	0	0	0	0	0	0	0	0	0	0	0	0	0	0	0	0	0	0	0	0	0	0	0	0	0	0	0	0	0	0	0	0	0	0	0	0	0	0	0	0	0	0	0	0	0	0	0	0	0	0	0	0	0	0	0	0	0	0	0	0	0	0	0	0	0	0	0	0	0	0	0	0	0	0	0	0	0	0	0	0	0	0	0	0	0	0	0	0	0	0	0	0	0	0	0	0	0	0	0	0	0	0	0	0	0	0	0	0	0	0	0	0	0	0	0	0	0	0	0	0	0	0	0	0	0	0	0	0	0	0	0	0	0	0	0	0	0	0	0	0	0	0	0	0	0	0	0	0	0	0
0	0	0	0	0	0	0	0	0	0	0	0	0	0	0	0	0	0	0	0	0	0	0	0	0	0	0	0	0	0	0	0	0	0	0	0	0	0	0	0	0	0	0	0	0	0	0	0	0	0	0	0	0	0	0	0	0	0	0	0	1759	1759	1759	1768	1759	1768	1786	1786	1786	1795	1804	1814	1824	1824	1824	1833	1843	1843	1863	1873	1904	1904	1925	1936	1936	0	0	4643	4643	4581	4521	4521	4581	4521	4581	4581	4581	4581	4581	4521	4581	4521	4521	4521	4521	4521	4521	4581	4581	4581	4581	4581	4643	4581	4643	4581	4643	4643	4643	4643	4706	4643	4643	4643	4706	4643	4643	4706	4643	4643	4643	4643	4643	4581	4643	4581	4581	4643	4643	4706	4706	4643	4643	4643	4643	4643	4706	4706	4706	4643	4643	4706	4643	4643	4706	4706	4706	4706	4706	4706	4706	4706	4706	4706	4706	4706	4706	4643	4643	4643	4706	4706	4706	4706	4706	4706	4706	4706	4706	4706	4771	4771	4706	4706	4706	4706	4706	4706	4706	4771	4771	4706	4706	4706	4706	4706	4706	4643	4706	4643	4706	4706	4706	4706	4706	4771	4706	4706	4706	4706	4706	4771	4706	4706	4706	4706	4706	4706	4706	4706	4706	4706	4706	4643	4643	3309	3309	3309	3309	3309	3277	3277	3277	3277	3277	3246	3246	3246	3246	3216	3216	3216	3216	3216	3216	3186	3186	3186	3186	3186	3186	3186	3186	3186	3186	3186	3186	3186	3186	3186	3186	3186	3186	3186	3186	3186	3216	3186	3216	3216	3216	3216	3186	3186	3186	3186	3186	3186	3186	3186	3216	3216	3216	3216	3186	3186	3216	3216	3246	3246	3246	3246	3246	3277	3277	3277	3277	3277	3277	3277	3341	3341	3341	3341	3341	3373	3373	4581	4581	4581	4581	4581	4643	4643	4643	4643	4643	4581	4581	4581	4581	4581	4643	4643	4521	4521	4521	4521	4581	4581	4581	4581	4581	4581	4521	4521	4521	4521	4521	4521	4521	4521	4521	4581	4521	4581	4581	4581	4581	4581	4581	4581	4521	4521	4521	4521	4521	0	0	0	0	4521	4521	4521	4463	4463	4463	4406	4406	4350	4350	4350	4350	4350	4350	4350	4350	4350	4350	4350	4350	4350	4350	4350	4350	4350	4350	4406	4406	4463	4406	4406	4350	4350	4350	4350	0	0	0	0	0	0	0	0	0	0	0	0	0	0	0	0	0	0	0	0	0	0	0	0	0	0	0	0	0	0	0	0	0	0	0	0	0	0	0	0	0	0	0	0	0	0	0	0	0	0	557	556	556	556	557	556	556	556	557	557	557	557	559	560	560	560	560	560	560	560	560	557	557	557	557	557	560	560	560	0	0	0	0	0	0	0	0	0	0	0	0	0	0	0	0	0	0	0	0	0	0	0	0	0	0	0	0	0	0	0	0	0	0	0	0	0	0	0	0	0	0	0	0	0	0	0	0	0	0	0	0	0	0	0	0	0	0	0	0	0	0	0	0	0	0	0	0	0	0	0	0	0	0	0	0	0	0	0	0	0	0	0	0	0	0	0	0	0	0	0	0	0	0	0	0	0	0	0	0	0	0	0	0	0	0	0	0	0	0	0	0	0	0	0	0	0	0	0	0	0	0	0	0	0	0	0	0	0	0	0	0	0	0	0	0	0	0	0	0	0	0	0	0	0	0	0	0	0	0	0	0	0	0	0	0	0	0	0	0	0	0	0	0	0
0	0	0	0	0	0	0	0	0	0	0	0	0	0	0	0	0	0	0	0	0	0	0	0	0	0	0	0	0	0	0	0	0	0	0	0	0	0	0	0	0	0	0	0	0	0	0	0	0	0	0	0	0	0	0	0	0	0	0	1750	1759	1759	1759	1759	1768	1768	1777	1786	1795	1795	1814	1814	1824	1824	1824	1833	1843	1853	1863	1873	1894	1904	1925	1936	1947	1958	1958	0	4643	4581	4521	4521	4521	4581	4581	4581	4581	4581	4581	4521	4581	4521	4521	4521	4521	4521	4521	4521	4581	4581	4521	4581	4643	4581	4581	4581	4643	4643	4643	4643	4706	4643	4643	4643	4643	4643	4643	4643	4643	4643	4581	4643	4581	4581	4643	4643	4643	4643	4643	4643	4643	4643	4581	4581	4643	4643	4706	4706	4706	4643	4706	4706	4706	4643	4706	4706	4706	4706	4706	4706	4706	4706	4706	4706	4643	4706	4706	4706	4643	4643	4706	4706	4706	4706	4706	4706	4706	4706	4706	4706	4706	4706	4706	4706	4706	4706	4706	4706	4706	4706	4706	4706	4706	4706	4706	4706	4706	4706	4706	4643	4706	4706	4706	4706	4706	4706	4706	4706	4706	4706	4706	4706	4706	4706	4706	4706	4771	4771	4706	4706	4643	4706	4643	4643	3309	3309	3309	3309	3309	3309	3277	3277	3277	3277	3277	3277	3246	3246	3246	3246	3246	3216	3216	3216	3216	3186	3186	3186	3186	3186	3186	3186	3186	3186	3186	3186	3186	3186	3186	3186	3186	3186	3186	3186	3186	3186	3186	3186	3186	3186	3186	3186	3186	3186	3157	3157	3186	3186	3186	3186	3186	3216	3186	3216	3186	3186	3216	3246	3246	3246	3246	3246	3246	3277	3277	3277	3246	3277	3277	3277	3341	3341	3341	3341	3341	3341	3341	4581	4581	4581	4581	4581	4643	4643	4643	4643	4643	4581	4581	4581	4581	4581	4581	4581	4581	4463	4463	4463	4521	4521	4581	4521	4521	4521	4521	4521	4521	4521	4521	4463	4463	4521	4521	4521	4521	4521	4521	4521	4581	4581	4581	4521	4521	4521	4521	4521	4521	0	0	0	4521	4521	4521	4521	4463	4463	4463	4406	4406	4350	4350	4350	4350	4350	4350	4350	4350	4350	4350	4350	4350	4350	4350	4350	4350	4350	4406	4406	4406	4406	4406	4350	4350	4350	4350	4350	4350	4350	0	0	0	0	0	0	0	0	0	0	0	0	0	0	0	0	0	0	0	0	0	0	0	0	0	0	0	0	0	0	0	0	0	0	0	0	0	0	0	0	0	0	0	0	0	0	0	0	557	556	557	557	557	557	557	557	557	557	557	0	0	560	560	559	560	560	560	560	560	557	557	557	557	556	560	560	559	559	0	0	0	0	0	0	0	0	0	0	0	0	0	0	0	0	0	0	0	0	0	0	0	0	0	0	0	0	0	0	0	0	0	0	0	0	0	0	0	0	0	0	0	0	0	0	0	0	0	0	0	0	0	0	0	0	0	0	0	0	0	0	0	0	0	0	0	0	0	0	0	0	0	0	0	0	0	0	0	0	0	0	0	0	0	0	0	0	0	0	0	0	0	0	0	0	0	0	0	0	0	0	0	0	0	0	0	0	0	0	0	0	0	0	0	0	0	0	0	0	0	0	0	0	0	0	0	0	0	0	0	0	0	0	0	0	0	0	0	0	0	0	0	0	0	0	0	0	0	0	0	0	0	0	0	0	0	0	0	0	0	0	0	0
0	0	0	0	0	0	0	0	0	0	0	0	0	0	0	0	0	0	0	0	0	0	0	0	0	0	0	0	0	0	0	0	0	0	0	0	0	0	0	0	0	0	0	0	0	0	0	0	0	0	0	0	0	0	0	0	0	0	0	1750	1759	1759	1759	1768	1759	1759	1768	1786	1795	1804	1814	1824	1824	1824	1833	1833	1833	1853	1863	1873	1883	1904	1936	1936	1947	1958	1958	0	0	0	4521	4521	4521	4521	4581	4521	4521	4521	4581	4521	4521	4521	4581	4521	4521	4521	4581	4581	4643	4581	4581	4643	4643	4581	4521	4521	4521	4581	4581	4643	4643	4643	4643	4643	4643	4643	4643	4643	4643	4581	4581	4581	4581	4581	4643	4643	4643	4643	4643	4643	4643	4581	4581	4581	4643	4643	4643	4643	4643	4643	4643	4706	4643	4706	4706	4771	4771	4771	4706	4706	4706	4706	4706	4643	4643	4706	4643	4643	4643	4643	4706	4706	4706	4706	4706	4706	4706	4706	4706	4706	4706	4706	4706	4706	4706	4706	4706	4706	4706	4706	4706	4706	4706	4706	4706	4706	4706	4706	4706	4643	4706	4643	4706	4706	4706	4706	4706	4706	4706	4706	4771	4706	4706	4771	4706	4771	4706	4771	4706	4706	4643	4706	4643	4581	3309	3309	3309	3309	3309	3309	3277	3277	3277	3277	3277	3277	3246	3246	3246	3246	3246	3216	3216	3216	3216	3186	3186	3186	3186	3186	3186	3186	3186	3186	3186	3186	3186	3186	3186	3186	3186	3186	3186	3186	3186	3186	3186	3186	3186	3186	3186	3186	3186	3157	3157	3157	3157	3186	3186	3186	3186	3186	3186	3186	3186	3186	3216	3216	3246	3246	3246	3246	3246	3246	3246	3246	3246	3246	3277	3277	3341	3341	3341	3341	3341	3341	3341	3341	4581	4581	4581	4581	4643	4643	4643	4643	4643	4643	4643	4643	4581	4581	4581	4581	4581	4463	4463	4463	4463	4521	4521	4521	4521	4521	4521	4521	4521	4521	4521	4463	4463	4463	4463	4521	4521	4521	4521	4521	4581	4581	4581	4521	4521	4521	4521	4521	4521	0	4463	4463	4521	4521	4521	4521	4521	4463	4463	4463	4406	4350	4350	4350	4350	4350	4350	4350	4350	4350	4350	4350	4350	4350	4350	4350	4350	4350	4406	4406	4406	4406	4406	4350	4350	4350	4350	4350	4350	4350	4350	0	0	0	0	0	0	0	0	0	0	0	0	0	0	0	0	0	0	0	0	0	0	0	0	0	0	0	0	0	0	0	0	0	0	0	0	0	0	0	0	0	0	0	0	0	0	0	0	0	557	557	557	556	556	556	556	556	556	0	0	0	0	560	560	560	560	560	559	559	557	557	557	558	559	560	560	559	0	0	0	0	0	0	0	0	0	0	0	0	0	0	0	0	0	0	0	0	0	0	0	0	0	0	0	0	0	0	0	0	0	0	0	0	0	0	0	0	0	0	0	0	0	0	0	0	0	0	0	0	0	0	0	0	0	0	0	0	0	0	0	0	0	0	0	0	0	0	0	0	0	0	0	0	0	0	0	0	0	0	0	0	0	0	0	0	0	0	0	0	0	0	0	0	0	0	0	0	0	0	0	0	0	0	0	0	0	0	0	0	0	0	0	0	0	0	0	0	0	0	0	0	0	0	0	0	0	0	0	0	0	0	0	0	0	0	0	0	0	0	0	0	0	0	0	0	0	0	0	0	0	0	0	0	0	0	0	0	0	0	0	0
0	0	0	0	0	0	0	0	0	0	0	0	0	0	0	0	0	0	0	0	0	0	0	0	0	0	0	0	0	0	0	0	0	0	0	0	0	0	0	0	0	0	0	0	0	0	0	0	0	0	0	0	0	0	0	0	0	0	1750	1741	1741	1750	1759	1750	1750	1759	1759	1777	1786	1795	1814	1824	1824	1824	1833	1833	1833	1843	1873	1873	1894	1915	1936	1936	1947	1969	1969	0	0	0	4463	4463	4521	4521	4581	4521	4521	4521	4581	4521	4581	4521	4581	4521	4521	4521	4581	4581	4581	4643	4643	4643	4643	4581	4521	4521	4581	4581	4581	4581	4643	4643	4643	4643	4643	4643	4643	4643	4643	4581	4581	4581	4581	4581	4643	4643	4643	4643	4643	4643	4581	4581	4581	4581	4521	4581	4581	4643	4643	4643	4643	4706	4706	4706	4706	4771	4771	4771	4771	4706	4706	4706	4706	4643	4643	4643	4643	4643	4643	4643	4706	4706	4706	4706	4706	4706	4706	4706	4706	4706	4706	4706	4706	4706	4706	4706	4706	4706	4706	4706	4706	4706	4706	4706	4706	4706	4706	4706	4706	4643	4706	4643	4706	4706	4706	4771	4706	4706	4706	4706	4771	4706	4706	4706	4706	4771	4706	4706	4706	4706	4643	4643	4581	4521	3277	3309	3309	3277	3309	3309	3277	3277	3277	3277	3277	3277	3277	3246	3246	3246	3246	3216	3216	3216	3216	3186	3186	3186	3186	3186	3186	3186	3186	3186	3186	3186	3186	3186	3186	3186	3186	3186	3186	3157	3186	3157	3157	3157	3157	3157	3157	3157	3157	3157	3157	3157	3157	3157	3186	3186	3186	3186	3186	3186	3186	3186	3186	3216	3216	3246	3246	3246	3246	3246	3246	3246	3277	3277	3277	3277	3309	3309	3341	3341	3341	3341	3341	3341	4581	4581	4581	4581	4581	4643	4643	4643	4643	4643	4643	4643	4581	4581	4581	4581	4463	4463	4463	4406	4463	4521	4521	4521	4521	4521	4521	4521	4521	4521	4521	4463	4463	4521	4463	4521	4463	4521	4521	4521	4521	4581	4581	4521	4521	4521	4521	4521	4521	4350	4350	4463	4463	4521	4463	4521	4463	4463	4463	4406	4406	4350	4350	4406	4350	4350	4350	4350	4350	4350	4350	4350	4350	4296	4350	4350	4350	4350	4350	4350	4406	4406	4406	4350	4350	4350	4350	4350	4350	4350	4350	0	0	0	0	0	0	0	0	0	0	0	0	0	0	0	0	0	0	0	0	0	0	0	0	0	0	0	0	0	0	0	0	0	0	0	0	0	0	0	0	0	0	0	0	0	0	0	0	557	557	557	557	556	557	556	556	556	556	0	0	0	0	560	560	560	560	559	558	558	557	557	557	559	560	560	560	0	0	0	0	0	0	0	0	0	0	0	0	0	0	0	0	0	0	0	0	0	0	0	0	0	0	0	0	0	0	0	0	0	0	0	0	0	0	0	0	0	0	0	0	0	0	0	0	0	0	0	0	0	0	0	0	0	0	0	0	0	0	0	0	0	0	0	0	0	0	0	0	0	0	0	0	0	0	0	0	0	0	0	0	0	0	0	0	0	0	0	0	0	0	0	0	0	0	0	0	0	0	0	0	0	0	0	0	0	0	0	0	0	0	0	0	0	0	0	0	0	0	0	0	0	0	0	0	0	0	0	0	0	0	0	0	0	0	0	0	0	0	0	0	0	0	0	0	0	0	0	0	0	0	0	0	0	0	0	0	0	0	0	0	0
