0	0	0	0	0	0	0	0	0	0	0	0	1512	1519	1519	1525	1525	1532	1532	1539	1546	1553	1560	1560	1567	1567	1574	1581	1589	1589	1596	1603	1618	1618	1665	1673	1673	1673	1681	1690	1698	1698	1706	1715	1715	1723	1723	1723	1723	1732	1741	1741	1741	1750	1750	1759	1768	1777	1777	1786	1786	1804	1814	1814	1843	1843	1853	1853	0	0	0	0	0	0	0	0	0	0	0	0	2443	2460	2443	2443	2443	2443	2443	2460	2460	2460	2460	2478	2478	2496	2496	2496	2496	2496	2496	2496	2496	2478	2478	2478	2478	2478	2496	2478	2478	2496	2478	2478	2478	2478	2478	2478	2496	2496	2496	2496	2478	2478	2478	2478	2478	2478	2478	2478	2478	2478	2460	2443	2443	2443	0	3475	3440	3440	3406	3406	3406	3406	3373	3406	3406	3406	3373	3373	3406	3406	3406	3406	3440	3440	3440	3440	3406	3406	3406	3406	3406	3406	3373	3373	3373	3373	3373	3373	3406	3406	3406	3440	3440	3510	3475	3475	3475	3510	3510	3546	3510	3546	3546	3546	3583	3583	3583	3546	3583	3583	3546	3546	3546	3546	3546	3546	3546	3546	3546	3583	3583	3583	3583	3583	3583	3583	3583	3583	3583	3583	3583	3583	3546	3546	3546	3546	3546	3546	3546	3546	3583	3583	3583	3583	3583	3583	3583	3583	3583	3583	3583	3583	3583	3546	3546	3546	3546	2777	2777	2754	2754	2754	2754	2754	2733	2733	2733	2711	2711	2711	2690	2690	2690	2690	2690	2690	2690	2690	2690	2690	2690	2669	2669	2669	2669	2669	2669	2690	2669	2669	2669	2669	2669	2669	2669	2669	2669	2669	2669	2669	2669	2649	2649	2649	2649	2649	2649	2649	2649	2669	2669	2669	2669	2669	2669	2669	2669	2669	2669	2669	2669	2669	2669	2669	2669	2669	2669	2690	2669	2669	2669	2669	2669	2669	2690	2690	2690	0	0	0	0	0	0	0	2777	2777	2777	2777	2777	2777	2777	2777	2777	2777	3621	3621	3621	3621	3621	3621	3583	3621	3583	3583	3583	3583	3583	3621	3583	3583	3583	3583	3583	3583	3583	3583	3583	3583	3583	3583	3583	3583	3583	3583	3583	3583	3583	3621	3621	3621	3621	3621	3621	3621	3621	3621	3621	3621	3621	3621	3621	3621	3621	3621	3621	3621	3621	3621	3621	3621	3621	3621	3621	3621	3621	3621	3621	3621	3621	3621	3621	3621	3621	3621	3621	3621	3621	3621	3621	3621	3621	3621	3621	3621	3621	3621	3621	3621	3621	3621	3621	3621	3621	3621	3583	3583	3621	3583	3583	3583	3583	3583	3583	3583	3583	3583	3621	3621	3621	3583	3583	3583	3583	3583	3583	3583	3583	3583	3583	3583	3583	3583	3583	3583	3583	3583	3583	3583	3583	3583	3583	3583	3583	3583	3583	3583	3583	3583	3583	3583	3583	3583	0	0	2266	2252	2237	2237	2223	2223	2208	2208	2194	2181	2167	2153	2140	2140	2114	2101	2088	2076	2063	2063	2051	2039	2039	2015	2015	2003	1992	1980	1969	1958	1958	1947	1936	1925	1915	1904	1904	1904	1894	1894	1883	1873	1873	1853	1843	1843	1833	1814	1814	1814	1804	1795	1777	1777	1768	1759	1750	1741	1741	1732	1732	1723	1706	1706	1698	1690	1681	1673	1673	1665	1657	1657	1641	1634	1634	1634	1618	1611	1603	1603	1603	1596	1589	1581	1574	1560	1553	1546	1546	1539	1532	1532	1525	1519	1512	1506	1506	1499	1492	1486	1480	1480	1480	1473	1473	1473	1473	1480	1480	1480	1492	1499	1506	1506	1512	1506	1512	1512	1512	1506	1512	1512	1512	1512	1512	1512	1512	0	0	0	0	0	0	0	0	0	0	0	0	0	0	0	0	0	0	0	0	0	0	0	0	0	0	0	0	0	0	0	0	0	0	0	0	0	0	0
0	0	0	0	0	0	0	0	0	0	0	0	1519	1519	1519	1525	1525	1532	1532	1539	1546	1553	1560	1560	1567	1574	1574	1581	1589	1596	1603	1611	1618	1618	1665	1673	1673	1665	1673	1681	1690	1698	1706	1715	1715	1723	1723	1723	1723	1732	1732	1732	1741	1750	1759	1768	1777	1777	1786	1795	1795	1804	1814	1824	1833	1843	1843	1843	1843	1853	1853	0	0	0	0	0	0	0	0	0	2460	2478	2460	2460	2460	2443	2443	2443	2443	2460	2460	2478	2478	2496	2496	2496	2496	2496	2496	2496	2478	2478	2478	2478	2478	2478	2478	2478	2478	2496	2478	2478	2478	2478	2460	2460	2478	2496	2496	2478	2478	2460	2460	2478	2478	2478	2478	2496	2496	2460	2460	2460	2443	3475	3510	3475	3440	3440	3440	3440	3440	3440	3440	3440	3475	3440	3440	3440	3475	3510	3475	3440	3475	3475	3475	3440	3440	3440	3440	3440	3440	3440	3406	3406	3406	3440	3440	3440	3406	3440	3475	3475	3440	3510	3510	3510	3475	3475	3510	3510	3510	3546	3546	3546	3546	3583	3583	3546	3546	3546	3583	3546	3546	3546	3546	3546	3546	3546	3583	3583	3583	3583	3583	3583	3583	3583	3583	3583	3583	3583	3583	3583	3546	3546	3546	3546	3546	3546	3546	3583	3583	3583	3583	3583	3583	3583	3583	3583	3583	3583	3583	3583	3583	3546	3546	3546	3546	3546	2754	2754	2754	2754	2754	2754	2733	2733	2733	2711	2711	2711	2690	2690	2690	2711	2690	2690	2690	2690	2690	2690	2669	2669	2669	2669	2669	2669	2669	2690	2669	2669	2669	2669	2669	2669	2669	2669	2669	2669	2669	2669	2669	2669	2649	2669	2649	2649	2649	2649	2669	2669	2669	2669	2669	2669	2669	2649	2649	2649	2669	2669	2669	2669	2669	2669	2669	2669	2669	2690	2669	2669	2669	2669	2669	2669	2669	2669	0	0	0	0	0	0	0	0	0	2777	2777	2777	2777	2754	2754	2777	2754	2777	2777	3621	3621	3621	3621	3621	3583	3621	3583	3583	3583	3583	3583	3621	3583	3583	3583	3583	3583	3583	3583	3583	3583	3583	3583	3583	3583	3583	3583	3583	3583	3621	3583	3621	3621	3621	3621	3621	3621	3621	3621	3621	3621	3621	3621	3621	3621	3621	3621	3621	3621	3583	3621	3621	3583	3583	3583	3621	3621	3621	3621	3621	3621	3621	3621	3621	3621	3621	3621	3621	3621	3621	3621	3621	3621	3621	3621	3621	3621	3621	3621	3621	3621	3621	3621	3621	3583	3621	3621	3583	3583	3583	3583	3583	3583	3583	3583	3583	3583	3583	3583	3621	3621	3621	3621	3583	3583	3583	3583	3583	3583	3583	3583	3583	3583	3583	3583	3583	3583	3583	3583	3583	3583	3583	3583	3583	3583	3583	3583	3583	3583	3583	3583	3583	3583	3583	3583	3583	0	0	0	2252	2252	2237	2237	2223	2208	2194	2181	2167	2167	2153	2140	2140	2127	2101	2088	2076	2063	2051	2039	2039	2027	2027	2003	2003	1992	1980	1969	1958	1958	1947	1936	1925	1915	1904	1904	1904	1894	1894	1883	1883	1873	1853	1843	1843	1824	1814	1814	1804	1804	1795	1795	1768	1759	1759	1750	1741	1741	1732	1732	1723	1706	1706	1698	1690	1681	1673	1665	1665	1657	1649	1641	1634	1634	1626	1618	1611	1603	1603	1603	1596	1596	1581	1567	1553	1553	1546	1546	1539	1532	1532	1525	1519	1512	1506	1506	1499	1492	1486	1480	1480	1480	1473	1473	1473	1473	1473	1480	1480	1492	1499	1506	1506	1512	1506	1506	1512	1512	1512	1506	1512	1512	1512	1512	1512	1512	0	0	0	0	0	0	0	0	0	0	0	0	0	0	0	0	0	0	0	0	0	0	0	0	0	0	0	0	0	0	0	0	0	0	0	0	0	0	0
0	0	0	0	0	0	0	0	0	0	0	0	1519	1519	1519	1525	1525	1532	1532	1539	1546	1560	1560	1560	1567	1574	1574	1581	1589	1596	1603	1603	1611	1618	1665	1665	1665	1657	1665	1673	1681	1690	1698	1706	1706	1715	1715	1723	1723	1723	1723	1715	1723	1741	1759	1768	1777	1786	1795	1804	1795	1814	1814	1824	1833	1843	1853	1843	1853	1853	1863	1863	1863	0	0	0	0	0	0	0	2460	2460	2460	2460	2443	2443	2443	2443	2443	2443	2460	2460	2478	2478	2496	2496	2496	2478	2478	2478	2478	2478	2478	2478	2478	2478	2478	2478	2478	2496	2478	2478	2478	2478	2460	2460	2460	2478	2478	2478	2460	2460	2478	2478	2460	2478	2478	2496	2496	2496	2478	2496	2496	3475	3510	3475	3475	3440	3440	3440	3475	3440	3440	3475	3510	3475	3475	3510	3510	3510	3510	3510	3510	3510	3510	3510	3475	3475	3475	3475	3475	3475	3475	3440	3440	3440	3440	3440	3475	3475	3475	3475	3475	3510	3510	3510	3475	3510	3510	3510	3510	3546	3546	3546	3546	3546	3546	3546	3583	3583	3546	3546	3546	3546	3546	3546	3546	3546	3583	3583	3583	3583	3583	3583	3583	3583	3583	3583	3583	3583	3583	3583	3583	3546	3546	3546	3546	3546	3546	3583	3583	3583	3583	3583	3583	3583	3583	3583	3583	3583	3583	3583	3583	3546	3546	3546	3546	2777	2754	2754	2754	2733	2733	2733	2733	2733	2733	2733	2733	2711	2711	2711	2690	2690	2690	2690	2690	2690	2669	2669	2669	2669	2669	2669	2669	2669	2669	2669	2669	2669	2669	2669	2669	2669	2669	2669	2669	2669	2669	2669	2669	2669	2669	2669	2669	2669	2649	2649	2649	2669	2669	2669	2649	2649	2649	2649	2649	2649	2669	2669	2669	2669	2669	2669	2669	2669	2669	2669	2669	2669	2669	2669	2669	2669	2690	2690	0	0	0	0	0	0	0	0	0	2777	2777	2777	2777	2777	2754	2777	2754	2777	2777	3621	3621	3621	3621	3583	3583	3583	3583	3583	3583	3583	3583	3583	3583	3583	3583	3583	3621	3621	3583	3583	3583	3583	3583	3621	3583	3583	3583	3583	3583	3583	3583	3621	3621	3621	3621	3621	3621	3621	3621	3621	3621	3621	3621	3621	3621	3621	3621	3621	3621	3583	3621	3621	3583	3621	3621	3621	3621	3621	3621	3621	3621	3621	3621	3621	3621	3621	3621	3621	3621	3621	3621	3621	3621	3621	3621	3621	3621	3621	3621	3621	3621	3621	3621	3583	3583	3583	3583	3583	3583	3583	3583	3583	3583	3583	3583	3583	3583	3583	3583	3583	3621	3621	3621	3583	3583	3583	3583	3583	3583	3583	3583	3583	3583	3583	3583	3583	3583	3583	3583	3583	3583	3583	3583	3583	3621	3583	3583	3583	3583	3583	3583	3583	3583	3583	3583	3583	3583	0	0	2252	2237	2237	2223	2223	2208	2194	2181	2167	2167	2153	2153	2140	2127	2101	2088	2076	2063	2063	2051	2039	2027	2027	2003	2003	1992	1980	1969	1958	1958	1947	1936	1925	1915	1904	1904	1904	1894	1894	1883	1883	1873	1853	1853	1843	1833	1814	1814	1804	1804	1795	1786	1777	1768	1759	1759	1741	1741	1732	1732	1723	1706	1706	1698	1690	1681	1673	1673	1665	1657	1657	1641	1634	1634	1626	1618	1611	1603	1603	1603	1596	1596	1589	1574	1560	1553	1546	1546	1539	1532	1532	1525	1525	1512	1506	1499	1499	1492	1486	1486	1480	1480	1473	1473	1473	1473	1473	1473	1480	1492	1499	1499	1512	1512	1512	1512	1512	1512	1512	1512	1512	1512	1512	1512	1512	1512	0	0	0	0	0	0	0	0	0	0	0	0	0	0	0	0	0	0	0	0	0	0	0	0	0	0	0	0	0	0	0	0	0	0	0	0	0	0	0
0	0	0	0	0	0	0	0	0	0	0	0	1519	1519	1519	1525	1525	1532	1539	1546	1553	1553	1553	1560	1567	1574	1574	1581	1596	1596	1596	1603	1611	1611	1626	1641	1649	1649	1649	1649	1665	1681	1698	1698	1706	1715	1715	1715	1715	1715	1723	1723	1723	1768	1768	1777	1786	1786	1795	1804	1804	1814	1814	1824	1833	1843	1853	1843	1853	1853	1863	1863	1863	1863	0	0	0	0	0	0	2460	2460	2460	2460	2443	2443	2443	2443	2443	2443	2460	2460	2460	2478	2496	2496	2496	2478	2478	2478	2478	2478	2478	2478	2478	2460	2478	2478	2460	2478	2478	2478	2478	2478	2460	2460	2478	2478	2478	2460	2460	2460	2460	2478	2460	2478	2478	2496	2496	2514	2496	2514	2514	0	3510	3510	3510	3475	3475	3475	3475	3510	3510	3510	3510	3510	3510	3510	3546	3546	3546	3510	3510	3510	3510	3510	3510	3510	3510	3510	3510	3510	3510	3475	3475	3475	3475	3475	3475	3475	3475	3475	3475	3510	3510	3510	3510	3510	3510	3510	3510	3546	3546	3546	3546	3546	3583	3546	3583	3583	3546	3546	3546	3546	3546	3546	3546	3546	3583	3583	3583	3583	3583	3583	3583	3583	3583	3583	3583	3583	3583	3583	3583	3583	3583	3546	3546	3546	3546	3546	3546	3583	3583	3583	3583	3583	3583	3583	3583	3583	3583	3583	3583	3546	3546	3546	3546	3546	2754	2754	2754	2733	2733	2733	2711	2711	2711	2711	2711	2711	2690	2690	2690	2690	2690	2690	2690	2690	2669	2669	2669	2669	2669	2669	2669	2669	2669	2669	2669	2669	2669	2669	2669	2669	2669	2669	2669	2669	2669	2649	2669	2669	2669	2669	2669	2669	2669	2649	2669	2669	2669	2649	2649	2649	2649	2669	2669	2669	2669	2669	2669	2669	2669	2669	2669	2669	2669	2669	2669	2669	2669	2669	2669	2669	2690	2690	2690	0	0	0	0	0	0	0	0	0	2777	2777	2754	2754	2754	2754	2754	2754	2754	3621	3621	3621	3621	3583	3583	3583	3583	3583	3583	3583	3583	3621	3583	3583	3583	3583	3583	3621	3583	3583	3583	3583	3583	3621	3583	3583	3583	3583	3583	3583	3583	3583	3583	3583	3621	3621	3621	3621	3621	3621	3621	3621	3621	3621	3621	3621	3621	3621	3621	3583	3621	3583	3621	3621	3621	3621	3621	3583	3621	3621	3583	3621	3621	3621	3621	3621	3621	3621	3621	3621	3621	3621	3621	3621	3621	3621	3621	3621	3621	3621	3621	3621	3621	3583	3583	3583	3583	3583	3583	3583	3583	3583	3583	3583	3583	3583	3583	3583	3583	3583	3583	3583	3583	3583	3583	3583	3583	3583	3583	3583	3583	3583	3583	3583	3583	3583	3583	3583	3583	3583	3583	3583	3583	3583	3583	3583	3583	3583	3583	3583	3583	3583	3583	3621	3621	3621	3621	3621	0	2252	2237	2237	2223	2223	2208	2194	2181	2181	2167	2153	2153	2140	2127	2101	2088	2076	2063	2063	2051	2039	2039	2027	2003	2003	2003	1992	1992	1969	1958	1947	1936	1925	1915	1904	1894	1904	1894	1894	1883	1883	1873	1853	1843	1843	1833	1814	1814	1804	1804	1795	1795	1777	1768	1759	1750	1741	1741	1732	1732	1723	1715	1706	1698	1690	1690	1681	1673	1665	1657	1657	1649	1634	1626	1626	1618	1611	1603	1603	1603	1596	1589	1589	1574	1560	1553	1546	1546	1539	1532	1532	1525	1525	1512	1506	1499	1499	1492	1486	1486	1480	1473	1473	1473	1473	1467	1467	1467	1480	1499	1499	1512	1519	1519	1519	1519	1512	1512	1512	1512	1512	1519	1512	1512	1512	1512	0	0	0	0	0	0	0	0	0	0	0	0	0	0	0	0	0	0	0	0	0	0	0	0	0	0	0	0	0	0	0	0	0	0	0	0	0	0	0
0	0	0	0	0	0	0	0	0	0	0	0	1519	1519	1519	1519	1525	1532	1539	1539	1553	1553	1553	1560	1567	1574	1581	1581	1596	1596	1596	1603	1603	1611	1618	1634	1649	1649	1649	1657	1657	1673	1690	1706	1706	1715	1715	1715	1715	1715	1715	1732	1732	1732	1768	1777	1786	1795	1795	1804	1795	1804	1814	1824	1843	1843	1853	1853	1853	1863	1863	1873	1873	1894	1894	1904	1904	1904	1904	0	2478	2478	2460	2460	2443	2443	2443	2443	2460	2460	2460	2460	2478	2478	2478	2478	2478	2478	2478	2478	2478	2478	2460	2478	2478	2460	2460	2478	2460	2478	2478	2478	2478	2478	2460	2460	2460	2478	2478	2460	2460	2460	2460	2478	2460	2478	2478	2496	2496	2514	2496	2514	2514	0	3510	3510	3510	3510	3510	3510	3510	3546	3510	3510	3510	3510	3510	3510	3546	3546	3546	3510	3510	3546	3510	3510	3475	3475	3510	3510	3510	3510	3510	3510	3546	3546	3510	3510	3510	3510	3510	3475	3475	3510	3510	3510	3510	3510	3510	3510	3546	3546	3546	3546	3546	3546	3583	3546	3583	3583	3583	3546	3583	3583	3546	3546	3546	3583	3583	3583	3583	3583	3583	3583	3583	3583	3583	3583	3583	3583	3583	3583	3583	3583	3583	3546	3546	3546	3546	3546	3546	3583	3583	3583	3583	3583	3583	3583	3583	3583	3583	3583	3583	3546	3546	3546	3546	3546	2754	2754	2754	2733	2733	2711	2711	2711	2711	2711	2711	2711	2711	2711	2690	2690	2690	2690	2690	2690	2669	2669	2669	2669	2669	2669	2669	2669	2669	2669	2669	2669	2669	2669	2669	2669	2669	2669	2669	2669	2649	2649	2669	2669	2669	2669	2669	2669	2669	2649	2649	2649	2649	2649	2649	2649	2649	2649	2669	2669	2669	2669	2669	2669	2669	2669	2669	2669	2669	2669	2669	2669	2669	2669	2669	2669	2669	2690	2690	0	0	0	0	0	0	0	0	2777	2777	2777	2754	2754	2754	2754	2754	2754	2754	3621	3621	3621	3621	3583	3583	3583	3583	3583	3583	3583	3583	3583	3583	3583	3583	3583	3621	3583	3583	3583	3583	3583	3583	3621	3583	3583	3583	3583	3583	3583	3583	3583	3583	3583	3583	3583	3621	3621	3621	3583	3621	3621	3621	3621	3621	3621	3621	3621	3621	3583	3583	3583	3621	3621	3621	3621	3621	3621	3621	3621	3621	3621	3621	3621	3621	3621	3621	3621	3621	3621	3621	3621	3583	3583	3621	3621	3621	3621	3621	3621	3621	3621	3621	3583	3583	3583	3583	3583	3583	3583	3583	3583	3583	3583	3583	3583	3583	3583	3583	3583	3621	3583	3583	3583	3583	3583	3583	3583	3583	3583	3583	3583	3583	3583	3583	3583	3583	3583	3583	3583	3583	3583	3621	3583	3621	3621	3583	3583	3583	3583	3583	3583	3583	3621	3621	3583	3621	3621	3621	2252	2237	2237	2223	2223	2208	2194	2181	2167	2167	2167	2153	2140	2127	2101	2088	2063	2063	2063	2051	2039	2039	2027	2015	2003	2003	1992	1980	1969	1958	1947	1936	1936	1915	1904	1904	1904	1894	1894	1883	1873	1873	1853	1843	1833	1824	1814	1814	1804	1804	1795	1795	1777	1768	1768	1759	1741	1741	1732	1732	1723	1706	1706	1698	1690	1690	1681	1673	1665	1665	1657	1649	1634	1626	1618	1618	1611	1603	1603	1596	1596	1589	1581	1574	1560	1553	1546	1546	1539	1532	1532	1525	1525	1512	1506	1499	1499	1492	1486	1480	1480	1473	1473	1473	1473	1467	1467	1473	1473	1492	1506	1512	1519	1519	1519	1519	1512	1519	1512	1512	1512	1519	1519	1512	1512	1512	0	0	0	0	0	0	0	0	0	0	0	0	0	0	0	0	0	0	0	0	0	0	0	0	0	0	0	0	0	0	0	0	0	0	0	0	0	0	0
0	0	0	0	0	0	0	0	0	0	0	0	1519	1519	1519	1525	1525	1532	1539	1546	1553	1560	1560	1560	1567	1567	1574	1581	1596	1603	1603	1603	1611	1611	1618	1634	1641	1649	1649	1649	1657	1673	1681	1681	1698	1706	1706	1706	1715	1715	1715	1741	1741	1777	1777	1786	1795	1804	1804	1814	1804	1814	1824	1824	1843	1843	1853	1853	1853	1863	1873	1873	1883	1894	1894	1904	1904	1904	1904	1904	2478	2496	2478	2478	2460	2443	2443	2443	2443	2443	2460	2460	2460	2478	2478	2478	2478	2478	2478	2478	2478	2478	2460	2478	2478	2460	2460	2478	2460	2478	2478	2478	2478	2478	2478	2478	2478	2478	2478	2478	2460	2460	2460	2478	2460	2478	2478	2496	2496	2514	2496	2496	2496	3510	3510	3546	3546	3510	3546	3510	3546	3546	3546	3546	3546	3510	3546	3546	3546	3546	3546	3546	3546	3546	3510	3510	3510	3510	3510	3510	3510	3510	3510	3546	3546	3546	3510	3510	3510	3510	3510	3510	3510	3546	3510	3510	3510	3510	3510	3510	3546	3546	3546	3546	3546	3546	3546	3546	3583	3583	3583	3546	3546	3583	3546	3546	3546	3546	3546	3583	3546	3546	3546	3583	3583	3583	3583	3583	3583	3583	3583	3583	3546	3546	3546	3546	3546	3546	3546	3546	3583	3583	3583	3583	3583	3583	3583	3583	3583	3583	3583	3583	3583	3546	3546	3546	3583	2754	2733	2733	2733	2711	2711	2711	2711	2711	2711	2711	2711	2711	2711	2711	2690	2690	2690	2690	2690	2690	2669	2669	2669	2669	2669	2669	2669	2669	2669	2669	2669	2669	2669	2669	2669	2669	2669	2669	2669	2649	2649	2649	2649	2649	2649	2649	2649	2669	2649	2649	2649	2649	2649	2649	2649	2649	2649	2649	2669	2669	2669	2669	2669	2669	2669	2669	2669	2669	2669	2669	2669	2669	2669	2669	2669	2669	2669	2690	2690	0	0	0	0	0	0	0	2777	2777	2777	2777	2754	2754	2754	2754	2754	2754	2754	3621	3621	3621	3583	3583	3583	3583	3583	3583	3583	3583	3583	3583	3583	3583	3583	3583	3621	3621	3583	3583	3583	3583	3583	3621	3583	3583	3583	3583	3583	3583	3583	3583	3583	3583	3583	3583	3583	3583	3583	3583	3621	3621	3621	3621	3621	3621	3621	3621	3583	3583	3583	3583	3583	3621	3621	3621	3621	3621	3621	3621	3621	3621	3621	3621	3621	3621	3621	3621	3621	3621	3621	3621	3583	3583	3621	3621	3621	3621	3621	3621	3621	3621	3621	3583	3583	3583	3583	3583	3583	3583	3583	3583	3583	3583	3583	3583	3583	3583	3583	3583	3583	3583	3583	3583	3583	3583	3583	3583	3583	3583	3583	3583	3583	3583	3583	3583	3583	3583	3583	3583	3583	3583	3621	3583	3583	3583	3583	3583	3583	3583	3583	3583	3583	3621	3583	3583	3583	3583	3621	2252	2237	2237	2223	2223	2223	2194	2181	2167	2167	2167	2153	2140	2127	2114	2088	2063	2063	2051	2051	2039	2039	2027	2003	2003	2003	1992	1980	1969	1958	1958	1947	1936	1915	1904	1904	1904	1894	1894	1883	1873	1863	1853	1843	1833	1824	1824	1814	1814	1804	1795	1795	1777	1768	1768	1750	1741	1741	1732	1723	1715	1706	1706	1698	1698	1690	1681	1673	1673	1665	1665	1649	1634	1626	1618	1618	1611	1603	1603	1596	1589	1589	1574	1567	1560	1553	1546	1539	1539	1525	1525	1525	1519	1512	1506	1499	1492	1492	1486	1480	1480	1473	1473	1473	1473	1467	1467	1473	1473	1480	1480	1512	1519	1519	1519	1519	1519	1512	1512	1512	1512	1512	1512	1512	1512	1512	0	0	0	0	0	0	0	0	0	0	0	0	0	0	0	0	0	0	0	0	0	0	0	0	0	0	0	0	0	0	0	0	0	0	0	0	0	0	0
0	0	0	0	0	0	0	0	0	0	0	0	1519	1519	1519	1519	1525	1532	1539	1546	1546	1560	1560	1560	1567	1574	1574	1589	1596	1603	1603	1603	1611	1611	1618	1626	1641	1641	1641	1649	1657	1665	1673	1690	1698	1706	1706	1706	1706	1715	1715	1715	1715	1777	1777	1795	1795	1804	1814	1814	1814	1814	1824	1833	1843	1853	1853	1853	1863	1863	1873	1883	1894	1894	1904	1904	1904	1915	1915	1915	1915	2496	2496	2478	2460	2443	2443	2443	2443	2443	2460	2460	2460	2460	2478	2478	2478	2460	2478	2478	2478	2478	2460	2460	2478	2460	2460	2478	2478	2496	2496	2478	2478	2478	2478	2478	2478	2478	2478	2478	2478	2460	2460	2460	2460	2478	2478	2496	2496	2514	2496	2514	2514	2514	3510	3546	3546	3546	3546	3510	3546	3546	3546	3546	3546	3546	3546	3546	3546	3546	3546	3546	3546	3546	3546	3546	3510	3510	3510	3510	3510	3510	3510	3510	3546	3510	3510	3510	3510	3510	3510	3510	3510	3510	3510	3546	3510	3510	3510	3546	3546	3546	3546	3546	3546	3546	3546	3546	3583	3583	3583	3583	3583	3583	3583	3546	3546	3583	3583	3583	3546	3546	3546	3583	3583	3583	3583	3583	3583	3583	3583	3583	3583	3583	3583	3546	3546	3546	3546	3583	3583	3583	3583	3583	3583	3583	3583	3583	3583	3583	3583	3583	3546	3546	3546	3546	3546	2754	2733	2733	2733	2711	2711	2711	2690	2711	2711	2711	2711	2690	2690	2690	2690	2690	2690	2690	2690	2690	2669	2669	2669	2669	2669	2669	2669	2669	2669	2669	2669	2669	2669	2669	2669	2669	2669	2669	2669	2649	2649	2649	2649	2649	2649	2649	2669	2669	2669	2649	2649	2649	2649	2649	2649	2649	2649	2649	2669	2669	2669	2669	2669	2669	2669	2669	2669	2669	2669	2669	2669	2669	2669	2669	2669	2669	2669	2690	2690	0	0	0	0	0	0	0	2777	2754	2754	2754	2754	2754	2754	2754	2733	2733	2733	3621	3621	3621	3583	3583	3583	3583	3583	3583	3583	3583	3583	3583	3583	3583	3583	3583	3621	3583	3583	3583	3583	3583	3583	3621	3583	3583	3583	3583	3583	3583	3583	3583	3583	3583	3583	3583	3583	3583	3583	3583	3621	3621	3621	3621	3621	3621	3583	3583	3583	3583	3583	3583	3583	3621	3621	3621	3621	3621	3621	3621	3621	3621	3621	3621	3621	3621	3621	3621	3621	3621	3621	3621	3621	3583	3621	3621	3621	3621	3621	3621	3621	3621	3621	3583	3583	3583	3583	3583	3583	3583	3583	3583	3583	3583	3583	3583	3583	3583	3583	3583	3583	3583	3583	3583	3583	3583	3583	3583	3583	3583	3583	3583	3583	3583	3583	3583	3583	3583	3583	3583	3583	3583	3583	3583	3583	3583	3583	3583	3583	3583	3583	3583	3583	3583	3583	3583	3583	3583	0	2252	2252	2237	2237	2223	2223	2194	2181	2167	2167	2167	2153	2140	2140	2114	2088	2076	2063	2063	2051	2039	2039	2027	2003	2003	2003	1980	1980	1969	1958	1947	1936	1936	1915	1904	1904	1904	1894	1894	1883	1873	1863	1853	1843	1833	1824	1824	1814	1814	1804	1804	1795	1777	1768	1759	1750	1741	1741	1732	1723	1715	1706	1706	1698	1698	1690	1681	1681	1673	1665	1665	1649	1634	1626	1618	1618	1611	1603	1603	1596	1589	1581	1581	1567	1560	1553	1546	1539	1539	1525	1525	1525	1519	1519	1506	1506	1492	1492	1486	1480	1480	1480	1480	1473	1473	1473	1467	1473	1473	1486	1506	1512	1512	1512	1512	1519	1512	1512	1512	1506	1506	1512	1512	1506	1512	1512	0	0	0	0	0	0	0	0	0	0	0	0	0	0	0	0	0	0	0	0	0	0	0	0	0	0	0	0	0	0	0	0	0	0	0	0	0	0	0
0	0	0	0	0	0	0	0	0	0	0	0	1519	1519	1519	1525	1525	1532	1539	1546	1553	1560	1560	1560	1567	1574	1581	1589	1596	1603	1603	1603	1611	1611	1618	1626	1634	1641	1641	1649	1657	1657	1673	1690	1698	1706	1706	1706	1706	1715	1715	1715	1723	1777	1777	1795	1795	1804	1814	1824	1824	1824	1824	1833	1853	1853	1853	1853	1863	1873	1883	1883	1894	1894	1904	1904	1915	1915	1925	1925	1925	0	2496	2478	2460	2460	2443	2443	2460	2460	2460	2460	2478	2478	2478	2478	2478	2478	2478	2478	2478	2478	2460	2460	2478	2460	2460	2478	2460	2478	2478	2478	2478	2478	2478	2478	2496	2478	2478	2478	2478	2460	2460	2460	2460	2478	2478	2496	2496	2514	2514	2514	2532	2532	3546	3546	3546	3546	3546	3546	3546	3546	3546	3546	3546	3546	3546	3546	3546	3546	3546	3546	3546	3546	3546	3546	3510	3510	3510	3510	3510	3546	3546	3546	3546	3510	3510	3510	3510	3510	3510	3475	3510	3510	3510	3510	3510	3510	3510	3510	3546	3546	3546	3546	3546	3546	3546	3546	3546	3583	3583	3583	3583	3583	3583	3583	3546	3583	3546	3546	3546	3546	3546	3546	3583	3546	3583	3583	3583	3583	3583	3583	3583	3583	3546	3546	3546	3546	3546	3546	3583	3583	3583	3583	3583	3583	3583	3583	3546	3583	3583	3583	3546	3546	3546	3583	3583	2733	2733	2711	2733	2711	2711	2690	2690	2690	2711	2690	2690	2690	2690	2690	2690	2690	2690	2669	2690	2669	2669	2669	2669	2669	2669	2669	2669	2669	2669	2669	2669	2669	2669	2669	2669	2669	2669	2669	2669	2649	2649	2649	2649	2649	2649	2649	2649	2649	2649	2649	2649	2649	2649	2649	2649	2649	2649	2649	2649	2649	2649	2669	2669	2669	2669	2669	2669	2669	2669	2669	2669	2669	2669	2669	2669	2669	2669	2690	2690	0	0	0	0	0	0	0	2777	2754	2754	2754	2754	2733	2733	2733	2733	2733	2733	3621	3621	3621	3583	3583	3583	3583	3583	3583	3583	3583	3583	3583	3583	3583	3583	3621	3621	3583	3583	3583	3583	3583	3583	3621	3583	3621	3583	3583	3583	3583	3583	3583	3583	3583	3583	3583	3583	3583	3583	3583	3621	3621	3621	3621	3621	3583	3583	3583	3583	3583	3583	3583	3621	3621	3621	3621	3621	3621	3621	3621	3621	3621	3621	3621	3621	3621	3621	3621	3621	3621	3621	3621	3621	3583	3621	3621	3621	3621	3621	3621	3621	3621	3621	3621	3621	3621	3621	3621	3621	3621	3621	3621	3621	3621	3583	3583	3583	3583	3583	3583	3583	3583	3583	3583	3583	3583	3583	3583	3583	3583	3583	3583	3583	3583	3583	3583	3583	3583	3583	3583	3583	3583	3583	3583	3583	3583	3583	3583	3583	3583	3583	3583	3583	3583	3583	3583	3583	3583	2266	2266	2252	2252	2237	2223	2223	2194	2181	2167	2167	2153	2153	2140	2140	2114	2088	2088	2076	2063	2051	2039	2039	2027	2015	2003	1992	1980	1980	1969	1958	1947	1936	1936	1915	1915	1904	1904	1894	1894	1883	1873	1863	1853	1843	1843	1824	1824	1824	1814	1814	1795	1786	1777	1768	1759	1750	1750	1741	1732	1723	1715	1706	1706	1698	1698	1690	1690	1681	1673	1665	1657	1649	1634	1626	1618	1618	1611	1603	1603	1596	1589	1581	1581	1567	1560	1553	1546	1539	1539	1532	1525	1525	1519	1519	1506	1499	1499	1492	1486	1486	1480	1480	1480	1480	1480	1473	1473	1473	1473	1492	1499	1499	1512	1512	1512	1512	1512	1512	1506	1506	1506	1506	1506	1506	1506	1506	0	0	0	0	0	0	0	0	0	0	0	0	0	0	0	0	0	0	0	0	0	0	0	0	0	0	0	0	0	0	0	0	0	0	0	0	0	0	0
0	0	0	0	0	0	0	0	0	0	0	0	1512	1519	1519	1525	1532	1532	1546	1553	1553	1553	1560	1560	1567	1567	1574	1589	1596	1596	1596	1596	1611	1611	1618	1626	1634	1641	1641	1649	1657	1665	1673	1690	1690	1698	1706	1706	1706	1715	1715	1723	1723	1777	1777	1786	1795	1804	1814	1824	1824	1824	1833	1843	1853	1853	1853	1863	1863	1873	1883	1894	1894	1904	1904	1904	1915	1915	1925	1925	1936	1947	1958	1958	2478	2460	2460	2460	2460	2460	2460	2478	2478	2478	2478	2478	2478	2478	2478	2478	2478	2460	2460	2460	2460	2460	2460	2460	2460	2478	2478	2478	2478	2478	2478	2478	2478	2496	2478	2478	2478	2478	2478	2478	2460	2478	2496	2496	2514	2514	2514	2514	2532	2532	3546	3583	3546	3546	3546	3546	3546	3546	3546	3546	3546	3546	3546	3546	3546	3546	3546	3546	3546	3546	3546	3546	3510	3510	3510	3510	3510	3510	3510	3510	3546	3510	3510	3510	3475	3510	3510	3510	3510	3510	3510	3510	3510	3510	3510	3546	3546	3546	3546	3546	3546	3546	3546	3546	3546	3546	3583	3583	3583	3583	3583	3583	3546	3546	3546	3546	3546	3546	3546	3546	3546	3546	3583	3583	3583	3583	3583	3583	3583	3583	3546	3546	3546	3583	3546	3583	3583	3583	3583	3583	3583	3583	3583	3583	3546	3546	3546	3546	3546	3546	3546	3583	3546	2733	2711	2711	2711	2690	2690	2690	2690	2690	2690	2690	2690	2690	2690	2690	2690	2690	2690	2669	2669	2669	2669	2669	2669	2669	2669	2669	2669	2669	2669	2669	2669	2669	2669	2669	2669	2669	2669	2669	2669	2649	2649	2649	2649	2649	2649	2649	2649	2649	2649	2649	2649	2649	2649	2649	2649	2649	2649	2649	2649	2649	2649	2649	2669	2669	2669	2669	2669	2669	2669	2669	2669	2669	2669	2669	2690	2690	2690	2711	2711	0	0	0	0	0	0	0	2754	2733	2733	2733	2733	2733	2733	2733	2733	2733	2733	3621	3621	3621	3583	3583	3583	3583	3583	3583	3583	3583	3583	3583	3583	3583	3583	3583	3583	3583	3583	3583	3583	3583	3583	3621	3583	3621	3621	3621	3621	3583	3583	3583	3583	3583	3583	3583	3583	3583	3583	3583	3621	3621	3621	3583	3583	3583	3583	3583	3583	3583	3583	3621	3621	3621	3621	3621	3621	3621	3621	3621	3621	3621	3621	3621	3621	3621	3621	3621	3621	3583	3621	3621	3583	3583	3621	3621	3621	3621	3621	3621	3621	3621	3621	3621	3621	3621	3621	3621	3621	3621	3621	3621	3621	3621	3621	3621	3621	3621	3583	3583	3583	3583	3583	3583	3583	3583	3583	3583	3583	3583	3583	3583	3583	3583	3583	3583	3583	3583	3583	3583	3583	3583	3583	3583	3583	3583	3546	3583	3583	3583	3583	3583	3583	3583	3583	3583	3583	3583	2281	2266	2266	2252	2223	2223	2223	2194	2181	2181	2167	2153	2153	2140	2140	2127	2101	2088	2076	2063	2051	2051	2039	2027	2015	2003	1992	1992	1980	1969	1958	1958	1936	1936	1915	1915	1904	1904	1894	1894	1883	1873	1863	1853	1843	1843	1824	1824	1814	1814	1804	1795	1786	1777	1768	1759	1750	1750	1741	1732	1723	1723	1706	1706	1698	1698	1690	1690	1681	1673	1665	1657	1649	1634	1634	1626	1618	1611	1603	1596	1589	1581	1581	1574	1567	1553	1553	1546	1539	1539	1525	1525	1525	1519	1519	1506	1499	1499	1492	1486	1486	1486	1480	1480	1473	1473	1473	1473	1473	1480	1480	1492	1506	1506	1512	1512	1512	1506	1506	1506	1506	1499	1499	1506	1499	1506	1506	0	0	0	0	0	0	0	0	0	0	0	0	0	0	0	0	0	0	0	0	0	0	0	0	0	0	0	0	0	0	0	0	0	0	0	0	0	0	0
0	0	0	0	0	0	0	0	0	0	0	0	1512	1519	1519	1525	1532	1539	1546	1546	1553	1553	1553	1560	1567	1567	1574	1589	1596	1596	1596	1603	1611	1611	1618	1626	1634	1634	1641	1649	1657	1665	1681	1681	1690	1698	1706	1706	1706	1715	1715	1715	1723	1768	1777	1786	1795	1804	1814	1824	1824	1824	1824	1824	1843	1853	1853	1853	1873	1873	1883	1894	1894	1904	1904	1904	1904	1915	1925	1936	1947	1958	1958	1980	1980	2460	2496	2460	2460	2460	2460	2478	2460	2478	2496	2496	2496	2478	2478	2478	2478	2460	2460	2443	2460	2443	2443	2460	2460	2460	2478	2478	2478	2478	2478	2478	2496	2496	2478	2478	2478	2478	2478	2478	2478	2478	2496	2514	2514	2514	2514	2514	2532	2532	3583	3583	3583	3546	3546	3546	3546	3546	3546	3546	3510	3510	3510	3510	3510	3546	3546	3546	3546	3546	3546	3546	3510	3510	3510	3510	3510	3510	3510	3510	3546	3510	3510	3510	3510	3510	3510	3510	3510	3510	3510	3510	3510	3510	3510	3510	3546	3546	3546	3546	3546	3546	3546	3546	3546	3546	3583	3583	3583	3583	3583	3583	3583	3546	3546	3546	3546	3546	3546	3546	3546	3546	3583	3583	3583	3583	3583	3583	3583	3583	3546	3546	3583	3583	3583	3583	3583	3583	3583	3583	3583	3583	3583	3546	3546	3546	3546	3546	3546	3546	3510	3546	2733	2711	2711	2711	2711	2690	2690	2690	2690	2690	2690	2690	2690	2690	2690	2690	2690	2690	2690	2690	2690	2690	2669	2669	2669	2669	2669	2669	2669	2669	2669	2669	2669	2669	2669	2669	2669	2669	2669	2669	2669	2669	2649	2669	2649	2669	2649	2649	2649	2649	2649	2649	2649	2649	2649	2649	2649	2649	2649	2649	2649	2649	2649	2649	2649	2649	2649	2669	2669	2669	2669	2669	2669	2669	2669	2669	2690	2690	2690	2711	2711	0	0	0	0	0	0	2754	2733	2733	2733	2733	2711	2711	2733	2733	2733	2711	2711	3621	3621	3583	3583	3583	3583	3583	3583	3583	3583	3583	3583	3583	3583	3583	3583	3583	3583	3583	3583	3583	3583	3583	3583	3583	3583	3583	3583	3583	3621	3583	3583	3583	3583	3583	3583	3583	3583	3583	3583	3583	3583	3583	3583	3583	3583	3583	3583	3583	3583	3583	3583	3621	3621	3621	3621	3621	3621	3621	3621	3621	3621	3583	3621	3583	3621	3583	3621	3621	3621	3583	3583	3621	3621	3583	3583	3583	3621	3621	3621	3621	3583	3583	3621	3621	3621	3621	3621	3621	3621	3621	3621	3621	3621	3621	3621	3583	3621	3621	3583	3583	3583	3583	3583	3583	3583	3583	3583	3583	3583	3583	3583	3583	3583	3583	3583	3583	3583	3583	3583	3583	3583	3583	3583	3583	3583	3583	3546	3583	3583	3583	3583	3583	3583	3583	3583	3583	3583	3583	2281	2266	2266	2252	2237	2223	2223	2194	2181	2181	2167	2167	2153	2140	2140	2127	2101	2088	2076	2063	2063	2051	2039	2039	2015	2003	2003	1992	1980	1969	1969	1958	1947	1936	1915	1915	1904	1904	1894	1883	1883	1873	1863	1853	1843	1833	1824	1814	1814	1814	1804	1795	1786	1777	1768	1759	1750	1750	1741	1732	1723	1715	1706	1706	1698	1698	1690	1681	1673	1673	1665	1657	1649	1641	1634	1626	1618	1611	1603	1596	1589	1581	1581	1574	1567	1560	1553	1546	1546	1539	1532	1525	1525	1519	1519	1506	1506	1499	1492	1486	1486	1480	1480	1473	1473	1473	1473	1473	1473	1480	1480	1492	1506	1506	1506	1506	1506	1506	1499	1499	1506	1499	1499	1499	1499	1499	1499	0	0	0	0	0	0	0	0	0	0	0	0	0	0	0	0	0	0	0	0	0	0	0	0	0	0	0	0	0	0	0	0	0	0	0	0	0	0	0
0	0	0	0	0	0	0	0	0	0	0	0	1519	1519	1519	1525	1532	1539	1546	1546	1553	1553	1560	1560	1567	1567	1574	1589	1589	1596	1596	1603	1611	1611	1618	1626	1634	1634	1641	1649	1665	1665	1681	1690	1698	1706	1706	1706	1715	1715	1715	1723	1732	1759	1777	1786	1786	1804	1814	1814	1824	1824	1824	1833	1843	1843	1853	1863	1873	1883	1883	1894	1894	1904	1904	1915	1915	1925	1936	1947	1958	1958	1958	1980	1980	0	2496	2478	2460	2460	2460	2478	2478	2478	2496	2496	2496	2496	2496	2478	2478	2460	2460	2460	2460	2460	2460	2460	2478	2478	2478	2478	2496	2478	2478	2478	2496	2514	2478	2478	2478	2478	2478	2478	2478	2496	2514	2514	2514	2514	2514	2514	2532	2532	3583	3583	3583	3546	3546	3546	3546	3546	3546	3546	3510	3510	3510	3510	3546	3546	3546	3546	3546	3546	3546	3546	3510	3510	3510	3510	3510	3510	3510	3510	3510	3510	3510	3510	3510	3510	3510	3510	3510	3510	3510	3510	3510	3510	3510	3510	3510	3546	3546	3546	3546	3546	3546	3546	3546	3546	3546	3583	3583	3583	3583	3583	3546	3546	3546	3546	3546	3546	3546	3546	3546	3583	3583	3583	3583	3583	3583	3583	3583	3583	3546	3546	3583	3583	3583	3583	3583	3583	3583	3583	3583	3583	3583	3546	3546	3546	3546	3546	3546	3510	2733	2754	2733	2690	2690	2690	2690	2690	2690	2690	2690	2690	2690	2690	2690	2690	2690	2690	2690	2690	2690	2690	2690	2690	2669	2669	2669	2669	2669	2669	2669	2669	2669	2669	2669	2669	2669	2669	2669	2669	2669	2669	2669	2669	2669	2669	2669	2669	2649	2649	2649	2649	2649	2649	2649	2649	2649	2649	2649	2649	2649	2649	2649	2649	2649	2649	2649	2649	2649	2669	2669	2669	2669	2669	2669	2669	2669	2669	2690	2690	2690	2690	2711	2711	0	0	0	0	2754	2754	2733	2733	2733	2733	2711	2711	2711	2711	2733	2711	2711	3621	3621	3583	3583	3583	3583	3583	3583	3583	3583	3583	3583	3583	3583	3583	3583	3583	3583	3583	3583	3583	3583	3583	3583	3583	3583	3583	3583	3583	3621	3583	3583	3583	3583	3583	3583	3583	3583	3583	3583	3583	3583	3583	3583	3583	3583	3583	3583	3583	3583	3583	3583	3583	3621	3621	3621	3621	3621	3621	3621	3621	3621	3583	3583	3583	3583	3583	3583	3583	3621	3583	3583	3621	3621	3621	3621	3621	3621	3621	3621	3621	3621	3583	3583	3583	3583	3583	3621	3621	3621	3583	3583	3583	3621	3621	3583	3583	3583	3583	3583	3583	3583	3583	3583	3583	3583	3583	3583	3583	3583	3583	3583	3583	3583	3583	3583	3583	3583	3583	3583	3583	3583	3583	3583	3583	3583	3583	3583	3583	3583	3583	3583	3583	3583	3583	3583	3583	3583	3583	0	0	2281	2266	2237	2223	2223	2194	2181	2181	2167	2167	2153	2140	2140	2127	2101	2088	2076	2063	2063	2051	2039	2039	2027	2003	2003	1992	1980	1969	1969	1958	1947	1936	1915	1915	1904	1904	1894	1883	1873	1863	1863	1853	1833	1833	1824	1814	1814	1804	1804	1795	1786	1777	1759	1759	1750	1741	1741	1732	1723	1723	1715	1706	1698	1698	1690	1681	1673	1673	1665	1657	1649	1641	1634	1626	1618	1611	1603	1596	1589	1581	1581	1574	1567	1560	1553	1546	1546	1539	1532	1525	1525	1519	1519	1506	1506	1506	1499	1492	1486	1480	1480	1473	1473	1473	1473	1473	1473	1473	1473	1492	1499	1499	1499	1499	1506	1499	1499	1499	1499	1499	1499	1499	1499	1499	1499	0	0	0	0	0	0	0	0	0	0	0	0	0	0	0	0	0	0	0	0	0	0	0	0	0	0	0	0	0	0	0	0	0	0	0	0	0	0	0
0	0	0	0	0	0	0	0	0	0	0	0	1512	1512	1525	1525	1532	1539	1546	1553	1553	1553	1560	1560	1567	1567	1574	1589	1589	1596	1596	1603	1611	1611	1618	1626	1634	1634	1641	1649	1665	1665	1681	1681	1690	1698	1706	1715	1715	1715	1715	1715	1732	1750	1777	1786	1786	1795	1804	1804	1814	1814	1824	1824	1833	1843	1843	1863	1873	1883	1894	1894	1904	1904	1904	1915	1915	1936	1947	1947	1958	1969	1969	1980	1980	1992	1992	2478	2460	2460	2460	2478	2478	2496	2496	2496	2496	2496	2496	2496	2478	2460	2460	2460	2460	2460	2478	2478	2478	2478	2478	2496	2496	2478	2478	2478	2496	2514	2478	2478	2496	2478	2496	2478	2478	2496	2514	2514	2514	2514	2514	2514	2514	2514	3583	3583	3546	3546	3546	3546	3546	3546	3546	3510	3510	3510	3510	3510	3546	3546	3546	3546	3546	3546	3546	3546	3546	3546	3546	3510	3510	3510	3510	3510	3510	3510	3510	3510	3510	3510	3510	3510	3510	3510	3510	3510	3510	3510	3475	3510	3510	3546	3546	3546	3546	3546	3546	3546	3546	3546	3546	3546	3546	3546	3546	3546	3546	3546	3546	3546	3546	3546	3546	3546	3546	3546	3583	3583	3546	3546	3546	3546	3546	3546	3546	3546	3583	3583	3583	3583	3583	3583	3583	3583	3583	3583	3583	3546	3546	3546	3546	3546	3546	3546	2754	2754	2733	2690	2690	2690	2690	2690	2690	2690	2690	2690	2690	2690	2711	2690	2690	2690	2690	2690	2690	2690	2690	2690	2669	2669	2669	2669	2669	2669	2669	2669	2669	2669	2669	2669	2669	2669	2669	2669	2669	2669	2669	2669	2669	2669	2669	2669	2649	2649	2649	2649	2649	2649	2649	2649	2649	2649	2649	2649	2649	2649	2649	2649	2649	2649	2649	2649	2649	2669	2669	2669	2669	2669	2669	2669	2669	2669	2669	2690	2690	2711	2733	2754	2754	0	0	2799	2754	2754	2733	2733	2733	2733	2711	2711	2711	2711	2733	2711	2711	2711	3583	3583	3583	3583	3583	3583	3583	3583	3583	3583	3583	3583	3583	3583	3583	3583	3583	3583	3583	3583	3583	3583	3583	3583	3583	3583	3583	3583	3621	3621	3583	3583	3583	3583	3583	3583	3583	3583	3583	3583	3583	3583	3583	3583	3583	3583	3583	3583	3583	3621	3583	3583	3583	3583	3583	3583	3583	3621	3583	3583	3583	3583	3583	3583	3583	3583	3583	3583	3621	3583	3583	3621	3621	3621	3621	3621	3621	3621	3583	3583	3583	3583	3583	3583	3583	3583	3583	3583	3583	3583	3583	3583	3621	3621	3583	3583	3583	3583	3583	3583	3583	3583	3583	3583	3583	3583	3583	3583	3583	3583	3583	3583	3583	3583	3583	3583	3583	3583	3583	3583	3583	3583	3583	3583	3583	3583	3583	3583	3583	3583	3583	3583	3583	3583	3583	3583	3583	0	0	0	2266	2252	2237	2223	2223	2194	2181	2181	2167	2167	2153	2140	2140	2127	2114	2088	2076	2063	2063	2051	2039	2039	2027	2003	1992	1980	1980	1969	1958	1958	1936	1925	1915	1915	1904	1915	1894	1894	1883	1863	1863	1853	1853	1833	1824	1814	1814	1804	1804	1795	1786	1777	1759	1759	1750	1741	1741	1732	1732	1723	1715	1706	1706	1698	1690	1690	1681	1673	1665	1657	1649	1641	1634	1626	1618	1611	1603	1596	1589	1581	1581	1581	1574	1560	1553	1546	1546	1539	1532	1525	1525	1519	1519	1506	1506	1499	1499	1492	1480	1480	1480	1473	1473	1473	1473	1473	1473	1473	1473	1492	1499	1499	1499	1499	1499	1499	1499	1499	1499	1492	1499	1499	1499	1492	1492	0	0	0	0	0	0	0	0	0	0	0	0	0	0	0	0	0	0	0	0	0	0	0	0	0	0	0	0	0	0	0	0	0	0	0	0	0	0	0
0	0	0	0	0	0	0	0	0	0	0	0	1512	1519	1525	1532	1532	1539	1546	1546	1553	1553	1553	1560	1567	1567	1574	1589	1589	1596	1596	1603	1603	1611	1618	1626	1634	1641	1649	1665	1673	1673	1673	1681	1690	1698	1706	1706	1715	1715	1715	1715	1732	1759	1777	1777	1777	1786	1795	1804	1804	1824	1824	1824	1833	1833	1843	1853	1873	1883	1894	1904	1904	1904	1915	1915	1936	1936	1947	1958	1958	1969	1969	1980	1980	1992	2003	2003	2460	2460	2478	2496	2496	2496	2496	2496	2496	2496	2496	2478	2478	2460	2460	2460	2460	2478	2478	2478	2478	2478	2478	2496	2496	2478	2478	2478	2496	2514	2478	2478	2478	2478	2496	2478	2478	2514	2514	2514	2514	2514	2514	2514	2514	2514	3621	3583	3583	3583	3546	3546	3546	3546	3546	3546	3510	3510	3510	3510	3510	3510	3510	3546	3546	3546	3546	3510	3546	3546	3510	3510	3510	3510	3475	3510	3510	3510	3510	3510	3510	3510	3510	3510	3510	3510	3510	3510	3475	3475	3475	3510	3510	3546	3546	3546	3546	3546	3546	3546	3546	3546	3546	3546	3546	3546	3583	3583	3583	3583	3546	3546	3546	3546	3546	3546	3583	3546	3583	3546	3546	3546	3546	3583	3583	3583	3546	3546	3583	3583	3546	3583	3583	3583	3583	3583	3583	3583	3583	3546	3546	3546	3546	3546	3546	3510	2711	2711	2711	2690	2690	2690	2690	2690	2690	2690	2690	2690	2690	2690	2690	2690	2690	2690	2690	2690	2690	2690	2690	2690	2669	2669	2669	2669	2669	2669	2669	2669	2669	2669	2649	2649	2649	2649	2669	2669	2669	2669	2669	2669	2669	2669	2669	2669	2669	2649	2649	2649	2649	2649	2649	2649	2649	2649	2649	2649	2649	2649	2649	2649	2649	2649	2649	2649	2649	2649	2649	2649	2649	2669	2669	2669	2669	2690	2690	2690	2690	2711	2733	2733	2754	2754	0	2777	2777	2754	2733	2733	2733	2733	2711	2711	2711	2711	2733	2711	2711	2711	3621	3583	3583	3583	3583	3583	3583	3583	3583	3583	3583	3583	3583	3583	3583	3583	3583	3583	3583	3583	3583	3583	3583	3583	3583	3583	3583	3621	3621	3583	3583	3583	3583	3583	3583	3583	3583	3583	3583	3583	3583	3583	3583	3583	3583	3583	3583	3583	3583	3583	3583	3583	3583	3583	3583	3583	3583	3583	3583	3583	3583	3583	3583	3583	3583	3583	3583	3583	3583	3583	3583	3583	3621	3621	3621	3621	3621	3621	3583	3583	3583	3583	3583	3583	3583	3583	3583	3583	3583	3583	3583	3583	3583	3583	3583	3583	3583	3583	3583	3583	3583	3583	3583	3583	3583	3583	3583	3583	3583	3583	3583	3583	3583	3583	3583	3583	3583	3583	3583	3583	3583	3583	3583	3583	3583	3583	3583	3583	3583	3583	3583	3583	3583	3583	3583	3583	3583	0	0	0	2266	2237	2223	2223	2223	2194	2194	2181	2167	2167	2153	2140	2140	2127	2114	2088	2076	2063	2063	2051	2039	2027	2027	2003	1992	1980	1980	1969	1958	1947	1936	1925	1925	1915	1915	1915	1904	1883	1883	1883	1863	1853	1853	1833	1824	1814	1814	1804	1804	1795	1786	1777	1768	1759	1750	1741	1732	1732	1723	1715	1715	1706	1706	1698	1690	1690	1681	1673	1665	1657	1641	1634	1634	1634	1626	1611	1603	1603	1596	1589	1581	1581	1574	1560	1553	1546	1546	1539	1539	1532	1525	1519	1519	1506	1499	1499	1492	1492	1480	1480	1473	1473	1473	1473	1473	1473	1473	1473	1473	1492	1499	1499	1499	1499	1499	1499	1499	1499	1499	1492	1492	1499	1492	1492	1492	0	0	0	0	0	0	0	0	0	0	0	0	0	0	0	0	0	0	0	0	0	0	0	0	0	0	0	0	0	0	0	0	0	0	0	0	0	0	0
0	0	0	0	0	0	0	0	0	0	0	0	1512	1512	1525	1532	1532	1539	1539	1546	1546	1553	1553	1560	1567	1574	1581	1589	1596	1596	1596	1603	1611	1618	1618	1626	1634	1641	1649	1665	1673	1673	1681	1690	1690	1698	1706	1715	1715	1715	1715	1723	1750	1750	1768	1777	1786	1786	1795	1795	1814	1814	1824	1824	1824	1824	1833	1843	1853	1873	1894	1904	1904	1915	1925	1925	1947	1947	1969	1969	1969	1969	1980	1992	1992	1992	2003	2027	2027	2039	2039	2496	2514	2514	2496	2496	2496	2496	2478	2478	2460	2460	2460	2460	2460	2478	2478	2478	2478	2478	2478	2496	2496	2478	2478	2478	2478	2514	2496	2478	2478	2478	2478	2496	2496	2514	2514	2514	2514	2532	2514	2514	2514	2514	3621	3583	3583	3583	3546	3546	3546	3546	3546	3546	3510	3510	3510	3510	3510	3510	3510	3510	3546	3546	3510	3510	3510	3546	3510	3510	3510	3510	3475	3510	3510	3510	3510	3510	3510	3510	3510	3510	3510	3510	3510	3510	3510	3475	3475	3510	3510	3546	3546	3546	3546	3546	3546	3546	3546	3546	3546	3546	3546	3546	3546	3583	3583	3583	3583	3546	3546	3546	3546	3546	3546	3546	3546	3546	3546	3546	3546	3546	3546	3583	3546	3546	3583	3583	3546	3583	3583	3583	3583	3583	3583	3583	3583	3546	3546	3583	3546	3546	3546	3546	2711	2711	2711	2690	2690	2690	2690	2669	2690	2690	2690	2690	2690	2690	2690	2690	2690	2690	2690	2690	2690	2690	2669	2690	2669	2669	2669	2669	2669	2669	2669	2669	2669	2649	2649	2649	2649	2649	2669	2669	2669	2669	2669	2669	2669	2669	2669	2669	2669	2669	2669	2669	2669	2669	2669	2669	2669	2649	2649	2649	2649	2649	2649	2629	2629	2629	2629	2629	2629	2649	2649	2649	2669	2669	2669	2669	2669	2690	2690	2690	2690	2711	2733	2733	2733	2754	2799	2754	2754	2733	2733	2733	2733	2711	2711	2711	2711	2711	2733	2711	2711	3583	3621	3583	3583	3583	3583	3583	3583	3583	3583	3583	3583	3583	3583	3583	3583	3583	3583	3583	3583	3583	3583	3583	3583	3583	3583	3583	3583	3621	3621	3583	3583	3583	3583	3583	3583	3583	3583	3583	3583	3583	3583	3583	3583	3583	3583	3583	3583	3621	3621	3621	3583	3583	3583	3583	3583	3583	3583	3583	3583	3583	3583	3583	3583	3583	3583	3583	3583	3583	3583	3583	3583	3583	3621	3621	3621	3583	3621	3583	3583	3583	3546	3546	3583	3583	3583	3583	3583	3583	3583	3583	3583	3583	3583	3583	3583	3583	3583	3583	3583	3583	3546	3583	3583	3583	3583	3583	3583	3583	3583	3583	3583	3583	3583	3583	3583	3583	3583	3583	3583	3583	3583	3583	3583	3583	3583	3583	3583	3583	3583	3583	3583	3583	3583	3583	3621	3621	3583	0	0	0	0	2237	2223	2223	2223	2208	2194	2181	2181	2167	2153	2153	2140	2127	2114	2088	2076	2063	2063	2051	2051	2027	2027	2003	1992	1980	1969	1958	1958	1947	1936	1925	1925	1915	1904	1904	1894	1883	1873	1883	1863	1853	1853	1833	1824	1814	1814	1804	1804	1795	1786	1777	1768	1759	1750	1741	1732	1732	1723	1723	1715	1706	1698	1690	1690	1681	1673	1673	1665	1649	1649	1641	1634	1626	1618	1611	1611	1603	1603	1589	1581	1581	1574	1560	1553	1546	1546	1546	1539	1532	1525	1519	1519	1506	1499	1499	1492	1486	1480	1480	1473	1473	1473	1473	1473	1473	1473	1473	1473	1492	1492	1499	1499	1499	1499	1499	1499	1499	1499	1492	1499	1499	1492	1492	1492	0	0	0	0	0	0	0	0	0	0	0	0	0	0	0	0	0	0	0	0	0	0	0	0	0	0	0	0	0	0	0	0	0	0	0	0	0	0	0
0	0	0	0	0	0	0	0	0	0	0	0	1512	1519	1525	1532	1539	1539	1546	1546	1546	1553	1553	1560	1567	1567	1581	1589	1596	1596	1596	1603	1611	1618	1618	1634	1634	1641	1649	1665	1673	1673	1681	1690	1690	1698	1698	1706	1706	1715	1715	1732	1750	1768	1768	1777	1786	1786	1786	1795	1804	1814	1814	1824	1824	1824	1833	1843	1843	1853	1894	1904	1904	1915	1936	1947	1958	1969	1969	1969	1969	1980	1980	1992	1992	2003	2027	2039	2039	2051	2063	2063	2063	2514	2514	2496	2496	2496	2478	2478	2460	2460	2460	2460	2460	2460	2460	2460	2460	2478	2478	2478	2478	2478	2460	2460	2460	2460	2496	2478	2478	2478	2496	2496	2496	2514	2514	2514	2514	2514	2514	2514	2514	2514	3583	3583	3583	3583	3546	3546	3546	3546	3546	3510	3510	3510	3510	3510	3510	3510	3510	3546	3546	3546	3546	3510	3546	3510	3510	3510	3510	3475	3475	3475	3510	3510	3510	3510	3510	3510	3510	3510	3510	3510	3510	3510	3475	3510	3510	3510	3510	3510	3510	3546	3546	3546	3546	3546	3546	3546	3546	3546	3546	3546	3546	3583	3583	3583	3583	3546	3546	3546	3546	3546	3546	3546	3546	3546	3546	3546	3546	3546	3546	3583	3546	3546	3583	3583	3583	3583	3583	3583	3583	3583	3583	3583	3583	3583	3583	3583	3546	3546	3546	3546	3546	3546	2690	2690	2690	2690	2690	2669	2690	2690	2690	2690	2690	2690	2711	2690	2690	2690	2690	2690	2690	2690	2669	2669	2669	2669	2669	2669	2669	2669	2669	2669	2669	2669	2649	2649	2649	2669	2669	2669	2669	2669	2669	2669	2669	2669	2669	2669	2669	2669	2669	2669	2669	2669	2669	2649	2649	2649	2649	2649	2649	2629	2629	2649	2649	2649	2649	2649	2649	2649	2649	2649	2669	2669	2669	2669	2669	2690	2690	2690	2690	2733	2733	2733	2733	2754	2799	2799	2754	2733	2733	2733	2733	2711	2711	2711	2711	2711	2733	2711	2711	3583	3583	3583	3583	3583	3583	3583	3583	3583	3583	3583	3583	3583	3583	3583	3583	3583	3583	3583	3583	3583	3583	3583	3583	3583	3583	3583	3583	3583	3583	3583	3583	3583	3583	3583	3583	3583	3583	3583	3583	3583	3583	3583	3583	3583	3583	3583	3583	3621	3621	3621	3583	3583	3583	3583	3583	3583	3583	3583	3583	3583	3583	3583	3583	3583	3583	3583	3583	3583	3583	3583	3583	3583	3621	3621	3621	3621	3621	3583	3583	3583	3546	3546	3583	3583	3583	3583	3583	3583	3583	3583	3583	3583	3583	3583	3583	3583	3583	3583	3583	3583	3546	3546	3583	3583	3583	3583	3583	3583	3583	3583	3583	3583	3583	3583	3583	3583	3583	3546	3583	3583	3583	3583	3583	3583	3583	3583	3583	3583	3583	3583	3583	3583	3583	3583	3583	3583	0	0	0	0	0	2223	2223	2223	2223	2208	2194	2181	2167	2167	2153	2153	2140	2127	2114	2088	2076	2063	2063	2051	2039	2027	2027	2015	1992	1980	1969	1958	1958	1947	1936	1925	1925	1915	1904	1904	1894	1883	1873	1873	1863	1853	1853	1833	1824	1814	1814	1804	1804	1795	1786	1777	1768	1759	1750	1741	1732	1732	1723	1723	1715	1706	1698	1690	1690	1681	1673	1665	1665	1649	1641	1641	1634	1626	1618	1611	1603	1603	1596	1589	1581	1574	1567	1560	1553	1546	1546	1546	1539	1532	1525	1519	1519	1499	1499	1499	1492	1486	1486	1480	1473	1473	1473	1473	1473	1473	1473	1473	1486	1492	1499	1499	1499	1499	1492	1499	1492	1492	1492	1492	1499	1499	1492	1492	1492	0	0	0	0	0	0	0	0	0	0	0	0	0	0	0	0	0	0	0	0	0	0	0	0	0	0	0	0	0	0	0	0	0	0	0	0	0	0	0
0	0	0	0	0	0	0	0	0	0	0	0	1512	1512	1525	1532	1539	1546	1546	1546	1553	1553	1553	1560	1567	1567	1581	1589	1596	1603	1603	1611	1611	1618	1618	1626	1634	1641	1649	1657	1665	1665	1673	1681	1681	1690	1698	1706	1715	1723	1723	1732	1750	1768	1777	1777	1786	1786	1795	1795	1804	1814	1814	1824	1824	1824	1833	1853	1853	1863	1863	1894	1894	1904	1936	1958	1969	1969	1980	1969	1969	1980	1992	1992	1992	2015	2027	2039	2051	2051	2063	2063	2063	2063	2063	2088	2088	2496	2478	2478	2478	2478	2460	2460	2460	2478	2460	2460	2460	2460	2460	2478	2478	2460	2460	2460	2460	2496	2478	2478	2478	2478	2496	2496	2496	2514	2514	2514	2514	2514	2514	2514	2514	2514	3583	3583	3583	3583	3546	3546	3546	3546	3546	3510	3510	3510	3510	3510	3510	3510	3510	3546	3546	3546	3546	3510	3510	3510	3510	3510	3475	3475	3475	3475	3510	3510	3510	3510	3510	3510	3510	3510	3510	3510	3510	3510	3510	3510	3510	3510	3510	3546	3546	3546	3546	3546	3546	3546	3546	3546	3546	3546	3546	3546	3546	3546	3546	3583	3583	3546	3546	3546	3546	3546	3546	3546	3546	3546	3546	3546	3546	3546	3546	3546	3546	3546	3583	3583	3583	3583	3583	3583	3546	3546	3546	3546	3546	3546	3546	3546	3546	3546	3546	3546	3546	3546	2669	2690	2690	2690	2690	2690	2690	2690	2690	2690	2690	2690	2711	2711	2690	2690	2690	2690	2690	2669	2669	2669	2669	2669	2669	2669	2669	2669	2669	2669	2669	2649	2649	2649	2649	2649	2669	2669	2669	2669	2669	2669	2669	2669	2669	2669	2669	2669	2669	2669	2669	2669	2669	2669	2649	2649	2649	2649	2649	2649	2649	2649	2649	2649	2649	2649	2649	2649	2649	2649	2669	2669	2669	2669	2669	2690	2690	2690	2690	2711	2733	2733	2733	2733	2777	2777	2754	2733	2733	2733	2733	2711	2711	2711	2711	2711	2711	2711	2711	3583	3583	3583	3583	3583	3583	3583	3583	3583	3583	3583	3583	3583	3583	3583	3583	3583	3583	3583	3583	3583	3583	3583	3583	3583	3583	3583	3583	3583	3583	3583	3583	3583	3583	3583	3583	3583	3583	3583	3583	3583	3583	3583	3583	3583	3583	3583	3583	3583	3583	3583	3583	3583	3583	3583	3583	3583	3583	3583	3583	3583	3583	3546	3583	3583	3583	3583	3583	3583	3583	3583	3583	3583	3583	3583	3621	3583	3583	3583	3583	3583	3583	3546	3583	3583	3583	3583	3583	3583	3583	3583	3583	3583	3583	3583	3583	3583	3583	3583	3583	3583	3583	3583	3583	3583	3583	3583	3583	3583	3583	3583	3583	3583	3583	3583	3583	3583	3546	3583	3583	3583	3583	3583	3583	3583	3583	3583	3583	3583	3583	3583	3583	3583	3583	3583	3583	3583	0	0	0	0	0	2237	2223	2223	2223	2208	2181	2181	2167	2167	2153	2140	2140	2127	2114	2088	2076	2063	2051	2051	2039	2027	2015	2003	1980	1969	1969	1958	1958	1947	1936	1925	1925	1915	1904	1904	1894	1883	1883	1863	1863	1853	1853	1833	1824	1814	1814	1804	1804	1795	1786	1786	1777	1759	1750	1741	1741	1732	1732	1723	1715	1706	1698	1690	1681	1673	1673	1665	1665	1657	1649	1641	1634	1626	1618	1611	1611	1603	1603	1589	1581	1574	1574	1560	1553	1553	1546	1546	1539	1532	1525	1519	1519	1499	1499	1499	1492	1486	1480	1473	1473	1473	1473	1467	1467	1467	1473	1473	1473	1473	1486	1492	1492	1492	1492	1492	1492	1492	1492	1492	1499	1492	1492	1492	1492	0	0	0	0	0	0	0	0	0	0	0	0	0	0	0	0	0	0	0	0	0	0	0	0	0	0	0	0	0	0	0	0	0	0	0	0	0	0	0
0	0	0	0	0	0	0	0	0	0	0	0	1512	1512	1525	1532	1539	1539	1546	1546	1553	1553	1553	1560	1567	1574	1581	1589	1596	1603	1603	1611	1611	1618	1626	1626	1634	1634	1649	1657	1657	1665	1673	1681	1681	1690	1698	1706	1715	1723	1732	1741	1750	1768	1768	1777	1777	1786	1786	1786	1795	1804	1814	1824	1824	1833	1843	1853	1853	1863	1863	1883	1894	1915	1947	1969	1969	1969	1980	1980	1980	1980	1992	1992	2003	2003	2027	2039	2051	2051	2063	2063	2063	2076	2088	2088	2101	2101	2478	2496	2478	2478	2478	2460	2460	2460	2460	2460	2460	2460	2478	2478	2460	2460	2460	2460	2460	2478	2478	2460	2460	2460	2478	2478	2478	2496	2496	2514	2514	2514	2514	2496	2496	2496	3546	3583	3546	3546	3546	3546	3546	3546	3546	3510	3510	3510	3510	3510	3510	3510	3510	3510	3546	3510	3510	3510	3510	3510	3510	3510	3475	3475	3475	3475	3510	3510	3510	3510	3510	3510	3510	3510	3510	3510	3510	3510	3510	3510	3546	3546	3546	3546	3546	3546	3546	3546	3546	3546	3546	3510	3546	3546	3546	3546	3546	3546	3546	3583	3546	3546	3546	3546	3546	3546	3546	3546	3546	3546	3546	3546	3546	3546	3546	3546	3546	3546	3583	3583	3583	3583	3583	3583	3546	3546	3546	3546	3546	3546	3546	3546	3546	3546	3546	3546	3546	3546	3546	2669	2669	2690	2690	2690	2690	2690	2690	2690	2690	2690	2711	2711	2690	2690	2669	2669	2669	2669	2669	2669	2669	2669	2669	2669	2669	2669	2669	2669	2669	2669	2649	2649	2649	2669	2669	2669	2669	2669	2669	2669	2669	2669	2669	2669	2669	2669	2669	2669	2669	2669	2669	2669	2649	2649	2649	2649	2649	2649	2649	2649	2649	2649	2649	2649	2649	2649	2649	2649	2649	2649	2669	2669	2669	2669	2690	2690	2690	2711	2733	2711	2711	2733	2777	2754	2733	2711	2733	2733	2711	2711	2711	2711	2711	2711	2711	2711	2711	3583	3583	3583	3583	3583	3583	3583	3583	3583	3583	3583	3583	3583	3583	3583	3583	3583	3583	3583	3583	3583	3583	3583	3583	3583	3583	3583	3583	3583	3583	3583	3583	3583	3583	3583	3583	3583	3583	3583	3583	3583	3583	3583	3583	3583	3583	3621	3583	3583	3621	3583	3583	3583	3583	3583	3546	3546	3546	3583	3546	3583	3583	3583	3583	3583	3583	3583	3583	3583	3583	3583	3583	3583	3583	3583	3583	3583	3583	3583	3583	3583	3583	3583	3583	3583	3583	3583	3583	3583	3583	3583	3583	3583	3583	3583	3583	3583	3583	3583	3583	3583	3583	3583	3583	3583	3583	3583	3583	3583	3583	3583	3583	3583	3583	3583	3583	3583	3583	3583	3583	3583	3583	3583	3583	3583	3583	3583	3583	3583	3583	3583	3583	3583	3583	3583	3583	0	0	0	0	0	0	2237	2223	2223	2223	2208	2181	2181	2167	2167	2153	2153	2140	2114	2114	2088	2063	2063	2051	2051	2039	2027	2015	2003	1980	1969	1969	1958	1947	1936	1936	1925	1915	1904	1904	1904	1894	1883	1883	1873	1863	1853	1853	1833	1824	1814	1814	1804	1804	1795	1786	1777	1777	1759	1750	1741	1741	1732	1723	1715	1715	1706	1706	1690	1690	1673	1673	1665	1665	1657	1649	1641	1634	1626	1618	1611	1603	1603	1596	1589	1581	1581	1574	1560	1553	1553	1546	1546	1539	1532	1525	1519	1519	1499	1499	1492	1486	1486	1473	1473	1473	1467	1467	1467	1467	1467	1473	1473	1480	1480	1486	1492	1499	1492	1492	1492	1492	1492	1492	1492	1492	1492	1492	1499	1499	0	0	0	0	0	0	0	0	0	0	0	0	0	0	0	0	0	0	0	0	0	0	0	0	0	0	0	0	0	0	0	0	0	0	0	0	0	0	0
0	0	0	0	0	0	0	0	0	0	0	0	1512	1512	1519	1532	1539	1539	1539	1546	1553	1553	1553	1560	1567	1574	1581	1589	1596	1596	1603	1603	1611	1618	1618	1626	1634	1641	1649	1657	1657	1665	1673	1673	1681	1681	1690	1706	1715	1723	1732	1741	1750	1759	1768	1777	1777	1777	1786	1786	1795	1804	1814	1824	1824	1833	1843	1853	1853	1853	1853	1873	1873	1925	1947	1958	1969	1958	1969	1969	1980	1992	1992	2003	2003	2003	2027	2039	2051	2063	2076	2076	2076	2076	2088	2088	2101	2101	2088	2114	2114	2114	2478	2478	2478	2478	2460	2460	2460	2460	2460	2460	2460	2460	2460	2443	2443	2460	2460	2460	2460	2460	2460	2478	2478	2496	2496	2514	2514	2514	2514	2496	2496	2496	3546	3546	3546	3583	3546	3546	3546	3510	3546	3510	3510	3510	3510	3510	3510	3510	3510	3546	3546	3546	3510	3510	3510	3510	3510	3510	3510	3475	3475	3475	3475	3475	3510	3510	3510	3510	3510	3510	3510	3510	3510	3510	3510	3510	3546	3546	3546	3546	3546	3546	3546	3546	3546	3546	3546	3510	3510	3546	3510	3510	3510	3546	3546	3583	3546	3546	3546	3546	3546	3546	3546	3546	3546	3546	3546	3546	3546	3546	3546	3546	3546	3546	3583	3583	3546	3583	3583	3546	3546	3546	3546	3546	3546	3546	3546	3546	3546	3546	3546	3546	3546	3546	3546	3546	2669	2690	2690	2690	2690	2690	2690	2690	2690	2690	2690	2690	2690	2690	2669	2669	2669	2669	2669	2669	2669	2669	2669	2669	2669	2669	2669	2669	2669	2669	2649	2649	2649	2669	2669	2669	2669	2669	2669	2669	2669	2669	2669	2669	2669	2669	2669	2669	2669	2669	2669	2669	2669	2649	2649	2649	2649	2649	2649	2649	2649	2649	2649	2649	2649	2649	2649	2629	2649	2649	2669	2669	2669	2669	2690	2690	2690	2711	2711	2711	2711	2733	2777	2754	2733	2733	2733	2733	2711	2711	2711	2711	2711	2711	2711	2711	2711	2733	3583	3583	3583	3583	3583	3583	3583	3583	3583	3583	3583	3583	3583	3583	3583	3583	3583	3583	3583	3583	3583	3583	3583	3583	3583	3583	3583	3583	3583	3583	3583	3583	3583	3583	3583	3583	3583	3583	3583	3583	3583	3583	3583	3583	3583	3583	3583	3621	3621	3621	3583	3583	3583	3583	3583	3546	3583	3583	3583	3583	3583	3583	3583	3583	3583	3583	3583	3583	3583	3583	3583	3583	3583	3583	3583	3583	3583	3583	3583	3583	3583	3546	3583	3546	3583	3583	3583	3583	3583	3583	3583	3583	3583	3583	3583	3583	3583	3583	3583	3583	3583	3546	3583	3583	3583	3583	3583	3583	3583	3583	3583	3583	3583	3583	3583	3583	3583	3583	3583	3583	3583	3583	3583	3583	3583	3583	3583	3583	3583	3583	3583	3583	3583	3583	3583	0	0	0	0	0	0	0	2223	2223	2223	2208	2181	2181	2167	2153	2153	2140	2127	2114	2114	2088	2063	2063	2051	2051	2039	2027	2015	2003	1980	1969	1958	1958	1947	1936	1936	1925	1915	1915	1894	1904	1894	1883	1883	1873	1863	1853	1843	1833	1824	1814	1814	1814	1804	1804	1795	1777	1777	1759	1759	1741	1741	1732	1732	1715	1715	1706	1698	1690	1681	1673	1673	1665	1665	1657	1649	1641	1634	1634	1618	1611	1603	1603	1596	1589	1581	1581	1574	1567	1560	1553	1553	1546	1539	1532	1525	1525	1519	1499	1499	1492	1486	1480	1473	1473	1473	1473	1473	1473	1473	1473	1473	1473	1480	1480	1486	1492	1492	1492	1492	1492	1492	1492	1492	1492	1492	1492	1492	1499	1499	0	0	0	0	0	0	0	0	0	0	0	0	0	0	0	0	0	0	0	0	0	0	0	0	0	0	0	0	0	0	0	0	0	0	0	0	0	0	0
0	0	0	0	0	0	0	0	0	0	0	0	1512	1512	1512	1525	1532	1539	1539	1546	1553	1553	1553	1560	1567	1567	1581	1589	1596	1603	1603	1611	1618	1626	1626	1634	1634	1649	1649	1657	1657	1665	1673	1681	1681	1690	1698	1706	1715	1723	1732	1750	1750	1759	1768	1777	1777	1777	1786	1786	1795	1804	1814	1824	1833	1833	1843	1853	1853	1853	1843	1863	1915	1925	1936	1947	1958	1958	1969	1969	1980	1992	2003	2015	2015	2015	2027	2051	2063	2063	2076	2076	2076	2088	2088	2088	2101	2114	2114	2127	2127	2127	2127	2460	2460	2460	2460	2460	2460	2460	2460	2460	2460	2460	2460	2443	2443	2460	2460	2460	2460	2460	2460	2478	2478	2496	2496	2514	2496	2514	2514	2496	2496	2496	3546	3546	3546	3546	3546	3546	3546	3510	3510	3510	3510	3510	3510	3510	3510	3510	3510	3546	3546	3510	3510	3510	3510	3510	3510	3510	3510	3475	3475	3475	3475	3475	3475	3475	3475	3510	3510	3510	3510	3510	3510	3510	3510	3510	3546	3546	3546	3546	3546	3546	3546	3546	3546	3546	3510	3510	3510	3546	3546	3510	3546	3510	3546	3546	3546	3546	3546	3546	3546	3546	3546	3546	3546	3546	3546	3546	3546	3546	3546	3546	3546	3546	3546	3546	3546	3546	3546	3546	3546	3546	3546	3546	3583	3546	3546	3546	3546	3546	3546	3546	3546	3546	3583	3546	2690	2690	2690	2690	2690	2690	2690	2690	2690	2690	2690	2690	2690	2690	2669	2669	2669	2669	2669	2669	2669	2669	2669	2669	2669	2669	2669	2669	2669	2669	2649	2669	2669	2669	2669	2669	2669	2669	2669	2669	2669	2669	2669	2669	2669	2669	2669	2669	2669	2669	2669	2669	2649	2649	2649	2649	2649	2649	2649	2649	2649	2649	2649	2649	2649	2649	2629	2629	2629	2649	2649	2669	2669	2669	2690	2690	2690	2711	2711	2711	2711	2711	2754	2754	2733	2711	2711	2733	2733	2711	2711	2711	2711	2711	2711	2711	2711	3583	3583	3583	3583	3583	3583	3583	3583	3583	3583	3583	3583	3583	3546	3546	3546	3583	3583	3583	3583	3583	3546	3583	3583	3583	3583	3583	3583	3583	3583	3583	3583	3583	3583	3583	3583	3583	3583	3583	3583	3583	3583	3583	3583	3583	3583	3583	3583	3583	3583	3621	3583	3583	3583	3583	3583	3583	3583	3583	3583	3583	3583	3583	3583	3583	3583	3583	3583	3583	3583	3583	3583	3583	3583	3583	3583	3583	3583	3583	3583	3583	3583	3583	3583	3546	3583	3583	3583	3583	3583	3583	3583	3583	3583	3583	3583	3583	3583	3583	3583	3583	3583	3583	3583	3583	3583	3583	3583	3583	3583	3583	3583	3583	3583	3583	3583	3583	3583	3583	3583	3583	3583	3583	3583	3583	3583	3583	3583	3583	3583	3583	3583	3583	3583	3583	3583	0	0	0	0	0	0	0	2223	2223	2208	2208	2181	2167	2153	2153	2140	2140	2127	2114	2114	2101	2063	2063	2051	2051	2039	2027	2015	2003	1980	1969	1958	1958	1947	1936	1925	1925	1915	1915	1894	1904	1894	1883	1883	1873	1863	1853	1853	1833	1824	1824	1814	1814	1804	1804	1795	1777	1777	1759	1750	1741	1732	1732	1732	1723	1715	1706	1706	1690	1681	1673	1673	1665	1657	1657	1649	1641	1634	1634	1618	1611	1603	1603	1596	1589	1581	1574	1567	1567	1553	1553	1553	1546	1539	1539	1525	1525	1512	1506	1499	1492	1486	1486	1473	1473	1473	1473	1467	1467	1473	1467	1473	1473	1473	1480	1486	1492	1492	1492	1492	1492	1492	1492	1492	1492	1492	1492	1492	1499	1499	0	0	0	0	0	0	0	0	0	0	0	0	0	0	0	0	0	0	0	0	0	0	0	0	0	0	0	0	0	0	0	0	0	0	0	0	0	0	0
0	0	0	0	0	0	0	0	0	0	0	0	1512	1512	1512	1519	1532	1539	1539	1539	1553	1553	1553	1560	1567	1574	1581	1589	1596	1603	1603	1603	1618	1626	1626	1634	1634	1641	1649	1649	1657	1657	1673	1673	1681	1690	1690	1706	1715	1723	1732	1732	1741	1759	1768	1777	1777	1786	1786	1786	1795	1804	1814	1824	1833	1833	1833	1843	1853	1853	1853	1863	1894	1915	1936	1936	1947	1947	1958	1969	1969	1992	2003	2003	2027	2027	2039	2051	2051	2051	2076	2076	2088	2088	2101	2114	2114	2127	2127	2127	2140	2140	2140	2140	2460	2460	2460	2460	2460	2460	2460	2460	2460	2443	2443	2443	2443	2460	2460	2460	2460	2460	2460	2478	2478	2496	2496	2514	2514	2514	2514	2496	2496	3546	3546	3546	3546	3546	3546	3546	3546	3510	3510	3510	3510	3510	3510	3510	3510	3510	3510	3546	3546	3510	3510	3510	3510	3510	3510	3510	3510	3475	3475	3475	3475	3475	3475	3475	3475	3475	3510	3510	3510	3510	3510	3510	3510	3510	3546	3546	3546	3546	3546	3546	3546	3546	3546	3510	3510	3510	3510	3546	3510	3510	3510	3510	3546	3546	3546	3546	3546	3546	3546	3546	3546	3546	3546	3546	3546	3546	3546	3546	3546	3546	3546	3546	3546	3546	3546	3546	3583	3546	3546	3546	3546	3546	3546	3546	3546	3546	3546	3546	3546	3546	3546	3546	3546	3546	3546	2690	2690	2690	2690	2690	2690	2690	2690	2690	2690	2690	2690	2690	2669	2669	2669	2669	2669	2669	2669	2669	2669	2669	2669	2669	2669	2669	2669	2669	2649	2669	2669	2669	2669	2669	2669	2669	2669	2669	2669	2669	2669	2669	2669	2669	2669	2669	2669	2669	2669	2669	2669	2649	2649	2649	2649	2649	2649	2649	2649	2649	2649	2629	2629	2629	2629	2629	2629	2649	2669	2669	2669	2669	2669	2690	2690	2711	2711	2711	2733	2733	2733	2754	2754	2711	2711	2733	2711	2711	2711	2711	2711	2711	2711	2711	2711	3583	3583	3583	3583	3583	3583	3583	3583	3583	3583	3583	3583	3546	3583	3546	3546	3583	3583	3583	3583	3583	3546	3546	3546	3583	3546	3583	3583	3583	3583	3583	3583	3583	3583	3583	3583	3583	3583	3583	3583	3583	3583	3583	3583	3583	3583	3583	3583	3583	3583	3621	3621	3621	3583	3583	3583	3583	3583	3583	3583	3583	3583	3583	3583	3583	3583	3583	3583	3583	3583	3583	3583	3583	3583	3583	3583	3583	3583	3583	3583	3583	3583	3583	3583	3583	3583	3583	3583	3583	3583	3583	3583	3583	3583	3583	3583	3583	3583	3583	3583	3583	3583	3583	3583	3583	3583	3583	3583	3583	3583	3583	3583	3583	3583	3583	3583	3583	3583	3583	3583	3583	3583	3583	3583	3583	3583	3583	3583	3583	3583	3583	3583	3583	3546	3583	3583	0	0	0	0	0	0	0	2223	2223	2223	2208	2181	2167	2153	2153	2140	2140	2127	2114	2101	2076	2063	2063	2051	2051	2039	2039	2027	2003	1980	1969	1969	1958	1947	1936	1936	1925	1915	1915	1894	1904	1894	1883	1883	1873	1863	1853	1853	1843	1824	1814	1814	1814	1804	1804	1795	1777	1777	1768	1750	1741	1741	1732	1732	1723	1715	1706	1706	1698	1690	1681	1673	1665	1657	1649	1649	1641	1634	1634	1618	1611	1603	1596	1596	1589	1581	1574	1567	1567	1553	1553	1553	1546	1539	1532	1525	1525	1519	1506	1492	1492	1480	1480	1473	1473	1473	1467	1467	1467	1467	1467	1473	1473	1473	1473	1473	1486	1492	1492	1492	1492	1492	1492	1492	1492	1492	1492	1492	1499	1499	0	0	0	0	0	0	0	0	0	0	0	0	0	0	0	0	0	0	0	0	0	0	0	0	0	0	0	0	0	0	0	0	0	0	0	0	0	0	0
0	0	0	0	0	0	0	0	0	0	0	0	1506	1506	1512	1519	1525	1532	1539	1546	1553	1553	1553	1560	1567	1574	1581	1581	1589	1596	1596	1603	1618	1626	1626	1634	1641	1641	1649	1649	1657	1657	1673	1681	1681	1690	1690	1706	1715	1715	1723	1732	1741	1750	1768	1777	1777	1777	1786	1786	1786	1795	1804	1814	1824	1833	1833	1843	1843	1853	1853	1863	1894	1904	1925	1936	1947	1947	1958	1969	1969	1980	2003	2015	2015	2027	2039	2051	2063	2076	2076	2088	2088	2088	2101	2101	2114	2127	2127	2140	2140	2153	2167	2167	2181	2181	2460	2460	2460	2460	2460	2460	2460	2443	2443	2443	2443	2460	2460	2460	2460	2460	2460	2478	2478	2496	2496	2514	2496	2496	2514	2496	2496	3510	3510	3510	3546	3510	3546	3546	3546	3510	3510	3510	3510	3510	3510	3510	3510	3510	3510	3510	3546	3510	3510	3510	3510	3510	3510	3510	3510	3475	3475	3475	3475	3475	3475	3475	3475	3475	3510	3510	3475	3510	3510	3510	3510	3510	3510	3546	3546	3546	3546	3546	3546	3546	3510	3510	3510	3510	3510	3510	3510	3510	3510	3510	3546	3546	3546	3546	3510	3510	3546	3546	3546	3546	3546	3546	3546	3546	3546	3546	3546	3546	3546	3546	3546	3546	3546	3546	3583	3546	3546	3583	3546	3583	3583	3546	3546	3546	3546	3546	3546	3546	3546	3583	3583	3546	3546	2690	2690	2690	2690	2690	2690	2690	2690	2690	2690	2690	2690	2669	2669	2669	2669	2669	2669	2669	2669	2669	2669	2669	2669	2649	2649	2669	2669	2669	2669	2669	2669	2669	2669	2669	2669	2669	2669	2669	2669	2669	2669	2669	2669	2669	2669	2669	2669	2669	2669	2669	2669	2649	2649	2649	2649	2649	2649	2649	2649	2649	2629	2649	2649	2629	2629	2629	2629	2649	2669	2649	2669	2669	2669	2669	2690	2711	2711	2711	2711	2711	2733	2754	2754	2733	2733	2733	2711	2711	2711	2711	2711	2711	2711	2711	2711	3583	3583	3583	3583	3583	3583	3583	3583	3583	3583	3583	3583	3546	3583	3583	3583	3583	3583	3583	3583	3583	3546	3546	3546	3546	3546	3546	3583	3583	3583	3583	3583	3583	3583	3583	3583	3583	3583	3583	3583	3583	3583	3583	3583	3583	3583	3583	3583	3583	3583	3583	3583	3583	3583	3583	3583	3583	3583	3583	3583	3546	3583	3583	3583	3583	3583	3583	3583	3583	3583	3583	3583	3583	3583	3583	3583	3583	3583	3583	3583	3583	3583	3583	3583	3583	3583	3583	3583	3583	3583	3583	3583	3583	3583	3583	3583	3583	3583	3583	3583	3583	3583	3583	3583	3583	3583	3583	3583	3583	3583	3583	3583	3583	3583	3583	3583	3583	3583	3583	3583	3583	3583	3583	3583	3583	3583	3583	3583	3583	3546	3546	3546	3546	3546	3583	3546	3546	0	0	0	0	0	0	2223	2208	2208	2208	2181	2167	2153	2153	2140	2127	2127	2114	2101	2076	2063	2063	2051	2051	2039	2039	2027	2015	1980	1969	1969	1958	1947	1947	1936	1925	1915	1915	1904	1904	1894	1883	1883	1873	1863	1853	1853	1843	1824	1824	1814	1814	1804	1804	1795	1786	1777	1768	1750	1741	1741	1732	1732	1723	1715	1706	1706	1706	1690	1681	1673	1665	1657	1649	1649	1641	1634	1634	1618	1611	1603	1596	1589	1581	1581	1574	1574	1567	1553	1553	1546	1546	1539	1532	1525	1519	1512	1506	1492	1486	1480	1480	1473	1473	1473	1467	1467	1467	1467	1467	1467	1467	1473	1473	1480	1486	1492	1492	1492	1492	1492	1492	1492	1492	1492	1492	1492	1492	1492	0	0	0	0	0	0	0	0	0	0	0	0	0	0	0	0	0	0	0	0	0	0	0	0	0	0	0	0	0	0	0	0	0	0	0	0	0	0	0
0	0	0	0	0	0	0	0	0	0	0	0	1506	1506	1512	1512	1525	1532	1539	1546	1553	1553	1553	1560	1567	1574	1581	1581	1589	1596	1596	1596	1611	1626	1626	1634	1634	1641	1649	1649	1657	1657	1673	1673	1681	1681	1690	1706	1715	1715	1715	1732	1741	1750	1768	1777	1777	1777	1786	1786	1786	1795	1804	1814	1824	1833	1833	1843	1853	1853	1853	1873	1883	1904	1904	1915	1925	1936	1947	1947	1969	1980	2003	2003	2015	2027	2027	2039	2051	2063	2076	2088	2088	2088	2114	2114	2114	2127	2140	2140	2153	2167	2167	2181	2181	2181	2194	2478	2478	2460	2460	2460	2460	2443	2443	2443	2443	2460	2460	2460	2460	2478	2478	2478	2478	2496	2496	2514	2514	2514	2514	2496	2496	3510	3510	3510	3510	3510	3546	3546	3546	3546	3546	3546	3510	3510	3510	3510	3510	3510	3510	3510	3510	3510	3510	3510	3510	3510	3510	3510	3510	3475	3475	3475	3475	3475	3475	3475	3475	3475	3475	3475	3475	3475	3475	3475	3510	3510	3510	3510	3546	3546	3546	3510	3510	3546	3510	3510	3510	3510	3510	3510	3510	3510	3510	3510	3546	3546	3546	3546	3510	3546	3546	3546	3546	3546	3546	3546	3546	3546	3583	3546	3546	3546	3546	3546	3546	3546	3546	3546	3583	3546	3546	3583	3546	3546	3583	3546	3546	3546	3546	3546	3546	3546	3546	3583	3583	3583	3546	3583	3583	2669	2669	2690	2690	2690	2690	2690	2690	2690	2690	2669	2669	2669	2669	2669	2669	2669	2669	2669	2669	2649	2669	2649	2669	2669	2669	2669	2669	2669	2669	2669	2669	2669	2669	2669	2669	2669	2669	2669	2669	2669	2669	2669	2669	2669	2669	2669	2669	2669	2669	2669	2669	2669	2649	2649	2649	2649	2649	2649	2649	2649	2629	2629	2629	2629	2629	2649	2669	2669	2669	2669	2669	2669	2669	2690	2690	2690	2711	2733	2733	2733	2754	2733	2733	2733	2711	2711	2711	2711	2711	2711	2711	2711	2711	3546	3546	3583	3583	3583	3583	3583	3583	3583	3583	3583	3583	3546	3546	3546	3546	3583	3583	3546	3546	3583	3546	3546	3546	3583	3583	3583	3583	3583	3583	3583	3583	3583	3583	3583	3583	3583	3583	3583	3583	3583	3583	3583	3583	3583	3583	3583	3583	3583	3583	3583	3583	3583	3583	3583	3583	3583	3583	3583	3583	3583	3583	3583	3583	3583	3583	3583	3583	3583	3583	3583	3583	3583	3583	3583	3583	3583	3583	3583	3583	3583	3583	3583	3583	3583	3583	3583	3583	3583	3583	3583	3583	3583	3583	3583	3583	3583	3583	3583	3583	3583	3583	3583	3583	3583	3583	3583	3583	3583	3583	3583	3583	3583	3583	3583	3583	3583	3583	3583	3583	3583	3583	3583	3583	3583	3583	3583	3583	3583	3546	3546	3546	3546	3546	3546	3546	3546	0	0	0	0	0	0	2223	2223	2223	2208	2181	2167	2167	2153	2140	2127	2127	2114	2101	2076	2063	2063	2051	2051	2039	2039	2027	2015	1980	1969	1969	1958	1947	1947	1936	1925	1925	1915	1904	1904	1894	1883	1883	1873	1863	1853	1843	1843	1833	1824	1814	1814	1804	1804	1786	1786	1777	1768	1750	1741	1741	1732	1732	1723	1715	1706	1706	1706	1690	1681	1673	1665	1657	1649	1649	1641	1641	1634	1618	1611	1603	1596	1589	1581	1581	1574	1574	1567	1553	1553	1546	1539	1539	1525	1525	1519	1512	1506	1499	1486	1480	1473	1473	1473	1473	1467	1467	1467	1467	1467	1467	1467	1473	1473	1480	1486	1492	1492	1492	1492	1492	1492	1492	1492	1492	1492	1492	1492	1492	0	0	0	0	0	0	0	0	0	0	0	0	0	0	0	0	0	0	0	0	0	0	0	0	0	0	0	0	0	0	0	0	0	0	0	0	0	0	0
0	0	0	0	0	0	0	0	0	0	0	0	1506	1506	1512	1519	1525	1532	1532	1539	1553	1553	1553	1560	1574	1581	1581	1589	1589	1596	1603	1603	1611	1618	1626	1634	1634	1641	1641	1649	1649	1657	1665	1673	1681	1690	1690	1706	1706	1715	1715	1732	1741	1750	1750	1768	1777	1777	1786	1786	1786	1795	1804	1814	1824	1833	1833	1853	1853	1853	1863	1873	1873	1894	1915	1915	1925	1925	1947	1958	1958	1980	2003	2015	2015	2027	2027	2039	2051	2063	2088	2088	2101	2101	2114	2114	2114	2127	2140	2140	2153	2167	2181	2181	2181	2194	2194	2194	2460	2460	2478	2478	2460	2443	2443	2443	2443	2460	2460	2460	2460	2478	2460	2478	2496	2514	2514	2514	2514	2514	2514	2514	3440	3475	3510	3510	3510	3510	3510	3546	3546	3546	3546	3546	3510	3510	3510	3510	3510	3510	3510	3475	3510	3510	3510	3510	3510	3510	3510	3510	3510	3475	3475	3475	3475	3475	3475	3440	3440	3440	3475	3440	3440	3440	3475	3475	3475	3475	3475	3510	3510	3546	3546	3510	3510	3546	3510	3510	3510	3510	3546	3510	3510	3510	3510	3546	3546	3546	3546	3546	3546	3546	3546	3546	3546	3546	3546	3546	3546	3546	3546	3546	3546	3546	3546	3546	3546	3546	3546	3546	3546	3583	3583	3583	3546	3583	3583	3583	3546	3546	3546	3546	3546	3546	3546	3583	3583	3583	3583	3583	3583	3583	3583	2669	2669	2690	2690	2690	2690	2669	2690	2690	2669	2669	2669	2669	2669	2669	2649	2669	2669	2649	2649	2649	2649	2669	2669	2669	2669	2669	2669	2669	2669	2669	2669	2669	2669	2669	2669	2669	2669	2669	2669	2669	2669	2669	2669	2669	2669	2669	2669	2669	2669	2669	2649	2649	2649	2649	2649	2629	2629	2629	2629	2629	2629	2629	2629	2649	2669	2669	2669	2669	2669	2669	2669	2690	2690	2690	2711	2754	2733	2733	2754	2733	2733	2733	2711	2711	2711	2711	2711	2711	2711	2711	3546	3546	3546	3583	3583	3583	3583	3583	3583	3583	3583	3583	3583	3546	3583	3583	3583	3546	3583	3583	3546	3583	3546	3546	3546	3583	3583	3583	3583	3583	3583	3583	3583	3583	3583	3583	3583	3583	3583	3583	3583	3583	3583	3583	3583	3583	3583	3583	3583	3583	3583	3583	3583	3583	3583	3583	3583	3583	3583	3583	3583	3546	3583	3583	3583	3583	3583	3546	3583	3583	3583	3583	3583	3583	3583	3583	3546	3583	3583	3583	3583	3583	3583	3583	3583	3583	3583	3583	3583	3583	3583	3583	3583	3583	3583	3583	3583	3583	3583	3583	3583	3583	3583	3583	3583	3583	3583	3583	3583	3583	3583	3583	3583	3583	3583	3583	3583	3583	3583	3583	3583	3583	3583	3583	3583	3583	3583	3583	3583	3583	3546	3546	3546	3546	3546	3546	3583	3583	0	0	0	0	0	0	0	2223	2223	2208	2194	2167	2153	2140	2140	2127	2127	2114	2101	2076	2063	2063	2051	2051	2039	2039	2027	2015	2003	1969	1969	1958	1947	1947	1947	1925	1925	1915	1894	1904	1894	1883	1873	1863	1853	1853	1843	1843	1833	1814	1814	1814	1804	1795	1786	1786	1777	1768	1750	1741	1741	1732	1732	1723	1715	1706	1715	1706	1690	1681	1673	1665	1657	1649	1649	1641	1634	1634	1626	1611	1603	1596	1589	1581	1581	1574	1574	1567	1553	1553	1546	1539	1532	1525	1519	1519	1512	1506	1506	1486	1480	1480	1473	1473	1473	1467	1467	1467	1467	1467	1467	1467	1473	1473	1486	1486	1492	1492	1492	1492	1492	1492	1492	1492	1492	1492	1492	1492	1492	0	0	0	0	0	0	0	0	0	0	0	0	0	0	0	0	0	0	0	0	0	0	0	0	0	0	0	0	0	0	0	0	0	0	0	0	0	0	0
0	0	0	0	0	0	0	0	0	0	0	0	1506	1506	1512	1512	1525	1532	1532	1546	1553	1553	1560	1560	1567	1574	1581	1581	1589	1596	1603	1603	1618	1626	1626	1634	1634	1641	1641	1649	1649	1657	1665	1681	1690	1690	1690	1706	1706	1715	1723	1732	1741	1741	1759	1768	1777	1777	1777	1786	1786	1795	1804	1824	1824	1824	1833	1833	1853	1853	1863	1873	1894	1904	1915	1915	1925	1925	1936	1958	1958	1969	1992	2003	2015	2027	2027	2039	2063	2076	2076	2088	2101	2101	2101	2101	2114	2127	2140	2140	2153	2181	2181	2181	2194	2194	2194	2194	2194	2252	2460	2460	2460	2443	2443	2443	2443	2460	2460	2460	2460	2478	2460	2478	2478	2496	2514	2514	2496	2496	2496	2496	3475	3475	3510	3510	3546	3510	3510	3546	3546	3510	3510	3510	3510	3475	3475	3475	3475	3475	3475	3475	3475	3475	3510	3510	3510	3510	3510	3510	3510	3475	3475	3475	3475	3440	3440	3440	3440	3440	3440	3440	3440	3440	3440	3475	3475	3475	3475	3510	3546	3546	3546	3510	3510	3510	3510	3510	3510	3510	3510	3510	3510	3510	3510	3546	3546	3546	3546	3546	3546	3546	3546	3546	3546	3546	3546	3546	3546	3546	3546	3546	3546	3546	3546	3546	3546	3546	3546	3546	3546	3583	3583	3583	3546	3546	3583	3583	3546	3546	3546	3546	3546	3546	3583	3583	3583	3583	3583	3583	3583	3583	3583	3583	3583	2690	2690	2690	2690	2669	2669	2669	2669	2669	2669	2669	2669	2669	2669	2669	2669	2649	2649	2649	2649	2669	2669	2669	2669	2669	2669	2669	2669	2669	2669	2669	2669	2669	2690	2690	2669	2669	2669	2669	2669	2669	2669	2669	2669	2669	2669	2669	2669	2669	2649	2649	2649	2649	2629	2629	2629	2629	2629	2629	2629	2629	2649	2649	2669	2669	2669	2669	2669	2669	2690	2690	2690	2711	2754	2754	2754	2733	2754	2754	2733	2733	2711	2711	2711	2711	2711	2711	2733	2733	3546	3583	3546	3583	3546	3546	3583	3583	3583	3583	3583	3583	3583	3583	3583	3583	3583	3583	3583	3546	3546	3583	3583	3546	3546	3546	3583	3583	3546	3546	3583	3583	3583	3583	3583	3583	3583	3583	3583	3583	3583	3583	3583	3583	3583	3583	3583	3583	3583	3583	3583	3583	3583	3583	3583	3583	3583	3583	3583	3583	3583	3583	3583	3583	3583	3583	3583	3546	3583	3583	3583	3583	3583	3583	3583	3583	3583	3583	3583	3583	3583	3583	3583	3583	3583	3583	3583	3583	3583	3583	3583	3583	3583	3583	3583	3583	3583	3583	3583	3583	3583	3583	3583	3583	3583	3583	3583	3583	3583	3583	3583	3583	3583	3583	3583	3583	3583	3583	3583	3583	3583	3583	3583	3583	3583	3583	3583	3583	3583	3583	3546	3546	3546	3546	3546	3510	3510	3510	0	0	0	0	0	0	2223	2223	2223	2208	2208	2181	2167	2153	2140	2140	2127	2114	2101	2088	2076	2063	2051	2051	2039	2039	2027	2015	2003	1980	1969	1958	1958	1947	1947	1925	1925	1915	1915	1904	1894	1883	1873	1863	1853	1853	1843	1843	1833	1814	1814	1814	1804	1804	1795	1786	1777	1768	1750	1750	1741	1732	1732	1723	1723	1706	1715	1706	1698	1681	1673	1665	1657	1649	1649	1641	1634	1634	1618	1611	1603	1596	1581	1581	1574	1574	1574	1567	1553	1546	1546	1539	1532	1525	1519	1519	1519	1512	1506	1486	1480	1473	1473	1473	1473	1467	1467	1467	1467	1467	1467	1467	1473	1473	1480	1486	1492	1492	1492	1492	1492	1492	1492	1486	1492	1492	1492	1492	1492	0	0	0	0	0	0	0	0	0	0	0	0	0	0	0	0	0	0	0	0	0	0	0	0	0	0	0	0	0	0	0	0	0	0	0	0	0	0	0
0	0	0	0	0	0	0	0	0	0	0	0	1506	1512	1519	1525	1525	1532	1539	1539	1553	1553	1553	1560	1567	1574	1574	1581	1589	1603	1611	1611	1618	1618	1626	1634	1634	1641	1641	1641	1649	1657	1673	1681	1690	1690	1690	1698	1706	1715	1723	1732	1741	1741	1759	1759	1768	1777	1777	1786	1786	1804	1814	1824	1833	1833	1833	1843	1853	1863	1873	1883	1894	1904	1904	1915	1915	1925	1936	1958	1958	1969	1992	2003	2003	2027	2027	2039	2051	2063	2076	2088	2101	2101	2101	2101	2114	2127	2140	2153	2167	2181	2181	2181	2194	2208	2208	2223	2237	2252	2252	2460	2460	2443	2443	2443	2443	2460	2460	2460	2460	2460	2478	2478	2478	2496	2496	2514	2496	2496	2496	2496	3510	3510	3546	3546	3546	3510	3546	3546	3546	3510	3510	3510	3510	3475	3475	3475	3475	3475	3475	3475	3475	3475	3475	3475	3475	3475	3475	3475	3510	3475	3475	3440	3440	3440	3440	3440	3440	3440	3440	3440	3440	3440	3440	3440	3475	3475	3475	3510	3510	3546	3546	3510	3510	3510	3510	3475	3475	3475	3510	3510	3546	3546	3546	3546	3546	3546	3546	3546	3510	3546	3546	3546	3546	3546	3546	3546	3546	3546	3546	3546	3546	3546	3546	3546	3546	3546	3546	3546	3546	3546	3546	3546	3546	3546	3546	3546	3546	3546	3546	3546	3546	3546	3546	3546	3583	3583	3583	3583	3583	3583	3583	3583	3546	2711	2690	2690	2690	2690	2690	2669	2669	2669	2669	2669	2669	2669	2669	2649	2649	2649	2649	2649	2649	2669	2669	2669	2669	2669	2669	2669	2669	2669	2669	2669	2669	2690	2690	2690	2690	2690	2690	2690	2690	2690	2669	2690	2669	2669	2669	2669	2669	2669	2669	2649	2649	2649	2629	2629	2629	2629	2629	2629	2649	2649	2649	2649	2669	2669	2669	2669	2669	2669	2690	2711	2711	2711	2754	2754	2754	2733	2754	2754	2733	2733	2711	2711	2711	2711	2711	2711	2711	2733	3583	3546	3546	3546	3546	3546	3583	3546	3583	3583	3583	3583	3583	3583	3583	3583	3583	3583	3583	3546	3546	3583	3583	3583	3583	3583	3583	3583	3583	3546	3583	3583	3583	3583	3583	3583	3583	3583	3583	3583	3583	3583	3583	3583	3583	3583	3583	3583	3583	3583	3583	3583	3583	3583	3583	3583	3583	3583	3583	3583	3583	3583	3583	3583	3583	3583	3583	3583	3583	3583	3546	3546	3546	3546	3546	3583	3583	3583	3583	3583	3583	3583	3583	3583	3583	3583	3583	3583	3583	3583	3583	3583	3583	3583	3583	3583	3583	3583	3583	3583	3583	3583	3583	3583	3583	3583	3583	3583	3583	3583	3583	3583	3583	3583	3583	3583	3583	3583	3583	3583	3546	3546	3583	3583	3583	3583	3583	3583	3583	3583	3546	3546	3546	3546	3546	3510	3510	3510	0	0	0	0	0	0	2223	2223	2223	2208	2194	2167	2153	2153	2140	2140	2127	2114	2101	2088	2076	2063	2051	2051	2039	2039	2015	2015	2003	1980	1980	1958	1958	1947	1947	1936	1925	1915	1915	1904	1894	1883	1873	1863	1853	1853	1843	1843	1833	1824	1814	1814	1804	1804	1786	1786	1777	1768	1768	1750	1741	1732	1732	1723	1723	1706	1706	1706	1698	1681	1673	1665	1657	1649	1649	1641	1634	1634	1626	1611	1603	1589	1581	1581	1574	1574	1567	1567	1553	1546	1539	1539	1532	1525	1525	1519	1519	1506	1506	1486	1480	1480	1473	1473	1467	1467	1467	1467	1467	1467	1467	1467	1473	1473	1480	1486	1492	1492	1492	1492	1492	1492	1486	1486	1492	1492	1492	1492	1492	0	0	0	0	0	0	0	0	0	0	0	0	0	0	0	0	0	0	0	0	0	0	0	0	0	0	0	0	0	0	0	0	0	0	0	0	0	0	0
0	0	0	0	0	0	0	0	0	0	0	0	1506	1512	1519	1525	1532	1532	1539	1539	1553	1553	1560	1560	1567	1567	1574	1581	1589	1603	1611	1618	1626	1626	1626	1634	1634	1641	1641	1641	1649	1657	1673	1681	1690	1690	1690	1698	1706	1715	1723	1732	1741	1750	1750	1750	1759	1768	1768	1786	1804	1814	1814	1824	1833	1833	1833	1853	1853	1863	1873	1883	1894	1904	1904	1915	1925	1925	1947	1958	1958	1969	1980	1992	1992	2003	2003	2015	2039	2051	2063	2088	2101	2101	2101	2101	2114	2140	2140	2153	2167	2181	2181	2194	2194	2208	2208	2223	2237	2252	2252	2266	2266	2426	2426	2443	2443	2460	2460	2460	2460	2460	2460	2460	2478	2496	2496	2514	2496	2496	2496	2496	3510	3510	3546	3546	3546	3546	3546	3546	3546	3546	3510	3546	3510	3475	3475	3475	3475	3475	3475	3475	3475	3475	3475	3475	3475	3475	3475	3475	3510	3475	3475	3440	3440	3440	3440	3440	3440	3440	3440	3440	3440	3440	3440	3475	3475	3475	3475	3510	3546	3546	3510	3510	3510	3510	3510	3510	3510	3510	3510	3546	3546	3546	3546	3546	3546	3546	3546	3546	3546	3546	3546	3546	3546	3546	3546	3546	3546	3546	3546	3546	3546	3546	3546	3546	3546	3546	3546	3546	3546	3583	3583	3546	3546	3546	3546	3546	3546	3546	3546	3546	3546	3546	3583	3583	3583	3583	3583	3583	3583	3583	3583	3583	3546	3546	3546	2733	2711	2690	2690	2669	2669	2669	2669	2669	2669	2669	2669	2649	2649	2649	2649	2649	2649	2649	2669	2669	2669	2669	2669	2669	2669	2669	2669	2669	2669	2690	2690	2690	2690	2690	2690	2690	2690	2690	2690	2690	2669	2669	2669	2669	2669	2669	2669	2649	2649	2649	2649	2629	2629	2629	2629	2649	2649	2649	2649	2649	2669	2669	2669	2669	2669	2690	2690	2711	2711	2711	2754	2754	2754	2754	2754	2733	2733	2733	2711	2711	2711	2711	2711	2711	2711	3583	3583	3546	3546	3546	3546	3546	3546	3546	3583	3583	3583	3583	3583	3583	3583	3583	3583	3583	3583	3583	3546	3583	3583	3583	3583	3583	3583	3583	3583	3546	3583	3583	3583	3583	3583	3583	3583	3583	3583	3583	3583	3583	3583	3583	3583	3583	3583	3583	3583	3583	3583	3583	3583	3583	3583	3583	3583	3583	3583	3583	3583	3583	3583	3583	3583	3583	3583	3583	3583	3583	3546	3546	3546	3583	3583	3583	3583	3583	3583	3583	3583	3583	3583	3583	3583	3583	3583	3583	3583	3583	3583	3583	3583	3583	3583	3583	3583	3583	3583	3583	3583	3583	3583	3583	3583	3583	3583	3583	3583	3583	3546	3583	3583	3583	3546	3583	3583	3583	3546	3546	3546	3583	3583	3583	3583	3583	3583	3583	3583	3583	3546	3546	3546	3546	3546	3510	3510	3510	3475	3475	0	0	0	0	2208	2223	2223	2208	2208	2181	2167	2153	2140	2140	2127	2114	2101	2088	2063	2063	2051	2051	2039	2039	2015	2015	2003	1980	1969	1958	1958	1958	1947	1925	1925	1915	1915	1904	1894	1883	1873	1863	1853	1853	1843	1843	1833	1824	1814	1814	1804	1795	1786	1786	1777	1777	1768	1750	1741	1741	1732	1723	1715	1706	1706	1706	1698	1681	1673	1665	1657	1649	1649	1641	1634	1634	1634	1611	1603	1596	1581	1581	1574	1574	1567	1560	1553	1546	1539	1539	1532	1525	1525	1519	1519	1512	1506	1486	1480	1473	1473	1473	1467	1467	1467	1467	1467	1467	1467	1467	1467	1473	1473	1480	1486	1486	1492	1492	1492	1492	1492	1486	1492	1492	1492	1492	1492	0	0	0	0	0	0	0	0	0	0	0	0	0	0	0	0	0	0	0	0	0	0	0	0	0	0	0	0	0	0	0	0	0	0	0	0	0	0	0
0	0	0	0	0	0	0	0	0	0	0	0	1506	1512	1519	1525	1532	1532	1539	1539	1553	1553	1560	1560	1567	1567	1574	1574	1589	1603	1611	1618	1618	1626	1626	1626	1634	1634	1641	1641	1649	1665	1681	1681	1690	1690	1690	1698	1706	1715	1732	1732	1741	1750	1750	1750	1759	1768	1768	1786	1804	1814	1814	1824	1824	1833	1833	1853	1853	1863	1873	1883	1894	1904	1904	1915	1925	1936	1947	1958	1958	1969	1980	1992	1992	1992	1992	1992	2027	2051	2063	2076	2088	2088	2101	2101	2114	2127	2140	2167	2181	2181	2194	2194	2208	2208	2208	2223	2237	2252	2266	2266	2266	2281	2297	2297	2426	2443	2443	2443	2460	2460	2460	2460	2460	2478	2496	2496	2496	2496	2496	2496	3546	3546	3546	3546	3546	3546	3546	3546	3546	3510	3510	3510	3510	3475	3475	3475	3475	3475	3475	3475	3475	3475	3475	3475	3510	3475	3475	3475	3510	3475	3475	3440	3440	3475	3440	3440	3440	3440	3440	3440	3440	3440	3440	3440	3475	3475	3475	3475	3546	3546	3546	3546	3546	3546	3510	3510	3510	3510	3546	3546	3546	3546	3546	3546	3546	3546	3546	3546	3546	3546	3546	3546	3546	3546	3546	3546	3546	3546	3546	3546	3546	3546	3546	3546	3546	3583	3546	3546	3546	3546	3546	3546	3546	3546	3546	3546	3546	3546	3546	3546	3546	3546	3546	3546	3546	3583	3583	3583	3583	3583	3583	3583	3546	3546	3546	2754	2733	2711	2690	2669	2669	2669	2669	2669	2669	2669	2669	2649	2649	2649	2649	2649	2649	2649	2669	2669	2669	2669	2669	2669	2669	2669	2669	2669	2690	2690	2690	2690	2690	2690	2711	2690	2690	2690	2690	2690	2669	2669	2669	2669	2669	2669	2669	2649	2649	2649	2649	2649	2649	2649	2649	2649	2649	2649	2649	2649	2669	2669	2669	2669	2669	2690	2690	2711	2711	2711	2754	2754	2733	2733	2733	2733	2733	2711	2711	2711	2711	2711	2711	2711	2711	3583	3583	3583	3546	3546	3546	3546	3546	3546	3583	3583	3583	3583	3583	3583	3583	3583	3583	3583	3583	3583	3546	3583	3583	3583	3583	3583	3583	3583	3583	3583	3583	3583	3583	3583	3583	3583	3583	3583	3583	3583	3583	3583	3583	3583	3583	3583	3583	3583	3583	3583	3583	3583	3583	3583	3583	3583	3583	3583	3583	3583	3583	3583	3583	3583	3583	3583	3583	3583	3583	3583	3583	3546	3546	3546	3583	3583	3583	3583	3583	3583	3583	3583	3583	3583	3583	3583	3583	3546	3546	3546	3583	3583	3583	3546	3583	3583	3583	3583	3583	3583	3583	3583	3583	3583	3583	3583	3546	3583	3583	3546	3546	3583	3583	3583	3546	3546	3583	3583	3583	3546	3546	3583	3583	3583	3583	3583	3583	3583	3583	3583	3546	3546	3546	3546	3546	3510	3510	3546	3546	3475	0	0	0	0	2208	2208	2208	2208	2208	2181	2167	2153	2153	2140	2127	2114	2101	2088	2076	2063	2051	2051	2039	2039	2015	2015	1992	1969	1969	1958	1958	1947	1936	1925	1925	1915	1915	1904	1894	1883	1873	1863	1853	1853	1843	1843	1833	1824	1814	1814	1804	1795	1795	1786	1777	1777	1768	1750	1741	1732	1732	1723	1715	1706	1706	1698	1698	1681	1673	1665	1665	1649	1649	1641	1634	1634	1634	1611	1603	1589	1581	1581	1574	1574	1567	1560	1560	1546	1539	1539	1532	1525	1525	1519	1512	1506	1506	1486	1480	1473	1473	1473	1467	1467	1467	1467	1461	1461	1467	1467	1467	1473	1473	1480	1486	1486	1486	1492	1492	1492	1492	1486	1492	1492	1492	1492	1492	0	0	0	0	0	0	0	0	0	0	0	0	0	0	0	0	0	0	0	0	0	0	0	0	0	0	0	0	0	0	0	0	0	0	0	0	0	0	0
0	0	0	0	0	0	0	0	0	0	0	0	1506	1512	1519	1525	1532	1532	1539	1546	1553	1553	1560	1560	1567	1574	1574	1581	1589	1603	1611	1618	1618	1626	1626	1634	1634	1641	1641	1641	1649	1665	1673	1681	1681	1690	1698	1698	1706	1715	1732	1741	1741	1750	1750	1750	1759	1759	1768	1786	1814	1824	1824	1824	1833	1833	1843	1853	1853	1863	1873	1883	1894	1894	1904	1915	1925	1936	1947	1958	1958	1969	1980	1980	1992	1992	1992	2003	2015	2039	2051	2076	2088	2088	2088	2101	2114	2127	2140	2181	2194	2194	2194	2194	2208	2208	2208	2223	2237	2252	2252	2266	2281	2297	2297	2312	2409	2443	2443	2443	2443	2443	2460	2460	2460	2478	2496	2496	2496	2496	2496	2496	3546	3546	3546	3546	3546	3546	3546	3546	3510	3510	3510	3510	3510	3475	3475	3475	3475	3475	3475	3475	3475	3475	3475	3510	3510	3510	3475	3475	3510	3475	3475	3440	3440	3475	3440	3440	3440	3440	3440	3440	3440	3440	3440	3440	3475	3475	3475	3510	3546	3546	3546	3546	3546	3546	3510	3510	3510	3510	3546	3546	3546	3546	3546	3583	3546	3546	3546	3546	3546	3546	3546	3546	3546	3546	3546	3546	3546	3546	3546	3546	3546	3546	3546	3546	3546	3546	3546	3546	3546	3546	3546	3546	3546	3546	3583	3546	3546	3546	3546	3546	3546	3546	3546	3546	3583	3583	3583	3583	3583	3583	3583	3583	3546	3583	3546	2754	2754	2733	2711	2690	2669	2669	2669	2669	2669	2669	2669	2669	2669	2669	2649	2649	2649	2669	2669	2669	2669	2669	2669	2669	2669	2669	2669	2669	2690	2690	2690	2690	2690	2711	2711	2711	2690	2690	2690	2690	2669	2669	2669	2669	2669	2649	2649	2649	2649	2649	2649	2649	2649	2629	2649	2649	2649	2649	2649	2649	2649	2669	2669	2669	2669	2690	2690	2711	2711	2711	2754	2754	2754	2733	2733	2733	2733	2711	2711	2711	2711	2711	2711	2711	3583	3583	3583	3583	3583	3583	3546	3546	3583	3583	3583	3583	3583	3583	3583	3583	3583	3583	3583	3583	3583	3546	3546	3583	3583	3583	3583	3583	3583	3583	3583	3583	3583	3583	3583	3583	3583	3583	3583	3583	3583	3583	3583	3583	3583	3583	3583	3583	3583	3583	3583	3583	3583	3583	3583	3583	3583	3583	3583	3583	3583	3583	3583	3583	3583	3583	3583	3583	3583	3621	3583	3583	3583	3546	3583	3546	3583	3583	3583	3583	3583	3583	3583	3583	3583	3583	3583	3583	3583	3583	3583	3583	3583	3583	3583	3583	3583	3583	3583	3583	3583	3583	3583	3583	3583	3583	3583	3583	3583	3583	3583	3583	3546	3546	3583	3546	3546	3583	3583	3583	3583	3546	3546	3583	3583	3583	3583	3583	3583	3583	3583	3583	3546	3546	3546	3546	3546	3546	3510	3583	3546	3546	0	0	0	0	2223	2223	2223	2208	2208	2194	2167	2153	2153	2140	2127	2114	2101	2088	2076	2063	2051	2051	2039	2039	2015	2015	1992	1969	1969	1958	1947	1936	1925	1925	1925	1915	1915	1904	1894	1883	1873	1863	1853	1843	1843	1843	1833	1814	1814	1804	1804	1795	1786	1786	1777	1777	1768	1750	1741	1741	1732	1723	1715	1706	1706	1698	1698	1681	1673	1665	1665	1649	1641	1641	1634	1634	1626	1611	1611	1596	1589	1581	1574	1574	1567	1560	1560	1553	1546	1539	1532	1525	1525	1519	1512	1506	1506	1486	1480	1480	1473	1473	1467	1467	1467	1467	1461	1461	1467	1467	1467	1473	1473	1480	1480	1486	1492	1492	1492	1492	1492	1486	1492	1492	1492	1492	1492	0	0	0	0	0	0	0	0	0	0	0	0	0	0	0	0	0	0	0	0	0	0	0	0	0	0	0	0	0	0	0	0	0	0	0	0	0	0	0
0	0	0	0	0	0	0	0	0	0	0	0	1506	1512	1519	1525	1532	1532	1539	1546	1553	1553	1560	1560	1567	1567	1574	1581	1596	1603	1611	1618	1618	1618	1626	1626	1626	1634	1641	1641	1649	1657	1673	1690	1698	1698	1698	1706	1715	1715	1732	1741	1741	1750	1750	1750	1759	1768	1777	1786	1814	1824	1824	1833	1833	1843	1843	1853	1863	1863	1873	1883	1894	1904	1915	1915	1925	1936	1947	1958	1958	1969	1980	1980	1992	1992	1992	2003	2003	2027	2027	2063	2088	2088	2088	2101	2101	2127	2153	2181	2181	2181	2181	2194	2194	2208	2208	2252	2252	2252	2266	2281	2281	2297	2297	2312	2343	2409	2426	2443	2443	2443	2460	2460	2460	2478	2478	2496	2496	2496	2478	2478	0	3546	3546	3546	3546	3546	3510	3510	3510	3510	3510	3510	3510	3510	3475	3475	3475	3475	3475	3475	3475	3475	3475	3510	3510	3510	3475	3475	3475	3475	3475	3440	3440	3440	3440	3440	3440	3440	3440	3440	3440	3440	3440	3475	3475	3475	3510	3510	3546	3583	3546	3546	3546	3546	3510	3510	3510	3546	3546	3546	3546	3546	3546	3583	3583	3546	3546	3546	3546	3546	3546	3546	3546	3546	3546	3546	3546	3546	3546	3546	3546	3546	3546	3546	3546	3546	3546	3546	3546	3546	3546	3546	3546	3546	3546	3546	3546	3546	3546	3546	3546	3546	3546	3546	3583	3583	3583	3583	3583	3583	3583	3546	3546	3583	2754	2754	2754	2711	2711	2690	2669	2669	2669	2669	2669	2669	2669	2669	2669	2669	2649	2649	2649	2669	2669	2669	2669	2669	2669	2669	2669	2669	2669	2690	2690	2690	2690	2690	2690	2711	2711	2711	2711	2711	2690	2690	2669	2669	2669	2669	2669	2649	2649	2649	2649	2649	2649	2649	2649	2629	2649	2629	2649	2649	2649	2629	2649	2669	2669	2669	2690	2690	2690	2711	2733	2733	2754	2754	2754	2754	2733	2733	2733	2711	2711	2711	2711	2711	2711	3621	3583	3583	3583	3583	3583	3583	3546	3583	3583	3583	3583	3583	3583	3583	3583	3583	3583	3583	3583	3583	3583	3583	3583	3583	3583	3583	3583	3583	3583	3583	3583	3546	3583	3583	3583	3583	3583	3583	3583	3583	3583	3583	3583	3583	3583	3583	3583	3583	3583	3583	3583	3583	3583	3583	3583	3583	3583	3546	3583	3583	3583	3583	3583	3583	3583	3583	3583	3583	3621	3621	3621	3583	3583	3546	3583	3583	3583	3583	3583	3583	3583	3583	3583	3583	3583	3583	3583	3583	3583	3546	3583	3583	3583	3583	3583	3583	3583	3583	3583	3583	3583	3583	3583	3583	3583	3583	3583	3546	3546	3546	3583	3583	3546	3583	3583	3546	3546	3546	3546	3546	3583	3546	3546	3583	3583	3546	3546	3546	3583	3583	3583	3546	3546	3546	3546	3546	3546	3546	3546	3546	3546	3583	3583	0	0	2237	2223	2223	2223	2208	2208	2194	2167	2167	2153	2140	2127	2114	2114	2101	2088	2063	2051	2051	2039	2027	2015	2003	2003	1992	1969	1958	1947	1936	1925	1925	1925	1915	1915	1904	1894	1883	1873	1863	1853	1843	1843	1843	1833	1814	1814	1804	1804	1795	1786	1786	1777	1777	1768	1750	1741	1741	1723	1723	1715	1706	1706	1698	1698	1690	1673	1665	1673	1657	1641	1641	1634	1626	1618	1611	1603	1596	1596	1581	1581	1574	1567	1560	1560	1553	1546	1546	1539	1525	1525	1519	1512	1506	1506	1499	1486	1480	1473	1473	1473	1467	1467	1467	1461	1461	1461	1461	1461	1473	1473	1480	1486	1486	1486	1492	1492	1492	1492	1486	1486	1492	1492	1492	1492	0	0	0	0	0	0	0	0	0	0	0	0	0	0	0	0	0	0	0	0	0	0	0	0	0	0	0	0	0	0	0	0	0	0	0	0	0	0	0
0	0	0	0	0	0	0	0	0	0	0	0	0	1512	1512	1525	1532	1532	1539	1546	1553	1553	1560	1560	1567	1574	1574	1589	1596	1603	1611	1611	1618	1618	1618	1626	1634	1641	1641	1649	1649	1665	1673	1690	1690	1698	1698	1706	1715	1715	1732	1741	1741	1750	1750	1750	1759	1768	1777	1786	1804	1814	1824	1824	1833	1833	1843	1853	1853	1863	1873	1883	1894	1904	1915	1915	1936	1936	1947	1958	1958	1969	1980	1980	1992	1992	2003	2003	2015	2027	2051	2063	2088	2088	2101	2101	2101	2140	2153	2167	2167	2181	2181	2194	2208	2223	2223	2252	2252	2252	2266	2266	2266	2281	2297	2297	2327	2376	2409	2426	2426	2426	2460	2460	2460	2460	2478	2478	2478	2496	2478	2478	0	3546	3546	3546	3546	3546	3510	3510	3510	3510	3510	3510	3510	3510	3475	3475	3440	3440	3475	3475	3475	3475	3475	3510	3510	3510	3475	3475	3475	3475	3475	3440	3440	3440	3440	3440	3440	3440	3440	3440	3440	3440	3440	3475	3475	3510	3510	3510	3546	3583	3546	3546	3546	3546	3546	3546	3510	3546	3546	3546	3546	3546	3546	3583	3583	3546	3546	3546	3546	3546	3546	3546	3546	3546	3546	3546	3546	3546	3546	3546	3546	3546	3546	3546	3546	3546	3546	3546	3546	3546	3546	3546	3546	3546	3546	3546	3546	3546	3546	3546	3546	3546	3546	3546	3583	3583	3583	3583	3583	3583	3583	3546	3546	3583	2754	2754	2754	2711	2711	2690	2669	2669	2669	2669	2669	2669	2669	2669	2669	2669	2649	2669	2649	2669	2669	2669	2669	2669	2669	2669	2669	2669	2669	2669	2669	2690	2711	2711	2711	2733	2733	2733	2711	2711	2690	2690	2669	2669	2669	2669	2669	2649	2649	2649	2649	2649	2649	2649	2649	2629	2649	2629	2629	2629	2649	2629	2649	2669	2669	2669	2690	2690	2690	2711	2733	2733	2777	2777	2777	2754	2733	2711	2733	2711	2711	2711	2711	3583	3583	3583	3583	3583	3583	3583	3583	3583	3546	3583	3583	3583	3583	3583	3583	3583	3583	3583	3583	3583	3583	3583	3546	3546	3546	3583	3583	3583	3583	3583	3583	3583	3583	3583	3583	3583	3583	3583	3583	3583	3583	3546	3583	3583	3583	3583	3583	3583	3583	3583	3583	3583	3583	3583	3583	3583	3583	3583	3583	3583	3583	3583	3583	3583	3583	3621	3621	3621	3621	3621	3621	3621	3583	3583	3583	3583	3583	3583	3583	3583	3583	3583	3583	3583	3583	3583	3583	3583	3583	3583	3583	3546	3583	3583	3583	3583	3583	3583	3583	3583	3583	3583	3583	3583	3583	3583	3546	3583	3546	3546	3546	3546	3583	3546	3546	3583	3546	3546	3546	3546	3546	3546	3583	3546	3583	3583	3583	3546	3546	3546	3583	3546	3546	3546	3546	3546	3583	3583	3583	3546	3546	3583	3583	3583	3583	0	0	2237	2223	2223	2223	2208	2208	2194	2153	2153	2140	2127	2127	2114	2114	2101	2088	2063	2051	2051	2039	2027	2015	2003	1992	1980	1969	1958	1947	1936	1925	1925	1925	1915	1915	1904	1904	1883	1883	1873	1853	1853	1843	1843	1833	1814	1814	1804	1804	1795	1795	1777	1777	1768	1768	1750	1741	1732	1732	1723	1715	1706	1706	1698	1698	1690	1673	1681	1665	1657	1641	1634	1634	1626	1618	1611	1603	1596	1596	1589	1581	1574	1567	1560	1560	1553	1546	1546	1539	1525	1525	1519	1512	1506	1506	1492	1480	1480	1473	1473	1473	1467	1467	1467	1461	1461	1461	1461	1467	1473	1473	1473	1480	1480	1486	1492	1492	1492	1492	1492	1486	1486	1492	1492	1492	0	0	0	0	0	0	0	0	0	0	0	0	0	0	0	0	0	0	0	0	0	0	0	0	0	0	0	0	0	0	0	0	0	0	0	0	0	0	0
0	0	0	0	0	0	0	0	0	0	0	0	0	1512	1512	1525	1532	1532	1546	1546	1553	1553	1560	1560	1567	1567	1574	1581	1589	1589	1611	1611	1618	1618	1618	1626	1634	1641	1641	1649	1657	1665	1681	1690	1698	1698	1706	1706	1715	1715	1732	1741	1741	1750	1750	1750	1759	1768	1777	1786	1804	1814	1824	1824	1833	1833	1833	1853	1863	1863	1873	1883	1894	1894	1904	1915	1925	1936	1947	1947	1958	1969	1980	1980	1992	1992	2003	2003	2015	2027	2051	2051	2063	2063	2088	2114	2127	2140	2153	2167	2181	2181	2194	2208	2208	2223	2237	2252	2252	2252	2266	2266	2266	2281	2297	2297	2312	2359	2409	2409	2426	2426	2443	2460	2460	2460	2478	2496	2478	2496	2496	2496	0	3546	3546	3546	3546	3546	3510	3510	3510	3510	3510	3510	3510	3475	3475	3475	3440	3440	3475	3475	3475	3475	3475	3475	3510	3510	3475	3475	3475	3475	3440	3440	3440	3440	3440	3440	3440	3440	3440	3440	3475	3440	3475	3475	3510	3510	3510	3510	3510	3546	3546	3546	3546	3546	3546	3546	3546	3546	3546	3546	3546	3546	3546	3546	3583	3546	3546	3546	3510	3546	3546	3546	3546	3546	3546	3546	3546	3546	3546	3546	3546	3546	3546	3546	3546	3546	3546	3546	3546	3546	3546	3546	3546	3546	3546	3546	3546	3546	3546	3546	3546	3546	3546	3546	3546	3546	3546	3583	3583	3583	3546	3546	3546	3583	2754	2754	2754	2733	2711	2690	2669	2669	2669	2669	2669	2669	2669	2669	2669	2669	2669	2649	2649	2649	2669	2669	2669	2669	2669	2669	2669	2669	2669	2690	2690	2690	2711	2711	2733	2733	2733	2733	2733	2711	2690	2690	2669	2669	2669	2669	2669	2649	2649	2649	2649	2649	2649	2649	2649	2649	2649	2629	2629	2629	2629	2629	2649	2669	2669	2669	2690	2690	2690	2733	2733	2711	2754	2754	2754	3583	3583	2711	2711	2711	3546	3546	3583	3583	3583	3583	3583	3583	3583	3583	3583	3583	3583	3583	3583	3583	3583	3583	3583	3583	3583	3546	3583	3583	3546	3583	3546	3546	3546	3583	3583	3583	3583	3583	3583	3583	3583	3583	3583	3583	3583	3583	3583	3583	3583	3546	3583	3583	3583	3583	3583	3583	3583	3583	3583	3583	3583	3583	3583	3583	3583	3583	3583	3546	3546	3583	3583	3583	3583	3621	3621	3621	3621	3621	3621	3621	3583	3583	3583	3546	3583	3583	3583	3583	3583	3583	3583	3583	3583	3583	3583	3583	3583	3546	3546	3546	3583	3583	3583	3583	3583	3583	3583	3583	3583	3583	3583	3583	3583	3546	3546	3546	3546	3546	3546	3546	3546	3546	3546	3583	3546	3546	3546	3546	3546	3546	3583	3546	3583	3583	3583	3546	3546	3546	3546	3546	3546	3546	3546	3546	3583	3583	3583	3583	3583	3583	3583	3583	3546	3546	0	2237	2223	2223	2223	2208	2208	2194	2167	2153	2153	2140	2127	2114	2101	2101	2088	2063	2051	2051	2039	2027	2015	2003	1992	1980	1969	1958	1947	1936	1936	1925	1925	1915	1915	1904	1915	1883	1883	1873	1863	1853	1843	1843	1833	1824	1814	1804	1804	1795	1786	1777	1768	1768	1759	1741	1741	1732	1723	1715	1706	1706	1698	1698	1698	1698	1681	1673	1665	1665	1657	1634	1634	1626	1618	1603	1603	1596	1596	1589	1581	1581	1574	1567	1560	1553	1546	1546	1532	1525	1519	1519	1512	1506	1499	1492	1480	1473	1473	1473	1467	1467	1467	1461	1461	1461	1461	1461	1467	1467	1467	1473	1480	1480	1486	1492	1492	1492	1492	1492	1492	1492	1492	1492	1492	0	0	0	0	0	0	0	0	0	0	0	0	0	0	0	0	0	0	0	0	0	0	0	0	0	0	0	0	0	0	0	0	0	0	0	0	0	0	0
